ply
format ascii 1.0
element face 0
property list uchar int vertex_indices
element vertex 876
property float x
property float y
property float z
property uchar diffuse_red
property uchar diffuse_green
property uchar diffuse_blue
end_header
-2.339432e+000 -7.884698e-001 -1.068568e+001 66 60 62
-2.339432e+000 -7.884698e-001 -1.068568e+001 66 60 62
-9.259366e-001 -1.520935e+000 -8.161397e+000 199 191 183
-9.493913e-001 -1.507067e+000 -8.234959e+000 199 191 183
-7.026417e-001 -2.414200e+000 -8.191787e+000 199 189 180
-4.879231e-001 4.828593e+000 -9.108974e+000 48 46 52
3.743788e-001 3.431715e+000 -7.623730e+000 39 38 31
1.369775e-001 3.141906e+000 -8.076213e+000 198 76 75
3.966884e+000 2.504447e-002 -5.496105e+000 59 55 56
3.127965e+000 -6.596453e-001 -5.534437e+000 39 37 42
3.066048e-002 -4.120867e-001 -4.605823e+000 203 125 93
7.257494e-001 -4.643213e-001 -5.515118e+000 162 163 157
7.260875e-001 -4.630083e-001 -5.520144e+000 162 163 157
3.199024e-001 -8.091351e-001 -4.878199e+000 54 26 24
3.886470e-001 -1.020059e+000 -5.148551e+000 82 69 61
-1.565045e+000 -6.053398e-001 -4.030791e+000 32 20 21
-3.358945e-001 -1.369544e+000 -4.702091e+000 84 30 17
9.196750e-002 -1.426047e+000 -5.052301e+000 147 87 55
-1.203923e+000 -2.463467e+000 -8.662243e+000 192 55 59
-2.312003e-002 3.158259e+000 -8.211090e+000 55 56 61
1.790538e+000 8.655716e-001 -5.785489e+000 237 240 231
4.051901e-001 1.519121e+000 -6.918320e+000 204 205 197
-9.895777e-001 -4.209236e-001 -4.205181e+000 158 81 55
-8.793251e-001 -5.801824e-001 -4.171949e+000 99 44 26
-1.299319e+000 -6.708545e-001 -4.032336e+000 73 28 28
1.202534e+000 -1.043149e+000 -5.848212e+000 157 155 151
-6.810652e-001 -9.910911e-001 -4.159633e+000 64 27 16
1.919171e+000 -1.431466e+000 -6.248880e+000 87 32 30
-1.543295e+000 -7.596567e-001 -3.996211e+000 40 26 23
1.922428e-002 -1.337514e+000 -4.927310e+000 185 102 50
-1.461885e+000 -1.515860e+000 -8.976210e+000 182 67 64
8.087103e-001 3.291468e+000 -7.356752e+000 198 82 83
1.624294e+000 1.661888e+000 -5.978473e+000 202 198 187
3.058146e+000 -2.290927e-002 -5.175458e+000 121 109 70
2.693052e+000 1.072430e-001 -5.813869e+000 96 88 68
8.310035e-001 -4.942647e-001 -5.593664e+000 103 97 87
-2.892396e+000 -1.286161e+000 -1.122409e+001 68 69 73
6.714595e-001 -2.618476e+000 -7.229952e+000 115 38 43
-7.522055e-001 -2.607459e+000 -8.216793e+000 209 202 192
-1.031859e+000 -2.845970e+000 -8.431790e+000 177 58 60
7.512268e-001 3.479333e+000 -7.348489e+000 28 24 25
-1.958498e-001 4.565779e+000 -8.895227e+000 65 64 69
1.330522e+000 1.002049e+000 -5.946228e+000 254 255 223
1.541771e-001 -1.306797e+000 -5.059096e+000 57 28 24
-2.223301e-001 -1.438971e+000 -4.936238e+000 116 61 41
-3.102446e+000 -1.011906e+000 -1.107587e+001 26 21 25
-1.269809e+000 -1.658119e+000 -8.445315e+000 211 211 201
-1.299225e+000 -1.870570e+000 -8.658962e+000 130 84 76
5.599352e-001 3.403389e+000 -7.625685e+000 202 86 87
-5.672859e-001 4.515319e+000 -9.282283e+000 34 29 33
1.726810e+000 1.049120e+000 -5.765237e+000 204 204 192
1.879630e+000 -1.590165e+000 -6.271911e+000 186 76 75
-5.960645e-001 -1.284913e+000 -4.864343e+000 64 29 23
2.472750e-001 -1.944216e+000 -7.385386e+000 133 119 103
-8.517634e-001 -2.239886e+000 -8.536867e+000 207 205 193
-9.013074e-001 4.094064e+000 -9.324901e+000 84 85 90
1.320964e+000 -1.143490e+000 -6.179910e+000 59 27 25
1.202041e+000 2.446474e+000 -6.650531e+000 88 82 56
-1.093644e+000 -6.873830e-001 -4.042310e+000 203 110 69
-3.307317e+000 -1.393989e+000 -1.154090e+001 66 65 71
3.232435e+000 2.059708e-001 -5.545038e+000 144 131 87
7.174322e-001 2.917966e+000 -7.970770e+000 228 228 220
-6.331231e-001 -9.198348e-001 -4.809701e+000 68 27 21
9.723532e-001 2.596113e+000 -6.722212e+000 118 107 75
1.209728e+000 2.730595e+000 -6.225979e+000 205 190 132
1.984216e+000 1.503627e+000 -5.931116e+000 210 204 194
1.984216e+000 1.503627e+000 -5.931116e+000 210 204 194
2.772441e+000 1.552408e+000 -5.952797e+000 102 99 106
5.576266e-002 -1.506737e-001 -5.573156e+000 156 147 106
5.576266e-002 -1.506737e-001 -5.573156e+000 156 147 106
3.365782e-001 -5.027828e-002 -5.562118e+000 168 173 163
4.428174e-002 -4.002594e-002 -4.905617e+000 165 175 167
2.403916e-001 -8.953748e-002 -5.042216e+000 158 162 151
2.403916e-001 -8.953748e-002 -5.042216e+000 158 162 151
1.567636e+000 4.955185e-001 -4.946884e+000 216 217 209
-1.380425e+000 -4.757194e-001 -4.159401e+000 131 112 80
-1.116731e+000 -3.786419e-001 -4.146138e+000 140 75 49
1.458691e+000 2.649635e+000 -6.615873e+000 236 224 211
1.856207e+000 2.227869e+000 -6.101509e+000 207 198 187
1.539070e-001 3.672754e-001 -6.260768e+000 195 198 187
-5.753925e-001 -2.199651e-001 -4.933594e+000 212 122 75
2.541737e-001 3.088922e-004 -5.573073e+000 210 212 207
6.965380e-001 -1.010269e-001 -5.359929e+000 153 156 147
-1.425454e+000 -6.159747e-001 -4.076263e+000 83 62 40
-1.376378e+000 -5.174289e-001 -4.126445e+000 160 145 89
-9.246195e-001 -4.666174e-001 -4.217548e+000 96 35 18
-1.358532e+000 -6.242817e-001 -4.079198e+000 143 120 76
-1.385264e+000 -6.822620e-001 -4.052683e+000 95 74 30
8.850799e-002 -4.145076e-001 -4.641899e+000 174 92 68
-6.304470e-001 -5.544728e-001 -4.227980e+000 200 160 111
-9.591743e-001 -7.299299e-001 -3.979733e+000 145 63 33
1.752283e+000 -1.350236e+000 -6.102794e+000 136 78 55
1.012067e+000 1.872075e+000 -6.315395e+000 116 106 72
1.480099e-001 5.864557e-001 -6.673959e+000 231 234 223
9.913631e-002 3.469106e-001 -6.316927e+000 199 200 187
2.230436e+000 1.359669e+000 -5.833056e+000 181 72 79
2.302665e+000 1.375818e+000 -5.877460e+000 169 77 81
2.969255e+000 1.602622e+000 -5.987044e+000 119 117 122
-9.728328e-001 -8.198413e-001 -8.495020e+000 190 192 179
-3.304748e-001 -1.602744e-001 -4.598057e+000 163 148 126
-3.139510e-001 -2.130499e-001 -4.777702e+000 62 54 54
-1.674513e+000 -6.996070e-001 -4.336005e+000 158 143 71
-8.473768e-001 -4.315649e-001 -4.325716e+000 157 125 104
-8.473768e-001 -4.315649e-001 -4.325716e+000 157 125 104
-7.637959e-001 -4.363104e-001 -4.473070e+000 101 42 21
-5.275195e-001 -4.965711e-001 -4.699484e+000 200 158 117
-1.440250e+000 -7.239710e-001 -3.974471e+000 66 55 35
-6.055602e-001 -5.680580e-001 -4.263796e+000 153 115 69
9.201144e-001 2.688964e+000 -7.078777e+000 220 214 202
1.433594e+000 2.783625e+000 -6.636360e+000 237 214 199
1.604960e+000 2.716590e+000 -6.509105e+000 231 194 182
6.931091e-001 2.271399e+000 -7.049177e+000 196 193 183
1.654271e+000 2.216238e+000 -6.288558e+000 205 199 185
1.654271e+000 2.216238e+000 -6.288558e+000 205 199 185
1.082106e+000 1.258764e+000 -6.465475e+000 163 164 145
1.085264e+000 1.256615e+000 -6.483085e+000 163 164 145
1.188468e+000 1.204900e+000 -6.515676e+000 223 222 204
1.178060e+000 1.050228e+000 -6.275320e+000 117 111 79
4.539298e-001 4.915171e-001 -6.281193e+000 233 238 230
-1.544986e+000 -1.530660e+000 -8.858990e+000 163 60 55
-6.067946e-001 -2.908259e-001 -4.863672e+000 198 112 63
2.520554e+000 2.026926e-001 -5.925784e+000 47 37 42
-1.285519e+000 -5.071753e-001 -4.085961e+000 57 13 10
4.113789e-001 -1.933626e-001 -4.764799e+000 146 143 134
-3.615403e-001 -1.450012e+000 -4.627269e+000 159 80 31
8.012433e-001 2.119190e+000 -6.818757e+000 209 209 199
-7.971268e-001 1.344947e+000 -8.608035e+000 215 206 189
4.711529e-001 1.751873e+000 -7.091433e+000 186 186 178
2.304321e-001 1.390264e+000 -7.006879e+000 231 234 223
-1.454889e+000 -1.445934e+000 -8.908450e+000 182 66 63
-1.332307e+000 -1.451629e+000 -8.685443e+000 201 198 186
-6.371193e-001 -3.321040e-001 -4.830978e+000 139 49 23
-6.371193e-001 -3.321040e-001 -4.830978e+000 139 49 23
2.305895e-001 -5.285030e-002 -5.159219e+000 183 186 177
-6.896009e-001 -4.776154e-001 -4.655961e+000 127 52 27
-3.509963e-002 -3.689855e-001 -4.682203e+000 202 160 117
1.623051e+000 2.744762e+000 -6.396277e+000 177 73 70
1.659226e+000 2.655697e+000 -6.364901e+000 231 219 207
-9.268254e-001 1.291329e+000 -8.766174e+000 202 71 73
-6.640341e-001 1.213645e+000 -8.419464e+000 235 238 229
3.031573e-001 1.106911e+000 -6.740027e+000 226 231 222
1.332861e+000 1.531100e+000 -6.099461e+000 159 150 106
-1.040206e+000 -4.226025e-001 -8.645785e+000 222 223 209
6.825677e-002 2.850836e-001 -6.310123e+000 164 164 152
-1.950173e+000 -1.888387e+000 -9.634076e+000 53 52 56
-3.071140e-001 -1.040928e-001 -5.287295e+000 184 107 70
2.409476e+000 4.840148e-001 -5.663840e+000 44 42 45
-1.487015e+000 -6.131702e-001 -4.024473e+000 30 19 19
-3.569505e-001 -6.771862e-001 -4.524487e+000 99 51 29
-4.455391e-002 -7.312669e-001 -4.804870e+000 174 132 91
4.903767e-002 -1.145105e+000 -4.815857e+000 111 40 31
-2.154154e-001 -1.213845e+000 -4.532016e+000 125 55 30
1.261625e-001 1.169206e+000 -7.021493e+000 234 237 226
1.137098e+000 1.160052e+000 -6.375512e+000 229 232 220
-7.995806e-001 -4.606288e-001 -4.571453e+000 112 58 42
-2.609000e-001 -6.748360e-001 -4.607026e+000 172 137 96
-4.341446e-001 2.044354e+000 -8.149437e+000 163 60 60
1.191131e+000 1.962779e+000 -6.496957e+000 209 198 141
-8.504249e-001 -3.472594e-002 -8.485210e+000 219 221 210
1.955346e-001 3.879786e-001 -6.484174e+000 232 235 224
-1.609851e-001 -5.725561e-002 -4.710082e+000 158 159 145
-2.009036e-001 -1.686866e-001 -4.627552e+000 157 78 65
3.245683e-002 -5.401406e-001 -4.650835e+000 205 171 123
4.018504e-003 -1.158962e+000 -4.670163e+000 178 89 47
-4.307521e-003 3.225147e-001 -6.774552e+000 178 180 169
-1.584043e+000 -7.249141e-001 -4.032905e+000 201 176 119
-1.554832e+000 -6.756814e-001 -3.962936e+000 201 176 119
1.093990e+000 -7.750983e-001 -5.654007e+000 198 198 180
-4.856937e-001 -9.563617e-001 -4.441917e+000 105 44 25
9.322105e-001 -7.824473e-001 -5.067364e+000 125 112 95
-7.189654e-001 -9.202352e-001 -3.874925e+000 27 17 18
-4.248396e-004 2.834552e-001 -6.888646e+000 177 181 167
-4.135967e-001 -3.988808e-001 -4.618202e+000 212 176 126
-3.908542e-001 -1.192779e+000 -4.513977e+000 145 69 33
-7.515071e-002 4.113068e-002 -5.581036e+000 200 202 195
6.389453e-001 -5.772293e-001 -5.502422e+000 53 40 34
3.263958e-001 -3.761082e-001 -4.646794e+000 174 174 161
-1.044400e+000 -7.633789e-001 -3.945012e+000 202 106 55
5.309213e-001 -9.021828e-001 -4.974981e+000 72 28 27
2.538397e+000 9.289289e-001 -5.760114e+000 219 216 207
-3.869225e-001 -7.805796e-001 -4.503646e+000 85 29 17
-3.869225e-001 -7.805796e-001 -4.503646e+000 85 29 17
1.273068e+000 1.313412e+000 -5.982710e+000 103 97 70
1.275963e+000 1.312277e+000 -5.993533e+000 103 97 70
-3.239513e-001 -4.180377e-002 -5.179355e+000 157 92 63
1.523921e+000 -2.614239e-001 -5.531688e+000 102 85 60
8.075694e-002 -7.840241e-001 -4.599223e+000 220 180 127
8.377730e-001 1.005338e+000 -6.887180e+000 232 238 231
4.022724e-001 6.008278e-001 -6.208929e+000 203 206 197
1.628160e+000 4.718517e-001 -5.527783e+000 202 204 193
-2.220368e+000 -9.568062e-001 -1.025343e+001 39 37 38
1.756695e+000 4.367437e-001 -5.646600e+000 208 210 197
-5.754991e-001 -5.717563e-001 -4.275865e+000 178 139 102
-1.353468e-001 -1.349143e+000 -4.876787e+000 104 42 21
1.775857e-001 6.764760e-001 -6.510776e+000 207 209 195
1.779921e+000 -7.437511e-001 -6.285467e+000 94 55 38
-3.352021e+000 -1.247608e+000 -1.112129e+001 80 79 84
-5.151340e-001 -1.211131e-001 -4.957840e+000 153 84 50
-6.133095e-001 -4.329300e-001 -4.679651e+000 187 96 52
-3.820494e-001 -1.714546e-001 -4.586437e+000 66 52 53
1.685366e+000 -7.076494e-001 -6.187615e+000 138 104 81
-6.979882e-001 2.077158e+000 -8.636865e+000 195 71 75
1.700397e+000 2.585536e+000 -6.290654e+000 194 185 168
3.160748e-001 1.374889e+000 -7.067906e+000 204 206 193
1.405073e+000 6.015667e-001 -5.786673e+000 221 224 213
3.329969e-001 -2.385033e-001 -4.930191e+000 127 123 111
-2.008873e-001 -1.202710e+000 -4.732993e+000 134 66 41
-1.206322e+000 1.530200e+000 -8.786169e+000 46 39 49
2.667960e-001 1.608207e-002 -5.364293e+000 189 192 179
-7.720211e-001 -4.354106e-001 -4.380196e+000 167 136 111
2.237745e+000 -9.228853e-002 -6.010605e+000 163 68 65
-7.367705e-001 1.564588e+000 -8.367483e+000 232 233 227
1.618891e+000 2.641697e+000 -6.255471e+000 236 220 209
-2.120084e+000 -1.510501e+000 -1.009630e+001 37 25 32
-4.431896e-001 -5.341839e-001 -4.598490e+000 145 77 48
-7.463086e-002 -3.709858e-001 -4.677721e+000 200 151 108
-8.201457e-001 -7.877424e-001 -4.102110e+000 111 46 29
-1.725452e+000 5.136084e-001 -9.204105e+000 44 35 38
1.419542e+000 -1.181768e+000 -6.149266e+000 86 39 33
2.303420e+000 1.681642e+000 -5.601911e+000 47 30 35
1.269584e+000 9.734933e-001 -6.201617e+000 255 255 231
-7.800203e-001 -4.477123e-001 -4.884910e+000 183 95 47
-4.225230e-001 -1.746113e-001 -4.708513e+000 123 68 58
-8.625244e-001 -5.117639e-001 -4.277404e+000 100 63 44
2.182513e+000 -7.770438e-002 -5.862098e+000 150 64 63
2.640292e+000 -1.005977e+000 -6.120293e+000 34 28 30
-4.733739e-001 1.315421e+000 -8.667789e+000 242 243 235
1.737808e+000 -1.084114e-001 -5.902141e+000 103 86 76
-4.307384e-001 -1.139827e+000 -4.519340e+000 142 75 46
2.753755e+000 6.765911e-001 -5.958430e+000 98 98 103
3.622692e-001 -8.101536e-001 -4.885718e+000 118 62 61
8.788056e-001 2.909841e+000 -7.190093e+000 188 106 105
6.196969e-001 2.119253e+000 -6.975253e+000 209 210 202
2.559494e-001 4.639001e+000 -8.834058e+000 42 37 41
9.002880e-001 3.011026e+000 -7.181661e+000 169 80 73
9.566336e-001 -7.431964e-001 -5.830425e+000 196 200 190
-6.837053e-001 -1.881071e+000 -8.275127e+000 194 195 181
8.454750e-001 -7.979766e-001 -5.719067e+000 140 136 130
-1.589720e+000 -1.309169e+000 -9.071696e+000 192 60 61
-1.801491e+000 -1.447964e+000 -9.357007e+000 184 57 55
1.256805e+000 -1.872754e+000 -6.356273e+000 187 181 169
2.024509e+000 1.503695e+000 -5.879365e+000 201 186 174
2.380737e-002 3.831623e-002 -5.649779e+000 188 193 185
6.142893e-002 -1.588424e-001 -4.707550e+000 183 185 174
1.428918e+000 2.707232e+000 -6.580790e+000 235 223 207
2.753583e-001 1.234098e+000 -6.806271e+000 209 211 198
1.158153e+000 1.478400e+000 -6.271479e+000 130 124 90
7.239718e-001 -2.318922e-001 -5.414100e+000 165 168 159
-9.616734e-001 -5.425406e-001 -4.042966e+000 171 94 60
-6.772290e-001 -7.022398e-001 -4.194183e+000 105 82 63
-3.971929e-001 -1.395434e+000 -4.575798e+000 55 26 18
1.429498e+000 2.815971e+000 -6.583219e+000 201 76 77
4.299682e-001 1.239981e+000 -6.784674e+000 199 202 192
4.299682e-001 1.239981e+000 -6.784674e+000 199 202 192
-3.069114e-001 -1.434052e-001 -4.621576e+000 62 54 54
7.978144e-001 8.173640e-001 -6.569579e+000 211 215 200
-4.931048e-001 -1.279134e-001 -5.084759e+000 141 79 49
-3.615058e-001 -1.458148e+000 -4.634344e+000 159 80 31
2.194728e+000 1.396157e-002 -5.910851e+000 178 73 73
1.652026e+000 -7.429186e-001 -6.016111e+000 117 51 45
-1.442602e+000 -8.322735e-001 -3.916118e+000 127 110 62
2.494034e+000 -8.276864e-001 -5.879730e+000 34 27 29
2.755561e+000 5.828445e-001 -5.954672e+000 60 61 66
-1.123457e+000 3.455039e+000 -9.365576e+000 77 78 83
2.806041e+000 -1.410413e+000 -5.703408e+000 40 35 41
3.370645e-001 -2.077348e+000 -7.256772e+000 81 60 55
1.664486e+000 1.400981e+000 -6.508773e+000 223 224 215
-8.590887e-001 3.839793e+000 -9.160904e+000 95 98 103
-1.027917e+000 3.337067e+000 -9.271743e+000 90 92 97
2.804598e+000 -7.052902e-001 -5.862192e+000 52 53 57
3.087625e+000 -9.240588e-001 -5.610727e+000 39 38 46
2.583261e+000 -8.092363e-001 -5.998272e+000 120 119 124
2.849904e+000 -1.091286e+000 -5.724958e+000 56 55 60
2.978549e+000 -1.058857e+000 -5.706974e+000 85 84 90
2.772378e+000 -1.344147e+000 -5.744828e+000 90 91 96
8.042219e-001 -7.827348e-001 -5.695213e+000 119 119 112
-3.574844e+000 9.894076e-001 -1.124187e+001 92 93 97
-3.463831e+000 1.033245e+000 -1.142821e+001 74 73 78
-7.679600e-001 -1.498175e+000 -8.113725e+000 177 168 159
-8.745857e-001 -2.198245e+000 -8.504487e+000 198 193 185
-3.294600e+000 -1.695982e+000 -1.105155e+001 72 71 77
2.705484e+000 1.437906e-001 -5.961567e+000 94 93 82
2.602422e+000 -3.937965e-001 -5.815282e+000 197 186 130
2.484634e+000 -5.975731e-001 -5.826471e+000 141 129 86
2.935613e+000 -9.330448e-001 -5.674925e+000 47 47 49
7.307520e-001 -5.408677e-001 -5.669568e+000 94 88 83
9.584034e-001 -6.155147e-001 -5.732427e+000 123 120 109
2.756912e+000 -1.393916e+000 -5.666937e+000 31 28 35
1.698757e+000 -9.987061e-001 -5.933604e+000 151 79 53
8.021463e-002 -1.278170e+000 -4.840843e+000 145 92 75
-3.299565e+000 8.185751e-001 -1.115390e+001 73 72 77
-3.176720e+000 4.555863e-001 -1.144367e+001 59 57 60
-1.944416e-002 4.963049e+000 -8.653540e+000 65 63 66
2.930796e+000 -8.531224e-001 -5.520158e+000 37 36 41
2.773370e+000 -8.773612e-001 -5.798049e+000 41 40 45
9.100285e-001 -5.982071e-001 -5.716460e+000 153 154 143
-8.022168e-001 -6.866559e-001 -4.138891e+000 100 50 29
-5.501981e-002 -1.001631e+000 -4.592224e+000 126 73 42
-5.501981e-002 -1.001631e+000 -4.592224e+000 126 73 42
1.685059e+000 -1.126941e+000 -5.973783e+000 124 55 37
2.360767e+000 -1.528354e+000 -5.938113e+000 36 34 37
2.475814e+000 -1.610697e+000 -5.880629e+000 34 33 38
2.218777e+000 -1.490367e+000 -6.140051e+000 34 34 37
2.875333e-001 -1.786516e+000 -7.427803e+000 82 65 50
-8.267564e-001 -2.667637e+000 -8.202257e+000 192 70 73
6.913057e-001 1.615503e+000 -6.829736e+000 241 246 242
2.445788e+000 -2.436072e-001 -5.933972e+000 190 179 131
2.989795e+000 -1.121222e+000 -5.664925e+000 30 25 31
-6.925896e-001 -7.152984e-001 -4.211734e+000 87 60 56
1.629450e-002 -1.774142e+000 -7.361435e+000 80 67 51
9.944465e-001 2.290915e+000 -6.792893e+000 216 212 209
3.082280e+000 1.383509e-001 -5.407401e+000 145 132 90
-3.740354e-002 4.107155e+000 -9.131517e+000 60 57 60
7.490774e-001 1.947370e+000 -6.924682e+000 210 211 205
1.126930e+000 6.533277e-001 -5.766242e+000 233 240 231
3.227530e+000 -6.470825e-001 -5.473746e+000 72 72 80
1.815755e-001 -4.070444e-001 -4.630415e+000 107 52 46
1.038883e+000 -7.094599e-001 -5.808258e+000 54 34 26
-1.043469e+000 -6.767560e-001 -4.002162e+000 174 86 55
-1.037111e+000 -6.902072e-001 -3.980352e+000 174 86 55
1.924487e+000 -1.425281e+000 -6.270221e+000 80 28 27
-1.473050e+000 -8.437842e-001 -3.926683e+000 93 77 43
-1.473050e+000 -8.437842e-001 -3.926683e+000 93 77 43
-3.935586e-001 -1.380755e+000 -4.577101e+000 167 97 54
-1.313983e-001 -1.578730e+000 -7.214853e+000 92 76 58
-1.527707e-001 -1.677863e+000 -7.343681e+000 184 185 175
1.057897e+000 1.703113e+000 -6.607398e+000 226 230 225
1.134542e+000 1.386938e+000 -6.573510e+000 221 228 218
-2.743821e-001 -7.262489e-001 -4.626916e+000 188 156 123
-1.605016e+000 -6.927586e-001 -4.001129e+000 98 85 41
-8.288086e-001 -1.019428e+000 -4.051160e+000 64 21 12
-9.542890e-001 -1.072639e+000 -4.112701e+000 70 27 21
-1.805066e+000 -1.396318e+000 -9.365454e+000 175 59 56
-1.213325e+000 3.961781e+000 -9.471435e+000 43 42 47
-1.191056e+000 -8.835335e-001 -4.021488e+000 65 28 22
-5.429348e-002 -1.826775e+000 -7.570491e+000 107 94 78
-1.889271e-001 -2.026473e+000 -7.841472e+000 211 211 200
-6.509209e-001 -6.314670e-001 -4.237523e+000 220 188 153
1.211143e-001 -3.147717e+000 -7.542953e+000 20 14 18
9.686328e-002 -9.303165e-001 -4.861158e+000 216 188 144
-1.453267e+000 -6.764119e-001 -4.015836e+000 95 80 51
-3.267212e+000 -1.410823e+000 -1.139323e+001 66 66 74
-1.202418e-001 2.651127e+000 -7.225595e+000 53 49 55
-1.620161e+000 -1.493862e+000 -9.048029e+000 153 55 57
5.984629e-001 3.642682e-001 -6.109395e+000 191 198 191
-1.340473e+000 -1.632280e+000 -8.100537e+000 178 72 69
1.948141e+000 -9.684983e-001 -6.235699e+000 158 58 56
3.343780e-001 1.193149e+000 -6.698073e+000 207 209 197
2.050726e-001 3.023323e-001 -6.036747e+000 203 206 195
1.485804e-001 -5.872233e-001 -4.709461e+000 137 78 38
5.345783e-001 2.416729e+000 -7.361444e+000 241 239 227
2.404762e+000 -7.600099e-001 -5.605299e+000 31 25 27
-6.354168e-001 -1.920963e+000 -8.241472e+000 197 198 184
1.299697e+000 -1.861046e+000 -6.302081e+000 183 181 169
1.768967e+000 8.146304e-001 -5.837898e+000 218 221 212
1.768967e+000 8.146304e-001 -5.837898e+000 218 221 212
2.230589e+000 -7.679086e-001 -5.926996e+000 183 80 78
2.558333e+000 -1.040289e+000 -5.849994e+000 49 49 51
2.153457e+000 -1.468647e+000 -6.204727e+000 38 24 26
9.813494e-001 -1.686388e+000 -6.688399e+000 86 70 56
-1.300354e-001 -1.436147e+000 -7.073059e+000 159 155 144
2.656387e+000 -1.330529e+000 -5.751648e+000 47 46 52
2.548227e+000 -1.563565e+000 -5.841130e+000 40 39 44
-7.802775e-002 -1.318105e+000 -4.900767e+000 82 37 24
-2.368430e-002 -1.549626e+000 -7.136592e+000 99 77 66
1.715774e+000 -1.392342e+000 -6.185630e+000 188 141 123
-2.839931e+000 -1.041796e+000 -1.086527e+001 42 36 40
-8.725125e-001 -1.180376e+000 -4.718863e+000 177 60 52
-2.395561e+000 -8.734805e-001 -1.054902e+001 42 38 39
-7.064656e-001 3.903033e-001 -8.481406e+000 207 208 194
-1.786039e+000 -1.091043e+000 -9.300041e+000 180 58 56
1.705198e+000 2.543055e+000 -6.508092e+000 204 192 174
-5.755316e-001 -4.659565e-001 -7.701109e+000 195 191 179
2.309361e+000 1.774460e+000 -5.629470e+000 140 60 58
9.398507e-001 6.195832e-001 -5.890682e+000 138 133 96
1.453404e+000 9.946959e-001 -6.016302e+000 207 204 185
-4.752083e-001 3.187584e-002 -5.024223e+000 139 73 51
-1.761246e-003 -1.514097e-001 -5.531985e+000 128 118 91
-1.761246e-003 -1.514097e-001 -5.531985e+000 128 118 91
-4.264938e-001 -1.841217e-001 -4.711796e+000 111 47 39
-4.039614e-001 -1.496684e-001 -4.642010e+000 121 85 72
-2.656359e-001 -1.008010e-001 -4.531021e+000 106 80 49
-2.656359e-001 -1.008010e-001 -4.531021e+000 106 80 49
1.468383e-001 -9.717636e-002 -5.165400e+000 153 152 143
1.877570e-001 -1.792338e-002 -4.944066e+000 159 158 149
2.657414e-001 1.000248e-002 -5.073156e+000 158 160 149
-2.295640e-001 -1.356377e-001 -4.588769e+000 159 104 82
3.233637e+000 8.796106e-001 -5.908094e+000 49 43 47
3.306855e+000 9.033658e-001 -5.836148e+000 34 28 32
2.640229e+000 -2.708314e-001 -6.015075e+000 133 115 75
3.127386e+000 3.004228e-001 -5.687846e+000 69 63 67
3.188057e+000 5.106435e-001 -5.736353e+000 32 26 28
3.357233e+000 5.352823e-001 -5.743618e+000 30 24 28
1.232550e+000 -9.722142e-001 -5.727527e+000 133 99 86
1.305077e+000 -1.033538e+000 -5.859874e+000 128 85 76
-1.442521e-001 -1.221401e+000 -4.743257e+000 105 44 26
1.761772e+000 -1.440584e+000 -6.244954e+000 172 118 87
3.240732e+000 -9.241651e-002 -5.028005e+000 104 89 76
1.239990e+000 2.963537e+000 -6.627363e+000 213 191 131
1.012987e+000 1.938261e+000 -6.421776e+000 135 123 88
6.082705e-001 5.951167e-001 -6.339816e+000 199 201 187
-1.298090e+000 -1.274508e+000 -7.600851e+000 178 75 79
3.367095e-001 3.823642e-001 -6.319247e+000 187 188 172
-1.752658e-001 -1.323781e-001 -5.675583e+000 151 143 132
8.293987e-002 -1.322629e-001 -5.463934e+000 86 80 47
-8.659177e-001 -4.896192e-001 -4.800889e+000 126 60 31
-3.999838e-001 -1.699499e-001 -4.623085e+000 43 30 24
-3.662452e-001 -1.208926e-001 -4.568213e+000 133 120 111
-3.342685e-001 -9.588109e-002 -4.604708e+000 141 111 99
-3.030968e-001 -1.104697e-001 -4.634815e+000 70 37 24
3.496344e-001 -4.300055e-002 -5.182259e+000 186 187 179
-1.378633e+000 -6.202608e-001 -4.238309e+000 85 49 31
3.852016e-001 -1.794279e-001 -4.993523e+000 119 113 101
-1.346994e+000 -8.452893e-001 -4.055364e+000 128 95 63
3.222871e+000 4.932189e-001 -5.827496e+000 60 55 59
3.400088e+000 7.645535e-001 -5.873570e+000 53 43 51
3.528373e+000 8.973192e-001 -5.762048e+000 49 40 43
-1.280237e+000 -8.451672e-001 -3.927229e+000 129 105 73
-8.024785e-001 -9.585330e-001 -3.876345e+000 41 14 8
1.894661e+000 -1.420167e+000 -6.081842e+000 144 63 50
1.345928e+000 2.813347e+000 -6.542184e+000 186 87 75
-4.292759e-001 9.807095e-001 -8.307416e+000 213 210 195
1.419738e+000 2.251260e+000 -6.328841e+000 212 198 149
2.544821e-001 1.161617e+000 -7.028754e+000 185 185 173
2.085067e-001 5.888841e-001 -6.656356e+000 218 220 206
-6.232908e-001 -7.018050e-001 -8.060011e+000 211 212 198
-1.976251e-001 -6.365179e-002 -6.938038e+000 182 183 169
-9.725606e-001 -1.382779e+000 -8.107461e+000 184 176 158
1.442474e+000 1.076746e+000 -6.108375e+000 142 128 93
2.049561e+000 1.480438e+000 -5.869273e+000 141 70 70
-2.959789e-001 -2.251927e-002 -5.488223e+000 141 85 63
1.106371e+000 5.396751e-001 -5.782916e+000 126 121 88
-2.486479e-001 -1.629957e-001 -5.332275e+000 78 40 27
3.439943e-002 -1.932191e-002 -4.944244e+000 190 189 178
-4.368374e-001 -1.849398e-001 -4.616692e+000 164 129 106
-2.737832e-001 -9.275976e-002 -4.575197e+000 167 117 96
-7.750836e-001 -4.521845e-001 -4.366874e+000 172 155 143
-7.124640e-001 -4.059215e-001 -4.481283e+000 143 77 51
-6.480165e-001 -5.156523e-001 -4.548346e+000 112 47 16
-2.757785e-001 -1.469211e-001 -4.552093e+000 166 151 123
-1.270822e-001 -2.387492e-001 -4.598955e+000 172 113 82
9.365723e-001 -7.123901e-001 -5.759319e+000 184 175 162
1.564242e+000 -5.706648e-001 -6.022805e+000 75 44 23
1.617713e+000 -7.603443e-001 -6.085516e+000 149 113 83
1.637396e+000 -7.003042e-001 -6.050581e+000 92 36 34
1.699920e+000 2.383791e+000 -7.006029e+000 221 216 204
1.432108e+000 2.077393e+000 -6.317473e+000 254 252 201
1.546626e+000 2.077683e+000 -6.363224e+000 226 225 213
-8.025832e-001 1.972463e-001 -8.605434e+000 197 198 182
-8.025832e-001 1.972463e-001 -8.605434e+000 197 198 182
1.313595e+000 1.348092e+000 -6.759114e+000 145 132 97
-2.667694e-001 -1.765839e-001 -6.890234e+000 211 211 198
1.072653e+000 7.813786e-001 -6.038869e+000 178 167 120
-2.444410e-001 6.588234e-003 -5.630850e+000 189 182 173
4.340050e-001 1.335805e-001 -5.333658e+000 163 165 152
-1.284909e+000 -5.208218e-001 -4.351565e+000 140 83 50
-1.069428e-001 -6.691398e-002 -4.764139e+000 174 174 158
-1.611222e-002 -8.948138e-002 -4.801404e+000 161 158 143
-1.354260e+000 -3.943040e-001 -3.956329e+000 48 28 18
-1.354260e+000 -3.943040e-001 -3.956329e+000 48 28 18
4.555806e-001 -2.462578e-001 -5.106688e+000 143 135 122
5.821931e-001 -3.421533e-001 -5.330863e+000 141 133 121
1.660006e+000 -6.615760e-001 -6.113124e+000 151 113 91
1.244163e+000 -8.087103e-001 -5.847673e+000 147 77 66
1.552975e+000 -8.142196e-001 -6.106465e+000 87 38 24
3.180174e+000 3.183451e-001 -5.769458e+000 27 21 25
-2.000529e-001 -1.190795e+000 -4.719573e+000 137 69 49
-1.645601e-001 -1.178740e+000 -4.767992e+000 97 30 16
1.712392e+000 -1.500109e+000 -6.295210e+000 164 71 63
-4.105253e-001 -1.346643e+000 -4.541997e+000 41 17 15
3.201089e+000 -2.550606e-001 -5.186683e+000 24 12 11
1.766253e+000 2.613376e+000 -6.184567e+000 215 193 175
1.494419e+000 2.244091e+000 -6.259608e+000 228 219 210
1.391795e+000 2.083576e+000 -6.383177e+000 173 159 110
1.632133e+000 2.157340e+000 -6.628745e+000 222 222 206
-8.597815e-001 -8.209391e-001 -8.027099e+000 222 220 208
-8.057724e-002 -1.983497e-001 -5.558407e+000 59 50 33
-4.904970e-001 -2.216973e-001 -4.999149e+000 101 38 24
3.643764e-001 -3.320399e-002 -5.442280e+000 139 140 124
-1.457809e+000 -7.219731e-001 -3.946794e+000 76 58 50
1.986948e+000 -8.177435e-003 -5.784042e+000 63 37 33
-1.318793e+000 -7.292302e-001 -3.856849e+000 65 55 53
-4.791067e-001 -5.392789e-001 -4.260892e+000 164 127 87
1.138346e+000 -5.582792e-001 -5.608914e+000 93 47 39
-1.462483e-001 -1.079813e+000 -4.845954e+000 77 23 15
1.221452e+000 3.117358e+000 -6.699305e+000 255 255 193
1.596942e+000 2.806586e+000 -6.656950e+000 200 76 74
-1.011993e+000 8.919851e-001 -8.943632e+000 219 210 190
2.691339e-001 1.152539e+000 -7.660966e+000 190 187 172
1.144451e+000 1.320151e+000 -6.242128e+000 113 103 70
-9.530645e-001 -8.674717e-001 -8.364188e+000 193 191 177
-1.221105e-001 6.757475e-002 -6.513909e+000 217 217 204
2.343626e-001 4.149727e-001 -6.170661e+000 214 216 204
-3.016517e-001 -7.623440e-002 -5.222776e+000 161 97 62
7.359758e-002 -4.324206e-003 -5.510027e+000 197 198 186
-1.295702e+000 -7.830765e-001 -4.043539e+000 62 15 14
1.568342e+000 -8.125410e-001 -5.939318e+000 181 147 105
-3.117897e-001 -1.388331e+000 -4.676505e+000 30 23 26
-3.117897e-001 -1.388331e+000 -4.676505e+000 30 23 26
3.425840e+000 -6.573987e-001 -5.525683e+000 46 37 42
1.513864e-001 8.771102e-001 -7.445664e+000 226 227 215
1.066605e+000 9.228294e-001 -6.006511e+000 141 136 97
2.708931e-001 -4.069496e-002 -4.934266e+000 138 138 128
-7.680820e-001 -4.918462e-001 -4.330625e+000 52 36 35
-4.120254e-001 -7.663191e-001 -4.509998e+000 93 33 22
1.121523e+000 2.540974e+000 -6.772817e+000 166 149 105
4.258128e-001 3.451019e-001 -7.056203e+000 191 193 179
8.568816e-001 4.596731e-001 -5.854627e+000 110 104 76
8.568816e-001 4.596731e-001 -5.854627e+000 110 104 76
2.128702e-001 -5.580516e-002 -5.359585e+000 110 101 68
2.752078e+000 -2.605541e-001 -5.916957e+000 83 65 41
1.554226e-002 -1.173778e+000 -4.738435e+000 152 77 39
3.799795e-001 1.572665e+000 -6.826138e+000 205 203 191
-1.209019e+000 -1.467429e+000 -8.091290e+000 207 198 180
-7.527112e-002 -9.009711e-002 -5.609489e+000 194 192 178
-8.715306e-001 -4.879142e-001 -4.126300e+000 104 46 32
1.006592e+000 -1.022352e+000 -5.532302e+000 139 112 93
-6.467620e-001 -2.512132e-001 -4.978978e+000 214 121 74
-6.467620e-001 -2.512132e-001 -4.978978e+000 214 121 74
-5.982493e-001 -5.524140e-001 -4.689416e+000 112 50 36
2.563985e+000 -2.284773e-001 -5.868735e+000 153 135 95
2.418062e+000 1.331701e+000 -5.795948e+000 49 44 48
6.152706e-001 -5.010916e-001 -5.382691e+000 65 49 43
3.002813e+000 4.622040e-002 -4.944801e+000 79 58 34
3.002813e+000 4.622040e-002 -4.944801e+000 79 58 34
1.178840e+000 2.317817e+000 -6.722237e+000 146 134 91
-2.736428e-001 -1.179239e-001 -5.323244e+000 138 80 52
3.188006e+000 -7.094222e-002 -5.525218e+000 82 58 34
3.188006e+000 -7.094222e-002 -5.525218e+000 82 58 34
1.447488e+000 2.254275e+000 -5.198956e+000 210 201 184
-1.660029e-001 4.839807e+000 -9.132045e+000 63 63 70
2.561698e+000 2.376234e-001 -5.904791e+000 122 123 125
2.561698e+000 2.376234e-001 -5.904791e+000 122 123 125
-8.214726e-001 4.483541e+000 -9.259220e+000 50 48 53
2.139881e+000 -1.954327e-001 -5.936234e+000 122 81 63
1.652475e+000 -5.441211e-001 -6.161473e+000 135 119 82
1.662239e+000 -5.324662e-001 -6.185543e+000 135 119 82
-8.069988e-002 4.916078e+000 -8.620908e+000 39 37 40
2.636345e+000 5.012917e-001 -5.893055e+000 69 71 76
-5.750816e-001 4.683503e+000 -9.198137e+000 41 40 45
2.704404e+000 -7.508056e-001 -5.801698e+000 51 50 55
2.447497e+000 -1.202996e+000 -5.859984e+000 55 56 60
2.444481e+000 -1.398220e+000 -5.866660e+000 46 45 50
5.925396e-001 -8.353104e-001 -5.530034e+000 80 70 68
-3.246283e+000 1.726828e-001 -1.091923e+001 55 57 62
-1.234635e-001 5.127698e+000 -8.578095e+000 108 108 114
2.733155e+000 2.600761e-001 -5.883634e+000 54 59 62
3.027539e+000 -7.806577e-001 -5.504845e+000 44 42 46
2.594637e+000 -6.960143e-001 -5.776646e+000 36 34 35
2.632960e+000 -9.456821e-001 -5.834780e+000 96 95 101
2.612818e+000 -1.022817e+000 -5.776735e+000 44 43 48
1.553945e+000 -5.772848e-001 -6.084693e+000 99 73 43
-3.331402e+000 7.693294e-001 -1.092619e+001 63 66 73
-1.183749e+000 -1.902401e+000 -8.622213e+000 137 120 110
2.688629e+000 4.202084e-001 -5.862170e+000 57 58 63
1.476841e+000 1.109896e+000 -6.068234e+000 141 137 109
2.465161e+000 -1.182582e+000 -5.942150e+000 51 52 56
1.638256e+000 -1.123594e+000 -6.019761e+000 200 166 128
1.638256e+000 -1.123594e+000 -6.019761e+000 200 166 128
1.183005e+000 -1.439104e+000 -6.436968e+000 124 114 102
-9.071909e-002 -1.396631e+000 -7.045341e+000 160 157 148
-6.706813e-001 -2.307791e+000 -8.237058e+000 199 195 184
2.823130e+000 2.383371e-001 -5.729475e+000 63 61 50
7.212782e-001 -4.723863e-001 -5.503791e+000 162 165 159
1.365166e+000 -6.837514e-001 -5.979544e+000 150 130 96
1.362486e+000 -8.673010e-001 -5.984009e+000 216 189 144
-1.292148e+000 -8.784585e-001 -3.980399e+000 132 111 74
-1.018908e+000 -7.616891e-001 -8.729241e+000 202 205 196
-7.232380e-001 -1.408243e+000 -7.910304e+000 217 218 210
7.321135e-002 -2.079038e+000 -7.629184e+000 164 159 147
1.645386e+000 1.727263e+000 -6.114503e+000 205 205 197
9.470638e-001 2.861679e+000 -7.039060e+000 81 65 49
1.408504e+000 1.392572e+000 -6.074902e+000 254 254 245
2.416982e+000 2.848007e-001 -5.844619e+000 179 69 68
1.602616e+000 -7.332470e-001 -6.117488e+000 129 91 64
1.840920e+000 -1.492446e+000 -6.287336e+000 183 75 77
2.946050e-001 -1.323769e+000 -5.264071e+000 50 30 23
-1.498247e+000 1.173706e-001 -9.181173e+000 181 61 58
-1.701303e+000 3.315080e-002 -9.323601e+000 178 63 59
-1.061974e+000 -4.795232e-001 -8.881203e+000 221 224 213
-1.883591e+000 -6.360299e-002 -9.520637e+000 36 25 33
-1.752932e+000 -1.755404e-001 -9.460602e+000 182 64 62
-1.417317e+000 -5.150339e-001 -4.116616e+000 37 27 29
2.414063e-002 -1.334413e+000 -4.947686e+000 184 105 65
-7.411248e-001 -1.099233e+000 -5.200967e+000 61 31 28
-1.542176e+000 -1.264785e-001 -9.260363e+000 178 63 58
-1.748619e+000 -1.790731e-001 -9.470920e+000 183 65 62
-1.486068e-001 -1.675214e+000 -7.357812e+000 184 186 178
-9.371835e-001 -1.290027e+000 -8.102694e+000 223 229 219
1.716357e+000 1.054963e+000 -5.784778e+000 207 204 195
1.716357e+000 1.054963e+000 -5.784778e+000 207 204 195
1.183499e+000 1.731799e+000 -6.504919e+000 102 95 66
-2.740329e-001 -1.090161e+000 -4.674420e+000 95 46 32
2.249344e+000 -3.206772e-001 -5.901255e+000 130 118 82
2.719848e+000 -1.292902e+000 -5.688834e+000 73 74 79
-1.928789e-001 -6.136552e-001 -4.545784e+000 109 60 39
1.407993e+000 -1.482338e+000 -6.300129e+000 223 220 214
-7.959648e-001 -1.821928e+000 -8.372985e+000 217 217 205
-3.448353e+000 8.262133e-001 -1.105798e+001 75 78 85
-3.448353e+000 8.262133e-001 -1.105798e+001 75 78 85
3.867968e-001 -7.208845e-001 -4.794558e+000 73 38 35
-7.764023e-001 -1.460211e+000 -6.479951e+000 222 227 220
1.457840e+000 1.275478e+000 -6.032182e+000 148 139 107
-2.109773e-001 -1.889111e-001 -5.743576e+000 86 71 61
1.246127e+000 8.268440e-001 -5.897701e+000 140 137 110
1.390848e-003 -1.767388e-001 -5.521790e+000 79 68 40
-1.245032e+000 -3.884123e-001 -4.147609e+000 95 42 26
1.084111e-002 -1.857261e-001 -5.482611e+000 116 109 78
-3.744713e-001 -1.510748e-001 -4.661523e+000 73 44 41
-3.030612e-001 -9.398051e-002 -4.612447e+000 65 38 24
1.089906e-001 1.385077e-003 -4.922685e+000 140 141 133
-7.789192e-001 -5.242054e-001 -4.297433e+000 54 38 38
1.022166e+000 -5.516949e-001 -5.560036e+000 147 142 128
-1.034452e-001 -1.131651e+000 -4.842312e+000 122 61 50
7.071466e-002 -1.380039e+000 -4.897052e+000 77 45 33
-1.413022e-001 -6.612001e-002 -5.632607e+000 155 156 146
-6.689418e-001 -2.341426e-001 -4.666444e+000 166 96 59
-8.394945e-001 -4.762840e-001 -4.176968e+000 124 86 66
-5.865008e-001 -4.420463e-001 -4.527452e+000 108 47 28
3.436609e-001 -2.270119e-001 -4.942815e+000 115 112 99
-1.420054e+000 -8.590320e-001 -3.857961e+000 64 59 65
-9.912437e-001 -7.428336e-001 -3.980101e+000 139 62 39
-9.642403e-001 -9.536860e-001 -3.951024e+000 66 21 15
-7.739704e-001 -9.549118e-001 -3.913735e+000 70 45 43
-4.013711e-001 -1.160299e+000 -4.479384e+000 141 65 34
-3.722010e-001 5.536751e-002 -5.451586e+000 184 172 158
-1.634154e-001 -2.004315e-001 -5.689351e+000 89 77 63
-6.731945e-001 -4.091233e-001 -4.716591e+000 186 107 69
-3.294493e-001 -1.721628e-001 -4.617401e+000 156 142 113
5.101483e-001 -4.513994e-002 -5.339504e+000 168 170 159
-1.906305e-001 -1.041574e-001 -4.472066e+000 176 133 107
-1.455025e+000 -8.219475e-001 -3.844014e+000 133 117 73
-1.395768e+000 -7.961362e-001 -3.842547e+000 129 113 73
-1.289566e+000 -7.110538e-001 -3.883352e+000 118 91 61
4.262471e-001 -2.550373e-001 -4.951903e+000 145 138 127
-8.763287e-001 -6.701719e-001 -3.916741e+000 144 74 49
-3.726306e-001 -1.085883e+000 -4.518576e+000 127 51 26
4.211507e-001 7.427717e-001 -6.350554e+000 224 228 214
-3.348053e-001 2.479212e-002 -5.606918e+000 126 84 67
1.003781e+000 8.958530e-001 -6.031592e+000 205 208 195
-2.303146e-001 -7.892679e-002 -5.672609e+000 111 85 73
2.837281e-001 1.193562e-001 -5.540177e+000 202 205 196
5.645952e-001 1.734648e-001 -5.645368e+000 190 193 182
-1.216791e+000 -5.040460e-001 -4.080254e+000 71 23 18
-5.850474e-001 -5.422274e-001 -4.743518e+000 59 15 6
-8.776975e-001 -9.032624e-001 -3.941534e+000 79 22 20
1.476202e+000 1.026916e+000 -5.957203e+000 215 216 204
-8.988368e-001 -3.193482e-001 -4.150467e+000 77 28 17
1.579730e+000 -2.942794e-001 -5.871149e+000 96 76 53
-2.637172e-001 -6.767997e-001 -4.630971e+000 181 138 103
-2.742433e-001 -1.120742e+000 -4.597764e+000 105 33 19
-1.436146e+000 -8.068194e-001 -3.892087e+000 123 105 64
-9.247386e-001 -6.109755e-001 -3.936640e+000 99 41 29
1.259653e+000 9.536554e-001 -6.239938e+000 244 242 202
2.102957e+000 1.658917e+000 -5.812323e+000 128 53 51
1.167479e+000 7.745769e-001 -5.995167e+000 115 110 82
8.577240e-002 -8.479791e-001 -4.728827e+000 208 170 125
9.273347e-001 2.832254e-001 -5.225166e+000 200 202 189
8.236615e-001 -5.464025e-001 -5.526434e+000 79 70 61
1.221462e+000 -1.301325e+000 -5.285479e+000 191 189 174
1.221462e+000 -1.301325e+000 -5.285479e+000 191 189 174
7.312273e-002 -1.260406e+000 -4.912826e+000 145 92 75
-9.110409e-001 -1.091662e+000 -4.072446e+000 72 28 12
1.298053e+000 -1.283002e+000 -6.253378e+000 86 72 61
7.567386e-001 -5.195154e-001 -5.559748e+000 100 95 87
-5.637343e-001 -1.341238e+000 -7.249901e+000 216 221 215
2.776448e+000 -8.326067e-001 -5.762547e+000 43 42 47
1.123174e+000 -3.571547e-001 -5.621260e+000 163 168 162
2.299547e+000 -1.416330e+000 -6.083429e+000 44 43 48
-2.812793e-001 -2.135993e-001 -4.558954e+000 205 182 140
1.654295e+000 -3.347825e-001 -5.877332e+000 49 30 31
-4.552712e-001 5.815129e+000 -8.321170e+000 64 61 67
-4.059225e-001 5.776258e+000 -8.385881e+000 77 75 81
-1.325155e-001 5.043784e+000 -8.505276e+000 110 108 114
3.069291e+000 -8.737078e-001 -5.569989e+000 73 72 77
2.054201e-002 4.817640e+000 -8.494825e+000 30 28 34
1.198178e+000 1.170209e+000 -6.219827e+000 144 135 99
2.584590e+000 -4.785431e-001 -5.667381e+000 198 192 132
2.927293e+000 -6.343814e-001 -5.840805e+000 58 56 59
2.827248e+000 -1.045442e+000 -5.724174e+000 81 80 85
2.846053e+000 -1.155294e+000 -5.697058e+000 69 70 74
2.917794e+000 -1.107858e+000 -5.704692e+000 62 62 70
2.503490e+000 -8.792241e-001 -5.978201e+000 118 119 123
3.146790e+000 -1.816376e+000 -5.328465e+000 47 44 51
2.500672e+000 -1.057130e+000 -5.973652e+000 112 111 116
2.560144e+000 -1.290233e+000 -5.881621e+000 78 79 84
2.752808e+000 -1.400619e+000 -5.762722e+000 42 43 48
2.752336e+000 -1.485680e+000 -5.768459e+000 49 48 53
3.023100e+000 -2.089573e+000 -5.370519e+000 47 45 50
2.411057e+000 -1.290951e+000 -5.960147e+000 52 53 57
2.457079e+000 -1.390595e+000 -5.955386e+000 73 72 77
2.488608e+000 -1.366906e+000 -6.004015e+000 73 72 77
2.292557e+000 -1.711533e+000 -6.051276e+000 77 76 81
2.429804e+000 -1.894509e+000 -5.936573e+000 82 82 88
2.429804e+000 -1.894509e+000 -5.936573e+000 82 82 88
2.290168e+000 -1.847661e+000 -6.019852e+000 48 47 52
2.381449e+000 -1.910727e+000 -5.916766e+000 46 45 51
2.420891e+000 -1.950940e+000 -5.895800e+000 39 38 44
2.397499e+000 -1.999203e+000 -5.955342e+000 76 73 80
2.075373e+000 -1.665075e+000 -6.232196e+000 49 48 53
2.050015e+000 -1.866656e+000 -6.196365e+000 33 31 36
1.685731e+000 -1.787384e+000 -6.017315e+000 177 80 83
2.042316e+000 -2.211817e+000 -6.230044e+000 51 49 54
2.071795e+000 -2.245921e+000 -6.139797e+000 41 40 46
2.003298e+000 -2.215653e+000 -6.220586e+000 38 36 41
1.046029e+000 -1.575209e+000 -6.743764e+000 89 78 66
-1.744001e+000 1.925886e+000 -9.776334e+000 40 38 41
6.849011e-001 -1.548700e+000 -6.543633e+000 76 59 51
-1.873691e+000 1.535218e+000 -9.899536e+000 60 59 64
-1.979292e+000 1.388889e+000 -9.887278e+000 54 53 58
-3.519131e-001 -1.243377e+000 -7.198415e+000 228 234 228
-1.871653e-001 -1.333156e+000 -7.139000e+000 181 181 174
-1.138446e-001 -1.610368e+000 -6.998026e+000 99 91 80
-2.094206e-001 -1.539888e+000 -7.293676e+000 165 161 152
-1.595483e-001 -1.626342e+000 -7.265179e+000 140 135 130
-5.200172e-001 -1.488366e+000 -7.622104e+000 215 216 206
-3.980511e-001 -1.627025e+000 -7.667163e+000 172 167 155
2.682206e-002 -1.852307e+000 -7.300205e+000 114 99 86
-3.477672e+000 1.278777e+000 -1.091687e+001 73 71 76
-3.445483e+000 1.169931e+000 -1.089568e+001 57 56 62
-4.175688e-001 -1.777855e+000 -7.957205e+000 137 130 120
-3.262175e+000 7.550486e-001 -1.082945e+001 63 64 69
-3.494467e+000 7.039155e-001 -1.089338e+001 100 100 108
-3.151319e+000 6.676234e-001 -1.089757e+001 72 71 76
-3.280785e+000 5.872142e-001 -1.088393e+001 81 83 88
-2.964840e+000 2.951481e-001 -1.072979e+001 40 41 43
-3.317697e+000 5.209310e-001 -1.082351e+001 63 62 68
-3.259567e+000 4.978300e-001 -1.095889e+001 50 51 56
-3.305781e+000 4.347909e-001 -1.094392e+001 60 61 66
-3.372969e+000 4.171744e-001 -1.094304e+001 93 94 99
-3.397702e+000 3.236948e-001 -1.090140e+001 105 106 111
-3.397702e+000 3.236948e-001 -1.090140e+001 105 106 111
-3.171234e+000 1.359992e-001 -1.087797e+001 67 68 72
-3.423434e+000 1.270529e-001 -1.095335e+001 97 98 103
-3.186933e+000 7.476033e-002 -1.083790e+001 52 53 58
-3.218233e+000 -2.594631e-003 -1.081839e+001 48 49 54
-3.174802e+000 -2.367078e-001 -1.085234e+001 51 51 56
-3.261885e+000 -3.988031e-001 -1.082226e+001 82 81 87
-1.359159e+000 -1.833404e+000 -8.675940e+000 123 88 82
3.954648e-001 -3.724504e+000 -7.765672e+000 48 46 51
-4.785495e-001 6.036255e+000 -8.395555e+000 76 71 77
-4.745122e-001 6.251671e+000 -8.561442e+000 76 71 77
2.705989e+000 2.452387e-001 -5.899835e+000 101 102 108
3.190660e+000 -6.619454e-001 -5.605605e+000 74 73 78
-3.932080e-001 5.488487e+000 -8.367602e+000 57 55 60
3.305413e+000 -1.335821e+000 -5.356125e+000 34 31 38
-9.415918e-002 4.950180e+000 -8.506202e+000 93 92 97
1.192938e+000 1.193858e+000 -6.148647e+000 153 145 98
2.981023e+000 -9.637514e-001 -5.617394e+000 54 54 64
2.981023e+000 -9.637514e-001 -5.617394e+000 54 54 64
2.924226e+000 -9.818962e-001 -5.684410e+000 54 53 59
3.311171e+000 -1.646077e+000 -5.225161e+000 75 74 80
3.311171e+000 -1.646077e+000 -5.225161e+000 75 74 80
-1.847566e-001 4.506089e+000 -8.676407e+000 54 55 57
-1.086930e-001 4.546952e+000 -8.733304e+000 37 34 37
2.776515e+000 -1.075656e+000 -5.712721e+000 52 51 56
2.975243e+000 -1.051901e+000 -5.681414e+000 89 89 98
2.596330e+000 -9.645782e-001 -5.934795e+000 94 93 100
2.720477e+000 -1.178690e+000 -5.767793e+000 56 55 61
2.795974e+000 -1.224983e+000 -5.730203e+000 129 129 137
2.795974e+000 -1.224983e+000 -5.730203e+000 129 129 137
2.758562e+000 -1.182733e+000 -5.766807e+000 102 102 110
2.799590e+000 -1.320882e+000 -5.772080e+000 91 91 99
2.408473e+000 -1.007954e+000 -6.014875e+000 59 51 59
2.547774e+000 -9.941903e-001 -5.943293e+000 48 47 52
2.684281e+000 -1.387733e+000 -5.726832e+000 56 57 62
2.716103e+000 -1.467193e+000 -5.745422e+000 35 33 40
2.464361e+000 -1.276506e+000 -5.927914e+000 44 45 49
2.378565e+000 -1.236524e+000 -6.018642e+000 95 96 100
2.334384e+000 -1.225104e+000 -6.004654e+000 49 50 54
2.404679e+000 -1.390749e+000 -5.929750e+000 43 42 47
2.623243e+000 -1.416125e+000 -5.821047e+000 125 126 131
2.600161e+000 -1.566946e+000 -5.802537e+000 51 51 59
2.673949e+000 -1.539096e+000 -5.754133e+000 38 36 45
1.761391e+000 -1.011295e+000 -5.989414e+000 164 75 59
2.175415e+000 -1.314898e+000 -6.088425e+000 112 45 48
2.416442e+000 -1.564556e+000 -5.971310e+000 83 82 88
2.466958e+000 -1.689507e+000 -5.934297e+000 44 44 51
2.534481e+000 -1.774549e+000 -5.805635e+000 32 31 37
2.263323e+000 -1.613363e+000 -6.067955e+000 41 40 45
2.286647e+000 -1.607682e+000 -6.039363e+000 81 80 85
2.295804e+000 -1.601112e+000 -6.054579e+000 81 80 85
2.313301e+000 -1.734153e+000 -5.994283e+000 45 44 49
-1.539291e+000 -5.258972e-001 -4.084096e+000 76 53 28
1.495374e+000 -1.173862e+000 -6.097836e+000 144 113 83
1.900468e+000 -1.638607e+000 -6.059319e+000 154 62 64
2.037579e+000 -1.582033e+000 -6.243702e+000 46 32 32
2.196687e+000 -1.761149e+000 -6.109380e+000 43 42 47
2.372653e+000 -1.906046e+000 -5.959572e+000 110 109 115
2.372323e+000 -1.906039e+000 -5.959264e+000 110 109 115
2.431536e+000 -1.962253e+000 -5.945619e+000 40 37 44
2.052490e+000 -1.838413e+000 -6.188346e+000 36 34 39
2.052490e+000 -1.838413e+000 -6.188346e+000 36 34 39
2.215843e+000 -2.177755e+000 -6.057744e+000 36 35 40
2.301563e+000 -2.227583e+000 -6.014317e+000 44 43 48
-1.827046e+000 1.872535e+000 -9.839491e+000 42 41 46
-1.827046e+000 1.872535e+000 -9.839491e+000 42 41 46
9.885695e-001 -1.602725e+000 -6.701013e+000 100 88 76
9.724940e-001 -1.698566e+000 -6.667183e+000 81 67 56
-2.031795e+000 1.215336e+000 -1.007652e+001 47 46 51
-4.393408e-001 -9.808987e-001 -7.872136e+000 218 225 217
-4.402400e-001 -9.935961e-001 -7.842704e+000 218 225 217
-3.355396e+000 1.240012e+000 -1.097312e+001 30 28 31
-3.222268e+000 7.175093e-001 -1.086656e+001 106 105 111
-3.207204e+000 2.463583e-001 -1.076985e+001 52 51 57
-3.075259e+000 3.577049e-001 -1.107347e+001 79 78 83
-3.310831e+000 -5.561060e-002 -1.088157e+001 65 66 71
-1.688376e+000 -1.569391e+000 -9.153996e+000 122 41 41
-1.695862e+000 -1.584271e+000 -9.368024e+000 134 55 57
-8.047845e-001 -2.333490e+000 -8.531181e+000 214 202 201
-8.047845e-001 -2.333490e+000 -8.531181e+000 214 202 201
-6.099880e-001 -2.668333e+000 -8.094176e+000 180 174 163
4.061123e-001 -3.595205e+000 -7.741430e+000 36 34 39
5.275687e-001 -3.677704e+000 -7.782445e+000 35 33 38
4.676579e-001 -3.723175e+000 -7.752913e+000 42 40 45
4.814637e-001 -3.726393e+000 -7.817593e+000 42 40 45
-2.493522e-001 5.630572e+000 -8.475289e+000 34 29 33
2.351115e+000 -1.122542e-001 -5.808595e+000 241 238 187
3.317090e+000 -1.256921e+000 -5.300377e+000 59 57 62
3.360336e+000 -1.476723e+000 -5.124940e+000 43 40 47
2.562292e+000 -4.156089e-001 -5.729523e+000 205 193 130
3.196902e+000 -1.758748e+000 -5.318638e+000 57 54 61
2.764960e+000 -1.130869e+000 -5.752507e+000 52 52 57
2.790315e+000 -1.171538e+000 -5.739466e+000 63 64 69
3.157989e+000 -1.854169e+000 -5.310027e+000 36 33 40
2.402591e+000 -8.306971e-001 -5.991411e+000 76 67 70
2.477879e+000 -9.522751e-001 -6.016480e+000 64 54 62
2.340871e+000 -9.662833e-001 -5.935587e+000 64 49 50
2.588967e+000 -1.031979e+000 -5.954474e+000 98 97 102
2.595189e+000 -1.247639e+000 -5.844566e+000 40 41 46
2.513857e+000 -1.272971e+000 -5.863660e+000 42 43 47
2.715912e+000 -1.316749e+000 -5.763131e+000 133 134 139
2.715912e+000 -1.316749e+000 -5.763131e+000 133 134 139
2.402676e+000 -1.222169e+000 -5.975301e+000 47 48 52
2.500130e+000 -1.441334e+000 -5.957092e+000 42 43 48
1.480892e+000 -6.810903e-001 -6.059036e+000 127 94 61
1.831714e+000 -9.173174e-001 -6.085024e+000 212 139 128
2.481043e+000 -1.599110e+000 -5.892137e+000 49 50 55
9.937924e-001 -8.867235e-001 -5.731219e+000 143 146 137
1.699864e+000 -1.120120e+000 -6.010189e+000 113 51 29
1.635663e+000 -1.191207e+000 -6.043897e+000 122 82 46
1.635663e+000 -1.191207e+000 -6.043897e+000 122 82 46
2.298901e+000 -1.533203e+000 -6.042445e+000 39 38 43
2.357466e+000 -1.618002e+000 -6.099360e+000 42 41 46
2.432710e+000 -1.735846e+000 -5.988063e+000 42 43 48
-9.455888e-001 -9.705263e-001 -4.020073e+000 104 41 24
8.984962e-002 -1.274238e+000 -4.851768e+000 132 94 74
8.710810e-002 -1.277577e+000 -4.844408e+000 132 94 74
2.146615e+000 -2.188313e+000 -6.117032e+000 35 34 40
-4.293988e-001 -1.457984e+000 -4.855513e+000 96 44 28
-1.956310e-001 -1.553476e+000 -4.918722e+000 70 31 20
-3.287403e-001 -1.303471e+000 -7.176185e+000 199 204 197
-1.439446e+000 -2.148062e-002 -9.137264e+000 196 189 172
-3.099863e-001 -1.557925e+000 -7.449699e+000 164 164 154
-7.669985e-001 -1.510357e+000 -8.047002e+000 182 179 170
-3.336978e+000 7.360497e-001 -1.102312e+001 54 55 61
-3.062776e+000 1.665389e-001 -1.063742e+001 41 42 46
-3.071716e+000 8.606367e-002 -1.078431e+001 39 38 43
-8.722556e-001 -2.219241e+000 -8.496244e+000 184 176 167
1.393014e+000 -3.970658e+000 -7.132921e+000 25 22 28
3.270568e-001 -3.571560e+000 -7.831793e+000 36 33 40
2.512973e-001 -3.684375e+000 -7.860535e+000 33 31 36
1.422795e+000 2.300990e+000 -6.201591e+000 225 216 206
2.968196e+000 -1.076488e+000 -5.593751e+000 41 36 42
1.477488e+000 -5.133300e-001 -5.943101e+000 49 34 27
2.374241e+000 -1.526091e+000 -5.957857e+000 41 40 45
9.398200e-001 -8.050555e-001 -5.719813e+000 192 192 184
2.407854e+000 -1.610772e+000 -6.011222e+000 42 41 46
2.407854e+000 -1.610772e+000 -6.011222e+000 42 41 46
2.415170e+000 -1.836438e+000 -5.950017e+000 43 43 51
2.184030e+000 -1.597974e+000 -6.129723e+000 41 40 45
-1.545700e+000 -5.758430e-001 -4.062631e+000 140 121 87
-1.289093e+000 -8.924618e-001 -3.966759e+000 130 112 75
2.425844e-002 -1.253243e+000 -4.910086e+000 106 42 33
3.083911e-001 -1.360038e+000 -5.279464e+000 48 31 23
3.083911e-001 -1.360038e+000 -5.279464e+000 48 31 23
