ply
format ascii 1.0
element face 0
property list uchar int vertex_indices
element vertex 878
property float x
property float y
property float z
property uchar diffuse_red
property uchar diffuse_green
property uchar diffuse_blue
end_header
3.545489e-002 2.712542e+000 -8.004790e+000 173 167 155
1.743556e+000 3.654001e+000 -6.341275e+000 194 91 90
-1.751382e+000 -7.648518e-001 -4.080171e+000 124 67 40
-7.393740e-001 -4.567541e-001 -5.532321e+000 48 23 21
9.689866e-001 9.111513e-001 -6.340193e+000 223 228 221
8.878117e-001 1.817596e+000 -6.300256e+000 254 255 216
3.652040e-001 1.952610e+000 -7.251190e+000 216 220 212
1.032867e+000 2.325299e+000 -6.697381e+000 222 224 216
5.561012e-001 2.276964e+000 -7.347909e+000 210 216 205
5.602644e-001 2.403481e+000 -7.442736e+000 195 196 188
1.803148e+000 3.661889e+000 -6.546146e+000 173 83 77
1.432766e+000 3.692981e+000 -6.549290e+000 85 68 68
9.246195e-001 3.250910e+000 -7.292687e+000 224 224 211
-8.061749e-001 2.580506e+000 -8.852651e+000 197 87 88
-1.352252e+000 -2.659347e+000 -9.065665e+000 199 81 83
-1.847709e+000 -2.169425e+000 -9.449874e+000 193 80 85
-5.711256e-001 -1.195681e+000 -5.605653e+000 40 21 23
-5.507766e-001 -4.147060e-002 -6.298212e+000 118 111 101
9.632898e-001 6.121783e-001 -5.482102e+000 223 225 214
-4.648921e-001 8.070430e-002 -8.160633e+000 205 208 199
-1.890031e+000 1.216074e-002 -9.736031e+000 172 60 61
-1.415758e+000 1.016036e+000 -9.299514e+000 193 83 86
4.360861e-001 2.120461e+000 -7.239185e+000 163 160 151
2.022355e-001 2.281460e+000 -7.659318e+000 235 236 228
-8.569033e-001 2.029680e+000 -8.726488e+000 202 86 82
-4.236875e-001 -8.908683e-001 -6.598388e+000 92 80 71
-9.360472e-001 -9.737228e-001 -8.257368e+000 227 228 222
4.663957e+000 1.701834e+000 -4.821788e+000 55 55 57
1.317313e+000 1.282058e+000 -6.404385e+000 90 83 65
-2.052620e+000 1.527247e-001 -9.812845e+000 195 82 87
-1.855505e+000 7.935900e-001 -9.650987e+000 190 84 88
-1.382409e+000 1.672049e+000 -9.339345e+000 196 90 94
-1.427535e+000 1.659118e+000 -9.302870e+000 196 90 94
3.228286e-001 -3.236721e+000 -7.494355e+000 33 28 32
-1.229266e+000 -5.427817e-001 -4.591571e+000 59 24 22
-3.312225e-001 1.177822e-001 -5.729968e+000 218 222 215
3.869912e-001 7.672793e-001 -6.117764e+000 78 73 53
6.665050e-001 2.675074e+000 -7.048043e+000 215 216 208
-7.320132e-001 2.820328e+000 -8.506679e+000 195 75 77
-1.348614e+000 -2.522462e+000 -8.932222e+000 187 72 76
-5.883204e-001 -1.535133e+000 -7.808077e+000 204 204 194
-2.017845e+000 -1.347045e+000 -9.734905e+000 188 71 77
4.257748e-001 7.683236e-001 -6.434446e+000 211 216 209
4.567843e+000 2.592999e+000 -4.125104e+000 62 63 67
4.567843e+000 2.592999e+000 -4.125104e+000 62 63 67
1.709050e+000 2.751616e+000 -6.039037e+000 222 223 213
-2.329750e-001 2.604643e+000 -8.209109e+000 225 221 213
1.480041e+000 3.482894e+000 -6.754823e+000 233 223 170
-9.106184e-001 2.389685e+000 -8.832555e+000 191 78 82
5.215378e-001 -1.659024e+000 -6.710767e+000 63 43 38
1.068780e+000 1.146343e+000 -5.762865e+000 211 215 201
-1.358022e+000 1.428231e+000 -1.052632e+001 89 84 91
-6.566066e-001 2.473792e+000 -8.554026e+000 136 49 52
-1.657805e+000 -2.056309e+000 -9.077227e+000 137 48 57
8.249016e-002 1.073592e+000 -7.946766e+000 238 243 237
-9.573519e-001 2.300718e+000 -1.004418e+001 94 91 100
1.893908e+000 -2.150308e+000 -6.299678e+000 192 190 178
-1.128461e+000 -1.867608e+000 -8.619613e+000 212 208 197
-1.702282e+000 -9.159514e-001 -9.241337e+000 229 225 216
-7.774496e-001 5.401868e-001 -6.353128e+000 212 215 204
-9.492763e-001 -4.052467e+000 -8.774776e+000 38 33 39
1.130283e+000 5.743953e+000 -7.143586e+000 86 87 91
7.643182e+001 2.148306e+001 2.004638e+001 87 75 75
1.201746e+000 -2.018033e+000 -6.349898e+000 186 184 172
-1.080641e+000 -2.696559e-001 -4.953801e+000 121 41 25
-1.421807e+000 -8.706054e-001 -9.176645e+000 200 198 187
-2.062946e-001 5.543166e-001 -7.497152e+000 127 121 108
-6.324087e-001 -1.664536e+000 -7.776716e+000 202 196 182
-4.371356e-001 -9.357695e-001 -6.674941e+000 89 79 67
-7.193920e-001 -2.224256e+000 -8.309865e+000 195 191 171
-7.193920e-001 -2.224256e+000 -8.309865e+000 195 191 171
-1.836521e+000 -2.166323e+000 -9.397752e+000 189 78 82
-1.908050e-001 2.429733e-001 -7.574672e+000 102 98 82
1.242337e-001 1.329921e+000 -7.215380e+000 173 174 166
-6.614351e-001 -5.404056e-001 -6.120139e+000 108 93 83
-1.252318e+000 1.651845e+000 -9.192127e+000 199 84 87
-1.777918e+000 -1.545671e+000 -9.319028e+000 199 108 103
-4.741946e-001 -1.291225e+000 -7.271254e+000 198 201 192
-5.462164e-001 -1.034790e+000 -7.182859e+000 144 136 124
-8.827111e-001 -8.631396e-001 -8.256156e+000 204 205 197
-1.123813e+000 -2.300495e-001 -4.558947e+000 162 109 76
-7.835776e-001 -2.373361e-001 -4.665499e+000 202 96 56
-2.255301e-001 -4.027746e-001 -6.730221e+000 99 97 85
-2.615305e-001 -4.005677e-001 -6.727833e+000 99 97 85
-8.589424e-001 -8.098668e-001 -8.226999e+000 180 181 173
-4.238566e-001 2.535676e-002 -4.710174e+000 155 124 102
-6.837661e-001 -4.483424e-002 -5.311357e+000 98 58 51
-6.842083e-001 -4.507887e-002 -5.309528e+000 98 58 51
-9.946958e-001 -5.774857e-001 -8.783874e+000 211 213 200
4.787990e+000 8.651565e-001 -4.223519e+000 111 111 118
-4.932311e-002 3.090495e-001 -6.416903e+000 148 148 143
-4.108173e-001 2.270655e-001 -7.222727e+000 158 156 143
1.299481e+000 9.969113e-001 -5.979616e+000 150 146 118
-2.069269e+000 4.348630e-001 -9.946720e+000 72 65 72
2.468433e-001 1.504445e+000 -7.567705e+000 185 183 171
-1.990920e+000 8.871124e-001 -9.958739e+000 78 71 79
-1.990920e+000 8.871124e-001 -9.958739e+000 78 71 79
-1.651557e+000 1.265841e+000 -9.658111e+000 137 120 134
-8.875374e-001 1.706983e+000 -8.847241e+000 131 102 91
-1.889920e+000 1.678896e+000 -9.982422e+000 85 79 86
-4.453616e-001 -1.636268e+000 -7.667209e+000 165 162 149
-1.014869e+000 -1.208620e+000 -8.227477e+000 227 228 218
-6.981767e-001 -6.888158e-001 -5.893686e+000 72 29 23
-5.440369e-001 -6.458022e-001 -6.597611e+000 116 106 96
-9.323078e-001 -2.866917e-001 -5.077278e+000 76 24 16
-5.226693e-001 -1.892531e-001 -6.278529e+000 119 115 106
-5.379173e-001 -3.386056e-001 -7.878664e+000 171 174 164
4.795661e+000 9.255135e-001 -4.401370e+000 32 32 40
-3.665417e-001 2.686135e-002 -7.958764e+000 189 196 189
-1.127720e-001 4.152591e-001 -8.065059e+000 223 225 211
-1.989147e+000 4.371104e-001 -9.904676e+000 93 80 94
-1.973710e+000 5.558047e-001 -9.908143e+000 98 90 101
-2.121980e+000 6.622412e-001 -1.008094e+001 98 93 100
-2.100976e+000 8.677810e-001 -1.008179e+001 101 94 102
-2.115709e+000 8.658925e-001 -1.007170e+001 101 94 102
-1.766376e+000 1.138364e+000 -9.740940e+000 103 102 110
-1.670709e+000 1.466589e+000 -9.683808e+000 53 51 61
-1.704202e+000 1.446503e+000 -9.725521e+000 131 128 137
-1.791140e+000 1.273471e+000 -9.803895e+000 137 132 139
-1.933262e+000 1.276742e+000 -9.908513e+000 115 109 116
-2.155315e+000 1.293250e+000 -1.008283e+001 48 43 50
-2.221784e+000 1.172418e+000 -1.012379e+001 87 82 89
1.847088e+000 3.170662e+000 -6.430627e+000 156 138 99
-1.576697e+000 1.722827e+000 -9.663889e+000 117 112 119
-1.576697e+000 1.722827e+000 -9.663889e+000 117 112 119
-1.708167e+000 1.562508e+000 -9.732005e+000 152 149 158
-1.747882e+000 1.546234e+000 -9.805060e+000 164 161 168
-1.776431e+000 1.576219e+000 -9.818145e+000 61 59 65
-1.775830e+000 1.575966e+000 -9.818298e+000 61 59 65
-1.831635e+000 1.604754e+000 -9.821948e+000 147 146 152
-1.942156e+000 1.570656e+000 -9.950238e+000 107 100 108
-2.000033e+000 1.401302e+000 -9.971516e+000 121 118 125
-1.572030e+000 1.821455e+000 -9.633474e+000 123 120 129
-1.548447e+000 1.828130e+000 -9.646870e+000 123 120 129
3.477245e-002 2.838926e+000 -8.090825e+000 214 212 196
3.043956e-002 2.839479e+000 -8.089225e+000 214 212 196
-6.641168e-001 -2.309904e+000 -8.256358e+000 195 191 178
-6.541925e-001 -2.315742e+000 -8.257580e+000 195 191 178
-7.361900e-001 -2.140685e+000 -8.422817e+000 198 192 178
-7.361900e-001 -2.140685e+000 -8.422817e+000 198 192 178
-3.136326e-001 -1.198494e+000 -6.675777e+000 120 106 96
-7.619045e-001 -6.756625e-001 -5.981265e+000 91 40 30
-6.833018e-001 -5.659601e-001 -5.982079e+000 111 80 68
-6.276942e-001 -3.421576e-001 -6.298818e+000 103 97 87
-1.429041e+000 -8.586334e-001 -9.163761e+000 193 190 181
5.348397e+000 1.059941e+000 -3.441811e+000 79 81 87
-1.134087e-001 2.012855e-001 -6.592059e+000 193 195 184
1.208927e+000 1.421795e+000 -6.582282e+000 227 228 216
-1.930755e+000 8.309539e-001 -9.861069e+000 55 49 60
-1.042672e+000 1.259738e+000 -9.001579e+000 198 196 183
-1.020762e+000 1.318442e+000 -8.995033e+000 230 228 215
3.383179e-001 2.007904e+000 -7.353837e+000 191 192 180
3.383179e-001 2.007904e+000 -7.353837e+000 191 192 180
3.898931e-001 2.010196e+000 -7.643477e+000 229 230 224
-1.828510e+000 1.208571e+000 -9.770103e+000 55 50 57
-1.569006e+000 1.505006e+000 -9.684592e+000 164 162 167
-1.598502e+000 1.497106e+000 -9.667012e+000 164 162 167
-1.863404e+000 1.368743e+000 -9.844881e+000 56 51 58
-1.847352e+000 1.427895e+000 -9.862359e+000 163 158 165
-2.043559e+000 1.318767e+000 -1.000271e+001 134 130 137
-1.644031e+000 1.554392e+000 -9.666858e+000 51 48 57
-2.817518e-002 2.708205e+000 -8.082965e+000 222 219 204
-1.516284e+000 1.801315e+000 -9.622919e+000 61 58 67
-1.627089e+000 1.827836e+000 -9.717706e+000 165 162 171
-1.720076e+000 1.843946e+000 -9.823899e+000 134 131 138
-1.855113e+000 1.750433e+000 -9.976594e+000 48 40 48
-1.254230e+000 2.417398e+000 -9.454660e+000 51 46 53
-1.495219e+000 2.279530e+000 -9.697483e+000 112 108 116
-1.458180e+000 2.355817e+000 -9.709727e+000 53 48 55
-1.642248e+000 2.139091e+000 -9.734774e+000 53 47 57
-1.601260e+000 2.272342e+000 -9.727830e+000 40 35 42
4.499311e-001 -2.956532e+000 -7.441502e+000 128 49 54
-2.271564e-001 -1.495981e+000 -7.114399e+000 183 180 172
-6.618785e-001 -7.943627e-001 -6.147514e+000 62 33 27
-1.938481e+000 -1.266636e+000 -9.481640e+000 213 94 99
-3.495446e-001 -8.626167e-001 -7.157151e+000 134 133 123
-1.578684e+000 -1.031432e+000 -9.287976e+000 217 213 204
-4.655810e-001 -2.760642e-001 -7.934331e+000 198 200 195
5.286214e+000 9.949146e-001 -3.582245e+000 86 89 96
-2.867894e-001 1.338021e-001 -7.667511e+000 205 213 202
-2.105361e+000 3.819905e-002 -1.000591e+001 67 54 61
-2.036386e+000 1.049361e+000 -1.003950e+001 56 50 60
-2.033045e+000 1.160011e+000 -1.007225e+001 51 46 53
-1.207855e+000 2.081253e+000 -9.154521e+000 173 65 69
-1.482954e+000 1.876970e+000 -9.624450e+000 60 54 64
-1.589259e+000 1.778744e+000 -9.686303e+000 75 72 81
-1.021945e+000 2.298679e+000 -8.995195e+000 185 84 87
-9.125648e-001 2.442620e+000 -8.944966e+000 195 83 87
1.512605e-001 3.103763e+000 -7.927046e+000 217 207 197
-7.492139e-001 2.714921e+000 -8.890074e+000 51 39 43
-1.228546e-001 -2.094628e+000 -7.626527e+000 177 174 159
-4.488133e-001 -2.343274e-002 -5.607662e+000 94 48 33
5.416312e+000 9.434265e-001 -3.340462e+000 43 43 46
5.170240e+000 1.088606e+000 -3.721745e+000 33 31 36
7.337484e-003 7.916585e-001 -7.527417e+000 154 152 138
-1.968060e+000 7.599597e-001 -9.976129e+000 53 43 51
-1.852530e+000 1.154840e+000 -9.871299e+000 51 46 53
2.463016e+000 3.695140e+000 -6.073785e+000 56 51 52
1.056928e-001 3.099707e+000 -8.051158e+000 196 83 86
-4.846212e-001 -4.642683e-001 -7.634453e+000 143 140 131
-3.934306e-001 -1.885041e+000 -7.745614e+000 119 108 90
-3.866585e-001 -1.886859e+000 -7.746084e+000 119 108 90
-7.294907e-001 -4.606256e-001 -8.527615e+000 219 221 208
3.606255e-001 1.640789e+000 -7.667594e+000 222 225 216
9.519408e-001 2.625586e+000 -6.920370e+000 222 225 217
9.637570e-001 2.834947e+000 -6.840718e+000 81 69 56
-1.589953e+000 -1.960943e+000 -8.855721e+000 127 104 96
7.408256e-001 -1.523177e+000 -6.159112e+000 208 203 199
1.703951e-001 1.319987e+000 -6.998773e+000 221 224 215
1.082285e-001 1.470853e+000 -7.205926e+000 144 140 128
4.087996e-001 3.665141e+000 -7.585412e+000 206 89 92
4.087996e-001 3.665141e+000 -7.585412e+000 206 89 92
1.909275e+000 -1.458778e+000 -1.231514e+001 185 79 84
3.055020e+000 1.287079e+000 -5.295323e+000 26 24 29
1.180309e+000 2.112981e+000 -6.493982e+000 93 84 65
-1.670587e+000 -1.485714e+000 -8.768180e+000 163 155 145
-1.670587e+000 -1.485714e+000 -8.768180e+000 163 155 145
-2.610730e-001 1.201838e-001 -6.204872e+000 118 113 103
9.593566e-001 2.179925e+000 -6.429663e+000 81 73 51
2.506491e-001 1.682860e+000 -7.846351e+000 228 231 222
-1.882047e+000 1.104036e+000 -9.768985e+000 80 75 82
-6.203717e-001 -1.161344e+000 -7.852363e+000 226 229 220
-4.980767e-001 -1.325403e+000 -7.871495e+000 215 218 207
-8.726888e-001 -2.901610e-001 -4.606867e+000 176 81 54
-9.624751e-001 -3.783796e-001 -4.797105e+000 169 84 59
-9.624751e-001 -3.783796e-001 -4.797105e+000 169 84 59
-7.283371e-001 -2.814692e-001 -5.534658e+000 84 42 33
-4.728602e-001 -7.458757e-002 -5.664793e+000 116 78 67
-5.474200e-001 -1.487262e-001 -6.022309e+000 171 165 160
-5.565565e-001 -5.028936e-002 -5.985648e+000 153 158 151
2.993597e-001 3.370207e+000 -7.678002e+000 206 105 111
-3.859037e-001 -1.308558e+000 -7.060188e+000 127 120 108
-1.143419e+000 -4.544869e-001 -4.811875e+000 132 52 27
-1.812409e+000 -1.335791e+000 -9.379796e+000 214 163 158
-7.623256e-001 -1.415875e-001 -4.650747e+000 140 52 35
5.523808e+000 1.216600e+000 -3.227846e+000 37 36 41
-2.217016e-001 1.636204e-003 -6.354602e+000 117 114 102
-1.916392e+000 1.642680e+000 -9.938606e+000 56 51 58
-1.781394e+000 2.016345e+000 -9.792141e+000 74 67 75
-4.061190e-001 -9.527551e-001 -6.777497e+000 104 96 85
-8.171792e-001 -4.092508e-001 -5.358020e+000 76 29 25
1.342106e+000 3.796357e+000 -6.621161e+000 189 95 93
-5.506139e-001 -7.896913e-001 -6.460360e+000 147 139 126
-6.790971e-001 -3.868249e-001 -6.008871e+000 74 61 53
-1.568404e-001 8.733121e-001 -7.107851e+000 187 191 177
6.977422e-001 3.353883e+000 -7.395966e+000 193 95 97
-4.334066e-001 -1.792672e+000 -7.630684e+000 212 211 199
-1.806628e+000 -2.120636e+000 -9.399189e+000 134 41 49
-5.949989e-001 2.227128e+000 -8.677643e+000 188 80 85
4.356329e-001 3.387368e+000 -7.539421e+000 196 79 82
-5.774542e-001 -3.338078e+000 -8.277471e+000 204 193 183
-1.341979e+000 -2.666197e+000 -9.066832e+000 200 84 91
1.791860e+000 3.208501e+000 -6.307226e+000 136 47 47
-2.905408e-001 1.126923e-001 -6.952620e+000 176 179 168
-1.675480e+000 -1.852036e+000 -9.186934e+000 166 61 64
1.626510e-001 -2.326370e+000 -7.256771e+000 90 45 47
-8.178739e-001 -1.622540e+000 -7.781318e+000 184 184 170
-1.839808e+000 -1.100467e+000 -9.448856e+000 221 163 157
-1.850323e+000 -1.134397e+000 -9.467467e+000 201 79 85
-4.908066e-001 -1.489223e+000 -7.293049e+000 135 121 109
-1.001619e+000 -1.265392e+000 -8.250330e+000 225 227 216
-3.357935e-001 -1.438850e+000 -7.226958e+000 189 192 183
-5.633071e-001 -9.517536e-001 -7.208308e+000 143 134 118
-8.849198e-001 -5.717513e-001 -8.649217e+000 224 226 212
-1.111809e+000 -5.212661e-001 -4.691485e+000 118 60 44
-8.408889e-001 -4.388992e-001 -8.587421e+000 205 207 193
-1.824149e+000 8.270199e-002 -9.508520e+000 215 93 90
-1.203133e+000 -3.341050e-001 -5.062855e+000 175 98 58
-5.456448e-001 -4.411748e-001 -4.796161e+000 132 52 30
-2.138120e+000 4.087534e-001 -1.008555e+001 54 47 54
-6.797240e-001 -1.581706e-001 -4.590461e+000 146 62 54
-5.591676e-001 -2.110572e-001 -5.806908e+000 140 104 93
-4.869300e-001 -7.294511e-002 -5.675448e+000 147 99 90
-5.939588e-001 -8.027834e-002 -4.451988e+000 60 42 20
-3.939211e-001 -2.427814e-002 -5.676967e+000 151 116 102
-3.740123e-001 1.730244e-001 -7.849572e+000 192 197 190
-2.151830e-001 1.655831e-001 -7.874183e+000 196 201 194
-2.145682e+000 7.724508e-001 -1.005330e+001 49 44 50
-2.358019e+000 9.589029e-001 -1.021942e+001 38 33 40
7.234145e-001 3.642152e-001 -5.568428e+000 121 113 94
7.989491e-001 4.095224e-001 -5.585372e+000 109 100 82
8.587927e-001 3.971957e-001 -5.695036e+000 83 75 59
2.741643e-001 5.024999e-001 -5.790716e+000 123 118 90
3.503005e-002 5.893882e-001 -7.568923e+000 136 132 120
1.961675e-001 6.782050e-001 -6.371596e+000 232 235 228
-6.346931e-001 1.089438e+000 -8.644349e+000 203 207 192
-1.657092e+000 1.247123e+000 -9.700136e+000 45 39 47
-1.755152e+000 1.153014e+000 -9.748874e+000 60 55 61
-1.881274e+000 1.307754e+000 -9.818737e+000 63 58 64
-2.111666e+000 1.263139e+000 -1.015840e+001 64 59 65
1.255299e+000 8.496625e-001 -5.811501e+000 139 134 104
5.217226e-001 9.535227e-001 -6.161565e+000 73 65 47
-1.749117e+000 1.546543e+000 -9.803411e+000 76 70 78
1.582787e+000 1.211435e+000 -6.053052e+000 106 101 70
-1.520116e+000 1.573200e+000 -9.523440e+000 91 86 93
-1.595355e+000 1.702181e+000 -9.620539e+000 60 55 62
-1.777269e+000 1.696103e+000 -9.787286e+000 85 82 89
-1.560206e+000 1.829903e+000 -9.639879e+000 77 76 81
-1.870633e+000 1.814652e+000 -9.825491e+000 57 52 59
-1.889403e+000 1.890370e+000 -9.881616e+000 43 38 44
-1.289810e+000 1.950945e+000 -9.320416e+000 37 23 29
-1.209624e+000 1.990986e+000 -9.378793e+000 57 54 61
-1.256075e+000 2.096456e+000 -9.478940e+000 46 43 50
-1.610593e+000 1.976861e+000 -9.678537e+000 87 84 91
-1.687384e+000 2.028376e+000 -9.756206e+000 106 104 109
-1.640475e+000 2.236621e+000 -9.819782e+000 51 46 53
1.092839e+000 2.341218e+000 -6.416327e+000 197 186 143
-1.436298e+000 2.353192e+000 -9.566982e+000 59 56 63
-1.284720e+000 2.575070e+000 -9.483106e+000 50 46 55
-1.370935e+000 2.601953e+000 -9.586995e+000 105 102 110
-1.348883e+000 2.709613e+000 -9.617998e+000 39 34 43
1.826481e+000 3.197222e+000 -6.385054e+000 185 106 103
-1.174895e+000 3.039013e+000 -9.535344e+000 61 56 63
1.835778e-001 3.165910e+000 -7.954346e+000 190 92 90
-9.593904e-001 3.155898e+000 -9.398068e+000 48 43 50
-1.034853e+000 3.265124e+000 -9.459094e+000 38 33 40
-1.131053e+000 -2.695938e+000 -8.734664e+000 204 94 98
-1.397783e+000 -2.498361e+000 -9.140530e+000 169 54 53
-1.004048e+000 -1.299658e+000 -8.225478e+000 189 192 178
-1.553157e+000 -9.614939e-001 -9.161908e+000 228 228 220
1.423429e+000 -2.014173e+000 -6.256948e+000 168 166 154
-8.651556e-001 -1.116708e+000 -8.220210e+000 217 222 215
-1.517500e+000 -7.993792e-001 -9.110659e+000 196 198 187
-1.507875e+000 -9.509021e-001 -3.753131e+000 89 48 36
-1.496307e+000 -3.937623e-001 -3.947920e+000 91 34 21
-1.539676e+000 1.460955e-001 -9.363548e+000 199 195 184
-7.613758e-001 -2.005867e-001 -4.619770e+000 136 58 39
-8.185988e-001 -9.251589e-002 -5.001224e+000 103 33 8
-7.073653e-001 -6.644461e-002 -5.260623e+000 75 29 23
-5.698515e-001 1.186242e-002 -5.129317e+000 175 119 100
-4.223024e-001 1.755650e-002 -5.591712e+000 149 101 93
-4.026319e-001 1.429384e-002 -5.589681e+000 149 101 93
1.181294e-001 3.417422e-001 -6.093379e+000 175 177 168
-2.133915e+000 8.838597e-001 -1.010448e+001 34 27 34
-2.233963e+000 9.811431e-001 -1.021480e+001 76 69 77
-2.305911e+000 9.253647e-001 -1.028358e+001 63 56 64
3.545825e-001 4.448997e-001 -5.906722e+000 201 205 193
-1.614339e-001 5.603369e-001 -7.549204e+000 134 127 116
5.532689e-002 6.367638e-001 -8.002804e+000 202 210 196
-1.843541e+000 1.072236e+000 -9.619646e+000 53 30 37
-6.446540e-002 9.048606e-001 -7.098218e+000 190 196 188
-2.062406e+000 1.277192e+000 -1.001895e+001 36 34 39
-2.062406e+000 1.277192e+000 -1.001895e+001 36 34 39
-2.129278e+000 1.290554e+000 -1.010555e+001 46 41 47
-2.106690e+000 1.335255e+000 -1.012606e+001 62 57 64
1.203582e+000 7.521003e-001 -5.766550e+000 130 122 89
-1.679551e+000 1.502310e+000 -9.739334e+000 44 39 46
-1.943117e+000 1.525570e+000 -9.945023e+000 48 45 52
-1.935852e+000 1.572487e+000 -9.952203e+000 82 79 86
-2.050111e+000 1.470673e+000 -1.008774e+001 34 29 35
4.682154e+000 7.344643e-001 -4.349362e+000 31 31 35
1.228293e+000 1.166306e+000 -6.458906e+000 219 221 208
-1.769856e+000 1.613041e+000 -9.741606e+000 43 38 45
-1.790975e+000 1.728430e+000 -9.840835e+000 93 90 97
5.524151e+000 1.108240e+000 -3.241431e+000 96 96 103
4.998457e+000 9.475708e-001 -4.206678e+000 35 30 36
1.125119e+000 1.369947e+000 -6.247205e+000 239 230 187
3.520962e-001 1.462071e+000 -6.879174e+000 226 230 216
-1.365668e+000 1.843635e+000 -9.511723e+000 85 76 84
-1.716316e+000 1.893344e+000 -9.757813e+000 50 45 54
-1.880376e+000 1.796362e+000 -9.899461e+000 90 85 92
1.906424e+000 1.614003e+000 -5.798611e+000 149 141 125
-1.249835e+000 2.026306e+000 -9.239473e+000 119 50 56
-1.297701e+000 2.099828e+000 -9.499464e+000 62 58 65
-1.626641e+000 2.072947e+000 -9.813414e+000 52 49 56
-1.288677e+000 2.158218e+000 -9.408235e+000 45 40 47
-1.455729e+000 2.284341e+000 -9.603405e+000 48 46 53
-1.555043e+000 2.264587e+000 -9.679009e+000 144 141 148
-1.301278e+000 2.425602e+000 -9.543377e+000 48 43 50
-1.450562e+000 2.411803e+000 -9.696427e+000 130 129 137
-1.519354e+000 2.455577e+000 -9.677235e+000 41 40 46
1.012106e+000 2.554539e+000 -6.547535e+000 217 209 163
1.658347e+000 3.077735e+000 -6.396682e+000 214 191 171
-1.222812e+000 2.983548e+000 -9.576394e+000 32 25 33
8.722727e-001 3.378170e+000 -7.014539e+000 159 145 108
9.730593e-001 -2.717592e+000 -6.865474e+000 60 36 38
1.112067e+000 -2.782969e+000 -6.871435e+000 60 36 38
-1.945104e+000 -7.858484e-001 -3.593905e+000 170 155 136
-1.187688e+000 -2.903664e-001 -4.032726e+000 186 169 159
-1.187688e+000 -2.903664e-001 -4.032726e+000 186 169 159
-5.420173e-001 -1.126244e-001 -5.956421e+000 206 208 203
-3.964271e-001 3.725137e-002 -4.462383e+000 158 151 132
-4.064388e-001 2.055981e-002 -4.704941e+000 140 110 92
-6.504375e-001 -1.589312e-002 -5.260924e+000 116 63 56
-4.210207e-001 7.390558e-002 -4.358981e+000 63 61 62
-2.753228e-001 1.026557e-001 -4.599256e+000 44 38 38
-1.985190e+000 8.391708e-001 -9.825972e+000 41 36 42
-1.861551e+000 9.257919e-001 -9.836156e+000 44 34 42
-2.044950e+000 1.005491e+000 -9.995266e+000 62 55 62
-2.055090e+000 1.007654e+000 -9.991405e+000 62 55 62
-1.076209e-001 6.233192e-001 -6.712876e+000 207 208 200
-1.760491e+000 1.160136e+000 -9.934184e+000 38 33 39
-2.042076e+000 1.050030e+000 -1.003466e+001 38 33 39
-2.089808e+000 1.148302e+000 -1.014680e+001 45 40 46
3.627224e-001 7.270199e-001 -6.454846e+000 199 202 191
-1.756810e+000 1.217919e+000 -9.808988e+000 44 39 45
-1.698282e+000 1.321458e+000 -9.731872e+000 48 43 49
-1.982805e+000 1.234095e+000 -9.881668e+000 40 35 41
-1.866308e+000 1.377372e+000 -9.847804e+000 44 39 45
-2.023129e+000 1.535231e+000 -9.987638e+000 41 38 45
4.801323e+000 8.227129e-001 -4.444420e+000 84 85 89
4.800112e+000 8.208582e-001 -4.441274e+000 84 85 89
-1.607609e+000 1.563100e+000 -9.636794e+000 48 41 49
5.552620e+000 1.042048e+000 -3.363645e+000 81 83 88
1.213298e+000 1.343964e+000 -6.161053e+000 141 133 95
-1.352913e+000 1.877094e+000 -9.339406e+000 34 27 28
-1.585802e+000 1.854161e+000 -9.673234e+000 53 51 57
-1.773661e+000 1.884048e+000 -9.830315e+000 52 49 56
-1.319600e+000 1.907274e+000 -9.284065e+000 161 68 67
-1.551463e+000 1.964156e+000 -9.658212e+000 47 44 51
-1.649257e+000 2.044363e+000 -9.717845e+000 56 53 60
2.405841e+000 2.130987e+000 -5.527741e+000 183 86 86
-1.035840e+000 2.308702e+000 -9.012283e+000 186 82 90
2.873859e+000 2.553005e+000 -5.636259e+000 195 83 83
1.968682e+000 2.633263e+000 -6.058622e+000 205 202 187
-7.166290e-001 2.619859e+000 -9.159920e+000 50 48 55
-9.362216e-001 2.680160e+000 -9.296709e+000 36 31 37
-1.482598e+000 2.534775e+000 -9.636223e+000 48 45 52
2.978820e+000 2.800204e+000 -5.606186e+000 205 84 85
2.991956e+000 2.799790e+000 -5.606756e+000 205 84 85
-6.604590e-001 2.745869e+000 -8.586378e+000 203 105 111
-9.908845e-001 -3.002727e+000 -8.353987e+000 212 188 164
-7.420142e-001 -6.183322e-001 -5.943046e+000 142 84 73
-1.116001e+000 -4.072860e-001 -5.004741e+000 173 98 60
-7.543983e-001 -2.786709e-001 -5.613889e+000 134 75 57
-1.681802e+000 2.179767e-001 -9.426709e+000 190 171 157
-8.377445e-001 -1.346379e-001 -4.555522e+000 134 72 44
-3.697512e-001 -1.860850e-001 -6.603872e+000 111 108 96
-2.449151e-001 1.678136e-002 -4.841557e+000 103 41 25
-1.833092e+000 8.153570e-001 -9.786455e+000 43 32 35
2.339734e-001 5.668329e-001 -6.241186e+000 192 196 180
1.276453e-001 5.987990e-001 -6.358094e+000 202 206 192
-5.293810e-002 6.543412e-001 -6.630633e+000 218 219 211
-7.471977e-002 8.880464e-001 -8.093102e+000 223 226 217
-9.545851e-001 1.083141e+000 -8.871048e+000 223 223 213
1.486836e-002 1.018513e+000 -7.262458e+000 144 142 130
1.241398e-001 1.025807e+000 -7.501433e+000 181 181 166
1.167098e+000 1.108850e+000 -6.376951e+000 89 85 69
1.210485e+000 1.277245e+000 -6.470324e+000 96 96 75
-1.391418e+000 1.878607e+000 -9.553697e+000 47 42 48
-1.491893e+000 1.875890e+000 -9.621862e+000 49 47 52
-9.551602e-001 1.898652e+000 -8.693382e+000 200 82 81
-1.298561e+000 1.961541e+000 -9.021346e+000 218 117 120
1.094716e+000 2.103437e+000 -6.650983e+000 225 225 218
-1.401711e+000 2.130478e+000 -9.493871e+000 42 37 44
-1.548518e+000 2.204810e+000 -9.677340e+000 56 55 61
1.214651e+000 2.715946e+000 -6.394211e+000 183 173 127
1.053830e+000 2.900306e+000 -6.635061e+000 186 176 118
3.512376e-001 3.356526e+000 -7.609385e+000 190 82 83
-2.196253e-001 -2.633987e+000 -7.922744e+000 214 212 197
-4.873345e-001 -1.870158e+000 -7.859137e+000 213 212 200
-4.873345e-001 -1.870158e+000 -7.859137e+000 213 212 200
-2.119215e+000 -2.877096e-001 -9.903494e+000 192 72 74
-1.888297e+000 -4.656920e-001 -3.837025e+000 52 34 25
-1.789405e+000 8.079318e-002 -9.589527e+000 207 85 88
-1.977343e+000 3.720531e-001 -9.900041e+000 35 22 31
-7.310987e-001 7.229907e-002 -5.032396e+000 122 111 98
-7.310987e-001 7.229907e-002 -5.032396e+000 122 111 98
-5.040966e-001 5.539768e-001 -8.526250e+000 191 197 187
1.599401e+000 1.664546e+000 -6.164415e+000 149 143 98
3.585163e-001 2.143664e+000 -7.685169e+000 205 206 198
1.041385e+000 2.687360e+000 -6.879258e+000 223 225 212
1.125944e-001 3.010025e+000 -8.033625e+000 224 211 198
1.153889e+000 3.213572e+000 -6.869451e+000 253 255 220
-2.140731e-001 -1.479132e+000 -6.846993e+000 87 70 56
-6.867250e-001 -4.864585e-001 -6.021092e+000 196 188 179
-5.569088e-001 -2.525275e-001 -4.336719e+000 223 181 126
1.108813e+000 9.302436e-001 -6.345737e+000 221 226 216
-1.145364e+000 2.161032e+000 -9.109275e+000 37 22 27
1.044084e+000 2.316661e+000 -6.693896e+000 224 224 216
9.430271e-001 2.855528e+000 -7.008363e+000 220 220 210
-1.153709e+000 -2.938847e+000 -8.438195e+000 187 73 72
-2.941730e-001 -3.199012e+000 -7.574586e+000 224 219 208
-1.978398e+000 -4.859201e-001 -3.855868e+000 45 27 25
-1.320006e+000 -3.501617e-001 -3.935492e+000 114 61 46
-6.853970e-001 -1.300858e-001 -4.595345e+000 124 38 36
8.409307e-001 6.595911e-001 -6.209133e+000 228 233 227
1.147145e-001 1.467745e+000 -7.206534e+000 137 135 123
2.897032e-001 1.658143e+000 -7.034289e+000 215 220 213
2.334323e+000 3.501669e+000 -6.145028e+000 202 84 90
-3.921410e-001 -2.192426e+000 -7.993405e+000 217 218 205
-7.176925e-001 -1.731316e+000 -8.013140e+000 137 123 110
-8.070716e-001 -1.691851e+000 -7.985574e+000 137 123 110
-9.567106e-001 -1.658774e+000 -8.246414e+000 160 150 140
-9.567106e-001 -1.658774e+000 -8.246414e+000 160 150 140
-1.904772e+000 -1.137831e+000 -9.493862e+000 198 80 85
-1.965089e+000 4.406912e-001 -9.752045e+000 190 77 82
-1.634094e-001 1.210840e-002 -4.688458e+000 183 144 115
-1.812912e+000 7.994261e-001 -9.676830e+000 185 76 79
2.138304e+000 -3.771057e-002 -5.018104e+000 33 37 38
1.258884e+000 1.734071e+000 -6.493790e+000 97 88 69
9.899137e-001 3.031581e+000 -6.964409e+000 77 67 57
-2.372957e+000 -9.224154e-001 -9.624440e+000 196 79 81
-4.560920e-001 -1.590185e+000 -7.832343e+000 199 202 189
-1.562956e+000 -4.816018e-001 -4.104092e+000 164 86 51
-8.230006e-001 3.177938e-001 -8.646863e+000 225 228 221
1.395661e+000 8.084633e-001 -6.087237e+000 72 63 48
-1.118507e+000 1.771106e+000 -8.790869e+000 126 66 59
2.109447e+000 1.531664e+000 -5.623108e+000 224 225 214
2.649273e+000 2.439800e+000 -5.580096e+000 68 74 74
-6.856771e-001 2.818936e+000 -8.794388e+000 27 21 26
-3.114196e-001 3.020751e+000 -8.589007e+000 201 86 92
-1.799823e+000 -2.071328e+000 -9.772185e+000 29 18 25
-2.496287e-001 -5.686259e-001 -6.752008e+000 96 90 78
-2.710205e-001 1.242687e-001 -6.211472e+000 118 110 101
-1.567457e+000 4.609691e-001 -9.304229e+000 229 227 216
-9.838113e-001 1.783245e+000 -8.832304e+000 129 65 60
-1.288480e+000 2.362403e+000 -9.765397e+000 56 55 63
-2.313113e-001 -2.939563e+000 -7.358596e+000 33 32 36
9.888818e-001 -1.890073e+000 -6.213395e+000 176 174 161
4.383228e-001 -1.452161e+000 -6.668036e+000 89 74 59
-1.143631e+000 -4.866386e-001 -4.931352e+000 150 74 49
1.319619e+000 1.159878e+000 -5.806414e+000 223 225 212
1.962453e-001 1.337761e+000 -7.397798e+000 133 129 118
-6.340063e-001 -3.304360e-001 -5.484650e+000 72 32 27
-1.131138e+000 2.032013e+000 -9.238715e+000 82 35 37
-1.414093e+000 8.644581e-002 -5.509871e+000 99 71 57
-1.856878e+000 6.192372e-001 -9.824173e+000 133 47 56
-1.865048e+000 6.956133e-001 -9.867427e+000 75 67 81
-1.886483e+000 6.311028e-001 -9.924915e+000 74 64 72
-2.098558e+000 6.610002e-001 -1.009784e+001 70 63 71
-1.446634e+000 1.619051e+000 -9.567855e+000 55 45 52
-1.522538e+000 1.619077e+000 -9.694153e+000 85 82 91
-9.659098e-001 1.855403e+000 -8.716997e+000 198 93 92
-1.939750e+000 5.598548e-001 -9.841417e+000 42 27 32
-1.822289e+000 8.446655e-001 -9.729065e+000 158 68 77
-1.850882e+000 7.397611e-001 -9.894423e+000 45 38 45
-1.802693e+000 1.013043e+000 -9.845037e+000 49 44 49
-1.636369e+000 1.235191e+000 -9.637092e+000 59 39 44
-1.666176e+000 1.552517e+000 -9.802927e+000 55 50 57
-1.951484e+000 1.643991e+000 -1.003042e+001 38 33 39
-1.454960e+000 1.940809e+000 -9.078876e+000 131 54 64
-1.418274e+000 2.004414e+000 -9.590177e+000 45 40 49
-1.471433e+000 2.109761e+000 -9.565670e+000 45 43 49
-1.242760e+000 2.341231e+000 -9.597518e+000 50 45 52
-2.990929e-001 3.164245e+000 -8.600753e+000 185 90 92
-2.052577e+000 7.108450e-001 -1.011638e+001 34 29 36
1.012863e-001 6.832340e-001 -6.492824e+000 227 233 223
-2.480371e-002 9.773356e-001 -7.353982e+000 174 174 162
-5.408556e-001 9.724782e-001 -7.277931e+000 174 174 162
-1.550773e+000 1.427906e+000 -9.547003e+000 53 37 47
-1.568599e+000 1.445357e+000 -9.653560e+000 57 49 60
-1.642545e+000 1.324205e+000 -9.764300e+000 46 43 50
-1.848118e+000 1.385873e+000 -9.929932e+000 50 45 52
-5.120945e-001 1.956232e+000 -8.950647e+000 202 94 97
-1.381047e+000 2.207408e+000 -9.636215e+000 53 50 57
-4.502430e-001 2.600700e+000 -8.325988e+000 207 85 92
-2.007609e-001 3.423670e+000 -8.273625e+000 195 74 80
-1.399811e+000 -9.244115e-001 -9.143356e+000 233 233 223
-2.521390e-002 4.097923e-001 -8.103033e+000 224 228 213
-1.904108e+000 8.860279e-001 -9.953384e+000 43 38 44
-1.904108e+000 8.860279e-001 -9.953384e+000 43 38 44
-1.719303e+000 1.011272e+000 -9.736567e+000 55 45 53
-1.769351e+000 1.003837e+000 -9.830130e+000 45 45 44
-1.864978e+000 1.020320e+000 -9.964741e+000 40 35 41
-1.812095e+000 9.395631e-001 -1.011569e+001 42 37 43
-1.964559e+000 1.338117e+000 -9.963597e+000 44 38 47
-1.443308e+000 2.442289e+000 -9.782177e+000 35 30 37
4.243109e-001 2.317394e+000 -7.701128e+000 237 238 230
-5.873831e-001 2.902503e+000 -8.758339e+000 31 24 29
-5.100680e-001 -9.883611e-002 -5.662805e+000 99 54 48
-1.518718e+000 6.523604e-001 -9.474959e+000 184 75 74
-1.564499e+000 1.141524e+000 -9.610352e+000 191 88 90
-6.154840e-001 1.067526e+000 -8.561819e+000 221 227 217
4.688203e-001 3.682864e+000 -8.099331e+000 209 82 87
-8.394057e-001 5.647615e-001 -6.281812e+000 221 224 217
1.177400e+000 1.157132e+000 -6.349150e+000 199 199 183
1.381629e+000 -6.893113e-001 -5.883946e+000 74 35 20
2.483886e+000 7.617518e-002 -6.056835e+000 155 93 73
5.891232e+001 8.158852e+001 -8.297983e+000 71 56 49
-8.932502e-001 -4.091196e+000 -8.820121e+000 78 73 79
-1.274392e+000 -4.406389e+000 -8.895593e+000 47 44 51
-1.432562e+000 -4.349253e+000 -8.838888e+000 34 31 38
-8.207147e-001 -4.114850e+000 -8.801598e+000 41 36 43
-1.050904e+000 -4.102022e+000 -8.849778e+000 51 46 52
-1.119970e+000 -4.141575e+000 -8.816019e+000 37 32 38
-1.245823e+000 -4.336704e+000 -8.832232e+000 43 38 45
1.033743e-001 -1.291687e+000 -4.704725e+000 91 59 47
7.764877e+001 6.620790e+001 4.305390e+000 77 68 61
8.265483e+001 7.844598e+001 8.543288e+000 47 37 37
7.574597e+001 6.634578e+001 8.298438e+000 104 56 59
1.086512e+000 5.742619e+000 -7.595134e+000 63 65 70
9.285748e-001 6.157451e+000 -7.132551e+000 71 70 76
1.018749e+000 6.046544e+000 -7.366154e+000 167 170 179
8.611284e-001 5.879542e+000 -7.535609e+000 122 122 130
7.510448e-001 6.014120e+000 -7.619958e+000 144 144 152
8.558211e+001 5.554372e+001 1.300687e+001 59 50 51
7.105931e+001 6.039742e+001 1.073352e+001 87 48 51
8.292406e+001 5.594055e+001 1.902592e+001 38 27 31
8.292406e+001 5.594055e+001 1.902592e+001 38 27 31
8.209401e+001 5.624240e+001 1.642773e+001 78 69 74
7.719685e+001 6.294294e+001 1.027986e+001 100 75 73
7.733874e+001 6.307851e+001 1.031351e+001 100 75 73
1.147313e+000 5.102607e+000 -7.204134e+000 38 36 41
7.753917e+001 5.787370e+001 1.018238e+001 81 77 78
7.717091e+001 1.218993e+001 2.477465e+001 90 74 82
8.561955e+001 1.636925e+001 2.485100e+001 48 50 56
7.931760e+001 1.763374e+001 2.312190e+001 85 69 71
7.524891e+001 1.995145e+001 2.406900e+001 109 75 91
7.027333e+001 2.248054e+001 2.079108e+001 77 46 65
7.495273e+001 1.634557e+001 2.550704e+001 80 50 74
8.239282e+001 1.652631e+001 2.275590e+001 24 22 38
8.419325e+001 1.691241e+001 2.331916e+001 24 22 38
7.638007e+001 2.152988e+001 2.157781e+001 78 45 69
9.255672e+001 1.739379e+001 2.444526e+001 43 51 57
7.890247e+001 2.559440e+001 1.906766e+001 103 87 87
6.955616e+001 2.451975e+001 1.869388e+001 87 54 72
6.912477e+001 2.742850e+001 2.120968e+001 81 49 70
7.246061e+001 2.872109e+001 1.731816e+001 28 15 21
-1.375332e-001 2.903921e+000 -8.003986e+000 194 81 87
7.800238e+001 1.035760e+001 2.775455e+001 103 76 87
7.962443e+001 1.464718e+001 2.443844e+001 80 64 70
7.251489e+001 1.895210e+001 2.496781e+001 96 68 83
8.364166e+001 5.721125e+000 3.067073e+001 88 67 77
9.124055e+001 -4.115855e+000 2.870669e+001 61 50 46
8.200928e+001 9.743366e-001 3.351299e+001 82 50 66
9.157430e+001 5.911750e-002 3.609937e+001 87 75 69
8.481323e+001 -4.342040e+000 3.549435e+001 73 58 55
9.017561e+001 -1.135501e+001 2.907498e+001 172 154 148
9.289310e+001 -1.163224e+001 2.902218e+001 144 127 120
9.167015e+001 -4.775734e+000 3.350346e+001 63 52 48
9.167015e+001 -4.775734e+000 3.350346e+001 63 52 48
9.667519e-001 -4.365484e+000 -7.484308e+000 43 41 46
-5.137385e-001 -1.618759e+000 -7.655920e+000 164 162 152
-3.687162e-001 -1.193769e+000 -6.664518e+000 117 103 92
-1.888345e+000 -6.061118e-001 -3.765449e+000 124 107 94
-4.454280e-001 -8.857736e-001 -6.750218e+000 144 136 125
-1.051115e+000 -5.037921e-001 -5.191974e+000 89 32 15
-7.386373e-001 -6.059411e-001 -6.029437e+000 95 55 40
-8.679013e-001 -6.271196e-001 -6.089708e+000 122 79 65
-1.054165e+000 -4.378241e-001 -4.668535e+000 159 82 62
-5.637158e-001 -1.812201e-001 -4.298223e+000 106 95 77
-5.311972e-001 -1.845923e-001 -5.674720e+000 117 69 58
-5.622600e-001 -1.177578e-001 -6.004781e+000 166 164 155
-5.263094e-001 -9.828386e-002 -6.161433e+000 140 138 132
-4.948089e-001 -7.824268e-002 -6.194737e+000 161 161 151
-6.723470e-001 -1.339492e-002 -4.757283e+000 164 103 80
8.130119e-002 1.416057e-001 -5.531342e+000 225 226 218
2.108579e-001 2.782936e-001 -5.671697e+000 131 132 113
-1.254776e-001 2.408161e-001 -6.393989e+000 143 146 137
-6.247880e-002 2.613598e-001 -6.469649e+000 136 136 127
-2.579519e-001 3.018529e-001 -7.356373e+000 169 172 165
-2.040668e-001 3.715804e-001 -7.331171e+000 186 187 180
-2.116891e-001 5.765710e-001 -7.059994e+000 155 153 141
4.755296e+000 3.151665e-001 -4.650613e+000 67 68 72
1.027029e+000 7.719593e-001 -6.211522e+000 141 139 125
-1.565047e+000 1.387734e+000 -9.580235e+000 78 68 75
1.236232e-001 1.219724e+000 -7.065333e+000 169 171 164
-1.842085e+000 1.612532e+000 -9.820868e+000 80 76 83
5.086977e+000 9.370963e-001 -3.854960e+000 99 105 110
-1.526697e+000 1.875278e+000 -9.637843e+000 51 49 54
-1.730218e+000 2.080808e+000 -9.719346e+000 119 116 123
1.836699e+000 1.828366e+000 -5.984667e+000 183 181 160
-1.086101e+000 2.244085e+000 -9.319369e+000 47 44 47
-1.602907e+000 2.222608e+000 -9.722598e+000 99 95 102
-1.603874e+000 2.214488e+000 -9.777292e+000 75 71 78
-1.617468e+000 2.231814e+000 -9.797086e+000 47 42 49
-1.336049e+000 2.573440e+000 -9.459577e+000 50 46 55
-1.318721e+000 2.684755e+000 -9.614005e+000 99 96 105
-4.140693e-001 2.846533e+000 -8.997449e+000 63 54 61
-7.026716e-001 2.816347e+000 -9.231345e+000 40 37 44
-7.026716e-001 2.816347e+000 -9.231345e+000 40 37 44
1.693088e+000 3.401980e+000 -6.471514e+000 177 85 81
2.623148e+000 3.631549e+000 -6.021790e+000 83 49 55
8.613011e-002 -1.243068e+000 -6.160917e+000 226 227 217
-1.741059e+000 -4.575560e-001 -3.883881e+000 207 188 138
-1.573472e+000 -4.495502e-001 -3.996294e+000 102 48 28
-1.056942e+000 -3.413376e-001 -4.211495e+000 186 166 157
-9.786209e-001 -1.211226e-001 -5.087373e+000 99 32 15
-5.836675e-001 -2.450980e-001 -5.622080e+000 84 30 18
-6.346514e-001 -9.031797e-002 -4.353519e+000 54 50 46
3.644777e-001 4.962786e-002 -5.149264e+000 41 39 37
-5.855229e-001 5.458864e-001 -7.521228e+000 130 128 115
-5.855229e-001 5.458864e-001 -7.521228e+000 130 128 115
-1.182099e-001 9.458972e-001 -7.055288e+000 188 192 185
4.824648e+000 8.935446e-001 -4.478182e+000 30 29 34
-1.626878e+000 1.725058e+000 -9.638230e+000 84 81 87
-2.003862e+000 1.650641e+000 -9.893634e+000 49 45 52
1.492046e+000 1.550589e+000 -6.206097e+000 183 175 138
2.282670e-001 1.574028e+000 -6.922964e+000 218 220 212
3.203601e-001 1.530538e+000 -7.642235e+000 191 194 184
-1.735666e+000 1.820373e+000 -9.772460e+000 55 52 59
-1.791868e+000 1.903346e+000 -9.886296e+000 83 80 87
-1.571410e+000 2.105666e+000 -9.690404e+000 53 50 57
-1.748382e+000 1.980003e+000 -9.751131e+000 53 51 57
-1.707474e+000 2.028169e+000 -9.833281e+000 92 88 97
-1.616244e+000 2.163564e+000 -9.600964e+000 91 90 96
-1.543524e+000 2.265507e+000 -9.683337e+000 144 141 148
-6.389609e-001 2.316743e+000 -8.709079e+000 171 64 68
-1.321636e+000 2.688670e+000 -9.561546e+000 52 51 59
-1.409776e+000 2.522375e+000 -9.627410e+000 117 111 123
3.128596e+000 2.890701e+000 -5.693579e+000 98 73 75
-5.439371e-001 2.840782e+000 -9.137456e+000 50 47 54
-1.285599e+000 2.743577e+000 -9.518629e+000 53 50 59
-1.288350e+000 2.745419e+000 -9.570180e+000 106 103 112
-1.167804e+000 2.898841e+000 -9.516114e+000 103 98 105
1.653700e+000 3.141685e+000 -6.443443e+000 152 119 94
3.808595e-001 3.072460e+000 -6.763425e+000 231 220 168
3.328036e-001 3.339989e+000 -7.661083e+000 170 82 79
2.344763e+000 3.621064e+000 -6.117410e+000 104 44 49
9.152316e-002 3.450671e+000 -8.829863e+000 37 32 39
9.152316e-002 3.450671e+000 -8.829863e+000 37 32 39
7.764718e-001 -2.667150e+000 -6.916408e+000 121 59 55
-7.373928e-001 -1.550973e+000 -7.811785e+000 189 189 176
-1.438983e+000 -9.000704e-001 -9.129535e+000 228 229 220
-9.391612e-001 -8.784768e-001 -8.300955e+000 224 225 216
-1.527583e+000 -4.105668e-001 -3.999577e+000 152 86 55
-1.530407e+000 -4.103890e-001 -3.998133e+000 152 86 55
-1.141564e+000 -2.407504e-001 -4.021838e+000 51 31 24
-1.141564e+000 -2.407504e-001 -4.021838e+000 51 31 24
-3.712784e-001 -6.653335e-003 -5.527110e+000 205 192 166
3.373541e-003 3.675748e-001 -6.218834e+000 201 207 195
-2.285441e+000 1.117223e+000 -1.019009e+001 62 57 64
4.879368e+000 1.752744e-001 -4.683175e+000 48 49 55
2.287522e-001 8.820216e-001 -7.664933e+000 121 122 108
1.104117e+000 8.075633e-001 -5.705007e+000 138 132 107
7.555744e-001 1.002189e+000 -6.635954e+000 211 214 203
-1.849129e+000 1.618745e+000 -9.867544e+000 47 42 49
-1.849129e+000 1.618745e+000 -9.867544e+000 47 42 49
-1.858347e+000 1.672024e+000 -9.803511e+000 52 49 56
-1.619666e+000 1.853096e+000 -9.653717e+000 53 51 57
-1.309431e+000 2.031628e+000 -9.270024e+000 30 22 30
-1.666966e+000 2.024368e+000 -9.556822e+000 53 49 56
-1.477261e+000 2.373915e+000 -9.539201e+000 58 54 61
-1.478593e+000 2.339291e+000 -9.697135e+000 52 52 60
-7.827365e-001 2.834431e+000 -8.668730e+000 46 19 25
-5.351390e-001 2.782015e+000 -9.242910e+000 44 41 48
-1.236531e+000 2.869392e+000 -9.435935e+000 53 48 55
9.712297e-001 3.021646e+000 -6.801876e+000 238 234 187
9.843919e-001 3.466079e+000 -6.992290e+000 177 161 112
-3.843381e-001 -3.939949e+000 -7.859038e+000 207 72 72
-1.323658e+000 -2.575764e+000 -9.038893e+000 162 49 51
-5.038964e-001 1.196732e-002 -5.901939e+000 210 208 199
-7.215673e-002 9.478373e-001 -8.025066e+000 193 196 185
-2.026379e+000 1.343720e+000 -9.931166e+000 35 33 38
5.952687e+000 1.036675e+000 -2.957845e+000 48 47 53
-1.761125e+000 1.775960e+000 -9.803921e+000 45 40 47
-1.842673e+000 2.040413e+000 -9.831312e+000 42 37 43
-1.514141e+000 2.130050e+000 -9.451017e+000 42 37 44
2.728639e+000 3.453804e+000 -5.962459e+000 49 47 52
1.671742e+000 -4.640646e+000 -7.213216e+000 66 64 70
-1.781469e+000 7.398140e-002 -9.592137e+000 207 85 88
-8.809005e-001 -3.464271e-001 -4.265850e+000 184 171 164
-7.342454e-002 7.863466e-002 -7.704335e+000 206 210 203
-1.704399e+000 1.876419e+000 -9.740405e+000 50 44 53
1.346008e+000 2.097442e+000 -6.300458e+000 152 139 104
7.162317e-001 2.544005e+000 -7.033057e+000 229 231 220
1.053517e+000 2.927258e+000 -6.499572e+000 215 206 149
1.667465e+000 3.533829e+000 -6.232784e+000 211 101 101
-6.732942e-001 -3.284746e+000 -8.254684e+000 198 189 179
-7.553208e-001 -3.832698e-001 -4.426347e+000 218 173 134
1.925558e+000 1.452916e+000 -5.940631e+000 126 111 83
2.971041e-001 1.787746e+000 -7.256100e+000 202 203 196
8.230406e-003 2.636941e+000 -7.897999e+000 232 229 218
-7.412885e-001 2.781825e+000 -8.612981e+000 199 97 98
1.826873e-001 3.428941e+000 -7.889119e+000 194 85 89
5.379064e-001 -2.612339e+000 -7.331067e+000 77 32 33
-1.594762e-001 -1.876180e+000 -7.162026e+000 73 33 37
-2.450052e-001 4.481158e-002 -8.223016e+000 200 203 194
-1.678626e+000 1.147800e+000 -9.559886e+000 193 87 92
1.146492e+000 -2.501481e+000 -6.712950e+000 182 178 169
-1.607555e+000 6.508958e-001 -9.454160e+000 186 72 72
-1.399021e+000 -2.242810e+000 -8.812344e+000 192 190 176
3.768144e-001 -2.038539e+000 -6.935859e+000 54 25 29
3.768144e-001 -2.038539e+000 -6.935859e+000 54 25 29
-4.158194e-001 -5.598444e-001 -7.430495e+000 116 112 101
-1.145593e+000 -2.066742e-001 -4.215288e+000 181 171 160
-1.400185e+000 8.598430e-001 -9.220588e+000 222 222 210
8.532895e-001 2.326121e+000 -6.787118e+000 225 226 218
-1.011650e+000 -3.208719e+000 -7.470053e+000 28 22 26
-9.644351e-001 1.783983e+000 -8.830271e+000 129 65 60
-8.807179e-001 2.972844e+000 -9.290158e+000 41 36 43
-8.807179e-001 2.972844e+000 -9.290158e+000 41 36 43
1.107262e+000 3.377801e+000 -6.800497e+000 254 248 196
1.416470e+000 3.407552e+000 -6.787201e+000 254 248 196
-1.190972e+000 -5.242367e-001 -4.394638e+000 80 34 28
7.736357e-001 3.089646e+000 -7.551385e+000 222 223 212
-1.117543e-001 -4.529300e-001 -4.448347e+000 195 100 67
-5.335230e-001 -2.855099e+000 -8.057385e+000 213 214 200
2.058428e-001 -2.810171e+000 -6.998745e+000 36 31 35
-1.981442e+000 5.757143e-001 -4.013634e+000 171 163 152
4.640066e+000 7.133647e-001 -4.004669e+000 37 36 41
-8.250633e-001 -1.594549e+000 -7.738717e+000 193 190 179
-2.462525e+000 -3.903382e-001 -9.228362e+000 210 144 142
-1.261609e-001 1.614641e-001 -6.795212e+000 202 205 194
1.296518e+000 1.708400e+000 -6.229233e+000 186 180 129
9.206255e-001 3.423797e+000 -7.089314e+000 101 85 61
-3.722066e-001 -1.657797e+000 -7.390503e+000 184 182 167
-1.676826e+000 -5.352710e-001 -3.864506e+000 43 23 19
-1.473023e+000 -3.747880e-001 -3.968973e+000 102 42 27
-1.138460e+000 -1.924343e-001 -4.020841e+000 176 163 154
-5.701855e-001 -2.126973e-001 -5.574089e+000 98 50 44
-4.686304e-001 -8.025629e-002 -5.671221e+000 139 89 80
2.764818e-001 1.566127e+000 -6.861651e+000 219 221 212
1.385276e+000 2.372748e+000 -6.192610e+000 156 148 109
3.052094e-002 3.537667e+000 -8.231437e+000 189 82 85
-5.196316e-001 -1.489919e+000 -7.674810e+000 206 203 194
-2.238180e-001 3.094108e-001 -7.091401e+000 205 211 201
-1.274752e+000 2.287359e+000 -9.500877e+000 40 35 42
4.831218e-001 3.642311e+000 -7.651422e+000 197 96 101
-8.051089e-001 1.589070e+000 -8.503445e+000 144 132 115
2.094420e+000 1.931502e+000 -5.669184e+000 57 41 44
-2.822608e-001 -2.479270e+000 -7.914154e+000 185 183 168
1.043248e+000 2.975624e+000 -6.517976e+000 220 209 153
1.766258e+000 3.644041e+000 -6.569978e+000 167 93 79
1.770478e+000 3.820355e+000 -6.544408e+000 56 50 48
-1.135843e+000 -3.029062e+000 -8.668696e+000 208 95 97
-1.979308e+000 -1.102485e+000 -9.444102e+000 198 78 80
-7.564179e-001 -6.533577e-002 -4.915126e+000 102 36 30
9.657853e-001 2.833978e+000 -6.836417e+000 81 69 56
8.483872e-002 3.093054e+000 -8.102552e+000 194 79 82
-1.506827e+000 -4.545145e-001 -3.890142e+000 71 30 24
3.337214e-001 3.640302e+000 -8.073083e+000 209 82 87
-1.429527e+000 -4.370243e+000 -8.892017e+000 40 38 43
4.471601e+000 -1.511389e+000 -4.139820e+000 27 26 32
4.356461e+000 -3.865440e-001 -4.545556e+000 32 32 37
1.388789e+000 6.161377e+000 -7.069530e+000 65 65 71
1.286605e+000 6.180987e+000 -7.184072e+000 118 118 126
4.603780e+000 -6.339442e-001 -4.835176e+000 53 53 58
3.002815e+000 3.271473e+000 -5.805444e+000 120 118 121
9.480968e+001 -1.419023e+001 3.104108e+001 147 128 121
9.287911e+001 -1.052533e+001 3.125938e+001 172 151 146
9.085503e+001 -1.302803e+001 2.894470e+001 85 65 61
4.890579e-001 -3.021755e+000 -7.482723e+000 128 57 59
-1.045452e+000 -5.067958e-001 -5.198428e+000 89 32 15
-1.005176e+000 -4.804498e-001 -5.194251e+000 112 61 44
-4.814374e-001 -1.103124e-001 -6.247449e+000 114 110 98
-1.916108e-001 2.329715e-001 -6.308964e+000 146 143 134
-5.275425e-002 2.775715e-001 -6.385353e+000 170 172 167
-7.868845e-003 4.388078e-001 -6.264091e+000 192 194 191
1.542602e+000 1.559302e+000 -5.824153e+000 151 144 128
-6.015385e-001 -2.027535e+000 -8.187346e+000 187 185 172
-6.771912e-001 -4.718234e-001 -5.866405e+000 79 61 59
-5.201067e-001 8.418689e-001 -8.455422e+000 179 182 171
-4.202742e-001 -7.718128e-001 -7.471960e+000 130 126 114
-2.942570e-001 -6.405288e-002 -6.469570e+000 127 124 114
2.467416e-001 1.273451e+000 -7.514915e+000 136 135 123
-1.029380e+000 1.875265e+000 -8.739191e+000 201 92 96
-8.483284e-001 2.461877e+000 -8.873978e+000 175 65 68
4.385813e+001 -2.673529e+001 6.190089e+000 73 69 76
-1.234838e+000 -5.415071e-001 -9.086865e+000 173 174 159
-8.735593e-001 -3.479728e-001 -4.588296e+000 147 46 27
-8.843957e-001 -8.405817e-001 -8.244820e+000 193 195 184
-1.232964e+000 -6.205696e-001 -4.702377e+000 81 35 26
-4.999388e-001 -7.697190e-001 -6.590357e+000 92 83 73
-4.576019e-001 -7.950745e-001 -6.786459e+000 138 132 120
-1.091179e+000 -5.049821e-001 -4.768964e+000 119 46 30
-1.119432e+000 -4.719614e-001 -4.630922e+000 129 64 45
-1.086225e+000 -4.283375e-001 -4.769001e+000 174 95 63
-1.078567e+000 -4.648488e-001 -4.798196e+000 127 55 35
-6.290754e-001 -2.668267e-001 -5.575464e+000 87 35 23
-6.357830e-001 -3.073963e-001 -6.253585e+000 144 140 131
-6.454343e-001 -3.024647e-001 -6.255209e+000 144 140 131
-9.513200e-001 -1.803938e-001 -4.559756e+000 155 90 63
-7.125801e-001 1.624805e-002 -5.174181e+000 88 36 26
-5.273003e-001 -6.421049e-002 -5.989751e+000 157 160 149
-2.471715e-001 1.183858e-001 -7.903780e+000 191 197 187
-3.277782e-001 6.490943e-002 -6.269562e+000 129 128 116
-3.139693e-001 3.006039e+000 -8.990864e+000 56 49 57
-4.116524e-001 2.964796e+000 -9.039792e+000 52 47 54
-4.731264e-001 2.860557e+000 -9.110964e+000 77 75 80
-1.056994e+000 3.084333e+000 -9.439247e+000 87 83 90
1.659580e+000 3.295304e+000 -6.441125e+000 182 94 84
9.477396e-001 3.381575e+000 -7.291998e+000 191 94 92
-2.863835e-001 -1.135199e+000 -7.492439e+000 146 142 128
-1.058318e+000 -4.471926e-001 -4.899078e+000 138 55 21
-1.080495e+000 -4.458154e-001 -5.099027e+000 119 57 43
-1.080495e+000 -4.458154e-001 -5.099027e+000 119 57 43
-7.594418e-001 -1.287557e-001 -4.676615e+000 134 51 42
-5.478559e-001 -3.029949e-003 -5.451519e+000 145 130 96
-4.114302e-001 1.754932e-001 -7.255800e+000 148 146 131
-2.641635e-001 1.644959e-001 -8.184821e+000 200 203 192
-1.290108e-001 8.560017e-002 -4.742623e+000 196 196 184
1.749827e-001 1.527463e+000 -7.924239e+000 206 209 198
5.517230e+000 1.152750e+000 -3.165946e+000 88 89 89
5.802232e+000 1.129900e+000 -3.250888e+000 33 29 34
1.643775e+000 3.143645e+000 -6.452015e+000 154 119 91
2.453507e-001 3.656363e+000 -8.668141e+000 40 33 40
