ply
format ascii 1.0
element face 0
property list uchar int vertex_indices
element vertex 876
property float x
property float y
property float z
property uchar diffuse_red
property uchar diffuse_green
property uchar diffuse_blue
end_header
2.932051e+000 -7.487607e-001 -5.731312e+000 38 36 41
1.701214e+000 -1.122094e+000 -6.008811e+000 115 57 37
1.701214e+000 -1.122094e+000 -6.008811e+000 115 57 37
-6.967343e-001 4.492700e+000 -9.078814e+000 43 42 47
-9.705916e-001 4.098900e+000 -9.432474e+000 62 61 67
-8.162824e-001 3.658772e+000 -9.431966e+000 54 55 60
-9.529124e-001 3.444539e+000 -9.363046e+000 64 66 71
2.587620e+000 4.245956e-001 -5.968237e+000 92 91 93
2.769699e+000 3.511494e-001 -5.881415e+000 78 80 84
3.325455e+000 -5.548987e-001 -5.440846e+000 75 74 79
-4.008730e-001 -1.410883e-001 -4.545468e+000 108 73 65
-3.729303e-001 -1.200592e-001 -4.589765e+000 149 126 118
6.503748e-001 -1.753860e-001 -5.315223e+000 149 151 145
7.357604e-001 -1.402271e-001 -5.466734e+000 152 153 148
7.411424e-001 -2.318428e-001 -5.394170e+000 151 152 146
2.641734e+000 -7.106426e-001 -5.915575e+000 68 66 69
2.899787e+000 -7.475391e-001 -5.763410e+000 61 59 62
-4.032577e-001 -1.696930e-001 -4.547502e+000 147 148 133
1.161380e-001 -4.193848e-001 -4.701102e+000 163 115 79
2.296696e+000 -7.397734e-001 -5.937109e+000 179 81 84
8.678231e-002 -4.726183e-001 -4.577282e+000 182 119 84
1.201022e+000 -5.801922e-001 -5.831180e+000 87 56 39
1.203298e+000 -5.754533e-001 -5.846176e+000 87 56 39
1.887676e+000 -8.662511e-001 -6.150733e+000 181 70 67
2.664310e+000 -1.322752e+000 -5.816020e+000 77 76 81
2.364603e-001 -7.626607e-001 -4.835469e+000 129 84 56
3.936746e-001 -8.205481e-001 -4.891803e+000 60 33 31
-1.106257e+000 -6.950567e-001 -3.946912e+000 200 110 70
-6.794319e-001 -7.541270e-001 -4.130017e+000 140 95 60
-1.433470e+000 -6.249090e-001 -4.061842e+000 160 136 100
-1.263222e+000 -7.628926e-001 -3.939076e+000 100 48 44
2.218821e+000 -1.622153e+000 -6.057892e+000 55 52 59
-1.398489e+000 -8.054628e-001 -3.987220e+000 85 68 42
-9.564967e-001 -9.211229e-001 -3.926410e+000 98 56 48
9.659657e-002 -1.152219e+000 -4.810142e+000 144 71 55
-4.838604e-001 -1.170017e+000 -4.553483e+000 130 69 51
-3.783341e-001 -1.273196e+000 -4.687851e+000 109 50 29
-7.369203e-001 -1.304393e+000 -4.849185e+000 202 185 175
-2.497832e-001 -1.470464e+000 -4.935689e+000 97 44 27
-9.561922e-001 -2.151056e+000 -8.595122e+000 202 193 183
-1.558221e-001 4.588230e+000 -9.051009e+000 76 75 80
2.878592e+000 1.042478e+000 -5.864324e+000 80 80 82
3.475790e+000 9.153232e-001 -5.722735e+000 62 60 65
6.396964e-001 2.163872e+000 -7.015174e+000 209 210 202
2.817914e+000 7.671984e-001 -5.929000e+000 86 88 92
2.870718e+000 7.387067e-001 -5.856536e+000 70 69 75
2.770452e+000 6.511738e-001 -5.827878e+000 55 58 62
2.642752e+000 6.210405e-001 -5.890072e+000 40 38 43
2.768145e+000 5.120573e-001 -5.909936e+000 60 62 67
-8.505338e-001 3.579508e+000 -9.390568e+000 82 82 88
1.009014e+000 1.350451e+000 -6.679011e+000 185 184 165
2.540304e+000 4.293130e-001 -5.919160e+000 63 51 53
2.628493e+000 3.762716e-001 -5.931561e+000 146 150 154
2.795394e+000 3.995526e-001 -5.896131e+000 53 56 65
2.718346e+000 2.523316e-001 -5.886047e+000 153 153 161
2.580765e+000 1.734517e-001 -5.945358e+000 61 65 66
2.629252e+000 1.901355e-001 -5.941643e+000 143 142 149
2.690445e+000 1.844286e-001 -5.910040e+000 134 138 142
3.368067e+000 -5.158835e-001 -5.437144e+000 75 72 79
3.541164e+000 -8.106472e-001 -5.211188e+000 44 42 48
2.127698e+000 -1.944136e-001 -6.055053e+000 130 119 83
-2.640880e-001 -1.426096e-001 -4.572885e+000 57 43 42
2.694116e+000 -6.791610e-001 -5.943815e+000 107 104 110
2.673335e+000 -7.424534e-001 -5.857218e+000 53 54 58
2.680234e+000 -7.663961e-001 -5.943680e+000 55 54 59
2.681775e+000 -8.109019e-001 -5.882662e+000 130 129 134
2.687639e+000 -8.386972e-001 -5.926649e+000 56 55 60
2.600639e+000 -8.927057e-001 -5.922967e+000 124 123 128
2.757678e+000 -9.767973e-001 -5.754745e+000 44 44 44
7.178736e-001 -4.884300e-001 -5.551475e+000 78 70 66
2.606249e+000 -9.424945e-001 -5.922328e+000 56 57 61
2.584816e+000 -9.913958e-001 -5.902963e+000 103 103 107
2.682722e+000 -9.979702e-001 -5.869325e+000 47 46 51
1.457710e+000 -7.753540e-001 -6.107973e+000 97 57 21
2.626894e+000 -1.241865e+000 -5.721880e+000 44 43 48
-1.269064e+000 -3.945201e-001 -4.130978e+000 83 42 40
-1.020426e+000 -5.818446e-001 -3.996587e+000 143 72 51
-9.769948e-001 -5.172834e-001 -4.062710e+000 133 66 50
2.378585e+000 -1.251754e+000 -5.995249e+000 62 61 65
2.378585e+000 -1.251754e+000 -5.995249e+000 62 61 65
-1.014012e+000 -7.738731e-001 -3.947997e+000 196 111 74
-1.503366e+000 -6.210030e-001 -4.017622e+000 119 102 59
-1.482606e+000 -6.468946e-001 -4.010841e+000 86 69 35
-1.308729e+000 -6.822454e-001 -3.978403e+000 136 90 88
-9.185514e-001 -9.180004e-001 -3.910125e+000 105 58 51
2.480389e+000 -1.799979e+000 -5.906471e+000 32 30 35
-1.609383e+000 -6.845804e-001 -3.957512e+000 109 90 49
-1.615083e+000 -7.122248e-001 -3.946921e+000 45 27 17
-1.379465e+000 -7.942664e-001 -3.969919e+000 133 112 78
-1.317649e+000 -8.002015e-001 -3.919962e+000 113 71 65
-4.882864e-001 -1.011681e+000 -4.507678e+000 125 68 47
2.042793e+000 -1.599067e+000 -6.253078e+000 46 34 29
2.370177e+000 -1.840813e+000 -5.890780e+000 29 27 32
-1.115909e+000 -1.001912e+000 -4.082021e+000 108 45 22
-2.048780e-001 -1.448478e+000 -4.891642e+000 95 39 23
1.319919e+000 -1.846836e+000 -6.283284e+000 174 166 155
-7.107437e-001 -1.304930e+000 -4.892435e+000 63 38 30
-4.528008e-001 -1.569525e+000 -4.892791e+000 128 70 42
-8.066743e-002 -1.981847e+000 -7.720744e+000 145 136 119
-7.578718e-001 -2.344695e+000 -8.220722e+000 216 211 202
1.966413e+000 -3.390877e+000 -6.510586e+000 58 53 57
1.933802e+000 -3.408887e+000 -6.561699e+000 30 26 30
-7.068572e-002 4.614975e+000 -8.922400e+000 84 83 88
1.466816e+000 2.082307e+000 -6.225301e+000 179 172 146
3.016643e+000 1.230115e+000 -5.872173e+000 51 50 55
3.176640e+000 9.978181e-001 -5.793694e+000 65 64 69
3.955194e+000 1.380358e-001 -5.622032e+000 45 40 44
-8.869103e-001 3.906444e+000 -9.499394e+000 76 75 80
2.717794e+000 5.303257e-001 -5.905623e+000 154 155 160
2.811782e+000 5.868690e-001 -5.864566e+000 57 60 65
2.867818e+000 5.290364e-001 -5.920036e+000 55 58 63
2.687402e+000 3.845720e-001 -5.897722e+000 65 67 71
2.757940e+000 4.012627e-001 -5.926739e+000 135 139 142
2.757940e+000 4.012627e-001 -5.926739e+000 135 139 142
2.800187e+000 3.173448e-001 -5.865132e+000 118 119 125
1.225297e+000 1.070144e-001 -5.535461e+000 199 201 196
2.905662e+000 -6.771512e-001 -5.781515e+000 79 78 82
-3.185618e-001 -1.161744e-001 -4.601509e+000 183 169 143
3.397598e+000 -1.129119e+000 -5.170647e+000 43 41 46
2.377085e+000 -7.264846e-001 -5.938549e+000 169 77 82
2.640518e+000 -8.957779e-001 -5.903293e+000 61 60 65
2.816532e+000 -9.457558e-001 -5.663459e+000 38 36 39
2.627268e+000 -1.080794e+000 -5.812341e+000 46 45 50
2.627268e+000 -1.080794e+000 -5.812341e+000 46 45 50
2.926481e+000 -1.209754e+000 -5.623346e+000 26 24 29
1.594849e+000 -7.168078e-001 -6.172235e+000 79 50 22
-1.323656e+000 -3.983880e-001 -4.157228e+000 101 58 55
2.361883e+000 -1.349128e+000 -5.967038e+000 40 38 43
-1.442593e+000 -4.951207e-001 -4.141572e+000 123 99 68
-1.329133e+000 -6.101036e-001 -3.996707e+000 73 27 26
-1.322925e+000 -6.176111e-001 -3.976717e+000 73 27 26
-1.359542e+000 -8.359081e-001 -3.963232e+000 168 150 105
1.186455e-004 -1.230377e+000 -4.897645e+000 119 42 32
1.014083e-001 -1.246909e+000 -4.882629e+000 75 43 36
2.332614e+000 -1.752646e+000 -6.021390e+000 27 25 28
1.749711e-001 -1.335576e+000 -5.091699e+000 73 42 35
-1.939501e-003 -1.850960e+000 -7.384213e+000 117 101 85
-3.102635e+000 -1.730051e+000 -1.095927e+001 68 67 73
-3.106541e+000 -1.971003e+000 -1.092907e+001 64 63 68
-8.006981e-001 4.571367e+000 -9.143775e+000 81 80 85
1.603621e+000 1.407151e+000 -6.220806e+000 214 216 203
2.742280e+000 4.662630e-001 -5.899578e+000 62 65 70
-3.574181e-001 3.027362e+000 -8.969805e+000 73 60 67
-1.438425e-001 2.587709e+000 -7.960421e+000 189 73 75
4.828639e-001 1.817166e+000 -7.100990e+000 194 194 185
2.659278e+000 2.416042e-001 -5.919472e+000 80 81 88
2.540254e+000 1.490200e-001 -6.018408e+000 52 40 44
2.573532e+000 4.710403e-002 -5.859162e+000 76 74 72
1.050662e+000 -1.243350e-001 -5.578603e+000 156 156 148
-1.804562e-001 -2.583332e-001 -4.651652e+000 141 94 68
2.328579e+000 -6.881337e-001 -5.969039e+000 91 53 33
2.584136e+000 -7.567745e-001 -5.998510e+000 74 73 78
-5.624267e-001 -4.503771e-001 -4.445292e+000 183 92 48
9.694444e-001 -6.497255e-001 -5.760384e+000 147 149 134
7.685005e-001 -8.440967e-001 -5.638479e+000 91 83 77
-1.471745e+000 -4.918923e-001 -4.128971e+000 47 32 23
2.293176e+000 -1.435552e+000 -6.046029e+000 36 31 37
2.293480e+000 -1.436849e+000 -6.043596e+000 36 31 37
2.003156e+000 -1.400077e+000 -6.202461e+000 175 60 52
-1.559141e+000 -8.099900e-001 -3.860065e+000 39 28 22
-7.131956e-001 -9.997294e-001 -4.257440e+000 84 50 40
2.411868e+000 -1.856365e+000 -5.926191e+000 31 29 34
6.910174e-002 -1.304333e+000 -4.856503e+000 80 32 17
-2.326952e+000 -7.814965e-001 -1.069062e+001 66 60 62
-2.326952e+000 -7.814965e-001 -1.069062e+001 66 60 62
-9.427836e-001 -1.517791e+000 -8.173396e+000 199 191 183
-9.684045e-001 -1.500854e+000 -8.261464e+000 199 191 183
-7.276403e-001 -2.418700e+000 -8.211992e+000 199 189 180
-4.397784e-001 4.844106e+000 -9.148190e+000 48 46 52
4.038135e-001 3.472105e+000 -7.667084e+000 39 38 31
1.654003e-001 3.176807e+000 -8.121609e+000 198 76 75
4.008598e+000 2.801411e-002 -5.486080e+000 59 55 56
3.153981e+000 -6.604449e-001 -5.525783e+000 39 37 42
3.032007e-003 -3.771380e-001 -4.602854e+000 203 125 93
7.157788e-001 -4.422166e-001 -5.522974e+000 162 163 157
7.161666e-001 -4.411227e-001 -5.527705e+000 162 163 157
2.970384e-001 -7.863829e-001 -4.876585e+000 54 26 24
3.662456e-001 -1.002386e+000 -5.150133e+000 82 69 61
-1.632776e+000 -5.561303e-001 -4.027369e+000 32 20 21
-3.782209e-001 -1.350108e+000 -4.700562e+000 84 30 17
6.140111e-002 -1.412936e+000 -5.056481e+000 147 87 55
-1.228916e+000 -2.465114e+000 -8.683902e+000 192 55 59
5.170074e-003 3.189567e+000 -8.252957e+000 55 56 61
1.807650e+000 8.955597e-001 -5.795943e+000 237 240 231
4.149469e-001 1.555588e+000 -6.950847e+000 204 205 197
-1.041322e+000 -3.743359e-001 -4.201701e+000 158 81 55
-9.306248e-001 -5.374502e-001 -4.166149e+000 99 44 26
-1.362647e+000 -6.247287e-001 -4.027699e+000 73 28 28
1.197117e+000 -1.036405e+000 -5.853695e+000 157 155 151
-7.321228e-001 -9.583190e-001 -4.150196e+000 64 27 16
1.922252e+000 -1.438507e+000 -6.250787e+000 87 32 30
-1.613625e+000 -7.127936e-001 -3.992882e+000 40 26 23
-1.415395e-002 -1.321560e+000 -4.926165e+000 185 102 50
-1.467720e+000 -1.516099e+000 -8.978765e+000 182 67 64
8.388882e-001 3.331065e+000 -7.395280e+000 198 82 83
1.645201e+000 1.700359e+000 -5.995472e+000 202 198 187
3.087118e+000 -1.076714e-002 -5.165205e+000 121 109 70
2.717461e+000 1.190282e-001 -5.814746e+000 96 88 68
8.228538e-001 -4.743077e-001 -5.601160e+000 103 97 87
-2.876007e+000 -1.277956e+000 -1.121866e+001 68 69 73
6.524134e-001 -2.634964e+000 -7.239385e+000 115 38 43
-7.786804e-001 -2.613305e+000 -8.231761e+000 209 202 192
-1.060288e+000 -2.852078e+000 -8.445615e+000 177 58 60
7.822792e-001 3.520155e+000 -7.387711e+000 28 24 25
-1.513226e-001 4.586106e+000 -8.936704e+000 65 64 69
1.342852e+000 1.036141e+000 -5.962425e+000 254 255 223
1.250278e-001 -1.291730e+000 -5.061786e+000 57 28 24
-2.611153e-001 -1.423038e+000 -4.936473e+000 116 61 41
-3.086257e+000 -1.001139e+000 -1.107834e+001 26 21 25
-1.290230e+000 -1.651790e+000 -8.470603e+000 211 211 201
-1.317410e+000 -1.867377e+000 -8.670168e+000 130 84 76
5.899937e-001 3.438551e+000 -7.663031e+000 202 86 87
-5.213138e-001 4.536862e+000 -9.330576e+000 34 29 33
1.744218e+000 1.082132e+000 -5.776620e+000 204 204 192
1.881146e+000 -1.599335e+000 -6.273703e+000 186 76 75
-6.413696e-001 -1.262572e+000 -4.866877e+000 64 29 23
2.285035e-001 -1.950644e+000 -7.392345e+000 133 119 103
-8.719986e-001 -2.242331e+000 -8.545360e+000 207 205 193
-8.597983e-001 4.118267e+000 -9.374544e+000 84 85 90
1.316326e+000 -1.142070e+000 -6.183169e+000 59 27 25
1.226008e+000 2.486580e+000 -6.678426e+000 88 82 56
-1.152382e+000 -6.435559e-001 -4.036008e+000 203 110 69
-3.285758e+000 -1.383916e+000 -1.152966e+001 66 65 71
3.265040e+000 2.169886e-001 -5.540064e+000 144 131 87
7.472710e-001 2.946195e+000 -8.007849e+000 228 228 220
-6.763435e-001 -8.891049e-001 -4.816823e+000 68 27 21
9.989899e-001 2.649314e+000 -6.777616e+000 118 107 75
1.239365e+000 2.792020e+000 -6.277337e+000 205 190 132
2.012444e+000 1.542388e+000 -5.953658e+000 210 204 194
2.012444e+000 1.542388e+000 -5.953658e+000 210 204 194
2.811645e+000 1.583854e+000 -5.971302e+000 102 99 106
3.741759e-002 -1.182382e-001 -5.585585e+000 156 147 106
3.741759e-002 -1.182382e-001 -5.585585e+000 156 147 106
3.236298e-001 -1.865186e-002 -5.574044e+000 168 173 163
2.172268e-002 -4.821438e-004 -4.910025e+000 165 175 167
2.219885e-001 -5.357962e-002 -5.046987e+000 158 162 151
2.219885e-001 -5.357962e-002 -5.046987e+000 158 162 151
1.578304e+000 5.315707e-001 -4.948402e+000 216 217 209
-1.440150e+000 -4.262939e-001 -4.155530e+000 131 112 80
-1.171060e+000 -3.296386e-001 -4.140841e+000 140 75 49
1.492152e+000 2.700601e+000 -6.666224e+000 236 224 211
1.889830e+000 2.276749e+000 -6.136871e+000 207 198 187
1.462876e-001 4.003511e-001 -6.286710e+000 195 198 187
-6.104680e-001 -1.785873e-001 -4.940630e+000 212 122 75
2.403742e-001 3.329178e-002 -5.586342e+000 210 212 207
6.879435e-001 -7.150873e-002 -5.366143e+000 153 156 147
-1.488041e+000 -5.687194e-001 -4.070758e+000 83 62 40
-1.436619e+000 -4.685678e-001 -4.121523e+000 160 145 89
-9.749822e-001 -4.214001e-001 -4.211434e+000 96 35 18
-1.419863e+000 -5.777480e-001 -4.073049e+000 143 120 76
-1.447221e+000 -6.356436e-001 -4.044781e+000 95 74 30
6.190830e-002 -3.800776e-001 -4.637785e+000 174 92 68
-6.755512e-001 -5.135498e-001 -4.219254e+000 200 160 111
-1.014437e+000 -6.881180e-001 -3.967298e+000 145 63 33
1.750718e+000 -1.352031e+000 -6.098585e+000 136 78 55
1.030806e+000 1.920159e+000 -6.355374e+000 116 106 72
1.449497e-001 6.184708e-001 -6.705837e+000 231 234 223
9.094678e-002 3.796170e-001 -6.343465e+000 199 200 187
2.260846e+000 1.395053e+000 -5.851429e+000 181 72 79
2.334231e+000 1.410215e+000 -5.895961e+000 169 77 81
3.011174e+000 1.632289e+000 -6.005373e+000 119 117 122
-9.811728e-001 -8.045339e-001 -8.511449e+000 190 192 179
-3.635231e-001 -1.172679e-001 -4.598204e+000 163 148 126
-3.454729e-001 -1.720935e-001 -4.779481e+000 62 54 54
-1.737397e+000 -6.511358e-001 -4.333316e+000 158 143 71
-8.949181e-001 -3.871286e-001 -4.321492e+000 157 125 104
-8.949181e-001 -3.871286e-001 -4.321492e+000 157 125 104
-8.082766e-001 -3.936130e-001 -4.470892e+000 101 42 21
-5.658293e-001 -4.585779e-001 -4.699285e+000 200 158 117
-1.504896e+000 -6.780711e-001 -3.966411e+000 66 55 35
-6.499023e-001 -5.278577e-001 -4.255546e+000 153 115 69
9.484278e-001 2.737910e+000 -7.138373e+000 220 214 202
1.467624e+000 2.836193e+000 -6.688016e+000 237 214 199
1.639954e+000 2.768467e+000 -6.556160e+000 231 194 182
7.140657e-001 2.317013e+000 -7.101619e+000 196 193 183
1.685197e+000 2.264063e+000 -6.326921e+000 205 199 185
1.685197e+000 2.264063e+000 -6.326921e+000 205 199 185
1.096932e+000 1.294795e+000 -6.498237e+000 163 164 145
1.100250e+000 1.292337e+000 -6.516207e+000 163 164 145
1.204462e+000 1.238630e+000 -6.547190e+000 223 222 204
1.191525e+000 1.084682e+000 -6.302615e+000 117 111 79
4.518551e-001 5.237582e-001 -6.306531e+000 233 238 230
-1.556098e+000 -1.513521e+000 -8.863949e+000 163 60 55
-6.436175e-001 -2.499935e-001 -4.869283e+000 198 112 63
2.543978e+000 2.165529e-001 -5.931019e+000 47 37 42
-1.344371e+000 -4.584604e-001 -4.079327e+000 57 13 10
3.935239e-001 -1.587116e-001 -4.763308e+000 146 143 134
-4.042229e-001 -1.429432e+000 -4.617231e+000 159 80 31
8.216105e-001 2.165465e+000 -6.869511e+000 209 209 199
-7.879712e-001 1.370576e+000 -8.657898e+000 215 206 189
4.853185e-001 1.791715e+000 -7.142493e+000 186 186 178
2.376133e-001 1.428272e+000 -7.053540e+000 231 234 223
-1.464266e+000 -1.429017e+000 -8.912087e+000 182 66 63
-1.343959e+000 -1.435020e+000 -8.690705e+000 201 198 186
-6.750658e-001 -2.913169e-001 -4.835422e+000 139 49 23
-6.750658e-001 -2.913169e-001 -4.835422e+000 139 49 23
2.131048e-001 -1.697400e-002 -5.165907e+000 183 186 177
-7.312018e-001 -4.377725e-001 -4.656469e+000 127 52 27
-6.339103e-002 -3.329261e-001 -4.679939e+000 202 160 117
1.658692e+000 2.798891e+000 -6.443821e+000 177 73 70
1.694647e+000 2.708799e+000 -6.410823e+000 231 219 207
-9.173854e-001 1.315624e+000 -8.814660e+000 202 71 73
-6.566535e-001 1.239453e+000 -8.467716e+000 235 238 229
3.071052e-001 1.143835e+000 -6.779349e+000 226 231 222
1.352688e+000 1.573905e+000 -6.130613e+000 159 150 106
-1.044813e+000 -4.064469e-001 -8.668940e+000 222 223 209
5.903188e-002 3.172978e-001 -6.335800e+000 164 164 152
-1.953202e+000 -1.868251e+000 -9.622211e+000 53 52 56
-3.333280e-001 -6.536965e-002 -5.298177e+000 184 107 70
2.433650e+000 5.057824e-001 -5.669024e+000 44 42 45
-1.550969e+000 -5.645037e-001 -4.017822e+000 30 19 19
-3.949779e-001 -6.426132e-001 -4.518208e+000 99 51 29
-7.494744e-002 -7.020627e-001 -4.800986e+000 174 132 91
1.721863e-002 -1.123854e+000 -4.808378e+000 111 40 31
-2.548525e-001 -1.190952e+000 -4.522014e+000 125 55 30
1.301491e-001 1.204950e+000 -7.065270e+000 234 237 226
1.151435e+000 1.195263e+000 -6.405713e+000 229 232 220
-8.439340e-001 -4.189022e-001 -4.571277e+000 112 58 42
-2.964371e-001 -6.418142e-001 -4.602034e+000 172 137 96
-4.205202e-001 2.079760e+000 -8.206648e+000 163 60 60
1.214617e+000 2.008067e+000 -6.540587e+000 209 198 141
-8.527567e-001 -1.667883e-002 -8.513286e+000 219 221 210
1.901374e-001 4.190184e-001 -6.511185e+000 232 235 224
-1.890165e-001 -1.418927e-002 -4.711127e+000 158 159 145
-2.312837e-001 -1.272641e-001 -4.627472e+000 157 78 65
3.868023e-003 -5.077041e-001 -4.646321e+000 205 171 123
-2.987256e-002 -1.138137e+000 -4.662210e+000 178 89 47
-1.078668e-002 3.514887e-001 -6.804326e+000 178 180 169
-1.649448e+000 -6.762304e-001 -4.024492e+000 201 176 119
-1.620719e+000 -6.267754e-001 -3.954548e+000 201 176 119
1.087085e+000 -7.613278e-001 -5.654659e+000 198 198 180
-5.288308e-001 -9.254179e-001 -4.433138e+000 105 44 25
9.207613e-001 -7.656266e-001 -5.064199e+000 125 112 95
-7.717196e-001 -8.833953e-001 -3.856833e+000 27 17 18
-6.317975e-003 3.108987e-001 -6.918291e+000 177 181 167
-4.497541e-001 -3.592240e-001 -4.616065e+000 212 176 126
-4.333640e-001 -1.166847e+000 -4.503578e+000 145 69 33
-9.405058e-002 7.748064e-002 -5.596809e+000 200 202 195
6.259688e-001 -5.555776e-001 -5.505603e+000 53 40 34
3.045968e-001 -3.427060e-001 -4.641080e+000 174 174 161
-1.101512e+000 -7.202128e-001 -3.930812e+000 202 106 55
5.107375e-001 -8.831673e-001 -4.971162e+000 72 28 27
2.569098e+000 9.554112e-001 -5.771102e+000 219 216 207
-4.264922e-001 -7.477282e-001 -4.496710e+000 85 29 17
-4.264922e-001 -7.477282e-001 -4.496710e+000 85 29 17
1.289572e+000 1.354681e+000 -6.010321e+000 103 97 70
1.292489e+000 1.353386e+000 -6.021055e+000 103 97 70
-3.508850e-001 -8.893256e-004 -5.189100e+000 157 92 63
1.527849e+000 -2.427650e-001 -5.533409e+000 102 85 60
5.071780e-002 -7.564313e-001 -4.591958e+000 220 180 127
8.487344e-001 1.034869e+000 -6.920849e+000 232 238 231
3.999512e-001 6.357161e-001 -6.235702e+000 203 206 197
1.640531e+000 5.014814e-001 -5.536290e+000 202 204 193
-2.209798e+000 -9.396529e-001 -1.024892e+001 39 37 38
1.771133e+000 4.634709e-001 -5.655675e+000 208 210 197
-6.191926e-001 -5.320901e-001 -4.267718e+000 178 139 102
-1.713547e-001 -1.329510e+000 -4.869370e+000 104 42 21
1.745174e-001 7.111518e-001 -6.542605e+000 207 209 195
1.784075e+000 -7.382404e-001 -6.286527e+000 94 55 38
-3.322845e+000 -1.221691e+000 -1.109218e+001 80 79 84
-5.482236e-001 -7.879432e-002 -4.965963e+000 153 84 50
-6.529772e-001 -3.931999e-001 -4.680623e+000 187 96 52
-4.162788e-001 -1.282595e-001 -4.586798e+000 66 52 53
1.688393e+000 -7.002644e-001 -6.188822e+000 138 104 81
-6.817363e-001 2.107628e+000 -8.690758e+000 195 71 75
1.735976e+000 2.638504e+000 -6.335334e+000 194 185 168
3.245833e-001 1.411313e+000 -7.112680e+000 204 206 193
1.415984e+000 6.326321e-001 -5.801307e+000 221 224 213
3.142949e-001 -2.047337e-001 -4.930526e+000 127 123 111
-2.381968e-001 -1.179244e+000 -4.724480e+000 134 66 41
-1.196432e+000 1.558413e+000 -8.836393e+000 46 39 49
2.518551e-001 5.101791e-002 -5.374666e+000 189 192 179
-8.176140e-001 -3.922514e-001 -4.376672e+000 167 136 111
2.253653e+000 -8.040807e-002 -6.013747e+000 163 68 65
-7.279443e-001 1.594669e+000 -8.422244e+000 232 233 227
1.653448e+000 2.696825e+000 -6.300666e+000 236 220 209
-2.114656e+000 -1.491414e+000 -1.008365e+001 37 25 32
-4.811153e-001 -4.971948e-001 -4.596024e+000 145 77 48
-1.037166e-001 -3.346316e-001 -4.675663e+000 200 151 108
-8.717146e-001 -7.490870e-001 -4.090761e+000 111 46 29
-1.720759e+000 5.348145e-001 -9.240888e+000 44 35 38
1.414866e+000 -1.177911e+000 -6.147377e+000 86 39 33
2.338118e+000 1.724474e+000 -5.621482e+000 47 30 35
1.283338e+000 1.006906e+000 -6.226326e+000 255 255 231
-8.208405e-001 -4.082374e-001 -4.890297e+000 183 95 47
-4.565213e-001 -1.320820e-001 -4.711276e+000 123 68 58
-9.115116e-001 -4.688810e-001 -4.272313e+000 100 63 44
2.197758e+000 -6.396664e-002 -5.864383e+000 150 64 63
2.652009e+000 -1.009855e+000 -6.112815e+000 34 28 30
-4.612322e-001 1.337813e+000 -8.710584e+000 242 243 235
1.747453e+000 -9.231315e-002 -5.909221e+000 103 86 76
-4.746706e-001 -1.114307e+000 -4.515537e+000 142 75 46
2.780725e+000 6.923956e-001 -5.959491e+000 98 98 103
3.395496e-001 -7.867108e-001 -4.885131e+000 118 62 61
9.049292e-001 2.946764e+000 -7.222579e+000 188 106 105
6.370258e-001 2.159393e+000 -7.010751e+000 209 210 202
3.019561e-001 4.655514e+000 -8.872082e+000 42 37 41
9.264588e-001 3.043920e+000 -7.208674e+000 169 80 73
9.497912e-001 -7.294049e-001 -5.839881e+000 196 200 190
-7.023734e-001 -1.881227e+000 -8.285701e+000 194 195 181
8.359376e-001 -7.834433e-001 -5.727714e+000 140 136 130
-1.597450e+000 -1.303641e+000 -9.072908e+000 192 60 61
-1.807368e+000 -1.442504e+000 -9.356156e+000 184 57 55
1.247486e+000 -1.881641e+000 -6.361259e+000 187 181 169
2.053689e+000 1.542738e+000 -5.901880e+000 201 186 174
7.047610e-003 7.320831e-002 -5.665758e+000 188 193 185
3.678800e-002 -1.200390e-001 -4.707303e+000 183 185 174
1.462156e+000 2.759834e+000 -6.631595e+000 235 223 207
2.804782e-001 1.272133e+000 -6.849006e+000 209 211 198
1.175583e+000 1.519585e+000 -6.305744e+000 130 124 90
7.149865e-001 -2.053059e-001 -5.419857e+000 165 168 159
-1.014968e+000 -4.971531e-001 -4.032813e+000 171 94 60
-7.245457e-001 -6.635589e-001 -4.184076e+000 105 82 63
-4.406454e-001 -1.373650e+000 -4.565785e+000 55 26 18
1.463471e+000 2.869889e+000 -6.634839e+000 201 76 77
4.371612e-001 1.277165e+000 -6.825706e+000 199 202 192
4.371612e-001 1.277165e+000 -6.825706e+000 199 202 192
-3.392342e-001 -1.005112e-001 -4.622207e+000 62 54 54
8.050599e-001 8.482996e-001 -6.599151e+000 211 215 200
-5.246539e-001 -8.665668e-002 -5.094197e+000 141 79 49
-4.041086e-001 -1.437755e+000 -4.624431e+000 159 80 31
2.211797e+000 2.811780e-002 -5.915577e+000 178 73 73
1.654755e+000 -7.357334e-001 -6.017814e+000 117 51 45
-1.507740e+000 -7.870299e-001 -3.904937e+000 127 110 62
2.506601e+000 -8.277089e-001 -5.874199e+000 34 27 29
2.780626e+000 5.960965e-001 -5.953019e+000 60 61 66
-1.088120e+000 3.481933e+000 -9.417273e+000 77 78 83
2.818656e+000 -1.422963e+000 -5.688143e+000 40 35 41
3.182412e-001 -2.084523e+000 -7.268420e+000 81 60 55
1.685762e+000 1.430663e+000 -6.529840e+000 223 224 215
-8.213254e-001 3.869320e+000 -9.214592e+000 95 98 103
-9.942237e-001 3.364797e+000 -9.323496e+000 90 92 97
2.821928e+000 -7.083333e-001 -5.852620e+000 52 53 57
3.106393e+000 -9.315151e-001 -5.593755e+000 39 38 46
2.597902e+000 -8.122041e-001 -5.992805e+000 120 119 124
2.865158e+000 -1.099545e+000 -5.711206e+000 56 55 60
2.995366e+000 -1.067725e+000 -5.691762e+000 85 84 90
2.785085e+000 -1.355567e+000 -5.730823e+000 90 91 96
7.942413e-001 -7.671732e-001 -5.704700e+000 119 119 112
-3.535255e+000 9.993713e-001 -1.125139e+001 92 93 97
-3.420088e+000 1.039261e+000 -1.143043e+001 74 73 78
-7.858391e-001 -1.493517e+000 -8.134526e+000 177 168 159
-8.957805e-001 -2.200016e+000 -8.523469e+000 198 193 185
-3.281264e+000 -1.684910e+000 -1.104042e+001 72 71 77
2.727459e+000 1.523742e-001 -5.958728e+000 94 93 82
2.619748e+000 -3.901782e-001 -5.809231e+000 197 186 130
2.499295e+000 -5.957316e-001 -5.820827e+000 141 129 86
2.952677e+000 -9.396021e-001 -5.660216e+000 47 47 49
7.214113e-001 -5.205466e-001 -5.680713e+000 94 88 83
9.513422e-001 -6.006135e-001 -5.737380e+000 123 120 109
2.768951e+000 -1.405695e+000 -5.651594e+000 31 28 35
1.701537e+000 -9.955949e-001 -5.937246e+000 151 79 53
4.816643e-002 -1.260840e+000 -4.839818e+000 145 92 75
-3.263103e+000 8.270701e-001 -1.116073e+001 73 72 77
-3.137556e+000 4.592816e-001 -1.143538e+001 59 57 60
2.679392e-002 4.964731e+000 -8.673882e+000 65 63 66
2.948634e+000 -8.575630e-001 -5.504315e+000 37 36 41
2.789156e+000 -8.822203e-001 -5.787042e+000 41 40 45
9.026489e-001 -5.818683e-001 -5.723358e+000 153 154 143
-8.536581e-001 -6.454344e-001 -4.133546e+000 100 50 29
-8.928978e-002 -9.763100e-001 -4.589037e+000 126 73 42
-8.928978e-002 -9.763100e-001 -4.589037e+000 126 73 42
1.686494e+000 -1.126142e+000 -5.976480e+000 124 55 37
2.367889e+000 -1.539606e+000 -5.930703e+000 36 34 37
2.483499e+000 -1.624072e+000 -5.870426e+000 34 33 38
2.224812e+000 -1.500502e+000 -6.137025e+000 34 34 37
2.712744e-001 -1.790359e+000 -7.439725e+000 82 65 50
-8.544710e-001 -2.673822e+000 -8.216214e+000 192 70 73
7.049828e-001 1.653753e+000 -6.863877e+000 241 246 242
2.462511e+000 -2.371615e-001 -5.931894e+000 190 179 131
3.006296e+000 -1.130914e+000 -5.648693e+000 30 25 31
-7.411269e-001 -6.762030e-001 -4.206924e+000 87 60 56
-3.049277e-003 -1.775592e+000 -7.375611e+000 80 67 51
1.013571e+000 2.323496e+000 -6.814256e+000 216 212 209
3.107602e+000 1.470379e-001 -5.393410e+000 145 132 90
5.871676e-003 4.130162e+000 -9.180061e+000 60 57 60
7.664722e-001 1.986887e+000 -6.960050e+000 210 211 205
1.133126e+000 6.868615e-001 -5.780663e+000 233 240 231
3.250271e+000 -6.506419e-001 -5.456239e+000 72 72 80
1.571545e-001 -3.726141e-001 -4.628822e+000 107 52 46
1.033136e+000 -6.961949e-001 -5.815381e+000 54 34 26
-1.102431e+000 -6.318080e-001 -3.995240e+000 174 86 55
-1.095572e+000 -6.459094e-001 -3.973083e+000 174 86 55
1.927532e+000 -1.432420e+000 -6.271986e+000 80 28 27
-1.544210e+000 -7.979903e-001 -3.922199e+000 93 77 43
-1.544210e+000 -7.979903e-001 -3.922199e+000 93 77 43
-4.381621e-001 -1.360214e+000 -4.574539e+000 167 97 54
-1.542473e-001 -1.574454e+000 -7.229082e+000 92 76 58
-1.820604e-001 -1.678516e+000 -7.337855e+000 184 185 175
1.073487e+000 1.736849e+000 -6.630134e+000 226 230 225
1.150179e+000 1.421385e+000 -6.600562e+000 221 228 218
-3.104471e-001 -6.937505e-001 -4.627623e+000 188 156 123
-1.676789e+000 -6.429534e-001 -4.000268e+000 98 85 41
-8.851320e-001 -9.839705e-001 -4.043443e+000 64 21 12
-1.013420e+000 -1.037737e+000 -4.107045e+000 70 27 21
-1.814168e+000 -1.388758e+000 -9.381445e+000 175 59 56
-1.172739e+000 3.988783e+000 -9.525515e+000 43 42 47
-1.255782e+000 -8.410256e-001 -4.016729e+000 65 28 22
-7.345388e-002 -1.829219e+000 -7.582229e+000 107 94 78
-2.088310e-001 -2.030652e+000 -7.852632e+000 211 211 200
-6.975457e-001 -5.911685e-001 -4.233384e+000 220 188 153
9.532625e-002 -3.175294e+000 -7.542491e+000 20 14 18
6.842345e-002 -9.065352e-001 -4.862328e+000 216 188 144
-1.520986e+000 -6.279956e-001 -4.013551e+000 95 80 51
-3.244657e+000 -1.402081e+000 -1.137239e+001 66 66 74
-1.042590e-001 2.700227e+000 -7.271955e+000 53 49 55
-1.628398e+000 -1.476061e+000 -9.050247e+000 153 55 57
5.963808e-001 3.951412e-001 -6.130497e+000 191 198 191
-1.359717e+000 -1.613641e+000 -8.106989e+000 178 72 69
1.952440e+000 -9.671645e-001 -6.233987e+000 158 58 56
3.392628e-001 1.231446e+000 -6.738898e+000 207 209 197
1.960821e-001 3.361628e-001 -6.059255e+000 203 206 195
1.222201e-001 -5.570070e-001 -4.704895e+000 137 78 38
5.570267e-001 2.461081e+000 -7.423601e+000 241 239 227
2.416950e+000 -7.568281e-001 -5.598619e+000 31 25 27
-6.541873e-001 -1.921371e+000 -8.255182e+000 197 198 184
1.290928e+000 -1.869829e+000 -6.306767e+000 183 181 169
1.783201e+000 8.405840e-001 -5.843205e+000 218 221 212
1.783201e+000 8.405840e-001 -5.843205e+000 218 221 212
2.240378e+000 -7.670206e-001 -5.922784e+000 183 80 78
2.570567e+000 -1.045756e+000 -5.841010e+000 49 49 51
2.155500e+000 -1.479979e+000 -6.196698e+000 38 24 26
9.705372e-001 -1.691252e+000 -6.697680e+000 86 70 56
-1.509155e-001 -1.435283e+000 -7.082731e+000 159 155 144
2.667987e+000 -1.340900e+000 -5.738978e+000 47 46 52
2.557617e+000 -1.576718e+000 -5.830530e+000 40 39 44
-1.119644e-001 -1.300521e+000 -4.904480e+000 82 37 24
-4.289426e-002 -1.547244e+000 -7.152797e+000 99 77 66
1.714678e+000 -1.397571e+000 -6.185040e+000 188 141 123
-2.815103e+000 -1.038715e+000 -1.082568e+001 42 36 40
-9.244012e-001 -1.151527e+000 -4.726685e+000 177 60 52
-2.379854e+000 -8.567620e-001 -1.054104e+001 42 38 39
-7.049312e-001 4.094042e-001 -8.517114e+000 207 208 194
-1.789142e+000 -1.072869e+000 -9.306558e+000 180 58 56
1.742532e+000 2.591777e+000 -6.558318e+000 204 192 174
-5.862702e-001 -4.436559e-001 -7.716114e+000 195 191 179
2.344829e+000 1.818465e+000 -5.650066e+000 140 60 58
9.440509e-001 6.537465e-001 -5.909986e+000 138 133 96
1.469700e+000 1.028759e+000 -6.038743e+000 207 204 185
-5.058617e-001 7.731547e-002 -5.032611e+000 139 73 51
-2.151363e-002 -1.172392e-001 -5.542622e+000 128 118 91
-2.151363e-002 -1.172392e-001 -5.542622e+000 128 118 91
-4.606178e-001 -1.412804e-001 -4.713871e+000 111 47 39
-4.380320e-001 -1.063988e-001 -4.643814e+000 121 85 72
-2.975796e-001 -5.711629e-002 -4.530665e+000 106 80 49
-2.975796e-001 -5.711629e-002 -4.530665e+000 106 80 49
1.276266e-001 -6.200558e-002 -5.173295e+000 153 152 143
1.683956e-001 2.004043e-002 -4.949133e+000 159 158 149
2.487076e-001 4.754529e-002 -5.078752e+000 158 160 149
-2.605633e-001 -9.354838e-002 -4.589167e+000 159 104 82
3.265864e+000 8.994942e-001 -5.907643e+000 49 43 47
3.338723e+000 9.241783e-001 -5.833185e+000 34 28 32
2.657583e+000 -2.633747e-001 -6.011263e+000 133 115 75
3.154007e+000 3.154769e-001 -5.681125e+000 69 63 67
3.217438e+000 5.274228e-001 -5.732069e+000 32 26 28
3.385791e+000 5.521263e-001 -5.735383e+000 30 24 28
1.226592e+000 -9.637374e-001 -5.727527e+000 133 99 86
1.299771e+000 -1.026549e+000 -5.859255e+000 128 85 76
-1.802977e-001 -1.201505e+000 -4.737464e+000 105 44 26
1.760024e+000 -1.444854e+000 -6.241580e+000 172 118 87
3.263363e+000 -7.694738e-002 -5.008065e+000 104 89 76
1.272471e+000 3.020404e+000 -6.681439e+000 213 191 131
1.035308e+000 1.985111e+000 -6.473487e+000 135 123 88
6.093620e-001 6.273326e-001 -6.364612e+000 199 201 187
-1.319568e+000 -1.246700e+000 -7.603588e+000 178 75 79
3.319102e-001 4.143263e-001 -6.342395e+000 187 188 172
-1.965391e-001 -9.702161e-002 -5.688167e+000 151 143 132
6.429474e-002 -9.849067e-002 -5.474292e+000 86 80 47
-9.091141e-001 -4.475864e-001 -4.802445e+000 126 60 31
-4.342865e-001 -1.266798e-001 -4.623948e+000 43 30 24
-4.000213e-001 -7.664095e-002 -4.568442e+000 133 120 111
-3.669166e-001 -5.204552e-002 -4.606121e+000 141 111 99
-3.349880e-001 -6.718468e-002 -4.636111e+000 70 37 24
3.344301e-001 -8.197663e-003 -5.188790e+000 186 187 179
-1.436965e+000 -5.703351e-001 -4.230608e+000 85 49 31
3.685815e-001 -1.467257e-001 -4.997029e+000 119 113 101
-1.407892e+000 -7.980526e-001 -4.042344e+000 128 95 63
3.251562e+000 5.089566e-001 -5.822642e+000 60 55 59
3.430574e+000 7.826863e-001 -5.867970e+000 53 43 51
3.560364e+000 9.172384e-001 -5.755258e+000 49 40 43
-1.341708e+000 -7.992495e-001 -3.912689e+000 129 105 73
-8.567523e-001 -9.217325e-001 -3.859111e+000 41 14 8
1.893947e+000 -1.423722e+000 -6.075684e+000 144 63 50
1.379848e+000 2.869052e+000 -6.597634e+000 186 87 75
-4.228372e-001 1.001559e+000 -8.362417e+000 213 210 195
1.450920e+000 2.301190e+000 -6.379112e+000 212 198 149
2.605777e-001 1.195181e+000 -7.075448e+000 185 185 173
2.060634e-001 6.207680e-001 -6.687130e+000 218 220 206
-6.325233e-001 -6.814731e-001 -8.067652e+000 211 212 198
-2.084979e-001 -3.651281e-002 -6.958513e+000 182 183 169
-9.873913e-001 -1.359837e+000 -8.103113e+000 184 176 158
1.459458e+000 1.111326e+000 -6.132296e+000 142 128 93
2.079485e+000 1.518695e+000 -5.892498e+000 141 70 70
-3.198789e-001 1.651414e-002 -5.501582e+000 141 85 63
1.111858e+000 5.724328e-001 -5.798469e+000 126 121 88
-2.741198e-001 -1.251855e-001 -5.341509e+000 78 40 27
1.209602e-002 2.024367e-002 -4.949734e+000 190 189 178
-4.720182e-001 -1.417360e-001 -4.617742e+000 164 129 106
-3.054665e-001 -4.914016e-002 -4.575705e+000 167 117 96
-8.208987e-001 -4.086155e-001 -4.362253e+000 172 155 143
-7.556546e-001 -3.627585e-001 -4.478683e+000 143 77 51
-6.901201e-001 -4.758151e-001 -4.545957e+000 112 47 16
-3.080868e-001 -1.041747e-001 -4.551722e+000 166 151 123
-1.566887e-001 -2.001895e-001 -4.598762e+000 172 113 82
9.283481e-001 -6.971376e-001 -5.762748e+000 184 175 162
1.566256e+000 -5.590534e-001 -6.024135e+000 75 44 23
1.619207e+000 -7.526506e-001 -6.086143e+000 149 113 83
1.639636e+000 -6.918197e-001 -6.051458e+000 92 36 34
1.737494e+000 2.422145e+000 -7.060056e+000 221 216 204
1.461712e+000 2.124455e+000 -6.364707e+000 254 252 201
1.577995e+000 2.122971e+000 -6.409533e+000 226 225 213
-8.018512e-001 2.153688e-001 -8.635530e+000 197 198 182
-8.018512e-001 2.153688e-001 -8.635530e+000 197 198 182
1.334461e+000 1.379034e+000 -6.796720e+000 145 132 97
-2.796739e-001 -1.495684e-001 -6.909418e+000 211 211 198
1.081078e+000 8.152998e-001 -6.061053e+000 178 167 120
-2.661075e-001 4.475826e-002 -5.645321e+000 189 182 173
4.229793e-001 1.685217e-001 -5.345344e+000 163 165 152
-1.340158e+000 -4.717239e-001 -4.347032e+000 140 83 50
-1.336183e-001 -2.587077e-002 -4.767471e+000 174 174 158
-4.092301e-002 -5.001711e-002 -4.804735e+000 161 158 143
-1.414631e+000 -3.400362e-001 -3.946510e+000 48 28 18
-1.414631e+000 -3.400362e-001 -3.946510e+000 48 28 18
4.403486e-001 -2.160742e-001 -5.110699e+000 143 135 122
5.696130e-001 -3.161197e-001 -5.336089e+000 141 133 121
1.662189e+000 -6.518269e-001 -6.112539e+000 151 113 91
1.240047e+000 -7.982503e-001 -5.849699e+000 147 77 66
1.553451e+000 -8.072359e-001 -6.107802e+000 87 38 24
3.206466e+000 3.329736e-001 -5.762088e+000 27 21 25
-2.370968e-001 -1.168726e+000 -4.712960e+000 137 69 49
-2.004872e-001 -1.157194e+000 -4.762231e+000 97 30 16
1.709989e+000 -1.505590e+000 -6.292866e+000 164 71 63
-4.539520e-001 -1.324465e+000 -4.532445e+000 41 17 15
3.223992e+000 -2.446682e-001 -5.170109e+000 24 12 11
1.802376e+000 2.667764e+000 -6.226852e+000 215 193 175
1.526169e+000 2.294306e+000 -6.307285e+000 228 219 210
1.420819e+000 2.130147e+000 -6.430900e+000 173 159 110
1.666015e+000 2.199017e+000 -6.677648e+000 222 222 206
-8.714078e-001 -7.981514e-001 -8.033035e+000 222 220 208
-1.017540e-001 -1.643339e-001 -5.569165e+000 59 50 33
-5.234384e-001 -1.803135e-001 -5.004674e+000 101 38 24
3.509428e-001 2.552811e-004 -5.451096e+000 139 140 124
-1.520741e+000 -6.697861e-001 -3.932549e+000 76 58 50
1.998708e+000 1.028731e-002 -5.784672e+000 63 37 33
-1.381211e+000 -6.807623e-001 -3.842363e+000 65 55 53
-5.207969e-001 -5.008911e-001 -4.253498e+000 164 127 87
1.134646e+000 -5.431935e-001 -5.613495e+000 93 47 39
-1.805261e-001 -1.056962e+000 -4.841902e+000 77 23 15
1.252485e+000 3.173822e+000 -6.746524e+000 255 255 193
1.633682e+000 2.857335e+000 -6.708204e+000 200 76 74
-1.005201e+000 9.096463e-001 -8.997564e+000 219 210 190
2.798174e-001 1.177528e+000 -7.712290e+000 190 187 172
1.160885e+000 1.358672e+000 -6.276635e+000 113 103 70
-9.620979e-001 -8.467290e-001 -8.369367e+000 193 191 177
-1.344431e-001 9.861757e-002 -6.534856e+000 217 217 204
2.273764e-001 4.497037e-001 -6.193643e+000 214 216 204
-3.282977e-001 -3.581140e-002 -5.231951e+000 161 97 62
5.606455e-002 3.160476e-002 -5.521651e+000 197 198 186
-1.355735e+000 -7.358203e-001 -4.030949e+000 62 15 14
1.567657e+000 -8.030845e-001 -5.936747e+000 181 147 105
-3.525765e-001 -1.367540e+000 -4.667557e+000 30 23 26
-3.525765e-001 -1.367540e+000 -4.667557e+000 30 23 26
3.441537e+000 -6.526682e-001 -5.501905e+000 46 37 42
1.565759e-001 9.029345e-001 -7.490197e+000 226 227 215
1.076151e+000 9.593701e-001 -6.030290e+000 141 136 97
2.527688e-001 -3.540170e-003 -4.938070e+000 138 138 128
-8.143691e-001 -4.488087e-001 -4.324912e+000 52 36 35
-4.517300e-001 -7.324506e-001 -4.502926e+000 93 33 22
1.152634e+000 2.591230e+000 -6.836230e+000 166 149 105
4.263996e-001 3.690269e-001 -7.081742e+000 191 193 179
8.582785e-001 4.922100e-001 -5.872584e+000 110 104 76
8.582785e-001 4.922100e-001 -5.872584e+000 110 104 76
1.962535e-001 -2.101558e-002 -5.368491e+000 110 101 68
2.774575e+000 -2.565111e-001 -5.917840e+000 83 65 41
-1.747258e-002 -1.152426e+000 -4.729947e+000 152 77 39
3.905637e-001 1.613312e+000 -6.880177e+000 205 203 191
-1.225362e+000 -1.441868e+000 -8.086033e+000 207 198 180
-9.513409e-002 -5.492988e-002 -5.622077e+000 194 192 178
-9.218794e-001 -4.427848e-001 -4.117643e+000 104 46 32
9.964896e-001 -1.012838e+000 -5.532558e+000 139 112 93
-6.828551e-001 -2.089934e-001 -4.985116e+000 214 121 74
-6.828551e-001 -2.089934e-001 -4.985116e+000 214 121 74
-6.382758e-001 -5.139552e-001 -4.688024e+000 112 50 36
2.581129e+000 -2.188930e-001 -5.864926e+000 153 135 95
2.448584e+000 1.366185e+000 -5.808517e+000 49 44 48
6.019978e-001 -4.776505e-001 -5.385914e+000 65 49 43
3.023997e+000 6.682942e-002 -4.925572e+000 79 58 34
3.023997e+000 6.682942e-002 -4.925572e+000 79 58 34
1.209605e+000 2.364679e+000 -6.785011e+000 146 134 91
-2.992998e-001 -7.850976e-002 -5.331971e+000 138 80 52
3.210549e+000 -5.921729e-002 -5.511577e+000 82 58 34
3.210549e+000 -5.921729e-002 -5.511577e+000 82 58 34
1.476677e+000 2.321733e+000 -5.233988e+000 210 201 184
-1.179660e-001 4.838802e+000 -9.155430e+000 63 63 70
2.579823e+000 2.471101e-001 -5.899027e+000 122 123 125
2.579823e+000 2.471101e-001 -5.899027e+000 122 123 125
-7.750131e-001 4.483052e+000 -9.280445e+000 50 48 53
2.150652e+000 -1.876002e-001 -5.932842e+000 122 81 63
1.655914e+000 -5.374761e-001 -6.164267e+000 135 119 82
1.664780e+000 -5.269327e-001 -6.186047e+000 135 119 82
-3.673073e-002 4.905808e+000 -8.630434e+000 39 37 40
2.656942e+000 5.133508e-001 -5.887853e+000 69 71 76
-5.276559e-001 4.683263e+000 -9.221070e+000 41 40 45
2.719647e+000 -7.535538e-001 -5.791275e+000 51 50 55
2.457553e+000 -1.209974e+000 -5.851715e+000 55 56 60
2.452931e+000 -1.408457e+000 -5.856942e+000 46 45 50
5.778530e-001 -8.183154e-001 -5.537624e+000 80 70 68
-3.199103e+000 1.624838e-001 -1.085845e+001 55 57 62
-7.797414e-002 5.117533e+000 -8.589100e+000 108 108 114
2.749092e+000 2.648562e-001 -5.870282e+000 54 59 62
3.045377e+000 -7.858856e-001 -5.486124e+000 44 42 46
2.608715e+000 -6.970367e-001 -5.766862e+000 36 34 35
2.645637e+000 -9.510964e-001 -5.823655e+000 96 95 101
2.625726e+000 -1.028352e+000 -5.766205e+000 44 43 48
1.556118e+000 -5.693528e-001 -6.088381e+000 99 73 43
-3.276781e+000 7.537558e-001 -1.086582e+001 63 66 73
-1.203074e+000 -1.906323e+000 -8.608581e+000 137 120 110
2.709155e+000 4.309702e-001 -5.855615e+000 57 58 63
1.488642e+000 1.136726e+000 -6.076257e+000 141 137 109
2.475005e+000 -1.190064e+000 -5.933841e+000 51 52 56
1.638244e+000 -1.123194e+000 -6.021100e+000 200 166 128
1.638244e+000 -1.123194e+000 -6.021100e+000 200 166 128
1.172756e+000 -1.443249e+000 -6.438016e+000 124 114 102
-1.102831e-001 -1.392147e+000 -7.060667e+000 160 157 148
-6.932221e-001 -2.312500e+000 -8.243655e+000 199 195 184
2.843385e+000 2.461530e-001 -5.718543e+000 63 61 50
7.107384e-001 -4.514529e-001 -5.509519e+000 162 165 159
1.363839e+000 -6.750223e-001 -5.983361e+000 150 130 96
1.359696e+000 -8.613864e-001 -5.986698e+000 216 189 144
-1.359612e+000 -8.349931e-001 -3.975214e+000 132 111 74
-1.023516e+000 -7.603361e-001 -8.723337e+000 202 205 196
-7.412298e-001 -1.404083e+000 -7.922973e+000 217 218 210
5.352014e-002 -2.085753e+000 -7.636988e+000 164 159 147
1.658362e+000 1.747028e+000 -6.112006e+000 205 205 197
9.688558e-001 2.886582e+000 -7.055831e+000 81 65 49
1.421489e+000 1.422589e+000 -6.084462e+000 254 254 245
2.446047e+000 3.070333e-001 -5.853145e+000 179 69 68
1.602350e+000 -7.300584e-001 -6.115626e+000 129 91 64
1.840416e+000 -1.500684e+000 -6.285784e+000 183 75 77
2.699308e-001 -1.310643e+000 -5.270462e+000 50 30 23
-1.487430e+000 1.030781e-001 -9.137347e+000 181 61 58
-1.691026e+000 3.337994e-002 -9.309831e+000 178 63 59
-1.061640e+000 -4.881633e-001 -8.854114e+000 221 224 213
-1.873034e+000 -6.057335e-002 -9.512256e+000 36 25 33
-1.742722e+000 -1.760253e-001 -9.443385e+000 182 64 62
-1.481842e+000 -4.651548e-001 -4.114819e+000 37 27 29
-7.444283e-003 -1.317802e+000 -4.951767e+000 184 105 65
-7.842368e-001 -1.072485e+000 -5.216768e+000 61 31 28
-1.532239e+000 -1.347706e-001 -9.228284e+000 178 63 58
-1.738288e+000 -1.797392e-001 -9.453261e+000 183 65 62
-1.689287e-001 -1.674691e+000 -7.372163e+000 184 186 178
-9.535610e-001 -1.285196e+000 -8.112492e+000 223 229 219
1.728814e+000 1.080692e+000 -5.785949e+000 207 204 195
1.728814e+000 1.080692e+000 -5.785949e+000 207 204 195
1.198152e+000 1.761395e+000 -6.520542e+000 102 95 66
-3.123939e-001 -1.064758e+000 -4.675718e+000 95 46 32
2.260808e+000 -3.149680e-001 -5.896362e+000 130 118 82
2.733496e+000 -1.302556e+000 -5.676496e+000 73 74 79
-2.267597e-001 -5.799509e-001 -4.543555e+000 109 60 39
1.402925e+000 -1.486524e+000 -6.304318e+000 223 220 214
-8.152986e-001 -1.831734e+000 -8.373597e+000 217 217 205
-3.387355e+000 8.066766e-001 -1.098823e+001 75 78 85
-3.387355e+000 8.066766e-001 -1.098823e+001 75 78 85
3.648027e-001 -6.963919e-001 -4.791007e+000 73 38 35
-8.101940e-001 -1.446875e+000 -6.506008e+000 222 227 220
1.476675e+000 1.314134e+000 -6.057532e+000 148 139 107
-2.326449e-001 -1.550274e-001 -5.757204e+000 86 71 61
1.256681e+000 8.619546e-001 -5.916546e+000 140 137 110
-1.857646e-002 -1.430897e-001 -5.532290e+000 79 68 40
-1.301778e+000 -3.382479e-001 -4.142768e+000 95 42 26
-9.325013e-003 -1.520796e-001 -5.492623e+000 116 109 78
-4.078462e-001 -1.081783e-001 -4.663354e+000 73 44 41
-3.350693e-001 -5.034153e-002 -4.613643e+000 65 38 24
8.796234e-002 4.107266e-002 -4.927195e+000 140 141 133
-8.260099e-001 -4.822274e-001 -4.291774e+000 54 38 38
1.015103e+000 -5.322037e-001 -5.560366e+000 147 142 128
-1.373787e-001 -1.108776e+000 -4.836306e+000 122 61 50
3.833985e-002 -1.362848e+000 -4.888843e+000 77 45 33
-1.618672e-001 -3.031579e-002 -5.646274e+000 155 156 146
-7.084347e-001 -1.899945e-001 -4.668991e+000 166 96 59
-8.886942e-001 -4.321779e-001 -4.169877e+000 124 86 66
-6.271350e-001 -4.016254e-001 -4.525395e+000 108 47 28
3.252838e-001 -1.936173e-001 -4.944101e+000 115 112 99
-1.485418e+000 -8.144171e-001 -3.845682e+000 64 59 65
-1.046918e+000 -7.011349e-001 -3.968018e+000 139 62 39
-1.020821e+000 -9.159682e-001 -3.936714e+000 66 21 15
-8.272882e-001 -9.191703e-001 -3.897720e+000 70 45 43
-4.437514e-001 -1.133377e+000 -4.468962e+000 141 65 34
-3.971393e-001 9.596236e-002 -5.466860e+000 184 172 158
-1.848785e-001 -1.667414e-001 -5.702042e+000 89 77 63
-7.134228e-001 -3.684703e-001 -4.718428e+000 186 107 69
-3.624831e-001 -1.298471e-001 -4.618163e+000 156 142 113
4.984324e-001 -1.255680e-002 -5.346427e+000 168 170 159
-2.216405e-001 -6.084968e-002 -4.470249e+000 176 133 107
-1.521027e+000 -7.763548e-001 -3.832109e+000 133 117 73
-1.460634e+000 -7.506239e-001 -3.830276e+000 129 113 73
-1.351686e+000 -6.651761e-001 -3.871552e+000 118 91 61
4.092754e-001 -2.231823e-001 -4.952974e+000 145 138 127
-9.300286e-001 -6.281226e-001 -3.903463e+000 144 74 49
-4.136533e-001 -1.058569e+000 -4.509627e+000 127 51 26
4.206748e-001 7.789491e-001 -6.377652e+000 224 228 214
-3.580109e-001 6.396127e-002 -5.622278e+000 126 84 67
1.011689e+000 9.327907e-001 -6.054001e+000 205 208 195
-2.520507e-001 -4.288802e-002 -5.687148e+000 111 85 73
2.707831e-001 1.551145e-001 -5.552336e+000 202 205 196
5.572722e-001 2.067938e-001 -5.657585e+000 190 193 182
-1.274365e+000 -4.559627e-001 -4.073069e+000 71 23 18
-6.242789e-001 -5.048619e-001 -4.744053e+000 59 15 6
-9.324617e-001 -8.655632e-001 -3.926950e+000 79 22 20
1.492123e+000 1.062737e+000 -5.976940e+000 215 216 204
-9.485810e-001 -2.716622e-001 -4.144726e+000 77 28 17
1.583646e+000 -2.773570e-001 -5.872767e+000 96 76 53
-2.989574e-001 -6.441700e-001 -4.626844e+000 181 138 103
-3.130712e-001 -1.094918e+000 -4.588913e+000 105 33 19
-1.501192e+000 -7.612382e-001 -3.880864e+000 123 105 64
-9.788333e-001 -5.671950e-001 -3.924272e+000 99 41 29
1.273214e+000 9.863949e-001 -6.264937e+000 244 242 202
2.134664e+000 1.700677e+000 -5.835284e+000 128 53 51
1.176166e+000 8.090909e-001 -6.013200e+000 115 110 82
5.647329e-002 -8.220229e-001 -4.722932e+000 208 170 125
9.247639e-001 3.191014e-001 -5.230763e+000 200 202 189
8.143562e-001 -5.269341e-001 -5.531075e+000 79 70 61
1.211576e+000 -1.297328e+000 -5.280682e+000 191 189 174
1.211576e+000 -1.297328e+000 -5.280682e+000 191 189 174
3.926743e-002 -1.253604e+000 -4.901560e+000 145 92 75
-9.691205e-001 -1.050682e+000 -4.074337e+000 72 28 12
1.293221e+000 -1.282901e+000 -6.259695e+000 86 72 61
7.464578e-001 -5.008040e-001 -5.564435e+000 100 95 87
-5.860568e-001 -1.333349e+000 -7.269769e+000 216 221 215
2.790789e+000 -8.377471e-001 -5.748578e+000 43 42 47
1.119010e+000 -3.405719e-001 -5.622164e+000 163 168 162
2.306003e+000 -1.426323e+000 -6.077311e+000 44 43 48
-3.136266e-001 -1.724762e-001 -4.558254e+000 205 182 140
1.641847e+000 -3.578029e-001 -5.843392e+000 49 30 31
-4.076725e-001 5.767294e+000 -8.307459e+000 64 61 67
-3.584172e-001 5.726973e+000 -8.370623e+000 77 75 81
-9.141821e-002 5.003730e+000 -8.489367e+000 110 108 114
3.086071e+000 -8.816292e-001 -5.550496e+000 73 72 77
5.909955e-002 4.780784e+000 -8.479300e+000 30 28 34
1.205787e+000 1.194201e+000 -6.226553e+000 144 135 99
2.597464e+000 -4.777581e-001 -5.653966e+000 198 192 132
2.942373e+000 -6.398252e-001 -5.825172e+000 58 56 59
2.840831e+000 -1.054110e+000 -5.708538e+000 81 80 85
2.859506e+000 -1.165508e+000 -5.680789e+000 69 70 74
2.932305e+000 -1.117961e+000 -5.688101e+000 62 62 70
2.513704e+000 -8.840604e-001 -5.968468e+000 118 119 123
3.164728e+000 -1.836305e+000 -5.307718e+000 47 44 51
2.510270e+000 -1.064087e+000 -5.963840e+000 112 111 116
2.569932e+000 -1.300313e+000 -5.870402e+000 78 79 84
2.764818e+000 -1.413381e+000 -5.748497e+000 42 43 48
2.763887e+000 -1.499770e+000 -5.754030e+000 49 48 53
3.038909e+000 -2.113221e+000 -5.351512e+000 47 45 50
2.418948e+000 -1.300059e+000 -5.951142e+000 52 53 57
2.464849e+000 -1.401349e+000 -5.945534e+000 73 72 77
2.497275e+000 -1.377706e+000 -5.994931e+000 73 72 77
2.297764e+000 -1.725604e+000 -6.044765e+000 77 76 81
2.436130e+000 -1.912328e+000 -5.927355e+000 82 82 88
2.436130e+000 -1.912328e+000 -5.927355e+000 82 82 88
2.294954e+000 -1.863674e+000 -6.013138e+000 48 47 52
2.388042e+000 -1.925747e+000 -5.909940e+000 46 45 51
2.427422e+000 -1.969167e+000 -5.887076e+000 39 38 44
2.403862e+000 -2.017902e+000 -5.948053e+000 76 73 80
2.077882e+000 -1.677064e+000 -6.229436e+000 49 48 53
2.051695e+000 -1.880956e+000 -6.194279e+000 33 31 36
1.681810e+000 -1.797843e+000 -6.015401e+000 177 80 83
2.042544e+000 -2.231663e+000 -6.228174e+000 51 49 54
2.072750e+000 -2.266171e+000 -6.137797e+000 41 40 46
2.002857e+000 -2.235322e+000 -6.218772e+000 38 36 41
1.036648e+000 -1.579339e+000 -6.752221e+000 89 78 66
-1.707542e+000 1.902379e+000 -9.740375e+000 40 38 41
6.713265e-001 -1.548241e+000 -6.557070e+000 76 59 51
-1.838528e+000 1.514402e+000 -9.861140e+000 60 59 64
-1.945171e+000 1.370571e+000 -9.850402e+000 54 53 58
-3.718014e-001 -1.237061e+000 -7.213340e+000 228 234 228
-2.062827e-001 -1.327511e+000 -7.156117e+000 181 181 174
-1.353271e-001 -1.607131e+000 -7.016616e+000 99 91 80
