ply
format ascii 1.0
element face 0
property list uchar int vertex_indices
element vertex 882
property float x
property float y
property float z
property uchar diffuse_red
property uchar diffuse_green
property uchar diffuse_blue
end_header
1.015399e+000 -5.318845e-001 -5.560522e+000 147 142 128
-1.375352e-001 -1.108896e+000 -4.836497e+000 122 61 50
3.828478e-002 -1.363032e+000 -4.889060e+000 77 45 33
-1.619935e-001 -2.989027e-002 -5.646566e+000 155 156 146
-7.089692e-001 -1.898020e-001 -4.669080e+000 166 96 59
-8.893992e-001 -4.321697e-001 -4.169786e+000 124 86 66
-6.276407e-001 -4.015440e-001 -4.525438e+000 108 47 28
3.252522e-001 -1.933403e-001 -4.944185e+000 115 112 99
-1.486394e+000 -8.146329e-001 -3.845578e+000 64 59 65
-1.047703e+000 -7.012782e-001 -3.967883e+000 139 62 39
-1.021567e+000 -9.162082e-001 -3.936596e+000 66 21 15
-8.279582e-001 -9.194274e-001 -3.897568e+000 70 45 43
-4.441005e-001 -1.133592e+000 -4.469049e+000 141 65 34
-3.973986e-001 9.638861e-002 -5.467153e+000 184 172 158
-1.849895e-001 -1.663534e-001 -5.702350e+000 89 77 63
-7.139253e-001 -3.683453e-001 -4.718553e+000 186 107 69
-3.628796e-001 -1.296244e-001 -4.618195e+000 156 142 113
4.985009e-001 -1.212665e-002 -5.346570e+000 168 170 159
-2.220067e-001 -6.061125e-002 -4.470199e+000 176 133 107
-1.522030e+000 -7.765660e-001 -3.832005e+000 133 117 73
-1.461618e+000 -7.508182e-001 -3.830150e+000 129 113 73
-1.352632e+000 -6.653226e-001 -3.871408e+000 118 91 61
4.092832e-001 -2.229143e-001 -4.953058e+000 145 138 127
-9.307889e-001 -6.282491e-001 -3.903275e+000 144 74 49
-4.139905e-001 -1.058750e+000 -4.509720e+000 127 51 26
4.207850e-001 7.797342e-001 -6.377950e+000 224 228 214
-3.582204e-001 6.440106e-002 -5.622594e+000 126 84 67
1.011936e+000 9.336574e-001 -6.054152e+000 205 208 195
-2.521993e-001 -4.246769e-002 -5.687461e+000 111 85 73
2.707795e-001 1.556233e-001 -5.552537e+000 202 205 196
5.573774e-001 2.073543e-001 -5.657759e+000 190 193 182
-1.275261e+000 -4.559787e-001 -4.072971e+000 71 23 18
-6.247207e-001 -5.047855e-001 -4.744192e+000 59 15 6
-9.331800e-001 -8.657878e-001 -3.926812e+000 79 22 20
1.492501e+000 1.063679e+000 -5.976982e+000 215 216 204
-9.493434e-001 -2.715854e-001 -4.144609e+000 77 28 17
1.584085e+000 -2.768349e-001 -5.872818e+000 96 76 53
-2.992684e-001 -6.441675e-001 -4.626930e+000 181 138 103
-3.133464e-001 -1.095093e+000 -4.589032e+000 105 33 19
-1.502176e+000 -7.614277e-001 -3.880769e+000 123 105 64
-9.796205e-001 -5.672897e-001 -3.924090e+000 99 41 29
1.273543e+000 9.872993e-001 -6.265061e+000 244 242 202
2.135198e+000 1.701864e+000 -5.835179e+000 128 53 51
1.176459e+000 8.099323e-001 -6.013295e+000 115 110 82
5.635077e-002 -8.220653e-001 -4.723047e+000 208 170 125
9.249607e-001 3.196820e-001 -5.230785e+000 200 202 189
8.145974e-001 -5.266633e-001 -5.531350e+000 79 70 61
1.212004e+000 -1.297412e+000 -5.281020e+000 191 189 174
1.212004e+000 -1.297412e+000 -5.281020e+000 191 189 174
3.907203e-002 -1.253802e+000 -4.901458e+000 145 92 75
-9.698188e-001 -1.050777e+000 -4.074112e+000 72 28 12
1.293736e+000 -1.282665e+000 -6.260282e+000 86 72 61
7.466683e-001 -5.004419e-001 -5.564676e+000 100 95 87
-5.859923e-001 -1.332899e+000 -7.271276e+000 216 221 215
2.791796e+000 -8.373118e-001 -5.748846e+000 43 42 47
1.119343e+000 -3.401320e-001 -5.622358e+000 163 168 162
2.306877e+000 -1.426094e+000 -6.077786e+000 44 43 48
-3.139716e-001 -1.721548e-001 -4.558126e+000 205 182 140
1.642227e+000 -3.574534e-001 -5.843409e+000 49 30 31
-4.075701e-001 5.768084e+000 -8.307196e+000 64 61 67
-3.583039e-001 5.727766e+000 -8.370355e+000 77 75 81
-9.126846e-002 5.004626e+000 -8.489182e+000 110 108 114
3.087242e+000 -8.811898e-001 -5.550743e+000 73 72 77
5.926002e-002 4.781712e+000 -8.479139e+000 30 28 34
1.206090e+000 1.195133e+000 -6.226728e+000 144 135 99
2.598401e+000 -4.772056e-001 -5.654190e+000 198 192 132
2.943459e+000 -6.392697e-001 -5.825486e+000 58 56 59
2.841911e+000 -1.053747e+000 -5.708851e+000 81 80 85
2.860599e+000 -1.165194e+000 -5.681101e+000 69 70 74
2.933429e+000 -1.117615e+000 -5.688420e+000 62 62 70
2.514592e+000 -8.836592e-001 -5.968791e+000 118 119 123
3.165857e+000 -1.836352e+000 -5.307843e+000 47 44 51
2.511172e+000 -1.063753e+000 -5.964185e+000 112 111 116
2.570893e+000 -1.300067e+000 -5.870765e+000 78 79 84
2.765887e+000 -1.413168e+000 -5.748859e+000 42 43 48
2.764955e+000 -1.499595e+000 -5.754397e+000 49 48 53
3.040017e+000 -2.113381e+000 -5.351694e+000 47 45 50
2.419829e+000 -1.299827e+000 -5.951507e+000 52 53 57
2.465779e+000 -1.401128e+000 -5.945948e+000 73 72 77
2.498201e+000 -1.377482e+000 -5.995334e+000 73 72 77
2.298632e+000 -1.725527e+000 -6.045222e+000 77 76 81
2.437079e+000 -1.912328e+000 -5.927814e+000 82 82 88
2.437079e+000 -1.912328e+000 -5.927814e+000 82 82 88
2.295837e+000 -1.863655e+000 -6.013611e+000 48 47 52
2.388780e+000 -1.925841e+000 -5.910180e+000 46 45 51
2.428400e+000 -1.969169e+000 -5.887580e+000 39 38 44
2.404792e+000 -2.017941e+000 -5.948522e+000 76 73 80
2.078646e+000 -1.676963e+000 -6.229921e+000 49 48 53
2.052485e+000 -1.880931e+000 -6.194817e+000 33 31 36
1.682517e+000 -1.797834e+000 -6.015973e+000 177 80 83
2.043359e+000 -2.231763e+000 -6.228780e+000 51 49 54
2.073577e+000 -2.266304e+000 -6.138375e+000 41 40 46
2.003654e+000 -2.235431e+000 -6.219371e+000 38 36 41
1.037126e+000 -1.579136e+000 -6.753034e+000 89 78 66
-1.707213e+000 1.903213e+000 -9.740761e+000 40 38 41
6.716564e-001 -1.548091e+000 -6.557836e+000 76 59 51
-1.838185e+000 1.515258e+000 -9.861648e+000 60 59 64
-1.944841e+000 1.371428e+000 -9.850969e+000 54 53 58
-3.716890e-001 -1.236590e+000 -7.214753e+000 228 234 228
-2.061312e-001 -1.327116e+000 -7.157389e+000 181 181 174
-1.351365e-001 -1.606833e+000 -7.018012e+000 99 91 80
-2.304327e-001 -1.540765e+000 -7.302011e+000 165 161 152
-1.795880e-001 -1.623978e+000 -7.283700e+000 140 135 130
-5.393414e-001 -1.477197e+000 -7.653625e+000 215 216 206
-4.172551e-001 -1.624294e+000 -7.685544e+000 172 167 155
7.202320e-003 -1.853629e+000 -7.318037e+000 114 99 86
-3.411237e+000 1.252078e+000 -1.084508e+001 73 71 76
-3.381314e+000 1.145176e+000 -1.082549e+001 57 56 62
-4.356848e-001 -1.777250e+000 -7.973693e+000 137 130 120
-3.206775e+000 7.365349e-001 -1.076427e+001 63 64 69
-3.435798e+000 6.864368e-001 -1.082665e+001 100 100 108
-3.096708e+000 6.486658e-001 -1.082952e+001 72 71 76
-3.226159e+000 5.703917e-001 -1.081775e+001 81 83 88
-2.920253e+000 2.826375e-001 -1.067130e+001 40 41 43
-3.264807e+000 5.060062e-001 -1.076035e+001 63 62 68
-3.204675e+000 4.810648e-001 -1.089000e+001 50 51 56
-3.251470e+000 4.192688e-001 -1.087607e+001 60 61 66
-3.318134e+000 4.021939e-001 -1.087539e+001 93 94 99
-3.344794e+000 3.107865e-001 -1.083661e+001 105 106 111
-3.344794e+000 3.107865e-001 -1.083661e+001 105 106 111
-3.123522e+000 1.245465e-001 -1.081472e+001 67 68 72
-3.371603e+000 1.161549e-001 -1.088772e+001 97 98 103
-3.140727e+000 6.469861e-002 -1.077701e+001 52 53 58
-3.173072e+000 -1.141369e-002 -1.075874e+001 48 49 54
-3.132394e+000 -2.432508e-001 -1.079341e+001 51 51 56
-3.221347e+000 -4.028137e-001 -1.076594e+001 82 81 87
-1.376219e+000 -1.830031e+000 -8.686094e+000 123 88 82
3.701923e-001 -3.753064e+000 -7.788303e+000 48 46 51
-4.282396e-001 5.981645e+000 -8.378648e+000 76 71 77
-4.234778e-001 6.144732e+000 -8.505917e+000 76 71 77
2.722696e+000 2.510299e-001 -5.888000e+000 101 102 108
3.209737e+000 -6.683115e-001 -5.585360e+000 74 73 78
-3.481442e-001 5.446760e+000 -8.354017e+000 57 55 60
3.326684e+000 -1.349779e+000 -5.334004e+000 34 31 38
-5.382155e-002 4.912307e+000 -8.490226e+000 93 92 97
1.200741e+000 1.219928e+000 -6.155249e+000 153 145 98
2.997269e+000 -9.721543e-001 -5.598822e+000 54 54 64
2.997269e+000 -9.721543e-001 -5.598822e+000 54 54 64
2.940227e+000 -9.900012e-001 -5.667806e+000 54 53 59
3.333233e+000 -1.663758e+000 -5.202721e+000 75 74 80
3.333233e+000 -1.663758e+000 -5.202721e+000 75 74 80
-1.460910e-001 4.470776e+000 -8.658692e+000 54 55 57
-6.968737e-002 4.508844e+000 -8.713600e+000 37 34 37
2.790466e+000 -1.083951e+000 -5.697621e+000 52 51 56
2.990901e+000 -1.061835e+000 -5.663362e+000 89 89 98
2.608246e+000 -9.707093e-001 -5.923979e+000 94 93 100
2.733402e+000 -1.188107e+000 -5.753827e+000 56 55 61
2.809866e+000 -1.235439e+000 -5.715284e+000 129 129 137
2.809866e+000 -1.235439e+000 -5.715284e+000 129 129 137
2.772069e+000 -1.192420e+000 -5.752670e+000 102 102 110
2.813245e+000 -1.332797e+000 -5.757683e+000 91 91 99
2.416660e+000 -1.014071e+000 -6.004854e+000 59 51 59
2.559135e+000 -1.000239e+000 -5.933175e+000 48 47 52
2.696583e+000 -1.399481e+000 -5.713103e+000 56 57 62
2.728625e+000 -1.480367e+000 -5.731737e+000 35 33 40
2.471239e+000 -1.286725e+000 -5.915181e+000 44 45 49
2.387092e+000 -1.244543e+000 -6.010981e+000 95 96 100
2.347762e+000 -1.227701e+000 -6.004665e+000 49 50 54
2.413165e+000 -1.400584e+000 -5.921123e+000 43 42 47
2.634472e+000 -1.428094e+000 -5.808883e+000 125 126 131
2.611193e+000 -1.580550e+000 -5.791113e+000 51 51 59
2.686305e+000 -1.552529e+000 -5.741738e+000 38 36 45
1.763743e+000 -1.010324e+000 -5.988881e+000 164 75 59
2.181103e+000 -1.322365e+000 -6.083506e+000 112 45 48
2.424475e+000 -1.577332e+000 -5.962875e+000 83 82 88
2.475896e+000 -1.704011e+000 -5.926032e+000 44 44 51
2.544118e+000 -1.790790e+000 -5.795056e+000 32 31 37
2.269176e+000 -1.625790e+000 -6.062077e+000 41 40 45
2.292267e+000 -1.620314e+000 -6.032231e+000 81 80 85
2.302178e+000 -1.613565e+000 -6.048328e+000 81 80 85
2.319332e+000 -1.748529e+000 -5.987168e+000 45 44 49
-1.609329e+000 -4.735763e-001 -4.083598e+000 76 53 28
1.490712e+000 -1.178606e+000 -6.094154e+000 144 113 83
1.901947e+000 -1.647954e+000 -6.057989e+000 154 62 64
2.039390e+000 -1.592940e+000 -6.239826e+000 46 32 32
2.201360e+000 -1.775174e+000 -6.104975e+000 43 42 47
2.380179e+000 -1.922860e+000 -5.953224e+000 110 109 115
2.379122e+000 -1.923294e+000 -5.951978e+000 110 109 115
2.438800e+000 -1.981080e+000 -5.937256e+000 40 37 44
2.054062e+000 -1.852783e+000 -6.184912e+000 36 34 39
2.054062e+000 -1.852783e+000 -6.184912e+000 36 34 39
2.222955e+000 -2.195850e+000 -6.058586e+000 36 35 40
2.306181e+000 -2.249800e+000 -6.008198e+000 44 43 48
-1.789319e+000 1.849710e+000 -9.802354e+000 42 41 46
-1.789319e+000 1.849710e+000 -9.802354e+000 42 41 46
9.795563e-001 -1.605597e+000 -6.713377e+000 100 88 76
9.614342e-001 -1.703471e+000 -6.676120e+000 81 67 56
-1.995803e+000 1.196620e+000 -1.003422e+001 47 46 51
-4.515968e-001 -9.741952e-001 -7.887094e+000 218 225 217
-4.534242e-001 -9.893226e-001 -7.851064e+000 218 225 217
-3.289645e+000 1.212249e+000 -1.089853e+001 30 28 31
-3.166965e+000 6.987504e-001 -1.079990e+001 106 105 111
-3.159636e+000 2.347309e-001 -1.071021e+001 52 51 57
-3.020721e+000 3.389128e-001 -1.099681e+001 79 78 83
-3.264168e+000 -6.386714e-002 -1.082038e+001 65 66 71
-1.696936e+000 -1.565743e+000 -9.150648e+000 122 41 41
-1.701450e+000 -1.581532e+000 -9.359467e+000 134 55 57
-8.253523e-001 -2.336322e+000 -8.541885e+000 214 202 201
-8.253523e-001 -2.336322e+000 -8.541885e+000 214 202 201
-6.347861e-001 -2.679799e+000 -8.107105e+000 180 174 163
3.809933e-001 -3.621915e+000 -7.760817e+000 36 34 39
5.042683e-001 -3.706071e+000 -7.804466e+000 35 33 38
4.426000e-001 -3.752071e+000 -7.772786e+000 42 40 45
4.573998e-001 -3.755203e+000 -7.838813e+000 42 40 45
-2.031588e-001 5.581544e+000 -8.457586e+000 34 29 33
2.364400e+000 -1.055623e-001 -5.799401e+000 241 238 187
3.338591e+000 -1.269695e+000 -5.277306e+000 59 57 62
3.383886e+000 -1.491501e+000 -5.101247e+000 43 40 47
2.576041e+000 -4.136348e-001 -5.717382e+000 205 193 130
3.216833e+000 -1.778012e+000 -5.297680e+000 57 54 61
2.778671e+000 -1.139880e+000 -5.738108e+000 52 52 57
2.803934e+000 -1.181457e+000 -5.724277e+000 63 64 69
3.177238e+000 -1.874729e+000 -5.289260e+000 36 33 40
2.412804e+000 -8.336366e-001 -5.983302e+000 76 67 70
2.488453e+000 -9.575111e-001 -6.007757e+000 64 54 62
2.349914e+000 -9.701630e-001 -5.927440e+000 64 49 50
2.600481e+000 -1.039035e+000 -5.943805e+000 98 97 102
2.606362e+000 -1.257139e+000 -5.832742e+000 40 41 46
2.524974e+000 -1.281538e+000 -5.853927e+000 42 43 47
2.728584e+000 -1.327923e+000 -5.749361e+000 133 134 139
2.728584e+000 -1.327923e+000 -5.749361e+000 133 134 139
2.408581e+000 -1.231574e+000 -5.963095e+000 47 48 52
2.509733e+000 -1.452905e+000 -5.947859e+000 42 43 48
1.479705e+000 -6.756695e-001 -6.058590e+000 127 94 61
1.833995e+000 -9.173567e-001 -6.082085e+000 212 139 128
2.493479e+000 -1.610635e+000 -5.886665e+000 49 50 55
9.844682e-001 -8.780762e-001 -5.732450e+000 143 146 137
1.699026e+000 -1.121885e+000 -6.006889e+000 113 51 29
1.634338e+000 -1.188003e+000 -6.044543e+000 122 82 46
1.634602e+000 -1.188131e+000 -6.044757e+000 122 82 46
2.303489e+000 -1.545484e+000 -6.033373e+000 39 38 43
2.364717e+000 -1.631166e+000 -6.093269e+000 42 41 46
2.440544e+000 -1.751246e+000 -5.979923e+000 42 43 48
-1.013783e+000 -9.303927e-001 -4.003519e+000 104 41 24
5.932408e-002 -1.256972e+000 -4.853225e+000 132 94 74
5.660483e-002 -1.260336e+000 -4.845901e+000 132 94 74
2.149444e+000 -2.208470e+000 -6.114157e+000 35 34 40
-4.684307e-001 -1.444431e+000 -4.866070e+000 96 44 28
-2.332623e-001 -1.539543e+000 -4.925160e+000 70 31 20
-3.489449e-001 -1.297158e+000 -7.192907e+000 199 204 197
-1.432260e+000 -2.005207e-002 -9.128650e+000 196 189 172
-3.295617e-001 -1.554683e+000 -7.467805e+000 164 164 154
-7.847075e-001 -1.506471e+000 -8.061264e+000 182 179 170
-3.275990e+000 7.142680e-001 -1.094810e+001 54 55 61
-3.020761e+000 1.571588e-001 -1.058367e+001 41 42 46
-3.027564e+000 7.584936e-002 -1.072510e+001 39 38 43
-8.923519e-001 -2.221073e+000 -8.507378e+000 184 176 167
1.377642e+000 -4.012938e+000 -7.148361e+000 25 22 28
3.015540e-001 -3.596917e+000 -7.850848e+000 36 33 40
2.245195e-001 -3.710668e+000 -7.881653e+000 33 31 36
1.438406e+000 2.327602e+000 -6.205543e+000 225 216 206
2.985570e+000 -1.084994e+000 -5.576871e+000 41 36 42
1.478669e+000 -5.031367e-001 -5.945400e+000 49 34 27
2.379924e+000 -1.538503e+000 -5.947462e+000 41 40 45
9.317512e-001 -7.920856e-001 -5.725882e+000 192 192 184
2.415600e+000 -1.624226e+000 -6.003330e+000 42 41 46
2.415600e+000 -1.624226e+000 -6.003330e+000 42 41 46
2.422279e+000 -1.853319e+000 -5.941320e+000 43 43 51
2.189582e+000 -1.608606e+000 -6.126355e+000 41 40 45
-1.616752e+000 -5.243584e-001 -4.061530e+000 140 121 87
-1.358074e+000 -8.499557e-001 -3.959875e+000 130 112 75
-5.128828e-003 -1.233662e+000 -4.916621e+000 106 42 33
2.845003e-001 -1.348121e+000 -5.286408e+000 48 31 23
2.845003e-001 -1.348121e+000 -5.286408e+000 48 31 23
2.447323e-001 -1.355487e+000 -5.322054e+000 74 57 49
-1.373498e-001 -1.215866e+000 -6.939982e+000 127 119 109
-1.428496e+000 -3.222305e-003 -9.161003e+000 192 189 173
-4.073056e-001 -2.363228e+000 -7.974776e+000 198 200 187
-9.616135e-001 -2.231710e+000 -8.589629e+000 220 216 208
-6.936389e-001 -2.316852e+000 -8.225541e+000 199 197 190
1.155008e-001 -3.092045e+000 -7.526182e+000 22 16 16
1.045183e+000 2.025644e+000 -6.537664e+000 96 80 57
5.093660e-002 -4.486665e-001 -4.617682e+000 140 75 44
1.737396e+000 -1.185743e-001 -6.278345e+000 74 51 44
7.672254e-002 -1.298526e+000 -4.890314e+000 69 31 24
-1.366389e+000 2.492586e-001 -9.105151e+000 210 203 197
-1.178956e+000 -1.538029e-002 -8.798475e+000 209 211 198
-1.846863e+000 -5.632898e-002 -9.608473e+000 37 27 35
-8.330990e-001 -1.443601e+000 -7.992510e+000 125 113 103
-9.587702e-001 -1.443834e+000 -8.165190e+000 147 138 130
-7.091243e-001 -1.582289e+000 -8.130264e+000 94 81 66
-1.848100e+000 -1.317262e+000 -9.255792e+000 170 58 57
1.821453e+000 9.365062e-001 -5.832461e+000 236 236 228
8.127673e-001 3.122637e+000 -7.184286e+000 195 79 80
2.437397e+000 -2.372591e-001 -5.886441e+000 223 213 160
1.802374e+000 -8.779426e-001 -6.034629e+000 66 34 28
7.850191e-001 -9.663701e-001 -5.588964e+000 89 80 73
1.740568e+000 -1.827937e+000 -6.025781e+000 38 37 43
-3.347570e-001 -1.417235e+000 -4.912541e+000 85 38 28
-5.234670e-001 -9.127251e-001 -7.771618e+000 238 243 237
4.179952e-001 -1.747242e+000 -7.243688e+000 79 63 51
-3.449437e+000 7.739052e-001 -1.105654e+001 90 90 98
-1.575385e+000 -9.348889e-001 -9.155437e+000 186 68 62
2.512876e+000 -1.679047e-001 -5.800088e+000 116 105 76
2.532579e+000 -3.655981e-001 -5.707909e+000 242 232 177
1.667302e+000 -1.038749e+000 -5.940192e+000 218 195 145
-4.362711e-001 -1.343590e+000 -4.641643e+000 168 103 65
-1.462734e-001 -1.226241e+000 -7.128208e+000 116 102 89
-9.308454e-001 -4.057693e-001 -8.998427e+000 193 195 182
9.490437e-001 3.860447e+000 -7.357188e+000 122 107 73
1.112364e+000 2.815829e+000 -6.787643e+000 125 113 79
2.974049e+000 -1.055425e+000 -5.714603e+000 92 92 100
1.362069e+000 -3.857647e-001 -5.931429e+000 80 50 41
-7.281107e-001 -8.235971e-001 -4.119062e+000 92 34 23
-3.020929e+000 -5.720373e-002 -1.092072e+001 49 47 53
-1.801191e+000 -1.389102e+000 -9.298884e+000 173 61 58
-1.796532e+000 -1.616179e+000 -9.528003e+000 32 28 38
-7.684260e-001 -2.847849e+000 -8.224989e+000 164 54 54
7.169924e-001 3.296676e+000 -7.165105e+000 33 27 29
1.104023e+000 -8.685473e-001 -5.814357e+000 190 198 189
-8.255013e-001 -1.054272e+000 -4.183928e+000 64 25 18
-1.007320e+000 -1.955884e-001 -8.679274e+000 159 155 144
8.884735e-001 -2.208425e+000 -6.854453e+000 60 23 24
6.243104e-001 -7.563376e-001 -5.442754e+000 41 25 25
7.429858e-001 -1.488902e+000 -6.467000e+000 92 80 68
-8.127598e-001 -1.814131e+000 -8.400498e+000 217 217 211
2.435101e+000 -1.878776e+000 -6.060756e+000 118 117 123
-1.226362e+000 -1.002257e+000 -4.113871e+000 172 95 51
-7.171384e-001 -1.640073e+000 -7.923570e+000 131 118 104
-6.289683e-001 -1.136951e+000 -5.138044e+000 60 28 25
-2.425080e-001 -3.167371e+000 -7.815601e+000 187 179 169
-1.328923e+000 -1.354957e+000 -8.506779e+000 218 217 205
6.963340e-001 -3.000317e+000 -7.061250e+000 27 22 26
1.734644e+000 2.631162e+000 -6.361543e+000 204 193 181
2.357221e+000 -4.982376e-001 -5.903454e+000 254 245 188
2.676551e+000 -6.838384e-001 -5.901925e+000 75 75 75
2.736797e+000 -1.378978e+000 -5.668140e+000 93 91 96
2.324106e+000 -8.822821e-001 -5.939740e+000 202 91 95
2.655914e+000 -1.508327e+000 -5.772647e+000 56 57 62
2.598246e+000 -1.539931e+000 -5.752298e+000 149 150 155
2.434745e+000 -1.039743e+000 -5.973072e+000 112 111 113
2.518223e+000 -1.511348e+000 -5.778703e+000 61 62 66
2.562744e+000 -1.509585e+000 -5.849761e+000 53 54 58
1.244542e+000 -7.201452e-001 -5.907181e+000 122 86 62
1.535974e+000 -6.707070e-001 -6.144935e+000 196 161 120
2.312185e+000 -2.016960e+000 -5.963540e+000 35 38 45
1.877296e+000 -1.386334e+000 -6.093692e+000 129 60 45
2.254520e+000 -2.086673e+000 -5.974830e+000 39 42 47
3.236268e-002 -1.213044e+000 -4.799126e+000 138 64 51
1.939897e+000 -1.860796e+000 -6.129920e+000 37 36 42
2.001308e+000 -2.011346e+000 -6.203077e+000 78 76 81
2.114337e+000 -2.199880e+000 -6.070429e+000 38 39 43
8.969174e-001 -1.729714e+000 -6.433322e+000 90 76 64
-1.476356e+000 2.156975e+000 -9.800849e+000 55 54 59
-2.622935e-001 -1.549854e+000 -7.325772e+000 180 183 175
-3.894010e-001 -1.380373e+000 -7.637215e+000 188 190 177
-3.578504e+000 1.697164e+000 -1.128143e+001 60 58 63
1.914038e-001 -3.500553e+000 -7.878296e+000 42 38 45
3.112231e-001 -3.536077e+000 -7.826754e+000 41 39 44
3.112231e-001 -3.536077e+000 -7.826754e+000 41 39 44
4.217636e-001 -3.615831e+000 -7.762252e+000 65 63 68
4.217636e-001 -3.615831e+000 -7.762252e+000 65 63 68
5.028251e-001 -3.635441e+000 -7.747641e+000 32 30 35
5.850164e-001 -3.745649e+000 -7.774322e+000 78 75 82
5.738253e-001 -3.784766e+000 -7.699350e+000 35 32 39
6.384634e-001 -3.835048e+000 -7.806126e+000 38 37 42
1.945245e-001 -3.595298e+000 -7.818309e+000 35 33 38
4.133431e-001 -3.758586e+000 -7.843991e+000 89 88 94
3.905543e-001 -3.854626e+000 -7.731204e+000 80 77 84
4.885452e-001 -3.899646e+000 -7.717603e+000 36 33 40
4.210538e-001 -3.903857e+000 -7.651504e+000 40 37 44
4.801602e-001 -4.014932e+000 -7.676494e+000 81 79 85
7.438420e-001 -4.225324e+000 -7.575093e+000 41 36 42
2.452358e+000 -1.062031e+000 -5.937041e+000 53 52 57
2.551581e+000 -1.360803e+000 -5.803482e+000 48 49 53
2.382745e+000 -1.150607e+000 -6.027079e+000 100 97 103
2.444458e+000 -1.812847e+000 -5.841309e+000 57 58 63
2.516414e+000 -1.881684e+000 -5.859303e+000 31 30 36
3.234326e-001 -8.198090e-001 -4.852638e+000 139 65 64
1.517605e+000 -6.328143e-001 -6.120672e+000 139 97 57
2.253377e+000 -1.420255e+000 -6.089574e+000 52 50 51
2.364779e+000 -1.843535e+000 -5.896361e+000 45 48 53
2.362186e+000 -2.000656e+000 -5.929493e+000 45 48 55
2.295121e+000 -2.050260e+000 -5.932724e+000 41 44 51
1.040485e+000 -7.379422e-001 -5.813200e+000 80 65 46
2.245299e+000 -2.038946e+000 -5.979191e+000 60 63 68
2.169163e+000 -2.087060e+000 -6.073652e+000 40 41 45
2.163335e+000 -2.089373e+000 -6.065675e+000 40 41 45
-5.134956e-001 -1.197426e+000 -4.563868e+000 101 40 19
1.928404e+000 -2.579245e+000 -6.174781e+000 29 27 32
1.323371e+000 -1.876373e+000 -6.443124e+000 170 168 156
-4.484844e-001 -1.605648e+000 -4.975898e+000 72 31 26
-3.849192e-001 -9.381491e-001 -7.683294e+000 223 229 219
3.375780e-001 -2.172845e+000 -7.337112e+000 83 63 56
4.467381e-001 -3.514716e+000 -7.877302e+000 55 54 59
3.420576e-001 -3.628213e+000 -7.849867e+000 98 97 102
3.420576e-001 -3.628213e+000 -7.849867e+000 98 97 102
-5.886653e-001 -2.828283e+000 -8.134716e+000 175 165 153
1.501489e-001 -3.540482e+000 -7.850079e+000 40 37 44
5.950415e-001 -4.062175e+000 -7.779294e+000 41 35 42
5.740477e-001 -4.062430e+000 -7.703135e+000 41 35 42
-3.337561e+000 3.631757e-001 -1.107089e+001 63 62 68
-3.006482e+000 1.699151e-001 -1.054960e+001 40 38 43
1.561012e+000 3.274466e+000 -6.698894e+000 200 82 82
1.712706e+000 2.936854e+000 -6.615661e+000 191 114 108
2.754135e+000 -1.397218e+000 -5.634287e+000 33 31 36
2.511473e+000 -1.066878e+000 -5.897983e+000 49 48 53
2.810209e+000 -2.299163e+000 -5.425965e+000 30 28 33
2.681904e+000 -2.438629e+000 -5.538664e+000 28 23 29
2.332456e+000 -1.579431e+000 -5.996714e+000 48 47 53
2.157550e+000 -1.962948e+000 -6.121977e+000 69 70 74
2.043750e+000 -1.979954e+000 -6.195303e+000 33 32 37
-1.451109e+000 -5.529681e-001 -4.109657e+000 115 100 75
1.900968e+000 -2.548413e+000 -6.345888e+000 28 26 31
-2.560238e-001 -7.944372e-001 -7.255892e+000 179 181 175
-2.970234e-001 -1.631112e+000 -7.430617e+000 137 135 123
-3.028463e-001 -1.610819e+000 -7.444666e+000 137 135 123
-7.236487e-001 -1.128453e+000 -8.149744e+000 221 221 213
3.666662e-001 -2.643892e+000 -7.487380e+000 117 46 52
4.159011e-001 -3.641304e+000 -7.596900e+000 31 29 34
-3.232308e+000 7.431714e-001 -1.117974e+001 49 46 53
3.449205e-001 -3.677309e+000 -7.867761e+000 36 33 40
4.057016e-001 -3.810912e+000 -7.749258e+000 39 36 43
4.057016e-001 -3.810912e+000 -7.749258e+000 39 36 43
4.388195e-001 -3.886503e+000 -7.856610e+000 36 33 40
5.248364e-001 -3.962567e+000 -7.680200e+000 83 82 87
5.032737e-001 -3.969039e+000 -7.817617e+000 43 41 49
1.673939e+000 2.513086e+000 -6.377302e+000 217 205 191
2.736176e+000 1.940156e-001 -5.900252e+000 63 61 55
3.077696e+000 -1.827473e+000 -5.227310e+000 37 34 41
3.106484e+000 -1.983256e+000 -5.212941e+000 35 33 38
2.368946e+000 -1.113987e+000 -6.092741e+000 36 31 28
3.562624e-001 -8.468865e-001 -4.838311e+000 79 45 42
-5.306412e-001 -6.144825e-001 -4.349297e+000 128 84 54
-2.910558e-001 -6.984050e-001 -4.608133e+000 174 133 101
-1.438540e-001 -1.106170e+000 -4.832940e+000 154 115 85
2.041392e+000 -2.180269e+000 -6.160008e+000 42 43 47
-4.061120e-001 -1.450581e+000 -4.683480e+000 162 100 64
-8.921320e-002 -1.548451e+000 -5.637086e+000 52 27 23
-6.346394e-001 4.234312e-001 -8.485248e+000 229 231 220
-6.336901e-001 -4.754348e-001 -8.203849e+000 218 219 206
-2.017069e-001 -2.334274e+000 -7.805119e+000 219 221 207
2.632814e-001 -3.811978e+000 -7.844071e+000 26 21 27
4.165524e-001 -3.978279e+000 -7.833353e+000 22 19 26
1.360789e+000 4.472000e+000 -7.350438e+000 38 30 31
1.447874e+000 3.914238e+000 -7.004190e+000 50 34 35
1.400457e+000 3.454266e+000 -6.712041e+000 201 78 80
8.765106e-001 -1.361040e-002 -5.482001e+000 214 219 207
-8.604635e-001 -9.149412e-001 -4.037086e+000 120 57 39
1.253485e+000 -1.068201e+000 -5.909189e+000 104 76 56
-1.948589e-001 -1.164645e+000 -4.821804e+000 90 38 24
-4.599128e-001 -1.508220e+000 -4.726342e+000 116 61 40
-1.214998e+000 1.443740e+000 -8.999927e+000 42 38 39
-5.632914e-001 -1.021617e+000 -7.822235e+000 240 242 237
-1.019114e+000 -7.281073e-001 -8.796976e+000 202 205 194
1.385771e+000 4.156966e+000 -7.182610e+000 187 167 116
6.762698e-001 -4.027743e-001 -5.269497e+000 166 170 163
1.398231e+000 -9.002086e-001 -5.961726e+000 220 187 137
2.090379e-001 -1.420886e+000 -5.621383e+000 79 66 56
1.201150e+000 -1.841905e+000 -6.505059e+000 145 141 130
-7.010313e-001 1.090647e+000 -8.612433e+000 202 205 188
-1.505147e-001 -1.066933e+000 -6.929564e+000 98 84 73
-1.096148e+000 1.448400e+000 -9.016607e+000 190 68 61
-1.042357e+000 1.080723e+000 -8.923363e+000 193 73 69
-2.834113e-001 -2.715948e+000 -7.732654e+000 224 224 214
2.499552e+000 -2.314719e-001 -5.770784e+000 124 111 77
2.406347e+000 -2.621003e-001 -5.849175e+000 243 231 178
1.838445e+000 -1.607852e+000 -6.022173e+000 184 84 87
1.268661e+000 -1.650440e+000 -6.309202e+000 149 147 134
-2.337063e-001 -1.775268e+000 -7.521303e+000 121 106 93
-7.528932e-001 -2.145600e+000 -8.281480e+000 143 130 114
-7.528932e-001 -2.145600e+000 -8.281480e+000 143 130 114
-1.612024e+000 -1.683810e+000 -9.187858e+000 156 50 51
1.165821e+000 3.400460e+000 -6.985766e+000 70 59 37
1.529508e+000 1.887650e+000 -6.342076e+000 136 124 85
2.304259e+000 -2.760137e-001 -5.961748e+000 162 150 102
2.477481e+000 -6.941777e-001 -5.869738e+000 29 25 26
1.132766e+000 -6.384318e-001 -5.822275e+000 94 64 44
1.151497e+000 -1.540960e+000 -6.459306e+000 137 131 119
-4.761469e-001 -1.553983e+000 -4.957932e+000 131 74 44
-3.423331e-001 -1.531620e+000 -5.007872e+000 50 20 18
4.725204e-001 -1.691236e+000 -7.028185e+000 35 15 17
-1.443295e-001 -1.422320e+000 -7.155559e+000 177 182 171
-1.388389e-001 -1.391233e+000 -7.214432e+000 177 182 171
-1.782807e+000 1.837599e+000 -9.989779e+000 73 75 80
-8.502891e-001 -1.125215e-001 -8.403926e+000 228 229 221
-7.329114e-001 -5.893328e-001 -8.551875e+000 224 226 213
-1.271165e+000 -1.802782e+000 -8.595378e+000 118 97 87
-1.382766e-001 -9.270237e-001 -4.768920e+000 233 199 151
1.049094e+000 -9.548881e-001 -5.702421e+000 185 186 181
-1.024625e+000 -1.056294e+000 -4.087542e+000 69 25 14
-3.849658e-001 -6.466991e-001 -7.303221e+000 137 131 119
1.079968e+000 -1.398400e+000 -6.270417e+000 82 68 53
-3.216131e+000 -1.728696e-001 -1.043007e+001 83 84 89
3.471939e-001 -6.959470e-001 -4.791985e+000 81 45 37
4.236910e-002 -9.203156e-001 -4.821550e+000 226 194 147
-7.177614e-002 -1.289202e+000 -6.800245e+000 80 68 56
4.294349e-001 -2.341726e+000 -7.178762e+000 52 20 23
4.703617e-001 -3.816769e+000 -7.764470e+000 42 39 46
1.901883e+000 -1.638516e+000 -5.856601e+000 83 30 29
-6.570121e-001 -7.894724e-001 -4.946285e+000 38 17 16
-8.777752e-001 -1.293548e+000 -6.926303e+000 223 224 210
1.174488e+000 -7.494063e-001 -5.820307e+000 167 159 142
1.335645e+000 -6.238619e-001 -5.909340e+000 174 136 103
2.918007e+000 -1.071863e+000 -5.607594e+000 75 75 83
2.384966e+000 -1.382125e+000 -6.013096e+000 43 42 47
2.088151e+000 -1.535342e+000 -6.165292e+000 43 31 35
-1.700499e+000 -1.561386e+000 -9.164494e+000 122 41 41
-4.929495e-001 -3.001973e+000 -8.045627e+000 194 185 177
1.745411e+000 2.912744e+000 -6.466136e+000 166 80 77
2.830273e+000 -1.178885e+000 -5.613524e+000 107 108 112
2.907500e+000 -2.153900e+000 -5.393767e+000 48 45 52
2.907500e+000 -2.153900e+000 -5.393767e+000 48 45 52
2.587564e+000 -9.462188e-001 -5.894683e+000 53 52 57
2.587564e+000 -9.462188e-001 -5.894683e+000 53 52 57
2.595134e+000 -1.451617e+000 -5.761174e+000 135 138 144
2.407422e+000 -1.313093e+000 -5.938476e+000 57 58 63
2.444032e+000 -1.411414e+000 -5.854358e+000 46 47 51
2.548582e+000 -1.687121e+000 -5.819516e+000 124 124 132
2.766303e+000 -2.509182e+000 -5.447516e+000 38 36 41
2.286267e+000 -1.398431e+000 -5.992790e+000 53 52 58
2.344031e+000 -1.427355e+000 -6.018054e+000 104 105 110
1.184805e+000 -5.914397e-001 -5.810601e+000 80 51 37
2.344769e+000 -1.739301e+000 -5.959421e+000 99 100 105
2.255200e+000 -1.889851e+000 -5.960269e+000 43 46 51
2.082831e+000 -1.709559e+000 -6.185510e+000 90 91 95
2.224785e+000 -1.858322e+000 -6.032948e+000 42 43 48
2.232878e+000 -1.854267e+000 -6.042521e+000 42 43 48
2.180354e+000 -1.906518e+000 -6.020998e+000 52 53 58
2.172232e+000 -1.927071e+000 -6.053393e+000 89 90 94
2.193683e+000 -2.035059e+000 -6.024475e+000 48 49 53
1.940969e+000 -2.185100e+000 -6.214952e+000 44 43 48
2.037698e+000 -2.239048e+000 -6.163945e+000 36 37 41
2.037698e+000 -2.239048e+000 -6.163945e+000 36 37 41
2.029659e+000 -2.349418e+000 -6.174792e+000 31 30 35
2.164034e+000 -2.421626e+000 -6.090112e+000 34 34 36
2.189251e+000 -2.455468e+000 -6.077110e+000 53 52 57
2.103298e+000 -2.487977e+000 -6.154217e+000 33 32 38
1.894105e+000 -2.322569e+000 -6.276473e+000 32 32 34
1.824470e+000 -2.487857e+000 -6.350830e+000 32 31 36
1.709670e+000 -2.625296e+000 -6.427047e+000 24 22 27
1.787652e+000 -2.706596e+000 -6.409319e+000 46 44 49
1.825634e+000 -2.817258e+000 -6.366809e+000 66 64 69
1.807472e+000 -2.822382e+000 -6.398276e+000 23 21 26
-1.114301e+000 3.300740e+000 -9.519813e+000 78 79 84
-1.015543e+000 2.923989e+000 -9.093001e+000 79 80 85
-1.057805e+000 3.059534e+000 -9.305771e+000 68 69 74
-1.052133e+000 2.873897e+000 -9.370318e+000 78 79 83
-5.740819e-001 -6.515613e-001 -6.146878e+000 149 136 127
-5.704821e-001 -6.457545e-001 -6.153518e+000 149 136 127
1.528116e+000 -2.763248e+000 -6.686993e+000 40 38 43
1.529738e+000 -2.765147e+000 -6.687640e+000 40 38 43
-1.115099e+000 1.723038e+000 -9.083465e+000 68 34 32
-8.449556e-001 1.335267e+000 -8.706834e+000 211 131 124
-2.121664e-001 -1.136805e+000 -6.679928e+000 120 109 97
-1.482484e+000 2.121875e+000 -9.603492e+000 84 85 90
-2.240994e-001 -9.570314e-001 -7.215770e+000 195 201 191
-1.595446e+000 1.945284e+000 -9.516513e+000 53 54 59
-1.693663e+000 1.615800e+000 -9.883228e+000 30 28 31
-6.231256e-001 -1.348207e+000 -7.759597e+000 225 225 218
-6.948390e-001 -1.588146e+000 -7.989048e+000 136 128 116
3.922632e-001 -3.375885e+000 -7.957802e+000 24 22 27
6.018620e-001 -3.756685e+000 -7.921463e+000 33 30 37
6.259560e-001 -3.809553e+000 -7.845295e+000 78 75 82
-4.247440e-001 -3.084761e+000 -7.964772e+000 182 173 164
2.365845e-001 -3.551811e+000 -8.063022e+000 71 69 74
1.854651e+000 3.787391e+000 -6.708237e+000 69 43 47
1.506511e+000 3.813972e+000 -6.875534e+000 62 42 40
2.943240e+000 -9.864030e-001 -5.607940e+000 81 82 84
2.642461e+000 -1.021375e+000 -5.799650e+000 38 37 42
2.891028e+000 -2.142000e+000 -5.438496e+000 33 30 37
2.511359e+000 -1.045318e+000 -5.872926e+000 50 49 54
2.633959e+000 -1.339835e+000 -5.761989e+000 106 107 112
2.545275e+000 -1.364218e+000 -5.796764e+000 48 49 53
2.874793e+000 -2.476885e+000 -5.263796e+000 32 28 35
2.371432e+000 -1.309812e+000 -5.973309e+000 52 53 58
2.435281e+000 -1.387391e+000 -5.949057e+000 47 45 50
2.449086e+000 -1.497677e+000 -5.869168e+000 46 47 51
2.719857e+000 -2.448249e+000 -5.452097e+000 31 29 34
2.351118e+000 -1.413218e+000 -5.975058e+000 42 43 48
2.386283e+000 -1.783706e+000 -5.903448e+000 46 49 54
2.376028e+000 -1.837152e+000 -5.909203e+000 45 48 53
2.453792e+000 -2.056099e+000 -6.070945e+000 40 39 45
2.080272e+000 -1.761399e+000 -6.139389e+000 38 39 43
2.080272e+000 -1.761399e+000 -6.139389e+000 38 39 43
2.286933e+000 -2.036227e+000 -5.975593e+000 122 125 130
-1.239657e+000 -8.065781e-001 -3.958611e+000 113 64 67
1.315504e+000 -1.756855e+000 -6.321006e+000 160 155 143
1.893795e+000 -2.524655e+000 -6.327263e+000 30 29 34
2.016173e+000 -2.702439e+000 -6.207034e+000 29 23 30
1.725935e+000 -2.464582e+000 -6.464210e+000 28 26 31
1.891863e+000 -2.822087e+000 -6.258165e+000 24 23 28
1.636171e+000 -2.577047e+000 -6.568153e+000 26 25 30
1.712627e+000 -2.687806e+000 -6.481846e+000 25 23 28
1.748880e+000 -2.820760e+000 -6.499197e+000 22 20 25
1.752071e+000 -2.819484e+000 -6.503032e+000 22 20 25
-1.563869e+000 2.411630e+000 -9.758526e+000 65 68 73
-1.640606e+000 1.684948e+000 -9.606727e+000 54 53 58
4.700911e-001 -3.504416e+000 -7.828242e+000 27 25 30
6.098073e-001 -3.534250e+000 -7.795764e+000 49 44 51
6.098073e-001 -3.534250e+000 -7.795764e+000 49 44 51
3.214902e-001 -3.392761e+000 -7.973079e+000 31 29 33
1.741926e+000 2.171101e+000 -6.129793e+000 216 210 196
1.760119e+000 2.200212e+000 -6.148701e+000 216 210 196
3.050703e+000 -2.151181e+000 -5.138398e+000 38 35 42
2.565447e+000 -4.311864e-001 -5.703335e+000 209 195 134
3.015743e+000 -1.869555e+000 -5.301325e+000 32 30 35
2.932521e+000 -1.907477e+000 -5.382760e+000 31 29 34
2.207302e+000 -1.165667e-001 -6.017866e+000 147 79 65
2.930339e+000 -2.466357e+000 -5.160374e+000 36 35 43
2.986098e+000 -2.515732e+000 -5.201522e+000 38 37 43
2.859961e+000 -2.595494e+000 -5.254633e+000 40 38 45
2.735093e+000 -2.317646e+000 -5.556451e+000 27 22 28
2.676966e+000 -2.627906e+000 -5.482585e+000 23 21 26
-1.046196e-001 -9.797904e-001 -4.539746e+000 165 110 69
2.153339e+000 -1.440446e+000 -6.074211e+000 28 23 28
-9.632663e-001 -8.142351e-001 -3.998462e+000 156 82 53
9.216763e-001 -8.200049e-001 -5.701989e+000 203 195 185
2.210616e+000 -1.782043e+000 -6.106532e+000 53 54 59
2.739150e-002 -1.270197e+000 -4.887358e+000 133 79 52
1.972632e+000 -1.657952e+000 -6.244772e+000 37 34 31
-5.393944e-001 -1.140800e+000 -4.513970e+000 90 32 20
2.921765e-001 -1.326258e+000 -5.196199e+000 76 62 53
1.344354e+000 -1.150965e+000 -6.270789e+000 51 19 18
2.055996e+000 -2.535569e+000 -6.221329e+000 27 25 30
-9.811636e-002 -1.274360e+000 -6.029143e+000 45 26 20
-6.962691e-001 1.342158e+000 -8.265869e+000 140 121 102
-7.047429e-001 1.473119e+000 -8.540635e+000 146 118 101
7.033094e-001 -3.886690e+000 -7.837404e+000 36 31 37
5.255739e-001 -3.966711e+000 -7.882194e+000 43 41 49
3.305826e-001 -4.240778e+000 -7.997844e+000 50 49 55
1.204939e+000 3.169387e+000 -6.650785e+000 154 131 93
3.018209e+000 -2.140665e+000 -5.240393e+000 33 30 37
2.983056e+000 -2.223146e+000 -5.138925e+000 38 35 41
2.989146e+000 -2.342788e+000 -5.243218e+000 33 30 37
2.930868e+000 -2.357777e+000 -5.324846e+000 35 32 39
2.846107e+000 -2.525956e+000 -5.424698e+000 34 31 38
2.723629e+000 -2.691103e+000 -5.428653e+000 29 29 35
-1.875779e-001 -9.272774e-001 -4.569326e+000 194 131 95
-1.227707e-001 -1.023527e+000 -4.542632e+000 118 57 27
2.168283e+000 -1.556915e+000 -6.176053e+000 84 88 93
-2.997251e-001 -1.058591e+000 -6.080661e+000 79 60 54
-3.405320e-001 -3.731649e-001 -7.486411e+000 189 191 180
-2.488131e-001 -9.155354e-001 -6.722142e+000 82 66 51
5.556546e-001 -3.519552e+000 -8.029879e+000 27 25 30
4.939920e-001 -3.534159e+000 -7.846180e+000 27 25 30
5.978827e-001 -3.697030e+000 -7.733003e+000 26 23 30
-6.727555e-001 -2.291312e+000 -8.372440e+000 197 194 185
3.090925e-001 -3.427612e+000 -8.137131e+000 38 36 41
1.362848e+000 2.086875e+000 -6.043016e+000 231 228 212
1.362848e+000 2.086875e+000 -6.043016e+000 231 228 212
2.567783e+000 -4.454663e-001 -5.657841e+000 205 190 131
3.001171e+000 -2.265822e+000 -5.197374e+000 36 34 39
3.065286e+000 -2.319444e+000 -5.152431e+000 35 32 39
3.001873e+000 -2.476003e+000 -5.090877e+000 33 30 37
3.001873e+000 -2.476003e+000 -5.090877e+000 33 30 37
2.974578e+000 -2.257269e+000 -5.308320e+000 36 33 40
3.022280e+000 -2.563368e+000 -5.155088e+000 35 34 41
2.873390e+000 -2.454647e+000 -5.373167e+000 32 30 36
-8.213958e-001 -8.931973e-001 -3.981801e+000 70 27 15
1.178708e+000 -7.255349e-001 -5.830963e+000 114 82 54
2.279582e+000 -1.676437e+000 -6.072888e+000 39 40 45
1.124011e+000 -1.399930e+000 -6.472659e+000 77 65 53
1.501281e+000 3.276933e+000 -6.564018e+000 50 40 38
2.432356e+000 -2.349663e-001 -5.883218e+000 246 233 180
-7.220111e-001 -7.614493e-001 -4.162099e+000 87 32 20
2.429630e-001 -1.323732e+000 -5.218552e+000 41 22 20
1.493536e-001 -1.318038e+000 -5.312296e+000 53 26 22
-3.991569e-001 -9.885345e-001 -6.152128e+000 51 31 29
-1.061621e+000 1.682964e+000 -8.695113e+000 172 66 60
-1.353339e+000 4.765509e-001 -9.101317e+000 189 66 66
2.281346e+000 -9.075548e-002 -5.894154e+000 126 105 73
1.373687e+000 -5.849548e-001 -5.917716e+000 178 147 111
9.929407e-001 -1.102446e+000 -5.759060e+000 86 78 67
-5.111056e-001 -7.181537e-001 -6.243944e+000 58 37 36
-2.315825e-001 -1.792220e+000 -7.497935e+000 121 106 93
-9.639752e-001 -9.451634e-001 -3.958548e+000 49 17 10
-1.153263e+000 2.699235e+000 -9.243140e+000 81 86 90
-8.275693e-001 1.441010e+000 -8.602667e+000 98 34 31
-4.724882e-001 -2.444591e-001 -7.929184e+000 224 227 218
2.244238e+000 2.352673e-001 -5.906342e+000 64 25 28
-1.252567e+000 -8.455464e-001 -4.000645e+000 47 13 10
-2.393957e-001 -1.101602e+000 -4.770353e+000 115 64 37
-1.479885e+000 2.641044e+000 -9.969276e+000 83 88 92
-2.253652e-001 -9.144297e-001 -7.287908e+000 196 204 194
2.670619e+000 -1.436994e+000 -5.819509e+000 96 99 104
-2.950033e-002 -5.455557e-001 -4.684985e+000 216 181 141
-1.155975e+000 -6.936957e-001 -3.977882e+000 225 139 91
-4.164520e-001 -4.874420e-001 -4.408825e+000 207 171 127
3.067144e+000 -1.754645e+000 -5.280337e+000 59 56 63
3.067144e+000 -1.754645e+000 -5.280337e+000 59 56 63
3.056807e+000 -1.824921e+000 -5.254850e+000 55 53 58
3.103116e+000 -1.926576e+000 -5.165766e+000 82 79 88
2.384278e+000 -1.164221e+000 -5.972005e+000 51 51 53
2.516536e+000 -1.660854e+000 -5.808010e+000 64 63 68
1.631485e+000 -7.342491e-001 -6.199748e+000 221 183 143
2.330580e+000 -2.075464e+000 -5.942035e+000 79 78 84
2.378824e+000 -2.101051e+000 -5.919495e+000 49 48 54
2.024722e+000 -1.726142e+000 -6.250138e+000 44 42 45
2.177580e+000 -2.159224e+000 -6.069902e+000 51 50 56
2.284271e+000 -2.203072e+000 -5.969516e+000 71 69 74
1.979421e+000 -2.105788e+000 -6.221568e+000 60 58 63
1.979421e+000 -2.105788e+000 -6.221568e+000 60 58 63
2.077066e+000 -2.303204e+000 -6.050166e+000 45 44 50
2.094029e+000 -2.339536e+000 -6.115606e+000 68 67 72
2.032220e+000 -2.314312e+000 -6.151236e+000 37 36 41
1.995849e+000 -2.357060e+000 -6.175874e+000 56 55 60
1.903718e+000 -2.528142e+000 -6.282611e+000 57 57 60
2.103487e+000 -2.980824e+000 -6.221383e+000 37 32 38
-1.736186e+000 1.739578e+000 -9.870118e+000 74 72 77
-1.810493e+000 1.621379e+000 -9.936837e+000 46 44 49
-4.935305e-001 -1.384714e+000 -7.716866e+000 214 215 207
-8.965499e-001 -2.465652e+000 -8.510844e+000 177 100 93
1.944291e-001 -3.565266e+000 -7.927080e+000 66 60 67
1.822064e+000 2.811846e+000 -6.514049e+000 197 192 181
2.466097e+000 -6.616056e-002 -5.864030e+000 140 126 85
2.710383e+000 -7.329781e-001 -5.951157e+000 53 51 56
2.697753e+000 -1.375840e+000 -5.665972e+000 51 52 57
-1.841099e-001 -2.566935e-001 -4.634020e+000 148 97 70
1.873238e+000 -1.361444e+000 -6.054101e+000 182 131 115
2.346678e+000 -1.932808e+000 -5.970337e+000 48 49 53
-5.195082e-002 -1.230025e+000 -4.898994e+000 144 63 52
2.236197e+000 -2.316851e+000 -6.053173e+000 42 41 47
2.036480e+000 -2.412207e+000 -6.161875e+000 36 35 40
-7.531285e-001 1.368121e+000 -8.665793e+000 213 194 186
-2.283859e-001 -8.923235e-001 -7.392864e+000 221 221 213
-8.206665e-001 -1.399305e+000 -7.943926e+000 196 191 182
1.408657e-001 -3.486513e+000 -7.803667e+000 53 49 51
1.617271e-001 -3.662633e+000 -7.938871e+000 38 28 36
3.100314e+000 -1.882454e+000 -5.201271e+000 46 43 50
1.320351e+000 -1.125121e-001 -5.840386e+000 142 139 130
1.299368e+000 -2.544932e-001 -5.801910e+000 147 141 135
2.378196e+000 -1.870376e+000 -5.885129e+000 50 49 54
-5.668774e-001 -1.181329e+000 -4.568787e+000 115 64 45
-4.560470e-001 -1.197737e+000 -7.237629e+000 239 243 234
-3.252783e-004 -1.676999e+000 -7.193990e+000 86 70 60
3.055712e-001 -3.287816e+000 -7.900515e+000 46 41 47
5.363851e-001 -3.546518e+000 -7.567032e+000 43 38 42
-6.108571e-001 -2.752669e+000 -8.136635e+000 177 163 150
-6.108571e-001 -2.752669e+000 -8.136635e+000 177 163 150
5.349480e-001 -4.011060e+000 -7.735673e+000 35 32 38
4.652898e-001 -4.061328e+000 -7.484230e+000 68 63 69
1.371714e+000 5.564868e-001 -5.696390e+000 195 196 189
1.606731e+000 -1.265212e+000 -6.138884e+000 70 30 17
-3.779519e-001 -1.301746e+000 -4.658256e+000 110 49 29
-1.033978e+000 1.544500e+000 -8.892004e+000 85 24 23
1.385184e+000 -2.584735e+000 -6.769188e+000 43 41 42
-5.258239e-001 -8.557467e-001 -7.884227e+000 239 246 238
-6.934563e-001 -1.875939e+000 -8.315990e+000 187 185 170
-1.001069e+000 9.020326e-001 -8.965274e+000 209 209 193
-2.482331e-002 -1.103610e+000 -4.814690e+000 132 90 63
-1.112949e-001 -3.647149e+000 -7.779880e+000 197 77 86
-1.020345e+000 -1.068257e+000 -4.080747e+000 75 28 20
-1.147238e+000 -6.719944e-001 -3.994922e+000 219 137 89
2.403622e+000 -2.164005e+000 -6.403350e+000 58 57 63
1.534149e+000 8.367002e-001 -5.793310e+000 220 219 207
2.297207e+000 -4.729465e-001 -5.989053e+000 237 227 168
2.535896e+000 -1.326203e+000 -5.822393e+000 92 91 96
2.531063e+000 -1.328857e+000 -5.817706e+000 92 91 96
2.560208e+000 -1.731239e+000 -5.891097e+000 50 48 54
2.278216e+000 -1.404242e+000 -5.983983e+000 63 64 68
2.389221e+000 -1.644767e+000 -5.858344e+000 62 63 68
2.474246e+000 -1.703020e+000 -5.863019e+000 113 113 118
1.729140e+000 -1.068545e+000 -5.915953e+000 185 86 73
2.366127e+000 -2.074896e+000 -5.891136e+000 37 36 41
2.157191e+000 -1.856496e+000 -6.120410e+000 107 108 113
2.127514e+000 -2.271294e+000 -6.159826e+000 97 98 103
1.908351e+000 -2.389222e+000 -6.318427e+000 34 35 39
2.033300e+000 -2.695699e+000 -6.225034e+000 30 29 35
1.926510e+000 -2.652040e+000 -6.335355e+000 61 60 65
1.761856e+000 -2.607015e+000 -6.441581e+000 45 43 48
1.557037e+000 -2.544231e+000 -6.698326e+000 50 48 53
-7.263077e-001 1.276720e+000 -8.609165e+000 210 203 193
2.209995e+000 -1.526683e+000 -6.080743e+000 76 76 80
2.405826e+000 -2.055669e+000 -5.974868e+000 41 40 45
2.382827e+000 -2.011031e+000 -6.029925e+000 50 47 54
9.788496e-002 -8.027598e-001 -4.796615e+000 183 131 81
2.225182e+000 -2.143253e+000 -6.037762e+000 54 55 60
9.453261e-001 -7.382986e-001 -5.733767e+000 110 50 48
7.781976e-001 -8.839391e-001 -5.575594e+000 157 148 137
2.107019e+000 -1.954164e+000 -6.125562e+000 31 32 37
2.152016e+000 -2.286322e+000 -6.071360e+000 46 46 54
2.152016e+000 -2.286322e+000 -6.071360e+000 46 46 54
-1.001688e+000 -9.289534e-001 -3.977521e+000 112 45 27
2.102748e+000 -2.583545e+000 -6.203717e+000 35 32 39
1.743948e+000 -2.589496e+000 -6.531593e+000 48 46 51
1.779496e+000 -2.665428e+000 -6.514276e+000 47 46 51
1.779496e+000 -2.665428e+000 -6.514276e+000 47 46 51
1.635732e+000 -2.448900e+000 -6.658389e+000 55 53 57
1.631745e+000 -2.952361e+000 -6.704481e+000 39 34 38
-5.861860e-001 -1.219352e+000 -7.732855e+000 214 217 208
-5.861860e-001 -1.219352e+000 -7.732855e+000 214 217 208
3.023921e+000 -2.324990e+000 -5.195547e+000 110 109 115
3.023921e+000 -2.324990e+000 -5.195547e+000 110 109 115
2.896718e+000 -2.509028e+000 -5.297540e+000 36 35 41
2.628387e+000 -7.111410e-001 -6.032188e+000 48 47 50
2.678094e+000 -2.753128e+000 -5.451065e+000 28 26 31
-7.542985e-001 -9.749641e-001 -4.082541e+000 118 61 42
-2.231754e-001 -1.332279e+000 -4.801708e+000 138 74 48
3.118685e-001 -1.352626e+000 -5.256647e+000 99 89 80
1.852348e+000 -2.674124e+000 -6.376227e+000 30 27 33
1.852348e+000 -2.674124e+000 -6.376227e+000 30 27 33
9.442010e-001 -1.687281e+000 -6.543468e+000 110 101 88
-6.827518e-001 2.027255e+000 -8.615339e+000 187 67 66
-6.575844e-001 -1.335151e+000 -7.825413e+000 200 200 190
2.413822e+000 2.834630e-001 -5.821867e+000 179 70 70
8.158311e-001 -2.706112e-001 -5.176647e+000 155 157 143
-4.838076e-003 -1.232812e+000 -4.916808e+000 115 41 33
1.305365e+000 -1.270627e+000 -6.304970e+000 117 109 96
2.091101e-001 -1.406222e+000 -5.367139e+000 70 34 26
-2.473948e-002 -3.906907e+000 -7.993276e+000 153 52 59
1.930146e+000 2.296281e+000 -6.103318e+000 212 206 194
2.423198e-001 -1.278557e+000 -5.118699e+000 102 93 84
-3.760708e-001 -1.484940e+000 -4.769405e+000 98 42 23
-7.429954e-001 1.565771e+000 -8.423565e+000 197 202 187
-7.501413e-001 1.507572e+000 -8.355541e+000 197 202 187
1.606667e+000 2.651442e+000 -6.207068e+000 123 44 36
1.652934e-001 -7.604295e-001 -4.799309e+000 165 113 73
-3.759716e-001 -5.265454e-001 -6.768840e+000 222 226 219
-6.567748e-001 1.176593e+000 -8.451368e+000 244 250 239
2.051727e+000 1.624317e+000 -5.692730e+000 137 53 50
-5.944906e-001 -8.473452e-001 -4.262046e+000 89 39 25
-4.323795e-001 -7.485017e-001 -4.450108e+000 97 40 27
1.738528e-001 -1.428329e+000 -6.580342e+000 90 76 66
-1.270208e+000 1.125027e-001 -8.853911e+000 201 199 186
-8.660592e-001 -2.254942e+000 -8.512624e+000 172 164 151
5.696696e-001 -1.325265e+000 -6.116084e+000 110 100 88
2.197727e+000 -1.688976e+000 -6.120394e+000 53 54 59
-3.354691e-001 -2.792543e-001 -7.380231e+000 215 218 209
2.856061e+000 -1.220680e+000 -5.619803e+000 39 39 44
2.878727e+000 -2.558724e+000 -5.410139e+000 98 95 104
2.694359e+000 -1.357500e+000 -5.709631e+000 112 113 118
2.280644e+000 -7.598476e-001 -5.927903e+000 195 89 91
2.498347e+000 -9.024809e-001 -5.906212e+000 48 47 52
2.489972e+000 -1.191915e+000 -5.900569e+000 63 62 67
2.466959e+000 -1.246397e+000 -5.888370e+000 96 95 102
2.494971e+000 -1.408189e+000 -5.859801e+000 95 94 99
2.570810e+000 -1.604534e+000 -5.752181e+000 48 45 52
2.480989e+000 -1.697150e+000 -5.869447e+000 113 113 118
2.520055e+000 -2.731307e+000 -5.803099e+000 51 48 55
2.092184e+000 -2.390639e+000 -6.179579e+000 98 99 104
1.957784e+000 -2.429534e+000 -6.241937e+000 42 40 47
1.914579e+000 -2.521748e+000 -6.295382e+000 83 81 86
1.976056e+000 -2.553243e+000 -6.248589e+000 34 33 38
1.849143e+000 -2.578053e+000 -6.362779e+000 55 53 58
1.805428e+000 -2.585731e+000 -6.394019e+000 62 60 65
1.650159e+000 -2.612837e+000 -6.546658e+000 49 47 52
1.530950e+000 -2.556276e+000 -6.658691e+000 50 48 53
-4.643641e-001 -4.102899e-001 -7.801935e+000 211 213 204
-2.313326e-001 -1.222357e+000 -7.204070e+000 191 194 187
-1.478412e+000 2.072554e+000 -9.693043e+000 57 57 62
-3.023358e-001 -1.496097e+000 -7.346329e+000 196 201 195
-3.746041e-001 -1.398811e+000 -7.536986e+000 200 200 190
-3.351457e-002 -1.843082e+000 -7.378688e+000 127 119 106
-1.649042e+000 2.188539e+000 -9.755874e+000 79 80 87
-1.703842e+000 2.146893e+000 -9.764516e+000 45 44 49
-1.768837e+000 1.961116e+000 -9.860414e+000 70 71 75
-5.483697e-001 -7.854114e-001 -8.094161e+000 208 211 204
-3.615313e-001 -1.479469e+000 -7.558596e+000 169 165 156
-5.032502e-001 -1.408026e+000 -7.679426e+000 208 210 199
-3.233044e-001 -1.826461e+000 -7.821839e+000 151 143 127
-7.935229e-001 -1.563043e+000 -8.033116e+000 131 121 108
4.908704e-001 -3.490045e+000 -7.782640e+000 51 46 52
-2.147550e+000 8.570598e-001 -1.029920e+001 39 34 39
3.451278e-001 -4.205325e+000 -7.812568e+000 44 37 44
1.589648e-001 -4.087599e+000 -7.897660e+000 52 47 54
2.160341e+000 2.445985e+000 -5.794116e+000 94 88 83
1.916279e+000 2.807094e+000 -6.001557e+000 207 75 77
2.906989e+000 -1.012535e+000 -5.575205e+000 85 86 91
2.858821e+000 -1.048889e+000 -5.584616e+000 48 49 54
2.895594e+000 -1.069645e+000 -5.582667e+000 50 50 58
2.844687e+000 -2.066372e+000 -5.556463e+000 28 26 29
2.920779e+000 -2.584066e+000 -5.427603e+000 37 36 44
2.583568e+000 -1.282388e+000 -5.799522e+000 47 46 52
2.610882e+000 -1.440980e+000 -5.776071e+000 138 139 143
2.431137e+000 -1.002901e+000 -5.940910e+000 57 53 57
2.503751e+000 -1.075751e+000 -5.948366e+000 107 106 111
2.539794e+000 -1.452857e+000 -5.814786e+000 104 105 109
2.517097e+000 -1.481187e+000 -5.879499e+000 121 120 125
2.309188e+000 -1.155966e+000 -5.996847e+000 55 41 44
2.369977e+000 -1.254170e+000 -5.926098e+000 62 55 59
2.058931e+000 -1.523406e+000 -6.196330e+000 157 66 70
2.179418e+000 -2.321820e+000 -6.076919e+000 40 40 48
2.069141e+000 -2.332985e+000 -6.129298e+000 42 42 48
2.126816e+000 -2.364226e+000 -6.121279e+000 43 42 48
2.380363e+000 -3.004676e+000 -5.896816e+000 23 18 24
1.859932e+000 -2.513744e+000 -6.341400e+000 60 59 64
1.014742e+000 -1.329465e+000 -6.527924e+000 96 86 74
1.038162e+000 -1.431082e+000 -6.545731e+000 98 89 74
1.042152e+000 -1.478805e+000 -6.561891e+000 103 95 82
1.031425e+000 -1.531481e+000 -6.574903e+000 109 100 88
9.193012e-001 -1.749048e+000 -6.605341e+000 98 87 75
