ply
format ascii 1.0
element face 0
property list uchar int vertex_indices
element vertex 881
property float x
property float y
property float z
property uchar diffuse_red
property uchar diffuse_green
property uchar diffuse_blue
end_header
-6.133288e-001 -7.183578e-001 -4.121051e+000 132 100 88
-1.226936e+000 -7.470611e-001 -3.935047e+000 149 127 81
-1.214442e+000 -8.108379e-001 -3.967566e+000 116 73 52
-1.164885e+000 -7.108855e-001 -3.966705e+000 119 68 62
-8.939514e-001 -7.178022e-001 -3.912534e+000 189 103 70
1.621577e+000 -1.145171e+000 -5.978025e+000 174 137 92
1.621577e+000 -1.145171e+000 -5.978025e+000 174 137 92
2.824678e+000 -9.981348e-001 -5.724692e+000 65 63 68
-1.141096e+000 -8.055988e-001 -3.801273e+000 96 58 35
-1.028810e+000 -8.809663e-001 -4.032624e+000 118 54 25
-8.286198e-001 -8.555753e-001 -3.876633e+000 140 64 30
-1.076760e-001 -1.078570e+000 -4.829147e+000 83 39 23
1.815354e+000 -1.343931e+000 -6.048476e+000 180 127 106
2.659056e+000 -1.145368e+000 -5.653940e+000 65 59 66
1.645855e+000 -1.516141e+000 -6.488011e+000 212 105 113
-7.683746e-001 -1.095074e+000 -4.017180e+000 48 31 28
-8.984683e-002 -1.567671e+000 -5.082891e+000 81 51 40
1.616282e+000 2.744970e+000 -6.627456e+000 236 204 189
1.228184e+000 2.215608e+000 -5.673938e+000 173 160 132
-4.773064e-001 3.137064e+000 -9.137679e+000 66 67 71
2.806122e+000 1.793975e+000 -6.085558e+000 53 50 57
2.646071e+000 1.653719e+000 -6.076759e+000 70 69 75
2.864305e+000 1.579519e+000 -5.958788e+000 61 60 66
2.615845e+000 1.568556e+000 -6.112008e+000 133 132 138
2.658635e+000 1.548342e+000 -6.095636e+000 73 72 78
1.169845e+000 1.350877e+000 -6.281292e+000 133 125 89
2.440054e+000 1.301166e+000 -5.969787e+000 81 81 86
2.889327e+000 1.254537e+000 -5.904558e+000 58 57 63
2.857047e+000 1.167245e+000 -5.959141e+000 95 94 100
-5.788016e-001 1.358633e+000 -8.780751e+000 206 207 202
-5.786193e-001 1.371761e+000 -8.860704e+000 206 207 202
1.181375e+000 9.804075e-001 -6.210899e+000 205 202 154
1.661746e+000 8.728794e-001 -5.826675e+000 219 220 210
1.745799e+000 8.466989e-001 -5.948033e+000 220 223 211
3.861919e-001 8.369281e-001 -6.632351e+000 237 243 235
2.733557e+000 7.259211e-001 -5.878555e+000 101 100 105
1.701676e+000 5.361620e-001 -6.018383e+000 242 245 236
2.675988e+000 5.365140e-001 -5.950126e+000 110 109 114
-3.437552e+000 7.982178e-001 -1.131420e+001 72 73 77
-3.382817e-001 5.485285e-001 -8.168388e+000 200 202 189
1.759677e+000 3.944121e-001 -5.699042e+000 214 216 205
2.687659e+000 3.864786e-001 -5.915831e+000 96 94 99
2.712378e+000 3.728871e-001 -5.865449e+000 48 47 52
2.812185e+000 4.478383e-001 -5.889243e+000 82 80 85
2.563514e+000 2.844846e-001 -5.950843e+000 88 91 91
2.805408e+000 2.949515e-001 -5.845443e+000 83 82 86
2.843731e+000 2.849248e-001 -5.834860e+000 49 43 49
2.778086e+000 2.045869e-001 -5.800802e+000 83 80 80
-4.154451e-001 5.903146e-002 -5.045373e+000 131 65 41
2.424689e-001 5.808325e-002 -5.683760e+000 201 207 197
2.424689e-001 5.808325e-002 -5.683760e+000 201 207 197
-4.955473e-002 -8.583337e-002 -4.927772e+000 200 203 194
2.274490e-001 -8.971827e-002 -5.031384e+000 216 221 217
2.274490e-001 -8.971827e-002 -5.031384e+000 216 221 217
7.095306e-001 -6.513845e-002 -5.404945e+000 201 207 197
7.628810e-001 -7.784061e-002 -5.405897e+000 200 206 196
8.401980e-001 -6.761088e-002 -5.456757e+000 173 177 169
8.577410e-001 -1.054947e-001 -5.457126e+000 191 195 188
2.196576e+000 -1.113328e-001 -5.952645e+000 174 79 77
-2.498446e-001 -1.666573e-001 -4.501366e+000 173 163 136
5.225453e-001 -2.062665e-001 -5.377007e+000 152 151 147
6.663840e-001 -1.898485e-001 -5.310060e+000 140 143 136
7.442318e-001 -1.813708e-001 -5.497662e+000 148 150 145
1.240849e+000 -3.050058e-001 -5.649279e+000 142 138 132
-1.199642e+000 -4.378910e-001 -4.106221e+000 74 30 26
-7.450240e-001 -4.274247e-001 -4.212549e+000 165 130 112
-5.522797e-001 -4.301571e-001 -4.613257e+000 218 120 75
-5.643610e-001 -4.392915e-001 -4.686154e+000 218 120 75
-4.728942e-001 -4.582921e-001 -4.571442e+000 220 172 129
1.076271e-001 -4.149431e-001 -4.543335e+000 152 84 59
9.706621e-001 -6.299609e-001 -5.746530e+000 162 150 142
2.142256e+000 -7.041459e-001 -6.200870e+000 106 57 39
2.980799e+000 -6.546380e-001 -5.661804e+000 56 52 58
-1.229118e+000 -5.666894e-001 -4.001353e+000 105 60 47
-1.145413e+000 -5.087362e-001 -3.943616e+000 93 43 37
-1.191501e+000 -5.628496e-001 -3.964122e+000 115 69 62
-9.270220e-001 -5.973256e-001 -4.053044e+000 134 57 32
-5.923739e-001 -5.396997e-001 -4.186718e+000 212 176 133
-4.784477e-001 -5.742453e-001 -4.257080e+000 155 117 89
4.453106e-001 -6.011275e-001 -4.677198e+000 114 102 95
3.008736e+000 -7.411135e-001 -5.558887e+000 50 48 53
-1.288047e+000 -6.579556e-001 -4.012407e+000 111 92 52
-1.254117e+000 -6.531957e-001 -4.003480e+000 171 144 102
-1.160592e+000 -6.695393e-001 -3.943485e+000 132 88 83
-9.531519e-001 -5.947606e-001 -3.956419e+000 199 116 76
-6.245773e-001 -6.757677e-001 -4.151073e+000 106 84 64
2.408149e+000 -8.845200e-001 -5.886947e+000 48 43 49
2.529836e+000 -8.553223e-001 -5.875372e+000 100 98 103
2.542743e+000 -8.601111e-001 -5.910317e+000 100 98 103
2.706431e+000 -9.465007e-001 -5.773765e+000 40 38 43
2.857738e+000 -8.851928e-001 -5.599073e+000 41 39 44
2.901032e+000 -9.295830e-001 -5.563893e+000 41 38 45
-1.278880e+000 -7.502174e-001 -3.935781e+000 123 103 63
-1.254718e+000 -8.152326e-001 -3.970818e+000 71 62 35
-1.122004e+000 -8.045580e-001 -3.916489e+000 124 68 60
-9.637650e-001 -7.675786e-001 -4.067674e+000 197 105 66
2.721651e+000 -1.038589e+000 -5.689376e+000 42 40 45
2.801058e+000 -1.007681e+000 -5.575411e+000 80 78 83
-1.362058e+000 -8.315723e-001 -3.837301e+000 161 140 93
-1.362058e+000 -8.315723e-001 -3.837301e+000 161 140 93
-1.106759e+000 -8.869670e-001 -3.929493e+000 126 66 48
-7.610127e-001 -8.956183e-001 -3.863568e+000 87 32 16
-4.084670e-001 -9.912321e-001 -4.408965e+000 125 69 49
-2.807697e-001 -9.615499e-001 -4.486232e+000 114 50 25
-9.020518e-002 -1.099428e+000 -4.806222e+000 126 78 53
1.731518e+000 -1.322547e+000 -6.141244e+000 118 61 36
1.702888e+000 -1.347524e+000 -6.159849e+000 188 136 109
1.700414e+000 -1.346070e+000 -6.153214e+000 188 136 109
1.965896e+000 -1.350771e+000 -6.178073e+000 171 60 59
2.081551e+000 -1.326649e+000 -5.990493e+000 132 48 50
1.963327e+000 -1.597973e+000 -6.243053e+000 44 27 29
1.990575e+000 -1.530359e+000 -6.137379e+000 59 27 30
1.374502e+000 -1.855390e+000 -6.487432e+000 176 168 157
7.464913e-001 2.375006e+000 -7.238737e+000 211 209 197
7.187807e-001 2.251581e+000 -7.182395e+000 208 205 194
7.187807e-001 2.251581e+000 -7.182395e+000 208 205 194
1.023567e+000 1.848708e+000 -6.371916e+000 121 111 77
2.797121e+000 1.667574e+000 -6.057484e+000 61 60 68
2.886598e+000 1.655632e+000 -5.976966e+000 60 59 65
3.018826e+000 1.656101e+000 -5.919326e+000 53 50 57
2.654316e+000 1.557696e+000 -6.080908e+000 70 69 75
2.671341e+000 1.500094e+000 -6.018868e+000 177 176 182
2.942424e+000 1.436602e+000 -5.965848e+000 48 49 54
1.404698e+000 1.261928e+000 -5.992693e+000 148 140 103
1.404698e+000 1.261928e+000 -5.992693e+000 148 140 103
2.488029e+000 1.378869e+000 -6.103465e+000 149 148 151
2.575125e+000 1.318869e+000 -6.033543e+000 159 160 165
3.029097e+000 1.314410e+000 -5.783424e+000 44 43 48
-1.149676e+000 1.716505e+000 -8.744817e+000 60 39 40
7.731497e-001 1.174432e+000 -6.652216e+000 229 233 224
2.777953e+000 1.130345e+000 -6.057950e+000 62 62 67
2.896198e+000 1.033386e+000 -5.918682e+000 52 49 56
2.991872e+000 1.093440e+000 -5.872174e+000 44 42 47
3.488224e-001 1.179953e+000 -6.919272e+000 198 200 189
1.374057e+000 8.956789e-001 -6.110711e+000 201 201 166
2.998699e+000 1.007542e+000 -5.954700e+000 45 44 50
3.097706e+000 9.090135e-001 -5.931580e+000 42 39 46
2.340696e-001 9.912451e-001 -6.955991e+000 187 193 183
4.821344e-001 7.763488e-001 -6.651342e+000 236 242 234
1.043203e+000 8.556166e-001 -6.162038e+000 218 220 208
2.737301e+000 6.773386e-001 -5.885769e+000 54 52 57
2.847446e+000 6.918822e-001 -5.884875e+000 52 51 57
8.305950e-001 6.484754e-001 -6.416821e+000 239 242 231
2.779971e+000 6.370616e-001 -5.884907e+000 93 92 98
2.779971e+000 6.370616e-001 -5.884907e+000 93 92 98
3.075873e+000 5.116490e-001 -5.434909e+000 58 50 44
2.620100e+000 4.390873e-001 -5.928434e+000 89 88 93
2.623681e+000 4.396142e-001 -5.933761e+000 89 88 93
2.763092e+000 4.919128e-001 -5.850657e+000 53 52 57
2.866378e+000 3.292313e-001 -5.753496e+000 45 44 49
-3.433861e+000 6.338778e-001 -1.123346e+001 66 65 70
2.698641e+000 2.100963e-001 -5.946444e+000 52 51 56
2.753082e+000 3.286055e-001 -5.908835e+000 88 89 94
2.647169e-001 9.622347e-002 -5.582026e+000 227 233 223
2.647169e-001 9.622347e-002 -5.582026e+000 227 233 223
1.214405e+000 4.257890e-002 -5.534394e+000 156 153 146
9.056455e-001 -1.260517e-001 -5.500864e+000 193 194 189
3.057314e-001 -2.361693e-001 -4.804879e+000 179 182 174
4.074325e-001 -2.430330e-001 -4.915074e+000 99 96 87
-9.388904e-001 -2.642482e-001 -4.223286e+000 35 26 23
-5.970080e-001 -3.432374e-001 -4.809257e+000 161 74 35
2.958248e-002 -3.468355e-001 -4.693731e+000 204 157 128
5.904197e-001 -4.049589e-001 -5.349524e+000 101 94 84
1.016849e+000 -4.733259e-001 -5.614228e+000 156 156 148
1.455898e+000 -4.520202e-001 -5.988774e+000 56 41 32
-1.158106e+000 -4.025980e-001 -4.126081e+000 40 28 28
-7.619013e-001 -4.911843e-001 -4.203497e+000 111 89 76
-5.853452e-001 -4.353976e-001 -4.615593e+000 162 81 37
1.462553e+000 -6.559618e-001 -6.061134e+000 133 99 65
1.462553e+000 -6.559618e-001 -6.061134e+000 133 99 65
2.369692e+000 -6.100475e-001 -5.791728e+000 107 92 62
2.487388e+000 -5.626819e-001 -5.674321e+000 116 101 67
2.765429e+000 -6.457472e-001 -5.873132e+000 108 104 105
2.836212e+000 -6.509030e-001 -5.788978e+000 101 97 104
2.842145e+000 -6.513713e-001 -5.801318e+000 101 97 104
2.946097e+000 -5.891869e-001 -5.710395e+000 63 62 65
2.973573e+000 -6.130847e-001 -5.685804e+000 38 36 41
-1.324136e+000 -5.345271e-001 -4.111344e+000 54 45 34
-1.320632e+000 -5.482109e-001 -4.036715e+000 136 122 80
-8.705530e-001 -5.385081e-001 -3.963051e+000 116 44 22
-5.511610e-001 -5.375747e-001 -4.167689e+000 150 123 73
1.622333e+000 -7.284559e-001 -6.218210e+000 60 33 22
2.802848e+000 -7.329998e-001 -5.793357e+000 48 46 51
2.716495e+000 -7.676563e-001 -5.807111e+000 53 52 57
2.839600e+000 -6.667742e-001 -5.696311e+000 44 43 48
2.938057e+000 -7.336668e-001 -5.729445e+000 39 37 42
2.957639e+000 -7.033960e-001 -5.601860e+000 40 35 41
-3.483860e-001 -7.517878e-001 -4.386460e+000 130 75 51
2.423364e+000 -9.689028e-001 -5.927425e+000 43 36 43
2.454213e+000 -9.544582e-001 -5.794623e+000 50 48 53
2.645121e+000 -9.046837e-001 -5.926943e+000 99 97 102
2.460386e+000 -1.036873e+000 -5.854211e+000 46 41 47
2.610627e+000 -1.041995e+000 -5.901045e+000 44 39 43
2.718774e+000 -1.152231e+000 -5.699102e+000 43 37 44
-7.948362e-001 -9.077905e-001 -3.874607e+000 112 60 50
-7.141787e-001 -9.288627e-001 -3.996954e+000 82 32 20
-6.012291e-001 -9.790451e-001 -4.184349e+000 83 52 40
-2.466350e-001 -9.791049e-001 -4.629167e+000 121 65 44
1.669360e+000 -1.383197e+000 -6.299004e+000 106 41 29
1.919145e+000 -1.223887e+000 -6.055093e+000 207 143 126
2.557618e+000 -1.207698e+000 -5.868873e+000 38 33 39
2.767225e+000 -1.142563e+000 -5.630058e+000 34 31 36
-3.080821e-001 -1.138221e+000 -4.736725e+000 87 28 17
-2.691885e-002 -1.190515e+000 -4.907183e+000 176 64 52
-2.690912e-002 -1.193178e+000 -4.915549e+000 176 64 52
-7.958393e-001 -1.088078e+000 -4.026074e+000 148 85 46
1.744761e+000 -1.685847e+000 -6.269362e+000 178 69 69
-1.723276e-001 -1.540362e+000 -5.036481e+000 74 37 27
1.437661e+000 2.783074e+000 -6.681614e+000 233 213 203
1.651693e+000 2.784837e+000 -6.604567e+000 178 78 76
1.668640e+000 2.650353e+000 -6.425918e+000 232 222 212
2.026350e+000 1.494878e+000 -5.800918e+000 133 60 60
3.023025e+000 1.485693e+000 -5.927201e+000 63 60 67
2.576538e+000 1.240683e+000 -5.862355e+000 57 57 67
2.627354e+000 1.196231e+000 -5.993901e+000 71 70 75
3.049356e+000 1.000133e+000 -5.839921e+000 40 38 45
-1.206741e+000 1.513522e+000 -9.190828e+000 50 42 44
2.545923e-001 1.181762e+000 -7.023349e+000 176 175 166
-3.787471e-001 1.027270e+000 -8.449375e+000 205 207 195
8.075322e-001 8.236530e-001 -6.686187e+000 219 221 207
1.379126e+000 5.878616e-001 -5.765437e+000 224 230 220
2.933746e+000 4.456301e-001 -5.839574e+000 44 42 45
8.383249e-002 1.883371e-001 -5.885534e+000 222 224 213
2.485626e+000 2.738019e-001 -5.956972e+000 49 49 47
-2.941938e-001 1.015682e-001 -5.076777e+000 221 226 214
-4.737606e-001 -1.338650e-001 -4.931392e+000 166 99 65
2.321353e+000 -9.928732e-002 -5.787357e+000 180 176 129
-3.600466e-001 -2.397757e-001 -4.498511e+000 69 55 74
6.428151e-002 -2.576704e-001 -4.595386e+000 208 200 190
8.878780e-001 -5.840903e-001 -5.702875e+000 147 143 134
1.582140e+000 -6.536094e-001 -6.080722e+000 178 149 117
2.888818e+000 -6.390546e-001 -5.768106e+000 49 44 50
9.339956e-001 -7.128939e-001 -5.755531e+000 200 202 193
9.890873e-001 -6.805397e-001 -5.810936e+000 60 44 36
2.497398e+000 -8.481273e-001 -5.928613e+000 52 50 55
2.858592e+000 -7.655941e-001 -5.762316e+000 41 39 44
3.038884e+000 -6.886189e-001 -5.559187e+000 48 46 51
2.936779e+000 -8.018439e-001 -5.616967e+000 38 36 41
2.558819e+000 -9.067313e-001 -5.879585e+000 61 60 65
2.778841e+000 -9.074517e-001 -5.732425e+000 42 40 45
2.834707e+000 -8.332594e-001 -5.660238e+000 40 38 43
2.871172e+000 -9.738830e-001 -5.679594e+000 43 40 47
-6.987597e-001 -7.363216e-001 -4.051772e+000 128 72 50
-1.501969e-001 -1.082222e+000 -4.714440e+000 111 53 34
-5.611911e-002 -1.062638e+000 -4.818663e+000 160 116 85
1.632436e+000 -1.463282e+000 -6.419625e+000 202 96 97
2.439500e-002 -1.275212e+000 -4.925090e+000 219 128 83
1.711776e+000 -1.475587e+000 -6.309647e+000 205 90 97
1.571473e-001 3.114856e+000 -8.116078e+000 199 69 68
-3.554701e-001 2.831319e+000 -8.804767e+000 60 51 49
2.357614e-001 2.637335e+000 -7.948578e+000 211 202 188
2.255190e+000 1.989989e+000 -5.994049e+000 199 83 83
-6.991510e-001 2.192538e+000 -8.726150e+000 55 50 57
4.867527e-001 1.762644e+000 -7.104857e+000 189 191 180
2.463488e+000 1.285047e+000 -5.913586e+000 74 73 82
2.795663e+000 1.024508e+000 -5.949623e+000 59 56 63
1.025061e-001 5.748498e-001 -6.653374e+000 224 226 213
3.303937e-001 4.062784e-001 -6.136362e+000 189 190 176
2.741834e+000 3.946676e-001 -5.859782e+000 58 57 62
-3.914553e-001 -3.910356e-002 -5.061335e+000 211 214 199
-3.914553e-001 -3.910356e-002 -5.061335e+000 211 214 199
-4.043931e-001 -2.703755e-001 -4.526512e+000 213 182 141
-2.471862e-001 -2.182675e-001 -4.576236e+000 204 185 143
3.448891e-002 -2.951527e-001 -4.565499e+000 174 77 69
4.407476e-001 -3.745475e-001 -4.670550e+000 147 149 138
8.135840e-001 -4.784757e-001 -5.528765e+000 111 102 94
2.318943e+000 -7.318030e-001 -5.959757e+000 187 80 77
3.059548e+000 -7.554614e-001 -5.545638e+000 86 85 91
-1.182764e+000 -6.528105e-001 -3.930677e+000 77 33 28
7.759550e-001 -8.466269e-001 -5.671371e+000 89 80 74
1.495386e+000 -1.127964e+000 -6.183757e+000 179 142 108
-1.121334e+000 -8.941412e-001 -4.070729e+000 89 34 22
-1.387280e-002 -9.665514e-001 -4.583061e+000 141 81 51
-7.851335e-001 -9.482802e-001 -3.939821e+000 65 27 14
-4.165498e-002 -1.131526e+000 -4.853954e+000 70 31 29
1.246117e+000 -1.506645e+000 -6.296645e+000 152 142 132
-7.592196e-001 -1.074802e+000 -4.040892e+000 41 32 35
1.252270e+000 -1.786856e+000 -6.365485e+000 189 181 170
2.262147e+000 2.444390e+000 -5.867227e+000 43 31 36
2.511841e+000 2.527058e+000 -6.084761e+000 43 33 42
4.110636e-001 3.014365e+000 -7.718472e+000 187 76 72
-1.133422e-002 3.250374e+000 -8.607881e+000 42 53 56
1.779147e+000 2.224670e+000 -6.205914e+000 207 200 182
-1.424318e-001 2.818113e+000 -8.451728e+000 189 70 66
9.336536e-001 1.498956e+000 -6.406103e+000 212 212 201
9.560342e-001 1.532468e+000 -6.552098e+000 212 212 201
1.349973e+000 1.512833e+000 -6.223553e+000 150 142 100
-3.183684e-001 1.952831e+000 -8.523507e+000 209 215 201
-6.881886e-001 1.069062e+000 -8.646391e+000 199 201 188
8.202682e-003 8.475373e-001 -7.101460e+000 235 241 229
-2.863941e-001 7.531166e-001 -8.185144e+000 186 184 172
1.845829e-001 -3.952029e-001 -4.570007e+000 182 79 68
1.257357e+000 -4.924200e-001 -5.827375e+000 101 66 53
1.095813e+000 -6.613887e-001 -5.746602e+000 64 32 27
1.608007e+000 -5.843994e-001 -6.196373e+000 73 50 37
1.277292e+000 -7.560297e-001 -6.028851e+000 52 36 34
-1.400000e+000 -6.014940e-001 -3.999191e+000 36 31 31
-4.467816e-001 -7.058127e-001 -4.221543e+000 102 59 35
-1.366175e+000 -7.193541e-001 -3.916823e+000 46 33 26
4.568773e-001 -9.406997e-001 -5.016778e+000 82 65 54
1.182564e+000 -1.008750e+000 -5.803388e+000 163 161 152
-1.158256e+000 -8.902849e-001 -3.939667e+000 41 41 39
-1.158256e+000 -8.902849e-001 -3.939667e+000 41 41 39
1.446261e+000 -1.999816e+000 -6.604711e+000 178 172 160
7.288535e-001 2.934104e+000 -7.324276e+000 203 88 91
2.310720e-001 2.874208e+000 -7.957350e+000 184 70 65
7.689392e-001 2.063484e+000 -6.967410e+000 235 235 226
3.836621e-001 1.932956e+000 -7.607819e+000 230 230 218
2.313895e+000 1.523691e+000 -5.926915e+000 190 92 86
1.310235e-001 1.686794e+000 -7.592576e+000 243 248 241
2.573828e-001 1.233314e+000 -6.947310e+000 194 194 182
1.086066e+000 1.070828e+000 -6.348021e+000 230 235 228
9.401714e-001 5.474333e-001 -5.737722e+000 93 91 69
9.401714e-001 5.474333e-001 -5.737722e+000 93 91 69
1.232491e-001 -1.345400e-001 -4.778804e+000 181 187 177
3.912600e-001 -2.048188e-001 -4.888276e+000 111 107 99
-7.691522e-002 -3.607697e-001 -4.595445e+000 213 175 130
-7.134293e-002 -3.618435e-001 -4.620298e+000 213 175 130
1.402095e+000 -5.202950e-001 -5.924285e+000 174 146 115
1.373659e+000 -8.294334e-001 -5.971126e+000 224 191 150
1.704367e+000 -7.591170e-001 -6.256253e+000 70 32 33
2.973257e+000 -8.571285e-001 -5.560773e+000 65 62 69
-1.050501e+000 -8.474887e-001 -3.934931e+000 124 73 69
-5.971159e-002 -1.498486e+000 -5.015404e+000 81 36 31
-2.241120e-001 3.599521e+000 -9.286316e+000 83 82 88
1.078417e+000 2.625734e+000 -6.675883e+000 126 117 78
-7.651787e-002 1.879696e+000 -8.027076e+000 184 181 165
-5.371684e-001 8.841322e-001 -8.499908e+000 224 226 213
1.056272e+000 5.112844e-001 -5.477243e+000 230 233 223
5.973108e-001 -1.298468e-001 -5.272130e+000 203 208 201
1.199987e+000 -1.729245e-001 -5.629633e+000 152 149 142
-5.293850e-001 -4.603096e-001 -4.518265e+000 157 83 48
7.681637e-001 -9.141081e-001 -5.580230e+000 87 73 65
-3.078875e-001 -9.699327e-001 -4.509033e+000 117 56 29
-9.061412e-002 -1.166637e+000 -4.812179e+000 65 26 22
1.764482e-001 -1.298704e+000 -5.050581e+000 74 36 28
2.677967e+000 2.299655e+000 -5.731571e+000 202 85 88
2.685136e+000 2.068733e+000 -5.694472e+000 33 24 29
-1.452296e-001 9.061704e-001 -7.844650e+000 236 241 234
5.260579e-002 2.999940e-001 -6.310447e+000 181 182 168
5.250628e-001 -3.002957e-001 -5.281185e+000 85 78 72
5.323012e-001 -3.121453e-001 -5.398747e+000 85 78 72
-1.546901e-001 -5.390328e-001 -4.575198e+000 110 61 39
3.053286e-002 -5.407556e-001 -4.610256e+000 216 179 137
1.118245e+000 -1.182351e+000 -5.994543e+000 90 68 54
9.192593e-002 -3.076525e+000 -7.603953e+000 27 14 20
1.517060e+000 2.616932e+000 -6.550556e+000 227 221 202
1.960478e+000 -6.220031e-002 -5.882528e+000 66 37 39
2.814103e+000 -2.897921e-001 -5.530647e+000 131 116 75
-8.124762e-001 -5.042442e-001 -4.319160e+000 100 64 45
3.719077e-001 -7.094855e-001 -4.734616e+000 58 33 26
-9.952022e-001 -7.333794e-001 -3.942837e+000 227 135 90
-1.176704e-001 5.373305e-002 -4.882227e+000 218 219 211
-3.622743e-001 -3.823321e-001 -4.566700e+000 223 180 135
2.446788e+000 -3.838383e-001 -5.635162e+000 194 179 124
7.025595e-001 -5.949044e-001 -5.494125e+000 43 32 35
7.143277e-001 -6.185788e-001 -5.691161e+000 43 32 35
3.250933e+000 1.714614e+000 -6.492730e+000 98 97 103
1.245710e+000 1.292493e+000 -5.978772e+000 127 118 84
1.569046e+000 -3.130174e-001 -5.925962e+000 58 46 38
8.156065e-002 -8.843466e-001 -4.809377e+000 231 195 145
-1.402425e-001 -1.361939e+000 -5.247949e+000 96 41 30
6.232576e-001 -1.770290e+000 -6.540784e+000 56 21 23
-1.013463e+000 -6.817391e-001 -4.022757e+000 191 98 57
2.053764e+000 8.666061e-001 -6.026428e+000 219 218 210
-7.503120e-001 2.577411e+000 -9.270488e+000 69 65 72
1.344413e+000 2.255220e+000 -6.109556e+000 155 142 105
-1.001495e+000 2.298464e+000 -9.435028e+000 57 55 59
2.474934e+000 2.410539e+000 -5.888509e+000 48 35 38
1.031873e+000 1.962578e+000 -6.403603e+000 157 148 105
1.314731e+000 1.963541e+000 -6.233487e+000 198 188 135
-3.590342e+000 1.132527e+000 -1.136443e+001 63 62 67
-3.579242e+000 1.071644e+000 -1.143767e+001 62 61 66
-3.548291e+000 9.697483e-001 -1.139738e+001 68 67 72
-3.545592e+000 9.676455e-001 -1.139228e+001 68 67 72
-3.444181e+000 1.033250e+000 -1.132953e+001 57 56 62
2.674003e+000 1.764285e+000 -6.045227e+000 53 49 58
1.135863e+000 1.336835e+000 -6.151145e+000 136 125 93
1.401774e+000 1.444767e+000 -6.167141e+000 214 207 162
2.502294e+000 1.541779e+000 -6.050486e+000 128 126 134
2.627299e+000 1.616914e+000 -6.033850e+000 65 64 70
1.154785e+000 1.162246e+000 -6.565050e+000 205 207 193
2.475089e+000 1.474728e+000 -6.107210e+000 90 90 98
2.469754e+000 1.446632e+000 -6.042472e+000 61 59 66
2.657326e+000 1.467318e+000 -6.040926e+000 79 76 83
2.483003e+000 1.350176e+000 -5.998383e+000 59 58 63
2.552250e+000 1.261169e+000 -5.940575e+000 62 59 67
2.588757e+000 1.240888e+000 -5.979235e+000 101 98 103
2.795095e+000 1.231746e+000 -5.881791e+000 45 42 49
-4.521337e-001 3.909317e-002 -4.900757e+000 153 79 46
-5.401622e-001 -4.814437e-002 -4.973221e+000 212 135 92
-1.136475e-001 -5.930284e-002 -5.653626e+000 214 218 203
5.987262e-001 1.550876e-001 -5.615768e+000 207 211 200
2.671979e+000 5.528879e-001 -6.006018e+000 57 53 60
2.723936e+000 5.445348e-001 -5.857107e+000 51 50 55
2.723936e+000 5.445348e-001 -5.857107e+000 51 50 55
2.873197e+000 4.935006e-001 -5.790697e+000 61 60 65
2.873197e+000 4.935006e-001 -5.790697e+000 61 60 65
-3.357070e-001 -1.545177e-001 -4.534540e+000 150 122 110
2.614599e+000 1.889478e-001 -5.872690e+000 73 71 74
2.772243e+000 3.021906e-001 -5.780552e+000 70 69 74
2.893564e+000 3.325858e-001 -5.734410e+000 60 59 64
1.189116e+000 -2.670273e-001 -5.665735e+000 166 166 156
-1.298073e+000 -5.875651e-001 -4.009402e+000 158 136 87
-1.225804e+000 -5.247975e-001 -4.053254e+000 106 61 52
-8.660670e-001 -5.649662e-001 -3.987367e+000 144 73 53
-6.509329e-001 -6.684907e-001 -4.127064e+000 79 61 61
-2.635814e-001 -8.045523e-001 -4.713116e+000 146 101 67
2.678087e+000 -7.241546e-001 -5.901618e+000 65 60 62
-6.903448e-001 -8.633447e-001 -4.013041e+000 102 35 10
-3.952301e-001 -1.015743e+000 -4.441233e+000 133 60 27
9.534415e-001 -1.720119e+000 -6.767722e+000 108 92 76
1.598553e+000 -1.142739e+000 -6.112522e+000 199 160 115
3.027300e+000 -7.278719e-001 -5.647131e+000 52 47 51
-1.114003e-001 -1.241299e+000 -4.759207e+000 127 56 30
2.748691e+000 -1.038270e+000 -5.754365e+000 33 28 32
1.590243e+000 2.483233e+000 -6.399606e+000 207 197 179
-3.327024e+000 7.077208e-001 -1.130804e+001 54 53 58
2.976358e-001 1.216642e+000 -6.891077e+000 211 212 197
2.679997e+000 1.731759e+000 -6.022468e+000 111 106 113
2.603710e+000 1.631662e+000 -6.065254e+000 134 132 137
2.603710e+000 1.631662e+000 -6.065254e+000 134 132 137
2.580882e+000 1.547424e+000 -6.025443e+000 157 156 162
2.580618e+000 1.412857e+000 -6.015937e+000 120 117 124
2.611884e+000 1.416012e+000 -5.998142e+000 54 51 58
2.670194e+000 1.518341e+000 -6.099567e+000 66 63 70
2.703185e+000 1.547908e+000 -5.974882e+000 59 58 64
2.815982e+000 1.580799e+000 -5.990780e+000 56 53 60
2.682007e+000 1.306208e+000 -5.958282e+000 49 47 52
1.682772e-001 5.787103e-001 -6.663391e+000 234 238 224
4.874375e-001 4.039295e-001 -6.531289e+000 203 213 203
6.429486e-001 5.536244e-001 -6.494552e+000 213 217 203
1.801038e+000 8.375742e-001 -6.111428e+000 224 224 214
1.838682e+000 7.956439e-001 -5.759968e+000 213 213 201
2.787857e+000 1.098148e+000 -5.970911e+000 82 77 83
-4.201241e-001 9.286193e-002 -5.018782e+000 156 96 68
1.387521e+000 5.406353e-001 -5.103915e+000 217 222 215
2.725031e+000 7.303809e-001 -5.863235e+000 75 74 78
2.949912e+000 8.007015e-001 -5.915792e+000 40 38 43
-5.743332e-001 -2.355525e-001 -4.917120e+000 220 119 66
-2.617701e-001 -7.143129e-002 -4.549674e+000 170 79 79
3.569857e-001 -6.587584e-002 -5.126681e+000 205 212 204
2.795026e+000 4.504666e-001 -5.854620e+000 66 65 70
-4.884689e-001 -2.882942e-001 -4.705848e+000 185 95 59
-4.064731e-001 -2.135602e-001 -4.483428e+000 174 144 114
-2.712988e-001 -1.345116e-001 -4.488634e+000 88 74 63
-2.712988e-001 -1.345116e-001 -4.488634e+000 88 74 63
2.711058e+000 2.209044e-001 -5.846293e+000 65 63 66
7.377654e-001 -3.167413e-001 -5.439786e+000 177 178 170
2.622588e+000 5.776712e-002 -5.776677e+000 133 118 87
-1.306861e+000 -5.693620e-001 -4.004696e+000 102 82 33
-5.489475e-001 -4.537883e-001 -4.446498e+000 175 93 54
1.176571e+000 -3.496809e-001 -5.642872e+000 162 162 151
-1.288614e+000 -6.107749e-001 -4.025241e+000 117 94 44
-1.280627e+000 -6.032479e-001 -4.004596e+000 117 94 44
-6.853343e-001 -5.272426e-001 -4.256794e+000 208 188 164
1.452454e+000 -6.546506e-001 -6.045680e+000 164 124 82
-1.313508e+000 -6.925696e-001 -3.942084e+000 148 127 77
-9.611244e-001 -7.206698e-001 -3.916275e+000 224 132 89
-8.568966e-001 -7.178147e-001 -3.930387e+000 183 97 62
1.665496e+000 -1.230633e+000 -6.212034e+000 210 172 129
2.550374e+000 -8.596705e-001 -5.933825e+000 65 60 64
2.679481e+000 -8.095861e-001 -6.001927e+000 59 54 58
2.993852e+000 -6.340999e-001 -5.592952e+000 32 27 31
2.993852e+000 -6.340999e-001 -5.592952e+000 32 27 31
-6.408324e-001 -9.368551e-001 -4.077774e+000 91 42 19
8.789301e-002 -1.117823e+000 -4.859993e+000 177 122 89
1.724593e+000 -1.369055e+000 -6.238695e+000 191 130 106
2.267760e+000 -1.368458e+000 -6.267604e+000 43 18 18
2.717365e+000 -1.043707e+000 -5.902263e+000 52 47 51
1.660168e+000 2.176594e+000 -6.175710e+000 203 197 184
2.587798e+000 1.599196e+000 -6.079704e+000 63 57 63
2.658296e+000 1.670224e+000 -6.024043e+000 160 156 162
2.768105e+000 1.644029e+000 -5.995842e+000 60 57 64
-3.756138e-001 8.790640e-001 -8.382846e+000 221 222 207
2.643130e+000 1.486741e+000 -5.955765e+000 158 155 162
2.643130e+000 1.486741e+000 -5.955765e+000 158 155 162
2.684576e+000 1.438611e+000 -5.980102e+000 56 53 60
2.577015e+000 1.314503e+000 -6.029301e+000 128 125 134
2.736117e+000 1.355141e+000 -6.058312e+000 52 49 55
2.712358e+000 1.349648e+000 -6.009424e+000 52 49 55
2.700648e+000 1.393759e+000 -5.969462e+000 115 112 120
2.700677e+000 1.393986e+000 -5.969988e+000 115 112 120
2.775438e+000 1.383843e+000 -6.011194e+000 52 49 56
2.648120e+000 1.322416e+000 -5.967966e+000 111 109 114
8.119451e-001 7.518682e-001 -6.388067e+000 237 239 225
1.359500e+000 8.287578e-001 -5.998425e+000 229 231 214
2.689188e+000 1.225468e+000 -6.015901e+000 108 107 113
2.614989e+000 1.194538e+000 -5.765321e+000 53 50 57
3.472119e-001 4.710602e-001 -6.282409e+000 213 216 205
2.780741e+000 9.931857e-001 -5.928927e+000 49 46 55
-2.213996e+000 -6.938841e-001 -1.066144e+001 24 19 21
-2.312557e+000 -7.811406e-001 -1.081022e+001 59 57 60
-5.446570e-001 -1.650595e-001 -4.847015e+000 210 113 62
-1.495811e-001 -4.395030e-002 -4.697632e+000 185 184 172
4.966576e-001 -4.304429e-002 -5.304757e+000 194 204 195
-3.000948e-001 -1.588462e-001 -4.522484e+000 168 155 131
-1.618533e-001 -1.747528e-001 -4.480075e+000 182 137 104
-1.607192e-001 -1.767255e-001 -4.479973e+000 182 137 104
2.583171e-001 -1.766154e-001 -4.767099e+000 161 166 156
2.523380e+000 2.416660e-001 -5.868811e+000 50 48 53
2.858918e+000 2.746853e-001 -5.874551e+000 40 38 45
-7.014496e-001 -4.074166e-001 -4.610340e+000 196 111 66
-5.584838e-001 -4.267602e-001 -4.586410e+000 217 120 75
-7.890813e-001 -4.587676e-001 -4.179663e+000 85 42 24
5.918587e-001 -4.160400e-001 -5.410244e+000 122 116 104
-1.251804e+000 -5.947873e-001 -4.005065e+000 154 126 79
-1.187836e+000 -5.614799e-001 -3.968152e+000 119 67 57
-5.843840e-001 -5.330948e-001 -4.153482e+000 219 181 132
8.304844e-001 -8.318822e-001 -5.636371e+000 153 149 137
1.616286e+000 -7.764829e-001 -6.170764e+000 183 140 108
1.537186e+000 -7.783941e-001 -6.053342e+000 143 95 59
1.673967e+000 -8.175222e-001 -6.153331e+000 146 56 45
1.898712e+000 -7.754461e-001 -6.347584e+000 188 78 76
2.013168e+000 -7.330700e-001 -6.144267e+000 192 79 76
-1.338589e+000 -7.749335e-001 -3.856756e+000 142 121 67
-8.749268e-001 -7.709106e-001 -3.911111e+000 210 118 77
-8.233890e-001 -7.726094e-001 -3.912437e+000 192 104 64
-7.536893e-001 -9.059233e-001 -3.985015e+000 149 76 47
1.608144e+000 -1.084129e+000 -5.983463e+000 214 178 132
1.611125e+000 -1.234805e+000 -6.172000e+000 165 122 84
2.705469e+000 -8.866343e-001 -5.956019e+000 44 39 43
-7.870046e-001 -9.370305e-001 -3.887592e+000 92 39 25
3.042789e+000 -7.429959e-001 -5.557134e+000 63 58 62
-1.682907e-001 -1.343380e+000 -4.786349e+000 134 67 41
1.997632e+000 1.471551e+000 -5.759386e+000 136 61 57
2.443499e+000 1.532666e+000 -6.038787e+000 58 41 43
1.186154e+000 1.180649e+000 -6.526257e+000 234 233 213
2.672353e+000 1.552807e+000 -6.105031e+000 58 57 63
2.663179e+000 1.272707e+000 -6.032275e+000 55 50 57
2.756987e+000 1.412971e+000 -5.939671e+000 50 47 55
7.103620e-001 7.681318e-001 -6.478005e+000 232 235 222
3.322391e-001 4.141252e-001 -6.090285e+000 196 200 184
2.701287e+000 1.073151e+000 -5.901200e+000 54 53 59
2.918030e+000 1.027327e+000 -5.967487e+000 42 39 46
-3.551847e+000 -1.243963e+000 -1.136074e+001 54 52 57
2.024401e-001 9.280536e-002 -5.642738e+000 200 207 199
4.945299e-002 3.336590e-002 -5.559502e+000 202 208 204
5.104884e-001 1.004699e-001 -5.483209e+000 202 209 197
-3.387585e-001 -1.333994e-001 -4.609903e+000 116 49 49
-4.005186e-001 -2.169199e-001 -4.401787e+000 196 173 128
-2.413153e-001 -1.918181e-001 -4.442475e+000 202 184 142
-6.058621e-001 -4.463777e-001 -4.599572e+000 154 68 32
2.307546e+000 -9.329883e-002 -5.752751e+000 214 199 149
-1.420917e+000 -5.300884e-001 -4.057533e+000 141 119 71
-1.375936e+000 -5.758432e-001 -4.019545e+000 147 127 77
-7.651021e-001 -4.917591e-001 -4.200758e+000 119 93 70
-7.651778e-001 -4.328652e-001 -4.317703e+000 171 135 108
-4.739467e-001 -4.572734e-001 -4.572043e+000 214 169 122
-4.568576e-001 -4.765920e-001 -4.480948e+000 154 89 48
1.361357e-002 -3.434166e-001 -4.597958e+000 216 171 128
1.603065e+000 -6.562565e-001 -6.111248e+000 182 148 107
-1.156295e+000 -6.757740e-001 -3.969707e+000 117 63 55
9.673266e-001 -7.029907e-001 -5.579989e+000 182 179 164
1.828407e+000 -8.397059e-001 -6.209036e+000 194 76 69
3.152902e+000 -6.146438e-001 -5.643890e+000 32 30 33
1.643708e+000 -1.370150e+000 -6.236147e+000 176 91 78
1.781621e+000 -1.392121e+000 -6.277295e+000 152 71 61
7.927865e-001 2.318793e+000 -7.094310e+000 238 238 226
4.568925e-002 1.055512e+000 -7.665362e+000 219 221 208
2.474519e+000 1.364136e+000 -5.901879e+000 61 60 64
2.631875e+000 1.383587e+000 -6.011094e+000 55 53 58
-1.375459e+000 2.795327e-002 -9.273464e+000 219 212 201
-5.942150e-001 4.154961e-001 -8.572681e+000 229 233 221
-1.741543e+000 -2.883916e-001 -9.683879e+000 179 61 57
3.732247e-001 5.298322e-001 -6.486577e+000 195 201 189
-8.711084e-002 1.491949e-001 -5.949610e+000 195 200 193
1.380918e+000 4.881440e-001 -5.672358e+000 193 196 189
-1.454552e+000 -5.265133e-001 -4.031222e+000 163 146 90
-1.516285e+000 -7.145412e-001 -3.901711e+000 36 23 23
-2.532996e-001 -5.838840e-001 -4.543497e+000 142 80 48
8.967388e-001 -6.625797e-001 -5.792045e+000 85 76 69
9.084513e-001 -6.566644e-001 -5.783825e+000 85 76 69
9.385896e-001 -7.271506e-001 -5.797120e+000 201 199 187
1.567028e+000 -5.775792e-001 -6.091475e+000 81 55 32
-8.805787e-001 -6.496644e-001 -3.965566e+000 112 42 21
2.253306e+000 -6.731168e-001 -6.043110e+000 105 77 47
-1.200788e+000 -8.178076e-001 -3.905706e+000 151 120 74
-5.792505e-001 -8.084933e-001 -4.154209e+000 125 58 33
1.550770e+000 -1.252344e+000 -6.181637e+000 219 191 141
-2.321925e-002 -3.990826e+000 -8.137478e+000 169 51 49
-2.321925e-002 -3.990826e+000 -8.137478e+000 169 51 49
-3.182800e-001 1.941779e+000 -8.491952e+000 216 210 199
1.096307e+000 1.905951e+000 -6.376808e+000 213 201 143
2.388378e+000 1.873515e+000 -5.684852e+000 175 67 68
-1.329054e+000 2.756557e-001 -9.275850e+000 217 217 202
2.352734e-001 7.113642e-001 -6.677752e+000 238 241 230
1.182286e+000 1.069446e+000 -6.224256e+000 129 117 85
2.932447e-001 -9.844129e-002 -4.945419e+000 157 163 156
-1.505555e-001 -2.967693e-001 -4.529918e+000 159 115 79
-7.728731e-001 -5.451441e-001 -4.170523e+000 123 67 42
2.601560e+000 -2.749620e-001 -5.731790e+000 150 133 80
-1.159786e+000 -7.714593e-001 -3.920581e+000 69 22 14
2.460857e+000 -6.500397e-001 -5.824710e+000 38 30 28
3.224229e+000 -6.793639e-001 -5.683844e+000 51 47 53
-7.896919e-001 -9.438218e-001 -3.978095e+000 86 33 23
1.829093e+000 -1.313071e+000 -6.132125e+000 197 159 115
6.461799e-002 -3.842536e+000 -8.109966e+000 18 15 12
9.800247e-001 2.388849e+000 -6.050709e+000 134 120 83
1.280238e+000 1.614659e+000 -6.070871e+000 162 153 103
2.594797e-001 1.243005e+000 -7.037530e+000 180 179 167
2.174124e+000 -2.884903e-002 -5.959646e+000 195 82 81
-3.131375e-003 -7.028849e-001 -4.774115e+000 185 146 102
2.925166e+000 -1.820302e-001 -5.193769e+000 118 99 62
1.146106e+000 -1.171196e+000 -5.993693e+000 116 103 87
-9.856223e-002 -1.162690e+000 -4.791106e+000 60 19 19
-3.769234e-001 5.573637e-002 -5.203279e+000 102 59 47
-1.669414e-001 -1.396267e-001 -4.458606e+000 169 88 83
1.087855e+000 -3.015891e-002 -5.489827e+000 211 216 209
-8.505786e-001 -5.770906e-001 -4.035060e+000 125 57 36
-3.103871e-001 -9.799718e-001 -4.548803e+000 137 62 35
-6.965820e-001 -9.765514e-001 -3.918770e+000 36 24 30
1.199800e-001 -3.846331e+000 -8.325843e+000 23 12 15
-8.052233e-002 8.511615e-001 -6.710448e+000 235 237 226
-7.511331e-001 -8.435519e-001 -3.975993e+000 174 90 59
4.605143e-002 3.037381e-001 -6.221735e+000 174 176 165
1.818762e+000 -1.769576e+000 -6.248237e+000 35 28 34
1.229509e+000 1.680963e+000 -6.587299e+000 124 115 79
-3.635517e-001 -3.781612e-001 -4.529378e+000 229 187 135
2.278186e+000 -2.650534e-001 -5.840022e+000 108 87 57
-1.024467e+000 -5.407219e-001 -4.020149e+000 230 138 86
6.968168e-001 -6.055047e-001 -5.622544e+000 51 40 38
2.215322e+000 -6.017566e-001 -5.339969e+000 49 42 49
-6.911096e-001 -1.078843e-001 -4.990286e+000 223 221 209
-1.268976e+000 -4.115105e-001 -4.201088e+000 42 38 37
-9.415643e-001 -7.277388e-001 -3.837968e+000 222 122 63
-3.607315e-001 -8.481841e-001 -4.619823e+000 132 70 42
-3.607315e-001 -8.481841e-001 -4.619823e+000 132 70 42
-1.215658e-001 -1.352108e+000 -5.211264e+000 61 18 23
2.572641e+000 -2.359874e-001 -5.726214e+000 166 149 94
1.109200e+000 2.242162e+000 -6.170803e+000 112 103 70
1.109200e+000 2.242162e+000 -6.170803e+000 112 103 70
1.518192e+000 -2.032833e+000 -6.717274e+000 205 201 190
-9.990113e-001 -6.866854e-001 -4.040044e+000 184 87 42
1.990028e+000 8.104474e-001 -5.841727e+000 223 221 209
1.827401e+000 2.162067e+000 -6.121250e+000 229 226 214
-3.861078e-001 3.214783e+000 -9.167617e+000 72 71 76
2.813197e+000 1.628752e+000 -5.926095e+000 111 110 115
2.642441e+000 1.428627e+000 -5.983880e+000 128 127 133
2.585604e+000 1.239464e+000 -5.971861e+000 124 125 129
2.546646e+000 3.875374e-001 -5.950596e+000 67 69 71
5.035718e-001 -4.490397e-002 -5.178467e+000 191 197 187
4.897335e-001 -9.552772e-002 -5.181534e+000 182 187 180
3.238453e+000 -5.185972e-001 -5.514188e+000 102 102 106
3.077815e+000 -5.743168e-001 -5.594423e+000 55 52 56
2.830320e+000 -7.243987e-001 -5.766820e+000 71 69 74
2.830320e+000 -7.243987e-001 -5.766820e+000 71 69 74
2.967165e+000 -7.600613e-001 -5.592447e+000 42 40 45
2.972747e+000 -7.938351e-001 -5.632421e+000 55 54 59
1.706723e+000 -1.209894e+000 -6.054152e+000 181 145 100
2.069057e+000 -1.406025e+000 -6.091198e+000 129 44 50
-6.754208e-001 -9.056983e-001 -4.022842e+000 81 35 22
2.685385e+000 1.633270e+000 -5.990910e+000 56 57 61
2.775532e+000 1.711786e+000 -6.023134e+000 95 96 100
2.875032e+000 1.573378e+000 -5.891498e+000 143 143 150
2.834695e+000 1.558856e+000 -5.889360e+000 62 61 67
2.654244e+000 1.323407e+000 -5.980571e+000 146 147 152
2.790806e+000 1.237926e+000 -5.945427e+000 130 131 136
2.815514e+000 1.308400e+000 -5.894759e+000 50 51 56
2.861400e+000 1.285791e+000 -5.932954e+000 107 109 114
2.629573e+000 1.232960e+000 -5.983656e+000 70 71 75
2.895581e+000 7.307913e-001 -5.840338e+000 46 45 51
3.067847e+000 6.902657e-001 -5.814081e+000 45 44 50
2.489649e+000 3.769128e-001 -5.956417e+000 51 40 44
2.650306e+000 4.082954e-001 -5.908293e+000 55 55 63
2.709901e+000 3.527061e-001 -5.888122e+000 59 60 65
1.788927e+000 3.999100e-001 -5.931339e+000 229 232 225
1.946145e-001 1.574566e-001 -5.782826e+000 223 226 217
7.408233e-001 -2.237852e-001 -5.337439e+000 147 148 142
7.408233e-001 -2.237852e-001 -5.337439e+000 147 148 142
1.230592e+000 -2.601114e-001 -5.606798e+000 168 164 155
1.231250e+000 -2.706409e-001 -5.675864e+000 168 164 155
2.334664e+000 -6.977287e-001 -5.939443e+000 149 75 68
1.439253e-001 -5.650804e-001 -4.488658e+000 188 142 106
2.785940e+000 1.535409e+000 -5.987618e+000 62 61 66
2.819075e+000 1.537798e+000 -5.941729e+000 163 162 167
2.612728e+000 1.334271e+000 -5.994820e+000 65 66 71
2.797264e+000 1.297870e+000 -5.958105e+000 54 55 60
2.669596e+000 1.220942e+000 -5.974864e+000 147 152 155
2.732616e+000 -8.556380e-001 -5.802382e+000 41 40 45
1.861308e+000 -9.233311e-001 -6.155579e+000 123 39 33
-8.274449e-001 -5.156124e-001 -4.027998e+000 137 73 56
2.624346e+000 1.378852e+000 -5.991920e+000 60 59 65
1.032756e+000 -1.394616e-001 -5.543489e+000 154 155 149
2.284546e+000 -6.662084e-001 -5.942345e+000 100 59 41
-4.170463e-001 2.670415e+000 -8.576774e+000 67 61 66
1.092468e+000 1.904611e+000 -6.383289e+000 180 171 120
2.619518e+000 -4.723457e-001 -5.640551e+000 121 106 66
2.111530e+000 2.363515e+000 -5.788391e+000 234 233 225
-4.701828e-001 1.917242e+000 -8.488096e+000 195 79 78
-9.913788e-001 9.089855e-001 -9.155730e+000 209 210 197
2.282657e+000 -7.557273e-001 -5.937034e+000 190 78 77
2.508249e+000 2.021276e+000 -5.765587e+000 191 87 80
2.231285e+000 1.825028e+000 -5.600651e+000 190 77 78
-7.038269e-002 -2.397018e-001 -4.566030e+000 148 81 66
1.807019e+000 1.358333e+000 -5.803148e+000 234 234 226
1.153854e-003 1.144322e+000 -7.808294e+000 216 217 204
1.662555e-001 5.784415e-001 -6.628953e+000 230 233 224
-1.179688e+000 -4.054369e-001 -4.091076e+000 83 48 46
-1.197678e+000 -6.273369e-001 -3.919359e+000 96 47 38
-1.286760e+000 -7.032152e-001 -3.949468e+000 105 86 41
-1.348132e+000 -7.824990e-001 -3.877188e+000 131 111 65
2.203093e+000 -1.704624e+000 -6.807399e+000 156 54 60
2.630358e+000 5.887718e-001 -5.961136e+000 56 54 60
2.497134e+000 4.174022e-001 -5.877555e+000 67 68 71
2.799461e+000 4.506839e-001 -5.863847e+000 71 70 75
-4.569990e-001 -8.179011e-002 -5.156717e+000 98 70 59
1.149205e-002 -7.801562e-002 -4.682875e+000 180 187 172
-1.405982e+000 -4.783017e-001 -3.968768e+000 128 106 57
-7.850852e-001 -4.841177e-001 -4.148647e+000 107 67 51
-7.168357e-001 -4.791801e-001 -4.145431e+000 57 47 46
-1.292330e+000 -6.501492e-001 -3.954323e+000 164 143 99
-1.273738e+000 -6.497308e-001 -3.975578e+000 110 93 52
-1.254848e+000 -6.830936e-001 -3.952909e+000 106 88 42
-1.254848e+000 -6.830936e-001 -3.952909e+000 106 88 42
-1.094030e+000 -7.320870e-001 -3.873675e+000 114 60 52
1.120215e+000 -1.837884e+000 -7.384799e+000 101 83 65
-1.730378e-001 -1.508228e+000 -4.947763e+000 87 39 27
-8.669154e-001 2.048181e+000 -9.137934e+000 55 45 43
7.632542e-001 -7.916738e-002 -5.421057e+000 198 203 196
-1.383865e+000 -5.369564e-001 -4.021400e+000 125 104 61
-1.241312e+000 -6.481440e-001 -3.973755e+000 167 136 96
-1.173593e-001 -1.065698e+000 -4.793215e+000 77 39 20
2.876794e+000 1.491520e+000 -6.010460e+000 54 53 59
-4.897814e-001 1.207229e+000 -8.594105e+000 201 201 189
2.877704e+000 3.705782e-001 -5.858076e+000 66 64 69
-1.150553e+000 -8.999919e-001 -3.934668e+000 32 30 31
-5.610001e-001 -3.390841e-001 -4.777194e+000 207 124 79
2.899270e+000 1.678164e+000 -6.257622e+000 97 96 102
-1.181181e+000 3.520191e+000 -9.777443e+000 70 68 73
-3.384948e-001 3.420892e+000 -9.245713e+000 96 95 101
-4.831180e-001 3.218010e+000 -9.188898e+000 86 88 92
-4.853688e-001 3.038040e+000 -9.193973e+000 67 62 68
2.669658e+000 1.488632e+000 -5.926994e+000 57 56 62
2.524892e+000 4.114924e-001 -5.938739e+000 73 68 75
3.076694e-001 -1.446193e-001 -4.851176e+000 164 169 161
-1.379741e-001 -1.741120e-001 -4.523301e+000 155 73 61
2.416322e+000 -3.859187e-001 -5.746321e+000 172 156 105
-1.469950e+000 -4.640018e-001 -4.068959e+000 123 108 76
-1.194549e+000 -4.098665e-001 -4.128105e+000 93 54 58
-1.319273e+000 -6.925362e-001 -3.937962e+000 147 132 90
-1.309819e+000 -6.631156e-001 -4.002317e+000 167 149 101
2.528360e+000 -9.487201e-001 -5.874935e+000 88 85 90
-1.112194e+000 -7.543155e-001 -3.941079e+000 124 69 67
-1.180471e+000 -7.931056e-001 -3.922443e+000 92 51 38
2.563822e+000 -1.117888e+000 -5.772958e+000 44 39 43
1.814789e+000 -1.344364e+000 -6.045942e+000 180 127 106
2.592680e+000 -1.261084e+000 -5.728186e+000 37 32 38
1.614911e+000 -1.507272e+000 -6.520609e+000 165 90 89
-3.199669e-001 3.330882e+000 -9.156586e+000 66 65 71
2.917196e+000 1.006927e+000 -5.884030e+000 75 74 80
2.867385e+000 7.633311e-001 -5.925663e+000 49 49 54
2.867385e+000 7.633311e-001 -5.925663e+000 49 49 54
2.892015e+000 6.301348e-001 -5.829826e+000 48 47 52
2.970719e+000 5.368964e-001 -5.853708e+000 45 44 49
2.979413e+000 4.934291e-001 -5.803415e+000 63 62 67
1.774116e+000 4.047141e-001 -5.763320e+000 214 216 205
2.601082e-001 -1.793973e-001 -4.805777e+000 155 160 153
-1.139019e+000 -4.259502e-001 -4.120156e+000 102 51 42
-7.272562e-001 -5.421563e-001 -4.175301e+000 144 107 73
1.374616e+000 -7.446871e-001 -5.966132e+000 181 141 103
2.047440e+000 -7.226109e-001 -6.051497e+000 178 75 75
2.986227e+000 -7.902753e-001 -5.462212e+000 45 43 48
3.074060e+000 -6.935289e-001 -5.461029e+000 52 50 57
1.593159e+000 -1.130170e+000 -6.053269e+000 170 129 85
-1.230004e+000 -8.586054e-001 -3.959751e+000 59 45 32
1.967831e+000 -1.349243e+000 -6.186223e+000 171 60 59
2.514215e+000 -1.222623e+000 -5.752256e+000 38 33 39
2.563301e+000 -1.176379e+000 -5.690140e+000 40 35 41
-2.630744e-001 -1.155250e+000 -4.688760e+000 92 35 22
1.286194e+000 -1.659335e+000 -6.611364e+000 166 157 143
1.305425e+000 2.776297e+000 -6.524507e+000 196 167 121
2.968283e+000 1.212223e+000 -5.924030e+000 46 45 51
3.789109e-001 1.308873e+000 -6.791034e+000 225 230 220
5.689636e-001 4.165283e-001 -6.324157e+000 236 242 232
2.718106e+000 4.966106e-001 -5.949047e+000 54 51 59
2.718106e+000 4.966106e-001 -5.949047e+000 54 51 59
2.965819e+000 4.526594e-001 -5.702046e+000 44 41 41
4.118557e-001 -1.310236e-001 -5.073919e+000 185 190 184
1.126941e+000 -3.945462e-001 -5.584112e+000 156 157 149
1.314981e+000 -8.128579e-001 -6.016428e+000 207 173 143
-8.866145e-001 -8.068619e-001 -3.953971e+000 169 86 44
-6.648377e-002 2.968309e+000 -8.475840e+000 178 67 62
2.605679e+000 1.467261e+000 -6.036413e+000 64 63 71
-8.578199e-001 -9.249898e-001 -3.915598e+000 90 39 34
1.439030e+000 1.461939e+000 -6.215129e+000 253 254 212
-8.109785e-001 -9.894982e-001 -3.914912e+000 155 87 47
-8.109785e-001 -9.894982e-001 -3.914912e+000 155 87 47
2.480767e+000 -1.933990e-001 -5.658133e+000 237 226 169
1.431642e-001 2.727999e+000 -8.038119e+000 179 65 61
-1.037211e+000 3.479838e+000 -9.699649e+000 62 61 66
2.091220e+000 1.595684e+000 -5.817497e+000 112 49 52
-3.392546e-001 -7.817804e-001 -4.268245e+000 74 31 26
-3.392546e-001 -7.817804e-001 -4.268245e+000 74 31 26
6.360023e-001 2.490602e+000 -7.173185e+000 226 223 212
-8.901228e-001 2.336315e+000 -9.128234e+000 51 49 54
7.975911e-001 2.434405e+000 -6.435307e+000 229 223 211
-8.702351e-001 4.164643e+000 -9.289224e+000 76 75 81
-8.311029e-001 4.159115e+000 -9.334871e+000 53 54 59
-8.311029e-001 4.159115e+000 -9.334871e+000 53 54 59
-8.188272e-001 3.965854e+000 -9.245963e+000 62 61 66
-5.563909e-001 3.951765e+000 -9.347352e+000 56 55 61
-1.895469e-001 3.749777e+000 -9.403853e+000 81 80 86
-2.626590e-001 3.369450e+000 -9.247741e+000 94 92 98
-4.269835e-001 3.193881e+000 -9.265443e+000 91 90 95
2.917403e+000 1.640012e+000 -5.897707e+000 63 63 69
3.062882e+000 1.572797e+000 -5.859084e+000 59 58 64
2.798318e+000 1.477294e+000 -5.971566e+000 146 145 150
3.149658e+000 1.376979e+000 -5.904234e+000 81 80 85
3.170017e+000 1.363850e+000 -5.757794e+000 52 49 56
3.280700e+000 1.388654e+000 -5.802178e+000 82 81 86
3.609565e+000 1.315489e+000 -5.750172e+000 41 39 44
3.863243e+000 1.251043e+000 -5.701177e+000 48 44 51
2.659915e+000 1.441283e+000 -6.030799e+000 128 127 133
3.102870e+000 1.342484e+000 -5.970524e+000 46 45 51
3.132212e+000 1.318782e+000 -5.973270e+000 59 57 64
3.092806e+000 1.213607e+000 -5.927221e+000 77 76 82
3.145463e+000 1.206439e+000 -5.847221e+000 76 75 81
3.145463e+000 1.206439e+000 -5.847221e+000 76 75 81
3.351049e+000 1.282194e+000 -5.744816e+000 39 37 40
3.408350e+000 1.292520e+000 -5.733954e+000 67 64 71
3.556382e+000 1.254007e+000 -5.668807e+000 62 60 65
3.556382e+000 1.254007e+000 -5.668807e+000 62 60 65
3.886360e+000 1.195267e+000 -5.619652e+000 48 43 49
2.769668e+000 9.136432e-001 -5.912953e+000 61 62 66
2.811013e+000 9.183277e-001 -5.937069e+000 90 90 98
2.936210e+000 1.019831e+000 -5.928326e+000 80 79 85
3.390790e+000 9.027559e-001 -5.901055e+000 55 54 59
1.624316e+000 9.411232e-001 -5.929021e+000 212 218 208
2.893696e+000 8.153178e-001 -5.871955e+000 73 74 79
2.859087e+000 7.436594e-001 -5.902838e+000 61 62 67
3.182599e+000 7.209152e-001 -5.819428e+000 63 62 68
3.182599e+000 7.209152e-001 -5.819428e+000 63 62 68
3.330899e+000 6.501755e-001 -5.776068e+000 53 52 57
3.488550e+000 7.237131e-001 -5.797179e+000 47 44 51
2.631658e+000 5.934344e-001 -5.982509e+000 65 65 69
2.665321e+000 5.799671e-001 -5.987892e+000 56 57 59
2.949351e+000 6.603692e-001 -5.803101e+000 49 50 54
2.886174e+000 5.970492e-001 -5.921420e+000 49 50 54
2.959815e+000 5.916840e-001 -5.819088e+000 63 63 67
3.034206e+000 6.263378e-001 -5.796879e+000 60 58 63
3.034206e+000 6.263378e-001 -5.796879e+000 60 58 63
2.640817e+000 4.740102e-001 -5.922553e+000 55 58 63
2.743985e+000 5.143177e-001 -5.904405e+000 100 104 107
2.891793e+000 4.855111e-001 -5.836965e+000 79 78 83
2.773588e+000 3.442065e-001 -5.870347e+000 52 55 57
2.885243e+000 3.886493e-001 -5.799679e+000 66 65 70
2.962321e+000 4.165677e-001 -5.804539e+000 72 71 79
2.962321e+000 4.165677e-001 -5.804539e+000 72 71 79
2.971535e+000 4.011484e-001 -5.755315e+000 45 43 54
2.493318e+000 3.313071e-001 -5.922516e+000 66 64 70
2.576227e+000 2.164287e-001 -6.021088e+000 57 55 62
2.670122e+000 2.883697e-001 -5.890059e+000 52 53 57
2.677416e+000 2.606504e-001 -5.934810e+000 103 104 108
2.514376e+000 8.340454e-002 -6.010769e+000 76 69 76
-3.183803e+000 6.047229e-001 -1.110668e+001 57 56 61
-4.691489e-001 5.809428e-002 -5.174681e+000 132 70 46
-4.699662e-001 -6.411678e-003 -4.981948e+000 172 87 57
6.255756e-001 -9.026563e-002 -5.333375e+000 214 220 213
6.346842e-001 -1.313426e-001 -5.312541e+000 169 175 168
6.930526e-001 -1.453516e-001 -5.491471e+000 180 184 177
-4.686795e-001 -7.218104e-002 -5.134140e+000 80 42 28
3.021332e+000 -5.317939e-001 -5.584487e+000 46 44 47
3.342160e+000 -4.405748e-001 -5.447820e+000 43 40 47
-8.732529e-001 -2.763079e-001 -4.244190e+000 106 71 70
2.614174e+000 -6.632698e-001 -5.894462e+000 63 60 64
2.802679e+000 -6.523340e-001 -5.854706e+000 50 42 53
3.150328e+000 -6.024882e-001 -5.516353e+000 60 61 65
3.059276e+000 -7.122904e-001 -5.529365e+000 55 54 60
3.132705e+000 -6.714658e-001 -5.520143e+000 99 98 106
-7.521846e-001 -4.023701e-001 -4.400846e+000 137 85 66
9.460863e-001 -5.939684e-001 -5.699467e+000 124 121 112
2.399581e+000 -7.377328e-001 -5.982823e+000 75 79 77
2.399581e+000 -7.377328e-001 -5.982823e+000 75 79 77
2.669371e+000 -7.231241e-001 -5.889777e+000 94 93 98
2.637421e+000 -7.603696e-001 -5.830247e+000 47 46 51
2.916846e+000 -7.211117e-001 -5.611173e+000 53 51 56
3.004385e+000 -7.780998e-001 -5.572239e+000 46 44 49
3.092068e+000 -7.526182e-001 -5.639321e+000 95 94 99
-1.179600e+000 -4.459206e-001 -4.116046e+000 113 66 60
2.443248e+000 -8.550767e-001 -5.926763e+000 83 82 85
