ply
format ascii 1.0
element face 0
property list uchar int vertex_indices
element vertex 884
property float x
property float y
property float z
property uchar diffuse_red
property uchar diffuse_green
property uchar diffuse_blue
end_header
-7.819602e-001 5.611747e+000 -9.194595e+000 62 63 67
-1.744914e+000 1.964094e-001 -9.441662e+000 178 63 61
3.114298e+000 -9.229208e-002 -4.790012e+000 57 55 55
3.377127e+000 -4.651000e-002 -4.939827e+000 255 254 202
-5.660294e-001 -1.720745e+000 -4.915552e+000 98 47 26
-5.709980e-001 -1.729435e+000 -4.913464e+000 98 47 26
-2.838138e-001 -6.199057e-001 -6.737907e+000 81 71 61
-5.849391e-002 -1.507767e+000 -6.835029e+000 74 62 50
-4.947469e-001 -2.482550e-001 -6.555655e+000 220 221 211
-2.958591e-001 -3.143259e-001 -6.914055e+000 218 224 218
4.522637e-002 1.653923e+000 -7.995337e+000 237 239 227
-8.280071e-001 1.394267e+000 -8.697897e+000 248 247 241
4.533717e+000 2.648649e+000 -5.030484e+000 157 158 163
1.195710e+000 -1.630708e+000 -6.461650e+000 153 146 136
1.352683e-001 -2.065926e+000 -7.544417e+000 149 147 134
1.247143e-001 -2.069718e+000 -7.529381e+000 149 147 134
2.124296e-001 5.206360e+000 -8.953522e+000 19 14 18
-2.109860e-001 4.667127e+000 -9.170609e+000 21 16 20
-2.109860e-001 4.667127e+000 -9.170609e+000 21 16 20
-9.402301e-001 6.333442e+000 -1.005880e+001 44 39 45
-9.868100e-001 -2.405593e+000 -8.606870e+000 226 226 216
-1.439696e+000 -1.120606e+000 -3.989514e+000 73 23 14
-1.245737e+000 -3.125933e+000 -8.654775e+000 195 86 83
-4.864621e-001 1.975549e+000 -8.511951e+000 234 234 223
-6.302876e-001 -1.540268e+000 -7.785962e+000 184 187 174
-1.220369e+000 -2.788116e+000 -8.637834e+000 182 64 64
-1.518861e+000 -1.913899e+000 -8.837438e+000 111 92 86
2.475028e+000 -2.438239e+000 -6.390474e+000 83 90 96
-3.776999e-001 -1.810311e+000 -4.819388e+000 47 20 21
7.505565e-001 -1.309481e+000 -6.344882e+000 120 107 98
1.053474e+000 -4.319153e+000 -7.688157e+000 21 16 22
-2.212342e-001 -1.943595e+000 -7.680042e+000 105 98 87
3.267967e+000 5.089330e-002 -5.274203e+000 180 167 112
1.291085e+000 -1.164749e+000 -6.160605e+000 53 19 21
1.727862e+000 -4.401847e+000 -7.763045e+000 90 91 97
2.468458e-002 -4.387991e+000 -7.981221e+000 25 17 24
1.398793e+000 -2.104002e+000 -6.331439e+000 201 203 190
9.705949e-002 -7.364864e-001 -6.020375e+000 37 19 19
5.861452e-001 -3.350514e+000 -7.159369e+000 32 30 35
-4.853821e-001 -2.890128e+000 -8.017056e+000 222 220 211
2.721558e+000 -2.968493e+000 -5.615300e+000 43 44 49
2.304911e+000 -3.928572e+000 -6.198786e+000 63 62 68
2.282839e+000 -1.542242e+000 -6.007654e+000 60 50 50
1.982845e+000 -2.990057e+000 -6.404071e+000 57 58 63
1.979182e+000 -3.087453e+000 -6.372680e+000 47 50 55
1.936647e+000 -4.441547e+000 -6.506248e+000 45 43 48
1.967709e+000 -2.784992e+000 -6.402348e+000 119 122 129
1.896595e+000 -2.640838e+000 -6.499951e+000 59 59 64
1.896595e+000 -2.640838e+000 -6.499951e+000 59 59 64
1.855492e+000 -2.800176e+000 -6.515311e+000 111 115 118
1.834901e+000 -2.886302e+000 -6.549460e+000 89 92 95
1.759933e+000 -2.969467e+000 -6.586491e+000 44 45 49
1.752879e+000 -2.771683e+000 -6.636634e+000 94 98 101
1.765764e+000 -3.540076e+000 -6.649237e+000 32 30 35
1.644390e+000 -2.769818e+000 -6.723817e+000 45 49 52
1.651155e+000 -2.977274e+000 -6.725857e+000 91 92 96
1.563672e+000 -3.250799e+000 -6.829310e+000 35 35 39
1.586763e+000 -3.187750e+000 -6.889306e+000 36 37 41
1.099902e+000 -1.599148e+000 -6.601614e+000 118 112 99
1.215933e+000 -2.707310e+000 -7.116561e+000 54 53 56
1.151107e+000 -3.110170e+000 -7.169378e+000 29 28 33
8.631733e-001 -4.128141e+000 -7.903004e+000 54 52 57
8.631733e-001 -4.128141e+000 -7.903004e+000 54 52 57
5.637359e-001 -3.339851e+000 -7.785323e+000 44 42 45
5.637359e-001 -3.339851e+000 -7.785323e+000 44 42 45
3.284300e-001 -3.690472e+000 -8.096568e+000 104 103 108
2.509535e-001 -3.698664e+000 -8.077931e+000 41 39 44
1.894607e-001 -4.519611e+000 -8.066761e+000 46 43 50
1.253549e-001 -4.458137e+000 -8.123348e+000 49 42 50
-2.292384e-001 -4.663820e+000 -8.247947e+000 74 71 80
-1.119411e+000 4.653816e+000 -9.191561e+000 63 63 68
-4.002015e-001 -4.350185e+000 -8.417772e+000 81 78 85
-3.620412e-001 -4.457611e+000 -8.366230e+000 45 42 49
-3.762867e-001 -4.444204e+000 -8.402804e+000 94 91 98
-8.365708e-001 -2.439694e+000 -8.454948e+000 196 192 181
-6.824726e-001 -4.068695e+000 -8.665664e+000 39 34 40
-8.032572e-001 -4.255700e+000 -8.651721e+000 47 42 46
-1.054494e+000 -4.040311e+000 -8.912503e+000 73 68 74
2.868989e+000 -3.398979e+000 -5.411682e+000 131 135 140
2.811550e+000 -3.318961e+000 -5.541486e+000 151 154 161
2.595928e+000 -4.062261e+000 -5.661839e+000 40 39 45
2.619715e+000 -3.377316e+000 -5.782793e+000 42 42 50
2.438214e+000 -3.023301e+000 -6.135603e+000 43 42 48
2.176427e+000 -4.288405e+000 -6.223198e+000 31 29 34
2.142595e+000 -2.364304e+000 -6.198629e+000 69 74 80
1.946981e+000 -2.626638e+000 -6.436902e+000 51 55 58
1.961222e+000 -2.815780e+000 -6.447335e+000 50 53 58
1.957046e+000 -2.818494e+000 -6.444542e+000 50 53 58
1.937776e+000 -3.052092e+000 -6.466795e+000 40 42 47
1.817643e+000 -2.711938e+000 -6.540485e+000 50 51 56
1.526970e+000 -3.058167e+000 -6.845801e+000 36 37 41
9.769145e-001 -4.524208e+000 -7.475755e+000 38 35 42
-8.124936e-002 4.301070e+000 -9.094035e+000 37 36 40
-6.734558e-001 -2.019671e+000 -7.781506e+000 119 110 99
-9.761426e-001 -1.281427e+000 -8.227149e+000 238 241 235
-6.294127e-001 -4.222360e+000 -8.595584e+000 42 37 43
-6.294127e-001 -4.222360e+000 -8.595584e+000 42 37 43
-9.700247e-001 -3.536951e+000 -8.594556e+000 154 54 59
3.089660e+000 -2.531140e+000 -5.244176e+000 51 52 57
2.882273e+000 -3.480486e+000 -5.443260e+000 177 178 183
2.882273e+000 -3.480486e+000 -5.443260e+000 177 178 183
2.677129e+000 -3.936026e+000 -5.605890e+000 107 107 115
3.283074e+000 8.788236e-002 -5.092749e+000 159 148 100
2.652646e+000 -3.515667e+000 -5.718915e+000 41 41 49
2.632786e+000 -3.196251e+000 -5.803657e+000 41 40 46
2.550399e+000 -3.388358e+000 -5.896668e+000 40 40 48
2.364759e+000 -4.728725e+000 -5.997701e+000 82 79 88
2.193655e+000 -4.734082e+000 -6.208833e+000 33 30 37
2.177417e+000 -4.348771e+000 -6.308697e+000 29 26 35
1.373631e+000 -3.078334e+000 -7.018608e+000 36 36 41
-1.214887e-001 -4.677196e+000 -8.175093e+000 167 164 171
-2.758269e-001 -4.592389e+000 -8.282033e+000 141 138 147
-2.510816e-001 -4.698062e+000 -8.254010e+000 174 172 180
-8.397435e-001 2.398725e+000 -8.916646e+000 187 69 73
-4.383555e-001 -4.460158e+000 -8.398602e+000 45 42 49
-5.150827e-001 -4.311147e+000 -8.488794e+000 41 38 45
-1.168190e+000 -4.366538e+000 -8.911660e+000 38 33 40
-1.794538e+000 -1.484069e+000 -9.299034e+000 193 81 84
2.940945e+000 -3.279456e+000 -5.455151e+000 68 69 74
2.853283e+000 -3.040973e+000 -5.582682e+000 47 50 55
2.102815e+000 -4.427872e+000 -6.335099e+000 31 26 33
2.568739e+000 -1.503748e-002 -5.740261e+000 235 240 182
-7.208075e-001 -4.393502e-001 -6.216773e+000 106 75 59
-7.208075e-001 -4.393502e-001 -6.216773e+000 106 75 59
-2.813395e-002 4.691668e+000 -9.366895e+000 63 58 59
-5.111277e-001 6.661546e-001 -8.452007e+000 200 203 194
-2.564955e-001 -4.643574e+000 -8.254536e+000 43 40 49
-3.851617e-001 -4.696122e+000 -8.309696e+000 44 43 49
-3.928108e-001 -4.603993e+000 -8.438389e+000 47 44 51
-4.474833e-001 -4.701684e+000 -8.350108e+000 44 41 48
-1.522925e+000 -2.266860e+000 -9.232641e+000 179 73 75
-1.195340e+000 -4.421883e+000 -8.949376e+000 37 32 39
-2.163136e-001 -3.265630e+000 -7.472736e+000 208 203 191
-4.096857e-001 6.559173e+000 -8.835877e+000 86 86 96
-9.229067e-001 -1.486049e+000 -8.045371e+000 223 227 219
-1.458516e+000 -2.541609e+000 -9.221959e+000 179 69 72
-1.054867e+000 -8.419863e-001 -3.619177e+000 76 48 48
-1.570210e+000 -8.170301e-001 -3.588095e+000 64 46 40
-1.173031e-001 -1.548778e+000 -5.441026e+000 80 64 57
-1.138808e-001 -1.496450e+000 -5.474300e+000 52 37 34
-1.515822e+000 -7.457265e-001 -3.622544e+000 94 65 53
-1.500166e+000 -7.216282e-001 -3.627918e+000 94 65 53
-1.126073e+000 -4.353892e+000 -8.819142e+000 34 31 38
-4.127077e-001 -1.119395e+000 -4.353633e+000 188 132 92
-3.363463e-001 -1.419988e+000 -4.596558e+000 134 63 36
-5.081351e-002 -1.553725e+000 -5.453728e+000 49 35 27
-1.178633e-001 -1.615626e+000 -5.411383e+000 49 35 27
-1.625631e+000 -8.265490e-001 -3.640427e+000 106 69 49
-2.495928e-001 -4.502315e+000 -8.242263e+000 38 35 42
-3.683304e-001 -4.527913e+000 -8.273408e+000 44 41 50
-6.577783e-001 -4.430878e+000 -8.367865e+000 47 44 51
-7.126957e-001 -4.414752e+000 -8.487329e+000 40 37 44
-7.126957e-001 -4.414752e+000 -8.487329e+000 40 37 44
-6.591279e-001 -4.501540e+000 -8.424402e+000 40 37 44
-1.115479e+000 -4.381226e+000 -8.767558e+000 80 75 82
-1.115479e+000 -4.381226e+000 -8.767558e+000 80 75 82
-3.936103e-001 -6.860335e-001 -4.255249e+000 201 110 69
-3.936103e-001 -6.860335e-001 -4.255249e+000 201 110 69
-1.584084e+000 -7.948017e-001 -3.670895e+000 180 153 111
-3.691852e-001 -4.315625e+000 -8.396533e+000 39 34 40
-4.204716e-001 -4.563563e+000 -8.376554e+000 132 129 136
-5.542503e-001 -4.460954e+000 -8.431900e+000 41 38 45
-8.378057e-001 -4.346452e+000 -8.658925e+000 103 100 107
-1.483353e+000 -4.157704e+000 -8.999389e+000 39 35 41
-1.113423e+000 -1.133274e+000 -3.731548e+000 168 117 83
-5.043601e-001 -1.317685e+000 -4.436498e+000 178 107 69
-8.048927e-001 -9.171111e-001 -4.008975e+000 102 62 45
-5.273384e-001 -9.789115e-001 -4.321655e+000 120 52 30
-2.611450e-001 -1.184515e+000 -5.893088e+000 64 51 43
-7.429324e-001 -4.481099e+000 -8.533149e+000 49 46 53
-8.117827e-001 -4.404596e+000 -8.672813e+000 42 39 46
-9.522706e-001 -4.207203e+000 -8.740674e+000 38 33 39
-1.028647e+000 -4.333400e+000 -8.809995e+000 42 37 44
-1.513820e+000 -3.927271e+000 -9.043904e+000 36 31 38
-1.422235e+000 -4.084312e+000 -8.991074e+000 36 33 38
-1.422235e+000 -4.084312e+000 -8.991074e+000 36 33 38
-1.728282e+000 -3.798699e+000 -9.059143e+000 37 32 38
-1.511646e+000 -8.534320e-001 -3.649025e+000 37 10 10
-1.511646e+000 -8.534320e-001 -3.649025e+000 37 10 10
-5.604059e-001 -1.441833e+000 -4.483152e+000 84 26 12
-1.765789e+000 -8.555992e-001 -3.669273e+000 45 19 21
2.232637e-002 -2.589489e+000 -7.705306e+000 188 186 173
-1.657306e-001 -1.147460e+000 -4.525684e+000 218 185 139
-1.131935e+000 -8.954494e-001 -3.970450e+000 118 60 37
-4.986960e-002 -1.484527e+000 -5.417977e+000 44 23 18
-1.495714e+000 -7.885788e-001 -3.766837e+000 57 23 15
-1.028576e-001 -1.470778e+000 -4.971429e+000 55 20 17
-1.243564e+000 -5.852273e-001 -4.302115e+000 65 25 17
1.542921e+000 -2.724305e+000 -6.406362e+000 34 27 27
-6.175446e-001 -1.148828e+000 -4.327440e+000 107 41 17
-1.404030e+000 4.086197e+000 -9.799287e+000 50 49 54
1.947562e+000 -1.479957e+000 -6.127530e+000 147 60 62
1.407868e+000 -2.924715e+000 -6.939736e+000 39 43 46
1.337907e+000 -2.930741e+000 -7.011287e+000 37 36 41
1.266446e+000 -2.797994e+000 -7.058643e+000 34 33 38
-1.064036e+000 -4.044430e+000 -8.896857e+000 70 65 71
-1.248206e+000 -4.130334e+000 -8.951676e+000 72 65 72
2.441425e+000 -4.566121e+000 -5.956389e+000 73 70 77
1.335627e+000 -2.830811e+000 -7.022760e+000 39 40 44
5.090191e-001 -3.530415e+000 -7.911090e+000 45 43 48
-2.266800e-001 -4.841296e+000 -8.165552e+000 120 117 127
3.023811e+000 -3.151621e+000 -5.431585e+000 46 46 54
-5.052552e-001 6.813208e-001 -8.453307e+000 199 201 190
2.609333e+000 -4.408107e+000 -5.829704e+000 37 34 41
2.556181e+000 -4.306837e+000 -5.887415e+000 39 37 43
2.573488e+000 -4.495634e+000 -5.767852e+000 38 35 42
-1.203560e+000 -4.160640e+000 -8.938320e+000 41 32 40
-1.369307e+000 -2.524980e+000 -9.129234e+000 190 75 76
3.084826e+000 -3.310425e+000 -5.407287e+000 136 139 144
3.062857e+000 -3.415871e+000 -5.390844e+000 156 159 164
3.062857e+000 -3.415871e+000 -5.390844e+000 156 159 164
3.109978e+000 -3.366693e+000 -5.503150e+000 84 87 92
2.542793e+000 -4.467852e+000 -5.913644e+000 46 45 51
2.183868e+000 -5.066744e+000 -6.132600e+000 116 115 121
3.007221e+000 -3.197612e+000 -5.505084e+000 133 136 144
2.996686e+000 -3.052422e+000 -5.520559e+000 62 65 72
2.741061e+000 -3.742654e+000 -5.669754e+000 68 71 78
2.660873e+000 -3.750637e+000 -5.724426e+000 132 135 142
2.682463e+000 -4.039083e+000 -5.789104e+000 43 43 51
2.584278e+000 -3.938853e+000 -5.855466e+000 46 45 53
2.551588e+000 -4.104381e+000 -5.822256e+000 96 97 102
2.551588e+000 -4.104381e+000 -5.822256e+000 96 97 102
2.438777e+000 -4.644877e+000 -6.067091e+000 44 43 51
2.374752e+000 -4.633761e+000 -6.113219e+000 95 94 100
2.942890e+000 -3.103998e+000 -5.557670e+000 61 64 71
2.823608e+000 -3.210579e+000 -5.767674e+000 64 66 74
2.877988e+000 -3.259798e+000 -5.798203e+000 57 60 67
2.727606e+000 -3.485300e+000 -5.815932e+000 131 136 140
2.710324e+000 -3.397080e+000 -5.821836e+000 101 106 110
2.710324e+000 -3.397080e+000 -5.821836e+000 101 106 110
2.625665e+000 -3.474901e+000 -5.853459e+000 124 129 133
2.405559e+000 -4.148116e+000 -6.086923e+000 36 37 42
2.346981e+000 -4.300153e+000 -6.164294e+000 36 37 42
2.347875e+000 -4.345112e+000 -6.187445e+000 46 47 52
3.385734e+000 -1.768630e+000 -5.302121e+000 52 55 60
3.308578e+000 -1.859072e+000 -5.402041e+000 43 48 52
2.924614e+000 -2.745132e+000 -5.602685e+000 86 87 92
2.842992e+000 -3.082058e+000 -5.816721e+000 59 62 67
2.842992e+000 -3.082058e+000 -5.816721e+000 59 62 67
2.748424e+000 -2.984647e+000 -5.820827e+000 44 45 50
2.876670e+000 -3.125596e+000 -5.823785e+000 93 96 101
2.688405e+000 -3.255342e+000 -5.856048e+000 45 46 51
2.721156e+000 -3.243545e+000 -5.868633e+000 45 46 51
2.622355e+000 -3.280293e+000 -5.909042e+000 36 37 42
2.441306e+000 -3.664238e+000 -6.044873e+000 42 43 48
2.228544e+000 -4.058993e+000 -6.196554e+000 33 32 38
2.302188e+000 -4.094533e+000 -6.323717e+000 30 29 35
1.943947e+000 -4.885637e+000 -6.386035e+000 31 30 36
2.010412e+000 -4.976593e+000 -6.452457e+000 32 31 37
4.717402e+000 2.451833e+000 -4.237154e+000 56 57 62
4.717402e+000 2.451833e+000 -4.237154e+000 56 57 62
4.782339e+000 1.924631e+000 -4.583827e+000 56 57 62
2.790960e+000 -2.570524e+000 -5.733483e+000 53 53 61
2.640028e+000 -3.239298e+000 -6.041238e+000 73 74 79
2.175028e+000 -4.100510e+000 -6.293523e+000 32 31 37
2.128505e+000 -4.210813e+000 -6.340027e+000 34 33 39
2.042084e+000 -4.204230e+000 -6.458915e+000 23 20 27
2.412703e+000 -3.222838e+000 -6.285694e+000 45 43 48
2.713662e+000 -1.554047e+000 -5.944695e+000 48 51 56
2.713662e+000 -1.554047e+000 -5.944695e+000 48 51 56
2.424386e+000 -2.341454e+000 -6.020739e+000 52 55 60
2.415927e+000 -2.305754e+000 -6.072351e+000 127 132 138
2.317483e+000 -2.359923e+000 -6.073162e+000 65 70 76
2.289918e+000 -2.714468e+000 -6.136571e+000 42 45 50
2.122223e+000 -3.037488e+000 -6.334527e+000 41 42 47
2.160242e+000 -3.497974e+000 -6.525188e+000 61 61 63
2.099826e+000 -2.696039e+000 -6.303924e+000 167 172 178
2.114360e+000 -2.830226e+000 -6.283530e+000 54 59 65
1.913147e+000 -3.146264e+000 -6.542603e+000 68 71 76
1.906876e+000 -3.378402e+000 -6.493806e+000 31 34 39
1.854174e+000 -3.330410e+000 -6.468375e+000 42 45 50
1.935019e+000 -3.330033e+000 -6.539961e+000 81 84 89
1.879938e+000 -3.348972e+000 -6.555507e+000 40 43 48
1.785830e+000 -3.809563e+000 -6.733916e+000 26 23 30
1.448516e+000 -5.129252e+000 -7.218144e+000 104 102 103
1.378581e+000 -5.205140e+000 -7.332837e+000 25 20 26
1.931139e+000 -1.830051e+000 -5.995525e+000 93 81 82
1.885324e+000 -2.930471e+000 -6.516345e+000 106 110 115
1.586309e+000 -3.314938e+000 -6.856333e+000 27 27 31
1.302732e+000 -4.562609e+000 -7.258945e+000 69 72 79
1.105216e+000 -4.796661e+000 -7.296573e+000 40 38 44
1.381249e+000 -3.747153e+000 -7.325411e+000 35 33 38
1.233175e+000 -4.331995e+000 -7.355527e+000 45 46 51
1.115174e+000 -4.469876e+000 -7.419534e+000 130 133 140
1.115174e+000 -4.469876e+000 -7.419534e+000 130 133 140
1.087571e+000 -4.707496e+000 -7.384773e+000 31 30 38
-5.513066e-001 -1.527083e+000 -4.500316e+000 141 74 48
1.936980e+000 -8.943993e-001 -6.445957e+000 103 33 32
1.193086e+000 -2.963099e+000 -6.999102e+000 46 47 51
1.385107e+000 -9.686773e-001 -6.393801e+000 103 82 71
1.203477e+000 -2.806978e+000 -7.098685e+000 34 35 39
1.111397e+000 -3.205297e+000 -7.389405e+000 25 24 29
-1.404746e-001 -1.569813e+000 -5.428380e+000 80 64 57
1.087757e+000 -2.755785e+000 -7.207999e+000 53 55 59
7.804085e-001 -3.213162e+000 -7.526701e+000 38 36 41
8.151731e-001 -3.618952e+000 -7.725572e+000 36 34 39
6.484148e-001 -4.162655e+000 -7.926096e+000 34 32 37
6.753251e-001 -3.656992e+000 -7.887395e+000 44 42 47
2.033298e-001 -4.830291e+000 -7.969109e+000 107 104 111
2.033298e-001 -4.830291e+000 -7.969109e+000 107 104 111
-1.774846e+000 -5.514978e-001 -3.870290e+000 69 55 43
3.891341e-001 -2.435432e+000 -7.526615e+000 121 97 91
4.369541e-001 -3.422531e+000 -7.907507e+000 49 47 50
2.699361e-001 -3.953611e+000 -8.061236e+000 39 34 40
2.782872e-001 -4.178080e+000 -8.063621e+000 46 44 50
3.041896e-001 -4.067861e+000 -8.146948e+000 81 79 84
3.041896e-001 -4.067861e+000 -8.146948e+000 81 79 84
3.862843e-002 -4.698185e+000 -8.088742e+000 43 40 47
-3.895366e-002 -4.773196e+000 -8.049012e+000 52 52 59
2.319578e-001 -3.705048e+000 -8.058103e+000 44 36 41
-6.403570e-002 -4.496270e+000 -8.278723e+000 51 48 55
-1.304626e-001 -4.514058e+000 -8.202180e+000 51 48 55
-8.465549e-002 -4.646069e+000 -8.174152e+000 62 61 69
-8.465549e-002 -4.646069e+000 -8.174152e+000 62 61 69
-5.219542e-001 2.171192e-001 -6.235408e+000 215 215 207
-8.053378e-001 -5.589840e-001 -6.011566e+000 137 136 125
-4.590821e-001 -4.518501e-001 -6.509395e+000 116 112 100
-4.576765e-001 -4.529271e+000 -8.381527e+000 44 41 48
1.796726e-001 1.414749e+000 -6.933885e+000 213 211 198
1.814116e-001 1.394182e+000 -7.010649e+000 193 191 178
-2.761571e-001 -1.216327e+000 -7.346507e+000 197 199 190
-5.795973e-001 -4.534725e+000 -8.369101e+000 47 44 51
-4.344576e-001 -1.538122e+000 -7.646904e+000 171 166 153
-6.197603e-001 -4.409660e+000 -8.522349e+000 42 39 46
-6.744576e-001 -4.240243e+000 -8.638330e+000 55 49 56
-6.744576e-001 -4.240243e+000 -8.638330e+000 55 49 56
-7.685305e-001 -4.281623e+000 -8.608280e+000 39 34 41
-7.685305e-001 -4.281623e+000 -8.608280e+000 39 34 41
5.427528e-001 5.882475e+000 -8.008058e+000 90 91 97
-7.033831e-003 2.621410e+000 -7.944767e+000 220 216 206
-9.745918e-001 -4.100348e+000 -8.849760e+000 38 33 39
3.103509e+000 -3.285190e+000 -5.367765e+000 52 55 60
2.990197e+000 -3.467604e+000 -5.404854e+000 53 56 61
3.023822e+000 -3.376327e+000 -5.408256e+000 42 45 50
3.023822e+000 -3.376327e+000 -5.408256e+000 42 45 50
2.998095e+000 -3.557905e+000 -5.533646e+000 157 160 165
2.936787e+000 -3.618484e+000 -5.538130e+000 53 56 61
2.859590e+000 -3.754393e+000 -5.565324e+000 48 51 58
2.910225e+000 -3.781446e+000 -5.558529e+000 62 65 72
2.461408e+000 -4.564683e+000 -5.965269e+000 99 97 103
2.368056e+000 -4.911018e+000 -6.038411e+000 41 40 48
2.363070e+000 -4.898422e+000 -6.089846e+000 38 37 45
2.218639e+000 -4.915421e+000 -6.025768e+000 38 37 45
2.246480e+000 -5.037929e+000 -6.125164e+000 52 51 59
2.057963e+000 -5.264096e+000 -6.054200e+000 37 34 43
2.902888e+000 -3.172365e+000 -5.471209e+000 60 63 68
2.939333e+000 -3.155306e+000 -5.546387e+000 160 163 168
2.939333e+000 -3.155306e+000 -5.546387e+000 160 163 168
2.930074e+000 -3.463251e+000 -5.570729e+000 55 58 64
2.786419e+000 -3.455547e+000 -5.605785e+000 47 51 58
2.826229e+000 -3.382046e+000 -5.635970e+000 177 181 188
2.832496e+000 -3.667587e+000 -5.650399e+000 51 54 61
2.781626e+000 -3.780951e+000 -5.679211e+000 165 168 175
2.781626e+000 -3.780951e+000 -5.679211e+000 165 168 175
2.666516e+000 -3.796477e+000 -5.701170e+000 53 53 61
2.634960e+000 -3.764316e+000 -5.762050e+000 45 45 53
2.618202e+000 -3.768182e+000 -5.757515e+000 45 45 53
2.669858e+000 -4.012732e+000 -5.747520e+000 45 44 52
2.669858e+000 -4.012732e+000 -5.747520e+000 45 44 52
2.624129e+000 -3.955399e+000 -5.845194e+000 41 40 48
2.653681e+000 -4.091426e+000 -5.805842e+000 40 41 46
2.451701e+000 -4.185316e+000 -5.779541e+000 42 43 48
2.539944e+000 -4.232210e+000 -5.958830e+000 39 39 47
2.395919e+000 -4.178155e+000 -5.868166e+000 39 39 47
2.662625e+000 -4.118653e+000 -5.977278e+000 39 39 47
2.476345e+000 -4.185779e+000 -5.976453e+000 32 33 39
2.590485e+000 -4.345409e+000 -5.956854e+000 97 95 104
2.490658e+000 -4.291315e+000 -5.938081e+000 90 90 98
2.509552e+000 -4.472498e+000 -6.049337e+000 40 38 44
2.508293e+000 -4.572035e+000 -6.040757e+000 42 43 48
2.473926e+000 -4.486043e+000 -6.088242e+000 89 86 93
2.473926e+000 -4.486043e+000 -6.088242e+000 89 86 93
2.286702e+000 -4.780373e+000 -6.141902e+000 38 37 43
2.265293e+000 -4.784014e+000 -6.132342e+000 38 37 43
2.133811e+000 -4.891040e+000 -6.209075e+000 36 35 41
2.184863e+000 -5.014315e+000 -6.218881e+000 41 40 46
3.619606e+000 -1.486313e+000 -5.143332e+000 43 44 49
3.101201e+000 -2.848941e+000 -5.526123e+000 46 49 54
2.941871e+000 -2.762325e+000 -5.542653e+000 47 50 55
2.946411e+000 -2.851298e+000 -5.666911e+000 101 104 109
2.894895e+000 -3.201738e+000 -5.648094e+000 60 65 71
2.911037e+000 -3.102727e+000 -5.681661e+000 52 55 62
2.898901e+000 -3.106216e+000 -5.677065e+000 52 55 62
2.822893e+000 -3.318381e+000 -5.656827e+000 53 58 64
2.745871e+000 -3.384795e+000 -5.734367e+000 172 177 183
2.797239e+000 -3.556045e+000 -5.821326e+000 58 61 66
2.763462e+000 -3.425786e+000 -5.855818e+000 48 52 57
2.654300e+000 -3.517179e+000 -5.842216e+000 47 50 55
2.660457e+000 -3.645037e+000 -5.784066e+000 147 150 155
2.611125e+000 -3.784168e+000 -5.804594e+000 140 141 146
2.550100e+000 -3.748376e+000 -5.832812e+000 44 45 50
2.526884e+000 -3.803142e+000 -5.853819e+000 48 49 54
2.560442e+000 -3.628695e+000 -5.852238e+000 44 47 52
2.589413e+000 -3.688612e+000 -5.926328e+000 44 45 50
2.558258e+000 -4.003136e+000 -5.914523e+000 93 94 99
2.578389e+000 -3.802809e+000 -5.930013e+000 126 129 134
2.440080e+000 -3.999362e+000 -6.013253e+000 88 89 94
2.499274e+000 -4.232401e+000 -6.049739e+000 97 97 105
2.388911e+000 -4.347032e+000 -6.100501e+000 43 43 51
2.316033e+000 -4.340486e+000 -6.084268e+000 39 39 47
2.396196e+000 -4.277936e+000 -6.138113e+000 73 73 81
2.340111e+000 -4.633284e+000 -6.209750e+000 115 112 119
2.340111e+000 -4.633284e+000 -6.209750e+000 115 112 119
2.255085e+000 -4.542865e+000 -6.269939e+000 88 87 93
3.252480e+000 -2.197157e+000 -5.591225e+000 39 40 45
2.781660e+000 -2.872232e+000 -5.757746e+000 43 44 49
2.783008e+000 -2.906405e+000 -5.787631e+000 38 39 44
2.783008e+000 -2.906405e+000 -5.787631e+000 38 39 44
2.687781e+000 -3.348574e+000 -5.886478e+000 118 121 126
2.717395e+000 -3.339923e+000 -5.898533e+000 118 121 126
2.631223e+000 -3.417561e+000 -5.989034e+000 32 35 42
2.464111e+000 -3.853828e+000 -6.097339e+000 38 37 43
2.233650e+000 -4.514855e+000 -6.302081e+000 32 31 37
2.494518e+000 -3.165980e+000 -6.061470e+000 26 25 30
2.552292e+000 -3.266004e+000 -6.054407e+000 31 32 37
2.546436e+000 -3.270113e+000 -6.052586e+000 31 32 37
2.272728e+000 -3.922189e+000 -6.231842e+000 33 32 40
2.223515e+000 -3.917739e+000 -6.332052e+000 29 27 31
2.261928e+000 -3.907576e+000 -6.350772e+000 29 27 31
2.147733e+000 -3.960506e+000 -6.388982e+000 24 21 28
2.254389e+000 -3.628522e+000 -6.285885e+000 23 22 27
2.238962e+000 -3.634257e+000 -6.278341e+000 23 22 27
1.996665e+000 -4.472798e+000 -6.656459e+000 24 21 27
1.922294e+000 -4.488007e+000 -6.614312e+000 24 21 27
2.780752e+000 -1.644729e+000 -5.754868e+000 56 59 64
1.931844e+000 -3.433679e+000 -6.474065e+000 33 32 37
1.646650e+000 -4.949645e+000 -7.146091e+000 32 26 27
2.112279e+000 -2.797512e+000 -6.303937e+000 53 58 64
1.962444e+000 -3.436567e+000 -6.549650e+000 64 65 70
1.824720e+000 -3.624833e+000 -6.767722e+000 24 23 29
1.786787e+000 -4.081786e+000 -6.913437e+000 20 18 23
1.346722e+000 -5.181006e+000 -7.285332e+000 105 100 104
1.312652e+000 -5.180708e+000 -7.256355e+000 105 100 104
1.878772e+000 -3.028126e+000 -6.584917e+000 46 49 54
1.763932e+000 -3.488315e+000 -6.816367e+000 23 22 28
1.294038e+000 -4.659978e+000 -7.210066e+000 111 110 116
1.709255e+000 -2.941706e+000 -6.650180e+000 42 43 48
1.695942e+000 -2.852195e+000 -6.682605e+000 42 45 50
1.718062e+000 -2.822031e+000 -6.762913e+000 88 91 96
1.694043e+000 -3.117349e+000 -6.730591e+000 36 37 42
1.752529e+000 -2.872715e+000 -6.794742e+000 45 48 53
1.665988e+000 -1.211440e+000 -6.015517e+000 195 166 126
1.644971e+000 -2.893555e+000 -6.840919e+000 87 91 94
1.464617e+000 -2.953798e+000 -6.965354e+000 34 35 39
1.268473e+000 -4.292396e+000 -7.438326e+000 41 40 46
1.296586e+000 -2.861600e+000 -7.012584e+000 36 37 41
1.248532e+000 -3.103799e+000 -7.107644e+000 37 36 41
1.165919e+000 -4.205023e+000 -7.469530e+000 20 18 23
9.110881e-001 -4.552375e+000 -7.615924e+000 20 17 24
9.003968e-001 -4.718030e+000 -7.495720e+000 56 53 60
-9.692114e-002 -1.553007e+000 -5.298885e+000 49 28 22
1.213149e+000 -2.834754e+000 -7.165936e+000 32 33 37
1.051930e+000 -3.073647e+000 -7.222572e+000 28 27 32
-4.417805e-002 -1.420118e+000 -5.560740e+000 83 68 63
6.250736e-001 -3.853676e+000 -7.848422e+000 31 29 34
4.841159e-001 -3.858227e+000 -8.053091e+000 37 36 41
4.317316e-001 -4.244507e+000 -8.023127e+000 38 35 42
1.321205e-001 -4.679046e+000 -7.939054e+000 53 52 60
2.203643e-001 -4.797245e+000 -8.030541e+000 38 35 43
-1.813780e+000 -5.820665e-001 -3.782327e+000 131 111 78
2.870277e-001 -4.102849e+000 -8.048554e+000 40 38 43
2.721786e-001 -4.107757e+000 -8.033345e+000 40 38 43
-1.353942e-001 -4.283437e+000 -7.869519e+000 28 15 17
-6.706073e-002 -4.638524e+000 -8.145955e+000 143 142 149
-6.421562e-001 -7.798091e-001 -6.208023e+000 64 49 40
-2.196560e-001 -4.551196e+000 -8.290992e+000 51 48 55
6.996277e-001 2.573407e+000 -7.101378e+000 177 174 167
-4.175274e-001 -7.419789e-001 -6.656549e+000 114 102 91
9.424292e-001 3.520000e+000 -7.336177e+000 176 90 85
-3.113282e-001 -7.032742e-001 -7.613372e+000 185 185 178
-7.377963e-001 -4.179054e+000 -8.618894e+000 39 34 41
-7.498476e-001 -4.439811e+000 -8.640208e+000 47 45 50
-8.803003e-001 -4.315762e+000 -8.644553e+000 40 37 44
-9.679262e-001 -4.319534e+000 -8.681988e+000 44 39 46
-9.427043e-001 -1.624484e+000 -8.275046e+000 136 126 116
3.084970e+000 -3.154382e+000 -5.323268e+000 57 60 67
3.084970e+000 -3.154382e+000 -5.323268e+000 57 60 67
2.900273e+000 -3.705184e+000 -5.535987e+000 165 168 175
2.837026e+000 -3.814697e+000 -5.578915e+000 158 159 166
2.817172e+000 -3.788392e+000 -5.638392e+000 49 51 58
2.635194e+000 -4.488693e+000 -5.914586e+000 40 39 47
2.378896e+000 -4.757867e+000 -5.949182e+000 43 42 50
2.279974e+000 -4.881665e+000 -6.071144e+000 37 36 44
2.097969e+000 -5.400110e+000 -6.121248e+000 27 24 31
2.110692e+000 -5.335221e+000 -6.167191e+000 30 27 34
3.011191e+000 -3.255000e+000 -5.481714e+000 52 55 60
2.847922e+000 -3.711163e+000 -5.675117e+000 65 68 75
2.737051e+000 -3.891793e+000 -5.755606e+000 148 148 156
2.582554e+000 -3.965156e+000 -5.761706e+000 38 37 45
2.287405e+000 -4.692128e+000 -6.152180e+000 41 40 46
2.369501e+000 -4.816257e+000 -6.166233e+000 73 72 80
2.341690e+000 -4.856107e+000 -6.203301e+000 39 38 44
2.145135e+000 -5.188056e+000 -6.267847e+000 35 32 41
2.793889e+000 -3.061540e+000 -5.702898e+000 44 47 52
2.819485e+000 -3.051079e+000 -5.711814e+000 44 47 52
2.843316e+000 -3.276883e+000 -5.741478e+000 49 54 60
2.573147e+000 -3.843909e+000 -5.833797e+000 38 41 46
2.564039e+000 -3.688930e+000 -5.857919e+000 122 125 130
2.497719e+000 -3.719089e+000 -5.952379e+000 106 107 112
2.451928e+000 -4.178171e+000 -6.050287e+000 36 36 44
2.430466e+000 -4.466705e+000 -6.310981e+000 37 35 41
2.235573e+000 -4.586978e+000 -6.306943e+000 38 35 42
2.231577e+000 -4.801747e+000 -6.266780e+000 37 36 41
2.097269e+000 -4.871293e+000 -6.385643e+000 31 30 36
1.942162e+000 -5.190460e+000 -6.359282e+000 24 20 28
2.873755e+000 -2.781448e+000 -5.642440e+000 46 47 52
2.645861e+000 -3.519354e+000 -5.932404e+000 47 50 57
2.607894e+000 -3.573909e+000 -5.966879e+000 124 127 132
2.571542e+000 -3.584770e+000 -5.951936e+000 124 127 132
2.416287e+000 -3.689715e+000 -6.137586e+000 27 28 33
2.473943e+000 -3.808527e+000 -6.086792e+000 35 36 41
2.473943e+000 -3.808527e+000 -6.086792e+000 35 36 41
2.497149e+000 -3.716597e+000 -6.122113e+000 37 38 43
2.265977e+000 -4.359022e+000 -6.254733e+000 27 26 32
2.090441e+000 -4.708671e+000 -6.381045e+000 27 26 32
2.158420e+000 -4.752938e+000 -6.452495e+000 31 30 36
2.401264e+000 -3.398150e+000 -6.139187e+000 29 28 34
2.233092e+000 -4.172144e+000 -6.438688e+000 70 69 75
2.254928e+000 -4.100720e+000 -6.459533e+000 27 25 31
1.996964e+000 -4.253662e+000 -6.371829e+000 23 22 28
2.024418e+000 -4.474722e+000 -6.539320e+000 24 23 29
2.444326e+000 -3.092621e+000 -6.123786e+000 29 28 34
2.351108e+000 -3.332589e+000 -6.206489e+000 24 22 29
4.227343e+000 1.934311e+000 -4.905346e+000 81 81 86
1.637054e+000 -4.993380e+000 -7.167446e+000 100 94 95
1.651227e+000 -4.992073e+000 -7.177634e+000 100 94 95
1.963544e+000 -3.085623e+000 -6.397318e+000 48 53 57
2.112702e+000 -2.823711e+000 -6.437720e+000 61 66 70
1.910616e+000 -3.519233e+000 -6.674543e+000 26 27 32
1.523717e+000 -5.008987e+000 -7.262453e+000 21 16 22
1.916278e+000 -2.914422e+000 -6.593173e+000 42 45 50
1.780060e+000 -3.090967e+000 -6.668263e+000 36 37 42
1.762963e+000 -3.337643e+000 -6.790059e+000 29 28 33
1.331570e+000 -4.683535e+000 -7.169581e+000 36 35 41
1.310246e+000 -4.760271e+000 -7.245434e+000 33 30 37
1.258720e+000 -4.318082e+000 -7.281797e+000 42 41 47
1.478466e+000 -9.454630e-001 -5.790937e+000 222 220 164
1.465669e+000 -1.024291e+000 -5.938642e+000 199 164 119
9.328714e-001 -4.682641e+000 -7.477626e+000 33 31 39
3.821956e-002 -4.555970e-001 -4.298058e+000 185 115 81
1.176980e+000 -2.907201e+000 -7.190186e+000 33 34 38
1.120845e+000 -2.809767e+000 -7.199616e+000 38 37 42
1.069567e+000 -2.927005e+000 -7.260864e+000 28 28 32
1.118619e+000 -3.117853e+000 -7.371727e+000 25 24 29
-4.953731e-001 -1.799221e+000 -5.089604e+000 61 39 36
-3.951651e-002 -1.491826e+000 -5.709049e+000 57 41 30
7.033201e-001 -3.908841e+000 -7.851115e+000 32 30 35
2.777053e-001 -4.840495e+000 -7.861506e+000 34 31 38
2.562600e-002 -1.090409e+000 -6.142265e+000 42 24 15
5.646854e-001 -3.792116e+000 -7.921675e+000 33 32 37
-1.786379e+000 -6.389207e-001 -3.765038e+000 60 42 32
2.350369e-001 -3.647363e+000 -7.985177e+000 41 38 43
2.819803e-001 -3.812303e+000 -8.066346e+000 39 38 43
-1.142286e-001 -4.586422e+000 -8.167013e+000 42 41 49
-1.193040e-001 -4.676415e+000 -8.177636e+000 174 173 181
-2.160793e-001 -4.712822e+000 -8.135811e+000 45 44 52
-2.160793e-001 -4.712822e+000 -8.135811e+000 45 44 52
-1.691278e-001 -4.582495e+000 -8.255564e+000 46 44 50
-2.685588e-001 -4.701860e+000 -8.232974e+000 191 188 197
-2.883941e-001 -4.594827e+000 -8.266807e+000 158 157 163
-6.593121e-001 -3.282012e-001 -6.215994e+000 187 176 161
-6.542288e-001 -7.649838e-001 -6.263275e+000 181 175 163
-3.990301e-001 -4.572305e+000 -8.308661e+000 41 38 45
-4.571256e-001 -4.302459e+000 -8.381605e+000 43 38 45
-4.571256e-001 -4.302459e+000 -8.381605e+000 43 38 45
-5.392651e-001 -4.456543e+000 -8.451767e+000 41 38 45
-5.692408e-001 -4.437169e+000 -8.526218e+000 127 124 131
-5.692408e-001 -4.437169e+000 -8.526218e+000 127 124 131
-8.721261e-001 -3.974466e+000 -8.822412e+000 38 33 39
-9.796201e-001 -4.437433e+000 -8.695280e+000 36 34 40
-1.263267e+000 -3.264620e+000 -8.619754e+000 146 46 49
2.926225e+000 -3.398468e+000 -5.496903e+000 50 55 61
2.730900e+000 -3.867468e+000 -5.678863e+000 56 56 64
2.730900e+000 -3.867468e+000 -5.678863e+000 56 56 64
2.413196e+000 -4.771486e+000 -6.132086e+000 39 38 46
2.545379e+000 -3.772399e+000 -5.991577e+000 38 40 47
1.980553e+000 -4.809353e+000 -6.544578e+000 24 21 28
2.024259e+000 -4.483602e+000 -6.403205e+000 31 30 36
2.024259e+000 -4.483602e+000 -6.403205e+000 31 30 36
1.936245e+000 -1.583763e+000 -6.117846e+000 98 33 30
-9.262804e-001 -1.028540e+000 -4.031998e+000 72 31 18
7.049852e-002 -1.397220e+000 -6.713899e+000 80 64 51
-6.118347e-002 -3.861600e+000 -7.868154e+000 43 34 45
-1.126950e-001 -4.612098e+000 -8.174290e+000 58 56 62
4.922295e-001 2.164874e+000 -7.031576e+000 243 245 237
-6.654593e-001 -5.567678e-001 -6.268246e+000 111 102 91
-4.642816e-001 -8.061888e-001 -6.540047e+000 86 73 64
3.981537e-001 2.052387e+000 -7.162352e+000 170 168 154
5.092562e-002 2.500039e+000 -7.795911e+000 247 246 238
1.437957e-001 1.987326e+000 -7.860107e+000 216 218 205
1.091121e-001 2.903126e+000 -7.978117e+000 213 223 207
-9.403239e-001 -4.381239e+000 -8.631576e+000 45 40 47
4.588745e+000 4.215281e-001 -4.897471e+000 57 57 59
4.619026e+000 4.397717e-001 -4.906130e+000 57 57 59
1.193449e+000 -4.585392e+000 -7.337432e+000 73 73 81
1.183272e-001 -5.810346e-001 -4.401497e+000 210 169 130
1.411618e+000 -9.797076e-001 -5.857697e+000 115 99 78
-1.946901e-001 -1.600095e+000 -5.199527e+000 42 20 16
-2.818379e-002 -1.122351e+000 -6.022268e+000 87 69 63
-3.493217e-001 -2.697116e-001 -6.662148e+000 130 124 114
-4.447258e-001 -1.040327e+000 -7.569844e+000 232 234 229
-9.548778e-002 6.752341e-001 -7.792399e+000 234 235 228
-5.738217e-002 9.329073e-001 -7.983990e+000 206 208 197
-5.738217e-002 9.329073e-001 -7.983990e+000 206 208 197
-6.635463e-001 -7.242268e-001 -8.020592e+000 234 235 229
-6.779686e-001 1.909321e+000 -8.609050e+000 221 221 211
4.532226e+000 8.093950e-002 -5.230809e+000 51 50 55
1.375863e+000 -5.093105e+000 -7.282425e+000 16 11 15
-5.324951e-002 -1.478977e+000 -5.572988e+000 89 76 70
2.924224e-002 -3.273133e+000 -7.514885e+000 174 78 77
-7.182652e-001 -1.225484e+000 -5.943463e+000 47 27 26
1.276418e+000 4.316613e+000 -7.057785e+000 180 166 110
-7.030960e-001 -7.508854e-001 -6.155619e+000 62 37 30
-2.231093e-001 4.902436e-001 -7.189454e+000 227 230 221
-4.514375e-001 -1.779950e+000 -7.727227e+000 121 112 100
-4.514375e-001 -1.779950e+000 -7.727227e+000 121 112 100
-1.040605e+000 -2.750234e+000 -8.508485e+000 220 214 204
-1.247334e+000 -9.484465e-001 -9.066294e+000 225 222 214
-6.164429e-001 -1.052879e-001 -6.020051e+000 238 241 234
-6.269613e-001 -3.040651e+000 -8.184459e+000 193 189 177
3.642128e-003 2.963647e+000 -8.025860e+000 192 74 72
3.100601e-002 3.576061e+000 -8.439768e+000 194 77 78
-1.267853e+000 -1.053652e+000 -8.668316e+000 179 176 167
4.406729e+000 1.190208e+000 -4.757879e+000 58 59 63
-1.219158e+000 -1.094904e+000 -3.807838e+000 87 37 22
3.295517e-001 -1.219222e+000 -6.024979e+000 109 97 83
1.919578e-001 -4.238104e+000 -7.905993e+000 44 45 49
-8.954302e-003 4.000622e+000 -8.914697e+000 29 24 28
4.485126e+000 2.639555e+000 -4.675484e+000 55 57 60
4.485126e+000 2.639555e+000 -4.675484e+000 55 57 60
-4.441473e-001 -9.299495e-002 -5.912541e+000 51 31 28
-4.956507e-001 -5.097350e-001 -7.711229e+000 141 138 128
4.837256e-001 5.351098e+000 -8.043939e+000 41 40 46
3.001192e-001 5.901224e+000 -8.475152e+000 76 77 82
3.001192e-001 5.901224e+000 -8.475152e+000 76 77 82
1.611709e+000 -4.833178e+000 -7.418474e+000 26 24 29
9.514090e-002 -2.147624e+000 -7.451002e+000 148 143 129
-1.466320e+000 -1.034085e+000 -3.823127e+000 190 106 68
9.059564e-001 5.910078e+000 -7.446020e+000 117 120 125
9.059564e-001 5.910078e+000 -7.446020e+000 117 120 125
2.630468e+000 4.354586e-001 -5.034626e+000 28 26 27
1.416500e+000 -2.096792e+000 -6.353806e+000 202 204 193
5.232328e-001 -2.061311e+000 -7.061905e+000 47 21 24
-7.673704e-001 3.620354e-001 -6.645854e+000 224 224 214
-7.673704e-001 3.620354e-001 -6.645854e+000 224 224 214
4.703745e+000 1.847973e+000 -4.517307e+000 64 65 69
3.583793e+000 -1.220150e+000 -5.262492e+000 50 49 55
2.841077e+000 -3.180587e+000 -5.829217e+000 50 50 58
4.779110e+000 1.501135e+000 -4.791237e+000 47 48 53
2.207635e+000 -4.644670e+000 -6.365240e+000 41 38 45
2.340466e+000 -3.728716e+000 -6.200251e+000 72 71 77
2.542918e+000 -2.983684e+000 -6.182358e+000 43 42 47
3.900344e+000 2.001186e+000 -5.189835e+000 36 35 40
2.583420e+000 -6.532922e-001 -5.970689e+000 206 93 92
1.992220e+000 -3.159785e+000 -6.460285e+000 43 47 52
1.992220e+000 -3.159785e+000 -6.460285e+000 43 47 52
1.871807e+000 -3.309734e+000 -6.540741e+000 31 36 40
2.540692e+000 1.605668e-001 -5.627973e+000 60 50 47
1.996206e+000 -2.464297e+000 -6.463912e+000 35 35 43
1.842021e+000 -3.001879e+000 -6.550060e+000 39 42 47
1.696483e+000 -3.369019e+000 -6.814783e+000 48 47 53
1.578513e+000 -3.814689e+000 -6.960166e+000 31 30 35
1.099846e+000 -4.426637e+000 -7.466681e+000 80 79 87
1.066030e+000 -4.594661e+000 -7.408983e+000 47 47 55
1.089813e+000 -3.002727e+000 -7.194697e+000 34 35 39
9.300994e-001 -4.742128e+000 -7.537723e+000 25 23 28
-1.827202e+000 -6.018771e-001 -3.752938e+000 96 77 48
1.336970e-001 -4.493054e+000 -8.112088e+000 38 33 40
6.238580e-002 1.148502e+000 -6.911483e+000 219 218 208
1.199768e+000 5.922523e+000 -7.453284e+000 67 68 73
-4.168839e-001 -4.354455e+000 -8.395092e+000 82 79 88
-4.935725e-001 -4.261414e+000 -8.462395e+000 38 35 42
-4.935725e-001 -4.261414e+000 -8.462395e+000 38 35 42
-5.248626e-001 -4.491408e+000 -8.426649e+000 85 83 90
-1.031018e+000 -5.326183e-001 -8.735422e+000 216 214 203
-1.039015e+000 -4.059973e+000 -8.868333e+000 39 34 40
2.702181e+000 -3.935642e+000 -5.874726e+000 43 42 50
2.393007e+000 -4.767499e+000 -6.044215e+000 37 38 43
2.234825e+000 -5.097887e+000 -6.166929e+000 41 40 48
2.218832e+000 -5.121317e+000 -6.195835e+000 88 87 95
2.404619e+000 -4.490641e+000 -6.167044e+000 37 36 42
2.357163e+000 -4.444415e+000 -6.175073e+000 40 38 48
2.059533e+000 -5.159363e+000 -6.310856e+000 29 26 35
4.707000e+000 1.684306e+000 -4.664660e+000 49 50 54
2.383467e+000 -4.126439e+000 -6.180359e+000 40 39 45
2.383467e+000 -4.126439e+000 -6.180359e+000 40 39 45
2.304599e+000 -4.115602e+000 -6.258339e+000 26 25 30
2.072575e+000 -4.424013e+000 -6.493677e+000 28 26 32
4.041206e+000 2.415992e+000 -5.198404e+000 37 38 42
2.231754e+000 -2.724272e+000 -6.198666e+000 44 47 52
2.179109e+000 -1.303168e+000 -5.895944e+000 204 91 87
2.040532e+000 -2.868660e+000 -6.431692e+000 40 45 49
1.923819e+000 -3.058061e+000 -6.459495e+000 37 40 45
1.953008e+000 -3.129122e+000 -6.621520e+000 42 43 48
1.755801e+000 -3.562132e+000 -6.727711e+000 26 25 31
1.610974e+000 -3.189905e+000 -6.877213e+000 32 33 38
1.527440e+000 -3.139830e+000 -7.005244e+000 27 28 33
1.222731e+000 -4.875336e+000 -7.256425e+000 25 20 27
1.245059e+000 -3.106975e+000 -7.105370e+000 32 33 36
1.227210e+000 -4.594782e+000 -7.397303e+000 51 51 59
5.065673e-001 -3.742818e+000 -7.994686e+000 36 34 38
3.396779e-001 -4.136382e+000 -8.097006e+000 93 91 96
4.359554e-001 2.002184e+000 -7.189605e+000 206 205 191
4.359554e-001 2.002184e+000 -7.189605e+000 206 205 191
-7.290009e-002 -4.639929e+000 -8.139560e+000 136 137 142
-3.557354e-001 -4.679014e+000 -8.266335e+000 156 155 161
-4.601864e-001 -4.711418e+000 -8.280385e+000 55 52 59
-5.780237e-001 -4.205379e+000 -8.523058e+000 48 43 51
-8.237536e-001 -4.493124e+000 -8.606569e+000 38 35 44
-8.116161e-001 2.303436e+000 -8.768520e+000 180 60 62
-9.030396e-001 -4.023215e+000 -8.810565e+000 38 33 39
-1.053060e+000 -4.387076e+000 -8.812823e+000 38 33 40
-1.100384e+000 -3.761942e+000 -8.993097e+000 55 50 57
-1.098891e+000 -4.268906e+000 -8.830244e+000 41 36 42
2.378024e+000 -4.556350e+000 -6.052720e+000 32 31 37
2.378024e+000 -4.556350e+000 -6.052720e+000 32 31 37
3.051498e+000 -2.539726e+000 -5.498649e+000 41 44 51
2.863121e+000 -2.646975e+000 -5.979099e+000 34 33 39
1.277221e+000 -2.828917e+000 -7.082998e+000 41 42 46
2.625977e-001 -4.135436e+000 -8.099906e+000 37 35 40
-1.761810e-001 -4.291837e+000 -7.809072e+000 25 15 15
1.823593e-002 -4.668194e+000 -8.109272e+000 172 173 178
-6.276737e-001 -2.057840e+000 -8.174853e+000 216 217 206
-6.840982e-001 -4.548610e+000 -8.471549e+000 107 103 109
-5.626135e-001 -4.582473e+000 -8.435452e+000 116 113 119
-7.728508e-001 -3.130288e+000 -8.267889e+000 177 164 150
2.922618e+000 -3.015415e+000 -5.607757e+000 64 67 72
-7.156957e-001 -1.304249e+000 -4.485205e+000 59 19 12
-9.520893e-001 -4.206392e+000 -8.741381e+000 39 34 40
-8.433827e-002 1.230861e+000 -8.084379e+000 210 213 200
-6.924238e-001 -4.596519e+000 -8.502253e+000 48 43 50
-2.523939e-001 6.821759e-002 -6.849714e+000 226 229 218
-2.639593e-001 -2.095912e+000 -8.108055e+000 228 229 223
-1.778213e+000 -2.607669e-002 -9.377948e+000 187 66 61
2.901553e+000 -9.456635e-001 -5.966318e+000 50 45 53
5.117186e+000 3.327761e-001 -4.450214e+000 61 60 65
3.452087e+000 -2.299853e+000 -5.100062e+000 54 58 64
5.078192e+000 1.390043e+000 -4.135715e+000 104 107 112
5.003947e+000 1.817518e+000 -4.249985e+000 68 69 74
2.912844e+000 -2.749288e+000 -5.599914e+000 86 87 92
2.017252e+000 -4.438187e+000 -6.594344e+000 28 27 33
3.372574e+000 1.197910e-001 -4.951289e+000 140 132 93
1.673139e+000 -5.025688e+000 -7.192627e+000 33 28 27
1.677824e+000 -4.021032e+000 -6.867194e+000 20 17 24
1.497225e+000 -5.150965e+000 -7.198343e+000 77 76 74
2.597789e+000 -6.245965e-001 -5.782150e+000 137 128 90
1.823763e+000 -1.444058e+000 -6.098851e+000 113 50 31
-5.784266e-002 -1.828789e+000 -7.251186e+000 131 126 115
-4.391901e-001 -1.705780e+000 -7.885692e+000 184 186 177
9.851590e-001 5.925958e+000 -7.607891e+000 62 65 70
-9.138336e-001 -4.368655e+000 -8.733964e+000 43 36 44
3.442519e+000 -2.381764e+000 -5.124036e+000 45 48 53
3.329896e+000 -2.493758e+000 -5.145374e+000 49 52 58
3.329896e+000 -2.493758e+000 -5.145374e+000 49 52 58
3.244291e+000 -2.620307e+000 -5.244852e+000 115 118 125
3.143498e+000 -2.575197e+000 -5.348237e+000 46 47 52
2.943552e+000 -2.685134e+000 -5.528391e+000 44 47 52
3.408058e+000 6.702799e-002 -4.942013e+000 168 157 107
1.486539e+000 -5.172698e+000 -7.228307e+000 29 24 27
1.924817e+000 -1.119345e+000 -5.910286e+000 196 156 119
1.390799e+000 -1.953171e+000 -6.370441e+000 175 177 166
1.390799e+000 -1.953171e+000 -6.370441e+000 175 177 166
6.904538e-001 2.628556e+000 -7.128878e+000 226 222 211
3.849577e-002 9.229284e-001 -6.896265e+000 205 207 196
3.849577e-002 9.229284e-001 -6.896265e+000 205 207 196
-7.772913e-001 -3.732069e+000 -8.961801e+000 46 39 46
-1.018965e+000 -4.282797e+000 -8.699812e+000 44 39 46
-7.684409e-001 -9.262377e-001 -8.179458e+000 226 227 221
-1.899128e+000 -4.735439e-001 -3.789056e+000 177 158 115
1.019901e+000 2.835775e+000 -6.990556e+000 215 213 202
1.257090e+000 4.230324e+000 -7.152451e+000 107 100 67
-4.031868e-001 -1.600259e+000 -7.385520e+000 216 219 211
3.257710e+000 1.335595e+001 -7.910257e+000 91 72 65
-5.316077e-001 -2.085180e+000 -8.064734e+000 212 214 203
-1.160096e+000 -4.398154e+000 -8.778744e+000 36 33 40
2.593402e+000 -3.021947e+000 -6.039818e+000 30 29 34
9.094295e-001 3.034152e+000 -7.089919e+000 222 224 211
6.830753e+000 2.280575e+001 -1.087586e+001 108 84 80
3.278595e+000 -1.209471e-002 -5.408875e+000 192 182 119
-1.391859e-001 1.135268e+000 -8.014789e+000 211 215 201
-8.735094e-001 -2.582530e+000 -8.518779e+000 199 195 184
1.711909e-001 -2.211755e+000 -7.464266e+000 120 109 95
9.145099e-001 4.359511e+000 -7.436732e+000 148 137 84
-7.900330e-001 9.523629e-002 -8.550905e+000 210 210 198
-7.900330e-001 9.523629e-002 -8.550905e+000 210 210 198
1.786803e-001 -2.227527e+000 -7.704708e+000 160 157 142
-1.455146e+000 -2.823236e-001 -9.203524e+000 223 219 209
4.610399e+000 2.164884e+000 -4.463076e+000 93 96 103
-8.156154e-002 5.944737e+000 -8.613447e+000 38 36 39
1.178084e+000 5.070967e+000 -7.206219e+000 35 33 36
4.293858e+000 1.691721e+000 -4.938689e+000 48 46 51
1.705641e+000 -4.911590e+000 -7.119073e+000 31 25 29
-3.534371e-001 -1.643566e+000 -7.188130e+000 112 105 92
-1.721132e-001 -4.319565e+000 -7.961634e+000 34 12 14
-1.354349e-001 -3.872818e+000 -7.886338e+000 201 74 78
5.083164e+000 4.285006e-001 -3.741174e+000 78 83 89
5.153185e+000 4.439439e-001 -3.791800e+000 105 105 113
5.211355e+000 -2.827173e-002 -3.958748e+000 60 58 63
3.168588e+000 -2.556084e+000 -5.289390e+000 103 105 110
3.078470e+000 -2.845009e+000 -5.334659e+000 133 136 143
2.568547e+000 -3.492029e+000 -5.831062e+000 132 137 141
2.340919e+000 -4.162613e+000 -6.056706e+000 39 40 45
5.256702e+000 2.055500e+000 -3.698106e+000 95 95 103
2.204830e+000 -4.045960e+000 -6.279663e+000 36 37 42
2.152458e+000 -4.073677e+000 -6.316485e+000 42 41 47
1.679443e+000 -5.459423e+000 -6.902096e+000 58 56 61
2.459948e+000 -3.304565e+000 -6.060028e+000 69 68 74
4.851337e+000 2.126953e+000 -4.162750e+000 55 56 63
4.000050e+000 2.415339e+000 -4.886404e+000 118 121 128
2.015371e+000 -1.347461e+000 -6.008349e+000 203 154 120
1.769806e+000 -1.280272e+000 -5.939593e+000 199 158 109
-2.686658e-001 -4.342145e+000 -8.384986e+000 44 39 46
-3.678851e-001 -8.836771e-001 -7.733287e+000 221 224 217
1.012544e+000 6.130498e+000 -7.475802e+000 121 121 128
1.012544e+000 6.130498e+000 -7.475802e+000 121 121 128
9.805115e-001 5.542486e+000 -7.658248e+000 50 49 54
8.175548e-001 5.518861e+000 -7.702076e+000 52 51 56
7.145835e-001 5.784465e+000 -7.721828e+000 69 70 77
6.156394e-001 5.270925e+000 -8.149238e+000 40 39 44
5.321695e-001 5.890872e+000 -7.943353e+000 82 82 90
-1.222682e+000 -9.860163e-001 -8.494808e+000 209 206 197
-1.212329e+000 -6.286637e-001 -9.082986e+000 203 200 191
5.549233e+000 6.260938e-001 -3.294161e+000 58 58 65
5.333647e+000 3.325684e-001 -3.550035e+000 161 161 173
5.291025e+000 2.791271e-001 -3.601369e+000 68 71 78
5.324568e+000 -1.926686e-001 -3.847456e+000 115 115 121
4.668569e+000 -1.096255e+000 -4.235270e+000 28 27 31
5.153241e+000 1.505340e-001 -4.114089e+000 38 37 43
2.773158e+000 -3.398136e+000 -5.616947e+000 167 170 175
2.605917e+000 -3.785369e+000 -5.803349e+000 144 147 152
5.186195e+000 1.516924e+000 -3.856034e+000 123 128 134
4.896785e+000 3.848608e-001 -4.556145e+000 65 65 69
2.960722e+000 -2.495925e+000 -5.664330e+000 41 44 48
2.244647e+000 -3.927252e+000 -6.222042e+000 36 37 43
3.383575e+000 -1.406691e-001 -4.879712e+000 66 61 54
1.361876e+000 -5.356673e+000 -7.099766e+000 46 43 49
1.925316e+000 -3.059061e+000 -6.461006e+000 39 44 48
1.774399e+000 -2.892478e+000 -6.622699e+000 116 119 124
1.154899e+000 -2.703725e+000 -6.867098e+000 60 50 43
1.200827e+000 -2.705348e+000 -7.116688e+000 78 82 85
-1.175916e-001 6.463136e-001 -6.832996e+000 232 229 220
-9.863245e-002 6.699110e-001 -6.843474e+000 232 229 220
5.289036e+000 2.847689e-001 -3.842907e+000 32 30 35
3.252024e+000 -2.997484e+000 -5.164626e+000 56 59 66
2.280338e+000 -3.574883e+000 -6.203107e+000 28 27 33
1.988096e+000 -4.500525e+000 -6.743839e+000 22 19 26
1.826849e+000 -1.447772e+000 -6.086251e+000 112 45 26
4.737054e-001 -1.897391e+000 -7.259845e+000 50 21 23
2.811107e-001 -2.250244e+000 -7.289314e+000 115 96 88
1.439744e+000 3.728897e+000 -6.533348e+000 59 51 51
-2.360778e-001 -2.310901e+000 -7.866514e+000 225 224 214
-1.048537e+000 -3.376353e+000 -8.732051e+000 125 41 46
4.934572e+000 7.545519e-001 -4.117972e+000 73 76 83
1.745823e+000 -5.406679e+000 -6.907443e+000 24 20 26
1.322397e+000 -5.273811e+000 -7.253544e+000 47 42 46
-6.071697e-001 -1.551564e+000 -7.825026e+000 189 191 180
-6.568576e-001 -1.605181e+000 -7.775832e+000 189 191 180
-9.169255e-001 4.429653e-001 -8.759789e+000 193 190 183
-1.189726e+000 -4.853145e-001 -9.062642e+000 188 183 171
-1.293972e+000 -1.009341e+000 -3.790477e+000 116 48 27
8.740973e-001 2.976137e+000 -7.094525e+000 226 224 212
-2.496612e-001 1.643800e+000 -8.086545e+000 226 227 213
-8.594356e-001 1.218903e+000 -8.765229e+000 213 207 200
-1.365942e+000 -2.695039e+000 -9.053193e+000 159 55 56
-1.245132e+000 -4.372096e-001 -9.137625e+000 234 232 219
1.634282e+000 -5.442873e+000 -6.927724e+000 50 48 53
3.331881e+000 4.930542e-001 -5.199979e+000 161 149 98
2.216434e+000 -1.309525e+000 -5.851248e+000 204 84 83
1.459777e+000 -5.255454e+000 -7.210125e+000 20 14 24
3.070378e+000 -2.889558e-001 -5.495488e+000 252 247 181
1.821498e-001 -1.115936e+000 -6.079550e+000 29 15 15
1.280091e+000 3.930584e+000 -6.801074e+000 48 48 52
9.118868e-001 3.325682e+000 -7.150999e+000 46 21 23
5.812613e+000 1.609092e+000 -3.089428e+000 108 108 118
1.036272e+000 -4.334901e+000 -7.637465e+000 21 19 24
4.737032e+000 1.709706e+000 -4.383625e+000 47 46 51
3.085257e-002 2.683672e+000 -8.161827e+000 246 242 233
5.806257e+000 1.028761e+000 -3.767783e+000 104 107 113
1.966059e-002 -2.842209e+000 -7.501011e+000 184 181 169
-1.105833e+000 -4.562845e-002 -9.017946e+000 160 151 145
9.799295e-001 -4.771923e+000 -7.806605e+000 15 10 16
2.034576e+000 -4.419168e+000 -6.391112e+000 71 70 75
2.254108e+000 -3.989828e+000 -6.249816e+000 44 43 49
2.061741e+000 -4.220430e+000 -6.314209e+000 43 42 48
