ply
format ascii 1.0
element face 0
property list uchar int vertex_indices
element vertex 885
property float x
property float y
property float z
property uchar diffuse_red
property uchar diffuse_green
property uchar diffuse_blue
end_header
2.827328e-001 1.263044e+000 -6.898093e+000 211 212 197
2.749752e+000 1.786504e+000 -6.048845e+000 111 106 113
2.679870e+000 1.687143e+000 -6.111442e+000 134 132 137
2.679870e+000 1.687143e+000 -6.111442e+000 134 132 137
2.657447e+000 1.602365e+000 -6.071599e+000 157 156 162
2.656563e+000 1.463718e+000 -6.059581e+000 120 117 124
2.681371e+000 1.465199e+000 -6.020409e+000 54 51 58
2.745561e+000 1.567431e+000 -6.140713e+000 66 63 70
2.775623e+000 1.600083e+000 -6.001895e+000 59 58 64
2.899307e+000 1.633083e+000 -6.036154e+000 56 53 60
2.761396e+000 1.353483e+000 -5.999433e+000 49 47 52
1.438265e-001 6.163744e-001 -6.698767e+000 234 238 224
4.719627e-001 4.343744e-001 -6.563848e+000 203 213 203
6.352065e-001 5.883984e-001 -6.528920e+000 213 217 203
1.844500e+000 8.773927e-001 -6.150476e+000 224 224 214
1.889213e+000 8.429288e-001 -5.798117e+000 213 213 201
2.867423e+000 1.135590e+000 -6.005446e+000 82 77 83
-4.903851e-001 1.511033e-001 -5.100485e+000 156 96 68
1.434276e+000 6.014014e-001 -5.163172e+000 217 222 215
2.802578e+000 7.586194e-001 -5.891096e+000 75 74 78
3.029991e+000 8.262222e-001 -5.938188e+000 40 38 43
-6.617707e-001 -1.963544e-001 -4.991148e+000 220 119 66
-3.267562e-001 -1.792154e-002 -4.616801e+000 170 79 79
3.353908e-001 -2.893278e-002 -5.188258e+000 205 212 204
2.868578e+000 4.673025e-001 -5.869467e+000 66 65 70
-5.707167e-001 -2.485680e-001 -4.763372e+000 185 95 59
-4.852534e-001 -1.681344e-001 -4.548197e+000 174 144 114
-3.384583e-001 -8.479398e-002 -4.553615e+000 88 74 63
-3.384583e-001 -8.479398e-002 -4.553615e+000 88 74 63
2.779756e+000 2.302638e-001 -5.856442e+000 65 63 66
7.262680e-001 -2.951457e-001 -5.437959e+000 177 178 170
2.690003e+000 6.293047e-002 -5.787262e+000 133 118 87
-1.474816e+000 -5.369446e-001 -4.058494e+000 102 82 33
-6.456502e-001 -4.280421e-001 -4.517537e+000 175 93 54
1.188995e+000 -3.449120e-001 -5.675507e+000 162 162 151
-1.454945e+000 -5.822831e-001 -4.078471e+000 117 94 44
-1.447621e+000 -5.750797e-001 -4.059698e+000 117 94 44
-7.940394e-001 -5.007272e-001 -4.311576e+000 208 188 164
1.462553e+000 -6.688667e-001 -6.049814e+000 164 124 82
-1.486033e+000 -6.712020e-001 -3.992424e+000 148 127 77
-1.102230e+000 -7.043488e-001 -3.955933e+000 224 132 89
-9.884382e-001 -7.025389e-001 -3.969243e+000 183 97 62
1.666430e+000 -1.264842e+000 -6.178365e+000 210 172 129
2.584425e+000 -8.841607e-001 -5.892641e+000 65 60 64
2.713822e+000 -8.333963e-001 -5.955997e+000 59 54 58
3.055128e+000 -6.529326e-001 -5.562649e+000 32 27 31
3.055128e+000 -6.529326e-001 -5.562649e+000 32 27 31
-7.538948e-001 -9.428035e-001 -4.113420e+000 91 42 19
3.360750e-002 -1.139345e+000 -4.887254e+000 177 122 89
1.724977e+000 -1.404544e+000 -6.190132e+000 191 130 106
2.275542e+000 -1.406660e+000 -6.205213e+000 43 18 18
2.755255e+000 -1.077652e+000 -5.860534e+000 52 47 51
1.700439e+000 2.255938e+000 -6.205074e+000 203 197 184
2.649913e+000 1.647637e+000 -6.093673e+000 63 57 63
2.731681e+000 1.726138e+000 -6.056536e+000 160 156 162
2.850874e+000 1.699208e+000 -6.043567e+000 60 57 64
-3.955296e-001 8.791269e-001 -8.211334e+000 221 222 207
2.715126e+000 1.539457e+000 -5.984608e+000 158 155 162
2.715126e+000 1.539457e+000 -5.984608e+000 158 155 162
2.775686e+000 1.491540e+000 -6.039977e+000 56 53 60
2.651554e+000 1.361558e+000 -6.070351e+000 128 125 134
2.805599e+000 1.398098e+000 -6.080294e+000 52 49 55
2.791324e+000 1.395971e+000 -6.050490e+000 52 49 55
2.781280e+000 1.443337e+000 -6.013146e+000 115 112 120
2.770529e+000 1.441005e+000 -5.988659e+000 115 112 120
2.855508e+000 1.429856e+000 -6.051169e+000 52 49 56
2.719548e+000 1.369577e+000 -5.994798e+000 111 109 114
8.326431e-001 7.924542e-001 -6.561359e+000 237 239 225
1.374166e+000 8.762501e-001 -6.006291e+000 229 231 214
2.766052e+000 1.267727e+000 -6.053622e+000 108 107 113
2.701958e+000 1.246363e+000 -5.816556e+000 53 50 57
3.285807e-001 5.121084e-001 -6.329765e+000 213 216 205
2.860285e+000 1.028345e+000 -5.961328e+000 49 46 55
-2.242892e+000 -7.263659e-001 -1.047912e+001 24 19 21
-2.304451e+000 -7.857709e-001 -1.044912e+001 59 57 60
-6.312286e-001 -1.269761e-001 -4.965752e+000 210 113 62
-2.049054e-001 7.641548e-003 -4.766456e+000 185 184 172
4.860673e-001 -7.683421e-003 -5.346917e+000 194 204 195
-3.696384e-001 -1.128469e-001 -4.595422e+000 168 155 131
-2.232700e-001 -1.364784e-001 -4.582653e+000 182 137 104
-2.205102e-001 -1.322229e-001 -4.545108e+000 182 137 104
2.354875e-001 -1.371741e-001 -4.813100e+000 161 166 156
2.588287e+000 2.535134e-001 -5.885774e+000 50 48 53
2.930369e+000 2.835173e-001 -5.882224e+000 40 38 45
-8.038196e-001 -3.743226e-001 -4.675823e+000 196 111 66
-6.507008e-001 -3.966525e-001 -4.649240e+000 217 120 75
-9.068371e-001 -4.248230e-001 -4.235461e+000 85 42 24
5.767261e-001 -4.056865e-001 -5.454653e+000 122 116 104
-1.416269e+000 -5.663696e-001 -4.060345e+000 154 126 79
-1.347427e+000 -5.309185e-001 -4.022573e+000 119 67 57
-6.862622e-001 -5.072686e-001 -4.203002e+000 219 181 132
8.179572e-001 -8.465853e-001 -5.645703e+000 153 149 137
1.626443e+000 -7.968617e-001 -6.161187e+000 183 140 108
1.545487e+000 -7.957878e-001 -6.043298e+000 143 95 59
1.683024e+000 -8.373633e-001 -6.133729e+000 146 56 45
1.911903e+000 -7.986444e-001 -6.322953e+000 188 78 76
2.036840e+000 -7.550632e-001 -6.128838e+000 192 79 76
-1.515724e+000 -7.587625e-001 -3.898732e+000 142 121 67
-1.009316e+000 -7.601921e-001 -3.948663e+000 210 118 77
-9.566308e-001 -7.641878e-001 -3.953025e+000 192 104 64
-8.771529e-001 -9.066583e-001 -4.016856e+000 149 76 47
1.625799e+000 -1.121051e+000 -5.990913e+000 214 178 132
1.608012e+000 -1.257489e+000 -6.112302e+000 165 122 84
2.739592e+000 -9.121290e-001 -5.906792e+000 44 39 43
-9.156748e-001 -9.402896e-001 -3.915955e+000 92 39 25
3.103529e+000 -7.654380e-001 -5.522458e+000 63 58 62
-2.427812e-001 -1.374641e+000 -4.805487e+000 134 67 41
2.043051e+000 1.538041e+000 -5.791788e+000 136 61 57
2.516638e+000 1.589756e+000 -6.080128e+000 58 41 43
1.201355e+000 1.227773e+000 -6.550855e+000 234 233 213
2.747368e+000 1.602594e+000 -6.145764e+000 58 57 63
2.739290e+000 1.316520e+000 -6.071029e+000 55 50 57
2.832064e+000 1.461776e+000 -5.967513e+000 50 47 55
7.079152e-001 8.102792e-001 -6.515241e+000 232 235 222
3.128325e-001 4.576724e-001 -6.144057e+000 196 200 184
2.782190e+000 1.113732e+000 -5.940353e+000 54 53 59
2.993636e+000 1.059869e+000 -5.986986e+000 42 39 46
-3.526799e+000 -1.244758e+000 -1.104467e+001 54 52 57
1.730219e-001 1.316746e-001 -5.705801e+000 200 207 199
7.840837e-003 6.371392e-002 -5.677038e+000 202 208 204
4.982262e-001 1.390827e-001 -5.542633e+000 202 209 197
-4.099302e-001 -8.456368e-002 -4.677932e+000 116 49 49
-4.935485e-001 -1.933450e-001 -4.580928e+000 196 173 128
-3.073718e-001 -1.461611e-001 -4.504501e+000 202 184 142
-7.017273e-001 -4.172119e-001 -4.662514e+000 154 68 32
2.374791e+000 -9.329385e-002 -5.784995e+000 214 199 149
-1.577824e+000 -4.779960e-001 -4.072709e+000 141 119 71
-1.550663e+000 -5.443374e-001 -4.077702e+000 147 127 77
-8.808118e-001 -4.608072e-001 -4.255432e+000 119 93 70
-8.789392e-001 -3.994476e-001 -4.381286e+000 171 135 108
-5.630656e-001 -4.405763e-001 -4.674994e+000 214 169 122
-5.439616e-001 -4.517950e-001 -4.543335e+000 154 89 48
-3.482827e-002 -3.147773e-001 -4.657552e+000 216 171 128
1.616525e+000 -6.720852e-001 -6.108930e+000 182 148 107
-1.306187e+000 -6.455913e-001 -3.995100e+000 117 63 55
9.641595e-001 -7.114537e-001 -5.602124e+000 182 179 164
1.842531e+000 -8.640180e-001 -6.190031e+000 194 76 69
3.213556e+000 -6.338870e-001 -5.607956e+000 32 30 33
1.636551e+000 -1.402428e+000 -6.182491e+000 176 91 78
1.782392e+000 -1.431541e+000 -6.234973e+000 152 71 61
7.968714e-001 2.365916e+000 -7.076766e+000 238 238 226
2.542711e-002 1.076908e+000 -7.644871e+000 219 221 208
2.552464e+000 1.419989e+000 -5.951788e+000 61 60 64
2.701186e+000 1.431277e+000 -6.036574e+000 55 53 58
-1.401881e+000 2.115264e-002 -9.106935e+000 219 212 201
-6.190795e-001 4.159898e-001 -8.396463e+000 229 233 221
-1.763923e+000 -2.998200e-001 -9.502861e+000 179 61 57
3.556527e-001 5.676181e-001 -6.525678e+000 195 201 189
-1.296164e-001 1.887991e-001 -6.010663e+000 195 200 193
1.397277e+000 5.355915e-001 -5.655483e+000 193 196 189
-1.635568e+000 -4.901385e-001 -4.093227e+000 163 146 90
-1.707678e+000 -6.918658e-001 -3.951821e+000 36 23 23
-3.251798e-001 -5.683359e-001 -4.596181e+000 142 80 48
8.866234e-001 -6.790231e-001 -5.859489e+000 85 76 69
9.062078e-001 -6.637086e-001 -5.805984e+000 85 76 69
9.318325e-001 -7.388386e-001 -5.818673e+000 201 199 187
1.574191e+000 -5.795572e-001 -6.057662e+000 81 55 32
-1.012723e+000 -6.286713e-001 -4.008555e+000 112 42 21
2.267649e+000 -6.764042e-001 -5.961253e+000 105 77 47
-1.365052e+000 -8.077610e-001 -3.947629e+000 151 120 74
-6.802843e-001 -8.035164e-001 -4.189814e+000 125 58 33
1.551274e+000 -1.284067e+000 -6.134673e+000 219 191 141
-1.085546e-001 -3.938617e+000 -7.810656e+000 169 51 49
-1.123278e-001 -3.909945e+000 -7.764177e+000 169 51 49
-3.323879e-001 1.939323e+000 -8.392148e+000 216 210 199
1.117994e+000 1.981917e+000 -6.415635e+000 213 201 143
2.473222e+000 1.958097e+000 -5.749451e+000 175 67 68
-1.341670e+000 2.684555e-001 -9.094097e+000 217 217 202
2.200387e-001 7.503817e-001 -6.686122e+000 238 241 230
1.203824e+000 1.124085e+000 -6.270741e+000 129 117 85
2.668497e-001 -6.792377e-002 -5.048223e+000 157 163 156
-2.151411e-001 -2.629675e-001 -4.593544e+000 159 115 79
-8.837740e-001 -5.159919e-001 -4.219600e+000 123 67 42
2.664373e+000 -2.823572e-001 -5.733939e+000 150 133 80
-1.319551e+000 -7.581969e-001 -3.964092e+000 69 22 14
2.508268e+000 -6.710422e-001 -5.812530e+000 38 30 28
3.281511e+000 -7.010012e-001 -5.641518e+000 51 47 53
-9.125549e-001 -9.350198e-001 -3.983482e+000 86 33 23
1.836423e+000 -1.351339e+000 -6.097663e+000 197 159 115
-2.391355e-002 -3.773602e+000 -7.753869e+000 18 15 12
1.008253e+000 2.495753e+000 -6.107550e+000 134 120 83
1.313754e+000 1.693946e+000 -6.127621e+000 162 153 103
2.440390e-001 1.284920e+000 -7.013214e+000 180 179 167
2.216403e+000 -2.009142e-002 -5.971888e+000 195 82 81
-5.737386e-002 -7.004921e-001 -4.824930e+000 185 146 102
3.017298e+000 -1.805163e-001 -5.199086e+000 118 99 62
1.134425e+000 -1.198234e+000 -5.976326e+000 116 103 87
-1.657132e-001 -1.187629e+000 -4.823624e+000 60 19 19
-4.422381e-001 1.080577e-001 -5.279833e+000 102 59 47
-2.263962e-001 -9.117509e-002 -4.521501e+000 169 88 83
1.112764e+000 -6.822407e-003 -5.556995e+000 211 216 209
-9.811159e-001 -5.579295e-001 -4.099677e+000 125 57 36
-3.918371e-001 -9.905021e-001 -4.586211e+000 137 62 35
-8.172321e-001 -9.839413e-001 -3.945668e+000 36 24 30
3.095186e-002 -3.770388e+000 -7.946846e+000 23 12 15
-1.095227e-001 9.003495e-001 -6.752967e+000 235 237 226
-8.684472e-001 -8.362066e-001 -4.002932e+000 174 90 59
1.833294e-002 3.558464e-001 -6.133946e+000 174 176 165
1.807660e+000 -1.812960e+000 -6.175315e+000 35 28 34
1.231238e+000 1.726630e+000 -6.535481e+000 124 115 79
-4.543503e-001 -3.551999e-001 -4.618836e+000 229 187 135
2.326741e+000 -2.693279e-001 -5.842748e+000 108 87 57
-1.165796e+000 -5.104938e-001 -4.062748e+000 230 138 86
6.820650e-001 -6.073233e-001 -5.653910e+000 51 40 38
2.271015e+000 -6.138210e-001 -5.340142e+000 49 42 49
-7.834275e-001 -5.959723e-002 -5.072310e+000 223 221 209
-1.426670e+000 -3.684402e-001 -4.267005e+000 42 38 37
-1.082865e+000 -7.122184e-001 -3.874502e+000 222 122 63
-4.434969e-001 -8.498412e-001 -4.665138e+000 132 70 42
-4.434969e-001 -8.498412e-001 -4.665138e+000 132 70 42
-1.908534e-001 -1.381485e+000 -5.229466e+000 61 18 23
2.677156e+000 -2.559063e-001 -5.825383e+000 166 149 94
1.135906e+000 2.334475e+000 -6.210555e+000 112 103 70
1.135906e+000 2.334475e+000 -6.210555e+000 112 103 70
1.480282e+000 -2.063702e+000 -6.596314e+000 205 201 190
-1.140809e+000 -6.683896e-001 -4.087972e+000 184 87 42
2.086952e+000 8.534341e-001 -5.946781e+000 223 221 209
1.877678e+000 2.242432e+000 -6.162927e+000 229 226 214
-3.741802e-001 3.148573e+000 -8.948970e+000 72 71 76
2.892346e+000 1.683214e+000 -5.959352e+000 111 110 115
2.715054e+000 1.478342e+000 -6.014993e+000 128 127 133
2.655884e+000 1.284874e+000 -6.000715e+000 124 125 129
2.607898e+000 4.029957e-001 -5.962790e+000 67 69 71
4.905521e-001 -9.875389e-003 -5.240415e+000 191 197 187
4.751942e-001 -6.351416e-002 -5.242540e+000 182 187 180
3.317597e+000 -5.387179e-001 -5.502051e+000 102 102 106
3.148674e+000 -5.956777e-001 -5.579891e+000 55 52 56
2.882215e+000 -7.480644e-001 -5.737582e+000 71 69 74
2.882215e+000 -7.480644e-001 -5.737582e+000 71 69 74
3.033615e+000 -7.879033e-001 -5.578450e+000 42 40 45
3.033425e+000 -8.215985e-001 -5.609032e+000 55 54 59
1.722520e+000 -1.251934e+000 -6.059543e+000 181 145 100
2.083196e+000 -1.448344e+000 -6.052708e+000 129 44 50
-7.923584e-001 -9.105336e-001 -4.063651e+000 81 35 22
2.759359e+000 1.687897e+000 -6.023393e+000 56 57 61
2.855039e+000 1.768998e+000 -6.066060e+000 95 96 100
2.956657e+000 1.626300e+000 -5.924561e+000 143 143 150
2.915570e+000 1.612296e+000 -5.922800e+000 62 61 67
2.726154e+000 1.369838e+000 -6.008776e+000 146 147 152
2.867283e+000 1.280616e+000 -5.974029e+000 130 131 136
2.894479e+000 1.354068e+000 -5.924242e+000 50 51 56
2.934014e+000 1.326718e+000 -5.947578e+000 107 109 114
2.700595e+000 1.276546e+000 -6.011772e+000 70 71 75
2.972083e+000 7.563561e-001 -5.855901e+000 46 45 51
3.148723e+000 7.122445e-001 -5.827733e+000 45 44 50
2.554424e+000 3.916058e-001 -5.979859e+000 51 40 44
2.715695e+000 4.240655e-001 -5.919711e+000 55 55 63
2.773885e+000 3.657038e-001 -5.891482e+000 59 60 65
1.829593e+000 4.269336e-001 -5.960329e+000 229 232 225
1.644650e-001 1.968033e-001 -5.839259e+000 223 226 217
7.382451e-001 -2.045650e-001 -5.390668e+000 147 148 142
7.382451e-001 -2.045650e-001 -5.390668e+000 147 148 142
1.248718e+000 -2.515669e-001 -5.645256e+000 168 164 155
1.248233e+000 -2.642755e-001 -5.719918e+000 168 164 155
2.374063e+000 -7.205400e-001 -5.929230e+000 149 75 68
1.004139e-001 -5.573039e-001 -4.566168e+000 188 142 106
2.858537e+000 1.584481e+000 -6.010529e+000 62 61 66
2.892423e+000 1.586462e+000 -5.958980e+000 163 162 167
2.683708e+000 1.381137e+000 -6.024596e+000 65 66 71
2.862061e+000 1.336194e+000 -5.956423e+000 54 55 60
2.741484e+000 1.264019e+000 -6.002046e+000 147 152 155
2.783057e+000 -8.854455e-001 -5.784053e+000 41 40 45
1.879028e+000 -9.511777e-001 -6.141187e+000 123 39 33
-9.547593e-001 -4.857758e-001 -4.081048e+000 137 73 56
2.695873e+000 1.426996e+000 -6.022062e+000 60 59 65
1.044036e+000 -1.217653e-001 -5.591064e+000 154 155 149
2.327464e+000 -6.901474e-001 -5.957399e+000 100 59 41
-4.138539e-001 2.649771e+000 -8.424201e+000 67 61 66
1.113271e+000 1.979871e+000 -6.419567e+000 180 171 120
2.679039e+000 -4.856289e-001 -5.632028e+000 121 106 66
2.178086e+000 2.458018e+000 -5.835761e+000 234 233 225
-4.829947e-001 1.916765e+000 -8.383307e+000 195 79 78
-1.006310e+000 8.945668e-001 -8.972666e+000 209 210 197
2.270262e+000 -7.608707e-001 -5.801905e+000 190 78 77
2.594770e+000 2.107720e+000 -5.831614e+000 191 87 80
2.308935e+000 1.913052e+000 -5.655314e+000 190 77 78
-1.245561e-001 -2.004753e-001 -4.593169e+000 148 81 66
1.860885e+000 1.428822e+000 -5.850225e+000 234 234 226
-1.977974e-002 1.162185e+000 -7.764901e+000 216 217 204
1.408381e-001 6.171166e-001 -6.662743e+000 230 233 224
-1.334444e+000 -3.630624e-001 -4.156474e+000 83 48 46
-1.360581e+000 -6.022334e-001 -3.970985e+000 96 47 38
-1.457206e+000 -6.834196e-001 -4.000542e+000 105 86 41
-1.526536e+000 -7.681920e-001 -3.923221e+000 131 111 65
2.187910e+000 -1.746772e+000 -6.712696e+000 156 54 60
2.694843e+000 6.106718e-001 -5.972665e+000 56 54 60
2.560336e+000 4.368539e-001 -5.892042e+000 67 68 71
2.871529e+000 4.672233e-001 -5.876091e+000 71 70 75
-5.312880e-001 -3.742082e-002 -5.237678e+000 98 70 59
-3.330356e-002 -3.139970e-002 -4.753016e+000 180 187 172
-1.616359e+000 -4.550713e-001 -4.106176e+000 128 106 57
-9.050741e-001 -4.537729e-001 -4.208671e+000 107 67 51
-8.308693e-001 -4.491421e-001 -4.204295e+000 57 47 46
-1.462772e+000 -6.258896e-001 -4.007593e+000 164 143 99
-1.441968e+000 -6.258153e-001 -4.029539e+000 110 93 52
-1.422207e+000 -6.620147e-001 -4.004299e+000 106 88 42
-1.422207e+000 -6.620147e-001 -4.004299e+000 106 88 42
-1.249513e+000 -7.168190e-001 -3.917949e+000 114 60 52
1.076036e+000 -1.868544e+000 -7.267936e+000 101 83 65
-2.482587e-001 -1.550925e+000 -4.969491e+000 87 39 27
-8.667828e-001 2.023914e+000 -8.975644e+000 55 45 43
7.627624e-001 -5.275581e-002 -5.473958e+000 198 203 196
-1.559684e+000 -5.025551e-001 -4.082842e+000 125 104 61
-1.406689e+000 -6.244682e-001 -4.027161e+000 167 136 96
-1.842814e-001 -1.086348e+000 -4.835733e+000 77 39 20
2.947766e+000 1.536054e+000 -6.027604e+000 54 53 59
-5.091318e-001 1.204672e+000 -8.482710e+000 201 201 189
2.951372e+000 3.830044e-001 -5.868826e+000 66 64 69
-1.311008e+000 -8.982762e-001 -3.976982e+000 32 30 31
-6.509076e-001 -3.061848e-001 -4.852159e+000 207 124 79
2.958203e+000 1.715820e+000 -6.260409e+000 97 96 102
-1.143723e+000 3.420046e+000 -9.497936e+000 70 68 73
-3.250123e-001 3.342993e+000 -9.018722e+000 96 95 101
-4.706744e-001 3.155311e+000 -8.981950e+000 86 88 92
-4.754208e-001 2.981173e+000 -8.991758e+000 67 62 68
2.741297e+000 1.541027e+000 -5.950261e+000 57 56 62
2.586491e+000 4.286789e-001 -5.953648e+000 73 68 75
2.817459e-001 -1.085397e-001 -4.907546e+000 164 169 161
-1.971629e-001 -1.301626e-001 -4.579627e+000 155 73 61
2.473495e+000 -3.964943e-001 -5.755905e+000 172 156 105
-1.650672e+000 -4.223434e-001 -4.133911e+000 123 108 76
-1.349166e+000 -3.674895e-001 -4.190031e+000 93 54 58
-1.497893e+000 -6.726810e-001 -4.001480e+000 147 132 90
-1.480674e+000 -6.400654e-001 -4.058739e+000 167 149 101
2.573417e+000 -9.823333e-001 -5.862738e+000 88 85 90
-1.267916e+000 -7.411461e-001 -3.989061e+000 124 69 67
-1.343225e+000 -7.824924e-001 -3.970821e+000 92 51 38
2.610033e+000 -1.157530e+000 -5.758047e+000 44 39 43
1.840338e+000 -1.399851e+000 -6.099675e+000 180 127 106
2.646739e+000 -1.309949e+000 -5.730889e+000 37 32 38
1.609939e+000 -1.551066e+000 -6.487311e+000 165 90 89
-3.088341e-001 3.265571e+000 -8.952061e+000 66 65 71
2.995197e+000 1.041385e+000 -5.903872e+000 75 74 80
2.941434e+000 7.889881e-001 -5.942689e+000 49 49 54
2.941434e+000 7.889881e-001 -5.942689e+000 49 49 54
2.969911e+000 6.532357e-001 -5.848380e+000 48 47 52
3.048388e+000 5.547108e-001 -5.868877e+000 45 44 49
3.059194e+000 5.107376e-001 -5.819604e+000 63 62 67
1.809226e+000 4.322503e-001 -5.758987e+000 214 216 205
2.305908e-001 -1.445077e-001 -4.861804e+000 155 160 153
-1.289280e+000 -3.855192e-001 -4.180515e+000 102 51 42
-8.425372e-001 -5.168320e-001 -4.228455e+000 144 107 73
1.387165e+000 -7.634906e-001 -5.987755e+000 181 141 103
2.110360e+000 -7.556074e-001 -6.173635e+000 178 75 75
3.072570e+000 -8.225165e-001 -5.481325e+000 45 43 48
3.156225e+000 -7.202329e-001 -5.463601e+000 52 50 57
1.612633e+000 -1.169294e+000 -6.077604e+000 170 129 85
-1.396607e+000 -8.531529e-001 -4.009473e+000 59 45 32
1.982055e+000 -1.392276e+000 -6.162866e+000 171 60 59
2.557756e+000 -1.265631e+000 -5.735443e+000 38 33 39
2.611485e+000 -1.218265e+000 -5.676059e+000 40 35 41
-3.410735e-001 -1.183030e+000 -4.738823e+000 92 35 22
1.291704e+000 -1.731417e+000 -6.682444e+000 166 157 143
1.329652e+000 2.846462e+000 -6.527890e+000 196 167 121
3.046057e+000 1.251005e+000 -5.942943e+000 46 45 51
3.673193e-001 1.361285e+000 -6.811983e+000 225 230 220
5.572927e-001 4.513703e-001 -6.362377e+000 236 242 232
2.768134e+000 5.102400e-001 -5.924242e+000 54 51 59
2.786139e+000 5.143098e-001 -5.964646e+000 54 51 59
3.049335e+000 4.709714e-001 -5.720642e+000 44 41 41
3.923515e-001 -9.856598e-002 -5.130868e+000 185 190 184
1.151471e+000 -3.922265e-001 -5.684256e+000 156 157 149
1.323212e+000 -8.341864e-001 -6.035523e+000 207 173 143
-1.022143e+000 -8.006939e-001 -3.995889e+000 169 86 44
-6.564724e-002 2.948157e+000 -8.347589e+000 178 67 62
2.672028e+000 1.516170e+000 -6.057286e+000 64 63 71
-9.931622e-001 -9.295267e-001 -3.955439e+000 90 39 34
1.468709e+000 1.524582e+000 -6.246178e+000 253 254 212
-9.427167e-001 -1.000086e+000 -3.952823e+000 155 87 47
-9.427167e-001 -1.000086e+000 -3.952823e+000 155 87 47
2.545913e+000 -1.953806e-001 -5.673305e+000 237 226 169
1.395122e-001 2.752086e+000 -8.006571e+000 179 65 61
-1.005821e+000 3.397348e+000 -9.466249e+000 62 61 66
2.129730e+000 1.643937e+000 -5.770693e+000 112 49 52
-4.233489e-001 -7.807507e-001 -4.313936e+000 74 31 26
-4.233489e-001 -7.807507e-001 -4.313936e+000 74 31 26
6.621220e-001 2.628683e+000 -7.411616e+000 226 223 212
-8.511447e-001 2.256967e+000 -8.765293e+000 51 49 54
8.162043e-001 2.524346e+000 -6.478104e+000 229 223 211
-8.442179e-001 4.095263e+000 -9.117119e+000 76 75 81
-8.049771e-001 4.085837e+000 -9.156373e+000 53 54 59
-8.049771e-001 4.085837e+000 -9.156373e+000 53 54 59
-7.970672e-001 3.905100e+000 -9.081078e+000 62 61 66
-5.360031e-001 3.877076e+000 -9.159315e+000 56 55 61
-1.757607e-001 3.667011e+000 -9.194397e+000 81 80 86
-2.535060e-001 3.309223e+000 -9.063072e+000 94 92 98
-4.184776e-001 3.140737e+000 -9.086185e+000 91 90 95
2.983329e+000 1.682651e+000 -5.890061e+000 63 63 69
3.131538e+000 1.611978e+000 -5.848595e+000 59 58 64
2.860693e+000 1.516745e+000 -5.966060e+000 146 145 150
3.218537e+000 1.409142e+000 -5.893073e+000 81 80 85
3.268378e+000 1.414289e+000 -5.800751e+000 52 49 56
3.354651e+000 1.421637e+000 -5.790279e+000 82 81 86
3.687502e+000 1.341458e+000 -5.731330e+000 41 39 44
3.943637e+000 1.271676e+000 -5.676387e+000 48 44 51
2.718499e+000 1.480893e+000 -6.027195e+000 128 127 133
3.168737e+000 1.372657e+000 -5.958670e+000 46 45 51
3.159369e+000 1.325988e+000 -5.875429e+000 59 57 64
3.144195e+000 1.234424e+000 -5.882834e+000 77 76 82
3.217666e+000 1.237121e+000 -5.839938e+000 76 75 81
3.217666e+000 1.237121e+000 -5.839938e+000 76 75 81
3.428644e+000 1.313437e+000 -5.733867e+000 39 37 40
3.486652e+000 1.323072e+000 -5.721572e+000 67 64 71
3.638520e+000 1.282640e+000 -5.654330e+000 62 60 65
3.638520e+000 1.282640e+000 -5.654330e+000 62 60 65
3.971288e+000 1.216931e+000 -5.596762e+000 48 43 49
2.835259e+000 9.421699e-001 -5.915230e+000 61 62 66
2.860347e+000 9.379988e-001 -5.898451e+000 90 90 98
3.010737e+000 1.051015e+000 -5.941845e+000 80 79 85
3.405576e+000 8.983965e-001 -5.774337e+000 55 54 59
1.660456e+000 9.896767e-001 -5.953011e+000 212 218 208
2.963054e+000 8.400729e-001 -5.873578e+000 73 74 79
2.894725e+000 7.538063e-001 -5.829566e+000 61 62 67
3.258432e+000 7.395011e-001 -5.817070e+000 63 62 68
3.258432e+000 7.395011e-001 -5.817070e+000 63 62 68
3.410603e+000 6.654153e-001 -5.772214e+000 53 52 57
3.547853e+000 7.316292e-001 -5.750200e+000 47 44 51
2.687452e+000 6.115571e-001 -5.977150e+000 65 65 69
2.725971e+000 5.982531e-001 -5.991646e+000 56 57 59
3.022674e+000 6.814492e-001 -5.806780e+000 49 50 54
2.953429e+000 6.141306e-001 -5.922869e+000 49 50 54
3.028660e+000 6.092721e-001 -5.815602e+000 63 63 67
3.109158e+000 6.451507e-001 -5.799113e+000 60 58 63
3.109158e+000 6.451507e-001 -5.799113e+000 60 58 63
2.703173e+000 4.907977e-001 -5.929087e+000 55 58 63
2.788575e+000 5.246581e-001 -5.857142e+000 100 104 107
2.962668e+000 5.010647e-001 -5.841689e+000 79 78 83
2.840589e+000 3.559610e-001 -5.876813e+000 52 55 57
2.957452e+000 4.019116e-001 -5.806044e+000 66 65 70
3.035831e+000 4.295785e-001 -5.809264e+000 72 71 79
3.035831e+000 4.295785e-001 -5.809264e+000 72 71 79
3.047319e+000 4.146083e-001 -5.761359e+000 45 43 54
2.568543e+000 3.504118e-001 -5.982393e+000 66 64 70
2.632632e+000 2.232916e-001 -6.026081e+000 57 55 62
2.726187e+000 2.975527e-001 -5.879035e+000 52 53 57
2.739572e+000 2.694649e-001 -5.941079e+000 103 104 108
2.569096e+000 8.657795e-002 -6.017100e+000 76 69 76
-3.089711e+000 5.652612e-001 -1.064734e+001 57 56 61
-5.438296e-001 1.110221e-001 -5.248279e+000 132 70 46
-5.473869e-001 4.558911e-002 -5.051413e+000 172 87 57
6.173878e-001 -6.218950e-002 -5.382978e+000 214 220 213
6.267707e-001 -1.054052e-001 -5.362289e+000 169 175 168
6.761985e-001 -1.285974e-001 -5.383040e+000 180 184 177
-5.450676e-001 -2.704682e-002 -5.204624e+000 80 42 28
3.102930e+000 -5.520541e-001 -5.596020e+000 46 44 47
3.417832e+000 -4.570880e-001 -5.422003e+000 43 40 47
-9.957137e-001 -2.282450e-001 -4.300546e+000 106 71 70
2.670696e+000 -6.876621e-001 -5.901360e+000 63 60 64
2.842372e+000 -6.737063e-001 -5.806833e+000 50 42 53
3.237927e+000 -6.262434e-001 -5.527632e+000 60 61 65
3.143272e+000 -7.401217e-001 -5.541414e+000 55 54 60
3.201273e+000 -6.953512e-001 -5.495750e+000 99 98 106
-8.641508e-001 -3.676895e-001 -4.462627e+000 137 85 66
9.456178e-001 -6.003125e-001 -5.733331e+000 124 121 112
2.446038e+000 -7.637997e-001 -5.988518e+000 75 79 77
2.460757e+000 -7.670528e-001 -6.030164e+000 75 79 77
2.718510e+000 -7.485283e-001 -5.876092e+000 94 93 98
2.696139e+000 -7.884585e-001 -5.842914e+000 47 46 51
2.993170e+000 -7.486807e-001 -5.622868e+000 53 51 56
3.084458e+000 -8.085313e-001 -5.583774e+000 46 44 49
3.171318e+000 -7.828138e-001 -5.647844e+000 95 94 99
-1.324661e+000 -4.059381e-001 -4.147914e+000 113 66 60
2.491817e+000 -8.858007e-001 -5.933033e+000 83 82 85
2.691285e+000 -9.713493e-001 -5.874434e+000 45 44 49
2.667471e+000 -1.004603e+000 -5.840762e+000 43 42 47
2.719601e+000 -1.048256e+000 -5.789282e+000 62 60 65
3.039437e+000 -9.391409e-001 -5.487101e+000 29 27 32
2.951267e+000 -1.054376e+000 -5.560231e+000 31 29 34
-1.632668e+000 -4.986096e-001 -4.081780e+000 171 157 111
2.681029e+000 -1.215744e+000 -5.754609e+000 53 51 56
-1.057610e+000 -6.158576e-001 -4.060353e+000 139 70 47
-4.003758e-001 -1.081473e+000 -4.568391e+000 118 58 47
4.487486e-002 -1.176170e+000 -4.815785e+000 170 70 62
1.386518e+000 2.850077e+000 -6.571488e+000 175 90 79
-9.050082e-001 4.152677e+000 -9.376685e+000 56 55 62
-8.269354e-001 4.042182e+000 -9.209874e+000 89 88 94
-6.069266e-001 3.943858e+000 -9.254452e+000 47 46 52
-9.019051e-001 3.353147e+000 -9.315431e+000 73 72 77
2.796712e+000 1.762969e+000 -6.068538e+000 53 52 57
2.970944e+000 1.635148e+000 -5.955110e+000 143 143 150
3.144723e+000 1.683610e+000 -5.898879e+000 54 49 56
3.297995e+000 1.574173e+000 -5.848071e+000 52 53 58
3.063212e+000 1.584230e+000 -5.889389e+000 147 146 152
3.141534e+000 1.579970e+000 -5.885293e+000 143 142 148
3.156421e+000 1.547061e+000 -5.822250e+000 57 55 60
3.213479e+000 1.463972e+000 -5.809037e+000 58 57 63
3.243342e+000 1.389511e+000 -5.782367e+000 45 41 48
3.243342e+000 1.389511e+000 -5.782367e+000 45 41 48
2.777670e+000 1.445412e+000 -6.008397e+000 160 161 165
2.725325e+000 1.366529e+000 -6.007147e+000 146 147 152
2.813497e+000 1.418527e+000 -5.958978e+000 60 63 68
2.887165e+000 1.424275e+000 -5.921983e+000 57 56 62
2.926865e+000 1.321006e+000 -5.932194e+000 107 109 114
3.008917e+000 1.413529e+000 -5.893948e+000 115 116 121
3.027570e+000 1.296957e+000 -5.846826e+000 48 47 53
3.327415e+000 1.212382e+000 -5.771523e+000 58 56 61
3.567090e+000 1.327567e+000 -5.802172e+000 37 35 40
3.583243e+000 1.262428e+000 -5.631147e+000 36 34 39
3.669560e+000 1.251775e+000 -5.659183e+000 32 30 35
4.400239e-001 1.895240e+000 -7.394536e+000 213 214 202
2.909846e+000 1.194323e+000 -5.928064e+000 105 106 111
2.863856e+000 1.094117e+000 -5.898704e+000 56 57 62
2.863856e+000 1.094117e+000 -5.898704e+000 56 57 62
3.035599e+000 1.166638e+000 -5.892755e+000 84 83 88
3.000298e+000 1.132481e+000 -5.909486e+000 49 50 54
3.157052e+000 1.193657e+000 -5.890343e+000 44 43 48
3.220253e+000 1.145858e+000 -5.890881e+000 42 41 46
3.192256e+000 1.132374e+000 -5.830986e+000 42 41 46
3.232436e+000 1.127552e+000 -5.811792e+000 64 62 67
3.313242e+000 1.079572e+000 -5.805969e+000 63 62 67
3.525694e+000 8.292306e-001 -5.762628e+000 37 35 40
3.146243e+000 7.127767e-001 -5.825360e+000 45 44 50
3.443755e+000 7.324190e-001 -5.773005e+000 35 34 39
3.443755e+000 7.324190e-001 -5.773005e+000 35 34 39
2.963419e+000 5.538159e-001 -5.847089e+000 49 50 54
3.161029e+000 6.320545e-001 -5.832015e+000 41 39 44
3.161029e+000 6.320545e-001 -5.832015e+000 41 39 44
2.826637e+000 4.846272e-001 -5.950239e+000 99 103 106
2.688993e+000 4.161829e-001 -5.848510e+000 55 55 63
2.753159e+000 4.012957e-001 -5.928487e+000 106 107 111
2.773729e+000 3.622153e-001 -5.899140e+000 59 60 65
3.111418e+000 4.164276e-001 -5.746364e+000 61 58 54
2.967669e+000 2.983702e-001 -5.789340e+000 62 57 49
2.853454e+000 2.282385e-001 -5.915753e+000 50 49 49
3.148530e+000 -9.849812e-002 -4.973912e+000 133 120 82
3.533553e-001 -1.231882e-001 -4.997424e+000 116 116 108
4.470646e-001 -1.790004e-001 -5.116399e+000 125 123 116
5.326413e-001 -2.089935e-001 -5.256015e+000 141 140 132
3.172689e+000 -5.257066e-001 -5.430244e+000 37 35 40
3.319188e+000 -5.299461e-001 -5.575827e+000 47 46 51
2.720865e+000 -7.030578e-001 -5.864822e+000 43 41 49
2.812695e+000 -6.652583e-001 -5.851551e+000 101 96 102
2.946423e+000 -6.348634e-001 -5.931420e+000 45 43 46
2.930063e+000 -6.042483e-001 -5.769121e+000 85 83 86
3.063409e+000 -6.569175e-001 -5.572943e+000 32 30 35
-8.301841e-001 -3.890496e-001 -4.479172e+000 109 51 31
-6.226899e-001 -3.991919e-001 -4.590441e+000 213 119 75
1.127227e-001 -4.204442e-001 -4.645534e+000 210 179 143
1.127227e-001 -4.204442e-001 -4.645534e+000 210 179 143
2.524874e+000 -8.629085e-001 -5.947075e+000 49 47 48
2.680598e+000 -7.356390e-001 -5.879403e+000 47 46 51
2.927063e+000 -7.379378e-001 -5.558071e+000 34 33 38
4.574211e-001 -5.946008e-001 -4.688691e+000 80 67 59
1.818677e+000 -8.543638e-001 -6.103060e+000 188 75 72
2.667159e+000 -9.307011e-001 -5.853412e+000 93 92 97
2.747371e+000 -1.059718e+000 -5.768377e+000 43 41 46
2.888572e+000 -1.052922e+000 -5.622742e+000 76 74 79
2.701422e+000 -1.199342e+000 -5.719521e+000 39 37 42
-1.030792e+000 -6.641629e-001 -4.020631e+000 149 74 55
-7.996965e-001 -7.189504e-001 -4.108926e+000 125 68 61
-7.521019e-001 -7.249928e-001 -4.173426e+000 53 30 28
-6.893113e-001 -7.454477e-001 -4.182130e+000 139 91 56
3.820940e-001 -9.274714e-001 -4.953856e+000 85 76 65
-1.651173e+000 -6.881206e-001 -3.957869e+000 205 184 126
-1.622151e+000 -6.822352e-001 -3.981647e+000 171 148 95
-1.089787e+000 -7.300516e-001 -3.943456e+000 204 113 68
-9.979354e-001 -8.600867e-001 -3.943152e+000 160 77 32
-1.009436e+000 -8.925867e-001 -3.993858e+000 156 86 56
-9.260873e-001 -9.129269e-001 -3.921297e+000 106 59 51
1.494344e-001 -1.201704e+000 -4.996001e+000 164 129 123
-2.721314e-001 -1.597700e+000 -5.025055e+000 219 202 192
6.508670e-002 3.821733e+000 -8.944018e+000 92 81 90
4.066448e-001 3.381114e+000 -7.723814e+000 174 64 70
8.932562e-001 2.981589e+000 -7.046459e+000 171 81 80
1.732067e+000 2.621036e+000 -6.321255e+000 194 187 174
2.858175e+000 1.833467e+000 -6.095979e+000 52 51 56
3.051813e+000 1.633260e+000 -5.950769e+000 62 63 68
2.758046e+000 1.491226e+000 -6.006766e+000 56 58 61
3.011298e+000 1.516777e+000 -5.913537e+000 143 142 148
3.125036e+000 1.473761e+000 -5.878321e+000 113 114 119
3.407666e+000 1.447452e+000 -5.802341e+000 50 49 55
3.460876e+000 1.368444e+000 -5.730081e+000 47 45 51
3.814549e+000 1.288123e+000 -5.572621e+000 34 29 36
3.944469e+000 1.251379e+000 -5.604775e+000 93 89 96
3.944469e+000 1.251379e+000 -5.604775e+000 93 89 96
2.357019e+000 1.472780e+000 -5.867372e+000 168 66 77
2.765482e+000 1.253140e+000 -5.911417e+000 57 58 63
2.899712e+000 1.242638e+000 -5.996251e+000 52 53 58
3.235727e+000 1.187245e+000 -5.836118e+000 38 37 42
3.376839e+000 1.181898e+000 -5.848789e+000 35 33 38
3.389869e+000 1.075141e+000 -5.747531e+000 35 33 38
2.930205e+000 1.085157e+000 -5.979310e+000 94 92 95
2.903102e+000 9.389527e-001 -5.874117e+000 51 50 56
3.188845e+000 9.274867e-001 -5.805670e+000 40 39 44
3.254952e+000 8.412711e-001 -5.801072e+000 39 38 44
3.569761e+000 9.193301e-001 -5.835605e+000 33 31 36
1.209218e+000 1.040550e+000 -6.221321e+000 195 192 143
1.722656e+000 9.730243e-001 -5.881918e+000 230 236 226
2.940906e+000 8.604543e-001 -5.917179e+000 53 54 59
2.796051e+000 6.970435e-001 -5.868929e+000 58 57 62
2.992555e+000 4.526740e-001 -5.808690e+000 45 44 43
2.625374e+000 3.508910e-001 -6.016270e+000 52 51 57
6.119935e-001 3.183598e-001 -6.069024e+000 221 225 219
2.656713e+000 1.536390e-001 -5.957496e+000 53 57 54
3.219147e+000 -6.300513e-002 -5.022737e+000 236 223 169
3.219264e+000 -6.318298e-002 -5.022769e+000 236 223 169
2.288147e+000 -1.421567e-001 -5.982809e+000 89 68 48
3.172953e+000 -5.970535e-001 -5.521593e+000 36 35 40
3.317514e+000 -6.619054e-001 -5.500073e+000 26 24 29
2.623814e+000 -7.431607e-001 -5.940362e+000 98 98 101
2.619882e+000 -7.804708e-001 -5.828449e+000 45 44 49
2.628924e+000 -7.824760e-001 -5.853552e+000 45 44 49
2.769231e+000 -1.192560e+000 -5.677123e+000 40 38 43
1.491259e+000 2.900362e+000 -6.664840e+000 200 75 79
1.300827e-001 3.841129e+000 -8.815419e+000 29 28 24
2.924122e+000 1.530719e+000 -5.973547e+000 57 56 62
3.078824e+000 1.424789e+000 -5.892273e+000 49 49 55
3.184888e+000 1.453069e+000 -5.863660e+000 50 51 55
2.838706e+000 1.460899e+000 -5.976213e+000 54 56 61
3.091349e+000 1.280539e+000 -5.823029e+000 40 42 47
3.346232e+000 1.370410e+000 -5.827297e+000 39 38 42
3.026850e+000 1.236066e+000 -5.912719e+000 48 49 53
3.325602e+000 1.006967e+000 -5.750766e+000 36 34 39
3.321017e+000 1.004577e+000 -5.740009e+000 36 34 39
3.474484e+000 1.162242e+000 -5.836633e+000 29 27 32
2.844947e+000 2.442414e-001 -5.694293e+000 51 49 53
-6.047188e-001 -3.998908e-002 -5.141747e+000 121 48 26
-1.350105e+000 -6.588928e-001 -3.993180e+000 66 21 17
5.483169e-001 3.387646e-001 -6.112366e+000 177 179 164
5.483169e-001 3.387646e-001 -6.112366e+000 177 179 164
-6.977459e-001 -4.015931e-001 -4.486623e+000 183 107 72
1.341382e+000 -8.446297e-001 -6.023960e+000 216 188 142
-2.199845e-001 -8.191139e-001 -4.668833e+000 137 95 64
-2.449190e-001 -8.810185e-001 -4.578056e+000 178 102 66
1.880030e+000 -1.715452e+000 -6.188795e+000 38 27 30
-6.285054e-003 4.046042e+000 -9.040554e+000 61 56 60
4.365029e-002 2.978594e+000 -8.149018e+000 191 75 69
2.985120e-001 1.461454e+000 -6.976140e+000 235 238 227
3.091839e+000 3.274368e-001 -5.637553e+000 122 112 76
-7.136349e-001 -3.451394e-001 -4.676503e+000 207 122 69
-4.125214e-001 -7.029277e-001 -4.604537e+000 100 59 39
-9.101656e-002 -2.961973e+000 -7.525399e+000 207 202 193
3.324867e+000 2.557758e-001 -5.426413e+000 47 45 50
-1.246273e+000 -9.768154e-001 -4.160535e+000 158 86 49
8.085960e-001 3.250828e+000 -7.284146e+000 195 89 94
8.220159e-001 3.287657e+000 -7.366647e+000 195 89 94
6.219294e-001 1.526565e-001 -5.633690e+000 221 225 216
-7.424812e-001 -4.550417e-001 -4.445850e+000 211 181 131
5.853440e-001 3.276711e+000 -7.460119e+000 204 91 90
2.913062e+000 4.420389e-001 -5.188314e+000 42 41 48
1.478738e-001 -1.378274e+000 -5.305516e+000 79 46 37
-8.220769e-001 4.027487e+000 -9.267335e+000 67 66 72
-8.011974e-001 4.047994e+000 -9.335614e+000 67 66 72
1.561492e+000 -9.616182e-001 -6.119737e+000 224 190 145
2.627671e+000 -8.764844e-001 -5.814394e+000 88 87 93
5.477546e-001 2.069794e-002 -5.373913e+000 200 206 196
1.065188e+000 -8.868495e-001 -5.799828e+000 197 199 192
1.202212e+000 2.328658e+000 -6.450479e+000 97 91 62
1.200639e+000 2.310810e+000 -6.409579e+000 97 91 62
-1.367813e+000 -3.330193e-001 -4.100306e+000 33 27 29
2.305901e+000 1.649569e+000 -5.660160e+000 90 39 44
2.653976e+000 3.604217e-001 -6.078556e+000 52 51 59
-1.177022e+000 -6.763125e-001 -4.163947e+000 191 103 66
-1.177022e+000 -6.763125e-001 -4.163947e+000 191 103 66
-1.324041e+000 6.054942e-001 -5.295269e+000 35 29 31
2.411538e-001 1.467366e+000 -7.021187e+000 221 224 215
2.411538e-001 1.467366e+000 -7.021187e+000 221 224 215
2.647647e+000 9.392856e-001 -5.519976e+000 64 65 67
2.985503e+000 9.407117e-001 -5.898003e+000 70 69 75
3.146893e+000 7.827930e-001 -5.821789e+000 61 60 65
3.175748e+000 6.976890e-001 -5.817629e+000 64 63 69
2.841321e+000 -1.145150e+000 -5.623102e+000 79 77 82
3.048303e+000 9.360405e-001 -5.877103e+000 48 47 53
3.048303e+000 9.360405e-001 -5.877103e+000 48 47 53
2.933583e+000 6.844545e-001 -5.829032e+000 76 75 80
2.949928e+000 6.254656e-001 -5.809342e+000 47 48 52
2.663082e+000 -8.508914e-001 -5.897378e+000 48 47 53
2.613178e+000 -1.259651e+000 -5.777174e+000 52 50 53
-4.036730e-001 -1.155394e+000 -4.624015e+000 153 83 53
3.121103e+000 3.529269e-001 -5.413265e+000 138 125 79
-2.760848e-001 2.232056e+000 -8.167162e+000 224 214 210
2.859212e+000 1.615189e+000 -5.952795e+000 68 69 74
3.290499e+000 1.507081e+000 -5.785760e+000 60 59 65
3.233370e+000 1.476286e+000 -5.769323e+000 117 116 122
3.233370e+000 1.476286e+000 -5.769323e+000 117 116 122
3.193040e+000 1.393944e+000 -5.843495e+000 91 90 96
3.421197e+000 1.053399e+000 -5.737519e+000 58 56 61
3.500177e+000 9.368241e-001 -5.780164e+000 58 56 61
3.500177e+000 9.368241e-001 -5.780164e+000 58 56 61
3.390756e+000 8.553288e-001 -5.804948e+000 60 59 62
3.390756e+000 8.553288e-001 -5.804948e+000 60 59 62
2.834654e+000 6.353951e-001 -5.878779e+000 103 105 110
2.775161e+000 5.168760e-001 -5.826203e+000 105 109 112
1.248459e+000 -2.262072e-001 -5.718899e+000 142 138 130
2.589903e+000 -5.124578e-001 -5.631346e+000 143 126 82
3.084829e+000 -6.717661e-001 -5.561431e+000 51 49 53
2.732981e+000 -7.496801e-001 -5.816093e+000 54 54 56
2.873361e+000 -7.195093e-001 -5.759378e+000 43 41 46
7.224603e-001 -4.857373e-001 -5.608060e+000 83 74 67
2.483028e+000 -7.896641e-001 -5.999115e+000 55 55 55
2.583770e+000 -7.848668e-001 -5.933873e+000 51 50 55
2.583821e+000 -8.576246e-001 -5.946293e+000 56 55 60
2.896947e+000 -8.941689e-001 -5.538779e+000 38 38 40
2.584887e+000 -1.107178e+000 -5.875270e+000 45 43 48
2.678072e+000 -1.072855e+000 -5.783131e+000 43 41 46
1.477264e+000 -1.191295e+000 -6.153867e+000 167 133 105
-9.490339e-001 -1.100623e+000 -4.064148e+000 87 44 24
-2.151654e-001 -1.430735e+000 -4.786556e+000 97 40 27
2.917936e+000 -2.342230e+000 -5.419582e+000 28 22 26
3.062223e+000 1.583170e+000 -5.886999e+000 141 140 146
2.931515e+000 1.455273e+000 -5.909413e+000 129 128 134
3.093210e+000 1.363891e+000 -5.874343e+000 95 94 100
3.093210e+000 1.363891e+000 -5.874343e+000 95 94 100
6.277053e-001 2.116108e+000 -6.952942e+000 198 198 188
6.277053e-001 2.116108e+000 -6.952942e+000 198 198 188
3.015310e+000 1.297352e+000 -5.930089e+000 94 93 98
3.015310e+000 1.297352e+000 -5.930089e+000 94 93 98
3.215077e+000 1.115741e+000 -5.778157e+000 68 66 71
3.331939e+000 9.062370e-001 -5.846253e+000 39 37 42
3.551925e+000 9.851802e-001 -5.710363e+000 34 32 37
2.816157e+000 7.491334e-001 -5.809226e+000 59 60 65
2.859562e+000 4.552688e-001 -5.854073e+000 99 98 103
2.627329e+000 2.960890e-001 -5.980840e+000 107 108 112
3.231605e+000 -1.036552e-001 -5.043957e+000 61 54 45
6.959327e-001 -1.786096e-001 -5.390638e+000 167 166 161
2.553044e+000 -4.399249e-001 -5.702583e+000 178 164 104
3.235293e+000 -5.875769e-001 -5.493561e+000 52 53 57
3.154214e+000 -7.029223e-001 -5.518079e+000 91 89 93
5.707992e-001 -3.309113e-001 -5.398646e+000 106 97 88
2.788160e+000 -7.133645e-001 -5.804787e+000 50 49 54
2.472061e+000 -8.341867e-001 -5.935522e+000 48 47 54
2.574854e+000 -8.251756e-001 -5.959553e+000 101 100 105
2.923982e+000 -9.614765e-001 -5.643572e+000 46 43 46
2.561825e+000 -9.927016e-001 -5.969605e+000 43 41 46
2.890992e+000 -1.053947e+000 -5.625271e+000 87 86 91
1.296542e+000 -1.928065e+000 -6.259977e+000 190 181 172
2.973832e+000 -2.052696e+000 -5.334309e+000 27 22 28
-1.321256e+000 -2.933040e+000 -9.613871e+000 86 43 40
3.844418e+000 1.305032e+000 -5.625408e+000 34 29 34
8.017689e-001 2.370026e+000 -7.095299e+000 238 239 232
2.852217e+000 1.387728e+000 -5.937489e+000 147 146 152
3.238357e+000 1.387354e+000 -5.814366e+000 43 42 48
2.732811e+000 5.480175e-001 -5.945913e+000 139 140 144
2.620143e+000 3.484384e-001 -6.004282e+000 62 63 66
2.394215e+000 9.684750e-002 -5.819963e+000 187 86 90
3.127530e+000 -8.447294e-001 -5.481035e+000 28 26 32
2.933308e+000 1.411037e+000 -5.971366e+000 52 51 57
3.759155e+000 1.220058e+000 -5.589095e+000 29 26 33
2.324348e+000 -8.876774e-001 -5.944428e+000 191 78 77
1.920241e+000 -1.247773e+000 -6.002927e+000 210 143 128
-7.576571e-001 -9.562828e-001 -4.179869e+000 67 26 16
-1.410130e+000 -2.733865e+000 -9.616667e+000 60 38 39
2.786117e+000 1.019498e+000 -5.794728e+000 54 53 58
2.581785e+000 5.455139e-002 -5.864706e+000 70 65 73
2.023221e+000 -1.708846e-001 -6.164424e+000 60 31 33
-4.690839e-001 -4.769978e-001 -4.529133e+000 170 108 76
6.520812e-001 -2.739620e+000 -7.228076e+000 21 15 15
-7.026357e-003 4.119916e+000 -9.176890e+000 58 56 59
-5.389648e-001 2.473769e+000 -8.438800e+000 188 67 66
8.199791e-001 -7.781396e-001 -5.781130e+000 134 131 126
2.678759e+000 -2.901030e-001 -5.742330e+000 140 126 82
-4.695484e-001 -2.638564e-001 -4.560299e+000 225 185 142
1.505236e+000 -1.292977e+000 -6.460114e+000 69 34 32
1.102979e+000 -1.871208e+000 -6.681201e+000 146 135 124
-9.943476e-001 3.383456e+000 -9.431145e+000 69 68 73
2.814314e+000 6.776109e-001 -5.874873e+000 100 103 108
2.147638e+000 -1.219740e+000 -5.976989e+000 201 89 91
4.646698e-001 -1.022954e+000 -5.513086e+000 78 61 52
2.517319e+000 5.107916e-001 -5.824339e+000 35 30 35
1.616709e+000 -1.445153e+000 -6.230150e+000 173 72 76
7.401151e-001 -1.497605e+000 -6.518717e+000 98 81 65
1.370052e+000 -1.172947e+000 -6.204375e+000 57 28 23
1.349423e+000 2.424286e+000 -6.125666e+000 166 153 112
1.408142e+000 1.886945e+000 -6.466408e+000 221 211 156
2.668144e+000 1.766443e+000 -6.112152e+000 72 67 73
4.518814e-001 5.442767e-001 -6.487342e+000 214 219 212
4.791937e-001 5.305611e-001 -6.449434e+000 216 223 216
1.284002e+000 7.769762e-001 -6.040476e+000 196 199 179
8.308324e-001 2.518592e+000 -7.184859e+000 234 232 219
5.686963e-001 4.956923e-001 -6.386199e+000 216 220 213
-6.408037e-001 -3.032700e-001 -4.855863e+000 208 124 77
7.046653e-001 -1.926338e-001 -5.397027e+000 177 179 171
2.345320e+000 1.906310e-002 -5.675696e+000 156 62 64
-1.353656e+000 -4.866809e-001 -4.077847e+000 77 28 22
1.116144e+000 -4.121407e-001 -5.657526e+000 172 172 160
-1.348887e+000 -5.772938e-001 -3.985651e+000 129 72 67
-8.273051e-001 2.106558e-001 -8.634491e+000 203 205 192
-8.273051e-001 2.106558e-001 -8.634491e+000 203 205 192
-2.306950e+000 -7.876181e-001 -1.045448e+001 59 57 60
-3.911131e-001 -1.609646e-001 -4.553310e+000 188 177 159
2.466977e+000 -1.539265e-001 -5.860742e+000 147 132 91
2.413447e+000 -7.021216e-001 -5.900814e+000 58 32 28
2.198959e+000 -9.970934e-001 -5.680049e+000 50 26 25
2.771133e+000 1.676180e+000 -6.063339e+000 64 61 70
2.786613e+000 1.747020e+000 -6.053960e+000 57 52 59
-4.049118e-001 7.177030e-001 -8.274475e+000 217 217 203
-6.503322e-001 -2.580235e-001 -4.893432e+000 212 119 67
2.484208e+000 7.285356e-002 -5.892055e+000 49 35 38
4.873539e-001 -2.344768e-001 -5.248843e+000 121 119 107
-4.902119e-002 -3.115070e-001 -4.644307e+000 216 171 128
-7.488188e-001 -1.046576e+000 -4.170048e+000 83 41 27
-3.178189e+000 -1.075519e+000 -1.096067e+001 27 25 28
-2.869711e+000 -1.281818e+000 -1.107733e+001 63 61 66
-1.776899e+000 -1.413703e+000 -9.230001e+000 180 62 56
-1.021103e+000 -2.851893e-001 -4.321875e+000 60 29 27
-2.685891e-001 -8.501535e-001 -4.795120e+000 142 98 61
-1.831833e+000 -1.249896e+000 -9.283549e+000 186 61 55
-1.415359e+000 -7.031323e-001 -4.025826e+000 155 130 81
2.321800e+000 2.528584e+000 -5.906369e+000 41 31 38
1.027084e+000 2.115429e+000 -6.396908e+000 106 99 72
-7.335023e-001 1.065109e+000 -8.558161e+000 197 198 184
-7.335023e-001 1.065109e+000 -8.558161e+000 197 198 184
-1.097734e+000 -1.306716e-001 -8.853020e+000 169 164 152
-1.100467e+000 -1.283678e-001 -8.833159e+000 169 164 152
-3.117271e+000 -1.217947e+000 -1.099172e+001 74 73 80
-2.990711e+000 -9.886075e-001 -1.080089e+001 31 22 27
2.248847e+000 2.643732e+000 -6.007846e+000 218 210 199
-1.078527e+000 6.873472e-001 -8.917633e+000 217 218 204
1.124623e-001 7.920857e-001 -6.870434e+000 181 180 167
-7.165135e-001 -4.721804e-001 -4.405058e+000 209 177 125
-6.297436e-001 -4.469530e-001 -4.593411e+000 157 77 43
-8.196649e-002 2.227428e+000 -8.042040e+000 223 220 211
2.524274e+000 9.753228e-001 -5.680547e+000 223 220 213
1.212840e+000 -1.677619e+000 -6.255843e+000 176 168 157
-1.859873e+000 -4.381163e-002 -9.515259e+000 35 28 36
-3.648177e-001 2.230213e+000 -8.074771e+000 207 100 100
2.615932e+000 1.497981e+000 -6.073024e+000 150 149 157
1.055258e+000 6.446597e-001 -5.583791e+000 124 123 103
-6.679931e-001 -2.258301e-001 -4.946414e+000 223 119 67
-6.449580e-001 -1.840105e-001 -4.974552e+000 221 119 71
-1.068536e+000 -4.921547e-001 -4.033966e+000 206 114 70
-8.829174e-001 -6.761671e-001 -4.070384e+000 129 70 41
2.647648e+000 1.722601e+000 -6.078320e+000 51 49 54
2.851575e+000 1.712566e+000 -5.948550e+000 60 63 68
2.924034e+000 1.613940e+000 -5.936649e+000 55 54 60
-5.771320e-001 -5.739629e-001 -4.358279e+000 163 123 90
3.626101e-001 1.594620e+000 -7.071986e+000 197 199 188
2.702903e+000 1.765951e+000 -6.074979e+000 51 48 55
-2.881050e+000 -1.017996e+000 -1.101685e+001 41 37 38
-2.881050e+000 -1.017996e+000 -1.101685e+001 41 37 38
1.196235e-001 4.949029e-002 -5.620365e+000 200 207 199
2.026648e-001 -1.621748e-001 -4.803039e+000 190 198 187
-1.310291e+000 -4.391626e-001 -4.078834e+000 101 47 43
-1.708891e+000 -6.459202e-001 -3.970592e+000 174 158 96
-1.032648e+000 -5.910939e-001 -3.980650e+000 154 77 51
2.458183e+000 3.707557e-001 -5.823522e+000 177 84 85
-7.250403e-001 1.589842e+000 -8.474776e+000 223 223 217
2.131647e+000 -1.329003e+000 -5.961868e+000 122 42 45
2.924833e+000 1.450413e+000 -5.894225e+000 129 128 134
-1.030518e+000 3.328461e+000 -9.420636e+000 75 74 79
2.529561e+000 -1.077197e+000 -5.938543e+000 45 43 46
2.538029e+000 -1.229744e+000 -5.889852e+000 35 33 36
-1.302620e+000 -6.155178e-001 -4.000728e+000 110 60 51
1.545827e+000 -1.173993e+000 -6.069072e+000 185 151 113
-4.963512e-001 -1.043434e+000 -4.506533e+000 93 37 25
-1.903850e-001 -1.437211e+000 -4.899679e+000 109 55 39
-1.903850e-001 -1.437211e+000 -4.899679e+000 109 55 39
1.741059e+000 2.284926e+000 -6.306993e+000 202 200 188
1.487883e+000 2.146415e+000 -6.321408e+000 150 140 114
2.659594e+000 1.536532e-001 -5.960380e+000 64 65 69
7.206427e-001 -3.001804e-001 -5.437555e+000 160 159 154
1.869639e+000 -1.013759e+000 -6.139121e+000 190 71 71
2.710048e+000 -1.022591e+000 -5.835344e+000 43 41 46
-1.032033e+000 -5.948529e-001 -4.007475e+000 139 69 49
9.950279e-001 1.636284e+000 -6.740149e+000 209 210 196
-3.769227e-001 -1.145303e-001 -4.604885e+000 146 132 123
7.334365e-001 -1.217289e-001 -5.512031e+000 151 152 146
7.142950e-001 -1.662519e-001 -5.508846e+000 163 164 158
2.512438e+000 -7.296047e-001 -5.987666e+000 111 110 114
1.054580e+000 -6.309871e-001 -5.934263e+000 98 54 47
2.499665e+000 -1.070051e+000 -5.966739e+000 77 75 78
2.515821e+000 -1.133705e+000 -5.931142e+000 65 62 69
2.396236e+000 -1.396593e+000 -5.984684e+000 54 49 53
2.648371e+000 -1.422020e+000 -5.750143e+000 38 36 39
-1.373139e+000 -7.405317e-001 -3.964059e+000 109 76 51
-1.318230e+000 -7.196156e-001 -4.015591e+000 124 76 73
1.622824e-001 -1.096617e+000 -4.783503e+000 153 76 65
2.230870e+000 -1.437689e+000 -6.157626e+000 49 44 46
2.386241e+000 -1.589606e+000 -5.993521e+000 34 32 35
2.540346e+000 -1.541381e+000 -5.840575e+000 37 35 38
2.513613e+000 -1.618875e+000 -5.828514e+000 51 49 54
2.566558e+000 -1.586884e+000 -5.810683e+000 34 32 37
2.647751e+000 -1.619936e+000 -5.757977e+000 42 37 43
-8.168603e-001 4.053032e+000 -9.235279e+000 92 91 96
3.383644e+000 1.070701e+000 -5.728823e+000 39 35 41
2.050034e-001 1.039167e+000 -6.983216e+000 192 195 184
1.809522e+000 3.990556e-001 -5.783644e+000 227 232 226
2.562458e+000 8.527852e-002 -6.001455e+000 101 106 109
8.832863e-001 -5.774431e-002 -5.516631e+000 168 172 165
6.055348e-002 -4.108946e-001 -4.638895e+000 188 117 83
2.758852e+000 -8.422122e-001 -5.841786e+000 110 107 114
2.500977e+000 -9.167176e-001 -6.026083e+000 51 49 52
2.614168e+000 -9.377697e-001 -5.954497e+000 48 49 52
3.043754e+000 -9.990795e-001 -5.587629e+000 34 30 35
2.834621e+000 -1.139446e+000 -5.705598e+000 49 48 53
