ply
format ascii 1.0
element face 0
property list uchar int vertex_indices
element vertex 264
property float x
property float y
property float z
property uchar diffuse_red
property uchar diffuse_green
property uchar diffuse_blue
end_header
9.996222e-001 -1.835584e+000 -6.692589e+000 88 70 55
9.072448e-001 -1.821083e+000 -6.755969e+000 91 68 50
9.942928e-001 -2.394993e+000 -6.792675e+000 32 23 27
8.228431e-001 -2.380899e+000 -6.902504e+000 122 46 46
1.834239e+000 -1.326502e+000 -6.104395e+000 182 148 104
1.383229e-001 -5.196834e-001 -4.556855e+000 145 79 47
1.442991e+000 -1.930442e+000 -6.407173e+000 197 191 179
2.076709e+000 -1.541836e+000 -6.156413e+000 41 26 31
1.753624e-001 -4.585904e-001 -4.583063e+000 213 191 149
1.045599e+000 -4.384168e-001 -5.553782e+000 162 163 156
9.508145e-001 -1.022280e-001 -5.537645e+000 165 166 160
1.812901e+000 -1.640209e+000 -6.284958e+000 198 80 86
1.798809e+000 -1.782284e+000 -6.201113e+000 42 29 38
1.191926e+000 -6.706040e-001 -5.782308e+000 92 60 44
1.722863e+000 -2.078201e+000 -6.307287e+000 199 195 184
1.584468e+000 1.658771e+000 -6.256350e+000 232 233 221
6.851446e-001 -2.632313e+000 -7.321552e+000 115 40 44
-8.548084e-001 -1.108093e+000 -4.053431e+000 148 85 46
1.158405e+000 1.947123e+000 -6.413134e+000 197 186 132
9.844851e-001 1.992475e+000 -6.704632e+000 227 227 215
2.688819e+000 -1.368349e-001 -5.866803e+000 152 140 88
1.383229e-001 -5.196834e-001 -4.556855e+000 145 79 47
2.592882e+000 -1.709250e-001 -6.084667e+000 91 83 57
1.306136e+000 4.833911e-001 -5.669374e+000 180 183 174
1.817622e+000 -6.207708e-001 -6.304806e+000 139 124 85
-6.393555e-001 -5.912671e-001 -4.176639e+000 217 184 133
6.845032e-001 -9.225364e-002 -5.350292e+000 154 157 150
1.035786e+000 -7.255679e-001 -5.844138e+000 211 206 194
2.310210e+000 -7.798932e-002 -5.807190e+000 145 79 65
1.346312e+000 -7.396676e-001 -6.105648e+000 144 109 78
1.640314e+000 2.216010e+000 -6.328317e+000 205 199 185
1.490802e+000 1.019637e+000 -6.019790e+000 235 238 230
2.396780e+000 -7.883481e-001 -5.978980e+000 53 33 34
-1.313306e+000 -7.532206e-001 -3.919423e+000 63 48 15
3.081344e-002 -1.065808e+000 -4.788676e+000 137 91 57
1.720762e+000 1.062060e+000 -5.804052e+000 205 205 193
2.498380e+000 9.579334e-001 -5.690715e+000 221 221 213
1.644807e-001 2.383762e+000 -7.761602e+000 200 193 182
-1.424819e+000 -6.785747e-001 -3.951403e+000 138 121 77
2.816295e+000 -7.557438e-001 -5.864871e+000 109 107 112
1.516922e+000 2.086057e+000 -6.334247e+000 232 228 215
1.270472e+000 -8.804477e-001 -5.929409e+000 129 80 57
-6.654382e-001 2.071621e+000 -8.704837e+000 188 71 73
4.707502e-001 9.067735e-001 -6.646114e+000 247 252 246
-5.811215e-001 2.197628e+000 -8.677773e+000 187 73 76
2.390681e+000 -8.733519e-001 -5.992963e+000 41 38 38
-8.370520e-001 -6.444784e-001 -4.052905e+000 210 178 133
-8.370520e-001 -6.444784e-001 -4.052905e+000 210 178 133
7.452369e-001 1.874646e+000 -6.818091e+000 212 214 203
1.791478e+000 8.650516e-001 -5.803205e+000 238 239 231
1.092821e+000 1.406367e+000 -6.658323e+000 231 234 225
-2.658862e-001 2.174741e+000 -8.107304e+000 221 215 214
-1.420489e-001 -7.681100e-001 -4.793740e+000 161 121 88
1.919285e-001 1.717002e+000 -7.909059e+000 237 240 231
2.462773e+000 3.978851e-002 -5.847205e+000 54 49 51
-2.686750e-001 -6.917827e-001 -4.628404e+000 171 136 106
-2.997709e-001 -1.069791e+000 -4.507661e+000 89 37 24
2.052335e+000 -2.616454e-001 -6.159538e+000 165 155 107
-1.845860e-001 -5.401435e-001 -4.628419e+000 110 61 39
2.167220e+000 -1.048464e+000 -6.038256e+000 208 87 90
6.411689e-002 -8.854339e-001 -4.793127e+000 231 195 145
2.269371e+000 1.807251e+000 -5.609268e+000 182 86 80
1.966978e+000 1.530137e+000 -5.773644e+000 198 185 176
-1.219811e+000 -4.967583e-001 -3.972683e+000 93 43 37
3.072247e-001 -1.942561e-001 -4.824078e+000 126 129 118
-2.329964e-001 -1.670284e-001 -4.511500e+000 52 51 43
-5.153352e-001 -5.649366e-001 -4.244494e+000 155 117 89
-1.349755e+000 -5.244370e-001 -4.088023e+000 160 140 89
-1.104225e-001 -2.445909e-001 -4.575608e+000 163 121 97
1.604359e+000 -6.618167e-001 -6.094054e+000 178 149 117
-7.362408e-001 -4.766601e-001 -4.292094e+000 85 49 51
2.352329e+000 -9.657045e-001 -5.964192e+000 44 35 33
-1.406691e+000 -5.238748e-001 -4.146813e+000 49 42 34
2.315847e+000 1.538336e+000 -5.911222e+000 189 90 86
2.301334e+000 1.356520e+000 -5.805141e+000 46 41 48
1.753624e-001 -4.585904e-001 -4.583063e+000 213 191 149
7.115781e-001 -4.464949e-001 -5.444226e+000 166 162 159
-8.846733e-001 -4.514682e-001 -4.081412e+000 90 33 24
-1.477767e+000 -5.970338e-001 -4.014492e+000 34 28 30
1.900076e+000 -1.409863e+000 -6.144158e+000 111 34 31
-3.691775e+001 -2.900059e+000 -6.980246e+001 91 80 74
1.450076e+000 2.104362e+000 -6.531538e+000 254 255 213
1.642557e+000 1.739175e+000 -6.112655e+000 201 199 186
1.066802e+000 1.666542e+000 -6.585345e+000 227 233 223
2.397979e+000 -6.889969e-001 -5.919926e+000 47 27 22
1.537785e+000 2.290790e+000 -6.404800e+000 222 219 204
-1.032501e+000 1.696002e+000 -8.756071e+000 191 73 67
-7.083370e-001 1.552808e+000 -8.442859e+000 220 228 217
-1.788031e-001 -2.832555e-001 -4.534275e+000 141 95 68
-4.378022e+001 -8.279010e+000 -8.236513e+001 34 19 18
-3.180028e-001 1.909615e+000 -8.442698e+000 212 213 201
1.053064e+000 7.311109e-001 -5.752233e+000 113 106 80
-1.214463e+000 -5.856611e-001 -3.964887e+000 82 32 26
-7.165271e-001 -6.915713e-001 -4.123775e+000 47 36 34
-9.255380e-001 -6.057076e-001 -3.896151e+000 126 58 39
2.069414e+000 1.281219e+000 -5.672223e+000 228 228 220
1.399301e+000 -1.169072e+000 -6.202733e+000 63 31 31
1.532754e+000 -9.379198e-001 -6.064909e+000 224 190 142
8.857372e-001 1.579464e+000 -6.629472e+000 216 219 208
-6.393555e-001 -5.912671e-001 -4.176639e+000 217 184 133
2.283264e+000 1.651505e+000 -5.774313e+000 93 45 48
3.434046e-001 8.300451e-001 -6.714846e+000 236 239 233
6.320591e-001 5.620535e-001 -6.474791e+000 213 217 202
4.829000e-001 -6.626487e-002 -5.341398e+000 215 220 214
2.105917e+000 -1.832933e-001 -6.078049e+000 128 103 81
4.250192e-001 -2.032990e-001 -5.019368e+000 140 137 132
1.070333e-001 -5.494232e-001 -4.502689e+000 175 125 85
-8.779542e-001 -6.788077e-001 -3.987863e+000 129 73 44
-7.097074e-001 -7.173691e-001 -4.111634e+000 96 74 59
1.419636e+000 9.098324e-001 -6.057509e+000 231 235 220
2.609606e+000 3.841854e-001 -5.979600e+000 99 100 102
-6.987471e-001 1.293869e+000 -8.596967e+000 206 210 196
6.509222e-001 -1.024670e-001 -5.357121e+000 203 206 199
-3.335204e-001 -1.410463e-001 -4.530715e+000 171 159 133
3.287259e-001 -1.473876e-001 -4.882266e+000 178 183 174
1.138134e+000 -3.066022e-001 -5.679830e+000 161 164 157
-7.636283e-001 -4.353394e-001 -4.345879e+000 197 174 160
-1.409081e+000 -6.137073e-001 -3.999214e+000 148 131 83
1.191317e+000 1.454261e+000 -6.388890e+000 139 129 93
2.890433e+000 1.129459e+000 -5.939645e+000 47 46 52
-7.406189e-001 1.367987e+000 -8.671096e+000 220 204 189
6.047418e-001 -3.025834e-001 -5.289488e+000 115 111 108
-6.334244e-001 -3.324253e-001 -4.825099e+000 161 74 35
1.845792e+000 -8.023278e-001 -6.395912e+000 197 69 77
2.634256e+000 1.493214e+000 -6.074442e+000 64 63 71
2.782824e+000 1.436780e+000 -5.970705e+000 58 59 64
1.426918e-001 2.509728e+000 -7.932573e+000 217 213 193
1.134291e+000 1.313311e+000 -6.496780e+000 230 233 215
3.091709e-001 1.098858e+000 -6.825667e+000 226 230 224
2.709544e+000 -8.875228e-001 -5.915337e+000 46 44 49
-9.227750e-001 -4.183685e-001 -4.068355e+000 165 92 60
-1.406691e+000 -5.238748e-001 -4.146813e+000 49 42 34
-1.267774e+000 -4.799937e-001 -4.061679e+000 63 22 21
1.044557e+000 1.804815e+000 -6.645833e+000 222 224 214
1.427324e+000 1.463443e+000 -6.139571e+000 253 254 212
-1.125517e+000 1.814737e+000 -8.968744e+000 71 44 45
-9.061494e-001 1.287162e+000 -8.866257e+000 200 71 79
-4.784558e-001 -5.643056e-001 -4.256051e+000 166 137 100
-1.023819e+000 -6.399693e-001 -3.943723e+000 166 82 46
-9.242274e-001 -9.370215e-001 -3.954768e+000 90 39 34
1.181566e+000 1.087282e+000 -6.216470e+000 121 117 93
-7.545853e-001 1.449694e+000 -8.632524e+000 105 59 48
-1.075385e+000 1.404030e+000 -8.898526e+000 186 71 68
-8.402091e-001 1.161463e+000 -8.769189e+000 213 217 203
-1.025636e+000 1.067317e+000 -8.935858e+000 185 72 67
1.583469e+000 -5.841418e-001 -6.095445e+000 73 50 37
1.739161e+000 -9.686764e-001 -6.166190e+000 102 32 31
-1.321734e+000 -7.992814e-001 -3.908633e+000 42 32 25
-1.321734e+000 -7.992814e-001 -3.908633e+000 42 32 25
1.885973e+000 2.253155e+000 -6.097213e+000 205 197 184
2.104169e+000 2.128135e+000 -5.915816e+000 230 225 218
4.015032e-001 1.538133e+000 -6.995230e+000 201 204 195
8.804697e-002 7.425965e-001 -6.949265e+000 187 187 176
1.070409e+000 -5.434675e-001 -5.644257e+000 172 175 167
-7.230430e-001 1.207030e+000 -8.452255e+000 214 216 204
-1.113526e-001 8.519708e-001 -7.270383e+000 236 241 234
8.944706e-002 -3.686989e-001 -4.558899e+000 149 71 56
1.109840e+000 -7.931978e-001 -5.786538e+000 209 215 200
-1.488204e+000 -4.929790e-001 -4.056117e+000 143 125 78
-1.410736e+000 -7.993860e-001 -3.865928e+000 141 119 74
1.287892e+000 1.010390e+000 -6.090884e+000 254 255 244
3.452146e-001 -3.997095e-001 -4.711157e+000 179 181 172
3.715729e-001 -7.226061e-001 -4.830105e+000 58 33 26
1.722863e+000 -2.078201e+000 -6.307287e+000 199 195 184
-4.634587e+001 -1.033391e+001 -8.444981e+001 62 40 31
5.786320e-001 2.108843e+000 -6.977918e+000 218 218 206
3.268444e-001 1.373923e+000 -6.894943e+000 207 211 202
-1.260613e+000 -6.046806e-001 -3.957603e+000 130 79 75
6.199857e-001 2.092095e+000 -6.999082e+000 189 189 177
6.199857e-001 2.092095e+000 -6.999082e+000 189 189 177
2.477112e-001 9.147032e-001 -6.749208e+000 224 230 220
-3.166526e+000 7.627993e-001 -1.096881e+001 56 56 58
-3.589883e-001 -1.926621e-001 -4.508826e+000 175 169 150
2.775012e+000 -7.016924e-001 -5.846399e+000 50 49 54
-1.090563e+000 -3.175331e-001 -4.171827e+000 83 45 39
2.738594e+000 -8.288716e-001 -5.859919e+000 109 108 114
-1.031046e+000 -5.222362e-001 -4.007147e+000 191 103 65
5.327409e-001 1.779238e+000 -6.953651e+000 228 229 221
2.527403e+000 1.250405e+000 -5.950852e+000 67 68 73
9.033351e-001 5.773816e-001 -6.170043e+000 226 229 216
7.838918e-002 4.320669e-001 -6.523709e+000 195 196 183
-9.840819e-001 -4.755868e-001 -4.002994e+000 170 82 46
1.938072e+000 -1.247700e+000 -6.069270e+000 207 143 126
1.987884e+000 -1.302627e+000 -6.102654e+000 128 36 35
-3.197568e-001 -9.424635e-001 -4.550756e+000 128 68 42
-1.462592e+000 -7.938411e-001 -3.914523e+000 148 129 86
1.123080e+000 1.450948e+000 -6.652643e+000 237 240 229
-7.452527e-001 -7.311282e-001 -4.032839e+000 128 72 50
-1.224020e-001 -9.442626e-001 -4.735392e+000 155 105 65
1.454253e-001 9.762985e-001 -7.016718e+000 234 238 228
4.378640e-001 -1.261068e-001 -5.110436e+000 185 190 184
1.934481e+000 7.525841e-001 -5.803732e+000 237 238 227
1.928681e-001 3.971178e-001 -6.443105e+000 232 239 226
-8.023614e-001 -7.062842e-001 -4.010921e+000 105 43 27
-2.451181e-001 -9.547493e-001 -4.639576e+000 91 44 32
-5.108154e-001 2.403148e+000 -8.356444e+000 185 71 69
1.563981e+000 1.344727e+000 -6.089591e+000 229 230 222
8.090931e-001 1.122800e+000 -6.633128e+000 236 243 236
2.478276e+000 2.440324e+000 -6.120526e+000 204 86 89
1.423138e+000 -3.896005e-001 -5.889843e+000 56 38 38
-1.520900e+000 -6.513432e-001 -3.914582e+000 160 140 80
-1.520900e+000 -6.513432e-001 -3.914582e+000 160 140 80
-1.224709e+000 -7.288913e-001 -4.004920e+000 104 56 46
1.067065e+000 -8.753806e-001 -5.847463e+000 200 202 192
-5.937824e-001 2.520022e+000 -8.559491e+000 87 57 58
-3.128680e+000 5.568480e-001 -1.091999e+001 58 57 62
-1.699903e-001 1.333079e-001 -5.868908e+000 200 202 191
-9.572163e-001 -2.479366e-001 -4.226637e+000 92 61 56
-1.318140e+000 -5.066523e-001 -4.069916e+000 98 65 49
-7.030960e-001 -6.462410e-001 -4.133412e+000 216 198 175
-5.898138e-001 -8.161294e-001 -4.151201e+000 110 53 26
2.684951e+000 1.696301e+000 -6.068773e+000 107 106 112
-6.201644e-001 -1.446383e-001 -4.905307e+000 229 138 100
-5.843665e-001 -2.371245e-001 -4.852651e+000 222 126 79
-4.438366e-001 -2.212894e-001 -4.489630e+000 169 152 128
-6.170794e-001 -3.939792e-001 -4.605285e+000 193 89 47
-8.180930e-001 -4.250829e-001 -4.335765e+000 165 130 112
-7.610009e-001 -4.110328e-001 -4.408464e+000 112 54 33
-1.347856e+000 -6.482183e-001 -3.993727e+000 111 92 52
2.543707e+000 1.582503e+000 -6.038846e+000 59 54 61
2.719611e+000 1.647444e+000 -6.070448e+000 68 67 73
-3.682116e-001 -1.625871e-001 -4.519701e+000 68 62 63
5.554738e-001 -1.804381e-001 -5.240676e+000 143 145 139
-1.226063e+000 -4.391965e-001 -4.101924e+000 105 58 51
8.757866e-001 -5.970540e-001 -5.736473e+000 139 135 126
-1.268906e+000 -5.741056e-001 -3.935756e+000 98 45 51
-1.051479e+000 -4.964895e-001 -4.032803e+000 210 124 80
1.098942e+000 1.185557e+000 -6.634514e+000 233 236 222
4.796401e-001 1.626097e-001 -5.757270e+000 223 227 213
4.084928e-001 3.796127e-002 -5.468500e+000 226 232 222
-5.406816e-001 -1.690293e-001 -4.831518e+000 205 118 69
-5.595262e-001 -4.467083e-001 -4.568484e+000 175 90 55
-7.006975e-001 -7.568809e-001 -4.056142e+000 79 33 19
-1.469423e+000 -8.029425e-001 -3.832688e+000 43 33 31
-8.853220e-001 -1.056356e+000 -3.961796e+000 40 26 25
4.731906e-001 1.762371e+000 -7.076238e+000 189 191 180
2.668103e-001 1.389368e+000 -6.953441e+000 236 239 230
-1.663745e+000 6.242905e-002 -9.397737e+000 183 64 63
-1.458162e+000 1.202541e-001 -9.210402e+000 188 65 56
-1.716441e+000 -1.556303e-001 -9.517102e+000 191 65 59
-5.261973e-001 -7.196841e-002 -5.092944e+000 110 51 38
-2.742791e-001 -2.010249e-001 -4.510688e+000 204 185 143
-1.591107e+000 -6.097529e-001 -3.938191e+000 35 28 28
-2.389582e-001 9.685024e-001 -8.183034e+000 248 253 246
6.729300e-001 9.592592e-001 -6.684126e+000 243 252 244
-1.309604e+000 4.908414e-001 -9.045470e+000 187 71 66
-4.804951e+001 -1.380667e+001 -9.760203e+001 60 42 41
1.674788e+000 -1.018878e+000 -6.019058e+000 217 191 140
7.387292e-001 2.029180e+000 -6.826156e+000 235 235 226
2.583563e+000 -4.104081e-002 -5.850015e+000 253 250 194
-6.574293e-001 -4.764060e-001 -4.316951e+000 212 180 139
2.600672e+000 -5.961038e-001 -5.680578e+000 31 25 25
2.745024e+000 -5.359460e-001 -5.642299e+000 27 22 22
-1.160763e+000 -9.806841e-001 -4.105363e+000 156 84 40
-1.812886e-001 -5.348431e-001 -4.614045e+000 111 61 38
3.475251e-002 3.055748e-001 -6.298025e+000 181 182 168
7.589660e-001 -1.446093e+000 -6.322450e+000 100 84 69
1.009650e+000 1.003923e+000 -6.604781e+000 239 244 239
-3.816965e-001 -5.489687e-002 -4.949174e+000 163 70 71
2.572162e+000 3.702081e-001 -5.686459e+000 64 62 67
6.136506e-002 2.055218e-002 9.381405e-002 0 255 0
6.086702e-002 2.041244e-002 4.381673e-002 255 255 0
-9.313721e-002 9.167111e-001 -2.954482e-001 255 0 0
-9.195820e-002 9.073773e-001 -3.445551e-001 255 255 0
