ply
format ascii 1.0
element face 0
property list uchar int vertex_indices
element vertex 882
property float x
property float y
property float z
property uchar diffuse_red
property uchar diffuse_green
property uchar diffuse_blue
end_header
1.794738e+000 -3.840518e+000 -6.740325e+000 26 23 30
1.457285e+000 -5.172641e+000 -7.229556e+000 104 102 103
1.387941e+000 -5.249367e+000 -7.346270e+000 25 20 26
1.940041e+000 -1.843871e+000 -5.996358e+000 93 81 82
1.892964e+000 -2.954415e+000 -6.520519e+000 106 110 115
1.590794e+000 -3.342430e+000 -6.862657e+000 27 27 31
1.303107e+000 -4.601469e+000 -7.266214e+000 69 72 79
1.103574e+000 -4.837464e+000 -7.303394e+000 40 38 44
1.383084e+000 -3.778997e+000 -7.334972e+000 35 33 38
1.232182e+000 -4.369125e+000 -7.363297e+000 45 46 51
1.118521e+000 -4.506994e+000 -7.431729e+000 130 133 140
1.118521e+000 -4.506994e+000 -7.431729e+000 130 133 140
1.091344e+000 -4.746655e+000 -7.396805e+000 31 30 38
-5.573539e-001 -1.531382e+000 -4.487399e+000 141 74 48
1.949560e+000 -8.975809e-001 -6.454085e+000 103 33 32
1.195439e+000 -2.986840e+000 -7.007560e+000 46 47 51
1.388623e+000 -9.752300e-001 -6.398434e+000 103 82 71
1.204750e+000 -2.830057e+000 -7.107528e+000 34 35 39
1.111655e+000 -3.232086e+000 -7.400423e+000 25 24 29
-1.446175e-001 -1.576078e+000 -5.424149e+000 80 64 57
1.089235e+000 -2.777808e+000 -7.218766e+000 53 55 59
7.786806e-001 -3.239444e+000 -7.539380e+000 38 36 41
8.120348e-001 -3.649745e+000 -7.738417e+000 36 34 39
6.457836e-001 -4.197695e+000 -7.941997e+000 34 32 37
6.706806e-001 -3.688304e+000 -7.901407e+000 44 42 47
1.986147e-001 -4.870834e+000 -7.986080e+000 107 104 111
1.986147e-001 -4.870834e+000 -7.986080e+000 107 104 111
-1.789415e+000 -5.431131e-001 -3.851392e+000 69 55 43
3.853353e-001 -2.453679e+000 -7.540954e+000 121 97 91
4.305166e-001 -3.451526e+000 -7.921884e+000 49 47 50
2.627004e-001 -3.987004e+000 -8.077032e+000 39 34 40
2.686469e-001 -4.214229e+000 -8.076633e+000 46 44 50
2.947735e-001 -4.103230e+000 -8.161026e+000 81 79 84
2.947735e-001 -4.103230e+000 -8.161026e+000 81 79 84
3.149715e-002 -4.737675e+000 -8.106047e+000 43 40 47
-4.627276e-002 -4.813152e+000 -8.066235e+000 52 52 59
2.238237e-001 -3.736445e+000 -8.073505e+000 44 36 41
-7.728979e-002 -4.535438e+000 -8.292327e+000 51 48 55
-1.404325e-001 -4.552159e+000 -8.219250e+000 51 48 55
-9.368998e-002 -4.685288e+000 -8.191457e+000 62 61 69
-9.368998e-002 -4.685288e+000 -8.191457e+000 62 61 69
-5.310622e-001 2.270019e-001 -6.240352e+000 215 215 207
-8.160061e-001 -5.556843e-001 -6.013395e+000 137 136 125
-4.697678e-001 -4.511465e-001 -6.514648e+000 116 112 100
-4.704860e-001 -4.567552e+000 -8.400425e+000 44 41 48
1.707602e-001 1.427904e+000 -6.943491e+000 213 211 198
1.774564e-001 1.412277e+000 -7.022999e+000 193 191 178
-2.878494e-001 -1.224995e+000 -7.357553e+000 197 199 190
-5.933466e-001 -4.572886e+000 -8.387869e+000 47 44 51
-4.463207e-001 -1.548471e+000 -7.661836e+000 171 166 153
-6.345585e-001 -4.447098e+000 -8.542197e+000 42 39 46
-6.917304e-001 -4.276983e+000 -8.656881e+000 55 49 56
-6.917304e-001 -4.276983e+000 -8.656881e+000 55 49 56
-7.858433e-001 -4.318328e+000 -8.627408e+000 39 34 41
-7.858433e-001 -4.318328e+000 -8.627408e+000 39 34 41
5.253051e-001 5.918694e+000 -8.024363e+000 90 91 97
-2.257305e-002 2.639333e+000 -7.961483e+000 220 216 206
-9.952277e-001 -4.136243e+000 -8.869597e+000 38 33 39
3.123027e+000 -3.311786e+000 -5.362611e+000 52 55 60
3.009399e+000 -3.495472e+000 -5.399951e+000 53 56 61
3.042645e+000 -3.403654e+000 -5.403303e+000 42 45 50
3.042645e+000 -3.403654e+000 -5.403303e+000 42 45 50
3.017688e+000 -3.586633e+000 -5.529960e+000 157 160 165
2.955533e+000 -3.647758e+000 -5.534253e+000 53 56 61
2.878886e+000 -3.784466e+000 -5.561901e+000 48 51 58
2.930933e+000 -3.811574e+000 -5.555387e+000 62 65 72
2.480508e+000 -4.601591e+000 -5.965730e+000 99 97 103
2.386526e+000 -4.951362e+000 -6.039152e+000 41 40 48
2.378444e+000 -4.939249e+000 -6.089823e+000 38 37 45
2.236231e+000 -4.955462e+000 -6.026469e+000 38 37 45
2.265613e+000 -5.079335e+000 -6.127346e+000 52 51 59
2.075666e+000 -5.307491e+000 -6.055278e+000 37 34 43
2.917690e+000 -3.198927e+000 -5.466013e+000 60 63 68
2.956739e+000 -3.181006e+000 -5.542662e+000 160 163 168
2.956739e+000 -3.181006e+000 -5.542662e+000 160 163 168
2.948384e+000 -3.491302e+000 -5.567208e+000 55 58 64
2.803479e+000 -3.483385e+000 -5.602472e+000 47 51 58
2.843496e+000 -3.409377e+000 -5.633012e+000 177 181 188
2.850551e+000 -3.697224e+000 -5.647511e+000 51 54 61
2.800303e+000 -3.811274e+000 -5.676808e+000 165 168 175
2.800303e+000 -3.811274e+000 -5.676808e+000 165 168 175
2.684404e+000 -3.826744e+000 -5.698944e+000 53 53 61
2.648516e+000 -3.795562e+000 -5.758890e+000 45 45 53
2.631275e+000 -3.799528e+000 -5.754219e+000 45 45 53
2.688266e+000 -4.044912e+000 -5.745665e+000 45 44 52
2.688266e+000 -4.044912e+000 -5.745665e+000 45 44 52
2.640883e+000 -3.987423e+000 -5.843824e+000 41 40 48
2.672024e+000 -4.124367e+000 -5.804475e+000 40 41 46
2.471358e+000 -4.218096e+000 -5.778870e+000 42 43 48
2.555063e+000 -4.267017e+000 -5.957785e+000 39 39 47
2.412833e+000 -4.211402e+000 -5.867428e+000 39 39 47
2.678596e+000 -4.152686e+000 -5.976562e+000 39 39 47
2.492490e+000 -4.219702e+000 -5.976217e+000 32 33 39
2.609437e+000 -4.380612e+000 -5.957078e+000 97 95 104
2.505371e+000 -4.326555e+000 -5.936730e+000 90 90 98
2.524291e+000 -4.509637e+000 -6.048762e+000 40 38 44
2.524197e+000 -4.609906e+000 -6.040493e+000 42 43 48
2.488785e+000 -4.523225e+000 -6.088196e+000 89 86 93
2.488785e+000 -4.523225e+000 -6.088196e+000 89 86 93
2.300222e+000 -4.820102e+000 -6.141953e+000 38 37 43
2.282991e+000 -4.822996e+000 -6.134234e+000 38 37 43
2.152113e+000 -4.930786e+000 -6.212384e+000 36 35 41
2.198172e+000 -5.056251e+000 -6.219601e+000 41 40 46
3.650699e+000 -1.494159e+000 -5.140233e+000 43 44 49
3.122968e+000 -2.871097e+000 -5.523661e+000 46 49 54
2.957991e+000 -2.785263e+000 -5.538785e+000 47 50 55
2.965924e+000 -2.873765e+000 -5.665351e+000 101 104 109
2.911758e+000 -3.227947e+000 -5.645158e+000 60 65 71
2.928186e+000 -3.128098e+000 -5.679216e+000 52 55 62
2.917986e+000 -3.130881e+000 -5.675291e+000 52 55 62
2.839879e+000 -3.345262e+000 -5.654042e+000 53 58 64
2.762313e+000 -3.412204e+000 -5.732205e+000 172 177 183
2.814972e+000 -3.584868e+000 -5.820162e+000 58 61 66
2.780372e+000 -3.453618e+000 -5.854886e+000 48 52 57
2.670173e+000 -3.545678e+000 -5.840924e+000 47 50 55
2.677308e+000 -3.674320e+000 -5.782434e+000 147 150 155
2.624185e+000 -3.815687e+000 -5.801719e+000 140 141 146
2.562946e+000 -3.779450e+000 -5.830252e+000 44 45 50
2.539429e+000 -3.834725e+000 -5.851368e+000 48 49 54
2.573086e+000 -3.658882e+000 -5.849927e+000 44 47 52
2.605184e+000 -3.718496e+000 -5.925752e+000 44 45 50
2.575801e+000 -4.035254e+000 -5.914270e+000 93 94 99
2.595206e+000 -3.833383e+000 -5.929800e+000 126 129 134
2.452185e+000 -4.032650e+000 -6.012082e+000 88 89 94
2.513690e+000 -4.267342e+000 -6.049375e+000 97 97 105
2.405546e+000 -4.382242e+000 -6.101766e+000 43 43 51
2.333738e+000 -4.375146e+000 -6.086095e+000 39 39 47
2.412875e+000 -4.312562e+000 -6.139842e+000 73 73 81
2.358983e+000 -4.670909e+000 -6.212953e+000 115 112 119
2.358983e+000 -4.670909e+000 -6.212953e+000 115 112 119
2.271461e+000 -4.579834e+000 -6.272990e+000 88 87 93
3.276796e+000 -2.213192e+000 -5.590588e+000 39 40 45
2.795616e+000 -2.896379e+000 -5.755344e+000 43 44 49
2.797995e+000 -2.930475e+000 -5.785857e+000 38 39 44
2.797995e+000 -2.930475e+000 -5.785857e+000 38 39 44
2.703269e+000 -3.375924e+000 -5.885552e+000 118 121 126
2.733813e+000 -3.367022e+000 -5.898024e+000 118 121 126
2.645952e+000 -3.445640e+000 -5.988809e+000 32 35 42
2.479583e+000 -3.885018e+000 -6.098438e+000 38 37 43
2.244995e+000 -4.552481e+000 -6.303155e+000 32 31 37
2.506888e+000 -3.192335e+000 -6.061599e+000 26 25 30
2.566453e+000 -3.292719e+000 -6.054939e+000 31 32 37
2.560256e+000 -3.296967e+000 -6.052977e+000 31 32 37
2.283503e+000 -3.954807e+000 -6.232657e+000 33 32 40
2.233695e+000 -3.950335e+000 -6.333580e+000 29 27 31
2.274863e+000 -3.939526e+000 -6.353716e+000 29 27 31
2.157944e+000 -3.993430e+000 -6.391354e+000 24 21 28
2.265005e+000 -3.658771e+000 -6.287574e+000 23 22 27
2.249668e+000 -3.664395e+000 -6.279983e+000 23 22 27
2.009763e+000 -4.509486e+000 -6.662843e+000 24 21 27
1.930938e+000 -4.525508e+000 -6.618239e+000 24 21 27
2.800591e+000 -1.655508e+000 -5.755890e+000 56 59 64
1.938958e+000 -3.462202e+000 -6.476831e+000 33 32 37
1.654435e+000 -4.991764e+000 -7.155539e+000 32 26 27
2.121329e+000 -2.820598e+000 -6.306243e+000 53 58 64
1.969287e+000 -3.465430e+000 -6.552854e+000 64 65 70
1.831635e+000 -3.655004e+000 -6.773346e+000 24 23 29
1.795308e+000 -4.115560e+000 -6.921099e+000 20 18 23
1.355679e+000 -5.224825e+000 -7.298140e+000 105 100 104
1.321376e+000 -5.224353e+000 -7.268874e+000 105 100 104
1.886718e+000 -3.052802e+000 -6.589851e+000 46 49 54
1.769470e+000 -3.517580e+000 -6.822035e+000 23 22 28
1.300469e+000 -4.698485e+000 -7.221098e+000 111 110 116
1.716059e+000 -2.965428e+000 -6.655826e+000 42 43 48
1.702457e+000 -2.875249e+000 -6.688588e+000 42 45 50
1.722852e+000 -2.845810e+000 -6.768560e+000 88 91 96
1.699355e+000 -3.143194e+000 -6.735985e+000 36 37 42
1.757138e+000 -2.897194e+000 -6.800394e+000 45 48 53
1.673105e+000 -1.219406e+000 -6.017078e+000 195 166 126
1.649910e+000 -2.917588e+000 -6.847618e+000 87 91 94
1.469362e+000 -2.977673e+000 -6.973863e+000 34 35 39
1.268522e+000 -4.329180e+000 -7.447598e+000 41 40 46
1.299952e+000 -2.884546e+000 -7.021553e+000 36 37 41
1.250177e+000 -3.129427e+000 -7.116287e+000 37 36 41
1.164861e+000 -4.241051e+000 -7.478868e+000 20 18 23
9.068296e-001 -4.591586e+000 -7.625055e+000 20 17 24
8.964431e-001 -4.758360e+000 -7.503799e+000 56 53 60
-1.009818e-001 -1.559446e+000 -5.293275e+000 49 28 22
1.214847e+000 -2.857969e+000 -7.175687e+000 32 33 37
1.051021e+000 -3.099368e+000 -7.231463e+000 28 27 32
-5.237241e-002 -1.429685e+000 -5.555364e+000 83 68 63
6.209005e-001 -3.886247e+000 -7.862537e+000 31 29 34
4.781398e-001 -3.891200e+000 -8.068647e+000 37 36 41
4.269949e-001 -4.280278e+000 -8.039521e+000 38 35 42
1.257652e-001 -4.718154e+000 -7.954654e+000 53 52 60
2.156205e-001 -4.837643e+000 -8.048110e+000 38 35 43
-1.828770e+000 -5.742098e-001 -3.762439e+000 131 111 78
2.773057e-001 -4.138400e+000 -8.061332e+000 40 38 43
2.642176e-001 -4.142731e+000 -8.047873e+000 40 38 43
-1.429481e-001 -4.318123e+000 -7.885668e+000 28 15 17
-7.566899e-002 -4.677563e+000 -8.163258e+000 143 142 149
-6.532064e-001 -7.809465e-001 -6.210466e+000 64 49 40
-2.302779e-001 -4.589703e+000 -8.309154e+000 51 48 55
7.040327e-001 2.611957e+000 -7.122018e+000 177 174 167
-4.286227e-001 -7.447633e-001 -6.662394e+000 114 102 91
9.322194e-001 3.545432e+000 -7.355978e+000 176 90 85
-3.236352e-001 -7.075233e-001 -7.627645e+000 185 185 178
-7.549045e-001 -4.214877e+000 -8.638177e+000 39 34 41
-7.661181e-001 -4.477776e+000 -8.661009e+000 47 45 50
-8.979424e-001 -4.352524e+000 -8.664991e+000 40 37 44
-9.858044e-001 -4.356128e+000 -8.703702e+000 44 39 46
-9.600869e-001 -1.636013e+000 -8.295093e+000 136 126 116
3.103070e+000 -3.180201e+000 -5.317447e+000 57 60 67
3.103070e+000 -3.180201e+000 -5.317447e+000 57 60 67
2.919825e+000 -3.734863e+000 -5.532343e+000 165 168 175
2.855796e+000 -3.845382e+000 -5.575412e+000 158 159 166
2.836493e+000 -3.818695e+000 -5.635738e+000 49 51 58
2.654492e+000 -4.525306e+000 -5.914203e+000 40 39 47
2.399591e+000 -4.796215e+000 -5.950151e+000 43 42 50
2.298359e+000 -4.921508e+000 -6.072524e+000 37 36 44
2.116229e+000 -5.445240e+000 -6.122947e+000 27 24 31
2.127357e+000 -5.379811e+000 -6.168679e+000 30 27 34
3.029969e+000 -3.281322e+000 -5.477596e+000 52 55 60
2.867451e+000 -3.740872e+000 -5.672916e+000 65 68 75
2.755400e+000 -3.923136e+000 -5.753789e+000 148 148 156
2.600809e+000 -3.996633e+000 -5.760219e+000 38 37 45
2.305303e+000 -4.730246e+000 -6.154424e+000 41 40 46
2.384298e+000 -4.856454e+000 -6.166800e+000 73 72 80
2.356705e+000 -4.896647e+000 -6.204385e+000 39 38 44
2.158758e+000 -5.231773e+000 -6.269093e+000 35 32 41
2.809237e+000 -3.086732e+000 -5.700288e+000 44 47 52
2.837161e+000 -3.075459e+000 -5.710088e+000 44 47 52
2.860150e+000 -3.303638e+000 -5.739429e+000 49 54 60
2.590482e+000 -3.874571e+000 -5.832824e+000 38 41 46
2.576784e+000 -3.719621e+000 -5.855623e+000 122 125 130
2.510037e+000 -3.750033e+000 -5.950904e+000 106 107 112
2.465562e+000 -4.212630e+000 -6.049787e+000 36 36 44
2.444049e+000 -4.504118e+000 -6.312653e+000 37 35 41
2.247127e+000 -4.625250e+000 -6.308069e+000 38 35 42
2.250363e+000 -4.840877e+000 -6.270706e+000 37 36 41
2.107738e+000 -4.912147e+000 -6.387071e+000 31 30 36
1.958777e+000 -5.233348e+000 -6.363681e+000 24 20 28
2.889423e+000 -2.804516e+000 -5.639446e+000 46 47 52
2.661321e+000 -3.548073e+000 -5.931809e+000 47 50 57
2.622747e+000 -3.603181e+000 -5.966393e+000 124 127 132
2.586824e+000 -3.613849e+000 -5.951570e+000 124 127 132
2.430866e+000 -3.719560e+000 -6.139012e+000 27 28 33
2.488965e+000 -3.839456e+000 -6.087614e+000 35 36 41
2.488965e+000 -3.839456e+000 -6.087614e+000 35 36 41
2.511788e+000 -3.746954e+000 -6.123147e+000 37 38 43
2.282212e+000 -4.394246e+000 -6.257761e+000 27 26 32
2.102601e+000 -4.747790e+000 -6.383628e+000 27 26 32
2.175397e+000 -4.791911e+000 -6.457836e+000 31 30 36
2.413153e+000 -3.426257e+000 -6.139782e+000 29 28 34
2.247367e+000 -4.206194e+000 -6.442958e+000 70 69 75
2.265488e+000 -4.135096e+000 -6.462141e+000 27 25 31
2.005017e+000 -4.288956e+000 -6.372991e+000 23 22 28
2.032951e+000 -4.512213e+000 -6.541962e+000 24 23 29
2.456370e+000 -3.118316e+000 -6.124580e+000 29 28 34
2.362246e+000 -3.360390e+000 -6.207701e+000 24 22 29
4.279847e+000 1.972849e+000 -4.906596e+000 81 81 86
1.644997e+000 -5.035921e+000 -7.177210e+000 100 94 95
1.660152e+000 -5.034483e+000 -7.188064e+000 100 94 95
1.972039e+000 -3.110775e+000 -6.400378e+000 48 53 57
2.121906e+000 -2.847088e+000 -6.441342e+000 61 66 70
1.919437e+000 -3.548081e+000 -6.680164e+000 26 27 32
1.526694e+000 -5.052140e+000 -7.270080e+000 21 16 22
1.923019e+000 -2.938866e+000 -6.597504e+000 42 45 50
1.786711e+000 -3.116354e+000 -6.673558e+000 36 37 42
1.769873e+000 -3.365125e+000 -6.796478e+000 29 28 33
1.336611e+000 -4.722561e+000 -7.178959e+000 36 35 41
1.310427e+000 -4.800916e+000 -7.252163e+000 33 30 37
1.258112e+000 -4.354960e+000 -7.289034e+000 42 41 47
1.480478e+000 -9.536533e-001 -5.788889e+000 222 220 164
1.467569e+000 -1.033146e+000 -5.937826e+000 199 164 119
9.290436e-001 -4.722696e+000 -7.485489e+000 33 31 39
3.309089e-002 -4.551630e-001 -4.283481e+000 185 115 81
1.177605e+000 -2.931380e+000 -7.199477e+000 33 34 38
1.121664e+000 -2.832756e+000 -7.209552e+000 38 37 42
1.068626e+000 -2.951664e+000 -7.270209e+000 28 28 32
1.120321e+000 -3.143247e+000 -7.383753e+000 25 24 29
-5.008094e-001 -1.805723e+000 -5.082304e+000 61 39 36
-4.436324e-002 -1.498867e+000 -5.706913e+000 57 41 30
6.994293e-001 -3.942118e+000 -7.864950e+000 32 30 35
2.736602e-001 -4.880993e+000 -7.877279e+000 34 31 38
1.870234e-002 -1.096355e+000 -6.143324e+000 42 24 15
5.589231e-001 -3.824591e+000 -7.935542e+000 33 32 37
-1.801097e+000 -6.316967e-001 -3.744991e+000 60 42 32
2.273642e-001 -3.677982e+000 -8.000298e+000 41 38 43
2.742118e-001 -3.844716e+000 -8.081722e+000 39 38 43
-1.238215e-001 -4.625095e+000 -8.183894e+000 42 41 49
-1.282270e-001 -4.715801e+000 -8.195400e+000 174 173 181
-2.247354e-001 -4.752114e+000 -8.154237e+000 45 44 52
-2.247354e-001 -4.752114e+000 -8.154237e+000 45 44 52
-1.830988e-001 -4.622237e+000 -8.268853e+000 46 44 50
-2.785502e-001 -4.741405e+000 -8.251537e+000 191 188 197
-2.992726e-001 -4.633546e+000 -8.284974e+000 158 157 163
-6.720143e-001 -3.269936e-001 -6.217836e+000 187 176 161
-6.672829e-001 -7.681981e-001 -6.264717e+000 181 175 163
-4.109208e-001 -4.610795e+000 -8.327190e+000 41 38 45
-4.715268e-001 -4.339123e+000 -8.398582e+000 43 38 45
-4.715268e-001 -4.339123e+000 -8.398582e+000 43 38 45
-5.536525e-001 -4.494457e+000 -8.470363e+000 41 38 45
-5.867349e-001 -4.475895e+000 -8.541867e+000 127 124 131
-5.867349e-001 -4.475895e+000 -8.541867e+000 127 124 131
-8.923984e-001 -4.009510e+000 -8.841238e+000 38 33 39
-9.972480e-001 -4.475079e+000 -8.717714e+000 36 34 40
-1.283782e+000 -3.291057e+000 -8.641146e+000 146 46 49
2.944919e+000 -3.425736e+000 -5.492907e+000 50 55 61
2.748476e+000 -3.898667e+000 -5.676060e+000 56 56 64
2.748476e+000 -3.898667e+000 -5.676060e+000 56 56 64
2.428666e+000 -4.811224e+000 -6.132552e+000 39 38 46
2.560448e+000 -3.803136e+000 -5.991346e+000 38 40 47
1.991742e+000 -4.849502e+000 -6.548622e+000 24 21 28
2.038788e+000 -4.519797e+000 -6.407613e+000 31 30 36
2.038788e+000 -4.519797e+000 -6.407613e+000 31 30 36
1.947011e+000 -1.594375e+000 -6.121009e+000 98 33 30
-9.345388e-001 -1.027161e+000 -4.014997e+000 72 31 18
6.482911e-002 -1.404935e+000 -6.721135e+000 80 64 51
-7.444841e-002 -3.894886e+000 -7.877918e+000 43 34 45
-1.217119e-001 -4.650892e+000 -8.191895e+000 58 56 62
4.746980e-001 2.172063e+000 -7.023713e+000 243 245 237
-6.783751e-001 -5.578004e-001 -6.270192e+000 111 102 91
-4.737539e-001 -8.072444e-001 -6.546229e+000 86 73 64
3.896187e-001 2.069452e+000 -7.174095e+000 170 168 154
3.658146e-002 2.517891e+000 -7.811716e+000 247 246 238
1.307726e-001 2.001416e+000 -7.876539e+000 216 218 205
8.789651e-002 2.920636e+000 -8.001651e+000 213 223 207
-9.571293e-001 -4.418055e+000 -8.653864e+000 45 40 47
4.622177e+000 4.265583e-001 -4.892319e+000 57 57 59
4.651002e+000 4.438494e-001 -4.900638e+000 57 57 59
1.192309e+000 -4.624571e+000 -7.344830e+000 73 73 81
1.134951e-001 -5.820351e-001 -4.387701e+000 210 169 130
1.418217e+000 -9.841205e-001 -5.858577e+000 115 99 78
-1.984801e-001 -1.605873e+000 -5.193355e+000 42 20 16
-3.585642e-002 -1.128900e+000 -6.021833e+000 87 69 63
-3.600638e-001 -2.684755e-001 -6.668560e+000 130 124 114
-4.576065e-001 -1.046924e+000 -7.583637e+000 232 234 229
-1.089457e-001 6.796775e-001 -7.807559e+000 234 235 228
-6.497423e-002 9.483335e-001 -8.008150e+000 206 208 197
-6.497423e-002 9.483335e-001 -8.008150e+000 206 208 197
-6.794924e-001 -7.289209e-001 -8.038139e+000 234 235 229
-7.006667e-001 1.919403e+000 -8.628752e+000 221 221 211
4.564626e+000 8.250776e-002 -5.228420e+000 51 50 55
1.381349e+000 -5.136550e+000 -7.292876e+000 16 11 15
-5.766916e-002 -1.485412e+000 -5.569816e+000 89 76 70
2.287300e-002 -3.298252e+000 -7.528039e+000 174 78 77
-7.262413e-001 -1.226493e+000 -5.945282e+000 47 27 26
1.272058e+000 4.349284e+000 -7.069661e+000 180 166 110
-7.163939e-001 -7.538581e-001 -6.156060e+000 62 37 30
-2.321582e-001 5.001634e-001 -7.203393e+000 227 230 221
-4.640679e-001 -1.792838e+000 -7.742089e+000 121 112 100
-4.640679e-001 -1.792838e+000 -7.742089e+000 121 112 100
-1.061662e+000 -2.774231e+000 -8.525424e+000 220 214 204
-1.269839e+000 -9.553027e-001 -9.093954e+000 225 222 214
-6.265279e-001 -9.912863e-002 -6.021934e+000 238 241 234
-6.408269e-001 -3.064608e+000 -8.202888e+000 193 189 177
-1.277200e-002 2.983201e+000 -8.042933e+000 192 74 72
2.764743e-002 3.629369e+000 -8.478261e+000 194 77 78
-1.290220e+000 -1.061782e+000 -8.690369e+000 179 176 167
4.437262e+000 1.201414e+000 -4.751488e+000 58 59 63
-1.229200e+000 -1.093028e+000 -3.788463e+000 87 37 22
3.239090e-001 -1.227674e+000 -6.024276e+000 109 97 83
1.818780e-001 -4.274328e+000 -7.917413e+000 44 45 49
-1.309556e-002 4.060310e+000 -8.960341e+000 29 24 28
4.545914e+000 2.691175e+000 -4.675652e+000 55 57 60
4.545914e+000 2.691175e+000 -4.675652e+000 55 57 60
-4.530166e-001 -8.734455e-002 -5.913292e+000 51 31 28
-5.099880e-001 -5.126298e-001 -7.726070e+000 141 138 128
4.667631e-001 5.384429e+000 -8.060686e+000 41 40 46
3.035341e-001 5.995228e+000 -8.522771e+000 76 77 82
3.035341e-001 5.995228e+000 -8.522771e+000 76 77 82
1.622552e+000 -4.874049e+000 -7.433057e+000 26 24 29
8.724894e-002 -2.164262e+000 -7.463494e+000 148 143 129
-1.478053e+000 -1.030975e+000 -3.803880e+000 190 106 68
9.207806e-001 6.008816e+000 -7.482418e+000 117 120 125
9.207806e-001 6.008816e+000 -7.482418e+000 117 120 125
2.655167e+000 4.493517e-001 -5.032142e+000 28 26 27
1.420852e+000 -2.112721e+000 -6.357259e+000 202 204 193
5.196555e-001 -2.076800e+000 -7.071242e+000 47 21 24
-7.804130e-001 3.714917e-001 -6.653689e+000 224 224 214
-7.804130e-001 3.714917e-001 -6.653689e+000 224 224 214
4.768155e+000 1.890519e+000 -4.514868e+000 64 65 69
3.616289e+000 -1.224505e+000 -5.261141e+000 50 49 55
2.859216e+000 -3.206149e+000 -5.828564e+000 50 50 58
4.842121e+000 1.537513e+000 -4.791659e+000 47 48 53
2.218625e+000 -4.683619e+000 -6.366739e+000 41 38 45
2.352123e+000 -3.759537e+000 -6.201151e+000 72 71 77
2.557605e+000 -3.007865e+000 -6.184640e+000 43 42 47
3.950029e+000 2.041622e+000 -5.194217e+000 36 35 40
2.598587e+000 -6.570238e-001 -5.973018e+000 206 93 92
2.000568e+000 -3.185807e+000 -6.463690e+000 43 47 52
2.000568e+000 -3.185807e+000 -6.463690e+000 43 47 52
1.878611e+000 -3.337176e+000 -6.544336e+000 31 36 40
2.563934e+000 1.712441e-001 -5.631072e+000 60 50 47
2.005975e+000 -2.483788e+000 -6.468791e+000 35 35 43
1.849183e+000 -3.026478e+000 -6.554369e+000 39 42 47
1.701538e+000 -3.397180e+000 -6.820565e+000 48 47 53
1.581824e+000 -3.846879e+000 -6.966250e+000 31 30 35
1.097886e+000 -4.464530e+000 -7.475462e+000 80 79 87
1.063474e+000 -4.633938e+000 -7.416725e+000 47 47 55
1.089615e+000 -3.027691e+000 -7.203767e+000 34 35 39
9.263323e-001 -4.782780e+000 -7.546322e+000 25 23 28
-1.847910e+000 -6.039793e-001 -3.731391e+000 96 77 48
1.224829e-001 -4.531913e+000 -8.124766e+000 38 33 40
5.812453e-002 1.167622e+000 -6.925193e+000 219 218 208
1.219387e+000 6.022315e+000 -7.490086e+000 67 68 73
-4.329487e-001 -4.392243e+000 -8.409779e+000 82 79 88
-5.102383e-001 -4.298438e+000 -8.477851e+000 38 35 42
-5.102383e-001 -4.298438e+000 -8.477851e+000 38 35 42
-5.419520e-001 -4.530426e+000 -8.441301e+000 85 83 90
-1.052443e+000 -5.377236e-001 -8.757779e+000 216 214 203
-1.060180e+000 -4.095469e+000 -8.888414e+000 39 34 40
2.718848e+000 -3.967878e+000 -5.873466e+000 43 42 50
2.407938e+000 -4.807181e+000 -6.043699e+000 37 38 43
2.249228e+000 -5.140812e+000 -6.167431e+000 41 40 48
2.232980e+000 -5.164517e+000 -6.196526e+000 88 87 95
2.418072e+000 -4.528048e+000 -6.167382e+000 37 36 42
2.369838e+000 -4.481390e+000 -6.175335e+000 40 38 48
2.070863e+000 -5.202956e+000 -6.311819e+000 29 26 35
4.770070e+000 1.723706e+000 -4.663743e+000 49 50 54
2.395708e+000 -4.160709e+000 -6.180767e+000 40 39 45
2.395708e+000 -4.160709e+000 -6.180767e+000 40 39 45
2.315845e+000 -4.149842e+000 -6.259268e+000 26 25 30
2.081099e+000 -4.461147e+000 -6.495848e+000 28 26 32
4.095013e+000 2.463661e+000 -5.203949e+000 37 38 42
2.243275e+000 -2.746120e+000 -6.200836e+000 44 47 52
2.193578e+000 -1.310369e+000 -5.898021e+000 204 91 87
2.049810e+000 -2.892032e+000 -6.435441e+000 40 45 49
1.932173e+000 -3.082970e+000 -6.463307e+000 37 40 45
1.961087e+000 -3.154988e+000 -6.626484e+000 42 43 48
1.761120e+000 -3.591949e+000 -6.732386e+000 26 25 31
1.615514e+000 -3.216467e+000 -6.883817e+000 32 33 38
1.531355e+000 -3.165985e+000 -7.013107e+000 27 28 33
1.221946e+000 -4.916956e+000 -7.262974e+000 25 20 27
1.246235e+000 -3.132840e+000 -7.113678e+000 32 33 36
1.226377e+000 -4.634160e+000 -7.405453e+000 51 51 59
4.995694e-001 -3.775113e+000 -8.008614e+000 36 34 38
3.306197e-001 -4.172219e+000 -8.110653e+000 93 91 96
4.371229e-001 2.033432e+000 -7.209527e+000 206 205 191
4.371229e-001 2.033432e+000 -7.209527e+000 206 205 191
-8.608104e-002 -4.680009e+000 -8.151802e+000 136 137 142
-3.714368e-001 -4.719518e+000 -8.279298e+000 156 155 161
-4.767909e-001 -4.752180e+000 -8.293289e+000 55 52 59
-5.954363e-001 -4.241974e+000 -8.539075e+000 48 43 51
-8.432853e-001 -4.532308e+000 -8.623114e+000 38 35 44
-8.262553e-001 2.337132e+000 -8.804619e+000 180 60 62
-9.231066e-001 -4.058404e+000 -8.829930e+000 38 33 39
-1.074310e+000 -4.425477e+000 -8.832251e+000 38 33 40
-1.122039e+000 -3.794865e+000 -9.014962e+000 55 50 57
-1.120518e+000 -4.306203e+000 -8.849862e+000 41 36 42
2.391601e+000 -4.594127e+000 -6.052018e+000 32 31 37
2.391601e+000 -4.594127e+000 -6.052018e+000 32 31 37
3.068950e+000 -2.560732e+000 -5.494756e+000 41 44 51
2.882367e+000 -2.667641e+000 -5.980798e+000 34 33 39
1.279298e+000 -2.852146e+000 -7.091874e+000 41 42 46
2.529164e-001 -4.171191e+000 -8.113487e+000 37 35 40
-1.899506e-001 -4.328228e+000 -7.818190e+000 25 15 15
5.869598e-003 -4.708531e+000 -8.121386e+000 172 173 178
-6.439260e-001 -2.075052e+000 -8.191467e+000 216 217 206
-7.025155e-001 -4.588130e+000 -8.486498e+000 107 103 109
-5.800491e-001 -4.622312e+000 -8.450085e+000 116 113 119
-7.912398e-001 -3.157201e+000 -8.282571e+000 177 164 150
2.942108e+000 -3.039171e+000 -5.605472e+000 64 67 72
-7.290613e-001 -1.313084e+000 -4.470096e+000 59 19 12
-9.725989e-001 -4.243101e+000 -8.759698e+000 39 34 40
-9.146886e-002 1.250498e+000 -8.110618e+000 210 213 200
-7.109015e-001 -4.636533e+000 -8.517580e+000 48 43 50
-2.614361e-001 7.388298e-002 -6.859401e+000 226 229 218
-2.766708e-001 -2.113267e+000 -8.124987e+000 228 229 223
-1.806246e+000 -2.439925e-002 -9.409449e+000 187 66 61
2.922412e+000 -9.497573e-001 -5.970590e+000 50 45 53
5.148312e+000 3.327150e-001 -4.440393e+000 61 60 65
3.470733e+000 -2.319753e+000 -5.092712e+000 54 58 64
5.109381e+000 1.399179e+000 -4.123950e+000 104 107 112
5.032954e+000 1.829095e+000 -4.239085e+000 68 69 74
2.927929e+000 -2.772409e+000 -5.596375e+000 86 87 92
2.027189e+000 -4.475399e+000 -6.598474e+000 28 27 33
3.390755e+000 1.202512e-001 -4.944604e+000 140 132 93
1.682650e+000 -5.068465e+000 -7.203519e+000 33 28 27
1.684708e+000 -4.054431e+000 -6.874062e+000 20 17 24
1.507892e+000 -5.194454e+000 -7.210599e+000 77 76 74
2.610401e+000 -6.296772e-001 -5.782089e+000 137 128 90
1.832025e+000 -1.454345e+000 -6.101038e+000 113 50 31
-6.616627e-002 -1.841606e+000 -7.262145e+000 131 126 115
-4.548232e-001 -1.720980e+000 -7.898790e+000 184 186 177
9.666433e-001 5.954272e+000 -7.618820e+000 62 65 70
-9.318822e-001 -4.406109e+000 -8.755428e+000 43 36 44
3.461117e+000 -2.402333e+000 -5.116816e+000 45 48 53
3.347664e+000 -2.515102e+000 -5.138171e+000 49 52 58
3.347664e+000 -2.515102e+000 -5.138171e+000 49 52 58
3.261672e+000 -2.642594e+000 -5.238398e+000 115 118 125
3.160049e+000 -2.597064e+000 -5.342683e+000 46 47 52
2.958871e+000 -2.707696e+000 -5.524295e+000 44 47 52
3.426848e+000 6.716585e-002 -4.935368e+000 168 157 107
1.495006e+000 -5.216728e+000 -7.239486e+000 29 24 27
1.932830e+000 -1.127458e+000 -5.910735e+000 196 156 119
1.394885e+000 -1.967840e+000 -6.374156e+000 175 177 166
1.394885e+000 -1.967840e+000 -6.374156e+000 175 177 166
6.834871e-001 2.649612e+000 -7.140905e+000 226 222 211
2.863024e-002 9.320674e-001 -6.905193e+000 205 207 196
2.863024e-002 9.320674e-001 -6.905193e+000 205 207 196
-7.953549e-001 -3.764196e+000 -8.984982e+000 46 39 46
-1.037734e+000 -4.319206e+000 -8.721052e+000 44 39 46
-7.868642e-001 -9.343623e-001 -8.196532e+000 226 227 221
-1.913406e+000 -4.619652e-001 -3.769674e+000 177 158 115
1.012119e+000 2.853712e+000 -6.999481e+000 215 213 202
1.248880e+000 4.257082e+000 -7.163290e+000 107 100 67
-4.151219e-001 -1.611372e+000 -7.397218e+000 216 219 211
3.202995e+000 1.332940e+001 -7.902237e+000 91 72 65
-5.458757e-001 -2.101505e+000 -8.081860e+000 212 214 203
-1.178714e+000 -4.435199e+000 -8.803412e+000 36 33 40
2.606303e+000 -3.047298e+000 -6.039920e+000 30 29 34
9.002389e-001 3.053261e+000 -7.099680e+000 222 224 211
6.780277e+000 2.281110e+001 -1.088498e+001 108 84 80
3.296327e+000 -1.277438e-002 -5.406341e+000 192 182 119
-1.559213e-001 1.140300e+000 -8.030139e+000 211 215 201
-8.909202e-001 -2.603303e+000 -8.539849e+000 199 195 184
1.624714e-001 -2.229754e+000 -7.476542e+000 120 109 95
9.064283e-001 4.391557e+000 -7.451535e+000 148 137 84
-8.126035e-001 9.128735e-002 -8.568545e+000 210 210 198
-8.126035e-001 9.128735e-002 -8.568545e+000 210 210 198
1.717024e-001 -2.244726e+000 -7.719724e+000 160 157 142
-1.484842e+000 -2.902811e-001 -9.224435e+000 223 219 209
4.636501e+000 2.180015e+000 -4.454103e+000 93 96 103
-8.183561e-002 6.043606e+000 -8.664485e+000 38 36 39
1.166958e+000 5.101416e+000 -7.216928e+000 35 33 36
4.328376e+000 1.711236e+000 -4.934746e+000 48 46 51
1.714068e+000 -4.953339e+000 -7.128620e+000 31 25 29
-3.646388e-001 -1.654854e+000 -7.198128e+000 112 105 92
-1.821839e-001 -4.355218e+000 -7.977130e+000 34 12 14
-1.453345e-001 -3.904481e+000 -7.901320e+000 201 74 78
5.113498e+000 4.295995e-001 -3.725030e+000 78 83 89
5.183875e+000 4.449708e-001 -3.776131e+000 105 105 113
5.242020e+000 -3.148881e-002 -3.944152e+000 60 58 63
3.184989e+000 -2.577864e+000 -5.283265e+000 103 105 110
3.094080e+000 -2.869137e+000 -5.328586e+000 133 136 143
2.580816e+000 -3.521224e+000 -5.828647e+000 132 137 141
2.351656e+000 -4.197435e+000 -6.055613e+000 39 40 45
5.288392e+000 2.069885e+000 -3.682810e+000 95 95 103
2.214764e+000 -4.079810e+000 -6.280761e+000 36 37 42
2.162054e+000 -4.107728e+000 -6.317895e+000 42 41 47
1.700527e+000 -5.505545e+000 -6.915742e+000 58 56 61
2.471764e+000 -3.332165e+000 -6.059942e+000 69 68 74
4.879596e+000 2.142001e+000 -4.151323e+000 55 56 63
4.019656e+000 2.431735e+000 -4.880530e+000 118 121 128
2.024758e+000 -1.357281e+000 -6.009706e+000 203 154 120
1.777662e+000 -1.288942e+000 -5.940370e+000 199 158 109
-2.785827e-001 -4.378380e+000 -8.405671e+000 44 39 46
-3.812270e-001 -8.900603e-001 -7.747925e+000 221 224 217
9.917481e-001 6.154479e+000 -7.483502e+000 121 121 128
9.917481e-001 6.154479e+000 -7.483502e+000 121 121 128
9.647608e-001 5.572078e+000 -7.670712e+000 50 49 54
7.971342e-001 5.541640e+000 -7.711864e+000 52 51 56
6.955331e-001 5.813663e+000 -7.733806e+000 69 70 77
5.960496e-001 5.297150e+000 -8.164526e+000 40 39 44
5.103046e-001 5.918382e+000 -7.955903e+000 82 82 90
-1.245423e+000 -9.948020e-001 -8.513938e+000 209 206 197
-1.237414e+000 -6.367651e-001 -9.105818e+000 203 200 191
5.583866e+000 6.289054e-001 -3.274468e+000 58 58 65
5.365986e+000 3.327413e-001 -3.532269e+000 161 161 173
5.322923e+000 2.788243e-001 -3.583988e+000 68 71 78
5.356090e+000 -1.972953e-001 -3.831819e+000 115 115 121
4.694612e+000 -1.107838e+000 -4.221717e+000 28 27 31
5.183438e+000 1.487483e-001 -4.100943e+000 38 37 43
2.786604e+000 -3.426690e+000 -5.612706e+000 167 170 175
2.618251e+000 -3.817118e+000 -5.800344e+000 144 147 152
5.217159e+000 1.526731e+000 -3.841713e+000 123 128 134
4.925166e+000 3.851459e-001 -4.546873e+000 65 65 69
2.976197e+000 -2.517025e+000 -5.661643e+000 41 44 48
2.254881e+000 -3.960060e+000 -6.222744e+000 36 37 43
3.402619e+000 -1.418435e-001 -4.872347e+000 66 61 54
1.370916e+000 -5.402044e+000 -7.110305e+000 46 43 49
1.933924e+000 -3.083967e+000 -6.464963e+000 39 44 48
1.781815e+000 -2.915896e+000 -6.628270e+000 116 119 124
1.157708e+000 -2.724790e+000 -6.875027e+000 60 50 43
1.203533e+000 -2.726858e+000 -7.126884e+000 78 82 85
-1.276927e-001 6.541837e-001 -6.841464e+000 232 229 220
-1.079052e-001 6.787605e-001 -6.852522e+000 232 229 220
5.319766e+000 2.838660e-001 -3.827374e+000 32 30 35
3.268477e+000 -3.023084e+000 -5.156907e+000 56 59 66
2.290744e+000 -3.604779e+000 -6.204004e+000 28 27 33
1.996894e+000 -4.538605e+000 -6.749015e+000 22 19 26
1.835868e+000 -1.457541e+000 -6.088652e+000 112 45 26
4.697643e-001 -1.911441e+000 -7.271274e+000 50 21 23
2.761101e-001 -2.266910e+000 -7.300901e+000 115 96 88
1.434452e+000 3.752695e+000 -6.538896e+000 59 51 51
-2.465610e-001 -2.328575e+000 -7.882665e+000 225 224 214
-1.067187e+000 -3.404018e+000 -8.754619e+000 125 41 46
4.962815e+000 7.578588e-001 -4.104965e+000 73 76 83
1.765928e+000 -5.452362e+000 -6.920348e+000 24 20 26
1.326889e+000 -5.319123e+000 -7.263197e+000 47 42 46
-6.209345e-001 -1.562260e+000 -7.841219e+000 189 191 180
-6.711758e-001 -1.616419e+000 -7.791197e+000 189 191 180
-9.344784e-001 4.495751e-001 -8.786383e+000 193 190 183
-1.214627e+000 -4.922974e-001 -9.085571e+000 188 183 171
-1.304933e+000 -1.006916e+000 -3.770880e+000 116 48 27
8.671822e-001 2.998138e+000 -7.105694e+000 226 224 212
-2.674200e-001 1.653072e+000 -8.102978e+000 226 227 213
-8.832837e-001 1.223789e+000 -8.785871e+000 213 207 200
-1.389017e+000 -2.717664e+000 -9.077831e+000 159 55 56
-1.270934e+000 -4.442652e-001 -9.160725e+000 234 232 219
1.653739e+000 -5.488801e+000 -6.941017e+000 50 48 53
3.349930e+000 4.968511e-001 -5.195759e+000 161 149 98
2.226462e+000 -1.319644e+000 -5.850951e+000 204 84 83
1.466914e+000 -5.300477e+000 -7.220289e+000 20 14 24
3.086923e+000 -2.912657e-001 -5.493297e+000 252 247 181
1.783648e-001 -1.120574e+000 -6.081390e+000 29 15 15
1.278740e+000 3.963347e+000 -6.812111e+000 48 48 52
9.112302e-001 3.357669e+000 -7.166579e+000 46 21 23
5.849889e+000 1.620393e+000 -3.068476e+000 108 108 118
1.036841e+000 -4.371689e+000 -7.650796e+000 21 19 24
4.763896e+000 1.721055e+000 -4.373525e+000 47 46 51
1.395749e-002 2.699852e+000 -8.179383e+000 246 242 233
5.840543e+000 1.033177e+000 -3.752366e+000 104 107 113
1.255892e-002 -2.863959e+000 -7.514016e+000 184 181 169
-1.130670e+000 -4.976518e-002 -9.040231e+000 160 151 145
9.814680e-001 -4.812677e+000 -7.822156e+000 15 10 16
2.043275e+000 -4.456410e+000 -6.393098e+000 71 70 75
2.265764e+000 -4.023247e+000 -6.251381e+000 44 43 49
2.071653e+000 -4.255755e+000 -6.316023e+000 43 42 48
2.188205e+000 -3.930054e+000 -6.340644e+000 36 35 41
9.208775e-001 -4.767808e+000 -7.354947e+000 54 52 59
1.826322e+000 -2.545953e+000 -6.383658e+000 30 31 35
1.460586e+000 -3.220545e+000 -6.866594e+000 55 54 59
2.183917e+000 -1.428730e+000 -6.169370e+000 174 70 67
1.773784e-001 -1.137277e+000 -4.634723e+000 118 64 54
1.368246e-001 -3.273163e+000 -7.711048e+000 151 65 67
-4.094238e-001 -1.644225e+000 -7.033820e+000 170 170 160
-5.467983e-001 -7.832497e-001 -6.469904e+000 137 128 118
-5.862327e-001 -7.773365e-001 -6.439988e+000 105 94 82
-5.844334e-002 7.272520e-001 -6.711291e+000 235 236 228
2.277480e+000 -4.048465e+000 -6.108862e+000 110 113 122
1.930183e+000 -4.336210e+000 -6.436395e+000 34 33 39
1.930183e+000 -4.336210e+000 -6.436395e+000 34 33 39
2.071299e+000 -4.391194e+000 -6.536201e+000 29 27 32
2.302119e+000 -3.641222e+000 -6.106950e+000 37 38 43
2.068973e+000 -3.974733e+000 -6.382828e+000 30 29 35
1.411698e+000 -4.948972e+000 -7.084744e+000 24 20 19
1.680231e+000 -3.463401e+000 -6.654133e+000 30 31 36
3.382637e+000 1.414396e-001 -5.102270e+000 211 199 140
1.395228e+000 -2.876065e+000 -6.814719e+000 43 44 49
1.204700e+000 -2.969793e+000 -7.003028e+000 36 35 41
1.030134e+000 -2.981297e+000 -7.110986e+000 35 34 39
-1.193636e-001 -1.552768e+000 -5.431977e+000 101 83 73
1.555129e+000 -8.656264e-001 -6.277288e+000 118 89 70
1.739704e+000 3.624539e+000 -6.341663e+000 182 82 84
1.261017e+000 2.544470e+000 -6.595281e+000 107 94 74
-8.804039e-001 -2.545190e+000 -8.543268e+000 189 184 173
-2.446057e-002 1.072884e+000 -6.985776e+000 186 187 177
1.471934e-001 1.783265e+000 -7.318001e+000 216 216 204
2.174845e+000 -4.124504e+000 -5.960377e+000 45 44 50
2.024646e+000 -4.698741e+000 -6.518113e+000 40 35 42
2.210966e+000 -4.002476e+000 -5.947741e+000 38 39 44
2.033475e+000 -4.307471e+000 -6.247007e+000 33 32 38
2.241046e+000 -4.152975e+000 -6.432382e+000 36 35 41
2.241046e+000 -4.152975e+000 -6.432382e+000 36 35 41
2.030190e+000 -4.239830e+000 -6.352374e+000 86 85 91
1.268304e+000 -4.541211e+000 -7.190984e+000 40 38 43
1.893706e+000 -3.124433e+000 -6.371636e+000 38 41 46
1.674533e+000 -3.340153e+000 -6.508970e+000 38 39 44
1.783184e+000 -3.582636e+000 -6.611157e+000 31 32 37
2.866433e+000 -1.670826e+000 -5.863281e+000 50 53 58
1.787167e+000 -3.015564e+000 -6.799074e+000 40 41 46
3.225349e+000 1.228898e-001 -5.489854e+000 205 196 129
-1.209478e-001 -1.503794e+000 -5.463915e+000 39 19 13
-4.828958e-001 -6.309432e-001 -6.554474e+000 89 77 65
-3.289737e-001 -3.875662e-001 -6.646482e+000 131 123 110
5.772481e-001 2.387835e+000 -7.039480e+000 158 154 138
9.213780e-001 3.233840e+000 -7.270754e+000 222 213 205
-4.021617e-002 5.892549e-001 -7.876701e+000 187 187 177
-3.359888e-002 2.437886e+000 -7.760452e+000 244 244 236
-1.217913e+000 -8.960944e-001 -8.660163e+000 220 217 209
-1.325237e+000 -1.103654e+000 -8.744309e+000 173 166 158
-3.107127e-001 -1.535951e+000 -4.848264e+000 77 27 21
-1.449864e-002 -1.343096e+000 -5.520333e+000 87 70 60
-1.238914e-001 -1.423948e+000 -5.480960e+000 87 70 60
-4.916116e-002 -1.955022e+000 -7.526614e+000 136 129 111
-6.618068e-001 -8.182035e-001 -6.123649e+000 76 56 47
-6.360152e-001 -7.334264e-001 -6.301800e+000 176 169 159
-6.590348e-001 -3.856619e-001 -5.988268e+000 83 53 43
-7.379676e-001 -6.565545e-001 -6.139300e+000 101 92 83
1.064911e+000 2.306997e+000 -6.678590e+000 230 227 221
3.051213e-001 1.879708e+000 -7.368011e+000 152 147 132
1.720888e-001 1.431931e+000 -7.927674e+000 209 211 198
-7.616056e-002 8.884488e-001 -7.996871e+000 209 208 196
-9.593467e-001 -1.285848e+000 -8.108895e+000 206 207 199
1.872180e+000 -1.015723e+000 -5.962563e+000 219 188 133
-3.369022e-002 -1.094525e+000 -6.013334e+000 96 78 72
-2.403695e-002 -1.111292e+000 -6.117916e+000 59 28 23
-5.274656e-001 -9.856955e-001 -6.126813e+000 48 27 21
-3.026427e-001 -5.629873e-001 -6.838761e+000 90 82 69
3.663067e-001 2.035027e+000 -7.160500e+000 169 167 155
-7.977027e-001 -8.039430e-001 -8.159709e+000 218 218 210
-2.996507e-001 9.692049e-001 -7.909890e+000 211 213 202
-5.135530e-001 -1.582103e+000 -4.813141e+000 162 96 61
1.645014e+000 -9.013438e-001 -6.354030e+000 72 25 28
-1.468638e+000 -7.920693e-001 -3.621675e+000 41 17 13
-7.145873e-001 -7.765798e-001 -6.168785e+000 68 41 37
-4.234384e-001 -6.033454e-001 -6.512239e+000 97 83 71
1.544005e+000 3.706550e+000 -6.541731e+000 60 52 55
1.266046e+000 3.581488e+000 -6.664600e+000 179 162 110
1.262791e+000 3.568742e+000 -6.674531e+000 179 162 110
1.201704e-002 1.036164e+000 -7.520622e+000 171 169 156
1.749224e-001 1.380993e+000 -7.803025e+000 234 234 224
-6.650043e-001 1.306276e+000 -8.655457e+000 237 237 225
-5.923351e-001 -1.496667e+000 -4.860255e+000 67 24 17
-1.668151e+000 -9.140375e-001 -3.991346e+000 120 62 40
-2.640463e-001 1.979236e-002 -6.832624e+000 229 234 226
-2.824020e-001 -1.621684e-001 -6.729504e+000 105 99 86
1.048337e+000 2.645026e+000 -6.921522e+000 232 236 230
-3.721257e-001 -1.017423e-001 -7.064604e+000 141 137 122
-1.077984e-001 4.695780e-001 -7.641405e+000 131 126 113
2.249642e-002 5.954017e-001 -7.661208e+000 131 126 113
-5.637078e-001 -2.393730e-001 -8.225039e+000 226 228 216
9.143968e-001 4.361548e+000 -7.199432e+000 47 45 49
-3.283640e-001 7.205184e-001 -8.417887e+000 231 234 224
2.932553e-001 4.496747e+000 -8.732398e+000 41 45 46
2.097148e+000 -2.561945e+000 -6.194790e+000 76 81 88
1.513808e+000 -1.144173e+000 -5.912937e+000 199 170 119
7.190618e-002 -3.410536e+000 -7.693842e+000 32 24 31
-9.202036e-001 -1.456412e+000 -8.094201e+000 230 230 222
-1.053512e+000 -6.120644e-001 -8.837793e+000 231 231 221
8.365937e-001 -4.566840e+000 -7.703105e+000 20 14 22
2.264330e+000 -1.153989e+000 -5.968198e+000 233 144 125
-1.478554e+000 -7.893294e-001 -3.712350e+000 57 20 14
2.148057e-001 1.560402e+000 -7.335940e+000 142 136 120
-6.873088e-001 -4.898207e-001 -8.327130e+000 139 132 114
-6.599857e-001 -3.623424e-001 -5.762994e+000 51 26 27
-9.364751e-001 -3.064941e+000 -8.525948e+000 175 70 70
-4.541816e-001 -6.148684e-001 -7.386450e+000 114 108 96
-2.274815e-001 -3.549167e+000 -7.390021e+000 34 29 35
5.234704e-001 5.248385e+000 -7.138420e+000 152 155 164
-8.436677e-001 -1.715420e+000 -8.150538e+000 141 128 112
-4.142818e-001 2.502758e-001 -8.110971e+000 237 238 229
-5.577697e-001 7.300812e-001 -6.799120e+000 151 142 127
1.088124e-002 -4.028734e+000 -8.046883e+000 61 45 54
-1.512407e+000 -3.989989e+000 -9.160593e+000 37 30 37
-7.752859e-001 -4.078519e+000 -8.694958e+000 41 36 43
1.035429e-001 -4.779630e+000 -8.091774e+000 122 121 130
-1.472480e+000 -4.095901e+000 -9.183870e+000 39 34 40
-9.298734e-001 -4.102250e+000 -8.875831e+000 43 38 44
1.819329e-001 -1.580279e+000 -5.332232e+000 51 25 22
5.166237e+000 8.801233e-001 -4.316972e+000 40 41 46
4.942489e+000 1.320113e+000 -4.434134e+000 40 41 45
-5.566474e-001 -4.306277e-001 -6.458713e+000 146 142 131
-4.002882e-001 -1.131969e+000 -7.653980e+000 191 196 189
-6.650278e-001 -2.248633e+000 -8.341118e+000 235 234 220
2.594127e-002 1.142762e+000 -7.095814e+000 176 176 164
-1.214232e-001 6.533434e-001 -8.025303e+000 242 244 233
-1.004449e+000 -4.829679e-001 -8.816635e+000 217 214 204
7.012580e-001 5.618695e+000 -7.592660e+000 67 68 73
8.198178e-001 5.375739e+000 -7.790997e+000 65 64 70
8.198178e-001 5.375739e+000 -7.790997e+000 65 64 70
-1.264309e+000 -7.243130e-001 -9.273450e+000 214 211 202
-1.716236e+000 -1.802773e+000 -9.123395e+000 179 128 120
3.736282e-001 5.660510e+000 -7.731667e+000 140 141 147
2.580755e-001 5.560046e+000 -8.053012e+000 67 66 72
5.710138e+000 2.512387e-002 -3.782599e+000 56 55 61
3.469409e+000 -1.640642e+000 -4.972880e+000 72 72 80
4.558882e+000 9.901215e-001 -4.977600e+000 56 54 58
2.407691e+000 -1.567388e+000 -5.988059e+000 57 54 63
1.822541e+000 -9.914904e-001 -5.875088e+000 125 72 45
1.522617e+000 -1.138485e+000 -6.291381e+000 100 40 39
-5.981153e-001 -2.729984e-001 -6.217829e+000 136 132 125
-2.325062e-001 3.634810e-002 -6.742377e+000 223 220 211
-1.542807e+000 -2.723163e+000 -8.972388e+000 174 61 67
8.931015e-001 4.317567e+000 -7.742735e+000 83 46 51
-1.785368e+000 -1.398295e+000 -9.362824e+000 217 178 168
4.994963e+000 3.095642e-001 -4.356050e+000 44 43 48
5.356966e+000 7.344427e-001 -4.607611e+000 33 31 36
1.678745e+000 -3.293761e+000 -6.664705e+000 33 33 37
-2.173116e-001 -1.481870e+000 -5.453606e+000 87 70 60
4.050586e-001 -1.214207e+000 -6.048806e+000 46 31 23
-1.226158e-002 -1.266457e+000 -5.803989e+000 47 24 20
-3.415011e-001 -1.565623e+000 -7.448155e+000 223 223 218
2.102719e+000 3.732062e+000 -6.163449e+000 79 62 64
1.678185e+000 3.564283e+000 -6.530555e+000 170 81 67
-5.547140e-002 4.527676e-001 -7.851750e+000 222 223 211
-7.149578e-001 -4.848533e-001 -8.669680e+000 213 213 201
-9.386370e-001 5.385868e-001 -8.853917e+000 232 228 217
9.805328e-001 -4.313559e+000 -7.540989e+000 21 19 24
2.030082e+000 -1.734498e+000 -6.003973e+000 71 68 68
-1.877452e+000 -7.985005e-001 -3.668045e+000 122 103 89
-4.061902e-001 -1.111691e+000 -5.959856e+000 69 50 46
-1.083161e+000 -3.611749e-001 -4.712404e+000 191 110 76
-1.083161e+000 -3.611749e-001 -4.712404e+000 191 110 76
-5.495197e-001 -8.423764e-001 -6.531468e+000 92 81 69
-6.904771e-001 -4.148066e-001 -5.976626e+000 83 53 43
-5.503471e-001 -5.192475e-001 -6.409207e+000 203 201 189
2.128975e+000 4.094729e+000 -6.338129e+000 67 60 63
1.063233e+000 2.172014e+000 -6.356813e+000 252 249 216
1.591491e+000 4.631722e+000 -7.051948e+000 63 57 57
2.970785e-001 1.834317e+000 -7.204706e+000 213 213 201
-5.319752e-002 9.549739e-001 -8.112346e+000 233 233 222
2.512115e-001 2.768062e+000 -7.515928e+000 246 247 241
-1.264034e+000 -1.935913e+000 -9.793484e+000 158 52 56
-1.413178e+000 -5.175745e-001 -9.287782e+000 210 206 197
5.863642e+000 1.183911e+000 -3.116380e+000 108 110 122
1.817770e+000 3.160700e+000 -6.280702e+000 131 50 41
-9.939582e-001 -5.135109e-001 -8.890413e+000 241 241 231
4.526047e+000 5.891552e-002 -5.211984e+000 57 57 59
-3.148213e-001 -8.747339e-001 -7.725256e+000 247 249 244
-1.388977e-001 1.804849e+000 -8.215163e+000 228 227 217
-1.861882e+000 -2.137093e+000 -9.447432e+000 184 70 77
-1.889123e+000 -9.545913e-001 -3.621539e+000 50 27 21
-3.839313e-001 -1.946990e+000 -7.506027e+000 120 111 96
-5.366310e-001 -3.612117e-001 -6.291263e+000 121 96 83
7.895784e-002 1.141674e+000 -6.910007e+000 224 225 214
-4.275187e-001 -2.601518e-001 -7.614484e+000 217 218 211
4.614080e-002 8.912618e-001 -7.876268e+000 245 246 239
-1.726972e+000 -2.272503e+000 -9.377840e+000 194 88 88
-1.722296e+000 -1.693434e+000 -9.293285e+000 180 64 62
5.251522e+000 2.117304e+000 -3.761662e+000 67 70 75
-1.238209e+000 -7.160119e-001 -4.718642e+000 45 16 18
2.731206e+000 -3.437464e+000 -5.954662e+000 71 74 79
6.701056e+000 1.198845e+000 -3.266008e+000 74 74 80
1.133409e+000 2.649168e+000 -6.663035e+000 84 72 56
1.276650e+000 3.309849e+000 -6.690162e+000 182 175 125
-5.273014e-001 -5.191928e-001 -7.704341e+000 149 142 132
-1.280087e+000 -3.284965e-001 -9.205791e+000 231 227 216
5.456516e+000 4.326849e-001 -4.531863e+000 51 50 55
-1.488893e+000 -1.892090e+000 -8.911889e+000 123 100 92
-1.261850e+000 2.344576e-001 -8.920194e+000 236 234 224
1.576458e+000 -4.093329e+000 -7.647955e+000 24 20 25
-1.207241e+000 -1.569253e-001 -8.922537e+000 163 154 145
4.164836e+000 -1.592334e+000 -5.370022e+000 87 92 96
6.471024e-001 3.152904e+000 -7.839534e+000 237 238 232
-1.507531e+000 -1.954751e+000 -9.142897e+000 129 67 64
-1.350152e-001 -8.058366e-001 -5.830832e+000 46 21 20
3.281467e+000 -2.945215e+000 -5.171247e+000 61 62 67
3.050538e+000 -2.964987e+000 -5.265407e+000 110 110 118
3.072822e+000 -2.763490e+000 -5.304249e+000 56 59 64
3.072822e+000 -2.763490e+000 -5.304249e+000 56 59 64
2.956422e+000 -3.070399e+000 -5.381313e+000 103 106 113
2.821797e+000 -3.197262e+000 -5.403046e+000 97 100 107
3.339917e+000 -2.374138e+000 -5.158453e+000 87 90 97
3.080117e+000 -2.608403e+000 -5.258447e+000 110 113 120
3.080117e+000 -2.608403e+000 -5.258447e+000 110 113 120
3.053500e+000 -2.683752e+000 -5.298362e+000 109 114 120
3.053500e+000 -2.683752e+000 -5.298362e+000 109 114 120
3.073901e+000 -2.706530e+000 -5.347669e+000 64 67 74
2.775029e+000 -3.011784e+000 -5.547010e+000 115 118 125
2.654409e+000 -3.041584e+000 -5.613273e+000 104 105 110
2.667113e+000 -3.079515e+000 -5.616364e+000 48 51 56
2.536829e+000 -3.236598e+000 -5.723647e+000 117 120 127
2.474723e+000 -3.488378e+000 -5.734838e+000 107 111 117
2.575117e+000 -3.258042e+000 -5.760507e+000 47 50 57
2.452166e+000 -3.386837e+000 -5.890800e+000 60 65 71
2.283819e+000 -3.750530e+000 -6.024003e+000 91 92 97
2.283819e+000 -3.750530e+000 -6.024003e+000 91 92 97
3.341373e+000 -1.976459e+000 -5.278499e+000 54 57 62
3.321925e+000 -2.076186e+000 -5.239344e+000 59 62 69
3.088471e+000 -2.184036e+000 -5.463596e+000 105 108 115
2.694488e+000 -2.835602e+000 -5.692538e+000 52 55 60
2.830469e+000 -2.681030e+000 -5.679933e+000 92 93 98
2.830469e+000 -2.681030e+000 -5.679933e+000 92 93 98
2.732281e+000 -2.776805e+000 -5.713403e+000 89 92 97
2.690176e+000 -2.977888e+000 -5.696513e+000 109 112 119
3.415515e+000 -1.578461e+000 -5.273016e+000 71 74 79
3.344102e+000 -1.638622e+000 -5.333649e+000 78 79 84
3.122131e+000 -2.116830e+000 -5.476995e+000 56 59 64
3.122131e+000 -2.116830e+000 -5.476995e+000 56 59 64
2.858361e+000 -2.390802e+000 -5.614079e+000 76 79 85
2.858361e+000 -2.390802e+000 -5.614079e+000 76 79 85
3.027921e+000 -2.065306e+000 -5.659100e+000 33 34 39
2.914417e+000 -2.397179e+000 -5.693332e+000 43 46 51
2.452923e+000 -2.930410e+000 -6.031398e+000 53 50 57
4.882734e+000 1.369710e+000 -4.495341e+000 44 45 49
2.410837e+000 -2.354786e+000 -5.958238e+000 67 70 77
2.367068e+000 -2.390062e+000 -5.996149e+000 47 50 57
2.161065e+000 -2.703210e+000 -6.107748e+000 46 49 57
2.158137e+000 -2.754167e+000 -6.106146e+000 76 79 84
1.777828e+000 -2.619730e+000 -6.489891e+000 100 105 109
9.560020e-001 -2.923971e+000 -7.229806e+000 51 50 55
3.302317e+000 -2.685287e+000 -5.055209e+000 105 106 111
3.239737e+000 -2.789831e+000 -5.082675e+000 103 107 112
3.239737e+000 -2.789831e+000 -5.082675e+000 103 107 112
3.235431e+000 -2.880888e+000 -5.203953e+000 50 54 60
3.014606e+000 -3.070064e+000 -5.296960e+000 125 128 133
2.967154e+000 -3.178933e+000 -5.340173e+000 108 111 118
2.792910e+000 -3.540710e+000 -5.570626e+000 119 122 129
2.527975e+000 -3.833580e+000 -5.776046e+000 113 114 119
2.527975e+000 -3.833580e+000 -5.776046e+000 113 114 119
3.326458e+000 -2.700625e+000 -5.115146e+000 55 58 63
3.190985e+000 -2.663133e+000 -5.219697e+000 114 117 122
3.234610e+000 -2.648718e+000 -5.225572e+000 114 117 122
2.994871e+000 -2.897027e+000 -5.299751e+000 127 130 137
2.914716e+000 -3.054948e+000 -5.331225e+000 61 64 71
2.844273e+000 -3.231944e+000 -5.380086e+000 50 53 60
2.764989e+000 -3.361993e+000 -5.523636e+000 132 135 142
2.615475e+000 -3.337356e+000 -5.606730e+000 124 127 134
