ply
format ascii 1.0
element face 0
property list uchar int vertex_indices
element vertex 885
property float x
property float y
property float z
property uchar diffuse_red
property uchar diffuse_green
property uchar diffuse_blue
end_header
9.417664e-001 -7.303667e-001 -5.784323e+000 200 202 193
1.000539e+000 -6.972023e-001 -5.835275e+000 60 44 36
2.538406e+000 -8.685609e-001 -5.929954e+000 52 50 55
2.902245e+000 -7.806629e-001 -5.748209e+000 41 39 44
3.102387e+000 -7.027215e-001 -5.571655e+000 48 46 51
2.989631e+000 -8.183815e-001 -5.612895e+000 38 36 41
2.595854e+000 -9.265832e-001 -5.867342e+000 61 60 65
2.817203e+000 -9.245549e-001 -5.708175e+000 42 40 45
2.887404e+000 -8.520500e-001 -5.662293e+000 40 38 43
2.914715e+000 -9.926308e-001 -5.660708e+000 43 40 47
-7.722436e-001 -7.463267e-001 -4.083691e+000 128 72 50
-1.871985e-001 -1.115275e+000 -4.755005e+000 111 53 34
-9.151938e-002 -1.101307e+000 -4.894564e+000 160 116 85
1.638964e+000 -1.497503e+000 -6.393604e+000 202 96 97
-3.672704e-003 -1.317003e+000 -4.959946e+000 219 128 83
1.722998e+000 -1.510980e+000 -6.288791e+000 205 90 97
1.417841e-001 3.086000e+000 -8.035083e+000 199 69 68
-3.726194e-001 2.778875e+000 -8.673233e+000 60 51 49
2.181782e-001 2.632682e+000 -7.917259e+000 211 202 188
2.292475e+000 2.041672e+000 -6.032387e+000 199 83 83
-7.179963e-001 2.156657e+000 -8.611819e+000 55 50 57
4.729129e-001 1.778530e+000 -7.078790e+000 189 191 180
2.507686e+000 1.321260e+000 -5.941828e+000 74 73 82
2.842360e+000 1.050897e+000 -5.969365e+000 59 56 63
8.014258e-002 5.902275e-001 -6.676025e+000 224 226 213
3.161017e-001 4.260425e-001 -6.171706e+000 189 190 176
2.792676e+000 4.077784e-001 -5.877633e+000 58 57 62
-4.373580e-001 -1.764132e-002 -5.120873e+000 211 214 199
-4.373580e-001 -1.764132e-002 -5.120873e+000 211 214 199
-4.545873e-001 -2.553972e-001 -4.569709e+000 213 182 141
-2.874204e-001 -2.011938e-001 -4.627018e+000 204 185 143
1.055590e-002 -2.829688e-001 -4.602287e+000 174 77 69
4.390820e-001 -3.689880e-001 -4.714761e+000 147 149 138
8.218876e-001 -4.867389e-001 -5.576881e+000 111 102 94
2.354297e+000 -7.490601e-001 -5.956907e+000 187 80 77
3.121860e+000 -7.708905e-001 -5.554482e+000 86 85 91
-1.290840e+000 -6.553533e-001 -3.966610e+000 77 33 28
7.780564e-001 -8.684398e-001 -5.698893e+000 89 80 74
1.508683e+000 -1.157421e+000 -6.182711e+000 179 142 108
-1.223382e+000 -9.135119e-001 -4.107936e+000 89 34 22
-4.308141e-002 -9.934849e-001 -4.621583e+000 141 81 51
-8.663317e-001 -9.721234e-001 -3.968635e+000 65 27 14
-7.500370e-002 -1.178560e+000 -4.942745e+000 70 31 29
1.248318e+000 -1.544823e+000 -6.283175e+000 152 142 132
-8.386213e-001 -1.107802e+000 -4.075488e+000 41 32 35
1.253195e+000 -1.831006e+000 -6.350673e+000 189 181 170
2.299092e+000 2.505275e+000 -5.909431e+000 43 31 36
2.557340e+000 2.590539e+000 -6.153565e+000 43 33 42
3.908509e-001 2.997273e+000 -7.643771e+000 187 76 72
-2.933690e-002 3.197741e+000 -8.492158e+000 42 53 56
1.791890e+000 2.263130e+000 -6.201644e+000 207 200 182
-1.611685e-001 2.782007e+000 -8.351845e+000 189 70 66
9.363412e-001 1.538627e+000 -6.437314e+000 212 212 201
9.708727e-001 1.592113e+000 -6.683067e+000 212 212 201
1.365383e+000 1.555353e+000 -6.257183e+000 150 142 100
-3.412124e-001 1.926826e+000 -8.431998e+000 209 215 201
-7.135511e-001 1.044809e+000 -8.547164e+000 199 201 188
-2.460475e-002 8.704699e-001 -7.213960e+000 235 241 229
-3.142802e-001 7.384721e-001 -8.121031e+000 186 184 172
1.696367e-001 -3.886585e-001 -4.611343e+000 182 79 68
1.275373e+000 -5.024610e-001 -5.853468e+000 101 66 53
1.108462e+000 -6.832304e-001 -5.836231e+000 64 32 27
1.626966e+000 -6.001194e-001 -6.206714e+000 73 50 37
1.299848e+000 -7.793142e-001 -6.070116e+000 52 36 34
-1.522958e+000 -6.007136e-001 -4.045094e+000 36 31 31
-5.025314e-001 -7.152847e-001 -4.257756e+000 102 59 35
-1.491199e+000 -7.274419e-001 -3.962715e+000 46 33 26
4.515558e-001 -9.663727e-001 -5.054431e+000 82 65 54
1.197618e+000 -1.038411e+000 -5.831309e+000 163 161 152
-1.264949e+000 -9.091754e-001 -3.973622e+000 41 41 39
-1.264949e+000 -9.091754e-001 -3.973622e+000 41 41 39
1.437689e+000 -2.036605e+000 -6.544679e+000 178 172 160
7.237875e-001 2.942297e+000 -7.298821e+000 203 88 91
2.133367e-001 2.863491e+000 -7.909391e+000 184 70 65
7.549271e-001 2.060327e+000 -6.867900e+000 235 235 226
3.659363e-001 1.919741e+000 -7.512174e+000 230 230 218
2.357019e+000 1.568540e+000 -5.964686e+000 190 92 86
1.109841e-001 1.692875e+000 -7.568398e+000 243 248 241
2.403297e-001 1.255221e+000 -6.962755e+000 194 194 182
1.091969e+000 1.099726e+000 -6.369262e+000 230 235 228
9.526723e-001 5.784272e-001 -5.787955e+000 93 91 69
9.526723e-001 5.784272e-001 -5.787955e+000 93 91 69
1.039522e-001 -1.162240e-001 -4.821327e+000 181 187 177
3.855403e-001 -1.921111e-001 -4.927829e+000 111 107 99
-1.155904e-001 -3.531321e-001 -4.648799e+000 213 175 130
-1.017054e-001 -3.544722e-001 -4.671571e+000 213 175 130
1.424510e+000 -5.350754e-001 -5.978334e+000 174 146 115
1.390392e+000 -8.515087e-001 -5.986689e+000 224 191 150
1.724476e+000 -7.777658e-001 -6.243527e+000 70 32 33
3.046176e+000 -8.784096e-001 -5.595773e+000 65 62 69
-1.149802e+000 -8.638056e-001 -3.967626e+000 124 73 69
-9.182104e-002 -1.550128e+000 -5.049805e+000 81 36 31
-2.342808e-001 3.466691e+000 -9.009129e+000 83 82 88
1.069483e+000 2.629742e+000 -6.599844e+000 126 117 78
-9.903321e-002 1.880480e+000 -8.019686e+000 184 181 165
-5.629808e-001 8.615016e-001 -8.391912e+000 224 226 213
1.079341e+000 5.482616e-001 -5.545218e+000 230 233 223
5.996980e-001 -1.187442e-001 -5.324006e+000 203 208 201
1.222154e+000 -1.690559e-001 -5.654921e+000 152 149 142
-5.876955e-001 -4.560377e-001 -4.562822e+000 157 83 48
7.811222e-001 -9.439392e-001 -5.643986e+000 87 73 65
-3.544053e-001 -9.964163e-001 -4.548203e+000 117 56 29
-1.251144e-001 -1.211846e+000 -4.883864e+000 65 26 22
1.552985e-001 -1.340489e+000 -5.082122e+000 74 36 28
2.740480e+000 2.373069e+000 -5.810848e+000 202 85 88
2.749306e+000 2.137310e+000 -5.768680e+000 33 24 29
-1.721783e-001 8.998622e-001 -7.802971e+000 236 241 234
2.883085e-002 3.146251e-001 -6.352797e+000 181 182 168
5.127698e-001 -2.859080e-001 -5.152910e+000 85 78 72
5.289327e-001 -3.101044e-001 -5.435356e+000 85 78 72
-1.937644e-001 -5.411967e-001 -4.624758e+000 110 61 39
3.988598e-003 -5.462124e-001 -4.679275e+000 216 179 137
1.125315e+000 -1.215301e+000 -6.005729e+000 90 68 54
5.300440e-002 -3.083370e+000 -7.435475e+000 27 14 20
1.525037e+000 2.657301e+000 -6.566664e+000 227 221 202
1.997227e+000 -5.958780e-002 -5.904171e+000 66 37 39
2.858708e+000 -2.907977e-001 -5.515979e+000 131 116 75
-8.905210e-001 -5.008026e-001 -4.365969e+000 100 64 45
3.649293e-001 -7.228811e-001 -4.775428e+000 58 33 26
-1.090233e+000 -7.420091e-001 -3.975439e+000 227 135 90
-1.489947e-001 8.184417e-002 -4.938649e+000 218 219 211
-4.101342e-001 -3.742984e-001 -4.611457e+000 223 180 135
2.542451e+000 -3.980222e-001 -5.780418e+000 194 179 124
7.055423e-001 -6.071430e-001 -5.536969e+000 43 32 35
7.147028e-001 -6.322791e-001 -5.726600e+000 43 32 35
3.282310e+000 1.733787e+000 -6.509989e+000 98 97 103
1.262682e+000 1.338319e+000 -6.017449e+000 127 118 84
1.592154e+000 -3.167553e-001 -5.903690e+000 58 46 38
5.776423e-002 -9.070156e-001 -4.851036e+000 231 195 145
-1.766752e-001 -1.406451e+000 -5.286483e+000 96 41 30
6.220650e-001 -1.891947e+000 -6.789952e+000 56 21 23
-1.108124e+000 -6.868934e-001 -4.057573e+000 191 98 57
2.033006e+000 8.648283e-001 -5.862752e+000 219 218 210
-7.589828e-001 2.514560e+000 -9.107631e+000 69 65 72
1.362863e+000 2.317221e+000 -6.155478e+000 155 142 105
-1.008335e+000 2.237454e+000 -9.267578e+000 57 55 59
2.517044e+000 2.468726e+000 -5.939356e+000 48 35 38
1.039660e+000 2.011675e+000 -6.443418e+000 157 148 105
1.331343e+000 2.016732e+000 -6.277127e+000 198 188 135
-3.513299e+000 1.048996e+000 -1.101864e+001 63 62 67
-3.499610e+000 9.880407e-001 -1.107927e+001 62 61 66
-3.488390e+000 8.908609e-001 -1.109200e+001 68 67 72
-3.469895e+000 8.882421e-001 -1.103984e+001 68 67 72
-3.367075e+000 9.518901e-001 -1.096314e+001 57 56 62
2.720048e+000 1.805828e+000 -6.086965e+000 53 49 58
1.150087e+000 1.380935e+000 -6.198058e+000 136 125 93
1.422478e+000 1.488957e+000 -6.211995e+000 214 207 162
2.547162e+000 1.581118e+000 -6.090704e+000 128 126 134
2.673993e+000 1.656790e+000 -6.074587e+000 65 64 70
1.164032e+000 1.190559e+000 -6.608937e+000 205 207 193
2.517909e+000 1.511116e+000 -6.144908e+000 90 90 98
2.514749e+000 1.484588e+000 -6.082100e+000 61 59 66
2.704716e+000 1.503604e+000 -6.079324e+000 79 76 83
2.529833e+000 1.387196e+000 -6.037944e+000 59 58 63
2.602205e+000 1.297096e+000 -5.980070e+000 62 59 67
2.637937e+000 1.274791e+000 -6.016950e+000 101 98 103
2.850270e+000 1.266043e+000 -5.920457e+000 45 42 49
-5.009315e-001 6.734150e-002 -4.963949e+000 153 79 46
-5.943216e-001 -2.577274e-002 -5.038362e+000 212 135 92
-1.431670e-001 -4.874680e-002 -5.716693e+000 214 218 203
5.986033e-001 1.741679e-001 -5.665977e+000 207 211 200
2.719153e+000 5.680464e-001 -6.026467e+000 57 53 60
2.777724e+000 5.621336e-001 -5.882806e+000 51 50 55
2.777724e+000 5.621336e-001 -5.882806e+000 51 50 55
2.930710e+000 5.100566e-001 -5.814843e+000 61 60 65
2.930710e+000 5.100566e-001 -5.814843e+000 61 60 65
-3.806925e-001 -1.331862e-001 -4.589905e+000 150 122 110
2.664142e+000 1.970428e-001 -5.890339e+000 73 71 74
2.827822e+000 3.142564e-001 -5.801336e+000 70 69 74
2.952286e+000 3.456699e-001 -5.755431e+000 60 59 64
1.208161e+000 -2.674229e-001 -5.700727e+000 166 166 156
-1.412790e+000 -5.861369e-001 -4.051163e+000 158 136 87
-1.334932e+000 -5.198863e-001 -4.097575e+000 106 61 52
-9.511079e-001 -5.622341e-001 -4.020088e+000 144 73 53
-7.198160e-001 -6.731619e-001 -4.160084e+000 79 61 61
-3.064430e-001 -8.200470e-001 -4.751039e+000 146 101 67
2.715975e+000 -7.384523e-001 -5.886333e+000 65 60 62
-7.638583e-001 -8.809923e-001 -4.041312e+000 102 35 10
-4.471731e-001 -1.040644e+000 -4.467908e+000 133 60 27
9.352946e-001 -1.753291e+000 -6.714020e+000 108 92 76
1.611741e+000 -1.171219e+000 -6.102628e+000 199 160 115
3.075410e+000 -7.396635e-001 -5.631028e+000 52 47 51
-1.478226e-001 -1.276657e+000 -4.780172e+000 127 56 30
2.786264e+000 -1.057305e+000 -5.728518e+000 33 28 32
1.594917e+000 2.520998e+000 -6.393070e+000 207 197 179
-3.262872e+000 6.371265e-001 -1.096276e+001 54 53 58
2.807682e-001 1.239294e+000 -6.904551e+000 211 212 197
2.715559e+000 1.767920e+000 -6.039513e+000 111 106 113
2.648962e+000 1.671038e+000 -6.105204e+000 134 132 137
2.648962e+000 1.671038e+000 -6.105204e+000 134 132 137
2.627608e+000 1.586781e+000 -6.065989e+000 157 156 162
2.628108e+000 1.449673e+000 -6.055074e+000 120 117 124
2.648249e+000 1.450095e+000 -6.007218e+000 54 51 58
2.715493e+000 1.553591e+000 -6.136504e+000 66 63 70
2.748751e+000 1.586219e+000 -6.006434e+000 59 58 64
2.866347e+000 1.618994e+000 -6.031240e+000 56 53 60
2.733024e+000 1.341261e+000 -5.996853e+000 49 47 52
1.489113e-001 5.939763e-001 -6.700255e+000 234 238 224
4.764956e-001 4.157379e-001 -6.563380e+000 203 213 203
6.372586e-001 5.696749e-001 -6.529018e+000 213 217 203
1.831497e+000 8.639799e-001 -6.146828e+000 224 224 214
1.880675e+000 8.300862e-001 -5.808327e+000 213 213 201
2.839724e+000 1.126793e+000 -6.004399e+000 82 77 83
-4.667649e-001 1.218414e-001 -5.085012e+000 156 96 68
1.428162e+000 5.826137e-001 -5.156020e+000 217 222 215
2.779420e+000 7.529172e-001 -5.893083e+000 75 74 78
3.004593e+000 8.219401e-001 -5.942569e+000 40 38 43
-6.317573e-001 -2.220799e-001 -4.974246e+000 220 119 66
-3.014701e-001 -4.491765e-002 -4.603358e+000 170 79 79
3.492722e-001 -4.861318e-002 -5.178483e+000 205 212 204
2.849214e+000 4.650837e-001 -5.877036e+000 66 65 70
-5.423592e-001 -2.762011e-001 -4.762348e+000 185 95 59
-4.558440e-001 -1.942769e-001 -4.534455e+000 174 144 114
-3.120614e-001 -1.109905e-001 -4.540302e+000 88 74 63
-3.120614e-001 -1.109905e-001 -4.540302e+000 88 74 63
2.762913e+000 2.298951e-001 -5.863972e+000 65 63 66
7.352283e-001 -3.063611e-001 -5.425542e+000 177 178 170
2.676034e+000 6.312364e-002 -5.796107e+000 133 118 87
-1.421516e+000 -5.659384e-001 -4.044867e+000 102 82 33
-6.114721e-001 -4.517724e-001 -4.505234e+000 175 93 54
1.194728e+000 -3.527648e-001 -5.675215e+000 162 162 151
-1.401793e+000 -6.102878e-001 -4.065026e+000 117 94 44
-1.394206e+000 -6.028328e-001 -4.045504e+000 117 94 44
-7.551458e-001 -5.244005e-001 -4.298649e+000 208 188 164
1.468575e+000 -6.708696e-001 -6.056496e+000 164 124 82
-1.430518e+000 -6.976422e-001 -3.979290e+000 148 127 77
-1.053362e+000 -7.272169e-001 -3.945078e+000 224 132 89
-9.417740e-001 -7.244772e-001 -3.958636e+000 183 97 62
1.676452e+000 -1.260486e+000 -6.193729e+000 210 172 129
2.584074e+000 -8.771096e-001 -5.915016e+000 65 60 64
2.712496e+000 -8.259073e-001 -5.980164e+000 59 54 58
3.045753e+000 -6.438201e-001 -5.582723e+000 32 27 31
3.045753e+000 -6.438201e-001 -5.582723e+000 32 27 31
-7.105164e-001 -9.588810e-001 -4.104914e+000 91 42 19
6.215567e-002 -1.147697e+000 -4.883836e+000 177 122 89
1.739470e+000 -1.403843e+000 -6.222763e+000 191 130 106
2.283824e+000 -1.398073e+000 -6.231506e+000 43 18 18
2.754734e+000 -1.067052e+000 -5.883841e+000 52 47 51
1.679380e+000 2.228480e+000 -6.203886e+000 203 197 184
2.622346e+000 1.631320e+000 -6.093722e+000 63 57 63
2.696240e+000 1.707793e+000 -6.043380e+000 160 156 162
2.817502e+000 1.683877e+000 -6.037251e+000 60 57 64
-3.977070e-001 8.591642e-001 -8.238278e+000 221 222 207
2.688063e+000 1.525133e+000 -5.985861e+000 158 155 162
2.688063e+000 1.525133e+000 -5.985861e+000 158 155 162
2.740330e+000 1.476842e+000 -6.025760e+000 56 53 60
2.624199e+000 1.348740e+000 -6.066620e+000 128 125 134
2.779157e+000 1.386728e+000 -6.083127e+000 52 49 55
2.761797e+000 1.383770e+000 -6.046709e+000 52 49 55
2.751285e+000 1.430229e+000 -6.008840e+000 115 112 120
2.745496e+000 1.428797e+000 -5.994976e+000 115 112 120
2.825394e+000 1.417913e+000 -6.048402e+000 52 49 56
2.693929e+000 1.357156e+000 -5.996958e+000 111 109 114
8.315046e-001 7.738256e-001 -6.564380e+000 237 239 225
1.380769e+000 8.608502e-001 -6.038569e+000 229 231 214
2.738326e+000 1.256858e+000 -6.051205e+000 108 107 113
2.672051e+000 1.233271e+000 -5.808251e+000 53 50 57
3.344153e-001 4.904320e-001 -6.327415e+000 213 216 205
2.833982e+000 1.020467e+000 -5.961734e+000 49 46 55
-2.208020e+000 -7.294708e-001 -1.039524e+001 24 19 21
-2.319143e+000 -8.244884e-001 -1.059197e+001 59 57 60
-6.037479e-001 -1.523028e-001 -4.939975e+000 210 113 62
-1.824057e-001 -1.837417e-002 -4.753809e+000 185 184 172
4.946173e-001 -2.719118e-002 -5.344143e+000 194 204 195
-3.428821e-001 -1.377596e-001 -4.577544e+000 168 155 131
-1.984850e-001 -1.605978e-001 -4.568544e+000 182 137 104
-1.952794e-001 -1.565721e-001 -4.532032e+000 182 137 104
2.481007e-001 -1.564158e-001 -4.791499e+000 161 166 156
2.572267e+000 2.516950e-001 -5.889490e+000 50 48 53
2.911563e+000 2.839289e-001 -5.890556e+000 40 38 45
-7.685603e-001 -3.998375e-001 -4.661667e+000 196 111 66
-6.173778e-001 -4.205153e-001 -4.635671e+000 217 120 75
-8.661379e-001 -4.507790e-001 -4.222005e+000 85 42 24
5.901718e-001 -4.181244e-001 -5.448946e+000 122 116 104
-1.363488e+000 -5.939918e-001 -4.046129e+000 154 126 79
-1.295832e+000 -5.585838e-001 -4.008507e+000 119 67 57
-6.483432e-001 -5.299298e-001 -4.190759e+000 219 181 132
8.311769e-001 -8.509699e-001 -5.643626e+000 153 149 137
1.632320e+000 -7.964304e-001 -6.171310e+000 183 140 108
1.552659e+000 -7.967789e-001 -6.054354e+000 143 95 59
1.689540e+000 -8.369448e-001 -6.147188e+000 146 56 45
1.915528e+000 -7.958649e-001 -6.336882e+000 188 78 76
2.038015e+000 -7.512918e-001 -6.140074e+000 192 79 76
-1.458051e+000 -7.839948e-001 -3.887017e+000 142 121 67
-9.616082e-001 -7.812851e-001 -3.938538e+000 210 118 77
-9.104081e-001 -7.859110e-001 -3.945771e+000 192 104 64
-8.311957e-001 -9.243385e-001 -4.008279e+000 149 76 47
1.636836e+000 -1.121027e+000 -6.013311e+000 214 178 132
1.629689e+000 -1.273182e+000 -6.183431e+000 165 122 84
2.738836e+000 -9.039713e-001 -5.931904e+000 44 39 43
-8.679642e-001 -9.575994e-001 -3.908119e+000 92 39 25
3.094256e+000 -7.546868e-001 -5.542857e+000 63 58 62
-2.080494e-001 -1.382486e+000 -4.803658e+000 134 67 41
2.006783e+000 1.513501e+000 -5.721311e+000 136 61 57
2.487857e+000 1.572489e+000 -6.072187e+000 58 41 43
1.192674e+000 1.208190e+000 -6.548745e+000 234 233 213
2.717383e+000 1.588520e+000 -6.142260e+000 58 57 63
2.711381e+000 1.304971e+000 -6.068053e+000 55 50 57
2.804411e+000 1.449168e+000 -5.969580e+000 50 47 55
7.076123e-001 7.902176e-001 -6.515951e+000 232 235 222
3.198891e-001 4.355041e-001 -6.140259e+000 196 200 184
2.754737e+000 1.103982e+000 -5.937329e+000 54 53 59
2.968195e+000 1.052973e+000 -5.992368e+000 42 39 46
-3.540290e+000 -1.286469e+000 -1.114248e+001 54 52 57
1.858303e-001 1.101891e-001 -5.697120e+000 200 207 199
2.554711e-002 4.337109e-002 -5.661488e+000 202 208 204
5.077012e-001 1.197758e-001 -5.534338e+000 202 209 197
-3.831719e-001 -1.111204e-001 -4.664312e+000 116 49 49
-4.593969e-001 -2.121370e-001 -4.538266e+000 196 173 128
-2.806312e-001 -1.711759e-001 -4.491351e+000 202 184 142
-6.675375e-001 -4.411893e-001 -4.648863e+000 154 68 32
2.365126e+000 -9.406614e-002 -5.792802e+000 214 199 149
-1.542737e+000 -5.245579e-001 -4.102935e+000 141 119 71
-1.495746e+000 -5.734572e-001 -4.062771e+000 147 127 77
-8.403888e-001 -4.859177e-001 -4.242177e+000 119 93 70
-8.397383e-001 -4.251205e-001 -4.366215e+000 171 135 108
-5.283879e-001 -4.536778e-001 -4.622192e+000 214 169 122
-5.109233e-001 -4.736899e-001 -4.529601e+000 154 89 48
-1.144429e-002 -3.344810e-001 -4.645680e+000 216 171 128
1.621355e+000 -6.729048e-001 -6.117867e+000 182 148 107
-1.255298e+000 -6.724496e-001 -3.986148e+000 117 63 55
9.758250e-001 -7.174747e-001 -5.602976e+000 182 179 164
1.846998e+000 -8.612188e-001 -6.202462e+000 194 76 69
3.203042e+000 -6.237366e-001 -5.629573e+000 32 30 33
1.649869e+000 -1.399589e+000 -6.204998e+000 176 91 78
1.792132e+000 -1.424115e+000 -6.250106e+000 152 71 61
7.762952e-001 2.326921e+000 -7.028718e+000 238 238 226
2.331209e-002 1.056084e+000 -7.658293e+000 219 221 208
2.524410e+000 1.404597e+000 -5.944630e+000 61 60 64
2.675616e+000 1.418415e+000 -6.039101e+000 55 53 58
-1.408672e+000 -6.107943e-003 -9.193216e+000 219 212 201
-6.225698e-001 3.936777e-001 -8.472278e+000 229 233 221
-1.766306e+000 -3.260646e-001 -9.558416e+000 179 61 57
3.601578e-001 5.466290e-001 -6.525256e+000 195 201 189
-1.156406e-001 1.648663e-001 -6.004389e+000 195 200 193
1.392888e+000 5.197020e-001 -5.650255e+000 193 196 189
-1.579607e+000 -5.208531e-001 -4.077375e+000 163 146 90
-1.647564e+000 -7.198954e-001 -3.938588e+000 36 23 23
-2.949861e-001 -5.868531e-001 -4.584928e+000 142 80 48
8.978450e-001 -6.835363e-001 -5.847127e+000 85 76 69
9.189430e-001 -6.730079e-001 -5.816193e+000 85 76 69
9.436176e-001 -7.443990e-001 -5.819522e+000 201 199 187
1.590599e+000 -5.942408e-001 -6.112230e+000 81 55 32
-9.665660e-001 -6.521010e-001 -3.997084e+000 112 42 21
2.268459e+000 -6.745012e-001 -5.982997e+000 105 77 47
-1.310421e+000 -8.309742e-001 -3.936663e+000 151 120 74
-6.433707e-001 -8.251677e-001 -4.193428e+000 125 58 33
1.565175e+000 -1.285860e+000 -6.178551e+000 219 191 141
-6.867841e-002 -4.026817e+000 -7.995111e+000 169 51 49
-7.123185e-002 -3.944589e+000 -7.860739e+000 169 51 49
-3.404954e-001 1.914558e+000 -8.384172e+000 216 210 199
1.103847e+000 1.953541e+000 -6.410612e+000 213 201 143
2.441521e+000 1.934072e+000 -5.739898e+000 175 67 68
-1.351233e+000 2.437499e-001 -9.137022e+000 217 217 202
2.195621e-001 7.298118e-001 -6.707287e+000 238 241 230
1.195976e+000 1.103683e+000 -6.266080e+000 129 117 85
2.831503e-001 -8.875632e-002 -5.041804e+000 157 163 156
-1.864616e-001 -2.842509e-001 -4.579226e+000 159 115 79
-8.475431e-001 -5.483258e-001 -4.227776e+000 123 67 42
2.653959e+000 -2.788631e-001 -5.744994e+000 150 133 80
-1.266326e+000 -7.818329e-001 -3.952640e+000 69 22 14
2.503970e+000 -6.650154e-001 -5.826709e+000 38 30 28
3.271366e+000 -6.896813e-001 -5.664419e+000 51 47 53
-8.694822e-001 -9.625670e-001 -3.996370e+000 86 33 23
1.844971e+000 -1.344179e+000 -6.112239e+000 197 159 115
1.625695e-002 -3.805063e+000 -7.846326e+000 18 15 12
9.905560e-001 2.458007e+000 -6.097074e+000 134 120 83
1.299606e+000 1.667268e+000 -6.119767e+000 162 153 103
2.408064e-001 1.259714e+000 -7.001110e+000 180 179 167
2.212615e+000 -2.672022e-002 -5.974975e+000 195 82 81
-3.109949e-002 -7.145573e-001 -4.815065e+000 185 146 102
2.998790e+000 -1.762610e-001 -5.208880e+000 118 99 62
1.149157e+000 -1.199529e+000 -5.988226e+000 116 103 87
-1.337389e-001 -1.196168e+000 -4.818050e+000 60 19 19
-4.202935e-001 7.998032e-002 -5.267540e+000 102 59 47
-2.014744e-001 -1.163775e-001 -4.508720e+000 169 88 83
1.113948e+000 -1.912718e-002 -5.552778e+000 211 216 209
-9.331796e-001 -5.734639e-001 -4.065048e+000 125 57 36
-3.569797e-001 -1.003634e+000 -4.578644e+000 137 62 35
-7.711912e-001 -9.998035e-001 -3.938526e+000 36 24 30
7.042414e-002 -3.803342e+000 -8.044647e+000 23 12 15
-1.053854e-001 8.739160e-001 -6.754952e+000 235 237 226
-8.277468e-001 -8.606806e-001 -4.006510e+000 174 90 59
2.879851e-002 3.317305e-001 -6.132284e+000 174 176 165
1.823061e+000 -1.805237e+000 -6.201298e+000 35 28 34
1.219771e+000 1.702149e+000 -6.528593e+000 124 115 79
-4.158597e-001 -3.718407e-001 -4.588511e+000 229 187 135
2.319552e+000 -2.682310e-001 -5.850597e+000 108 87 57
-1.123284e+000 -5.387347e-001 -4.064468e+000 230 138 86
6.956801e-001 -6.164654e-001 -5.651352e+000 51 40 38
2.266935e+000 -6.107744e-001 -5.350149e+000 49 42 49
-7.536517e-001 -8.841099e-002 -5.055398e+000 223 221 209
-1.377806e+000 -3.998425e-001 -4.251767e+000 42 38 37
-1.033575e+000 -7.347124e-001 -3.864185e+000 222 122 63
-4.095053e-001 -8.653698e-001 -4.655778e+000 132 70 42
-4.095053e-001 -8.653698e-001 -4.655778e+000 132 70 42
-1.588672e-001 -1.389898e+000 -5.228865e+000 61 18 23
2.705046e+000 -2.640879e-001 -5.913825e+000 166 149 94
1.119250e+000 2.301656e+000 -6.206674e+000 112 103 70
1.119250e+000 2.301656e+000 -6.206674e+000 112 103 70
1.502943e+000 -2.062861e+000 -6.636038e+000 205 201 190
-1.092657e+000 -6.922059e-001 -4.075915e+000 184 87 42
2.008522e+000 8.387522e-001 -5.800960e+000 223 221 209
1.854398e+000 2.216147e+000 -6.161533e+000 229 226 214
-3.992277e-001 3.135021e+000 -8.994387e+000 72 71 76
2.863267e+000 1.669326e+000 -5.963981e+000 111 110 115
2.689479e+000 1.465411e+000 -6.018791e+000 128 127 133
2.632301e+000 1.273072e+000 -6.003645e+000 124 125 129
2.593025e+000 4.000269e-001 -5.970516e+000 67 69 71
5.019613e-001 -2.806228e-002 -5.229573e+000 191 197 187
4.872543e-001 -8.113238e-002 -5.231999e+000 182 187 180
3.300093e+000 -5.267899e-001 -5.515084e+000 102 102 106
3.134966e+000 -5.845895e-001 -5.593736e+000 55 52 56
2.874987e+000 -7.380956e-001 -5.754389e+000 71 69 74
2.874987e+000 -7.380956e-001 -5.754389e+000 71 69 74
3.021515e+000 -7.754294e-001 -5.589012e+000 42 40 45
3.022180e+000 -8.089039e-001 -5.620679e+000 55 54 59
1.730710e+000 -1.245791e+000 -6.069210e+000 181 145 100
2.089392e+000 -1.437666e+000 -6.066200e+000 129 44 50
-7.482015e-001 -9.270101e-001 -4.053151e+000 81 35 22
2.731873e+000 1.673387e+000 -6.027642e+000 56 57 61
2.823326e+000 1.752883e+000 -6.063476e+000 95 96 100
2.927178e+000 1.613231e+000 -5.929385e+000 143 143 150
2.886665e+000 1.599034e+000 -5.927492e+000 62 61 67
2.701225e+000 1.357891e+000 -6.012384e+000 146 147 152
2.840843e+000 1.270159e+000 -5.976507e+000 130 131 136
2.867886e+000 1.343313e+000 -5.929298e+000 50 51 56
2.908893e+000 1.317284e+000 -5.956657e+000 107 109 114
2.676886e+000 1.265565e+000 -6.016046e+000 70 71 75
2.949973e+000 7.522335e-001 -5.864006e+000 46 45 51
3.124564e+000 7.098407e-001 -5.836138e+000 45 44 50
2.541466e+000 3.891827e-001 -5.992386e+000 51 40 44
2.699284e+000 4.215179e-001 -5.927464e+000 55 55 63
2.757944e+000 3.641398e-001 -5.901133e+000 59 60 65
1.821550e+000 4.170799e-001 -5.960849e+000 229 232 225
1.762553e-001 1.751769e-001 -5.824655e+000 223 226 217
7.478017e-001 -2.179323e-001 -5.382937e+000 147 148 142
7.478017e-001 -2.179323e-001 -5.382937e+000 147 148 142
1.252593e+000 -2.596050e-001 -5.642610e+000 168 164 155
1.251977e+000 -2.713056e-001 -5.710613e+000 168 164 155
2.371102e+000 -7.140283e-001 -5.938743e+000 149 75 68
1.242134e-001 -5.720139e-001 -4.554146e+000 188 142 106
2.831269e+000 1.571740e+000 -6.016174e+000 62 61 66
2.866156e+000 1.574568e+000 -5.969327e+000 163 162 167
2.659271e+000 1.369004e+000 -6.028411e+000 65 66 71
2.837592e+000 1.326131e+000 -5.964955e+000 54 55 60
2.717196e+000 1.253150e+000 -6.005471e+000 147 152 155
2.776497e+000 -8.738597e-001 -5.796298e+000 41 40 45
1.882613e+000 -9.465267e-001 -6.149821e+000 123 39 33
-9.116174e-001 -5.119118e-001 -4.072795e+000 137 73 56
2.671035e+000 1.414525e+000 -6.026117e+000 60 59 65
1.048984e+000 -1.330848e-001 -5.585648e+000 154 155 149
2.324122e+000 -6.840843e-001 -5.964306e+000 100 59 41
-4.317904e-001 2.626836e+000 -8.449268e+000 67 61 66
1.099503e+000 1.951425e+000 -6.414582e+000 180 171 120
2.671496e+000 -4.803008e-001 -5.646385e+000 121 106 66
2.150941e+000 2.430307e+000 -5.838334e+000 234 233 225
-4.928549e-001 1.892522e+000 -8.395662e+000 195 79 78
-1.010513e+000 8.732123e-001 -8.998853e+000 209 210 197
2.317605e+000 -7.732465e-001 -5.933293e+000 190 78 77
2.562557e+000 2.083661e+000 -5.826249e+000 191 87 80
2.282873e+000 1.889052e+000 -5.654049e+000 190 77 78
-9.971508e-002 -2.225912e-001 -4.576697e+000 148 81 66
1.844167e+000 1.407939e+000 -5.848498e+000 234 234 226
-2.244853e-002 1.140938e+000 -7.771860e+000 216 217 204
1.462559e-001 5.945836e-001 -6.658679e+000 230 233 224
-1.285283e+000 -3.932402e-001 -4.139634e+000 83 48 46
-1.307615e+000 -6.287815e-001 -3.957685e+000 96 47 38
-1.402179e+000 -7.094233e-001 -3.987572e+000 105 86 41
-1.469031e+000 -7.934724e-001 -3.911719e+000 131 111 65
2.200784e+000 -1.736827e+000 -6.743286e+000 156 54 60
2.677984e+000 6.060850e-001 -5.982253e+000 56 54 60
2.546108e+000 4.324967e-001 -5.901391e+000 67 68 71
2.853371e+000 4.651150e-001 -5.885848e+000 71 70 75
-5.059471e-001 -6.380700e-002 -5.220314e+000 98 70 59
-1.276436e-002 -5.518837e-002 -4.739832e+000 180 187 172
-1.569440e+000 -4.927173e-001 -4.113877e+000 128 106 57
-8.634403e-001 -4.787845e-001 -4.193866e+000 107 67 51
-7.905846e-001 -4.736522e-001 -4.189903e+000 57 47 46
-1.408080e+000 -6.528796e-001 -3.993935e+000 164 143 99
-1.387845e+000 -6.526047e-001 -4.015730e+000 110 93 52
-1.368008e+000 -6.880805e-001 -3.991205e+000 106 88 42
-1.368008e+000 -6.880805e-001 -3.991205e+000 106 88 42
-1.197419e+000 -7.405974e-001 -3.906755e+000 114 60 52
1.095846e+000 -1.867249e+000 -7.295298e+000 101 83 65
-2.128207e-001 -1.555938e+000 -4.966876e+000 87 39 27
-8.798364e-001 1.999916e+000 -8.988422e+000 55 45 43
7.709677e-001 -6.792778e-002 -5.468621e+000 198 203 196
-1.504656e+000 -5.323147e-001 -4.066911e+000 125 104 61
-1.353216e+000 -6.509944e-001 -4.013498e+000 167 136 96
-1.529435e-001 -1.095928e+000 -4.827581e+000 77 39 20
2.918762e+000 1.524236e+000 -6.030489e+000 54 53 59
-5.137656e-001 1.183636e+000 -8.497475e+000 201 201 189
2.933111e+000 3.824084e-001 -5.879294e+000 66 64 69
-1.256994e+000 -9.195703e-001 -3.966883e+000 32 30 31
-6.191218e-001 -3.305112e-001 -4.835124e+000 207 124 79
2.928701e+000 1.704167e+000 -6.264186e+000 97 96 102
-1.174181e+000 3.404361e+000 -9.545489e+000 70 68 73
-3.515689e-001 3.330736e+000 -9.062925e+000 96 95 101
-4.951920e-001 3.139457e+000 -9.019775e+000 86 88 92
-4.983839e-001 2.964520e+000 -9.027216e+000 67 62 68
2.716123e+000 1.527780e+000 -5.957491e+000 57 56 62
2.570709e+000 4.249178e-001 -5.957617e+000 73 68 75
2.979933e-001 -1.280922e-001 -4.894999e+000 164 169 161
-1.720682e-001 -1.540720e-001 -4.565161e+000 155 73 61
2.465642e+000 -3.928443e-001 -5.762745e+000 172 156 105
-1.594010e+000 -4.536619e-001 -4.114980e+000 123 108 76
-1.299393e+000 -3.973766e-001 -4.171847e+000 93 54 58
-1.440842e+000 -6.983084e-001 -3.984926e+000 147 132 90
-1.425046e+000 -6.661862e-001 -4.042109e+000 167 149 101
2.569808e+000 -9.715963e-001 -5.873149e+000 88 85 90
-1.215312e+000 -7.639354e-001 -3.975080e+000 124 69 67
-1.288618e+000 -8.050768e-001 -3.956703e+000 92 51 38
2.607170e+000 -1.144623e+000 -5.769242e+000 44 39 43
1.851926e+000 -1.391188e+000 -6.108884e+000 180 127 106
2.644707e+000 -1.294960e+000 -5.742313e+000 37 32 38
1.620739e+000 -1.543015e+000 -6.495640e+000 165 90 89
-3.339475e-001 3.247920e+000 -8.983909e+000 66 65 71
2.970438e+000 1.034537e+000 -5.911310e+000 75 74 80
2.919204e+000 7.844452e-001 -5.949599e+000 49 49 54
2.919204e+000 7.844452e-001 -5.949599e+000 49 49 54
2.947800e+000 6.498032e-001 -5.854856e+000 48 47 52
3.026456e+000 5.531182e-001 -5.876465e+000 45 44 49
3.037147e+000 5.094561e-001 -5.826972e+000 63 62 67
1.801449e+000 4.209983e-001 -5.755726e+000 214 216 205
2.480382e-001 -1.640573e-001 -4.849290e+000 155 160 153
-1.240453e+000 -4.146338e-001 -4.162833e+000 102 51 42
-8.014587e-001 -5.401377e-001 -4.213916e+000 144 107 73
1.393191e+000 -7.643019e-001 -5.986636e+000 181 141 103
2.108488e+000 -7.503895e-001 -6.175173e+000 178 75 75
3.059243e+000 -8.091683e-001 -5.491085e+000 45 43 48
3.140665e+000 -7.074280e-001 -5.473463e+000 52 50 57
1.620855e+000 -1.164704e+000 -6.084291e+000 170 129 85
-1.340595e+000 -8.747803e-001 -3.994720e+000 59 45 32
1.988343e+000 -1.382501e+000 -6.172451e+000 171 60 59
2.556380e+000 -1.252028e+000 -5.746977e+000 38 33 39
2.608876e+000 -1.204653e+000 -5.687455e+000 40 35 41
-3.063894e-001 -1.192084e+000 -4.729278e+000 92 35 22
1.304802e+000 -1.723522e+000 -6.683674e+000 166 157 143
1.309242e+000 2.819188e+000 -6.538578e+000 196 167 121
3.019557e+000 1.242804e+000 -5.951385e+000 46 45 51
3.641768e-001 1.334229e+000 -6.802709e+000 225 230 220
5.610173e-001 4.318867e-001 -6.351255e+000 236 242 232
2.749884e+000 5.070521e-001 -5.929909e+000 54 51 59
2.767492e+000 5.113513e-001 -5.970119e+000 54 51 59
3.027383e+000 4.696520e-001 -5.728062e+000 44 41 41
4.062080e-001 -1.168058e-001 -5.118496e+000 185 190 184
1.151977e+000 -4.000712e-001 -5.639358e+000 156 157 149
1.330578e+000 -8.348000e-001 -6.035111e+000 207 173 143
-9.740413e-001 -8.206636e-001 -3.984027e+000 169 86 44
-8.549880e-002 2.927550e+000 -8.371469e+000 178 67 62
2.647861e+000 1.503207e+000 -6.063780e+000 64 63 71
-9.444460e-001 -9.470809e-001 -3.945209e+000 90 39 34
1.455290e+000 1.501820e+000 -6.241584e+000 253 254 212
-8.944559e-001 -1.016084e+000 -3.943546e+000 155 87 47
-8.944559e-001 -1.016084e+000 -3.943546e+000 155 87 47
2.535112e+000 -1.935058e-001 -5.679161e+000 237 226 169
1.225553e-001 2.720928e+000 -8.000731e+000 179 65 61
-1.033203e+000 3.374157e+000 -9.490515e+000 62 61 66
2.112604e+000 1.626121e+000 -5.782103e+000 112 49 52
-3.882023e-001 -7.965098e-001 -4.303906e+000 74 31 26
-3.882023e-001 -7.965098e-001 -4.303906e+000 74 31 26
6.449838e-001 2.601977e+000 -7.415548e+000 226 223 212
-8.643178e-001 2.229167e+000 -8.772574e+000 51 49 54
7.993274e-001 2.488320e+000 -6.468101e+000 229 223 211
-8.711860e-001 4.055551e+000 -9.113152e+000 76 75 81
-8.323572e-001 4.047074e+000 -9.153168e+000 53 54 59
-8.323572e-001 4.047074e+000 -9.153168e+000 53 54 59
-8.227625e-001 3.867083e+000 -9.077957e+000 62 61 66
-5.635059e-001 3.843289e+000 -9.160139e+000 56 55 61
-2.037233e-001 3.639415e+000 -9.200921e+000 81 80 86
-2.777577e-001 3.281806e+000 -9.069036e+000 94 92 98
-4.408187e-001 3.112923e+000 -9.091921e+000 91 90 95
2.958054e+000 1.672643e+000 -5.908284e+000 63 63 69
3.104873e+000 1.603162e+000 -5.867075e+000 59 58 64
2.837238e+000 1.507055e+000 -5.981033e+000 146 145 150
3.192587e+000 1.402958e+000 -5.911623e+000 81 80 85
3.241498e+000 1.408074e+000 -5.820223e+000 52 49 56
3.327027e+000 1.415880e+000 -5.810566e+000 82 81 86
3.656112e+000 1.338380e+000 -5.754258e+000 41 39 44
3.907333e+000 1.269948e+000 -5.699107e+000 48 44 51
2.696398e+000 1.470479e+000 -6.040146e+000 128 127 133
3.143426e+000 1.366582e+000 -5.975969e+000 46 45 51
3.133951e+000 1.319748e+000 -5.892341e+000 59 57 64
3.119431e+000 1.228785e+000 -5.898928e+000 77 76 82
3.192619e+000 1.231987e+000 -5.857641e+000 76 75 81
3.192619e+000 1.231987e+000 -5.857641e+000 76 75 81
3.400573e+000 1.308739e+000 -5.754188e+000 39 37 40
3.457811e+000 1.318657e+000 -5.742534e+000 67 64 71
3.607717e+000 1.279254e+000 -5.676604e+000 62 60 65
3.607717e+000 1.279254e+000 -5.676604e+000 62 60 65
3.934576e+000 1.215524e+000 -5.620119e+000 48 43 49
2.815305e+000 9.364218e-001 -5.926794e+000 61 62 66
2.839471e+000 9.321254e-001 -5.908686e+000 90 90 98
2.988039e+000 1.045762e+000 -5.954512e+000 80 79 85
3.379679e+000 8.971328e-001 -5.791396e+000 55 54 59
1.649897e+000 9.728142e-001 -5.950898e+000 212 218 208
2.942590e+000 8.361378e-001 -5.886269e+000 73 74 79
2.874478e+000 7.495487e-001 -5.839372e+000 61 62 67
3.235764e+000 7.387286e-001 -5.832770e+000 63 62 68
3.235764e+000 7.387286e-001 -5.832770e+000 63 62 68
3.386623e+000 6.663569e-001 -5.789214e+000 53 52 57
3.520975e+000 7.328004e-001 -5.767560e+000 47 44 51
2.670140e+000 6.073118e-001 -5.983667e+000 65 65 69
2.708987e+000 5.947720e-001 -6.000226e+000 56 57 59
3.002565e+000 6.791642e-001 -5.819756e+000 49 50 54
2.934271e+000 6.122019e-001 -5.934006e+000 49 50 54
3.007976e+000 6.074359e-001 -5.826304e+000 63 63 67
3.088367e+000 6.438667e-001 -5.812731e+000 60 58 63
3.088367e+000 6.438667e-001 -5.812731e+000 60 58 63
2.686790e+000 4.877953e-001 -5.936630e+000 55 58 63
2.770618e+000 5.216322e-001 -5.864438e+000 100 104 107
2.944047e+000 4.999677e-001 -5.852850e+000 79 78 83
2.823930e+000 3.552806e-001 -5.885959e+000 52 55 57
2.939319e+000 4.015465e-001 -5.816680e+000 66 65 70
3.016958e+000 4.296729e-001 -5.821182e+000 72 71 79
3.016958e+000 4.296729e-001 -5.821182e+000 72 71 79
3.028334e+000 4.147758e-001 -5.773454e+000 45 43 54
2.554078e+000 3.476410e-001 -5.987047e+000 66 64 70
2.618780e+000 2.225726e-001 -6.032388e+000 57 55 62
2.710347e+000 2.962807e-001 -5.885051e+000 52 53 57
2.724413e+000 2.689519e-001 -5.948764e+000 103 104 108
2.556614e+000 8.660808e-002 -6.022282e+000 76 69 76
-3.112446e+000 5.366299e-001 -1.072388e+001 57 56 61
-5.190999e-001 8.278029e-002 -5.229805e+000 132 70 46
-5.209573e-001 1.764836e-002 -5.033671e+000 172 87 57
6.273481e-001 -7.830835e-002 -5.372256e+000 214 220 213
6.370148e-001 -1.209507e-001 -5.351737e+000 169 175 168
6.859965e-001 -1.438024e-001 -5.367470e+000 180 184 177
-5.190249e-001 -5.350023e-002 -5.186895e+000 80 42 28
3.088119e+000 -5.416648e-001 -5.606026e+000 46 44 47
3.397086e+000 -4.453328e-001 -5.434344e+000 43 40 47
-9.530044e-001 -2.577114e-001 -4.281444e+000 106 71 70
2.662462e+000 -6.789594e-001 -5.907610e+000 63 60 64
2.832389e+000 -6.639054e-001 -5.814893e+000 50 42 53
3.221672e+000 -6.139184e-001 -5.539107e+000 60 61 65
3.128831e+000 -7.272062e-001 -5.551754e+000 55 54 60
3.185275e+000 -6.824721e-001 -5.505812e+000 99 98 106
-8.253491e-001 -3.932950e-001 -4.445199e+000 137 85 66
9.552176e-001 -6.065927e-001 -5.727572e+000 124 121 112
2.440943e+000 -7.560344e-001 -5.993501e+000 75 79 77
2.455931e+000 -7.591538e-001 -6.036318e+000 75 79 77
2.710769e+000 -7.389043e-001 -5.883682e+000 94 93 98
2.688849e+000 -7.786074e-001 -5.850386e+000 47 46 51
2.980951e+000 -7.368742e-001 -5.631820e+000 53 51 56
3.071247e+000 -7.952457e-001 -5.593379e+000 46 44 49
3.157384e+000 -7.690934e-001 -5.658735e+000 95 94 99
-1.273493e+000 -4.349279e-001 -4.128100e+000 113 66 60
2.487037e+000 -8.763848e-001 -5.938474e+000 83 82 85
2.684915e+000 -9.593912e-001 -5.881657e+000 45 44 49
2.661305e+000 -9.924188e-001 -5.847273e+000 43 42 47
2.713958e+000 -1.035389e+000 -5.797866e+000 62 60 65
3.027156e+000 -9.246494e-001 -5.496068e+000 29 27 32
2.941174e+000 -1.039214e+000 -5.568962e+000 31 29 34
-1.575231e+000 -5.282734e-001 -4.065280e+000 171 157 111
2.677030e+000 -1.201328e+000 -5.763560e+000 53 51 56
-1.010118e+000 -6.392276e-001 -4.044563e+000 139 70 47
-3.644568e-001 -1.092170e+000 -4.556293e+000 118 58 47
7.348946e-002 -1.182265e+000 -4.806036e+000 170 70 62
1.364104e+000 2.820453e+000 -6.575963e+000 175 90 79
-9.337693e-001 4.115174e+000 -9.375650e+000 56 55 62
-8.543139e-001 4.004513e+000 -9.208068e+000 89 88 94
-6.351557e-001 3.910177e+000 -9.256207e+000 47 46 52
-9.248335e-001 3.321273e+000 -9.318944e+000 73 72 77
2.772231e+000 1.751441e+000 -6.083769e+000 53 52 57
2.945800e+000 1.625468e+000 -5.971906e+000 143 143 150
3.117805e+000 1.674815e+000 -5.918278e+000 54 49 56
3.270086e+000 1.567060e+000 -5.868331e+000 52 53 58
3.037456e+000 1.575520e+000 -5.907485e+000 147 146 152
3.115203e+000 1.571797e+000 -5.903946e+000 143 142 148
3.129972e+000 1.539098e+000 -5.841491e+000 57 55 60
3.187044e+000 1.456858e+000 -5.828021e+000 58 57 63
3.217149e+000 1.383163e+000 -5.801620e+000 45 41 48
3.217149e+000 1.383163e+000 -5.801620e+000 45 41 48
2.755334e+000 1.435714e+000 -6.021914e+000 160 161 165
2.703811e+000 1.356887e+000 -6.019465e+000 146 147 152
2.791000e+000 1.409097e+000 -5.972854e+000 60 63 68
2.869035e+000 1.419065e+000 -5.950039e+000 57 56 62
2.903520e+000 1.312988e+000 -5.946020e+000 107 109 114
2.984421e+000 1.405458e+000 -5.909774e+000 115 116 121
3.003416e+000 1.289646e+000 -5.862070e+000 48 47 53
3.301362e+000 1.208043e+000 -5.790621e+000 58 56 61
3.537692e+000 1.324217e+000 -5.823924e+000 37 35 40
3.552922e+000 1.258820e+000 -5.653044e+000 36 34 39
3.638367e+000 1.248813e+000 -5.681223e+000 32 30 35
4.299285e-001 1.868443e+000 -7.389246e+000 213 214 202
2.887317e+000 1.187072e+000 -5.940785e+000 105 106 111
2.842783e+000 1.087325e+000 -5.911449e+000 56 57 62
2.842783e+000 1.087325e+000 -5.911449e+000 56 57 62
3.012070e+000 1.160546e+000 -5.906842e+000 84 83 88
2.977337e+000 1.126448e+000 -5.922987e+000 49 50 54
3.132886e+000 1.188589e+000 -5.906957e+000 44 43 48
3.195781e+000 1.141698e+000 -5.907916e+000 42 41 46
3.167406e+000 1.127652e+000 -5.846947e+000 42 41 46
3.207213e+000 1.123139e+000 -5.828303e+000 64 62 67
3.288165e+000 1.076361e+000 -5.824078e+000 63 62 67
3.499419e+000 8.295658e-001 -5.781391e+000 37 35 40
3.123897e+000 7.110617e-001 -5.837928e+000 45 44 50
3.418983e+000 7.330098e-001 -5.790504e+000 35 34 39
3.418983e+000 7.330098e-001 -5.790504e+000 35 34 39
2.943773e+000 5.520550e-001 -5.856808e+000 49 50 54
3.140079e+000 6.315199e-001 -5.846485e+000 41 39 44
3.140079e+000 6.315199e-001 -5.846485e+000 41 39 44
2.809506e+000 4.829119e-001 -5.959752e+000 99 103 106
2.673241e+000 4.135228e-001 -5.856124e+000 55 55 63
2.736498e+000 3.994078e-001 -5.935046e+000 106 107 111
2.757678e+000 3.609850e-001 -5.907599e+000 59 60 65
3.091946e+000 4.171159e-001 -5.759572e+000 61 58 54
2.949989e+000 2.990216e-001 -5.799715e+000 62 57 49
2.837510e+000 2.290114e-001 -5.924615e+000 50 49 49
3.128854e+000 -9.432998e-002 -4.987835e+000 133 120 82
3.685092e-001 -1.416536e-001 -4.985142e+000 116 116 108
4.609754e-001 -1.956426e-001 -5.104807e+000 125 123 116
5.450574e-001 -2.242247e-001 -5.243347e+000 141 140 132
3.156381e+000 -5.152718e-001 -5.441470e+000 37 35 40
3.301662e+000 -5.180179e-001 -5.588267e+000 47 46 51
2.712680e+000 -6.939059e-001 -5.872199e+000 43 41 49
2.801741e+000 -6.559244e-001 -5.857140e+000 101 96 102
2.935161e+000 -6.244460e-001 -5.940405e+000 45 43 46
2.920598e+000 -5.933975e-001 -5.785423e+000 85 83 86
3.049372e+000 -6.456242e-001 -5.581823e+000 32 30 35
-7.918718e-001 -4.140106e-001 -4.461728e+000 109 51 31
-5.885559e-001 -4.221824e-001 -4.573823e+000 213 119 75
1.351154e-001 -4.372442e-001 -4.632892e+000 210 179 143
1.351154e-001 -4.372442e-001 -4.632892e+000 210 179 143
2.519601e+000 -8.534626e-001 -5.952727e+000 49 47 48
2.672674e+000 -7.263716e-001 -5.886104e+000 47 46 51
2.915498e+000 -7.268905e-001 -5.566793e+000 34 33 38
4.758437e-001 -6.060076e-001 -4.678375e+000 80 67 59
1.820649e+000 -8.505691e-001 -6.103932e+000 188 75 72
2.660585e+000 -9.193734e-001 -5.860001e+000 93 92 97
2.740448e+000 -1.046228e+000 -5.775451e+000 43 41 46
2.879370e+000 -1.038291e+000 -5.630680e+000 76 74 79
2.696045e+000 -1.184639e+000 -5.726985e+000 39 37 42
-9.831096e-001 -6.864989e-001 -4.005393e+000 149 74 55
-7.565442e-001 -7.385137e-001 -4.094113e+000 125 68 61
-7.102434e-001 -7.440572e-001 -4.158536e+000 53 30 28
-6.480776e-001 -7.634477e-001 -4.165294e+000 139 91 56
4.032080e-001 -9.343975e-001 -4.943678e+000 85 76 65
-1.591689e+000 -7.144921e-001 -3.944230e+000 205 184 126
-1.563656e+000 -7.088069e-001 -3.968877e+000 171 148 95
-1.039926e+000 -7.517040e-001 -3.929178e+000 204 113 68
-9.489864e-001 -8.787627e-001 -3.930275e+000 160 77 32
-9.602293e-001 -9.106744e-001 -3.980130e+000 156 86 56
-8.777402e-001 -9.300417e-001 -3.908448e+000 106 59 51
1.759767e-001 -1.206868e+000 -4.987410e+000 164 129 123
-2.370211e-001 -1.601232e+000 -5.019031e+000 219 202 192
3.597661e-002 3.792751e+000 -8.948578e+000 92 81 90
3.840296e-001 3.343461e+000 -7.717058e+000 174 64 70
8.722725e-001 2.949199e+000 -7.046025e+000 171 81 80
1.709318e+000 2.594943e+000 -6.328897e+000 194 187 174
2.832761e+000 1.822129e+000 -6.112173e+000 52 51 56
3.026038e+000 1.624297e+000 -5.968561e+000 62 63 68
2.735560e+000 1.480990e+000 -6.020264e+000 56 58 61
2.986597e+000 1.508168e+000 -5.930457e+000 143 142 148
3.099450e+000 1.466185e+000 -5.896110e+000 113 114 119
3.379378e+000 1.441975e+000 -5.823309e+000 50 49 55
3.432056e+000 1.363490e+000 -5.750957e+000 47 45 51
3.780382e+000 1.285183e+000 -5.596097e+000 34 29 36
3.907987e+000 1.249492e+000 -5.627953e+000 93 89 96
3.907987e+000 1.249492e+000 -5.627953e+000 93 89 96
2.337702e+000 1.458219e+000 -5.876363e+000 168 66 77
2.744284e+000 1.244273e+000 -5.923843e+000 57 58 63
2.877701e+000 1.235539e+000 -6.010286e+000 52 53 58
3.210150e+000 1.182461e+000 -5.852849e+000 38 37 42
3.350580e+000 1.178545e+000 -5.867853e+000 35 33 38
3.363769e+000 1.072255e+000 -5.766373e+000 35 33 38
2.908746e+000 1.079399e+000 -5.992636e+000 94 92 95
2.882006e+000 9.334697e-001 -5.885398e+000 51 50 56
3.165679e+000 9.244334e-001 -5.821339e+000 40 39 44
3.230832e+000 8.392832e-001 -5.815743e+000 39 38 44
3.542697e+000 9.195382e-001 -5.854961e+000 33 31 36
1.202222e+000 1.020505e+000 -6.215617e+000 195 192 143
1.714535e+000 9.547645e-001 -5.878317e+000 230 236 226
2.920591e+000 8.563447e-001 -5.929665e+000 53 54 59
2.777762e+000 6.928322e-001 -5.878898e+000 58 57 62
2.973093e+000 4.519616e-001 -5.818297e+000 45 44 43
2.610489e+000 3.487290e-001 -6.021633e+000 52 51 57
6.170672e-001 2.999581e-001 -6.059176e+000 221 225 219
2.642849e+000 1.535071e-001 -5.963029e+000 53 57 54
3.206916e+000 -5.677150e-002 -5.053563e+000 236 223 169
3.208823e+000 -5.742188e-002 -5.056683e+000 236 223 169
2.280092e+000 -1.421968e-001 -5.986017e+000 89 68 48
3.156884e+000 -5.855867e-001 -5.531437e+000 36 35 40
3.300229e+000 -6.484386e-001 -5.512083e+000 26 24 29
2.623794e+000 -7.337133e-001 -5.965223e+000 98 98 101
2.612613e+000 -7.712157e-001 -5.834145e+000 45 44 49
2.622288e+000 -7.732356e-001 -5.860352e+000 45 44 49
2.762600e+000 -1.177252e+000 -5.684399e+000 40 38 43
1.467495e+000 2.872032e+000 -6.670296e+000 200 75 79
1.010806e-001 3.810695e+000 -8.817756e+000 29 28 24
2.900065e+000 1.521517e+000 -5.989263e+000 57 56 62
3.053720e+000 1.417285e+000 -5.909136e+000 49 49 55
3.158756e+000 1.446007e+000 -5.881802e+000 50 51 55
2.815708e+000 1.451426e+000 -5.990424e+000 54 56 61
3.066774e+000 1.273865e+000 -5.839208e+000 40 42 47
3.318969e+000 1.365116e+000 -5.846827e+000 39 38 42
3.003661e+000 1.229690e+000 -5.928178e+000 48 49 53
3.300629e+000 1.004181e+000 -5.768698e+000 36 34 39
3.295222e+000 1.001505e+000 -5.756670e+000 36 34 39
3.447301e+000 1.159768e+000 -5.856657e+000 29 27 32
2.827804e+000 2.439232e-001 -5.701481e+000 51 49 53
-5.773390e-001 -6.691559e-002 -5.123830e+000 121 48 26
-1.296478e+000 -6.837818e-001 -3.978486e+000 66 21 17
5.537821e-001 3.197875e-001 -6.102302e+000 177 179 164
5.537821e-001 3.197875e-001 -6.102302e+000 177 179 164
-6.615715e-001 -4.253036e-001 -4.469566e+000 183 107 72
1.348591e+000 -8.449714e-001 -6.024186e+000 216 188 142
-1.928799e-001 -8.313365e-001 -4.652319e+000 137 95 64
-2.130558e-001 -8.936171e-001 -4.566716e+000 178 102 66
1.889154e+000 -1.703043e+000 -6.197511e+000 38 27 30
-3.779313e-002 4.019911e+000 -9.053710e+000 61 56 60
2.430739e-002 2.941010e+000 -8.132274e+000 191 75 69
2.969058e-001 1.427649e+000 -6.946050e+000 235 238 227
3.072679e+000 3.284092e-001 -5.650176e+000 122 112 76
-6.791713e-001 -3.695349e-001 -4.659735e+000 207 122 69
-3.794917e-001 -7.195116e-001 -4.590051e+000 100 59 39
-6.215505e-002 -2.972716e+000 -7.582712e+000 207 202 193
3.302765e+000 2.586897e-001 -5.441568e+000 47 45 50
-1.192191e+000 -9.945618e-001 -4.142156e+000 158 86 49
7.854428e-001 3.217665e+000 -7.284327e+000 195 89 94
7.987605e-001 3.258235e+000 -7.374080e+000 195 89 94
6.294333e-001 1.346832e-001 -5.622947e+000 221 225 216
-7.048880e-001 -4.782977e-001 -4.429077e+000 211 181 131
5.632463e-001 3.245156e+000 -7.464600e+000 204 91 90
2.893631e+000 4.386182e-001 -5.199727e+000 42 41 48
1.745236e-001 -1.381701e+000 -5.299558e+000 79 46 37
-8.271785e-001 3.958874e+000 -9.211408e+000 67 66 72
-8.294360e-001 4.011602e+000 -9.334609e+000 67 66 72
1.568414e+000 -9.554611e-001 -6.159652e+000 224 190 145
2.621383e+000 -8.661866e-001 -5.821409e+000 88 87 93
5.579623e-001 2.931596e-003 -5.362575e+000 200 206 196
1.072826e+000 -8.861613e-001 -5.825123e+000 197 199 192
1.186379e+000 2.300604e+000 -6.452880e+000 97 91 62
1.184317e+000 2.282460e+000 -6.411143e+000 97 91 62
-1.317336e+000 -3.637609e-001 -4.083424e+000 33 27 29
2.286134e+000 1.632296e+000 -5.670883e+000 90 39 44
2.639617e+000 3.589202e-001 -6.086783e+000 52 51 59
-1.127854e+000 -6.994477e-001 -4.147933e+000 191 103 66
-1.127854e+000 -6.994477e-001 -4.147933e+000 191 103 66
-1.291820e+000 5.639629e-001 -5.270833e+000 35 29 31
2.370295e-001 1.439298e+000 -7.010148e+000 221 224 215
2.370295e-001 1.439298e+000 -7.010148e+000 221 224 215
2.628248e+000 9.300233e-001 -5.529186e+000 64 65 67
2.963560e+000 9.359885e-001 -5.909847e+000 70 69 75
3.124190e+000 7.805044e-001 -5.834839e+000 61 60 65
3.153220e+000 6.963744e-001 -5.830545e+000 64 63 69
2.834003e+000 -1.130003e+000 -5.631591e+000 79 77 82
3.025840e+000 9.318521e-001 -5.889847e+000 48 47 53
3.025840e+000 9.318521e-001 -5.889847e+000 48 47 53
2.913418e+000 6.812031e-001 -5.838998e+000 76 75 80
2.929888e+000 6.228041e-001 -5.819196e+000 47 48 52
2.657000e+000 -8.406711e-001 -5.905126e+000 48 47 53
2.610469e+000 -1.245394e+000 -5.785837e+000 52 50 53
-3.677124e-001 -1.164600e+000 -4.610635e+000 153 83 53
3.095018e+000 3.523287e-001 -5.417756e+000 138 125 79
-2.879883e-001 2.202413e+000 -8.163519e+000 224 214 210
2.834601e+000 1.604424e+000 -5.967605e+000 68 69 74
3.262507e+000 1.500200e+000 -5.805891e+000 60 59 65
3.205956e+000 1.468995e+000 -5.788442e+000 117 116 122
3.205956e+000 1.468995e+000 -5.788442e+000 117 116 122
3.166554e+000 1.387224e+000 -5.861051e+000 91 90 96
3.393494e+000 1.050537e+000 -5.754902e+000 58 56 61
3.472497e+000 9.358544e-001 -5.797731e+000 58 56 61
3.472497e+000 9.358544e-001 -5.797731e+000 58 56 61
3.364543e+000 8.541352e-001 -5.820285e+000 60 59 62
3.364543e+000 8.541352e-001 -5.820285e+000 60 59 62
2.815251e+000 6.315887e-001 -5.886166e+000 103 105 110
2.756812e+000 5.134187e-001 -5.832229e+000 105 109 112
1.230524e+000 -2.497933e-001 -5.570814e+000 142 138 130
2.580838e+000 -5.067029e-001 -5.636277e+000 143 126 82
3.070671e+000 -6.601027e-001 -5.570740e+000 51 49 53
2.725369e+000 -7.399467e-001 -5.824457e+000 54 54 56
2.863551e+000 -7.089613e-001 -5.768285e+000 43 41 46
7.337825e-001 -4.953442e-001 -5.598643e+000 83 74 67
2.479442e+000 -7.815136e-001 -6.007590e+000 55 55 55
2.573837e+000 -7.758441e-001 -5.931144e+000 51 50 55
2.579628e+000 -8.479752e-001 -5.955589e+000 56 55 60
2.886697e+000 -8.814554e-001 -5.546941e+000 38 38 40
2.581907e+000 -1.094803e+000 -5.884730e+000 45 43 48
2.673914e+000 -1.060131e+000 -5.793101e+000 43 41 46
1.488019e+000 -1.188808e+000 -6.147977e+000 167 133 105
-8.985520e-001 -1.113844e+000 -4.045641e+000 87 44 24
-1.809398e-001 -1.434603e+000 -4.774246e+000 97 40 27
2.921154e+000 -2.312502e+000 -5.442896e+000 28 22 26
