ply
format ascii 1.0
element face 0
property list uchar int vertex_indices
element vertex 884
property float x
property float y
property float z
property uchar diffuse_red
property uchar diffuse_green
property uchar diffuse_blue
end_header
1.579205e-001 -3.475887e+000 -7.806037e+000 53 49 51
1.793306e-001 -3.651875e+000 -7.942344e+000 38 28 36
3.101718e+000 -1.874802e+000 -5.216400e+000 46 43 50
1.321203e+000 -1.194955e-001 -5.842982e+000 142 139 130
1.300605e+000 -2.611812e-001 -5.804978e+000 147 141 135
2.377979e+000 -1.863665e+000 -5.893697e+000 50 49 54
-5.465329e-001 -1.198232e+000 -4.577421e+000 115 64 45
-4.443389e-001 -1.200440e+000 -7.235933e+000 239 243 234
1.032932e-002 -1.676117e+000 -7.190306e+000 86 70 60
3.206773e-001 -3.277554e+000 -7.902051e+000 46 41 47
5.518077e-001 -3.534106e+000 -7.569108e+000 43 38 42
-5.948795e-001 -2.748184e+000 -8.134148e+000 177 163 150
-5.948795e-001 -2.748184e+000 -8.134148e+000 177 163 150
5.537042e-001 -3.998654e+000 -7.743383e+000 35 32 38
4.857543e-001 -4.048320e+000 -7.495279e+000 68 63 69
1.371076e+000 5.473848e-001 -5.698382e+000 195 196 189
1.610964e+000 -1.262243e+000 -6.146759e+000 70 30 17
-3.596198e-001 -1.316283e+000 -4.666561e+000 110 49 29
-1.041063e+000 1.571742e+000 -8.923458e+000 85 24 23
1.392231e+000 -2.574957e+000 -6.772261e+000 43 41 42
-5.169965e-001 -8.547426e-001 -7.888274e+000 239 246 238
-6.813462e-001 -1.873506e+000 -8.318418e+000 187 185 170
-1.004824e+000 9.229244e-001 -8.994805e+000 209 209 193
-1.186295e-002 -1.117115e+000 -4.821783e+000 132 90 63
-9.293037e-002 -3.637075e+000 -7.778932e+000 197 77 86
-9.931700e-001 -1.091495e+000 -4.093579e+000 75 28 20
-1.120253e+000 -6.986570e-001 -4.008510e+000 219 137 89
2.406136e+000 -2.154310e+000 -6.411402e+000 58 57 63
1.532583e+000 8.295145e-001 -5.795009e+000 220 219 207
2.296821e+000 -4.718159e-001 -5.996019e+000 237 227 168
2.536739e+000 -1.320737e+000 -5.833143e+000 92 91 96
2.529909e+000 -1.324644e+000 -5.826445e+000 92 91 96
2.559974e+000 -1.724430e+000 -5.900508e+000 50 48 54
2.278573e+000 -1.399763e+000 -5.992040e+000 63 64 68
2.389878e+000 -1.638745e+000 -5.868053e+000 62 63 68
2.474595e+000 -1.696542e+000 -5.872747e+000 113 113 118
1.730946e+000 -1.068191e+000 -5.922352e+000 185 86 73
2.366756e+000 -2.066724e+000 -5.900334e+000 37 36 41
2.159933e+000 -1.849050e+000 -6.129425e+000 107 108 113
2.130327e+000 -2.261789e+000 -6.168038e+000 97 98 103
1.912869e+000 -2.379159e+000 -6.325950e+000 34 35 39
2.036123e+000 -2.684423e+000 -6.230937e+000 30 29 35
1.931265e+000 -2.640429e+000 -6.342581e+000 61 60 65
1.767488e+000 -2.595915e+000 -6.448084e+000 45 43 48
1.564213e+000 -2.533680e+000 -6.704107e+000 50 48 53
-7.316168e-001 1.303661e+000 -8.636829e+000 210 203 193
2.211277e+000 -1.521293e+000 -6.088854e+000 76 76 80
2.406456e+000 -2.047531e+000 -5.983583e+000 41 40 45
2.383947e+000 -2.002733e+000 -6.038897e+000 50 47 54
1.084229e-001 -8.198553e-001 -4.802354e+000 183 131 81
2.226626e+000 -2.134907e+000 -6.045837e+000 54 55 60
9.499647e-001 -7.442904e-001 -5.737761e+000 110 50 48
7.839286e-001 -8.911210e-001 -5.579616e+000 157 148 137
2.109764e+000 -1.946504e+000 -6.134107e+000 31 32 37
2.154298e+000 -2.276934e+000 -6.079653e+000 46 46 54
2.154298e+000 -2.276934e+000 -6.079653e+000 46 46 54
-9.756249e-001 -9.562647e-001 -3.989677e+000 112 45 27
2.106401e+000 -2.572140e+000 -6.211871e+000 35 32 39
1.749890e+000 -2.578441e+000 -6.537949e+000 48 46 51
1.785500e+000 -2.653818e+000 -6.520902e+000 47 46 51
1.785500e+000 -2.653818e+000 -6.520902e+000 47 46 51
1.642464e+000 -2.438654e+000 -6.664751e+000 55 53 57
1.639357e+000 -2.939372e+000 -6.710079e+000 39 34 38
-5.764262e-001 -1.223150e+000 -7.727378e+000 214 217 208
-5.764262e-001 -1.223150e+000 -7.727378e+000 214 217 208
3.033583e+000 -2.312941e+000 -5.216236e+000 110 109 115
3.033583e+000 -2.312941e+000 -5.216236e+000 110 109 115
2.904455e+000 -2.496886e+000 -5.316384e+000 36 35 41
2.628199e+000 -7.072698e-001 -6.040737e+000 48 47 50
2.683501e+000 -2.740550e+000 -5.466890e+000 28 26 31
-7.316470e-001 -9.998691e-001 -4.094138e+000 118 61 42
-2.072754e-001 -1.345992e+000 -4.807784e+000 138 74 48
3.221792e-001 -1.360818e+000 -5.261174e+000 99 89 80
1.857468e+000 -2.662520e+000 -6.383006e+000 30 27 33
1.857468e+000 -2.662520e+000 -6.383006e+000 30 27 33
9.526128e-001 -1.683532e+000 -6.548367e+000 110 101 88
-6.880634e-001 2.069118e+000 -8.656822e+000 187 67 66
-6.460117e-001 -1.334747e+000 -7.827646e+000 200 200 190
2.411511e+000 2.820182e-001 -5.827130e+000 179 70 70
8.186335e-001 -2.849918e-001 -5.180134e+000 155 157 143
8.568970e-003 -1.244731e+000 -4.923496e+000 115 41 33
1.302894e+000 -1.276197e+000 -6.299711e+000 117 109 96
2.204058e-001 -1.413964e+000 -5.370581e+000 70 34 26
-8.361331e-003 -3.897687e+000 -7.985917e+000 153 52 59
1.928297e+000 2.301712e+000 -6.105129e+000 212 206 194
2.530848e-001 -1.288455e+000 -5.123838e+000 102 93 84
-3.577807e-001 -1.498063e+000 -4.775513e+000 98 42 23
-7.455966e-001 1.597434e+000 -8.457259e+000 197 202 187
-7.540969e-001 1.526291e+000 -8.375199e+000 197 202 187
1.604404e+000 2.659300e+000 -6.208350e+000 123 44 36
1.762247e-001 -7.748987e-001 -4.807606e+000 165 113 73
-3.666998e-001 -5.345256e-001 -6.765336e+000 222 226 219
-6.577877e-001 1.200712e+000 -8.480852e+000 244 250 239
2.060518e+000 1.640116e+000 -5.707904e+000 137 53 50
-5.750845e-001 -8.715806e-001 -4.271329e+000 89 39 25
-4.158835e-001 -7.715685e-001 -4.457330e+000 97 40 27
1.836959e-001 -1.431347e+000 -6.578058e+000 90 76 66
-1.270491e+000 1.203611e-001 -8.870167e+000 201 199 186
-8.529512e-001 -2.253173e+000 -8.511779e+000 172 164 151
5.779342e-001 -1.328145e+000 -6.117802e+000 110 100 88
2.200219e+000 -1.682147e+000 -6.129667e+000 53 54 59
-3.272844e-001 -2.779081e-001 -7.387207e+000 215 218 209
2.855389e+000 -1.215761e+000 -5.630967e+000 39 39 44
2.871861e+000 -2.551047e+000 -5.416537e+000 98 95 104
2.694401e+000 -1.352066e+000 -5.720637e+000 112 113 118
2.285103e+000 -7.540600e-001 -5.940584e+000 195 89 91
2.502837e+000 -8.955888e-001 -5.919715e+000 48 47 52
2.493067e+000 -1.185459e+000 -5.912806e+000 63 62 67
2.469704e+000 -1.240155e+000 -5.900253e+000 96 95 102
2.496695e+000 -1.402039e+000 -5.870944e+000 95 94 99
2.570638e+000 -1.598656e+000 -5.762387e+000 48 45 52
2.481809e+000 -1.690475e+000 -5.879540e+000 113 113 118
2.517505e+000 -2.720928e+000 -5.809030e+000 51 48 55
2.093129e+000 -2.381862e+000 -6.184724e+000 98 99 104
1.961319e+000 -2.419730e+000 -6.248675e+000 42 40 47
1.918440e+000 -2.511474e+000 -6.301622e+000 83 81 86
1.977512e+000 -2.543783e+000 -6.252508e+000 34 33 38
1.853663e+000 -2.567445e+000 -6.368746e+000 55 53 58
1.810224e+000 -2.575133e+000 -6.399774e+000 62 60 65
1.654658e+000 -2.602864e+000 -6.549592e+000 49 47 52
1.536351e+000 -2.546754e+000 -6.661343e+000 50 48 53
-4.567331e-001 -4.075799e-001 -7.809565e+000 211 213 204
-2.142877e-001 -1.205802e+000 -7.225092e+000 191 194 187
-1.496059e+000 2.139034e+000 -9.770611e+000 57 57 62
-2.897701e-001 -1.495631e+000 -7.347074e+000 196 201 195
-3.684812e-001 -1.411470e+000 -7.520067e+000 200 200 190
-2.082186e-002 -1.840176e+000 -7.379945e+000 127 119 106
-1.670368e+000 2.253852e+000 -9.831279e+000 79 80 87
-1.725658e+000 2.211141e+000 -9.839546e+000 45 44 49
-1.790935e+000 2.021618e+000 -9.934935e+000 70 71 75
-5.401034e-001 -7.824341e-001 -8.101745e+000 208 211 204
-3.498797e-001 -1.479540e+000 -7.557849e+000 169 165 156
-4.916343e-001 -1.408256e+000 -7.679199e+000 208 210 199
-3.120076e-001 -1.826171e+000 -7.817909e+000 151 143 127
-7.807442e-001 -1.560812e+000 -8.038249e+000 131 121 108
5.066233e-001 -3.478711e+000 -7.784806e+000 51 46 52
-2.169598e+000 9.006233e-001 -1.037600e+001 39 34 39
3.570989e-001 -4.194788e+000 -7.796080e+000 44 37 44
1.731031e-001 -4.077835e+000 -7.884522e+000 52 47 54
2.176377e+000 2.481906e+000 -5.814567e+000 94 88 83
1.933540e+000 2.853976e+000 -6.025799e+000 207 75 77
2.906688e+000 -1.007957e+000 -5.586803e+000 85 86 91
2.858578e+000 -1.044321e+000 -5.596175e+000 48 49 54
2.895101e+000 -1.065046e+000 -5.594111e+000 50 50 58
2.840406e+000 -2.059903e+000 -5.564878e+000 28 26 29
2.913823e+000 -2.576292e+000 -5.433762e+000 37 36 44
2.584994e+000 -1.276594e+000 -5.810977e+000 47 46 52
2.611436e+000 -1.435121e+000 -5.786953e+000 138 139 143
2.435518e+000 -9.961248e-001 -5.954019e+000 57 53 57
2.507673e+000 -1.068827e+000 -5.961240e+000 107 106 111
2.540855e+000 -1.446857e+000 -5.825692e+000 104 105 109
2.517679e+000 -1.475392e+000 -5.889517e+000 121 120 125
2.312299e+000 -1.150143e+000 -6.008015e+000 55 41 44
2.372417e+000 -1.248426e+000 -5.937171e+000 62 55 59
2.062435e+000 -1.517135e+000 -6.205531e+000 157 66 70
2.181187e+000 -2.312625e+000 -6.084438e+000 40 40 48
2.071638e+000 -2.323774e+000 -6.136547e+000 42 42 48
2.127353e+000 -2.355698e+000 -6.126617e+000 43 42 48
2.378599e+000 -2.992719e+000 -5.901245e+000 23 18 24
1.862255e+000 -2.504585e+000 -6.344921e+000 60 59 64
1.020235e+000 -1.328611e+000 -6.530420e+000 96 86 74
1.041211e+000 -1.428795e+000 -6.545443e+000 98 89 74
1.043076e+000 -1.478529e+000 -6.558230e+000 103 95 82
1.038717e+000 -1.528227e+000 -6.579420e+000 109 100 88
9.282278e-001 -1.744549e+000 -6.610474e+000 98 87 75
1.674393e+000 -3.228045e+000 -6.538949e+000 38 33 41
1.674393e+000 -3.228045e+000 -6.538949e+000 38 33 41
8.565905e-001 -1.800463e+000 -6.882454e+000 77 58 52
-6.012708e-001 2.119284e+000 -8.630577e+000 175 57 49
-3.583384e-001 6.956177e-001 -8.260573e+000 186 188 177
-1.707646e-001 -1.631714e+000 -7.277852e+000 145 138 130
-6.497294e-001 -1.064141e+000 -7.878031e+000 219 222 213
-1.710276e-001 -1.828116e+000 -7.481560e+000 120 108 98
-1.620547e+000 7.230024e-001 -9.530148e+000 67 33 31
-2.054680e+000 1.385088e+000 -1.011724e+001 37 36 41
1.517312e-001 -4.108486e+000 -7.853017e+000 36 33 40
2.408209e+000 -9.188795e-001 -5.977318e+000 68 54 61
2.768434e+000 -2.587124e+000 -5.571726e+000 29 27 32
2.708695e+000 -2.754107e+000 -5.601996e+000 31 29 34
2.591442e+000 -2.671790e+000 -5.712141e+000 55 52 59
1.881396e+000 -9.400442e-001 -6.009213e+000 188 80 74
2.187415e+000 -1.379882e+000 -6.060759e+000 27 27 32
1.412502e+000 -1.095879e+000 -6.032907e+000 181 147 111
2.139554e+000 -2.480687e+000 -6.101516e+000 37 34 41
2.049392e+000 -2.525049e+000 -6.220325e+000 36 36 41
1.168467e+000 -1.309776e+000 -6.423730e+000 106 92 79
1.187911e+000 -1.295492e+000 -6.449315e+000 106 92 79
1.806603e+000 -2.453464e+000 -6.447643e+000 31 29 34
1.835544e+000 -2.442315e+000 -6.480358e+000 31 29 34
1.625622e+000 -2.688666e+000 -6.577321e+000 47 42 48
-3.464393e-001 -1.179905e+000 -7.356752e+000 233 238 231
5.552830e-002 -1.675891e+000 -7.131526e+000 95 86 76
-1.615939e+000 1.872944e+000 -9.961351e+000 29 27 32
-4.863392e-001 -1.491763e+000 -7.658460e+000 189 189 177
-1.754663e+000 1.616682e+000 -1.006717e+001 29 25 29
-1.046615e+000 -5.893953e-001 -8.854564e+000 228 225 211
-7.720919e-001 -1.511628e+000 -8.055579e+000 191 183 175
-5.238346e-001 -2.061589e+000 -8.086609e+000 185 182 165
1.893547e-001 -3.517436e+000 -7.929661e+000 41 32 36
2.241658e+000 2.941396e+000 -5.994344e+000 201 75 74
1.769602e+000 3.436959e+000 -6.384333e+000 53 40 40
1.443973e-001 -5.565448e-001 -4.629732e+000 155 114 71
-1.327761e+000 -8.539724e-001 -3.996315e+000 142 121 84
1.082989e+000 -1.515134e+000 -6.531380e+000 137 131 119
-6.695233e-001 2.409973e+000 -8.901464e+000 61 43 41
-4.092478e-001 3.073724e-001 -8.245583e+000 234 237 228
-2.481697e-001 -5.878191e-001 -7.472728e+000 165 161 151
-1.467640e+000 2.099073e+000 -9.829461e+000 30 29 34
-1.566246e+000 9.196801e-001 -9.506369e+000 41 30 32
-1.814454e+000 1.394499e+000 -1.000200e+001 29 27 30
5.503140e-001 -4.057249e+000 -7.748665e+000 56 52 58
-1.518126e+000 -1.393673e+000 -9.055037e+000 184 71 70
-5.381307e-001 2.462055e+000 -8.408270e+000 170 53 54
-5.781828e-001 2.257827e+000 -8.650270e+000 190 66 69
3.036814e-001 -1.805617e+000 -7.289093e+000 90 76 65
-1.473550e+000 1.045994e+000 -9.275481e+000 33 31 34
8.429940e-002 -1.367381e+000 -5.023099e+000 83 40 36
-4.174065e-001 -1.479431e+000 -4.813381e+000 123 65 40
-3.933573e-001 -1.518533e+000 -4.899127e+000 125 65 38
-6.290583e-001 3.268115e-002 -8.401113e+000 203 206 195
-1.574268e+000 -1.298876e+000 -9.078288e+000 187 62 63
1.950820e+000 2.053279e+000 -5.676133e+000 246 239 232
6.633870e-003 -1.332336e+000 -4.955594e+000 193 108 67
-8.236284e-001 2.077454e+000 -8.790721e+000 43 45 49
-5.862576e-001 -6.119278e-001 -7.937707e+000 182 184 173
-5.852376e-001 -6.158334e-001 -7.934325e+000 182 184 173
-1.074545e+000 -9.396708e-001 -3.966723e+000 78 29 26
-4.516543e-001 -1.553471e+000 -4.987923e+000 138 78 41
3.382256e-001 -1.606530e+000 -6.966823e+000 90 77 67
-1.564812e-001 -1.413319e+000 -7.159921e+000 194 195 183
-6.266581e-001 -2.089451e+000 -8.180457e+000 233 231 216
-1.130757e+000 -7.288532e-001 -3.986076e+000 234 141 84
3.496270e-001 -3.624724e+000 -8.084268e+000 44 38 47
2.307960e+000 1.451168e+000 -5.531396e+000 25 22 27
2.669041e+000 4.029103e-001 -5.785182e+000 56 55 60
2.669041e+000 4.029103e-001 -5.785182e+000 56 55 60
1.985253e+000 -1.586749e+000 -6.002524e+000 84 34 37
-6.089461e-001 -9.315272e-001 -4.988211e+000 51 23 19
-6.089461e-001 -9.315272e-001 -4.988211e+000 51 23 19
5.504652e-001 -1.755247e+000 -7.011769e+000 42 17 20
-7.547154e-001 -5.753003e-001 -7.808731e+000 210 214 200
2.142251e+000 -1.361756e+000 -6.015328e+000 99 40 39
2.293145e+000 -1.617228e+000 -6.040735e+000 98 99 103
1.781613e+000 -2.588837e+000 -6.470234e+000 39 37 42
1.830111e+000 -2.797184e+000 -6.426237e+000 26 24 29
-1.473259e+000 8.630678e-001 -9.075370e+000 87 41 41
2.256142e+000 2.386135e+000 -5.835225e+000 99 71 70
2.285373e+000 2.248546e+000 -5.801414e+000 192 83 90
2.390268e+000 -7.576736e-001 -5.895852e+000 37 28 28
2.813444e+000 -2.299845e+000 -5.523364e+000 26 24 29
2.100882e+000 -1.407943e+000 -6.024726e+000 123 44 51
2.123618e+000 -1.982760e+000 -6.143845e+000 37 38 42
4.985892e-001 -3.916881e+000 -7.888426e+000 81 76 83
-1.702874e+000 4.360565e-002 -9.323504e+000 181 57 59
-1.794144e+000 -1.367920e+000 -9.317840e+000 168 53 53
-1.681305e-001 -2.383187e+000 -8.427560e+000 212 212 200
2.790392e+000 -1.256325e+000 -5.698224e+000 91 90 96
2.573068e+000 -1.560732e+000 -5.841118e+000 56 57 62
2.425538e+000 -2.663773e+000 -5.653825e+000 48 47 52
1.970665e+000 -1.554756e+000 -5.987913e+000 124 50 53
2.046389e+000 -2.220225e+000 -6.181951e+000 50 55 61
2.046389e+000 -2.220225e+000 -6.181951e+000 50 55 61
1.722591e+000 -2.811164e+000 -6.469539e+000 31 32 36
1.569033e+000 -2.638871e+000 -6.649283e+000 33 32 37
1.311306e+000 -2.918370e+000 -6.810327e+000 38 36 41
1.311306e+000 -2.918370e+000 -6.810327e+000 38 36 41
-2.223021e-001 -7.819751e-002 -7.197087e+000 218 222 215
-2.110336e-001 -1.120164e+000 -7.204499e+000 195 194 182
-1.250412e-001 -1.450778e+000 -7.288072e+000 111 107 96
8.825075e-001 -3.917616e+000 -7.458419e+000 26 24 29
-4.478620e-001 -9.935983e-001 -7.959669e+000 219 220 212
-3.682820e-001 -1.647625e+000 -7.639804e+000 176 170 161
3.104036e-001 -3.452927e+000 -7.981799e+000 48 46 51
3.605745e-001 -3.825837e+000 -7.898233e+000 37 34 41
2.002043e-001 -3.561116e+000 -7.914176e+000 97 98 104
3.941224e-001 -4.366759e+000 -7.731342e+000 41 38 45
2.733454e-002 -4.085134e+000 -7.794501e+000 35 30 37
6.696460e-002 -4.106407e+000 -7.827035e+000 65 60 67
-4.724021e-002 -4.097710e+000 -7.922438e+000 80 75 82
-1.941291e-002 -4.116238e+000 -7.991035e+000 47 44 51
2.129380e-002 -4.200909e+000 -7.952884e+000 69 68 74
-4.132542e-001 -3.892434e+000 -8.221660e+000 38 33 40
-5.225661e-001 -3.613803e+000 -8.389358e+000 44 37 44
-3.595491e-001 -4.412297e+000 -8.006217e+000 51 50 57
-3.225682e-001 -4.475061e+000 -8.262100e+000 33 32 38
2.344562e+000 -1.135205e+000 -5.850142e+000 49 56 53
2.435913e+000 -1.064099e+000 -5.925525e+000 49 56 53
2.388110e+000 -1.380863e+000 -6.068295e+000 103 103 110
2.273088e+000 -1.461145e+000 -6.049895e+000 58 57 69
2.148580e+000 -1.699858e+000 -5.843258e+000 55 56 61
2.314782e+000 -1.839770e+000 -6.027635e+000 53 56 63
2.291249e+000 -1.855040e+000 -6.007796e+000 53 56 63
1.966882e+000 -1.825739e+000 -6.041890e+000 51 52 57
2.180287e+000 -3.472695e+000 -6.057141e+000 42 40 45
2.056623e+000 -2.442829e+000 -6.122780e+000 44 49 55
-3.172445e-001 -7.132231e-001 -4.526934e+000 162 89 60
1.873170e+000 -2.450017e+000 -6.315166e+000 41 46 50
1.873170e+000 -2.450017e+000 -6.315166e+000 41 46 50
-1.475652e-001 -1.420308e+000 -4.830108e+000 132 56 40
4.223283e-001 -1.235844e+000 -5.382178e+000 111 102 92
1.769590e+000 -2.692845e+000 -6.453163e+000 34 35 40
1.775248e+000 -2.993848e+000 -6.404472e+000 29 30 35
1.657570e+000 -3.091182e+000 -6.522375e+000 47 46 52
1.603226e+000 -2.582620e+000 -6.652528e+000 32 31 36
1.617778e+000 -3.169287e+000 -6.584833e+000 39 34 40
-1.588424e+000 -5.119621e-001 -4.131711e+000 104 87 66
-1.545796e+000 -5.362529e-001 -4.130124e+000 95 80 58
1.362333e+000 -2.638888e+000 -6.772045e+000 36 37 41
-1.371836e-001 -1.328989e+000 -5.854933e+000 42 29 22
-6.198235e-001 -1.119427e+000 -5.440128e+000 65 41 37
-7.314984e-002 -1.232576e+000 -6.013266e+000 69 53 49
-7.314984e-002 -1.232576e+000 -6.013266e+000 69 53 49
-4.483752e-001 -8.891666e-001 -6.151133e+000 48 30 26
1.614705e-002 -1.865110e+000 -7.328521e+000 126 120 108
4.139656e-001 -3.479976e+000 -7.829899e+000 35 34 39
4.330663e-001 -3.513440e+000 -7.820449e+000 83 82 87
4.330663e-001 -3.513440e+000 -7.820449e+000 83 82 87
4.823430e-001 -3.658933e+000 -7.746147e+000 80 78 83
6.068914e-001 -4.085867e+000 -7.694810e+000 60 58 63
-8.019548e-001 -1.225197e+000 -7.525129e+000 210 212 201
-7.482743e-001 -1.231235e+000 -7.966208e+000 218 221 211
2.627892e-001 -3.677827e+000 -7.811511e+000 44 41 48
1.576537e-001 -3.486376e+000 -7.902232e+000 95 93 97
3.072153e-001 -3.816714e+000 -7.884632e+000 33 28 34
-7.951211e-001 -1.538558e+000 -8.106846e+000 135 125 113
2.612358e-001 -4.243270e+000 -7.833432e+000 55 54 62
-1.597052e-002 -4.142422e+000 -7.849693e+000 51 48 55
5.842530e-002 -4.237109e+000 -7.934818e+000 39 38 44
-1.253166e+000 -1.529629e+000 -8.247191e+000 206 206 196
-2.843772e-001 -4.052695e+000 -8.208412e+000 33 28 35
-2.803272e-001 -4.176744e+000 -8.030736e+000 40 37 44
-2.169888e-001 -4.282105e+000 -7.955761e+000 41 38 45
-4.403288e-001 -3.931010e+000 -8.564080e+000 31 26 32
-5.564403e-001 -3.752085e+000 -8.623571e+000 33 28 34
2.681101e+000 -2.489036e+000 -5.350112e+000 41 42 47
2.745698e+000 -2.167087e+000 -5.587842e+000 32 30 35
2.833247e+000 -2.584003e+000 -5.496329e+000 41 40 46
2.601653e+000 -1.223563e+000 -5.920788e+000 51 52 56
2.587600e+000 -2.886185e+000 -5.749221e+000 36 35 43
2.413893e+000 -3.037725e+000 -5.593214e+000 42 41 47
2.323230e+000 -3.212938e+000 -5.817467e+000 33 32 38
2.290833e+000 -2.969490e+000 -5.843794e+000 45 43 48
2.413806e+000 -3.229863e+000 -5.921156e+000 29 28 34
2.225839e+000 -1.579050e+000 -6.164654e+000 53 57 62
2.014104e+000 -1.973693e+000 -6.183532e+000 40 40 48
8.136384e-001 -9.351316e-001 -5.554504e+000 118 52 51
9.350471e-001 -8.629624e-001 -5.695953e+000 190 184 166
3.316547e-001 -1.186435e+000 -5.219655e+000 111 101 98
3.316547e-001 -1.186435e+000 -5.219655e+000 111 101 98
1.242806e+000 -9.803835e-001 -6.173829e+000 55 32 22
1.690499e+000 -2.377158e+000 -6.319838e+000 24 23 28
1.851426e+000 -2.581096e+000 -6.492552e+000 37 36 42
1.812529e+000 -2.904823e+000 -6.416802e+000 32 33 37
1.926562e+000 -3.397618e+000 -6.468636e+000 54 52 57
1.670817e+000 -2.525131e+000 -6.501506e+000 38 40 44
1.702186e+000 -2.735917e+000 -6.528534e+000 28 29 33
1.702186e+000 -2.735917e+000 -6.528534e+000 28 29 33
1.632264e+000 -2.806963e+000 -6.568809e+000 28 29 33
1.753266e+000 -3.042558e+000 -6.487430e+000 27 26 31
-1.575596e+000 -6.288665e-001 -4.052335e+000 54 36 14
-1.518094e+000 -6.108791e-001 -4.103926e+000 75 59 45
1.501565e+000 -2.607158e+000 -6.668557e+000 35 34 39
1.359649e+000 -2.687370e+000 -6.494756e+000 35 34 39
-8.655469e-001 -3.330757e-001 -5.325755e+000 174 64 71
-1.167331e-001 -1.189636e+000 -5.853605e+000 59 41 39
-1.141782e-001 -1.249251e+000 -6.129508e+000 76 58 52
-2.640939e-001 -2.743561e-001 -6.940924e+000 138 136 131
-3.982621e-001 -1.053594e+000 -6.194144e+000 84 75 68
-3.254689e-001 -8.190016e-001 -6.533487e+000 85 72 64
-1.294972e-001 -1.420038e+000 -7.025956e+000 178 174 165
3.244365e-001 -3.452157e+000 -7.819025e+000 41 39 44
5.129541e-001 -3.490509e+000 -8.088582e+000 37 35 40
4.905031e-001 -3.616101e+000 -7.831755e+000 37 35 40
4.436432e-001 -3.743484e+000 -7.771023e+000 31 30 35
4.436432e-001 -3.743484e+000 -7.771023e+000 31 30 35
5.659595e-001 -3.879901e+000 -7.670919e+000 36 34 39
3.366442e-001 -3.490084e+000 -7.888680e+000 39 37 42
4.043521e-001 -3.606823e+000 -7.849023e+000 43 41 46
3.181826e-001 -3.581738e+000 -7.879350e+000 41 39 44
4.348997e-001 -3.690854e+000 -7.869586e+000 37 35 40
3.839231e-001 -3.711148e+000 -7.759529e+000 37 35 40
4.754715e-001 -3.781742e+000 -7.912186e+000 35 32 39
4.613240e-001 -3.932766e+000 -7.796230e+000 83 78 84
4.896896e-001 -3.959785e+000 -7.746076e+000 45 40 46
4.963128e-001 -3.957371e+000 -7.759354e+000 45 40 46
-1.788699e-001 -3.126828e+000 -7.583069e+000 170 163 152
3.694821e-001 -4.338317e+000 -7.647836e+000 39 38 44
5.971806e-002 -4.486481e+000 -7.881066e+000 75 72 81
-2.212408e-001 -3.941140e+000 -8.200855e+000 35 33 39
-1.145405e-001 -4.089513e+000 -8.071064e+000 33 30 37
-1.145405e-001 -4.089513e+000 -8.071064e+000 33 30 37
-1.150280e-001 -4.276308e+000 -8.108971e+000 101 98 107
-5.470818e-002 -4.394269e+000 -7.863362e+000 34 32 40
-5.470818e-002 -4.394269e+000 -7.863362e+000 34 32 40
-1.385707e+000 -1.611197e+000 -9.003609e+000 161 142 130
-3.887995e-001 -4.071536e+000 -8.260242e+000 34 29 36
-4.324374e-001 -4.277016e+000 -8.047873e+000 35 30 37
2.709836e+000 -2.563489e+000 -5.494571e+000 40 39 45
2.796246e+000 -2.822517e+000 -5.502327e+000 40 41 46
2.583810e+000 -2.590946e+000 -5.704215e+000 31 30 35
2.617343e+000 -2.634671e+000 -5.803418e+000 31 30 35
1.990862e+000 -4.318240e-001 -5.777837e+000 204 195 139
2.315010e+000 -3.327015e+000 -5.772050e+000 36 35 41
2.031373e+000 -2.057454e+000 -6.194437e+000 42 45 52
5.866348e-001 -1.054654e+000 -5.436164e+000 109 100 88
-1.145874e+000 -6.655843e-001 -3.963558e+000 50 42 45
-1.113418e+000 -1.045197e+000 -4.126089e+000 146 77 46
1.909970e-001 -1.432045e+000 -5.332556e+000 57 29 22
1.687523e+000 -2.879700e+000 -6.524194e+000 25 26 30
1.572345e+000 -2.738445e+000 -6.590312e+000 26 25 30
1.583947e+000 -2.732358e+000 -6.604054e+000 26 25 30
1.327005e+000 -2.587552e+000 -6.882900e+000 43 44 48
-6.545332e-002 -1.250533e+000 -6.069723e+000 42 27 20
-3.066424e-001 -6.414434e-001 -6.692094e+000 216 215 205
-1.490721e-001 -1.281987e+000 -6.967564e+000 102 91 82
-2.205115e-001 -6.943618e-001 -7.303960e+000 122 116 108
-2.239321e-001 -7.701794e-001 -7.493359e+000 183 188 180
-2.034253e-001 -7.027128e-001 -7.828740e+000 232 235 226
4.211178e-001 -3.302477e+000 -7.824740e+000 28 26 31
2.467776e-001 -4.242153e+000 -7.741611e+000 62 59 68
7.659267e-002 -4.207594e+000 -7.926393e+000 36 35 41
-1.956969e-002 -4.197153e+000 -7.935269e+000 36 35 41
1.501937e-001 -4.369888e+000 -7.890593e+000 29 26 33
-2.313482e-001 -4.051829e+000 -8.034694e+000 35 32 40
-3.781973e-002 -4.116665e+000 -8.065972e+000 36 33 40
1.136801e-002 -4.101221e+000 -8.203833e+000 36 33 40
7.418057e-002 -4.551354e+000 -7.968842e+000 28 25 32
-2.792490e-001 -4.384449e+000 -8.031661e+000 35 31 40
-1.515438e-001 -4.378728e+000 -8.171242e+000 34 33 39
-1.388801e+000 -1.575029e+000 -8.889803e+000 199 189 179
-3.035363e-001 -4.144000e+000 -8.271763e+000 36 31 38
-3.410809e-001 -4.361265e+000 -8.073442e+000 30 27 34
-6.141694e-001 -3.952815e+000 -8.255764e+000 35 30 34
2.978282e+000 -2.714468e+000 -5.447178e+000 43 44 49
2.627054e+000 -2.806036e+000 -5.677985e+000 36 35 40
2.696217e+000 -3.116559e+000 -5.630036e+000 37 36 42
2.476238e+000 -2.969434e+000 -5.764333e+000 42 41 47
2.436926e+000 -3.220541e+000 -5.653660e+000 33 32 38
2.321739e+000 -1.215367e+000 -6.069464e+000 56 54 58
7.535966e-002 -4.273251e-001 -4.642158e+000 151 68 35
1.720952e+000 -1.028370e+000 -5.910617e+000 97 36 33
-9.554135e-001 -5.304084e-001 -4.035236e+000 49 41 45
-4.048740e-001 -9.079022e-001 -4.556361e+000 211 161 127
-4.048740e-001 -9.079022e-001 -4.556361e+000 211 161 127
1.380265e+000 -1.036410e+000 -6.111564e+000 116 78 57
-5.424790e-001 -1.179935e+000 -4.579066e+000 116 58 33
7.210792e-002 -1.388716e+000 -5.005185e+000 84 57 44
2.993112e-001 -1.446581e+000 -5.550496e+000 42 23 19
7.455775e-001 -1.006495e+000 -6.061597e+000 86 76 64
3.694848e-002 -1.536133e+000 -5.323123e+000 45 25 21
-1.643316e+000 -6.596674e-001 -3.998930e+000 159 134 82
-5.792635e-001 -6.522119e-001 -5.832658e+000 53 27 23
-2.031359e-001 -1.123533e+000 -6.692358e+000 109 100 88
4.488930e-001 -1.707440e+000 -7.026970e+000 41 19 22
8.246094e-002 -4.427655e+000 -7.952581e+000 27 25 30
-3.205563e-002 -4.492678e+000 -7.981338e+000 30 27 34
-8.445133e-001 -2.664254e+000 -8.243419e+000 196 73 73
-1.301730e-001 -4.537456e+000 -8.088092e+000 31 28 35
1.368016e+000 -3.634049e-001 -5.732355e+000 148 140 127
1.101889e+000 -6.470873e-001 -5.785608e+000 117 55 42
-1.166515e-001 -1.211137e+000 -4.826033e+000 165 121 89
-1.898796e-004 -1.351932e+000 -4.941849e+000 189 107 69
2.494054e-001 -1.337559e+000 -5.223497e+000 46 21 18
-4.908439e-001 -6.957756e-001 -6.273836e+000 60 36 34
-1.556133e-001 -9.470240e-001 -7.004412e+000 112 99 90
-3.097880e-001 -4.224488e-001 -7.258601e+000 128 125 113
-2.328294e-001 -9.780318e-001 -7.316979e+000 218 228 221
-6.334270e-001 -1.565232e+000 -7.780598e+000 122 105 95
-8.700853e-002 -3.903700e+000 -7.715511e+000 180 62 56
-8.700853e-002 -3.903700e+000 -7.715511e+000 180 62 56
-9.279718e-001 -9.402860e-001 -3.991610e+000 47 14 10
-4.305683e-001 -7.881907e-001 -4.452160e+000 84 31 20
6.447360e-001 -2.638789e+000 -7.214013e+000 120 49 49
-7.398834e-001 -1.425005e+000 -7.872564e+000 223 225 216
-1.050855e+000 -9.633527e-001 -8.497509e+000 198 198 188
-1.084871e-001 -3.685737e+000 -7.691236e+000 203 78 82
-1.057020e-001 -9.596789e-001 -4.628820e+000 144 78 44
1.700660e+000 -1.554382e+000 -6.100592e+000 90 32 31
1.363869e+000 -1.428387e+000 -6.274441e+000 214 214 206
-1.234626e+000 -1.645283e+000 -8.410594e+000 227 227 218
-7.586000e-001 -2.652928e+000 -8.164456e+000 218 211 204
-7.424747e-001 -2.811420e+000 -8.238220e+000 172 59 61
-1.185914e+000 -2.087425e+000 -8.733733e+000 162 50 49
2.842659e+000 -1.160834e+000 -5.671873e+000 57 56 60
1.016469e+000 -4.073273e-002 -5.258486e+000 221 223 212
1.094885e+000 -9.220848e-001 -5.744424e+000 193 188 175
-9.766163e-001 -1.070530e+000 -4.123553e+000 72 29 19
-9.838954e-001 -1.090382e+000 -4.111103e+000 72 29 19
1.100269e+000 -8.223137e-001 -6.366329e+000 42 24 24
1.204184e+000 -1.288338e+000 -6.458280e+000 102 93 78
1.426194e-001 -1.114699e+000 -6.361443e+000 79 70 61
-4.176981e-001 -3.617825e+000 -7.881021e+000 184 55 54
3.809655e-001 -6.821537e-001 -4.816582e+000 89 42 32
1.134288e+000 -3.788987e-001 -5.756122e+000 187 187 179
4.414778e-001 -1.152743e+000 -6.059758e+000 109 99 87
-4.534301e-001 -8.542690e-001 -7.053437e+000 139 135 126
-4.477493e-001 -2.415041e-001 -7.534975e+000 230 233 224
3.301842e-001 -4.276394e+000 -7.900257e+000 71 70 78
-5.226384e-001 -2.416916e+000 -8.051866e+000 246 247 239
-1.184116e+000 -9.935474e-001 -4.152001e+000 182 104 65
-4.683827e-001 -7.773851e-001 -6.043832e+000 43 25 25
-1.055954e-001 -3.225512e+000 -7.884272e+000 184 180 169
-1.965841e-001 -3.709022e+000 -7.714043e+000 177 55 57
-1.483059e-001 -3.686991e+000 -7.844945e+000 177 55 57
-8.612670e-001 -2.288555e+000 -8.464342e+000 196 188 177
1.349176e+000 -1.016434e+000 -6.289466e+000 62 19 23
2.901339e-001 -3.887250e+000 -8.176967e+000 20 11 22
-3.560765e-001 -7.652842e-001 -6.045119e+000 44 24 26
-8.469740e-001 -5.242038e-001 -5.956177e+000 183 180 165
1.303684e+000 -1.989935e+000 -6.342256e+000 191 191 179
2.464196e+000 2.060554e+000 -5.717375e+000 174 75 77
2.721538e+000 -1.461614e+000 -5.946516e+000 56 57 62
2.149871e+000 -2.681395e-001 -5.827343e+000 172 155 108
2.548873e+000 -6.808533e-001 -6.047777e+000 58 45 42
2.498269e+000 -1.488185e+000 -5.875240e+000 105 106 111
2.526520e+000 -3.140985e+000 -5.824447e+000 33 32 38
2.474025e+000 -1.836156e+000 -6.174556e+000 120 123 130
2.349075e+000 -2.105313e+000 -6.117779e+000 123 126 133
2.548100e+000 -3.308433e+000 -6.029241e+000 29 28 34
1.828594e+000 -1.091870e+000 -5.957335e+000 198 86 75
2.058670e+000 -2.063123e+000 -6.264258e+000 46 46 54
2.026791e+000 -2.212732e+000 -6.287944e+000 108 111 118
2.020738e+000 -2.377701e+000 -6.302033e+000 55 60 66
2.031286e+000 -2.715425e+000 -6.276730e+000 35 35 40
1.913007e+000 -2.642203e+000 -6.272572e+000 53 56 61
1.960519e+000 -2.679314e+000 -6.328558e+000 36 39 44
1.883828e+000 -2.622259e+000 -6.362729e+000 83 84 89
1.942974e+000 -2.861457e+000 -6.387506e+000 58 58 61
1.838687e+000 -3.025665e+000 -6.444840e+000 30 31 36
1.732688e+000 -3.136855e+000 -6.404870e+000 50 49 55
2.091266e-001 -1.497234e+000 -5.495893e+000 72 59 51
1.558397e+000 -2.509903e+000 -6.662654e+000 41 40 45
1.440935e+000 -2.679734e+000 -6.695718e+000 36 35 40
3.364108e-001 -1.106966e+000 -6.594222e+000 59 26 26
1.773416e-001 2.555246e+000 -7.966449e+000 220 220 209
-2.059342e-001 -1.144048e-001 -7.263647e+000 224 227 220
-2.585748e-001 -8.087215e-001 -6.777336e+000 131 123 115
-9.323482e-001 4.612829e+000 -9.391804e+000 60 61 66
-7.496461e-001 1.760473e+000 -8.540487e+000 203 108 104
-8.085739e-001 1.820000e+000 -8.591873e+000 187 68 70
-1.157004e+000 3.383173e+000 -9.636880e+000 66 67 72
-3.614002e-001 -1.812035e+000 -7.821344e+000 152 144 129
3.063853e-001 -3.209201e+000 -7.795462e+000 45 40 46
3.448765e-001 -3.378690e+000 -7.755374e+000 55 53 58
4.379338e-001 -4.024105e+000 -7.605189e+000 72 68 74
1.876061e-001 -3.415080e+000 -7.810805e+000 97 92 98
2.524299e-001 -3.492301e+000 -7.939569e+000 93 91 96
1.759056e-001 -3.531228e+000 -7.779666e+000 93 91 96
2.779771e-001 -3.781540e+000 -7.775476e+000 47 45 50
-6.480496e-001 -1.686513e+000 -7.890141e+000 131 125 112
-5.163186e-001 -2.134507e+000 -8.070917e+000 229 227 212
2.578320e-001 -4.343091e+000 -7.584393e+000 64 63 70
1.663941e-001 -4.234324e+000 -7.680788e+000 94 91 98
-1.877987e+000 2.032142e+000 -9.975414e+000 82 83 88
-1.836131e+000 1.892756e+000 -9.971332e+000 104 105 110
-1.898544e+000 1.896017e+000 -9.901242e+000 53 54 59
-1.922534e+000 1.912964e+000 -1.000476e+001 96 97 102
-1.985415e+000 1.398662e+000 -1.015948e+001 74 75 79
-1.078384e-001 -4.199385e+000 -7.844622e+000 72 71 76
-2.214479e+000 1.577965e+000 -1.013845e+001 65 64 69
-3.276439e-001 -3.995907e+000 -8.031829e+000 67 62 69
-7.926009e-001 -3.490759e+000 -8.487566e+000 39 32 39
3.155096e+000 -2.472114e+000 -5.575088e+000 45 44 50
3.019643e+000 -2.547761e+000 -5.580061e+000 132 131 137
2.918124e+000 -3.225704e+000 -5.553469e+000 55 54 60
3.016164e+000 2.933985e+000 -5.962086e+000 83 69 72
2.756784e+000 -2.987032e+000 -5.756918e+000 120 117 124
2.877838e+000 -3.072004e+000 -5.699296e+000 50 49 55
2.698289e+000 -3.433806e+000 -5.662267e+000 44 41 48
2.603869e+000 -1.485152e+000 -5.798495e+000 55 56 61
2.758381e+000 -1.574655e+000 -5.948778e+000 42 44 48
2.474183e+000 3.535440e+000 -6.263522e+000 84 52 64
2.418048e+000 -1.215375e+000 -5.976486e+000 52 51 56
2.494876e+000 -1.296269e+000 -6.094179e+000 46 47 52
2.614737e+000 -1.363064e+000 -5.999470e+000 53 54 59
2.613706e+000 -1.709449e+000 -5.981075e+000 59 60 65
2.568984e+000 -3.380133e+000 -5.857980e+000 38 35 42
2.563555e+000 -3.477028e+000 -5.851988e+000 31 28 35
2.232954e+000 -1.668551e+000 -6.079535e+000 61 64 69
2.231039e+000 -1.781379e+000 -6.048381e+000 53 56 61
2.522193e+000 -1.789021e+000 -6.116199e+000 64 67 74
2.138933e+000 -1.920385e+000 -6.159847e+000 45 48 55
1.409005e+000 -9.220542e-001 -5.963164e+000 218 188 144
2.059695e+000 -2.397744e+000 -6.152343e+000 132 137 143
2.114890e+000 -2.436828e+000 -6.247662e+000 52 55 62
2.144998e+000 -2.473913e+000 -6.312421e+000 45 48 55
1.988970e+000 -2.524826e+000 -6.222110e+000 96 99 106
1.832347e+000 -2.487695e+000 -6.368076e+000 36 39 44
1.845179e+000 -2.479485e+000 -6.380696e+000 36 39 44
1.998976e+000 -2.649089e+000 -6.276494e+000 38 41 46
1.931662e+000 -2.596357e+000 -6.317807e+000 41 44 49
1.939696e+000 -2.791383e+000 -6.328503e+000 34 35 40
1.922992e+000 -2.799007e+000 -6.372070e+000 65 66 71
-4.274454e-001 -1.218191e+000 -4.626008e+000 140 60 33
1.839302e+000 -2.362253e+000 -6.585254e+000 36 37 41
1.819004e+000 -2.464141e+000 -6.398097e+000 83 86 91
1.832463e+000 -2.457091e+000 -6.411099e+000 83 86 91
1.827169e+000 -2.569518e+000 -6.415935e+000 79 79 85
1.781867e+000 -2.687035e+000 -6.465548e+000 34 35 40
1.784372e+000 -2.989024e+000 -6.414646e+000 29 30 35
1.668624e+000 -2.486071e+000 -6.519788e+000 33 37 40
1.678219e+000 -2.594005e+000 -6.522951e+000 31 32 36
1.691528e+000 -2.588003e+000 -6.536460e+000 31 32 36
1.726411e+000 -2.663216e+000 -6.502974e+000 32 33 37
1.667443e+000 -2.770530e+000 -6.551198e+000 56 57 61
1.611848e+000 -3.397215e+000 -6.630457e+000 33 31 36
1.371178e+000 -2.670151e+000 -6.807137e+000 55 56 60
8.994440e-001 -1.789315e+000 -6.688129e+000 91 79 67
1.286961e+000 -2.799657e+000 -6.903758e+000 48 47 52
-1.959040e-001 6.377424e+000 -8.795928e+000 34 32 35
-2.817990e-001 6.164858e+000 -8.732537e+000 111 112 118
6.152886e-002 5.173459e+000 -8.797380e+000 104 103 108
-4.142577e-001 -9.048506e-001 -6.195916e+000 79 60 53
2.582785e-002 4.217074e+000 -9.070543e+000 49 47 48
1.377107e-001 4.167136e+000 -9.196833e+000 81 75 79
1.149004e-001 3.814041e+000 -8.914691e+000 72 25 24
-2.533675e-001 -1.036182e+000 -6.646419e+000 97 84 75
-2.271646e-001 -1.034590e+000 -6.709999e+000 83 73 63
1.041769e+000 -4.156121e+000 -7.108641e+000 28 27 33
3.444340e-002 -1.723275e+000 -7.165231e+000 127 119 108
-1.083066e+000 3.770850e+000 -9.564204e+000 54 55 60
-7.260736e-001 1.491552e+000 -8.549456e+000 136 120 103
6.311111e-001 -3.528568e+000 -7.689474e+000 27 22 28
-1.010632e+000 2.379244e+000 -9.305753e+000 68 41 48
4.762914e-001 -3.638863e+000 -7.681572e+000 39 37 42
4.762914e-001 -3.638863e+000 -7.681572e+000 39 37 42
2.580086e-001 -3.411150e+000 -7.778406e+000 38 35 42
2.580086e-001 -3.411150e+000 -7.778406e+000 38 35 42
1.757432e-001 -3.389622e+000 -7.755293e+000 45 43 48
1.563589e-001 -3.513249e+000 -7.808534e+000 42 40 45
1.563589e-001 -3.513249e+000 -7.808534e+000 42 40 45
-1.668998e+000 2.687700e+000 -9.875284e+000 75 76 81
-1.335754e+000 1.294681e+000 -9.265442e+000 73 37 36
1.416261e-001 -3.673329e+000 -7.773820e+000 95 92 100
1.416261e-001 -3.673329e+000 -7.773820e+000 95 92 100
8.063710e-002 -4.198061e+000 -7.757187e+000 51 49 56
2.170580e-001 -4.410756e+000 -7.646593e+000 84 81 88
-1.890708e+000 2.147304e+000 -9.931604e+000 50 51 56
-2.868230e-002 -4.187582e+000 -7.802293e+000 115 114 120
5.558211e-002 -4.237316e+000 -7.918518e+000 39 38 44
-1.900757e-002 -4.239018e+000 -7.838568e+000 105 104 110
-2.386264e-001 -4.142206e+000 -7.887782e+000 37 34 41
-2.998549e-001 -4.209204e+000 -7.908927e+000 73 70 77
-2.998549e-001 -4.209204e+000 -7.908927e+000 73 70 77
-3.095946e-001 -4.368140e+000 -7.949221e+000 32 29 38
-4.402798e-001 -4.230352e+000 -7.993430e+000 35 30 37
-4.402798e-001 -4.230352e+000 -7.993430e+000 35 30 37
-5.190786e-001 -4.409879e+000 -8.010017e+000 79 74 81
2.765857e+000 -2.259904e+000 -5.544514e+000 36 33 40
3.000795e+000 -2.269001e+000 -5.764337e+000 32 29 34
2.698727e+000 -2.789442e+000 -5.544921e+000 48 49 54
2.985555e+000 -2.970007e+000 -5.607872e+000 37 36 41
2.989234e+000 -3.241674e+000 -5.620755e+000 120 119 125
2.989234e+000 -3.241674e+000 -5.620755e+000 120 119 125
2.954371e+000 -3.342515e+000 -5.547134e+000 40 41 46
2.954371e+000 -3.342515e+000 -5.547134e+000 40 41 46
2.888473e+000 -2.523315e+000 -5.721415e+000 33 32 38
2.888473e+000 -2.523315e+000 -5.721415e+000 33 32 38
2.634497e+000 -2.933912e+000 -5.562379e+000 44 45 50
2.870620e+000 -3.224093e+000 -5.749944e+000 94 93 99
2.734152e+000 -3.538351e+000 -5.698432e+000 38 36 41
2.400346e+000 8.193814e-002 -5.787954e+000 185 86 91
2.740099e+000 -2.606796e+000 -5.816972e+000 63 62 67
2.703324e+000 -3.063510e+000 -5.825636e+000 85 84 90
2.703324e+000 -3.063510e+000 -5.825636e+000 85 84 90
2.626481e+000 -3.436576e+000 -5.846477e+000 80 79 85
2.385389e+000 -3.170967e+000 -6.086593e+000 25 24 29
2.052285e+000 -2.157318e+000 -6.278769e+000 46 50 57
2.105051e+000 -2.725340e+000 -6.278993e+000 26 25 30
9.269785e-001 -6.444377e-001 -5.701500e+000 142 141 127
1.893013e+000 -2.249702e+000 -6.428712e+000 25 25 29
1.333985e+000 -1.215126e+000 -6.293512e+000 116 95 81
1.772679e+000 -2.466558e+000 -6.417643e+000 35 38 43
1.860300e+000 -2.612119e+000 -6.389765e+000 37 38 43
1.767628e+000 -2.942745e+000 -6.493237e+000 26 25 30
-1.396893e+000 -7.331311e-001 -4.366387e+000 94 46 29
1.477798e+000 -2.704234e+000 -6.751694e+000 65 64 69
-3.577469e-002 5.768686e+000 -8.803121e+000 31 29 31
1.926563e-002 -1.208537e+000 -6.154638e+000 84 70 62
-1.816904e-001 6.057613e+000 -8.848807e+000 107 109 114
9.228041e-002 3.951515e+000 -9.154140e+000 65 47 47
-2.286558e-001 -1.889494e-001 -7.026442e+000 138 136 131
1.133657e+000 -3.960500e+000 -7.110016e+000 40 41 46
-6.210294e-001 4.647526e+000 -9.066328e+000 92 94 101
-6.083225e-001 4.716216e+000 -9.117452e+000 92 94 101
-5.825769e-001 4.650888e+000 -9.183087e+000 34 33 38
-2.072828e-001 -8.682071e-001 -7.059055e+000 130 126 119
-1.710957e-001 -7.774504e-001 -7.433817e+000 218 221 214
6.079020e-001 -3.524274e+000 -7.751864e+000 59 57 62
6.377888e-001 -3.644582e+000 -7.606827e+000 45 44 49
2.829086e-001 -3.292548e+000 -7.828959e+000 62 60 65
4.317677e-001 -3.875062e+000 -7.797263e+000 38 36 41
2.100834e-001 -3.727187e+000 -7.797068e+000 37 36 41
2.250654e-001 -3.814818e+000 -7.742126e+000 37 32 38
9.731183e-002 -4.333622e+000 -7.723214e+000 105 104 110
-1.448480e+000 -3.504785e-002 -9.132039e+000 200 185 172
3.654571e-002 -4.266878e+000 -7.779777e+000 121 120 126
-9.883739e-002 -4.326987e+000 -7.725899e+000 35 34 40
-1.583901e-001 -4.325088e+000 -7.931101e+000 35 32 41
-2.977545e-001 -4.027972e+000 -8.067602e+000 39 34 41
-4.012238e-001 -4.448745e+000 -7.961267e+000 35 34 40
2.936829e+000 -3.310826e+000 -5.617902e+000 38 38 44
3.017090e+000 -3.492592e+000 -5.594115e+000 38 37 43
2.660880e+000 -3.321018e+000 -5.787651e+000 38 37 43
2.716039e+000 -3.409662e+000 -5.750606e+000 35 34 40
2.547279e+000 -3.473099e+000 -5.725416e+000 34 33 39
2.627010e+000 -3.674672e+000 -5.684803e+000 34 33 39
2.687837e+000 -3.661922e+000 -5.726453e+000 34 33 39
2.603275e+000 -3.252470e+000 -5.875079e+000 34 32 39
1.907885e+000 -1.249804e+000 -5.986570e+000 202 149 119
1.550982e+000 -1.182046e+000 -6.061505e+000 198 161 123
9.532560e-001 -6.844189e-001 -5.737365e+000 169 162 149
1.969733e+000 -2.721649e+000 -6.283002e+000 71 74 79
8.805251e-002 -1.412004e+000 -5.065202e+000 154 92 59
2.495905e-001 -1.353046e+000 -5.313300e+000 104 96 84
1.318511e+000 -1.853461e+000 -6.277642e+000 159 160 148
-1.619521e+000 -5.005460e-001 -4.114505e+000 59 38 17
-4.657956e-001 4.894969e+000 -9.071141e+000 35 37 37
-3.833725e-001 1.010359e+000 -8.392385e+000 219 221 208
-9.940990e-001 1.352565e+000 -8.785329e+000 194 72 75
-1.694078e+000 1.697827e+000 -9.988514e+000 29 27 32
-1.742852e+000 1.643902e+000 -1.011269e+001 32 30 35
-6.206315e-001 -2.682127e+000 -8.089312e+000 170 162 153
-8.686147e-001 -2.245163e+000 -8.501802e+000 169 160 147
-8.686147e-001 -2.245163e+000 -8.501802e+000 169 160 147
-7.834019e-002 -4.270169e+000 -8.003535e+000 36 35 41
-1.400732e-001 -4.288264e+000 -7.853112e+000 36 35 41
-4.727908e-001 -4.017815e+000 -8.189221e+000 37 32 38
-4.727908e-001 -4.017815e+000 -8.189221e+000 37 32 38
-3.811038e-001 -4.305496e+000 -7.941291e+000 34 32 38
2.922747e+000 -3.488355e+000 -5.680104e+000 38 36 42
2.620577e+000 2.164478e+000 -5.580604e+000 193 82 81
3.045621e+000 2.586463e+000 -5.919852e+000 24 16 22
2.677528e+000 -3.484407e-001 -5.740195e+000 200 185 128
2.849680e+000 -3.556162e+000 -5.743357e+000 36 33 40
2.508595e+000 3.684429e-001 -5.903853e+000 177 64 58
2.694300e+000 -3.136034e+000 -5.839921e+000 33 32 38
2.628430e+000 -3.562913e+000 -5.737039e+000 33 32 38
2.177202e+000 -3.305956e-001 -5.792328e+000 183 176 121
2.382710e+000 -3.680098e+000 -5.952681e+000 27 24 31
1.553540e+000 -1.275504e+000 -6.165219e+000 209 180 132
1.221637e-001 -1.413178e+000 -5.191471e+000 93 83 72
6.973657e-002 4.323880e+000 -9.251300e+000 59 57 58
3.178690e-002 4.195630e+000 -9.147164e+000 59 57 58
-4.480217e-001 1.999209e+000 -8.501739e+000 175 67 64
-3.238941e-001 -1.639101e+000 -7.504430e+000 215 215 205
-7.311273e-001 -3.326974e-002 -8.175769e+000 231 233 222
3.046487e+000 -3.425116e+000 -5.584108e+000 58 57 63
2.550229e+000 -1.381575e-001 -5.675021e+000 190 177 122
-3.875735e-001 -1.317314e+000 -4.685304e+000 178 108 71
1.090507e+000 -9.913958e-001 -6.093444e+000 88 74 65
-2.835322e-001 2.270539e+000 -8.180645e+000 209 203 191
6.978451e-001 -2.709884e+000 -7.278897e+000 15 12 19
-7.790805e-001 1.367137e+000 -8.784795e+000 214 215 198
2.584454e+000 5.872050e-001 -5.895119e+000 30 26 30
-2.376938e-001 -1.198300e+000 -4.740184e+000 137 76 42
-1.292789e-001 5.026834e+000 -8.821935e+000 25 21 25
-8.807054e-001 4.831747e+000 -9.422087e+000 93 94 99
-5.182240e-001 1.714815e+000 -8.496806e+000 226 225 216
-5.578552e-001 -5.421598e-001 -8.028195e+000 183 183 171
-8.290936e-001 -6.084695e-002 -8.477534e+000 238 239 231
-7.246636e-001 -2.450755e+000 -8.119665e+000 195 191 182
-8.194815e-002 -9.209059e-001 -4.652220e+000 144 78 44
-4.453678e-001 1.142230e+000 -8.291941e+000 94 81 65
-4.453678e-001 1.142230e+000 -8.291941e+000 94 81 65
-1.199471e+000 -7.656103e-001 -4.082979e+000 53 16 12
-6.316259e-001 4.592155e+000 -9.435584e+000 33 32 37
-4.304408e-001 2.231823e+000 -8.476145e+000 140 44 42
3.721926e-001 -2.527619e+000 -7.284484e+000 75 33 35
-8.807640e-001 4.270112e+000 -9.673545e+000 99 100 105
-2.020974e+000 1.239919e+000 -9.815395e+000 58 57 62
-1.059511e+000 -2.930820e+000 -8.294141e+000 186 71 76
2.062375e-001 -1.179571e+000 -4.959582e+000 96 82 75
-1.148795e+000 5.261305e+000 -9.047601e+000 59 58 63
-1.817844e-001 -2.377266e+000 -7.903557e+000 219 221 210
-9.985644e-001 -2.303363e-001 -8.648829e+000 156 150 139
-5.465666e-001 -2.450542e+000 -7.980342e+000 246 247 239
-6.771756e-001 -3.212483e+000 -8.339299e+000 179 59 61
6.970554e-001 -1.267545e+000 -6.319252e+000 111 102 87
1.379534e+000 -4.062416e+000 -7.297082e+000 91 91 99
-2.641805e-001 -2.579554e+000 -7.988248e+000 211 211 199
3.036269e+000 3.096394e+000 -6.069786e+000 81 72 80
2.910443e+000 -2.829008e+000 -5.428081e+000 55 54 60
2.798263e+000 -1.252168e+000 -5.706533e+000 96 97 102
2.770304e+000 -2.791260e+000 -5.540824e+000 143 144 149
2.194084e+000 1.856293e+000 -5.713307e+000 180 87 87
2.664738e+000 -1.498161e+000 -5.777953e+000 49 49 54
2.468968e+000 -1.993798e+000 -5.970372e+000 38 37 43
2.468650e+000 -2.941266e+000 -5.838534e+000 63 62 68
2.415331e+000 -2.962544e+000 -5.796745e+000 63 62 68
2.530746e+000 -3.417556e+000 -5.701404e+000 92 91 97
2.530746e+000 -3.417556e+000 -5.701404e+000 92 91 97
2.357895e+000 -3.204477e+000 -5.898894e+000 75 73 79
2.357895e+000 -3.204477e+000 -5.898894e+000 75 73 79
1.369385e-001 -8.574523e-001 -4.787577e+000 177 128 83
2.284098e+000 -3.238733e+000 -5.991311e+000 28 26 31
1.278516e+000 -1.042364e+000 -5.902424e+000 140 115 86
2.000506e+000 -2.447786e+000 -6.220201e+000 44 45 50
2.116722e+000 -2.468040e+000 -6.173919e+000 50 53 58
-1.096295e+000 -8.224066e-001 -4.030303e+000 121 56 38
-1.089584e+000 -9.288214e-001 -3.985210e+000 117 49 33
1.853577e+000 -2.526996e+000 -6.371259e+000 45 45 50
1.831281e+000 -2.801746e+000 -6.381636e+000 91 90 95
1.717850e+000 -2.591344e+000 -6.501386e+000 72 71 76
1.699413e+000 -2.663727e+000 -6.533659e+000 62 61 66
9.455276e-001 -2.699279e+000 -7.109472e+000 42 37 43
-3.492788e-001 -3.075166e-001 -7.273167e+000 216 216 207
1.071122e+000 -3.889293e+000 -7.223592e+000 31 27 32
-7.103971e-001 4.071174e-001 -8.602518e+000 202 205 194
-5.538192e-001 -7.317691e-001 -7.930499e+000 192 193 184
4.955867e-001 -3.355967e+000 -7.669342e+000 44 39 45
-1.683567e+000 2.363719e+000 -9.872889e+000 70 70 78
-1.668910e+000 2.285947e+000 -9.862700e+000 102 102 110
3.556048e-001 -3.465961e+000 -7.781250e+000 90 89 95
3.173468e-001 -3.714990e+000 -7.777254e+000 46 45 51
-1.881424e+000 2.016650e+000 -9.955429e+000 84 85 90
3.555232e-001 -3.890053e+000 -7.739419e+000 106 102 109
-2.080192e+000 1.901442e+000 -1.007535e+001 52 51 56
-2.120411e+000 1.742062e+000 -1.007938e+001 66 65 70
2.506804e-001 -4.335286e+000 -7.752276e+000 45 43 52
-4.163351e-001 -3.090546e+000 -7.913973e+000 185 176 167
-1.499690e-001 -4.160303e+000 -7.985192e+000 44 40 45
-3.227379e-001 -4.228291e+000 -8.036425e+000 47 42 49
2.905134e+000 -2.771382e+000 -5.448091e+000 50 49 55
2.826727e+000 -3.068373e+000 -5.478002e+000 131 130 138
2.823746e+000 -2.983917e+000 -5.505531e+000 122 121 129
2.773529e+000 -3.067791e+000 -5.490833e+000 45 44 52
2.863400e+000 -3.174242e+000 -5.456965e+000 49 48 56
2.548112e+000 -3.795639e-001 -5.746221e+000 219 207 152
2.624295e+000 -1.523446e+000 -5.646277e+000 37 36 42
2.761738e+000 -2.666276e+000 -5.595488e+000 46 45 50
2.330937e+000 -7.454653e-002 -5.813674e+000 167 109 86
2.582906e+000 -1.753877e+000 -5.837692e+000 39 40 45
2.349397e+000 -1.933947e+000 -5.935752e+000 147 150 155
2.395978e+000 -2.986088e+000 -5.916958e+000 27 26 32
2.155839e+000 -2.270994e+000 -6.087932e+000 56 59 64
-1.300472e+000 -7.315153e-001 -3.978634e+000 98 54 52
1.913627e+000 -2.803450e+000 -6.305844e+000 40 39 44
1.732108e+000 -2.601378e+000 -6.465610e+000 33 32 37
1.862651e+000 -2.792125e+000 -6.364470e+000 40 39 44
1.763460e+000 -2.829680e+000 -6.437763e+000 34 33 38
1.933492e+000 -3.361417e+000 -6.510476e+000 27 25 30
9.871682e-001 -1.692012e+000 -6.691899e+000 104 96 83
1.305435e+000 -2.946547e+000 -6.850218e+000 26 25 30
-2.994541e-001 4.702126e+000 -9.069517e+000 79 78 83
-8.530289e-003 4.360031e+000 -9.180983e+000 30 28 29
-1.034780e+000 1.708941e+000 -8.569291e+000 72 57 54
-3.817204e-001 -1.430571e+000 -7.562394e+000 182 183 175
5.029802e-001 -3.262288e+000 -7.680547e+000 44 39 44
8.336950e-001 -3.968496e+000 -7.546283e+000 47 45 50
-1.767578e+000 2.125809e+000 -9.910420e+000 60 61 66
3.991894e-001 -3.514621e+000 -7.833438e+000 38 37 42
-9.808604e-001 -4.687533e-001 -8.837738e+000 190 191 183
4.971224e-001 -4.378797e+000 -7.641260e+000 45 44 51
2.631090e-001 -4.315246e+000 -7.718032e+000 42 41 49
3.334956e-001 -4.354907e+000 -7.669215e+000 118 117 125
3.992115e-002 -4.295299e+000 -7.833174e+000 34 32 38
-3.188500e-001 -3.957924e+000 -8.134940e+000 39 34 40
-3.188500e-001 -3.957924e+000 -8.134940e+000 39 34 40
-2.765331e-001 -4.175671e+000 -8.037033e+000 40 35 42
-9.688705e-001 -3.064357e+000 -8.387736e+000 138 43 48
-6.522174e-001 -3.694066e+000 -8.405580e+000 38 31 38
-6.955453e-001 -3.641856e+000 -8.479836e+000 40 33 40
2.932988e+000 -2.696570e+000 -5.430030e+000 48 48 56
2.801076e+000 -2.574273e+000 -5.594002e+000 38 37 43
2.827723e+000 -2.704651e+000 -5.520439e+000 137 138 143
2.827723e+000 -2.704651e+000 -5.520439e+000 137 138 143
2.854567e+000 -2.831633e+000 -5.455226e+000 50 49 57
2.752114e+000 -3.212220e+000 -5.487501e+000 38 36 47
2.679844e+000 -2.933784e+000 -5.574453e+000 44 43 49
2.429785e+000 -3.090832e+000 -5.888725e+000 31 30 36
2.320905e+000 -3.209402e+000 -5.923741e+000 33 30 37
2.335672e+000 -3.295637e+000 -5.947604e+000 31 29 34
2.335672e+000 -3.295637e+000 -5.947604e+000 31 29 34
2.296923e+000 -3.407657e+000 -5.954680e+000 29 27 32
2.049426e+000 -2.369510e+000 -6.196258e+000 40 41 46
1.948275e+000 -3.392122e+000 -6.491703e+000 59 57 62
1.604390e+000 -2.965913e+000 -6.586938e+000 26 24 29
1.418756e+000 -2.725448e+000 -6.757797e+000 30 29 34
1.515399e+000 -2.999139e+000 -6.684532e+000 48 46 51
1.515399e+000 -2.999139e+000 -6.684532e+000 48 46 51
1.637498e+000 -3.388280e+000 -6.593877e+000 22 20 25
2.377424e-001 -4.295575e+000 -7.748869e+000 139 139 147
-3.852711e-001 -4.032472e+000 -8.121926e+000 41 36 42
