ply
format ascii 1.0
element face 0
property list uchar int vertex_indices
element vertex 882
property float x
property float y
property float z
property uchar diffuse_red
property uchar diffuse_green
property uchar diffuse_blue
end_header
1.707580e+000 9.285430e-001 -5.868922e+000 219 220 210
1.789726e+000 8.945305e-001 -5.979916e+000 220 223 211
3.718390e-001 8.844941e-001 -6.664060e+000 237 243 235
2.806926e+000 7.549819e-001 -5.895138e+000 101 100 105
1.740857e+000 5.708836e-001 -6.050492e+000 242 245 236
2.740279e+000 5.553201e-001 -5.954579e+000 110 109 114
-3.333624e+000 7.565628e-001 -1.087294e+001 72 73 77
-3.696360e-001 5.548046e-001 -8.080465e+000 200 202 189
1.808865e+000 4.307485e-001 -5.746138e+000 214 216 205
2.754810e+000 4.024447e-001 -5.924884e+000 96 94 99
2.780995e+000 3.890588e-001 -5.872408e+000 48 47 52
2.875783e+000 4.634617e-001 -5.881144e+000 82 80 85
2.624305e+000 2.975374e-001 -5.955723e+000 88 91 91
2.878578e+000 3.075526e-001 -5.856139e+000 83 82 86
2.917002e+000 2.967368e-001 -5.842001e+000 49 43 49
2.846808e+000 2.152749e-001 -5.800129e+000 83 80 80
-4.868072e-001 1.192370e-001 -5.126161e+000 131 65 41
2.149712e-001 9.745032e-002 -5.745494e+000 201 207 197
2.149712e-001 9.745032e-002 -5.745494e+000 201 207 197
-9.850453e-002 -3.837922e-002 -4.982726e+000 200 203 194
1.970333e-001 -4.772862e-002 -5.084364e+000 216 221 217
1.970333e-001 -4.772862e-002 -5.084364e+000 216 221 217
7.070791e-001 -3.400524e-002 -5.452453e+000 201 207 197
7.632270e-001 -4.730272e-002 -5.473341e+000 200 206 196
8.442623e-001 -3.903218e-002 -5.505261e+000 173 177 169
8.620932e-001 -7.920039e-002 -5.502601e+000 191 195 188
2.244663e+000 -1.088275e-001 -5.961510e+000 174 79 77
-3.176639e-001 -1.157208e-001 -4.580130e+000 173 163 136
5.077188e-001 -1.804813e-001 -5.426450e+000 152 151 147
6.613610e-001 -1.639534e-001 -5.366345e+000 140 143 136
7.417838e-001 -1.585961e-001 -5.550127e+000 148 150 145
1.259221e+000 -2.965567e-001 -5.683796e+000 142 138 132
-1.357485e+000 -3.919939e-001 -4.165142e+000 74 30 26
-8.598800e-001 -3.871420e-001 -4.262973e+000 165 130 112
-6.462047e-001 -3.971077e-001 -4.678105e+000 218 120 75
-6.581081e-001 -4.077007e-001 -4.753934e+000 218 120 75
-5.615620e-001 -4.280108e-001 -4.630636e+000 220 172 129
6.701710e-002 -3.894652e-001 -4.609363e+000 152 84 59
9.708105e-001 -6.365121e-001 -5.781234e+000 162 150 142
2.172259e+000 -7.258633e-001 -6.189134e+000 106 57 39
3.047803e+000 -6.775725e-001 -5.644892e+000 56 52 58
-1.393785e+000 -5.305727e-001 -4.055005e+000 105 60 47
-1.316440e+000 -4.748805e-001 -4.032055e+000 93 43 37
-1.353936e+000 -5.266197e-001 -4.015905e+000 115 69 62
-1.064543e+000 -5.687190e-001 -4.106444e+000 134 57 32
-6.971742e-001 -5.107464e-001 -4.237004e+000 212 176 133
-5.730769e-001 -5.501912e-001 -4.306493e+000 155 117 89
4.243893e-001 -5.928353e-001 -4.722649e+000 114 102 95
3.084511e+000 -7.670344e-001 -5.549370e+000 50 48 53
-1.458786e+000 -6.292296e-001 -4.066292e+000 111 92 52
-1.422104e+000 -6.244339e-001 -4.056581e+000 171 144 102
-1.322099e+000 -6.430437e-001 -3.992235e+000 132 88 83
-1.094754e+000 -5.644294e-001 -4.004337e+000 199 116 76
-7.337950e-001 -6.573736e-001 -4.196229e+000 106 84 64
2.450995e+000 -9.126311e-001 -5.872135e+000 48 43 49
2.576061e+000 -8.829878e-001 -5.858136e+000 100 98 103
2.591777e+000 -8.897681e-001 -5.902042e+000 100 98 103
2.753564e+000 -9.760817e-001 -5.740642e+000 40 38 43
2.923551e+000 -9.157137e-001 -5.587130e+000 41 39 44
2.980465e+000 -9.660420e-001 -5.577156e+000 41 38 45
-1.452503e+000 -7.294732e-001 -3.986101e+000 123 103 63
-1.429721e+000 -8.015738e-001 -4.026798e+000 71 62 35
-1.282029e+000 -7.903062e-001 -3.961133e+000 124 68 60
-1.106320e+000 -7.531011e-001 -4.118471e+000 197 105 66
2.777388e+000 -1.074049e+000 -5.672619e+000 42 40 45
2.864678e+000 -1.042628e+000 -5.562870e+000 80 78 83
-1.550610e+000 -8.187288e-001 -3.891381e+000 161 140 93
-1.550610e+000 -8.187288e-001 -3.891381e+000 161 140 93
-1.267321e+000 -8.810162e-001 -3.977035e+000 126 66 48
-8.905377e-001 -8.939316e-001 -3.899241e+000 87 32 16
-5.002054e-001 -1.001907e+000 -4.455751e+000 125 69 49
-3.611127e-001 -9.712232e-001 -4.532611e+000 114 50 25
-1.557871e-001 -1.121017e+000 -4.852596e+000 126 78 53
1.743829e+000 -1.363901e+000 -6.131299e+000 118 61 36
1.713803e+000 -1.390098e+000 -6.152059e+000 188 136 109
1.716739e+000 -1.395545e+000 -6.190962e+000 188 136 109
1.994645e+000 -1.401051e+000 -6.195530e+000 171 60 59
2.117568e+000 -1.377718e+000 -6.018350e+000 132 48 50
1.980137e+000 -1.654823e+000 -6.249702e+000 44 27 29
2.026749e+000 -1.597222e+000 -6.193978e+000 59 27 30
1.317733e+000 -1.852543e+000 -6.267297e+000 176 168 157
7.548686e-001 2.426027e+000 -7.240625e+000 211 209 197
7.249145e-001 2.302275e+000 -7.178959e+000 208 205 194
7.249145e-001 2.302275e+000 -7.178959e+000 208 205 194
1.043638e+000 1.927310e+000 -6.409053e+000 121 111 77
2.879047e+000 1.724694e+000 -6.099070e+000 61 60 68
2.957583e+000 1.703264e+000 -5.980118e+000 60 59 65
3.100083e+000 1.707583e+000 -5.937382e+000 53 50 57
2.729690e+000 1.612137e+000 -6.117385e+000 70 69 75
2.742020e+000 1.550639e+000 -6.038121e+000 177 176 182
3.029351e+000 1.486665e+000 -6.003821e+000 48 49 54
1.442276e+000 1.333502e+000 -6.046017e+000 148 140 103
1.442276e+000 1.333502e+000 -6.046017e+000 148 140 103
2.555868e+000 1.429109e+000 -6.133772e+000 149 148 151
2.646862e+000 1.367720e+000 -6.063951e+000 159 160 165
3.134996e+000 1.370822e+000 -5.844440e+000 44 43 48
-1.200462e+000 1.762365e+000 -8.875398e+000 60 39 40
7.765315e-001 1.227663e+000 -6.686918e+000 229 233 224
2.849504e+000 1.167897e+000 -6.075262e+000 62 62 67
2.971758e+000 1.068399e+000 -5.931155e+000 52 49 56
3.073731e+000 1.130919e+000 -5.889256e+000 44 42 47
3.368762e-001 1.229304e+000 -6.942866e+000 198 200 189
1.391354e+000 9.374936e-001 -6.089026e+000 201 201 166
3.048408e+000 1.028308e+000 -5.905948e+000 45 44 50
3.176580e+000 9.368926e-001 -5.940835e+000 42 39 46
2.160563e-001 1.034767e+000 -6.972050e+000 187 193 183
4.703980e-001 8.195672e-001 -6.678893e+000 236 242 234
1.059447e+000 9.102725e-001 -6.211450e+000 218 220 208
2.821817e+000 7.078376e-001 -5.929158e+000 54 52 57
2.911509e+000 7.160084e-001 -5.871450e+000 52 51 57
8.319239e-001 6.893989e-001 -6.448827e+000 239 242 231
2.853059e+000 6.617044e-001 -5.897381e+000 93 92 98
2.853059e+000 6.617044e-001 -5.897381e+000 93 92 98
3.176257e+000 5.389423e-001 -5.456922e+000 58 50 44
2.685004e+000 4.578745e-001 -5.935775e+000 89 88 93
2.690127e+000 4.583267e-001 -5.945139e+000 89 88 93
2.846824e+000 5.146855e-001 -5.887499e+000 53 52 57
2.945117e+000 3.443312e-001 -5.766345e+000 45 44 49
-3.345682e+000 6.003062e-001 -1.083727e+001 66 65 70
2.758228e+000 2.184462e-001 -5.934531e+000 52 51 56
2.822788e+000 3.418131e-001 -5.918915e+000 88 89 94
2.391592e-001 1.393534e-001 -5.646808e+000 227 233 223
2.391592e-001 1.393534e-001 -5.646808e+000 227 233 223
1.238494e+000 7.126851e-002 -5.581353e+000 156 153 146
9.123380e-001 -1.021765e-001 -5.550611e+000 193 194 189
2.788786e-001 -2.016837e-001 -4.857883e+000 179 182 174
3.881920e-001 -2.119588e-001 -4.976160e+000 99 96 87
-1.069571e+000 -2.085310e-001 -4.291352e+000 35 26 23
-6.903324e-001 -3.056036e-001 -4.876025e+000 161 74 35
-1.807970e-002 -3.151588e-001 -4.743200e+000 204 157 128
5.778539e-001 -3.916149e-001 -5.402591e+000 101 94 84
1.019285e+000 -4.691713e-001 -5.638762e+000 156 156 148
1.481503e+000 -4.574186e-001 -6.020835e+000 56 41 32
-1.311359e+000 -3.544149e-001 -4.185351e+000 40 28 28
-8.804529e-001 -4.567259e-001 -4.262323e+000 111 89 76
-6.817391e-001 -4.023364e-001 -4.678715e+000 162 81 37
1.478213e+000 -6.701704e-001 -6.077826e+000 133 99 65
1.478213e+000 -6.701704e-001 -6.077826e+000 133 99 65
2.417927e+000 -6.267158e-001 -5.782355e+000 107 92 62
2.562173e+000 -5.807463e-001 -5.716093e+000 116 101 67
2.817093e+000 -6.668589e-001 -5.848105e+000 108 104 105
2.895373e+000 -6.737320e-001 -5.773584e+000 101 97 104
2.898989e+000 -6.735936e-001 -5.780833e+000 101 97 104
3.012543e+000 -6.100636e-001 -5.697202e+000 63 62 65
3.034011e+000 -6.324527e-001 -5.656143e+000 38 36 41
-1.493222e+000 -4.952549e-001 -4.169968e+000 54 45 34
-1.492552e+000 -5.096693e-001 -4.094714e+000 136 122 80
-1.003119e+000 -5.038930e-001 -4.007119e+000 116 44 22
-6.526196e-001 -5.087264e-001 -4.216264e+000 150 123 73
1.638428e+000 -7.476680e-001 -6.223355e+000 60 33 22
2.856020e+000 -7.564585e-001 -5.765776e+000 48 46 51
2.775288e+000 -7.947072e-001 -5.801152e+000 53 52 57
2.901923e+000 -6.892064e-001 -5.680071e+000 44 43 48
2.995322e+000 -7.575240e-001 -5.699553e+000 39 37 42
3.015185e+000 -7.248420e-001 -5.563647e+000 40 35 41
-4.328050e-001 -7.447689e-001 -4.437899e+000 130 75 51
2.466983e+000 -1.001777e+000 -5.918242e+000 43 36 43
2.500185e+000 -9.851149e-001 -5.779615e+000 50 48 53
2.685935e+000 -9.332605e-001 -5.891968e+000 99 97 102
2.503227e+000 -1.070748e+000 -5.836217e+000 46 41 47
2.648930e+000 -1.074242e+000 -5.862589e+000 44 39 43
2.775901e+000 -1.193733e+000 -5.688864e+000 43 37 44
-9.269705e-001 -9.063739e-001 -3.908165e+000 112 60 50
-8.370819e-001 -9.306128e-001 -4.035310e+000 82 32 20
-7.118765e-001 -9.865442e-001 -4.227284e+000 83 52 40
-3.237375e-001 -9.903388e-001 -4.676511e+000 121 65 44
1.675112e+000 -1.425499e+000 -6.283284e+000 106 41 29
1.935287e+000 -1.260123e+000 -6.028628e+000 207 143 126
2.602421e+000 -1.249777e+000 -5.853227e+000 38 33 39
2.828950e+000 -1.184184e+000 -5.621979e+000 34 31 36
-3.905789e-001 -1.160944e+000 -4.788471e+000 87 28 17
-8.891539e-002 -1.222963e+000 -4.965410e+000 176 64 52
-8.931431e-002 -1.219787e+000 -4.954181e+000 176 64 52
-9.236655e-001 -1.089525e+000 -4.037537e+000 148 85 46
1.743418e+000 -1.734376e+000 -6.228120e+000 178 69 69
-2.461719e-001 -1.587998e+000 -5.078060e+000 74 37 27
1.467420e+000 2.849127e+000 -6.688118e+000 233 213 203
1.696967e+000 2.869053e+000 -6.658033e+000 178 78 76
1.718009e+000 2.742648e+000 -6.487734e+000 232 222 212
2.090198e+000 1.569648e+000 -5.844689e+000 133 60 60
3.103734e+000 1.532136e+000 -5.943851e+000 63 60 67
2.654048e+000 1.293702e+000 -5.895562e+000 57 57 67
2.700643e+000 1.241424e+000 -6.021634e+000 71 70 75
3.137980e+000 1.036180e+000 -5.866866e+000 40 38 45
-1.212437e+000 1.499600e+000 -9.035019e+000 50 42 44
2.396649e-001 1.227006e+000 -7.031685e+000 176 175 166
-3.995855e-001 1.016705e+000 -8.246893e+000 205 207 195
8.065129e-001 8.623071e-001 -6.705505e+000 219 221 207
1.411394e+000 6.361497e-001 -5.804701e+000 224 230 220
3.011016e+000 4.625596e-001 -5.848385e+000 44 42 45
4.952403e-002 2.325960e-001 -5.947849e+000 222 224 213
2.557102e+000 2.892703e-001 -6.002398e+000 49 49 47
-3.562564e-001 1.624784e-001 -5.156262e+000 221 226 214
-5.533278e-001 -8.422547e-002 -5.005578e+000 166 99 65
2.385327e+000 -9.614561e-002 -5.821328e+000 180 176 129
-4.377932e-001 -1.928600e-001 -4.557605e+000 69 55 74
2.004862e-002 -2.186151e-001 -4.643205e+000 208 200 190
8.861034e-001 -5.901461e-001 -5.779125e+000 147 143 134
1.603033e+000 -6.700108e-001 -6.120284e+000 178 149 117
2.943596e+000 -6.602150e-001 -5.738758e+000 49 44 50
9.317991e-001 -7.232203e-001 -5.790314e+000 200 202 193
9.916870e-001 -6.904498e-001 -5.842310e+000 60 44 36
2.544825e+000 -8.770892e-001 -5.920803e+000 52 50 55
2.913420e+000 -7.908422e-001 -5.734769e+000 41 39 44
3.119055e+000 -7.140027e-001 -5.560522e+000 48 46 51
3.003480e+000 -8.301027e-001 -5.601846e+000 38 36 41
2.602585e+000 -9.362959e-001 -5.858304e+000 61 60 65
2.827093e+000 -9.360894e-001 -5.697110e+000 42 40 45
2.899256e+000 -8.633500e-001 -5.651665e+000 40 38 43
2.922597e+000 -1.004463e+000 -5.641819e+000 43 40 47
-8.170562e-001 -7.217994e-001 -4.094866e+000 128 72 50
-2.203487e-001 -1.102555e+000 -4.763211e+000 111 53 34
-1.232620e-001 -1.088101e+000 -4.895645e+000 160 116 85
1.629729e+000 -1.505279e+000 -6.386007e+000 202 96 97
-3.476357e-002 -1.308690e+000 -4.965098e+000 219 128 83
1.713740e+000 -1.518864e+000 -6.277818e+000 205 90 97
1.650449e-001 3.116651e+000 -8.031545e+000 199 69 68
-3.510104e-001 2.803147e+000 -8.655501e+000 60 51 49
2.376994e-001 2.661950e+000 -7.916245e+000 211 202 188
2.321305e+000 2.066741e+000 -6.031638e+000 199 83 83
-7.034312e-001 2.183247e+000 -8.596868e+000 55 50 57
4.830412e-001 1.812388e+000 -7.099795e+000 189 191 180
2.532517e+000 1.337152e+000 -5.937984e+000 74 73 82
2.871244e+000 1.061847e+000 -5.968928e+000 59 56 63
7.500605e-002 6.165279e-001 -6.684763e+000 224 226 213
3.100316e-001 4.515815e-001 -6.185859e+000 189 190 176
2.811489e+000 4.113474e-001 -5.866638e+000 58 57 62
-4.625226e-001 1.382578e-002 -5.137478e+000 211 214 199
-4.625226e-001 1.382578e-002 -5.137478e+000 211 214 199
-4.858396e-001 -2.259009e-001 -4.585078e+000 213 182 141
-3.147121e-001 -1.723391e-001 -4.641212e+000 204 185 143
-1.251959e-002 -2.581053e-001 -4.612775e+000 174 77 69
4.226536e-001 -3.497758e-001 -4.723231e+000 147 149 138
8.121139e-001 -4.750131e-001 -5.583939e+000 111 102 94
2.357577e+000 -7.536818e-001 -5.942894e+000 187 80 77
3.137025e+000 -7.828121e-001 -5.540369e+000 86 85 91
-1.346325e+000 -6.243392e-001 -3.979181e+000 77 33 28
7.648759e-001 -8.619176e-001 -5.708049e+000 89 80 74
1.502810e+000 -1.161710e+000 -6.186747e+000 179 142 108
-1.278490e+000 -8.882797e-001 -4.120000e+000 89 34 22
-7.344940e-002 -9.797831e-001 -4.628128e+000 141 81 51
-9.156589e-001 -9.508212e-001 -3.976740e+000 65 27 14
-1.058247e-001 -1.168198e+000 -4.952134e+000 70 31 29
1.233967e+000 -1.548964e+000 -6.275044e+000 152 142 132
-8.872016e-001 -1.088736e+000 -4.081224e+000 41 32 35
1.239403e+000 -1.842936e+000 -6.359383e+000 189 181 170
2.331830e+000 2.535715e+000 -5.907973e+000 43 31 36
2.597814e+000 2.622048e+000 -6.162140e+000 43 33 42
4.119043e-001 3.017965e+000 -7.615371e+000 187 76 72
-3.423325e-003 3.218437e+000 -8.465881e+000 42 53 56
1.819303e+000 2.296471e+000 -6.212298e+000 207 200 182
-1.402715e-001 2.806264e+000 -8.333010e+000 189 70 66
9.483204e-001 1.569590e+000 -6.451779e+000 212 212 201
9.930624e-001 1.616098e+000 -6.687225e+000 212 212 201
1.381869e+000 1.583850e+000 -6.269233e+000 150 142 100
-3.289115e-001 1.954697e+000 -8.433374e+000 209 215 201
-7.096001e-001 1.068841e+000 -8.534261e+000 199 201 188
-2.570210e-002 8.975628e-001 -7.225749e+000 235 241 229
-3.140045e-001 7.605046e-001 -8.114150e+000 186 184 172
1.480006e-001 -3.673471e-001 -4.623299e+000 182 79 68
1.271623e+000 -4.955608e-001 -5.858246e+000 101 66 53
1.101129e+000 -6.772556e-001 -5.843316e+000 64 32 27
1.623709e+000 -5.970481e-001 -6.196418e+000 73 50 37
1.300293e+000 -7.786488e-001 -6.071817e+000 52 36 34
-1.580155e+000 -5.661746e-001 -4.054618e+000 36 31 31
-5.404779e-001 -6.925981e-001 -4.267633e+000 102 59 35
-1.553094e+000 -6.966814e-001 -3.978435e+000 46 33 26
4.308882e-001 -9.567646e-001 -5.059092e+000 82 65 54
1.187261e+000 -1.036878e+000 -5.829740e+000 163 161 152
-1.322124e+000 -8.834102e-001 -3.984673e+000 41 41 39
-1.322124e+000 -8.834102e-001 -3.984673e+000 41 41 39
1.417859e+000 -2.042526e+000 -6.518915e+000 178 172 160
7.461358e-001 2.974740e+000 -7.297768e+000 203 88 91
2.345380e-001 2.894494e+000 -7.908738e+000 184 70 65
7.698141e-001 2.093721e+000 -6.879343e+000 235 235 226
3.785003e-001 1.949516e+000 -7.520778e+000 230 230 218
2.384630e+000 1.589998e+000 -5.968002e+000 190 92 86
1.197655e-001 1.720319e+000 -7.566404e+000 243 248 241
2.436709e-001 1.283600e+000 -6.965662e+000 194 194 182
1.101772e+000 1.125239e+000 -6.384160e+000 230 235 228
9.543486e-001 6.020261e-001 -5.795773e+000 93 91 69
9.543486e-001 6.020261e-001 -5.795773e+000 93 91 69
8.473891e-002 -9.028317e-002 -4.834449e+000 181 187 177
3.705459e-001 -1.702109e-001 -4.937312e+000 111 107 99
-1.553430e-001 -3.254768e-001 -4.662907e+000 213 175 130
-1.268975e-001 -3.300212e-001 -4.683728e+000 213 175 130
1.420909e+000 -5.296782e-001 -5.997976e+000 174 146 115
1.383985e+000 -8.496559e-001 -5.983958e+000 224 191 150
1.722711e+000 -7.789407e-001 -6.240950e+000 70 32 33
3.059284e+000 -8.912740e-001 -5.581263e+000 65 62 69
-1.204121e+000 -8.380644e-001 -3.978142e+000 124 73 69
-1.258267e-001 -1.544880e+000 -5.056305e+000 81 36 31
-2.046189e-001 3.489839e+000 -8.992944e+000 83 82 88
1.091074e+000 2.667763e+000 -6.608579e+000 126 117 78
-8.803174e-002 1.910744e+000 -8.033071e+000 184 181 165
-5.613409e-001 8.847578e-001 -8.381599e+000 224 226 213
1.082293e+000 5.720635e-001 -5.558026e+000 230 233 223
5.896643e-001 -9.895204e-002 -5.333083e+000 203 208 201
1.232840e+000 -1.634525e-001 -5.661408e+000 152 149 142
-6.230802e-001 -4.287985e-001 -4.577779e+000 157 83 48
7.696066e-001 -9.385408e-001 -5.649794e+000 87 73 65
-3.904859e-001 -9.802304e-001 -4.557266e+000 117 56 29
-1.532941e-001 -1.204638e+000 -4.909631e+000 65 26 22
1.267178e-001 -1.333395e+000 -5.084803e+000 74 36 28
2.784766e+000 2.406218e+000 -5.823454e+000 202 85 88
2.787284e+000 2.163745e+000 -5.770504e+000 33 24 29
-1.715489e-001 9.242374e-001 -7.805702e+000 236 241 234
1.908083e-002 3.405125e-001 -6.360165e+000 181 182 168
4.996661e-001 -2.674689e-001 -5.164327e+000 85 78 72
5.166513e-001 -2.929711e-001 -5.447255e+000 85 78 72
-2.228282e-001 -5.192712e-001 -4.639269e+000 110 61 39
-2.085747e-002 -5.265775e-001 -4.696355e+000 216 179 137
1.113175e+000 -1.215715e+000 -6.005430e+000 90 68 54
1.653494e-002 -3.076251e+000 -7.393306e+000 27 14 20
1.550700e+000 2.688446e+000 -6.565828e+000 227 221 202
2.003633e+000 -5.353756e-002 -5.896816e+000 66 37 39
2.874706e+000 -2.935734e-001 -5.501949e+000 131 116 75
-9.333452e-001 -4.712368e-001 -4.381474e+000 100 64 45
3.442408e-001 -7.086670e-001 -4.781923e+000 58 33 26
-1.142274e+000 -7.144974e-001 -3.986975e+000 227 135 90
-1.697294e-001 1.129616e-001 -4.953927e+000 218 219 211
-4.413379e-001 -3.473502e-001 -4.625954e+000 223 180 135
2.582912e+000 -3.876968e-001 -5.891529e+000 194 179 124
6.927156e-001 -5.953923e-001 -5.541427e+000 43 32 35
7.019811e-001 -6.211441e-001 -5.729653e+000 43 32 35
3.323748e+000 1.746238e+000 -6.515632e+000 98 97 103
1.275270e+000 1.366552e+000 -6.026452e+000 127 118 84
1.593560e+000 -3.106319e-001 -5.907152e+000 58 46 38
3.085744e-002 -8.931595e-001 -4.859068e+000 231 195 145
-2.100375e-001 -1.399736e+000 -5.300801e+000 96 41 30
5.998716e-001 -1.892134e+000 -6.777455e+000 56 21 23
-1.159497e+000 -6.584040e-001 -4.070821e+000 191 98 57
2.048928e+000 8.809232e-001 -5.863141e+000 219 218 210
-7.380372e-001 2.539519e+000 -9.096499e+000 69 65 72
1.386541e+000 2.354658e+000 -6.168153e+000 155 142 105
-9.893898e-001 2.262065e+000 -9.252860e+000 57 55 59
2.555623e+000 2.499056e+000 -5.949904e+000 48 35 38
1.056852e+000 2.045195e+000 -6.453247e+000 157 148 105
1.351922e+000 2.049758e+000 -6.288411e+000 198 188 135
-3.488046e+000 1.081784e+000 -1.097097e+001 63 62 67
-3.473516e+000 1.020324e+000 -1.102768e+001 62 61 66
-3.460886e+000 9.230013e-001 -1.102969e+001 68 67 72
-3.444954e+000 9.207103e-001 -1.098763e+001 68 67 72
-3.341015e+000 9.834606e-001 -1.090302e+001 57 56 62
2.756508e+000 1.826016e+000 -6.095494e+000 53 49 58
1.162104e+000 1.408854e+000 -6.206250e+000 136 125 93
1.438685e+000 1.515595e+000 -6.219784e+000 214 207 162
2.579567e+000 1.600261e+000 -6.098896e+000 128 126 134
2.708952e+000 1.675856e+000 -6.083239e+000 65 64 70
1.171105e+000 1.212320e+000 -6.600144e+000 205 207 193
2.548940e+000 1.529151e+000 -6.152242e+000 90 90 98
2.545641e+000 1.502872e+000 -6.089398e+000 61 59 66
2.738379e+000 1.520400e+000 -6.086411e+000 79 76 83
2.560683e+000 1.404613e+000 -6.046029e+000 59 58 63
2.633356e+000 1.313175e+000 -5.987525e+000 62 59 67
2.668393e+000 1.289843e+000 -6.022235e+000 101 98 103
2.884246e+000 1.279814e+000 -5.926151e+000 45 42 49
-5.263838e-001 1.018211e-001 -4.977725e+000 153 79 46
-6.220211e-001 7.434108e-003 -5.054675e+000 212 135 92
-1.604782e-001 -2.154694e-002 -5.722079e+000 214 218 203
5.917686e-001 1.965466e-001 -5.673433e+000 207 211 200
2.740501e+000 5.739073e-001 -6.020443e+000 57 53 60
2.802098e+000 5.680121e-001 -5.880436e+000 51 50 55
2.802098e+000 5.680121e-001 -5.880436e+000 51 50 55
2.956703e+000 5.142702e-001 -5.811385e+000 61 60 65
2.956703e+000 5.142702e-001 -5.811385e+000 61 60 65
-4.088623e-001 -1.020612e-001 -4.603746e+000 150 122 110
2.682628e+000 1.996978e-001 -5.884491e+000 73 71 74
2.850120e+000 3.171922e-001 -5.796109e+000 70 69 74
2.976848e+000 3.480270e-001 -5.750251e+000 60 59 64
1.205026e+000 -2.564681e-001 -5.703479e+000 166 166 156
-1.468724e+000 -5.523117e-001 -4.063989e+000 158 136 87
-1.388295e+000 -4.856613e-001 -4.111135e+000 106 61 52
-9.977270e-001 -5.321672e-001 -4.030828e+000 144 73 53
-7.642017e-001 -6.520491e-001 -4.182157e+000 79 61 61
-3.388502e-001 -8.007505e-001 -4.759250e+000 146 101 67
2.721340e+000 -7.444378e-001 -5.864388e+000 65 60 62
-8.097175e-001 -8.585053e-001 -4.048550e+000 102 35 10
-4.857187e-001 -1.023463e+000 -4.473888e+000 133 60 27
9.135086e-001 -1.749580e+000 -6.685319e+000 108 92 76
1.603006e+000 -1.173291e+000 -6.089308e+000 199 160 115
3.085987e+000 -7.486804e-001 -5.608624e+000 52 47 51
-1.819168e-001 -1.264940e+000 -4.781713e+000 127 56 30
2.788720e+000 -1.066108e+000 -5.702244e+000 33 28 32
1.625593e+000 2.558642e+000 -6.416048e+000 207 197 179
-3.240431e+000 6.686620e-001 -1.090657e+001 54 53 58
2.841042e-001 1.266481e+000 -6.901018e+000 211 212 197
2.753803e+000 1.789757e+000 -6.051748e+000 111 106 113
2.683702e+000 1.690256e+000 -6.114083e+000 134 132 137
2.683702e+000 1.690256e+000 -6.114083e+000 134 132 137
2.661230e+000 1.605474e+000 -6.074132e+000 157 156 162
2.660263e+000 1.466716e+000 -6.061957e+000 120 117 124
2.685174e+000 1.468242e+000 -6.022912e+000 54 51 58
2.749359e+000 1.570348e+000 -6.143242e+000 66 63 70
2.779580e+000 1.603196e+000 -6.004524e+000 59 58 64
2.903296e+000 1.636067e+000 -6.038688e+000 56 53 60
2.765137e+000 1.356372e+000 -6.001656e+000 49 47 52
1.446288e-001 6.195657e-001 -6.700692e+000 234 238 224
4.729197e-001 4.373373e-001 -6.565497e+000 203 213 203
6.364126e-001 5.914277e-001 -6.530721e+000 213 217 203
1.847069e+000 8.803085e-001 -6.152309e+000 224 224 214
1.891870e+000 8.461790e-001 -5.799706e+000 213 213 201
2.871096e+000 1.138186e+000 -6.007420e+000 82 77 83
-4.907837e-001 1.559581e-001 -5.100804e+000 156 96 68
1.436449e+000 6.054310e-001 -5.163937e+000 217 222 215
2.806001e+000 7.610355e-001 -5.892603e+000 75 74 78
3.033624e+000 8.284806e-001 -5.939813e+000 40 38 43
-6.626141e-001 -1.916754e-001 -4.990968e+000 220 119 66
-3.271691e-001 -1.289532e-002 -4.616377e+000 170 79 79
3.358460e-001 -2.492900e-002 -5.188437e+000 205 212 204
2.871903e+000 4.694027e-001 -5.870727e+000 66 65 70
-5.715474e-001 -2.437977e-001 -4.762875e+000 185 95 59
-4.859777e-001 -1.631242e-001 -4.547541e+000 174 144 114
-3.389412e-001 -7.978164e-002 -4.553039e+000 88 74 63
-3.389412e-001 -7.978164e-002 -4.553039e+000 88 74 63
2.782816e+000 2.322123e-001 -5.857389e+000 65 63 66
7.269873e-001 -2.919368e-001 -5.438052e+000 177 178 170
2.692926e+000 6.483379e-002 -5.788050e+000 133 118 87
-1.477186e+000 -5.312884e-001 -4.056920e+000 102 82 33
-6.467457e-001 -4.232100e-001 -4.516553e+000 175 93 54
1.190171e+000 -3.423040e-001 -5.675820e+000 162 162 151
-1.457309e+000 -5.767177e-001 -4.076881e+000 117 94 44
-1.449963e+000 -5.694760e-001 -4.058042e+000 117 94 44
-7.954281e-001 -4.957121e-001 -4.310299e+000 208 188 164
1.463729e+000 -6.671068e-001 -6.050101e+000 164 124 82
-1.488510e+000 -6.656395e-001 -3.990596e+000 148 127 77
-1.104259e+000 -6.990816e-001 -3.954002e+000 224 132 89
-9.903109e-001 -6.973582e-001 -3.967317e+000 183 97 62
1.667372e+000 -1.263903e+000 -6.178224e+000 210 172 129
2.586532e+000 -8.832204e-001 -5.892592e+000 65 60 64
2.716054e+000 -8.325446e-001 -5.956041e+000 59 54 58
3.057944e+000 -6.517963e-001 -5.562607e+000 32 27 31
3.057944e+000 -6.517963e-001 -5.562607e+000 32 27 31
-7.555713e-001 -9.382299e-001 -4.111481e+000 91 42 19
3.294779e-002 -1.136171e+000 -4.886084e+000 177 122 89
1.725807e+000 -1.403705e+000 -6.189643e+000 191 130 106
2.276936e+000 -1.406282e+000 -6.204979e+000 43 18 18
2.757418e+000 -1.077006e+000 -5.860357e+000 52 47 51
1.703872e+000 2.260272e+000 -6.208806e+000 203 197 184
2.653778e+000 1.650783e+000 -6.096458e+000 63 57 63
2.735680e+000 1.729342e+000 -6.059374e+000 160 156 162
2.854860e+000 1.702279e+000 -6.046169e+000 60 57 64
-3.946993e-001 8.811186e-001 -8.213622e+000 221 222 207
2.719004e+000 1.542585e+000 -5.987143e+000 158 155 162
2.719004e+000 1.542585e+000 -5.987143e+000 158 155 162
2.779574e+000 1.494508e+000 -6.042524e+000 56 53 60
2.655180e+000 1.364451e+000 -6.072619e+000 128 125 134
2.809413e+000 1.400900e+000 -6.082711e+000 52 49 55
2.795085e+000 1.398811e+000 -6.052772e+000 52 49 55
2.785079e+000 1.446276e+000 -6.015461e+000 115 112 120
2.774395e+000 1.443992e+000 -5.991128e+000 115 112 120
2.859343e+000 1.432677e+000 -6.053498e+000 52 49 56
2.723317e+000 1.372527e+000 -5.997147e+000 111 109 114
8.341703e-001 7.954973e-001 -6.563444e+000 237 239 225
1.376343e+000 8.796570e-001 -6.008189e+000 229 231 214
2.769712e+000 1.270465e+000 -6.055771e+000 108 107 113
2.705628e+000 1.249418e+000 -5.818487e+000 53 50 57
3.294523e-001 5.154922e-001 -6.331413e+000 213 216 205
2.863906e+000 1.030897e+000 -5.963169e+000 49 46 55
-2.242394e+000 -7.257206e-001 -1.047714e+001 24 19 21
-2.303981e+000 -7.850433e-001 -1.044706e+001 59 57 60
-6.320096e-001 -1.222160e-001 -4.965624e+000 210 113 62
-2.051220e-001 1.246922e-002 -4.766236e+000 185 184 172
4.867195e-001 -3.914871e-003 -5.347266e+000 194 204 195
-3.701738e-001 -1.078858e-001 -4.594854e+000 168 155 131
-2.236358e-001 -1.316360e-001 -4.582043e+000 182 137 104
-2.208737e-001 -1.273433e-001 -4.544468e+000 182 137 104
2.357296e-001 -1.328654e-001 -4.812753e+000 161 166 156
2.591176e+000 2.555910e-001 -5.886741e+000 50 48 53
2.933580e+000 2.853851e-001 -5.883247e+000 40 38 45
-8.050385e-001 -3.694767e-001 -4.675155e+000 196 111 66
-6.517526e-001 -3.919117e-001 -4.648500e+000 217 120 75
-9.083469e-001 -4.195644e-001 -4.234163e+000 85 42 24
5.772080e-001 -4.025198e-001 -5.454703e+000 122 116 104
-1.418567e+000 -5.607767e-001 -4.058692e+000 154 126 79
-1.349631e+000 -5.252933e-001 -4.020888e+000 119 67 57
-6.875446e-001 -5.022374e-001 -4.201556e+000 219 181 132
8.184066e-001 -8.442453e-001 -5.645514e+000 153 149 137
1.627667e+000 -7.954308e-001 -6.161429e+000 183 140 108
1.546645e+000 -7.941914e-001 -6.043427e+000 143 95 59
1.684264e+000 -8.359730e-001 -6.133872e+000 146 56 45
1.913348e+000 -7.975419e-001 -6.323280e+000 188 78 76
2.038500e+000 -7.538519e-001 -6.129141e+000 192 79 76
-1.518345e+000 -7.532368e-001 -3.896751e+000 142 121 67
-1.011258e+000 -7.550566e-001 -3.946657e+000 210 118 77
-9.585057e-001 -7.591097e-001 -3.951044e+000 192 104 64
-8.789921e-001 -9.018727e-001 -4.014821e+000 149 76 47
1.626787e+000 -1.119747e+000 -5.990586e+000 214 178 132
1.608843e+000 -1.256371e+000 -6.111864e+000 165 122 84
2.741811e+000 -9.113307e-001 -5.906737e+000 44 39 43
-9.176167e-001 -9.354408e-001 -3.913750e+000 92 39 25
3.106323e+000 -7.644162e-001 -5.522295e+000 63 58 62
-2.439351e-001 -1.371501e+000 -4.804053e+000 134 67 41
2.046445e+000 1.541949e+000 -5.794321e+000 136 61 57
2.520370e+000 1.592971e+000 -6.082835e+000 58 41 43
1.203526e+000 1.230982e+000 -6.553474e+000 234 233 213
2.751193e+000 1.605536e+000 -6.148345e+000 58 57 63
2.742953e+000 1.319302e+000 -6.073241e+000 55 50 57
2.835987e+000 1.464758e+000 -5.969937e+000 50 47 55
7.093392e-001 8.134766e-001 -6.517292e+000 232 235 222
3.136429e-001 4.612172e-001 -6.145547e+000 196 200 184
2.785804e+000 1.116450e+000 -5.942251e+000 54 53 59
2.997403e+000 1.062319e+000 -5.988951e+000 42 39 46
-3.525754e+000 -1.243527e+000 -1.104101e+001 54 52 57
1.734412e-001 1.354451e-001 -5.706628e+000 200 207 199
8.033837e-003 6.755052e-002 -5.677780e+000 202 208 204
4.989907e-001 1.428096e-001 -5.543316e+000 202 209 197
-4.104782e-001 -7.962563e-002 -4.677522e+000 116 49 49
-4.942945e-001 -1.883879e-001 -4.580264e+000 196 173 128
-3.078637e-001 -1.411995e-001 -4.503794e+000 202 184 142
-7.028515e-001 -4.124745e-001 -4.661777e+000 154 68 32
2.377279e+000 -9.131799e-002 -5.785555e+000 214 199 149
-1.580280e+000 -4.722057e-001 -4.071234e+000 141 119 71
-1.553105e+000 -5.386370e-001 -4.076111e+000 147 127 77
-8.823044e-001 -4.556319e-001 -4.254127e+000 119 93 70
-8.803489e-001 -3.943029e-001 -4.380193e+000 171 135 108
-5.640282e-001 -4.359598e-001 -4.674188e+000 214 169 122
-5.449416e-001 -4.470947e-001 -4.542388e+000 154 89 48
-3.505980e-002 -3.103615e-001 -4.656872e+000 216 171 128
1.617836e+000 -6.704837e-001 -6.109253e+000 182 148 107
-1.308441e+000 -6.401544e-001 -3.993350e+000 117 63 55
9.648474e-001 -7.090077e-001 -5.602006e+000 182 179 164
1.843904e+000 -8.628218e-001 -6.190228e+000 194 76 69
3.216495e+000 -6.328762e-001 -5.607984e+000 32 30 33
1.637353e+000 -1.401578e+000 -6.182179e+000 176 91 78
1.783352e+000 -1.430915e+000 -6.234836e+000 152 71 61
7.994265e-001 2.369707e+000 -7.081046e+000 238 238 226
2.654319e-002 1.079420e+000 -7.647370e+000 219 221 208
2.556087e+000 1.423162e+000 -5.954036e+000 61 60 64
2.704968e+000 1.434249e+000 -6.039027e+000 55 53 58
-1.401693e+000 2.249082e-002 -9.107669e+000 219 212 201
-6.186298e-001 4.176784e-001 -8.398203e+000 229 233 221
-1.763778e+000 -2.986687e-001 -9.502746e+000 179 61 57
3.565955e-001 5.708187e-001 -6.527473e+000 195 201 189
-1.294314e-001 1.925157e-001 -6.011802e+000 195 200 193
1.399288e+000 5.390225e-001 -5.656674e+000 193 196 189
-1.638072e+000 -4.843216e-001 -4.091717e+000 163 146 90
-1.710460e+000 -6.861428e-001 -3.949968e+000 36 23 23
-3.259492e-001 -5.639786e-001 -4.595180e+000 142 80 48
8.872586e-001 -6.767384e-001 -5.859721e+000 85 76 69
9.068320e-001 -6.613066e-001 -5.805925e+000 85 76 69
9.324593e-001 -7.365930e-001 -5.818741e+000 201 199 187
1.575473e+000 -5.777508e-001 -6.057855e+000 81 55 32
-1.014569e+000 -6.234080e-001 -4.006753e+000 112 42 21
2.269538e+000 -6.750750e-001 -5.961308e+000 105 77 47
-1.367483e+000 -8.024317e-001 -3.945615e+000 151 120 74
-6.817477e-001 -7.988664e-001 -4.188073e+000 125 58 33
1.552085e+000 -1.283035e+000 -6.134381e+000 219 191 141
-1.107506e-001 -3.938315e+000 -7.807376e+000 169 51 49
-1.145400e-001 -3.910446e+000 -7.762262e+000 169 51 49
-3.308159e-001 1.941632e+000 -8.395835e+000 216 210 199
1.120640e+000 1.986101e+000 -6.419200e+000 213 201 143
2.477199e+000 1.962112e+000 -5.752209e+000 175 67 68
-1.341330e+000 2.698315e-001 -9.095207e+000 217 217 202
2.209918e-001 7.536595e-001 -6.688302e+000 238 241 230
1.205945e+000 1.127539e+000 -6.272990e+000 129 117 85
2.671912e-001 -6.377851e-002 -5.048202e+000 157 163 156
-2.155727e-001 -2.582979e-001 -4.592809e+000 159 115 79
-8.853112e-001 -5.108436e-001 -4.218163e+000 123 67 42
2.667054e+000 -2.807363e-001 -5.734356e+000 150 133 80
-1.321887e+000 -7.528460e-001 -3.962134e+000 69 22 14
2.510509e+000 -6.697849e-001 -5.812652e+000 38 30 28
3.284439e+000 -7.001316e-001 -5.641519e+000 51 47 53
-9.144591e-001 -9.302302e-001 -3.981400e+000 86 33 23
1.837517e+000 -1.350569e+000 -6.097494e+000 197 159 115
-2.598959e-002 -3.774104e+000 -7.752076e+000 18 15 12
1.011152e+000 2.500956e+000 -6.111475e+000 134 120 83
1.316407e+000 1.698082e+000 -6.130491e+000 162 153 103
2.453961e-001 1.288242e+000 -7.016166e+000 180 179 167
2.218511e+000 -1.826859e-002 -5.972112e+000 195 82 81
-5.786548e-002 -6.966856e-001 -4.824095e+000 185 146 102
3.020568e+000 -1.785207e-001 -5.199169e+000 118 99 62
1.134924e+000 -1.196701e+000 -5.976065e+000 116 103 87
-1.666576e-001 -1.184339e+000 -4.822377e+000 60 19 19
-4.425726e-001 1.126442e-001 -5.280308e+000 102 59 47
-2.267455e-001 -8.621399e-002 -4.520865e+000 169 88 83
1.114101e+000 -3.685053e-003 -5.557513e+000 211 216 209
-9.828433e-001 -5.526680e-001 -4.098056e+000 125 57 36
-3.929642e-001 -9.866182e-001 -4.584832e+000 137 62 35
-8.190609e-001 -9.792443e-001 -3.943459e+000 36 24 30
2.893175e-002 -3.770990e+000 -7.945051e+000 23 12 15
-1.087420e-001 9.038909e-001 -6.755250e+000 235 237 226
-8.702262e-001 -8.313232e-001 -4.000940e+000 174 90 59
1.878721e-002 3.594981e-001 -6.135344e+000 174 176 165
1.808365e+000 -1.812640e+000 -6.174743e+000 35 28 34
1.233822e+000 1.730330e+000 -6.538858e+000 124 115 79
-4.551396e-001 -3.505054e-001 -4.618050e+000 229 187 135
2.329049e+000 -2.675526e-001 -5.843187e+000 108 87 57
-1.167744e+000 -5.050033e-001 -4.061134e+000 230 138 86
6.825230e-001 -6.046202e-001 -5.653937e+000 51 40 38
2.273202e+000 -6.119223e-001 -5.339873e+000 49 42 49
-7.843055e-001 -5.476214e-002 -5.072394e+000 223 221 209
-1.428795e+000 -3.627865e-001 -4.265871e+000 42 38 37
-1.084900e+000 -7.069044e-001 -3.872438e+000 222 122 63
-4.445802e-001 -8.458114e-001 -4.663980e+000 132 70 42
-4.445802e-001 -8.458114e-001 -4.663980e+000 132 70 42
-1.918805e-001 -1.378691e+000 -5.228473e+000 61 18 23
2.679786e+000 -2.543449e-001 -5.825829e+000 166 149 94
1.138850e+000 2.339313e+000 -6.214508e+000 112 103 70
1.138850e+000 2.339313e+000 -6.214508e+000 112 103 70
1.480423e+000 -2.063602e+000 -6.595671e+000 205 201 190
-1.142820e+000 -6.631589e-001 -4.086264e+000 184 87 42
2.089817e+000 8.563878e-001 -5.948551e+000 223 221 209
1.881255e+000 2.246661e+000 -6.166583e+000 229 226 214
-3.716527e-001 3.150476e+000 -8.953277e+000 72 71 76
2.896453e+000 1.686361e+000 -5.962021e+000 111 110 115
2.718871e+000 1.481368e+000 -6.017472e+000 128 127 133
2.659488e+000 1.287758e+000 -6.002874e+000 124 125 129
2.610909e+000 4.051171e-001 -5.964033e+000 67 69 71
4.912062e-001 -6.006336e-003 -5.240677e+000 191 197 187
4.757945e-001 -5.969861e-002 -5.242752e+000 182 187 180
3.320831e+000 -5.375838e-001 -5.502174e+000 102 102 106
3.151683e+000 -5.945611e-001 -5.579992e+000 55 52 56
2.884819e+000 -7.470747e-001 -5.737670e+000 71 69 74
2.884819e+000 -7.470747e-001 -5.737670e+000 71 69 74
3.036426e+000 -7.869185e-001 -5.578431e+000 42 40 45
3.036230e+000 -8.206921e-001 -5.609085e+000 55 54 59
1.723597e+000 -1.250965e+000 -6.059462e+000 181 145 100
2.084504e+000 -1.447817e+000 -6.052510e+000 129 44 50
-7.940934e-001 -9.058522e-001 -4.061671e+000 81 35 22
2.763342e+000 1.691072e+000 -6.026116e+000 56 57 61
2.859127e+000 1.772115e+000 -6.068895e+000 95 96 100
2.960791e+000 1.629387e+000 -5.927138e+000 143 143 150
2.919664e+000 1.615405e+000 -5.925359e+000 62 61 67
2.729905e+000 1.372758e+000 -6.011109e+000 146 147 152
2.871084e+000 1.283377e+000 -5.976197e+000 130 131 136
2.898390e+000 1.356949e+000 -5.926504e+000 50 51 56
2.937958e+000 1.329527e+000 -5.949906e+000 107 109 114
2.704265e+000 1.279393e+000 -6.014012e+000 70 71 75
2.975700e+000 7.586824e-001 -5.857477e+000 46 45 51
3.152461e+000 7.144308e-001 -5.829232e+000 45 44 50
2.557397e+000 3.937383e-001 -5.981217e+000 51 40 44
2.718838e+000 4.261763e-001 -5.920965e+000 55 55 63
2.777025e+000 3.677448e-001 -5.892594e+000 59 60 65
1.831878e+000 4.296140e-001 -5.961548e+000 229 232 225
1.649345e-001 2.005115e-001 -5.840284e+000 223 226 217
7.390488e-001 -2.012322e-001 -5.390884e+000 147 148 142
7.390488e-001 -2.012322e-001 -5.390884e+000 147 148 142
1.250027e+000 -2.488728e-001 -5.645647e+000 168 164 155
1.249533e+000 -2.616688e-001 -5.720351e+000 168 164 155
2.376148e+000 -7.193518e-001 -5.929466e+000 149 75 68
1.001858e-001 -5.531986e-001 -4.565118e+000 188 142 106
2.862545e+000 1.587503e+000 -6.013143e+000 62 61 66
2.896489e+000 1.589530e+000 -5.961594e+000 163 162 167
2.687431e+000 1.384082e+000 -6.026969e+000 65 66 71
2.865944e+000 1.339053e+000 -5.958757e+000 54 55 60
2.745149e+000 1.266820e+000 -6.004188e+000 147 152 155
2.785469e+000 -8.845694e-001 -5.784050e+000 41 40 45
1.880422e+000 -9.500657e-001 -6.141360e+000 123 39 33
-9.564132e-001 -4.804175e-001 -4.079461e+000 137 73 56
2.699636e+000 1.429978e+000 -6.024484e+000 60 59 65
1.045220e+000 -1.187405e-001 -5.591536e+000 154 155 149
2.329517e+000 -6.889232e-001 -5.957690e+000 100 59 41
-4.118030e-001 2.652402e+000 -8.428385e+000 67 61 66
1.115880e+000 1.983990e+000 -6.422926e+000 180 171 120
2.681658e+000 -4.841367e-001 -5.632216e+000 121 106 66
2.182136e+000 2.462651e+000 -5.839365e+000 234 233 225
-4.814567e-001 1.919093e+000 -8.386475e+000 195 79 78
-1.005486e+000 8.960540e-001 -8.974311e+000 209 210 197
2.272195e+000 -7.595284e-001 -5.801875e+000 190 78 77
2.598957e+000 2.111681e+000 -5.834739e+000 191 87 80
2.312825e+000 1.917305e+000 -5.658120e+000 190 77 78
-1.248175e-001 -1.957882e-001 -4.592485e+000 148 81 66
1.863954e+000 1.432649e+000 -5.852588e+000 234 234 226
-1.861631e-002 1.164630e+000 -7.767506e+000 216 217 204
1.416364e-001 6.203500e-001 -6.664614e+000 230 233 224
-1.336470e+000 -3.573445e-001 -4.155117e+000 83 48 46
-1.362862e+000 -5.966452e-001 -3.969152e+000 96 47 38
-1.459647e+000 -6.778955e-001 -3.998692e+000 105 86 41
-1.529150e+000 -7.626677e-001 -3.921209e+000 131 111 65
2.188851e+000 -1.746990e+000 -6.712456e+000 156 54 60
2.698087e+000 6.129260e-001 -5.974162e+000 56 54 60
2.563376e+000 4.391180e-001 -5.893306e+000 67 68 71
2.874861e+000 4.693146e-001 -5.877367e+000 71 70 75
-5.318204e-001 -3.289017e-002 -5.237921e+000 98 70 59
-3.333295e-002 -2.672427e-002 -4.752746e+000 180 187 172
-1.618831e+000 -4.492465e-001 -4.104769e+000 128 106 57
-9.066033e-001 -4.485231e-001 -4.207290e+000 107 67 51
-8.323027e-001 -4.439355e-001 -4.202916e+000 57 47 46
-1.465180e+000 -6.202912e-001 -4.005801e+000 164 143 99
-1.444341e+000 -6.202504e-001 -4.027775e+000 110 93 52
-1.424589e+000 -6.564907e-001 -4.002469e+000 106 88 42
-1.424589e+000 -6.564907e-001 -4.002469e+000 106 88 42
-1.251749e+000 -7.114211e-001 -3.915941e+000 114 60 52
1.075917e+000 -1.868450e+000 -7.267740e+000 101 83 65
-2.495232e-001 -1.548141e+000 -4.968184e+000 87 39 27
-8.651991e-001 2.025729e+000 -8.978826e+000 55 45 43
7.636936e-001 -4.935268e-002 -5.474406e+000 198 203 196
-1.562097e+000 -4.967916e-001 -4.081268e+000 125 104 61
-1.409019e+000 -6.189251e-001 -4.025392e+000 167 136 96
-1.851839e-001 -1.082946e+000 -4.834632e+000 77 39 20
2.951769e+000 1.538928e+000 -6.030092e+000 54 53 59
-5.080726e-001 1.206566e+000 -8.485165e+000 201 201 189
2.954714e+000 3.849631e-001 -5.870009e+000 66 64 69
-1.313416e+000 -8.931264e-001 -3.974917e+000 32 30 31
-6.518472e-001 -3.015156e-001 -4.851729e+000 207 124 79
2.962201e+000 1.718536e+000 -6.263173e+000 97 96 102
-1.140948e+000 3.421307e+000 -9.501320e+000 70 68 73
-3.222738e-001 3.344559e+000 -9.022514e+000 96 95 101
-4.681425e-001 3.157077e+000 -8.985815e+000 86 88 92
-4.730096e-001 2.982897e+000 -8.995475e+000 67 62 68
2.745233e+000 1.544200e+000 -5.952869e+000 57 56 62
2.589549e+000 4.308581e-001 -5.955048e+000 73 68 75
2.820742e-001 -1.043195e-001 -4.907338e+000 164 169 161
-1.974765e-001 -1.253247e-001 -4.579015e+000 155 73 61
2.475925e+000 -3.948809e-001 -5.756228e+000 172 156 105
-1.653138e+000 -4.164605e-001 -4.132550e+000 123 108 76
-1.351199e+000 -3.617972e-001 -4.188747e+000 93 54 58
-1.500419e+000 -6.671215e-001 -3.999702e+000 147 132 90
-1.483112e+000 -6.345229e-001 -4.057050e+000 167 149 101
2.575529e+000 -9.814792e-001 -5.862665e+000 88 85 90
-1.270180e+000 -7.358310e-001 -3.987154e+000 124 69 67
-1.345621e+000 -7.771639e-001 -3.968862e+000 92 51 38
2.612107e+000 -1.156797e+000 -5.757764e+000 44 39 43
1.841431e+000 -1.399144e+000 -6.099468e+000 180 127 106
2.648784e+000 -1.309387e+000 -5.730518e+000 37 32 38
1.610638e+000 -1.550638e+000 -6.487320e+000 165 90 89
-3.061611e-001 3.267315e+000 -8.956054e+000 66 65 71
2.999035e+000 1.043935e+000 -5.905870e+000 75 74 80
2.945037e+000 7.912816e-001 -5.944421e+000 49 49 54
2.945037e+000 7.912816e-001 -5.944421e+000 49 49 54
2.973489e+000 6.554814e-001 -5.849903e+000 48 47 52
3.051954e+000 5.567795e-001 -5.870302e+000 45 44 49
3.062762e+000 5.128089e-001 -5.820950e+000 63 62 67
1.811575e+000 4.351753e-001 -5.760205e+000 214 216 205
2.308295e-001 -1.402519e-001 -4.861507e+000 155 160 153
-1.291253e+000 -3.798834e-001 -4.179192e+000 102 51 42
-8.440159e-001 -5.117237e-001 -4.227032e+000 144 107 73
1.388235e+000 -7.617341e-001 -5.987981e+000 181 141 103
2.112115e+000 -7.544905e-001 -6.174051e+000 178 75 75
3.075431e+000 -8.215034e-001 -5.481169e+000 45 43 48
3.159219e+000 -7.191461e-001 -5.463504e+000 52 50 57
1.613657e+000 -1.168182e+000 -6.077608e+000 170 129 85
-1.399113e+000 -8.479170e-001 -4.007537e+000 59 45 32
1.983263e+000 -1.391692e+000 -6.162723e+000 171 60 59
2.559719e+000 -1.264962e+000 -5.735061e+000 38 33 39
2.613551e+000 -1.217534e+000 -5.675665e+000 40 35 41
-3.422688e-001 -1.179568e+000 -4.737531e+000 92 35 22
1.291982e+000 -1.731101e+000 -6.682518e+000 166 157 143
1.333008e+000 2.851002e+000 -6.532270e+000 196 167 121
3.050064e+000 1.253677e+000 -5.945216e+000 46 45 51
3.688325e-001 1.364820e+000 -6.814747e+000 225 230 220
5.583469e-001 4.545117e-001 -6.364021e+000 236 242 232
2.771426e+000 5.124073e-001 -5.925716e+000 54 51 59
2.789413e+000 5.164186e-001 -5.966093e+000 54 51 59
3.052906e+000 4.731155e-001 -5.721863e+000 44 41 41
3.928294e-001 -9.462629e-002 -5.130921e+000 185 190 184
1.152593e+000 -3.896654e-001 -5.684532e+000 156 157 149
1.324164e+000 -8.324989e-001 -6.035726e+000 207 173 143
-1.024128e+000 -7.956424e-001 -3.993925e+000 169 86 44
-6.320150e-002 2.950634e+000 -8.351604e+000 178 67 62
2.675847e+000 1.519233e+000 -6.059935e+000 64 63 71
-9.952060e-001 -9.246367e-001 -3.953286e+000 90 39 34
1.471374e+000 1.528271e+000 -6.248969e+000 253 254 212
-9.447441e-001 -9.953287e-001 -3.950608e+000 155 87 47
-9.447441e-001 -9.953287e-001 -3.950608e+000 155 87 47
2.548578e+000 -1.935304e-001 -5.673759e+000 237 226 169
1.418895e-001 2.755001e+000 -8.010823e+000 179 65 61
-1.003110e+000 3.398715e+000 -9.470033e+000 62 61 66
2.133222e+000 1.647901e+000 -5.773306e+000 112 49 52
-4.244460e-001 -7.763587e-001 -4.312378e+000 74 31 26
-4.244460e-001 -7.763587e-001 -4.312378e+000 74 31 26
6.647229e-001 2.632085e+000 -7.415752e+000 226 223 212
-8.494464e-001 2.259162e+000 -8.768751e+000 51 49 54
8.188932e-001 2.529130e+000 -6.482200e+000 229 223 211
-8.409951e-001 4.096995e+000 -9.121364e+000 76 75 81
-8.017435e-001 4.087474e+000 -9.160577e+000 53 54 59
-8.017435e-001 4.087474e+000 -9.160577e+000 53 54 59
-7.939931e-001 3.906891e+000 -9.085244e+000 62 61 66
-5.328762e-001 3.878561e+000 -9.163393e+000 56 55 61
-1.727036e-001 3.668209e+000 -9.198303e+000 81 80 86
-2.507460e-001 3.310693e+000 -9.066856e+000 94 92 98
-4.158805e-001 3.142266e+000 -9.089847e+000 91 90 95
2.987546e+000 1.685822e+000 -5.892710e+000 63 63 69
3.135839e+000 1.615014e+000 -5.851116e+000 59 58 64
2.864665e+000 1.519750e+000 -5.968552e+000 146 145 150
3.222767e+000 1.411871e+000 -5.895412e+000 81 80 85
3.272746e+000 1.417133e+000 -5.803154e+000 52 49 56
3.359045e+000 1.424403e+000 -5.792577e+000 82 81 86
3.692101e+000 1.343956e+000 -5.733491e+000 41 39 44
3.948333e+000 1.273953e+000 -5.678378e+000 48 44 51
2.722299e+000 1.483890e+000 -6.029678e+000 128 127 133
3.172867e+000 1.375304e+000 -5.960991e+000 46 45 51
3.163556e+000 1.328735e+000 -5.877776e+000 59 57 64
3.148310e+000 1.237086e+000 -5.885088e+000 77 76 82
3.221821e+000 1.239759e+000 -5.842073e+000 76 75 81
3.221821e+000 1.239759e+000 -5.842073e+000 76 75 81
3.433057e+000 1.316115e+000 -5.736015e+000 39 37 40
3.491117e+000 1.325728e+000 -5.723721e+000 67 64 71
3.643100e+000 1.285221e+000 -5.656393e+000 62 60 65
3.643100e+000 1.285221e+000 -5.656393e+000 62 60 65
3.976023e+000 1.219237e+000 -5.598670e+000 48 43 49
2.838872e+000 9.447152e-001 -5.917094e+000 61 62 66
2.864015e+000 9.405575e-001 -5.900378e+000 90 90 98
3.014591e+000 1.053524e+000 -5.943925e+000 80 79 85
3.409755e+000 9.006730e-001 -5.776189e+000 55 54 59
1.662969e+000 9.930399e-001 -5.954900e+000 212 218 208
2.966734e+000 8.424776e-001 -5.875317e+000 73 74 79
2.898336e+000 7.562385e-001 -5.831257e+000 61 62 67
3.262325e+000 7.416615e-001 -5.818678e+000 63 62 68
3.262325e+000 7.416615e-001 -5.818678e+000 63 62 68
3.414592e+000 6.674445e-001 -5.773719e+000 53 52 57
3.552050e+000 7.336644e-001 -5.751864e+000 47 44 51
2.690715e+000 6.138243e-001 -5.978775e+000 65 65 69
2.729226e+000 6.004526e-001 -5.993187e+000 56 57 59
3.026339e+000 6.837342e-001 -5.808324e+000 49 50 54
2.956926e+000 6.162637e-001 -5.924391e+000 49 50 54
3.032305e+000 6.114810e-001 -5.817142e+000 63 63 67
3.112877e+000 6.473462e-001 -5.800612e+000 60 58 63
3.112877e+000 6.473462e-001 -5.800612e+000 60 58 63
2.706361e+000 4.929769e-001 -5.930473e+000 55 58 63
2.791924e+000 5.269020e-001 -5.858603e+000 100 104 107
2.966143e+000 5.031723e-001 -5.843058e+000 79 78 83
2.843842e+000 3.579706e-001 -5.878047e+000 52 55 57
2.960873e+000 4.039627e-001 -5.807286e+000 66 65 70
3.039342e+000 4.316002e-001 -5.810547e+000 72 71 79
3.039342e+000 4.316002e-001 -5.810547e+000 72 71 79
3.050854e+000 4.166594e-001 -5.762599e+000 45 43 54
2.571521e+000 3.524969e-001 -5.983749e+000 66 64 70
2.635540e+000 2.251544e-001 -6.027254e+000 57 55 62
2.729319e+000 2.995869e-001 -5.880273e+000 52 53 57
2.742646e+000 2.713896e-001 -5.942258e+000 103 104 108
2.571857e+000 8.836007e-002 -6.018126e+000 76 69 76
-3.088831e+000 5.662398e-001 -1.064810e+001 57 56 61
-5.442698e-001 1.157250e-001 -5.248700e+000 132 70 46
-5.479192e-001 5.041788e-002 -5.051565e+000 172 87 57
6.181557e-001 -5.860516e-002 -5.383354e+000 214 220 213
6.275201e-001 -1.018556e-001 -5.362606e+000 169 175 168
6.769907e-001 -1.251304e-001 -5.383326e+000 180 184 177
-5.456137e-001 -2.245722e-002 -5.204862e+000 80 42 28
3.105945e+000 -5.508691e-001 -5.596183e+000 46 44 47
3.421303e+000 -4.558497e-001 -5.422205e+000 43 40 47
-9.971629e-001 -2.227181e-001 -4.299500e+000 106 71 70
2.673087e+000 -6.866042e-001 -5.901591e+000 63 60 64
2.845004e+000 -6.726689e-001 -5.807095e+000 50 42 53
3.241046e+000 -6.251613e-001 -5.527685e+000 60 61 65
3.146221e+000 -7.391104e-001 -5.541363e+000 55 54 60
3.204353e+000 -6.942941e-001 -5.495761e+000 99 98 106
-8.654911e-001 -3.625853e-001 -4.461660e+000 137 85 66
9.463674e-001 -5.978671e-001 -5.733508e+000 124 121 112
2.448137e+000 -7.627459e-001 -5.988736e+000 75 79 77
2.462876e+000 -7.660521e-001 -6.030477e+000 75 79 77
2.720947e+000 -7.475471e-001 -5.876330e+000 94 93 98
2.698541e+000 -7.874750e-001 -5.843089e+000 47 46 51
2.995941e+000 -7.476533e-001 -5.622863e+000 53 51 56
3.087286e+000 -8.075902e-001 -5.583685e+000 46 44 49
3.174214e+000 -7.819563e-001 -5.647839e+000 95 94 99
-1.326707e+000 -4.002734e-001 -4.146531e+000 113 66 60
2.493899e+000 -8.848521e-001 -5.933106e+000 83 82 85
2.693520e+000 -9.705678e-001 -5.874400e+000 45 44 49
2.669671e+000 -1.003811e+000 -5.840664e+000 43 42 47
2.721875e+000 -1.047510e+000 -5.789188e+000 62 60 65
3.042205e+000 -9.382337e-001 -5.486865e+000 29 27 32
2.953817e+000 -1.053589e+000 -5.559898e+000 31 29 34
-1.635219e+000 -4.927884e-001 -4.080312e+000 171 157 111
2.683168e+000 -1.215121e+000 -5.754343e+000 53 51 56
-1.059485e+000 -6.105822e-001 -4.058613e+000 139 70 47
-4.015990e-001 -1.077697e+000 -4.566884e+000 118 58 47
4.417948e-002 -1.173017e+000 -4.814498e+000 170 70 62
1.389872e+000 2.854358e+000 -6.575563e+000 175 90 79
-9.016781e-001 4.153972e+000 -9.380749e+000 56 55 62
-8.237266e-001 4.043748e+000 -9.214021e+000 89 88 94
-6.037427e-001 3.945217e+000 -9.258500e+000 47 46 52
-8.992119e-001 3.354630e+000 -9.319086e+000 73 72 77
2.800728e+000 1.766102e+000 -6.071323e+000 53 52 57
2.975080e+000 1.638189e+000 -5.957714e+000 143 143 150
3.149055e+000 1.686637e+000 -5.901510e+000 54 49 56
3.302402e+000 1.577045e+000 -5.850552e+000 52 53 58
3.067469e+000 1.587274e+000 -5.892014e+000 147 146 152
3.145808e+000 1.582924e+000 -5.887806e+000 143 142 148
3.160766e+000 1.550088e+000 -5.824803e+000 57 55 60
3.217782e+000 1.466864e+000 -5.811393e+000 58 57 63
3.247643e+000 1.392348e+000 -5.784640e+000 45 41 48
3.247643e+000 1.392348e+000 -5.784640e+000 45 41 48
2.781508e+000 1.448359e+000 -6.010835e+000 160 161 165
2.729068e+000 1.369442e+000 -6.009498e+000 146 147 152
2.817372e+000 1.421486e+000 -5.961365e+000 60 63 68
2.891174e+000 1.427282e+000 -5.924518e+000 57 56 62
2.930821e+000 1.323848e+000 -5.934553e+000 107 109 114
3.013021e+000 1.416447e+000 -5.896390e+000 115 116 121
3.031640e+000 1.299810e+000 -5.849117e+000 48 47 53
3.331680e+000 1.215001e+000 -5.773600e+000 58 56 61
