ply
format ascii 1.0
element face 0
property list uchar int vertex_indices
element vertex 876
property float x
property float y
property float z
property uchar diffuse_red
property uchar diffuse_green
property uchar diffuse_blue
end_header
-6.118397e-001 -1.807303e-001 -4.942210e+000 212 122 75
2.391425e-001 3.154212e-002 -5.587270e+000 210 212 207
6.865056e-001 -7.317600e-002 -5.366988e+000 153 156 147
-1.489841e+000 -5.714294e-001 -4.073057e+000 83 62 40
-1.438414e+000 -4.712108e-001 -4.123676e+000 160 145 89
-9.767878e-001 -4.239103e-001 -4.213317e+000 96 35 18
-1.421668e+000 -5.804414e-001 -4.075306e+000 143 120 76
-1.448965e+000 -6.382669e-001 -4.046975e+000 95 74 30
6.031953e-002 -3.821554e-001 -4.639197e+000 174 92 68
-6.773268e-001 -5.159766e-001 -4.221021e+000 200 160 111
-1.016326e+000 -6.907782e-001 -3.969360e+000 145 63 33
1.749324e+000 -1.352477e+000 -6.099009e+000 136 78 55
1.029169e+000 1.918004e+000 -6.355575e+000 116 106 72
1.441896e-001 6.166495e-001 -6.706006e+000 231 234 223
9.008941e-002 3.778660e-001 -6.343944e+000 199 200 187
2.258627e+000 1.393392e+000 -5.851129e+000 181 72 79
2.331977e+000 1.408557e+000 -5.895615e+000 169 77 81
3.008398e+000 1.630588e+000 -6.004680e+000 119 117 122
-9.790304e-001 -8.044453e-001 -8.508470e+000 190 192 179
-3.652019e-001 -1.194928e-001 -4.599695e+000 163 148 126
-3.470014e-001 -1.742673e-001 -4.781047e+000 62 54 54
-1.738750e+000 -6.536305e-001 -4.335619e+000 158 143 71
-8.966525e-001 -3.895637e-001 -4.323311e+000 157 125 104
-8.966525e-001 -3.895637e-001 -4.323311e+000 157 125 104
-8.098936e-001 -3.959508e-001 -4.472663e+000 101 42 21
-5.672725e-001 -4.607449e-001 -4.700958e+000 200 158 117
-1.506735e+000 -6.808470e-001 -3.968806e+000 66 55 35
-6.516455e-001 -5.302709e-001 -4.257330e+000 153 115 69
9.469187e-001 2.735112e+000 -7.138201e+000 220 214 202
1.465661e+000 2.833595e+000 -6.687836e+000 237 214 199
1.637885e+000 2.765982e+000 -6.555986e+000 231 194 182
7.127375e-001 2.314399e+000 -7.101335e+000 196 193 183
1.683175e+000 2.261905e+000 -6.326758e+000 205 199 185
1.683175e+000 2.261905e+000 -6.326758e+000 205 199 185
1.095427e+000 1.292886e+000 -6.498147e+000 163 164 145
1.098769e+000 1.290418e+000 -6.516189e+000 163 164 145
1.202941e+000 1.236762e+000 -6.547053e+000 223 222 204
1.189970e+000 1.082882e+000 -6.302656e+000 117 111 79
4.507612e-001 5.220296e-001 -6.306855e+000 233 238 230
-1.552426e+000 -1.512157e+000 -8.860050e+000 163 60 55
-6.450053e-001 -2.521589e-001 -4.870917e+000 198 112 63
2.541832e+000 2.153963e-001 -5.930809e+000 47 37 42
-1.346216e+000 -4.610788e-001 -4.081377e+000 57 13 10
3.919200e-001 -1.607497e-001 -4.764648e+000 146 143 134
-4.053464e-001 -1.431381e+000 -4.619331e+000 159 80 31
8.201996e-001 2.163037e+000 -6.869526e+000 209 209 199
-7.868533e-001 1.367967e+000 -8.655385e+000 215 206 189
4.843028e-001 1.789310e+000 -7.142527e+000 186 186 178
2.367747e-001 1.425999e+000 -7.053683e+000 231 234 223
-1.460735e+000 -1.427695e+000 -8.907899e+000 182 66 63
-1.340832e+000 -1.433834e+000 -8.687071e+000 201 198 186
-6.764586e-001 -2.934839e-001 -4.837066e+000 139 49 23
-6.764586e-001 -2.934839e-001 -4.837066e+000 139 49 23
2.116811e-001 -1.890687e-002 -5.167158e+000 183 186 177
-7.326614e-001 -4.400074e-001 -4.658220e+000 127 52 27
-6.495976e-002 -3.350206e-001 -4.681379e+000 202 160 117
1.656611e+000 2.796439e+000 -6.443779e+000 177 73 70
1.692556e+000 2.706411e+000 -6.410717e+000 231 219 207
-9.159571e-001 1.313037e+000 -8.811727e+000 202 71 73
-6.557861e-001 1.237028e+000 -8.465554e+000 235 238 229
3.061591e-001 1.141749e+000 -6.779604e+000 226 231 222
1.350934e+000 1.571978e+000 -6.130730e+000 159 150 106
-1.042658e+000 -4.069505e-001 -8.665987e+000 222 223 209
5.820169e-002 3.155744e-001 -6.336277e+000 164 164 152
-1.947786e+000 -1.865534e+000 -9.615789e+000 53 52 56
-3.345376e-001 -6.736335e-002 -5.299578e+000 184 107 70
2.431495e+000 5.044396e-001 -5.668901e+000 44 42 45
-1.552782e+000 -5.672211e-001 -4.020112e+000 30 19 19
-3.965125e-001 -6.448627e-001 -4.519999e+000 99 51 29
-7.631158e-002 -7.040098e-001 -4.802521e+000 174 132 91
1.599557e-002 -1.125699e+000 -4.810121e+000 111 40 31
-2.562020e-001 -1.193148e+000 -4.524104e+000 125 55 30
1.294347e-001 1.202773e+000 -7.065345e+000 234 237 226
1.149912e+000 1.193403e+000 -6.405731e+000 229 232 220
-8.454533e-001 -4.212043e-001 -4.573077e+000 112 58 42
-2.979255e-001 -6.440141e-001 -4.603806e+000 172 137 96
-4.203616e-001 2.076654e+000 -8.205051e+000 163 60 60
1.212990e+000 2.005881e+000 -6.540754e+000 209 198 141
-8.511497e-001 -1.770106e-002 -8.510643e+000 219 221 210
1.893022e-001 4.173063e-001 -6.511456e+000 232 235 224
-1.906611e-001 -1.637404e-002 -4.712597e+000 158 159 145
-2.329464e-001 -1.294480e-001 -4.628921e+000 157 78 65
2.335681e-003 -5.097685e-001 -4.647807e+000 205 171 123
-3.118042e-002 -1.140233e+000 -4.664206e+000 178 89 47
-1.131017e-002 3.498413e-001 -6.804335e+000 178 180 169
-1.651147e+000 -6.789102e-001 -4.026848e+000 201 176 119
-1.622509e+000 -6.294840e-001 -3.956849e+000 201 176 119
1.085774e+000 -7.624858e-001 -5.655373e+000 198 198 180
-5.302782e-001 -9.276347e-001 -4.435035e+000 105 44 25
9.193995e-001 -7.673555e-001 -5.065624e+000 125 112 95
-7.736299e-001 -8.860783e-001 -3.858870e+000 27 17 18
-6.762904e-003 3.093128e-001 -6.918140e+000 177 181 167
-4.513176e-001 -3.614613e-001 -4.617740e+000 212 176 126
-4.346910e-001 -1.168990e+000 -4.505599e+000 145 69 33
-9.519187e-002 7.562556e-002 -5.597876e+000 200 202 195
6.247317e-001 -5.570133e-001 -5.506509e+000 53 40 34
3.029733e-001 -3.446956e-001 -4.642328e+000 174 174 161
-1.103400e+000 -7.228583e-001 -3.932861e+000 202 106 55
5.094387e-001 -8.850190e-001 -4.972805e+000 72 28 27
2.566821e+000 9.539434e-001 -5.770831e+000 219 216 207
-4.280009e-001 -7.499948e-001 -4.498580e+000 85 29 17
-4.280009e-001 -7.499948e-001 -4.498580e+000 85 29 17
1.287870e+000 1.352811e+000 -6.010587e+000 103 97 70
1.290769e+000 1.351524e+000 -6.021241e+000 103 97 70
-3.521887e-001 -2.940384e-003 -5.190525e+000 157 92 63
1.526225e+000 -2.441078e-001 -5.533909e+000 102 85 60
4.923260e-002 -7.585906e-001 -4.593714e+000 220 180 127
8.475631e-001 1.033016e+000 -6.920483e+000 232 238 231
3.988155e-001 6.339042e-001 -6.236124e+000 203 206 197
1.638728e+000 4.999235e-001 -5.536583e+000 202 204 193
-2.203720e+000 -9.385512e-001 -1.024112e+001 39 37 38
1.769287e+000 4.619942e-001 -5.655817e+000 208 210 197
-6.209244e-001 -5.344722e-001 -4.269464e+000 178 139 102
-1.724108e-001 -1.331195e+000 -4.871161e+000 104 42 21
1.736243e-001 7.092483e-001 -6.542989e+000 207 209 195
1.782478e+000 -7.388479e-001 -6.286363e+000 94 55 38
-3.312750e+000 -1.219440e+000 -1.108071e+001 80 79 84
-5.496350e-001 -8.093916e-002 -4.967489e+000 153 84 50
-6.544521e-001 -3.954239e-001 -4.682337e+000 187 96 52
-4.179526e-001 -1.304813e-001 -4.588288e+000 66 52 53
1.686815e+000 -7.009460e-001 -6.188725e+000 138 104 81
-6.809470e-001 2.104275e+000 -8.688002e+000 195 71 75
1.733897e+000 2.636191e+000 -6.335291e+000 194 185 168
3.237201e-001 1.409090e+000 -7.112481e+000 204 206 193
1.414276e+000 6.310372e-001 -5.801502e+000 221 224 213
3.127691e-001 -2.065964e-001 -4.931644e+000 127 123 111
-2.393982e-001 -1.181136e+000 -4.726312e+000 134 66 41
-1.194735e+000 1.555465e+000 -8.833490e+000 46 39 49
2.504944e-001 4.919748e-002 -5.375678e+000 189 192 179
-8.193076e-001 -3.946376e-001 -4.378452e+000 167 136 111
2.251632e+000 -8.141927e-002 -6.013504e+000 163 68 65
-7.271763e-001 1.591868e+000 -8.420319e+000 232 233 227
1.651423e+000 2.694502e+000 -6.300844e+000 236 220 209
-2.108671e+000 -1.489245e+000 -1.007613e+001 37 25 32
-4.826288e-001 -4.993817e-001 -4.597685e+000 145 77 48
-1.052850e-001 -3.367124e-001 -4.677087e+000 200 151 108
-8.734708e-001 -7.516383e-001 -4.092785e+000 111 46 29
-1.717486e+000 5.330436e-001 -9.236756e+000 44 35 38
1.413574e+000 -1.178381e+000 -6.147597e+000 86 39 33
2.335843e+000 1.722727e+000 -5.621336e+000 47 30 35
1.281726e+000 1.005166e+000 -6.226331e+000 255 255 231
-8.221058e-001 -4.103754e-001 -4.892016e+000 183 95 47
-4.581092e-001 -1.342919e-001 -4.712819e+000 123 68 58
-9.132526e-001 -4.713527e-001 -4.274199e+000 100 63 44
2.195784e+000 -6.506720e-002 -5.864310e+000 150 64 63
2.649925e+000 -1.010238e+000 -6.112751e+000 34 28 30
-4.604179e-001 1.335350e+000 -8.707618e+000 242 243 235
1.745721e+000 -9.347119e-002 -5.909290e+000 103 86 76
-4.760523e-001 -1.116516e+000 -4.517634e+000 142 75 46
2.777945e+000 6.908815e-001 -5.958246e+000 98 98 103
3.382122e-001 -7.884992e-001 -4.886675e+000 118 62 61
9.031824e-001 2.942676e+000 -7.219521e+000 188 106 105
6.356841e-001 2.156195e+000 -7.008652e+000 209 210 202
3.011998e-001 4.647716e+000 -8.864722e+000 42 37 41
9.246968e-001 3.040044e+000 -7.205944e+000 169 80 73
9.486130e-001 -7.305133e-001 -5.840699e+000 196 200 190
-7.009060e-001 -1.880138e+000 -8.286951e+000 194 195 181
8.347894e-001 -7.846212e-001 -5.728693e+000 140 136 130
-1.594708e+000 -1.302616e+000 -9.072888e+000 192 60 61
-1.804060e+000 -1.441284e+000 -9.355296e+000 184 57 55
1.246691e+000 -1.881767e+000 -6.362420e+000 187 181 169
2.051596e+000 1.540989e+000 -5.901724e+000 201 186 174
5.920858e-003 7.140756e-002 -5.666732e+000 188 193 185
3.515144e-002 -1.221308e-001 -4.708641e+000 183 185 174
1.460199e+000 2.757305e+000 -6.631457e+000 235 223 207
2.795498e-001 1.269969e+000 -6.849295e+000 209 211 198
1.173965e+000 1.517614e+000 -6.305878e+000 130 124 90
7.135978e-001 -2.069136e-001 -5.420722e+000 165 168 159
-1.016883e+000 -4.997548e-001 -4.034737e+000 171 94 60
-7.262827e-001 -6.660340e-001 -4.185988e+000 105 82 63
-4.418317e-001 -1.375747e+000 -4.567988e+000 55 26 18
1.461474e+000 2.867289e+000 -6.634684e+000 201 76 77
4.361369e-001 1.275061e+000 -6.825788e+000 199 202 192
4.361369e-001 1.275061e+000 -6.825788e+000 199 202 192
-3.409063e-001 -1.027325e-001 -4.623702e+000 62 54 54
8.038315e-001 8.465386e-001 -6.599052e+000 211 215 200
-5.259693e-001 -8.874060e-002 -5.095670e+000 141 79 49
-4.052133e-001 -1.439702e+000 -4.626545e+000 159 80 31
2.209834e+000 2.698972e-002 -5.915461e+000 178 73 73
1.653263e+000 -7.365932e-001 -6.018085e+000 117 51 45
-1.509487e+000 -7.897009e-001 -3.907239e+000 127 110 62
2.504613e+000 -8.283941e-001 -5.874336e+000 34 27 29
2.777810e+000 5.945534e-001 -5.951701e+000 60 61 66
-1.085977e+000 3.474667e+000 -9.408752e+000 77 78 83
2.816700e+000 -1.423455e+000 -5.688253e+000 40 35 41
3.184341e-001 -2.083990e+000 -7.269515e+000 81 60 55
1.683640e+000 1.428519e+000 -6.528417e+000 223 224 215
-8.198930e-001 3.861727e+000 -9.206551e+000 95 98 103
-9.923026e-001 3.357869e+000 -9.315351e+000 90 92 97
2.819686e+000 -7.090333e-001 -5.852261e+000 52 53 57
3.103939e+000 -9.322875e-001 -5.593229e+000 39 38 46
2.595914e+000 -8.127642e-001 -5.992712e+000 120 119 124
2.863049e+000 -1.100144e+000 -5.711102e+000 56 55 60
2.993118e+000 -1.068346e+000 -5.691484e+000 85 84 90
2.783135e+000 -1.356055e+000 -5.730925e+000 90 91 96
7.930915e-001 -7.684045e-001 -5.705649e+000 119 119 112
-3.524445e+000 9.941786e-001 -1.123409e+001 92 93 97
-3.409260e+000 1.033951e+000 -1.141211e+001 74 73 78
-7.841690e-001 -1.493521e+000 -8.130882e+000 177 168 159
-8.935342e-001 -2.198803e+000 -8.519551e+000 198 193 185
-3.270862e+000 -1.683565e+000 -1.102460e+001 72 71 77
2.724932e+000 1.512028e-001 -5.957849e+000 94 93 82
2.617550e+000 -3.910866e-001 -5.808909e+000 197 186 130
2.497254e+000 -5.965476e-001 -5.820708e+000 141 129 86
2.950391e+000 -9.403210e-001 -5.659885e+000 47 47 49
7.202111e-001 -5.219288e-001 -5.681540e+000 94 88 83
9.501355e-001 -6.017841e-001 -5.738341e+000 123 120 109
2.767001e+000 -1.406240e+000 -5.651714e+000 31 28 35
1.700183e+000 -9.962617e-001 -5.938010e+000 151 79 53
4.698229e-002 -1.262658e+000 -4.841777e+000 145 92 75
-3.253079e+000 8.223746e-001 -1.114376e+001 73 72 77
-3.127248e+000 4.554325e-001 -1.141671e+001 59 57 60
2.632017e-002 4.957603e+000 -8.668139e+000 65 63 66
2.946483e+000 -8.583655e-001 -5.504221e+000 37 36 41
2.787002e+000 -8.828848e-001 -5.786827e+000 41 40 45
9.014222e-001 -5.830992e-001 -5.724238e+000 153 154 143
-8.554013e-001 -6.479571e-001 -4.135529e+000 100 50 29
-9.066741e-002 -9.783608e-001 -4.590910e+000 126 73 42
-9.066741e-002 -9.783608e-001 -4.590910e+000 126 73 42
1.685123e+000 -1.126785e+000 -5.977103e+000 124 55 37
2.366333e+000 -1.539926e+000 -5.931260e+000 36 34 37
2.481875e+000 -1.624393e+000 -5.870914e+000 34 33 38
2.223332e+000 -1.500708e+000 -6.137539e+000 34 34 37
2.715168e-001 -1.789842e+000 -7.440572e+000 82 65 50
-8.527672e-001 -2.672358e+000 -8.218404e+000 192 70 73
7.036507e-001 1.651036e+000 -6.862193e+000 241 246 242
2.460338e+000 -2.381351e-001 -5.931483e+000 190 179 131
3.004050e+000 -1.131544e+000 -5.648428e+000 30 25 31
-7.428025e-001 -6.786595e-001 -4.208888e+000 87 60 56
-2.630283e-003 -1.775184e+000 -7.376966e+000 80 67 51
1.011839e+000 2.320603e+000 -6.812573e+000 216 212 209
3.104539e+000 1.454327e-001 -5.392087e+000 145 132 90
5.874682e-003 4.122749e+000 -9.172144e+000 60 57 60
7.650279e-001 1.983825e+000 -6.957973e+000 210 211 205
1.131395e+000 6.849473e-001 -5.780468e+000 233 240 231
3.247744e+000 -6.515864e-001 -5.455645e+000 72 72 80
1.556083e-001 -3.747285e-001 -4.630117e+000 107 52 46
1.031943e+000 -6.972558e-001 -5.816323e+000 54 34 26
-1.104303e+000 -6.344570e-001 -3.997286e+000 174 86 55
-1.097476e+000 -6.485562e-001 -3.975161e+000 174 86 55
1.926169e+000 -1.432647e+000 -6.272446e+000 80 28 27
-1.546281e+000 -8.006846e-001 -3.924741e+000 93 77 43
-1.546281e+000 -8.006846e-001 -3.924741e+000 93 77 43
-4.394409e-001 -1.362320e+000 -4.576874e+000 167 97 54
-1.537708e-001 -1.574182e+000 -7.231301e+000 92 76 58
-1.797906e-001 -1.675373e+000 -7.345938e+000 184 185 175
1.071777e+000 1.734300e+000 -6.628724e+000 226 230 225
1.148473e+000 1.419067e+000 -6.599242e+000 221 228 218
-3.118417e-001 -6.958919e-001 -4.629392e+000 188 156 123
-1.678807e+000 -6.456577e-001 -4.002740e+000 98 85 41
-8.868680e-001 -9.865546e-001 -4.045633e+000 64 21 12
-1.015117e+000 -1.040314e+000 -4.109353e+000 70 27 21
-1.809554e+000 -1.388566e+000 -9.373208e+000 175 59 56
-1.170454e+000 3.980486e+000 -9.516403e+000 43 42 47
-1.257637e+000 -8.436743e-001 -4.019036e+000 65 28 22
-7.283127e-002 -1.828580e+000 -7.583733e+000 107 94 78
-2.079346e-001 -2.029714e+000 -7.853848e+000 211 211 200
-6.992132e-001 -5.936246e-001 -4.235245e+000 220 188 153
9.604804e-002 -3.174584e+000 -7.543931e+000 20 14 18
6.717825e-002 -9.083605e-001 -4.864157e+000 216 188 144
-1.522941e+000 -6.306860e-001 -4.015892e+000 95 80 51
-3.233746e+000 -1.401242e+000 -1.135439e+001 66 66 74
-1.049012e-001 2.695793e+000 -7.268961e+000 53 49 55
-1.624367e+000 -1.474493e+000 -9.045515e+000 153 55 57
5.951669e-001 3.934877e-001 -6.130862e+000 191 198 191
-1.357021e+000 -1.612555e+000 -8.104585e+000 178 72 69
1.950770e+000 -9.676044e-001 -6.233884e+000 158 58 56
3.382594e-001 1.229316e+000 -6.739257e+000 207 209 197
1.950242e-001 3.344052e-001 -6.059881e+000 203 206 195
1.207233e-001 -5.590150e-001 -4.706367e+000 137 78 38
5.559353e-001 2.458260e+000 -7.423469e+000 241 239 227
2.415034e+000 -7.577352e-001 -5.599012e+000 31 25 27
-6.527204e-001 -1.920481e+000 -8.254965e+000 197 198 184
1.290177e+000 -1.870012e+000 -6.308130e+000 183 181 169
1.781104e+000 8.388348e-001 -5.842723e+000 218 221 212
1.781104e+000 8.388348e-001 -5.842723e+000 218 221 212
2.238591e+000 -7.676957e-001 -5.922997e+000 183 80 78
2.568763e+000 -1.046277e+000 -5.841312e+000 49 49 51
2.154154e+000 -1.480106e+000 -6.197439e+000 38 24 26
9.699846e-001 -1.691253e+000 -6.698772e+000 86 70 56
-1.508365e-001 -1.435702e+000 -7.083278e+000 159 155 144
2.666287e+000 -1.341312e+000 -5.739523e+000 47 46 52
2.555980e+000 -1.577075e+000 -5.831041e+000 40 39 44
-1.130340e-001 -1.302317e+000 -4.906673e+000 82 37 24
-4.268725e-002 -1.547333e+000 -7.153515e+000 99 77 66
1.713496e+000 -1.397918e+000 -6.185870e+000 188 141 123
-2.808792e+000 -1.037578e+000 -1.082033e+001 42 36 40
-9.255768e-001 -1.153679e+000 -4.729107e+000 177 60 52
-2.373207e+000 -8.557704e-001 -1.053244e+001 42 38 39
-7.037200e-001 4.078124e-001 -8.514873e+000 207 208 194
-1.784920e+000 -1.072054e+000 -9.301616e+000 180 58 56
1.740504e+000 2.589402e+000 -6.558117e+000 204 192 174
-5.854276e-001 -4.442077e-001 -7.714380e+000 195 191 179
2.342524e+000 1.816696e+000 -5.649879e+000 140 60 58
9.425850e-001 6.519808e-001 -5.910493e+000 138 133 96
1.468031e+000 1.026992e+000 -6.038990e+000 207 204 185
-5.073036e-001 7.513547e-002 -5.034129e+000 139 73 51
-2.265273e-002 -1.189971e-001 -5.543665e+000 128 118 91
-2.265273e-002 -1.189971e-001 -5.543665e+000 128 118 91
-4.622025e-001 -1.435289e-001 -4.715471e+000 111 47 39
-4.396851e-001 -1.086837e-001 -4.645413e+000 121 85 72
-2.993283e-001 -5.947770e-002 -4.532281e+000 106 80 49
-2.993283e-001 -5.947770e-002 -4.532281e+000 106 80 49
1.262316e-001 -6.394996e-002 -5.174545e+000 153 152 143
1.668592e-001 1.794879e-002 -4.950502e+000 159 158 149
2.472232e-001 4.550253e-002 -5.080076e+000 158 160 149
-2.622630e-001 -9.585177e-002 -4.590747e+000 159 104 82
3.262536e+000 8.983675e-001 -5.906303e+000 49 43 47
3.335311e+000 9.230417e-001 -5.831861e+000 34 28 32
2.655088e+000 -2.639886e-001 -6.010543e+000 133 115 75
3.150985e+000 3.145917e-001 -5.680246e+000 69 63 67
3.214295e+000 5.264571e-001 -5.731042e+000 32 26 28
3.382240e+000 5.513017e-001 -5.733996e+000 30 24 28
1.225265e+000 -9.646724e-001 -5.728145e+000 133 99 86
1.298440e+000 -1.027319e+000 -5.859717e+000 128 85 76
-1.814731e-001 -1.203319e+000 -4.739239e+000 105 44 26
1.758457e+000 -1.444791e+000 -6.241396e+000 172 118 87
3.260361e+000 -7.781322e-002 -5.007750e+000 104 89 76
1.270319e+000 3.017619e+000 -6.680563e+000 213 191 131
1.033985e+000 1.982817e+000 -6.474741e+000 135 123 88
6.082085e-001 6.255431e-001 -6.364979e+000 199 201 187
-1.317521e+000 -1.246041e+000 -7.601478e+000 178 75 79
3.309130e-001 4.126007e-001 -6.342797e+000 187 188 172
-1.975351e-001 -9.876161e-002 -5.689165e+000 151 143 132
6.308542e-002 -1.002733e-001 -5.475356e+000 86 80 47
-9.104008e-001 -4.496508e-001 -4.804064e+000 126 60 31
-4.359453e-001 -1.289807e-001 -4.625569e+000 43 30 24
-4.017414e-001 -7.898650e-002 -4.570072e+000 133 120 111
-3.686210e-001 -5.436121e-002 -4.607717e+000 141 111 99
-3.366660e-001 -6.948278e-002 -4.637702e+000 70 37 24
3.329970e-001 -1.013182e-002 -5.189997e+000 186 187 179
-1.438481e+000 -5.725624e-001 -4.232419e+000 85 49 31
3.670994e-001 -1.487212e-001 -4.998350e+000 119 113 101
-1.409391e+000 -8.001317e-001 -4.044128e+000 128 95 63
3.248342e+000 5.080431e-001 -5.821485e+000 60 55 59
3.426868e+000 7.817558e-001 -5.866341e+000 53 43 51
3.556574e+000 9.161713e-001 -5.753756e+000 49 40 43
-1.343360e+000 -8.014594e-001 -3.914518e+000 129 105 73
-8.585387e-001 -9.240831e-001 -3.860949e+000 41 14 8
1.892269e+000 -1.423769e+000 -6.075653e+000 144 63 50
1.377855e+000 2.866472e+000 -6.597398e+000 186 87 75
-4.222549e-001 9.991187e-001 -8.361870e+000 213 210 195
1.449314e+000 2.298958e+000 -6.379907e+000 212 198 149
2.598768e-001 1.192870e+000 -7.076195e+000 185 185 173
2.052696e-001 6.188848e-001 -6.687497e+000 218 220 206
-6.312334e-001 -6.814748e-001 -8.064996e+000 211 212 198
-2.086778e-001 -3.782924e-002 -6.958239e+000 182 183 169
-9.852514e-001 -1.358522e+000 -8.099666e+000 184 176 158
1.457831e+000 1.109507e+000 -6.132580e+000 142 128 93
2.077464e+000 1.516920e+000 -5.892504e+000 141 70 70
-3.210031e-001 1.460400e-002 -5.502774e+000 141 85 63
1.110315e+000 5.707226e-001 -5.798956e+000 126 121 88
-2.753082e-001 -1.270928e-001 -5.342778e+000 78 40 27
1.057021e-002 1.810884e-002 -4.951173e+000 190 189 178
-4.736731e-001 -1.440293e-001 -4.619359e+000 164 129 106
-3.071925e-001 -5.147444e-002 -4.577306e+000 167 117 96
-8.225912e-001 -4.109662e-001 -4.363991e+000 172 155 143
-7.572895e-001 -3.650943e-001 -4.480429e+000 143 77 51
-6.916510e-001 -4.780359e-001 -4.547651e+000 112 47 16
-3.098032e-001 -1.065184e-001 -4.553344e+000 166 151 123
-1.583360e-001 -2.024812e-001 -4.600368e+000 172 113 82
9.271072e-001 -6.982620e-001 -5.763354e+000 184 175 162
1.564684e+000 -5.599159e-001 -6.024170e+000 75 44 23
1.617626e+000 -7.533036e-001 -6.086081e+000 149 113 83
1.638042e+000 -6.925539e-001 -6.051451e+000 92 36 34
1.735711e+000 2.419659e+000 -7.059764e+000 221 216 204
1.460148e+000 2.122265e+000 -6.365510e+000 254 252 201
1.576357e+000 2.120795e+000 -6.410113e+000 226 225 213
-8.003672e-001 2.138803e-001 -8.633388e+000 197 198 182
-8.003672e-001 2.138803e-001 -8.633388e+000 197 198 182
1.333064e+000 1.377007e+000 -6.796826e+000 145 132 97
-2.798052e-001 -1.507644e-001 -6.909088e+000 211 211 198
1.079591e+000 8.135166e-001 -6.061445e+000 178 167 120
-2.671592e-001 4.288127e-002 -5.646442e+000 189 182 173
4.215475e-001 1.666360e-001 -5.346400e+000 163 165 152
-1.341692e+000 -4.740026e-001 -4.348841e+000 140 83 50
-1.352283e-001 -2.808704e-002 -4.768980e+000 174 174 158
-4.251027e-002 -5.218293e-002 -4.806193e+000 161 158 143
-1.416590e+000 -3.425414e-001 -3.948317e+000 48 28 18
-1.416590e+000 -3.425414e-001 -3.948317e+000 48 28 18
4.389227e-001 -2.179618e-001 -5.111935e+000 143 135 122
5.682786e-001 -3.178167e-001 -5.337163e+000 141 133 121
1.660559e+000 -6.525131e-001 -6.112396e+000 151 113 91
1.238688e+000 -7.991697e-001 -5.850111e+000 147 77 66
1.551912e+000 -8.078331e-001 -6.107719e+000 87 38 24
3.203320e+000 3.321455e-001 -5.761038e+000 27 21 25
-2.382909e-001 -1.170469e+000 -4.714643e+000 137 69 49
-2.016659e-001 -1.158883e+000 -4.763857e+000 97 30 16
1.708460e+000 -1.505414e+000 -6.292608e+000 164 71 63
-4.551407e-001 -1.326259e+000 -4.534289e+000 41 17 15
3.221140e+000 -2.454912e-001 -5.169893e+000 24 12 11
1.800095e+000 2.665481e+000 -6.226464e+000 215 193 175
1.524521e+000 2.292110e+000 -6.308049e+000 228 219 210
1.419303e+000 2.127927e+000 -6.431764e+000 173 159 110
1.664347e+000 2.196750e+000 -6.677939e+000 222 222 206
-8.697885e-001 -7.979845e-001 -8.030342e+000 222 220 208
-1.028338e-001 -1.660697e-001 -5.570210e+000 59 50 33
-5.247862e-001 -1.824046e-001 -5.006187e+000 101 38 24
3.496201e-001 -1.538219e-003 -5.452111e+000 139 140 124
-1.522374e+000 -6.719923e-001 -3.934359e+000 76 58 50
1.996808e+000 9.090767e-003 -5.784688e+000 63 37 33
-1.382996e+000 -6.830810e-001 -3.844181e+000 65 55 53
-5.225529e-001 -5.032965e-001 -4.255234e+000 164 127 87
1.133261e+000 -5.444934e-001 -5.614196e+000 93 47 39
-1.816996e-001 -1.058662e+000 -4.843477e+000 77 23 15
1.250037e+000 3.170755e+000 -6.744628e+000 255 255 193
1.631414e+000 2.854695e+000 -6.707270e+000 200 76 74
-1.003533e+000 9.071093e-001 -8.996135e+000 219 210 190
2.794421e-001 1.175203e+000 -7.712280e+000 190 187 172
1.159443e+000 1.356644e+000 -6.277281e+000 113 103 70
-9.600533e-001 -8.463637e-001 -8.366030e+000 193 191 177
-1.349925e-001 9.705094e-002 -6.535146e+000 217 217 204
2.263443e-001 4.478816e-001 -6.194274e+000 214 216 204
-3.295820e-001 -3.783118e-002 -5.233321e+000 161 97 62
5.484359e-002 2.977218e-002 -5.522709e+000 197 198 186
-1.357323e+000 -7.379812e-001 -4.032727e+000 62 15 14
1.566142e+000 -8.038824e-001 -5.936984e+000 181 147 105
-3.536839e-001 -1.369109e+000 -4.669253e+000 30 23 26
-3.536839e-001 -1.369109e+000 -4.669253e+000 30 23 26
3.438100e+000 -6.527538e-001 -5.501078e+000 46 37 42
1.562038e-001 9.008272e-001 -7.490124e+000 226 227 215
1.074658e+000 9.575043e-001 -6.030816e+000 141 136 97
2.512250e-001 -5.614636e-003 -4.939418e+000 138 138 128
-8.160706e-001 -4.511591e-001 -4.326652e+000 52 36 35
-4.532086e-001 -7.346441e-001 -4.504697e+000 93 33 22
1.151161e+000 2.588688e+000 -6.836926e+000 166 149 105
4.257230e-001 3.675299e-001 -7.081237e+000 191 193 179
8.568441e-001 4.905040e-001 -5.873077e+000 110 104 76
8.568441e-001 4.905040e-001 -5.873077e+000 110 104 76
1.949335e-001 -2.287147e-002 -5.369611e+000 110 101 68
2.772008e+000 -2.571483e-001 -5.917184e+000 83 65 41
-1.870088e-002 -1.154311e+000 -4.731736e+000 152 77 39
3.896545e-001 1.610834e+000 -6.881559e+000 205 203 191
-1.222845e+000 -1.440454e+000 -8.082649e+000 207 198 180
-9.622189e-002 -5.670114e-002 -5.623094e+000 194 192 178
-9.237356e-001 -4.452216e-001 -4.119382e+000 104 46 32
9.952407e-001 -1.013953e+000 -5.533457e+000 139 112 93
-6.841716e-001 -2.110942e-001 -4.986664e+000 214 121 74
-6.841716e-001 -2.110942e-001 -4.986664e+000 214 121 74
-6.396872e-001 -5.160746e-001 -4.689677e+000 112 50 36
2.578799e+000 -2.197031e-001 -5.864526e+000 153 135 95
2.446276e+000 1.364557e+000 -5.808182e+000 49 44 48
6.007182e-001 -4.792473e-001 -5.386974e+000 65 49 43
3.021228e+000 6.579685e-002 -4.925343e+000 79 58 34
3.021228e+000 6.579685e-002 -4.925343e+000 79 58 34
1.208179e+000 2.362246e+000 -6.785779e+000 146 134 91
-3.005047e-001 -8.048535e-002 -5.333319e+000 138 80 52
3.207522e+000 -5.991865e-002 -5.510895e+000 82 58 34
3.207522e+000 -5.991865e-002 -5.510895e+000 82 58 34
1.474732e+000 2.319906e+000 -5.234804e+000 210 201 184
-1.179580e-001 4.830306e+000 -9.147364e+000 63 63 70
2.577565e+000 2.460466e-001 -5.898593e+000 122 123 125
2.577565e+000 2.460466e-001 -5.898593e+000 122 123 125
-7.737908e-001 4.475186e+000 -9.272865e+000 50 48 53
2.148817e+000 -1.884797e-001 -5.932960e+000 122 81 63
1.654490e+000 -5.381716e-001 -6.164729e+000 135 119 82
1.663277e+000 -5.276702e-001 -6.186332e+000 135 119 82
-3.705824e-002 4.899417e+000 -8.625336e+000 39 37 40
2.654512e+000 5.121150e-001 -5.887168e+000 69 71 76
-5.269103e-001 4.675006e+000 -9.213239e+000 41 40 45
2.717740e+000 -7.541328e-001 -5.791451e+000 51 50 55
2.455975e+000 -1.210377e+000 -5.852343e+000 55 56 60
2.451271e+000 -1.408874e+000 -5.857405e+000 46 45 50
5.768102e-001 -8.195626e-001 -5.539102e+000 80 70 68
-3.192775e+000 1.627553e-001 -1.085471e+001 55 57 62
-7.831931e-002 5.110877e+000 -8.583973e+000 108 108 114
2.746896e+000 2.640925e-001 -5.870074e+000 54 59 62
3.043477e+000 -7.864626e-001 -5.486359e+000 44 42 46
2.606846e+000 -6.976738e-001 -5.767094e+000 36 34 35
2.643691e+000 -9.516667e-001 -5.823753e+000 96 95 101
2.623994e+000 -1.028851e+000 -5.766639e+000 44 43 48
1.554742e+000 -5.701057e-001 -6.088955e+000 99 73 43
-3.270261e+000 7.530309e-001 -1.086122e+001 63 66 73
-1.200489e+000 -1.903340e+000 -8.614785e+000 137 120 110
2.706730e+000 4.297834e-001 -5.854967e+000 57 58 63
1.486744e+000 1.134900e+000 -6.075749e+000 141 137 109
2.473418e+000 -1.190402e+000 -5.934425e+000 51 52 56
1.637019e+000 -1.123702e+000 -6.022060e+000 200 166 128
1.637019e+000 -1.123702e+000 -6.022060e+000 200 166 128
1.172440e+000 -1.442953e+000 -6.439741e+000 124 114 102
-1.099886e-001 -1.392043e+000 -7.062639e+000 160 157 148
-6.916545e-001 -2.310950e+000 -8.246210e+000 199 195 184
2.840968e+000 2.450390e-001 -5.717982e+000 63 61 50
7.095347e-001 -4.528129e-001 -5.510713e+000 162 165 159
1.362504e+000 -6.759030e-001 -5.983990e+000 150 130 96
1.358510e+000 -8.620968e-001 -5.987663e+000 216 189 144
-1.361511e+000 -8.377605e-001 -3.977433e+000 132 111 74
-1.021618e+000 -7.594811e-001 -8.723899e+000 202 205 196
-7.399440e-001 -1.402901e+000 -7.926329e+000 217 218 210
5.421002e-002 -2.084731e+000 -7.639029e+000 164 159 147
1.656190e+000 1.744976e+000 -6.111143e+000 205 205 197
9.672068e-001 2.883524e+000 -7.053961e+000 81 65 49
1.419542e+000 1.420536e+000 -6.083783e+000 254 254 245
2.443249e+000 3.053712e-001 -5.852172e+000 179 69 68
1.600927e+000 -7.308144e-001 -6.116041e+000 129 91 64
1.839229e+000 -1.500825e+000 -6.286598e+000 183 75 77
2.689841e-001 -1.312032e+000 -5.272460e+000 50 30 23
-1.485059e+000 1.034435e-001 -9.137181e+000 181 61 58
-1.688080e+000 3.343780e-002 -9.308608e+000 178 63 59
-1.059693e+000 -4.880772e-001 -8.853404e+000 221 224 213
-1.869704e+000 -6.028434e-002 -9.511130e+000 36 25 33
-1.739591e+000 -1.756320e-001 -9.442272e+000 182 64 62
-1.483659e+000 -4.679073e-001 -4.116864e+000 37 27 29
-8.483049e-003 -1.319524e+000 -4.953933e+000 184 105 65
-7.850494e-001 -1.074246e+000 -5.219135e+000 61 31 28
-1.529760e+000 -1.334582e-001 -9.229703e+000 178 63 58
-1.735152e+000 -1.793373e-001 -9.452125e+000 183 65 62
-1.683030e-001 -1.674133e+000 -7.374482e+000 184 186 178
-9.521070e-001 -1.284311e+000 -8.114585e+000 223 229 219
1.726764e+000 1.079018e+000 -5.785636e+000 207 204 195
1.726764e+000 1.079018e+000 -5.785636e+000 207 204 195
1.196346e+000 1.758988e+000 -6.519320e+000 102 95 66
-3.136470e-001 -1.066795e+000 -4.677820e+000 95 46 32
2.258963e+000 -3.157758e-001 -5.896517e+000 130 118 82
2.731840e+000 -1.303010e+000 -5.677051e+000 73 74 79
-2.282189e-001 -5.821632e-001 -4.545209e+000 109 60 39
1.401943e+000 -1.486774e+000 -6.305306e+000 223 220 214
-8.119887e-001 -1.819398e+000 -8.391097e+000 217 217 205
-3.380797e+000 8.062310e-001 -1.098416e+001 75 78 85
-3.380797e+000 8.062310e-001 -1.098416e+001 75 78 85
3.634493e-001 -6.981898e-001 -4.792640e+000 73 38 35
-8.099753e-001 -1.447459e+000 -6.508462e+000 222 227 220
1.475019e+000 1.312253e+000 -6.057920e+000 148 139 107
-2.335600e-001 -1.567682e-001 -5.758249e+000 86 71 61
1.255070e+000 8.602005e-001 -5.916906e+000 140 137 110
-1.971271e-002 -1.448594e-001 -5.533369e+000 79 68 40
-1.303625e+000 -3.407738e-001 -4.144656e+000 95 42 26
-1.048554e-002 -1.538526e-001 -5.493711e+000 116 109 78
-4.094884e-001 -1.104360e-001 -4.664923e+000 73 44 41
-3.367729e-001 -5.262653e-002 -4.615196e+000 65 38 24
8.640005e-002 3.897855e-002 -4.928548e+000 140 141 133
-8.277129e-001 -4.845513e-001 -4.293491e+000 54 38 38
1.013755e+000 -5.335854e-001 -5.561178e+000 147 142 128
-1.385530e-001 -1.110301e+000 -4.837739e+000 122 61 50
3.721555e-002 -1.363998e+000 -4.890117e+000 77 45 33
-1.629255e-001 -3.215733e-002 -5.647389e+000 155 156 146
-7.100113e-001 -1.922902e-001 -4.670679e+000 166 96 59
-8.905158e-001 -4.345881e-001 -4.171605e+000 124 86 66
-6.287255e-001 -4.038816e-001 -4.527071e+000 108 47 28
3.237837e-001 -1.956035e-001 -4.945415e+000 115 112 99
-1.487056e+000 -8.166891e-001 -3.847629e+000 64 59 65
-1.048710e+000 -7.035079e-001 -3.969825e+000 139 62 39
-1.022493e+000 -9.181727e-001 -3.938519e+000 66 21 15
-8.290448e-001 -9.214920e-001 -3.899546e+000 70 45 43
-4.450645e-001 -1.135251e+000 -4.470704e+000 141 65 34
-3.983023e-001 9.397000e-002 -5.468126e+000 184 172 158
-1.858429e-001 -1.684840e-001 -5.703102e+000 89 77 63
-7.148652e-001 -3.706163e-001 -4.720042e+000 186 107 69
-3.641501e-001 -1.321007e-001 -4.619712e+000 156 142 113
4.970270e-001 -1.435746e-002 -5.347448e+000 168 170 159
-2.234338e-001 -6.318215e-002 -4.471789e+000 176 133 107
-1.522747e+000 -7.788409e-001 -3.834226e+000 133 117 73
-1.462373e+000 -7.530317e-001 -3.832268e+000 129 113 73
-1.353517e+000 -6.676772e-001 -3.873523e+000 118 91 61
4.077647e-001 -2.250934e-001 -4.954198e+000 145 138 127
-9.319414e-001 -6.305854e-001 -3.905231e+000 144 74 49
-4.149814e-001 -1.060375e+000 -4.511246e+000 127 51 26
4.196168e-001 7.769353e-001 -6.378440e+000 224 228 214
-3.590590e-001 6.194033e-002 -5.623637e+000 126 84 67
1.010239e+000 9.309055e-001 -6.054580e+000 205 208 195
-2.530483e-001 -4.472834e-002 -5.688269e+000 111 85 73
2.694854e-001 1.532641e-001 -5.553344e+000 202 205 196
5.559221e-001 2.050511e-001 -5.658372e+000 190 193 182
-1.276192e+000 -4.584468e-001 -4.074941e+000 71 23 18
-6.256505e-001 -5.068997e-001 -4.745621e+000 59 15 6
-9.342043e-001 -8.678641e-001 -3.928763e+000 79 22 20
1.490477e+000 1.060926e+000 -5.977338e+000 215 216 204
-9.505025e-001 -2.740960e-001 -4.146388e+000 77 28 17
1.582045e+000 -2.785347e-001 -5.873019e+000 96 76 53
-3.004085e-001 -6.462294e-001 -4.628446e+000 181 138 103
-3.143532e-001 -1.096736e+000 -4.590587e+000 105 33 19
-1.502883e+000 -7.636800e-001 -3.882935e+000 123 105 64
-9.807761e-001 -5.697656e-001 -3.926130e+000 99 41 29
1.271620e+000 9.846652e-001 -6.264925e+000 244 242 202
2.132611e+000 1.698863e+000 -5.835323e+000 128 53 51
1.174692e+000 8.072577e-001 -6.013777e+000 115 110 82
5.509219e-002 -8.239007e-001 -4.724453e+000 208 170 125
9.232036e-001 3.171813e-001 -5.231810e+000 200 202 189
8.131000e-001 -5.284513e-001 -5.532155e+000 79 70 61
1.210373e+000 -1.298781e+000 -5.282281e+000 191 189 174
1.210373e+000 -1.298781e+000 -5.282281e+000 191 189 174
3.800495e-002 -1.255815e+000 -4.903006e+000 145 92 75
-9.708988e-001 -1.052807e+000 -4.076352e+000 72 28 12
1.292197e+000 -1.283364e+000 -6.260536e+000 86 72 61
7.452541e-001 -5.021453e-001 -5.565521e+000 100 95 87
-5.853985e-001 -1.333235e+000 -7.271770e+000 216 221 215
2.788791e+000 -8.383122e-001 -5.748668e+000 43 42 47
1.117622e+000 -3.418550e-001 -5.622947e+000 163 168 162
2.304433e+000 -1.426568e+000 -6.077772e+000 44 43 48
-3.151650e-001 -1.747622e-001 -4.559694e+000 205 182 140
1.639749e+000 -3.594422e-001 -5.843031e+000 49 30 31
-4.077230e-001 5.763296e+000 -8.305182e+000 64 61 67
-3.584603e-001 5.722922e+000 -8.368231e+000 77 75 81
-9.154388e-002 4.999600e+000 -8.486496e+000 110 108 114
3.083828e+000 -8.823946e-001 -5.550244e+000 73 72 77
5.884896e-002 4.776785e+000 -8.476383e+000 30 28 34
1.204202e+000 1.192674e+000 -6.226430e+000 144 135 99
2.595292e+000 -4.786952e-001 -5.653825e+000 198 192 132
2.940181e+000 -6.404177e-001 -5.824972e+000 58 56 59
2.838688e+000 -1.054785e+000 -5.708423e+000 81 80 85
2.857331e+000 -1.166208e+000 -5.680635e+000 69 70 74
2.930173e+000 -1.118595e+000 -5.687993e+000 62 62 70
2.511700e+000 -8.846474e-001 -5.968426e+000 118 119 123
3.162467e+000 -1.837291e+000 -5.307317e+000 47 44 51
2.508298e+000 -1.064631e+000 -5.963841e+000 112 111 116
2.567981e+000 -1.300851e+000 -5.870472e+000 78 79 84
2.762816e+000 -1.413943e+000 -5.748540e+000 42 43 48
2.761847e+000 -1.500342e+000 -5.754019e+000 49 48 53
3.036759e+000 -2.114155e+000 -5.351246e+000 47 45 50
2.417059e+000 -1.300580e+000 -5.951239e+000 52 53 57
2.463498e+000 -1.401462e+000 -5.946447e+000 73 72 77
2.495438e+000 -1.378099e+000 -5.995096e+000 73 72 77
2.296119e+000 -1.725910e+000 -6.045122e+000 77 76 81
2.434402e+000 -1.912693e+000 -5.927655e+000 82 82 88
2.434402e+000 -1.912693e+000 -5.927655e+000 82 82 88
2.293344e+000 -1.863975e+000 -6.013553e+000 48 47 52
2.385943e+000 -1.926325e+000 -5.910035e+000 46 45 51
2.426340e+000 -1.969219e+000 -5.888408e+000 39 38 44
2.402615e+000 -2.018012e+000 -5.949110e+000 76 73 80
2.076377e+000 -1.677267e+000 -6.229826e+000 49 48 53
2.050528e+000 -1.880988e+000 -6.195291e+000 33 31 36
1.681201e+000 -1.797949e+000 -6.017345e+000 177 80 83
2.041270e+000 -2.231686e+000 -6.228886e+000 51 49 54
2.071741e+000 -2.266158e+000 -6.139074e+000 41 40 46
2.001568e+000 -2.235380e+000 -6.219450e+000 38 36 41
1.036109e+000 -1.579245e+000 -6.753365e+000 89 78 66
-1.704293e+000 1.899478e+000 -9.735430e+000 40 38 41
6.708312e-001 -1.548488e+000 -6.558306e+000 76 59 51
-1.834932e+000 1.511999e+000 -9.856168e+000 60 59 64
-1.941423e+000 1.368339e+000 -9.845597e+000 54 53 58
-3.712984e-001 -1.236892e+000 -7.215424e+000 228 234 228
-2.059238e-001 -1.327428e+000 -7.157826e+000 181 181 174
-1.349054e-001 -1.606825e+000 -7.019250e+000 99 91 80
-2.302810e-001 -1.541348e+000 -7.301466e+000 165 161 152
-1.792811e-001 -1.623940e+000 -7.284213e+000 140 135 130
-5.384996e-001 -1.476966e+000 -7.654429e+000 215 216 206
-4.165830e-001 -1.624115e+000 -7.685381e+000 172 167 155
7.408156e-003 -1.853320e+000 -7.318575e+000 114 99 86
-3.404702e+000 1.248666e+000 -1.083736e+001 73 71 76
-3.374840e+000 1.141950e+000 -1.081788e+001 57 56 62
-4.348263e-001 -1.776740e+000 -7.973253e+000 137 130 120
-3.200607e+000 7.340301e-001 -1.075703e+001 63 64 69
-3.429220e+000 6.839356e-001 -1.081929e+001 100 100 108
-3.090634e+000 6.463458e-001 -1.082211e+001 72 71 76
-3.219901e+000 5.681574e-001 -1.081047e+001 81 83 88
-2.914588e+000 2.809457e-001 -1.066454e+001 40 41 43
-3.258547e+000 5.038473e-001 -1.075325e+001 63 62 68
-3.198373e+000 4.789942e-001 -1.088255e+001 50 51 56
-3.245107e+000 4.172728e-001 -1.086870e+001 60 61 66
-3.311669e+000 4.001955e-001 -1.086803e+001 93 94 99
-3.338332e+000 3.089249e-001 -1.082944e+001 105 106 111
-3.338332e+000 3.089249e-001 -1.082944e+001 105 106 111
-3.117404e+000 1.230543e-001 -1.080768e+001 67 68 72
-3.365046e+000 1.146027e-001 -1.088053e+001 97 98 103
-3.134623e+000 6.329032e-002 -1.077013e+001 52 53 58
-3.166934e+000 -1.272695e-002 -1.075194e+001 48 49 54
-3.126288e+000 -2.441625e-001 -1.078669e+001 51 51 56
-3.215142e+000 -4.035274e-001 -1.075942e+001 82 81 87
-1.374012e+000 -1.829124e+000 -8.685632e+000 123 88 82
3.705773e-001 -3.751086e+000 -7.788805e+000 48 46 51
-4.283626e-001 5.976961e+000 -8.376697e+000 76 71 77
-4.238333e-001 6.135586e+000 -8.500324e+000 76 71 77
2.719610e+000 2.494201e-001 -5.887555e+000 101 102 108
3.206273e+000 -6.695537e-001 -5.584813e+000 74 73 78
-3.482830e-001 5.441825e+000 -8.351779e+000 57 55 60
3.323330e+000 -1.350810e+000 -5.333572e+000 34 31 38
-5.412138e-002 4.907339e+000 -8.487534e+000 93 92 97
1.198830e+000 1.217419e+000 -6.154993e+000 153 145 98
2.994500e+000 -9.728734e-001 -5.599077e+000 54 54 64
2.994500e+000 -9.728734e-001 -5.599077e+000 54 54 64
2.936942e+000 -9.910759e-001 -5.667364e+000 54 53 59
3.329762e+000 -1.664861e+000 -5.202104e+000 75 74 80
3.329762e+000 -1.664861e+000 -5.202104e+000 75 74 80
-1.461855e-001 4.465677e+000 -8.655507e+000 54 55 57
-6.984721e-002 4.503723e+000 -8.710311e+000 37 34 37
2.787249e+000 -1.085012e+000 -5.697181e+000 52 51 56
2.987898e+000 -1.062657e+000 -5.663289e+000 89 89 98
2.605272e+000 -9.716571e-001 -5.923601e+000 94 93 100
2.730258e+000 -1.189065e+000 -5.753412e+000 56 55 61
2.806687e+000 -1.236369e+000 -5.714882e+000 129 129 137
2.806687e+000 -1.236369e+000 -5.714882e+000 129 129 137
2.768933e+000 -1.193345e+000 -5.752284e+000 102 102 110
2.810109e+000 -1.333617e+000 -5.757304e+000 91 91 99
2.414219e+000 -1.014692e+000 -6.005064e+000 59 51 59
2.556220e+000 -1.001162e+000 -5.932837e+000 48 47 52
2.693521e+000 -1.400327e+000 -5.712788e+000 56 57 62
2.725918e+000 -1.480934e+000 -5.731900e+000 35 33 40
2.469251e+000 -1.286931e+000 -5.916102e+000 44 45 49
2.384375e+000 -1.245281e+000 -6.010717e+000 95 96 100
2.345615e+000 -1.228056e+000 -6.005255e+000 49 50 54
2.410731e+000 -1.401083e+000 -5.921414e+000 43 42 47
2.631493e+000 -1.428848e+000 -5.808576e+000 125 126 131
2.608748e+000 -1.580934e+000 -5.791548e+000 51 51 59
2.684104e+000 -1.552756e+000 -5.742546e+000 38 36 45
1.761606e+000 -1.011314e+000 -5.988980e+000 164 75 59
2.178844e+000 -1.322870e+000 -6.083740e+000 112 45 48
2.421761e+000 -1.577883e+000 -5.962663e+000 83 82 88
2.473519e+000 -1.704301e+000 -5.926414e+000 44 44 51
2.542008e+000 -1.790935e+000 -5.795899e+000 32 31 37
2.266646e+000 -1.626247e+000 -6.061920e+000 41 40 45
2.290158e+000 -1.620518e+000 -6.032797e+000 81 80 85
2.299623e+000 -1.614029e+000 -6.048176e+000 81 80 85
2.317262e+000 -1.748669e+000 -5.987832e+000 45 44 49
-1.610231e+000 -4.761999e-001 -4.086152e+000 76 53 28
1.489105e+000 -1.178224e+000 -6.094830e+000 144 113 83
1.900030e+000 -1.648294e+000 -6.058544e+000 154 62 64
2.037379e+000 -1.593172e+000 -6.240151e+000 46 32 32
2.198973e+000 -1.775484e+000 -6.104925e+000 43 42 47
2.378195e+000 -1.922882e+000 -5.954062e+000 110 109 115
2.377122e+000 -1.923316e+000 -5.952787e+000 110 109 115
2.436177e+000 -1.981374e+000 -5.937161e+000 40 37 44
2.052140e+000 -1.852853e+000 -6.185446e+000 36 34 39
2.052140e+000 -1.852853e+000 -6.185446e+000 36 34 39
2.221149e+000 -2.195726e+000 -6.059511e+000 36 35 40
2.303760e+000 -2.249882e+000 -6.008204e+000 44 43 48
-1.786228e+000 1.846013e+000 -9.796904e+000 42 41 46
-1.786228e+000 1.846013e+000 -9.796904e+000 42 41 46
9.785361e-001 -1.605748e+000 -6.713652e+000 100 88 76
9.605084e-001 -1.703581e+000 -6.676618e+000 81 67 56
-1.992146e+000 1.193757e+000 -1.002845e+001 47 46 51
-4.509039e-001 -9.745089e-001 -7.886336e+000 218 225 217
-4.526813e-001 -9.893810e-001 -7.851063e+000 218 225 217
-3.283239e+000 1.208950e+000 -1.089066e+001 30 28 31
-3.160820e+000 6.963250e-001 -1.079257e+001 106 105 111
-3.154051e+000 2.338215e-001 -1.070543e+001 52 51 57
-3.014986e+000 3.378763e-001 -1.099096e+001 79 78 83
-3.257843e+000 -6.510172e-002 -1.081350e+001 65 66 71
-1.694227e+000 -1.564692e+000 -9.150338e+000 122 41 41
-1.698733e+000 -1.579558e+000 -9.361617e+000 134 55 57
-8.236716e-001 -2.334867e+000 -8.542329e+000 214 202 201
-8.236716e-001 -2.334867e+000 -8.542329e+000 214 202 201
-6.341690e-001 -2.678819e+000 -8.104281e+000 180 174 163
3.814326e-001 -3.620026e+000 -7.761729e+000 36 34 39
5.048008e-001 -3.704123e+000 -7.805938e+000 35 33 38
4.430258e-001 -3.750113e+000 -7.773742e+000 42 40 45
4.577078e-001 -3.753147e+000 -7.839126e+000 42 40 45
-2.033966e-001 5.576588e+000 -8.455218e+000 34 29 33
2.361572e+000 -1.070874e-001 -5.799267e+000 241 238 187
3.335111e+000 -1.270870e+000 -5.276756e+000 59 57 62
3.380415e+000 -1.492750e+000 -5.100638e+000 43 40 47
2.572985e+000 -4.150988e-001 -5.717030e+000 205 193 130
3.213468e+000 -1.778960e+000 -5.297183e+000 57 54 61
2.775511e+000 -1.140854e+000 -5.737708e+000 52 52 57
2.801072e+000 -1.182208e+000 -5.724294e+000 63 64 69
3.173805e+000 -1.875688e+000 -5.288677e+000 36 33 40
2.410004e+000 -8.346628e-001 -5.982980e+000 76 67 70
2.485615e+000 -9.584166e-001 -6.007414e+000 64 54 62
2.347144e+000 -9.711764e-001 -5.927153e+000 64 49 50
2.597513e+000 -1.039934e+000 -5.943412e+000 98 97 102
2.603686e+000 -1.257791e+000 -5.832846e+000 40 41 46
2.522769e+000 -1.281865e+000 -5.854640e+000 42 43 47
2.725487e+000 -1.328782e+000 -5.748997e+000 133 134 139
2.725487e+000 -1.328782e+000 -5.748997e+000 133 134 139
2.406595e+000 -1.231813e+000 -5.963956e+000 47 48 52
2.506954e+000 -1.453514e+000 -5.947641e+000 42 43 48
1.477817e+000 -6.768857e-001 -6.058739e+000 127 94 61
1.831883e+000 -9.182683e-001 -6.082211e+000 212 139 128
2.491335e+000 -1.610820e+000 -5.887410e+000 49 50 55
9.829870e-001 -8.794435e-001 -5.733152e+000 143 146 137
1.697089e+000 -1.122726e+000 -6.007238e+000 113 51 29
1.631478e+000 -1.189933e+000 -6.043576e+000 122 82 46
1.631772e+000 -1.190086e+000 -6.043812e+000 122 82 46
2.301704e+000 -1.545517e+000 -6.034383e+000 39 38 43
2.362176e+000 -1.631538e+000 -6.093149e+000 42 41 46
2.437884e+000 -1.751648e+000 -5.979771e+000 42 43 48
-1.013945e+000 -9.357895e-001 -4.006057e+000 104 41 24
5.824497e-002 -1.258827e+000 -4.854918e+000 132 94 74
5.560903e-002 -1.262037e+000 -4.847895e+000 132 94 74
2.147530e+000 -2.208360e+000 -6.114791e+000 35 34 40
-4.684056e-001 -1.442534e+000 -4.870835e+000 96 44 28
-2.339769e-001 -1.541098e+000 -4.927467e+000 70 31 20
-3.485718e-001 -1.297422e+000 -7.193626e+000 199 204 197
-1.429879e+000 -2.121570e-002 -9.125457e+000 196 189 172
-3.290477e-001 -1.554612e+000 -7.468151e+000 164 164 154
-7.834485e-001 -1.505951e+000 -8.061746e+000 182 179 170
-3.269993e+000 7.126118e-001 -1.094225e+001 54 55 61
-3.015026e+000 1.556023e-001 -1.057723e+001 41 42 46
-3.021675e+000 7.444747e-002 -1.071831e+001 39 38 43
-8.906667e-001 -2.219831e+000 -8.507201e+000 184 176 167
1.377006e+000 -4.011316e+000 -7.148903e+000 25 22 28
3.020895e-001 -3.594975e+000 -7.851699e+000 36 33 40
2.251684e-001 -3.708684e+000 -7.882647e+000 33 31 36
1.436331e+000 2.324869e+000 -6.205248e+000 225 216 206
2.983397e+000 -1.085293e+000 -5.577844e+000 41 36 42
1.476687e+000 -5.045649e-001 -5.945524e+000 49 34 27
2.378056e+000 -1.538589e+000 -5.948459e+000 41 40 45
9.302456e-001 -7.935379e-001 -5.726511e+000 192 192 184
2.412923e+000 -1.624707e+000 -6.003127e+000 42 41 46
2.412923e+000 -1.624707e+000 -6.003127e+000 42 41 46
2.419582e+000 -1.853724e+000 -5.941118e+000 43 43 51
2.187633e+000 -1.608743e+000 -6.127026e+000 41 40 45
-1.617659e+000 -5.269836e-001 -4.064104e+000 140 121 87
-1.359033e+000 -8.525168e-001 -3.962506e+000 130 112 75
-6.104491e-003 -1.235543e+000 -4.918388e+000 106 42 33
2.835645e-001 -1.349455e+000 -5.288151e+000 48 31 23
2.835645e-001 -1.349455e+000 -5.288151e+000 48 31 23
2.437614e-001 -1.356914e+000 -5.323553e+000 74 57 49
-1.372897e-001 -1.216304e+000 -6.940756e+000 127 119 109
-1.426183e+000 -3.935563e-003 -9.158730e+000 192 189 173
-4.063189e-001 -2.362118e+000 -7.975163e+000 198 200 187
-9.598127e-001 -2.230400e+000 -8.589367e+000 220 216 208
-6.922772e-001 -2.315686e+000 -8.225704e+000 199 197 190
1.159662e-001 -3.090686e+000 -7.527221e+000 22 16 16
1.043460e+000 2.022800e+000 -6.537114e+000 96 80 57
4.964240e-002 -4.510099e-001 -4.619289e+000 140 75 44
1.735203e+000 -1.200270e-001 -6.278029e+000 74 51 44
7.570372e-002 -1.300380e+000 -4.892084e+000 69 31 24
-1.364254e+000 2.473060e-001 -9.101424e+000 210 203 197
-1.177100e+000 -1.657321e-002 -8.795877e+000 209 211 198
-1.843724e+000 -5.699196e-002 -9.605363e+000 37 27 35
-8.318723e-001 -1.440098e+000 -7.994417e+000 125 113 103
-9.576709e-001 -1.443681e+000 -8.163249e+000 147 138 130
-7.078727e-001 -1.581634e+000 -8.130749e+000 94 81 66
-1.845103e+000 -1.316639e+000 -9.254333e+000 170 58 57
1.818849e+000 9.340160e-001 -5.832023e+000 236 236 228
8.113630e-001 3.119264e+000 -7.183163e+000 195 79 80
2.434590e+000 -2.386175e-001 -5.886233e+000 223 213 160
1.800286e+000 -8.789168e-001 -6.034805e+000 66 34 28
7.836818e-001 -9.677908e-001 -5.589922e+000 89 80 73
1.739159e+000 -1.828070e+000 -6.026989e+000 38 37 43
-3.354994e-001 -1.418925e+000 -4.914675e+000 85 38 28
-5.227562e-001 -9.131372e-001 -7.771146e+000 238 243 237
4.177223e-001 -1.747024e+000 -7.243828e+000 79 63 51
-3.443150e+000 7.722023e-001 -1.105060e+001 90 90 98
-1.572917e+000 -9.337664e-001 -9.156165e+000 186 68 62
2.509914e+000 -1.694318e-001 -5.799759e+000 116 105 76
2.530370e+000 -3.662989e-001 -5.708669e+000 242 232 177
1.665711e+000 -1.039377e+000 -5.941146e+000 218 195 145
-4.370700e-001 -1.345418e+000 -4.644056e+000 168 103 65
-1.465197e-001 -1.227629e+000 -7.126959e+000 116 102 89
-9.291260e-001 -4.059511e-001 -8.996538e+000 193 195 182
9.469605e-001 3.854706e+000 -7.353951e+000 122 107 73
1.110643e+000 2.812799e+000 -6.786924e+000 125 113 79
2.971284e+000 -1.056043e+000 -5.714811e+000 92 92 100
1.360165e+000 -3.873098e-001 -5.931577e+000 80 50 41
-7.291879e-001 -8.262014e-001 -4.121182e+000 92 34 23
-3.014846e+000 -5.835861e-002 -1.091342e+001 49 47 53
-1.798205e+000 -1.388365e+000 -9.297379e+000 173 61 58
-1.793371e+000 -1.615016e+000 -9.526328e+000 32 28 38
-7.669505e-001 -2.846335e+000 -8.225079e+000 164 54 54
7.156545e-001 3.293209e+000 -7.164026e+000 33 27 29
1.102405e+000 -8.698706e-001 -5.814855e+000 190 198 189
-8.264536e-001 -1.056674e+000 -4.186282e+000 64 25 18
-1.005736e+000 -1.961736e-001 -8.677769e+000 159 155 144
8.852520e-001 -2.209841e+000 -6.850191e+000 60 23 24
6.229541e-001 -7.580347e-001 -5.443694e+000 41 25 25
7.421402e-001 -1.489301e+000 -6.467745e+000 92 80 68
-8.113695e-001 -1.813879e+000 -8.399212e+000 217 217 211
2.433021e+000 -1.878743e+000 -6.061409e+000 118 117 123
-1.227236e+000 -1.004589e+000 -4.116622e+000 172 95 51
-7.185610e-001 -1.641127e+000 -7.914522e+000 131 118 104
-6.294807e-001 -1.138661e+000 -5.140164e+000 60 28 25
-2.416260e-001 -3.165811e+000 -7.816477e+000 187 179 169
-1.326908e+000 -1.354754e+000 -8.505684e+000 218 217 205
6.961190e-001 -2.999259e+000 -7.062357e+000 27 22 26
1.731058e+000 2.625684e+000 -6.358676e+000 204 193 181
2.354861e+000 -4.991034e-001 -5.903768e+000 254 245 188
2.674052e+000 -6.844792e-001 -5.902213e+000 75 75 75
2.734688e+000 -1.379249e+000 -5.668999e+000 93 91 96
2.321865e+000 -8.829069e-001 -5.940170e+000 202 91 95
2.653879e+000 -1.508483e+000 -5.773539e+000 56 57 62
2.596626e+000 -1.539847e+000 -5.753693e+000 149 150 155
2.432623e+000 -1.040101e+000 -5.973696e+000 112 111 113
2.516541e+000 -1.511339e+000 -5.780006e+000 61 62 66
2.560750e+000 -1.509710e+000 -5.850650e+000 53 54 58
1.243100e+000 -7.211135e-001 -5.908084e+000 122 86 62
1.534093e+000 -6.718124e-001 -6.145056e+000 196 161 120
2.310708e+000 -2.016711e+000 -5.964940e+000 35 38 45
1.875658e+000 -1.386567e+000 -6.094589e+000 129 60 45
2.253323e+000 -2.086317e+000 -5.976534e+000 39 42 47
3.147492e-002 -1.214607e+000 -4.801396e+000 138 64 51
1.938301e+000 -1.860775e+000 -6.130858e+000 37 36 42
1.999720e+000 -2.011174e+000 -6.203997e+000 78 76 81
2.112945e+000 -2.199575e+000 -6.071790e+000 38 39 43
8.961764e-001 -1.729758e+000 -6.434558e+000 90 76 64
-1.473767e+000 2.152680e+000 -9.794756e+000 55 54 59
