ply
format ascii 1.0
element face 0
property list uchar int vertex_indices
element vertex 884
property float x
property float y
property float z
property uchar diffuse_red
property uchar diffuse_green
property uchar diffuse_blue
end_header
1.025248e+000 1.837446e+000 -6.363971e+000 121 111 77
2.781415e+000 1.649988e+000 -6.040410e+000 61 60 68
2.872381e+000 1.639363e+000 -5.965810e+000 60 59 65
3.001482e+000 1.638271e+000 -5.904410e+000 53 50 57
2.640573e+000 1.541825e+000 -6.065978e+000 70 69 75
2.658319e+000 1.485198e+000 -6.007347e+000 177 176 182
2.925079e+000 1.420654e+000 -5.950095e+000 48 49 54
1.404249e+000 1.251239e+000 -5.985963e+000 148 140 103
1.404249e+000 1.251239e+000 -5.985963e+000 148 140 103
2.477812e+000 1.366385e+000 -6.094590e+000 149 148 151
2.562431e+000 1.305301e+000 -6.021024e+000 159 160 165
3.036678e+000 1.313640e+000 -5.824110e+000 44 43 48
-1.221381e+000 1.792463e+000 -9.078904e+000 60 39 40
7.748077e-001 1.169100e+000 -6.650243e+000 229 233 224
2.767925e+000 1.120602e+000 -6.055886e+000 62 62 67
2.880981e+000 1.022527e+000 -5.910879e+000 52 49 56
2.974518e+000 1.080843e+000 -5.860165e+000 44 42 47
3.506863e-001 1.176670e+000 -6.918936e+000 198 200 189
1.363134e+000 8.782532e-001 -6.049964e+000 201 201 166
2.954062e+000 9.841538e-001 -5.885216e+000 45 44 50
3.086562e+000 9.006675e-001 -5.933596e+000 42 39 46
2.358806e-001 9.885102e-001 -6.954040e+000 187 193 183
4.847667e-001 7.726348e-001 -6.646024e+000 236 242 234
1.045030e+000 8.492915e-001 -6.158578e+000 218 220 208
2.735545e+000 6.738016e-001 -5.906668e+000 54 52 57
2.820021e+000 6.813119e-001 -5.849043e+000 52 51 57
8.324450e-001 6.442946e-001 -6.411698e+000 239 242 231
2.765260e+000 6.292445e-001 -5.875943e+000 93 92 98
2.765260e+000 6.292445e-001 -5.875943e+000 93 92 98
3.054364e+000 5.031718e-001 -5.422573e+000 58 50 44
2.608985e+000 4.338523e-001 -5.924987e+000 89 88 93
2.611656e+000 4.342654e-001 -5.928153e+000 89 88 93
2.758326e+000 4.880484e-001 -5.864103e+000 53 52 57
2.849523e+000 3.238593e-001 -5.743557e+000 45 44 49
-3.555302e+000 6.553849e-001 -1.143441e+001 66 65 70
2.687016e+000 2.069386e-001 -5.943620e+000 52 51 56
2.738479e+000 3.237237e-001 -5.900191e+000 88 89 94
2.750846e-001 9.473504e-002 -5.573651e+000 227 233 223
2.750846e-001 9.473504e-002 -5.573651e+000 227 233 223
1.216036e+000 4.098261e-002 -5.530582e+000 156 153 146
9.102973e-001 -1.258477e-001 -5.495804e+000 193 194 189
3.202876e-001 -2.344565e-001 -4.798853e+000 179 182 174
4.203217e-001 -2.413134e-001 -4.911547e+000 99 96 87
-9.031837e-001 -2.614345e-001 -4.218791e+000 35 26 23
-5.722486e-001 -3.401008e-001 -4.802083e+000 161 74 35
4.848835e-002 -3.434915e-001 -4.686209e+000 204 157 128
5.989054e-001 -4.019409e-001 -5.345952e+000 101 94 84
1.017231e+000 -4.685299e-001 -5.597959e+000 156 156 148
1.453568e+000 -4.491336e-001 -5.972835e+000 56 41 32
-1.119604e+000 -3.980565e-001 -4.123115e+000 40 28 28
-7.284110e-001 -4.853042e-001 -4.200358e+000 111 89 76
-5.585328e-001 -4.308683e-001 -4.609141e+000 162 81 37
1.461311e+000 -6.522582e-001 -6.059229e+000 133 99 65
1.461311e+000 -6.522582e-001 -6.059229e+000 133 99 65
2.361071e+000 -6.066514e-001 -5.791730e+000 107 92 62
2.477239e+000 -5.591748e-001 -5.669215e+000 116 101 67
2.755127e+000 -6.427931e-001 -5.875867e+000 108 104 105
2.815370e+000 -6.453104e-001 -5.770827e+000 101 97 104
2.821181e+000 -6.452063e-001 -5.782883e+000 101 97 104
2.930221e+000 -5.855420e-001 -5.705438e+000 63 62 65
2.944883e+000 -6.055038e-001 -5.654452e+000 38 36 41
-1.284890e+000 -5.286278e-001 -4.110725e+000 54 45 34
-1.278874e+000 -5.415515e-001 -4.032594e+000 136 122 80
-8.334970e-001 -5.317905e-001 -3.962940e+000 116 44 22
-5.202206e-001 -5.309781e-001 -4.165087e+000 150 123 73
1.620480e+000 -7.251664e-001 -6.221868e+000 60 33 22
2.790475e+000 -7.286752e-001 -5.792972e+000 48 46 51
2.701760e+000 -7.622140e-001 -5.798945e+000 53 52 57
2.825621e+000 -6.624617e-001 -5.693577e+000 44 43 48
2.926627e+000 -7.300550e-001 -5.733220e+000 39 37 42
2.914933e+000 -6.935840e-001 -5.542123e+000 40 35 41
-3.222729e-001 -7.427069e-001 -4.383119e+000 130 75 51
2.412390e+000 -9.620535e-001 -5.920784e+000 43 36 43
2.442521e+000 -9.473699e-001 -5.788288e+000 50 48 53
2.635676e+000 -8.999203e-001 -5.929408e+000 99 97 102
2.448839e+000 -1.029282e+000 -5.847998e+000 46 41 47
2.600060e+000 -1.035462e+000 -5.900525e+000 44 39 43
2.703375e+000 -1.142654e+000 -5.689796e+000 43 37 44
-7.572258e-001 -8.947641e-001 -3.872339e+000 112 60 50
-6.792424e-001 -9.160865e-001 -3.994546e+000 82 32 20
-5.698553e-001 -9.661448e-001 -4.180396e+000 83 52 40
-2.243531e-001 -9.682019e-001 -4.625241e+000 121 65 44
1.666282e+000 -1.375712e+000 -6.297809e+000 106 41 29
1.914452e+000 -1.216891e+000 -6.056090e+000 207 143 126
2.544915e+000 -1.198461e+000 -5.860998e+000 38 33 39
2.751008e+000 -1.132806e+000 -5.620582e+000 34 31 36
-2.856754e-001 -1.125086e+000 -4.728165e+000 87 28 17
-1.041310e-002 -1.181427e+000 -4.912658e+000 176 64 52
-9.733791e-003 -1.181120e+000 -4.911009e+000 176 64 52
-7.547489e-001 -1.067245e+000 -4.000720e+000 148 85 46
1.741468e+000 -1.677501e+000 -6.271511e+000 178 69 69
-1.542199e-001 -1.524515e+000 -5.027490e+000 74 37 27
1.436985e+000 2.771485e+000 -6.677135e+000 233 213 203
1.647122e+000 2.764637e+000 -6.583029e+000 178 78 76
1.663981e+000 2.628945e+000 -6.404128e+000 232 222 212
2.019339e+000 1.479464e+000 -5.789788e+000 133 60 60
3.005636e+000 1.469557e+000 -5.913257e+000 63 60 67
2.566341e+000 1.228604e+000 -5.856572e+000 57 57 67
2.615570e+000 1.184522e+000 -5.985505e+000 71 70 75
3.030523e+000 9.879154e-001 -5.826371e+000 40 38 45
-1.235290e+000 1.532601e+000 -9.259946e+000 50 42 44
2.561734e-001 1.178861e+000 -7.021793e+000 176 175 166
-3.901480e-001 1.034069e+000 -8.482971e+000 205 207 195
8.083652e-001 8.193930e-001 -6.680769e+000 219 221 207
1.378465e+000 5.815531e-001 -5.758449e+000 224 230 220
2.922472e+000 4.403403e-001 -5.841096e+000 44 42 45
9.355797e-002 1.866364e-001 -5.878998e+000 222 224 213
2.477138e+000 2.703757e-001 -5.962196e+000 49 49 47
-2.741715e-001 9.989212e-002 -5.067192e+000 221 226 214
-4.508406e-001 -1.329163e-001 -4.923165e+000 166 99 65
2.316941e+000 -1.001052e-001 -5.800555e+000 180 176 129
-3.346283e-001 -2.376350e-001 -4.492904e+000 69 55 74
8.349465e-002 -2.554508e-001 -4.588578e+000 208 200 190
8.925801e-001 -5.817961e-001 -5.716486e+000 147 143 134
1.580479e+000 -6.506217e-001 -6.088863e+000 178 149 117
2.860584e+000 -6.318720e-001 -5.735922e+000 49 44 50
9.376853e-001 -7.080395e-001 -5.752376e+000 200 202 193
9.934455e-001 -6.766718e-001 -5.814265e+000 60 44 36
2.485725e+000 -8.423382e-001 -5.922004e+000 52 50 55
2.844226e+000 -7.606388e-001 -5.758797e+000 41 39 44
3.019261e+000 -6.834761e-001 -5.549473e+000 48 46 51
2.920546e+000 -7.959746e-001 -5.611738e+000 38 36 41
2.536528e+000 -8.973505e-001 -5.849175e+000 61 60 65
2.750249e+000 -8.960064e-001 -5.696745e+000 42 40 45
2.816164e+000 -8.261613e-001 -5.648356e+000 40 38 43
2.860071e+000 -9.682951e-001 -5.683202e+000 43 40 47
-6.646260e-001 -7.266206e-001 -4.049584e+000 128 72 50
-1.297705e-001 -1.070232e+000 -4.709536e+000 111 53 34
-4.191947e-002 -1.059845e+000 -4.860474e+000 160 116 85
1.630387e+000 -1.457610e+000 -6.426067e+000 202 96 97
4.099234e-002 -1.262027e+000 -4.919791e+000 219 128 83
1.709083e+000 -1.468511e+000 -6.312606e+000 205 90 97
1.541691e-001 3.139712e+000 -8.167862e+000 199 69 68
-3.705240e-001 2.856309e+000 -8.855858e+000 60 51 49
2.329415e-001 2.663944e+000 -8.023390e+000 211 202 188
2.246621e+000 1.971539e+000 -5.981102e+000 199 83 83
-7.165239e-001 2.212786e+000 -8.777739e+000 55 50 57
4.877262e-001 1.757815e+000 -7.099346e+000 189 191 180
2.451921e+000 1.271533e+000 -5.902605e+000 74 73 82
2.784852e+000 1.014919e+000 -5.947117e+000 59 56 63
1.067166e-001 5.725378e-001 -6.649183e+000 224 226 213
3.366754e-001 4.032219e-001 -6.128956e+000 189 190 176
2.727720e+000 3.891676e-001 -5.852307e+000 58 57 62
-3.706126e-001 -3.921126e-002 -5.053104e+000 211 214 199
-3.706126e-001 -3.921126e-002 -5.053104e+000 211 214 199
-3.789092e-001 -2.679243e-001 -4.520895e+000 213 182 141
-2.235787e-001 -2.163091e-001 -4.570563e+000 204 185 143
5.431132e-002 -2.923949e-001 -4.558886e+000 174 77 69
4.544572e-001 -3.709683e-001 -4.668059e+000 147 149 138
8.203998e-001 -4.763083e-001 -5.535841e+000 111 102 94
2.311467e+000 -7.280244e-001 -5.961156e+000 187 80 77
3.038797e+000 -7.494140e-001 -5.534638e+000 86 85 91
-1.141167e+000 -6.443567e-001 -3.928018e+000 77 33 28
7.811030e-001 -8.405441e-001 -5.668366e+000 89 80 74
1.493899e+000 -1.122023e+000 -6.185138e+000 179 142 108
-1.082383e+000 -8.827349e-001 -4.066645e+000 89 34 22
5.943786e-003 -9.554606e-001 -4.580063e+000 141 81 51
-7.485352e-001 -9.350251e-001 -3.937508e+000 65 27 14
-2.652289e-002 -1.130551e+000 -4.895739e+000 70 31 29
1.246006e+000 -1.499604e+000 -6.299378e+000 152 142 132
-7.244545e-001 -1.060290e+000 -4.038556e+000 41 32 35
1.251010e+000 -1.777157e+000 -6.361867e+000 189 181 170
2.253867e+000 2.420886e+000 -5.851419e+000 43 31 36
2.498111e+000 2.500395e+000 -6.059049e+000 43 33 42
4.080684e-001 3.003264e+000 -7.692482e+000 187 76 72
-2.102747e-002 3.270068e+000 -8.639037e+000 42 53 56
1.776982e+000 2.209667e+000 -6.199141e+000 207 200 182
-1.519712e-001 2.837621e+000 -8.490144e+000 189 70 66
9.352312e-001 1.489432e+000 -6.397530e+000 212 212 201
9.567826e-001 1.523658e+000 -6.544059e+000 212 212 201
1.348742e+000 1.500720e+000 -6.212278e+000 150 142 100
-3.318244e-001 1.970771e+000 -8.579718e+000 209 215 201
-7.038650e-001 1.078001e+000 -8.688159e+000 199 201 188
1.975870e-004 8.624691e-001 -7.228482e+000 235 241 229
-2.949469e-001 7.571987e-001 -8.211371e+000 186 184 172
2.026276e-001 -3.902489e-001 -4.560857e+000 182 79 68
1.258093e+000 -4.894234e-001 -5.824106e+000 101 66 53
1.099807e+000 -6.613827e-001 -5.782837e+000 64 32 27
1.607225e+000 -5.825624e-001 -6.204918e+000 73 50 37
1.282147e+000 -7.536776e-001 -6.045327e+000 52 36 34
-1.358419e+000 -5.945664e-001 -3.998712e+000 36 31 31
-4.177318e-001 -6.968441e-001 -4.218496e+000 102 59 35
-1.326075e+000 -7.115412e-001 -3.920820e+000 46 33 26
4.682171e-001 -9.311918e-001 -5.011469e+000 82 65 54
1.185034e+000 -1.003172e+000 -5.809174e+000 163 161 152
-1.117184e+000 -8.785299e-001 -3.936631e+000 41 41 39
-1.117184e+000 -8.785299e-001 -3.936631e+000 41 41 39
1.445937e+000 -1.995760e+000 -6.617609e+000 178 172 160
7.354644e-001 2.949131e+000 -7.367402e+000 203 88 91
2.273707e-001 2.901316e+000 -8.021886e+000 184 70 65
7.664323e-001 2.041120e+000 -6.913032e+000 235 235 226
3.822493e-001 1.919642e+000 -7.566890e+000 230 230 218
2.306071e+000 1.509735e+000 -5.919454e+000 190 92 86
1.292534e-001 1.689343e+000 -7.606254e+000 243 248 241
2.595717e-001 1.230190e+000 -6.946914e+000 194 194 182
1.086699e+000 1.063504e+000 -6.341292e+000 230 235 228
9.437943e-001 5.417585e-001 -5.731606e+000 93 91 69
9.437943e-001 5.417585e-001 -5.731606e+000 93 91 69
1.402556e-001 -1.340363e-001 -4.771920e+000 181 187 177
4.043152e-001 -2.035329e-001 -4.881543e+000 111 107 99
-5.910796e-002 -3.577151e-001 -4.593696e+000 213 175 130
-5.054845e-002 -3.582781e-001 -4.616667e+000 213 175 130
1.407556e+000 -5.206197e-001 -5.961677e+000 174 146 115
1.373429e+000 -8.246950e-001 -5.972070e+000 224 191 150
1.701299e+000 -7.541618e-001 -6.249671e+000 70 32 33
2.949697e+000 -8.490327e-001 -5.541820e+000 65 62 69
-1.010607e+000 -8.361948e-001 -3.932575e+000 124 73 69
-4.262470e-002 -1.482858e+000 -5.006871e+000 81 36 31
-2.390504e-001 3.611109e+000 -9.285408e+000 83 82 88
1.069323e+000 2.571971e+000 -6.572436e+000 126 117 78
-8.422800e-002 1.900256e+000 -8.108539e+000 184 181 165
-5.505456e-001 8.911324e-001 -8.539444e+000 224 226 213
1.061077e+000 5.051369e-001 -5.470197e+000 230 233 223
6.062593e-001 -1.295885e-001 -5.269125e+000 203 208 201
1.201254e+000 -1.721520e-001 -5.617508e+000 152 149 142
-5.022343e-001 -4.553243e-001 -4.512586e+000 157 83 48
7.785559e-001 -9.103690e-001 -5.600895e+000 87 73 65
-2.835666e-001 -9.582774e-001 -4.503831e+000 117 56 29
-7.335894e-002 -1.161363e+000 -4.836870e+000 65 26 22
1.905227e-001 -1.286311e+000 -5.046714e+000 74 36 28
2.661629e+000 2.271912e+000 -5.707538e+000 202 85 88
2.667943e+000 2.042753e+000 -5.671006e+000 33 24 29
-1.503510e-001 9.091343e-001 -7.863399e+000 236 241 234
5.937688e-002 2.983640e-001 -6.306560e+000 181 182 168
5.245101e-001 -2.895322e-001 -5.105040e+000 85 78 72
5.410337e-001 -3.100767e-001 -5.393607e+000 85 78 72
-1.332019e-001 -5.331652e-001 -4.570561e+000 110 61 39
4.877904e-002 -5.368137e-001 -4.622826e+000 216 179 137
1.120050e+000 -1.176030e+000 -5.998130e+000 90 68 54
8.610822e-002 -3.083934e+000 -7.624195e+000 27 14 20
1.515854e+000 2.603720e+000 -6.544464e+000 227 221 202
1.956490e+000 -6.319025e-002 -5.885339e+000 66 37 39
2.800483e+000 -2.889350e-001 -5.529635e+000 131 116 75
-7.797896e-001 -4.984226e-001 -4.314932e+000 100 64 45
3.860185e-001 -7.019909e-001 -4.732102e+000 58 33 26
-9.559086e-001 -7.236227e-001 -3.940560e+000 227 135 90
-9.807173e-002 5.229252e-002 -4.873992e+000 218 219 211
-3.375870e-001 -3.784047e-001 -4.561096e+000 223 180 135
2.457360e+000 -3.864131e-001 -5.692409e+000 194 179 124
7.096265e-001 -5.910412e-001 -5.495629e+000 43 32 35
7.197625e-001 -6.143537e-001 -5.688037e+000 43 32 35
3.234239e+000 1.700103e+000 -6.478424e+000 98 97 103
1.245706e+000 1.280788e+000 -5.967722e+000 127 118 84
1.564849e+000 -3.104822e-001 -5.902107e+000 58 46 38
9.854671e-002 -8.751000e-001 -4.805851e+000 231 195 145
-1.241609e-001 -1.348690e+000 -5.237295e+000 96 41 30
6.409258e-001 -1.847472e+000 -6.834053e+000 56 21 23
-9.747290e-001 -6.728041e-001 -4.018922e+000 191 98 57
1.967067e+000 8.096173e-001 -5.752504e+000 219 218 210
-7.737030e-001 2.610459e+000 -9.345844e+000 69 65 72
1.345767e+000 2.238714e+000 -6.097518e+000 155 142 105
-1.030134e+000 2.329792e+000 -9.514332e+000 57 55 59
2.466046e+000 2.388662e+000 -5.877004e+000 48 35 38
1.034288e+000 1.951094e+000 -6.393987e+000 157 148 105
1.315680e+000 1.950135e+000 -6.223455e+000 198 188 135
-3.710211e+000 1.166248e+000 -1.153799e+001 63 62 67
-3.700266e+000 1.104207e+000 -1.161463e+001 62 61 66
-3.667055e+000 9.994308e-001 -1.157111e+001 68 67 72
-3.664138e+000 9.972678e-001 -1.156533e+001 68 67 72
-3.571586e+000 1.066272e+000 -1.154464e+001 57 56 62
2.665291e+000 1.750186e+000 -6.040591e+000 53 49 58
1.137165e+000 1.326603e+000 -6.141625e+000 136 125 93
1.401246e+000 1.433818e+000 -6.158328e+000 214 207 162
2.494871e+000 1.529469e+000 -6.046681e+000 128 126 134
2.619088e+000 1.603939e+000 -6.030259e+000 65 64 70
1.155161e+000 1.156014e+000 -6.563107e+000 205 207 193
2.468011e+000 1.463324e+000 -6.103927e+000 90 90 98
2.462405e+000 1.434931e+000 -6.038821e+000 61 59 66
2.648921e+000 1.455499e+000 -6.038237e+000 79 76 83
2.475682e+000 1.338962e+000 -5.995751e+000 59 58 63
2.544300e+000 1.250253e+000 -5.938531e+000 62 59 67
2.580388e+000 1.230294e+000 -5.976887e+000 101 98 103
2.785229e+000 1.220666e+000 -5.880537e+000 45 42 49
-4.283130e-001 3.829028e-002 -4.889811e+000 153 79 46
-5.164046e-001 -4.796025e-002 -4.962784e+000 212 135 92
-1.004545e-001 -5.894154e-002 -5.643229e+000 214 218 203
6.056333e-001 1.528536e-001 -5.608250e+000 207 211 200
2.663391e+000 5.473752e-001 -6.007866e+000 57 53 60
2.714385e+000 5.386283e-001 -5.858346e+000 51 50 55
2.714385e+000 5.386283e-001 -5.858346e+000 51 50 55
2.862578e+000 4.877502e-001 -5.792780e+000 61 60 65
2.862578e+000 4.877502e-001 -5.792780e+000 61 60 65
-3.103445e-001 -1.533284e-001 -4.529014e+000 150 122 110
2.605928e+000 1.857211e-001 -5.875143e+000 73 71 74
2.762257e+000 2.979101e-001 -5.782930e+000 70 69 74
2.882722e+000 3.279243e-001 -5.737251e+000 60 59 64
1.190589e+000 -2.659650e-001 -5.663907e+000 166 166 156
-1.255758e+000 -5.800272e-001 -4.004282e+000 158 136 87
-1.184694e+000 -5.181189e-001 -4.048038e+000 106 61 52
-8.289044e-001 -5.577846e-001 -3.985963e+000 144 73 53
-6.181399e-001 -6.597493e-001 -4.124493e+000 79 61 61
-2.417739e-001 -7.957767e-001 -4.708188e+000 146 101 67
2.669722e+000 -7.213561e-001 -5.907230e+000 65 60 62
-6.562985e-001 -8.520050e-001 -4.012267e+000 102 35 10
-3.696480e-001 -1.003583e+000 -4.437385e+000 133 60 27
9.524497e-001 -1.716578e+000 -6.776792e+000 108 92 76
1.595755e+000 -1.136626e+000 -6.113937e+000 199 160 115
3.016393e+000 -7.249590e-001 -5.654073e+000 52 47 51
-9.241817e-002 -1.228101e+000 -4.754970e+000 127 56 30
2.740001e+000 -1.033359e+000 -5.760912e+000 33 28 32
1.590164e+000 2.468882e+000 -6.390217e+000 207 197 179
-3.436524e+000 7.301807e-001 -1.147323e+001 54 53 58
2.999489e-001 1.212728e+000 -6.887374e+000 211 212 197
2.669996e+000 1.717211e+000 -6.016040e+000 111 106 113
2.595843e+000 1.618858e+000 -6.061761e+000 134 132 137
2.595843e+000 1.618858e+000 -6.061761e+000 134 132 137
2.572879e+000 1.534886e+000 -6.021870e+000 157 156 162
2.572516e+000 1.401237e+000 -6.012934e+000 120 117 124
2.603692e+000 1.404295e+000 -5.995565e+000 54 51 58
2.661904e+000 1.506573e+000 -6.096821e+000 66 63 70
2.692299e+000 1.534325e+000 -5.968632e+000 59 58 64
2.806241e+000 1.567702e+000 -5.987843e+000 56 53 60
2.672797e+000 1.294946e+000 -5.955573e+000 49 47 52
1.723503e-001 5.763352e-001 -6.656249e+000 234 238 224
4.904707e-001 4.017411e-001 -6.525902e+000 203 213 203
6.453910e-001 5.503865e-001 -6.488601e+000 213 217 203
1.797662e+000 8.305673e-001 -6.108418e+000 224 224 214
1.835340e+000 7.875054e-001 -5.755647e+000 213 213 201
2.778315e+000 1.088590e+000 -5.970274e+000 82 77 83
-3.979264e-001 9.138966e-002 -5.007997e+000 156 96 68
1.388079e+000 5.327293e-001 -5.099481e+000 217 222 215
2.715372e+000 7.230812e-001 -5.863514e+000 75 74 78
2.938874e+000 7.930471e-001 -5.916401e+000 40 38 43
-5.502713e-001 -2.335494e-001 -4.908569e+000 220 119 66
-2.373325e-001 -7.130827e-002 -4.543699e+000 170 79 79
3.691274e-001 -6.613970e-002 -5.120430e+000 205 212 204
2.785130e+000 4.452412e-001 -5.856624e+000 66 65 70
-4.630315e-001 -2.853753e-001 -4.698511e+000 185 95 59
-3.796918e-001 -2.114500e-001 -4.477795e+000 174 144 114
-2.462898e-001 -1.335738e-001 -4.483575e+000 88 74 63
-2.462898e-001 -1.335738e-001 -4.483575e+000 88 74 63
2.701650e+000 2.173836e-001 -5.848761e+000 65 63 66
7.438831e-001 -3.146536e-001 -5.435008e+000 177 178 170
2.613215e+000 5.547135e-002 -5.778611e+000 133 118 87
-1.263598e+000 -5.613916e-001 -3.997690e+000 102 82 33
-5.203814e-001 -4.484701e-001 -4.441077e+000 175 93 54
1.177794e+000 -3.477333e-001 -5.639915e+000 162 162 151
-1.245994e+000 -6.023090e-001 -4.018256e+000 117 94 44
-1.238490e+000 -5.954947e-001 -3.999676e+000 117 94 44
-6.531461e-001 -5.206324e-001 -4.252418e+000 208 188 164
1.450548e+000 -6.511146e-001 -6.045246e+000 164 124 82
-1.270510e+000 -6.836266e-001 -3.937942e+000 148 127 77
-9.217943e-001 -7.105999e-001 -3.913640e+000 224 132 89
-8.191856e-001 -7.078634e-001 -3.928498e+000 183 97 62
1.662168e+000 -1.224481e+000 -6.214252e+000 210 172 129
2.542975e+000 -8.561094e-001 -5.939654e+000 65 60 64
2.671558e+000 -8.065718e-001 -6.008261e+000 59 54 58
2.982753e+000 -6.316795e-001 -5.599418e+000 32 27 31
2.982753e+000 -6.316795e-001 -5.599418e+000 32 27 31
-6.082689e-001 -9.247084e-001 -4.076490e+000 91 42 19
1.039781e-001 -1.106422e+000 -4.856547e+000 177 122 89
1.721003e+000 -1.362434e+000 -6.241353e+000 191 130 106
2.261451e+000 -1.362359e+000 -6.271890e+000 43 18 18
2.708337e+000 -1.038563e+000 -5.906974e+000 52 47 51
1.659443e+000 2.161590e+000 -6.167347e+000 203 197 184
2.581567e+000 1.587796e+000 -6.082250e+000 63 57 63
2.649634e+000 1.656670e+000 -6.019588e+000 160 156 162
2.758878e+000 1.630552e+000 -5.992748e+000 60 57 64
-3.860435e-001 8.845462e-001 -8.411348e+000 221 222 207
2.634347e+000 1.474095e+000 -5.952228e+000 158 155 162
2.634347e+000 1.474095e+000 -5.952228e+000 158 155 162
2.675734e+000 1.426562e+000 -5.977414e+000 56 53 60
2.568988e+000 1.303702e+000 -6.026892e+000 128 125 134
2.727485e+000 1.344301e+000 -6.056984e+000 52 49 55
2.703499e+000 1.338480e+000 -6.007497e+000 52 49 55
2.691634e+000 1.381969e+000 -5.966987e+000 115 112 120
2.689575e+000 1.381452e+000 -5.963318e+000 115 112 120
2.765969e+000 1.372373e+000 -6.008920e+000 52 49 56
2.639617e+000 1.311201e+000 -5.965988e+000 111 109 114
8.138953e-001 7.469271e-001 -6.380233e+000 237 239 225
1.359044e+000 8.213649e-001 -5.992954e+000 229 231 214
2.680413e+000 1.215234e+000 -6.014354e+000 108 107 113
2.606571e+000 1.183196e+000 -5.764636e+000 53 50 57
3.526467e-001 4.679386e-001 -6.273529e+000 213 216 205
2.770896e+000 9.841658e-001 -5.928270e+000 49 46 55
-2.280491e+000 -7.002994e-001 -1.077635e+001 24 19 21
-2.384002e+000 -7.894544e-001 -1.093296e+001 59 57 60
-5.197631e-001 -1.635763e-001 -4.837830e+000 210 113 62
-1.279101e-001 -4.421966e-002 -4.690929e+000 185 184 172
5.061854e-001 -4.354425e-002 -5.298263e+000 194 204 195
-2.750340e-001 -1.575552e-001 -4.516998e+000 168 155 131
-1.383865e-001 -1.734179e-001 -4.476212e+000 182 137 104
-1.372791e-001 -1.753630e-001 -4.476092e+000 182 137 104
2.739230e-001 -1.755431e-001 -4.762879e+000 161 166 156
2.515463e+000 2.380371e-001 -5.871249e+000 50 48 53
2.848778e+000 2.707733e-001 -5.877511e+000 40 38 45
-6.725362e-001 -4.026753e-001 -4.601940e+000 196 111 66
-5.311465e-001 -4.218999e-001 -4.579474e+000 217 120 75
-7.544806e-001 -4.528843e-001 -4.175117e+000 85 42 24
5.996384e-001 -4.131031e-001 -5.406166e+000 122 116 104
-1.209987e+000 -5.871444e-001 -4.000362e+000 154 126 79
-1.146221e+000 -5.542157e-001 -3.964357e+000 119 67 57
-5.525209e-001 -5.263133e-001 -4.151086e+000 219 181 132
8.345423e-001 -8.260358e-001 -5.634580e+000 153 149 137
1.613201e+000 -7.726156e-001 -6.171833e+000 183 140 108
1.535324e+000 -7.747258e-001 -6.055743e+000 143 95 59
1.671284e+000 -8.140611e-001 -6.157041e+000 146 56 45
1.893918e+000 -7.721972e-001 -6.350599e+000 188 78 76
2.008088e+000 -7.296495e-001 -6.146689e+000 192 79 76
-1.293638e+000 -7.639032e-001 -3.851578e+000 142 121 67
-8.368914e-001 -7.601893e-001 -3.909375e+000 210 118 77
-7.860585e-001 -7.618106e-001 -3.910949e+000 192 104 64
-7.184543e-001 -8.935010e-001 -3.983127e+000 149 76 47
1.605308e+000 -1.077728e+000 -5.983817e+000 214 178 132
1.608165e+000 -1.228427e+000 -6.173735e+000 165 122 84
2.697402e+000 -8.831268e-001 -5.962537e+000 44 39 43
-7.503128e-001 -9.238797e-001 -3.886638e+000 92 39 25
3.031705e+000 -7.399429e-001 -5.564643e+000 63 58 62
-1.490439e-001 -1.329271e+000 -4.781515e+000 134 67 41
1.993113e+000 1.457593e+000 -5.752892e+000 136 61 57
2.436651e+000 1.520421e+000 -6.035380e+000 58 41 43
1.185825e+000 1.173738e+000 -6.520850e+000 234 233 213
2.663866e+000 1.540764e+000 -6.101692e+000 58 57 63
2.654659e+000 1.262239e+000 -6.030510e+000 55 50 57
2.747013e+000 1.400663e+000 -5.936154e+000 50 47 55
7.126329e-001 7.635485e-001 -6.470697e+000 232 235 222
3.389359e-001 4.109005e-001 -6.080481e+000 196 200 184
2.692230e+000 1.063435e+000 -5.900581e+000 54 53 59
2.907672e+000 1.018248e+000 -5.967480e+000 42 39 46
-3.666947e+000 -1.264418e+000 -1.151819e+001 54 52 57
2.128360e-001 9.148343e-002 -5.633546e+000 200 207 199
6.197480e-002 3.269114e-002 -5.549491e+000 202 208 204
5.189645e-001 9.863794e-002 -5.475809e+000 202 209 197
-3.139305e-001 -1.323792e-001 -4.603147e+000 116 49 49
-3.731336e-001 -2.148626e-001 -4.397481e+000 196 173 128
-2.164106e-001 -1.901531e-001 -4.438396e+000 202 184 142
-5.781061e-001 -4.412517e-001 -4.592195e+000 154 68 32
2.300470e+000 -9.438706e-002 -5.754649e+000 214 199 149
-1.376875e+000 -5.227111e-001 -4.048921e+000 141 119 71
-1.332856e+000 -5.684885e-001 -4.013717e+000 147 127 77
-7.311312e-001 -4.854624e-001 -4.196200e+000 119 93 70
-7.325433e-001 -4.277335e-001 -4.312569e+000 171 135 108
-4.476585e-001 -4.522242e-001 -4.566430e+000 214 169 122
-4.299280e-001 -4.712106e-001 -4.476337e+000 154 89 48
3.352816e-002 -3.400513e-001 -4.594605e+000 216 171 128
1.600062e+000 -6.529287e-001 -6.111536e+000 182 148 107
-1.114869e+000 -6.663896e-001 -3.964689e+000 117 63 55
9.708007e-001 -6.982194e-001 -5.578631e+000 182 179 164
1.824074e+000 -8.357298e-001 -6.211241e+000 194 76 69
3.141171e+000 -6.126233e-001 -5.651146e+000 32 30 33
1.641458e+000 -1.364678e+000 -6.241968e+000 176 91 78
1.777885e+000 -1.385512e+000 -6.280378e+000 152 71 61
7.949703e-001 2.316086e+000 -7.098970e+000 238 238 226
4.315478e-002 1.056866e+000 -7.673167e+000 219 221 208
2.467041e+000 1.352191e+000 -5.899007e+000 61 60 64
2.623501e+000 1.372159e+000 -6.008606e+000 55 53 58
-1.405176e+000 3.150212e-002 -9.327705e+000 219 212 201
-6.081047e-001 4.196860e-001 -8.605072e+000 229 233 221
-1.782480e+000 -2.877624e-001 -9.754089e+000 179 61 57
3.772854e-001 5.269346e-001 -6.479146e+000 195 201 189
-7.634005e-002 1.481106e-001 -5.938577e+000 195 200 193
1.380600e+000 4.824633e-001 -5.667169e+000 193 196 189
-1.410650e+000 -5.198234e-001 -4.024631e+000 163 146 90
-1.470682e+000 -7.054021e-001 -3.896759e+000 36 23 23
-2.297579e-001 -5.773062e-001 -4.539637e+000 142 80 48
8.977507e-001 -6.615770e-001 -5.805407e+000 85 76 69
9.116214e-001 -6.526240e-001 -5.782225e+000 85 76 69
9.412094e-001 -7.222388e-001 -5.794289e+000 201 199 187
1.564901e+000 -5.751811e-001 -6.093585e+000 81 55 32
-8.427693e-001 -6.407419e-001 -3.963025e+000 112 42 21
2.247502e+000 -6.706371e-001 -6.047957e+000 105 77 47
-1.158979e+000 -8.071124e-001 -3.902892e+000 151 120 74
-5.480458e-001 -7.981466e-001 -4.152300e+000 125 58 33
1.549121e+000 -1.245652e+000 -6.183078e+000 219 191 141
-3.609221e-002 -4.016744e+000 -8.176270e+000 169 51 49
-3.609221e-002 -4.016744e+000 -8.176270e+000 169 51 49
-3.288825e-001 1.955526e+000 -8.531000e+000 216 210 199
1.097902e+000 1.894335e+000 -6.368358e+000 213 201 143
2.380319e+000 1.855157e+000 -5.677041e+000 175 67 68
-1.358190e+000 2.813983e-001 -9.331245e+000 217 217 202
2.415935e-001 7.091537e-001 -6.684298e+000 238 241 230
1.182849e+000 1.061508e+000 -6.217060e+000 129 117 85
3.072885e-001 -9.835926e-002 -4.940014e+000 157 163 156
-1.280236e-001 -2.939359e-001 -4.525932e+000 159 115 79
-7.386195e-001 -5.381259e-001 -4.166469e+000 123 67 42
2.592491e+000 -2.747542e-001 -5.734861e+000 150 133 80
-1.118476e+000 -7.613786e-001 -3.917746e+000 69 22 14
2.452913e+000 -6.470696e-001 -5.828038e+000 38 30 28
3.212589e+000 -6.771354e-001 -5.691952e+000 51 47 53
-7.539670e-001 -9.308530e-001 -3.975955e+000 86 33 23
1.824995e+000 -1.306049e+000 -6.134019e+000 197 159 115
5.275630e-002 -3.866257e+000 -8.148070e+000 18 15 12
9.846711e-001 2.371496e+000 -6.037442e+000 134 120 83
1.281092e+000 1.601908e+000 -6.060706e+000 162 153 103
2.613925e-001 1.240017e+000 -7.034200e+000 180 179 167
2.166718e+000 -2.969207e-002 -5.956395e+000 195 82 81
1.522432e-002 -6.954615e-001 -4.770045e+000 185 146 102
2.912362e+000 -1.829506e-001 -5.199335e+000 118 99 62
1.146891e+000 -1.164952e+000 -5.995481e+000 116 103 87
-7.973593e-002 -1.150366e+000 -4.786646e+000 60 19 19
-3.568730e-001 5.494335e-002 -5.191226e+000 102 59 47
-1.431466e-001 -1.387316e-001 -4.454640e+000 169 88 83
1.090717e+000 -3.111260e-002 -5.486431e+000 211 216 209
-8.138065e-001 -5.693405e-001 -4.031904e+000 125 57 36
-2.868097e-001 -9.686686e-001 -4.544761e+000 137 62 35
-6.616011e-001 -9.629641e-001 -3.918099e+000 36 24 30
1.068467e-001 -3.873616e+000 -8.370557e+000 23 12 15
-7.527167e-002 8.480084e-001 -6.701323e+000 235 237 226
-7.157084e-001 -8.319897e-001 -3.974353e+000 174 90 59
5.383237e-002 3.018773e-001 -6.211754e+000 174 176 165
1.815001e+000 -1.761516e+000 -6.251889e+000 35 28 34
1.230566e+000 1.673052e+000 -6.585847e+000 124 115 79
-3.381223e-001 -3.740957e-001 -4.524597e+000 229 187 135
2.271782e+000 -2.649646e-001 -5.843202e+000 108 87 57
-9.894212e-001 -5.361001e-001 -4.025246e+000 230 138 86
7.024773e-001 -6.013907e-001 -5.619695e+000 51 40 38
2.208676e+000 -5.983779e-001 -5.343232e+000 49 42 49
-6.659964e-001 -1.068968e-001 -4.979045e+000 223 221 209
-1.228292e+000 -4.059294e-001 -4.191933e+000 42 38 37
-9.016309e-001 -7.174212e-001 -3.836599e+000 222 122 63
-3.369706e-001 -8.385989e-001 -4.614904e+000 132 70 42
-3.369706e-001 -8.385989e-001 -4.614904e+000 132 70 42
-1.064028e-001 -1.340155e+000 -5.205499e+000 61 18 23
2.563388e+000 -2.359623e-001 -5.728390e+000 166 149 94
1.112220e+000 2.226985e+000 -6.159646e+000 112 103 70
1.112220e+000 2.226985e+000 -6.159646e+000 112 103 70
1.516246e+000 -2.029408e+000 -6.729072e+000 205 201 190
-9.605867e-001 -6.774089e-001 -4.035708e+000 184 87 42
1.985272e+000 8.024621e-001 -5.839029e+000 223 221 209
1.824279e+000 2.145558e+000 -6.111546e+000 229 226 214
-4.050719e-001 3.253865e+000 -9.241524e+000 72 71 76
2.801377e+000 1.613994e+000 -5.919617e+000 111 110 115
2.632134e+000 1.415967e+000 -5.978151e+000 128 127 133
2.573953e+000 1.227270e+000 -5.962848e+000 124 125 129
2.536810e+000 3.830852e-001 -5.948622e+000 67 69 71
5.137863e-001 -4.553335e-002 -5.173078e+000 191 197 187
5.000537e-001 -9.560633e-002 -5.176256e+000 182 187 180
3.221896e+000 -5.156707e-001 -5.514506e+000 102 102 106
3.062167e+000 -5.707778e-001 -5.593330e+000 55 52 56
2.817381e+000 -7.199440e-001 -5.766146e+000 71 69 74
2.817381e+000 -7.199440e-001 -5.766146e+000 71 69 74
2.950695e+000 -7.545173e-001 -5.587539e+000 42 40 45
2.956386e+000 -7.881834e-001 -5.628020e+000 55 54 59
1.707296e+000 -1.206075e+000 -6.068848e+000 181 145 100
2.063132e+000 -1.397860e+000 -6.091742e+000 129 44 50
-6.412748e-001 -8.933079e-001 -4.020287e+000 81 35 22
2.674836e+000 1.619004e+000 -5.984358e+000 56 57 61
2.761947e+000 1.695327e+000 -6.010428e+000 95 96 100
2.862597e+000 1.558836e+000 -5.885405e+000 143 143 150
2.822542e+000 1.544415e+000 -5.883193e+000 62 61 67
2.643483e+000 1.311367e+000 -5.974284e+000 146 147 152
2.777081e+000 1.225400e+000 -5.935954e+000 130 131 136
2.803505e+000 1.296125e+000 -5.889720e+000 50 51 56
2.848095e+000 1.273506e+000 -5.926740e+000 107 109 114
2.619309e+000 1.221872e+000 -5.978751e+000 70 71 75
2.881937e+000 7.230273e-001 -5.836172e+000 46 45 51
3.053695e+000 6.828298e-001 -5.812183e+000 45 44 50
2.486067e+000 3.732901e-001 -5.971433e+000 51 40 44
2.638813e+000 4.034750e-001 -5.904637e+000 55 55 63
2.697732e+000 3.480928e-001 -5.884531e+000 59 60 65
1.785705e+000 3.957278e-001 -5.930918e+000 229 232 225
2.040644e-001 1.556812e-001 -5.775536e+000 223 226 217
7.477230e-001 -2.227102e-001 -5.333954e+000 147 148 142
7.477230e-001 -2.227102e-001 -5.333954e+000 147 148 142
1.231885e+000 -2.588059e-001 -5.602978e+000 168 164 155
1.232434e+000 -2.693605e-001 -5.673243e+000 168 164 155
2.322703e+000 -6.921758e-001 -5.929181e+000 149 75 68
1.611655e-001 -5.619960e-001 -4.512489e+000 188 142 106
2.773723e+000 1.521451e+000 -5.979795e+000 62 61 66
2.809177e+000 1.524874e+000 -5.939705e+000 163 162 167
2.602663e+000 1.322447e+000 -5.989489e+000 65 66 71
2.778365e+000 1.281677e+000 -5.934786e+000 54 55 60
2.657147e+000 1.208849e+000 -5.965794e+000 147 152 155
2.708080e+000 -8.448828e-001 -5.772975e+000 41 40 45
1.858110e+000 -9.191320e-001 -6.160992e+000 123 39 33
-7.912349e-001 -5.092040e-001 -4.026487e+000 137 73 56
2.614198e+000 1.366653e+000 -5.986419e+000 60 59 65
1.036100e+000 -1.393465e-001 -5.540377e+000 154 155 149
2.274436e+000 -6.621504e-001 -5.941088e+000 100 59 41
-4.303315e-001 2.694538e+000 -8.630051e+000 67 61 66
1.096848e+000 1.899052e+000 -6.394596e+000 180 171 120
2.607491e+000 -4.696917e-001 -5.638459e+000 121 106 66
2.104972e+000 2.340665e+000 -5.774513e+000 234 233 225
-4.828186e-001 1.930811e+000 -8.526832e+000 195 79 78
-1.016488e+000 9.202027e-001 -9.218921e+000 209 210 197
2.274979e+000 -7.515032e-001 -5.937509e+000 190 78 77
2.495500e+000 1.999063e+000 -5.748120e+000 191 87 80
2.223206e+000 1.805678e+000 -5.590485e+000 190 77 78
-4.803775e-002 -2.368817e-001 -4.542264e+000 148 81 66
1.802973e+000 1.345098e+000 -5.794441e+000 234 234 226
-2.927978e-003 1.147314e+000 -7.826314e+000 216 217 204
1.703946e-001 5.760107e-001 -6.625599e+000 230 233 224
-1.139659e+000 -4.005447e-001 -4.086530e+000 83 48 46
-1.156004e+000 -6.194706e-001 -3.917528e+000 96 47 38
-1.244776e+000 -6.945637e-001 -3.946994e+000 105 86 41
-1.304984e+000 -7.729293e-001 -3.875727e+000 131 111 65
2.196520e+000 -1.699143e+000 -6.812363e+000 156 54 60
2.622129e+000 5.828967e-001 -5.963204e+000 56 54 60
2.489347e+000 4.125510e-001 -5.879360e+000 67 68 71
2.789633e+000 4.454814e-001 -5.866007e+000 71 70 75
-4.361697e-001 -8.128769e-002 -5.146811e+000 98 70 59
3.106380e-002 -7.803622e-002 -4.677751e+000 180 187 172
-1.362339e+000 -4.724935e-001 -3.964804e+000 128 106 57
-7.506115e-001 -4.782608e-001 -4.146042e+000 107 67 51
-6.831892e-001 -4.733853e-001 -4.143252e+000 57 47 46
-1.250170e+000 -6.421385e-001 -3.951599e+000 164 143 99
-1.232025e+000 -6.417371e-001 -3.972671e+000 110 93 52
-1.213151e+000 -6.746431e-001 -3.950466e+000 106 88 42
-1.213151e+000 -6.746431e-001 -3.950466e+000 106 88 42
-1.053260e+000 -7.227235e-001 -3.873198e+000 114 60 52
1.115507e+000 -1.835628e+000 -7.394518e+000 101 83 65
-1.550304e-001 -1.493214e+000 -4.941486e+000 87 39 27
-8.899058e-001 2.071608e+000 -9.201339e+000 55 45 43
7.693710e-001 -7.942827e-002 -5.415775e+000 198 203 196
-1.341276e+000 -5.304583e-001 -4.017009e+000 125 104 61
-1.199897e+000 -6.401320e-001 -3.971017e+000 167 136 96
-9.813517e-002 -1.054257e+000 -4.788300e+000 77 39 20
2.865214e+000 1.478612e+000 -6.004865e+000 54 53 59
-5.031790e-001 1.216370e+000 -8.633037e+000 201 201 189
2.866954e+000 3.659331e-001 -5.859858e+000 66 64 69
-1.110418e+000 -8.888312e-001 -3.933493e+000 32 30 31
-5.356199e-001 -3.356496e-001 -4.769594e+000 207 124 79
2.889202e+000 1.665965e+000 -6.253311e+000 97 96 102
-1.220777e+000 3.580204e+000 -9.888564e+000 70 68 73
-3.585123e-001 3.466140e+000 -9.329254e+000 96 95 101
-5.043287e-001 3.262554e+000 -9.275770e+000 86 88 92
-5.063281e-001 3.078145e+000 -9.275979e+000 67 62 68
2.656054e+000 1.473078e+000 -5.914705e+000 57 56 62
2.512405e+000 4.060140e-001 -5.929606e+000 73 68 75
3.219712e-001 -1.439540e-001 -4.845236e+000 164 169 161
-1.157740e-001 -1.729034e-001 -4.518251e+000 155 73 61
2.405020e+000 -3.839153e-001 -5.739753e+000 172 156 105
-1.427377e+000 -4.586108e-001 -4.064663e+000 123 108 76
-1.155552e+000 -4.051665e-001 -4.124451e+000 93 54 58
-1.276162e+000 -6.836372e-001 -3.934592e+000 147 132 90
-1.267689e+000 -6.547756e-001 -3.998442e+000 167 149 101
2.516773e+000 -9.420365e-001 -5.869257e+000 88 85 90
-1.071414e+000 -7.443107e-001 -3.938159e+000 124 69 67
-1.138599e+000 -7.825384e-001 -3.919271e+000 92 51 38
2.551472e+000 -1.109307e+000 -5.766565e+000 44 39 43
1.818127e+000 -1.342322e+000 -6.077544e+000 180 127 106
2.583736e+000 -1.252409e+000 -5.728814e+000 37 32 38
1.612942e+000 -1.501103e+000 -6.524134e+000 165 90 89
-3.383728e-001 3.368516e+000 -9.225523e+000 66 65 71
2.900593e+000 9.953093e-001 -5.872524e+000 75 74 80
2.851405e+000 7.542478e-001 -5.915092e+000 49 49 54
2.851405e+000 7.542478e-001 -5.915092e+000 49 49 54
2.875391e+000 6.219989e-001 -5.819511e+000 48 47 52
2.953390e+000 5.296816e-001 -5.843464e+000 45 44 49
2.961782e+000 4.865071e-001 -5.793247e+000 63 62 67
1.769037e+000 3.994894e-001 -5.754485e+000 214 216 205
2.752637e-001 -1.782868e-001 -4.800096e+000 155 160 153
-1.100519e+000 -4.210104e-001 -4.116726e+000 102 51 42
-6.943209e-001 -5.355935e-001 -4.172423e+000 144 107 73
1.374774e+000 -7.402923e-001 -5.966368e+000 181 141 103
2.041754e+000 -7.184752e-001 -6.050215e+000 178 75 75
2.971534e+000 -7.847585e-001 -5.462073e+000 45 43 48
3.055202e+000 -6.883613e-001 -5.454001e+000 52 50 57
1.599045e+000 -1.126854e+000 -6.075707e+000 170 129 85
-1.187893e+000 -8.472055e-001 -3.955411e+000 59 45 32
1.962835e+000 -1.341392e+000 -6.184836e+000 171 60 59
2.502301e+000 -1.212999e+000 -5.745718e+000 38 33 39
2.550602e+000 -1.166879e+000 -5.683340e+000 40 35 41
-2.409735e-001 -1.142205e+000 -4.682618e+000 92 35 22
1.317680e+000 -1.694845e+000 -6.801071e+000 166 157 143
1.306305e+000 2.764826e+000 -6.521751e+000 196 167 121
2.951543e+000 1.198878e+000 -5.911968e+000 46 45 51
3.812159e-001 1.303533e+000 -6.784941e+000 225 230 220
5.726861e-001 4.135573e-001 -6.316800e+000 236 242 232
2.686232e+000 4.854490e-001 -5.900911e+000 54 51 59
2.703854e+000 4.902683e-001 -5.939863e+000 54 51 59
2.947725e+000 4.458715e-001 -5.691690e+000 44 41 41
4.236388e-001 -1.305581e-001 -5.067267e+000 185 190 184
1.129447e+000 -3.919518e-001 -5.580174e+000 156 157 149
1.315477e+000 -8.081578e-001 -6.016763e+000 207 173 143
-8.487806e-001 -7.958773e-001 -3.951343e+000 169 86 44
-7.649545e-002 2.991548e+000 -8.522103e+000 178 67 62
2.593140e+000 1.452762e+000 -6.024837e+000 64 63 71
-8.199563e-001 -9.120754e-001 -3.913327e+000 90 39 34
1.436824e+000 1.449981e+000 -6.203972e+000 253 254 212
-7.736980e-001 -9.755082e-001 -3.912459e+000 155 87 47
-7.736980e-001 -9.755082e-001 -3.912459e+000 155 87 47
2.468268e+000 -1.932421e-001 -5.650769e+000 237 226 169
1.367866e-001 2.763858e+000 -8.127989e+000 179 65 61
-1.074175e+000 3.548434e+000 -9.835764e+000 62 61 66
2.061318e+000 1.553838e+000 -5.726520e+000 112 49 52
-3.123920e-001 -7.719848e-001 -4.265568e+000 74 31 26
-3.123920e-001 -7.719848e-001 -4.265568e+000 74 31 26
6.596367e-001 2.605144e+000 -7.477938e+000 226 223 212
-8.703811e-001 2.298337e+000 -8.968397e+000 51 49 54
8.024399e-001 2.422482e+000 -6.426594e+000 229 223 211
-8.979844e-001 4.218629e+000 -9.366352e+000 76 75 81
-8.588510e-001 4.213784e+000 -9.413899e+000 53 54 59
-8.588510e-001 4.213784e+000 -9.413899e+000 53 54 59
-8.450224e-001 4.015094e+000 -9.319801e+000 62 61 66
-5.802251e-001 4.001384e+000 -9.424354e+000 56 55 61
-2.090336e-001 3.794795e+000 -9.479390e+000 81 80 86
-2.812395e-001 3.405528e+000 -9.313164e+000 94 92 98
-4.473399e-001 3.228178e+000 -9.330293e+000 91 90 95
2.902168e+000 1.623303e+000 -5.886358e+000 63 63 69
3.045219e+000 1.555672e+000 -5.845605e+000 59 58 64
2.784850e+000 1.462964e+000 -5.962485e+000 146 145 150
3.131205e+000 1.361855e+000 -5.891261e+000 81 80 85
3.173169e+000 1.362852e+000 -5.792615e+000 52 49 56
3.259000e+000 1.371808e+000 -5.785450e+000 82 81 86
3.580200e+000 1.296728e+000 -5.724479e+000 41 39 44
3.825718e+000 1.230210e+000 -5.665191e+000 48 44 51
2.648164e+000 1.427989e+000 -6.022967e+000 128 127 133
3.085654e+000 1.328416e+000 -5.959061e+000 46 45 51
3.069700e+000 1.278250e+000 -5.867814e+000 59 57 64
3.054629e+000 1.189422e+000 -5.874298e+000 77 76 82
3.126428e+000 1.192466e+000 -5.834327e+000 76 75 81
3.126428e+000 1.192466e+000 -5.834327e+000 76 75 81
3.327408e+000 1.265592e+000 -5.726518e+000 39 37 40
3.383403e+000 1.275344e+000 -5.714037e+000 67 64 71
3.527061e+000 1.235558e+000 -5.643749e+000 62 60 65
3.527061e+000 1.235558e+000 -5.643749e+000 62 60 65
3.846011e+000 1.173855e+000 -5.580520e+000 48 43 49
2.755338e+000 9.035108e-001 -5.903838e+000 61 62 66
2.777446e+000 8.986271e-001 -5.883578e+000 90 90 98
2.926188e+000 1.011710e+000 -5.931636e+000 80 79 85
3.300801e+000 8.640347e-001 -5.759017e+000 55 54 59
1.620823e+000 9.316692e-001 -5.918934e+000 212 218 208
2.877622e+000 8.056637e-001 -5.862051e+000 73 74 79
2.807088e+000 7.194857e-001 -5.810961e+000 61 62 67
3.162400e+000 7.113647e-001 -5.806940e+000 63 62 68
3.162400e+000 7.113647e-001 -5.806940e+000 63 62 68
3.308026e+000 6.407682e-001 -5.761388e+000 53 52 57
3.436693e+000 7.043943e-001 -5.732653e+000 47 44 51
2.612646e+000 5.843386e-001 -5.959881e+000 65 65 69
2.651908e+000 5.730424e-001 -5.978888e+000 56 57 59
2.931980e+000 6.517571e-001 -5.792528e+000 49 50 54
2.870131e+000 5.895287e-001 -5.911559e+000 49 50 54
2.935893e+000 5.820604e-001 -5.796763e+000 63 63 67
3.015676e+000 6.178857e-001 -5.785642e+000 60 58 63
3.015676e+000 6.178857e-001 -5.785642e+000 60 58 63
2.627131e+000 4.677867e-001 -5.913002e+000 55 58 63
2.705160e+000 4.988637e-001 -5.836114e+000 100 104 107
2.875051e+000 4.787289e-001 -5.826672e+000 79 78 83
2.758150e+000 3.389413e-001 -5.860379e+000 52 55 57
2.868205e+000 3.826833e-001 -5.789138e+000 66 65 70
2.944470e+000 4.102691e-001 -5.793733e+000 72 71 79
2.944470e+000 4.102691e-001 -5.793733e+000 72 71 79
2.953227e+000 3.948517e-001 -5.744243e+000 45 43 54
2.498273e+000 3.324556e-001 -5.962590e+000 66 64 70
2.563307e+000 2.127257e-001 -6.011522e+000 57 55 62
2.646138e+000 2.812571e-001 -5.857007e+000 52 53 57
2.663190e+000 2.563516e-001 -5.925056e+000 103 104 108
2.501835e+000 8.087335e-002 -6.000846e+000 76 69 76
-3.286004e+000 6.228627e-001 -1.127767e+001 57 56 61
-4.494132e-001 5.688409e-002 -5.166365e+000 132 70 46
-4.482876e-001 -7.146478e-003 -4.973705e+000 172 87 57
6.335440e-001 -9.055106e-002 -5.323550e+000 214 220 213
6.426590e-001 -1.311906e-001 -5.303009e+000 169 175 168
6.935064e-001 -1.495985e-001 -5.366385e+000 180 184 177
-4.485855e-001 -7.212295e-002 -5.126122e+000 80 42 28
3.000255e+000 -5.282641e-001 -5.571185e+000 46 44 47
3.291129e+000 -4.371781e-001 -5.389554e+000 43 40 47
-8.393639e-001 -2.736160e-001 -4.240408e+000 106 71 70
2.599563e+000 -6.587902e-001 -5.883054e+000 63 60 64
2.760493e+000 -6.446707e-001 -5.785169e+000 50 42 53
3.126917e+000 -5.981003e-001 -5.501628e+000 60 61 65
3.037218e+000 -7.066015e-001 -5.515264e+000 55 54 60
3.088710e+000 -6.638042e-001 -5.464894e+000 99 98 106
-7.216305e-001 -3.981355e-001 -4.396475e+000 137 85 66
9.494060e-001 -5.897391e-001 -5.690670e+000 124 121 112
2.387607e+000 -7.327262e-001 -5.971930e+000 75 79 77
2.387607e+000 -7.327262e-001 -5.971930e+000 75 79 77
2.645422e+000 -7.166275e-001 -5.856939e+000 94 93 98
2.622876e+000 -7.548598e-001 -5.822932e+000 47 46 51
2.897221e+000 -7.154593e-001 -5.598198e+000 53 51 56
2.983318e+000 -7.717384e-001 -5.558449e+000 46 44 49
3.070311e+000 -7.467654e-001 -5.625136e+000 95 94 99
-1.130013e+000 -4.401244e-001 -4.083798e+000 113 66 60
2.430568e+000 -8.488068e-001 -5.915498e+000 83 82 85
2.620861e+000 -9.290820e-001 -5.857069e+000 45 44 49
2.596602e+000 -9.607517e-001 -5.821740e+000 43 42 47
2.645884e+000 -1.002044e+000 -5.769820e+000 62 60 65
2.935221e+000 -8.955005e-001 -5.456530e+000 29 27 32
2.856302e+000 -1.005487e+000 -5.534344e+000 31 29 34
-1.419501e+000 -5.287753e-001 -4.041513e+000 171 157 111
2.609265e+000 -1.161500e+000 -5.735234e+000 53 51 56
-8.834121e-001 -6.283122e-001 -4.007245e+000 139 70 47
-2.938273e-001 -1.048375e+000 -4.516323e+000 118 58 47
1.134911e-001 -1.133670e+000 -4.765795e+000 170 70 62
1.361784e+000 2.776955e+000 -6.576852e+000 175 90 79
-9.695948e-001 4.306071e+000 -9.673861e+000 56 55 62
-8.822208e-001 4.173221e+000 -9.476089e+000 89 88 94
-6.565105e-001 4.080512e+000 -9.537203e+000 47 46 52
-9.494605e-001 3.457643e+000 -9.582138e+000 73 72 77
2.728144e+000 1.707121e+000 -6.071146e+000 53 52 57
2.893134e+000 1.580175e+000 -5.954419e+000 143 143 150
3.061012e+000 1.628146e+000 -5.898513e+000 54 49 56
3.207886e+000 1.521939e+000 -5.846508e+000 52 53 58
2.978963e+000 1.528864e+000 -5.885497e+000 147 146 152
3.056525e+000 1.526371e+000 -5.883551e+000 143 142 148
3.066314e+000 1.491158e+000 -5.815988e+000 57 55 60
3.122216e+000 1.411253e+000 -5.803927e+000 58 57 63
3.149409e+000 1.338221e+000 -5.775725e+000 45 41 48
3.149409e+000 1.338221e+000 -5.775725e+000 45 41 48
2.705082e+000 1.393782e+000 -6.004225e+000 160 161 165
2.653541e+000 1.316028e+000 -6.001124e+000 146 147 152
2.737848e+000 1.366138e+000 -5.953172e+000 60 63 68
2.835672e+000 1.390999e+000 -5.980400e+000 57 56 62
2.845783e+000 1.271911e+000 -5.924472e+000 107 109 114
2.924711e+000 1.361705e+000 -5.887112e+000 115 116 121
2.939729e+000 1.246719e+000 -5.836713e+000 48 47 53
3.229831e+000 1.167523e+000 -5.764023e+000 58 56 61
3.466894e+000 1.284566e+000 -5.798601e+000 37 35 40
3.468058e+000 1.212723e+000 -5.614130e+000 36 34 39
3.557461e+000 1.206394e+000 -5.648751e+000 32 30 35
4.456074e-001 1.860010e+000 -7.423660e+000 213 214 202
2.828248e+000 1.148501e+000 -5.918285e+000 105 106 111
2.782950e+000 1.050129e+000 -5.888460e+000 56 57 62
2.782950e+000 1.050129e+000 -5.888460e+000 56 57 62
2.948790e+000 1.122281e+000 -5.882563e+000 84 83 88
2.915111e+000 1.089333e+000 -5.899329e+000 49 50 54
3.069496e+000 1.151336e+000 -5.885677e+000 44 43 48
3.131109e+000 1.106112e+000 -5.886736e+000 42 41 46
3.097988e+000 1.089158e+000 -5.819416e+000 42 41 46
3.136118e+000 1.084399e+000 -5.799828e+000 64 62 67
3.217048e+000 1.040117e+000 -5.798724e+000 63 62 67
3.420647e+000 7.999475e-001 -5.753570e+000 37 35 40
3.050782e+000 6.834063e-001 -5.808869e+000 45 44 50
3.340749e+000 7.057873e-001 -5.763033e+000 35 34 39
3.340749e+000 7.057873e-001 -5.763033e+000 35 34 39
2.874162e+000 5.288947e-001 -5.828349e+000 49 50 54
3.067807e+000 6.069901e-001 -5.820322e+000 41 39 44
3.067807e+000 6.069901e-001 -5.820322e+000 41 39 44
2.747914e+000 4.640528e-001 -5.936980e+000 99 103 106
2.609948e+000 3.939955e-001 -5.828848e+000 55 55 63
2.674192e+000 3.820518e-001 -5.908855e+000 106 107 111
2.694308e+000 3.446414e-001 -5.882454e+000 59 60 65
3.014684e+000 3.970199e-001 -5.729566e+000 61 58 54
2.877289e+000 2.832930e-001 -5.771475e+000 62 57 49
2.772562e+000 2.176386e-001 -5.900437e+000 50 49 49
3.010580e+000 -1.064012e-001 -4.940883e+000 133 120 82
3.883297e-001 -1.554813e-001 -4.934803e+000 116 116 108
4.755659e-001 -2.048299e-001 -5.054607e+000 125 123 116
5.552913e-001 -2.301216e-001 -5.198064e+000 141 140 132
3.058521e+000 -5.038698e-001 -5.401828e+000 37 35 40
3.207499e+000 -5.058981e-001 -5.551678e+000 47 46 51
2.646713e+000 -6.732970e-001 -5.844937e+000 43 41 49
2.730490e+000 -6.367514e-001 -5.823961e+000 101 96 102
2.866913e+000 -6.064331e-001 -5.917087e+000 45 43 46
2.843075e+000 -5.767162e-001 -5.752090e+000 85 83 86
2.960292e+000 -6.280184e-001 -5.543697e+000 32 30 35
-6.906360e-001 -4.172043e-001 -4.412578e+000 109 51 31
-5.033228e-001 -4.236034e-001 -4.524339e+000 213 119 75
1.709284e-001 -4.357696e-001 -4.588785e+000 210 179 143
1.709284e-001 -4.357696e-001 -4.588785e+000 210 179 143
2.462725e+000 -8.267808e-001 -5.930230e+000 49 47 48
2.608603e+000 -7.045161e-001 -5.860781e+000 47 46 51
2.830545e+000 -7.058359e-001 -5.531454e+000 34 33 38
4.894113e-001 -5.926910e-001 -4.636479e+000 80 67 59
1.789849e+000 -8.234760e-001 -6.085843e+000 188 75 72
2.596201e+000 -8.904152e-001 -5.834554e+000 93 92 97
2.670636e+000 -1.012490e+000 -5.747637e+000 43 41 46
2.799147e+000 -1.004658e+000 -5.598072e+000 76 74 79
2.625978e+000 -1.145273e+000 -5.698266e+000 39 37 42
-8.574812e-001 -6.719305e-001 -3.970311e+000 149 74 55
-6.500715e-001 -7.192026e-001 -4.059278e+000 125 68 61
-6.085062e-001 -7.241783e-001 -4.122016e+000 53 30 28
-5.507235e-001 -7.418421e-001 -4.128090e+000 139 91 56
4.219183e-001 -9.006746e-001 -4.900077e+000 85 76 65
-1.426345e+000 -7.016858e-001 -3.916733e+000 205 184 126
-1.394308e+000 -6.949370e-001 -3.926207e+000 171 148 95
-9.081257e-001 -7.323414e-001 -3.896874e+000 204 113 68
-8.246670e-001 -8.493451e-001 -3.901383e+000 160 77 32
-8.352568e-001 -8.785697e-001 -3.946208e+000 156 86 56
-7.578053e-001 -8.960650e-001 -3.879688e+000 106 59 51
2.090188e-001 -1.158043e+000 -4.945959e+000 164 129 123
-1.803886e-001 -1.533032e+000 -4.983620e+000 219 202 192
3.884922e-002 3.940203e+000 -9.200095e+000 92 81 90
3.978889e-001 3.400313e+000 -7.853475e+000 174 64 70
8.815869e-001 2.929926e+000 -7.071246e+000 171 81 80
1.695538e+000 2.540659e+000 -6.318273e+000 194 187 174
2.790216e+000 1.779030e+000 -6.102089e+000 52 51 56
2.972189e+000 1.579749e+000 -5.951155e+000 62 63 68
2.686048e+000 1.437923e+000 -6.002627e+000 56 58 61
2.929856e+000 1.463548e+000 -5.910370e+000 143 142 148
3.039319e+000 1.422320e+000 -5.875199e+000 113 114 119
3.311736e+000 1.398376e+000 -5.798618e+000 50 49 55
3.359083e+000 1.319308e+000 -5.723112e+000 47 45 51
3.692742e+000 1.239623e+000 -5.557204e+000 34 29 36
3.820922e+000 1.207231e+000 -5.589495e+000 93 89 96
3.820922e+000 1.207231e+000 -5.589495e+000 93 89 96
2.289784e+000 1.405581e+000 -5.848674e+000 168 66 77
2.688183e+000 1.202730e+000 -5.901173e+000 57 58 63
2.822965e+000 1.198490e+000 -5.991916e+000 52 53 58
3.140891e+000 1.143132e+000 -5.825518e+000 38 37 42
3.282335e+000 1.142013e+000 -5.844967e+000 35 33 38
3.288650e+000 1.034824e+000 -5.738675e+000 35 33 38
2.851408e+000 1.045705e+000 -5.973539e+000 94 92 95
