ply
format ascii 1.0
element face 0
property list uchar int vertex_indices
element vertex 880
property float x
property float y
property float z
property uchar diffuse_red
property uchar diffuse_green
property uchar diffuse_blue
end_header
3.057415e+000 -6.542212e-001 -5.578812e+000 32 30 35
-8.061878e-001 -4.273434e-001 -4.486920e+000 109 51 31
-6.008262e-001 -4.347572e-001 -4.597638e+000 213 119 75
1.279793e-001 -4.498989e-001 -4.653403e+000 210 179 143
1.279793e-001 -4.498989e-001 -4.653403e+000 210 179 143
2.524686e+000 -8.589614e-001 -5.953248e+000 49 47 48
2.678363e+000 -7.321073e-001 -5.884626e+000 47 46 51
2.922473e+000 -7.357457e-001 -5.564784e+000 34 33 38
4.707547e-001 -6.195407e-001 -4.698350e+000 80 67 59
1.823177e+000 -8.540137e-001 -6.108093e+000 188 75 72
2.666374e+000 -9.261701e-001 -5.860722e+000 93 92 97
2.746837e+000 -1.054522e+000 -5.777388e+000 43 41 46
2.886752e+000 -1.048132e+000 -5.632405e+000 76 74 79
2.702051e+000 -1.193913e+000 -5.730014e+000 39 37 42
-1.001324e+000 -7.057692e-001 -4.035077e+000 149 74 55
-7.723709e-001 -7.574579e-001 -4.123543e+000 125 68 61
-7.253956e-001 -7.624781e-001 -4.187556e+000 53 30 28
-6.630600e-001 -7.821717e-001 -4.196351e+000 139 91 56
3.981476e-001 -9.474919e-001 -4.964572e+000 85 76 65
-1.614627e+000 -7.347072e-001 -3.970316e+000 205 184 126
-1.586583e+000 -7.284405e-001 -3.994537e+000 171 148 95
-1.058959e+000 -7.721625e-001 -3.959120e+000 204 113 68
-9.670375e-001 -9.001870e-001 -3.960228e+000 160 77 32
-9.783598e-001 -9.319736e-001 -4.010666e+000 156 86 56
-8.954357e-001 -9.521513e-001 -3.939259e+000 106 59 51
1.694342e-001 -1.220674e+000 -5.008798e+000 164 129 123
-2.457020e-001 -1.616073e+000 -5.040516e+000 219 202 192
4.150734e-002 3.830342e+000 -8.904519e+000 92 81 90
3.876459e-001 3.373488e+000 -7.685437e+000 174 64 70
8.757717e-001 2.965790e+000 -7.007926e+000 171 81 80
1.712607e+000 2.601772e+000 -6.287580e+000 194 187 174
2.837447e+000 1.824136e+000 -6.072813e+000 52 51 56
3.030949e+000 1.624645e+000 -5.930279e+000 62 63 68
2.739872e+000 1.481913e+000 -5.987459e+000 56 58 61
2.991287e+000 1.508041e+000 -5.894370e+000 143 142 148
3.104629e+000 1.465746e+000 -5.859885e+000 113 114 119
3.385760e+000 1.440858e+000 -5.784605e+000 50 49 55
3.439022e+000 1.361857e+000 -5.713561e+000 47 45 51
3.791167e+000 1.282939e+000 -5.557797e+000 34 29 36
3.921113e+000 1.247975e+000 -5.590566e+000 93 89 96
3.921113e+000 1.247975e+000 -5.590566e+000 93 89 96
2.341006e+000 1.458620e+000 -5.848277e+000 168 66 77
2.748636e+000 1.244151e+000 -5.895045e+000 57 58 63
2.882404e+000 1.235837e+000 -5.979839e+000 52 53 58
3.216550e+000 1.181364e+000 -5.821086e+000 38 37 42
3.357011e+000 1.177332e+000 -5.833901e+000 35 33 38
3.370335e+000 1.070084e+000 -5.734138e+000 35 33 38
2.913786e+000 1.079393e+000 -5.964787e+000 94 92 95
2.887576e+000 9.326177e-001 -5.861524e+000 51 50 56
3.171566e+000 9.225723e-001 -5.793624e+000 40 39 44
3.237911e+000 8.373655e-001 -5.790008e+000 39 38 44
3.550792e+000 9.178013e-001 -5.823909e+000 33 31 36
1.204037e+000 1.025308e+000 -6.205239e+000 195 192 143
1.714758e+000 9.580591e-001 -5.869356e+000 230 236 226
2.925798e+000 8.554588e-001 -5.905330e+000 53 54 59
2.782808e+000 6.914759e-001 -5.858977e+000 58 57 62
2.979735e+000 4.495223e-001 -5.801773e+000 45 44 43
2.615985e+000 3.480932e-001 -6.009465e+000 52 51 57
6.160093e-001 3.017166e-001 -6.060718e+000 221 225 219
2.648398e+000 1.517343e-001 -5.953036e+000 53 57 54
3.206749e+000 -6.938277e-002 -5.025860e+000 236 223 169
3.206904e+000 -6.958034e-002 -5.025902e+000 236 223 169
2.284306e+000 -1.444434e-001 -5.981213e+000 89 68 48
3.165724e+000 -5.945322e-001 -5.527142e+000 36 35 40
3.309814e+000 -6.581240e-001 -5.506358e+000 26 24 29
2.622558e+000 -7.393877e-001 -5.946279e+000 98 98 101
2.618253e+000 -7.775441e-001 -5.834349e+000 45 44 49
2.627228e+000 -7.792183e-001 -5.859188e+000 45 44 49
2.769315e+000 -1.187103e+000 -5.687852e+000 40 38 43
1.471469e+000 2.883387e+000 -6.627771e+000 200 75 79
1.065212e-001 3.848127e+000 -8.775154e+000 29 28 24
2.904681e+000 1.522021e+000 -5.954033e+000 57 56 62
3.059062e+000 1.416895e+000 -5.874319e+000 49 49 55
3.164288e+000 1.445483e+000 -5.845599e+000 50 51 55
2.820217e+000 1.452007e+000 -5.957422e+000 54 56 61
3.072274e+000 1.272759e+000 -5.806900e+000 40 42 47
3.325252e+000 1.364151e+000 -5.810389e+000 39 38 42
3.008654e+000 1.229223e+000 -5.896739e+000 48 49 53
3.306850e+000 1.001891e+000 -5.738051e+000 36 34 39
3.302315e+000 9.993470e-001 -5.727382e+000 36 34 39
3.454277e+000 1.158417e+000 -5.822070e+000 29 27 32
2.834198e+000 2.401682e-001 -5.690070e+000 51 49 53
-5.872316e-001 -7.287908e-002 -5.140848e+000 121 48 26
-1.317446e+000 -7.031893e-001 -4.006868e+000 66 21 17
5.525678e-001 3.220097e-001 -6.103618e+000 177 179 164
5.525678e-001 3.220097e-001 -6.103618e+000 177 179 164
-6.748828e-001 -4.387239e-001 -4.494667e+000 183 107 72
1.348859e+000 -8.484760e-001 -6.028455e+000 216 188 142
-1.988538e-001 -8.470667e-001 -4.679167e+000 137 95 64
-2.228916e-001 -9.094143e-001 -4.589729e+000 178 102 66
1.890383e+000 -1.708193e+000 -6.201604e+000 38 27 30
-3.167075e-002 4.056093e+000 -8.999751e+000 61 56 60
2.790954e-002 2.974134e+000 -8.112492e+000 191 75 69
2.949185e-001 1.446914e+000 -6.953279e+000 235 238 227
3.078735e+000 3.239326e-001 -5.632612e+000 122 112 76
-6.916107e-001 -3.809973e-001 -4.682229e+000 207 122 69
-3.903695e-001 -7.340312e-001 -4.615000e+000 100 59 39
-6.129153e-002 -2.951652e+000 -7.542455e+000 207 202 193
3.310251e+000 2.521365e-001 -5.423292e+000 47 45 50
-1.212767e+000 -1.015579e+000 -4.175559e+000 158 86 49
7.894317e-001 3.237428e+000 -7.243103e+000 195 89 94
8.024947e-001 3.275864e+000 -7.325933e+000 195 89 94
6.274835e-001 1.324381e-001 -5.629093e+000 221 225 216
-7.186932e-001 -4.924074e-001 -4.454728e+000 211 181 131
5.667128e-001 3.264724e+000 -7.419460e+000 204 91 90
2.899027e+000 4.312526e-001 -5.184339e+000 42 41 48
1.686467e-001 -1.393112e+000 -5.317779e+000 79 46 37
-8.474835e-001 4.035254e+000 -9.226539e+000 67 66 72
-8.270974e-001 4.057549e+000 -9.296191e+000 67 66 72
1.568290e+000 -9.621663e-001 -6.125028e+000 224 190 145
2.626598e+000 -8.729562e-001 -5.821168e+000 88 87 93
5.550935e-001 -1.848817e-003 -5.372146e+000 200 206 196
1.074674e+000 -8.944126e-001 -5.804747e+000 197 199 192
1.187947e+000 2.309082e+000 -6.419982e+000 97 91 62
1.186471e+000 2.290632e+000 -6.379142e+000 97 91 62
-1.337886e+000 -3.796241e-001 -4.109813e+000 33 27 29
2.288517e+000 1.630961e+000 -5.639531e+000 90 39 44
2.644452e+000 3.584719e-001 -6.071396e+000 52 51 59
-1.146584e+000 -7.175147e-001 -4.176692e+000 191 103 66
-1.146584e+000 -7.175147e-001 -4.176692e+000 191 103 66
-1.306267e+000 5.639163e-001 -5.285281e+000 35 29 31
2.377808e-001 1.452894e+000 -6.997955e+000 221 224 215
2.377808e-001 1.452894e+000 -6.997955e+000 221 224 215
2.632834e+000 9.266694e-001 -5.508741e+000 64 65 67
2.969577e+000 9.352886e-001 -5.885380e+000 70 69 75
3.130919e+000 7.787068e-001 -5.811246e+000 61 60 65
3.160188e+000 6.943396e-001 -5.808048e+000 64 63 69
2.840341e+000 -1.139985e+000 -5.633445e+000 79 77 82
3.031987e+000 9.308634e-001 -5.864621e+000 48 47 53
3.031987e+000 9.308634e-001 -5.864621e+000 48 47 53
2.919542e+000 6.795163e-001 -5.819449e+000 76 75 80
2.936151e+000 6.208191e-001 -5.800497e+000 47 48 52
2.661746e+000 -8.465043e-001 -5.903482e+000 48 47 53
2.614812e+000 -1.253852e+000 -5.787732e+000 52 50 53
-3.783063e-001 -1.182027e+000 -4.638294e+000 153 83 53
3.107507e+000 3.469584e-001 -5.409793e+000 138 125 79
-2.853245e-001 2.226875e+000 -8.137149e+000 224 214 210
2.839624e+000 1.605242e+000 -5.932521e+000 68 69 74
3.268774e+000 1.498937e+000 -5.767315e+000 60 59 65
3.212113e+000 1.467681e+000 -5.751288e+000 117 116 122
3.212113e+000 1.467681e+000 -5.751288e+000 117 116 122
3.172762e+000 1.386508e+000 -5.826124e+000 91 90 96
3.401660e+000 1.048587e+000 -5.724393e+000 58 56 61
3.481135e+000 9.338944e-001 -5.768164e+000 58 56 61
3.481135e+000 9.338944e-001 -5.768164e+000 58 56 61
3.372935e+000 8.524092e-001 -5.793778e+000 60 59 62
3.372935e+000 8.524092e-001 -5.793778e+000 60 59 62
2.821724e+000 6.306607e-001 -5.869589e+000 103 105 110
2.763301e+000 5.118986e-001 -5.818507e+000 105 109 112
1.252341e+000 -2.377601e-001 -5.719875e+000 142 138 130
2.586087e+000 -5.135589e-001 -5.635373e+000 143 126 82
3.078771e+000 -6.689233e-001 -5.567517e+000 51 49 53
2.730285e+000 -7.462780e-001 -5.821584e+000 54 54 56
2.869446e+000 -7.158818e-001 -5.764898e+000 43 41 46
7.318705e-001 -5.006620e-001 -5.610271e+000 83 74 67
2.482547e+000 -7.859956e-001 -6.004023e+000 55 55 55
2.582693e+000 -7.811467e-001 -5.939498e+000 51 50 55
2.583092e+000 -8.532836e-001 -5.952166e+000 56 55 60
2.893581e+000 -8.912212e-001 -5.547112e+000 38 38 40
2.586016e+000 -1.101786e+000 -5.884540e+000 45 43 48
2.677928e+000 -1.067869e+000 -5.791867e+000 43 41 46
1.486379e+000 -1.190414e+000 -6.161840e+000 167 133 105
-9.171153e-001 -1.136787e+000 -4.081966e+000 87 44 24
-1.898568e-001 -1.452021e+000 -4.801857e+000 97 40 27
2.923913e+000 -2.329225e+000 -5.440058e+000 28 22 26
3.041535e+000 1.574111e+000 -5.867340e+000 141 140 146
2.912470e+000 1.446295e+000 -5.891075e+000 129 128 134
3.073781e+000 1.356280e+000 -5.857203e+000 95 94 100
3.073781e+000 1.356280e+000 -5.857203e+000 95 94 100
6.177447e-001 2.100573e+000 -6.923580e+000 198 198 188
6.177447e-001 2.100573e+000 -6.923580e+000 198 198 188
2.996908e+000 1.290274e+000 -5.913466e+000 94 93 98
2.996908e+000 1.290274e+000 -5.913466e+000 94 93 98
3.196366e+000 1.109446e+000 -5.764164e+000 68 66 71
3.314206e+000 9.030344e-001 -5.834346e+000 39 37 42
3.532077e+000 9.814858e-001 -5.698102e+000 34 32 37
2.802393e+000 7.426790e-001 -5.799097e+000 59 60 65
2.847682e+000 4.516500e-001 -5.846952e+000 99 98 103
2.618564e+000 2.933706e-001 -5.975409e+000 107 108 112
3.219620e+000 -1.093688e-001 -5.047513e+000 61 54 45
7.034281e-001 -1.983405e-001 -5.390744e+000 167 166 161
2.549091e+000 -4.411040e-001 -5.705467e+000 178 164 104
3.227537e+000 -5.849649e-001 -5.499168e+000 52 53 57
3.147827e+000 -6.997939e-001 -5.524691e+000 91 89 93
5.804490e-001 -3.502387e-001 -5.400396e+000 106 97 88
2.784837e+000 -7.099385e-001 -5.809997e+000 50 49 54
2.471848e+000 -8.308929e-001 -5.941143e+000 48 47 54
2.574237e+000 -8.209925e-001 -5.965716e+000 101 100 105
2.921168e+000 -9.568740e-001 -5.652006e+000 46 43 46
2.562223e+000 -9.873735e-001 -5.976643e+000 43 41 46
2.888987e+000 -1.049072e+000 -5.634653e+000 87 86 91
1.311793e+000 -1.922638e+000 -6.272651e+000 190 181 172
2.977309e+000 -2.042239e+000 -5.353298e+000 27 22 28
-1.293775e+000 -2.918773e+000 -9.633906e+000 86 43 40
3.820714e+000 1.300469e+000 -5.609705e+000 34 29 34
7.891616e-001 2.357389e+000 -7.064802e+000 238 239 232
2.834157e+000 1.378937e+000 -5.919795e+000 147 146 152
3.217795e+000 1.379937e+000 -5.797182e+000 43 42 48
2.722685e+000 5.444559e-001 -5.939918e+000 139 140 144
2.610788e+000 3.454816e-001 -5.997552e+000 62 63 66
2.388005e+000 9.199790e-002 -5.817161e+000 187 86 90
3.122202e+000 -8.411043e-001 -5.489214e+000 28 26 32
2.914716e+000 1.403158e+000 -5.953331e+000 52 51 57
3.736298e+000 1.214924e+000 -5.574558e+000 29 26 33
2.325641e+000 -8.849695e-001 -5.950956e+000 191 78 77
1.926801e+000 -1.244760e+000 -6.012640e+000 210 143 128
-7.291220e-001 -9.914420e-001 -4.195747e+000 67 26 16
-1.383957e+000 -2.720595e+000 -9.634771e+000 60 38 39
2.770621e+000 1.010807e+000 -5.781639e+000 54 53 58
2.574462e+000 5.177393e-002 -5.861686e+000 70 65 73
2.021480e+000 -1.729996e-001 -6.162046e+000 60 31 33
-4.478826e-001 -5.113266e-001 -4.537753e+000 170 108 76
6.763370e-001 -2.726688e+000 -7.243858e+000 21 15 15
-3.321362e-002 4.132293e+000 -9.136205e+000 58 56 59
-5.501034e-001 2.470124e+000 -8.406952e+000 188 67 66
8.306408e-001 -7.884898e-001 -5.785312e+000 134 131 126
2.673314e+000 -2.910333e-001 -5.744081e+000 140 126 82
-4.499998e-001 -2.998462e-001 -4.566499e+000 225 185 142
1.514893e+000 -1.288711e+000 -6.467050e+000 69 34 32
1.119076e+000 -1.864294e+000 -6.692034e+000 146 135 124
-1.014985e+000 3.391386e+000 -9.395930e+000 69 68 73
2.801198e+000 6.723933e-001 -5.865219e+000 100 103 108
2.153345e+000 -1.215282e+000 -5.988879e+000 201 89 91
4.800190e-001 -1.036478e+000 -5.520708e+000 78 61 52
2.507109e+000 5.039371e-001 -5.816584e+000 35 30 35
1.626607e+000 -1.441075e+000 -6.239665e+000 173 72 76
7.557710e-001 -1.496902e+000 -6.525751e+000 98 81 65
1.379650e+000 -1.172679e+000 -6.211063e+000 57 28 23
1.332652e+000 2.398686e+000 -6.090609e+000 166 153 112
1.395242e+000 1.870521e+000 -6.438280e+000 221 211 156
2.648334e+000 1.755943e+000 -6.088488e+000 72 67 73
4.548444e-001 5.298124e-001 -6.474859e+000 214 219 212
4.821323e-001 5.159647e-001 -6.437047e+000 216 223 216
1.280037e+000 7.617010e-001 -6.027608e+000 196 199 179
8.167720e-001 2.504800e+000 -7.147593e+000 234 232 219
5.713960e-001 4.811938e-001 -6.374771e+000 216 220 213
-6.202876e-001 -3.372551e-001 -4.860432e+000 208 124 77
7.123656e-001 -2.121699e-001 -5.398282e+000 177 179 171
2.339767e+000 1.281297e-002 -5.674750e+000 156 62 64
-1.322694e+000 -5.317600e-001 -4.089365e+000 77 28 22
1.122351e+000 -4.245359e-001 -5.660668e+000 172 172 160
-1.316976e+000 -6.223056e-001 -3.998875e+000 129 72 67
-8.221021e-001 2.127903e-001 -8.629056e+000 203 205 192
-8.221021e-001 2.127903e-001 -8.629056e+000 203 205 192
-2.305370e+000 -7.781111e-001 -1.048040e+001 59 57 60
-3.728130e-001 -1.974061e-001 -4.558996e+000 188 177 159
2.462451e+000 -1.561622e-001 -5.861186e+000 147 132 91
2.413631e+000 -7.007817e-001 -5.907196e+000 58 32 28
2.202319e+000 -9.973952e-001 -5.690233e+000 50 26 25
2.751351e+000 1.666463e+000 -6.041125e+000 64 61 70
2.766177e+000 1.736850e+000 -6.030796e+000 57 52 59
-4.029839e-001 7.174713e-001 -8.260827e+000 217 217 203
-6.301537e-001 -2.920593e-001 -4.897156e+000 212 119 67
2.477848e+000 6.956997e-002 -5.889747e+000 49 35 38
4.972417e-001 -2.568533e-001 -5.251448e+000 121 119 107
-3.304157e-002 -3.431886e-001 -4.651317e+000 216 171 128
-7.203932e-001 -1.081380e+000 -4.187871e+000 83 41 27
-3.180778e+000 -1.068349e+000 -1.099540e+001 27 25 28
-2.871697e+000 -1.272803e+000 -1.111992e+001 63 61 66
-1.763662e+000 -1.412468e+000 -9.251914e+000 180 62 56
-9.955016e-001 -3.274390e-001 -4.329974e+000 60 29 27
-2.473247e-001 -8.775952e-001 -4.806830e+000 142 98 61
-1.819874e+000 -1.248397e+000 -9.303470e+000 186 61 55
-1.382366e+000 -7.471525e-001 -4.039942e+000 155 130 81
2.297622e+000 2.507137e+000 -5.871824e+000 41 31 38
1.014875e+000 2.093552e+000 -6.365006e+000 106 99 72
-7.339994e-001 1.065113e+000 -8.540674e+000 197 198 184
-7.339994e-001 1.065113e+000 -8.540674e+000 197 198 184
-1.090716e+000 -1.276163e-001 -8.853408e+000 169 164 152
-1.093330e+000 -1.254647e-001 -8.832968e+000 169 164 152
-3.120679e+000 -1.211671e+000 -1.103341e+001 74 73 80
-2.993128e+000 -9.818968e-001 -1.083548e+001 31 22 27
2.224777e+000 2.622610e+000 -5.972138e+000 218 210 199
-1.077046e+000 6.902284e-001 -8.906432e+000 217 218 204
1.150595e-001 7.783525e-001 -6.852826e+000 181 180 167
-6.927831e-001 -5.097367e-001 -4.415090e+000 209 177 125
-6.075562e-001 -4.823029e-001 -4.601811e+000 157 77 43
-9.112156e-002 2.221267e+000 -8.009025e+000 223 220 211
2.510413e+000 9.635311e-001 -5.668702e+000 223 220 213
1.227719e+000 -1.675716e+000 -6.270074e+000 176 168 157
-1.856208e+000 -3.926718e-002 -9.519101e+000 35 28 36
-3.731271e-001 2.222527e+000 -8.041411e+000 207 100 100
2.598300e+000 1.488268e+000 -6.052900e+000 150 149 157
1.053932e+000 6.232460e-001 -5.574395e+000 124 123 103
-6.480468e-001 -2.596767e-001 -4.949250e+000 223 119 67
-6.255133e-001 -2.176942e-001 -4.976565e+000 221 119 71
-1.040057e+000 -5.356216e-001 -4.046821e+000 206 114 70
-8.551203e-001 -7.161676e-001 -4.085122e+000 129 70 41
2.628267e+000 1.711760e+000 -6.055468e+000 51 49 54
2.830837e+000 1.701744e+000 -5.926304e+000 60 63 68
2.903633e+000 1.604216e+000 -5.915795e+000 55 54 60
-5.538180e-001 -6.100054e-001 -4.369984e+000 163 123 90
3.576975e-001 1.580649e+000 -7.045143e+000 197 199 188
2.682834e+000 1.755233e+000 -6.051464e+000 51 48 55
-2.884158e+000 -1.008396e+000 -1.105433e+001 41 37 38
-2.884158e+000 -1.008396e+000 -1.105433e+001 41 37 38
1.297636e-001 2.628295e-002 -5.616734e+000 200 207 199
2.150410e-001 -1.917229e-001 -4.807432e+000 190 198 187
-1.280192e+000 -4.845659e-001 -4.090436e+000 101 47 43
-1.673204e+000 -6.929953e-001 -3.983401e+000 174 158 96
-1.003656e+000 -6.338371e-001 -3.995065e+000 154 77 51
2.449699e+000 3.645439e-001 -5.818056e+000 177 84 85
-7.289359e-001 1.587342e+000 -8.450328e+000 223 223 217
2.137202e+000 -1.324391e+000 -5.972361e+000 122 42 45
2.906243e+000 1.441370e+000 -5.876584e+000 129 128 134
-1.050495e+000 3.335289e+000 -9.384264e+000 75 74 79
2.530843e+000 -1.071837e+000 -5.946926e+000 45 43 46
2.540317e+000 -1.223723e+000 -5.900156e+000 35 33 36
-1.270341e+000 -6.598313e-001 -4.013249e+000 110 60 51
1.554273e+000 -1.173507e+000 -6.077105e+000 185 151 113
-4.705180e-001 -1.072769e+000 -4.519707e+000 93 37 25
-1.655217e-001 -1.457153e+000 -4.913314e+000 109 55 39
-1.655217e-001 -1.457153e+000 -4.913314e+000 109 55 39
1.724112e+000 2.267680e+000 -6.278036e+000 202 200 188
1.473491e+000 2.128520e+000 -6.294396e+000 150 140 114
2.651617e+000 1.518583e-001 -5.956589e+000 64 65 69
7.287618e-001 -3.182668e-001 -5.438613e+000 160 159 154
1.874842e+000 -1.011607e+000 -6.145344e+000 190 71 71
2.709771e+000 -1.017308e+000 -5.844131e+000 43 41 46
-1.002692e+000 -6.372910e-001 -4.020528e+000 139 69 49
9.867495e-001 1.622771e+000 -6.716345e+000 209 210 196
-3.593526e-001 -1.509998e-001 -4.608235e+000 146 132 123
7.401059e-001 -1.403908e-001 -5.510793e+000 151 152 146
7.214460e-001 -1.847692e-001 -5.507950e+000 163 164 158
2.511593e+000 -7.262265e-001 -5.992651e+000 111 110 114
1.062349e+000 -6.392457e-001 -5.936332e+000 98 54 47
2.501399e+000 -1.064612e+000 -5.975640e+000 77 75 78
2.517841e+000 -1.128046e+000 -5.940841e+000 65 62 69
2.400608e+000 -1.389523e+000 -5.995758e+000 54 49 53
2.651281e+000 -1.415069e+000 -5.763601e+000 38 36 39
-1.338681e+000 -7.846714e-001 -3.977265e+000 109 76 51
-1.284736e+000 -7.630510e-001 -4.028269e+000 124 76 73
1.816325e-001 -1.118268e+000 -4.795660e+000 153 76 65
2.237042e+000 -1.429994e+000 -6.168852e+000 49 44 46
2.392321e+000 -1.581223e+000 -6.007099e+000 34 32 35
2.544910e+000 -1.533564e+000 -5.854597e+000 37 35 38
2.518875e+000 -1.610805e+000 -5.843324e+000 51 49 54
2.571238e+000 -1.578829e+000 -5.825322e+000 34 32 37
2.652092e+000 -1.611552e+000 -5.773289e+000 42 37 43
-8.418510e-001 4.057881e+000 -9.189983e+000 92 91 96
3.364766e+000 1.065541e+000 -5.716167e+000 39 35 41
2.049237e-001 1.025853e+000 -6.963674e+000 192 195 184
1.804927e+000 3.874586e-001 -5.777264e+000 227 232 226
2.555794e+000 8.382414e-002 -5.998511e+000 101 106 109
8.883844e-001 -7.576847e-002 -5.514920e+000 168 172 165
7.614105e-002 -4.410269e-001 -4.645767e+000 188 117 83
2.757253e+000 -8.376628e-001 -5.849316e+000 110 107 114
2.501732e+000 -9.117488e-001 -6.033214e+000 51 49 52
2.614294e+000 -9.325324e-001 -5.962301e+000 48 49 52
3.041044e+000 -9.938572e-001 -5.598170e+000 34 30 35
2.834374e+000 -1.133589e+000 -5.716773e+000 49 48 53
2.509274e+000 -1.219782e+000 -5.940959e+000 55 53 58
2.516949e+000 -1.218955e+000 -5.960438e+000 55 53 58
2.845197e+000 -1.225588e+000 -5.685091e+000 66 64 69
2.847170e+000 -1.266169e+000 -5.698608e+000 37 33 38
2.585201e+000 -1.331323e+000 -5.876595e+000 36 34 37
-1.232653e+000 -7.802139e-001 -3.994038e+000 122 73 68
2.269043e+000 -1.468317e+000 -6.131008e+000 56 50 54
-2.059981e-001 -1.548892e+000 -4.939051e+000 76 32 21
4.353113e-002 3.827285e+000 -8.904241e+000 77 81 80
2.930780e+000 1.413649e+000 -5.809709e+000 53 54 59
2.243436e+000 1.396004e+000 -5.682597e+000 177 85 87
1.195037e+000 1.397733e+000 -6.298361e+000 141 130 96
1.740247e+000 8.745441e-001 -5.867132e+000 219 222 213
1.740935e+000 8.744034e-001 -5.867227e+000 219 222 213
2.718793e+000 -8.033511e-001 -5.870476e+000 50 49 54
2.859041e+000 -7.317356e-001 -5.792186e+000 42 40 45
6.452975e-002 -4.700402e-001 -4.676897e+000 167 103 70
7.245192e-001 -5.395505e-001 -5.682813e+000 95 87 79
2.488172e+000 -1.000250e+000 -5.986318e+000 43 41 44
2.419537e+000 -1.163750e+000 -6.026277e+000 40 38 41
2.488090e+000 -1.246570e+000 -5.984447e+000 36 34 39
2.614816e+000 -1.257195e+000 -5.889547e+000 36 34 39
-1.120593e+000 -6.474663e-001 -4.013361e+000 220 129 83
-1.234546e+000 -8.462438e-001 -3.937578e+000 115 60 55
1.865298e+000 -1.479499e+000 -6.349570e+000 172 68 74
2.558288e+000 -1.564878e+000 -5.858419e+000 33 31 36
3.212044e+000 1.223954e+000 -5.718522e+000 44 43 48
3.375210e+000 1.106430e+000 -5.666960e+000 34 32 37
4.602996e-001 8.103282e-001 -6.556986e+000 213 219 206
2.715893e+000 -8.893905e-001 -5.862643e+000 48 47 52
-8.333940e-001 -4.897185e-001 -4.355417e+000 45 33 33
-7.091265e-001 -8.074680e-001 -4.133080e+000 142 85 58
-6.225188e-001 -8.890759e-001 -4.176900e+000 126 69 50
-1.887714e+000 -1.445239e+000 -9.356569e+000 59 23 22
-1.166858e+000 -1.957901e+000 -8.695674e+000 161 151 135
1.053580e+000 1.835908e+000 -6.366559e+000 118 109 73
2.225473e-001 1.218450e+000 -7.023801e+000 168 168 156
3.170692e+000 -7.738020e-001 -5.629291e+000 88 87 92
3.170692e+000 -7.738020e-001 -5.629291e+000 88 87 92
-1.138069e+000 -9.611691e-001 -4.056905e+000 165 93 53
1.741219e+000 -1.529098e+000 -6.309162e+000 204 91 95
4.127177e-001 -1.759185e+000 -7.088478e+000 79 60 45
-1.196026e-001 -2.379069e+000 -7.740486e+000 207 203 191
9.541858e-001 2.914099e+000 -7.071412e+000 81 72 51
3.058683e+000 4.932755e-001 -5.382708e+000 52 48 45
1.941516e+000 7.589508e-001 -5.762680e+000 234 237 230
2.830632e+000 2.189417e-001 -5.835364e+000 71 64 57
-9.992087e-001 -3.187532e-001 -4.309778e+000 42 27 31
1.267792e+000 -1.870215e+000 -6.417520e+000 187 181 168
-1.457158e+000 -2.078353e+000 -9.079780e+000 182 64 63
-8.208259e-002 -2.292268e+000 -7.769807e+000 167 160 144
2.583336e+000 -8.115770e-002 -5.752491e+000 251 248 192
1.198151e-001 -1.446701e-001 -4.784213e+000 178 180 171
-2.082272e-001 -2.957310e-001 -4.617479e+000 146 101 74
2.565538e-002 -3.195480e-001 -4.641261e+000 122 49 40
-6.732941e-001 -8.421601e-001 -4.180695e+000 85 37 26
-1.281430e+000 -2.317621e+000 -8.899339e+000 179 64 64
1.371637e+000 1.923076e+000 -6.152913e+000 255 255 207
-3.754394e-001 -1.019469e+000 -4.603600e+000 120 60 38
-8.946088e-001 -9.836138e-001 -3.968153e+000 68 25 22
1.868117e-001 1.066593e-002 -4.951992e+000 211 213 204
2.928419e+000 -1.077739e+000 -5.710747e+000 46 45 52
2.348466e+000 -2.533756e-001 -6.054690e+000 109 95 64
2.046682e+000 -4.008652e-001 -6.234291e+000 170 158 110
1.695319e+000 -2.034079e+000 -6.105994e+000 197 191 179
-4.072554e-001 -3.837793e-001 -4.566033e+000 213 178 133
-4.114729e-001 -3.752533e-001 -4.589785e+000 213 178 133
6.191223e-001 -1.914683e+000 -7.006685e+000 48 19 21
1.156700e+000 -3.460137e-001 -5.678853e+000 203 203 193
-5.669509e-002 -8.233379e-002 -4.738573e+000 197 202 194
-6.334134e-001 -5.660363e-001 -4.282257e+000 174 134 88
1.758083e+000 -1.156173e+000 -5.944460e+000 153 90 65
1.758083e+000 -1.156173e+000 -5.944460e+000 153 90 65
-1.656425e+000 3.092255e-001 -9.398280e+000 184 67 62
-2.860146e-001 -2.239200e-001 -4.569727e+000 212 187 143
-1.464821e+000 -5.240291e-001 -4.170709e+000 36 30 34
1.831472e-001 -4.314494e+000 -8.461424e+000 62 60 65
8.972606e-001 -3.644418e+000 -8.591907e+000 28 19 22
-3.431822e+000 9.213937e-001 -1.087173e+001 77 76 82
-3.181109e+000 4.947926e-001 -1.100174e+001 49 48 53
-3.033386e+000 3.517289e-001 -1.098941e+001 50 48 51
2.875203e-001 -2.899662e-002 -5.573834e+000 208 214 206
1.658009e+000 5.691303e-001 -5.662667e+000 225 226 218
-1.361926e-001 -7.026781e-002 -4.733377e+000 166 177 163
1.418599e+000 -2.383715e+000 -6.235505e+000 32 26 30
1.254660e+000 -2.698257e-001 -5.738879e+000 167 162 156
-8.478669e-001 -1.141350e+000 -4.035652e+000 46 24 25
2.468749e+000 -7.463237e-001 -5.978403e+000 64 57 67
2.468749e+000 -7.463237e-001 -5.978403e+000 64 57 67
2.514205e+000 -7.869331e-001 -5.996327e+000 100 100 102
2.516113e+000 -8.798507e-001 -6.005361e+000 106 103 106
2.536420e+000 -8.570109e-001 -5.990035e+000 60 60 62
1.840993e+000 -1.353265e+000 -6.088087e+000 167 129 94
1.841940e+000 -1.351529e+000 -6.091535e+000 167 129 94
2.737534e-001 1.258975e+000 -6.941650e+000 205 205 193
2.567042e+000 -8.224524e-001 -5.950288e+000 110 111 113
2.922955e+000 -7.470417e-001 -5.736198e+000 38 36 41
1.703120e+000 -1.122822e+000 -6.015400e+000 115 57 37
1.703120e+000 -1.122822e+000 -6.015400e+000 115 57 37
-7.203982e-001 4.498645e+000 -9.042640e+000 43 42 47
-9.920036e-001 4.107339e+000 -9.400516e+000 62 61 67
-8.346386e-001 3.667043e+000 -9.402655e+000 54 55 60
-9.692989e-001 3.448340e+000 -9.330945e+000 64 66 71
2.574636e+000 4.181776e-001 -5.961284e+000 92 91 93
2.755741e+000 3.454575e-001 -5.875431e+000 78 80 84
3.311205e+000 -5.551982e-001 -5.444378e+000 75 74 79
-3.881841e-001 -1.763360e-001 -4.553373e+000 108 73 65
-3.606991e-001 -1.548999e-001 -4.597072e+000 149 126 118
6.535514e-001 -1.963451e-001 -5.317159e+000 149 151 145
7.380886e-001 -1.594834e-001 -5.467304e+000 152 153 148
7.439540e-001 -2.510235e-001 -5.396040e+000 151 152 146
2.634438e+000 -7.096190e-001 -5.918403e+000 68 66 69
2.890535e+000 -7.460382e-001 -5.767232e+000 61 59 62
-3.903616e-001 -2.046722e-001 -4.555632e+000 147 148 133
1.255699e-001 -4.473541e-001 -4.710057e+000 163 115 79
2.292766e+000 -7.399760e-001 -5.942167e+000 179 81 84
9.689078e-002 -5.013995e-001 -4.587876e+000 182 119 84
1.202749e+000 -5.897252e-001 -5.833389e+000 87 56 39
1.204870e+000 -5.850512e-001 -5.847637e+000 87 56 39
1.886795e+000 -8.666822e-001 -6.153701e+000 181 70 67
2.659901e+000 -1.317983e+000 -5.824281e+000 77 76 81
2.468578e-001 -7.855071e-001 -4.846113e+000 129 84 56
4.029759e-001 -8.413755e-001 -4.902538e+000 60 33 31
-1.081626e+000 -7.348181e-001 -3.965390e+000 200 110 70
-6.592992e-001 -7.889275e-001 -4.147326e+000 140 95 60
-1.406144e+000 -6.665632e-001 -4.077839e+000 160 136 100
-1.236398e+000 -8.030540e-001 -3.957923e+000 100 48 44
2.219875e+000 -1.615872e+000 -6.067542e+000 55 52 59
-1.370029e+000 -8.456646e-001 -4.005586e+000 85 68 42
-9.318775e-001 -9.576891e-001 -3.947161e+000 98 56 48
1.105198e-001 -1.172554e+000 -4.823299e+000 144 71 55
-4.636669e-001 -1.195801e+000 -4.569815e+000 130 69 51
-3.587067e-001 -1.296214e+000 -4.703771e+000 109 50 29
-7.138162e-001 -1.328106e+000 -4.863483e+000 202 185 175
-2.304296e-001 -1.488832e+000 -4.950978e+000 97 44 27
-9.338638e-001 -2.143145e+000 -8.605526e+000 202 193 183
-1.803172e-001 4.597718e+000 -9.014590e+000 76 75 80
2.860355e+000 1.033117e+000 -5.852435e+000 80 80 82
3.454402e+000 9.090215e-001 -5.712038e+000 62 60 65
6.290558e-001 2.147724e+000 -6.989389e+000 209 210 202
2.802144e+000 7.601688e-001 -5.920114e+000 86 88 92
2.854045e+000 7.309820e-001 -5.847285e+000 70 69 75
2.754727e+000 6.430270e-001 -5.819565e+000 55 58 62
2.628157e+000 6.129364e-001 -5.881805e+000 40 38 43
2.754896e+000 5.066151e-001 -5.904837e+000 60 62 67
-8.680118e-001 3.584524e+000 -9.357784e+000 82 82 88
1.001341e+000 1.336642e+000 -6.661758e+000 185 184 165
2.527428e+000 4.220452e-001 -5.912396e+000 63 51 53
2.615412e+000 3.700407e-001 -5.925182e+000 146 150 154
2.781101e+000 3.938932e-001 -5.889707e+000 53 56 65
2.705240e+000 2.469979e-001 -5.880906e+000 153 153 161
2.569105e+000 1.683577e-001 -5.940640e+000 61 65 66
2.617199e+000 1.852057e-001 -5.936796e+000 143 142 149
2.677951e+000 1.796047e-001 -5.905376e+000 134 138 142
3.353349e+000 -5.162457e-001 -5.440338e+000 75 72 79
3.525981e+000 -8.098306e-001 -5.217861e+000 44 42 48
2.123479e+000 -1.969877e-001 -6.058029e+000 130 119 83
-2.527252e-001 -1.767173e-001 -4.580590e+000 57 43 42
2.686755e+000 -6.776078e-001 -5.946951e+000 107 104 110
2.666916e+000 -7.410169e-001 -5.862633e+000 53 54 58
2.673420e+000 -7.643311e-001 -5.947508e+000 55 54 59
2.674675e+000 -8.092082e-001 -5.886484e+000 130 129 134
2.680839e+000 -8.363698e-001 -5.930555e+000 56 55 60
2.594645e+000 -8.905647e-001 -5.927284e+000 124 123 128
2.750544e+000 -9.745523e-001 -5.760522e+000 44 44 44
7.224984e-001 -5.041656e-001 -5.554533e+000 78 70 66
2.600525e+000 -9.399530e-001 -5.927122e+000 56 57 61
2.579411e+000 -9.888073e-001 -5.908198e+000 103 103 107
2.676622e+000 -9.950285e-001 -5.874784e+000 47 46 51
1.459186e+000 -7.793812e-001 -6.110563e+000 97 57 21
2.621976e+000 -1.238677e+000 -5.730026e+000 44 43 48
-1.245267e+000 -4.367868e-001 -4.144587e+000 83 42 40
-9.974040e-001 -6.220413e-001 -4.013091e+000 143 72 51
-9.552117e-001 -5.570238e-001 -4.078512e+000 133 66 50
2.376295e+000 -1.247733e+000 -6.002223e+000 62 61 65
2.376295e+000 -1.247733e+000 -6.002223e+000 62 61 65
-9.898281e-001 -8.121948e-001 -3.967230e+000 196 111 74
-1.475226e+000 -6.635496e-001 -4.033960e+000 119 102 59
-1.454469e+000 -6.891029e-001 -4.027493e+000 86 69 35
-1.282093e+000 -7.232075e-001 -3.996066e+000 136 90 88
-8.943375e-001 -9.544884e-001 -3.931099e+000 105 58 51
2.480134e+000 -1.792000e+000 -5.917969e+000 32 30 35
-1.579480e+000 -7.277349e-001 -3.974758e+000 109 90 49
-1.584887e+000 -7.552207e-001 -3.964502e+000 45 27 17
-1.351246e+000 -8.346051e-001 -3.988441e+000 133 112 78
-1.289925e+000 -8.404940e-001 -3.939239e+000 113 71 65
-4.690134e-001 -1.039450e+000 -4.523199e+000 125 68 47
2.045344e+000 -1.592513e+000 -6.261566e+000 46 34 29
2.370902e+000 -1.833255e+000 -5.902807e+000 29 27 32
-1.089334e+000 -1.037368e+000 -4.101337e+000 108 45 22
-1.860485e-001 -1.467113e+000 -4.907187e+000 95 39 23
1.328851e+000 -1.842362e+000 -6.293973e+000 174 166 155
-6.879690e-001 -1.328129e+000 -4.906381e+000 63 38 30
-4.308037e-001 -1.588530e+000 -4.909005e+000 128 70 42
-6.191427e-002 -1.975157e+000 -7.729015e+000 145 136 119
-7.343093e-001 -2.337137e+000 -8.231553e+000 216 211 202
1.980382e+000 -3.370710e+000 -6.530103e+000 58 53 57
1.947999e+000 -3.388271e+000 -6.580986e+000 30 26 30
-9.526083e-002 4.620120e+000 -8.881395e+000 84 83 88
1.451882e+000 2.062684e+000 -6.203522e+000 179 172 146
2.996729e+000 1.220710e+000 -5.858536e+000 51 50 55
3.156703e+000 9.898547e-001 -5.782246e+000 65 64 69
3.933328e+000 1.374050e-001 -5.615724e+000 45 40 44
-9.071007e-001 3.915870e+000 -9.468984e+000 76 75 80
2.703279e+000 5.234293e-001 -5.898026e+000 154 155 160
2.796298e+000 5.798075e-001 -5.856670e+000 57 60 65
2.852986e+000 5.236512e-001 -5.913230e+000 55 58 63
2.673810e+000 3.783087e-001 -5.891402e+000 65 67 71
2.743946e+000 3.956583e-001 -5.920144e+000 135 139 142
2.743946e+000 3.956583e-001 -5.920144e+000 135 139 142
2.786178e+000 3.119018e-001 -5.859516e+000 118 119 125
1.222791e+000 9.020914e-002 -5.534841e+000 199 201 196
2.896017e+000 -6.759808e-001 -5.784584e+000 79 78 82
-3.068846e-001 -1.505948e-001 -4.608691e+000 183 169 143
3.384756e+000 -1.126991e+000 -5.180286e+000 43 41 46
2.369063e+000 -7.272617e-001 -5.939578e+000 169 77 82
2.634239e+000 -8.935355e-001 -5.907762e+000 61 60 65
2.808527e+000 -9.441678e-001 -5.669463e+000 38 36 39
2.621774e+000 -1.078062e+000 -5.818736e+000 46 45 50
2.621774e+000 -1.078062e+000 -5.818736e+000 46 45 50
2.919036e+000 -1.205872e+000 -5.631620e+000 26 24 29
1.595136e+000 -7.198652e-001 -6.173966e+000 79 50 22
-1.299337e+000 -4.407370e-001 -4.170492e+000 101 58 55
2.360165e+000 -1.344718e+000 -5.974927e+000 40 38 43
-1.416325e+000 -5.374346e-001 -4.155607e+000 123 99 68
-1.302521e+000 -6.520921e-001 -4.012878e+000 73 27 26
-1.296596e+000 -6.593537e-001 -3.993843e+000 73 27 26
-1.331220e+000 -8.757319e-001 -3.982204e+000 168 150 105
1.556482e-002 -1.249874e+000 -4.910868e+000 119 42 32
1.160672e-001 -1.265639e+000 -4.896855e+000 75 43 36
2.333516e+000 -1.745018e+000 -6.032159e+000 27 25 28
1.893330e-001 -1.351452e+000 -5.104211e+000 73 42 35
1.639681e-002 -1.846726e+000 -7.393912e+000 117 101 85
-3.089476e+000 -1.720211e+000 -1.098274e+001 68 67 73
-3.091644e+000 -1.961476e+000 -1.095407e+001 64 63 68
-8.251830e-001 4.578810e+000 -9.108334e+000 81 80 85
1.591688e+000 1.391510e+000 -6.204598e+000 214 216 203
2.727943e+000 4.598644e-001 -5.892556e+000 62 65 70
-3.712465e-001 3.031010e+000 -8.942200e+000 73 60 67
-1.542353e-001 2.578832e+000 -7.932638e+000 189 73 75
4.752232e-001 1.803123e+000 -7.079078e+000 194 194 185
2.646699e+000 2.363096e-001 -5.914291e+000 80 81 88
2.529197e+000 1.445628e-001 -6.013565e+000 52 40 44
2.562338e+000 4.193795e-002 -5.855937e+000 76 74 72
1.051133e+000 -1.395025e-001 -5.580901e+000 156 156 148
-1.692215e-001 -2.903586e-001 -4.658986e+000 141 94 68
2.323366e+000 -6.886872e-001 -5.971522e+000 91 53 33
2.577999e+000 -7.549028e-001 -6.001920e+000 74 73 78
-5.459995e-001 -4.846648e-001 -4.456755e+000 183 92 48
9.735519e-001 -6.600460e-001 -5.765306e+000 147 149 134
7.748608e-001 -8.559735e-001 -5.643697e+000 91 83 77
-1.445174e+000 -5.345396e-001 -4.143077e+000 47 32 23
2.293196e+000 -1.430062e+000 -6.055618e+000 36 31 37
2.293552e+000 -1.431389e+000 -6.053365e+000 36 31 37
2.004776e+000 -1.395566e+000 -6.209754e+000 175 60 52
-1.528572e+000 -8.523293e-001 -3.879575e+000 39 28 22
-6.912918e-001 -1.031129e+000 -4.275312e+000 84 50 40
2.412507e+000 -1.848146e+000 -5.938310e+000 31 29 34
8.437372e-002 -1.323009e+000 -4.870749e+000 80 32 17
-2.318564e+000 -7.685946e-001 -1.070433e+001 66 60 62
-2.318564e+000 -7.685946e-001 -1.070433e+001 66 60 62
-9.254121e-001 -1.513216e+000 -8.184526e+000 199 191 183
-9.494688e-001 -1.498053e+000 -8.265933e+000 199 191 183
-7.037216e-001 -2.410671e+000 -8.223356e+000 199 189 180
-4.662084e-001 4.855309e+000 -9.111942e+000 48 46 52
3.861256e-001 3.460562e+000 -7.631053e+000 39 38 31
1.501350e-001 3.170107e+000 -8.087782e+000 198 76 75
3.987777e+000 2.814870e-002 -5.483360e+000 59 55 56
3.141699e+000 -6.602096e-001 -5.529893e+000 39 37 42
1.330482e-002 -4.069960e-001 -4.612614e+000 203 125 93
7.201293e-001 -4.586663e-001 -5.525751e+000 162 163 157
7.205171e-001 -4.574461e-001 -5.530570e+000 162 163 157
3.068018e-001 -8.076342e-001 -4.887773e+000 54 26 24
3.768966e-001 -1.019541e+000 -5.160245e+000 82 69 61
-1.603784e+000 -6.001441e-001 -4.042729e+000 32 20 21
-3.581161e-001 -1.372359e+000 -4.716234e+000 84 30 17
7.684390e-002 -1.428983e+000 -5.068703e+000 147 87 55
-1.203763e+000 -2.457155e+000 -8.696400e+000 192 55 59
-9.775218e-003 3.185338e+000 -8.221743e+000 55 56 61
1.796544e+000 8.792690e-001 -5.785883e+000 237 240 231
4.092599e-001 1.540241e+000 -6.931135e+000 204 205 197
-1.020149e+000 -4.146750e-001 -4.214658e+000 158 81 55
-9.093965e-001 -5.757586e-001 -4.181013e+000 99 44 26
-1.335636e+000 -6.665284e-001 -4.043533e+000 73 28 28
1.201607e+000 -1.042293e+000 -5.859560e+000 157 155 151
-7.101065e-001 -9.911635e-001 -4.168907e+000 64 27 16
1.924669e+000 -1.433841e+000 -6.257967e+000 87 32 30
-1.583091e+000 -7.557398e-001 -4.009136e+000 40 26 23
2.034023e-003 -1.339956e+000 -4.940534e+000 185 102 50
-1.452668e+000 -1.508387e+000 -8.990202e+000 182 67 64
8.205832e-001 3.318957e+000 -7.360729e+000 198 82 83
1.630987e+000 1.680753e+000 -5.977637e+000 202 198 187
3.070478e+000 -1.922624e-002 -5.165982e+000 121 109 70
2.704883e+000 1.138797e-001 -5.811172e+000 96 88 68
8.266315e-001 -4.890018e-001 -5.603946e+000 103 97 87
-2.867433e+000 -1.264212e+000 -1.124235e+001 68 69 73
6.713042e-001 -2.623190e+000 -7.252904e+000 115 38 43
-7.536038e-001 -2.604552e+000 -8.246319e+000 209 202 192
-1.033262e+000 -2.842941e+000 -8.463701e+000 177 58 60
7.630373e-001 3.507355e+000 -7.351687e+000 28 24 25
-1.757077e-001 4.593662e+000 -8.899502e+000 65 64 69
1.334247e+000 1.017818e+000 -5.950313e+000 254 255 223
1.394398e-001 -1.308651e+000 -5.073501e+000 57 28 24
-2.419563e-001 -1.441926e+000 -4.951376e+000 116 61 41
-3.078825e+000 -9.898101e-001 -1.109732e+001 26 21 25
-1.269475e+000 -1.648832e+000 -8.475281e+000 211 211 201
-1.296830e+000 -1.861764e+000 -8.683928e+000 130 84 76
5.723170e-001 3.430559e+000 -7.630400e+000 202 86 87
-5.454945e-001 4.545030e+000 -9.291567e+000 34 29 33
1.732448e+000 1.064057e+000 -5.765065e+000 204 204 192
1.884900e+000 -1.593580e+000 -6.282312e+000 186 76 75
-6.195018e-001 -1.285937e+000 -4.880818e+000 64 29 23
2.457245e-001 -1.943782e+000 -7.403049e+000 133 119 103
-8.498546e-001 -2.233639e+000 -8.561079e+000 207 205 193
-8.809577e-001 4.123775e+000 -9.338037e+000 84 85 90
1.321662e+000 -1.143115e+000 -6.190449e+000 59 27 25
1.210618e+000 2.469885e+000 -6.652326e+000 88 82 56
-1.127564e+000 -6.836600e-001 -4.052303e+000 203 110 69
-3.279230e+000 -1.370373e+000 -1.155890e+001 66 65 71
3.247562e+000 2.117946e-001 -5.536550e+000 144 131 87
7.319392e-001 2.943469e+000 -7.978046e+000 228 228 220
-6.564443e-001 -9.170418e-001 -4.826644e+000 68 27 21
9.821310e-001 2.626586e+000 -6.737655e+000 118 107 75
1.219207e+000 2.762610e+000 -6.237515e+000 205 190 132
1.995237e+000 1.523577e+000 -5.934014e+000 210 204 194
1.995237e+000 1.523577e+000 -5.934014e+000 210 204 194
2.789453e+000 1.570740e+000 -5.950968e+000 102 99 106
4.537969e-002 -1.408334e-001 -5.586522e+000 156 147 106
4.537969e-002 -1.408334e-001 -5.586522e+000 156 147 106
3.286993e-001 -4.029680e-002 -5.573852e+000 168 173 163
2.954347e-002 -3.064949e-002 -4.914190e+000 165 175 167
2.282748e-001 -8.070730e-002 -5.050697e+000 158 162 151
2.282748e-001 -8.070730e-002 -5.050697e+000 158 162 151
1.568665e+000 5.068131e-001 -4.946196e+000 216 217 209
-1.415231e+000 -4.692041e-001 -4.170704e+000 131 112 80
-1.149002e+000 -3.717979e-001 -4.155390e+000 140 75 49
1.471644e+000 2.679465e+000 -6.626989e+000 236 224 211
1.868755e+000 2.254049e+000 -6.106566e+000 207 198 187
1.498419e-001 3.819585e-001 -6.277754e+000 195 198 187
-5.960020e-001 -2.109219e-001 -4.946470e+000 212 122 75
2.457703e-001 1.087498e-002 -5.585406e+000 210 212 207
6.904072e-001 -9.255687e-002 -5.368001e+000 153 156 147
-1.461585e+000 -6.110550e-001 -4.087515e+000 83 62 40
-1.411453e+000 -5.113967e-001 -4.137457e+000 160 145 89
-9.544825e-001 -4.608110e-001 -4.226345e+000 96 35 18
-1.393995e+000 -6.195620e-001 -4.090000e+000 143 120 76
-1.421105e+000 -6.778901e-001 -4.063231e+000 95 74 30
7.177365e-002 -4.092417e-001 -4.648313e+000 174 92 68
-6.574090e-001 -5.500573e-001 -4.235056e+000 200 160 111
-9.916047e-001 -7.273107e-001 -3.986916e+000 145 63 33
1.755213e+000 -1.351154e+000 -6.110121e+000 136 78 55
1.018253e+000 1.897071e+000 -6.327517e+000 116 106 72
1.469876e-001 6.032209e-001 -6.692721e+000 231 234 223
9.498516e-002 3.616213e-001 -6.334539e+000 199 200 187
2.242570e+000 1.377847e+000 -5.833717e+000 181 72 79
2.315504e+000 1.393962e+000 -5.877835e+000 169 77 81
2.987805e+000 1.620788e+000 -5.984229e+000 119 117 122
-9.687619e-001 -8.040403e-001 -8.520254e+000 190 192 179
-3.511523e-001 -1.518878e-001 -4.606363e+000 163 148 126
-3.332277e-001 -2.046321e-001 -4.787218e+000 62 54 54
-1.710276e+000 -6.935238e-001 -4.350525e+000 158 143 71
-8.755766e-001 -4.253141e-001 -4.335021e+000 157 125 104
-8.755766e-001 -4.253141e-001 -4.335021e+000 157 125 104
-7.900169e-001 -4.298630e-001 -4.483192e+000 101 42 21
-5.498288e-001 -4.905847e-001 -4.710244e+000 200 158 117
-1.477495e+000 -7.204030e-001 -3.985120e+000 66 55 35
-6.320193e-001 -5.637704e-001 -4.271169e+000 153 115 69
9.316529e-001 2.719565e+000 -7.096209e+000 220 214 202
1.446615e+000 2.814427e+000 -6.647421e+000 237 214 199
1.618357e+000 2.746612e+000 -6.517967e+000 231 194 182
7.017363e-001 2.299343e+000 -7.066631e+000 196 193 183
1.666023e+000 2.242595e+000 -6.295947e+000 205 199 185
1.666023e+000 2.242595e+000 -6.295947e+000 205 199 185
1.088205e+000 1.278574e+000 -6.477608e+000 163 164 145
1.091499e+000 1.276394e+000 -6.495365e+000 163 164 145
1.195473e+000 1.224085e+000 -6.527219e+000 223 222 204
1.183371e+000 1.068203e+000 -6.285605e+000 117 111 79
4.525195e-001 5.065958e-001 -6.296265e+000 233 238 230
-1.540303e+000 -1.513802e+000 -8.885205e+000 163 60 55
-6.283230e-001 -2.825272e-001 -4.876283e+000 198 112 63
2.532351e+000 2.108421e-001 -5.926251e+000 47 37 42
-1.320022e+000 -5.012755e-001 -4.095826e+000 57 13 10
3.989347e-001 -1.865011e-001 -4.770228e+000 146 143 134
-3.842022e-001 -1.453022e+000 -4.638172e+000 159 80 31
8.092025e-001 2.146142e+000 -6.835532e+000 209 209 199
-7.885385e-001 1.368787e+000 -8.636309e+000 215 206 189
4.775492e-001 1.776415e+000 -7.111804e+000 186 186 178
2.337882e-001 1.412642e+000 -7.027983e+000 231 234 223
-1.449304e+000 -1.428617e+000 -8.933209e+000 182 66 63
-1.328352e+000 -1.435466e+000 -8.710331e+000 201 198 186
-6.592334e-001 -3.241332e-001 -4.843411e+000 139 49 23
-6.592334e-001 -3.241332e-001 -4.843411e+000 139 49 23
2.191957e-001 -4.338252e-002 -5.168495e+000 183 186 177
-7.137490e-001 -4.713026e-001 -4.667419e+000 127 52 27
-5.266882e-002 -3.629409e-001 -4.689666e+000 202 160 117
1.636272e+000 2.775223e+000 -6.404802e+000 177 73 70
1.672435e+000 2.685458e+000 -6.373039e+000 231 219 207
-9.176286e-001 1.315153e+000 -8.794731e+000 202 71 73
-6.564820e-001 1.236594e+000 -8.446989e+000 235 238 229
3.047409e-001 1.127103e+000 -6.758863e+000 226 231 222
1.339760e+000 1.552678e+000 -6.108158e+000 159 150 106
-1.034750e+000 -4.053443e-001 -8.672579e+000 222 223 209
6.369191e-002 2.994279e-001 -6.327720e+000 164 164 152
-1.939066e+000 -1.867012e+000 -9.656671e+000 53 52 56
-3.224719e-001 -9.366033e-002 -5.300720e+000 184 107 70
2.420000e+000 4.944191e-001 -5.662666e+000 44 42 45
-1.524090e+000 -6.081284e-001 -4.035491e+000 30 19 19
-3.792271e-001 -6.736737e-001 -4.532864e+000 99 51 29
-6.200806e-002 -7.280390e-001 -4.813779e+000 174 132 91
3.181284e-002 -1.145656e+000 -4.825069e+000 111 40 31
-2.371912e-001 -1.215957e+000 -4.541268e+000 125 55 30
1.284158e-001 1.190206e+000 -7.042855e+000 234 237 226
1.142907e+000 1.178977e+000 -6.386748e+000 229 232 220
-8.254066e-001 -4.541334e-001 -4.582802e+000 112 58 42
-2.816749e-001 -6.713616e-001 -4.615705e+000 172 137 96
-4.259592e-001 2.071568e+000 -8.175522e+000 163 60 60
1.200113e+000 1.987992e+000 -6.509736e+000 209 198 141
-8.449534e-001 -1.664782e-002 -8.510896e+000 219 221 210
1.932279e-001 4.031024e-001 -6.501526e+000 232 235 224
-1.790357e-001 -4.783124e-002 -4.717836e+000 158 159 145
-2.201249e-001 -1.606051e-001 -4.635374e+000 157 78 65
1.502815e-002 -5.359285e-001 -4.657920e+000 205 171 123
-1.464649e-002 -1.160714e+000 -4.679387e+000 178 89 47
-6.211157e-003 3.379022e-001 -6.794492e+000 178 180 169
-1.621815e+000 -7.203288e-001 -4.044348e+000 201 176 119
-1.593031e+000 -6.711494e-001 -3.973770e+000 201 176 119
1.091220e+000 -7.720073e-001 -5.662069e+000 198 198 180
-5.101806e-001 -9.553961e-001 -4.450896e+000 105 44 25
9.252794e-001 -7.815860e-001 -5.073789e+000 125 112 95
-7.500863e-001 -9.204878e-001 -3.880044e+000 27 17 18
-1.604774e-003 2.987529e-001 -6.908845e+000 177 181 167
-4.352737e-001 -3.923408e-001 -4.627183e+000 212 176 126
-4.142953e-001 -1.193796e+000 -4.523326e+000 145 69 33
-8.623705e-002 5.273948e-002 -5.595306e+000 200 202 195
6.321344e-001 -5.721384e-001 -5.512130e+000 53 40 34
3.120233e-001 -3.708526e-001 -4.651554e+000 174 174 161
-1.077930e+000 -7.608018e-001 -3.952182e+000 202 106 55
5.195404e-001 -9.016918e-001 -4.983026e+000 72 28 27
2.551666e+000 9.427162e-001 -5.758939e+000 219 216 207
-4.098143e-001 -7.781453e-001 -4.512399e+000 85 29 17
-4.098143e-001 -7.781453e-001 -4.512399e+000 85 29 17
1.278394e+000 1.333287e+000 -5.991084e+000 103 97 70
1.281340e+000 1.332139e+000 -6.001890e+000 103 97 70
-3.401279e-001 -3.096870e-002 -5.191906e+000 157 92 63
1.525165e+000 -2.555372e-001 -5.535889e+000 102 85 60
6.299497e-002 -7.825256e-001 -4.606306e+000 220 180 127
8.437542e-001 1.023852e+000 -6.902345e+000 232 238 231
4.002603e-001 6.167213e-001 -6.224143e+000 203 206 197
1.631983e+000 4.836331e-001 -5.530618e+000 202 204 193
-2.203063e+000 -9.329089e-001 -1.027609e+001 39 37 38
1.762052e+000 4.480745e-001 -5.649564e+000 208 210 197
-6.015718e-001 -5.675003e-001 -4.283101e+000 178 139 102
-1.540806e-001 -1.350605e+000 -4.887782e+000 104 42 21
1.758831e-001 6.936718e-001 -6.528789e+000 207 209 195
1.785101e+000 -7.398203e-001 -6.292271e+000 94 55 38
-3.324433e+000 -1.217510e+000 -1.113969e+001 80 79 84
-5.348770e-001 -1.112829e-001 -4.970465e+000 153 84 50
-6.365063e-001 -4.263522e-001 -4.690849e+000 187 96 52
-4.033294e-001 -1.631133e-001 -4.594995e+000 66 52 53
1.689394e+000 -7.033845e-001 -6.194131e+000 138 104 81
-6.873470e-001 2.104437e+000 -8.662965e+000 195 71 75
1.713567e+000 2.614800e+000 -6.298356e+000 194 185 168
3.203570e-001 1.397019e+000 -7.088031e+000 204 206 193
1.408705e+000 6.151159e-001 -5.792795e+000 221 224 213
3.207359e-001 -2.313426e-001 -4.937192e+000 127 123 111
-2.210215e-001 -1.203234e+000 -4.742798e+000 134 66 41
-1.197644e+000 1.555701e+000 -8.815410e+000 46 39 49
2.571583e-001 2.642640e-002 -5.374906e+000 189 192 179
-7.990630e-001 -4.292534e-001 -4.389593e+000 167 136 111
2.246465e+000 -8.531428e-002 -6.012505e+000 163 68 65
-7.294698e-001 1.589489e+000 -8.396268e+000 232 233 227
1.631334e+000 2.671673e+000 -6.263491e+000 236 220 209
-2.104475e+000 -1.487004e+000 -1.011768e+001 37 25 32
-4.655082e-001 -5.290630e-001 -4.608000e+000 145 77 48
-9.261288e-002 -3.648805e-001 -4.685377e+000 200 151 108
-8.502504e-001 -7.856294e-001 -4.109756e+000 111 46 29
-1.716444e+000 5.361271e-001 -9.234863e+000 44 35 38
1.420557e+000 -1.180297e+000 -6.157891e+000 86 39 33
2.316223e+000 1.702420e+000 -5.600804e+000 47 30 35
1.275030e+000 9.906468e-001 -6.210865e+000 255 255 231
-8.031974e-001 -4.404073e-001 -4.898930e+000 183 95 47
-4.433221e-001 -1.659829e-001 -4.718473e+000 123 68 58
-8.913767e-001 -5.064636e-001 -4.286576e+000 100 63 44
2.190379e+000 -7.083542e-002 -5.863640e+000 150 64 63
2.649825e+000 -1.005960e+000 -6.121545e+000 34 28 30
-4.628002e-001 1.338616e+000 -8.692291e+000 242 243 235
1.742633e+000 -1.011919e-001 -5.907046e+000 103 86 76
-4.548228e-001 -1.140909e+000 -4.531324e+000 142 75 46
2.765653e+000 6.858633e-001 -5.951153e+000 98 98 103
3.490632e-001 -8.083810e-001 -4.894983e+000 118 62 61
8.891551e-001 2.935217e+000 -7.193686e+000 188 106 105
6.264396e-001 2.143233e+000 -6.985025e+000 209 210 202
2.771109e-001 4.666091e+000 -8.835269e+000 42 37 41
9.105148e-001 3.034907e+000 -7.182388e+000 169 80 73
9.541489e-001 -7.394703e-001 -5.842438e+000 196 200 190
-6.825076e-001 -1.874574e+000 -8.297580e+000 194 195 181
8.414067e-001 -7.947718e-001 -5.731327e+000 140 136 130
-1.582170e+000 -1.297407e+000 -9.089501e+000 192 60 61
-1.792108e+000 -1.435124e+000 -9.375680e+000 184 57 55
1.257247e+000 -1.876890e+000 -6.371578e+000 187 181 169
2.035716e+000 1.523583e+000 -5.881741e+000 201 186 174
1.401421e-002 4.982977e-002 -5.663870e+000 188 193 185
4.531114e-002 -1.510129e-001 -4.714440e+000 183 185 174
1.441522e+000 2.737622e+000 -6.591791e+000 235 223 207
2.774337e-001 1.255265e+000 -6.826065e+000 209 211 198
1.164439e+000 1.499848e+000 -6.282512e+000 130 124 90
7.180758e-001 -2.244446e-001 -5.422435e+000 165 168 159
-9.933810e-001 -5.378501e-001 -4.050382e+000 171 94 60
-7.051153e-001 -6.993393e-001 -4.201666e+000 105 82 63
-4.205157e-001 -1.398242e+000 -4.586533e+000 55 26 18
1.442257e+000 2.847122e+000 -6.593986e+000 201 76 77
4.330464e-001 1.260922e+000 -6.803078e+000 199 202 192
4.330464e-001 1.260922e+000 -6.803078e+000 199 202 192
-3.271797e-001 -1.348715e-001 -4.629951e+000 62 54 54
8.013188e-001 8.344680e-001 -6.583665e+000 211 215 200
-5.116941e-001 -1.178385e-001 -5.098103e+000 141 79 49
-3.840957e-001 -1.461232e+000 -4.645371e+000 159 80 31
2.203360e+000 2.146276e-002 -5.912843e+000 178 73 73
1.655288e+000 -7.396932e-001 -6.022783e+000 117 51 45
-1.480187e+000 -8.296078e-001 -3.926078e+000 127 110 62
2.502478e+000 -8.272172e-001 -5.880865e+000 34 27 29
2.766372e+000 5.903873e-001 -5.946027e+000 60 61 66
-1.104607e+000 3.484101e+000 -9.382824e+000 77 78 83
2.814048e+000 -1.417259e+000 -5.699169e+000 40 35 41
3.357472e-001 -2.077723e+000 -7.278677e+000 81 60 55
1.673665e+000 1.418672e+000 -6.511823e+000 223 224 215
-8.403837e-001 3.870340e+000 -9.176424e+000 95 98 103
-1.009810e+000 3.366072e+000 -9.289340e+000 90 92 97
2.814085e+000 -7.063377e-001 -5.857161e+000 52 53 57
