ply
format ascii 1.0
element face 0
property list uchar int vertex_indices
element vertex 885
property float x
property float y
property float z
property uchar diffuse_red
property uchar diffuse_green
property uchar diffuse_blue
end_header
3.067403e+000 -2.847642e+000 -5.336450e+000 40 39 45
3.167389e+000 -3.150840e+000 -5.345107e+000 40 41 46
2.922225e+000 -2.879489e+000 -5.583424e+000 31 30 35
2.949422e+000 -2.936063e+000 -5.691477e+000 31 30 35
2.207086e+000 -3.703939e-001 -5.661701e+000 204 195 139
2.605128e+000 -3.745573e+000 -5.656256e+000 36 35 41
2.260890e+000 -2.264159e+000 -6.146063e+000 42 45 52
5.788907e-001 -1.078762e+000 -5.258125e+000 109 100 88
-1.451595e+000 -5.897759e-001 -3.522615e+000 50 42 45
-1.420586e+000 -1.050883e+000 -3.702875e+000 146 77 46
1.183859e-001 -1.513545e+000 -5.137369e+000 57 29 22
1.862557e+000 -3.226050e+000 -6.533244e+000 25 26 30
1.725628e+000 -3.061425e+000 -6.608803e+000 26 25 30
1.738465e+000 -3.054680e+000 -6.624176e+000 26 25 30
1.434262e+000 -2.886573e+000 -6.947809e+000 43 44 48
-1.872294e-001 -1.306782e+000 -6.002924e+000 42 27 20
-4.737180e-001 -6.062113e-001 -6.724612e+000 216 215 205
-2.851784e-001 -1.340708e+000 -7.063201e+000 102 91 82
-3.760032e-001 -6.766490e-001 -7.433762e+000 122 116 108
-3.809142e-001 -7.666578e-001 -7.653259e+000 183 188 180
-3.589901e-001 -6.944618e-001 -8.037803e+000 232 235 226
3.746803e-001 -3.718559e+000 -8.057522e+000 28 26 31
1.629525e-001 -4.821891e+000 -7.946085e+000 62 59 68
-2.391638e-002 -4.776719e+000 -8.189876e+000 36 35 41
-1.501575e-001 -4.768212e+000 -8.169729e+000 36 35 41
4.377591e-002 -4.970193e+000 -8.106227e+000 29 26 33
-3.978796e-001 -4.598001e+000 -8.286107e+000 35 32 40
-1.774282e-001 -4.675422e+000 -8.310663e+000 36 33 40
-1.202015e-001 -4.656150e+000 -8.466592e+000 36 33 40
-5.151396e-002 -5.180160e+000 -8.181242e+000 28 25 32
-4.568596e-001 -4.985224e+000 -8.274142e+000 35 31 40
-3.148593e-001 -4.978852e+000 -8.415700e+000 34 33 39
-1.741976e+000 -1.709225e+000 -9.263834e+000 199 189 179
-4.894547e-001 -4.705456e+000 -8.539961e+000 36 31 38
-5.297200e-001 -4.957959e+000 -8.321023e+000 30 27 34
-8.472991e-001 -4.480854e+000 -8.537661e+000 35 30 34
3.379131e+000 -3.023104e+000 -5.282698e+000 43 44 49
2.962863e+000 -3.135716e+000 -5.544742e+000 36 35 40
3.043192e+000 -3.498495e+000 -5.488014e+000 37 36 42
2.787205e+000 -3.327856e+000 -5.644543e+000 42 41 47
2.749545e+000 -3.619263e+000 -5.519449e+000 33 32 38
2.592768e+000 -1.284212e+000 -6.000590e+000 56 54 58
-1.550488e-002 -3.322618e-001 -4.328595e+000 151 68 35
1.969780e+000 -9.899038e-001 -5.872605e+000 97 36 33
-1.225932e+000 -4.340833e-001 -3.609618e+000 49 41 45
-5.808825e-001 -8.892274e-001 -4.221177e+000 211 161 127
-5.808825e-001 -8.892274e-001 -4.221177e+000 211 161 127
1.493675e+000 -1.081060e+000 -6.042656e+000 116 78 57
-7.439638e-001 -1.207382e+000 -4.245328e+000 116 58 33
-2.102593e-002 -1.460515e+000 -4.749693e+000 84 57 44
2.427516e-001 -1.535301e+000 -5.391750e+000 42 23 19
7.588459e-001 -1.031781e+000 -5.988993e+000 86 76 64
-6.231278e-002 -1.633983e+000 -5.126280e+000 45 25 21
-2.039148e+000 -5.773821e-001 -3.564716e+000 159 134 82
-7.900068e-001 -6.054358e-001 -5.722062e+000 53 27 23
-3.517653e-001 -1.164666e+000 -6.729688e+000 109 100 88
4.082300e-001 -1.854173e+000 -7.118112e+000 41 19 22
-3.796804e-002 -5.036971e+000 -8.172107e+000 27 25 30
-1.735971e-001 -5.112132e+000 -8.200340e+000 30 27 34
-1.110459e+000 -2.972370e+000 -8.535960e+000 196 73 73
-2.915750e-001 -5.163015e+000 -8.314357e+000 31 28 35
1.482281e+000 -2.889291e-001 -5.604871e+000 148 140 127
1.175694e+000 -6.130621e-001 -5.668166e+000 117 55 42
-2.412256e-001 -1.247202e+000 -4.540278e+000 165 121 89
-1.136306e-001 -1.433159e+000 -4.665485e+000 189 107 69
1.859405e-001 -1.404215e+000 -5.007290e+000 46 21 18
-6.866652e-001 -6.596074e-001 -6.240585e+000 60 36 34
-2.989376e-001 -9.659622e-001 -7.088383e+000 112 99 90
-4.819239e-001 -3.369211e-001 -7.384457e+000 128 125 113
-3.901628e-001 -1.004542e+000 -7.451858e+000 218 228 221
-8.561786e-001 -1.681879e+000 -8.004875e+000 122 105 95
-2.106462e-001 -4.422154e+000 -7.950973e+000 180 62 56
-2.106462e-001 -4.422154e+000 -7.950973e+000 180 62 56
-1.195715e+000 -9.137907e-001 -3.552895e+000 47 14 10
-6.102135e-001 -7.471246e-001 -4.099535e+000 84 31 20
6.406961e-001 -2.939893e+000 -7.343342e+000 120 49 49
-9.681113e-001 -1.489313e+000 -8.126810e+000 223 225 216
-1.346961e+000 -9.991591e-001 -8.808860e+000 198 198 188
-2.469690e-001 -4.169960e+000 -7.901485e+000 203 78 82
-2.275670e-001 -9.509055e-001 -4.308895e+000 144 78 44
1.875322e+000 -1.675188e+000 -6.036618e+000 90 32 31
1.477318e+000 -1.531176e+000 -6.235376e+000 214 214 206
-1.563529e+000 -1.780622e+000 -8.720000e+000 227 227 218
-9.643076e-001 -2.911438e+000 -8.525617e+000 218 211 204
-9.744478e-001 -3.122423e+000 -8.572787e+000 172 59 61
-1.504777e+000 -2.292494e+000 -9.100907e+000 162 50 49
3.203797e+000 -1.216593e+000 -5.543067e+000 57 56 60
1.077466e+000 9.670997e-002 -5.054331e+000 221 223 212
1.169863e+000 -9.313494e-001 -5.620395e+000 193 188 175
-1.257240e+000 -1.076554e+000 -3.703011e+000 72 29 19
-1.263393e+000 -1.092010e+000 -3.691908e+000 72 29 19
1.084283e+000 -9.199181e-001 -6.261424e+000 42 24 24
1.247416e+000 -1.412357e+000 -6.406931e+000 102 93 78
-5.467248e-002 -1.278269e+000 -6.185924e+000 79 70 61
-5.737761e-001 -4.056595e+000 -8.199463e+000 184 55 54
3.427886e-001 -6.333661e-001 -4.533455e+000 89 42 32
1.211180e+000 -3.034173e-001 -5.632986e+000 187 187 179
4.014098e-001 -1.203757e+000 -5.983139e+000 109 99 87
-5.529777e-001 -6.845118e-001 -7.339536e+000 139 135 126
-6.568840e-001 -1.796882e-001 -7.652032e+000 230 233 224
2.554162e-001 -4.861171e+000 -8.120607e+000 71 70 78
-7.324539e-001 -2.683407e+000 -8.314708e+000 246 247 239
-1.499394e+000 -9.751575e-001 -3.741907e+000 182 104 65
-6.607266e-001 -7.542447e-001 -5.969556e+000 43 25 25
-2.447708e-001 -3.630544e+000 -8.122848e+000 184 180 169
-3.049491e-001 -4.188244e+000 -8.000949e+000 177 55 57
-2.972205e-001 -4.172091e+000 -8.072691e+000 177 55 57
-1.127051e+000 -2.533522e+000 -8.791942e+000 196 188 177
1.459434e+000 -1.050633e+000 -6.254175e+000 62 19 23
2.089908e-001 -4.406419e+000 -8.444332e+000 20 11 22
-5.290597e-001 -7.410662e-001 -5.971022e+000 44 24 26
-1.103553e+000 -4.551481e-001 -5.867427e+000 183 180 165
1.429815e+000 -2.168116e+000 -6.334670e+000 191 191 179
2.718211e+000 2.462109e+000 -5.591090e+000 174 75 77
3.056321e+000 -1.572467e+000 -5.856819e+000 56 57 62
2.387696e+000 -1.849173e-001 -5.718629e+000 172 155 108
2.850406e+000 -6.665157e-001 -5.975731e+000 58 45 42
2.803701e+000 -1.597168e+000 -5.776471e+000 105 106 111
2.840751e+000 -3.530159e+000 -5.711655e+000 33 32 38
2.770817e+000 -2.008479e+000 -6.121796e+000 120 123 130
2.629424e+000 -2.320961e+000 -6.056064e+000 123 126 133
2.862051e+000 -3.726651e+000 -5.949666e+000 29 28 34
2.021185e+000 -1.137472e+000 -5.868760e+000 198 86 75
2.290930e+000 -2.271851e+000 -6.226726e+000 46 46 54
2.254568e+000 -2.446496e+000 -6.254468e+000 108 111 118
2.248265e+000 -2.639236e+000 -6.271002e+000 55 60 66
2.262159e+000 -3.034102e+000 -6.241385e+000 35 35 40
2.148937e+000 -2.932946e+000 -6.258416e+000 53 56 61
2.178929e+000 -2.992187e+000 -6.301648e+000 36 39 44
2.089595e+000 -2.925326e+000 -6.341947e+000 83 84 89
2.158470e+000 -3.205507e+000 -6.370475e+000 58 58 61
2.036921e+000 -3.398036e+000 -6.437384e+000 30 31 36
1.915520e+000 -3.527874e+000 -6.391990e+000 50 49 55
1.327924e-001 -1.600630e+000 -5.321604e+000 72 59 51
1.706892e+000 -2.794858e+000 -6.691798e+000 41 40 45
1.570472e+000 -2.993457e+000 -6.730984e+000 36 35 40
2.797978e-001 -1.148336e+000 -6.614088e+000 59 26 26
6.984499e-002 2.981167e+000 -8.141706e+000 220 220 209
-3.592925e-001 -7.654935e-003 -7.381703e+000 224 227 220
-4.172159e-001 -7.996225e-001 -6.826566e+000 131 123 115
-1.196350e+000 5.189150e+000 -9.686101e+000 60 61 66
-9.935762e-001 2.087877e+000 -8.804477e+000 203 108 104
-1.059941e+000 2.157356e+000 -8.865108e+000 187 68 70
-1.455031e+000 3.847479e+000 -9.989040e+000 66 67 72
-5.429373e-001 -1.977854e+000 -8.042258e+000 152 144 129
2.364473e-001 -3.613458e+000 -8.014596e+000 45 40 46
2.820355e-001 -3.811692e+000 -7.969030e+000 55 53 58
3.911378e-001 -4.567412e+000 -7.793897e+000 72 68 74
9.786472e-002 -3.853912e+000 -8.034413e+000 97 92 98
1.746557e-001 -3.942960e+000 -8.187019e+000 93 91 96
8.431442e-002 -3.989930e+000 -7.998616e+000 93 91 96
2.028995e-001 -4.283138e+000 -7.991971e+000 47 45 50
-8.475380e-001 -1.822517e+000 -8.159395e+000 131 125 112
-7.300322e-001 -2.371327e+000 -8.311529e+000 229 227 212
1.795714e-001 -4.940142e+000 -7.768920e+000 64 63 70
7.231212e-002 -4.812627e+000 -7.881925e+000 94 91 98
-2.281383e+000 2.345081e+000 -1.039082e+001 82 83 88
-2.235665e+000 2.184863e+000 -1.038387e+001 104 105 110
-2.306739e+000 2.190428e+000 -1.030553e+001 53 54 59
-2.332923e+000 2.211315e+000 -1.042530e+001 96 97 102
-2.408280e+000 1.632338e+000 -1.060652e+001 74 75 79
-2.501414e-001 -4.770706e+000 -8.071716e+000 72 71 76
-2.667132e+000 1.829813e+000 -1.057335e+001 65 64 69
-5.083130e-001 -4.531834e+000 -8.288636e+000 67 62 69
-1.053881e+000 -3.939867e+000 -8.809654e+000 39 32 39
3.561275e+000 -2.749006e+000 -5.420990e+000 45 44 50
3.406917e+000 -2.836856e+000 -5.426652e+000 132 131 137
3.288011e+000 -3.628282e+000 -5.391893e+000 55 54 60
3.326295e+000 3.421026e+000 -5.869479e+000 83 69 72
3.104927e+000 -3.350024e+000 -5.632127e+000 120 117 124
3.242366e+000 -3.449364e+000 -5.563366e+000 50 49 55
3.037542e+000 -3.871486e+000 -5.520139e+000 44 41 48
2.932683e+000 -1.590981e+000 -5.691710e+000 55 56 61
3.100620e+000 -1.703357e+000 -5.860110e+000 42 44 48
2.695156e+000 4.085027e+000 -6.207178e+000 84 52 64
2.709393e+000 -1.280646e+000 -5.895897e+000 52 51 56
2.791872e+000 -1.380379e+000 -6.028443e+000 46 47 52
2.932467e+000 -1.457380e+000 -5.918883e+000 53 54 59
2.934220e+000 -1.859813e+000 -5.897227e+000 59 60 65
2.887142e+000 -3.810125e+000 -5.748889e+000 38 35 42
2.880672e+000 -3.923246e+000 -5.741630e+000 31 28 35
2.497087e+000 -1.808006e+000 -6.015324e+000 61 64 69
2.496805e+000 -1.938789e+000 -5.979605e+000 53 56 61
2.826931e+000 -1.953348e+000 -6.053970e+000 64 67 74
2.384790e+000 -2.104680e+000 -6.105353e+000 45 48 55
1.534133e+000 -9.355943e-001 -5.876569e+000 218 188 144
2.301070e+000 -2.658665e+000 -6.101417e+000 132 137 143
2.357815e+000 -2.708546e+000 -6.206995e+000 52 55 62
2.392176e+000 -2.752161e+000 -6.282588e+000 45 48 55
2.218257e+000 -2.807875e+000 -6.182608e+000 96 99 106
2.038988e+000 -2.761385e+000 -6.357067e+000 36 39 44
2.043950e+000 -2.758309e+000 -6.362959e+000 36 39 44
2.224928e+000 -2.956214e+000 -6.241620e+000 38 41 46
2.145970e+000 -2.894683e+000 -6.289820e+000 41 44 49
2.154951e+000 -3.123424e+000 -6.301411e+000 34 35 40
2.135197e+000 -3.132410e+000 -6.352429e+000 65 66 71
-6.062366e-001 -1.249488e+000 -4.303866e+000 140 60 33
2.033443e+000 -2.622631e+000 -6.600614e+000 36 37 41
2.023110e+000 -2.734152e+000 -6.392212e+000 83 86 91
2.028190e+000 -2.732541e+000 -6.397911e+000 83 86 91
2.022802e+000 -2.863841e+000 -6.403967e+000 79 79 85
1.969787e+000 -3.001602e+000 -6.461755e+000 34 35 40
1.974783e+000 -3.354783e+000 -6.402945e+000 29 30 35
1.836174e+000 -2.766880e+000 -6.524490e+000 33 37 40
1.856161e+000 -2.887516e+000 -6.536716e+000 31 32 36
1.863269e+000 -2.886057e+000 -6.544260e+000 31 32 36
1.905724e+000 -2.973303e+000 -6.506465e+000 32 33 37
1.836474e+000 -3.099290e+000 -6.562434e+000 56 57 61
1.771392e+000 -3.833860e+000 -6.654386e+000 33 31 36
1.487974e+000 -2.982490e+000 -6.861031e+000 55 56 60
9.787277e-001 -1.916233e+000 -6.773559e+000 91 79 67
1.389012e+000 -3.134332e+000 -6.973891e+000 48 47 52
-3.663848e-001 7.091432e+000 -8.989965e+000 34 32 35
-4.579069e-001 6.877895e+000 -8.931880e+000 111 112 118
-7.541701e-002 5.811655e+000 -9.020148e+000 104 103 108
-6.028492e-001 -9.144348e-001 -6.139239e+000 79 60 53
-1.053842e-001 4.808134e+000 -9.370414e+000 49 47 48
1.072560e-002 4.711828e+000 -9.485854e+000 81 75 79
-1.168289e-002 4.338353e+000 -9.181210e+000 72 25 24
-4.101368e-001 -1.061501e+000 -6.676410e+000 97 84 75
-3.987766e-001 -1.088281e+000 -6.722338e+000 83 73 63
1.100496e+000 -4.722916e+000 -7.212676e+000 28 27 33
-7.823219e-002 -1.873049e+000 -7.277836e+000 127 119 108
-1.369648e+000 4.272679e+000 -9.898755e+000 54 55 60
-9.694705e-001 1.775108e+000 -8.810413e+000 136 120 103
6.117693e-001 -3.989204e+000 -7.883445e+000 27 22 28
-1.291695e+000 2.756657e+000 -9.650026e+000 68 41 48
4.356421e-001 -4.116614e+000 -7.882238e+000 39 37 42
4.356421e-001 -4.116614e+000 -7.882238e+000 39 37 42
1.802544e-001 -3.849566e+000 -7.996168e+000 38 35 42
1.802544e-001 -3.849566e+000 -7.996168e+000 38 35 42
8.467348e-002 -3.824033e+000 -7.970828e+000 45 43 48
6.114445e-002 -3.968847e+000 -8.031851e+000 42 40 45
6.114445e-002 -3.968847e+000 -8.031851e+000 42 40 45
-2.039259e+000 3.074310e+000 -1.026608e+001 75 76 81
-1.667814e+000 1.550278e+000 -9.629464e+000 73 37 36
4.421742e-002 -4.156193e+000 -7.992329e+000 95 92 100
4.421742e-002 -4.156193e+000 -7.992329e+000 95 92 100
-2.884405e-002 -4.769869e+000 -7.970163e+000 51 49 56
1.308308e-001 -5.018447e+000 -7.839920e+000 84 81 88
-2.295673e+000 2.467541e+000 -1.033236e+001 50 51 56
-1.570120e-001 -4.757274e+000 -8.022993e+000 115 114 120
-4.689678e-002 -4.809549e+000 -8.183242e+000 39 38 44
-1.465606e-001 -4.817059e+000 -8.063292e+000 105 104 110
-4.033766e-001 -4.703575e+000 -8.122440e+000 37 34 41
-4.754143e-001 -4.781416e+000 -8.146330e+000 73 70 77
-4.754143e-001 -4.781416e+000 -8.146330e+000 73 70 77
-4.882830e-001 -4.966092e+000 -8.188844e+000 32 29 38
-6.410357e-001 -4.805266e+000 -8.241603e+000 35 30 37
-6.410357e-001 -4.805266e+000 -8.241603e+000 35 30 37
-7.345049e-001 -5.013526e+000 -8.256250e+000 79 74 81
3.136834e+000 -2.489206e+000 -5.399869e+000 36 33 40
3.383847e+000 -2.512272e+000 -5.643044e+000 32 29 34
3.062162e+000 -3.109171e+000 -5.399630e+000 48 49 54
3.365251e+000 -3.330302e+000 -5.456174e+000 37 36 41
3.367506e+000 -3.647166e+000 -5.469713e+000 120 119 125
3.367506e+000 -3.647166e+000 -5.469713e+000 120 119 125
3.327808e+000 -3.764426e+000 -5.383523e+000 40 41 46
3.327808e+000 -3.764426e+000 -5.383523e+000 40 41 46
3.256154e+000 -2.808437e+000 -5.592168e+000 33 32 38
3.256154e+000 -2.808437e+000 -5.592168e+000 33 32 38
2.989391e+000 -3.278258e+000 -5.420457e+000 44 45 50
3.232668e+000 -3.627095e+000 -5.621619e+000 94 93 99
3.075958e+000 -3.993741e+000 -5.560857e+000 38 36 41
2.671757e+000 2.136937e-001 -5.672404e+000 185 86 91
3.085418e+000 -2.905948e+000 -5.703770e+000 63 62 67
3.042462e+000 -3.439797e+000 -5.711952e+000 85 84 90
3.042462e+000 -3.439797e+000 -5.711952e+000 85 84 90
2.952414e+000 -3.875911e+000 -5.734706e+000 80 79 85
2.674173e+000 -3.566581e+000 -6.017405e+000 25 24 29
2.284077e+000 -2.381731e+000 -6.243857e+000 46 50 57
2.347507e+000 -3.045822e+000 -6.243762e+000 26 25 30
9.737594e-001 -6.061859e-001 -5.570905e+000 142 141 127
2.064861e+000 -2.513674e+000 -6.387772e+000 25 25 29
1.450072e+000 -1.274996e+000 -6.266136e+000 116 95 81
1.968776e+000 -2.731252e+000 -6.414941e+000 35 38 43
2.061593e+000 -2.913710e+000 -6.373226e+000 37 38 43
1.958204e+000 -3.298851e+000 -6.498804e+000 26 25 30
-1.749208e+000 -6.690464e-001 -3.998680e+000 94 46 29
1.623416e+000 -3.015420e+000 -6.807763e+000 65 64 69
-1.862220e-001 6.446954e+000 -9.012687e+000 31 29 31
-9.180623e-002 -1.265187e+000 -6.096353e+000 84 70 62
-3.505065e-001 6.751221e+000 -9.055302e+000 107 109 114
-3.962366e-002 4.479242e+000 -9.443455e+000 65 47 47
-3.844098e-001 -8.902934e-002 -7.108896e+000 138 136 131
1.208966e+000 -4.493700e+000 -7.215440e+000 40 41 46
-8.488870e-001 5.211909e+000 -9.309004e+000 92 94 101
-8.314580e-001 5.302277e+000 -9.376744e+000 92 94 101
-8.061007e-001 5.216819e+000 -9.440588e+000 34 33 38
-3.519638e-001 -8.637324e-001 -7.163292e+000 130 126 119
-3.188384e-001 -7.739602e-001 -7.585166e+000 218 221 214
5.911772e-001 -3.981141e+000 -7.967080e+000 59 57 62
6.245165e-001 -4.123681e+000 -7.793939e+000 45 44 49
2.085354e-001 -3.711030e+000 -8.053236e+000 62 60 65
3.918421e-001 -4.389885e+000 -8.032954e+000 38 36 41
1.243453e-001 -4.219033e+000 -8.019303e+000 37 36 41
1.420945e-001 -4.321837e+000 -7.955449e+000 37 32 38
-9.460733e-003 -4.928087e+000 -7.929943e+000 105 104 110
-1.802553e+000 6.164465e-002 -9.519757e+000 200 185 172
-8.111809e-002 -4.849987e+000 -7.995287e+000 121 120 126
-2.384361e-001 -4.920220e+000 -7.935563e+000 35 34 40
-3.109517e-001 -4.916406e+000 -8.168516e+000 35 32 41
-4.740970e-001 -4.569247e+000 -8.328061e+000 39 34 41
-5.963787e-001 -5.059390e+000 -8.200142e+000 35 34 40
3.308134e+000 -3.727690e+000 -5.466623e+000 38 38 44
3.397893e+000 -3.938692e+000 -5.437941e+000 38 37 43
2.994011e+000 -3.740378e+000 -5.667113e+000 38 37 43
3.056965e+000 -3.843551e+000 -5.623280e+000 35 34 40
2.883188e+000 -3.912012e+000 -5.608219e+000 34 33 39
2.979293e+000 -4.145588e+000 -5.563579e+000 34 33 39
3.023327e+000 -4.137666e+000 -5.594242e+000 34 33 39
2.927994e+000 -3.660489e+000 -5.770178e+000 34 32 39
2.110086e+000 -1.329374e+000 -5.899801e+000 202 149 119
1.700308e+000 -1.239004e+000 -5.989728e+000 198 161 123
1.004318e+000 -6.532202e-001 -5.612819e+000 169 162 149
2.194489e+000 -3.039559e+000 -6.252276e+000 71 74 79
-2.623649e-004 -1.485512e+000 -4.823187e+000 154 92 59
1.883362e-001 -1.419860e+000 -5.116183e+000 104 96 84
1.438519e+000 -2.014171e+000 -6.245390e+000 159 160 148
-2.008686e+000 -3.892220e-001 -3.704992e+000 59 38 17
-6.704700e-001 5.497358e+000 -9.322995e+000 35 37 37
-5.883923e-001 1.214828e+000 -8.606931e+000 219 221 208
-1.321765e+000 1.456861e+000 -8.918301e+000 194 72 75
-2.074770e+000 1.974047e+000 -1.041602e+001 29 27 32
-2.131303e+000 1.903485e+000 -1.054647e+001 32 30 35
-8.476256e-001 -2.993139e+000 -8.359924e+000 170 162 153
-1.138489e+000 -2.485072e+000 -8.827966e+000 169 160 147
-1.138489e+000 -2.485072e+000 -8.827966e+000 169 160 147
-1.939245e-001 -4.845927e+000 -8.304796e+000 36 35 41
-2.884007e-001 -4.874198e+000 -8.080374e+000 36 35 41
-6.798718e-001 -4.556365e+000 -8.466708e+000 37 32 38
-6.798718e-001 -4.556365e+000 -8.466708e+000 37 32 38
-5.714624e-001 -4.893190e+000 -8.181476e+000 34 32 38
3.290054e+000 -3.934716e+000 -5.538344e+000 38 36 42
2.896985e+000 2.579314e+000 -5.435062e+000 193 82 81
3.367742e+000 3.036031e+000 -5.822698e+000 24 16 22
3.000174e+000 -2.792686e-001 -5.620316e+000 200 185 128
3.208899e+000 -4.013417e+000 -5.614142e+000 36 33 40
2.767594e+000 5.155387e-001 -5.788850e+000 177 64 58
3.031390e+000 -3.524726e+000 -5.728085e+000 33 32 38
2.955235e+000 -4.022945e+000 -5.606531e+000 33 32 38
2.420486e+000 -2.565694e-001 -5.678165e+000 183 176 121
2.671048e+000 -4.161452e+000 -5.859202e+000 27 24 31
1.699720e+000 -1.348654e+000 -6.109804e+000 209 180 132
3.852130e-002 -1.489238e+000 -4.971404e+000 93 83 72
-6.674090e-002 4.880414e+000 -9.542485e+000 59 57 58
-1.108390e-001 4.736544e+000 -9.423262e+000 59 57 58
-6.583220e-001 2.313803e+000 -8.728121e+000 175 67 64
-4.981962e-001 -1.774308e+000 -7.673133e+000 215 215 205
-9.734629e-001 7.114913e-002 -8.425822e+000 231 233 222
3.431258e+000 -3.860246e+000 -5.426056e+000 58 57 63
2.823689e+000 -6.286250e-002 -5.524703e+000 190 177 122
-5.594096e-001 -1.366693e+000 -4.373629e+000 178 108 71
1.146935e+000 -1.019553e+000 -6.012212e+000 88 74 65
-4.832972e-001 2.603238e+000 -8.338392e+000 209 203 191
7.038204e-001 -3.025784e+000 -7.420980e+000 15 12 19
-1.032507e+000 1.628007e+000 -9.073615e+000 214 215 198
2.859700e+000 7.654725e-001 -5.785000e+000 30 26 30
-3.826925e-001 -1.228921e+000 -4.439538e+000 137 76 42
-2.902542e-001 5.646677e+000 -9.046343e+000 25 21 25
-1.146703e+000 5.378971e+000 -9.678482e+000 93 94 99
-7.281038e-001 2.036430e+000 -8.756091e+000 226 225 216
-7.457169e-001 -4.562216e-001 -8.333102e+000 183 183 171
-1.079969e+000 6.696622e-002 -8.798307e+000 238 239 231
-9.685999e-001 -2.721745e+000 -8.395326e+000 195 191 182
-1.991967e-001 -9.052124e-001 -4.337357e+000 144 78 44
-6.453972e-001 1.391424e+000 -8.528631e+000 94 81 65
-6.449045e-001 1.394049e+000 -8.529556e+000 94 81 65
-1.515529e+000 -7.061202e-001 -3.663129e+000 53 16 12
-8.721017e-001 5.107864e+000 -9.689047e+000 33 32 37
-6.411992e-001 2.560808e+000 -8.679998e+000 140 44 42
3.178974e-001 -2.814301e+000 -7.421275e+000 75 33 35
-1.139810e+000 4.810930e+000 -1.000789e+001 99 100 105
-2.451790e+000 1.463044e+000 -1.022666e+001 58 57 62
-1.362658e+000 -3.282994e+000 -8.595975e+000 186 71 76
1.386888e-001 -1.213437e+000 -4.699443e+000 96 82 75
-1.431007e+000 5.921913e+000 -9.306677e+000 59 58 63
-3.623949e-001 -2.659985e+000 -8.088301e+000 219 221 210
-1.288046e+000 -1.707137e-001 -8.954139e+000 156 150 139
-7.601056e-001 -2.722022e+000 -8.233114e+000 246 247 239
-9.346992e-001 -3.623180e+000 -8.605457e+000 179 59 61
7.038554e-001 -1.334835e+000 -6.293740e+000 111 102 87
1.488051e+000 -4.611946e+000 -7.424788e+000 91 91 99
-5.101708e-001 -2.979105e+000 -8.089344e+000 211 211 199
3.342021e+000 3.595165e+000 -5.989656e+000 81 72 80
3.291889e+000 -3.160690e+000 -5.253221e+000 55 54 60
3.150119e+000 -1.324602e+000 -5.581023e+000 96 97 102
3.129835e+000 -3.117341e+000 -5.384871e+000 143 144 149
2.411341e+000 2.235220e+000 -5.585000e+000 180 87 87
2.997126e+000 -1.610507e+000 -5.663285e+000 49 49 54
2.771291e+000 -2.189014e+000 -5.885968e+000 38 37 43
2.777635e+000 -3.295096e+000 -5.731403e+000 63 62 68
2.726684e+000 -3.315816e+000 -5.690546e+000 63 62 68
2.850359e+000 -3.851644e+000 -5.569738e+000 92 91 97
2.850359e+000 -3.851644e+000 -5.569738e+000 92 91 97
2.648805e+000 -3.603782e+000 -5.801174e+000 75 73 79
2.648805e+000 -3.603782e+000 -5.801174e+000 75 73 79
5.200947e-002 -8.449053e-001 -4.491618e+000 177 128 83
2.561509e+000 -3.644669e+000 -5.908541e+000 28 26 31
1.382944e+000 -1.074360e+000 -5.805045e+000 140 115 86
2.226917e+000 -2.720200e+000 -6.176270e+000 44 45 50
2.362737e+000 -2.743659e+000 -6.122469e+000 50 53 58
-1.394299e+000 -7.745017e-001 -3.599574e+000 121 56 38
-1.387006e+000 -8.990620e-001 -3.544782e+000 117 49 33
2.054317e+000 -2.813591e+000 -6.352274e+000 45 45 50
2.029528e+000 -3.135065e+000 -6.364705e+000 91 90 95
1.894972e+000 -2.889385e+000 -6.504052e+000 72 71 76
1.873398e+000 -2.974194e+000 -6.541770e+000 62 61 66
9.888784e-001 -3.016452e+000 -7.215027e+000 42 37 43
-5.256321e-001 -2.282160e-001 -7.395638e+000 216 216 207
1.133379e+000 -4.410538e+000 -7.346048e+000 31 27 32
-9.464049e-001 5.625880e-001 -8.908226e+000 202 205 194
-7.666720e-001 -7.259148e-001 -8.157204e+000 192 193 184
4.580200e-001 -3.785673e+000 -7.867197e+000 44 39 45
-2.058049e+000 2.717815e+000 -1.027228e+001 70 70 78
-2.041954e+000 2.632461e+000 -1.026346e+001 102 102 110
2.933414e-001 -3.914154e+000 -7.997340e+000 90 89 95
2.479557e-001 -4.205639e+000 -7.992100e+000 46 45 51
-2.285390e+000 2.329259e+000 -1.036945e+001 84 85 90
2.922990e-001 -4.410561e+000 -7.947297e+000 106 102 109
-2.511872e+000 2.193989e+000 -1.049932e+001 52 51 56
-2.558990e+000 2.016579e+000 -1.050717e+001 66 65 70
1.663826e-001 -4.930360e+000 -7.956433e+000 45 43 52
-6.043561e-001 -3.465708e+000 -8.170271e+000 185 176 167
-3.031867e-001 -4.724951e+000 -8.227335e+000 44 40 45
-5.067586e-001 -4.803752e+000 -8.283229e+000 47 42 49
3.285320e+000 -3.093594e+000 -5.276580e+000 50 49 55
3.194494e+000 -3.441058e+000 -5.310283e+000 131 130 138
3.190946e+000 -3.342522e+000 -5.342708e+000 122 121 129
3.133597e+000 -3.440524e+000 -5.325372e+000 45 44 52
3.235609e+000 -3.564718e+000 -5.284927e+000 49 48 56
2.850570e+000 -3.146463e-001 -5.626343e+000 219 207 152
2.952953e+000 -1.638135e+000 -5.510184e+000 37 36 42
3.118837e+000 -2.971651e+000 -5.448867e+000 46 45 50
2.630657e+000 7.181559e-002 -5.730916e+000 167 109 86
2.903481e+000 -1.908516e+000 -5.732081e+000 39 40 45
2.647205e+000 -2.107657e+000 -5.856827e+000 147 150 155
2.692293e+000 -3.348163e+000 -5.822625e+000 27 26 32
2.408177e+000 -2.512942e+000 -6.022150e+000 56 59 64
-1.635123e+000 -6.661285e-001 -3.538890e+000 98 54 52
2.126293e+000 -3.136750e+000 -6.276224e+000 40 39 44
1.911981e+000 -2.901021e+000 -6.462260e+000 33 32 37
2.065773e+000 -3.123941e+000 -6.344219e+000 40 39 44
1.949764e+000 -3.168100e+000 -6.430014e+000 34 33 38
2.144685e+000 -3.787860e+000 -6.512010e+000 27 25 30
1.022387e+000 -1.852045e+000 -6.705562e+000 104 96 83
1.411872e+000 -3.305908e+000 -6.912289e+000 26 25 30
-4.856601e-001 5.276668e+000 -9.318044e+000 79 78 83
-1.545217e-001 4.922757e+000 -9.463609e+000 30 28 29
-1.319644e+000 2.035134e+000 -8.841565e+000 72 57 54
-5.707623e-001 -1.540343e+000 -7.728083e+000 182 183 175
4.664949e-001 -3.676092e+000 -7.879797e+000 44 39 44
8.510276e-001 -4.502853e+000 -7.718676e+000 47 45 50
-2.156304e+000 2.439585e+000 -1.030449e+001 60 61 66
3.460670e-001 -3.969878e+000 -8.062198e+000 38 37 42
-1.266686e+000 -4.422841e-001 -9.178849e+000 190 191 183
4.551919e-001 -4.981359e+000 -7.827026e+000 45 44 51
1.816890e-001 -4.907229e+000 -7.917903e+000 42 41 49
2.641374e-001 -4.953679e+000 -7.860761e+000 118 117 125
-8.046923e-002 -4.883337e+000 -8.050893e+000 34 32 38
-5.009757e-001 -4.487931e+000 -8.401054e+000 39 34 40
-5.009757e-001 -4.487931e+000 -8.401054e+000 39 34 40
-4.521133e-001 -4.742476e+000 -8.285583e+000 40 35 42
-1.256393e+000 -3.438545e+000 -8.707094e+000 138 43 48
-8.916315e-001 -4.178524e+000 -8.710880e+000 38 31 38
-9.426841e-001 -4.117534e+000 -8.794552e+000 40 33 40
3.318080e+000 -3.005786e+000 -5.256204e+000 48 48 56
3.163794e+000 -2.864156e+000 -5.447371e+000 38 37 43
3.195912e+000 -3.015956e+000 -5.361360e+000 137 138 143
3.195912e+000 -3.015956e+000 -5.361360e+000 137 138 143
3.227609e+000 -3.163958e+000 -5.284875e+000 50 49 57
3.108058e+000 -3.609584e+000 -5.320594e+000 38 36 47
3.025478e+000 -3.284334e+000 -5.423654e+000 44 43 49
2.732283e+000 -3.470407e+000 -5.789771e+000 31 30 36
2.605652e+000 -3.609767e+000 -5.830172e+000 33 30 37
2.622266e+000 -3.710776e+000 -5.857773e+000 31 29 34
2.622266e+000 -3.710776e+000 -5.857773e+000 31 29 34
2.577175e+000 -3.842085e+000 -5.865738e+000 29 27 32
2.283608e+000 -2.628640e+000 -6.148301e+000 40 41 46
2.164140e+000 -3.826774e+000 -6.491650e+000 59 57 62
1.763213e+000 -3.328097e+000 -6.604425e+000 26 24 29
1.544021e+000 -3.047054e+000 -6.803469e+000 30 29 34
1.658376e+000 -3.367311e+000 -6.718354e+000 48 46 51
1.658376e+000 -3.367311e+000 -6.718354e+000 48 46 51
1.805818e+000 -3.821747e+000 -6.616413e+000 22 20 25
1.518658e-001 -4.884114e+000 -7.953763e+000 139 139 147
-5.789450e-001 -4.574822e+000 -8.385323e+000 41 36 42
-4.433425e-001 -4.864896e+000 -8.289472e+000 36 31 37
3.277730e+000 -3.079146e+000 -5.338510e+000 129 128 137
3.279283e+000 -3.593144e+000 -5.351598e+000 120 119 127
3.279283e+000 -3.593144e+000 -5.351598e+000 120 119 127
2.718736e+000 3.885784e+000 -6.142244e+000 204 79 87
2.932533e+000 -2.874813e+000 -5.592235e+000 36 33 40
1.433711e+000 -1.013217e+000 -6.117004e+000 98 67 49
-7.268903e-001 -4.952939e-001 -6.242599e+000 203 203 187
-8.711929e-001 -2.122682e+000 -8.481764e+000 190 190 177
-2.130731e+000 5.859346e-001 -9.985667e+000 50 35 36
-2.497984e-001 -4.469656e+000 -8.005108e+000 22 14 20
-4.819045e-001 -4.655873e+000 -8.366908e+000 38 33 39
-4.372520e-001 -2.273330e-001 -7.452944e+000 134 129 118
-7.673525e-001 -8.596586e-001 -7.976146e+000 238 240 235
-4.658061e-001 2.619902e+000 -8.348440e+000 201 204 199
1.241935e+000 -2.490367e+000 -6.618393e+000 191 191 183
1.241935e+000 -2.490367e+000 -6.618393e+000 191 191 183
-1.209178e-002 -3.608645e+000 -7.552242e+000 25 20 24
7.908907e-001 -3.271327e+000 -7.368971e+000 26 21 25
6.622834e-001 -1.615384e+000 -5.395661e+000 37 27 27
1.347816e+000 4.102230e+000 -6.744454e+000 46 34 33
3.683874e+000 3.476783e+000 -5.421447e+000 67 67 75
2.386062e+000 -2.571148e+000 -6.026429e+000 134 139 145
2.198189e+000 -2.692214e+000 -6.168975e+000 90 95 101
1.923340e+000 -2.783438e+000 -6.489484e+000 78 78 83
-5.247459e-001 7.013119e+000 -8.892651e+000 70 68 73
-1.608036e-001 5.795190e+000 -8.911993e+000 101 101 105
-1.041150e+000 5.292739e+000 -9.475742e+000 95 96 101
-2.988966e-001 -1.268548e+000 -7.194651e+000 123 114 98
-6.265223e-001 -1.725052e+000 -7.792163e+000 194 192 179
4.815706e-001 -3.922783e+000 -8.032094e+000 61 59 64
-1.717900e+000 3.244355e+000 -1.006748e+001 59 60 65
-1.083326e+000 -4.988656e-001 -8.849556e+000 205 205 195
-1.016339e+000 -1.730781e+000 -8.241599e+000 127 118 106
1.922608e-001 -4.359152e+000 -8.073503e+000 47 42 48
-1.843580e-001 -4.488868e+000 -7.896554e+000 19 13 18
9.830362e-002 -4.812143e+000 -8.083794e+000 75 72 79
-1.548805e+000 -1.554039e+000 -8.579227e+000 203 203 193
-7.157004e-001 -4.810076e+000 -8.554885e+000 54 49 55
-7.157004e-001 -4.810076e+000 -8.554885e+000 54 49 55
3.703940e+000 3.364208e+000 -5.427699e+000 63 66 73
3.479166e+000 3.008418e+000 -5.687425e+000 70 73 76
3.394099e+000 3.021806e+000 -5.705900e+000 128 126 131
3.567467e+000 2.708186e+000 -5.696674e+000 105 106 111
2.677167e+000 -3.345954e+000 -5.800752e+000 27 25 30
-3.811773e-001 6.579553e+000 -8.804722e+000 33 31 34
-1.167616e-001 5.181837e+000 -9.164829e+000 43 38 42
-1.338789e-002 2.957397e+000 -8.170299e+000 220 208 191
-5.268538e-001 2.458215e+000 -8.490951e+000 183 174 155
-5.147376e-001 -8.618520e-001 -7.834257e+000 214 217 208
2.950467e-001 -4.084491e+000 -8.106639e+000 113 111 116
-2.384482e+000 2.626597e+000 -1.051841e+001 44 44 50
-8.673414e-002 -4.799895e+000 -8.209768e+000 105 104 110
-1.919423e-001 -4.807226e+000 -8.236318e+000 37 36 43
3.116630e+000 -3.044550e+000 -5.301766e+000 138 137 143
2.815220e+000 -3.010445e+000 -5.730295e+000 27 26 31
-7.040773e-001 -1.469645e+000 -4.477876e+000 71 25 12
-3.979506e-001 -8.905629e-001 -7.405760e+000 218 221 214
-7.246913e-001 3.242128e+000 -9.398693e+000 65 45 51
-5.818609e-001 6.728055e-001 -8.471753e+000 201 203 192
-5.242383e-001 -4.817271e+000 -8.460386e+000 77 71 81
3.189883e+000 5.631658e-003 -5.300137e+000 181 166 111
-3.093957e-001 5.981295e+000 -9.012979e+000 26 21 25
-6.167956e-001 5.134404e+000 -9.356608e+000 29 26 30
-1.418361e+000 -2.606596e+000 -9.078709e+000 153 46 47
-1.214874e+000 -1.036854e+000 -3.595612e+000 175 105 73
1.344470e+000 -2.061509e+000 -6.410062e+000 193 194 182
-5.141231e-001 6.474281e+000 -8.985413e+000 35 33 38
-6.592433e-001 2.772383e-001 -8.530758e+000 213 215 204
-1.584064e+000 -9.417687e-001 -3.684618e+000 89 32 18
2.278849e+000 -2.228573e+000 -6.166249e+000 57 60 66
-6.366587e-001 -1.657247e+000 -4.727083e+000 141 81 49
-2.567931e-001 5.384148e+000 -9.250273e+000 55 56 60
-4.658039e-001 3.474420e+000 -8.829004e+000 42 43 42
-1.356843e+000 4.124049e+000 -1.026963e+001 86 89 94
-1.399246e+000 -3.922188e-001 -9.240421e+000 222 222 211
1.908241e+000 -2.506687e+000 -6.245010e+000 19 17 22
3.644574e-001 -1.228898e+000 -6.409730e+000 24 17 16
5.470372e-001 -4.315951e+000 -7.970889e+000 39 37 42
3.065526e-001 -3.975954e+000 -8.085941e+000 96 95 100
2.133520e-001 -4.092443e+000 -8.118310e+000 87 87 92
-1.202446e-001 -4.660571e+000 -8.322069e+000 48 47 52
-9.829467e-001 5.112315e+000 -9.439153e+000 40 42 45
6.384030e-001 -4.631979e+000 -7.900443e+000 37 34 43
3.629758e-001 -3.847933e+000 -8.072049e+000 34 33 39
-1.624196e+000 -2.398158e+000 -9.379949e+000 156 51 51
2.068924e+000 -2.501020e+000 -6.404280e+000 23 23 28
-6.731985e-001 -1.484901e+000 -4.523649e+000 78 32 17
-2.194302e-001 -1.962562e+000 -7.425600e+000 122 114 101
4.391874e+000 1.842712e+000 -4.893512e+000 33 32 36
3.612703e+000 -1.602553e+000 -5.081694e+000 37 39 43
4.003118e+000 2.366167e+000 -5.095390e+000 38 35 42
3.298422e+000 -2.194956e+000 -5.182523e+000 45 46 50
3.298422e+000 -2.194956e+000 -5.182523e+000 45 46 50
3.245644e+000 -2.301147e+000 -5.171933e+000 52 53 57
3.224248e+000 -2.442746e+000 -5.209688e+000 43 45 49
3.254160e+000 -2.506898e+000 -5.160368e+000 58 58 63
3.940600e+000 2.450654e+000 -5.237671e+000 74 75 80
3.841353e+000 2.759418e+000 -5.240025e+000 61 64 69
3.979675e+000 2.426851e+000 -5.194672e+000 46 45 51
4.010696e+000 2.068244e+000 -5.240403e+000 40 39 44
4.023666e+000 2.174297e+000 -5.341111e+000 47 48 53
3.167538e+000 -2.281540e+000 -5.389834e+000 37 36 42
2.961865e+000 -3.270888e+000 -5.356901e+000 134 135 140
2.908761e+000 -3.940603e+000 -5.540252e+000 124 124 131
2.895165e+000 -1.565499e+000 -5.654694e+000 109 110 115
2.895165e+000 -1.565499e+000 -5.654694e+000 109 110 115
2.772467e+000 -3.060088e+000 -5.648931e+000 72 71 76
2.448814e+000 -4.485576e+000 -5.924849e+000 30 27 34
2.408653e+000 -2.268499e+000 -6.000698e+000 66 69 74
1.939442e+000 -2.810661e+000 -6.453593e+000 34 37 42
1.849496e+000 -2.656812e+000 -6.550088e+000 33 36 41
1.907731e+000 -3.469714e+000 -6.540569e+000 36 35 41
1.777524e+000 -2.747049e+000 -6.591499e+000 47 51 54
1.786358e+000 -3.187360e+000 -6.624168e+000 32 33 38
1.710203e+000 -3.164740e+000 -6.645632e+000 36 35 40
1.154996e+000 -4.669800e+000 -7.376874e+000 78 73 80
-3.231255e-001 5.332508e+000 -9.119113e+000 77 78 82
3.075499e-001 -2.471987e+000 -7.468459e+000 104 83 79
-5.180286e-001 3.019556e+000 -8.595992e+000 187 74 77
-3.187525e-001 -1.416350e+000 -7.077338e+000 123 115 100
7.600570e-001 -3.964662e+000 -7.891489e+000 43 41 46
7.123675e-001 -3.957704e+000 -7.916511e+000 49 47 52
-4.008464e-001 -1.761448e+000 -7.377618e+000 177 181 175
6.001500e-001 -4.216182e+000 -8.003399e+000 71 68 75
-1.207651e+000 4.775217e+000 -9.471337e+000 64 65 70
3.739575e-001 -3.954779e+000 -8.103060e+000 42 41 47
-7.204556e-001 -1.182128e+000 -7.959152e+000 220 221 215
2.805417e-001 -4.076597e+000 -8.147133e+000 49 48 54
2.512409e-001 -4.225684e+000 -8.152878e+000 102 103 108
1.052579e-001 -4.782510e+000 -8.179595e+000 132 129 136
-8.686551e-002 -4.802189e+000 -8.274068e+000 48 45 52
-1.330914e+000 -1.090721e+000 -8.953385e+000 196 196 186
-1.959391e+000 8.436624e-001 -9.456872e+000 85 47 54
3.521420e+000 -1.759748e+000 -5.020872e+000 41 42 46
4.031945e+000 2.592149e+000 -5.018668e+000 48 49 54
3.399334e+000 -2.046511e+000 -5.121302e+000 45 46 51
3.369054e+000 -2.048008e+000 -5.199143e+000 43 44 48
3.133825e+000 -2.917887e+000 -5.224024e+000 60 60 66
3.902466e+000 3.002732e+000 -5.173072e+000 54 55 60
3.270928e+000 -2.476486e+000 -5.329133e+000 39 40 45
2.918633e+000 -3.250384e+000 -5.468405e+000 50 51 55
3.574672e+000 2.902585e+000 -5.526834e+000 67 67 74
2.868597e+000 -2.816237e+000 -5.611415e+000 35 33 38
2.482135e+000 -4.276167e+000 -5.883269e+000 28 25 32
2.290502e+000 -2.618111e+000 -6.152201e+000 53 56 63
-3.517291e-003 -1.430310e+000 -4.562717e+000 100 91 80
1.745394e+000 -3.546304e+000 -6.664480e+000 25 24 29
1.405210e+000 -3.123782e+000 -6.993694e+000 58 57 62
2.859633e-001 3.842953e+000 -7.798528e+000 152 55 53
-1.321404e-001 5.144556e+000 -9.143651e+000 48 47 50
-6.842195e-001 5.101120e+000 -9.194230e+000 80 81 86
-6.683310e-001 5.160414e+000 -9.237558e+000 80 81 86
-3.507969e-001 -1.409846e+000 -7.265477e+000 186 189 182
4.939955e-001 -3.990687e+000 -8.023245e+000 39 38 43
3.339517e-001 -4.067287e+000 -8.155396e+000 113 112 117
3.372775e-001 -4.066436e+000 -8.160779e+000 113 112 117
4.599208e-001 -4.480223e+000 -8.106298e+000 38 33 39
-1.686398e+000 2.809450e+000 -9.981725e+000 89 92 97
-7.057061e-001 -4.483867e+000 -8.672984e+000 38 33 39
4.166459e+000 2.424705e+000 -5.080299e+000 36 36 42
3.319648e+000 -2.373733e+000 -5.197928e+000 53 54 58
3.168245e+000 -1.236443e-002 -5.292210e+000 188 176 119
3.031307e+000 -2.566436e+000 -5.500133e+000 37 38 42
3.046858e+000 -2.558961e+000 -5.511169e+000 37 38 42
2.929120e+000 -4.068679e+000 -5.519805e+000 104 105 110
2.728493e+000 -4.455825e+000 -5.615678e+000 38 34 41
2.641043e+000 4.194847e-003 -5.707079e+000 244 241 186
2.682546e+000 -3.415064e+000 -5.726676e+000 34 35 40
2.542007e+000 -3.987844e+000 -5.912174e+000 34 31 38
2.311543e+000 -2.848261e+000 -6.094692e+000 45 46 51
2.379815e+000 -3.845533e+000 -6.060079e+000 24 23 29
2.347774e+000 -3.913335e+000 -6.105795e+000 27 26 32
1.962561e+000 -2.142084e+000 -5.895861e+000 72 74 78
1.852740e+000 -1.522745e+000 -6.106664e+000 191 127 114
2.176355e+000 -4.251997e+000 -6.310091e+000 39 37 42
1.721582e+000 -3.336620e+000 -6.711120e+000 28 27 32
1.544222e+000 -3.126568e+000 -6.905951e+000 32 31 36
-1.765093e+000 -7.102469e-001 -3.982245e+000 100 54 36
3.153093e-001 3.902425e+000 -8.055201e+000 182 79 75
-4.446678e-001 -8.517986e-001 -7.806516e+000 235 240 233
6.164432e-001 -3.895767e+000 -8.041351e+000 31 30 35
6.203734e-001 -3.968554e+000 -8.003880e+000 70 69 74
-3.927042e-001 -2.021490e+000 -7.611880e+000 121 114 101
2.949897e-001 -3.737373e+000 -8.116846e+000 42 41 46
-7.913694e-001 -1.289898e+000 -8.045311e+000 206 209 200
-7.913694e-001 -1.289898e+000 -8.045311e+000 206 209 200
2.844208e-001 -4.263488e+000 -8.216300e+000 34 33 38
-6.215099e-001 -2.448152e+000 -8.251530e+000 194 192 177
-6.215099e-001 -2.448152e+000 -8.251530e+000 194 192 177
-7.230124e-001 -2.265112e+000 -8.360029e+000 193 190 173
-9.736321e-002 -4.879119e+000 -8.239082e+000 45 42 51
-2.588456e-001 -4.527951e+000 -8.485519e+000 46 41 48
-1.201523e-001 -4.829058e+000 -8.273351e+000 137 134 141
2.907711e+000 -4.027574e+000 -5.574237e+000 38 37 43
2.755856e+000 -3.213554e+000 -5.737373e+000 35 34 40
2.676839e+000 -4.225528e+000 -5.755822e+000 34 31 38
2.562771e+000 -4.541328e+000 -5.814963e+000 28 25 32
2.528715e+000 -3.510392e+000 -5.947852e+000 29 26 33
2.269190e+000 -4.329204e+000 -6.190705e+000 23 20 27
1.440860e+000 -2.018640e+000 -6.251700e+000 166 164 155
1.786684e+000 -3.228638e+000 -6.644091e+000 32 31 36
-4.343016e-001 -1.012401e+000 -6.620699e+000 78 65 56
-3.871041e-001 -7.423999e-001 -6.994212e+000 115 110 103
2.529031e-001 -2.324111e+000 -7.305297e+000 115 98 90
-5.250629e-001 -3.202909e-001 -7.589173e+000 190 195 189
6.121171e-001 -3.838284e+000 -8.013471e+000 47 46 51
5.926633e-001 -4.018781e+000 -8.053702e+000 44 43 48
3.314903e-002 -3.407292e+000 -7.807032e+000 162 67 72
-1.085741e+000 -5.465847e-001 -8.902275e+000 228 228 216
3.379644e+000 3.594310e-001 -5.167361e+000 145 132 88
2.766499e+000 -4.412273e+000 -5.627812e+000 36 34 40
2.766499e+000 -4.412273e+000 -5.627812e+000 36 34 40
2.651942e+000 -4.499076e+000 -5.701386e+000 29 27 34
1.751754e-001 -1.255209e+000 -4.581394e+000 106 97 88
-9.478784e-001 -1.705614e+000 -8.440264e+000 93 84 69
-8.743709e-001 -2.125042e+000 -8.476602e+000 192 188 175
3.765035e+000 3.375473e-003 -5.158201e+000 27 22 28
1.994697e+000 -1.450711e+000 -6.002619e+000 184 147 104
-1.686667e+000 -1.005813e+000 -3.849408e+000 89 35 18
-1.775880e-001 -3.866923e+000 -7.881830e+000 181 164 155
3.723574e+000 6.141644e-001 -5.047046e+000 48 42 42
1.283146e+000 -1.426642e+000 -6.331330e+000 95 85 73
-7.113468e-002 -1.935980e+000 -7.455273e+000 105 99 87
-8.962342e-002 -3.321364e+000 -7.533003e+000 74 34 34
-8.019460e-001 -1.502950e-001 -8.463839e+000 228 230 219
3.095479e+000 1.196934e-001 -5.330598e+000 174 163 109
-2.031446e-001 2.142340e+000 -8.174075e+000 186 182 170
3.013015e+000 -1.561689e+000 -5.824827e+000 66 67 72
-1.031570e+000 -1.047916e+000 -8.486232e+000 239 240 232
3.319789e+000 3.311638e-002 -5.211885e+000 166 153 102
2.681240e+000 2.652978e-001 -5.453289e+000 46 49 53
2.367961e+000 -4.508916e-001 -5.876705e+000 255 254 222
2.367961e+000 -4.508916e-001 -5.876705e+000 255 254 222
9.463316e-002 -4.499516e+000 -8.150685e+000 29 24 30
-4.868755e-001 -1.129745e+000 -7.924333e+000 229 234 227
-1.212464e+000 -1.083211e+000 -3.515923e+000 120 67 50
-9.155353e-001 -8.479052e-001 -3.700984e+000 55 43 42
-6.016702e-001 -1.430011e+000 -4.324544e+000 186 112 70
-1.287122e+000 -1.101816e+000 -3.494384e+000 47 9 7
-6.637800e-001 -1.494107e+000 -4.451916e+000 104 52 31
-5.156525e-001 -7.861173e-001 -4.205655e+000 97 34 16
-1.707127e+000 -1.112716e+000 -3.456066e+000 32 11 15
-1.276616e+000 -1.113648e+000 -3.691503e+000 83 34 19
-1.599380e+000 -8.653356e-001 -3.625351e+000 46 19 16
3.598974e+000 2.502944e+000 -5.664645e+000 42 41 46
1.732646e+000 -3.552047e+000 -6.712946e+000 39 38 43
4.688595e-001 -4.431644e+000 -8.018629e+000 43 42 48
2.132711e+000 -2.792079e+000 -6.279916e+000 122 125 130
-1.148211e+000 -1.134768e+000 -3.583196e+000 109 50 31
1.387500e+000 -2.113603e+000 -6.352023e+000 171 173 162
-7.491927e-001 -1.426458e+000 -4.432855e+000 67 28 18
-7.707162e-001 1.941338e+000 -8.639596e+000 228 223 216
5.132935e+000 3.046105e+000 -4.139054e+000 90 91 95
5.015334e+000 2.590701e+000 -4.332346e+000 62 61 67
5.071234e+000 2.252860e+000 -4.389237e+000 40 39 44
4.892137e+000 2.127533e+000 -4.429437e+000 75 74 79
5.189233e+000 2.065666e+000 -4.483355e+000 33 32 37
5.160168e+000 1.710963e+000 -4.700492e+000 37 35 40
5.160168e+000 1.710963e+000 -4.700492e+000 37 35 40
4.978107e+000 1.611120e+000 -4.740942e+000 42 41 46
4.836394e+000 9.409195e-001 -4.877033e+000 46 44 47
3.640484e+000 -1.788236e+000 -5.037121e+000 49 48 54
3.583984e+000 -1.963742e+000 -5.108292e+000 53 52 58
3.597289e+000 -1.981661e+000 -5.164721e+000 91 91 97
5.032537e+000 3.551139e+000 -4.229791e+000 73 74 79
4.990402e+000 3.211347e+000 -4.246008e+000 74 77 82
4.996717e+000 2.935342e+000 -4.321512e+000 70 71 75
4.998269e+000 2.812855e+000 -4.413251e+000 66 67 72
4.998269e+000 2.812855e+000 -4.413251e+000 66 67 72
4.898046e+000 2.470762e+000 -4.515061e+000 64 65 70
4.905963e+000 2.632704e+000 -4.513353e+000 57 58 62
4.986204e+000 2.000401e+000 -4.625370e+000 57 56 64
3.713892e+000 -1.438290e+000 -5.315520e+000 35 34 40
3.208854e+000 -2.629021e+000 -5.368390e+000 45 46 49
3.190792e+000 -2.590953e+000 -5.387270e+000 86 87 92
3.042750e+000 -3.152796e+000 -5.518292e+000 109 109 114
2.809294e+000 -3.838863e+000 -5.669885e+000 50 49 55
4.790429e+000 3.651554e+000 -4.343029e+000 61 61 69
4.427617e+000 2.209290e+000 -4.737820e+000 58 59 64
4.474115e+000 2.283002e+000 -4.927214e+000 104 104 109
3.393307e+000 -1.756990e+000 -5.425273e+000 47 46 51
3.118947e+000 -2.349652e+000 -5.576306e+000 37 36 42
2.878512e+000 -2.940149e+000 -5.627525e+000 34 35 40
2.926758e+000 -3.275408e+000 -5.633744e+000 109 110 115
2.777734e+000 -3.430950e+000 -5.685781e+000 45 46 51
2.722345e+000 -3.578284e+000 -5.633407e+000 42 43 48
2.686209e+000 -3.591816e+000 -5.813529e+000 102 103 108
2.678060e+000 -3.788652e+000 -5.789963e+000 45 44 50
2.686347e+000 -4.003162e+000 -5.780811e+000 60 59 65
2.524888e+000 -4.347345e+000 -5.873046e+000 73 72 80
2.599276e+000 -4.234699e+000 -5.893920e+000 88 87 93
4.558739e+000 3.346809e+000 -4.698575e+000 57 58 63
4.288046e+000 3.203267e+000 -4.820141e+000 72 73 78
4.306773e+000 2.760499e+000 -4.989756e+000 74 77 84
2.643549e+000 -3.695377e+000 -5.860697e+000 40 39 45
2.448660e+000 -4.132735e+000 -6.077016e+000 39 38 44
4.237194e+000 3.215563e+000 -4.870058e+000 118 121 128
4.141254e+000 3.153196e+000 -5.059172e+000 81 81 89
4.126169e+000 2.996357e+000 -5.050890e+000 74 74 82
4.111476e+000 3.116885e+000 -5.137014e+000 60 60 68
4.109013e+000 2.147705e+000 -5.479508e+000 38 37 43
3.967626e+000 3.172738e+000 -5.217406e+000 72 72 80
3.967626e+000 3.172738e+000 -5.217406e+000 72 72 80
3.864964e+000 2.899165e+000 -5.462690e+000 65 70 76
3.864964e+000 2.899165e+000 -5.462690e+000 65 70 76
3.958823e+000 2.354166e+000 -5.461485e+000 52 54 59
3.941261e+000 2.358150e+000 -5.540504e+000 48 49 54
2.878776e+000 -7.532520e-001 -5.815034e+000 52 52 54
2.553568e+000 -2.406804e+000 -5.952916e+000 45 48 54
2.192817e+000 -4.093449e+000 -6.315278e+000 46 43 50
2.192817e+000 -4.093449e+000 -6.315278e+000 46 43 50
3.839331e+000 4.019671e+000 -5.270131e+000 62 64 72
3.890183e+000 3.722234e+000 -5.285533e+000 63 66 73
3.775584e+000 3.492887e+000 -5.411370e+000 129 132 139
3.814260e+000 3.231552e+000 -5.413458e+000 128 133 139
3.804374e+000 3.075667e+000 -5.440130e+000 153 158 164
3.792422e+000 3.279809e+000 -5.455461e+000 67 71 78
2.348356e+000 -2.680382e+000 -6.096589e+000 43 49 58
2.314929e+000 -2.778506e+000 -6.132260e+000 100 105 111
2.205173e+000 -2.763805e+000 -6.172032e+000 60 65 71
2.199635e+000 -2.766367e+000 -6.168432e+000 60 65 71
2.223282e+000 -3.011876e+000 -6.135778e+000 33 36 41
2.224590e+000 -3.059236e+000 -6.200724e+000 36 35 41
2.162939e+000 -3.036228e+000 -6.286160e+000 47 56 61
2.049393e+000 -2.982486e+000 -6.343659e+000 70 75 81
2.048709e+000 -3.178365e+000 -6.372765e+000 40 43 48
1.996391e+000 -3.415530e+000 -6.395304e+000 35 36 41
1.967051e+000 -4.020407e+000 -6.625853e+000 37 36 41
1.901754e+000 -1.425075e+000 -5.962745e+000 170 127 82
2.036936e+000 -2.581793e+000 -6.411141e+000 106 109 115
1.951808e+000 -2.680643e+000 -6.449639e+000 158 163 167
1.986837e+000 -2.838607e+000 -6.407841e+000 46 50 55
1.895852e+000 -2.890782e+000 -6.506615e+000 116 120 124
1.864452e+000 -2.984044e+000 -6.535066e+000 99 100 105
1.833624e+000 -2.991960e+000 -6.571734e+000 41 43 48
1.923498e+000 -3.027299e+000 -6.506603e+000 89 92 97
1.910681e+000 -3.142488e+000 -6.476377e+000 50 51 56
1.970437e+000 -3.155239e+000 -6.543837e+000 86 87 92
1.949704e+000 -3.251332e+000 -6.531571e+000 64 67 72
1.925948e+000 -3.305284e+000 -6.525534e+000 35 38 43
1.876142e+000 -2.722833e+000 -6.566774e+000 47 52 58
1.796815e+000 -2.736573e+000 -6.603502e+000 50 53 58
1.822064e+000 -2.848769e+000 -6.601361e+000 44 47 52
1.767652e+000 -2.871838e+000 -6.619516e+000 103 106 111
1.822022e+000 -2.898554e+000 -6.565137e+000 101 104 109
1.665980e+000 -3.111823e+000 -6.750768e+000 36 37 41
1.736943e+000 -3.628008e+000 -6.719295e+000 46 45 50
1.550388e+000 -2.906897e+000 -6.880781e+000 48 51 56
1.609130e+000 -2.976820e+000 -6.770012e+000 43 46 51
1.468245e+000 -3.697440e+000 -7.014655e+000 34 32 37
-1.518517e+000 -8.617630e-001 -3.551931e+000 140 80 63
1.478358e+000 -3.441798e+000 -6.972245e+000 46 45 50
1.455133e+000 -3.355743e+000 -7.054236e+000 45 45 49
8.930292e-001 -9.349359e-001 -6.125092e+000 75 61 54
1.265167e+000 -3.069632e+000 -6.975964e+000 34 35 39
1.233930e+000 -3.439063e+000 -7.163104e+000 40 38 43
1.153055e+000 -4.475953e+000 -7.419850e+000 75 73 78
1.127193e+000 -4.882078e+000 -7.275370e+000 79 78 84
1.152811e+000 -4.843069e+000 -7.367317e+000 40 39 45
1.125599e+000 -4.905563e+000 -7.293943e+000 40 38 44
-1.945952e+000 -5.876034e-001 -3.630457e+000 88 67 43
-2.003652e+000 -4.388703e-001 -3.695069e+000 70 54 32
9.572706e-001 -4.309137e+000 -7.825473e+000 39 37 42
1.376346e+000 6.546697e+000 -7.552413e+000 44 45 49
1.297239e+000 6.635282e+000 -7.442370e+000 58 59 63
6.572307e-001 -4.247739e+000 -7.903806e+000 60 57 64
4.885572e-001 -4.474716e+000 -7.932880e+000 57 56 62
6.714632e-001 6.009639e+000 -7.996910e+000 55 53 58
2.204614e-001 1.852852e+000 -7.552993e+000 204 202 187
-4.138817e-001 -1.030590e+000 -6.755209e+000 87 77 67
-2.374332e-001 -1.082309e+000 -7.274785e+000 123 118 106
4.051150e-001 -3.670732e+000 -8.007080e+000 37 37 40
3.325840e-001 -4.232312e+000 -8.054347e+000 38 37 43
3.461450e-001 -4.387989e+000 -8.055643e+000 76 75 81
3.186167e-001 -4.775910e+000 -8.070570e+000 53 51 57
6.191186e-001 6.517709e+000 -8.285885e+000 54 53 58
6.036948e-001 6.490495e+000 -8.343535e+000 72 70 75
6.531084e-001 5.540702e+000 -8.823792e+000 52 47 53
-4.090666e-001 -1.585869e+000 -7.288358e+000 118 115 98
2.003519e-001 -3.914589e+000 -8.147709e+000 46 44 50
1.531584e-002 -4.883994e+000 -8.077526e+000 60 59 65
-4.179608e-001 -1.194866e-001 -7.601329e+000 197 196 185
-3.579078e-001 -8.137045e-001 -7.803639e+000 209 212 203
-4.417595e-001 -9.581816e-001 -7.763252e+000 219 224 215
-4.417595e-001 -9.581816e-001 -7.763252e+000 219 224 215
-4.316373e-002 -4.676743e+000 -8.148397e+000 41 38 45
-1.219790e-001 5.669114e+000 -8.924516e+000 99 96 103
1.418131e-001 5.575570e+000 -8.888323e+000 54 52 57
-6.176354e-001 7.010919e+000 -8.819786e+000 55 54 59
-3.107468e-001 -4.663925e+000 -8.359579e+000 42 37 46
-7.424244e-001 -4.037974e-001 -8.747372e+000 218 220 209
-8.361454e-001 -1.069022e+000 -8.293654e+000 220 223 216
-9.163635e-001 -1.202321e+000 -8.297459e+000 218 221 214
-9.760377e-001 -1.224178e+000 -8.235930e+000 233 237 230
-5.266674e-001 -4.497404e+000 -8.559728e+000 77 72 78
-4.951612e-001 -4.819716e+000 -8.424818e+000 41 38 47
-9.538788e-001 5.263803e+000 -9.394744e+000 82 81 87
