ply
format ascii 1.0
element face 0
property list uchar int vertex_indices
element vertex 885
property float x
property float y
property float z
property uchar diffuse_red
property uchar diffuse_green
property uchar diffuse_blue
end_header
2.791277e+000 4.024607e-001 -5.866662e+000 58 57 62
-4.383558e-001 -2.919112e-002 -5.127656e+000 211 214 199
-4.383558e-001 -2.919112e-002 -5.127656e+000 211 214 199
-4.546885e-001 -2.705552e-001 -4.581922e+000 213 182 141
-2.868254e-001 -2.156089e-001 -4.638851e+000 204 185 143
1.222129e-002 -2.974810e-001 -4.612088e+000 174 77 69
4.417296e-001 -3.827863e-001 -4.725697e+000 147 149 138
8.229733e-001 -4.958485e-001 -5.578275e+000 111 102 94
2.352437e+000 -7.536684e-001 -5.946326e+000 187 80 77
3.121796e+000 -7.773106e-001 -5.549604e+000 86 85 91
-1.294002e+000 -6.763374e-001 -3.985885e+000 77 33 28
7.791599e-001 -8.775959e-001 -5.701543e+000 89 80 74
1.508795e+000 -1.162924e+000 -6.179266e+000 179 142 108
-1.225688e+000 -9.345912e-001 -4.126236e+000 89 34 22
-4.106242e-002 -1.009835e+000 -4.634374e+000 141 81 51
-8.663825e-001 -9.935891e-001 -3.987972e+000 65 27 14
-7.317003e-002 -1.193625e+000 -4.953680e+000 70 31 29
1.246924e+000 -1.548508e+000 -6.271666e+000 152 142 132
-8.384967e-001 -1.129044e+000 -4.094538e+000 41 32 35
1.253070e+000 -1.835697e+000 -6.346543e+000 189 181 170
2.294595e+000 2.498112e+000 -5.881199e+000 43 31 36
2.555913e+000 2.589120e+000 -6.132729e+000 43 33 42
3.817766e-001 2.982862e+000 -7.566021e+000 187 76 72
-3.859514e-002 3.196187e+000 -8.425134e+000 42 53 56
1.789022e+000 2.260311e+000 -6.181582e+000 207 200 182
-1.696308e-001 2.781953e+000 -8.292479e+000 189 70 66
9.332566e-001 1.535470e+000 -6.417992e+000 212 212 201
9.765514e-001 1.585518e+000 -6.654594e+000 212 212 201
1.363075e+000 1.551903e+000 -6.240717e+000 150 142 100
-3.495229e-001 1.931396e+000 -8.390243e+000 209 215 201
-7.218095e-001 1.049826e+000 -8.510654e+000 199 201 188
-2.939789e-002 8.699565e-001 -7.192162e+000 235 241 229
-3.212158e-001 7.416851e-001 -8.090438e+000 186 184 172
1.717402e-001 -4.033827e-001 -4.624091e+000 182 79 68
1.276097e+000 -5.096756e-001 -5.852140e+000 101 66 53
1.109141e+000 -6.909070e-001 -5.835946e+000 64 32 27
1.624786e+000 -6.043170e-001 -6.193030e+000 73 50 37
1.306068e+000 -7.874738e-001 -6.064242e+000 52 36 34
-1.526352e+000 -6.209461e-001 -4.060071e+000 36 31 31
-5.016714e-001 -7.336390e-001 -4.274076e+000 102 59 35
-1.496228e+000 -7.493206e-001 -3.983126e+000 46 33 26
4.538311e-001 -9.794372e-001 -5.062634e+000 82 65 54
1.197875e+000 -1.045662e+000 -5.827161e+000 163 161 152
-1.267396e+000 -9.310772e-001 -3.992774e+000 41 41 39
-1.267396e+000 -9.310772e-001 -3.992774e+000 41 41 39
1.431832e+000 -2.032507e+000 -6.513811e+000 178 172 160
7.156583e-001 2.939530e+000 -7.253794e+000 203 88 91
2.049682e-001 2.864766e+000 -7.863417e+000 184 70 65
7.496011e-001 2.058792e+000 -6.840296e+000 235 235 226
3.594848e-001 1.920884e+000 -7.479986e+000 230 230 218
2.355824e+000 1.564312e+000 -5.950334e+000 190 92 86
1.050207e-001 1.693484e+000 -7.533939e+000 243 248 241
2.360500e-001 1.253707e+000 -6.938843e+000 194 194 182
1.089760e+000 1.096469e+000 -6.355148e+000 230 235 228
9.524376e-001 5.720592e-001 -5.781889e+000 93 91 69
9.524376e-001 5.720592e-001 -5.781889e+000 93 91 69
1.051159e-001 -1.291680e-001 -4.829731e+000 181 187 177
3.873103e-001 -2.044082e-001 -4.934107e+000 111 107 99
-1.253267e-001 -3.657957e-001 -4.663708e+000 213 175 130
-1.004555e-001 -3.690736e-001 -4.684028e+000 213 175 130
1.423434e+000 -5.407404e-001 -5.990502e+000 174 146 115
1.390353e+000 -8.578474e-001 -5.981601e+000 224 191 150
1.723370e+000 -7.823978e-001 -6.235720e+000 70 32 33
3.046948e+000 -8.850787e-001 -5.593029e+000 65 62 69
-1.151641e+000 -8.853739e-001 -3.986906e+000 124 73 69
-8.982499e-002 -1.564537e+000 -5.058703e+000 81 36 31
-2.453267e-001 3.471770e+000 -8.947886e+000 83 82 88
1.064157e+000 2.628061e+000 -6.571699e+000 126 117 78
-1.065722e-001 1.884762e+000 -7.988657e+000 184 181 165
-5.705134e-001 8.653776e-001 -8.353468e+000 224 226 213
1.079713e+000 5.409512e-001 -5.542811e+000 230 233 223
6.009918e-001 -1.286555e-001 -5.327429e+000 203 208 201
1.231030e+000 -1.787504e-001 -5.660608e+000 152 149 142
-5.880057e-001 -4.720178e-001 -4.576044e+000 157 83 48
7.851951e-001 -9.537764e-001 -5.644993e+000 87 73 65
-3.531158e-001 -1.013652e+000 -4.561974e+000 117 56 29
-1.207080e-001 -1.228756e+000 -4.901489e+000 65 26 22
1.569736e-001 -1.353278e+000 -5.086275e+000 74 36 28
2.742275e+000 2.371936e+000 -5.797792e+000 202 85 88
2.749666e+000 2.133972e+000 -5.753784e+000 33 24 29
-1.785876e-001 9.018113e-001 -7.774836e+000 236 241 234
2.628322e-002 3.098247e-001 -6.342425e+000 181 182 168
5.144490e-001 -2.972156e-001 -5.159099e+000 85 78 72
5.298786e-001 -3.200206e-001 -5.438612e+000 85 78 72
-1.926307e-001 -5.567894e-001 -4.638587e+000 110 61 39
6.610152e-003 -5.616772e-001 -4.695963e+000 216 179 137
1.125322e+000 -1.221721e+000 -6.000476e+000 90 68 54
4.985819e-002 -3.070715e+000 -7.390791e+000 27 14 20
1.518866e+000 2.651718e+000 -6.530006e+000 227 221 202
1.996052e+000 -6.520281e-002 -5.893888e+000 66 37 39
2.860233e+000 -2.973364e-001 -5.510807e+000 131 116 75
-8.920891e-001 -5.185147e-001 -4.382509e+000 100 64 45
3.675208e-001 -7.372856e-001 -4.786348e+000 58 33 26
-1.091893e+000 -7.629337e-001 -3.994496e+000 227 135 90
-1.487310e-001 6.998408e-002 -4.945804e+000 218 219 211
-4.099374e-001 -3.895549e-001 -4.623853e+000 223 180 135
2.564768e+000 -3.998215e-001 -5.857433e+000 194 179 124
7.065576e-001 -6.166048e-001 -5.538118e+000 43 32 35
7.151988e-001 -6.408533e-001 -5.726699e+000 43 32 35
3.280653e+000 1.733294e+000 -6.491588e+000 98 97 103
1.260857e+000 1.333350e+000 -6.002758e+000 127 118 84
1.592350e+000 -3.231639e-001 -5.900290e+000 58 46 38
5.952188e-002 -9.218239e-001 -4.861910e+000 231 195 145
-1.758813e-001 -1.420215e+000 -5.295923e+000 96 41 30
6.200209e-001 -1.890552e+000 -6.764325e+000 56 21 23
-1.110077e+000 -7.071793e-001 -4.075899e+000 191 98 57
2.031145e+000 8.588390e-001 -5.849450e+000 219 218 210
-7.682734e-001 2.522502e+000 -9.058673e+000 69 65 72
1.360411e+000 2.312677e+000 -6.134881e+000 155 142 105
-1.018265e+000 2.246467e+000 -9.220972e+000 57 55 59
2.517242e+000 2.465478e+000 -5.925341e+000 48 35 38
1.036567e+000 2.008027e+000 -6.420686e+000 157 148 105
1.328968e+000 2.012899e+000 -6.257993e+000 198 188 135
-3.537739e+000 1.065598e+000 -1.098336e+001 63 62 67
-3.523699e+000 1.004657e+000 -1.104264e+001 62 61 66
-3.510078e+000 9.069986e-001 -1.104892e+001 68 67 72
-3.493652e+000 9.043523e-001 -1.100350e+001 68 67 72
-3.387227e+000 9.678256e-001 -1.091886e+001 57 56 62
2.721673e+000 1.803224e+000 -6.077300e+000 53 49 58
1.148178e+000 1.376618e+000 -6.182893e+000 136 125 93
1.420580e+000 1.484875e+000 -6.196443e+000 214 207 162
2.548721e+000 1.578123e+000 -6.082224e+000 128 126 134
2.676110e+000 1.654039e+000 -6.066648e+000 65 64 70
1.158282e+000 1.187411e+000 -6.581623e+000 205 207 193
2.519151e+000 1.508178e+000 -6.135905e+000 90 90 98
2.516100e+000 1.481341e+000 -6.073556e+000 61 59 66
2.706786e+000 1.500622e+000 -6.071585e+000 79 76 83
2.532140e+000 1.383819e+000 -6.031904e+000 59 58 63
2.605004e+000 1.293418e+000 -5.975138e+000 62 59 67
2.639779e+000 1.271097e+000 -6.009732e+000 101 98 103
2.853545e+000 1.262231e+000 -5.915568e+000 45 42 49
-5.010160e-001 5.589294e-002 -4.967715e+000 153 79 46
-5.952937e-001 -3.775273e-002 -5.045288e+000 212 135 92
-1.440571e-001 -5.656740e-002 -5.712715e+000 214 218 203
5.984893e-001 1.665604e-001 -5.662901e+000 207 211 200
2.718790e+000 5.637439e-001 -6.015969e+000 57 53 60
2.779603e+000 5.570848e-001 -5.877034e+000 51 50 55
2.779603e+000 5.570848e-001 -5.877034e+000 51 50 55
2.933030e+000 5.047772e-001 -5.809652e+000 61 60 65
2.933030e+000 5.047772e-001 -5.809652e+000 61 60 65
-3.801670e-001 -1.475397e-001 -4.601263e+000 150 122 110
2.665394e+000 1.916891e-001 -5.884235e+000 73 71 74
2.829676e+000 3.087045e-001 -5.795969e+000 70 69 74
2.954640e+000 3.400090e-001 -5.750666e+000 60 59 64
1.209099e+000 -2.752593e-001 -5.699757e+000 166 166 156
-1.416289e+000 -6.061589e-001 -4.068457e+000 158 136 87
-1.338073e+000 -5.393165e-001 -4.114647e+000 106 61 52
-9.517734e-001 -5.816437e-001 -4.037111e+000 144 73 53
-7.220077e-001 -6.965106e-001 -4.188791e+000 79 61 61
-3.058489e-001 -8.352056e-001 -4.761559e+000 146 101 67
2.713307e+000 -7.420715e-001 -5.872676e+000 65 60 62
-7.637890e-001 -9.013622e-001 -4.059003e+000 102 35 10
-4.464763e-001 -1.058164e+000 -4.481039e+000 133 60 27
9.313798e-001 -1.751836e+000 -6.689647e+000 108 92 76
1.610889e+000 -1.176227e+000 -6.093879e+000 199 160 115
3.073690e+000 -7.443556e-001 -5.620061e+000 52 47 51
-1.467444e-001 -1.291835e+000 -4.788793e+000 127 56 30
2.783116e+000 -1.060661e+000 -5.714583e+000 33 28 32
1.594848e+000 2.521075e+000 -6.382492e+000 207 197 179
-3.284946e+000 6.520949e-001 -1.092596e+001 54 53 58
2.764924e-001 1.236497e+000 -6.874665e+000 211 212 197
2.719028e+000 1.766649e+000 -6.033555e+000 111 106 113
2.651006e+000 1.668432e+000 -6.097110e+000 134 132 137
2.651006e+000 1.668432e+000 -6.097110e+000 134 132 137
2.629520e+000 1.583801e+000 -6.058011e+000 157 156 162
2.629946e+000 1.446409e+000 -6.047340e+000 120 117 124
2.654753e+000 1.447715e+000 -6.009089e+000 54 51 58
2.717166e+000 1.550860e+000 -6.127597e+000 66 63 70
2.746414e+000 1.581844e+000 -5.988719e+000 59 58 64
2.868910e+000 1.616154e+000 -6.023643e+000 56 53 60
2.734736e+000 1.337593e+000 -5.988855e+000 49 47 52
1.458115e-001 5.913088e-001 -6.680530e+000 234 238 224
4.739652e-001 4.123769e-001 -6.549071e+000 203 213 203
6.347041e-001 5.663422e-001 -6.513381e+000 213 217 203
1.831671e+000 8.597061e-001 -6.139326e+000 224 224 214
1.878106e+000 8.232525e-001 -5.791855e+000 213 213 201
2.842004e+000 1.123002e+000 -5.997703e+000 82 77 83
-4.673964e-001 1.106449e-001 -5.090201e+000 156 96 68
1.430514e+000 5.735360e-001 -5.158109e+000 217 222 215
2.781388e+000 7.481159e-001 -5.887089e+000 75 74 78
3.005810e+000 8.176010e-001 -5.934046e+000 40 38 43
-6.329225e-001 -2.352113e-001 -4.983030e+000 220 119 66
-3.005483e-001 -5.854730e-002 -4.612773e+000 170 79 79
3.502375e-001 -5.914123e-002 -5.182450e+000 205 212 204
2.849688e+000 4.601631e-001 -5.868685e+000 66 65 70
-5.407712e-001 -2.878701e-001 -4.759878e+000 185 95 59
-4.552556e-001 -2.088495e-001 -4.545438e+000 174 144 114
-3.110642e-001 -1.251799e-001 -4.550870e+000 88 74 63
-3.110642e-001 -1.251799e-001 -4.550870e+000 88 74 63
2.764052e+000 2.245900e-001 -5.857334e+000 65 63 66
7.383646e-001 -3.179028e-001 -5.438301e+000 177 178 170
2.676798e+000 5.756221e-002 -5.789515e+000 133 118 87
-1.424276e+000 -5.851354e-001 -4.060088e+000 102 82 33
-6.112949e-001 -4.675127e-001 -4.517557e+000 175 93 54
1.195581e+000 -3.606967e-001 -5.673918e+000 162 162 151
-1.404533e+000 -6.295892e-001 -4.080323e+000 117 94 44
-1.397575e+000 -6.229278e-001 -4.062839e+000 117 94 44
-7.553408e-001 -5.417119e-001 -4.313165e+000 208 188 164
1.468343e+000 -6.767513e-001 -6.050382e+000 164 124 82
-1.434041e+000 -7.185835e-001 -3.997184e+000 148 127 77
-1.054496e+000 -7.476309e-001 -3.962661e+000 224 132 89
-9.424277e-001 -7.447591e-001 -3.976416e+000 183 97 62
1.675336e+000 -1.264859e+000 -6.183543e+000 210 172 129
2.581463e+000 -8.805956e-001 -5.901406e+000 65 60 64
2.709069e+000 -8.287183e-001 -5.964562e+000 59 54 58
3.044888e+000 -6.491622e-001 -5.573458e+000 32 27 31
3.044888e+000 -6.491622e-001 -5.573458e+000 32 27 31
-7.102310e-001 -9.789823e-001 -4.121864e+000 91 42 19
6.347656e-002 -1.162016e+000 -4.892017e+000 177 122 89
1.736757e+000 -1.405674e+000 -6.205520e+000 191 130 106
2.280048e+000 -1.399546e+000 -6.214269e+000 43 18 18
2.752161e+000 -1.070675e+000 -5.871204e+000 52 47 51
1.674788e+000 2.222892e+000 -6.176992e+000 203 197 184
2.621293e+000 1.628784e+000 -6.078632e+000 63 57 63
2.701815e+000 1.706834e+000 -6.041951e+000 160 156 162
2.820407e+000 1.681264e+000 -6.030364e+000 60 57 64
-4.038875e-001 8.626350e-001 -8.197649e+000 221 222 207
2.687136e+000 1.521042e+000 -5.972027e+000 158 155 162
2.687136e+000 1.521042e+000 -5.972027e+000 158 155 162
2.747913e+000 1.474894e+000 -6.028747e+000 56 53 60
2.625991e+000 1.345365e+000 -6.059052e+000 128 125 134
2.778243e+000 1.383088e+000 -6.069291e+000 52 49 55
2.764152e+000 1.380530e+000 -6.039737e+000 52 49 55
2.753707e+000 1.426898e+000 -6.002006e+000 115 112 120
2.742651e+000 1.424139e+000 -5.976494e+000 115 112 120
2.827319e+000 1.414674e+000 -6.040178e+000 52 49 56
2.693186e+000 1.353079e+000 -5.983929e+000 111 109 114
8.287122e-001 7.707725e-001 -6.547476e+000 237 239 225
1.366882e+000 8.530658e-001 -5.996059e+000 229 231 214
2.740320e+000 1.253369e+000 -6.043889e+000 108 107 113
2.677377e+000 1.229113e+000 -5.808798e+000 53 50 57
3.322566e-001 4.861161e-001 -6.313583e+000 213 216 205
2.835870e+000 1.016312e+000 -5.954616e+000 49 46 55
-2.267734e+000 -7.461717e-001 -1.052922e+001 24 19 21
-2.329019e+000 -8.068849e-001 -1.049984e+001 59 57 60
-6.033284e-001 -1.668134e-001 -4.959257e+000 210 113 62
-1.814898e-001 -3.105993e-002 -4.761256e+000 185 184 172
4.982315e-001 -3.561850e-002 -5.342306e+000 194 204 195
-3.419012e-001 -1.528486e-001 -4.592307e+000 168 155 131
-1.970457e-001 -1.750881e-001 -4.581154e+000 182 137 104
-1.940616e-001 -1.711184e-001 -4.543888e+000 182 137 104
2.546607e-001 -1.701626e-001 -4.812576e+000 161 166 156
2.574528e+000 2.460656e-001 -5.885845e+000 50 48 53
2.912636e+000 2.789109e-001 -5.883180e+000 40 38 45
-7.691592e-001 -4.145046e-001 -4.671601e+000 196 111 66
-6.175091e-001 -4.353910e-001 -4.646418e+000 217 120 75
-8.666125e-001 -4.682630e-001 -4.236741e+000 85 42 24
5.909924e-001 -4.279007e-001 -5.451461e+000 122 116 104
-1.366711e+000 -6.140391e-001 -4.063569e+000 154 126 79
-1.298672e+000 -5.786370e-001 -4.026342e+000 119 67 57
-6.480173e-001 -5.478923e-001 -4.206693e+000 219 181 132
8.327241e-001 -8.603018e-001 -5.646434e+000 153 149 137
1.631614e+000 -8.014590e-001 -6.163127e+000 183 140 108
1.551640e+000 -8.018053e-001 -6.045217e+000 143 95 59
1.688119e+000 -8.412643e-001 -6.136449e+000 146 56 45
1.914280e+000 -7.996841e-001 -6.326002e+000 188 78 76
2.036641e+000 -7.555678e-001 -6.129429e+000 192 79 76
-1.461230e+000 -8.053292e-001 -3.904303e+000 142 121 67
-9.623816e-001 -8.020052e-001 -3.956653e+000 210 118 77
-9.102222e-001 -8.050507e-001 -3.960330e+000 192 104 64
-8.313718e-001 -9.448904e-001 -4.025633e+000 149 76 47
1.635764e+000 -1.125564e+000 -6.002417e+000 214 178 132
1.620251e+000 -1.262765e+000 -6.130658e+000 165 122 84
2.735322e+000 -9.067576e-001 -5.916341e+000 44 39 43
-8.682232e-001 -9.790140e-001 -3.926420e+000 92 39 25
3.093913e+000 -7.603200e-001 -5.534647e+000 63 58 62
-2.071289e-001 -1.397507e+000 -4.811376e+000 134 67 41
2.022448e+000 1.511379e+000 -5.777444e+000 136 61 57
2.490371e+000 1.570169e+000 -6.066337e+000 58 41 43
1.189485e+000 1.205193e+000 -6.528946e+000 234 233 213
2.718529e+000 1.585725e+000 -6.132081e+000 58 57 63
2.713354e+000 1.301612e+000 -6.060641e+000 55 50 57
2.803765e+000 1.445101e+000 -5.956468e+000 50 47 55
7.048126e-001 7.869189e-001 -6.497713e+000 232 235 222
3.181731e-001 4.303403e-001 -6.128634e+000 196 200 184
2.757882e+000 1.099896e+000 -5.932986e+000 54 53 59
2.967923e+000 1.049057e+000 -5.980853e+000 42 39 46
-3.566310e+000 -1.278474e+000 -1.111292e+001 54 52 57
1.852495e-001 1.022021e-001 -5.695444e+000 200 207 199
2.213641e-002 3.271369e-002 -5.669419e+000 202 208 204
5.079348e-001 1.113297e-001 -5.533765e+000 202 209 197
-3.825788e-001 -1.246698e-001 -4.673360e+000 116 49 49
-4.634469e-001 -2.336677e-001 -4.578275e+000 196 173 128
-2.794817e-001 -1.858682e-001 -4.503064e+000 202 184 142
-6.678441e-001 -4.560701e-001 -4.659419e+000 154 68 32
2.367658e+000 -1.005686e-001 -5.790481e+000 214 199 149
-1.526056e+000 -5.273941e-001 -4.071787e+000 141 119 71
-1.499736e+000 -5.934390e-001 -4.079851e+000 147 127 77
-8.408019e-001 -5.034100e-001 -4.256863e+000 119 93 70
-8.406398e-001 -4.421632e-001 -4.381079e+000 171 135 108
-5.308653e-001 -4.782069e-001 -4.674192e+000 214 169 122
-5.107301e-001 -4.897282e-001 -4.543197e+000 154 89 48
-9.850975e-003 -3.489121e-001 -4.657395e+000 216 171 128
1.620759e+000 -6.781535e-001 -6.110059e+000 182 148 107
-1.256253e+000 -6.909377e-001 -3.998780e+000 117 63 55
9.765842e-001 -7.261912e-001 -5.602611e+000 182 179 164
1.846266e+000 -8.658486e-001 -6.193443e+000 194 76 69
3.201530e+000 -6.285360e-001 -5.618799e+000 32 30 33
1.647060e+000 -1.401739e+000 -6.189017e+000 176 91 78
1.789811e+000 -1.426846e+000 -6.235990e+000 152 71 61
7.758982e-001 2.336427e+000 -7.042928e+000 238 238 226
1.802692e-002 1.057353e+000 -7.624692e+000 219 221 208
2.527416e+000 1.400969e+000 -5.940314e+000 61 60 64
2.674367e+000 1.414428e+000 -6.024705e+000 55 53 58
-1.411769e+000 3.864179e-003 -9.116949e+000 219 212 201
-6.252779e-001 4.001073e-001 -8.393729e+000 229 233 221
-1.776429e+000 -3.182407e-001 -9.521920e+000 179 61 57
3.575240e-001 5.432080e-001 -6.508953e+000 195 201 189
-1.172199e-001 1.587141e-001 -5.995792e+000 195 200 193
1.393756e+000 5.125905e-001 -5.649004e+000 193 196 189
-1.584165e+000 -5.406366e-001 -4.094300e+000 163 146 90
-1.652186e+000 -7.412432e-001 -3.956024e+000 36 23 23
-2.940878e-001 -6.024714e-001 -4.597351e+000 142 80 48
8.978465e-001 -6.921309e-001 -5.851956e+000 85 76 69
9.187153e-001 -6.798772e-001 -5.810825e+000 85 76 69
9.440016e-001 -7.523312e-001 -5.817865e+000 201 199 187
1.580171e+000 -5.900891e-001 -6.069058e+000 81 55 32
-9.673402e-001 -6.718474e-001 -4.014343e+000 112 42 21
2.268214e+000 -6.791352e-001 -5.973448e+000 105 77 47
-1.313039e+000 -8.524474e-001 -3.954675e+000 151 120 74
-6.394797e-001 -8.404796e-001 -4.196623e+000 125 58 33
1.561725e+000 -1.285413e+000 -6.144781e+000 219 191 141
-7.315368e-002 -3.969250e+000 -7.878958e+000 169 51 49
-7.582985e-002 -3.907789e+000 -7.778554e+000 169 51 49
-3.512955e-001 1.920986e+000 -8.364155e+000 216 210 199
1.099989e+000 1.949236e+000 -6.384996e+000 213 201 143
2.443798e+000 1.930143e+000 -5.733062e+000 175 67 68
-1.352924e+000 2.521264e-001 -9.099080e+000 217 217 202
2.199499e-001 7.253547e-001 -6.667914e+000 238 241 230
1.194353e+000 1.099675e+000 -6.253163e+000 129 117 85
2.836554e-001 -9.965419e-002 -5.045124e+000 157 163 156
-1.880532e-001 -2.998985e-001 -4.593182e+000 159 115 79
-8.428649e-001 -5.580998e-001 -4.221907e+000 123 67 42
2.654723e+000 -2.848631e-001 -5.739139e+000 150 133 80
-1.268696e+000 -8.030221e-001 -3.970673e+000 69 22 14
2.503879e+000 -6.705820e-001 -5.819387e+000 38 30 28
3.269546e+000 -6.941416e-001 -5.652942e+000 51 47 53
-8.656577e-001 -9.731096e-001 -3.992220e+000 86 33 23
1.843100e+000 -1.347766e+000 -6.099920e+000 197 159 115
1.108877e-002 -3.771141e+000 -7.767718e+000 18 15 12
9.880263e-001 2.452686e+000 -6.074739e+000 134 120 83
1.297958e+000 1.662868e+000 -6.104787e+000 162 153 103
2.373434e-001 1.259079e+000 -6.991020e+000 180 179 167
2.210226e+000 -3.169546e-002 -5.964095e+000 195 82 81
-2.981670e-002 -7.291959e-001 -4.825929e+000 185 146 102
3.002473e+000 -1.846339e-001 -5.208556e+000 118 99 62
1.148197e+000 -1.204923e+000 -5.979463e+000 116 103 87
-1.325505e-001 -1.211735e+000 -4.828004e+000 60 19 19
-4.207729e-001 7.007576e-002 -5.267849e+000 102 59 47
-2.001309e-001 -1.307150e-001 -4.519828e+000 169 88 83
1.117581e+000 -2.762806e-002 -5.555001e+000 211 216 209
-9.373801e-001 -6.009595e-001 -4.103082e+000 125 57 36
-3.561902e-001 -1.020283e+000 -4.590750e+000 137 62 35
-7.710341e-001 -1.021062e+000 -3.956638e+000 36 24 30
6.446257e-002 -3.767775e+000 -7.961940e+000 23 12 15
-1.086060e-001 8.714047e-001 -6.730628e+000 235 237 226
-8.231451e-001 -8.751330e-001 -4.010823e+000 174 90 59
2.709041e-002 3.263969e-001 -6.121161e+000 174 176 165
1.820125e+000 -1.806803e+000 -6.184830e+000 35 28 34
1.215095e+000 1.699937e+000 -6.512777e+000 124 115 79
-4.237437e-001 -3.931596e-001 -4.618279e+000 229 187 135
2.320738e+000 -2.743946e-001 -5.846105e+000 108 87 57
-1.119568e+000 -5.561870e-001 -4.065225e+000 230 138 86
6.961424e-001 -6.253614e-001 -5.651761e+000 51 40 38
2.269050e+000 -6.191763e-001 -5.349143e+000 49 42 49
-7.551729e-001 -1.006015e-001 -5.062441e+000 223 221 209
-1.380269e+000 -4.170587e-001 -4.264544e+000 42 38 37
-1.034610e+000 -7.557415e-001 -3.882748e+000 222 122 63
-4.090458e-001 -8.813186e-001 -4.667280e+000 132 70 42
-4.090458e-001 -8.813186e-001 -4.667280e+000 132 70 42
-1.586889e-001 -1.401997e+000 -5.231579e+000 61 18 23
2.668464e+000 -2.584511e-001 -5.833454e+000 166 149 94
1.115082e+000 2.295274e+000 -6.177471e+000 112 103 70
1.115082e+000 2.295274e+000 -6.177471e+000 112 103 70
1.496889e+000 -2.057771e+000 -6.605395e+000 205 201 190
-1.094120e+000 -7.117732e-001 -4.092395e+000 184 87 42
2.073283e+000 8.360320e-001 -5.941429e+000 223 221 209
1.850450e+000 2.210516e+000 -6.135511e+000 229 226 214
-4.086222e-001 3.135066e+000 -8.920001e+000 72 71 76
2.861266e+000 1.664729e+000 -5.946332e+000 111 110 115
2.687463e+000 1.460886e+000 -6.002197e+000 128 127 133
2.631123e+000 1.268872e+000 -5.990256e+000 124 125 129
2.591906e+000 3.950776e-001 -5.959666e+000 67 69 71
5.031787e-001 -3.845518e-002 -5.234390e+000 191 197 187
4.884668e-001 -9.164352e-002 -5.237002e+000 182 187 180
3.300639e+000 -5.335154e-001 -5.509626e+000 102 102 106
3.134611e+000 -5.909307e-001 -5.587189e+000 55 52 56
2.872689e+000 -7.430351e-001 -5.743484e+000 71 69 74
2.872689e+000 -7.430351e-001 -5.743484e+000 71 69 74
3.021723e+000 -7.819361e-001 -5.584867e+000 42 40 45
3.021246e+000 -8.147791e-001 -5.613989e+000 55 54 59
1.729276e+000 -1.250430e+000 -6.059867e+000 181 145 100
2.086593e+000 -1.440551e+000 -6.052119e+000 129 44 50
-7.477683e-001 -9.475578e-001 -4.071521e+000 81 35 22
2.729518e+000 1.668864e+000 -6.009279e+000 56 57 61
2.822860e+000 1.750084e+000 -6.049839e+000 95 96 100
2.925469e+000 1.608604e+000 -5.912565e+000 143 143 150
2.884950e+000 1.594355e+000 -5.910817e+000 62 61 67
2.699565e+000 1.353536e+000 -5.997291e+000 146 147 152
2.840176e+000 1.266159e+000 -5.964216e+000 130 131 136
2.866425e+000 1.338607e+000 -5.914365e+000 50 51 56
2.905458e+000 1.311976e+000 -5.937250e+000 107 109 114
2.675115e+000 1.261032e+000 -6.000838e+000 70 71 75
2.948828e+000 7.471369e-001 -5.851955e+000 46 45 51
3.123742e+000 7.047663e-001 -5.824593e+000 45 44 50
2.538610e+000 3.835472e-001 -5.975233e+000 51 40 44
2.698236e+000 4.165008e-001 -5.916847e+000 55 55 63
2.756541e+000 3.589885e-001 -5.889967e+000 59 60 65
1.821252e+000 4.117076e-001 -5.952506e+000 229 232 225
1.751810e-001 1.677697e-001 -5.821599e+000 223 226 217
7.492138e-001 -2.277159e-001 -5.386306e+000 147 148 142
7.492138e-001 -2.277159e-001 -5.386306e+000 147 148 142
1.253675e+000 -2.676785e-001 -5.642150e+000 168 164 155
1.253481e+000 -2.789730e-001 -5.721077e+000 168 164 155
2.369830e+000 -7.193447e-001 -5.931094e+000 149 75 68
1.265817e-001 -5.877062e-001 -4.568357e+000 188 142 106
2.828499e+000 1.567156e+000 -5.997477e+000 62 61 66
2.862166e+000 1.568977e+000 -5.946886e+000 163 162 167
2.657338e+000 1.364505e+000 -6.012418e+000 65 66 71
2.834269e+000 1.320869e+000 -5.945794e+000 54 55 60
2.716072e+000 1.249020e+000 -5.992231e+000 147 152 155
2.775909e+000 -8.796683e-001 -5.790952e+000 41 40 45
1.881021e+000 -9.507784e-001 -6.138558e+000 123 39 33
-9.118395e-001 -5.298291e-001 -4.084298e+000 137 73 56
2.669050e+000 1.410018e+000 -6.009811e+000 60 59 65
1.050128e+000 -1.414993e-001 -5.586331e+000 154 155 149
2.323308e+000 -6.894967e-001 -5.958357e+000 100 59 41
-4.392084e-001 2.627625e+000 -8.389428e+000 67 61 66
1.095369e+000 1.947220e+000 -6.389075e+000 180 171 120
2.670561e+000 -4.863854e-001 -5.638339e+000 121 106 66
2.147249e+000 2.423167e+000 -5.812664e+000 234 233 225
-5.013208e-001 1.896510e+000 -8.352899e+000 195 79 78
-1.019801e+000 8.800204e-001 -8.958356e+000 209 210 197
2.270116e+000 -7.622607e-001 -5.811838e+000 190 78 77
2.562839e+000 2.080456e+000 -5.813827e+000 191 87 80
2.281471e+000 1.882705e+000 -5.637859e+000 190 77 78
-9.870355e-002 -2.372294e-001 -4.589544e+000 148 81 66
1.842922e+000 1.402418e+000 -5.834806e+000 234 234 226
-2.848234e-002 1.143067e+000 -7.744447e+000 216 217 204
1.431798e-001 5.916339e-001 -6.646476e+000 230 233 224
-1.288794e+000 -4.121038e-001 -4.157644e+000 83 48 46
-1.310808e+000 -6.496429e-001 -3.976755e+000 96 47 38
-1.405889e+000 -7.305686e-001 -4.006302e+000 105 86 41
-1.472870e+000 -8.153643e-001 -3.930472e+000 131 111 65
2.196099e+000 -1.736089e+000 -6.723076e+000 156 54 60
2.676353e+000 6.014441e-001 -5.969292e+000 56 54 60
2.544940e+000 4.274116e-001 -5.890088e+000 67 68 71
2.852551e+000 4.601679e-001 -5.875160e+000 71 70 75
-5.073265e-001 -7.520705e-002 -5.228277e+000 98 70 59
-1.143530e-002 -6.831305e-002 -4.749966e+000 180 187 172
-1.564870e+000 -5.052276e-001 -4.104911e+000 128 106 57
-8.644990e-001 -4.972262e-001 -4.211361e+000 107 67 51
-7.912271e-001 -4.919645e-001 -4.207209e+000 57 47 46
-1.411923e+000 -6.737785e-001 -4.012725e+000 164 143 99
-1.391602e+000 -6.733766e-001 -4.034455e+000 110 93 52
-1.371527e+000 -7.090686e-001 -4.009934e+000 106 88 42
-1.371527e+000 -7.090686e-001 -4.009934e+000 106 88 42
-1.199658e+000 -7.619517e-001 -3.925803e+000 114 60 52
1.091883e+000 -1.866399e+000 -7.275009e+000 101 83 65
-2.118755e-001 -1.570985e+000 -4.974526e+000 87 39 27
-8.893818e-001 2.007415e+000 -8.944767e+000 55 45 43
7.719776e-001 -7.684198e-002 -5.469538e+000 198 203 196
-1.509433e+000 -5.524788e-001 -4.085511e+000 125 104 61
-1.356738e+000 -6.717147e-001 -4.032211e+000 167 136 96
-1.518104e-001 -1.111565e+000 -4.838566e+000 77 39 20
2.917575e+000 1.520349e+000 -6.015755e+000 54 53 59
-5.218427e-001 1.188858e+000 -8.464190e+000 201 201 189
2.932452e+000 3.774669e-001 -5.869101e+000 66 64 69
-1.259484e+000 -9.413908e-001 -3.985432e+000 32 30 31
-6.201761e-001 -3.448622e-001 -4.847479e+000 207 124 79
2.926414e+000 1.701163e+000 -6.245961e+000 97 96 102
-1.185611e+000 3.410195e+000 -9.475507e+000 70 68 73
-3.622980e-001 3.333514e+000 -8.995774e+000 96 95 101
-5.054033e-001 3.143244e+000 -8.956590e+000 86 88 92
-5.085637e-001 2.969049e+000 -8.966592e+000 67 62 68
2.712877e+000 1.522423e+000 -5.937422e+000 57 56 62
2.569286e+000 4.199315e-001 -5.946934e+000 73 68 75
2.995681e-001 -1.404636e-001 -4.903329e+000 164 169 161
-1.712362e-001 -1.685934e-001 -4.576830e+000 155 73 61
2.466044e+000 -3.990904e-001 -5.758832e+000 172 156 105
-1.599268e+000 -4.732539e-001 -4.131988e+000 123 108 76
-1.302977e+000 -4.160412e-001 -4.188570e+000 93 54 58
-1.444834e+000 -7.195779e-001 -4.004019e+000 147 132 90
-1.428925e+000 -6.869496e-001 -4.060625e+000 167 149 101
2.569117e+000 -9.769774e-001 -5.867726e+000 88 85 90
-1.217645e+000 -7.851663e-001 -3.994180e+000 124 69 67
-1.291351e+000 -8.267247e-001 -3.976144e+000 92 51 38
2.606809e+000 -1.150437e+000 -5.765035e+000 44 39 43
1.850168e+000 -1.395800e+000 -6.108023e+000 180 127 106
2.644123e+000 -1.300832e+000 -5.738705e+000 37 32 38
1.618176e+000 -1.544856e+000 -6.481667e+000 165 90 89
-3.445897e-001 3.251558e+000 -8.920441e+000 66 65 71
2.968667e+000 1.029722e+000 -5.896712e+000 75 74 80
2.917813e+000 7.798384e-001 -5.937018e+000 49 49 54
2.917813e+000 7.798384e-001 -5.937018e+000 49 49 54
2.947103e+000 6.448299e-001 -5.844342e+000 48 47 52
3.025788e+000 5.482779e-001 -5.866240e+000 45 44 49
3.036807e+000 5.044075e-001 -5.817607e+000 63 62 67
1.801062e+000 4.147378e-001 -5.749229e+000 214 216 205
2.496185e-001 -1.768029e-001 -4.858215e+000 155 160 153
-1.243683e+000 -4.333545e-001 -4.179738e+000 102 51 42
-8.022502e-001 -5.585808e-001 -4.230717e+000 144 107 73
1.393403e+000 -7.707411e-001 -5.983263e+000 181 141 103
2.107792e+000 -7.549563e-001 -6.169881e+000 178 75 75
3.061378e+000 -8.165606e-001 -5.491297e+000 45 43 48
3.143361e+000 -7.148294e-001 -5.473819e+000 52 50 57
1.619486e+000 -1.169554e+000 -6.075308e+000 170 129 85
-1.343471e+000 -8.965726e-001 -4.013879e+000 59 45 32
1.986495e+000 -1.386174e+000 -6.162874e+000 171 60 59
2.556012e+000 -1.257903e+000 -5.742925e+000 38 33 39
2.608896e+000 -1.210921e+000 -5.684318e+000 40 35 41
-3.048548e-001 -1.208601e+000 -4.741583e+000 92 35 22
1.303195e+000 -1.724962e+000 -6.672501e+000 166 157 143
1.302234e+000 2.811157e+000 -6.496206e+000 196 167 121
3.016980e+000 1.237979e+000 -5.933919e+000 46 45 51
3.598879e-001 1.332478e+000 -6.782095e+000 225 230 220
5.589677e-001 4.276185e-001 -6.341531e+000 236 242 232
2.748293e+000 5.020388e-001 -5.918362e+000 54 51 59
2.766473e+000 5.067098e-001 -5.959634e+000 54 51 59
3.027624e+000 4.641625e-001 -5.720117e+000 44 41 41
4.075106e-001 -1.279520e-001 -5.124593e+000 185 190 184
1.158340e+000 -4.076044e-001 -5.676837e+000 156 157 149
1.330595e+000 -8.410402e-001 -6.031018e+000 207 173 143
-9.747801e-001 -8.416216e-001 -4.002581e+000 169 86 44
-9.477909e-002 2.929221e+000 -8.317092e+000 178 67 62
2.644392e+000 1.498314e+000 -6.043287e+000 64 63 71
-9.449032e-001 -9.687664e-001 -3.964784e+000 90 39 34
1.452320e+000 1.497586e+000 -6.222276e+000 253 254 212
-8.944976e-001 -1.037923e+000 -3.963112e+000 155 87 47
-8.944976e-001 -1.037923e+000 -3.963112e+000 155 87 47
2.535941e+000 -2.000207e-001 -5.675747e+000 237 226 169
1.136909e-001 2.725130e+000 -7.961464e+000 179 65 61
-1.044833e+000 3.381922e+000 -9.427135e+000 62 61 66
2.107716e+000 1.617340e+000 -5.756425e+000 112 49 52
-3.868691e-001 -8.147579e-001 -4.319825e+000 74 31 26
-3.868691e-001 -8.147579e-001 -4.319825e+000 74 31 26
6.376455e-001 2.600894e+000 -7.374679e+000 226 223 212
-8.733963e-001 2.234508e+000 -8.724151e+000 51 49 54
7.961948e-001 2.484756e+000 -6.443146e+000 229 223 211
-8.852292e-001 4.067448e+000 -9.059261e+000 76 75 81
-8.463924e-001 4.059048e+000 -9.098969e+000 53 54 59
-8.463924e-001 4.059048e+000 -9.098969e+000 53 54 59
-8.363345e-001 3.878240e+000 -9.025197e+000 62 61 66
-5.767061e-001 3.853935e+000 -9.105328e+000 56 55 61
-2.162765e-001 3.648802e+000 -9.144463e+000 81 80 86
-2.896255e-001 3.290317e+000 -9.015754e+000 94 92 98
-4.526522e-001 3.121580e+000 -9.039917e+000 91 90 95
2.951807e+000 1.664608e+000 -5.879465e+000 63 63 69
3.098923e+000 1.595368e+000 -5.839288e+000 59 58 64
2.831868e+000 1.500094e+000 -5.955328e+000 146 145 150
3.186866e+000 1.395894e+000 -5.885578e+000 81 80 85
3.235854e+000 1.400336e+000 -5.793767e+000 52 49 56
3.321339e+000 1.408333e+000 -5.784114e+000 82 81 86
3.651029e+000 1.331219e+000 -5.727700e+000 41 39 44
3.904476e+000 1.263700e+000 -5.674366e+000 48 44 51
2.691430e+000 1.464021e+000 -6.015516e+000 128 127 133
3.137881e+000 1.360013e+000 -5.950616e+000 46 45 51
3.128733e+000 1.312728e+000 -5.867730e+000 59 57 64
3.114493e+000 1.222017e+000 -5.875551e+000 77 76 82
3.187570e+000 1.225074e+000 -5.834143e+000 76 75 81
3.187570e+000 1.225074e+000 -5.834143e+000 76 75 81
3.395417e+000 1.301292e+000 -5.729256e+000 39 37 40
3.452661e+000 1.311194e+000 -5.717248e+000 67 64 71
3.603060e+000 1.271790e+000 -5.651494e+000 62 60 65
3.603060e+000 1.271790e+000 -5.651494e+000 62 60 65
3.932193e+000 1.208977e+000 -5.595924e+000 48 43 49
2.811944e+000 9.305152e-001 -5.908970e+000 61 62 66
2.836169e+000 9.261547e-001 -5.891020e+000 90 90 98
2.983948e+000 1.039812e+000 -5.934325e+000 80 79 85
3.375984e+000 8.907267e-001 -5.771877e+000 55 54 59
1.648647e+000 9.674140e-001 -5.938865e+000 212 218 208
2.939305e+000 8.301762e-001 -5.869103e+000 73 74 79
2.871846e+000 7.435064e-001 -5.824150e+000 61 62 67
3.232322e+000 7.327089e-001 -5.815364e+000 63 62 68
3.232322e+000 7.327089e-001 -5.815364e+000 63 62 68
3.383398e+000 6.603172e-001 -5.772161e+000 53 52 57
3.518078e+000 7.267476e-001 -5.749891e+000 47 44 51
2.667769e+000 6.021355e-001 -5.969892e+000 65 65 69
2.706733e+000 5.897188e-001 -5.986521e+000 56 57 59
2.999737e+000 6.730830e-001 -5.804359e+000 49 50 54
2.931678e+000 6.068473e-001 -5.919430e+000 49 50 54
3.005565e+000 6.015474e-001 -5.812123e+000 63 63 67
3.085552e+000 6.378433e-001 -5.797425e+000 60 58 63
3.085552e+000 6.378433e-001 -5.797425e+000 60 58 63
2.685133e+000 4.825453e-001 -5.924889e+000 55 58 63
2.768761e+000 5.159945e-001 -5.852228e+000 100 104 107
2.941897e+000 4.942979e-001 -5.839815e+000 79 78 83
2.822358e+000 3.498663e-001 -5.874915e+000 52 55 57
2.937602e+000 3.957962e-001 -5.805070e+000 66 65 70
3.014911e+000 4.239213e-001 -5.808609e+000 72 71 79
3.014911e+000 4.239213e-001 -5.808609e+000 72 71 79
3.026431e+000 4.087977e-001 -5.761276e+000 45 43 54
2.552349e+000 3.425849e-001 -5.975971e+000 66 64 70
2.617532e+000 2.178709e-001 -6.022590e+000 57 55 62
2.708945e+000 2.908466e-001 -5.874960e+000 52 53 57
2.723084e+000 2.638611e-001 -5.938630e+000 103 104 108
2.555810e+000 8.184583e-002 -6.014116e+000 76 69 76
-3.113314e+000 5.464622e-001 -1.063053e+001 57 56 61
-5.209133e-001 7.174439e-002 -5.234487e+000 132 70 46
-5.223082e-001 5.454866e-003 -5.039913e+000 172 87 57
6.282904e-001 -8.806007e-002 -5.374640e+000 214 220 213
6.380707e-001 -1.308742e-001 -5.354542e+000 169 175 168
6.871058e-001 -1.534055e-001 -5.372677e+000 180 184 177
-5.205398e-001 -6.514484e-002 -5.192261e+000 80 42 28
3.089518e+000 -5.482594e-001 -5.604103e+000 46 44 47
3.399517e+000 -4.526431e-001 -5.432150e+000 43 40 47
-9.558343e-001 -2.747255e-001 -4.296862e+000 106 71 70
2.663013e+000 -6.843829e-001 -5.905138e+000 63 60 64
2.832201e+000 -6.695173e-001 -5.810940e+000 50 42 53
3.223567e+000 -6.208230e-001 -5.537645e+000 60 61 65
3.130944e+000 -7.341865e-001 -5.551495e+000 55 54 60
3.187467e+000 -6.896282e-001 -5.505445e+000 99 98 106
-8.267586e-001 -4.099911e-001 -4.459817e+000 137 85 66
9.560917e-001 -6.149618e-001 -5.727755e+000 124 121 112
2.441293e+000 -7.612526e-001 -5.990805e+000 75 79 77
2.455441e+000 -7.639823e-001 -6.031632e+000 75 79 77
2.710255e+000 -7.442201e-001 -5.879287e+000 94 93 98
2.688513e+000 -7.841305e-001 -5.846530e+000 47 46 51
2.982638e+000 -7.435226e-001 -5.631399e+000 53 51 56
3.073345e+000 -8.020927e-001 -5.593544e+000 46 44 49
3.159009e+000 -7.754716e-001 -5.657479e+000 95 94 99
-1.277600e+000 -4.539937e-001 -4.146634e+000 113 66 60
2.487684e+000 -8.818838e-001 -5.936846e+000 83 82 85
2.685779e+000 -9.650094e-001 -5.880550e+000 45 44 49
2.662493e+000 -9.983051e-001 -5.847100e+000 43 42 47
2.713975e+000 -1.041146e+000 -5.795439e+000 62 60 65
3.029592e+000 -9.321175e-001 -5.497605e+000 29 27 32
2.943744e+000 -1.046493e+000 -5.571115e+000 31 29 34
-1.579930e+000 -5.485851e-001 -4.081434e+000 171 157 111
2.677304e+000 -1.207291e+000 -5.762089e+000 53 51 56
-1.011984e+000 -6.592881e-001 -4.064305e+000 139 70 47
-3.631217e-001 -1.109783e+000 -4.572062e+000 118 58 47
7.579140e-002 -1.197870e+000 -4.819124e+000 170 70 62
1.357915e+000 2.814731e+000 -6.537811e+000 175 90 79
-9.484766e-001 4.128174e+000 -9.319330e+000 56 55 62
-8.683395e-001 4.016316e+000 -9.153115e+000 89 88 94
-6.486865e-001 3.921212e+000 -9.199963e+000 47 46 52
-9.380323e-001 3.331896e+000 -9.266080e+000 73 72 77
2.766153e+000 1.744410e+000 -6.054757e+000 53 52 57
2.939841e+000 1.618117e+000 -5.944080e+000 143 143 150
3.111360e+000 1.666983e+000 -5.888863e+000 54 49 56
3.263919e+000 1.559406e+000 -5.839976e+000 52 53 58
3.031383e+000 1.567693e+000 -5.879349e+000 147 146 152
3.109140e+000 1.564216e+000 -5.876123e+000 143 142 148
3.123970e+000 1.531007e+000 -5.813576e+000 57 55 60
3.181366e+000 1.449210e+000 -5.801701e+000 58 57 63
3.211614e+000 1.375524e+000 -5.776042e+000 45 41 48
3.211614e+000 1.375524e+000 -5.776042e+000 45 41 48
2.750336e+000 1.429210e+000 -5.997459e+000 160 161 165
2.699242e+000 1.350624e+000 -5.996472e+000 146 147 152
2.786081e+000 1.402377e+000 -5.948793e+000 60 63 68
2.860482e+000 1.409579e+000 -5.916643e+000 57 56 62
2.898669e+000 1.306283e+000 -5.922543e+000 107 109 114
2.979112e+000 1.398239e+000 -5.884586e+000 115 116 121
2.998619e+000 1.282519e+000 -5.838734e+000 48 47 53
3.296330e+000 1.200853e+000 -5.767034e+000 58 56 61
3.532212e+000 1.317200e+000 -5.797639e+000 37 35 40
3.548597e+000 1.251123e+000 -5.628521e+000 36 34 39
3.633977e+000 1.241558e+000 -5.656618e+000 32 30 35
4.236676e-001 1.869695e+000 -7.360502e+000 213 214 202
2.882913e+000 1.180653e+000 -5.919107e+000 105 106 111
2.838896e+000 1.081035e+000 -5.891643e+000 56 57 62
2.838896e+000 1.081035e+000 -5.891643e+000 56 57 62
3.007620e+000 1.154031e+000 -5.885113e+000 84 83 88
2.972957e+000 1.120055e+000 -5.901660e+000 49 50 54
3.128000e+000 1.182039e+000 -5.884165e+000 44 43 48
3.190932e+000 1.135280e+000 -5.885380e+000 42 41 46
3.162954e+000 1.120919e+000 -5.825126e+000 42 41 46
3.202750e+000 1.116316e+000 -5.806378e+000 64 62 67
3.283510e+000 1.069648e+000 -5.802145e+000 63 62 67
3.495696e+000 8.233296e-001 -5.761959e+000 37 35 40
3.120980e+000 7.051345e-001 -5.821902e+000 45 44 50
3.415563e+000 7.269132e-001 -5.772582e+000 35 34 39
3.415563e+000 7.269132e-001 -5.772582e+000 35 34 39
2.941463e+000 5.463463e-001 -5.843229e+000 49 50 54
3.136996e+000 6.256573e-001 -5.830549e+000 41 39 44
3.136996e+000 6.256573e-001 -5.830549e+000 41 39 44
2.807389e+000 4.777567e-001 -5.946853e+000 99 103 106
2.671912e+000 4.078746e-001 -5.845520e+000 55 55 63
2.734665e+000 3.941829e-001 -5.923478e+000 106 107 111
2.756148e+000 3.556467e-001 -5.896644e+000 59 60 65
3.089847e+000 4.110566e-001 -5.746853e+000 61 58 54
2.948601e+000 2.932695e-001 -5.789262e+000 62 57 49
2.836130e+000 2.238694e-001 -5.914471e+000 50 49 49
3.131087e+000 -1.040041e-001 -4.985544e+000 133 120 82
3.699289e-001 -1.536727e-001 -4.991957e+000 116 116 108
4.623810e-001 -2.071067e-001 -5.110647e+000 125 123 116
5.464441e-001 -2.349942e-001 -5.247862e+000 141 140 132
3.158328e+000 -5.226840e-001 -5.440170e+000 37 35 40
3.303085e+000 -5.245470e-001 -5.585227e+000 47 46 51
2.712214e+000 -6.992956e-001 -5.867794e+000 43 41 49
2.804116e+000 -6.608366e-001 -5.859797e+000 101 96 102
2.935290e+000 -6.293990e-001 -5.936352e+000 45 43 46
2.920867e+000 -5.995957e-001 -5.781177e+000 85 83 86
3.050845e+000 -6.524034e-001 -5.580700e+000 32 30 35
-7.931734e-001 -4.306600e-001 -4.476491e+000 109 51 31
-5.890897e-001 -4.380497e-001 -4.587283e+000 213 119 75
1.370112e-001 -4.520440e-001 -4.644980e+000 210 179 143
1.370112e-001 -4.520440e-001 -4.644980e+000 210 179 143
2.520169e+000 -8.588419e-001 -5.950816e+000 49 47 48
2.673267e+000 -7.319032e-001 -5.883834e+000 47 46 51
2.917304e+000 -7.339275e-001 -5.566829e+000 34 33 38
4.787582e-001 -6.206084e-001 -4.690695e+000 80 67 59
1.820903e+000 -8.559814e-001 -6.101137e+000 188 75 72
2.661584e+000 -9.251443e-001 -5.859203e+000 93 92 97
2.742031e+000 -1.052481e+000 -5.776169e+000 43 41 46
2.881692e+000 -1.045274e+000 -5.632601e+000 76 74 79
2.697847e+000 -1.191248e+000 -5.728520e+000 39 37 42
-9.847442e-001 -7.069431e-001 -4.025658e+000 149 74 55
-7.570309e-001 -7.583633e-001 -4.114045e+000 125 68 61
-7.105438e-001 -7.634979e-001 -4.177886e+000 53 30 28
-6.483160e-001 -7.829906e-001 -4.186186e+000 139 91 56
4.058761e-001 -9.483405e-001 -4.954613e+000 85 76 65
-1.595636e+000 -7.364588e-001 -3.961460e+000 205 184 126
-1.567380e+000 -7.302790e-001 -3.984942e+000 171 148 95
-1.041641e+000 -7.729233e-001 -3.949915e+000 204 113 68
-9.498462e-001 -9.003123e-001 -3.951013e+000 160 77 32
-9.613706e-001 -9.321810e-001 -4.001363e+000 156 86 56
-8.783503e-001 -9.519063e-001 -3.930297e+000 106 59 51
1.781825e-001 -1.221197e+000 -4.998185e+000 164 129 123
-2.349628e-001 -1.616018e+000 -5.028373e+000 219 202 192
2.391407e-002 3.800917e+000 -8.892483e+000 92 81 90
3.757092e-001 3.347386e+000 -7.675223e+000 174 64 70
8.654751e-001 2.946997e+000 -7.006775e+000 171 81 80
1.703385e+000 2.587793e+000 -6.293059e+000 194 187 174
2.826290e+000 1.815040e+000 -6.081767e+000 52 51 56
3.019876e+000 1.616908e+000 -5.940243e+000 62 63 68
2.730490e+000 1.474374e+000 -5.995364e+000 56 58 61
2.980910e+000 1.500869e+000 -5.904020e+000 143 142 148
3.093786e+000 1.458872e+000 -5.869913e+000 113 114 119
3.373529e+000 1.434466e+000 -5.796151e+000 50 49 55
3.426769e+000 1.355948e+000 -5.725204e+000 47 45 51
3.776771e+000 1.277827e+000 -5.570957e+000 34 29 36
3.905394e+000 1.242893e+000 -5.603486e+000 93 89 96
3.905394e+000 1.242893e+000 -5.603486e+000 93 89 96
2.334054e+000 1.451142e+000 -5.854934e+000 168 66 77
2.740128e+000 1.237730e+000 -5.902546e+000 57 58 63
2.872977e+000 1.229395e+000 -5.987653e+000 52 53 58
3.205497e+000 1.175681e+000 -5.830157e+000 38 37 42
3.345459e+000 1.171890e+000 -5.844142e+000 35 33 38
3.359268e+000 1.065334e+000 -5.744518e+000 35 33 38
2.904543e+000 1.073545e+000 -5.972073e+000 94 92 95
2.878461e+000 9.272364e-001 -5.867109e+000 51 50 56
3.161832e+000 9.180274e-001 -5.802261e+000 40 39 44
3.227454e+000 8.330722e-001 -5.797746e+000 39 38 44
3.538487e+000 9.135664e-001 -5.833889e+000 33 31 36
1.200295e+000 1.016412e+000 -6.202509e+000 195 192 143
1.710880e+000 9.509247e-001 -5.869254e+000 230 236 226
2.917188e+000 8.505709e-001 -5.912106e+000 53 54 59
2.775360e+000 6.870539e-001 -5.864511e+000 58 57 62
2.971190e+000 4.461904e-001 -5.806051e+000 45 44 43
2.608508e+000 3.438575e-001 -6.009923e+000 52 51 57
6.158777e-001 2.940945e-001 -6.052794e+000 221 225 219
2.641312e+000 1.484180e-001 -5.953188e+000 53 57 54
3.203293e+000 -6.741486e-002 -5.039090e+000 236 223 169
3.203338e+000 -6.779974e-002 -5.039119e+000 236 223 169
2.279891e+000 -1.474324e-001 -5.980165e+000 89 68 48
3.158632e+000 -5.925574e-001 -5.530123e+000 36 35 40
3.301964e+000 -6.554747e-001 -5.510051e+000 26 24 29
2.617867e+000 -7.389212e-001 -5.947906e+000 98 98 101
2.613611e+000 -7.771297e-001 -5.833104e+000 45 44 49
2.622008e+000 -7.787707e-001 -5.856656e+000 45 44 49
2.764811e+000 -1.184120e+000 -5.686707e+000 40 38 43
1.460916e+000 2.866721e+000 -6.630883e+000 200 75 79
8.927782e-002 3.818778e+000 -8.763521e+000 29 28 24
2.894481e+000 1.514551e+000 -5.962977e+000 57 56 62
3.048180e+000 1.409992e+000 -5.883284e+000 49 49 55
3.153144e+000 1.438734e+000 -5.855765e+000 50 51 55
2.810594e+000 1.444710e+000 -5.965658e+000 54 56 61
3.061864e+000 1.266589e+000 -5.815626e+000 40 42 47
3.313451e+000 1.357941e+000 -5.821138e+000 39 38 42
2.998846e+000 1.223125e+000 -5.905410e+000 48 49 53
3.296365e+000 9.973567e-001 -5.747960e+000 36 34 39
3.291462e+000 9.947133e-001 -5.736620e+000 36 34 39
3.442180e+000 1.153164e+000 -5.832713e+000 29 27 32
2.827136e+000 2.376657e-001 -5.693132e+000 51 49 53
-5.789121e-001 -7.896058e-002 -5.129812e+000 121 48 26
-1.299447e+000 -7.047628e-001 -3.997279e+000 66 21 17
5.523796e-001 3.140905e-001 -6.095314e+000 177 179 164
5.523796e-001 3.140905e-001 -6.095314e+000 177 179 164
-6.623707e-001 -4.418082e-001 -4.484503e+000 183 107 72
1.348779e+000 -8.513059e-001 -6.020612e+000 216 188 142
-1.877289e-001 -8.485733e-001 -4.669710e+000 137 95 64
-2.111770e-001 -9.105073e-001 -4.580754e+000 178 102 66
1.888795e+000 -1.707127e+000 -6.193173e+000 38 27 30
-4.999649e-002 4.026143e+000 -8.989761e+000 61 56 60
1.565069e-002 2.948434e+000 -8.096405e+000 191 75 69
2.895885e-001 1.430823e+000 -6.936641e+000 235 238 227
3.071274e+000 3.218920e-001 -5.639413e+000 122 112 76
-6.800642e-001 -3.848863e-001 -4.671433e+000 207 122 69
-3.788704e-001 -7.359847e-001 -4.604602e+000 100 59 39
-5.951909e-002 -2.952143e+000 -7.512359e+000 207 202 193
3.302149e+000 2.513231e-001 -5.431829e+000 47 45 50
-1.195159e+000 -1.016201e+000 -4.164096e+000 158 86 49
7.778011e-001 3.216352e+000 -7.240799e+000 195 89 94
7.904034e-001 3.255025e+000 -7.324658e+000 195 89 94
6.295300e-001 1.265359e-001 -5.621901e+000 221 225 216
-7.057146e-001 -4.952506e-001 -4.444474e+000 211 181 131
5.550040e-001 3.243222e+000 -7.416452e+000 204 91 90
2.893763e+000 4.297495e-001 -5.192321e+000 42 41 48
1.763255e-001 -1.394066e+000 -5.305966e+000 79 46 37
-8.611435e-001 3.995319e+000 -9.197130e+000 67 66 72
-8.437891e-001 4.024301e+000 -9.279534e+000 67 66 72
1.567040e+000 -9.640887e-001 -6.116169e+000 224 190 145
2.622233e+000 -8.721386e-001 -5.820155e+000 88 87 93
5.587198e-001 -6.772199e-003 -5.364713e+000 200 206 196
1.076964e+000 -8.968392e-001 -5.795007e+000 197 199 192
1.180545e+000 2.294872e+000 -6.420141e+000 97 91 62
1.179256e+000 2.276728e+000 -6.379647e+000 97 91 62
-1.320876e+000 -3.827995e-001 -4.100065e+000 33 27 29
2.282318e+000 1.623470e+000 -5.647956e+000 90 39 44
2.637572e+000 3.543520e-001 -6.074361e+000 52 51 59
-1.130148e+000 -7.193290e-001 -4.166525e+000 191 103 66
-1.130148e+000 -7.193290e-001 -4.166525e+000 191 103 66
-1.297313e+000 5.541239e-001 -5.273904e+000 35 29 31
2.322919e-001 1.438387e+000 -6.986983e+000 221 224 215
2.322919e-001 1.438387e+000 -6.986983e+000 221 224 215
2.626400e+000 9.219649e-001 -5.514718e+000 64 65 67
2.960003e+000 9.300140e-001 -5.891464e+000 70 69 75
3.121072e+000 7.744435e-001 -5.817992e+000 61 60 65
3.150336e+000 6.904392e-001 -5.814604e+000 64 63 69
2.835375e+000 -1.136746e+000 -5.632397e+000 79 77 82
3.022191e+000 9.257554e-001 -5.871186e+000 48 47 53
3.022191e+000 9.257554e-001 -5.871186e+000 48 47 53
2.910901e+000 6.752517e-001 -5.824360e+000 76 75 80
2.927596e+000 6.168432e-001 -5.805339e+000 47 48 52
2.656299e+000 -8.458202e-001 -5.900781e+000 48 47 53
2.610594e+000 -1.251192e+000 -5.784376e+000 52 50 53
-3.660120e-001 -1.182330e+000 -4.626971e+000 153 83 53
3.102013e+000 3.463054e-001 -5.421484e+000 138 125 79
-2.959013e-001 2.206043e+000 -8.123226e+000 224 214 210
2.828925e+000 1.597014e+000 -5.940282e+000 68 69 74
3.256820e+000 1.492179e+000 -5.778285e+000 60 59 65
3.200567e+000 1.461001e+000 -5.761818e+000 117 116 122
3.200567e+000 1.461001e+000 -5.761818e+000 117 116 122
3.161225e+000 1.379826e+000 -5.835430e+000 91 90 96
3.389878e+000 1.043799e+000 -5.734094e+000 58 56 61
3.468893e+000 9.295213e-001 -5.777490e+000 58 56 61
3.468893e+000 9.295213e-001 -5.777490e+000 58 56 61
3.361331e+000 8.481051e-001 -5.801862e+000 60 59 62
3.361331e+000 8.481051e-001 -5.801862e+000 60 59 62
2.812871e+000 6.259281e-001 -5.872230e+000 103 105 110
2.755158e+000 5.076661e-001 -5.820586e+000 105 109 112
1.254658e+000 -2.414214e-001 -5.715879e+000 142 138 130
2.581212e+000 -5.136179e-001 -5.633631e+000 143 126 82
3.071877e+000 -6.669768e-001 -5.569087e+000 51 49 53
2.724325e+000 -7.456405e-001 -5.819188e+000 54 54 56
2.862937e+000 -7.148649e-001 -5.763760e+000 43 41 46
7.346781e-001 -5.045490e-001 -5.598407e+000 83 74 67
2.477131e+000 -7.863581e-001 -5.999030e+000 55 55 55
2.577541e+000 -7.809748e-001 -5.937505e+000 51 50 55
2.577472e+000 -8.529676e-001 -5.947812e+000 56 55 60
2.888210e+000 -8.886751e-001 -5.547261e+000 38 38 40
2.581608e+000 -1.100201e+000 -5.881998e+000 45 43 48
2.672821e+000 -1.065883e+000 -5.788551e+000 43 41 46
1.486210e+000 -1.192873e+000 -6.149555e+000 167 133 105
-9.001527e-001 -1.136244e+000 -4.071565e+000 87 44 24
-1.784016e-001 -1.451573e+000 -4.790245e+000 97 40 27
2.920788e+000 -2.319289e+000 -5.439088e+000 28 22 26
3.030202e+000 1.566480e+000 -5.876643e+000 141 140 146
2.901830e+000 1.438807e+000 -5.898568e+000 129 128 134
3.062675e+000 1.349475e+000 -5.865523e+000 95 94 100
3.062675e+000 1.349475e+000 -5.865523e+000 95 94 100
6.102005e-001 2.084118e+000 -6.916002e+000 198 198 188
6.102005e-001 2.084118e+000 -6.916002e+000 198 198 188
2.986014e+000 1.283384e+000 -5.920476e+000 94 93 98
2.986014e+000 1.283384e+000 -5.920476e+000 94 93 98
3.185387e+000 1.103971e+000 -5.772499e+000 68 66 71
3.302644e+000 8.983013e-001 -5.841965e+000 39 37 42
3.519799e+000 9.772456e-001 -5.708532e+000 34 32 37
2.793803e+000 7.377570e-001 -5.802708e+000 59 60 65
2.839080e+000 4.476956e-001 -5.849090e+000 99 98 103
2.611695e+000 2.897183e-001 -5.977383e+000 107 108 112
3.216945e+000 -1.067426e-001 -5.062101e+000 61 54 45
7.072872e-001 -2.028226e-001 -5.380283e+000 167 166 161
2.544049e+000 -4.417489e-001 -5.703439e+000 178 164 104
3.219922e+000 -5.828224e-001 -5.502320e+000 52 53 57
3.140794e+000 -6.974077e-001 -5.526964e+000 91 89 93
5.844430e-001 -3.542860e-001 -5.389197e+000 106 97 88
2.778586e+000 -7.092894e-001 -5.808095e+000 50 49 54
2.466825e+000 -8.308927e-001 -5.936354e+000 48 47 54
2.569021e+000 -8.208260e-001 -5.963031e+000 101 100 105
2.915240e+000 -9.543168e-001 -5.651390e+000 46 43 46
2.556855e+000 -9.866231e-001 -5.971856e+000 43 41 46
2.883474e+000 -1.046130e+000 -5.633820e+000 87 86 91
