ply
format ascii 1.0
element face 0
property list uchar int vertex_indices
element vertex 882
property float x
property float y
property float z
property uchar diffuse_red
property uchar diffuse_green
property uchar diffuse_blue
end_header
2.647303e+000 1.594318e+000 -6.114222e+000 133 132 138
2.700897e+000 1.580800e+000 -6.125424e+000 73 72 78
1.179991e+000 1.386518e+000 -6.305209e+000 133 125 89
2.483716e+000 1.333890e+000 -5.998282e+000 81 81 86
2.930514e+000 1.278767e+000 -5.909507e+000 58 57 63
2.884191e+000 1.183184e+000 -5.934262e+000 95 94 100
-6.019664e-001 1.318043e+000 -8.581443e+000 206 207 202
-6.054196e-001 1.335037e+000 -8.696929e+000 206 207 202
1.191755e+000 1.007288e+000 -6.227217e+000 205 202 154
1.694656e+000 9.049900e-001 -5.858920e+000 219 220 210
1.775906e+000 8.729707e-001 -5.969612e+000 220 223 211
3.713227e-001 8.555592e-001 -6.642802e+000 237 243 235
2.781128e+000 7.433497e-001 -5.894006e+000 101 100 105
1.730674e+000 5.534138e-001 -6.042697e+000 242 245 236
2.725999e+000 5.499897e-001 -5.976371e+000 110 109 114
-3.373818e+000 7.259485e-001 -1.091513e+001 72 73 77
-3.725269e-001 5.325560e-001 -8.087066e+000 200 202 189
1.800971e+000 4.138752e-001 -5.746104e+000 214 216 205
2.732577e+000 3.949004e-001 -5.923734e+000 96 94 99
2.761169e+000 3.820789e-001 -5.878540e+000 48 47 52
2.851458e+000 4.559745e-001 -5.881373e+000 82 80 85
2.606646e+000 2.906320e-001 -5.959025e+000 88 91 91
2.856626e+000 3.021191e-001 -5.859670e+000 83 82 86
2.894072e+000 2.915128e-001 -5.844873e+000 49 43 49
2.824434e+000 2.101152e-001 -5.801191e+000 83 80 80
-4.601041e-001 8.241304e-002 -5.113844e+000 131 65 41
2.288901e-001 7.023483e-002 -5.735917e+000 201 207 197
2.288901e-001 7.023483e-002 -5.735917e+000 201 207 197
-7.424724e-002 -7.019669e-002 -4.969376e+000 200 203 194
2.164838e-001 -7.632204e-002 -5.072562e+000 216 221 217
2.164838e-001 -7.632204e-002 -5.072562e+000 216 221 217
7.173008e-001 -5.655486e-002 -5.439980e+000 201 207 197
7.728609e-001 -6.921509e-002 -5.459332e+000 200 206 196
8.525973e-001 -6.002268e-002 -5.494834e+000 173 177 169
8.704300e-001 -9.950766e-002 -5.491936e+000 191 195 188
2.234671e+000 -1.143531e-001 -5.961807e+000 174 79 77
-2.872007e-001 -1.501440e-001 -4.570026e+000 173 163 136
5.219866e-001 -2.029180e-001 -5.413239e+000 152 151 147
6.742948e-001 -1.857882e-001 -5.360938e+000 140 143 136
7.528023e-001 -1.789785e-001 -5.544217e+000 148 150 145
1.263466e+000 -3.097157e-001 -5.675856e+000 142 138 132
-1.304062e+000 -4.330204e-001 -4.158550e+000 74 30 26
-8.155553e-001 -4.235791e-001 -4.256841e+000 165 130 112
-6.087945e-001 -4.299193e-001 -4.669135e+000 218 120 75
-6.211288e-001 -4.403911e-001 -4.745244e+000 218 120 75
-5.245388e-001 -4.597906e-001 -4.621664e+000 220 172 129
9.438819e-002 -4.162623e-001 -4.604691e+000 152 84 59
9.816665e-001 -6.477352e-001 -5.775004e+000 162 150 142
2.165549e+000 -7.230467e-001 -6.182291e+000 106 57 39
3.030254e+000 -6.695835e-001 -5.652517e+000 56 52 58
-1.337581e+000 -5.701800e-001 -4.050932e+000 105 60 47
-1.261296e+000 -5.145792e-001 -4.027160e+000 93 43 37
-1.298466e+000 -5.661833e-001 -4.013738e+000 115 69 62
-1.014120e+000 -6.047628e-001 -4.103883e+000 134 57 32
-6.542195e-001 -5.439406e-001 -4.233291e+000 212 176 133
-5.323339e-001 -5.814863e-001 -4.302769e+000 155 117 89
4.477683e-001 -6.133751e-001 -4.721837e+000 114 102 95
3.069177e+000 -7.579169e-001 -5.564010e+000 50 48 53
-1.400674e+000 -6.676456e-001 -4.062616e+000 111 92 52
-1.364568e+000 -6.626536e-001 -4.053108e+000 171 144 102
-1.265507e+000 -6.803959e-001 -3.990254e+000 132 88 83
-1.042914e+000 -6.011345e-001 -4.002896e+000 199 116 76
-6.885028e-001 -6.886576e-001 -4.193073e+000 106 84 64
2.444623e+000 -9.065618e-001 -5.876519e+000 48 43 49
2.567927e+000 -8.762388e-001 -5.863912e+000 100 98 103
2.582757e+000 -8.824048e-001 -5.905702e+000 100 98 103
2.743532e+000 -9.666981e-001 -5.748521e+000 40 38 43
2.911749e+000 -9.063242e-001 -5.599808e+000 41 39 44
2.966449e+000 -9.548291e-001 -5.586448e+000 41 38 45
-1.394146e+000 -7.670598e-001 -3.987734e+000 123 103 63
-1.369139e+000 -8.366638e-001 -4.022619e+000 71 62 35
-1.224531e+000 -8.249490e-001 -3.960710e+000 124 68 60
-1.052993e+000 -7.860850e-001 -4.114208e+000 197 105 66
2.768168e+000 -1.063409e+000 -5.682457e+000 42 40 45
2.854600e+000 -1.032098e+000 -5.575558e+000 80 78 83
-1.487344e+000 -8.553131e-001 -3.891066e+000 161 140 93
-1.487344e+000 -8.553131e-001 -3.891066e+000 161 140 93
-1.209402e+000 -9.140161e-001 -3.977129e+000 126 66 48
-8.384077e-001 -9.239167e-001 -3.902741e+000 87 32 16
-4.578198e-001 -1.025204e+000 -4.453855e+000 125 69 49
-3.217191e-001 -9.936076e-001 -4.530507e+000 114 50 25
-1.204624e-001 -1.138681e+000 -4.849703e+000 126 78 53
1.748980e+000 -1.357454e+000 -6.127632e+000 118 61 36
1.717608e+000 -1.381793e+000 -6.140008e+000 188 136 109
1.723240e+000 -1.388947e+000 -6.180803e+000 188 136 109
1.995947e+000 -1.391251e+000 -6.191427e+000 171 60 59
2.118162e+000 -1.367853e+000 -6.018348e+000 132 48 50
1.985181e+000 -1.642259e+000 -6.245696e+000 44 27 29
2.030386e+000 -1.585275e+000 -6.194427e+000 59 27 30
1.337085e+000 -1.846205e+000 -6.265827e+000 176 168 157
7.330456e-001 2.388164e+000 -7.209966e+000 211 209 197
7.052780e-001 2.266639e+000 -7.154313e+000 208 205 194
7.052780e-001 2.266639e+000 -7.154313e+000 208 205 194
1.027637e+000 1.890352e+000 -6.387350e+000 121 111 77
2.843497e+000 1.703143e+000 -6.094332e+000 61 60 68
2.922280e+000 1.682463e+000 -5.980025e+000 60 59 65
3.063083e+000 1.687562e+000 -5.939052e+000 53 50 57
2.697228e+000 1.590971e+000 -6.111846e+000 70 69 75
2.710762e+000 1.530174e+000 -6.035335e+000 177 176 182
2.993949e+000 1.468505e+000 -6.001614e+000 48 49 54
1.428255e+000 1.303744e+000 -6.030816e+000 148 140 103
1.428255e+000 1.303744e+000 -6.030816e+000 148 140 103
2.526989e+000 1.408570e+000 -6.126568e+000 149 148 151
2.618596e+000 1.348923e+000 -6.061048e+000 159 160 165
3.100079e+000 1.354334e+000 -5.847183e+000 44 43 48
-1.214681e+000 1.730925e+000 -8.851280e+000 60 39 40
7.690590e-001 1.199254e+000 -6.669424e+000 229 233 224
2.817178e+000 1.151823e+000 -6.067269e+000 62 62 67
2.941183e+000 1.054635e+000 -5.931051e+000 52 49 56
3.041697e+000 1.117100e+000 -5.891132e+000 44 42 47
3.323114e-001 1.199600e+000 -6.925772e+000 198 200 189
1.381296e+000 9.123885e-001 -6.073176e+000 201 201 166
3.017076e+000 1.015484e+000 -5.906722e+000 45 44 50
3.142752e+000 9.260231e-001 -5.939272e+000 42 39 46
2.137336e-001 1.005781e+000 -6.952096e+000 187 193 183
4.693144e-001 7.927857e-001 -6.661471e+000 236 242 234
1.053742e+000 8.838919e-001 -6.196775e+000 218 220 208
2.796184e+000 6.971391e-001 -5.928017e+000 54 52 57
2.884309e+000 7.054646e-001 -5.870988e+000 52 51 57
8.304705e-001 6.656692e-001 -6.439780e+000 239 242 231
2.829930e+000 6.523296e-001 -5.902980e+000 93 92 98
2.829930e+000 6.523296e-001 -5.902980e+000 93 92 98
3.149588e+000 5.311864e-001 -5.468414e+000 58 50 44
2.664508e+000 4.492319e-001 -5.937509e+000 89 88 93
2.669000e+000 4.497420e-001 -5.945336e+000 89 88 93
2.822447e+000 5.063308e-001 -5.887228e+000 53 52 57
2.922553e+000 3.386419e-001 -5.772265e+000 45 44 49
-3.373670e+000 5.688603e-001 -1.085116e+001 66 65 70
2.738635e+000 2.134188e-001 -5.937402e+000 52 51 56
2.801063e+000 3.357773e-001 -5.920939e+000 88 89 94
2.530332e-001 1.113825e-001 -5.637232e+000 227 233 223
2.530332e-001 1.113825e-001 -5.637232e+000 227 233 223
1.240810e+000 5.280763e-002 -5.575870e+000 156 153 146
9.204069e-001 -1.214550e-001 -5.543344e+000 193 194 189
3.000174e-001 -2.284415e-001 -4.850980e+000 179 182 174
4.072121e-001 -2.372000e-001 -4.971090e+000 99 96 87
-1.023979e+000 -2.496028e-001 -4.284090e+000 35 26 23
-6.544168e-001 -3.392963e-001 -4.862730e+000 161 74 35
9.024545e-003 -3.433801e-001 -4.735671e+000 204 157 128
5.934673e-001 -4.108713e-001 -5.394669e+000 101 94 84
1.030474e+000 -4.817378e-001 -5.632642e+000 156 156 148
1.482822e+000 -4.651698e-001 -6.010814e+000 56 41 32
-1.259313e+000 -3.955787e-001 -4.178616e+000 40 28 28
-8.353904e-001 -4.923527e-001 -4.257817e+000 111 89 76
-6.435552e-001 -4.353347e-001 -4.668605e+000 162 81 37
1.481204e+000 -6.751390e-001 -6.069607e+000 133 99 65
1.481204e+000 -6.751390e-001 -6.069607e+000 133 99 65
2.410197e+000 -6.251067e-001 -5.787195e+000 107 92 62
2.552002e+000 -5.784008e-001 -5.720903e+000 116 101 67
2.803709e+000 -6.606890e-001 -5.854605e+000 108 104 105
2.880200e+000 -6.667909e-001 -5.779057e+000 101 97 104
2.884073e+000 -6.665837e-001 -5.787049e+000 101 97 104
2.994891e+000 -6.031530e-001 -5.703597e+000 63 62 65
3.016658e+000 -6.251772e-001 -5.664024e+000 38 36 41
-1.438142e+000 -5.362024e-001 -4.167354e+000 54 45 34
-1.435073e+000 -5.502342e-001 -4.088949e+000 136 122 80
-9.533814e-001 -5.407547e-001 -4.005380e+000 116 44 22
-6.102710e-001 -5.416680e-001 -4.213314e+000 150 123 73
1.638059e+000 -7.489438e-001 -6.208915e+000 60 33 22
2.842790e+000 -7.489942e-001 -5.773357e+000 48 46 51
2.763414e+000 -7.872878e-001 -5.807595e+000 53 52 57
2.887500e+000 -6.825115e-001 -5.688183e+000 44 43 48
2.979329e+000 -7.487275e-001 -5.707218e+000 39 37 42
2.998930e+000 -7.167666e-001 -5.572633e+000 40 35 41
-3.935422e-001 -7.713936e-001 -4.435300e+000 130 75 51
2.460606e+000 -9.940773e-001 -5.921426e+000 43 36 43
2.494381e+000 -9.781195e-001 -5.786825e+000 50 48 53
2.676874e+000 -9.248679e-001 -5.899072e+000 99 97 102
2.497209e+000 -1.062115e+000 -5.841325e+000 46 41 47
2.640937e+000 -1.064123e+000 -5.868873e+000 44 39 43
2.766765e+000 -1.181030e+000 -5.697000e+000 43 37 44
-8.737159e-001 -9.359099e-001 -3.910045e+000 112 60 50
-7.866931e-001 -9.591745e-001 -4.037476e+000 82 32 20
-6.646229e-001 -1.012678e+000 -4.227974e+000 83 52 40
-2.858914e-001 -1.011867e+000 -4.673983e+000 121 65 44
1.680639e+000 -1.418171e+000 -6.276205e+000 106 41 29
1.938212e+000 -1.253968e+000 -6.029703e+000 207 143 126
2.596082e+000 -1.237590e+000 -5.858883e+000 38 33 39
2.819025e+000 -1.171271e+000 -5.631175e+000 34 31 36
-3.507217e-001 -1.179636e+000 -4.782431e+000 87 28 17
-5.439802e-002 -1.237928e+000 -4.961043e+000 176 64 52
-5.477720e-002 -1.235452e+000 -4.951914e+000 176 64 52
-8.657518e-001 -1.119971e+000 -4.031267e+000 148 85 46
1.749781e+000 -1.721193e+000 -6.219546e+000 178 69 69
-2.067898e-001 -1.598723e+000 -5.073281e+000 74 37 27
1.438052e+000 2.810277e+000 -6.671481e+000 233 213 203
1.663832e+000 2.828920e+000 -6.636628e+000 178 78 76
1.685980e+000 2.701631e+000 -6.465801e+000 232 222 212
2.066585e+000 1.541021e+000 -5.835181e+000 133 60 60
3.068141e+000 1.514275e+000 -5.945594e+000 63 60 67
2.624310e+000 1.273292e+000 -5.889127e+000 57 57 67
2.671754e+000 1.223567e+000 -6.017082e+000 71 70 75
3.106586e+000 1.024151e+000 -5.871139e+000 40 38 45
-1.228011e+000 1.473127e+000 -9.027532e+000 50 42 44
2.349891e-001 1.197180e+000 -7.013109e+000 176 175 166
-4.077512e-001 9.939658e-001 -8.245724e+000 205 207 195
8.009528e-001 8.369420e-001 -6.682244e+000 219 221 207
1.405849e+000 6.136832e-001 -5.797213e+000 224 230 220
2.984193e+000 4.559012e-001 -5.849260e+000 44 42 45
6.288678e-002 2.034790e-001 -5.934403e+000 222 224 213
2.538787e+000 2.819194e-001 -6.001264e+000 49 49 47
-3.318660e-001 1.264092e-001 -5.144326e+000 221 226 214
-5.228068e-001 -1.194906e-001 -4.993992e+000 166 99 65
2.372743e+000 -1.011562e-001 -5.820631e+000 180 176 129
-4.041868e-001 -2.273474e-001 -4.549333e+000 69 55 74
4.637738e-002 -2.483726e-001 -4.637355e+000 208 200 190
8.971594e-001 -6.023094e-001 -5.765920e+000 147 143 134
1.603896e+000 -6.736446e-001 -6.109554e+000 178 149 117
2.927537e+000 -6.531277e-001 -5.744688e+000 49 44 50
9.434419e-001 -7.334587e-001 -5.780766e+000 200 202 193
1.002089e+000 -7.002498e-001 -5.831985e+000 60 44 36
2.536423e+000 -8.703002e-001 -5.924142e+000 52 50 55
2.898389e+000 -7.821547e-001 -5.740272e+000 41 39 44
3.101260e+000 -7.051852e-001 -5.570982e+000 48 46 51
2.987280e+000 -8.204133e-001 -5.608985e+000 38 36 41
2.593893e+000 -9.283176e-001 -5.862322e+000 61 60 65
2.815065e+000 -9.264521e-001 -5.703791e+000 42 40 45
2.885510e+000 -8.541583e-001 -5.658798e+000 40 38 43
2.909676e+000 -9.930991e-001 -5.650491e+000 43 40 47
-7.690023e-001 -7.531134e-001 -4.093252e+000 128 72 50
-1.835550e-001 -1.121210e+000 -4.760418e+000 111 53 34
-8.853833e-002 -1.105551e+000 -4.890176e+000 160 116 85
1.635334e+000 -1.496147e+000 -6.374788e+000 202 96 97
-2.542824e-004 -1.322355e+000 -4.962929e+000 219 128 83
1.719833e+000 -1.510176e+000 -6.272737e+000 205 90 97
1.376005e-001 3.078948e+000 -8.004761e+000 199 69 68
-3.774812e-001 2.773693e+000 -8.639993e+000 60 51 49
2.146436e-001 2.627498e+000 -7.890305e+000 211 202 188
2.290512e+000 2.036092e+000 -6.023245e+000 199 83 83
-7.225127e-001 2.154081e+000 -8.583517e+000 55 50 57
4.709201e-001 1.775221e+000 -7.061577e+000 189 191 180
2.506311e+000 1.316917e+000 -5.935389e+000 74 73 82
2.839565e+000 1.046560e+000 -5.962260e+000 59 56 63
7.958401e-002 5.882609e-001 -6.666540e+000 224 226 213
3.167624e-001 4.235190e-001 -6.165221e+000 189 190 176
2.791438e+000 4.044057e-001 -5.873843e+000 58 57 62
-4.351553e-001 -2.133194e-002 -5.125066e+000 211 214 199
-4.351553e-001 -2.133194e-002 -5.125066e+000 211 214 199
-4.513922e-001 -2.602216e-001 -4.575991e+000 213 182 141
-2.838390e-001 -2.057795e-001 -4.634052e+000 204 185 143
1.483887e-002 -2.877053e-001 -4.607296e+000 174 77 69
4.438450e-001 -3.737207e-001 -4.720915e+000 147 149 138
8.243258e-001 -4.901944e-001 -5.575725e+000 111 102 94
2.351875e+000 -7.506282e-001 -5.947700e+000 187 80 77
3.120397e+000 -7.731860e-001 -5.553346e+000 86 85 91
-1.289373e+000 -6.622658e-001 -3.977120e+000 77 33 28
7.799310e-001 -8.715843e-001 -5.695155e+000 89 80 74
1.507552e+000 -1.158489e+000 -6.171854e+000 179 142 108
-1.221624e+000 -9.208306e-001 -4.117569e+000 89 34 22
-3.903438e-002 -9.995133e-001 -4.628011e+000 141 81 51
-8.632342e-001 -9.798355e-001 -3.979286e+000 65 27 14
-7.137353e-002 -1.184043e+000 -4.946631e+000 70 31 29
1.246833e+000 -1.544857e+000 -6.269525e+000 152 142 132
-8.357303e-001 -1.115779e+000 -4.086567e+000 41 32 35
1.251282e+000 -1.829619e+000 -6.334949e+000 189 181 170
2.295697e+000 2.496606e+000 -5.895664e+000 43 31 36
2.556427e+000 2.586236e+000 -6.149398e+000 43 33 42
3.866423e-001 2.976219e+000 -7.584479e+000 187 76 72
-3.412369e-002 3.189626e+000 -8.455500e+000 42 53 56
1.791738e+000 2.259501e+000 -6.195539e+000 207 200 182
-1.653065e-001 2.776190e+000 -8.319161e+000 189 70 66
9.357767e-001 1.535133e+000 -6.425073e+000 212 212 201
9.728765e-001 1.587909e+000 -6.668494e+000 212 212 201
1.365025e+000 1.551763e+000 -6.247834e+000 150 142 100
-3.453062e-001 1.923557e+000 -8.402445e+000 209 215 201
-7.181673e-001 1.043939e+000 -8.522702e+000 199 201 188
-2.635713e-002 8.685290e-001 -7.198345e+000 235 241 229
-3.181610e-001 7.373989e-001 -8.099523e+000 186 184 172
1.741916e-001 -3.936095e-001 -4.618310e+000 182 79 68
1.276663e+000 -5.053939e-001 -5.849459e+000 101 66 53
1.109919e+000 -6.862384e-001 -5.832935e+000 64 32 27
1.625715e+000 -6.019788e-001 -6.195691e+000 73 50 37
1.304222e+000 -7.827915e-001 -6.070609e+000 52 36 34
-1.522399e+000 -6.073468e-001 -4.055170e+000 36 31 31
-4.988281e-001 -7.216665e-001 -4.266715e+000 102 59 35
-1.490862e+000 -7.347695e-001 -3.974068e+000 46 33 26
4.553195e-001 -9.711563e-001 -5.057480e+000 82 65 54
1.198465e+000 -1.040833e+000 -5.824854e+000 163 161 152
-1.263195e+000 -9.167534e-001 -3.983914e+000 41 41 39
-1.263195e+000 -9.167534e-001 -3.983914e+000 41 41 39
1.431942e+000 -2.030787e+000 -6.515364e+000 178 172 160
7.198927e-001 2.934484e+000 -7.272947e+000 203 88 91
2.093398e-001 2.857401e+000 -7.881529e+000 184 70 65
7.529347e-001 2.056312e+000 -6.851747e+000 235 235 226
3.628738e-001 1.916339e+000 -7.491654e+000 230 230 218
2.355637e+000 1.563934e+000 -5.957513e+000 190 92 86
1.085760e-001 1.690641e+000 -7.550229e+000 243 248 241
2.393116e-001 1.253252e+000 -6.950723e+000 194 194 182
1.091490e+000 1.096499e+000 -6.358182e+000 230 235 228
9.546783e-001 5.756707e-001 -5.785185e+000 93 91 69
9.546783e-001 5.756707e-001 -5.785185e+000 93 91 69
1.078079e-001 -1.204435e-001 -4.825610e+000 181 187 177
3.895755e-001 -1.962703e-001 -4.930684e+000 111 107 99
-1.154232e-001 -3.575969e-001 -4.656029e+000 213 175 130
-9.782631e-002 -3.593890e-001 -4.678625e+000 213 175 130
1.425447e+000 -5.379094e-001 -5.982874e+000 174 146 115
1.390734e+000 -8.538688e-001 -5.980189e+000 224 191 150
1.723274e+000 -7.796357e-001 -6.234942e+000 70 32 33
3.044988e+000 -8.806387e-001 -5.594851e+000 65 62 69
-1.147707e+000 -8.712772e-001 -3.978125e+000 124 73 69
-8.835680e-002 -1.555142e+000 -5.051758e+000 81 36 31
-2.398500e-001 3.458147e+000 -8.968512e+000 83 82 88
1.067847e+000 2.628811e+000 -6.594011e+000 126 117 78
-1.025196e-001 1.878067e+000 -7.997121e+000 184 181 165
-5.670016e-001 8.599567e-001 -8.362823e+000 224 226 213
1.081753e+000 5.452837e-001 -5.543984e+000 230 233 223
6.030530e-001 -1.223505e-001 -5.326113e+000 203 208 201
1.227785e+000 -1.727202e-001 -5.657139e+000 152 149 142
-5.847596e-001 -4.613016e-001 -4.569536e+000 157 83 48
7.862322e-001 -9.478022e-001 -5.639787e+000 87 73 65
-3.507542e-001 -1.002662e+000 -4.554900e+000 117 56 29
-1.209475e-001 -1.217700e+000 -4.888639e+000 65 26 22
1.584998e-001 -1.344938e+000 -5.082019e+000 74 36 28
2.741490e+000 2.369676e+000 -5.811361e+000 202 85 88
2.750670e+000 2.134121e+000 -5.770045e+000 33 24 29
-1.753667e-001 8.981261e-001 -7.781742e+000 236 241 234
2.905252e-002 3.123297e-001 -6.346693e+000 181 182 168
5.164031e-001 -2.899106e-001 -5.155592e+000 85 78 72
5.316720e-001 -3.137297e-001 -5.434565e+000 85 78 72
-1.899537e-001 -5.465575e-001 -4.631914e+000 110 61 39
8.658549e-003 -5.516335e-001 -4.687635e+000 216 179 137
1.125420e+000 -1.216934e+000 -5.996376e+000 90 68 54
4.968641e-002 -3.071974e+000 -7.395312e+000 27 14 20
1.522210e+000 2.650339e+000 -6.549587e+000 227 221 202
1.996754e+000 -6.236850e-002 -5.897007e+000 66 37 39
2.858925e+000 -2.936645e-001 -5.514116e+000 131 116 75
-8.883862e-001 -5.067124e-001 -4.375381e+000 100 64 45
3.694073e-001 -7.281097e-001 -4.781222e+000 58 33 26
-1.087975e+000 -7.490964e-001 -3.985830e+000 227 135 90
-1.457303e-001 7.820219e-002 -4.943175e+000 218 219 211
-4.068689e-001 -3.792925e-001 -4.617878e+000 223 180 135
2.549661e+000 -4.005481e-001 -5.807889e+000 194 179 124
7.081449e-001 -6.108295e-001 -5.536498e+000 43 32 35
7.167112e-001 -6.358046e-001 -5.725555e+000 43 32 35
3.277015e+000 1.728638e+000 -6.500751e+000 98 97 103
1.263269e+000 1.335040e+000 -6.010326e+000 127 118 84
1.592918e+000 -3.195889e-001 -5.899728e+000 58 46 38
6.149591e-002 -9.124551e-001 -4.856106e+000 231 195 145
-1.739791e-001 -1.410939e+000 -5.286606e+000 96 41 30
6.201611e-001 -1.888437e+000 -6.763733e+000 56 21 23
-1.106013e+000 -6.936608e-001 -4.067414e+000 191 98 57
2.032572e+000 8.610861e-001 -5.856233e+000 219 218 210
-7.637918e-001 2.513189e+000 -9.080795e+000 69 65 72
1.363988e+000 2.313164e+000 -6.150302e+000 155 142 105
-1.013828e+000 2.237025e+000 -9.242213e+000 57 55 59
2.516673e+000 2.462532e+000 -5.936925e+000 48 35 38
1.040284e+000 2.008440e+000 -6.436131e+000 157 148 105
1.332382e+000 2.013349e+000 -6.272166e+000 198 188 135
-3.528854e+000 1.051562e+000 -1.099703e+001 63 62 67
-3.515135e+000 9.905412e-001 -1.105686e+001 62 61 66
-3.507220e+000 8.935177e-001 -1.108355e+001 68 67 72
-3.485366e+000 8.905754e-001 -1.101765e+001 68 67 72
-3.377814e+000 9.542906e-001 -1.093050e+001 57 56 62
2.721116e+000 1.801512e+000 -6.087443e+000 53 49 58
1.151192e+000 1.378060e+000 -6.192965e+000 136 125 93
1.423411e+000 1.485821e+000 -6.207023e+000 214 207 162
2.548823e+000 1.577292e+000 -6.091534e+000 128 126 134
2.675722e+000 1.652816e+000 -6.076127e+000 65 64 70
1.161274e+000 1.187556e+000 -6.589111e+000 205 207 193
2.519381e+000 1.507366e+000 -6.145150e+000 90 90 98
2.516322e+000 1.480802e+000 -6.082526e+000 61 59 66
2.706342e+000 1.499665e+000 -6.080593e+000 79 76 83
2.532206e+000 1.383560e+000 -6.040197e+000 59 58 63
2.604801e+000 1.293390e+000 -5.982949e+000 62 59 67
2.639568e+000 1.270942e+000 -6.017789e+000 101 98 103
2.852546e+000 1.262018e+000 -5.923461e+000 45 42 49
-4.979419e-001 6.418743e-002 -4.965610e+000 153 79 46
-5.920351e-001 -2.943589e-002 -5.042185e+000 212 135 92
-1.416071e-001 -5.141653e-002 -5.713900e+000 214 218 203
6.007947e-001 1.712648e-001 -5.664497e+000 207 211 200
2.718042e+000 5.645922e-001 -6.021522e+000 57 53 60
2.778943e+000 5.583229e-001 -5.882933e+000 51 50 55
2.778943e+000 5.583229e-001 -5.882933e+000 51 50 55
2.931976e+000 5.061066e-001 -5.815690e+000 61 60 65
2.931976e+000 5.061066e-001 -5.815690e+000 61 60 65
-3.771100e-001 -1.375398e-001 -4.596244e+000 150 122 110
2.665007e+000 1.934780e-001 -5.889219e+000 73 71 74
2.828907e+000 3.104750e-001 -5.801350e+000 70 69 74
2.953567e+000 3.417303e-001 -5.756377e+000 60 59 64
1.210239e+000 -2.706521e-001 -5.699248e+000 166 166 156
-1.411623e+000 -5.926070e-001 -4.060864e+000 158 136 87
-1.333522e+000 -5.260771e-001 -4.107093e+000 106 61 52
-9.481032e-001 -5.684958e-001 -4.029396e+000 144 73 53
-7.184359e-001 -6.831856e-001 -4.178917e+000 79 61 61
-3.034857e-001 -8.256320e-001 -4.756750e+000 146 101 67
2.713047e+000 -7.398415e-001 -5.877455e+000 65 60 62
-7.606262e-001 -8.881723e-001 -4.051042e+000 102 35 10
-4.440895e-001 -1.047372e+000 -4.475419e+000 133 60 27
9.321243e-001 -1.751141e+000 -6.693250e+000 108 92 76
1.611287e+000 -1.173196e+000 -6.094974e+000 199 160 115
3.073087e+000 -7.417538e-001 -5.626029e+000 52 47 51
-1.448607e-001 -1.282571e+000 -4.784458e+000 127 56 30
2.782974e+000 -1.058059e+000 -5.719710e+000 33 28 32
1.597801e+000 2.519232e+000 -6.397157e+000 207 197 179
-3.277808e+000 6.389958e-001 -1.094047e+001 54 53 58
2.798669e-001 1.237231e+000 -6.892234e+000 211 212 197
2.717543e+000 1.764691e+000 -6.041459e+000 111 106 113
2.650709e+000 1.667126e+000 -6.106702e+000 134 132 137
2.650709e+000 1.667126e+000 -6.106702e+000 134 132 137
2.629324e+000 1.582869e+000 -6.067248e+000 157 156 162
2.629771e+000 1.445803e+000 -6.056087e+000 120 117 124
2.653673e+000 1.446986e+000 -6.015820e+000 54 51 58
2.716728e+000 1.549590e+000 -6.136996e+000 66 63 70
2.746023e+000 1.580990e+000 -5.998511e+000 59 58 64
2.867820e+000 1.614748e+000 -6.033025e+000 56 53 60
2.734250e+000 1.337215e+000 -5.997243e+000 49 47 52
1.485361e-001 5.922387e-001 -6.688319e+000 234 238 224
4.764339e-001 4.136481e-001 -6.555420e+000 203 213 203
6.372332e-001 5.675293e-001 -6.520352e+000 213 217 203
1.833219e+000 8.608647e-001 -6.145954e+000 224 224 214
1.881069e+000 8.267109e-001 -5.803290e+000 213 213 201
2.841158e+000 1.122807e+000 -6.005475e+000 82 77 83
-4.642082e-001 1.185145e-001 -5.088039e+000 156 96 68
1.432399e+000 5.790722e-001 -5.159770e+000 217 222 215
2.780725e+000 7.490420e-001 -5.893472e+000 75 74 78
3.004599e+000 8.178989e-001 -5.941368e+000 40 38 43
-6.296351e-001 -2.262870e-001 -4.978637e+000 220 119 66
-2.976185e-001 -4.891771e-002 -4.608862e+000 170 79 79
3.525815e-001 -5.222734e-002 -5.181122e+000 205 212 204
2.848308e+000 4.615479e-001 -5.873361e+000 66 65 70
-5.378432e-001 -2.783938e-001 -4.755907e+000 185 95 59
-4.522618e-001 -1.987013e-001 -4.540761e+000 174 144 114
-3.081518e-001 -1.152366e-001 -4.546479e+000 88 74 63
-3.081518e-001 -1.152366e-001 -4.546479e+000 88 74 63
2.763463e+000 2.263144e-001 -5.862582e+000 65 63 66
7.403677e-001 -3.126039e-001 -5.439925e+000 177 178 170
2.675769e+000 6.000182e-002 -5.792801e+000 133 118 87
-1.419851e+000 -5.718877e-001 -4.053342e+000 102 82 33
-6.082708e-001 -4.566495e-001 -4.511277e+000 175 93 54
1.196869e+000 -3.560655e-001 -5.673923e+000 162 162 151
-1.400191e+000 -6.163916e-001 -4.073569e+000 117 94 44
-1.392968e+000 -6.093545e-001 -4.055213e+000 117 94 44
-7.521411e-001 -5.301059e-001 -4.306922e+000 208 188 164
1.469160e+000 -6.736284e-001 -6.051585e+000 164 124 82
-1.429436e+000 -7.046367e-001 -3.989472e+000 148 127 77
-1.050894e+000 -7.342657e-001 -3.955427e+000 224 132 89
-9.390103e-001 -7.315616e-001 -3.969171e+000 183 97 62
1.675648e+000 -1.262223e+000 -6.185088e+000 210 172 129
2.581396e+000 -8.783230e-001 -5.905879e+000 65 60 64
2.708837e+000 -8.268203e-001 -5.969588e+000 59 54 58
3.044252e+000 -6.463471e-001 -5.579118e+000 32 27 31
3.044252e+000 -6.463471e-001 -5.579118e+000 32 27 31
-7.072439e-001 -9.660702e-001 -4.114133e+000 91 42 19
6.528196e-002 -1.153337e+000 -4.888081e+000 177 122 89
1.737857e+000 -1.404481e+000 -6.211189e+000 191 130 106
2.279805e+000 -1.397649e+000 -6.217431e+000 43 18 18
2.751104e+000 -1.067810e+000 -5.874227e+000 52 47 51
1.677723e+000 2.222658e+000 -6.191373e+000 203 197 184
2.621242e+000 1.627582e+000 -6.088534e+000 63 57 63
2.700034e+000 1.705036e+000 -6.048825e+000 160 156 162
2.819412e+000 1.679763e+000 -6.039815e+000 60 57 64
-4.013694e-001 8.583399e-001 -8.218697e+000 221 222 207
2.686450e+000 1.520358e+000 -5.980266e+000 158 155 162
2.686450e+000 1.520358e+000 -5.980266e+000 158 155 162
2.746193e+000 1.473779e+000 -6.035193e+000 56 53 60
2.625833e+000 1.344924e+000 -6.067475e+000 128 125 134
2.777269e+000 1.382192e+000 -6.077281e+000 52 49 55
2.763513e+000 1.379821e+000 -6.048281e+000 52 49 55
2.753081e+000 1.426241e+000 -6.010599e+000 115 112 120
2.742460e+000 1.423752e+000 -5.986207e+000 115 112 120
2.826514e+000 1.413779e+000 -6.049015e+000 52 49 56
2.692567e+000 1.352721e+000 -5.991766e+000 111 109 114
8.315862e-001 7.715306e-001 -6.557489e+000 237 239 225
1.369328e+000 8.556856e-001 -5.993995e+000 229 231 214
2.739800e+000 1.252948e+000 -6.052059e+000 108 107 113
2.676714e+000 1.229631e+000 -5.815648e+000 53 50 57
3.348878e-001 4.883487e-001 -6.319289e+000 213 216 205
2.835074e+000 1.016475e+000 -5.962030e+000 49 46 55
-2.251196e+000 -7.487069e-001 -1.049853e+001 24 19 21
-2.332288e+000 -8.234836e-001 -1.055819e+001 59 57 60
-6.011750e-001 -1.561382e-001 -4.943302e+000 210 113 62
-1.786713e-001 -2.211247e-002 -4.758017e+000 185 184 172
5.000412e-001 -2.989519e-002 -5.346425e+000 194 204 195
-3.387963e-001 -1.425308e-001 -4.585934e+000 168 155 131
-1.945507e-001 -1.650279e-001 -4.575069e+000 182 137 104
-1.912159e-001 -1.610254e-001 -4.538695e+000 182 137 104
2.553537e-001 -1.633713e-001 -4.814246e+000 161 166 156
2.574284e+000 2.479185e-001 -5.890603e+000 50 48 53
2.911727e+000 2.802819e-001 -5.889014e+000 40 38 45
-7.659943e-001 -4.044220e-001 -4.666872e+000 196 111 66
-6.145200e-001 -4.253126e-001 -4.641550e+000 217 120 75
-8.631863e-001 -4.563227e-001 -4.230367e+000 85 42 24
5.928617e-001 -4.220168e-001 -5.450519e+000 122 116 104
-1.362155e+000 -6.004987e-001 -4.055897e+000 154 126 79
-1.294199e+000 -5.650400e-001 -4.018506e+000 119 67 57
-6.449317e-001 -5.359777e-001 -4.200149e+000 219 181 132
8.339243e-001 -8.546872e-001 -5.646352e+000 153 149 137
1.632189e+000 -7.988496e-001 -6.164797e+000 183 140 108
1.552564e+000 -7.989937e-001 -6.047482e+000 143 95 59
1.688916e+000 -8.389300e-001 -6.139278e+000 146 56 45
1.914535e+000 -7.979351e-001 -6.328669e+000 188 78 76
2.036263e+000 -7.528184e-001 -6.130332e+000 192 79 76
-1.456867e+000 -7.913020e-001 -3.897314e+000 142 121 67
-9.589677e-001 -7.886736e-001 -3.949351e+000 210 118 77
-9.070272e-001 -7.921970e-001 -3.953988e+000 192 104 64
-8.283199e-001 -9.319619e-001 -4.018646e+000 149 76 47
1.636745e+000 -1.123023e+000 -6.006039e+000 214 178 132
1.624972e+000 -1.268058e+000 -6.155156e+000 165 122 84
2.735097e+000 -9.047330e-001 -5.921429e+000 44 39 43
-8.651242e-001 -9.656744e-001 -3.919254e+000 92 39 25
3.093366e+000 -7.574840e-001 -5.540709e+000 63 58 62
-2.052843e-001 -1.388310e+000 -4.807202e+000 134 67 41
2.022410e+000 1.512832e+000 -5.769856e+000 136 61 57
2.490468e+000 1.569412e+000 -6.074882e+000 58 41 43
1.191839e+000 1.205236e+000 -6.537661e+000 234 233 213
2.718137e+000 1.584375e+000 -6.141736e+000 58 57 63
2.712918e+000 1.301088e+000 -6.068976e+000 55 50 57
2.802584e+000 1.444391e+000 -5.964274e+000 50 47 55
7.075152e-001 7.879813e-001 -6.505841e+000 232 235 222
3.207938e-001 4.333183e-001 -6.133275e+000 196 200 184
2.757202e+000 1.100108e+000 -5.940244e+000 54 53 59
2.966146e+000 1.048821e+000 -5.987454e+000 42 39 46
-3.570850e+000 -1.295702e+000 -1.116099e+001 54 52 57
1.877719e-001 1.072261e-001 -5.696231e+000 200 207 199
2.609692e-002 3.829544e-002 -5.670855e+000 202 208 204
5.102670e-001 1.166419e-001 -5.534561e+000 202 209 197
-3.796344e-001 -1.151523e-001 -4.669438e+000 116 49 49
-4.602784e-001 -2.231425e-001 -4.571673e+000 196 173 128
-2.766266e-001 -1.757131e-001 -4.498339e+000 202 184 142
-6.648175e-001 -4.459863e-001 -4.654560e+000 154 68 32
2.367508e+000 -9.778216e-002 -5.793644e+000 214 199 149
-1.525539e+000 -5.171400e-001 -4.073103e+000 141 119 71
-1.494876e+000 -5.798751e-001 -4.072388e+000 147 127 77
-8.374480e-001 -4.915499e-001 -4.250528e+000 119 93 70
-8.370722e-001 -4.305509e-001 -4.374311e+000 171 135 108
-5.280903e-001 -4.683490e-001 -4.669934e+000 214 169 122
-5.077210e-001 -4.789949e-001 -4.536922e+000 154 89 48
-7.347243e-003 -3.392428e-001 -4.652226e+000 216 171 128
1.621423e+000 -6.753984e-001 -6.111721e+000 182 148 107
-1.252499e+000 -6.780810e-001 -3.993140e+000 117 63 55
9.779831e-001 -7.211457e-001 -5.602365e+000 182 179 164
1.846529e+000 -8.634721e-001 -6.195391e+000 194 76 69
3.200691e+000 -6.261211e-001 -5.625318e+000 32 30 33
1.647713e+000 -1.399704e+000 -6.192115e+000 176 91 78
1.789279e+000 -1.423740e+000 -6.235691e+000 152 71 61
7.799691e-001 2.334435e+000 -7.061431e+000 238 238 226
2.096367e-002 1.054629e+000 -7.639038e+000 219 221 208
2.527419e+000 1.400992e+000 -5.948291e+000 61 60 64
2.673913e+000 1.413861e+000 -6.033050e+000 55 53 58
-1.412138e+000 -4.853640e-003 -9.155476e+000 219 212 201
-6.234350e-001 3.953292e-001 -8.409182e+000 229 233 221
-1.776955e+000 -3.278607e-001 -9.553110e+000 179 61 57
3.601605e-001 5.446493e-001 -6.515780e+000 195 201 189
-1.145747e-001 1.626996e-001 -5.998463e+000 195 200 193
1.395594e+000 5.164197e-001 -5.651660e+000 193 196 189
-1.579046e+000 -5.271094e-001 -4.086970e+000 163 146 90
-1.647140e+000 -7.269716e-001 -3.948680e+000 36 23 23
-2.915290e-001 -5.923733e-001 -4.592174e+000 142 80 48
8.988868e-001 -6.871658e-001 -5.848664e+000 85 76 69
9.202925e-001 -6.760145e-001 -5.812862e+000 85 76 69
9.452377e-001 -7.477883e-001 -5.817316e+000 201 199 187
1.584430e+000 -5.922936e-001 -6.088290e+000 81 55 32
-9.638332e-001 -6.588043e-001 -4.007192e+000 112 42 21
2.268682e+000 -6.770880e-001 -5.978195e+000 105 77 47
-1.308853e+000 -8.383746e-001 -3.946866e+000 151 120 74
-6.367255e-001 -8.284135e-001 -4.190437e+000 125 58 33
1.562562e+000 -1.284445e+000 -6.155369e+000 219 191 141
-7.408084e-002 -3.991940e+000 -7.917437e+000 169 51 49
-7.645965e-002 -3.912158e+000 -7.787567e+000 169 51 49
-3.478718e-001 1.915711e+000 -8.386955e+000 216 210 199
1.103186e+000 1.949325e+000 -6.397954e+000 213 201 143
2.443991e+000 1.929859e+000 -5.742593e+000 175 67 68
-1.359528e+000 2.420291e-001 -9.159956e+000 217 217 202
2.205168e-001 7.267236e-001 -6.684061e+000 238 241 230
1.197012e+000 1.100969e+000 -6.261703e+000 129 117 85
2.858252e-001 -9.201596e-002 -5.042395e+000 157 163 156
-1.841264e-001 -2.896336e-001 -4.588008e+000 159 115 79
-8.390709e-001 -5.449278e-001 -4.212327e+000 123 67 42
2.653629e+000 -2.818131e-001 -5.741549e+000 150 133 80
-1.264558e+000 -7.890450e-001 -3.962784e+000 69 22 14
2.503083e+000 -6.673833e-001 -5.821354e+000 38 30 28
3.268698e+000 -6.919622e-001 -5.659963e+000 51 47 53
-8.629303e-001 -9.613769e-001 -3.988093e+000 86 33 23
1.842688e+000 -1.344363e+000 -6.099815e+000 197 159 115
1.055049e-002 -3.775413e+000 -7.776509e+000 18 15 12
9.921520e-001 2.454062e+000 -6.091701e+000 134 120 83
1.301101e+000 1.664192e+000 -6.116165e+000 162 153 103
2.405164e-001 1.258618e+000 -7.005708e+000 180 179 167
2.211504e+000 -2.948998e-002 -5.967763e+000 195 82 81
-2.760605e-002 -7.198366e-001 -4.820623e+000 185 146 102
3.001614e+000 -1.806152e-001 -5.213322e+000 118 99 62
1.149208e+000 -1.201513e+000 -5.980738e+000 116 103 87
-1.306099e-001 -1.202079e+000 -4.822593e+000 60 19 19
-4.178308e-001 7.714576e-002 -5.267014e+000 102 59 47
-1.973108e-001 -1.207289e-001 -4.515324e+000 169 88 83
1.119068e+000 -2.283064e-002 -5.556203e+000 211 216 209
-9.332979e-001 -5.871620e-001 -4.093263e+000 125 57 36
-3.538824e-001 -1.009986e+000 -4.585431e+000 137 62 35
-7.681161e-001 -1.007946e+000 -3.949580e+000 36 24 30
6.388449e-002 -3.772824e+000 -7.971349e+000 23 12 15
-1.056078e-001 8.722021e-001 -6.740234e+000 235 237 226
-8.202678e-001 -8.630757e-001 -4.005789e+000 174 90 59
2.968099e-002 3.295955e-001 -6.126238e+000 174 176 165
1.820311e+000 -1.804589e+000 -6.187441e+000 35 28 34
1.217255e+000 1.698805e+000 -6.514794e+000 124 115 79
-4.137351e-001 -3.776432e-001 -4.598931e+000 229 187 135
2.320922e+000 -2.717146e-001 -5.849574e+000 108 87 57
-1.117727e+000 -5.439053e-001 -4.064627e+000 230 138 86
6.977859e-001 -6.202774e-001 -5.651424e+000 51 40 38
2.269316e+000 -6.145073e-001 -5.351093e+000 49 42 49
-7.517649e-001 -9.215878e-002 -5.059128e+000 223 221 209
-1.375914e+000 -4.048094e-001 -4.258459e+000 42 38 37
-1.031018e+000 -7.420831e-001 -3.875303e+000 222 122 63
-4.065977e-001 -8.712695e-001 -4.662110e+000 132 70 42
-4.065977e-001 -8.712695e-001 -4.662110e+000 132 70 42
-1.569690e-001 -1.394406e+000 -5.228601e+000 61 18 23
2.666958e+000 -2.559465e-001 -5.836693e+000 166 149 94
1.118908e+000 2.296142e+000 -6.193373e+000 112 103 70
1.118908e+000 2.296142e+000 -6.193373e+000 112 103 70
1.497360e+000 -2.057610e+000 -6.610212e+000 205 201 190
-1.090440e+000 -6.988456e-001 -4.085403e+000 184 87 42
2.051967e+000 8.376146e-001 -5.893856e+000 223 221 209
1.852524e+000 2.209644e+000 -6.148289e+000 229 226 214
-4.042766e-001 3.127940e+000 -8.954292e+000 72 71 76
2.860157e+000 1.663485e+000 -5.955709e+000 111 110 115
2.686895e+000 1.460246e+000 -6.010442e+000 128 127 133
2.630914e+000 1.268886e+000 -5.998252e+000 124 125 129
2.591268e+000 3.966160e-001 -5.963725e+000 67 69 71
5.053500e-001 -3.167864e-002 -5.232087e+000 191 197 187
4.906097e-001 -8.481292e-002 -5.234569e+000 182 187 180
3.296906e+000 -5.293771e-001 -5.510923e+000 102 102 106
3.131833e+000 -5.869665e-001 -5.588589e+000 55 52 56
2.871113e+000 -7.395658e-001 -5.745573e+000 71 69 74
2.871113e+000 -7.395658e-001 -5.745573e+000 71 69 74
3.019254e+000 -7.776098e-001 -5.585402e+000 42 40 45
3.019038e+000 -8.106836e-001 -5.615231e+000 55 54 59
1.729240e+000 -1.246776e+000 -6.059238e+000 181 145 100
2.085429e+000 -1.436702e+000 -6.050613e+000 129 44 50
-7.447912e-001 -9.343391e-001 -4.063091e+000 81 35 22
2.728928e+000 1.667694e+000 -6.018765e+000 56 57 61
2.821705e+000 1.748284e+000 -6.059170e+000 95 96 100
2.924083e+000 1.607464e+000 -5.921627e+000 143 143 150
2.883747e+000 1.593357e+000 -5.919818e+000 62 61 67
2.698974e+000 1.353139e+000 -6.005214e+000 146 147 152
2.839307e+000 1.265919e+000 -5.972202e+000 130 131 136
2.865256e+000 1.338220e+000 -5.922131e+000 50 51 56
2.905160e+000 1.312017e+000 -5.947610e+000 107 109 114
2.674530e+000 1.260826e+000 -6.008168e+000 70 71 75
2.947446e+000 7.480584e-001 -5.857799e+000 46 45 51
3.121478e+000 7.055808e-001 -5.829969e+000 45 44 50
2.538657e+000 3.852189e-001 -5.980804e+000 51 40 44
2.697462e+000 4.180343e-001 -5.921346e+000 55 55 63
2.755949e+000 3.606996e-001 -5.895107e+000 59 60 65
1.821868e+000 4.139893e-001 -5.955106e+000 229 232 225
1.777471e-001 1.723350e-001 -5.820722e+000 223 226 217
7.509202e-001 -2.215505e-001 -5.384103e+000 147 148 142
7.509202e-001 -2.215505e-001 -5.384103e+000 147 148 142
1.254823e+000 -2.628804e-001 -5.641401e+000 168 164 155
1.254424e+000 -2.743055e-001 -5.703950e+000 168 164 155
2.369184e+000 -7.160717e-001 -5.931624e+000 149 75 68
1.288524e-001 -5.774642e-001 -4.561605e+000 188 142 106
2.827859e+000 1.566200e+000 -6.007331e+000 62 61 66
2.861943e+000 1.568437e+000 -5.958388e+000 163 162 167
2.656826e+000 1.364076e+000 -6.020185e+000 65 66 71
2.834169e+000 1.320977e+000 -5.956067e+000 54 55 60
2.715670e+000 1.248953e+000 -6.000338e+000 147 152 155
2.774333e+000 -8.759099e-001 -5.791678e+000 41 40 45
1.880351e+000 -9.475323e-001 -6.137237e+000 123 39 33
-9.085468e-001 -5.178944e-001 -4.081483e+000 137 73 56
2.668563e+000 1.409507e+000 -6.017913e+000 60 59 65
1.051520e+000 -1.364139e-001 -5.585233e+000 154 155 149
2.322674e+000 -6.863025e-001 -5.958571e+000 100 59 41
-4.351350e-001 2.621684e+000 -8.415929e+000 67 61 66
1.098418e+000 1.947034e+000 -6.401481e+000 180 171 120
2.669963e+000 -4.828015e-001 -5.641034e+000 121 106 66
2.148938e+000 2.422510e+000 -5.826736e+000 234 233 225
-4.971150e-001 1.890067e+000 -8.368875e+000 195 79 78
-1.016144e+000 8.729093e-001 -8.971489e+000 209 210 197
2.270102e+000 -7.592620e-001 -5.815762e+000 190 78 77
2.562946e+000 2.079493e+000 -5.825130e+000 191 87 80
2.282310e+000 1.883278e+000 -5.647290e+000 190 77 78
-9.573731e-002 -2.272785e-001 -4.583680e+000 148 81 66
1.844677e+000 1.404016e+000 -5.842828e+000 234 234 226
-2.533280e-002 1.139752e+000 -7.757312e+000 216 217 204
1.459953e-001 5.927092e-001 -6.652939e+000 230 233 224
-1.284033e+000 -3.991197e-001 -4.149728e+000 83 48 46
-1.306164e+000 -6.356117e-001 -3.968197e+000 96 47 38
-1.401177e+000 -7.165038e-001 -3.997988e+000 105 86 41
-1.468144e+000 -8.009078e-001 -3.922259e+000 131 111 65
2.195805e+000 -1.735938e+000 -6.727116e+000 156 54 60
2.675722e+000 6.024660e-001 -5.974748e+000 56 54 60
2.544590e+000 4.291262e-001 -5.894716e+000 67 68 71
2.850953e+000 4.615345e-001 -5.879312e+000 71 70 75
-5.041230e-001 -6.757389e-002 -5.225205e+000 98 70 59
-8.699170e-003 -5.926274e-002 -4.745666e+000 180 187 172
-1.561404e+000 -4.939159e-001 -4.104639e+000 128 106 57
-8.606832e-001 -4.846983e-001 -4.203247e+000 107 67 51
-7.875398e-001 -4.794971e-001 -4.199099e+000 57 47 46
-1.407119e+000 -6.597870e-001 -4.004408e+000 164 143 99
-1.386847e+000 -6.594838e-001 -4.026145e+000 110 93 52
-1.366857e+000 -6.950651e-001 -4.001567e+000 106 88 42
-1.366857e+000 -6.950651e-001 -4.001567e+000 106 88 42
-1.195372e+000 -7.477108e-001 -3.917042e+000 114 60 52
1.092358e+000 -1.867704e+000 -7.279710e+000 101 83 65
-2.101507e-001 -1.561620e+000 -4.969185e+000 87 39 27
-8.849303e-001 1.998888e+000 -8.962333e+000 55 45 43
7.738867e-001 -7.126716e-002 -5.468917e+000 198 203 196
-1.504279e+000 -5.388299e-001 -4.077489e+000 125 104 61
-1.352055e+000 -6.578440e-001 -4.023851e+000 167 136 96
-1.497303e-001 -1.101665e+000 -4.832159e+000 77 39 20
2.915272e+000 1.518791e+000 -6.022483e+000 54 53 59
-5.184554e-001 1.183084e+000 -8.478855e+000 201 201 189
2.930547e+000 3.788977e-001 -5.873031e+000 66 64 69
-1.255365e+000 -9.272227e-001 -3.977067e+000 32 30 31
-6.168828e-001 -3.352929e-001 -4.841936e+000 207 124 79
2.924026e+000 1.698268e+000 -6.253548e+000 97 96 102
-1.179385e+000 3.397893e+000 -9.503610e+000 70 68 73
-3.572749e-001 3.324043e+000 -9.025304e+000 96 95 101
-5.005181e-001 3.134517e+000 -8.985532e+000 86 88 92
-5.037794e-001 2.960176e+000 -8.993726e+000 67 62 68
2.713627e+000 1.522801e+000 -5.949744e+000 57 56 62
2.568961e+000 4.215511e-001 -5.951463e+000 73 68 75
3.020255e-001 -1.321974e-001 -4.899469e+000 164 169 161
-1.682013e-001 -1.586266e-001 -4.571590e+000 155 73 61
2.465484e+000 -3.956058e-001 -5.760040e+000 172 156 105
-1.593683e+000 -4.597203e-001 -4.124286e+000 123 108 76
-1.298185e+000 -4.031624e-001 -4.180966e+000 93 54 58
-1.440168e+000 -7.053974e-001 -3.995957e+000 147 132 90
-1.424062e+000 -6.729997e-001 -4.052147e+000 167 149 101
2.567777e+000 -9.732508e-001 -5.867536e+000 88 85 90
-1.213502e+000 -7.711269e-001 -3.985523e+000 124 69 67
-1.287058e+000 -8.124506e-001 -3.967361e+000 92 51 38
2.605322e+000 -1.146126e+000 -5.764503e+000 44 39 43
1.850629e+000 -1.392429e+000 -6.104912e+000 180 127 106
2.642748e+000 -1.296267e+000 -5.738122e+000 37 32 38
1.617312e+000 -1.541997e+000 -6.478515e+000 165 90 89
-3.394585e-001 3.240753e+000 -8.945432e+000 66 65 71
2.968074e+000 1.030346e+000 -5.905776e+000 75 74 80
2.917068e+000 7.806834e-001 -5.944424e+000 49 49 54
2.917068e+000 7.806834e-001 -5.944424e+000 49 49 54
2.946082e+000 6.461523e-001 -5.850754e+000 48 47 52
3.024497e+000 5.495808e-001 -5.872464e+000 45 44 49
3.035410e+000 5.059377e-001 -5.823483e+000 63 62 67
1.802299e+000 4.178407e-001 -5.752115e+000 214 216 205
2.521091e-001 -1.682795e-001 -4.854093e+000 155 160 153
-1.239061e+000 -4.204814e-001 -4.172083e+000 102 51 42
-7.987029e-001 -5.462296e-001 -4.223135e+000 144 107 73
1.393675e+000 -7.667966e-001 -5.980662e+000 181 141 103
2.106985e+000 -7.522985e-001 -6.168609e+000 178 75 75
3.058776e+000 -8.117112e-001 -5.491500e+000 45 43 48
3.140409e+000 -7.101171e-001 -5.474572e+000 52 50 57
1.619598e+000 -1.165932e+000 -6.074054e+000 170 129 85
-1.339063e+000 -8.822428e-001 -4.004885e+000 59 45 32
1.985596e+000 -1.382716e+000 -6.160893e+000 171 60 59
2.554600e+000 -1.253372e+000 -5.742167e+000 38 33 39
2.607436e+000 -1.206244e+000 -5.683695e+000 40 35 41
-3.027849e-001 -1.198191e+000 -4.734753e+000 92 35 22
1.302312e+000 -1.722300e+000 -6.667953e+000 166 157 143
1.306524e+000 2.811410e+000 -6.519676e+000 196 167 121
3.016487e+000 1.238141e+000 -5.944584e+000 46 45 51
3.630688e-001 1.331750e+000 -6.790038e+000 225 230 220
5.611924e-001 4.293999e-001 -6.343245e+000 236 242 232
2.747673e+000 5.034914e-001 -5.923705e+000 54 51 59
2.765738e+000 5.079641e-001 -5.965004e+000 54 51 59
3.026304e+000 4.661556e-001 -5.725800e+000 44 41 41
4.097992e-001 -1.206458e-001 -5.121369e+000 185 190 184
1.154206e+000 -4.033861e-001 -5.638743e+000 156 157 149
1.330911e+000 -8.371601e-001 -6.028453e+000 207 173 143
-9.712661e-001 -8.278955e-001 -3.994024e+000 169 86 44
-9.013657e-002 2.922211e+000 -8.341427e+000 178 67 62
2.645171e+000 1.498355e+000 -6.055248e+000 64 63 71
-9.416687e-001 -9.548508e-001 -3.956268e+000 90 39 34
1.454666e+000 1.498124e+000 -6.231837e+000 253 254 212
-8.914590e-001 -1.024031e+000 -3.954642e+000 155 87 47
-8.914590e-001 -1.024031e+000 -3.954642e+000 155 87 47
2.535376e+000 -1.965093e-001 -5.677501e+000 237 226 169
1.183994e-001 2.715913e+000 -7.973905e+000 179 65 61
-1.037847e+000 3.366782e+000 -9.446679e+000 62 61 66
2.110717e+000 1.620241e+000 -5.771187e+000 112 49 52
-3.842376e-001 -8.029857e-001 -4.312580e+000 74 31 26
-3.842376e-001 -8.029857e-001 -4.312580e+000 74 31 26
6.414609e-001 2.596427e+000 -7.392616e+000 226 223 212
-8.680639e-001 2.225192e+000 -8.738320e+000 51 49 54
8.003937e-001 2.485121e+000 -6.461946e+000 229 223 211
-8.755586e-001 4.045031e+000 -9.069780e+000 76 75 81
-8.369001e-001 4.036486e+000 -9.109352e+000 53 54 59
-8.369001e-001 4.036486e+000 -9.109352e+000 53 54 59
-8.272892e-001 3.857520e+000 -9.036000e+000 62 61 66
-5.687404e-001 3.833087e+000 -9.116416e+000 56 55 61
-2.099599e-001 3.629211e+000 -9.156184e+000 81 80 86
-2.835632e-001 3.273507e+000 -9.027521e+000 94 92 98
-4.463345e-001 3.105559e+000 -9.051210e+000 91 90 95
2.953180e+000 1.665552e+000 -5.896082e+000 63 63 69
3.099553e+000 1.596038e+000 -5.855108e+000 59 58 64
2.833036e+000 1.500841e+000 -5.969672e+000 146 145 150
3.187088e+000 1.396459e+000 -5.900264e+000 81 80 85
3.235766e+000 1.401188e+000 -5.808549e+000 52 49 56
3.321173e+000 1.409047e+000 -5.799398e+000 82 81 86
3.648890e+000 1.331331e+000 -5.742927e+000 41 39 44
3.899317e+000 1.262897e+000 -5.688027e+000 48 44 51
2.692695e+000 1.464673e+000 -6.028990e+000 128 127 133
3.138019e+000 1.360337e+000 -5.964531e+000 46 45 51
3.128668e+000 1.313408e+000 -5.880978e+000 59 57 64
3.114369e+000 1.222774e+000 -5.888041e+000 77 76 82
3.187692e+000 1.226033e+000 -5.847612e+000 76 75 81
3.187692e+000 1.226033e+000 -5.847612e+000 76 75 81
3.394800e+000 1.302151e+000 -5.743814e+000 39 37 40
3.451757e+000 1.311943e+000 -5.732006e+000 67 64 71
3.601222e+000 1.272436e+000 -5.666285e+000 62 60 65
3.601222e+000 1.272436e+000 -5.666285e+000 62 60 65
3.926871e+000 1.208579e+000 -5.609710e+000 48 43 49
2.812423e+000 9.318367e-001 -5.918797e+000 61 62 66
2.836224e+000 9.273768e-001 -5.900062e+000 90 90 98
2.983747e+000 1.040560e+000 -5.944605e+000 80 79 85
3.374632e+000 8.918505e-001 -5.782768e+000 55 54 59
1.650268e+000 9.693732e-001 -5.944615e+000 212 218 208
2.939470e+000 8.316179e-001 -5.878707e+000 73 74 79
2.871664e+000 7.451439e-001 -5.832051e+000 61 62 67
3.231657e+000 7.341176e-001 -5.825304e+000 63 62 68
3.231657e+000 7.341176e-001 -5.825304e+000 63 62 68
3.382090e+000 6.617647e-001 -5.782022e+000 53 52 57
3.515792e+000 7.278932e-001 -5.759864e+000 47 44 51
2.667639e+000 6.034763e-001 -5.976161e+000 65 65 69
2.706666e+000 5.910280e-001 -5.993280e+000 56 57 59
2.999681e+000 6.748822e-001 -5.813217e+000 49 50 54
2.931309e+000 6.082116e-001 -5.927067e+000 49 50 54
3.004865e+000 6.032205e-001 -5.819428e+000 63 63 67
3.085186e+000 6.395867e-001 -5.806206e+000 60 58 63
3.085186e+000 6.395867e-001 -5.806206e+000 60 58 63
2.684929e+000 4.841939e-001 -5.930616e+000 55 58 63
2.768404e+000 5.178002e-001 -5.858121e+000 100 104 107
2.941518e+000 4.961161e-001 -5.846936e+000 79 78 83
2.821890e+000 3.517708e-001 -5.880536e+000 52 55 57
2.937082e+000 3.978425e-001 -5.811433e+000 66 65 70
3.014338e+000 4.258784e-001 -5.815618e+000 72 71 79
3.014338e+000 4.258784e-001 -5.815618e+000 72 71 79
3.025889e+000 4.109581e-001 -5.768285e+000 45 43 54
2.552136e+000 3.442878e-001 -5.980446e+000 66 64 70
2.616934e+000 2.194659e-001 -6.026470e+000 57 55 62
2.708417e+000 2.928581e-001 -5.879341e+000 52 53 57
2.722537e+000 2.656692e-001 -5.943265e+000 103 104 108
2.555080e+000 8.367686e-002 -6.016868e+000 76 69 76
-3.107026e+000 5.357025e-001 -1.064814e+001 57 56 61
-5.173356e-001 7.930376e-002 -5.231746e+000 132 70 46
-5.187624e-001 1.383755e-002 -5.036465e+000 172 87 57
6.303089e-001 -8.189765e-002 -5.372443e+000 214 220 213
6.400496e-001 -1.245960e-001 -5.352167e+000 169 175 168
6.890392e-001 -1.473365e-001 -5.369181e+000 180 184 177
-5.171072e-001 -5.725367e-002 -5.188977e+000 80 42 28
3.087006e+000 -5.442983e-001 -5.605131e+000 46 44 47
3.395903e+000 -4.482881e-001 -5.434484e+000 43 40 47
-9.513729e-001 -2.628636e-001 -4.289649e+000 106 71 70
2.661199e+000 -6.811183e-001 -5.904496e+000 63 60 64
2.830501e+000 -6.660753e-001 -5.811406e+000 50 42 53
3.220465e+000 -6.165191e-001 -5.538794e+000 60 61 65
3.127925e+000 -7.296902e-001 -5.551712e+000 55 54 60
3.184417e+000 -6.850680e-001 -5.505995e+000 99 98 106
-8.229476e-001 -3.986509e-001 -4.452628e+000 137 85 66
9.571447e-001 -6.098352e-001 -5.725154e+000 124 121 112
2.439827e+000 -7.580589e-001 -5.989595e+000 75 79 77
2.454353e+000 -7.610332e-001 -6.031742e+000 75 79 77
2.708783e+000 -7.408789e-001 -5.879409e+000 94 93 98
2.687082e+000 -7.805971e-001 -5.846463e+000 47 46 51
2.980097e+000 -7.392781e-001 -5.631188e+000 53 51 56
3.070339e+000 -7.976055e-001 -5.593195e+000 46 44 49
3.155814e+000 -7.713165e-001 -5.657783e+000 95 94 99
-1.272607e+000 -4.409003e-001 -4.138463e+000 113 66 60
2.486018e+000 -8.783301e-001 -5.935209e+000 83 82 85
2.683610e+000 -9.612086e-001 -5.879033e+000 45 44 49
2.660259e+000 -9.942856e-001 -5.845108e+000 43 42 47
2.712303e+000 -1.037067e+000 -5.794711e+000 62 60 65
3.026830e+000 -9.270539e-001 -5.496846e+000 29 27 32
2.940768e+000 -1.041409e+000 -5.569435e+000 31 29 34
-1.574165e+000 -5.347309e-001 -4.073938e+000 171 157 111
2.675593e+000 -1.202835e+000 -5.760880e+000 53 51 56
-1.007945e+000 -6.459279e-001 -4.055218e+000 139 70 47
-3.607437e-001 -1.098613e+000 -4.563602e+000 118 58 47
7.754403e-002 -1.188006e+000 -4.811457e+000 170 70 62
1.361239e+000 2.812338e+000 -6.556541e+000 175 90 79
-9.384239e-001 4.103997e+000 -9.328939e+000 56 55 62
-8.588987e-001 3.993984e+000 -9.163646e+000 89 88 94
-6.403547e-001 3.899508e+000 -9.210907e+000 47 46 52
-9.297729e-001 3.313749e+000 -9.276412e+000 73 72 77
2.767465e+000 1.744522e+000 -6.070472e+000 53 52 57
2.940857e+000 1.618622e+000 -5.959592e+000 143 143 150
3.112068e+000 1.667419e+000 -5.905498e+000 54 49 56
3.263974e+000 1.559787e+000 -5.856067e+000 52 53 58
3.031958e+000 1.568337e+000 -5.894587e+000 147 146 152
3.109764e+000 1.564800e+000 -5.891889e+000 143 142 148
3.124375e+000 1.531869e+000 -5.829073e+000 57 55 60
3.181770e+000 1.450112e+000 -5.816924e+000 58 57 63
3.211975e+000 1.376612e+000 -5.791022e+000 45 41 48
