ply
format ascii 1.0
element face 0
property list uchar int vertex_indices
element vertex 877
property float x
property float y
property float z
property uchar diffuse_red
property uchar diffuse_green
property uchar diffuse_blue
end_header
-7.276050e-001 1.214636e+000 -8.524520e+000 214 216 204
-1.212525e-001 8.618827e-001 -7.408558e+000 236 241 234
1.002746e-001 -3.735643e-001 -4.584664e+000 149 71 56
1.117007e+000 -7.948118e-001 -5.805083e+000 209 215 200
-1.489162e+000 -4.965596e-001 -4.059220e+000 143 125 78
-1.410518e+000 -8.049329e-001 -3.866177e+000 141 119 74
1.306831e+000 1.019078e+000 -6.140361e+000 254 255 244
3.524709e-001 -3.925259e-001 -4.685788e+000 179 181 172
3.747983e-001 -7.205959e-001 -4.810522e+000 58 33 26
1.732812e+000 -2.083618e+000 -6.332803e+000 199 195 184
5.844897e-001 2.115364e+000 -7.044058e+000 218 218 206
3.354969e-001 1.383874e+000 -6.933621e+000 207 211 202
-1.259097e+000 -6.074058e-001 -3.952636e+000 130 79 75
6.226159e-001 2.095961e+000 -7.001014e+000 189 189 177
6.226159e-001 2.095961e+000 -7.001014e+000 189 189 177
2.504939e-001 9.193124e-001 -6.792412e+000 224 230 220
-3.178010e+000 7.605843e-001 -1.100709e+001 56 56 58
-3.520218e-001 -1.920728e-001 -4.508726e+000 175 169 150
2.780261e+000 -7.000462e-001 -5.849437e+000 50 49 54
-1.088883e+000 -3.193369e-001 -4.173755e+000 83 45 39
2.744996e+000 -8.278415e-001 -5.865317e+000 109 108 114
-1.026238e+000 -5.230488e-001 -3.995454e+000 191 103 65
5.350090e-001 1.784421e+000 -6.971997e+000 228 229 221
2.553459e+000 1.258226e+000 -5.989115e+000 67 68 73
9.050275e-001 5.780320e-001 -6.172278e+000 226 229 216
7.997634e-002 4.332187e-001 -6.554793e+000 195 196 183
-9.863748e-001 -4.825362e-001 -4.014716e+000 170 82 46
1.938948e+000 -1.244759e+000 -6.068214e+000 207 143 126
1.986123e+000 -1.296501e+000 -6.096292e+000 128 36 35
-3.176233e-001 -9.528791e-001 -4.573620e+000 128 68 42
-1.458997e+000 -7.952919e-001 -3.900908e+000 148 129 86
1.120841e+000 1.451983e+000 -6.643109e+000 237 240 229
-7.416093e-001 -7.366477e-001 -4.038281e+000 128 72 50
-1.146287e-001 -9.442713e-001 -4.720716e+000 155 105 65
1.475138e-001 9.818408e-001 -7.040685e+000 234 238 228
4.393428e-001 -1.225472e-001 -5.090890e+000 185 190 184
1.941800e+000 7.554794e-001 -5.811262e+000 237 238 227
1.944612e-001 3.988016e-001 -6.434096e+000 232 239 226
-7.965696e-001 -7.080347e-001 -4.005795e+000 105 43 27
-2.393139e-001 -9.701861e-001 -4.674698e+000 91 44 32
-5.104340e-001 2.397601e+000 -8.336116e+000 185 71 69
1.596328e+000 1.358481e+000 -6.181291e+000 229 230 222
8.119241e-001 1.127080e+000 -6.659924e+000 236 243 236
2.454101e+000 2.420304e+000 -6.038031e+000 204 86 89
1.432699e+000 -3.894515e-001 -5.907740e+000 56 38 38
-1.525828e+000 -6.589361e-001 -3.920472e+000 160 140 80
-1.525828e+000 -6.589361e-001 -3.920472e+000 160 140 80
-1.219188e+000 -7.299933e-001 -3.990684e+000 104 56 46
1.071728e+000 -8.770823e-001 -5.858168e+000 200 202 192
-5.986825e-001 2.529575e+000 -8.601812e+000 87 57 58
-3.142931e+000 5.560435e-001 -1.096320e+001 58 57 62
-1.770832e-001 1.241994e-001 -5.934491e+000 200 202 191
-9.559368e-001 -2.501044e-001 -4.231377e+000 92 61 56
-1.315576e+000 -5.079585e-001 -4.066952e+000 98 65 49
-6.991601e-001 -6.502428e-001 -4.136611e+000 216 198 175
-5.851887e-001 -8.210551e-001 -4.154807e+000 110 53 26
2.691004e+000 1.700097e+000 -6.068297e+000 107 106 112
-6.173181e-001 -1.452939e-001 -4.913585e+000 229 138 100
-5.831306e-001 -2.419965e-001 -4.866552e+000 222 126 79
-4.370318e-001 -2.158603e-001 -4.478101e+000 169 152 128
-6.136488e-001 -3.958574e-001 -4.614896e+000 193 89 47
-8.126963e-001 -4.266372e-001 -4.337719e+000 165 130 112
-7.581802e-001 -4.134669e-001 -4.414197e+000 112 54 33
-1.346669e+000 -6.509970e-001 -3.991771e+000 111 92 52
2.551235e+000 1.586828e+000 -6.044662e+000 59 54 61
2.721650e+000 1.650610e+000 -6.058831e+000 68 67 73
-3.603945e-001 -1.633909e-001 -4.527699e+000 68 62 63
5.610289e-001 -1.788685e-001 -5.246210e+000 143 145 139
-1.224755e+000 -4.417400e-001 -4.102062e+000 105 58 51
8.825376e-001 -5.985735e-001 -5.749591e+000 139 135 126
-1.267964e+000 -5.768941e-001 -3.936703e+000 98 45 51
-1.049463e+000 -4.996520e-001 -4.034349e+000 210 124 80
1.103582e+000 1.189437e+000 -6.647036e+000 233 236 222
4.850236e-001 1.638616e-001 -5.766971e+000 223 227 213
4.150170e-001 3.620635e-002 -5.486861e+000 226 232 222
-5.357281e-001 -1.685725e-001 -4.840236e+000 205 118 69
-5.560471e-001 -4.487790e-001 -4.572833e+000 175 90 55
-6.966202e-001 -7.603444e-001 -4.055693e+000 79 33 19
-1.471583e+000 -8.102905e-001 -3.834135e+000 43 33 31
-8.831475e-001 -1.062137e+000 -3.961197e+000 40 26 25
4.742440e-001 1.764430e+000 -7.080105e+000 189 191 180
2.675213e-001 1.391801e+000 -6.958801e+000 236 239 230
-1.667260e+000 6.409553e-002 -9.400121e+000 183 64 63
-1.466331e+000 1.201523e-001 -9.239310e+000 188 65 56
-1.726446e+000 -1.546622e-001 -9.545614e+000 191 65 59
-5.251431e-001 -7.330870e-002 -5.107971e+000 110 51 38
-2.699150e-001 -1.984920e-001 -4.526688e+000 204 185 143
-1.592812e+000 -6.139062e-001 -3.937793e+000 35 28 28
-2.403266e-001 9.689231e-001 -8.191368e+000 248 253 246
6.723140e-001 9.652409e-001 -6.687223e+000 243 252 244
-1.314019e+000 4.890425e-001 -9.048796e+000 187 71 66
1.679676e+000 -1.019039e+000 -6.027289e+000 217 191 140
7.428526e-001 2.032760e+000 -6.831315e+000 235 235 226
2.591581e+000 -3.911637e-002 -5.857438e+000 253 250 194
-6.540797e-001 -4.812507e-001 -4.327611e+000 212 180 139
2.616336e+000 -5.990497e-001 -5.709697e+000 31 25 25
2.764506e+000 -5.398991e-001 -5.674272e+000 27 22 22
-1.160773e+000 -9.853711e-001 -4.105759e+000 156 84 40
-1.754287e-001 -5.378761e-001 -4.621989e+000 111 61 38
3.578057e-002 3.073423e-001 -6.314990e+000 181 182 168
7.729571e-001 -1.472836e+000 -6.393622e+000 100 84 69
1.011143e+000 1.001455e+000 -6.580722e+000 239 244 239
-3.771054e-001 -5.709686e-002 -4.946822e+000 163 70 71
2.591514e+000 3.709358e-001 -5.730040e+000 64 62 67
1.387993e+000 2.692566e+000 -6.577873e+000 179 163 141
3.153290e+000 2.309827e+000 -5.754334e+000 41 38 45
-2.756566e-001 3.259835e+000 -8.894722e+000 71 67 73
-5.294442e-001 2.917233e+000 -9.087530e+000 66 66 70
-4.733075e-001 2.918064e+000 -9.093872e+000 94 90 97
3.071260e+000 1.692761e+000 -6.073613e+000 97 96 102
2.564743e+000 1.472340e+000 -6.064847e+000 129 128 133
1.208447e+000 1.495776e+000 -6.595890e+000 138 130 96
3.046083e+000 1.270973e+000 -5.960839e+000 62 59 66
-5.502536e-001 1.275836e+000 -8.628609e+000 213 209 202
-5.543905e-001 1.278618e+000 -8.639917e+000 213 209 202
1.976183e+000 7.535563e-001 -6.097100e+000 220 224 213
2.790779e+000 7.964397e-001 -5.907988e+000 87 86 91
2.996255e+000 7.462978e-001 -5.897689e+000 61 59 64
3.023073e+000 6.830297e-001 -5.838275e+000 63 60 67
2.966549e+000 6.597672e-001 -5.857112e+000 62 61 66
2.966549e+000 6.597672e-001 -5.857112e+000 62 61 66
4.901639e-001 4.017142e-001 -6.102650e+000 212 214 204
2.905361e-001 3.001253e-001 -6.154082e+000 198 201 190
6.145522e-001 3.211236e-001 -5.717414e+000 206 212 202
2.563863e+000 3.138320e-001 -5.975361e+000 63 60 66
2.597388e-001 3.556203e-002 -5.234916e+000 198 204 192
2.746939e-001 2.578690e-002 -5.563364e+000 198 204 192
-2.725980e-001 -8.946621e-002 -4.598720e+000 96 47 37
-3.377227e-003 -9.739739e-002 -4.576425e+000 199 202 193
3.426749e-001 -1.701083e-002 -5.408225e+000 217 223 214
3.722538e-001 -1.443134e-001 -5.036950e+000 127 131 124
5.322023e-001 -5.394993e-002 -5.217885e+000 190 195 188
7.433498e-001 -3.874867e-002 -5.445427e+000 180 185 178
6.783823e-001 -1.381058e-001 -5.308342e+000 184 187 180
2.170441e+000 -1.472916e-001 -5.833712e+000 105 64 50
-1.359870e-001 -1.325928e-001 -4.504582e+000 165 85 81
-6.485405e-002 -2.422771e-001 -4.662167e+000 164 72 57
-5.682330e-002 -3.748454e-001 -4.596670e+000 175 109 72
9.322543e-002 -3.495509e-001 -4.575849e+000 148 62 53
-1.534420e+000 -4.518234e-001 -4.052355e+000 123 108 76
-4.265797e-001 -4.642528e-001 -4.532351e+000 186 138 97
-3.038388e-001 -5.073292e-001 -4.514378e+000 167 103 65
1.237066e-001 -4.522608e-001 -4.590433e+000 152 103 73
8.383276e-002 -4.840539e-001 -4.659413e+000 180 118 79
5.140974e-001 -5.090518e-001 -4.785761e+000 80 73 65
7.270895e-001 -5.356939e-001 -5.648145e+000 103 96 92
2.983874e+000 -5.154395e-001 -5.665616e+000 45 43 48
-1.377043e+000 -5.679057e-001 -4.025362e+000 112 94 50
-1.244439e+000 -5.389953e-001 -3.999490e+000 93 49 41
-9.255572e-001 -5.693029e-001 -3.966150e+000 136 67 51
-5.708767e-001 -5.410272e-001 -4.241890e+000 185 148 116
-1.321670e+000 -5.918164e-001 -4.009310e+000 158 130 91
-1.287167e+000 -6.349325e-001 -3.972326e+000 93 48 36
-1.340015e+000 -6.944951e-001 -4.011464e+000 108 88 49
-1.297644e+000 -6.857411e-001 -3.957634e+000 147 119 80
-1.205345e+000 -6.380513e-001 -3.952430e+000 112 62 55
-6.535843e-001 -7.168890e-001 -4.115241e+000 132 100 88
-1.294301e+000 -7.479114e-001 -3.936601e+000 149 127 81
-1.282636e+000 -8.155017e-001 -3.974756e+000 116 73 52
-1.229696e+000 -7.107139e-001 -3.969600e+000 119 68 62
-9.503066e-001 -7.193062e-001 -3.918300e+000 189 103 70
1.635416e+000 -1.162583e+000 -5.981266e+000 174 137 92
1.635416e+000 -1.162583e+000 -5.981266e+000 174 137 92
2.859586e+000 -1.011004e+000 -5.730482e+000 65 63 68
-1.210563e+000 -8.121670e-001 -3.816535e+000 96 58 35
-1.089373e+000 -8.892091e-001 -4.041066e+000 118 54 25
-8.829984e-001 -8.630147e-001 -3.881249e+000 140 64 30
-1.293998e-001 -1.098510e+000 -4.857621e+000 83 39 23
1.817783e+000 -1.352307e+000 -5.993697e+000 180 127 106
2.696746e+000 -1.162526e+000 -5.667068e+000 65 59 66
1.653409e+000 -1.539503e+000 -6.485520e+000 212 105 113
-8.193795e-001 -1.112884e+000 -4.024952e+000 48 31 28
-1.108523e-001 -1.598834e+000 -5.096785e+000 81 51 40
1.628551e+000 2.783543e+000 -6.691301e+000 236 204 189
1.239082e+000 2.267262e+000 -5.716108e+000 173 160 132
-4.929389e-001 3.124510e+000 -9.198283e+000 66 67 71
2.834869e+000 1.822223e+000 -6.122384e+000 53 50 57
2.674642e+000 1.681643e+000 -6.113138e+000 70 69 75
2.908071e+000 1.614038e+000 -6.018951e+000 61 60 66
2.640411e+000 1.592310e+000 -6.137711e+000 133 132 138
2.693338e+000 1.577873e+000 -6.145040e+000 73 72 78
1.176990e+000 1.375988e+000 -6.317458e+000 133 125 89
2.472163e+000 1.328478e+000 -6.010476e+000 81 81 86
2.923461e+000 1.278567e+000 -5.934909e+000 58 57 63
2.897241e+000 1.192024e+000 -6.004406e+000 95 94 100
-5.848855e-001 1.326126e+000 -8.694257e+000 206 207 202
-5.848855e-001 1.326126e+000 -8.694257e+000 206 207 202
1.193768e+000 1.004731e+000 -6.271190e+000 205 202 154
1.706049e+000 9.036900e-001 -5.936282e+000 219 220 210
1.737831e+000 8.541640e-001 -5.882732e+000 220 223 211
3.726083e-001 8.453945e-001 -6.645670e+000 237 243 235
2.767407e+000 7.420689e-001 -5.901957e+000 101 100 105
1.761137e+000 5.540192e-001 -6.199495e+000 242 245 236
2.691633e+000 5.449476e-001 -5.930201e+000 110 109 114
-3.343219e+000 7.308422e-001 -1.102999e+001 72 73 77
-3.503804e-001 5.328890e-001 -8.132927e+000 200 202 189
1.784709e+000 4.099727e-001 -5.729579e+000 214 216 205
2.708295e+000 3.945427e-001 -5.906098e+000 96 94 99
2.748219e+000 3.834851e-001 -5.890364e+000 48 47 52
2.842186e+000 4.580523e-001 -5.898417e+000 82 80 85
2.594491e+000 2.924504e-001 -5.970855e+000 88 91 91
2.834830e+000 3.033521e-001 -5.851449e+000 83 82 86
2.881909e+000 2.940974e-001 -5.859713e+000 49 43 49
2.816226e+000 2.128646e-001 -5.825001e+000 83 80 80
-4.449229e-001 7.665961e-002 -5.076353e+000 131 65 41
2.326233e-001 6.782637e-002 -5.715466e+000 201 207 197
2.326233e-001 6.782637e-002 -5.715466e+000 201 207 197
-6.821392e-002 -7.196654e-002 -4.954019e+000 200 203 194
2.175402e-001 -7.729103e-002 -5.058957e+000 216 221 217
2.175402e-001 -7.729103e-002 -5.058957e+000 216 221 217
7.078585e-001 -5.563652e-002 -5.385162e+000 201 207 197
7.711221e-001 -6.963883e-002 -5.457664e+000 200 206 196
8.449660e-001 -5.927285e-002 -5.478120e+000 173 177 169
8.640464e-001 -9.826341e-002 -5.484543e+000 191 195 188
2.223881e+000 -1.100937e-001 -5.973972e+000 174 79 77
-2.754901e-001 -1.503251e-001 -4.514550e+000 173 163 136
5.202681e-001 -2.006898e-001 -5.403683e+000 152 151 147
6.685280e-001 -1.834519e-001 -5.338580e+000 140 143 136
7.475071e-001 -1.763511e-001 -5.525940e+000 148 150 145
1.254107e+000 -3.046623e-001 -5.671070e+000 142 138 132
-1.263946e+000 -4.282292e-001 -4.117536e+000 74 30 26
-7.921176e-001 -4.189156e-001 -4.225823e+000 165 130 112
-5.954678e-001 -4.301927e-001 -4.664189e+000 218 120 75
-6.014986e-001 -4.346429e-001 -4.708770e+000 218 120 75
-5.109464e-001 -4.558742e-001 -4.614546e+000 220 172 129
9.336740e-002 -4.094772e-001 -4.563091e+000 152 84 59
9.775421e-001 -6.378263e-001 -5.768973e+000 162 150 142
2.159469e+000 -7.139752e-001 -6.199765e+000 106 57 39
3.023459e+000 -6.624569e-001 -5.679546e+000 56 52 58
-1.296867e+000 -5.615297e-001 -4.009797e+000 105 60 47
-1.219403e+000 -5.058414e-001 -3.969489e+000 93 43 37
-1.258355e+000 -5.574140e-001 -3.971819e+000 115 69 62
-9.820768e-001 -5.937574e-001 -4.059012e+000 134 57 32
-6.293015e-001 -5.329162e-001 -4.184252e+000 212 176 133
-5.136932e-001 -5.713956e-001 -4.264778e+000 155 117 89
4.422155e-001 -5.994972e-001 -4.668147e+000 114 102 95
3.052438e+000 -7.489765e-001 -5.573952e+000 50 48 53
-1.353873e+000 -6.546399e-001 -4.009890e+000 111 92 52
-1.321139e+000 -6.508050e-001 -4.007723e+000 171 144 102
-1.225863e+000 -6.681001e-001 -3.947568e+000 132 88 83
-1.010480e+000 -5.908770e-001 -3.961214e+000 199 116 76
-6.680667e-001 -6.769808e-001 -4.162210e+000 106 84 64
2.434980e+000 -8.963017e-001 -5.891175e+000 48 43 49
2.558783e+000 -8.665669e-001 -5.880859e+000 100 98 103
2.558783e+000 -8.665669e-001 -5.880859e+000 100 98 103
2.740238e+000 -9.591480e-001 -5.781773e+000 40 38 43
2.901975e+000 -8.974339e-001 -5.619283e+000 41 39 44
2.937277e+000 -9.391086e-001 -5.563450e+000 41 38 45
-1.349734e+000 -7.520865e-001 -3.942325e+000 123 103 63
-1.318860e+000 -8.171456e-001 -3.963761e+000 71 62 35
-1.182015e+000 -8.055995e-001 -3.904280e+000 124 68 60
-1.021198e+000 -7.714464e-001 -4.076890e+000 197 105 66
2.759424e+000 -1.053510e+000 -5.702474e+000 42 40 45
2.844848e+000 -1.022520e+000 -5.594948e+000 80 78 83
-1.435090e+000 -8.346648e-001 -3.834510e+000 161 140 93
-1.435090e+000 -8.346648e-001 -3.834510e+000 161 140 93
-1.171552e+000 -8.950295e-001 -3.935581e+000 126 66 48
-8.128193e-001 -9.049229e-001 -3.867704e+000 87 32 16
-4.425212e-001 -1.005688e+000 -4.424062e+000 125 69 49
-3.097187e-001 -9.751747e-001 -4.502583e+000 114 50 25
-1.113326e-001 -1.119618e+000 -4.829833e+000 126 78 53
1.787095e+000 -1.379962e+000 -6.313815e+000 118 61 36
1.714325e+000 -1.367419e+000 -6.155728e+000 188 136 109
1.714325e+000 -1.367419e+000 -6.155728e+000 188 136 109
2.008264e+000 -1.392657e+000 -6.275509e+000 171 60 59
2.072882e+000 -1.323701e+000 -5.887060e+000 132 48 50
1.965583e+000 -1.610809e+000 -6.196013e+000 44 27 29
1.982919e+000 -1.532328e+000 -6.050370e+000 59 27 30
1.363351e+000 -1.859456e+000 -6.407345e+000 176 168 157
7.415806e-001 2.388211e+000 -7.267382e+000 211 209 197
7.195054e-001 2.289130e+000 -7.295299e+000 208 205 194
7.195054e-001 2.289130e+000 -7.295299e+000 208 205 194
1.027698e+000 1.879050e+000 -6.410820e+000 121 111 77
2.836808e+000 1.701116e+000 -6.115646e+000 61 60 68
2.941465e+000 1.698589e+000 -6.065922e+000 60 59 65
3.101844e+000 1.713609e+000 -6.059859e+000 53 50 57
2.689403e+000 1.587838e+000 -6.130979e+000 70 69 75
2.707575e+000 1.530573e+000 -6.068691e+000 177 176 182
2.986397e+000 1.467432e+000 -6.022123e+000 48 49 54
1.418516e+000 1.290959e+000 -6.029217e+000 148 140 103
1.418516e+000 1.290959e+000 -6.029217e+000 148 140 103
2.517987e+000 1.404376e+000 -6.143390e+000 149 148 151
2.608843e+000 1.345307e+000 -6.076767e+000 159 160 165
3.094071e+000 1.354277e+000 -5.874708e+000 44 43 48
-1.106855e+000 1.633316e+000 -8.383901e+000 60 39 40
7.708460e-001 1.189062e+000 -6.675775e+000 229 233 224
2.810020e+000 1.150781e+000 -6.089840e+000 62 62 67
2.947762e+000 1.060798e+000 -5.988429e+000 52 49 56
3.030866e+000 1.116019e+000 -5.906309e+000 44 42 47
3.399240e-001 1.189281e+000 -6.934047e+000 198 200 189
1.391076e+000 9.182994e-001 -6.162453e+000 201 201 166
3.008222e+000 1.016407e+000 -5.922372e+000 45 44 50
3.134230e+000 9.267214e-001 -5.959190e+000 42 39 46
2.248780e-001 1.000035e+000 -6.989055e+000 187 193 183
4.779061e-001 7.870622e-001 -6.687766e+000 236 242 234
1.049118e+000 8.747994e-001 -6.194484e+000 218 220 208
2.789241e+000 6.978997e-001 -5.955844e+000 54 52 57
2.884463e+000 7.077524e-001 -5.911963e+000 52 51 57
8.305145e-001 6.597440e-001 -6.443266e+000 239 242 231
2.817802e+000 6.524489e-001 -5.916424e+000 93 92 98
2.817802e+000 6.524489e-001 -5.916424e+000 93 92 98
3.168348e+000 5.376007e-001 -5.544695e+000 58 50 44
2.654001e+000 4.503642e-001 -5.954840e+000 89 88 93
2.654001e+000 4.503642e-001 -5.954840e+000 89 88 93
2.778349e+000 5.007652e-001 -5.826598e+000 53 52 57
2.936189e+000 3.440823e-001 -5.847839e+000 45 44 49
-3.341098e+000 5.730599e-001 -1.095736e+001 66 65 70
2.733054e+000 2.166819e-001 -5.971589e+000 52 51 56
2.779243e+000 3.366301e-001 -5.911461e+000 88 89 94
2.555875e-001 1.080546e-001 -5.614319e+000 227 233 223
2.555875e-001 1.080546e-001 -5.614319e+000 227 233 223
1.229221e+000 5.247992e-002 -5.564123e+000 156 153 146
9.153558e-001 -1.210093e-001 -5.542618e+000 193 194 189
2.980736e-001 -2.258122e-001 -4.814604e+000 179 182 174
4.033143e-001 -2.345024e-001 -4.939820e+000 99 96 87
-9.927334e-001 -2.492205e-001 -4.238048e+000 35 26 23
-6.282159e-001 -3.340271e-001 -4.801955e+000 161 74 35
1.290135e-002 -3.397765e-001 -4.716285e+000 204 157 128
5.977263e-001 -4.130171e-001 -5.449950e+000 101 94 84
1.025599e+000 -4.768105e-001 -5.638492e+000 156 156 148
1.475295e+000 -4.602351e-001 -6.044869e+000 56 41 32
-1.210754e+000 -3.893373e-001 -4.111035e+000 40 28 28
-8.095147e-001 -4.848807e-001 -4.214904e+000 111 89 76
-6.354028e-001 -4.380969e-001 -4.696679e+000 162 81 37
1.473347e+000 -6.652314e-001 -6.071481e+000 133 99 65
1.473347e+000 -6.652314e-001 -6.071481e+000 133 99 65
2.400993e+000 -6.173206e-001 -5.806932e+000 107 92 62
2.490314e+000 -5.602837e-001 -5.610601e+000 116 101 67
2.799513e+000 -6.537716e-001 -5.885260e+000 108 104 105
2.875287e+000 -6.594286e-001 -5.807817e+000 101 97 104
2.880710e+000 -6.599997e-001 -5.818838e+000 101 97 104
2.991883e+000 -5.971491e-001 -5.738167e+000 63 62 65
3.012743e+000 -6.189312e-001 -5.696983e+000 38 36 41
-1.393566e+000 -5.284010e-001 -4.122251e+000 54 45 34
-1.386800e+000 -5.397604e-001 -4.035745e+000 136 122 80
-9.251026e-001 -5.327807e-001 -3.970557e+000 116 44 22
-5.887049e-001 -5.312285e-001 -4.166213e+000 150 123 73
1.633546e+000 -7.392222e-001 -6.221221e+000 60 33 22
2.838157e+000 -7.419040e-001 -5.803784e+000 48 46 51
2.755696e+000 -7.788236e-001 -5.828104e+000 53 52 57
2.907972e+000 -6.869072e-001 -5.775310e+000 44 43 48
2.975072e+000 -7.418186e-001 -5.738258e+000 39 37 42
3.014424e+000 -7.146825e-001 -5.647186e+000 40 35 41
-3.798050e-001 -7.569363e-001 -4.399978e+000 130 75 51
2.444254e+000 -9.799891e-001 -5.917186e+000 43 36 43
2.484044e+000 -9.674669e-001 -5.801219e+000 50 48 53
2.676163e+000 -9.176680e-001 -5.936380e+000 99 97 102
2.488507e+000 -1.051256e+000 -5.858443e+000 46 41 47
2.640222e+000 -1.056614e+000 -5.906650e+000 44 39 43
2.754205e+000 -1.168926e+000 -5.709916e+000 43 37 44
-8.467147e-001 -9.161761e-001 -3.873280e+000 112 60 50
-7.632027e-001 -9.400304e-001 -4.003883e+000 82 32 20
-6.436921e-001 -9.921597e-001 -4.193648e+000 83 52 40
-2.734549e-001 -9.927047e-001 -4.643787e+000 121 65 44
1.688495e+000 -1.412653e+000 -6.334367e+000 106 41 29
1.937681e+000 -1.243490e+000 -6.062638e+000 207 143 126
2.624791e+000 -1.245104e+000 -5.970461e+000 38 33 39
2.812493e+000 -1.161991e+000 -5.656532e+000 34 31 36
-3.370556e-001 -1.157960e+000 -4.755240e+000 87 28 17
-4.596242e-002 -1.214046e+000 -4.931866e+000 176 64 52
-4.596242e-002 -1.214046e+000 -4.931866e+000 176 64 52
-8.506357e-001 -1.109391e+000 -4.045805e+000 148 85 46
1.756267e+000 -1.712222e+000 -6.269314e+000 178 69 69
-1.993302e-001 -1.577179e+000 -5.071733e+000 74 37 27
1.431891e+000 2.788913e+000 -6.665937e+000 233 213 203
1.664866e+000 2.824827e+000 -6.670350e+000 178 78 76
1.684462e+000 2.694401e+000 -6.492776e+000 232 222 212
2.070335e+000 1.541893e+000 -5.892409e+000 133 60 60
3.071670e+000 1.520916e+000 -5.996151e+000 63 60 67
2.609684e+000 1.267451e+000 -5.896481e+000 57 57 67
2.661278e+000 1.220341e+000 -6.032446e+000 71 70 75
3.097092e+000 1.024259e+000 -5.889529e+000 40 38 45
-1.198587e+000 1.470401e+000 -9.070881e+000 50 42 44
2.443866e-001 1.189066e+000 -7.035730e+000 176 175 166
-3.871861e-001 1.001567e+000 -8.344615e+000 205 207 195
8.122867e-001 8.444948e-001 -6.803612e+000 219 221 207
1.396958e+000 6.078006e-001 -5.803944e+000 224 230 220
2.972482e+000 4.575549e-001 -5.865370e+000 44 42 45
7.040061e-002 1.991916e-001 -5.918227e+000 222 224 213
2.515652e+000 2.828127e-001 -5.971554e+000 49 49 47
-3.197431e-001 1.200393e-001 -5.108006e+000 221 226 214
-5.060476e-001 -1.211038e-001 -4.959886e+000 166 99 65
2.350785e+000 -9.582441e-002 -5.800731e+000 180 176 129
-3.900137e-001 -2.266956e-001 -4.517901e+000 69 55 74
4.882619e-002 -2.467841e-001 -4.617598e+000 208 200 190
8.944331e-001 -5.908147e-001 -5.728541e+000 147 143 134
1.594657e+000 -6.617925e-001 -6.078947e+000 178 149 117
2.944170e+000 -6.520978e-001 -5.818491e+000 49 44 50
9.381694e-001 -7.210432e-001 -5.761870e+000 200 202 193
9.951097e-001 -6.894246e-001 -5.829150e+000 60 44 36
2.523748e+000 -8.587397e-001 -5.928070e+000 52 50 55
2.896197e+000 -7.753475e-001 -5.775529e+000 41 39 44
3.084252e+000 -6.954746e-001 -5.574020e+000 48 46 51
2.986839e+000 -8.149821e-001 -5.649270e+000 38 36 41
2.589682e+000 -9.190937e-001 -5.885706e+000 61 60 65
2.821755e+000 -9.221046e-001 -5.756709e+000 42 40 45
2.891720e+000 -8.512939e-001 -5.712767e+000 40 38 43
2.907137e+000 -9.859126e-001 -5.685008e+000 43 40 47
-7.460659e-001 -7.394924e-001 -4.060612e+000 128 72 50
-1.711005e-001 -1.096051e+000 -4.717881e+000 111 53 34
-7.060620e-002 -1.065728e+000 -4.771319e+000 160 116 85
1.641080e+000 -1.486215e+000 -6.419554e+000 202 96 97
7.588676e-003 -1.298058e+000 -4.939524e+000 219 128 83
1.733037e+000 -1.509407e+000 -6.350919e+000 205 90 97
1.481353e-001 3.054611e+000 -7.995189e+000 199 69 68
-3.591004e-001 2.778567e+000 -8.715242e+000 60 51 49
2.256478e-001 2.619317e+000 -7.923021e+000 211 202 188
2.317290e+000 2.057777e+000 -6.138861e+000 199 83 83
-6.990770e-001 2.145032e+000 -8.613021e+000 55 50 57
4.781324e-001 1.769840e+000 -7.106755e+000 189 191 180
2.542851e+000 1.341779e+000 -6.088196e+000 74 73 82
2.830115e+000 1.045155e+000 -5.981035e+000 59 56 63
9.002992e-002 5.820773e-001 -6.671736e+000 224 226 213
3.206601e-001 4.161401e-001 -6.114530e+000 189 190 176
2.778626e+000 4.057707e-001 -5.886123e+000 58 57 62
-4.202464e-001 -2.466576e-002 -5.090704e+000 211 214 199
-4.202464e-001 -2.466576e-002 -5.090704e+000 211 214 199
-4.531246e-001 -2.650911e-001 -4.662355e+000 213 182 141
-2.736109e-001 -2.054105e-001 -4.597976e+000 204 185 143
1.790465e-002 -2.853350e-001 -4.586954e+000 174 77 69
4.458240e-001 -3.801964e-001 -4.758595e+000 147 149 138
8.195952e-001 -4.821461e-001 -5.559096e+000 111 102 94
2.347172e+000 -7.427285e-001 -5.974989e+000 187 80 77
3.112382e+000 -7.656278e-001 -5.576590e+000 86 85 91
-1.248623e+000 -6.501934e-001 -3.933190e+000 77 33 28
7.777352e-001 -8.589547e-001 -5.688954e+000 89 80 74
1.504446e+000 -1.145039e+000 -6.183584e+000 179 142 108
-1.184657e+000 -9.025954e-001 -4.079275e+000 89 34 22
-3.274211e-002 -9.802510e-001 -4.597706e+000 141 81 51
-8.338670e-001 -9.564189e-001 -3.933038e+000 65 27 14
-6.003678e-002 -1.145037e+000 -4.850301e+000 70 31 29
1.248263e+000 -1.527130e+000 -6.287014e+000 152 142 132
-8.096813e-001 -1.091857e+000 -4.049488e+000 41 32 35
1.254324e+000 -1.812776e+000 -6.355697e+000 189 181 170
2.291090e+000 2.492914e+000 -5.923446e+000 43 31 36
2.551397e+000 2.582181e+000 -6.171602e+000 43 33 42
4.029940e-001 2.991332e+000 -7.676877e+000 187 76 72
-2.009864e-002 3.211825e+000 -8.570869e+000 42 53 56
1.783076e+000 2.248222e+000 -6.202435e+000 207 200 182
-1.503322e-001 2.779666e+000 -8.393013e+000 189 70 66
9.357383e-001 1.523776e+000 -6.440788e+000 212 212 201
9.357383e-001 1.523776e+000 -6.440788e+000 212 212 201
1.361311e+000 1.542345e+000 -6.265981e+000 150 142 100
-3.233383e-001 1.908459e+000 -8.397870e+000 209 215 201
-6.953535e-001 1.042811e+000 -8.572869e+000 199 201 188
-2.601230e-003 8.499304e-001 -7.099836e+000 235 241 229
-2.954469e-001 7.343782e-001 -8.088121e+000 186 184 172
1.724065e-001 -3.873409e-001 -4.578550e+000 182 79 68
1.259529e+000 -4.918086e-001 -5.776930e+000 101 66 53
1.103574e+000 -6.629923e-001 -5.726557e+000 64 32 27
1.623784e+000 -5.943805e-001 -6.218646e+000 73 50 37
1.281098e+000 -7.635874e-001 -6.018262e+000 52 36 34
-1.473846e+000 -5.972174e-001 -4.007452e+000 36 31 31
-4.827581e-001 -7.086238e-001 -4.232564e+000 102 59 35
-1.443202e+000 -7.208080e-001 -3.927270e+000 46 33 26
4.532412e-001 -9.548002e-001 -5.037667e+000 82 65 54
1.193199e+000 -1.025065e+000 -5.820477e+000 163 161 152
-1.224490e+000 -8.981450e-001 -3.944816e+000 41 41 39
-1.224490e+000 -8.981450e-001 -3.944816e+000 41 41 39
1.453077e+000 -2.035322e+000 -6.615716e+000 178 172 160
7.237731e-001 2.948764e+000 -7.360688e+000 203 88 91
2.210172e-001 2.873224e+000 -7.984445e+000 184 70 65
7.683455e-001 2.095325e+000 -7.051870e+000 235 235 226
3.751280e-001 1.967623e+000 -7.755513e+000 230 230 218
2.342416e+000 1.555169e+000 -5.964929e+000 190 92 86
1.201098e-001 1.682950e+000 -7.583002e+000 243 248 241
2.474631e-001 1.242756e+000 -6.962199e+000 194 194 182
1.090915e+000 1.089835e+000 -6.378942e+000 230 235 228
9.472131e-001 5.675053e-001 -5.771421e+000 93 91 69
9.472131e-001 5.675053e-001 -5.771421e+000 93 91 69
1.083831e-001 -1.204599e-001 -4.780622e+000 181 187 177
3.867214e-001 -1.949317e-001 -4.914559e+000 111 107 99
-9.426646e-002 -3.517229e-001 -4.609061e+000 213 175 130
-9.153358e-002 -3.545618e-001 -4.640716e+000 213 175 130
1.411152e+000 -5.230572e-001 -5.915544e+000 174 146 115
1.385940e+000 -8.419109e-001 -5.985765e+000 224 191 150
1.721296e+000 -7.747371e-001 -6.284534e+000 70 32 33
3.024662e+000 -8.696113e-001 -5.588664e+000 65 62 69
-1.112573e+000 -8.538640e-001 -3.939708e+000 124 73 69
-8.182751e-002 -1.523514e+000 -5.014437e+000 81 36 31
-2.174791e-001 3.456093e+000 -9.012209e+000 83 82 88
1.098081e+000 2.715303e+000 -6.872072e+000 126 117 78
-8.655540e-002 1.867639e+000 -8.015015e+000 184 181 165
-5.457248e-001 8.609033e-001 -8.428183e+000 224 226 213
1.071743e+000 5.358005e-001 -5.539784e+000 230 233 223
5.978601e-001 -1.212115e-001 -5.300657e+000 203 208 201
1.212913e+000 -1.695206e-001 -5.658169e+000 152 149 142
-5.779304e-001 -4.638761e-001 -4.597062e+000 157 83 48
7.768372e-001 -9.413306e-001 -5.681115e+000 87 73 65
-3.375659e-001 -9.836149e-001 -4.524484e+000 117 56 29
-1.125951e-001 -1.190213e+000 -4.840547e+000 65 26 22
1.637645e-001 -1.324294e+000 -5.072427e+000 74 36 28
2.730623e+000 2.362505e+000 -5.824310e+000 202 85 88
2.738251e+000 2.126548e+000 -5.781087e+000 33 24 29
-1.394553e-001 8.665319e-001 -7.493791e+000 236 241 234
3.893778e-002 3.078579e-001 -6.339073e+000 181 182 168
5.323068e-001 -3.094855e-001 -5.450719e+000 85 78 72
5.300793e-001 -3.096269e-001 -5.424157e+000 85 78 72
-1.770397e-001 -5.373916e-001 -4.593416e+000 110 61 39
1.538228e-002 -5.356574e-001 -4.603062e+000 216 179 137
1.124523e+000 -1.202307e+000 -6.007361e+000 90 68 54
7.574705e-002 -3.100932e+000 -7.559074e+000 27 14 20
1.533747e+000 2.658828e+000 -6.619246e+000 227 221 202
1.986729e+000 -5.912699e-002 -5.909026e+000 66 37 39
2.857738e+000 -2.888087e-001 -5.550230e+000 131 116 75
-8.608638e-001 -4.989271e-001 -4.332456e+000 100 64 45
3.656076e-001 -7.098321e-001 -4.725041e+000 58 33 26
-1.074079e+000 -7.499729e-001 -4.014124e+000 227 135 90
-1.384303e-001 7.270908e-002 -4.910974e+000 218 219 211
-3.955575e-001 -3.771897e-001 -4.603705e+000 223 180 135
2.477652e+000 -3.831266e-001 -5.637224e+000 194 179 124
7.044976e-001 -6.008674e-001 -5.519670e+000 43 32 35
7.152944e-001 -6.262287e-001 -5.716141e+000 43 32 35
3.285756e+000 1.736744e+000 -6.547795e+000 98 97 103
1.275220e+000 1.339393e+000 -6.102332e+000 127 118 84
1.595201e+000 -3.192428e-001 -5.991880e+000 58 46 38
6.654233e-002 -8.935435e-001 -4.819484e+000 231 195 145
-1.622424e-001 -1.387544e+000 -5.266790e+000 96 41 30
6.165617e-001 -1.799404e+000 -6.544745e+000 56 21 23
-1.072642e+000 -6.815018e-001 -4.029254e+000 191 98 57
2.041541e+000 8.654332e-001 -5.915671e+000 219 218 210
-7.493489e-001 2.520374e+000 -9.179280e+000 69 65 72
1.355927e+000 2.298155e+000 -6.160520e+000 155 142 105
-9.964490e-001 2.240980e+000 -9.331377e+000 57 55 59
2.508430e+000 2.457513e+000 -5.949456e+000 48 35 38
1.035158e+000 1.993195e+000 -6.443367e+000 157 148 105
1.324227e+000 1.998432e+000 -6.277400e+000 198 188 135
-3.488580e+000 1.054828e+000 -1.108647e+001 63 62 67
-3.475428e+000 9.944476e-001 -1.115057e+001 62 61 66
-3.446847e+000 8.962750e-001 -1.111311e+001 68 67 72
-3.444560e+000 8.945047e-001 -1.110888e+001 68 67 72
-3.347158e+000 9.586592e-001 -1.104644e+001 57 56 62
2.706826e+000 1.795738e+000 -6.091005e+000 53 49 58
1.142854e+000 1.364182e+000 -6.187137e+000 136 125 93
1.413277e+000 1.472938e+000 -6.204672e+000 214 207 162
2.532893e+000 1.570488e+000 -6.092297e+000 128 126 134
2.659841e+000 1.646615e+000 -6.077208e+000 65 64 70
1.157525e+000 1.177502e+000 -6.587514e+000 205 207 193
2.504075e+000 1.501123e+000 -6.146973e+000 90 90 98
2.499997e+000 1.474098e+000 -6.082659e+000 61 59 66
2.689905e+000 1.494267e+000 -6.081331e+000 79 76 83
2.514360e+000 1.376976e+000 -6.037708e+000 59 58 63
2.585650e+000 1.287376e+000 -5.978999e+000 62 59 67
2.621581e+000 1.265721e+000 -6.016392e+000 101 98 103
2.832500e+000 1.257528e+000 -5.919594e+000 45 42 49
-4.829556e-001 5.824363e-002 -4.926066e+000 153 79 46
-5.736199e-001 -3.272134e-002 -5.000387e+000 212 135 92
-1.322795e-001 -5.101584e-002 -5.678685e+000 214 218 203
5.972113e-001 1.681318e-001 -5.641952e+000 207 211 200
2.704294e+000 5.649673e-001 -6.031765e+000 57 53 60
2.759326e+000 5.586691e-001 -5.882521e+000 51 50 55
2.759326e+000 5.586691e-001 -5.882521e+000 51 50 55
2.911356e+000 5.073044e-001 -5.814975e+000 61 60 65
2.911356e+000 5.073044e-001 -5.814975e+000 61 60 65
-3.650755e-001 -1.387353e-001 -4.554700e+000 150 122 110
2.647147e+000 1.966975e-001 -5.891980e+000 73 71 74
2.808923e+000 3.128815e-001 -5.801894e+000 70 69 74
2.932562e+000 3.442001e-001 -5.756007e+000 60 59 64
1.201190e+000 -2.658631e-001 -5.689947e+000 166 166 156
-1.367320e+000 -5.826183e-001 -4.015418e+000 158 136 87
-1.291980e+000 -5.179426e-001 -4.061217e+000 106 61 52
-9.194507e-001 -5.602636e-001 -3.992937e+000 144 73 53
-6.944840e-001 -6.681730e-001 -4.132828e+000 79 61 61
-2.901242e-001 -8.111059e-001 -4.726122e+000 146 101 67
2.704376e+000 -7.307024e-001 -5.900014e+000 65 60 62
-7.366197e-001 -8.703377e-001 -4.014797e+000 102 35 10
-4.274716e-001 -1.028223e+000 -4.447300e+000 133 60 27
9.454911e-001 -1.737089e+000 -6.736581e+000 108 92 76
1.609171e+000 -1.159168e+000 -6.113515e+000 199 160 115
3.060858e+000 -7.323576e-001 -5.644372e+000 52 47 51
-1.333005e-001 -1.260417e+000 -4.765053e+000 127 56 30
2.775660e+000 -1.047906e+000 -5.746159e+000 33 28 32
1.601904e+000 2.519000e+000 -6.449491e+000 207 197 179
-3.236150e+000 6.438367e-001 -1.103035e+001 54 53 58
2.869105e-001 1.226580e+000 -6.903179e+000 211 212 197
2.713358e+000 1.763255e+000 -6.067778e+000 111 106 113
2.635316e+000 1.660959e+000 -6.108489e+000 134 132 137
2.635316e+000 1.660959e+000 -6.108489e+000 134 132 137
2.612995e+000 1.576438e+000 -6.067652e+000 157 156 162
2.612787e+000 1.439854e+000 -6.055780e+000 120 117 124
2.644890e+000 1.443334e+000 -6.038391e+000 54 51 58
2.701619e+000 1.544658e+000 -6.139954e+000 66 63 70
2.734742e+000 1.576632e+000 -6.012000e+000 59 58 64
2.851400e+000 1.609870e+000 -6.033602e+000 56 53 60
2.716380e+000 1.332170e+000 -5.996488e+000 49 47 52
1.567021e-001 5.858613e-001 -6.681124e+000 234 238 224
4.804398e-001 4.101154e-001 -6.548628e+000 203 213 203
6.386305e-001 5.623951e-001 -6.514598e+000 213 217 203
1.819428e+000 8.552740e-001 -6.141202e+000 224 224 214
1.862883e+000 8.187327e-001 -5.790776e+000 213 213 201
2.822797e+000 1.119820e+000 -6.004997e+000 82 77 83
-4.494711e-001 1.120601e-001 -5.047355e+000 156 96 68
1.410709e+000 5.694962e-001 -5.134497e+000 217 222 215
2.760839e+000 7.477899e-001 -5.891922e+000 75 74 78
2.986432e+000 8.176621e-001 -5.943479e+000 40 38 43
-6.095403e-001 -2.255398e-001 -4.941730e+000 220 119 66
-2.881962e-001 -5.254179e-002 -4.569049e+000 170 79 79
3.505800e-001 -5.310242e-002 -5.150681e+000 205 212 204
2.832206e+000 4.625743e-001 -5.880851e+000 66 65 70
-5.222348e-001 -2.783313e-001 -4.727326e+000 185 95 59
-4.384039e-001 -1.989483e-001 -4.500606e+000 174 144 114
-2.983807e-001 -1.173015e-001 -4.506550e+000 88 74 63
-2.983807e-001 -1.173015e-001 -4.506550e+000 88 74 63
2.745222e+000 2.294178e-001 -5.865680e+000 65 63 66
7.402473e-001 -3.141958e-001 -5.462160e+000 177 178 170
2.658236e+000 6.371077e-002 -5.797660e+000 133 118 87
-1.376570e+000 -5.638168e-001 -4.011208e+000 102 82 33
-5.863508e-001 -4.473510e-001 -4.461013e+000 175 93 54
1.187647e+000 -3.496933e-001 -5.662881e+000 162 162 151
-1.357381e+000 -6.069982e-001 -4.031846e+000 117 94 44
-1.349271e+000 -5.988938e-001 -4.010192e+000 117 94 44
-7.291440e-001 -5.223075e-001 -4.267435e+000 208 188 164
1.463556e+000 -6.632073e-001 -6.056659e+000 164 124 82
-1.384106e+000 -6.912512e-001 -3.945106e+000 148 127 77
-1.018699e+000 -7.213066e-001 -3.917650e+000 224 132 89
-9.102421e-001 -7.185743e-001 -3.931847e+000 183 97 62
1.675110e+000 -1.248103e+000 -6.208956e+000 210 172 129
2.574124e+000 -8.684071e-001 -5.930168e+000 65 60 64
2.702856e+000 -8.175340e-001 -5.996925e+000 59 54 58
3.029603e+000 -6.371871e-001 -5.593415e+000 32 27 31
3.029603e+000 -6.371871e-001 -5.593415e+000 32 27 31
-6.846292e-001 -9.466650e-001 -4.079829e+000 91 42 19
7.232666e-002 -1.133614e+000 -4.868215e+000 177 122 89
1.733848e+000 -1.387895e+000 -6.232172e+000 191 130 106
2.281618e+000 -1.385862e+000 -6.256461e+000 43 18 18
2.744771e+000 -1.056612e+000 -5.901066e+000 52 47 51
1.674971e+000 2.214490e+000 -6.221374e+000 203 197 184
2.618539e+000 1.627578e+000 -6.121097e+000 63 57 63
2.690443e+000 1.700623e+000 -6.066716e+000 160 156 162
2.803065e+000 1.674298e+000 -6.040083e+000 60 57 64
-3.858725e-001 8.595214e-001 -8.333556e+000 221 222 207
2.676962e+000 1.515974e+000 -5.996849e+000 158 155 162
2.676962e+000 1.515974e+000 -5.996849e+000 158 155 162
2.718791e+000 1.466348e+000 -6.020761e+000 56 53 60
2.608734e+000 1.339566e+000 -6.067201e+000 128 125 134
2.768605e+000 1.379427e+000 -6.095541e+000 52 49 55
2.746112e+000 1.375101e+000 -6.047994e+000 52 49 55
2.735217e+000 1.420896e+000 -6.009367e+000 115 112 120
2.733110e+000 1.420537e+000 -6.004403e+000 115 112 120
2.809724e+000 1.409474e+000 -6.049969e+000 52 49 56
2.681703e+000 1.348585e+000 -6.006118e+000 111 109 114
8.111012e-001 7.652435e-001 -6.412741e+000 237 239 225
1.371538e+000 8.493568e-001 -6.027967e+000 229 231 214
2.722329e+000 1.248812e+000 -6.052079e+000 108 107 113
2.653263e+000 1.222998e+000 -5.804973e+000 53 50 57
3.387486e-001 4.821099e-001 -6.305871e+000 213 216 205
2.816246e+000 1.013889e+000 -5.961387e+000 49 46 55
-2.170625e+000 -7.144997e-001 -1.042248e+001 24 19 21
-2.263320e+000 -7.997676e-001 -1.055507e+001 59 57 60
-5.792148e-001 -1.521366e-001 -4.871633e+000 210 113 62
-1.716926e-001 -2.575326e-002 -4.719449e+000 185 184 172
4.950529e-001 -3.213032e-002 -5.334287e+000 194 204 195
-3.280685e-001 -1.427693e-001 -4.540747e+000 168 155 131
-1.852808e-001 -1.593911e-001 -4.498809e+000 182 137 104
-1.841159e-001 -1.614544e-001 -4.498615e+000 182 137 104
2.495532e-001 -1.642110e-001 -4.788916e+000 161 166 156
2.555460e+000 2.504993e-001 -5.890197e+000 50 48 53
2.893939e+000 2.835408e-001 -5.893615e+000 40 38 45
-7.427047e-001 -4.000020e-001 -4.627606e+000 196 111 66
-5.951822e-001 -4.200880e-001 -4.603011e+000 217 120 75
-8.373657e-001 -4.506730e-001 -4.189605e+000 85 42 24
5.902183e-001 -4.151523e-001 -5.429375e+000 122 116 104
-1.319452e+000 -5.902295e-001 -4.010853e+000 154 126 79
-1.253714e+000 -5.556795e-001 -3.973479e+000 119 67 57
-6.251953e-001 -5.279461e-001 -4.161445e+000 219 181 132
8.342684e-001 -8.428374e-001 -5.652354e+000 153 149 137
1.627875e+000 -7.874914e-001 -6.177233e+000 183 140 108
1.547674e+000 -7.877871e-001 -6.057132e+000 143 95 59
1.684799e+000 -8.276609e-001 -6.153985e+000 146 56 45
1.911256e+000 -7.869387e-001 -6.349343e+000 188 78 76
2.032045e+000 -7.441156e-001 -6.153967e+000 192 79 76
-1.411506e+000 -7.768619e-001 -3.857663e+000 142 121 67
-9.292948e-001 -7.739055e-001 -3.912108e+000 210 118 77
-8.754592e-001 -7.753039e-001 -3.912192e+000 192 104 64
-8.023831e-001 -9.140992e-001 -3.985128e+000 149 76 47
1.620974e+000 -1.099753e+000 -5.987524e+000 214 178 132
1.620654e+000 -1.252392e+000 -6.170149e+000 165 122 84
2.729306e+000 -8.952271e-001 -5.949555e+000 44 39 43
-8.379930e-001 -9.465051e-001 -3.885594e+000 92 39 25
3.078796e+000 -7.474477e-001 -5.555389e+000 63 58 62
-1.919164e-001 -1.364868e+000 -4.790418e+000 134 67 41
2.025988e+000 1.508154e+000 -5.803373e+000 136 61 57
2.472721e+000 1.561546e+000 -6.078652e+000 58 41 43
1.187487e+000 1.195397e+000 -6.528130e+000 234 233 213
2.703632e+000 1.579497e+000 -6.145800e+000 58 57 63
2.695759e+000 1.296614e+000 -6.069193e+000 55 50 57
2.792822e+000 1.440849e+000 -5.980395e+000 50 47 55
7.074137e-001 7.803604e-001 -6.501203e+000 232 235 222
3.238247e-001 4.269335e-001 -6.115996e+000 196 200 184
2.737041e+000 1.096163e+000 -5.936324e+000 54 53 59
2.954704e+000 1.047359e+000 -6.001381e+000 42 39 46
-3.447035e+000 -1.245964e+000 -1.103373e+001 54 52 57
1.915599e-001 1.043556e-001 -5.669767e+000 200 207 199
3.470914e-002 4.470293e-002 -5.585674e+000 202 208 204
5.073081e-001 1.138353e-001 -5.509186e+000 202 209 197
-3.676292e-001 -1.171536e-001 -4.629728e+000 116 49 49
-4.329449e-001 -2.021754e-001 -4.419090e+000 196 173 128
-2.675753e-001 -1.762743e-001 -4.458865e+000 202 184 142
-6.440571e-001 -4.403588e-001 -4.616129e+000 154 68 32
2.337500e+000 -8.911138e-002 -5.769496e+000 214 199 149
-1.494224e+000 -5.232644e-001 -4.066694e+000 141 119 71
-1.447819e+000 -5.702973e-001 -4.026091e+000 147 127 77
-8.122754e-001 -4.849992e-001 -4.210529e+000 119 93 70
-8.116041e-001 -4.249220e-001 -4.331587e+000 171 135 108
-5.081814e-001 -4.521575e-001 -4.589632e+000 214 169 122
-4.910933e-001 -4.717264e-001 -4.497138e+000 154 89 48
-3.581615e-003 -3.350762e-001 -4.616163e+000 216 171 128
1.615687e+000 -6.651037e-001 -6.120627e+000 182 148 107
-1.220843e+000 -6.745651e-001 -3.973835e+000 117 63 55
9.727564e-001 -7.097266e-001 -5.592815e+000 182 179 164
1.842042e+000 -8.517746e-001 -6.212607e+000 194 76 69
3.187686e+000 -6.171463e-001 -5.642078e+000 32 30 33
1.649887e+000 -1.386412e+000 -6.222722e+000 176 91 78
1.792758e+000 -1.412928e+000 -6.275110e+000 152 71 61
7.878484e-001 2.331463e+000 -7.115446e+000 238 238 226
3.379908e-002 1.049273e+000 -7.657268e+000 219 221 208
2.507871e+000 1.393400e+000 -5.942779e+000 61 60 64
2.664294e+000 1.409889e+000 -6.049589e+000 55 53 58
-1.371804e+000 2.556432e-003 -9.162051e+000 219 212 201
-6.032636e-001 3.947704e-001 -8.509129e+000 229 233 221
-1.726757e+000 -3.128673e-001 -9.537693e+000 179 61 57
3.648084e-001 5.387451e-001 -6.506949e+000 195 201 189
-1.042417e-001 1.589801e-001 -5.974549e+000 195 200 193
1.396994e+000 5.069646e-001 -5.701740e+000 193 196 189
-1.529164e+000 -5.190445e-001 -4.039072e+000 163 146 90
-1.594401e+000 -7.130675e-001 -3.903309e+000 36 23 23
-2.799851e-001 -5.827393e-001 -4.557176e+000 142 80 48
9.035795e-001 -6.665985e-001 -5.796483e+000 85 76 69
9.111555e-001 -6.631475e-001 -5.796039e+000 85 76 69
9.424430e-001 -7.361247e-001 -5.811671e+000 201 199 187
1.578302e+000 -5.840336e-001 -6.098559e+000 81 55 32
-9.344968e-001 -6.478112e-001 -3.968705e+000 112 42 21
2.273740e+000 -6.804480e-001 -6.045005e+000 105 77 47
-1.267464e+000 -8.213199e-001 -3.905703e+000 151 120 74
-6.203905e-001 -8.145349e-001 -4.161272e+000 125 58 33
1.557900e+000 -1.269269e+000 -6.176240e+000 219 191 141
-4.032178e-002 -3.950076e+000 -7.969051e+000 169 51 49
-4.032178e-002 -3.950076e+000 -7.969051e+000 169 51 49
-3.267667e-001 1.914827e+000 -8.445591e+000 216 210 199
1.100995e+000 1.936607e+000 -6.416567e+000 213 201 143
2.425075e+000 1.917997e+000 -5.737071e+000 175 67 68
-1.325618e+000 2.475015e-001 -9.167407e+000 217 217 202
2.229790e-001 7.196909e-001 -6.699278e+000 238 241 230
1.189154e+000 1.090497e+000 -6.255554e+000 129 117 85
2.852767e-001 -8.483709e-002 -4.968063e+000 157 163 156
-1.736121e-001 -2.863888e-001 -4.548823e+000 159 115 79
-8.207545e-001 -5.404430e-001 -4.179718e+000 123 67 42
2.636821e+000 -2.749433e-001 -5.748197e+000 150 133 80
-1.224819e+000 -7.733768e-001 -3.921509e+000 69 22 14
2.490449e+000 -6.573605e-001 -5.834155e+000 38 30 28
3.257416e+000 -6.826853e-001 -5.679330e+000 51 47 53
-8.398482e-001 -9.534039e-001 -3.977825e+000 86 33 23
1.843378e+000 -1.333047e+000 -6.133414e+000 197 159 115
4.659982e-002 -3.807802e+000 -7.949489e+000 18 15 12
9.855449e-001 2.436466e+000 -6.103243e+000 134 120 83
1.290814e+000 1.648438e+000 -6.112142e+000 162 153 103
2.494471e-001 1.250800e+000 -7.052625e+000 180 179 167
2.202826e+000 -2.698398e-002 -5.988153e+000 195 82 81
-2.107277e-002 -7.073475e-001 -4.790435e+000 185 146 102
2.973775e+000 -1.744898e-001 -5.206818e+000 118 99 62
1.149545e+000 -1.186482e+000 -5.992198e+000 116 103 87
-1.200488e-001 -1.180652e+000 -4.800621e+000 60 19 19
-4.038828e-001 7.199797e-002 -5.230539e+000 102 59 47
-1.904515e-001 -1.224696e-001 -4.475876e+000 169 88 83
1.099573e+000 -2.148691e-002 -5.517257e+000 211 216 209
-9.026515e-001 -5.727651e-001 -4.040706e+000 125 57 36
-3.392481e-001 -9.916231e-001 -4.557167e+000 137 62 35
-7.437203e-001 -9.877668e-001 -3.916951e+000 36 24 30
1.013729e-001 -3.807355e+000 -8.153419e+000 23 12 15
-9.512753e-002 8.615385e-001 -6.731500e+000 235 237 226
-7.998934e-001 -8.495038e-001 -3.976940e+000 174 90 59
3.208974e-002 3.130084e-001 -6.244758e+000 174 176 165
1.825718e+000 -1.791270e+000 -6.230353e+000 35 28 34
1.233083e+000 1.701923e+000 -6.615264e+000 124 115 79
-3.941306e-001 -3.701738e-001 -4.547013e+000 229 187 135
2.305425e+000 -2.648566e-001 -5.853343e+000 108 87 57
-1.079539e+000 -5.316061e-001 -4.017006e+000 230 138 86
6.961858e-001 -6.101711e-001 -5.637464e+000 51 40 38
2.249303e+000 -6.048536e-001 -5.350104e+000 49 42 49
-7.290405e-001 -9.425851e-002 -5.016876e+000 223 221 209
-1.334692e+000 -4.012088e-001 -4.213962e+000 42 38 37
-9.993152e-001 -7.286144e-001 -3.837505e+000 222 122 63
-3.908797e-001 -8.557535e-001 -4.631192e+000 132 70 42
-3.908797e-001 -8.557535e-001 -4.631192e+000 132 70 42
-1.427393e-001 -1.372485e+000 -5.216627e+000 61 18 23
2.607710e+000 -2.351247e-001 -5.743180e+000 166 149 94
1.115662e+000 2.283190e+000 -6.218102e+000 112 103 70
1.115662e+000 2.283190e+000 -6.218102e+000 112 103 70
1.512465e+000 -2.048711e+000 -6.674346e+000 205 201 190
-1.056866e+000 -6.866189e-001 -4.045707e+000 184 87 42
2.016043e+000 8.320058e-001 -5.873846e+000 223 221 209
1.846768e+000 2.201421e+000 -6.170497e+000 229 226 214
-3.870189e-001 3.138719e+000 -9.047646e+000 72 71 76
2.850373e+000 1.660260e+000 -5.971166e+000 111 110 115
2.676613e+000 1.456466e+000 -6.025643e+000 128 127 133
2.619720e+000 1.264892e+000 -6.012071e+000 124 125 129
2.579637e+000 3.976712e-001 -5.977997e+000 67 69 71
5.017509e-001 -3.284207e-002 -5.207495e+000 191 197 187
4.874454e-001 -8.498129e-002 -5.210191e+000 182 187 180
3.284078e+000 -5.212027e-001 -5.525244e+000 102 102 106
3.122084e+000 -5.794154e-001 -5.609003e+000 55 52 56
2.866536e+000 -7.329699e-001 -5.777391e+000 71 69 74
2.866536e+000 -7.329699e-001 -5.777391e+000 71 69 74
3.001181e+000 -7.657871e-001 -5.590592e+000 42 40 45
3.015710e+000 -8.039269e-001 -5.648843e+000 55 54 59
1.745558e+000 -1.250823e+000 -6.136653e+000 181 145 100
2.088227e+000 -1.427898e+000 -6.095239e+000 129 44 50
-7.302347e-001 -9.229072e-001 -4.053323e+000 81 35 22
2.719640e+000 1.663992e+000 -6.035237e+000 56 57 61
2.812023e+000 1.743966e+000 -6.073424e+000 95 96 100
2.913767e+000 1.604467e+000 -5.936200e+000 143 143 150
2.873073e+000 1.589997e+000 -5.933920e+000 62 61 67
2.688719e+000 1.349609e+000 -6.021073e+000 146 147 152
2.828386e+000 1.263146e+000 -5.986861e+000 130 131 136
2.853744e+000 1.335293e+000 -5.935628e+000 50 51 56
2.891764e+000 1.308594e+000 -5.956002e+000 107 109 114
2.663655e+000 1.257546e+000 -6.022649e+000 70 71 75
2.935539e+000 7.479742e-001 -5.873684e+000 46 45 51
3.110097e+000 7.064999e-001 -5.845729e+000 45 44 50
2.511476e+000 3.876571e-001 -5.956779e+000 51 40 44
2.693101e+000 4.187959e-001 -5.955686e+000 55 55 63
2.745722e+000 3.626306e-001 -5.914206e+000 59 60 65
1.810546e+000 4.121715e-001 -5.959361e+000 229 232 225
1.836058e-001 1.687330e-001 -5.810984e+000 223 226 217
7.447927e-001 -2.184862e-001 -5.364627e+000 147 148 142
7.447927e-001 -2.184862e-001 -5.364627e+000 147 148 142
1.244733e+000 -2.682867e-001 -5.698782e+000 168 164 155
1.244966e+000 -2.704320e-001 -5.706030e+000 168 164 155
2.362807e+000 -7.064628e-001 -5.948731e+000 149 75 68
1.316669e-001 -5.629963e-001 -4.497114e+000 188 142 106
2.807287e+000 1.558518e+000 -5.998125e+000 62 61 66
2.851370e+000 1.565664e+000 -5.974693e+000 163 162 167
2.646351e+000 1.360428e+000 -6.035157e+000 65 66 71
2.829512e+000 1.322597e+000 -5.996051e+000 54 55 60
2.704773e+000 1.245655e+000 -6.014955e+000 147 152 155
2.762960e+000 -8.645993e-001 -5.802539e+000 41 40 45
1.878031e+000 -9.376706e-001 -6.164481e+000 123 39 33
-8.792930e-001 -5.093147e-001 -4.035652e+000 137 73 56
2.658132e+000 1.405757e+000 -6.032854e+000 60 59 65
1.042845e+000 -1.341058e-001 -5.571862e+000 154 155 149
2.295270e+000 -6.670656e-001 -5.915847e+000 100 59 41
-4.217977e-001 2.628343e+000 -8.503790e+000 67 61 66
1.092669e+000 1.921642e+000 -6.369048e+000 180 171 120
2.657980e+000 -4.760606e-001 -5.658570e+000 121 106 66
2.140280e+000 2.414182e+000 -5.844443e+000 234 233 225
-4.737062e-001 1.878496e+000 -8.379300e+000 195 79 78
-9.903186e-001 8.747115e-001 -9.041877e+000 209 210 197
2.309332e+000 -7.663085e-001 -5.949185e+000 190 78 77
2.547600e+000 2.068075e+000 -5.826769e+000 191 87 80
2.267273e+000 1.871887e+000 -5.652998e+000 190 77 78
-9.106226e-002 -2.289727e-001 -4.599687e+000 148 81 66
1.831824e+000 1.392694e+000 -5.846739e+000 234 234 226
-1.037739e-002 1.134970e+000 -7.785792e+000 216 217 204
1.548583e-001 5.861625e-001 -6.645412e+000 230 233 224
-1.243812e+000 -3.943081e-001 -4.101025e+000 83 48 46
-1.264336e+000 -6.235736e-001 -3.921697e+000 96 47 38
-1.355982e+000 -7.020673e-001 -3.951332e+000 105 86 41
-1.420242e+000 -7.837234e-001 -3.875862e+000 131 111 65
2.207657e+000 -1.725547e+000 -6.786606e+000 156 54 60
2.663837e+000 6.023423e-001 -5.989324e+000 56 54 60
2.530477e+000 4.293602e-001 -5.904491e+000 67 68 71
2.837653e+000 4.626741e-001 -5.892510e+000 71 70 75
-4.869806e-001 -6.932039e-002 -5.185260e+000 98 70 59
-5.364646e-003 -6.141595e-002 -4.706629e+000 180 187 172
-1.479730e+000 -4.686210e-001 -3.974877e+000 128 106 57
-8.340899e-001 -4.772181e-001 -4.159010e+000 107 67 51
-7.632843e-001 -4.721975e-001 -4.155699e+000 57 47 46
-1.361812e+000 -6.470557e-001 -3.957120e+000 164 143 99
-1.342292e+000 -6.467879e-001 -3.978970e+000 110 93 52
-1.322945e+000 -6.813278e-001 -3.955158e+000 106 88 42
-1.322945e+000 -6.813278e-001 -3.955158e+000 106 88 42
-1.157237e+000 -7.324298e-001 -3.873234e+000 114 60 52
1.110785e+000 -1.857075e+000 -7.346895e+000 101 83 65
-1.965946e-001 -1.535347e+000 -4.955112e+000 87 39 27
-8.660297e-001 2.001360e+000 -9.045733e+000 55 45 43
7.671155e-001 -7.036331e-002 -5.446998e+000 198 203 196
-1.455865e+000 -5.297664e-001 -4.027714e+000 125 104 61
