ply
format ascii 1.0
element face 0
property list uchar int vertex_indices
element vertex 885
property float x
property float y
property float z
property uchar diffuse_red
property uchar diffuse_green
property uchar diffuse_blue
end_header
1.943324e+000 -3.402140e+000 -6.484480e+000 54 52 57
1.677922e+000 -2.528691e+000 -6.507009e+000 38 40 44
1.710689e+000 -2.739866e+000 -6.535887e+000 28 29 33
1.710689e+000 -2.739866e+000 -6.535887e+000 28 29 33
1.640960e+000 -2.811110e+000 -6.577112e+000 28 29 33
1.761195e+000 -3.048500e+000 -6.494334e+000 27 26 31
-1.591646e+000 -6.113721e-001 -4.047972e+000 54 36 14
-1.533626e+000 -5.943563e-001 -4.099400e+000 75 59 45
1.508435e+000 -2.610725e+000 -6.675739e+000 35 34 39
1.366627e+000 -2.691815e+000 -6.502268e+000 35 34 39
-8.742179e-001 -3.245878e-001 -5.325134e+000 174 64 71
-1.191578e-001 -1.185059e+000 -5.857449e+000 59 41 39
-1.122887e-001 -1.232296e+000 -6.142764e+000 76 58 52
-2.674786e-001 -2.713063e-001 -6.942139e+000 138 136 131
-3.929885e-001 -1.037330e+000 -6.215019e+000 84 75 68
-3.276276e-001 -8.115710e-001 -6.541405e+000 85 72 64
-1.315886e-001 -1.418446e+000 -7.032955e+000 178 174 165
3.260213e-001 -3.456822e+000 -7.833786e+000 41 39 44
5.133810e-001 -3.494496e+000 -8.098362e+000 37 35 40
4.939218e-001 -3.620376e+000 -7.848639e+000 37 35 40
4.447452e-001 -3.749405e+000 -7.784116e+000 31 30 35
4.447452e-001 -3.749405e+000 -7.784116e+000 31 30 35
5.669391e-001 -3.886598e+000 -7.682901e+000 36 34 39
3.394211e-001 -3.493918e+000 -7.905765e+000 39 37 42
4.129136e-001 -3.608454e+000 -7.876643e+000 43 41 46
3.209730e-001 -3.585890e+000 -7.896937e+000 41 39 44
4.357123e-001 -3.696215e+000 -7.881899e+000 37 35 40
3.850120e-001 -3.717108e+000 -7.773169e+000 37 35 40
4.752749e-001 -3.787312e+000 -7.922087e+000 35 32 39
4.647420e-001 -3.937944e+000 -7.813996e+000 83 78 84
5.070788e-001 -3.960242e+000 -7.790168e+000 45 40 46
5.072575e-001 -3.960020e+000 -7.790751e+000 45 40 46
-1.918066e-001 -3.139948e+000 -7.573359e+000 170 163 152
3.668583e-001 -4.345545e+000 -7.655438e+000 39 38 44
4.994892e-002 -4.492273e+000 -7.872369e+000 75 72 81
-2.264230e-001 -3.946679e+000 -8.202637e+000 35 33 39
-1.141074e-001 -4.093191e+000 -8.088635e+000 33 30 37
-1.141074e-001 -4.093191e+000 -8.088635e+000 33 30 37
-1.239187e-001 -4.282011e+000 -8.100532e+000 101 98 107
-6.082011e-002 -4.400395e+000 -7.864813e+000 34 32 40
-6.082011e-002 -4.400395e+000 -7.864813e+000 34 32 40
-1.387502e+000 -1.611560e+000 -9.002406e+000 161 142 130
-3.966941e-001 -4.077167e+000 -8.253284e+000 34 29 36
-4.397249e-001 -4.282600e+000 -8.045841e+000 35 30 37
2.721675e+000 -2.565774e+000 -5.497003e+000 40 39 45
2.807762e+000 -2.825419e+000 -5.505599e+000 40 41 46
2.598239e+000 -2.592193e+000 -5.709329e+000 31 30 35
2.624860e+000 -2.638983e+000 -5.803985e+000 31 30 35
1.991650e+000 -4.319144e-001 -5.772287e+000 204 195 139
2.326916e+000 -3.333235e+000 -5.778118e+000 36 35 41
2.038173e+000 -2.059511e+000 -6.196022e+000 42 45 52
5.875607e-001 -1.051173e+000 -5.434813e+000 109 100 88
-1.158957e+000 -6.527668e-001 -3.955036e+000 50 42 45
-1.128904e+000 -1.042720e+000 -4.114438e+000 146 77 46
1.917368e-001 -1.427607e+000 -5.334405e+000 57 29 22
1.696680e+000 -2.884192e+000 -6.532582e+000 25 26 30
1.579969e+000 -2.742616e+000 -6.597805e+000 26 25 30
1.591253e+000 -2.736644e+000 -6.611144e+000 26 25 30
1.332006e+000 -2.591255e+000 -6.889825e+000 43 44 48
-6.611439e-002 -1.244572e+000 -6.076956e+000 42 27 20
-3.098769e-001 -6.367533e-001 -6.696349e+000 216 215 205
-1.403085e-001 -1.260264e+000 -6.996726e+000 102 91 82
-2.229147e-001 -6.914168e-001 -7.307685e+000 122 116 108
-2.253955e-001 -7.660569e-001 -7.499186e+000 183 188 180
-2.055987e-001 -7.015026e-001 -7.830122e+000 232 235 226
4.269671e-001 -3.303396e+000 -7.846583e+000 28 26 31
2.439221e-001 -4.249255e+000 -7.749287e+000 62 59 68
8.314550e-002 -4.210286e+000 -7.955716e+000 36 35 41
-2.379097e-002 -4.203372e+000 -7.940795e+000 36 35 41
1.431952e-001 -4.376094e+000 -7.888406e+000 29 26 33
-2.356401e-001 -4.057790e+000 -8.040971e+000 35 32 40
-4.408902e-002 -4.122631e+000 -8.067525e+000 36 33 40
4.897617e-003 -4.106550e+000 -8.200874e+000 36 33 40
6.109246e-002 -4.555959e+000 -7.950965e+000 28 25 32
-2.872463e-001 -4.389508e+000 -8.027062e+000 35 31 40
-1.633796e-001 -4.383610e+000 -8.153432e+000 34 33 39
-1.390819e+000 -1.574666e+000 -8.891085e+000 199 189 179
-3.123135e-001 -4.149404e+000 -8.261707e+000 36 31 38
-3.494948e-001 -4.366239e+000 -8.067218e+000 30 27 34
-6.203372e-001 -3.957987e+000 -8.255981e+000 35 30 34
2.989664e+000 -2.716176e+000 -5.450416e+000 43 44 49
2.634451e+000 -2.811177e+000 -5.678446e+000 36 35 40
2.702987e+000 -3.122262e+000 -5.631196e+000 37 36 42
2.484154e+000 -2.975353e+000 -5.765850e+000 42 41 47
2.449696e+000 -3.225794e+000 -5.659392e+000 33 32 38
2.325762e+000 -1.215589e+000 -6.067004e+000 56 54 58
7.255264e-002 -4.188184e-001 -4.636336e+000 151 68 35
1.753146e+000 -1.000898e+000 -5.933426e+000 97 36 33
-9.664226e-001 -5.176597e-001 -4.027085e+000 49 41 45
-4.114378e-001 -9.009015e-001 -4.550193e+000 211 161 127
-4.114378e-001 -9.009015e-001 -4.550193e+000 211 161 127
1.378639e+000 -1.042467e+000 -6.106190e+000 116 78 57
-5.501823e-001 -1.174177e+000 -4.573509e+000 116 58 33
7.045466e-002 -1.385366e+000 -5.002900e+000 84 57 44
2.998067e-001 -1.443817e+000 -5.552262e+000 42 23 19
7.466973e-001 -1.003941e+000 -6.062290e+000 86 76 64
3.693990e-002 -1.531696e+000 -5.325968e+000 45 25 21
-1.660578e+000 -6.440051e-001 -3.993226e+000 159 134 82
-5.851174e-001 -6.453005e-001 -5.835339e+000 53 27 23
-2.042249e-001 -1.117358e+000 -6.701899e+000 109 100 88
4.510584e-001 -1.705451e+000 -7.036283e+000 41 19 22
7.314120e-002 -4.433312e+000 -7.944378e+000 27 25 30
-4.356926e-002 -4.497817e+000 -7.967038e+000 30 27 34
-8.470261e-001 -2.664309e+000 -8.259102e+000 196 73 73
-1.446003e-001 -4.541446e+000 -8.063829e+000 31 28 35
1.369537e+000 -3.609480e-001 -5.728720e+000 148 140 127
1.104098e+000 -6.433778e-001 -5.784098e+000 117 55 42
-1.192422e-001 -1.204822e+000 -4.823420e+000 165 121 89
-7.020046e-003 -1.358633e+000 -4.933785e+000 189 107 69
2.491247e-001 -1.334237e+000 -5.222538e+000 46 21 18
-4.942051e-001 -6.869341e-001 -6.281205e+000 60 36 34
-1.576099e-001 -9.432561e-001 -7.010294e+000 112 99 90
-3.128536e-001 -4.030906e-001 -7.266403e+000 128 125 113
-2.348119e-001 -9.746556e-001 -7.323169e+000 218 228 221
-6.365080e-001 -1.563476e+000 -7.789860e+000 122 105 95
-8.519756e-002 -3.910431e+000 -7.737458e+000 180 62 56
-8.519756e-002 -3.910431e+000 -7.737458e+000 180 62 56
-9.396040e-001 -9.302054e-001 -3.981939e+000 47 14 10
-4.373685e-001 -7.801870e-001 -4.445295e+000 84 31 20
6.495957e-001 -2.640176e+000 -7.228130e+000 120 49 49
-7.436756e-001 -1.422024e+000 -7.880377e+000 223 225 216
-1.052948e+000 -9.615612e-001 -8.500573e+000 198 198 188
-1.076178e-001 -3.691655e+000 -7.711268e+000 203 78 82
-1.089653e-001 -9.523317e-001 -4.623754e+000 144 78 44
1.707469e+000 -1.553338e+000 -6.102492e+000 90 32 31
1.367191e+000 -1.428439e+000 -6.275179e+000 214 214 206
-1.238394e+000 -1.643779e+000 -8.417457e+000 227 227 218
-7.602174e-001 -2.653052e+000 -8.182223e+000 218 211 204
-7.460219e-001 -2.810369e+000 -8.252656e+000 172 59 61
-1.191192e+000 -2.090852e+000 -8.729586e+000 162 50 49
2.847895e+000 -1.160198e+000 -5.669040e+000 57 56 60
1.015750e+000 -3.745817e-002 -5.252615e+000 221 223 212
1.098008e+000 -9.187462e-001 -5.743747e+000 193 188 175
-9.898466e-001 -1.065518e+000 -4.113228e+000 72 29 19
-9.962381e-001 -1.081718e+000 -4.102335e+000 72 29 19
1.096998e+000 -8.249323e-001 -6.360829e+000 42 24 24
1.206754e+000 -1.289599e+000 -6.459432e+000 102 93 78
1.145754e-001 -1.147073e+000 -6.324526e+000 79 70 61
-4.150564e-001 -3.616757e+000 -7.912730e+000 184 55 54
3.808074e-001 -6.750321e-001 -4.811962e+000 89 42 32
1.134308e+000 -3.769699e-001 -5.751973e+000 187 187 179
4.404277e-001 -1.151927e+000 -6.060217e+000 109 99 87
-4.367515e-001 -8.108237e-001 -7.105504e+000 139 135 126
-4.778975e-001 -2.950092e-001 -7.469966e+000 230 233 224
3.254854e-001 -4.282431e+000 -7.902418e+000 71 70 78
-5.234802e-001 -2.415709e+000 -8.068726e+000 246 247 239
-1.197949e+000 -9.823859e-001 -4.144919e+000 182 104 65
-4.731202e-001 -7.711252e-001 -6.047835e+000 43 25 25
-1.045216e-001 -3.228389e+000 -7.903331e+000 184 180 169
-1.955299e-001 -3.718101e+000 -7.734310e+000 177 55 57
-1.493585e-001 -3.692879e+000 -7.860203e+000 177 55 57
-8.646539e-001 -2.291411e+000 -8.470296e+000 196 188 177
1.351860e+000 -1.014958e+000 -6.289300e+000 62 19 23
2.880495e-001 -3.891827e+000 -8.183436e+000 20 11 22
-3.602259e-001 -7.593689e-001 -6.048595e+000 44 24 26
-8.540386e-001 -5.163384e-001 -5.960057e+000 183 180 165
1.310052e+000 -1.989220e+000 -6.347483e+000 191 191 179
2.447707e+000 2.039247e+000 -5.702361e+000 174 75 77
2.723963e+000 -1.463837e+000 -5.942414e+000 56 57 62
2.152155e+000 -2.662293e-001 -5.823089e+000 172 155 108
2.550396e+000 -6.811606e-001 -6.043097e+000 58 45 42
2.504902e+000 -1.486375e+000 -5.874044e+000 105 106 111
2.531639e+000 -3.148070e+000 -5.824801e+000 33 32 38
2.479236e+000 -1.837904e+000 -6.173614e+000 120 123 130
2.355442e+000 -2.107870e+000 -6.117998e+000 123 126 133
2.552463e+000 -3.315231e+000 -6.030402e+000 29 28 34
1.833928e+000 -1.089957e+000 -5.956593e+000 198 86 75
2.065489e+000 -2.065012e+000 -6.266100e+000 46 46 54
2.033948e+000 -2.215161e+000 -6.290484e+000 108 111 118
2.028213e+000 -2.380797e+000 -6.305180e+000 55 60 66
2.039075e+000 -2.720194e+000 -6.280582e+000 35 35 40
1.936316e+000 -2.636819e+000 -6.290491e+000 53 56 61
1.967990e+000 -2.683988e+000 -6.332545e+000 36 39 44
1.891534e+000 -2.626472e+000 -6.367294e+000 83 84 89
1.950680e+000 -2.866742e+000 -6.392438e+000 58 58 61
1.846276e+000 -3.031769e+000 -6.450729e+000 30 31 36
1.741148e+000 -3.143496e+000 -6.412156e+000 50 49 55
2.070268e-001 -1.498129e+000 -5.495043e+000 72 59 51
1.565158e+000 -2.513049e+000 -6.669133e+000 41 40 45
1.447644e+000 -2.683748e+000 -6.703342e+000 36 35 40
3.387748e-001 -1.100532e+000 -6.602557e+000 59 26 26
1.690848e-001 2.521453e+000 -7.935911e+000 220 220 209
-2.075547e-001 -1.093125e-001 -7.266651e+000 224 227 220
-2.598192e-001 -8.011574e-001 -6.786097e+000 131 123 115
-9.319627e-001 4.497538e+000 -9.303626e+000 60 61 66
-7.521859e-001 1.735472e+000 -8.511766e+000 203 108 104
-8.104889e-001 1.794197e+000 -8.562489e+000 187 68 70
-1.154141e+000 3.303864e+000 -9.560776e+000 66 67 72
-3.620886e-001 -1.809064e+000 -7.834710e+000 152 144 129
3.081782e-001 -3.213071e+000 -7.810204e+000 45 40 46
3.470024e-001 -3.383271e+000 -7.770750e+000 55 53 58
4.389396e-001 -4.031435e+000 -7.618777e+000 72 68 74
1.890601e-001 -3.419668e+000 -7.826789e+000 97 92 98
2.555830e-001 -3.495584e+000 -7.958063e+000 93 91 96
1.771619e-001 -3.536470e+000 -7.795699e+000 93 91 96
2.787454e-001 -3.787670e+000 -7.789682e+000 47 45 50
-6.594865e-001 -1.713508e+000 -7.871250e+000 131 125 112
-5.283835e-001 -2.156054e+000 -8.051422e+000 229 227 212
2.562551e-001 -4.350746e+000 -7.595179e+000 64 63 70
1.650914e-001 -4.241596e+000 -7.692624e+000 94 91 98
-1.868416e+000 1.975283e+000 -9.903632e+000 82 83 88
-1.827657e+000 1.836611e+000 -9.899070e+000 104 105 110
-1.889606e+000 1.840148e+000 -9.830369e+000 53 54 59
-1.912653e+000 1.857576e+000 -9.932983e+000 96 97 102
-1.975529e+000 1.350044e+000 -1.008796e+001 74 75 79
-1.106675e-001 -4.205867e+000 -7.854832e+000 72 71 76
-2.201394e+000 1.521955e+000 -1.006040e+001 65 64 69
-3.308685e-001 -4.001460e+000 -8.041845e+000 67 62 69
-7.969191e-001 -3.494150e+000 -8.492126e+000 39 32 39
3.150870e+000 -2.479153e+000 -5.568552e+000 45 44 50
3.017303e+000 -2.554826e+000 -5.574300e+000 132 131 137
2.913923e+000 -3.233592e+000 -5.548891e+000 55 54 60
2.985457e+000 2.890820e+000 -5.939779e+000 83 69 72
2.758805e+000 -2.993892e+000 -5.754804e+000 120 117 124
2.876568e+000 -3.079345e+000 -5.695658e+000 50 49 55
2.699111e+000 -3.441353e+000 -5.661104e+000 44 41 48
2.614418e+000 -1.482191e+000 -5.799785e+000 55 56 61
2.761895e+000 -1.576500e+000 -5.945551e+000 42 44 48
2.444216e+000 3.481681e+000 -6.236997e+000 84 52 64
2.426029e+000 -1.212495e+000 -5.976725e+000 52 51 56
2.498800e+000 -1.296780e+000 -6.091570e+000 46 47 52
2.618505e+000 -1.364036e+000 -5.996436e+000 53 54 59
2.618041e+000 -1.711465e+000 -5.978612e+000 59 60 65
2.571778e+000 -3.387770e+000 -5.857852e+000 38 35 42
2.566020e+000 -3.484720e+000 -5.852089e+000 31 28 35
2.242147e+000 -1.666932e+000 -6.081769e+000 61 64 69
2.240956e+000 -1.780005e+000 -6.051139e+000 53 56 61
2.527043e+000 -1.790872e+000 -6.114683e+000 64 67 74
2.145669e+000 -1.921823e+000 -6.160775e+000 45 48 55
1.414397e+000 -9.177330e-001 -5.964103e+000 218 188 144
2.070948e+000 -2.399080e+000 -6.158011e+000 132 137 143
2.121799e+000 -2.440625e+000 -6.249856e+000 52 55 62
2.152163e+000 -2.477506e+000 -6.315120e+000 45 48 55
2.000004e+000 -2.526898e+000 -6.228462e+000 96 99 106
1.844357e+000 -2.488033e+000 -6.376584e+000 36 39 44
1.852731e+000 -2.482948e+000 -6.385121e+000 36 39 44
2.007158e+000 -2.653364e+000 -6.280681e+000 38 41 46
1.939693e+000 -2.600363e+000 -6.322215e+000 41 44 49
1.947085e+000 -2.796703e+000 -6.332706e+000 34 35 40
1.930556e+000 -2.804144e+000 -6.376733e+000 65 66 71
-4.323889e-001 -1.209927e+000 -4.622822e+000 140 60 33
1.846199e+000 -2.364780e+000 -6.589835e+000 36 37 41
1.831942e+000 -2.463966e+000 -6.407650e+000 83 86 91
1.839503e+000 -2.460628e+000 -6.415198e+000 83 86 91
1.834676e+000 -2.573404e+000 -6.420722e+000 79 79 85
1.789270e+000 -2.691484e+000 -6.470895e+000 34 35 40
1.792505e+000 -2.994921e+000 -6.421065e+000 29 30 35
1.675110e+000 -2.489760e+000 -6.524663e+000 33 37 40
1.691087e+000 -2.593757e+000 -6.534277e+000 31 32 36
1.698430e+000 -2.591967e+000 -6.541905e+000 31 32 36
1.734574e+000 -2.667015e+000 -6.509503e+000 32 33 37
1.675178e+000 -2.775025e+000 -6.558048e+000 56 57 61
1.618951e+000 -3.404819e+000 -6.638836e+000 33 31 36
1.377670e+000 -2.673787e+000 -6.815469e+000 55 56 60
9.406257e-001 -1.757963e+000 -6.740075e+000 91 79 67
1.293137e+000 -2.803812e+000 -6.912999e+000 48 47 52
-2.084007e-001 6.202336e+000 -8.699858e+000 34 32 35
-2.862248e-001 6.026428e+000 -8.656619e+000 111 112 118
4.712692e-002 5.051262e+000 -8.718308e+000 104 103 108
-4.211827e-001 -9.054189e-001 -6.196040e+000 79 60 53
2.158961e-002 4.159713e+000 -9.021421e+000 49 47 48
1.242347e-001 4.074461e+000 -9.121817e+000 81 75 79
1.028798e-001 3.736374e+000 -8.851228e+000 72 25 24
-2.542864e-001 -1.028535e+000 -6.656683e+000 97 84 75
-2.341738e-001 -1.036996e+000 -6.708275e+000 83 73 63
1.044588e+000 -4.165217e+000 -7.119693e+000 28 27 33
3.288447e-002 -1.723271e+000 -7.172808e+000 127 119 108
-1.080893e+000 3.681230e+000 -9.484298e+000 54 55 60
-7.267941e-001 1.475575e+000 -8.528661e+000 136 120 103
6.287880e-001 -3.535879e+000 -7.695465e+000 27 22 28
-1.010333e+000 2.332520e+000 -9.254193e+000 68 41 48
4.783210e-001 -3.644802e+000 -7.695867e+000 39 37 42
4.783210e-001 -3.644802e+000 -7.695867e+000 39 37 42
2.596634e-001 -3.415883e+000 -7.793966e+000 38 35 42
2.596634e-001 -3.415883e+000 -7.793966e+000 38 35 42
1.774017e-001 -3.394272e+000 -7.771938e+000 45 43 48
1.574455e-001 -3.518336e+000 -7.824356e+000 42 40 45
1.574455e-001 -3.518336e+000 -7.824356e+000 42 40 45
-1.660640e+000 2.619089e+000 -9.799336e+000 75 76 81
-1.334171e+000 1.268181e+000 -9.228821e+000 73 37 36
1.425616e-001 -3.679126e+000 -7.789876e+000 95 92 100
1.425616e-001 -3.679126e+000 -7.789876e+000 95 92 100
7.879748e-002 -4.204993e+000 -7.768393e+000 51 49 56
2.144698e-001 -4.417701e+000 -7.655448e+000 84 81 88
-1.881085e+000 2.085154e+000 -9.856170e+000 50 51 56
-3.093190e-002 -4.194305e+000 -7.813405e+000 115 114 120
6.163143e-002 -4.238871e+000 -7.946630e+000 39 38 44
-2.194440e-002 -4.245416e+000 -7.847713e+000 105 104 110
-2.417637e-001 -4.148569e+000 -7.898249e+000 37 34 41
-3.036492e-001 -4.215286e+000 -7.917842e+000 73 70 77
-3.036492e-001 -4.215286e+000 -7.917842e+000 73 70 77
-3.150688e-001 -4.373271e+000 -7.952587e+000 32 29 38
-4.453981e-001 -4.235868e+000 -7.998639e+000 35 30 37
-4.453981e-001 -4.235868e+000 -7.998639e+000 35 30 37
-5.261071e-001 -4.414152e+000 -8.008284e+000 79 74 81
2.781760e+000 -2.258457e+000 -5.548928e+000 36 33 40
3.000844e+000 -2.274408e+000 -5.759569e+000 32 29 34
2.715642e+000 -2.790525e+000 -5.551246e+000 48 49 54
2.981382e+000 -2.977843e+000 -5.602368e+000 37 36 41
2.983485e+000 -3.249304e+000 -5.615679e+000 120 119 125
2.983485e+000 -3.249304e+000 -5.615679e+000 120 119 125
2.948159e+000 -3.350244e+000 -5.542261e+000 40 41 46
2.948159e+000 -3.350244e+000 -5.542261e+000 40 41 46
2.889322e+000 -2.529419e+000 -5.717363e+000 33 32 38
2.889322e+000 -2.529419e+000 -5.717363e+000 33 32 38
2.652362e+000 -2.935533e+000 -5.569797e+000 44 45 50
2.868788e+000 -3.231369e+000 -5.746676e+000 94 93 99
2.732474e+000 -3.545904e+000 -5.696445e+000 38 36 41
2.395972e+000 7.802804e-002 -5.778779e+000 185 86 91
2.743238e+000 -2.612539e+000 -5.814574e+000 63 62 67
2.705718e+000 -3.070459e+000 -5.824088e+000 85 84 90
2.705718e+000 -3.070459e+000 -5.824088e+000 85 84 90
2.627867e+000 -3.444183e+000 -5.845752e+000 80 79 85
2.391213e+000 -3.177803e+000 -6.088482e+000 25 24 29
2.059471e+000 -2.159446e+000 -6.281140e+000 46 50 57
2.112655e+000 -2.730103e+000 -6.282495e+000 26 25 30
9.303698e-001 -6.381364e-001 -5.701772e+000 142 141 127
1.880253e+000 -2.266288e+000 -6.413074e+000 25 25 29
1.345026e+000 -1.206540e+000 -6.301852e+000 116 95 81
1.785453e+000 -2.462332e+000 -6.427354e+000 35 38 43
1.867707e+000 -2.616363e+000 -6.394258e+000 37 38 43
1.777844e+000 -2.947062e+000 -6.502178e+000 26 25 30
-1.411449e+000 -7.187602e-001 -4.362978e+000 94 46 29
1.492668e+000 -2.702609e+000 -6.768219e+000 65 64 69
-4.992982e-002 5.622010e+000 -8.715726e+000 31 29 31
1.676251e-002 -1.206834e+000 -6.157792e+000 84 70 62
-1.940713e-001 5.896228e+000 -8.755589e+000 107 109 114
7.988231e-002 3.866082e+000 -9.083124e+000 65 47 47
-2.305144e-001 -1.829541e-001 -7.030346e+000 138 136 131
1.138333e+000 -3.968881e+000 -7.122293e+000 40 41 46
-6.259477e-001 4.531169e+000 -8.982239e+000 92 94 101
-6.139820e-001 4.595634e+000 -9.030539e+000 92 94 101
-5.892378e-001 4.531632e+000 -9.094383e+000 34 33 38
-2.062705e-001 -8.592038e-001 -7.070403e+000 130 126 119
-1.716850e-001 -7.717944e-001 -7.441379e+000 218 221 214
6.123581e-001 -3.528307e+000 -7.768857e+000 59 57 62
6.401739e-001 -3.650811e+000 -7.620082e+000 45 44 49
2.843675e-001 -3.296740e+000 -7.843451e+000 62 60 65
4.399897e-001 -3.879283e+000 -7.823176e+000 38 36 41
2.114242e-001 -3.732805e+000 -7.813096e+000 37 36 41
2.262392e-001 -3.821038e+000 -7.757894e+000 37 32 38
9.479210e-002 -4.340428e+000 -7.732871e+000 105 104 110
-1.445715e+000 -3.257005e-002 -9.129477e+000 200 185 172
3.384123e-002 -4.273596e+000 -7.789315e+000 121 120 126
-1.015857e-001 -4.333935e+000 -7.736801e+000 35 34 40
-1.628874e-001 -4.330546e+000 -7.936564e+000 35 32 41
-3.014168e-001 -4.033377e+000 -8.075715e+000 39 34 41
-4.080312e-001 -4.453189e+000 -7.960569e+000 35 34 40
2.932156e+000 -3.318344e+000 -5.613612e+000 38 38 44
3.009330e+000 -3.499223e+000 -5.589746e+000 38 37 43
2.663232e+000 -3.328337e+000 -5.787001e+000 38 37 43
2.717028e+000 -3.416917e+000 -5.749606e+000 35 34 40
2.564942e+000 -3.476270e+000 -5.736020e+000 34 33 39
2.648131e+000 -3.675990e+000 -5.699107e+000 34 33 39
2.687305e+000 -3.669017e+000 -5.725900e+000 34 33 39
2.607513e+000 -3.259369e+000 -5.875535e+000 34 32 39
1.910314e+000 -1.254633e+000 -5.983571e+000 202 149 119
1.555415e+000 -1.181149e+000 -6.061400e+000 198 161 123
9.568669e-001 -6.782652e-001 -5.737887e+000 169 162 149
1.979912e+000 -2.725400e+000 -6.289264e+000 71 74 79
8.848711e-002 -1.406363e+000 -5.065664e+000 154 92 59
2.517650e-001 -1.346798e+000 -5.315882e+000 104 96 84
1.322597e+000 -1.855356e+000 -6.279791e+000 159 160 148
-1.634762e+000 -4.802501e-001 -4.111910e+000 59 38 17
-4.735992e-001 4.769578e+000 -8.983480e+000 35 37 37
-3.892161e-001 9.901200e-001 -8.366025e+000 219 221 208
-1.034047e+000 1.183564e+000 -8.611549e+000 194 72 75
-1.687218e+000 1.649940e+000 -9.923090e+000 29 27 32
-1.735523e+000 1.591637e+000 -1.004011e+001 32 30 35
-6.225167e-001 -2.682859e+000 -8.105309e+000 170 162 153
-8.708419e-001 -2.243960e+000 -8.512712e+000 169 160 147
-8.708419e-001 -2.243960e+000 -8.512712e+000 169 160 147
-7.493281e-002 -4.273410e+000 -8.026489e+000 36 35 41
-1.437319e-001 -4.294479e+000 -7.861341e+000 36 35 41
-4.774928e-001 -4.022559e+000 -8.194081e+000 37 32 38
-4.774928e-001 -4.022559e+000 -8.194081e+000 37 32 38
-3.861821e-001 -4.311037e+000 -7.946534e+000 34 32 38
2.917154e+000 -3.495400e+000 -5.676268e+000 38 36 42
2.601651e+000 2.140239e+000 -5.565350e+000 193 82 81
3.018246e+000 2.550706e+000 -5.899587e+000 24 16 22
2.676553e+000 -3.501763e-001 -5.733328e+000 200 185 128
2.848034e+000 -3.562442e+000 -5.742140e+000 36 33 40
2.487256e+000 3.477048e-001 -5.882490e+000 177 64 58
2.696250e+000 -3.143197e+000 -5.838361e+000 33 32 38
2.628767e+000 -3.570726e+000 -5.736141e+000 33 32 38
2.179631e+000 -3.288173e-001 -5.788042e+000 183 176 121
2.386137e+000 -3.688297e+000 -5.954490e+000 27 24 31
1.559768e+000 -1.270581e+000 -6.167363e+000 209 180 132
1.224101e-001 -1.408358e+000 -5.192372e+000 93 83 72
5.674619e-002 4.225359e+000 -9.172859e+000 59 57 58
1.744205e-002 4.094756e+000 -9.066882e+000 59 57 58
-4.499607e-001 1.971010e+000 -8.473365e+000 175 67 64
-3.252696e-001 -1.636269e+000 -7.515608e+000 215 215 205
-7.334702e-001 -3.376773e-002 -8.172490e+000 231 233 222
3.038073e+000 -3.432059e+000 -5.579055e+000 58 57 63
2.527542e+000 -1.603599e-001 -5.653279e+000 190 177 122
-3.919777e-001 -1.309866e+000 -4.682804e+000 178 108 71
1.084187e+000 -9.895075e-001 -6.084815e+000 88 74 65
-2.906232e-001 2.232409e+000 -8.144759e+000 209 203 191
7.061844e-001 -2.710146e+000 -7.297564e+000 15 12 19
-7.824700e-001 1.339218e+000 -8.750288e+000 214 215 198
2.565935e+000 5.633075e-001 -5.876520e+000 30 26 30
-2.406483e-001 -1.190328e+000 -4.737824e+000 137 76 42
-1.401319e-001 4.908407e+000 -8.744067e+000 25 21 25
-8.875407e-001 4.677959e+000 -9.305119e+000 93 94 99
-5.218999e-001 1.690951e+000 -8.468871e+000 226 225 216
-5.355511e-001 -4.911685e-001 -8.091931e+000 183 183 171
-8.303030e-001 -6.296063e-002 -8.472096e+000 238 239 231
-7.261029e-001 -2.449344e+000 -8.137599e+000 195 191 182
-8.428106e-002 -9.122255e-001 -4.648028e+000 144 78 44
-4.489970e-001 1.125478e+000 -8.270968e+000 94 81 65
-4.489970e-001 1.125478e+000 -8.270968e+000 94 81 65
-1.212431e+000 -7.510759e-001 -4.076440e+000 53 16 12
-6.460940e-001 4.437012e+000 -9.312443e+000 33 32 37
-4.418985e-001 2.170009e+000 -8.419289e+000 140 44 42
3.743683e-001 -2.529704e+000 -7.297381e+000 75 33 35
-8.807946e-001 4.164015e+000 -9.583957e+000 99 100 105
-2.012761e+000 1.197443e+000 -9.754745e+000 58 57 62
-1.062933e+000 -2.931887e+000 -8.309487e+000 186 71 76
2.068393e-001 -1.173121e+000 -4.958015e+000 96 82 75
-1.139988e+000 5.154097e+000 -8.978174e+000 59 58 63
-1.881407e-001 -2.381032e+000 -7.904963e+000 219 221 210
-1.002444e+000 -2.401857e-001 -8.632267e+000 156 150 139
-5.473573e-001 -2.449287e+000 -7.998484e+000 246 247 239
-6.840117e-001 -3.214374e+000 -8.343355e+000 179 59 61
7.015897e-001 -1.262097e+000 -6.326192e+000 111 102 87
1.379808e+000 -4.069603e+000 -7.302765e+000 91 91 99
-2.920245e-001 -2.615198e+000 -7.937484e+000 211 211 199
3.002507e+000 3.047852e+000 -6.044906e+000 81 72 80
2.914878e+000 -2.834104e+000 -5.426676e+000 55 54 60
2.800624e+000 -1.253860e+000 -5.701758e+000 96 97 102
2.776609e+000 -2.796277e+000 -5.540261e+000 143 144 149
2.180648e+000 1.839273e+000 -5.699430e+000 180 87 87
2.668842e+000 -1.499691e+000 -5.774550e+000 49 49 54
2.475236e+000 -1.996017e+000 -5.969650e+000 38 37 43
2.476972e+000 -2.946737e+000 -5.840551e+000 63 62 68
2.430133e+000 -2.965816e+000 -5.803699e+000 63 62 68
2.537601e+000 -3.424360e+000 -5.703772e+000 92 91 97
2.537601e+000 -3.424360e+000 -5.703772e+000 92 91 97
2.366533e+000 -3.210956e+000 -5.902291e+000 75 73 79
2.366533e+000 -3.210956e+000 -5.902291e+000 75 73 79
1.333258e-001 -8.549757e-001 -4.780725e+000 177 128 83
2.292444e+000 -3.245479e+000 -5.995063e+000 28 26 31
1.282532e+000 -1.039599e+000 -5.902506e+000 140 115 86
2.008239e+000 -2.451311e+000 -6.223374e+000 44 45 50
2.124633e+000 -2.471596e+000 -6.176699e+000 50 53 58
-1.109490e+000 -8.112609e-001 -4.021470e+000 121 56 38
-1.103059e+000 -9.185165e-001 -3.975619e+000 117 49 33
1.861143e+000 -2.530673e+000 -6.375725e+000 45 45 50
1.839437e+000 -2.806602e+000 -6.387333e+000 91 90 95
1.725190e+000 -2.595124e+000 -6.507019e+000 72 71 76
1.706826e+000 -2.667765e+000 -6.539755e+000 62 61 66
9.505709e-001 -2.702335e+000 -7.120703e+000 42 37 43
-3.516486e-001 -3.030881e-001 -7.276768e+000 216 216 207
1.075081e+000 -3.897170e+000 -7.235522e+000 31 27 32
-7.071875e-001 4.025673e-001 -8.598859e+000 202 205 194
-5.557086e-001 -7.283185e-001 -7.935578e+000 192 193 184
4.980853e-001 -3.360792e+000 -7.683738e+000 44 39 45
-1.675693e+000 2.303595e+000 -9.802080e+000 70 70 78
-1.661388e+000 2.228091e+000 -9.793587e+000 102 102 110
3.572543e-001 -3.470893e+000 -7.795807e+000 90 89 95
3.181272e-001 -3.720953e+000 -7.791031e+000 46 45 51
-1.871882e+000 1.960770e+000 -9.884691e+000 84 85 90
3.558265e-001 -3.896654e+000 -7.752202e+000 106 102 109
-2.068131e+000 1.842480e+000 -9.998370e+000 52 51 56
-2.108299e+000 1.685895e+000 -1.000374e+001 66 65 70
2.467400e-001 -4.342073e+000 -7.757750e+000 45 43 52
-4.123318e-001 -3.088119e+000 -7.945138e+000 185 176 167
-1.547093e-001 -4.166420e+000 -7.990176e+000 44 40 45
-3.293714e-001 -4.234167e+000 -8.036651e+000 47 42 49
2.909408e+000 -2.776502e+000 -5.446374e+000 50 49 55
2.831548e+000 -3.073989e+000 -5.477624e+000 131 130 138
2.828805e+000 -2.989412e+000 -5.504962e+000 122 121 129
2.779180e+000 -3.073485e+000 -5.490802e+000 45 44 52
2.866788e+000 -3.180014e+000 -5.456358e+000 49 48 56
2.547591e+000 -3.809080e-001 -5.739591e+000 219 207 152
2.628581e+000 -1.525206e+000 -5.642566e+000 37 36 42
2.767931e+000 -2.671000e+000 -5.594616e+000 46 45 50
2.359137e+000 -4.660275e-002 -5.829171e+000 167 109 86
2.588012e+000 -1.755842e+000 -5.835332e+000 39 40 45
2.365581e+000 -1.928200e+000 -5.942813e+000 147 150 155
2.404413e+000 -2.991754e+000 -5.919560e+000 27 26 32
2.163147e+000 -2.274052e+000 -6.089378e+000 56 59 64
-1.315531e+000 -7.192937e-001 -3.970055e+000 98 54 52
1.921914e+000 -2.808416e+000 -6.310922e+000 40 39 44
1.739437e+000 -2.605339e+000 -6.470996e+000 33 32 37
1.870459e+000 -2.797126e+000 -6.369572e+000 40 39 44
1.771316e+000 -2.834704e+000 -6.443821e+000 34 33 38
1.932078e+000 -3.368889e+000 -6.509007e+000 27 25 30
9.778199e-001 -1.703087e+000 -6.681346e+000 104 96 83
1.312187e+000 -2.951364e+000 -6.860183e+000 26 25 30
-3.067714e-001 4.594183e+000 -8.991949e+000 79 78 83
-2.049810e-002 4.261340e+000 -9.103832e+000 30 28 29
-1.035640e+000 1.685131e+000 -8.541809e+000 72 57 54
-3.835626e-001 -1.425585e+000 -7.572748e+000 182 183 175
5.054655e-001 -3.266709e+000 -7.694596e+000 44 39 44
8.347486e-001 -3.975599e+000 -7.556308e+000 47 45 50
-1.759880e+000 2.060398e+000 -9.831144e+000 60 61 66
4.028905e-001 -3.518443e+000 -7.851735e+000 38 37 42
-9.836743e-001 -4.753349e-001 -8.824210e+000 190 191 183
4.939645e-001 -4.385686e+000 -7.647092e+000 45 44 51
2.597523e-001 -4.322302e+000 -7.724785e+000 42 41 49
3.301319e-001 -4.362068e+000 -7.675658e+000 118 117 125
3.535494e-002 -4.301960e+000 -7.838295e+000 34 32 38
-3.234251e-001 -3.963432e+000 -8.140380e+000 39 34 40
-3.234251e-001 -3.963432e+000 -8.140380e+000 39 34 40
-2.823374e-001 -4.181599e+000 -8.039463e+000 40 35 42
-9.710584e-001 -3.064516e+000 -8.405875e+000 138 43 48
-6.574877e-001 -3.698448e+000 -8.407516e+000 38 31 38
-7.010246e-001 -3.646054e+000 -8.479914e+000 40 33 40
2.937511e+000 -2.701331e+000 -5.428286e+000 48 48 56
2.806731e+000 -2.578803e+000 -5.592608e+000 38 37 43
2.833323e+000 -2.709491e+000 -5.519242e+000 137 138 143
2.833323e+000 -2.709491e+000 -5.519242e+000 137 138 143
2.859767e+000 -2.836770e+000 -5.454142e+000 50 49 57
2.757123e+000 -3.218301e+000 -5.487672e+000 38 36 47
2.687063e+000 -2.939193e+000 -5.574870e+000 44 43 49
2.438423e+000 -3.096681e+000 -5.891681e+000 31 30 36
2.329669e+000 -3.215954e+000 -5.927385e+000 33 30 37
2.344201e+000 -3.302344e+000 -5.951488e+000 31 29 34
2.344201e+000 -3.302344e+000 -5.951488e+000 31 29 34
2.305357e+000 -3.414805e+000 -5.958980e+000 29 27 32
2.056954e+000 -2.372757e+000 -6.198853e+000 40 41 46
1.955837e+000 -3.399042e+000 -6.498414e+000 59 57 62
1.612077e+000 -2.971327e+000 -6.594733e+000 26 24 29
1.425325e+000 -2.729498e+000 -6.765825e+000 30 29 34
1.522759e+000 -3.004561e+000 -6.693072e+000 48 46 51
1.522759e+000 -3.004561e+000 -6.693072e+000 48 46 51
1.647745e+000 -3.394791e+000 -6.605452e+000 22 20 25
2.343799e-001 -4.302496e+000 -7.755651e+000 139 139 147
-3.905427e-001 -4.038088e+000 -8.125847e+000 41 36 42
-2.750763e-001 -4.286409e+000 -8.041848e+000 36 31 37
2.903613e+000 -2.763710e+000 -5.499611e+000 129 128 137
2.905204e+000 -3.203979e+000 -5.513647e+000 120 119 127
2.905204e+000 -3.203979e+000 -5.513647e+000 120 119 127
2.463193e+000 3.304702e+000 -6.180716e+000 204 79 87
2.609189e+000 -2.587157e+000 -5.718317e+000 36 33 40
1.328847e+000 -9.838150e-001 -6.171144e+000 98 67 49
-5.289873e-001 -5.452526e-001 -6.282775e+000 203 203 187
-6.426129e-001 -1.933040e+000 -8.213787e+000 190 190 177
-1.731583e+000 4.258068e-001 -9.535137e+000 50 35 36
-1.098406e-001 -3.947963e+000 -7.799656e+000 22 14 20
-3.074282e-001 -4.107359e+000 -8.109970e+000 38 33 39
-3.118884e-001 -3.956734e-001 -7.268491e+000 134 129 118
-5.571323e-001 -8.470273e-001 -7.776980e+000 238 240 235
-2.983174e-001 2.193912e+000 -8.109216e+000 201 204 199
1.164727e+000 -2.252652e+000 -6.606084e+000 191 191 183
1.164727e+000 -2.252652e+000 -6.606084e+000 191 191 183
9.217470e-002 -3.211328e+000 -7.411022e+000 25 20 24
7.798328e-001 -2.921478e+000 -7.251788e+000 26 21 25
6.674147e-001 -1.507185e+000 -5.567112e+000 37 27 27
1.254436e+000 3.450100e+000 -6.681891e+000 46 34 33
3.286605e+000 2.928065e+000 -5.543745e+000 67 67 75
2.143592e+000 -2.324252e+000 -6.092895e+000 134 139 145
1.983040e+000 -2.427522e+000 -6.216655e+000 90 95 101
1.748607e+000 -2.504578e+000 -6.493136e+000 78 78 83
-3.503598e-001 6.120842e+000 -8.608132e+000 70 68 73
-2.236477e-002 5.061445e+000 -8.638132e+000 101 101 105
-7.968561e-001 4.590424e+000 -9.119737e+000 95 96 101
-1.641554e-001 -1.221504e+000 -7.088534e+000 123 114 98
-4.358921e-001 -1.594723e+000 -7.616641e+000 194 192 179
5.184432e-001 -3.478258e+000 -7.824567e+000 61 59 64
-1.380467e+000 2.775608e+000 -9.632406e+000 59 60 65
-8.264877e-001 -5.272624e-001 -8.536571e+000 205 205 195
-7.685826e-001 -1.597247e+000 -8.006873e+000 127 118 106
2.695229e-001 -3.852665e+000 -7.858943e+000 47 42 48
-5.533183e-002 -3.964557e+000 -7.704465e+000 19 13 18
1.875968e-001 -4.240616e+000 -7.865078e+000 75 72 79
-1.226048e+000 -1.444983e+000 -8.298487e+000 203 203 193
-5.099105e-001 -4.239468e+000 -8.263868e+000 54 49 55
-5.099105e-001 -4.239468e+000 -8.263868e+000 54 49 55
3.303425e+000 2.829215e+000 -5.549533e+000 63 66 73
3.109713e+000 2.520559e+000 -5.778678e+000 70 73 76
3.035695e+000 2.531958e+000 -5.795046e+000 128 126 131
3.184890e+000 2.257608e+000 -5.787381e+000 105 106 111
2.378144e+000 -2.994465e+000 -5.891411e+000 27 25 30
-2.170309e-001 5.764869e+000 -8.547307e+000 33 31 34
9.262741e-003 4.481329e+000 -8.836414e+000 43 38 42
1.279499e-001 2.586407e+000 -8.007355e+000 220 208 191
-3.377652e-001 2.085123e+000 -8.261833e+000 183 174 155
-3.394139e-001 -8.480338e-001 -7.655612e+000 214 217 208
3.584830e-001 -3.616986e+000 -7.888551e+000 113 111 116
-1.958839e+000 2.228138e+000 -1.002154e+001 44 44 50
2.965119e-002 -4.230149e+000 -7.973445e+000 105 104 110
-6.258477e-002 -4.236909e+000 -7.991901e+000 37 36 43
2.761206e+000 -2.735805e+000 -5.466412e+000 138 137 143
2.506254e+000 -2.704250e+000 -5.835690e+000 27 26 31
-5.130184e-001 -1.393908e+000 -4.775861e+000 71 25 12
-2.488607e-001 -8.884325e-001 -7.269902e+000 218 221 214
-5.171416e-001 2.765521e+000 -9.039749e+000 65 45 51
-3.957305e-001 4.917117e-001 -8.213332e+000 201 203 192
-3.455857e-001 -4.245347e+000 -8.184989e+000 77 71 81
2.845692e+000 -9.897217e-002 -5.458940e+000 181 166 111
-1.558836e-001 5.214641e+000 -8.719961e+000 26 21 25
-4.257271e-001 4.447388e+000 -9.011948e+000 29 26 30
-1.110242e+000 -2.347627e+000 -8.730832e+000 153 46 47
-9.530028e-001 -1.029363e+000 -4.022525e+000 175 105 73
1.252610e+000 -1.884311e+000 -6.426445e+000 193 194 182
-3.402347e-001 5.636352e+000 -8.686184e+000 35 33 38
-4.623875e-001 1.461614e-001 -8.262196e+000 213 215 204
-1.257766e+000 -9.247561e-001 -4.108165e+000 89 32 18
2.052898e+000 -2.026552e+000 -6.212333e+000 57 60 66
-4.581580e-001 -1.556465e+000 -4.984951e+000 141 81 49
-1.128656e-001 4.663076e+000 -8.913236e+000 55 56 60
-2.965666e-001 2.955699e+000 -8.533498e+000 42 43 42
-1.064921e+000 3.572510e+000 -9.825492e+000 86 89 94
-1.097771e+000 -4.313019e-001 -8.878811e+000 222 222 211
1.766290e+000 -2.252897e+000 -6.309021e+000 19 17 22
4.107661e-001 -1.170572e+000 -6.427064e+000 24 17 16
5.750748e-001 -3.815182e+000 -7.773188e+000 39 37 42
3.689340e-001 -3.523712e+000 -7.871794e+000 96 95 100
2.892256e-001 -3.623619e+000 -7.900040e+000 87 87 92
2.334031e-003 -4.110491e+000 -8.071845e+000 48 47 52
-7.472465e-001 4.420408e+000 -9.080210e+000 40 42 45
6.525120e-001 -4.086118e+000 -7.711685e+000 37 34 43
4.177142e-001 -3.413716e+000 -7.860579e+000 34 33 39
-1.286831e+000 -2.166822e+000 -8.993510e+000 156 51 51
1.875024e+000 -2.261475e+000 -6.420042e+000 23 23 28
-4.879760e-001 -1.409287e+000 -4.812934e+000 78 32 17
-8.777163e-002 -1.799984e+000 -7.299976e+000 122 114 101
3.888309e+000 1.495888e+000 -5.089595e+000 33 32 36
3.190962e+000 -1.498100e+000 -5.269084e+000 37 39 43
3.550528e+000 1.947863e+000 -5.262134e+000 38 35 42
2.919358e+000 -2.007162e+000 -5.360040e+000 45 46 50
2.919358e+000 -2.007162e+000 -5.360040e+000 45 46 50
2.873611e+000 -2.098442e+000 -5.351706e+000 52 53 57
2.854924e+000 -2.219940e+000 -5.384712e+000 43 45 49
2.879684e+000 -2.275471e+000 -5.342286e+000 58 58 63
3.498550e+000 2.023620e+000 -5.385702e+000 74 75 80
3.414282e+000 2.293669e+000 -5.386946e+000 61 64 69
3.539348e+000 2.011279e+000 -5.351719e+000 46 45 51
3.557032e+000 1.689421e+000 -5.389313e+000 40 39 44
3.577488e+000 1.791895e+000 -5.479778e+000 47 48 53
2.808943e+000 -2.079866e+000 -5.539504e+000 37 36 42
2.628003e+000 -2.929642e+000 -5.515348e+000 134 135 140
2.586628e+000 -3.500921e+000 -5.677934e+000 124 124 131
2.581808e+000 -1.460515e+000 -5.768002e+000 109 110 115
2.581808e+000 -1.460515e+000 -5.768002e+000 109 110 115
2.468193e+000 -2.747465e+000 -5.765986e+000 72 71 76
2.194038e+000 -3.965368e+000 -6.011757e+000 30 27 34
2.163949e+000 -2.063921e+000 -6.070237e+000 66 69 74
1.761652e+000 -2.528358e+000 -6.461988e+000 34 37 42
1.686087e+000 -2.395367e+000 -6.545656e+000 33 36 41
1.734545e+000 -3.093523e+000 -6.538684e+000 36 35 41
1.620854e+000 -2.474824e+000 -6.578661e+000 47 51 54
1.627453e+000 -2.852480e+000 -6.606920e+000 32 33 38
1.566561e+000 -2.831141e+000 -6.629520e+000 36 35 40
1.091768e+000 -4.119469e+000 -7.260012e+000 78 73 80
-1.740477e-001 4.607338e+000 -8.792770e+000 77 78 82
3.648520e-001 -2.236214e+000 -7.336552e+000 104 83 79
-3.385554e-001 2.561752e+000 -8.337043e+000 187 74 77
-1.744918e-001 -1.332207e+000 -7.000683e+000 123 115 100
7.569744e-001 -3.514262e+000 -7.703638e+000 43 41 46
7.163832e-001 -3.508139e+000 -7.725639e+000 49 47 52
-2.447761e-001 -1.629094e+000 -7.257242e+000 177 181 175
6.202326e-001 -3.729730e+000 -7.800377e+000 71 68 75
-9.421338e-001 4.123789e+000 -9.111040e+000 64 65 70
4.252918e-001 -3.506428e+000 -7.884049e+000 42 41 47
-5.169468e-001 -1.126520e+000 -7.760723e+000 220 221 215
3.466752e-001 -3.609980e+000 -7.924408e+000 49 48 54
3.212717e-001 -3.737905e+000 -7.928879e+000 102 103 108
1.943297e-001 -4.215064e+000 -7.948438e+000 132 129 136
2.941695e-002 -4.232018e+000 -8.028280e+000 48 45 52
-1.038707e+000 -1.040825e+000 -8.624553e+000 196 196 186
-1.583948e+000 6.485439e-001 -9.078250e+000 85 47 54
3.111146e+000 -1.633935e+000 -5.217971e+000 41 42 46
3.575525e+000 2.144120e+000 -5.194085e+000 48 49 54
3.006104e+000 -1.879917e+000 -5.306253e+000 45 46 51
2.980860e+000 -1.880656e+000 -5.373381e+000 43 44 48
2.775526e+000 -2.627783e+000 -5.399145e+000 60 60 66
3.475954e+000 2.516510e+000 -5.330982e+000 54 55 60
2.880092e+000 -2.256385e+000 -5.479496e+000 39 40 45
2.590925e+000 -2.911810e+000 -5.610499e+000 50 51 55
3.187434e+000 2.422964e+000 -5.637482e+000 67 67 74
2.551621e+000 -2.538236e+000 -5.732851e+000 35 33 38
2.221723e+000 -3.786765e+000 -5.974617e+000 28 25 32
2.057156e+000 -2.367621e+000 -6.198047e+000 53 56 63
8.806909e-002 -1.355351e+000 -4.846165e+000 100 91 80
1.577985e+000 -3.166064e+000 -6.630039e+000 25 24 29
1.305987e+000 -2.795171e+000 -6.928635e+000 58 57 62
3.893890e-001 3.357846e+000 -7.680769e+000 152 55 53
1.493965e-003 4.469249e+000 -8.832259e+000 48 47 50
-4.887129e-001 4.401776e+000 -8.859595e+000 80 81 86
-4.725256e-001 4.464577e+000 -8.904581e+000 80 81 86
-2.046547e-001 -1.329125e+000 -7.159107e+000 186 189 182
5.280266e-001 -3.537057e+000 -7.815556e+000 39 38 43
3.910400e-001 -3.602883e+000 -7.928883e+000 113 112 117
3.955085e-001 -3.601159e+000 -7.936264e+000 113 112 117
4.993245e-001 -3.956133e+000 -7.887374e+000 38 33 39
-1.352804e+000 2.383470e+000 -9.548039e+000 89 92 97
-4.789049e-001 -3.950753e+000 -8.415511e+000 38 33 39
3.691746e+000 1.998957e+000 -5.247547e+000 36 36 42
2.937000e+000 -2.160765e+000 -5.373757e+000 53 54 58
2.824620e+000 -1.167225e-001 -5.450925e+000 188 176 119
2.691578e+000 -2.324319e+000 -5.635872e+000 37 38 42
2.705397e+000 -2.317711e+000 -5.645492e+000 37 38 42
2.604263e+000 -3.610396e+000 -5.661164e+000 104 105 110
2.433879e+000 -3.940412e+000 -5.746934e+000 38 34 41
2.373450e+000 -9.893705e-002 -5.812520e+000 244 241 186
2.391413e+000 -3.051183e+000 -5.834692e+000 34 35 40
2.273407e+000 -3.540204e+000 -5.997912e+000 34 31 38
2.080007e+000 -2.561723e+000 -6.153133e+000 45 46 51
2.135000e+000 -3.417931e+000 -6.124646e+000 24 23 29
2.108077e+000 -3.475695e+000 -6.164446e+000 27 26 32
1.780859e+000 -1.955440e+000 -5.982522e+000 72 74 78
1.689716e+000 -1.420629e+000 -6.163221e+000 191 127 114
1.961969e+000 -3.764823e+000 -6.341317e+000 39 37 42
1.576443e+000 -2.978415e+000 -6.685909e+000 28 27 32
1.424444e+000 -2.798053e+000 -6.852431e+000 32 31 36
-1.425035e+000 -7.547787e-001 -4.349145e+000 100 54 36
3.796875e-001 3.327960e+000 -7.856346e+000 182 79 75
-2.830980e-001 -8.460507e-001 -7.626384e+000 235 240 233
6.345691e-001 -3.454876e+000 -7.832995e+000 31 30 35
6.378189e-001 -3.517320e+000 -7.800948e+000 70 69 74
-2.254005e-001 -1.834109e+000 -7.476852e+000 121 114 101
3.586447e-001 -3.319225e+000 -7.897753e+000 42 41 46
-5.781301e-001 -1.219927e+000 -7.833793e+000 206 209 200
-5.781301e-001 -1.219927e+000 -7.833793e+000 206 209 200
3.494273e-001 -3.770366e+000 -7.982366e+000 34 33 38
-4.294389e-001 -2.214409e+000 -8.012413e+000 194 192 177
-4.294389e-001 -2.214409e+000 -8.012413e+000 194 192 177
-5.159912e-001 -2.058036e+000 -8.107174e+000 193 190 173
3.618520e-002 -4.293096e+000 -8.025848e+000 45 42 51
-1.161175e-001 -3.997095e+000 -8.212480e+000 46 41 48
-2.656030e-004 -4.255204e+000 -8.025422e+000 137 134 141
2.586446e+000 -3.575032e+000 -5.707784e+000 38 37 43
2.453752e+000 -2.878895e+000 -5.842114e+000 35 34 40
2.388773e+000 -3.743759e+000 -5.864924e+000 34 31 38
2.292059e+000 -4.013077e+000 -5.918114e+000 28 25 32
2.262488e+000 -3.131346e+000 -6.026671e+000 29 26 33
2.023680e+000 -3.834727e+000 -6.226263e+000 23 20 27
1.335060e+000 -1.847654e+000 -6.290274e+000 166 164 155
1.632053e+000 -2.886039e+000 -6.627966e+000 32 31 36
-2.739527e-001 -9.850771e-001 -6.610347e+000 78 65 56
-2.411468e-001 -7.591082e-001 -6.929063e+000 115 110 103
3.187786e-001 -2.108471e+000 -7.198443e+000 115 98 90
-3.460094e-001 -3.795766e-001 -7.450578e+000 190 195 189
6.295878e-001 -3.406416e+000 -7.807187e+000 47 46 51
6.141026e-001 -3.560386e+000 -7.843663e+000 44 43 48
1.304679e-001 -3.038471e+000 -7.627805e+000 162 67 72
-8.262363e-001 -5.638268e-001 -8.588196e+000 228 228 216
2.993749e+000 1.940662e-001 -5.333418e+000 145 132 88
2.466671e+000 -3.903207e+000 -5.756980e+000 36 34 40
2.466671e+000 -3.903207e+000 -5.756980e+000 36 34 40
2.368040e+000 -3.977266e+000 -5.820423e+000 29 27 34
2.404942e-001 -1.205167e+000 -4.859766e+000 106 97 88
-6.950642e-001 -1.557914e+000 -8.205270e+000 93 84 69
-6.452604e-001 -1.935166e+000 -8.209393e+000 192 188 175
3.336350e+000 -1.047323e-001 -5.330246e+000 27 22 28
1.826904e+000 -1.349807e+000 -6.084868e+000 184 147 104
-1.353213e+000 -9.885758e-001 -4.236511e+000 89 35 18
-5.746286e-002 -3.435955e+000 -7.679565e+000 181 164 155
3.298748e+000 4.202176e-001 -5.230187e+000 48 42 42
1.232106e+000 -1.309398e+000 -6.380596e+000 95 85 73
6.019625e-002 -1.755776e+000 -7.349174e+000 105 99 87
2.498464e-002 -2.965372e+000 -7.393561e+000 74 34 34
-5.703985e-001 -1.976956e-001 -8.235465e+000 228 230 219
2.759012e+000 -5.397598e-003 -5.482091e+000 174 163 109
-7.052320e-002 1.774069e+000 -7.956355e+000 186 182 170
2.694478e+000 -1.449310e+000 -5.919605e+000 66 67 72
-8.024571e-001 -1.033219e+000 -8.173431e+000 239 240 232
2.949306e+000 -8.183972e-002 -5.375574e+000 166 153 102
2.430893e+000 1.523301e-001 -5.604434e+000 46 49 53
2.146706e+000 -4.876659e-001 -5.968082e+000 255 254 222
2.146706e+000 -4.876659e-001 -5.968082e+000 255 254 222
1.828973e-001 -3.973854e+000 -7.920427e+000 29 24 30
-3.331138e-001 -1.096417e+000 -7.688309e+000 229 234 227
-9.375166e-001 -1.046023e+000 -3.961007e+000 120 67 50
-6.860997e-001 -8.466412e-001 -4.114753e+000 55 43 42
-4.220991e-001 -1.355131e+000 -4.646487e+000 186 112 70
-1.001122e+000 -1.061646e+000 -3.943295e+000 47 9 7
-4.625137e-001 -1.393430e+000 -4.762427e+000 104 52 31
-3.484067e-001 -7.992146e-001 -4.541119e+000 97 34 16
-1.357590e+000 -1.064682e+000 -3.914914e+000 32 11 15
-1.000628e+000 -1.087245e+000 -4.107027e+000 83 34 19
-1.267044e+000 -8.527662e-001 -4.056934e+000 46 19 16
3.216500e+000 2.085502e+000 -5.763867e+000 42 41 46
1.583211e+000 -3.164395e+000 -6.685341e+000 39 38 43
5.052761e-001 -3.915449e+000 -7.809623e+000 43 42 48
1.926641e+000 -2.513040e+000 -6.311909e+000 122 125 130
-8.940469e-001 -1.109372e+000 -4.013412e+000 109 50 31
1.288029e+000 -1.931255e+000 -6.375427e+000 171 173 162
-5.508284e-001 -1.355388e+000 -4.738014e+000 67 28 18
-5.637883e-001 1.583043e+000 -8.357333e+000 228 223 216
4.559900e+000 2.571283e+000 -4.428164e+000 90 91 95
4.453901e+000 2.170311e+000 -4.599555e+000 62 61 67
4.498937e+000 1.872696e+000 -4.650241e+000 40 39 44
4.348737e+000 1.769717e+000 -4.687969e+000 75 74 79
4.601306e+000 1.709724e+000 -4.732321e+000 33 32 37
4.573023e+000 1.398634e+000 -4.922573e+000 37 35 40
4.573023e+000 1.398634e+000 -4.922573e+000 37 35 40
4.414413e+000 1.311226e+000 -4.959485e+000 42 41 46
4.283001e+000 7.222867e-001 -5.080501e+000 46 44 47
3.218571e+000 -1.655281e+000 -5.232927e+000 49 48 54
3.168978e+000 -1.806492e+000 -5.294867e+000 53 52 58
3.180649e+000 -1.821728e+000 -5.343312e+000 91 91 97
4.480284e+000 3.020606e+000 -4.505376e+000 73 74 79
4.439249e+000 2.718935e+000 -4.521520e+000 74 77 82
4.441941e+000 2.475094e+000 -4.588597e+000 70 71 75
4.442875e+000 2.367830e+000 -4.669100e+000 66 67 72
4.442875e+000 2.367830e+000 -4.669100e+000 66 67 72
4.352301e+000 2.066084e+000 -4.759958e+000 64 65 70
4.361454e+000 2.209492e+000 -4.757771e+000 57 58 62
4.424506e+000 1.652469e+000 -4.857327e+000 57 56 64
3.287701e+000 -1.350754e+000 -5.471656e+000 35 34 40
2.842510e+000 -2.378831e+000 -5.521606e+000 45 46 49
2.827139e+000 -2.346093e+000 -5.537758e+000 86 87 92
2.696377e+000 -2.828750e+000 -5.651517e+000 109 109 114
2.488713e+000 -3.417511e+000 -5.781642e+000 50 49 55
4.271055e+000 3.110079e+000 -4.605221e+000 61 61 69
3.941317e+000 1.835680e+000 -4.957888e+000 58 59 64
3.985602e+000 1.903896e+000 -5.122493e+000 104 104 109
3.011504e+000 -1.624464e+000 -5.569344e+000 47 46 51
2.769713e+000 -2.136778e+000 -5.700763e+000 37 36 42
2.558155e+000 -2.645243e+000 -5.746130e+000 34 35 40
2.596729e+000 -2.933535e+000 -5.751213e+000 109 110 115
2.468376e+000 -3.066569e+000 -5.796813e+000 45 46 51
2.419750e+000 -3.192876e+000 -5.752466e+000 42 43 48
2.389474e+000 -3.204128e+000 -5.906707e+000 102 103 108
2.364579e+000 -3.377270e+000 -5.878309e+000 45 44 50
2.387013e+000 -3.556342e+000 -5.879125e+000 60 59 65
2.248414e+000 -3.849707e+000 -5.959706e+000 73 72 80
2.313073e+000 -3.753627e+000 -5.977217e+000 88 87 93
4.069499e+000 2.843550e+000 -4.918571e+000 57 58 63
3.841617e+000 2.727444e+000 -5.028997e+000 72 73 78
3.853614e+000 2.335344e+000 -5.178367e+000 74 77 84
2.319704e+000 -3.302818e+000 -5.929874e+000 40 39 45
2.189991e+000 -3.664881e+000 -6.136870e+000 39 38 44
3.798082e+000 2.739029e+000 -5.072962e+000 118 121 128
3.706232e+000 2.674034e+000 -5.236577e+000 81 81 89
3.691434e+000 2.534976e+000 -5.230013e+000 74 74 82
3.680634e+000 2.642630e+000 -5.304840e+000 60 60 68
3.678514e+000 1.797310e+000 -5.608501e+000 38 37 43
3.556398e+000 2.692438e+000 -5.375674e+000 72 72 80
3.556398e+000 2.692438e+000 -5.375674e+000 72 72 80
3.466836e+000 2.452828e+000 -5.591373e+000 65 70 76
3.466836e+000 2.452828e+000 -5.591373e+000 65 70 76
3.543377e+000 1.971325e+000 -5.591223e+000 52 54 59
3.534515e+000 1.982391e+000 -5.662081e+000 48 49 54
2.579629e+000 -7.521442e-001 -5.907961e+000 52 52 54
2.286591e+000 -2.183638e+000 -6.027963e+000 45 48 54
1.967904e+000 -3.631639e+000 -6.339228e+000 46 43 50
1.967904e+000 -3.631639e+000 -6.339228e+000 46 43 50
3.453244e+000 3.445217e+000 -5.419764e+000 62 64 72
3.505999e+000 3.195640e+000 -5.437449e+000 63 66 73
3.394009e+000 2.978367e+000 -5.545364e+000 129 132 139
3.425253e+000 2.746539e+000 -5.547709e+000 128 133 139
3.415338e+000 2.608543e+000 -5.571483e+000 153 158 164
3.407198e+000 2.789921e+000 -5.584455e+000 67 71 78
2.111008e+000 -2.417764e+000 -6.153309e+000 43 49 58
2.080215e+000 -2.503031e+000 -6.183052e+000 100 105 111
1.987735e+000 -2.489354e+000 -6.218578e+000 60 65 71
1.981875e+000 -2.492174e+000 -6.214875e+000 60 65 71
2.001803e+000 -2.702865e+000 -6.187382e+000 33 36 41
2.001039e+000 -2.744396e+000 -6.241888e+000 36 35 41
1.949832e+000 -2.723793e+000 -6.316130e+000 47 56 61
1.852981e+000 -2.677296e+000 -6.366000e+000 70 75 81
1.820537e+000 -2.859142e+000 -6.371003e+000 40 43 48
1.804585e+000 -3.049648e+000 -6.409612e+000 35 36 41
1.777436e+000 -3.568031e+000 -6.606629e+000 37 36 41
1.733088e+000 -1.335494e+000 -6.040086e+000 170 127 82
1.847238e+000 -2.330764e+000 -6.425937e+000 106 109 115
1.760827e+000 -2.423138e+000 -6.450506e+000 158 163 167
1.800667e+000 -2.553137e+000 -6.421629e+000 46 50 55
1.722809e+000 -2.597683e+000 -6.506737e+000 116 120 124
1.695177e+000 -2.677990e+000 -6.530945e+000 99 100 105
1.667715e+000 -2.685050e+000 -6.561637e+000 41 43 48
1.736305e+000 -2.719182e+000 -6.499730e+000 89 92 97
1.733463e+000 -2.814547e+000 -6.480074e+000 50 51 56
1.774951e+000 -2.829726e+000 -6.530884e+000 86 87 92
1.758713e+000 -2.911295e+000 -6.521783e+000 64 67 72
1.749056e+000 -2.953653e+000 -6.524643e+000 35 38 43
1.707869e+000 -2.452504e+000 -6.559185e+000 47 52 58
1.638875e+000 -2.464677e+000 -6.590343e+000 50 53 58
1.661723e+000 -2.560859e+000 -6.589818e+000 44 47 52
1.614910e+000 -2.580227e+000 -6.605241e+000 103 106 111
1.659737e+000 -2.604137e+000 -6.557276e+000 101 104 109
1.522341e+000 -2.787444e+000 -6.714170e+000 36 37 41
1.583399e+000 -3.230799e+000 -6.688518e+000 46 45 50
1.454819e+000 -2.595665e+000 -6.850775e+000 48 51 56
1.478241e+000 -2.670519e+000 -6.734250e+000 43 46 51
1.358066e+000 -3.287958e+000 -6.945834e+000 34 32 37
-1.190706e+000 -8.370668e-001 -3.992528e+000 140 80 63
1.366242e+000 -3.069128e+000 -6.908637e+000 46 45 50
1.348199e+000 -2.994474e+000 -6.980208e+000 45 45 49
