ply
format ascii 1.0
element face 0
property list uchar int vertex_indices
element vertex 877
property float x
property float y
property float z
property uchar diffuse_red
property uchar diffuse_green
property uchar diffuse_blue
end_header
3.213646e+000 2.245162e+000 -5.999437e+000 57 52 59
-6.339094e-001 9.794734e-001 -8.597517e+000 217 217 203
-8.920658e-001 -1.595451e-001 -4.545986e+000 212 119 67
2.857907e+000 2.378548e-001 -5.784323e+000 49 35 38
4.708920e-001 -1.310046e-001 -4.986205e+000 121 119 107
-1.666447e-001 -2.201865e-001 -4.253313e+000 216 171 128
-1.000503e+000 -1.102228e+000 -3.669033e+000 83 41 27
-3.949311e+000 -1.187226e+000 -1.171675e+001 27 25 28
-3.581299e+000 -1.431148e+000 -1.185117e+001 63 61 66
-2.270557e+000 -1.574230e+000 -9.686274e+000 180 62 56
-1.332372e+000 -1.885356e-001 -3.854424e+000 60 29 27
-4.303453e-001 -8.690028e-001 -4.426937e+000 142 98 61
-2.337126e+000 -1.379705e+000 -9.751016e+000 186 61 55
-1.802176e+000 -6.901010e-001 -3.491039e+000 155 130 81
2.657004e+000 3.183906e+000 -5.827642e+000 41 31 38
1.098280e+000 2.679492e+000 -6.394471e+000 106 99 72
-1.030468e+000 1.390655e+000 -8.934649e+000 197 198 184
-1.030468e+000 1.390655e+000 -8.934649e+000 197 198 184
-1.463541e+000 -4.099844e-002 -9.265294e+000 169 164 152
-1.466801e+000 -3.823908e-002 -9.242326e+000 169 164 152
-3.874192e+000 -1.354801e+000 -1.174603e+001 74 73 80
-3.724609e+000 -1.081319e+000 -1.152733e+001 31 22 27
2.567246e+000 3.320321e+000 -5.948419e+000 218 210 199
-1.444482e+000 9.345523e-001 -9.353188e+000 217 218 204
-4.902579e-004 1.084176e+000 -6.934691e+000 181 180 167
-9.662048e-001 -4.131488e-001 -3.956207e+000 209 177 125
-8.637756e-001 -3.840405e-001 -4.183856e+000 157 77 43
-2.502421e-001 2.788573e+000 -8.342252e+000 223 220 211
2.907119e+000 1.322986e+000 -5.540612e+000 223 220 213
1.333026e+000 -1.867639e+000 -6.189386e+000 176 168 157
-2.377816e+000 5.473566e-002 -1.004114e+001 35 28 36
-5.888484e-001 2.790604e+000 -8.378022e+000 207 100 100
3.009568e+000 1.946001e+000 -6.017334e+000 150 149 157
1.146425e+000 9.232514e-001 -5.403696e+000 124 123 103
-9.139022e-001 -1.213832e-001 -4.609787e+000 223 119 67
-8.867116e-001 -7.133449e-002 -4.644273e+000 221 119 71
-1.386061e+000 -4.352750e-001 -3.505696e+000 206 114 70
-1.162466e+000 -6.563953e-001 -3.550135e+000 129 70 41
3.046765e+000 2.215394e+000 -6.026372e+000 51 49 54
3.293133e+000 2.205176e+000 -5.873560e+000 60 63 68
3.380357e+000 2.087125e+000 -5.859044e+000 55 54 60
-7.978127e-001 -5.347775e-001 -3.900660e+000 163 123 90
2.947007e-001 2.044585e+000 -7.186160e+000 197 199 188
3.112976e+000 2.267513e+000 -6.023754e+000 51 48 55
-3.595646e+000 -1.117677e+000 -1.178348e+001 41 37 38
-3.595646e+000 -1.117677e+000 -1.178348e+001 41 37 38
2.416434e-002 2.056320e-001 -5.430422e+000 200 207 199
1.337190e-001 -4.127528e-002 -4.448364e+000 190 198 187
-1.677281e+000 -3.724433e-001 -3.557320e+000 101 47 43
-2.154932e+000 -6.217768e-001 -3.422492e+000 174 158 96
-1.342062e+000 -5.538089e-001 -3.441177e+000 154 77 51
2.826996e+000 5.957438e-001 -5.705004e+000 177 84 85
-1.021345e+000 2.018751e+000 -8.841803e+000 223 223 217
2.438466e+000 -1.445691e+000 -5.852997e+000 122 42 45
3.382233e+000 1.891597e+000 -5.806600e+000 129 128 134
-1.398225e+000 4.080193e+000 -9.972620e+000 75 74 79
2.915255e+000 -1.142184e+000 -5.831951e+000 45 43 46
2.926573e+000 -1.324848e+000 -5.772461e+000 35 33 36
-1.666703e+000 -5.838910e-001 -3.461901e+000 110 60 51
1.734003e+000 -1.262159e+000 -5.976088e+000 185 151 113
-7.008944e-001 -1.100305e+000 -4.076476e+000 93 37 25
-3.361210e-001 -1.575589e+000 -4.550295e+000 109 55 39
-3.361210e-001 -1.575589e+000 -4.550295e+000 109 55 39
1.954482e+000 2.884168e+000 -6.293453e+000 202 200 188
1.651252e+000 2.717275e+000 -6.306029e+000 150 140 114
3.067233e+000 3.347339e-001 -5.870225e+000 64 65 69
7.490921e-001 -2.109596e-001 -5.215104e+000 160 159 154
2.120778e+000 -1.069491e+000 -6.064420e+000 190 71 71
3.133047e+000 -1.075377e+000 -5.710919e+000 43 41 46
-1.341350e+000 -5.584147e-001 -3.472985e+000 139 69 49
1.056604e+000 2.099672e+000 -6.795515e+000 209 210 196
-5.606023e-001 1.602667e-002 -4.203268e+000 146 132 123
7.630797e-001 2.754804e-003 -5.306222e+000 151 152 146
7.402528e-001 -5.072700e-002 -5.301782e+000 163 164 158
2.892932e+000 -7.255451e-001 -5.893413e+000 111 110 114
1.144740e+000 -6.109978e-001 -5.812469e+000 98 54 47
2.878923e+000 -1.133896e+000 -5.865319e+000 77 75 78
2.899014e+000 -1.209973e+000 -5.822356e+000 65 62 69
2.755753e+000 -1.526115e+000 -5.883333e+000 54 49 53
3.061510e+000 -1.554320e+000 -5.604756e+000 38 36 39
-1.750727e+000 -7.343836e-001 -3.415298e+000 109 76 51
-1.685195e+000 -7.094702e-001 -3.478139e+000 124 76 73
8.818639e-002 -1.164476e+000 -4.416440e+000 153 76 65
2.554991e+000 -1.577023e+000 -6.088052e+000 49 44 46
2.744124e+000 -1.757765e+000 -5.892163e+000 34 32 35
2.930999e+000 -1.698467e+000 -5.710999e+000 37 35 38
2.899382e+000 -1.791471e+000 -5.695703e+000 51 49 54
2.963020e+000 -1.752800e+000 -5.675165e+000 34 32 37
3.061269e+000 -1.791875e+000 -5.612722e+000 42 37 43
-1.143136e+000 4.947203e+000 -9.761413e+000 92 91 96
3.935554e+000 1.438687e+000 -5.610068e+000 39 35 41
1.089480e-001 1.379653e+000 -7.071184e+000 192 195 184
2.049558e+000 6.285194e-001 -5.650094e+000 227 232 226
2.950339e+000 2.521079e-001 -5.917673e+000 101 106 109
9.427389e-001 7.996854e-002 -5.314158e+000 168 172 165
-3.433282e-002 -3.393584e-001 -4.246643e+000 188 117 83
3.190886e+000 -8.588578e-001 -5.720641e+000 110 107 114
2.879141e+000 -9.503573e-001 -5.937633e+000 51 49 52
3.015981e+000 -9.747608e-001 -5.853094e+000 48 49 52
3.536818e+000 -1.044409e+000 -5.418163e+000 34 30 35
3.284665e+000 -1.214336e+000 -5.555855e+000 49 48 53
2.888587e+000 -1.320698e+000 -5.821653e+000 55 53 58
2.897111e+000 -1.320107e+000 -5.844139e+000 55 53 58
3.297792e+000 -1.324991e+000 -5.515973e+000 66 64 69
3.299700e+000 -1.374270e+000 -5.531473e+000 37 33 38
2.980276e+000 -1.454731e+000 -5.741746e+000 36 34 37
-1.621861e+000 -7.300267e-001 -3.436421e+000 122 73 68
2.594001e+000 -1.622829e+000 -6.042140e+000 56 50 54
-3.860230e-001 -1.687029e+000 -4.580249e+000 76 32 21
-8.492662e-002 4.676284e+000 -9.427070e+000 77 81 80
3.412743e+000 1.859605e+000 -5.725724e+000 53 54 59
2.586107e+000 1.846724e+000 -5.564944e+000 177 85 87
1.310581e+000 1.836181e+000 -6.286858e+000 141 130 96
1.970123e+000 1.211670e+000 -5.760583e+000 219 222 213
1.970886e+000 1.211574e+000 -5.760916e+000 219 222 213
3.143739e+000 -8.176018e-001 -5.745872e+000 50 49 54
3.315242e+000 -7.303745e-001 -5.655242e+000 42 40 45
-4.887831e-002 -3.751107e-001 -4.283733e+000 167 103 70
7.399684e-001 -4.834573e-001 -5.505693e+000 95 87 79
2.863435e+000 -1.056229e+000 -5.880189e+000 43 41 44
2.779167e+000 -1.254045e+000 -5.924429e+000 40 38 41
2.861752e+000 -1.353722e+000 -5.872199e+000 36 34 39
3.016152e+000 -1.365567e+000 -5.759083e+000 36 34 39
-1.484935e+000 -5.696807e-001 -3.463573e+000 220 129 83
-1.624426e+000 -8.091946e-001 -3.366386e+000 115 60 55
2.104019e+000 -1.637842e+000 -6.302082e+000 172 68 74
2.947487e+000 -1.736476e+000 -5.716511e+000 33 31 36
3.752358e+000 1.630949e+000 -5.614833e+000 44 43 48
3.949284e+000 1.489200e+000 -5.551986e+000 34 32 37
4.193657e-001 1.128586e+000 -6.582106e+000 213 219 206
3.140786e+000 -9.212778e-001 -5.735987e+000 48 47 52
-1.136596e+000 -3.868033e-001 -3.885154e+000 45 33 33
-9.865107e-001 -7.692131e-001 -3.609467e+000 142 85 58
-8.820302e-001 -8.698151e-001 -3.661797e+000 126 69 50
-2.431255e+000 -1.624157e+000 -9.848438e+000 59 23 22
-1.573286e+000 -2.226845e+000 -9.087319e+000 161 151 135
1.142577e+000 2.365129e+000 -6.380914e+000 118 109 73
1.307701e-001 1.609748e+000 -7.147185e+000 168 168 156
3.693717e+000 -7.797719e-001 -5.461748e+000 88 87 92
3.693717e+000 -7.797719e-001 -5.461748e+000 88 87 92
-1.509988e+000 -9.503824e-001 -3.512408e+000 165 93 53
1.954733e+000 -1.696438e+000 -6.251445e+000 204 91 95
3.417844e-001 -1.978958e+000 -7.171944e+000 79 60 45
-3.089790e-001 -2.732210e+000 -7.939091e+000 207 203 191
1.020389e+000 3.641246e+000 -7.247058e+000 81 72 51
3.570228e+000 7.577826e-001 -5.191841e+000 52 48 45
2.215339e+000 1.075674e+000 -5.639193e+000 234 237 230
3.285449e+000 4.172473e-001 -5.727777e+000 71 64 57
-1.336491e+000 -1.772100e-001 -3.831856e+000 42 27 31
1.380012e+000 -2.107402e+000 -6.371031e+000 187 181 168
-1.920296e+000 -2.380835e+000 -9.518637e+000 182 64 63
-2.677605e-001 -2.615011e+000 -7.997615e+000 167 160 144
2.985825e+000 5.776017e-002 -5.616720e+000 251 248 192
1.919692e-002 1.693792e-002 -4.421272e+000 178 180 171
-3.779473e-001 -1.609618e-001 -4.212420e+000 146 101 74
-9.480035e-002 -1.915696e-001 -4.243257e+000 122 49 40
-9.433792e-001 -8.125840e-001 -3.666621e+000 85 37 26
-1.710619e+000 -2.666210e+000 -9.303664e+000 179 64 64
1.529283e+000 2.474256e+000 -6.130238e+000 255 255 207
-5.857229e-001 -1.037641e+000 -4.180501e+000 120 60 38
-1.212278e+000 -9.790603e-001 -3.403800e+000 68 25 22
9.980409e-002 2.011918e-001 -4.628573e+000 211 213 204
3.398462e+000 -1.147233e+000 -5.550761e+000 46 45 52
2.697525e+000 -1.549119e-001 -5.975804e+000 109 95 64
2.327989e+000 -3.355251e-001 -6.181399e+000 170 158 110
1.900162e+000 -2.303306e+000 -5.998462e+000 197 191 179
-6.197801e-001 -2.653333e-001 -4.146542e+000 213 178 133
-6.251194e-001 -2.553044e-001 -4.175994e+000 213 178 133
5.904162e-001 -2.166323e+000 -7.072553e+000 48 19 21
1.262948e+000 -2.515083e-001 -5.506043e+000 203 203 193
-1.946846e-001 9.448973e-002 -4.364619e+000 197 202 194
-8.936285e-001 -4.791084e-001 -3.794116e+000 174 134 88
1.980238e+000 -1.238342e+000 -5.814532e+000 153 90 65
1.980238e+000 -1.238342e+000 -5.814532e+000 153 90 65
-2.138571e+000 4.714685e-001 -9.912518e+000 184 67 62
-4.724199e-001 -7.226529e-002 -4.154362e+000 212 187 143
-1.901645e+000 -4.209973e-001 -3.652972e+000 36 30 34
3.983704e-002 -5.048756e+000 -8.735830e+000 62 60 65
8.964393e-001 -4.255145e+000 -8.911902e+000 28 19 22
-4.249433e+000 1.176906e+000 -1.163882e+001 77 76 82
-3.943860e+000 6.641399e-001 -1.176085e+001 49 48 53
-3.769183e+000 4.940640e-001 -1.174561e+001 50 48 51
2.151545e-001 1.388772e-001 -5.378743e+000 208 214 206
1.875322e+000 8.519176e-001 -5.514648e+000 225 226 218
-2.910586e-001 1.097079e-001 -4.357751e+000 166 177 163
1.559019e+000 -2.720318e+000 -6.135261e+000 32 26 30
1.381511e+000 -1.618086e-001 -5.583388e+000 167 162 156
-1.156800e+000 -1.172380e+000 -3.483323e+000 46 24 25
2.840433e+000 -7.494626e-001 -5.873511e+000 64 57 67
2.840433e+000 -7.494626e-001 -5.873511e+000 64 57 67
2.895738e+000 -7.989612e-001 -5.896741e+000 100 100 102
2.897422e+000 -9.113498e-001 -5.905826e+000 106 103 106
2.922286e+000 -8.835957e-001 -5.888038e+000 60 60 62
2.078374e+000 -1.481474e+000 -5.987158e+000 167 129 94
2.080214e+000 -1.479015e+000 -5.993320e+000 167 129 94
1.934609e-001 1.660000e+000 -7.049338e+000 205 205 193
2.960086e+000 -8.412820e-001 -5.841228e+000 110 111 113
3.393538e+000 -7.480754e-001 -5.589005e+000 38 36 41
1.915059e+000 -1.200524e+000 -5.905007e+000 115 57 37
1.915059e+000 -1.200524e+000 -5.905007e+000 115 57 37
-9.931930e-001 5.469627e+000 -9.587890e+000 43 42 47
-1.322261e+000 4.995178e+000 -1.000191e+001 62 61 67
-1.137914e+000 4.471676e+000 -9.999666e+000 54 55 60
-1.300044e+000 4.217257e+000 -9.914806e+000 64 66 71
2.974760e+000 6.562190e-001 -5.879596e+000 92 91 93
3.194289e+000 5.693537e-001 -5.777015e+000 78 80 84
3.868551e+000 -5.122445e-001 -5.247001e+000 75 74 79
-5.951411e-001 -1.368661e-002 -4.135146e+000 108 73 65
-5.619790e-001 1.121643e-002 -4.188898e+000 149 126 118
6.602159e-001 -6.042781e-002 -5.070116e+000 149 151 145
7.610517e-001 -1.948627e-002 -5.253146e+000 152 153 148
7.684400e-001 -1.287797e-001 -5.165288e+000 151 152 146
3.042881e+000 -7.044401e-001 -5.806854e+000 68 66 69
3.354312e+000 -7.469144e-001 -5.627102e+000 61 59 62
-5.979880e-001 -4.808998e-002 -4.137286e+000 147 148 133
2.512795e-002 -3.487906e-001 -4.324648e+000 163 115 79
2.628654e+000 -7.403528e-001 -5.827757e+000 179 81 84
-8.882070e-003 -4.117303e-001 -4.174923e+000 182 119 84
1.316153e+000 -5.498937e-001 -5.691275e+000 87 56 39
1.318758e+000 -5.442727e-001 -5.709559e+000 87 56 39
2.136411e+000 -8.944083e-001 -6.079190e+000 181 70 67
3.072735e+000 -1.437804e+000 -5.682828e+000 77 76 81
1.689497e-001 -7.622358e-001 -4.484370e+000 129 84 56
3.573805e-001 -8.320048e-001 -4.553157e+000 60 33 31
-1.437656e+000 -6.755255e-001 -3.402757e+000 200 110 70
-9.257026e-001 -7.475362e-001 -3.626604e+000 140 95 60
-1.832112e+000 -5.925203e-001 -3.539138e+000 160 136 100
-1.626340e+000 -7.572607e-001 -3.391382e+000 100 48 44
2.536261e+000 -1.799646e+000 -5.965683e+000 55 52 59
-1.789368e+000 -8.090251e-001 -3.447928e+000 85 68 42
-1.257126e+000 -9.471383e-001 -3.377317e+000 98 56 48
1.901304e-003 -1.230442e+000 -4.449589e+000 144 71 55
-6.936292e-001 -1.250699e+000 -4.134989e+000 130 69 51
-5.677976e-001 -1.375586e+000 -4.296941e+000 109 50 29
-1.000177e+000 -1.414772e+000 -4.487664e+000 202 185 175
-4.152007e-001 -1.614289e+000 -4.594975e+000 97 44 27
-1.291895e+000 -2.455218e+000 -8.964379e+000 202 193 183
-3.480432e-001 5.584353e+000 -9.560636e+000 76 75 80
3.323409e+000 1.398467e+000 -5.764533e+000 80 80 82
4.040840e+000 1.248248e+000 -5.600160e+000 62 60 65
6.257539e-001 2.723917e+000 -7.126648e+000 209 210 202
3.250691e+000 1.068100e+000 -5.839221e+000 86 88 92
3.314789e+000 1.034411e+000 -5.752124e+000 70 69 75
3.195267e+000 9.296420e-001 -5.715861e+000 55 58 62
3.041464e+000 8.926537e-001 -5.788582e+000 40 38 43
3.191112e+000 7.618443e-001 -5.812067e+000 60 62 67
-1.178300e+000 4.377735e+000 -9.949458e+000 82 82 88
1.072907e+000 1.755140e+000 -6.721247e+000 185 184 165
2.918720e+000 6.623092e-001 -5.820373e+000 63 51 53
3.024344e+000 5.987303e-001 -5.835696e+000 146 150 154
3.224767e+000 6.272818e-001 -5.795395e+000 53 56 65
3.132913e+000 4.507391e-001 -5.781041e+000 153 153 161
2.967410e+000 3.553352e-001 -5.849748e+000 61 65 66
3.025527e+000 3.754582e-001 -5.846003e+000 143 142 149
3.099300e+000 3.690339e-001 -5.808805e+000 134 138 142
3.919569e+000 -4.653258e-001 -5.243393e+000 75 72 79
4.130974e+000 -8.167649e-001 -4.971709e+000 44 42 48
2.423490e+000 -8.722909e-002 -5.972836e+000 130 119 83
-4.309976e-001 -1.556408e-002 -4.169424e+000 57 43 42
3.105419e+000 -6.666241e-001 -5.842145e+000 107 104 110
3.081060e+000 -7.421634e-001 -5.736238e+000 53 54 58
3.088989e+000 -7.712773e-001 -5.841085e+000 55 54 59
3.091547e+000 -8.243326e-001 -5.767017e+000 130 129 134
3.098035e+000 -8.580214e-001 -5.819531e+000 56 55 60
2.993954e+000 -9.229335e-001 -5.813732e+000 124 123 128
3.184653e+000 -1.022130e+000 -5.613195e+000 44 44 44
7.394003e-001 -4.380886e-001 -5.351977e+000 78 70 66
3.000794e+000 -9.826354e-001 -5.812599e+000 56 57 61
2.975489e+000 -1.041172e+000 -5.788779e+000 103 103 107
3.093296e+000 -1.048594e+000 -5.749485e+000 47 46 51
1.621225e+000 -7.858533e-001 -6.024116e+000 97 57 21
3.028955e+000 -1.340142e+000 -5.570195e+000 44 43 48
-1.635124e+000 -3.158386e-001 -3.625929e+000 83 42 40
-1.335009e+000 -5.395257e-001 -3.464701e+000 143 72 51
-1.283277e+000 -4.624957e-001 -3.545072e+000 133 66 50
2.727696e+000 -1.354582e+000 -5.895058e+000 62 61 65
2.727696e+000 -1.354582e+000 -5.895058e+000 62 61 65
-1.326631e+000 -7.702341e-001 -3.404140e+000 196 111 74
-1.915845e+000 -5.875334e-001 -3.485320e+000 119 102 59
-1.890815e+000 -6.185907e-001 -3.477093e+000 86 69 35
-1.681434e+000 -6.606305e-001 -3.439118e+000 136 90 88
-1.211348e+000 -9.432039e-001 -3.358036e+000 105 58 51
2.852239e+000 -2.011355e+000 -5.785741e+000 32 30 35
-2.042881e+000 -6.636133e-001 -3.411489e+000 109 90 49
-2.049646e+000 -6.967832e-001 -3.398438e+000 45 27 17
-1.766366e+000 -7.953939e-001 -3.427325e+000 133 112 78
-1.691636e+000 -8.020520e-001 -3.367565e+000 113 71 65
-6.987579e-001 -1.060000e+000 -4.081014e+000 125 68 47
2.322773e+000 -1.773666e+000 -6.198024e+000 46 34 29
2.720398e+000 -2.060498e+000 -5.765423e+000 29 27 32
-1.450043e+000 -1.045751e+000 -3.562871e+000 108 45 22
-3.608634e-001 -1.587486e+000 -4.542545e+000 95 39 23
1.456427e+000 -2.072607e+000 -6.225058e+000 174 166 155
-9.690723e-001 -1.415698e+000 -4.539924e+000 63 38 30
-6.587014e-001 -1.733354e+000 -4.540891e+000 128 70 42
-2.368081e-001 -2.246010e+000 -7.930774e+000 145 136 119
-1.051350e+000 -2.684500e+000 -8.518889e+000 216 211 202
2.232309e+000 -3.924434e+000 -6.493814e+000 58 53 57
2.192705e+000 -3.946402e+000 -6.555835e+000 30 26 30
-2.453497e-001 5.619186e+000 -9.410183e+000 84 83 88
1.625137e+000 2.637950e+000 -6.191292e+000 179 172 146
3.488165e+000 1.623387e+000 -5.777236e+000 51 50 55
3.681449e+000 1.346049e+000 -5.682739e+000 65 64 69
4.619230e+000 3.188961e-001 -5.478981e+000 45 40 44
-1.222889e+000 4.765362e+000 -1.008079e+001 76 75 80
3.131363e+000 7.838426e-001 -5.807142e+000 154 155 160
3.244425e+000 8.522192e-001 -5.759619e+000 57 60 65
3.311173e+000 7.827739e-001 -5.826788e+000 55 58 63
3.095378e+000 6.091264e-001 -5.795933e+000 65 67 71
3.179459e+000 6.289520e-001 -5.831618e+000 135 139 142
3.179459e+000 6.289520e-001 -5.831618e+000 135 139 142
3.231123e+000 5.290388e-001 -5.757546e+000 118 119 125
1.347301e+000 2.774703e-001 -5.343243e+000 199 201 196
3.360944e+000 -6.626254e-001 -5.649483e+000 79 78 82
-4.967533e-001 1.585844e-002 -4.203586e+000 183 169 143
3.960332e+000 -1.198939e+000 -4.918730e+000 43 41 46
2.722299e+000 -7.258893e-001 -5.827605e+000 169 77 82
3.042016e+000 -9.263820e-001 -5.790562e+000 61 60 65
3.256374e+000 -9.840408e-001 -5.504690e+000 38 36 39
3.027800e+000 -1.147605e+000 -5.679922e+000 46 45 50
3.027800e+000 -1.147605e+000 -5.679922e+000 46 45 50
3.389349e+000 -1.300226e+000 -5.455651e+000 26 24 29
1.784773e+000 -7.159232e-001 -6.103014e+000 79 50 22
-1.700951e+000 -3.207950e-001 -3.657035e+000 101 58 55
2.708274e+000 -1.471203e+000 -5.860329e+000 40 38 43
-1.843757e+000 -4.371321e-001 -3.636277e+000 123 99 68
-1.706332e+000 -5.738791e-001 -3.462012e+000 73 27 26
-1.698547e+000 -5.828868e-001 -3.437554e+000 73 27 26
-1.742323e+000 -8.454083e-001 -3.419070e+000 168 150 105
-1.148440e-001 -1.325064e+000 -4.553562e+000 119 42 32
7.010009e-003 -1.344702e+000 -4.535968e+000 75 43 36
2.673452e+000 -1.955679e+000 -5.922202e+000 27 25 28
9.360593e-002 -1.452631e+000 -4.787822e+000 73 42 35
-1.387794e-001 -2.085997e+000 -7.536851e+000 117 101 85
-3.869445e+000 -1.970007e+000 -1.175359e+001 68 67 73
-3.873815e+000 -2.257121e+000 -1.171656e+001 64 63 68
-1.117610e+000 5.562062e+000 -9.664743e+000 81 80 85
1.790395e+000 1.829466e+000 -6.180544e+000 214 216 203
3.160928e+000 7.071402e-001 -5.799563e+000 62 65 70
-5.859449e-001 3.726813e+000 -9.450690e+000 73 60 67
-3.212641e-001 3.216718e+000 -8.249325e+000 189 73 75
4.377198e-001 2.307817e+000 -7.224142e+000 194 194 185
3.061697e+000 4.374419e-001 -5.820288e+000 80 81 88
2.917931e+000 3.252499e-001 -5.936506e+000 52 40 44
2.960191e+000 2.046672e-001 -5.745284e+000 76 74 72
1.137732e+000 -8.338881e-004 -5.391045e+000 156 156 148
-3.310314e-001 -1.551881e-001 -4.264014e+000 141 94 68
2.666784e+000 -6.784980e-001 -5.867634e+000 91 53 33
2.973035e+000 -7.603972e-001 -5.905735e+000 74 73 78
-7.880562e-001 -3.848021e-001 -4.010100e+000 183 92 48
1.039370e+000 -6.329369e-001 -5.603997e+000 147 149 134
7.998701e-001 -8.656923e-001 -5.453758e+000 91 83 77
-1.878718e+000 -4.331777e-001 -3.620885e+000 47 32 23
2.624617e+000 -1.575712e+000 -5.952558e+000 36 31 37
2.624973e+000 -1.577248e+000 -5.949425e+000 36 31 37
2.275401e+000 -1.534760e+000 -6.138286e+000 175 60 52
-1.981688e+000 -8.136103e-001 -3.293347e+000 39 28 22
-9.670915e-001 -1.043987e+000 -3.777718e+000 84 50 40
2.770100e+000 -2.079268e+000 -5.808560e+000 31 29 34
-3.141845e-002 -1.413540e+000 -4.504186e+000 80 32 17
-2.943322e+000 -8.365662e-001 -1.144384e+001 66 60 62
-2.943322e+000 -8.365662e-001 -1.144384e+001 66 60 62
-1.273878e+000 -1.692961e+000 -8.474068e+000 199 191 183
-1.304816e+000 -1.675105e+000 -8.570766e+000 199 191 183
-1.014982e+000 -2.772994e+000 -8.508298e+000 199 189 180
-6.876513e-001 5.886978e+000 -9.675518e+000 48 46 52
3.348989e-001 4.277560e+000 -7.913366e+000 39 38 31
4.595231e-002 3.917986e+000 -8.449112e+000 198 76 75
4.684336e+000 1.875101e-001 -5.313834e+000 59 55 56
3.662097e+000 -6.399286e-001 -5.345947e+000 39 37 42
-1.098114e-001 -2.973005e-001 -4.205962e+000 203 125 93
7.370161e-001 -3.824791e-001 -5.317758e+000 162 163 157
7.375183e-001 -3.810978e-001 -5.323853e+000 162 163 157
2.417007e-001 -7.910379e-001 -4.534691e+000 54 26 24
3.221672e-001 -1.052539e+000 -4.861977e+000 82 69 61
-2.071577e+000 -5.097431e-001 -3.496606e+000 32 20 21
-5.676877e-001 -1.468060e+000 -4.312257e+000 84 30 17
-4.210911e-002 -1.545705e+000 -4.743754e+000 147 87 55
-1.618360e+000 -2.831849e+000 -9.065781e+000 192 55 59
-1.467242e-001 3.931019e+000 -8.603767e+000 55 56 61
2.041160e+000 1.221553e+000 -5.669346e+000 237 240 231
3.583547e-001 1.996621e+000 -7.041885e+000 204 205 197
-1.361867e+000 -2.918900e-001 -3.713265e+000 158 81 55
-1.228320e+000 -4.875829e-001 -3.669882e+000 99 44 26
-1.746869e+000 -5.917662e-001 -3.498965e+000 73 28 28
1.312163e+000 -1.097426e+000 -5.714702e+000 157 155 151
-9.890096e-001 -9.933662e-001 -3.648678e+000 64 27 16
2.177932e+000 -1.581349e+000 -6.195158e+000 87 32 30
-2.048487e+000 -6.976464e-001 -3.454289e+000 40 26 23
-1.321580e-001 -1.434910e+000 -4.586719e+000 185 102 50
-1.908200e+000 -1.697250e+000 -9.428739e+000 182 67 64
8.580583e-001 4.113899e+000 -7.592840e+000 198 82 83
1.842404e+000 2.183684e+000 -5.914586e+000 202 198 187
3.585623e+000 1.428226e-001 -4.918920e+000 121 109 70
3.133137e+000 2.916054e-001 -5.694409e+000 96 88 68
8.648210e-001 -4.214062e-001 -5.412741e+000 103 97 87
-3.599128e+000 -1.433091e+000 -1.205821e+001 68 69 73
6.472909e-001 -3.024463e+000 -7.358385e+000 115 38 43
-1.076171e+000 -3.006282e+000 -8.536393e+000 209 202 192
-1.414594e+000 -3.293633e+000 -8.784725e+000 177 58 60
7.901484e-001 4.339799e+000 -7.585091e+000 28 24 25
-3.416325e-001 5.583879e+000 -9.425307e+000 65 64 69
1.481642e+000 1.387480e+000 -5.864954e+000 254 255 223
3.386592e-002 -1.399918e+000 -4.751330e+000 57 28 24
-4.288980e-001 -1.557314e+000 -4.596133e+000 116 61 41
-3.849139e+000 -1.102554e+000 -1.189244e+001 26 21 25
-1.691137e+000 -1.857613e+000 -8.815326e+000 211 211 201
-1.725034e+000 -2.116689e+000 -9.053354e+000 130 84 76
5.574678e-001 4.237553e+000 -7.909729e+000 202 86 87
-7.862189e-001 5.518766e+000 -9.889075e+000 34 29 33
1.964992e+000 1.445416e+000 -5.647440e+000 204 204 192
2.128730e+000 -1.774477e+000 -6.220963e+000 186 76 75
-8.855288e-001 -1.364511e+000 -4.510073e+000 64 29 23
1.376501e-001 -2.205329e+000 -7.547090e+000 133 119 103
-1.190855e+000 -2.563855e+000 -8.908517e+000 207 205 193
-1.189700e+000 5.019373e+000 -9.934596e+000 84 85 90
1.451522e+000 -1.226471e+000 -6.110024e+000 59 27 25
1.330670e+000 3.115252e+000 -6.733832e+000 88 82 56
-1.494001e+000 -6.142386e-001 -3.510548e+000 203 110 69
-4.087694e+000 -1.562136e+000 -1.241962e+001 66 65 71
3.792922e+000 4.126802e-001 -5.372465e+000 144 131 87
7.426457e-001 3.645085e+000 -8.317351e+000 228 228 220
-9.275036e-001 -9.154181e-001 -4.452452e+000 68 27 21
1.058413e+000 3.311709e+000 -6.862264e+000 118 107 75
1.352491e+000 3.490959e+000 -6.268667e+000 205 190 132
2.284806e+000 1.996669e+000 -5.869530e+000 210 204 194
2.284806e+000 1.996669e+000 -5.869530e+000 210 204 194
3.242128e+000 2.046587e+000 -5.899581e+000 102 99 106
-7.851357e-002 4.754097e-003 -5.388968e+000 156 147 106
-7.851357e-002 4.754097e-003 -5.388968e+000 156 147 106
2.649834e-001 1.248127e-001 -5.379296e+000 168 173 163
-9.135795e-002 1.525201e-001 -4.579948e+000 165 175 167
1.481164e-001 8.775785e-002 -4.745850e+000 158 162 151
1.481164e-001 8.775785e-002 -4.745850e+000 158 162 151
1.778134e+000 7.940443e-001 -4.648183e+000 216 217 209
-1.841280e+000 -3.542820e-001 -3.653966e+000 131 112 80
-1.518207e+000 -2.376757e-001 -3.639757e+000 140 75 49
1.650652e+000 3.375202e+000 -6.733092e+000 236 224 211
2.134728e+000 2.875135e+000 -6.098085e+000 207 198 187
4.451571e-002 6.196482e-001 -6.236008e+000 195 198 187
-8.508699e-001 -6.270912e-002 -4.608241e+000 212 122 75
1.648271e-001 1.868568e-001 -5.393844e+000 210 212 207
7.045802e-001 6.404595e-002 -5.133138e+000 153 156 147
-1.897846e+000 -5.250466e-001 -3.550715e+000 83 62 40
-1.836629e+000 -4.047576e-001 -3.612680e+000 160 145 89
-1.282641e+000 -3.482589e-001 -3.725578e+000 96 35 18
-1.815910e+000 -5.358199e-001 -3.553954e+000 143 120 76
-1.848041e+000 -6.046734e-001 -3.518537e+000 95 74 30
-3.966166e-002 -3.008664e-001 -4.249157e+000 174 92 68
-9.223877e-001 -4.586237e-001 -3.736957e+000 200 160 111
-1.327437e+000 -6.670223e-001 -3.429309e+000 145 63 33
1.972537e+000 -1.475929e+000 -6.008161e+000 136 78 55
1.102356e+000 2.443366e+000 -6.347079e+000 116 106 72
3.847187e-002 8.764545e-001 -6.739696e+000 231 234 223
-2.233799e-002 5.940894e-001 -6.303049e+000 199 200 187
2.584113e+000 1.821407e+000 -5.747691e+000 181 72 79
2.671286e+000 1.839132e+000 -5.801597e+000 169 77 81
3.480372e+000 2.104223e+000 -5.943116e+000 119 117 122
-1.319177e+000 -8.427622e-001 -8.854692e+000 190 192 179
-5.514274e-001 1.464461e-002 -4.199897e+000 163 148 126
-5.310813e-001 -5.281532e-002 -4.417181e+000 62 54 54
-2.197960e+000 -6.256817e-001 -3.861968e+000 158 143 71
-1.187331e+000 -3.079655e-001 -3.859099e+000 157 125 104
-1.187331e+000 -3.079655e-001 -3.859099e+000 157 125 104
-1.084272e+000 -3.168918e-001 -4.039443e+000 101 42 21
-7.944839e-001 -3.966462e-001 -4.315770e+000 200 158 117
-1.916994e+000 -6.557072e-001 -3.424267e+000 66 55 35
-8.917857e-001 -4.761598e-001 -3.780844e+000 153 115 69
9.935222e-001 3.412109e+000 -7.293258e+000 220 214 202
1.620644e+000 3.537233e+000 -6.760451e+000 237 214 199
1.828953e+000 3.458258e+000 -6.603913e+000 231 194 182
7.135816e-001 2.908005e+000 -7.240532e+000 196 193 183
1.886880e+000 2.857031e+000 -6.323183e+000 205 199 185
1.886880e+000 2.857031e+000 -6.323183e+000 205 199 185
1.180899e+000 1.691305e+000 -6.510139e+000 163 164 145
1.184655e+000 1.688145e+000 -6.531529e+000 163 164 145
1.309237e+000 1.623546e+000 -6.568552e+000 223 222 204
1.296735e+000 1.441958e+000 -6.273835e+000 117 111 79
4.105193e-001 7.679606e-001 -6.264176e+000 233 238 230
-2.004238e+000 -1.690021e+000 -9.254888e+000 163 60 55
-8.899060e-001 -1.478511e-001 -4.521482e+000 198 112 63
2.923854e+000 4.067315e-001 -5.833121e+000 47 37 42
-1.725496e+000 -3.919762e-001 -3.562634e+000 57 13 10
3.573041e-001 -3.571850e-002 -4.406189e+000 146 143 134
-5.968709e-001 -1.561741e+000 -4.210215e+000 159 80 31
8.454707e-001 2.729992e+000 -6.963755e+000 209 209 199
-1.095723e+000 1.751334e+000 -9.062682e+000 215 206 189
4.401425e-001 2.277504e+000 -7.282048e+000 186 186 178
1.447394e-001 1.842664e+000 -7.168175e+000 231 234 223
-1.895265e+000 -1.589284e+000 -9.313028e+000 182 66 63
-1.750614e+000 -1.594884e+000 -9.052581e+000 201 198 186
-9.273202e-001 -1.971737e-001 -4.479949e+000 139 49 23
-9.273202e-001 -1.971737e-001 -4.479949e+000 139 49 23
1.362278e-001 1.305915e-001 -4.888844e+000 183 186 177
-9.929447e-001 -3.716216e-001 -4.262994e+000 127 52 27
-1.907823e-001 -2.447776e-001 -4.298969e+000 202 160 117
1.852979e+000 3.496499e+000 -6.470643e+000 177 73 70
1.896467e+000 3.389008e+000 -6.429485e+000 231 219 207
-1.251178e+000 1.683523e+000 -9.245772e+000 202 71 73
-9.371587e-001 1.597300e+000 -8.837050e+000 235 238 229
2.311733e-001 1.505410e+000 -6.836759e+000 226 231 222
1.491651e+000 2.031340e+000 -6.076488e+000 159 150 106
-1.397464e+000 -3.699303e-001 -9.047146e+000 222 223 209
-6.043027e-002 5.193860e-001 -6.292834e+000 164 164 152
-2.478946e+000 -2.115664e+000 -1.013824e+001 53 52 56
-5.211373e-001 7.040372e-002 -5.041128e+000 184 107 70
2.794474e+000 7.566247e-001 -5.520416e+000 44 42 45
-1.972912e+000 -5.193475e-001 -3.486188e+000 30 19 19
-5.872124e-001 -6.159739e-001 -4.098175e+000 99 51 29
-2.049137e-001 -6.891293e-001 -4.440369e+000 174 132 91
-9.324487e-002 -1.195624e+000 -4.446500e+000 111 40 31
-4.175052e-001 -1.275111e+000 -4.100020e+000 125 55 30
1.624042e-002 1.574724e+000 -7.177689e+000 234 237 226
1.247386e+000 1.573212e+000 -6.398442e+000 229 232 220
-1.127816e+000 -3.483102e-001 -4.159607e+000 112 58 42
-4.695067e-001 -6.157234e-001 -4.200166e+000 172 137 96
-6.546599e-001 2.605802e+000 -8.540088e+000 163 60 60
1.320836e+000 2.546469e+000 -6.572440e+000 209 198 141
-1.168311e+000 9.683255e-002 -8.869731e+000 219 221 210
9.485867e-002 6.397730e-001 -6.504645e+000 232 235 224
-3.428190e-001 1.378496e-001 -4.338277e+000 158 159 145
-3.926696e-001 2.485673e-003 -4.236477e+000 157 78 65
-1.092134e-001 -4.545126e-001 -4.257788e+000 205 171 123
-1.485325e-001 -1.212640e+000 -4.271538e+000 178 89 47
-1.484780e-001 5.553019e-001 -6.852167e+000 178 180 169
-2.090559e+000 -6.534189e-001 -3.491855e+000 201 176 119
-2.055775e+000 -5.933783e-001 -3.408470e+000 201 176 119
1.181495e+000 -7.656032e-001 -5.475865e+000 198 198 180
-7.465208e-001 -9.552361e-001 -3.992046e+000 105 44 25
9.888557e-001 -7.670384e-001 -4.767836e+000 125 112 95
-1.034217e+000 -9.008153e-001 -3.297224e+000 27 17 18
-1.440749e-001 5.055340e-001 -6.987550e+000 177 181 167
-6.545723e-001 -2.762964e-001 -4.217813e+000 212 176 126
-6.317790e-001 -1.245608e+000 -4.075451e+000 145 69 33
-2.368637e-001 2.391890e-001 -5.403502e+000 200 202 195
6.295002e-001 -5.181263e-001 -5.294264e+000 53 40 34
2.519231e-001 -2.553992e-001 -4.255674e+000 174 174 161
-1.431680e+000 -7.051174e-001 -3.383894e+000 202 106 55
4.974815e-001 -9.079589e-001 -4.650474e+000 72 28 27
2.955488e+000 1.294961e+000 -5.650138e+000 219 216 207
-6.246627e-001 -7.423208e-001 -4.071309e+000 85 29 17
-6.246627e-001 -7.423208e-001 -4.071309e+000 85 29 17
1.417612e+000 1.769678e+000 -5.928935e+000 103 97 70
1.421008e+000 1.767975e+000 -5.941897e+000 103 97 70
-5.414474e-001 1.489250e-001 -4.910636e+000 157 92 63
1.711001e+000 -1.418298e-001 -5.340815e+000 102 85 60
-5.188686e-002 -7.531629e-001 -4.191072e+000 220 180 127
8.789200e-001 1.374153e+000 -7.008559e+000 232 238 231
3.487863e-001 9.028513e-001 -6.180566e+000 203 206 197
1.845230e+000 7.516701e-001 -5.353403e+000 202 204 193
-2.790395e+000 -1.017827e+000 -1.088785e+001 39 37 38
2.000621e+000 7.048622e-001 -5.497698e+000 208 210 197
-8.549438e-001 -4.812050e-001 -3.795586e+000 178 139 102
-3.196708e-001 -1.443072e+000 -4.515826e+000 104 42 21
7.525544e-002 9.893978e-001 -6.546339e+000 207 209 195
2.009141e+000 -7.418456e-001 -6.238903e+000 94 55 38
-4.110207e+000 -1.358131e+000 -1.185564e+001 80 79 84
-7.766082e-001 5.694302e-002 -4.640455e+000 153 84 50
-8.992732e-001 -3.181610e-001 -4.293225e+000 187 96 52
-6.147148e-001 1.544584e-003 -4.185394e+000 66 52 53
1.895522e+000 -6.954808e-001 -6.121088e+000 138 104 81
-9.705500e-001 2.631612e+000 -9.110001e+000 195 71 75
1.947298e+000 3.305969e+000 -6.339019e+000 194 185 168
2.483902e-001 1.821786e+000 -7.238699e+000 204 206 193
1.572495e+000 9.057934e-001 -5.670376e+000 221 224 213
2.604350e-001 -9.221266e-002 -4.604783e+000 127 123 111
-3.991376e-001 -1.261544e+000 -4.342246e+000 134 66 41
-1.584799e+000 1.972677e+000 -9.270337e+000 46 39 49
1.805727e-001 2.102458e-001 -5.140376e+000 189 192 179
-1.094802e+000 -3.145004e-001 -3.926167e+000 167 136 111
2.574418e+000 4.975514e-002 -5.924568e+000 163 68 65
-1.022919e+000 2.022198e+000 -8.787622e+000 232 233 227
1.849133e+000 3.376514e+000 -6.299238e+000 236 220 209
-2.674423e+000 -1.671284e+000 -1.068551e+001 37 25 32
-6.917289e-001 -4.421267e-001 -4.192346e+000 145 77 48
-2.392245e-001 -2.467613e-001 -4.293272e+000 200 151 108
-1.156464e+000 -7.410391e-001 -3.578561e+000 111 46 29
-2.209637e+000 7.455881e-001 -9.729332e+000 44 35 38
1.569025e+000 -1.267652e+000 -6.063627e+000 86 39 33
2.679923e+000 2.219721e+000 -5.477786e+000 47 30 35
1.407877e+000 1.349702e+000 -6.182591e+000 255 255 231
-1.102509e+000 -3.382845e-001 -4.543120e+000 183 95 47
-6.641694e-001 -4.489011e-003 -4.334869e+000 123 68 58
-1.206671e+000 -4.058820e-001 -3.799094e+000 100 63 44
2.509554e+000 7.075874e-002 -5.745652e+000 150 64 63
3.051547e+000 -1.064842e+000 -6.038871e+000 34 28 30
-7.057238e-001 1.712362e+000 -9.125922e+000 242 243 235
1.969632e+000 3.568723e-002 -5.795139e+000 103 86 76
-6.823629e-001 -1.183318e+000 -4.090336e+000 142 75 46
3.205832e+000 9.780085e-001 -5.874492e+000 98 98 103
2.924242e-001 -7.913415e-001 -4.545179e+000 118 62 61
9.394741e-001 3.657222e+000 -7.383793e+000 188 106 105
6.226025e-001 2.718607e+000 -7.121287e+000 209 210 202
1.995126e-001 5.668421e+000 -9.354037e+000 42 37 41
9.651797e-001 3.773395e+000 -7.368169e+000 169 80 73
1.015025e+000 -7.293566e-001 -5.698219e+000 196 200 190
-9.863866e-001 -2.129757e+000 -8.603192e+000 194 195 181
8.797420e-001 -7.934688e-001 -5.562135e+000 140 136 130
-2.063471e+000 -1.445405e+000 -9.534274e+000 192 60 61
-2.316152e+000 -1.613619e+000 -9.869209e+000 184 57 55
1.368439e+000 -2.115050e+000 -6.316594e+000 187 181 169
2.335018e+000 1.997833e+000 -5.807896e+000 201 186 174
-1.161054e-001 2.335052e-001 -5.487218e+000 188 193 185
-7.111333e-002 1.087769e-002 -4.335215e+000 183 185 174
1.614969e+000 3.446677e+000 -6.692358e+000 235 223 207
1.983799e-001 1.658214e+000 -6.922210e+000 209 211 198
1.277275e+000 1.963572e+000 -6.284117e+000 130 124 90
7.366990e-001 -9.707509e-002 -5.196482e+000 165 168 159
-1.329116e+000 -4.377746e-001 -3.509543e+000 171 94 60
-9.805679e-001 -6.388552e-001 -3.693037e+000 105 82 63
-6.403964e-001 -1.494607e+000 -4.148700e+000 55 26 18
1.616224e+000 3.578440e+000 -6.697476e+000 201 76 77
3.864649e-001 1.664853e+000 -6.895838e+000 199 202 192
3.864649e-001 1.664853e+000 -6.895838e+000 199 202 192
-5.225037e-001 3.450687e-002 -4.229340e+000 62 54 54
8.304556e-001 1.154280e+000 -6.621924e+000 211 215 200
-7.492805e-001 4.641713e-002 -4.794353e+000 141 79 49
-5.966988e-001 -1.571818e+000 -4.218869e+000 159 80 31
2.525860e+000 1.806855e-001 -5.808247e+000 178 73 73
1.857757e+000 -7.369134e-001 -5.916558e+000 117 51 45
-1.919007e+000 -7.853852e-001 -3.348474e+000 127 110 62
2.880386e+000 -8.447391e-001 -5.753327e+000 34 27 29
3.206229e+000 8.629562e-001 -5.866313e+000 60 61 66
-1.461666e+000 4.260483e+000 -9.977693e+000 77 78 83
3.260313e+000 -1.556481e+000 -5.531632e+000 40 35 41
2.454039e-001 -2.365758e+000 -7.391075e+000 81 60 55
1.885080e+000 1.854389e+000 -6.551544e+000 223 224 215
-1.142286e+000 4.725542e+000 -9.743353e+000 95 98 103
-1.348877e+000 4.122510e+000 -9.866477e+000 90 92 97
3.260259e+000 -7.003114e-001 -5.734784e+000 52 53 57
3.605571e+000 -9.652654e-001 -5.426126e+000 39 38 46
2.990011e+000 -8.265801e-001 -5.899188e+000 120 119 124
3.315029e+000 -1.168414e+000 -5.562571e+000 56 55 60
3.471362e+000 -1.129768e+000 -5.541095e+000 85 84 90
3.219303e+000 -1.475998e+000 -5.582949e+000 90 91 96
8.299761e-001 -7.737693e-001 -5.534380e+000 119 119 112
-4.383548e+000 1.274999e+000 -1.210004e+001 92 93 97
-4.247271e+000 1.320612e+000 -1.231253e+001 74 73 78
-1.085326e+000 -1.665234e+000 -8.420299e+000 177 168 159
-1.218992e+000 -2.513232e+000 -8.878930e+000 198 193 185
-4.077800e+000 -1.918009e+000 -1.183154e+001 72 71 77
3.143504e+000 3.308074e-001 -5.868412e+000 94 93 82
3.017745e+000 -3.186871e-001 -5.683260e+000 197 186 130
2.873597e+000 -5.656714e-001 -5.693849e+000 141 129 86
3.420300e+000 -9.758788e-001 -5.503841e+000 47 47 49
7.423544e-001 -4.777133e-001 -5.506842e+000 94 88 83
1.017813e+000 -5.738697e-001 -5.576554e+000 123 120 109
3.201139e+000 -1.535623e+000 -5.487312e+000 31 28 35
1.916400e+000 -1.047987e+000 -5.821184e+000 151 79 53
-5.645164e-002 -1.361128e+000 -4.484411e+000 145 92 75
-4.059640e+000 1.071612e+000 -1.199497e+001 73 72 77
-3.911055e+000 6.312037e-001 -1.231695e+001 59 57 60
-1.270920e-001 6.038623e+000 -9.117893e+000 65 63 66
3.416030e+000 -8.767020e-001 -5.315571e+000 37 36 41
3.222284e+000 -9.084551e-001 -5.654320e+000 41 40 45
9.595163e-001 -5.512967e-001 -5.559488e+000 153 154 143
-1.135498e+000 -6.167910e-001 -3.630908e+000 100 50 29
-2.198025e-001 -1.017397e+000 -4.183485e+000 126 73 42
-2.198025e-001 -1.017397e+000 -4.183485e+000 126 73 42
1.898050e+000 -1.205045e+000 -5.866677e+000 124 55 37
2.716755e+000 -1.699273e+000 -5.816234e+000 36 34 37
2.856344e+000 -1.799941e+000 -5.744570e+000 34 33 38
2.542417e+000 -1.654149e+000 -6.062147e+000 34 34 37
1.870405e-001 -2.014284e+000 -7.599287e+000 82 65 50
-1.166737e+000 -3.078759e+000 -8.516664e+000 192 70 73
7.063418e-001 2.115679e+000 -6.942019e+000 241 246 242
2.827136e+000 -1.366598e-001 -5.829541e+000 190 179 131
3.485223e+000 -1.205235e+000 -5.489054e+000 30 25 31
-1.000713e+000 -6.542821e-001 -3.720004e+000 87 60 56
-1.409112e-001 -1.996573e+000 -7.521157e+000 80 67 51
1.075029e+000 2.917919e+000 -6.891979e+000 216 212 209
3.607405e+000 3.309205e-001 -5.195971e+000 145 132 90
-1.558226e-001 5.038161e+000 -9.712815e+000 60 57 60
7.783724e-001 2.513167e+000 -7.060567e+000 210 211 205
1.232964e+000 9.705672e-001 -5.641972e+000 233 240 231
3.778375e+000 -6.268846e-001 -5.264455e+000 72 72 80
7.512667e-002 -2.917445e-001 -4.238946e+000 107 52 46
1.115182e+000 -6.891891e-001 -5.669802e+000 54 34 26
-1.433505e+000 -6.000769e-001 -3.461076e+000 174 86 55
-1.425246e+000 -6.162873e-001 -3.435487e+000 174 86 55
2.184117e+000 -1.574129e+000 -6.220973e+000 80 28 27
-1.964662e+000 -7.991993e-001 -3.369382e+000 93 77 43
-1.964662e+000 -7.991993e-001 -3.369382e+000 93 77 43
-6.386506e-001 -1.479266e+000 -4.160310e+000 167 97 54
-3.204422e-001 -1.753823e+000 -7.350000e+000 92 76 58
-3.617884e-001 -1.889032e+000 -7.465063e+000 184 185 175
1.149905e+000 2.218536e+000 -6.667339e+000 226 230 225
1.242762e+000 1.841465e+000 -6.630045e+000 221 228 218
-4.864423e-001 -6.783494e-001 -4.230213e+000 188 156 123
-2.124736e+000 -6.135278e-001 -3.463674e+000 98 85 41
-1.172133e+000 -1.023807e+000 -3.518044e+000 64 21 12
-1.326987e+000 -1.088991e+000 -3.593452e+000 70 27 21
-2.323278e+000 -1.550582e+000 -9.892372e+000 175 59 56
-1.563778e+000 4.862283e+000 -1.010939e+001 43 42 47
-1.618137e+000 -8.519817e-001 -3.483756e+000 65 28 22
-2.269982e-001 -2.062125e+000 -7.767438e+000 107 94 78
-3.912584e-001 -2.305276e+000 -8.088262e+000 211 211 200
-9.485987e-001 -5.522074e-001 -3.752981e+000 220 188 153
-1.856582e-002 -3.675310e+000 -7.728164e+000 20 14 18
-3.282522e-002 -9.355779e-001 -4.514162e+000 216 188 144
-1.937375e+000 -5.955261e-001 -3.480975e+000 95 80 51
-4.035752e+000 -1.583607e+000 -1.222543e+001 66 66 74
-2.676856e-001 3.360629e+000 -7.430533e+000 53 49 55
-2.091209e+000 -1.646209e+000 -9.473402e+000 153 55 57
5.858879e-001 6.158375e-001 -6.053609e+000 191 198 191
-1.765003e+000 -1.803669e+000 -8.358235e+000 178 72 69
2.211615e+000 -1.015108e+000 -6.175149e+000 158 58 56
2.699888e-001 1.610928e+000 -6.790572e+000 207 209 197
1.065068e-001 5.451016e-001 -5.963816e+000 203 206 195
3.257601e-002 -5.139611e-001 -4.328772e+000 137 78 38
5.221215e-001 3.075680e+000 -7.627695e+000 241 239 227
2.777065e+000 -7.578673e-001 -5.423852e+000 31 25 27
-9.279130e-001 -2.177873e+000 -8.561393e+000 197 198 184
1.421547e+000 -2.100395e+000 -6.252871e+000 183 181 169
2.011004e+000 1.154914e+000 -5.724639e+000 218 221 212
2.011004e+000 1.154914e+000 -5.724639e+000 218 221 212
2.561496e+000 -7.727575e-001 -5.810272e+000 183 80 78
2.958564e+000 -1.106145e+000 -5.712577e+000 49 49 51
2.458610e+000 -1.629531e+000 -6.133246e+000 38 24 26
1.032583e+000 -1.889258e+000 -6.719228e+000 86 70 56
-3.144086e-001 -1.583716e+000 -7.180417e+000 159 155 144
3.078046e+000 -1.458549e+000 -5.590531e+000 47 46 52
2.944793e+000 -1.742806e+000 -5.696265e+000 40 39 44
-2.491511e-001 -1.409758e+000 -4.560127e+000 82 37 24
-1.869945e-001 -1.721936e+000 -7.252662e+000 99 77 66
1.929816e+000 -1.531994e+000 -6.114586e+000 188 141 123
-3.524043e+000 -1.145749e+000 -1.159294e+001 42 36 40
-1.224642e+000 -1.230378e+000 -4.339848e+000 177 60 52
-2.993873e+000 -9.219560e-001 -1.123056e+001 42 38 39
-9.931575e-001 6.052196e-001 -8.883180e+000 207 208 194
-2.285522e+000 -1.168878e+000 -9.780640e+000 180 58 56
1.951984e+000 3.246547e+000 -6.603927e+000 204 192 174
-8.427325e-001 -4.028606e-001 -7.915430e+000 195 191 179
2.685800e+000 2.332685e+000 -5.510157e+000 140 60 58
1.004699e+000 9.294443e-001 -5.795276e+000 138 133 96
1.633278e+000 1.378686e+000 -5.959267e+000 207 204 185
-7.266972e-001 2.441550e-001 -4.722175e+000 139 73 51
-1.489053e-001 6.526380e-003 -5.336442e+000 128 118 91
-1.489053e-001 6.526380e-003 -5.336442e+000 128 118 91
-6.690978e-001 -1.579639e-002 -4.338150e+000 111 47 39
-6.414790e-001 2.657784e-002 -4.254888e+000 121 85 72
-4.717177e-001 8.687490e-002 -4.121142e+000 106 80 49
-4.717177e-001 8.687490e-002 -4.121142e+000 106 80 49
3.365006e-002 7.570694e-002 -4.897247e+000 153 152 143
8.463611e-002 1.763502e-001 -4.629711e+000 159 158 149
1.797461e-001 2.086878e-001 -4.785795e+000 158 160 149
-4.276133e-001 4.256372e-002 -4.191518e+000 159 104 82
3.781283e+000 1.229521e+000 -5.811401e+000 49 43 47
3.868780e+000 1.260242e+000 -5.722686e+000 34 28 32
3.056436e+000 -1.672084e-001 -5.920789e+000 133 115 75
3.652475e+000 5.319138e-001 -5.534384e+000 69 63 67
3.727137e+000 7.854674e-001 -5.597959e+000 32 26 28
3.926162e+000 8.162934e-001 -5.601425e+000 30 24 28
1.348739e+000 -1.009738e+000 -5.564010e+000 133 99 86
1.434838e+000 -1.085520e+000 -5.721192e+000 128 85 76
-3.293983e-001 -1.289967e+000 -4.360139e+000 105 44 26
1.981869e+000 -1.588165e+000 -6.178177e+000 172 118 87
3.792561e+000 6.910057e-002 -4.725532e+000 104 89 76
1.384691e+000 3.757525e+000 -6.746711e+000 213 191 131
1.107598e+000 2.519237e+000 -6.494253e+000 135 123 88
5.983463e-001 8.921258e-001 -6.335322e+000 199 201 187
-1.714483e+000 -1.359149e+000 -7.760054e+000 178 75 79
2.662792e-001 6.366597e-001 -6.303060e+000 187 188 172
-3.603447e-001 2.947124e-002 -5.508559e+000 151 143 132
-4.527193e-002 2.954336e-002 -5.256119e+000 86 80 47
-1.207661e+000 -3.841977e-001 -4.435444e+000 126 60 31
-6.367503e-001 2.460763e-003 -4.230741e+000 43 30 24
-5.952231e-001 6.315762e-002 -4.164927e+000 133 120 111
-5.557940e-001 9.227930e-002 -4.211026e+000 141 111 99
-5.176079e-001 7.391568e-002 -4.247150e+000 70 37 24
2.817825e-001 1.407740e-001 -4.918166e+000 186 187 179
-1.836590e+000 -5.257084e-001 -3.740397e+000 85 49 31
3.251827e-001 -2.436019e-002 -4.687842e+000 119 113 101
-1.799228e+000 -7.969216e-001 -3.512002e+000 128 95 63
3.766224e+000 7.625954e-001 -5.705894e+000 60 55 59
3.976960e+000 1.091047e+000 -5.762253e+000 53 43 51
4.133317e+000 1.253378e+000 -5.630469e+000 49 40 43
-1.719011e+000 -7.979224e-001 -3.357410e+000 129 105 73
-1.135833e+000 -9.459730e-001 -3.298143e+000 41 14 8
2.144470e+000 -1.561606e+000 -5.981878e+000 144 63 50
1.515869e+000 3.578015e+000 -6.649834e+000 186 87 75
-6.565778e-001 1.313182e+000 -8.718053e+000 213 210 195
1.606575e+000 2.900609e+000 -6.387504e+000 212 198 149
1.726205e-001 1.562647e+000 -7.192789e+000 185 185 173
1.117783e-001 8.797189e-001 -6.717264e+000 218 220 206
-8.999289e-001 -6.889439e-001 -8.327392e+000 211 212 198
-3.859144e-001 9.054310e-002 -7.024952e+000 182 183 169
-1.321191e+000 -1.496788e+000 -8.354077e+000 184 176 158
1.619737e+000 1.476674e+000 -6.072024e+000 142 128 93
2.365657e+000 1.969326e+000 -5.795733e+000 141 70 70
-5.070401e-001 1.669405e-001 -5.285717e+000 141 85 63
1.207382e+000 8.334270e-001 -5.662318e+000 126 121 88
-4.503697e-001 -1.482855e-003 -5.092667e+000 78 40 27
-1.033005e-001 1.765373e-001 -4.628504e+000 190 189 178
-6.820274e-001 -1.564950e-002 -4.222752e+000 164 129 106
-4.816320e-001 9.613091e-002 -4.175161e+000 167 117 96
-1.098584e+000 -3.340136e-001 -3.908602e+000 172 155 143
-1.021210e+000 -2.799324e-001 -4.049792e+000 143 77 51
-9.426033e-001 -4.164276e-001 -4.130391e+000 112 47 16
-4.844107e-001 3.009804e-002 -4.145842e+000 166 151 123
-3.024376e-001 -8.597803e-002 -4.203579e+000 172 113 82
9.899773e-001 -6.902909e-001 -5.604952e+000 184 175 162
1.750936e+000 -5.249136e-001 -5.924180e+000 75 44 23
1.814034e+000 -7.576341e-001 -5.997304e+000 149 113 83
1.838892e+000 -6.844643e-001 -5.956765e+000 92 36 34
1.940505e+000 3.035555e+000 -7.202977e+000 221 216 204
1.619931e+000 2.688698e+000 -6.367947e+000 254 252 201
1.758634e+000 2.686401e+000 -6.421925e+000 226 225 213
-1.109179e+000 3.725121e-001 -9.018617e+000 197 198 182
-1.109179e+000 3.725121e-001 -9.018617e+000 197 198 182
1.462091e+000 1.788746e+000 -6.870359e+000 145 132 97
-4.703942e-001 -4.435806e-002 -6.964287e+000 211 211 198
1.167150e+000 1.121777e+000 -5.979438e+000 178 167 120
-4.438164e-001 1.997346e-001 -5.458381e+000 189 182 173
3.862814e-001 3.514499e-001 -5.109132e+000 163 165 152
-1.721791e+000 -4.088469e-001 -3.882823e+000 140 83 50
-2.766802e-001 1.224385e-001 -4.407848e+000 174 174 158
-1.655093e-001 9.319887e-002 -4.453350e+000 161 158 143
-1.809126e+000 -2.473209e-001 -3.401998e+000 48 28 18
-1.809126e+000 -2.473209e-001 -3.401998e+000 48 28 18
4.103916e-001 -1.085218e-001 -4.824172e+000 143 135 122
5.634773e-001 -2.303263e-001 -5.094551e+000 141 133 121
1.864673e+000 -6.363355e-001 -6.029318e+000 151 113 91
1.362985e+000 -8.118427e-001 -5.711411e+000 147 77 66
1.735166e+000 -8.235167e-001 -6.022228e+000 87 38 24
3.713339e+000 5.524715e-001 -5.631067e+000 27 21 25
-3.975209e-001 -1.250002e+000 -4.329933e+000 137 69 49
-3.540044e-001 -1.236626e+000 -4.389728e+000 97 30 16
1.921531e+000 -1.661595e+000 -6.238643e+000 164 71 63
-6.560181e-001 -1.435303e+000 -4.108939e+000 41 17 15
3.744611e+000 -1.346075e-001 -4.918996e+000 24 12 11
2.026577e+000 3.342740e+000 -6.205878e+000 215 193 175
1.697586e+000 2.893494e+000 -6.301594e+000 228 219 210
1.570073e+000 2.694522e+000 -6.446914e+000 173 159 110
1.860504e+000 2.773778e+000 -6.743864e+000 222 222 206
-1.184310e+000 -8.277952e-001 -8.281548e+000 222 220 208
-2.453534e-001 -5.027524e-002 -5.366739e+000 59 50 33
-7.468496e-001 -6.501599e-002 -4.685617e+000 101 38 24
2.988599e-001 1.488690e-001 -5.232183e+000 139 140 124
-1.934267e+000 -6.415135e-001 -3.379620e+000 76 58 50
2.270987e+000 1.613244e-001 -5.646962e+000 63 37 33
-1.766514e+000 -6.552035e-001 -3.273611e+000 65 55 53
-7.366145e-001 -4.445311e-001 -3.781077e+000 164 127 87
1.239144e+000 -5.046627e-001 -5.430948e+000 93 47 39
-3.310147e-001 -1.116856e+000 -4.486479e+000 77 23 15
1.357697e+000 3.939188e+000 -6.819014e+000 255 255 193
1.817641e+000 3.562068e+000 -6.781069e+000 200 76 74
-1.357022e+000 1.194678e+000 -9.464243e+000 219 210 190
1.896531e-001 1.533258e+000 -7.952940e+000 190 187 172
1.260324e+000 1.770682e+000 -6.247363e+000 113 103 70
-1.294726e+000 -8.887081e-001 -8.678964e+000 193 191 177
-2.938484e-001 2.562277e-001 -6.522917e+000 217 217 204
1.423367e-001 6.804184e-001 -6.124839e+000 214 216 204
-5.147336e-001 1.066837e-001 -4.961855e+000 161 97 62
-5.592856e-002 1.854189e-001 -5.313878e+000 197 198 186
-1.736958e+000 -7.225171e-001 -3.499724e+000 62 15 14
1.754085e+000 -8.167326e-001 -5.817354e+000 181 147 105
-5.352660e-001 -1.487731e+000 -4.271742e+000 30 23 26
-5.352660e-001 -1.487731e+000 -4.271742e+000 30 23 26
3.997216e+000 -6.237851e-001 -5.311019e+000 46 37 42
4.457065e-002 1.207433e+000 -7.681417e+000 226 227 215
1.161471e+000 1.294933e+000 -5.944613e+000 141 136 97
1.861850e-001 1.483759e-001 -4.616875e+000 138 138 128
-1.090304e+000 -3.819429e-001 -3.863340e+000 52 36 35
-6.549103e-001 -7.240568e-001 -4.078696e+000 93 33 22
1.242983e+000 3.241311e+000 -6.936152e+000 166 149 105
3.720888e-001 5.751027e-001 -7.184686e+000 191 193 179
9.024870e-001 7.358038e-001 -5.747879e+000 110 104 76
9.024870e-001 7.358038e-001 -5.747879e+000 110 104 76
1.140020e-001 1.237545e-001 -5.131552e+000 110 101 68
3.198917e+000 -1.589952e-001 -5.812372e+000 83 65 41
-1.338764e-001 -1.230211e+000 -4.352737e+000 152 77 39
3.299806e-001 2.066325e+000 -6.969541e+000 205 203 191
-1.604393e+000 -1.594374e+000 -8.329698e+000 207 198 180
-2.381621e-001 8.057806e-002 -5.431265e+000 194 192 178
-1.218001e+000 -3.729576e-001 -3.612937e+000 104 46 32
1.075304e+000 -1.068170e+000 -5.328528e+000 139 112 93
