ply
format ascii 1.0
element face 0
property list uchar int vertex_indices
element vertex 886
property float x
property float y
property float z
property uchar diffuse_red
property uchar diffuse_green
property uchar diffuse_blue
end_header
1.178647e-001 2.729445e+000 -7.964193e+000 179 65 61
-1.038952e+000 3.389411e+000 -9.431463e+000 62 61 66
2.108172e+000 1.615677e+000 -5.752395e+000 112 49 52
-3.914375e-001 -8.157551e-001 -4.321643e+000 74 31 26
-3.914375e-001 -8.157551e-001 -4.321643e+000 74 31 26
6.412131e-001 2.602826e+000 -7.373252e+000 226 223 212
-8.691569e-001 2.239250e+000 -8.727494e+000 51 49 54
7.978253e-001 2.484246e+000 -6.437355e+000 229 223 211
-8.794323e-001 4.075999e+000 -9.062928e+000 76 75 81
-8.404977e-001 4.067633e+000 -9.102724e+000 53 54 59
-8.404977e-001 4.067633e+000 -9.102724e+000 53 54 59
-8.306343e-001 3.886262e+000 -9.028701e+000 62 61 66
-5.705714e-001 3.861818e+000 -9.108709e+000 56 55 61
-2.097600e-001 3.655944e+000 -9.147333e+000 81 80 86
-2.836444e-001 3.296498e+000 -9.018164e+000 94 92 98
-4.469268e-001 3.127594e+000 -9.042500e+000 91 90 95
2.952805e+000 1.662268e+000 -5.873082e+000 63 63 69
3.099989e+000 1.592937e+000 -5.832953e+000 59 58 64
2.832780e+000 1.497854e+000 -5.949428e+000 146 145 150
3.187888e+000 1.393347e+000 -5.879304e+000 81 80 85
3.237148e+000 1.397892e+000 -5.788179e+000 52 49 56
3.322301e+000 1.405611e+000 -5.777602e+000 82 81 86
3.652188e+000 1.328221e+000 -5.720865e+000 41 39 44
3.905877e+000 1.260514e+000 -5.667487e+000 48 44 51
2.692302e+000 1.461905e+000 -6.009875e+000 128 127 133
3.138984e+000 1.357562e+000 -5.944546e+000 46 45 51
3.130001e+000 1.310387e+000 -5.862498e+000 59 57 64
3.115667e+000 1.219637e+000 -5.870441e+000 77 76 82
3.188297e+000 1.222387e+000 -5.828007e+000 76 75 81
3.188297e+000 1.222387e+000 -5.828007e+000 76 75 81
3.396252e+000 1.298430e+000 -5.722774e+000 39 37 40
3.453547e+000 1.308293e+000 -5.710681e+000 67 64 71
3.603937e+000 1.268714e+000 -5.644758e+000 62 60 65
3.603937e+000 1.268714e+000 -5.644758e+000 62 60 65
3.933348e+000 1.205642e+000 -5.588971e+000 48 43 49
2.812139e+000 9.280058e-001 -5.903657e+000 61 62 66
2.836809e+000 9.238250e-001 -5.886741e+000 90 90 98
2.984950e+000 1.037488e+000 -5.929723e+000 80 79 85
3.376858e+000 8.878577e-001 -5.766564e+000 55 54 59
1.648302e+000 9.657843e-001 -5.935462e+000 212 218 208
2.939436e+000 8.275089e-001 -5.863696e+000 73 74 79
2.872192e+000 7.409921e-001 -5.819947e+000 61 62 67
3.232562e+000 7.297601e-001 -5.809657e+000 63 62 68
3.232562e+000 7.297601e-001 -5.809657e+000 63 62 68
3.383664e+000 6.571979e-001 -5.766334e+000 53 52 57
3.518919e+000 7.236654e-001 -5.744525e+000 47 44 51
2.668124e+000 5.998590e-001 -5.966365e+000 65 65 69
2.706695e+000 5.872600e-001 -5.981830e+000 56 57 59
2.999621e+000 6.702526e-001 -5.798964e+000 49 50 54
2.931731e+000 6.041703e-001 -5.914381e+000 49 50 54
3.005889e+000 5.988542e-001 -5.807847e+000 63 63 67
3.085496e+000 6.349412e-001 -5.791988e+000 60 58 63
3.085496e+000 6.349412e-001 -5.791988e+000 60 58 63
2.684878e+000 4.800268e-001 -5.920391e+000 55 58 63
2.768872e+000 5.134876e-001 -5.848515e+000 100 104 107
2.941662e+000 4.914948e-001 -5.834773e+000 79 78 83
2.821967e+000 3.471468e-001 -5.870247e+000 52 55 57
2.937210e+000 3.929376e-001 -5.800145e+000 66 65 70
3.014607e+000 4.210087e-001 -5.803499e+000 72 71 79
3.014607e+000 4.210087e-001 -5.803499e+000 72 71 79
3.026019e+000 4.058280e-001 -5.756131e+000 45 43 54
2.552386e+000 3.402946e-001 -5.972961e+000 66 64 70
2.617196e+000 2.154185e-001 -6.018543e+000 57 55 62
2.708856e+000 2.883124e-001 -5.871640e+000 52 53 57
2.722679e+000 2.612565e-001 -5.934272e+000 103 104 108
2.555313e+000 7.940571e-002 -6.010365e+000 76 69 76
-3.109689e+000 5.531420e-001 -1.063802e+001 57 56 61
-5.233203e-001 7.140840e-002 -5.235859e+000 132 70 46
-5.250695e-001 4.970053e-003 -5.041402e+000 172 87 57
6.259142e-001 -8.928917e-002 -5.374463e+000 214 220 213
6.356214e-001 -1.321256e-001 -5.354386e+000 169 175 168
6.846347e-001 -1.546100e-001 -5.373619e+000 180 184 177
-5.231333e-001 -6.550555e-002 -5.193769e+000 80 42 28
3.088094e+000 -5.517270e-001 -5.599851e+000 46 44 47
3.398453e+000 -4.565178e-001 -5.427916e+000 43 40 47
-9.600403e-001 -2.753705e-001 -4.299139e+000 106 71 70
2.661756e+000 -6.872560e-001 -5.901869e+000 63 60 64
2.831255e+000 -6.726730e-001 -5.808208e+000 50 42 53
3.222068e+000 -6.245012e-001 -5.533206e+000 60 61 65
3.129303e+000 -7.378057e-001 -5.547315e+000 55 54 60
3.186171e+000 -6.933633e-001 -5.501860e+000 99 98 106
-8.307466e-001 -4.106095e-001 -4.462157e+000 137 85 66
9.538805e-001 -6.162432e-001 -5.727479e+000 124 121 112
2.439986e+000 -7.638647e-001 -5.988010e+000 75 79 77
2.454777e+000 -7.666992e-001 -6.030160e+000 75 79 77
2.709291e+000 -7.472435e-001 -5.876904e+000 94 93 98
2.687428e+000 -7.871739e-001 -5.844196e+000 47 46 51
2.981017e+000 -7.469358e-001 -5.627487e+000 53 51 56
3.071697e+000 -8.056523e-001 -5.589549e+000 46 44 49
3.157576e+000 -7.790644e-001 -5.653296e+000 95 94 99
-1.282372e+000 -4.544810e-001 -4.150275e+000 113 66 60
2.486205e+000 -8.846244e-001 -5.934031e+000 83 82 85
2.684254e+000 -9.680286e-001 -5.877392e+000 45 44 49
2.660881e+000 -1.001340e+000 -5.844058e+000 43 42 47
2.712579e+000 -1.044382e+000 -5.793160e+000 62 60 65
3.027930e+000 -9.358191e-001 -5.494491e+000 29 27 32
2.941731e+000 -1.050025e+000 -5.567479e+000 31 29 34
-1.584018e+000 -5.488716e-001 -4.083923e+000 171 157 111
2.675660e+000 -1.210596e+000 -5.759930e+000 53 51 56
-1.016748e+000 -6.599947e-001 -4.067079e+000 139 70 47
-3.676118e-001 -1.110609e+000 -4.574001e+000 118 58 47
7.154044e-002 -1.198931e+000 -4.820504e+000 170 70 62
1.360534e+000 2.815054e+000 -6.533514e+000 175 90 79
-9.423770e-001 4.137399e+000 -9.323799e+000 56 55 62
-8.624172e-001 4.024889e+000 -9.156975e+000 89 88 94
-6.424615e-001 3.929454e+000 -9.203649e+000 47 46 52
-9.324139e-001 3.339143e+000 -9.269970e+000 73 72 77
2.767514e+000 1.742465e+000 -6.048830e+000 53 52 57
2.940981e+000 1.615883e+000 -5.937955e+000 143 143 150
3.112590e+000 1.664614e+000 -5.882390e+000 54 49 56
3.265110e+000 1.556861e+000 -5.833434e+000 52 53 58
3.032842e+000 1.565585e+000 -5.874007e+000 147 146 152
3.110240e+000 1.561787e+000 -5.869774e+000 143 142 148
3.125329e+000 1.528736e+000 -5.808047e+000 57 55 60
3.182253e+000 1.446601e+000 -5.795328e+000 58 57 63
3.212376e+000 1.372821e+000 -5.769644e+000 45 41 48
3.212376e+000 1.372821e+000 -5.769644e+000 45 41 48
2.751182e+000 1.427024e+000 -5.991757e+000 160 161 165
2.699962e+000 1.348436e+000 -5.990937e+000 146 147 152
2.786825e+000 1.400106e+000 -5.943037e+000 60 63 68
2.861428e+000 1.407306e+000 -5.911071e+000 57 56 62
2.899820e+000 1.304150e+000 -5.917756e+000 107 109 114
2.980352e+000 1.396064e+000 -5.879522e+000 115 116 121
2.999651e+000 1.280210e+000 -5.833712e+000 48 47 53
3.296995e+000 1.198017e+000 -5.760724e+000 58 56 61
3.533369e+000 1.314335e+000 -5.790989e+000 37 35 40
3.549663e+000 1.248185e+000 -5.622403e+000 36 34 39
3.634900e+000 1.238466e+000 -5.649924e+000 32 30 35
4.263779e-001 1.871033e+000 -7.359340e+000 213 214 202
2.883908e+000 1.178452e+000 -5.914475e+000 105 106 111
2.839228e+000 1.078543e+000 -5.886115e+000 56 57 62
2.839228e+000 1.078543e+000 -5.886115e+000 56 57 62
3.008640e+000 1.151697e+000 -5.880275e+000 84 83 88
2.973942e+000 1.117741e+000 -5.896926e+000 49 50 54
3.128732e+000 1.179421e+000 -5.878188e+000 44 43 48
3.191692e+000 1.132607e+000 -5.879380e+000 42 41 46
3.163961e+000 1.118393e+000 -5.819997e+000 42 41 46
3.203751e+000 1.113740e+000 -5.801168e+000 64 62 67
3.284108e+000 1.066797e+000 -5.796011e+000 63 62 67
3.496254e+000 8.202068e-001 -5.755863e+000 37 35 40
3.121547e+000 7.024172e-001 -5.817330e+000 45 44 50
3.415946e+000 7.238065e-001 -5.766675e+000 35 34 39
3.415946e+000 7.238065e-001 -5.766675e+000 35 34 39
2.941741e+000 5.437058e-001 -5.839154e+000 49 50 54
3.137030e+000 6.227359e-001 -5.825020e+000 41 39 44
3.137030e+000 6.227359e-001 -5.825020e+000 41 39 44
2.807244e+000 4.751481e-001 -5.942087e+000 99 103 106
2.671379e+000 4.052635e-001 -5.840997e+000 55 55 63
2.734795e+000 3.917164e-001 -5.920035e+000 106 107 111
2.755747e+000 3.530000e-001 -5.892074e+000 59 60 65
3.089445e+000 4.080184e-001 -5.741553e+000 61 58 54
2.948100e+000 2.903579e-001 -5.784433e+000 62 57 49
2.835736e+000 2.211378e-001 -5.909963e+000 50 49 49
3.128657e+000 -1.078426e-001 -4.980524e+000 133 120 82
3.668701e-001 -1.549598e-001 -4.992365e+000 116 116 108
4.594628e-001 -2.083805e-001 -5.110912e+000 125 123 116
5.437603e-001 -2.362182e-001 -5.248946e+000 141 140 132
3.156613e+000 -5.263262e-001 -5.435677e+000 37 35 40
3.301844e+000 -5.282326e-001 -5.580596e+000 47 46 51
2.711266e+000 -7.023055e-001 -5.865372e+000 43 41 49
2.803283e+000 -6.640236e-001 -5.856646e+000 101 96 102
2.934362e+000 -6.325086e-001 -5.932562e+000 45 43 46
2.919840e+000 -6.030076e-001 -5.777139e+000 85 83 86
3.049616e+000 -6.559302e-001 -5.577386e+000 32 30 35
-7.971573e-001 -4.312910e-001 -4.478803e+000 109 51 31
-5.929334e-001 -4.387686e-001 -4.589362e+000 213 119 75
1.331447e-001 -4.533405e-001 -4.646201e+000 210 179 143
1.331447e-001 -4.533405e-001 -4.646201e+000 210 179 143
2.518761e+000 -8.615997e-001 -5.947940e+000 49 47 48
2.671917e+000 -7.348163e-001 -5.880523e+000 47 46 51
2.915467e+000 -7.373083e-001 -5.562929e+000 34 33 38
4.747650e-001 -6.221585e-001 -4.691476e+000 80 67 59
1.819435e+000 -8.579217e-001 -6.099714e+000 188 75 72
2.660042e+000 -9.281385e-001 -5.856088e+000 93 92 97
2.740293e+000 -1.055670e+000 -5.772994e+000 43 41 46
2.879775e+000 -1.048703e+000 -5.629130e+000 76 74 79
2.695838e+000 -1.194465e+000 -5.725415e+000 39 37 42
-9.896070e-001 -7.076882e-001 -4.028440e+000 149 74 55
-7.618404e-001 -7.592204e-001 -4.116602e+000 125 68 61
-7.152700e-001 -7.643485e-001 -4.180368e+000 53 30 28
-6.532562e-001 -7.839544e-001 -4.189380e+000 139 91 56
4.020339e-001 -9.497302e-001 -4.956383e+000 85 76 65
-1.599717e+000 -7.367286e-001 -3.963632e+000 205 184 126
-1.572296e+000 -7.305878e-001 -3.988256e+000 171 148 95
-1.046661e+000 -7.736603e-001 -3.952793e+000 204 113 68
-9.549819e-001 -9.010909e-001 -3.953818e+000 160 77 32
-9.664492e-001 -9.329070e-001 -4.004119e+000 156 86 56
-8.835680e-001 -9.527411e-001 -3.933043e+000 106 59 51
1.741913e-001 -1.222237e+000 -4.999324e+000 164 129 123
-2.392043e-001 -1.616625e+000 -5.029764e+000 219 202 192
3.044737e-002 3.807818e+000 -8.894533e+000 92 81 90
3.798415e-001 3.353639e+000 -7.679093e+000 174 64 70
8.688215e-001 2.948568e+000 -7.003847e+000 171 81 80
1.705449e+000 2.587284e+000 -6.288052e+000 194 187 174
2.827857e+000 1.813148e+000 -6.075740e+000 52 51 56
3.021083e+000 1.614626e+000 -5.934001e+000 62 63 68
2.731367e+000 1.472221e+000 -5.989652e+000 56 58 61
2.981854e+000 1.498494e+000 -5.897884e+000 143 142 148
3.094747e+000 1.456394e+000 -5.863700e+000 113 114 119
3.374602e+000 1.431742e+000 -5.789550e+000 50 49 55
3.427692e+000 1.353094e+000 -5.718634e+000 47 45 51
3.777697e+000 1.274577e+000 -5.564019e+000 34 29 36
3.906576e+000 1.239606e+000 -5.596547e+000 93 89 96
3.906576e+000 1.239606e+000 -5.596547e+000 93 89 96
2.334282e+000 1.449020e+000 -5.849639e+000 168 66 77
2.740554e+000 1.235365e+000 -5.896987e+000 57 58 63
2.873691e+000 1.227034e+000 -5.981956e+000 52 53 58
3.206621e+000 1.173167e+000 -5.824912e+000 38 37 42
3.346343e+000 1.169103e+000 -5.837886e+000 35 33 38
3.359839e+000 1.062385e+000 -5.738295e+000 35 33 38
2.905111e+000 1.071096e+000 -5.966532e+000 94 92 95
2.879081e+000 9.248470e-001 -5.862712e+000 51 50 56
3.162157e+000 9.151929e-001 -5.796471e+000 40 39 44
3.228190e+000 8.303151e-001 -5.792808e+000 39 38 44
3.539364e+000 9.105360e-001 -5.827718e+000 33 31 36
1.200390e+000 1.015410e+000 -6.199912e+000 195 192 143
1.710827e+000 9.496755e-001 -5.867780e+000 230 236 226
2.917409e+000 8.479672e-001 -5.906732e+000 53 54 59
2.775198e+000 6.844524e-001 -5.859504e+000 58 57 62
2.971326e+000 4.434444e-001 -5.802005e+000 45 44 43
2.608667e+000 3.415511e-001 -6.006838e+000 52 51 57
6.149989e-001 2.934221e-001 -6.052167e+000 221 225 219
2.641204e+000 1.459457e-001 -5.950203e+000 53 57 54
3.200751e+000 -7.128155e-002 -5.033586e+000 236 223 169
3.200758e+000 -7.160918e-002 -5.033610e+000 236 223 169
2.278909e+000 -1.497150e-001 -5.976981e+000 89 68 48
3.157445e+000 -5.961971e-001 -5.526530e+000 36 35 40
3.300804e+000 -6.593040e-001 -5.506202e+000 26 24 29
2.617136e+000 -7.419861e-001 -5.945217e+000 98 98 101
2.612099e+000 -7.800346e-001 -5.829970e+000 45 44 49
2.620895e+000 -7.817360e-001 -5.854458e+000 45 44 49
2.762806e+000 -1.187445e+000 -5.683548e+000 40 38 43
1.463838e+000 2.867196e+000 -6.626550e+000 200 75 79
9.569632e-002 3.825498e+000 -8.765284e+000 29 28 24
2.895493e+000 1.512301e+000 -5.957003e+000 57 56 62
3.049499e+000 1.407779e+000 -5.878092e+000 49 49 55
3.154134e+000 1.436210e+000 -5.849527e+000 50 51 55
2.811459e+000 1.442475e+000 -5.959876e+000 54 56 61
3.062888e+000 1.264201e+000 -5.810489e+000 40 42 47
3.314459e+000 1.355252e+000 -5.814757e+000 39 38 42
2.999515e+000 1.220613e+000 -5.899537e+000 48 49 53
3.296789e+000 9.944126e-001 -5.741862e+000 36 34 39
3.292279e+000 9.919353e-001 -5.731337e+000 36 34 39
3.443136e+000 1.150298e+000 -5.826350e+000 29 27 32
2.826703e+000 2.348456e-001 -5.689490e+000 51 49 53
-5.816123e-001 -7.931874e-002 -5.131416e+000 121 48 26
-1.304322e+000 -7.052783e-001 -4.000326e+000 66 21 17
5.515875e-001 3.135145e-001 -6.094800e+000 177 179 164
5.515875e-001 3.135145e-001 -6.094800e+000 177 179 164
-6.663650e-001 -4.425399e-001 -4.486701e+000 183 107 72
1.346934e+000 -8.527962e-001 -6.019644e+000 216 188 142
-1.920902e-001 -8.494847e-001 -4.670836e+000 137 95 64
-2.157080e-001 -9.114226e-001 -4.581779e+000 178 102 66
1.886769e+000 -1.709364e+000 -6.191714e+000 38 27 30
-4.321456e-002 4.034664e+000 -8.994062e+000 61 56 60
1.987507e-002 2.954914e+000 -8.102562e+000 191 75 69
2.910183e-001 1.432897e+000 -6.940544e+000 235 238 227
3.070554e+000 3.187499e-001 -5.634211e+000 122 112 76
-6.837258e-001 -3.854750e-001 -4.673533e+000 207 122 69
-3.829775e-001 -7.368278e-001 -4.606556e+000 100 59 39
-6.113506e-002 -2.952735e+000 -7.515209e+000 207 202 193
3.301187e+000 2.478033e-001 -5.426355e+000 47 45 50
-1.200344e+000 -1.016745e+000 -4.167785e+000 158 86 49
7.817750e-001 3.218746e+000 -7.238278e+000 195 89 94
7.947028e-001 3.258289e+000 -7.323699e+000 195 89 94
6.277631e-001 1.254861e-001 -5.621381e+000 221 225 216
-7.098114e-001 -4.959671e-001 -4.446754e+000 211 181 131
5.592336e-001 3.246845e+000 -7.416124e+000 204 91 90
2.892076e+000 4.263983e-001 -5.187247e+000 42 41 48
1.726801e-001 -1.394926e+000 -5.306994e+000 79 46 37
-8.573456e-001 4.010199e+000 -9.213432e+000 67 66 72
-8.376710e-001 4.033161e+000 -9.283844e+000 67 66 72
1.565824e+000 -9.660735e-001 -6.116672e+000 224 190 145
2.620568e+000 -8.750840e-001 -5.816913e+000 88 87 93
5.564013e-001 -7.953256e-003 -5.364552e+000 200 206 196
1.074576e+000 -8.983528e-001 -5.795607e+000 197 199 192
1.182537e+000 2.295503e+000 -6.418391e+000 97 91 62
1.181106e+000 2.276947e+000 -6.377111e+000 97 91 62
-1.325341e+000 -3.832821e-001 -4.102963e+000 33 27 29
2.282235e+000 1.621159e+000 -5.642320e+000 90 39 44
2.637387e+000 3.519380e-001 -6.069912e+000 52 51 59
-1.134796e+000 -7.198581e-001 -4.169322e+000 191 103 66
-1.134796e+000 -7.198581e-001 -4.169322e+000 191 103 66
-1.299339e+000 5.545113e-001 -5.275688e+000 35 29 31
2.339537e-001 1.439500e+000 -6.987514e+000 221 224 215
2.339537e-001 1.439500e+000 -6.987514e+000 221 224 215
2.625987e+000 9.193482e-001 -5.510416e+000 64 65 67
2.960750e+000 9.275627e-001 -5.886926e+000 70 69 75
3.121664e+000 7.717207e-001 -5.813277e+000 61 60 65
3.150871e+000 6.876476e-001 -5.809928e+000 64 63 69
2.833618e+000 -1.140280e+000 -5.629777e+000 79 77 82
3.022947e+000 9.232354e-001 -5.866520e+000 48 47 53
3.022947e+000 9.232354e-001 -5.866520e+000 48 47 53
2.911201e+000 6.726419e-001 -5.820125e+000 76 75 80
2.927817e+000 6.141760e-001 -5.801127e+000 47 48 52
2.655210e+000 -8.488485e-001 -5.898500e+000 48 47 53
2.608868e+000 -1.254450e+000 -5.782302e+000 52 50 53
-3.706300e-001 -1.183276e+000 -4.629691e+000 153 83 53
3.100924e+000 3.428889e-001 -5.416173e+000 138 125 79
-2.921390e-001 2.209761e+000 -8.125683e+000 224 214 210
2.830673e+000 1.595409e+000 -5.935978e+000 68 69 74
3.258487e+000 1.489977e+000 -5.773066e+000 60 59 65
3.202112e+000 1.458802e+000 -5.756728e+000 117 116 122
3.202112e+000 1.458802e+000 -5.756728e+000 117 116 122
3.162829e+000 1.377694e+000 -5.830607e+000 91 90 96
3.391135e+000 1.041149e+000 -5.729086e+000 58 56 61
3.470224e+000 9.267805e-001 -5.772503e+000 58 56 61
3.470224e+000 9.267805e-001 -5.772503e+000 58 56 61
3.362541e+000 8.454295e-001 -5.797220e+000 60 59 62
3.362541e+000 8.454295e-001 -5.797220e+000 60 59 62
2.813489e+000 6.236411e-001 -5.869013e+000 103 105 110
2.755496e+000 5.053092e-001 -5.817559e+000 105 109 112
1.252084e+000 -2.427471e-001 -5.715075e+000 142 138 130
2.580070e+000 -5.165174e-001 -5.631766e+000 143 126 82
3.070879e+000 -6.705045e-001 -5.566242e+000 51 49 53
2.723483e+000 -7.486876e-001 -5.817311e+000 54 54 56
2.862130e+000 -7.180738e-001 -5.761535e+000 43 41 46
7.324552e-001 -5.056730e-001 -5.600125e+000 83 74 67
2.476418e+000 -7.890533e-001 -5.997833e+000 55 55 55
2.576913e+000 -7.838636e-001 -5.935933e+000 51 50 55
2.576678e+000 -8.558417e-001 -5.946408e+000 56 55 60
2.886783e+000 -8.921576e-001 -5.544890e+000 38 38 40
2.580426e+000 -1.103296e+000 -5.880322e+000 45 43 48
2.671570e+000 -1.069089e+000 -5.786909e+000 43 41 46
1.485276e+000 -1.193793e+000 -6.155670e+000 167 133 105
-9.056448e-001 -1.137074e+000 -4.075351e+000 87 44 24
-1.830406e-001 -1.452620e+000 -4.793162e+000 97 40 27
2.917867e+000 -2.323701e+000 -5.437279e+000 28 22 26
3.031966e+000 1.564627e+000 -5.871909e+000 141 140 146
2.903389e+000 1.436986e+000 -5.894256e+000 129 128 134
3.064225e+000 1.347436e+000 -5.860969e+000 95 94 100
3.064225e+000 1.347436e+000 -5.860969e+000 95 94 100
6.125853e-001 2.085803e+000 -6.916296e+000 198 198 188
6.125853e-001 2.085803e+000 -6.916296e+000 198 198 188
2.987549e+000 1.281422e+000 -5.916215e+000 94 93 98
2.987549e+000 1.281422e+000 -5.916215e+000 94 93 98
3.186596e+000 1.101568e+000 -5.767878e+000 68 66 71
3.303938e+000 8.957493e-001 -5.837431e+000 39 37 42
3.521052e+000 9.744156e-001 -5.703304e+000 34 32 37
2.794353e+000 7.354790e-001 -5.799322e+000 59 60 65
2.839506e+000 4.452613e-001 -5.845995e+000 99 98 103
2.611830e+000 2.873514e-001 -5.974293e+000 107 108 112
3.214210e+000 -1.107103e-001 -5.056289e+000 61 54 45
7.046241e-001 -2.039768e-001 -5.381300e+000 167 166 161
2.543083e+000 -4.445228e-001 -5.701640e+000 178 164 104
3.218993e+000 -5.864958e-001 -5.499066e+000 52 53 57
3.139737e+000 -7.010525e-001 -5.523961e+000 91 89 93
5.819389e-001 -3.553842e-001 -5.390904e+000 106 97 88
2.777802e+000 -7.123779e-001 -5.806077e+000 50 49 54
2.465930e+000 -8.336460e-001 -5.935144e+000 48 47 54
2.568315e+000 -8.236912e-001 -5.961443e+000 101 100 105
2.914009e+000 -9.577989e-001 -5.649089e+000 46 43 46
2.555963e+000 -9.895430e-001 -5.970556e+000 43 41 46
2.882086e+000 -1.049644e+000 -5.631606e+000 87 86 91
1.310105e+000 -1.923986e+000 -6.260249e+000 190 181 172
2.971163e+000 -2.037726e+000 -5.351555e+000 27 22 28
-1.293446e+000 -2.924220e+000 -9.579659e+000 86 43 40
3.808044e+000 1.292599e+000 -5.617668e+000 34 29 34
7.828887e-001 2.341737e+000 -7.058169e+000 238 239 232
2.825357e+000 1.369699e+000 -5.922171e+000 147 146 152
3.207743e+000 1.371235e+000 -5.802018e+000 43 42 48
2.716995e+000 5.393536e-001 -5.944835e+000 139 140 144
2.603275e+000 3.388449e-001 -5.994387e+000 62 63 66
2.382636e+000 8.667185e-002 -5.815201e+000 187 86 90
3.114399e+000 -8.417604e-001 -5.488353e+000 28 26 32
2.905560e+000 1.393881e+000 -5.956071e+000 52 51 57
3.724228e+000 1.207397e+000 -5.582114e+000 29 26 33
2.320717e+000 -8.877596e-001 -5.945461e+000 191 78 77
1.925033e+000 -1.246434e+000 -6.010722e+000 210 143 128
-7.188978e-001 -9.924702e-001 -4.188728e+000 67 26 16
-1.383777e+000 -2.727548e+000 -9.582414e+000 60 38 39
2.762479e+000 1.002751e+000 -5.782652e+000 54 53 58
2.567567e+000 4.632977e-002 -5.858124e+000 70 65 73
2.016162e+000 -1.790075e-001 -6.154406e+000 60 31 33
-4.402029e-001 -5.148024e-001 -4.529446e+000 170 108 76
6.733680e-001 -2.726996e+000 -7.222493e+000 21 15 15
-4.533713e-002 4.112559e+000 -9.133996e+000 58 56 59
-5.570345e-001 2.449589e+000 -8.389347e+000 188 67 66
8.307625e-001 -7.929007e-001 -5.774738e+000 134 131 126
2.667616e+000 -2.945899e-001 -5.743565e+000 140 126 82
-4.425746e-001 -3.041844e-001 -4.558169e+000 225 185 142
1.511522e+000 -1.292511e+000 -6.454868e+000 69 34 32
1.116554e+000 -1.867074e+000 -6.676228e+000 146 135 124
-1.024701e+000 3.367226e+000 -9.378804e+000 69 68 73
2.792953e+000 6.651912e-001 -5.864555e+000 100 103 108
2.154795e+000 -1.211326e+000 -6.005403e+000 201 89 91
4.821903e-001 -1.039771e+000 -5.510007e+000 78 61 52
2.500193e+000 4.970599e-001 -5.814210e+000 35 30 35
1.623606e+000 -1.443656e+000 -6.228962e+000 173 72 76
7.546302e-001 -1.501020e+000 -6.510903e+000 98 81 65
1.377227e+000 -1.176336e+000 -6.199456e+000 57 28 23
1.327798e+000 2.384596e+000 -6.091197e+000 166 153 112
1.390155e+000 1.858214e+000 -6.437585e+000 221 211 156
2.639597e+000 1.744748e+000 -6.090265e+000 72 67 73
4.531984e-001 5.201307e-001 -6.470660e+000 214 219 212
4.805477e-001 5.063620e-001 -6.432933e+000 216 223 216
1.277380e+000 7.528346e-001 -6.025418e+000 196 199 179
8.106738e-001 2.489950e+000 -7.144859e+000 234 232 219
5.698763e-001 4.719068e-001 -6.370344e+000 216 220 213
-6.135912e-001 -3.424819e-001 -4.853183e+000 208 124 77
7.135276e-001 -2.180850e-001 -5.394400e+000 177 179 171
2.335215e+000 7.346360e-003 -5.674503e+000 156 62 64
-1.309952e+000 -5.346856e-001 -4.082262e+000 77 28 22
1.122101e+000 -4.301082e-001 -5.656941e+000 172 172 160
-1.303771e+000 -6.245665e-001 -3.991957e+000 129 72 67
-8.297771e-001 1.982135e-001 -8.628561e+000 203 205 192
-8.297771e-001 1.982135e-001 -8.628561e+000 203 205 192
-2.324662e+000 -8.014748e-001 -1.049465e+001 59 57 60
-3.659275e-001 -2.019516e-001 -4.552847e+000 188 177 159
2.457685e+000 -1.615296e-001 -5.860995e+000 147 132 91
2.410039e+000 -7.053351e-001 -5.906918e+000 58 32 28
2.199867e+000 -1.000951e+000 -5.689277e+000 50 26 25
2.742318e+000 1.655659e+000 -6.042918e+000 64 61 70
2.756973e+000 1.725807e+000 -6.032700e+000 57 52 59
-4.093920e-001 7.042293e-001 -8.258239e+000 217 217 203
-6.235916e-001 -2.975183e-001 -4.889855e+000 212 119 67
2.472768e+000 6.355850e-002 -5.889995e+000 49 35 38
4.993248e-001 -2.622044e-001 -5.246195e+000 121 119 107
-2.758456e-002 -3.473134e-001 -4.645952e+000 216 171 128
-7.102690e-001 -1.082253e+000 -4.181452e+000 83 41 27
-3.206227e+000 -1.095382e+000 -1.101297e+001 27 25 28
-2.897056e+000 -1.301287e+000 -1.114181e+001 63 61 66
-1.776158e+000 -1.434832e+000 -9.261271e+000 180 62 56
-9.853107e-001 -3.315250e-001 -4.322997e+000 60 29 27
-2.412408e-001 -8.809366e-001 -4.800308e+000 142 98 61
-1.832613e+000 -1.270203e+000 -9.312267e+000 186 61 55
-1.368961e+000 -7.490786e-001 -4.032497e+000 155 130 81
2.289020e+000 2.492823e+000 -5.873483e+000 41 31 38
1.010666e+000 2.080316e+000 -6.363678e+000 106 99 72
-7.414661e-001 1.051156e+000 -8.536996e+000 197 198 184
-7.414661e-001 1.051156e+000 -8.536996e+000 197 198 184
-1.099693e+000 -1.435878e-001 -8.855459e+000 169 164 152
-1.102368e+000 -1.415965e-001 -8.836047e+000 169 164 152
-3.146056e+000 -1.239602e+000 -1.105293e+001 74 73 80
-3.016479e+000 -1.007800e+000 -1.085186e+001 31 22 27
2.216000e+000 2.607662e+000 -5.972825e+000 218 210 199
-1.086090e+000 6.753401e-001 -8.905801e+000 217 218 204
1.126720e-001 7.673221e-001 -6.848911e+000 181 180 167
-6.839748e-001 -5.131512e-001 -4.408324e+000 209 177 125
-5.998232e-001 -4.863260e-001 -4.594899e+000 157 77 43
-9.773950e-002 2.206509e+000 -8.003960e+000 223 220 211
2.503538e+000 9.554140e-001 -5.669431e+000 223 220 213
1.227381e+000 -1.680701e+000 -6.265032e+000 176 168 157
-1.868690e+000 -5.691416e-002 -9.521377e+000 35 28 36
-3.795116e-001 2.207529e+000 -8.035974e+000 207 100 100
2.590151e+000 1.478005e+000 -6.054253e+000 150 149 157
1.052754e+000 6.153577e-001 -5.571097e+000 124 123 103
-6.416154e-001 -2.652794e-001 -4.941634e+000 223 119 67
-6.192790e-001 -2.234392e-001 -4.968881e+000 221 119 71
-1.028347e+000 -5.381639e-001 -4.040455e+000 206 114 70
-8.442380e-001 -7.179749e-001 -4.078837e+000 129 70 41
2.619524e+000 1.700705e+000 -6.056881e+000 51 49 54
2.821393e+000 1.690907e+000 -5.928336e+000 60 63 68
2.894064e+000 1.593791e+000 -5.917892e+000 55 54 60
-5.453069e-001 -6.127930e-001 -4.363523e+000 163 123 90
3.537201e-001 1.568179e+000 -7.040916e+000 197 199 188
2.673907e+000 1.744067e+000 -6.053244e+000 51 48 55
-2.908167e+000 -1.034674e+000 -1.107219e+001 41 37 38
-2.908167e+000 -1.034674e+000 -1.107219e+001 41 37 38
1.315174e-001 1.893595e-002 -5.611148e+000 200 207 199
2.190825e-001 -1.964440e-001 -4.802394e+000 190 198 187
-1.267522e+000 -4.875008e-001 -4.083118e+000 101 47 43
-1.658346e+000 -6.953040e-001 -3.975787e+000 174 158 96
-9.918172e-001 -6.358030e-001 -3.988856e+000 154 77 51
2.444263e+000 3.578877e-001 -5.818798e+000 177 84 85
-7.361538e-001 1.572986e+000 -8.445229e+000 223 223 217
2.134037e+000 -1.325720e+000 -5.968879e+000 122 42 45
2.899120e+000 1.433884e+000 -5.884843e+000 129 128 134
-1.060645e+000 3.313013e+000 -9.370577e+000 75 74 79
2.525190e+000 -1.073719e+000 -5.942259e+000 45 43 46
2.534779e+000 -1.224940e+000 -5.895240e+000 35 33 36
-1.257247e+000 -6.620518e-001 -4.005964e+000 110 60 51
1.552866e+000 -1.176110e+000 -6.071831e+000 185 151 113
-4.622222e-001 -1.074211e+000 -4.512006e+000 93 37 25
-1.590432e-001 -1.458222e+000 -4.905202e+000 109 55 39
-1.590432e-001 -1.458222e+000 -4.905202e+000 109 55 39
1.717998e+000 2.255669e+000 -6.280528e+000 202 200 188
1.468003e+000 2.116294e+000 -6.294546e+000 150 140 114
2.644875e+000 1.462615e-001 -5.955317e+000 64 65 69
7.299621e-001 -3.235634e-001 -5.429087e+000 160 159 154
1.871125e+000 -1.015078e+000 -6.137115e+000 190 71 71
2.703540e+000 -1.018877e+000 -5.840558e+000 43 41 46
-9.908757e-001 -6.394343e-001 -4.013474e+000 139 69 49
9.814511e-001 1.609525e+000 -6.708045e+000 209 210 196
-3.521591e-001 -1.563961e-001 -4.598129e+000 146 132 123
7.408470e-001 -1.464748e-001 -5.501028e+000 151 152 146
7.221566e-001 -1.907641e-001 -5.497815e+000 163 164 158
2.506130e+000 -7.291738e-001 -5.989210e+000 111 110 114
1.061215e+000 -6.444087e-001 -5.925219e+000 98 54 47
2.496386e+000 -1.066455e+000 -5.971932e+000 77 75 78
2.512870e+000 -1.129571e+000 -5.937228e+000 65 62 69
2.395775e+000 -1.390478e+000 -5.990454e+000 54 49 53
2.646411e+000 -1.414906e+000 -5.761227e+000 38 36 39
-1.325391e+000 -7.862035e-001 -3.971066e+000 109 76 51
-1.271853e+000 -7.647941e-001 -4.021718e+000 124 76 73
1.872110e-001 -1.119810e+000 -4.787941e+000 153 76 65
2.232433e+000 -1.431526e+000 -6.162006e+000 49 44 46
2.387555e+000 -1.581533e+000 -6.001308e+000 34 32 35
2.540083e+000 -1.533392e+000 -5.850689e+000 37 35 38
2.513907e+000 -1.610350e+000 -5.838552e+000 51 49 54
2.566304e+000 -1.578359e+000 -5.821430e+000 34 32 37
2.646967e+000 -1.610668e+000 -5.770042e+000 42 37 43
-8.524529e-001 4.036007e+000 -9.183249e+000 92 91 96
3.360739e+000 1.063345e+000 -5.733569e+000 39 35 41
2.015179e-001 1.012340e+000 -6.948097e+000 192 195 184
1.801141e+000 3.805669e-001 -5.772713e+000 227 232 226
2.549925e+000 7.872393e-002 -5.997752e+000 101 106 109
8.883230e-001 -8.221752e-002 -5.504623e+000 168 172 165
8.184413e-002 -4.448395e-001 -4.636891e+000 188 117 83
2.751765e+000 -8.394529e-001 -5.848499e+000 110 107 114
2.496669e+000 -9.141721e-001 -6.029952e+000 51 49 52
2.609053e+000 -9.345386e-001 -5.959955e+000 48 49 52
3.035463e+000 -9.939641e-001 -5.600613e+000 34 30 35
2.829074e+000 -1.133948e+000 -5.716591e+000 49 48 53
2.504205e+000 -1.220999e+000 -5.936935e+000 55 53 58
2.511967e+000 -1.220225e+000 -5.956597e+000 55 53 58
2.839807e+000 -1.225550e+000 -5.684675e+000 66 64 69
2.841555e+000 -1.266040e+000 -5.697684e+000 37 33 38
2.580313e+000 -1.331865e+000 -5.873545e+000 36 34 37
-1.219901e+000 -7.817678e-001 -3.987730e+000 122 73 68
2.264514e+000 -1.469560e+000 -6.124634e+000 56 50 54
-1.994488e-001 -1.549686e+000 -4.931567e+000 76 32 21
3.234805e-002 3.801729e+000 -8.890254e+000 77 81 80
2.925861e+000 1.408996e+000 -5.822774e+000 53 54 59
2.238681e+000 1.388528e+000 -5.687668e+000 177 85 87
1.191272e+000 1.387267e+000 -6.294421e+000 141 130 96
1.737819e+000 8.674963e-001 -5.867894e+000 219 222 213
1.738387e+000 8.671569e-001 -5.867621e+000 219 222 213
2.714325e+000 -8.045587e-001 -5.872647e+000 50 49 54
2.853293e+000 -7.335441e-001 -5.792479e+000 42 40 45
7.019793e-002 -4.738215e-001 -4.667863e+000 167 103 70
7.250974e-001 -5.447118e-001 -5.672005e+000 95 87 79
2.483035e+000 -1.002323e+000 -5.982475e+000 43 41 44
2.414458e+000 -1.165539e+000 -6.021240e+000 40 38 41
2.483259e+000 -1.247839e+000 -5.980552e+000 36 34 39
2.609739e+000 -1.257981e+000 -5.886657e+000 36 34 39
-1.108285e+000 -6.496205e-001 -4.006712e+000 220 129 83
-1.221630e+000 -8.473667e-001 -3.931721e+000 115 60 55
1.861384e+000 -1.481839e+000 -6.340052e+000 172 68 74
2.553339e+000 -1.564543e+000 -5.854587e+000 33 31 36
3.208003e+000 1.221185e+000 -5.735164e+000 44 43 48
3.371691e+000 1.104673e+000 -5.685607e+000 34 32 37
4.576181e-001 7.987945e-001 -6.543945e+000 213 219 206
2.710313e+000 -8.911067e-001 -5.861164e+000 48 47 52
-8.233677e-001 -4.933461e-001 -4.346205e+000 45 33 33
-6.987766e-001 -8.091126e-001 -4.125841e+000 142 85 58
-6.127053e-001 -8.903972e-001 -4.169982e+000 126 69 50
-1.884746e+000 -1.458234e+000 -9.298245e+000 59 23 22
-1.165296e+000 -1.967746e+000 -8.648802e+000 161 151 135
1.048997e+000 1.822966e+000 -6.361483e+000 118 109 73
2.187367e-001 1.204288e+000 -7.008682e+000 168 168 156
3.164869e+000 -7.743617e-001 -5.633568e+000 88 87 92
3.164869e+000 -7.743617e-001 -5.633568e+000 88 87 92
-1.127013e+000 -9.622890e-001 -4.044818e+000 165 93 53
1.738291e+000 -1.531210e+000 -6.301163e+000 204 91 95
4.108255e-001 -1.763984e+000 -7.067892e+000 79 60 45
-1.212224e-001 -2.382943e+000 -7.713087e+000 207 203 191
9.473184e-001 2.899510e+000 -7.071823e+000 81 72 51
3.053788e+000 4.903457e-001 -5.392547e+000 52 48 45
1.938279e+000 7.527746e-001 -5.763986e+000 234 237 230
2.824622e+000 2.145165e-001 -5.838352e+000 71 64 57
-9.882741e-001 -3.232034e-001 -4.300357e+000 42 27 31
1.265805e+000 -1.872151e+000 -6.404941e+000 187 181 168
-1.456187e+000 -2.086061e+000 -9.027189e+000 182 64 63
-7.882192e-002 -2.301922e+000 -7.735480e+000 167 160 144
2.579525e+000 -8.394752e-002 -5.756423e+000 251 248 192
1.246624e-001 -1.500240e-001 -4.774530e+000 178 180 171
-2.010178e-001 -3.003118e-001 -4.609133e+000 146 101 74
3.144565e-002 -3.239704e-001 -4.631902e+000 122 49 40
-6.633269e-001 -8.436835e-001 -4.173814e+000 85 37 26
-1.280799e+000 -2.323532e+000 -8.851692e+000 179 64 64
1.367021e+000 1.911586e+000 -6.152281e+000 255 255 207
-3.677561e-001 -1.021227e+000 -4.595490e+000 120 60 38
-8.831341e-001 -9.841563e-001 -3.962325e+000 68 25 22
1.907486e-001 4.401796e-003 -4.941889e+000 211 213 204
2.922885e+000 -1.078084e+000 -5.711515e+000 46 45 52
2.342750e+000 -2.583158e-001 -6.050216e+000 109 95 64
2.059418e+000 -3.781828e-001 -6.295049e+000 170 158 110
1.693311e+000 -2.034023e+000 -6.098016e+000 197 191 179
-3.993921e-001 -3.879524e-001 -4.557306e+000 213 178 133
-4.039260e-001 -3.794077e-001 -4.581001e+000 213 178 133
6.170633e-001 -1.918490e+000 -6.986690e+000 48 19 21
1.156266e+000 -3.519050e-001 -5.675709e+000 203 203 193
-5.161765e-002 -8.734357e-002 -4.732638e+000 197 202 194
-6.242712e-001 -5.687386e-001 -4.275809e+000 174 134 88
1.756995e+000 -1.161176e+000 -5.942895e+000 153 90 65
1.756995e+000 -1.161176e+000 -5.942895e+000 153 90 65
-1.668091e+000 2.925738e-001 -9.400307e+000 184 67 62
-2.794610e-001 -2.283441e-001 -4.563771e+000 212 187 143
-1.451816e+000 -5.273439e-001 -4.162973e+000 36 30 34
1.805628e-001 -4.323262e+000 -8.440894e+000 62 60 65
8.934787e-001 -3.654838e+000 -8.576879e+000 28 19 22
-3.446532e+000 9.002060e-001 -1.086073e+001 77 76 82
-3.204622e+000 4.742578e-001 -1.101161e+001 49 48 53
-3.055501e+000 3.309768e-001 -1.099870e+001 50 48 51
2.891162e-001 -3.584269e-002 -5.568163e+000 208 214 206
1.654908e+000 5.616882e-001 -5.661011e+000 225 226 218
-1.308072e-001 -7.541124e-002 -4.727488e+000 166 177 163
1.418991e+000 -2.388951e+000 -6.232562e+000 32 26 30
1.253726e+000 -2.753281e-001 -5.731385e+000 167 162 156
-8.367356e-001 -1.141521e+000 -4.030062e+000 46 24 25
2.464344e+000 -7.486415e-001 -5.977644e+000 64 57 67
2.464344e+000 -7.486415e-001 -5.977644e+000 64 57 67
2.508781e+000 -7.896833e-001 -5.992816e+000 100 100 102
2.510740e+000 -8.823175e-001 -6.001720e+000 106 103 106
2.530968e+000 -8.594948e-001 -5.986540e+000 60 60 62
1.840732e+000 -1.352567e+000 -6.090331e+000 167 129 94
1.839273e+000 -1.353590e+000 -6.085027e+000 167 129 94
2.700193e-001 1.244657e+000 -6.926434e+000 205 205 193
2.561630e+000 -8.248793e-001 -5.947364e+000 110 111 113
2.917139e+000 -7.484771e-001 -5.737426e+000 38 36 41
1.700482e+000 -1.125805e+000 -6.006767e+000 115 57 37
1.700482e+000 -1.125805e+000 -6.006767e+000 115 57 37
-7.293027e-001 4.464325e+000 -9.023101e+000 43 42 47
-1.000671e+000 4.072251e+000 -9.373848e+000 62 61 67
-8.439260e-001 3.633848e+000 -9.373844e+000 54 55 60
-9.776064e-001 3.416403e+000 -9.301952e+000 64 66 71
2.568612e+000 4.126159e-001 -5.962432e+000 92 91 93
2.749599e+000 3.406986e-001 -5.878373e+000 78 80 84
3.304596e+000 -5.555120e-001 -5.451166e+000 75 74 79
-3.807142e-001 -1.803859e-001 -4.546448e+000 108 73 65
-3.534728e-001 -1.591101e-001 -4.590002e+000 149 126 118
6.554542e-001 -2.018176e-001 -5.308155e+000 149 151 145
7.391928e-001 -1.653474e-001 -5.457929e+000 152 153 148
7.453766e-001 -2.564623e-001 -5.386823e+000 151 152 146
2.628667e+000 -7.122058e-001 -5.916172e+000 68 66 69
2.884373e+000 -7.475991e-001 -5.767763e+000 61 59 62
-3.828766e-001 -2.086584e-001 -4.548604e+000 147 148 133
1.312862e-001 -4.508444e-001 -4.702508e+000 163 115 79
2.289696e+000 -7.419900e-001 -5.941719e+000 179 81 84
1.031518e-001 -5.044697e-001 -4.580724e+000 182 119 84
1.201651e+000 -5.947891e-001 -5.823206e+000 87 56 39
1.204179e+000 -5.897501e-001 -5.839136e+000 87 56 39
1.882900e+000 -8.706051e-001 -6.145454e+000 181 70 67
2.654634e+000 -1.318193e+000 -5.821918e+000 77 76 81
2.521228e-001 -7.882311e-001 -4.838123e+000 129 84 56
4.077035e-001 -8.440441e-001 -4.894431e+000 60 33 31
-1.069737e+000 -7.359417e-001 -3.960365e+000 200 110 70
-6.493324e-001 -7.903422e-001 -4.141152e+000 140 95 60
-1.393404e+000 -6.681709e-001 -4.072670e+000 160 136 100
-1.223922e+000 -8.039260e-001 -3.953093e+000 100 48 44
2.215434e+000 -1.616463e+000 -6.060500e+000 55 52 59
-1.357198e+000 -8.464978e-001 -4.000694e+000 85 68 42
-9.203820e-001 -9.580956e-001 -3.942047e+000 98 56 48
1.173962e-001 -1.174452e+000 -4.816032e+000 144 71 55
-4.554034e-001 -1.196965e+000 -4.562310e+000 130 69 51
-3.510627e-001 -1.297349e+000 -4.696119e+000 109 50 29
-7.057631e-001 -1.329614e+000 -4.854717e+000 202 185 175
-2.237113e-001 -1.489917e+000 -4.943029e+000 97 44 27
-9.340593e-001 -2.149700e+000 -8.560764e+000 202 193 183
-1.916416e-001 4.564180e+000 -8.997650e+000 76 75 80
2.853944e+000 1.027527e+000 -5.860087e+000 80 80 82
3.445580e+000 9.041604e-001 -5.723181e+000 62 60 65
6.234981e-001 2.131805e+000 -6.980362e+000 209 210 202
2.798203e+000 7.573925e-001 -5.930543e+000 86 88 92
2.847773e+000 7.259157e-001 -5.853350e+000 70 69 75
2.748857e+000 6.379986e-001 -5.824572e+000 55 58 62
2.622314e+000 6.074321e-001 -5.885032e+000 40 38 43
2.750361e+000 5.034488e-001 -5.912326e+000 60 62 67
-8.769388e-001 3.552039e+000 -9.329367e+000 82 82 88
9.960080e-001 1.323368e+000 -6.650765e+000 185 184 165
2.521756e+000 4.165619e-001 -5.913607e+000 63 51 53
2.609429e+000 3.647650e-001 -5.926685e+000 146 150 154
2.774725e+000 3.889610e-001 -5.892787e+000 53 56 65
2.699212e+000 2.422909e-001 -5.882896e+000 153 153 161
2.563208e+000 1.633225e-001 -5.940695e+000 61 65 66
2.611173e+000 1.802413e-001 -5.937325e+000 143 142 149
2.671889e+000 1.748815e-001 -5.906614e+000 134 138 142
3.346465e+000 -5.166271e-001 -5.447458e+000 75 72 79
3.518686e+000 -8.083913e-001 -5.226790e+000 44 42 48
2.121744e+000 -1.986796e-001 -6.061574e+000 130 119 83
-2.457377e-001 -1.807636e-001 -4.573712e+000 57 43 42
2.683142e+000 -6.787112e-001 -5.950571e+000 107 104 110
2.663322e+000 -7.418021e-001 -5.866065e+000 53 54 58
2.669836e+000 -7.652877e-001 -5.950774e+000 55 54 59
2.668887e+000 -8.113330e-001 -5.884478e+000 130 129 134
2.674720e+000 -8.385860e-001 -5.927942e+000 56 55 60
2.589024e+000 -8.926948e-001 -5.924284e+000 124 123 128
2.745079e+000 -9.756116e-001 -5.759728e+000 44 44 44
7.241222e-001 -5.089318e-001 -5.545540e+000 78 70 66
2.594782e+000 -9.419646e-001 -5.923822e+000 56 57 61
2.573950e+000 -9.905951e-001 -5.905031e+000 103 103 107
2.670853e+000 -9.965429e-001 -5.872355e+000 47 46 51
1.456428e+000 -7.843007e-001 -6.099553e+000 97 57 21
2.617245e+000 -1.239000e+000 -5.728196e+000 44 43 48
-1.233441e+000 -4.392716e-001 -4.139218e+000 83 42 40
-9.856364e-001 -6.241053e-001 -4.006746e+000 143 72 51
-9.441910e-001 -5.589428e-001 -4.073071e+000 133 66 50
2.371319e+000 -1.249267e+000 -5.996719e+000 62 61 65
2.371319e+000 -1.249267e+000 -5.996719e+000 62 61 65
-9.782424e-001 -8.130930e-001 -3.962060e+000 196 111 74
-1.462037e+000 -6.650510e-001 -4.029134e+000 119 102 59
-1.441358e+000 -6.904931e-001 -4.022678e+000 86 69 35
-1.269571e+000 -7.244320e-001 -3.991124e+000 136 90 88
-8.829037e-001 -9.548679e-001 -3.926031e+000 105 58 51
2.475449e+000 -1.790928e+000 -5.913712e+000 32 30 35
-1.565678e+000 -7.287980e-001 -3.970535e+000 109 90 49
-1.571030e+000 -7.561625e-001 -3.960334e+000 45 27 17
-1.338429e+000 -8.354368e-001 -3.983605e+000 133 112 78
-1.277182e+000 -8.411899e-001 -3.934573e+000 113 71 65
-4.606807e-001 -1.041003e+000 -4.515522e+000 125 68 47
2.041934e+000 -1.593596e+000 -6.256014e+000 46 34 29
2.366633e+000 -1.832226e+000 -5.897743e+000 29 27 32
-1.077835e+000 -1.037890e+000 -4.095691e+000 108 45 22
-1.793017e-001 -1.468145e+000 -4.899436e+000 95 39 23
1.324735e+000 -1.845506e+000 -6.273806e+000 174 166 155
-6.801215e-001 -1.329739e+000 -4.897420e+000 63 38 30
-4.234075e-001 -1.589288e+000 -4.901275e+000 128 70 42
-6.429038e-002 -1.980654e+000 -7.700353e+000 145 136 119
-7.343179e-001 -2.341705e+000 -8.192011e+000 216 211 202
1.980427e+000 -3.364568e+000 -6.537129e+000 58 53 57
1.943301e+000 -3.380869e+000 -6.570710e+000 30 26 30
-1.063122e-001 4.585481e+000 -8.864100e+000 84 83 88
1.447275e+000 2.052124e+000 -6.205595e+000 179 172 146
2.989709e+000 1.214898e+000 -5.868023e+000 51 50 55
3.149491e+000 9.848903e-001 -5.792212e+000 65 64 69
3.926498e+000 1.379742e-001 -5.633523e+000 45 40 44
-9.163823e-001 3.881543e+000 -9.441001e+000 76 75 80
2.697176e+000 5.181738e-001 -5.901264e+000 154 155 160
2.790037e+000 5.747170e-001 -5.861141e+000 57 60 65
2.849119e+000 5.213330e-001 -5.923167e+000 55 58 63
2.667838e+000 3.732776e-001 -5.893737e+000 65 67 71
2.737605e+000 3.905986e-001 -5.922810e+000 135 139 142
2.737605e+000 3.905986e-001 -5.922810e+000 135 139 142
2.779987e+000 3.072933e-001 -5.862606e+000 118 119 125
1.222954e+000 8.514518e-002 -5.530757e+000 199 201 196
2.889906e+000 -6.777173e-001 -5.785493e+000 79 78 82
-2.998573e-001 -1.548111e-001 -4.601661e+000 183 169 143
3.378868e+000 -1.124423e+000 -5.188519e+000 43 41 46
2.367076e+000 -7.267483e-001 -5.944476e+000 169 77 82
2.628475e+000 -8.955607e-001 -5.905009e+000 61 60 65
2.803178e+000 -9.449611e-001 -5.669762e+000 38 36 39
2.616573e+000 -1.079208e+000 -5.816393e+000 46 45 50
2.616573e+000 -1.079208e+000 -5.816393e+000 46 45 50
2.913383e+000 -1.205430e+000 -5.632481e+000 26 24 29
1.591749e+000 -7.248727e-001 -6.163625e+000 79 50 22
-1.287379e+000 -4.432926e-001 -4.165003e+000 101 58 55
2.355421e+000 -1.345853e+000 -5.969454e+000 40 38 43
-1.403810e+000 -5.396702e-001 -4.150144e+000 123 99 68
-1.289472e+000 -6.541398e-001 -4.006570e+000 73 27 26
-1.284016e+000 -6.607693e-001 -3.989001e+000 73 27 26
-1.318461e+000 -8.764185e-001 -3.977367e+000 168 150 105
2.169751e-002 -1.251682e+000 -4.901925e+000 119 42 32
1.219846e-001 -1.267120e+000 -4.889007e+000 75 43 36
2.328801e+000 -1.744767e+000 -6.025911e+000 27 25 28
1.945443e-001 -1.353258e+000 -5.095238e+000 73 42 35
1.792347e-002 -1.851241e+000 -7.385348e+000 117 101 85
-3.074307e+000 -1.735008e+000 -1.088597e+001 68 67 73
-3.075418e+000 -1.973784e+000 -1.085601e+001 64 63 68
-8.332888e-001 4.538885e+000 -9.082068e+000 81 80 85
1.586804e+000 1.381578e+000 -6.202231e+000 214 216 203
2.721776e+000 4.547640e-001 -5.895661e+000 62 65 70
-3.807804e-001 3.002229e+000 -8.915039e+000 73 60 67
-1.609205e-001 2.556637e+000 -7.914416e+000 189 73 75
4.697621e-001 1.786640e+000 -7.065250e+000 194 194 185
2.640674e+000 2.313730e-001 -5.915453e+000 80 81 88
2.523097e+000 1.392508e-001 -6.012622e+000 52 40 44
2.556844e+000 3.742924e-002 -5.856036e+000 76 74 72
1.052754e+000 -1.433156e-001 -5.577943e+000 156 156 148
-1.625690e-001 -2.944523e-001 -4.651213e+000 141 94 68
2.318387e+000 -6.921091e-001 -5.966680e+000 91 53 33
2.574295e+000 -7.563367e-001 -6.003813e+000 74 73 78
-5.375575e-001 -4.877280e-001 -4.449393e+000 183 92 48
9.762416e-001 -6.603961e-001 -5.766904e+000 147 149 134
7.763990e-001 -8.599713e-001 -5.634158e+000 91 83 77
-1.432485e+000 -5.367613e-001 -4.137707e+000 47 32 23
2.289750e+000 -1.430528e+000 -6.053273e+000 36 31 37
2.290095e+000 -1.431893e+000 -6.050838e+000 36 31 37
2.000488e+000 -1.397730e+000 -6.200854e+000 175 60 52
-1.514694e+000 -8.527277e-001 -3.875769e+000 39 28 22
-6.815619e-001 -1.032125e+000 -4.268679e+000 84 50 40
2.409609e+000 -1.846612e+000 -5.937746e+000 31 29 34
9.057881e-002 -1.324475e+000 -4.862232e+000 80 32 17
-2.318927e+000 -7.881050e-001 -1.064278e+001 66 60 62
-2.318927e+000 -7.881050e-001 -1.064278e+001 66 60 62
-9.292105e-001 -1.521451e+000 -8.136461e+000 199 191 183
-9.500369e-001 -1.507522e+000 -8.228591e+000 199 191 183
-7.037325e-001 -2.414733e+000 -8.183748e+000 199 189 180
-4.764433e-001 4.813309e+000 -9.086378e+000 48 46 52
3.782813e-001 3.437611e+000 -7.622533e+000 39 38 31
1.415364e-001 3.145743e+000 -8.072245e+000 198 76 75
3.975361e+000 2.601083e-002 -5.494252e+000 59 55 56
3.135626e+000 -6.607469e-001 -5.534608e+000 39 37 42
1.998016e-002 -4.107272e-001 -4.605043e+000 203 125 93
7.213645e-001 -4.638463e-001 -5.515458e+000 162 163 157
7.221858e-001 -4.622793e-001 -5.521748e+000 162 163 157
3.131057e-001 -8.010250e-001 -4.897888e+000 54 26 24
3.809916e-001 -1.022291e+000 -5.151064e+000 82 69 61
-1.590078e+000 -6.018301e-001 -4.038221e+000 32 20 21
-3.503629e-001 -1.373471e+000 -4.707734e+000 84 30 17
8.415312e-002 -1.429645e+000 -5.065440e+000 147 87 55
-1.201560e+000 -2.461561e+000 -8.646943e+000 192 55 59
-1.835363e-002 3.160572e+000 -8.205067e+000 55 56 61
1.793143e+000 8.721065e-001 -5.785240e+000 237 240 231
4.047222e-001 1.524877e+000 -6.916874e+000 204 205 197
-1.009410e+000 -4.173700e-001 -4.208788e+000 158 81 55
-8.988633e-001 -5.779015e-001 -4.174941e+000 99 44 26
-1.322549e+000 -6.686065e-001 -4.037052e+000 73 28 28
1.201059e+000 -1.045864e+000 -5.849659e+000 157 155 151
-6.999880e-001 -9.920231e-001 -4.162706e+000 64 27 16
1.921508e+000 -1.435709e+000 -6.251626e+000 87 32 30
-1.568705e+000 -7.574031e-001 -4.003017e+000 40 26 23
8.132345e-003 -1.341357e+000 -4.932571e+000 185 102 50
-1.460770e+000 -1.512513e+000 -8.931670e+000 182 67 64
8.124159e-001 3.298844e+000 -7.356356e+000 198 82 83
1.627136e+000 1.672084e+000 -5.980334e+000 202 198 187
3.066022e+000 -2.053196e-002 -5.174920e+000 121 109 70
2.699002e+000 1.095298e-001 -5.812761e+000 96 88 68
8.278229e-001 -4.937790e-001 -5.595281e+000 103 97 87
-2.860789e+000 -1.282857e+000 -1.116058e+001 68 69 73
6.684238e-001 -2.623758e+000 -7.229689e+000 115 38 43
-7.544056e-001 -2.607830e+000 -8.225656e+000 209 202 192
-1.032401e+000 -2.844075e+000 -8.424253e+000 177 58 60
7.550047e-001 3.486586e+000 -7.348283e+000 28 24 25
-1.866408e-001 4.561319e+000 -8.884598e+000 65 64 69
1.331196e+000 1.008913e+000 -5.946094e+000 254 255 223
1.449635e-001 -1.310821e+000 -5.063597e+000 57 28 24
-2.352635e-001 -1.443149e+000 -4.943295e+000 116 61 41
-3.070650e+000 -1.010112e+000 -1.101830e+001 26 21 25
-1.269748e+000 -1.657588e+000 -8.441486e+000 211 211 201
-1.296865e+000 -1.869939e+000 -8.642856e+000 130 84 76
5.635199e-001 3.406066e+000 -7.619899e+000 202 86 87
-5.558913e-001 4.508239e+000 -9.268238e+000 34 29 33
1.729289e+000 1.056725e+000 -5.765487e+000 204 204 192
1.880888e+000 -1.595370e+000 -6.272297e+000 186 76 75
-6.117929e-001 -1.287597e+000 -4.871979e+000 64 29 23
2.439736e-001 -1.942309e+000 -7.412859e+000 133 119 103
-8.518290e-001 -2.239093e+000 -8.521150e+000 207 205 193
-8.897802e-001 4.088357e+000 -9.311442e+000 84 85 90
1.325792e+000 -1.152755e+000 -6.181272e+000 59 27 25
1.204454e+000 2.455919e+000 -6.651291e+000 88 82 56
-1.115408e+000 -6.856652e-001 -4.045630e+000 203 110 69
-3.267126e+000 -1.389261e+000 -1.146514e+001 66 65 71
3.240904e+000 2.091162e-001 -5.544996e+000 144 131 87
7.216766e-001 2.921576e+000 -7.965015e+000 228 228 220
-6.478523e-001 -9.207250e-001 -4.815256e+000 68 27 21
9.762797e-001 2.611180e+000 -6.733959e+000 118 107 75
1.213404e+000 2.746488e+000 -6.234097e+000 205 190 132
1.989244e+000 1.513034e+000 -5.933606e+000 210 204 194
1.989244e+000 1.513034e+000 -5.933606e+000 210 204 194
2.780652e+000 1.560357e+000 -5.953132e+000 102 99 106
4.755768e-002 -1.482845e-001 -5.581488e+000 156 147 106
4.755768e-002 -1.482845e-001 -5.581488e+000 156 147 106
3.301101e-001 -4.721901e-002 -5.568429e+000 168 173 163
3.376758e-002 -3.642420e-002 -4.908866e+000 165 175 167
2.315246e-001 -8.661268e-002 -5.045917e+000 158 162 151
2.315246e-001 -8.661268e-002 -5.045917e+000 158 162 151
1.566714e+000 5.009075e-001 -4.944421e+000 216 217 209
-1.402201e+000 -4.722582e-001 -4.162497e+000 131 112 80
-1.137158e+000 -3.750110e-001 -4.147974e+000 140 75 49
1.464309e+000 2.664035e+000 -6.624092e+000 236 224 211
1.861981e+000 2.240622e+000 -6.106345e+000 207 198 187
1.493155e-001 3.725265e-001 -6.272681e+000 195 198 187
-5.897783e-001 -2.166358e-001 -4.939064e+000 212 122 75
2.473142e-001 3.760418e-003 -5.579754e+000 210 212 207
6.914420e-001 -9.855865e-002 -5.363581e+000 153 156 147
-1.447930e+000 -6.134034e-001 -4.079450e+000 83 62 40
-1.398268e+000 -5.141907e-001 -4.129339e+000 160 145 89
-9.437985e-001 -4.638436e-001 -4.219233e+000 96 35 18
-1.380671e+000 -6.218721e-001 -4.082133e+000 143 120 76
-1.407455e+000 -6.797682e-001 -4.055127e+000 95 74 30
7.692083e-002 -4.130955e-001 -4.643105e+000 174 92 68
-6.479792e-001 -5.526735e-001 -4.228722e+000 200 160 111
-9.796208e-001 -7.287418e-001 -3.980500e+000 145 63 33
1.754385e+000 -1.357793e+000 -6.110827e+000 136 78 55
1.014288e+000 1.884521e+000 -6.325038e+000 116 106 72
1.450699e-001 5.926453e-001 -6.688790e+000 231 234 223
9.439943e-002 3.520670e-001 -6.329393e+000 199 200 187
2.236120e+000 1.367980e+000 -5.834231e+000 181 72 79
2.308770e+000 1.384017e+000 -5.878635e+000 169 77 81
2.978246e+000 1.610305e+000 -5.987058e+000 119 117 122
-9.764489e-001 -8.208360e-001 -8.523446e+000 190 192 179
-3.445430e-001 -1.566267e-001 -4.600054e+000 163 148 126
-3.273283e-001 -2.100711e-001 -4.781468e+000 62 54 54
-1.696809e+000 -6.965729e-001 -4.340940e+000 158 143 71
-8.657151e-001 -4.287797e-001 -4.327879e+000 157 125 104
-8.657151e-001 -4.287797e-001 -4.327879e+000 157 125 104
-7.811386e-001 -4.337987e-001 -4.476053e+000 101 42 21
-5.427298e-001 -4.950072e-001 -4.703497e+000 200 158 117
-1.463227e+000 -7.219823e-001 -3.977238e+000 66 55 35
-6.228354e-001 -5.664477e-001 -4.264802e+000 153 115 69
9.248736e-001 2.703785e+000 -7.091663e+000 220 214 202
1.439278e+000 2.798438e+000 -6.644869e+000 237 214 199
1.611192e+000 2.731211e+000 -6.517381e+000 231 194 182
6.963629e-001 2.285126e+000 -7.063675e+000 196 193 183
1.659675e+000 2.229118e+000 -6.295108e+000 205 199 185
