ply
format ascii 1.0
element face 0
property list uchar int vertex_indices
element vertex 885
property float x
property float y
property float z
property uchar diffuse_red
property uchar diffuse_green
property uchar diffuse_blue
end_header
2.386045e+000 -1.385204e+000 -6.059411e+000 103 103 110
2.274738e+000 -1.462365e+000 -6.044887e+000 58 57 69
2.150691e+000 -1.700923e+000 -5.838649e+000 55 56 61
2.315434e+000 -1.844076e+000 -6.022085e+000 53 56 63
2.294138e+000 -1.858135e+000 -6.004223e+000 53 56 63
1.968178e+000 -1.827220e+000 -6.039682e+000 51 52 57
2.182582e+000 -3.487640e+000 -6.060249e+000 42 40 45
2.058663e+000 -2.449156e+000 -6.122791e+000 44 49 55
-3.354873e-001 -6.806343e-001 -4.522242e+000 162 89 60
1.874286e+000 -2.455832e+000 -6.317631e+000 41 46 50
1.874286e+000 -2.455832e+000 -6.317631e+000 41 46 50
-1.642896e-001 -1.396928e+000 -4.828870e+000 132 56 40
4.149087e-001 -1.217790e+000 -5.384760e+000 111 102 92
1.770399e+000 -2.699826e+000 -6.458409e+000 34 35 40
1.776745e+000 -3.003367e+000 -6.411680e+000 29 30 35
1.658013e+000 -3.101303e+000 -6.531411e+000 47 46 52
1.602788e+000 -2.588471e+000 -6.659518e+000 32 31 36
1.617308e+000 -3.180154e+000 -6.594347e+000 39 34 40
-1.625473e+000 -4.598639e-001 -4.131737e+000 104 87 66
-1.582443e+000 -4.849050e-001 -4.129595e+000 95 80 58
1.360805e+000 -2.644037e+000 -6.782267e+000 36 37 41
-1.499637e-001 -1.309183e+000 -5.866751e+000 42 29 22
-6.396434e-001 -1.091513e+000 -5.450458e+000 65 41 37
-8.393997e-002 -1.212603e+000 -6.026491e+000 69 53 49
-8.393997e-002 -1.212603e+000 -6.026491e+000 69 53 49
-4.623031e-001 -8.658967e-001 -6.165426e+000 48 30 26
2.318133e-002 -1.838110e+000 -7.380949e+000 126 120 108
4.080127e-001 -3.483508e+000 -7.862942e+000 35 34 39
4.279180e-001 -3.517220e+000 -7.854889e+000 83 82 87
4.279180e-001 -3.517220e+000 -7.854889e+000 83 82 87
4.704218e-001 -3.668102e+000 -7.767875e+000 80 78 83
5.979656e-001 -4.097266e+000 -7.723707e+000 60 58 63
-8.136358e-001 -1.207656e+000 -7.549715e+000 210 212 201
-7.584411e-001 -1.219049e+000 -7.984593e+000 218 221 211
2.493837e-001 -3.686036e+000 -7.835580e+000 44 41 48
1.444072e-001 -3.492385e+000 -7.926554e+000 95 93 97
2.918151e-001 -3.826321e+000 -7.904287e+000 33 28 34
-7.991150e-001 -1.512544e+000 -8.150038e+000 135 125 113
2.479666e-001 -4.253424e+000 -7.864257e+000 55 54 62
-3.431139e-002 -4.152523e+000 -7.875213e+000 51 48 55
3.693462e-002 -4.248017e+000 -7.950659e+000 39 38 44
-1.265603e+000 -1.514993e+000 -8.272259e+000 206 206 196
-3.075275e-001 -4.060331e+000 -8.221466e+000 33 28 35
-3.013984e-001 -4.184841e+000 -8.054786e+000 40 37 44
-2.383114e-001 -4.291346e+000 -7.979663e+000 41 38 45
-4.643423e-001 -3.936301e+000 -8.567384e+000 31 26 32
-5.792158e-001 -3.756176e+000 -8.628779e+000 33 28 34
2.690463e+000 -2.494223e+000 -5.345315e+000 41 42 47
2.748300e+000 -2.173734e+000 -5.579353e+000 32 30 35
2.836594e+000 -2.593104e+000 -5.488429e+000 41 40 46
2.598937e+000 -1.228624e+000 -5.909598e+000 51 52 56
2.591057e+000 -2.897116e+000 -5.745173e+000 36 35 43
2.422204e+000 -3.047727e+000 -5.592996e+000 42 41 47
2.329763e+000 -3.224859e+000 -5.819482e+000 33 32 38
2.297238e+000 -2.979288e+000 -5.845100e+000 45 43 48
2.417149e+000 -3.243018e+000 -5.920915e+000 29 28 34
2.224643e+000 -1.582854e+000 -6.158313e+000 53 57 62
2.015011e+000 -1.976999e+000 -6.181851e+000 40 40 48
8.081947e-001 -9.216488e-001 -5.553274e+000 118 52 51
9.310138e-001 -8.505134e-001 -5.695273e+000 190 184 166
3.221156e-001 -1.167433e+000 -5.219866e+000 111 101 98
3.221156e-001 -1.167433e+000 -5.219866e+000 111 101 98
1.239185e+000 -9.748601e-001 -6.172475e+000 55 32 22
1.691555e+000 -2.381144e+000 -6.324143e+000 24 23 28
1.852019e+000 -2.587989e+000 -6.496535e+000 37 36 42
1.826223e+000 -2.906565e+000 -6.435240e+000 32 33 37
1.942450e+000 -3.405228e+000 -6.490104e+000 54 52 57
1.671005e+000 -2.530668e+000 -6.507085e+000 38 40 44
1.703184e+000 -2.743023e+000 -6.535735e+000 28 29 33
1.703184e+000 -2.743023e+000 -6.535735e+000 28 29 33
1.633294e+000 -2.814203e+000 -6.577619e+000 28 29 33
1.753528e+000 -3.052838e+000 -6.494479e+000 27 26 31
-1.613530e+000 -5.752894e-001 -4.051678e+000 54 36 14
-1.554754e+000 -5.587545e-001 -4.103369e+000 75 59 45
1.500759e+000 -2.612715e+000 -6.676768e+000 35 34 39
1.358840e+000 -2.692604e+000 -6.504409e+000 35 34 39
-8.857438e-001 -2.994706e-001 -5.333425e+000 174 64 71
-1.291826e-001 -1.169380e+000 -5.864192e+000 59 41 39
-1.002500e-001 -1.178067e+000 -6.174602e+000 76 58 52
-2.725858e-001 -2.601985e-001 -6.949342e+000 138 136 131
-3.987627e-001 -1.017668e+000 -6.229911e+000 84 75 68
-3.361004e-001 -7.981602e-001 -6.549252e+000 85 72 64
-1.399957e-001 -1.408580e+000 -7.042246e+000 178 174 165
3.124266e-001 -3.458905e+000 -7.841807e+000 41 39 44
5.001228e-001 -3.498196e+000 -8.104067e+000 37 35 40
4.812677e-001 -3.623314e+000 -7.858019e+000 37 35 40
4.305514e-001 -3.753223e+000 -7.792095e+000 31 30 35
4.305514e-001 -3.753223e+000 -7.792095e+000 31 30 35
5.535442e-001 -3.891221e+000 -7.692258e+000 36 34 39
3.266013e-001 -3.495683e+000 -7.915579e+000 39 37 42
4.005369e-001 -3.610556e+000 -7.887508e+000 43 41 46
3.078701e-001 -3.587929e+000 -7.907283e+000 41 39 44
4.216571e-001 -3.699908e+000 -7.889503e+000 37 35 40
3.713125e-001 -3.720217e+000 -7.782785e+000 37 35 40
4.611205e-001 -3.791617e+000 -7.929644e+000 35 32 39
4.518653e-001 -3.942120e+000 -7.825973e+000 83 78 84
4.944953e-001 -3.964542e+000 -7.802343e+000 45 40 46
4.946625e-001 -3.964312e+000 -7.802912e+000 45 40 46
-2.006403e-001 -3.131650e+000 -7.595786e+000 170 163 152
3.531685e-001 -4.351745e+000 -7.671012e+000 39 38 44
3.497037e-002 -4.498181e+000 -7.892195e+000 75 72 81
-2.423515e-001 -3.948394e+000 -8.217063e+000 35 33 39
-1.284283e-001 -4.095708e+000 -8.107641e+000 33 30 37
-1.284283e-001 -4.095708e+000 -8.107641e+000 33 30 37
-1.395651e-001 -4.285784e+000 -8.118824e+000 101 98 107
-7.546110e-002 -4.405076e+000 -7.886611e+000 34 32 40
-7.546110e-002 -4.405076e+000 -7.886611e+000 34 32 40
-1.394886e+000 -1.604034e+000 -9.011622e+000 161 142 130
-4.129597e-001 -4.078557e+000 -8.271725e+000 34 29 36
-4.555388e-001 -4.284637e+000 -8.071228e+000 35 30 37
2.718284e+000 -2.569946e+000 -5.490505e+000 40 39 45
2.804335e+000 -2.831201e+000 -5.498675e+000 40 41 46
2.594524e+000 -2.596474e+000 -5.704119e+000 31 30 35
2.620738e+000 -2.643896e+000 -5.798725e+000 31 30 35
1.986356e+000 -4.317319e-001 -5.767084e+000 204 195 139
2.321581e+000 -3.339896e+000 -5.774293e+000 36 35 41
2.032146e+000 -2.061536e+000 -6.192801e+000 42 45 52
5.796570e-001 -1.038638e+000 -5.436194e+000 109 100 88
-1.178314e+000 -6.198738e-001 -3.956130e+000 50 42 45
-1.151035e+000 -1.016513e+000 -4.113349e+000 146 77 46
1.810160e-001 -1.412983e+000 -5.337150e+000 57 29 22
1.689063e+000 -2.887700e+000 -6.532859e+000 25 26 30
1.572332e+000 -2.745123e+000 -6.598679e+000 26 25 30
1.583537e+000 -2.739309e+000 -6.611817e+000 26 25 30
1.324146e+000 -2.592717e+000 -6.892262e+000 43 44 48
-7.595119e-002 -1.230909e+000 -6.083583e+000 42 27 20
-3.168026e-001 -6.232858e-001 -6.705000e+000 216 215 205
-1.540699e-001 -1.257091e+000 -6.996771e+000 102 91 82
-2.284805e-001 -6.819277e-001 -7.315619e+000 122 116 108
-2.317007e-001 -7.591741e-001 -7.504781e+000 183 188 180
-2.102159e-001 -6.952977e-001 -7.836445e+000 232 235 226
4.150088e-001 -3.304238e+000 -7.855725e+000 28 26 31
2.296887e-001 -4.254316e+000 -7.764828e+000 62 59 68
6.971323e-002 -4.214422e+000 -7.974686e+000 36 35 41
-3.861966e-002 -4.206949e+000 -7.958860e+000 36 35 41
1.280491e-001 -4.381655e+000 -7.904688e+000 29 26 33
-2.511163e-001 -4.059560e+000 -8.059387e+000 35 32 40
-6.162094e-002 -4.126530e+000 -8.079111e+000 36 33 40
-1.044902e-002 -4.110126e+000 -8.214781e+000 36 33 40
4.680376e-002 -4.562375e+000 -7.972759e+000 28 25 32
-3.021894e-001 -4.393043e+000 -8.052661e+000 35 31 40
-1.786137e-001 -4.387784e+000 -8.174797e+000 34 33 39
-1.398403e+000 -1.566476e+000 -8.901167e+000 199 189 179
-3.282563e-001 -4.151577e+000 -8.280327e+000 36 31 38
-3.646102e-001 -4.369305e+000 -8.093415e+000 30 27 34
-6.364482e-001 -3.957271e+000 -8.278290e+000 35 30 34
2.986318e+000 -2.722408e+000 -5.442319e+000 43 44 49
2.630729e+000 -2.816366e+000 -5.673054e+000 36 35 40
2.699600e+000 -3.129084e+000 -5.625553e+000 37 36 42
2.479750e+000 -2.980819e+000 -5.761340e+000 42 41 47
2.444961e+000 -3.232195e+000 -5.654560e+000 33 32 38
2.319419e+000 -1.218867e+000 -6.060480e+000 56 54 58
6.249424e-002 -3.987952e-001 -4.636541e+000 151 68 35
1.786045e+000 -9.602978e-001 -5.956996e+000 97 36 33
-9.836217e-001 -4.863147e-001 -4.028191e+000 49 41 45
-4.248642e-001 -8.759904e-001 -4.552421e+000 211 161 127
-4.248642e-001 -8.759904e-001 -4.552421e+000 211 161 127
1.374379e+000 -1.038978e+000 -6.105957e+000 116 78 57
-5.654735e-001 -1.149313e+000 -4.576139e+000 116 58 33
5.902663e-002 -1.367713e+000 -5.005111e+000 84 57 44
2.901453e-001 -1.430508e+000 -5.555768e+000 42 23 19
7.399447e-001 -9.956737e-001 -6.064187e+000 86 76 64
2.527328e-002 -1.516143e+000 -5.329602e+000 45 25 21
-1.683423e+000 -6.072797e-001 -3.996661e+000 159 134 82
-5.952327e-001 -6.252631e-001 -5.844038e+000 53 27 23
-2.129369e-001 -1.105647e+000 -6.709949e+000 109 100 88
4.429956e-001 -1.700392e+000 -7.041812e+000 41 19 22
5.815120e-002 -4.438916e+000 -7.962831e+000 27 25 30
-5.851462e-002 -4.503334e+000 -7.988735e+000 30 27 34
-8.606425e-001 -2.658431e+000 -8.271586e+000 196 73 73
-1.592144e-001 -4.546818e+000 -8.088982e+000 31 28 35
1.362914e+000 -3.579864e-001 -5.724897e+000 148 140 127
1.097347e+000 -6.376480e-001 -5.782251e+000 117 55 42
-1.319071e-001 -1.185138e+000 -4.825044e+000 165 121 89
-2.189006e-002 -1.345535e+000 -4.932369e+000 189 107 69
2.389861e-001 -1.318817e+000 -5.224860e+000 46 21 18
-5.034021e-001 -6.709262e-001 -6.289461e+000 60 36 34
-1.646171e-001 -9.327502e-001 -7.018492e+000 112 99 90
-3.193362e-001 -3.892192e-001 -7.272658e+000 128 125 113
-2.413297e-001 -9.649793e-001 -7.332021e+000 218 228 221
-6.409196e-001 -1.547592e+000 -7.810648e+000 122 105 95
-9.501777e-002 -3.909787e+000 -7.763195e+000 180 62 56
-9.501777e-002 -3.909787e+000 -7.763195e+000 180 62 56
-9.585493e-001 -8.997298e-001 -3.981923e+000 47 14 10
-4.507097e-001 -7.541442e-001 -4.447218e+000 84 31 20
6.416465e-001 -2.635955e+000 -7.236900e+000 120 49 49
-7.382147e-001 -1.382896e+000 -7.914697e+000 223 225 216
-1.059109e+000 -9.558535e-001 -8.505439e+000 198 198 188
-1.229091e-001 -3.692022e+000 -7.724945e+000 203 78 82
-1.212804e-001 -9.312473e-001 -4.624360e+000 144 78 44
1.700820e+000 -1.553092e+000 -6.099348e+000 90 32 31
1.359785e+000 -1.427027e+000 -6.273227e+000 214 214 206
-1.247329e+000 -1.630132e+000 -8.431621e+000 227 227 218
-7.359740e-001 -2.607313e+000 -8.258985e+000 218 211 204
-7.453074e-001 -2.789100e+000 -8.300052e+000 172 59 61
-1.198954e+000 -2.074552e+000 -8.754436e+000 162 50 49
2.842550e+000 -1.164480e+000 -5.660721e+000 57 56 60
1.010114e+000 -2.788665e-002 -5.251082e+000 221 223 212
1.091046e+000 -9.123828e-001 -5.742352e+000 193 188 175
-1.010697e+000 -1.039189e+000 -4.112271e+000 72 29 19
-1.015538e+000 -1.050849e+000 -4.103754e+000 72 29 19
1.025157e+000 -8.962971e-001 -6.298573e+000 42 24 24
1.164462e+000 -1.322118e+000 -6.423628e+000 102 93 78
3.891533e-002 -1.206946e+000 -6.239244e+000 79 70 61
-4.050325e-001 -3.594106e+000 -7.977943e+000 184 55 54
3.715685e-001 -6.583764e-001 -4.811410e+000 89 42 32
1.128756e+000 -3.704999e-001 -5.750654e+000 187 187 179
4.314128e-001 -1.143276e+000 -6.062259e+000 109 99 87
-3.815882e-001 -6.892852e-001 -7.235335e+000 139 135 126
-4.677340e-001 -2.510602e-001 -7.505259e+000 230 233 224
3.106602e-001 -4.288288e+000 -7.915304e+000 71 70 78
-5.355532e-001 -2.410557e+000 -8.079053e+000 246 247 239
-1.218458e+000 -9.507779e-001 -4.147145e+000 182 104 65
-4.826981e-001 -7.531174e-001 -6.056646e+000 43 25 25
-1.185740e-001 -3.227483e+000 -7.913677e+000 184 180 169
-1.751278e-001 -3.708094e+000 -7.806192e+000 177 55 57
-1.651785e-001 -3.693559e+000 -7.872453e+000 177 55 57
-8.721644e-001 -2.279042e+000 -8.493131e+000 196 188 177
1.345295e+000 -1.013057e+000 -6.287175e+000 62 19 23
2.733690e-001 -3.895942e+000 -8.192272e+000 20 11 22
-3.692760e-001 -7.421168e-001 -6.056846e+000 44 24 26
-8.643239e-001 -4.946451e-001 -5.970624e+000 183 180 165
1.318784e+000 -1.974702e+000 -6.362294e+000 191 191 179
2.436281e+000 2.015043e+000 -5.690081e+000 174 75 77
2.716974e+000 -1.469446e+000 -5.933912e+000 56 57 62
2.143177e+000 -2.717527e-001 -5.814037e+000 172 155 108
2.543156e+000 -6.870990e-001 -6.034378e+000 58 45 42
2.501197e+000 -1.488372e+000 -5.868757e+000 105 106 111
2.527561e+000 -3.154599e+000 -5.820609e+000 33 32 38
2.472684e+000 -1.842708e+000 -6.167184e+000 120 123 130
2.349323e+000 -2.111791e+000 -6.112859e+000 123 126 133
2.547812e+000 -3.323197e+000 -6.026648e+000 29 28 34
1.827082e+000 -1.090394e+000 -5.951605e+000 198 86 75
2.058867e+000 -2.067885e+000 -6.262290e+000 46 46 54
2.027355e+000 -2.218090e+000 -6.287246e+000 108 111 118
2.021654e+000 -2.383993e+000 -6.302404e+000 55 60 66
2.032536e+000 -2.724177e+000 -6.278462e+000 35 35 40
1.934614e+000 -2.637021e+000 -6.292929e+000 53 56 61
1.961176e+000 -2.687710e+000 -6.330687e+000 36 39 44
1.884618e+000 -2.629724e+000 -6.365793e+000 83 84 89
1.943711e+000 -2.871087e+000 -6.391137e+000 58 58 61
1.838838e+000 -3.036364e+000 -6.450304e+000 30 31 36
1.733559e+000 -3.147865e+000 -6.412605e+000 50 49 55
1.947006e-001 -1.487057e+000 -5.496216e+000 72 59 51
1.557425e+000 -2.515273e+000 -6.669287e+000 41 40 45
1.439430e+000 -2.685910e+000 -6.704533e+000 36 35 40
3.310557e-001 -1.092737e+000 -6.606701e+000 59 26 26
1.695420e-001 2.489187e+000 -7.916586e+000 220 220 209
-2.128500e-001 -1.041696e-001 -7.269073e+000 224 227 220
-2.681136e-001 -7.905680e-001 -6.792469e+000 131 123 115
-9.131288e-001 4.423932e+000 -9.261704e+000 60 61 66
-7.484493e-001 1.716290e+000 -8.496744e+000 203 108 104
-8.051073e-001 1.777961e+000 -8.550386e+000 187 68 70
-1.137832e+000 3.254262e+000 -9.525492e+000 66 67 72
-3.722118e-001 -1.803488e+000 -7.842283e+000 152 144 129
2.955206e-001 -3.213911e+000 -7.818399e+000 45 40 46
3.341311e-001 -3.384737e+000 -7.779637e+000 55 53 58
4.256392e-001 -4.035908e+000 -7.631267e+000 72 68 74
1.756704e-001 -3.420544e+000 -7.836859e+000 97 92 98
2.428410e-001 -3.496791e+000 -7.968906e+000 93 91 96
1.634741e-001 -3.537659e+000 -7.806527e+000 93 91 96
2.650813e-001 -3.790363e+000 -7.801402e+000 47 45 50
-6.347254e-001 -1.669945e+000 -7.942986e+000 131 125 112
-5.327201e-001 -2.141515e+000 -8.076096e+000 229 227 212
2.426891e-001 -4.356376e+000 -7.612810e+000 64 63 70
1.511082e-001 -4.246075e+000 -7.709921e+000 94 91 98
-1.852994e+000 1.948977e+000 -9.877495e+000 82 83 88
-1.813744e+000 1.808207e+000 -9.869644e+000 104 105 110
-1.875578e+000 1.813084e+000 -9.802599e+000 53 54 59
-1.897534e+000 1.832955e+000 -9.907607e+000 96 97 102
-1.962351e+000 1.330876e+000 -1.006450e+001 74 75 79
-1.254350e-001 -4.208864e+000 -7.874887e+000 72 71 76
-2.186191e+000 1.503068e+000 -1.003808e+001 65 64 69
-3.461666e-001 -4.002239e+000 -8.061793e+000 67 62 69
-8.119899e-001 -3.490631e+000 -8.511091e+000 39 32 39
3.148840e+000 -2.485145e+000 -5.560970e+000 45 44 50
3.014799e+000 -2.560536e+000 -5.567118e+000 132 131 137
2.912131e+000 -3.241650e+000 -5.542533e+000 55 54 60
2.967893e+000 2.846950e+000 -5.921957e+000 83 69 72
2.755396e+000 -3.000622e+000 -5.749297e+000 120 117 124
2.873698e+000 -3.086873e+000 -5.689582e+000 50 49 55
2.696592e+000 -3.449797e+000 -5.656232e+000 44 41 48
2.609343e+000 -1.485501e+000 -5.792924e+000 55 56 61
2.755476e+000 -1.581968e+000 -5.937408e+000 42 44 48
2.429363e+000 3.430073e+000 -6.218031e+000 84 52 64
2.420119e+000 -1.215925e+000 -5.970005e+000 52 51 56
2.491303e+000 -1.302091e+000 -6.083502e+000 46 47 52
2.611345e+000 -1.369390e+000 -5.988173e+000 53 54 59
2.611690e+000 -1.716236e+000 -5.971294e+000 59 60 65
2.567678e+000 -3.395847e+000 -5.853697e+000 38 35 42
2.562068e+000 -3.493287e+000 -5.848109e+000 31 28 35
2.236223e+000 -1.669619e+000 -6.076607e+000 61 64 69
2.235176e+000 -1.782559e+000 -6.046229e+000 53 56 61
2.520509e+000 -1.795723e+000 -6.107907e+000 64 67 74
2.139146e+000 -1.924645e+000 -6.156169e+000 45 48 55
1.407036e+000 -9.157067e-001 -5.960532e+000 218 188 144
2.065013e+000 -2.401922e+000 -6.155239e+000 132 137 143
2.115326e+000 -2.444307e+000 -6.246601e+000 52 55 62
2.145728e+000 -2.481596e+000 -6.311920e+000 45 48 55
1.993844e+000 -2.529907e+000 -6.226378e+000 96 99 106
1.841274e+000 -2.488456e+000 -6.378296e+000 36 39 44
1.845789e+000 -2.485698e+000 -6.383524e+000 36 39 44
2.000663e+000 -2.656952e+000 -6.278663e+000 38 41 46
1.933003e+000 -2.603612e+000 -6.320438e+000 41 44 49
1.940142e+000 -2.800675e+000 -6.331143e+000 34 35 40
1.923564e+000 -2.808163e+000 -6.375359e+000 65 66 71
-4.479437e-001 -1.188122e+000 -4.623986e+000 140 60 33
1.839070e+000 -2.367961e+000 -6.588073e+000 36 37 41
1.828788e+000 -2.464357e+000 -6.409264e+000 83 86 91
1.832418e+000 -2.463416e+000 -6.413545e+000 83 86 91
1.827605e+000 -2.576403e+000 -6.419429e+000 79 79 85
1.781952e+000 -2.694738e+000 -6.470100e+000 34 35 40
1.785112e+000 -2.998995e+000 -6.420918e+000 29 30 35
1.667553e+000 -2.492141e+000 -6.523938e+000 33 37 40
1.684517e+000 -2.596056e+000 -6.534731e+000 31 32 36
1.690892e+000 -2.594732e+000 -6.541370e+000 31 32 36
1.727329e+000 -2.669929e+000 -6.509177e+000 32 33 37
1.667566e+000 -2.778150e+000 -6.558206e+000 56 57 61
1.610288e+000 -3.410335e+000 -6.640536e+000 33 31 36
1.369275e+000 -2.675872e+000 -6.817093e+000 55 56 60
9.325685e-001 -1.755968e+000 -6.741723e+000 91 79 67
1.284246e+000 -2.806140e+000 -6.915353e+000 48 47 52
-1.932589e-001 6.083935e+000 -8.650678e+000 34 32 35
-2.723548e-001 5.904464e+000 -8.605106e+000 111 112 118
5.658842e-002 4.962828e+000 -8.675946e+000 104 103 108
-4.324674e-001 -8.922395e-001 -6.201907e+000 79 60 53
3.330814e-002 4.098227e+000 -8.988513e+000 49 47 48
1.314055e-001 4.004166e+000 -9.080112e+000 81 75 79
1.092035e-001 3.677006e+000 -8.816474e+000 72 25 24
-2.634442e-001 -1.016979e+000 -6.663902e+000 97 84 75
-2.537576e-001 -1.040803e+000 -6.702633e+000 83 73 63
1.033408e+000 -4.172870e+000 -7.128258e+000 28 27 33
2.422479e-002 -1.715702e+000 -7.181675e+000 127 119 108
-1.063691e+000 3.624601e+000 -9.446864e+000 54 55 60
-7.267031e-001 1.448368e+000 -8.505963e+000 136 120 103
6.175305e-001 -3.538332e+000 -7.705227e+000 27 22 28
-1.000084e+000 2.302493e+000 -9.230575e+000 68 41 48
4.653500e-001 -3.647778e+000 -7.705220e+000 39 37 42
4.653500e-001 -3.647778e+000 -7.705220e+000 39 37 42
2.464489e-001 -3.417068e+000 -7.803526e+000 38 35 42
2.464489e-001 -3.417068e+000 -7.803526e+000 38 35 42
1.639757e-001 -3.394902e+000 -7.782073e+000 45 43 48
1.437472e-001 -3.519404e+000 -7.835163e+000 42 40 45
1.437472e-001 -3.519404e+000 -7.835163e+000 42 40 45
-1.643329e+000 2.582536e+000 -9.768535e+000 75 76 81
-1.327441e+000 1.254409e+000 -9.214639e+000 73 37 36
1.285618e-001 -3.680675e+000 -7.801923e+000 95 92 100
1.285618e-001 -3.680675e+000 -7.801923e+000 95 92 100
6.455507e-002 -4.208861e+000 -7.786196e+000 51 49 56
2.011198e-001 -4.423654e+000 -7.674819e+000 84 81 88
-1.865626e+000 2.053885e+000 -9.825749e+000 50 51 56
-4.551313e-002 -4.197599e+000 -7.832302e+000 115 114 120
4.974414e-002 -4.242567e+000 -7.969217e+000 39 38 44
-3.629503e-002 -4.249088e+000 -7.867415e+000 105 104 110
-2.570357e-001 -4.150585e+000 -7.918974e+000 37 34 41
-3.189843e-001 -4.217418e+000 -7.940558e+000 73 70 77
-3.189843e-001 -4.217418e+000 -7.940558e+000 73 70 77
-3.298812e-001 -4.376489e+000 -7.978929e+000 32 29 38
-4.610008e-001 -4.237450e+000 -8.023995e+000 35 30 37
-4.610008e-001 -4.237450e+000 -8.023995e+000 35 30 37
-5.414555e-001 -4.416724e+000 -8.039343e+000 79 74 81
2.778530e+000 -2.262216e+000 -5.542314e+000 36 33 40
2.996882e+000 -2.280244e+000 -5.752125e+000 32 29 34
2.712050e+000 -2.795984e+000 -5.544923e+000 48 49 54
2.978995e+000 -2.985162e+000 -5.595563e+000 37 36 41
2.981487e+000 -3.257994e+000 -5.609113e+000 120 119 125
2.981487e+000 -3.257994e+000 -5.609113e+000 120 119 125
2.946683e+000 -3.359136e+000 -5.535795e+000 40 41 46
2.946683e+000 -3.359136e+000 -5.535795e+000 40 41 46
2.885723e+000 -2.535085e+000 -5.710669e+000 33 32 38
2.885723e+000 -2.535085e+000 -5.710669e+000 33 32 38
2.648955e+000 -2.941245e+000 -5.564052e+000 44 45 50
2.865814e+000 -3.239752e+000 -5.740833e+000 94 93 99
2.729793e+000 -3.555316e+000 -5.691423e+000 38 36 41
2.393800e+000 7.637703e-002 -5.773796e+000 185 86 91
2.739066e+000 -2.618109e+000 -5.808637e+000 63 62 67
2.701868e+000 -3.077516e+000 -5.818924e+000 85 84 90
2.701868e+000 -3.077516e+000 -5.818924e+000 85 84 90
2.623997e+000 -3.452818e+000 -5.841362e+000 80 79 85
2.385781e+000 -3.184588e+000 -6.085236e+000 25 24 29
2.052927e+000 -2.162396e+000 -6.277657e+000 46 50 57
2.106243e+000 -2.734489e+000 -6.280030e+000 26 25 30
9.224573e-001 -6.318480e-001 -5.699783e+000 142 141 127
1.865017e+000 -2.274785e+000 -6.404183e+000 25 25 29
1.337959e+000 -1.205231e+000 -6.299713e+000 116 95 81
1.781261e+000 -2.462095e+000 -6.428571e+000 35 38 43
1.860661e+000 -2.619582e+000 -6.392825e+000 37 38 43
1.770732e+000 -2.950978e+000 -6.502451e+000 26 25 30
-1.431673e+000 -6.866146e-001 -4.367629e+000 94 46 29
1.485478e+000 -2.704754e+000 -6.770298e+000 65 64 69
-3.812767e-002 5.518870e+000 -8.669645e+000 31 29 31
6.844364e-003 -1.195225e+000 -6.163030e+000 84 70 62
-1.797846e-001 5.786127e+000 -8.707671e+000 107 109 114
8.696879e-002 3.801289e+000 -9.043969e+000 65 47 47
-2.365573e-001 -1.758977e-001 -7.033746e+000 138 136 131
1.127465e+000 -3.975744e+000 -7.129221e+000 40 41 46
-6.129594e-001 4.446276e+000 -8.935688e+000 92 94 101
-5.977130e-001 4.523203e+000 -8.992756e+000 92 94 101
-5.745630e-001 4.453435e+000 -9.051373e+000 34 33 38
-2.096299e-001 -8.447960e-001 -7.082723e+000 130 126 119
-1.784906e-001 -7.656981e-001 -7.445900e+000 218 221 214
6.005344e-001 -3.531117e+000 -7.777671e+000 59 57 62
6.276221e-001 -3.654512e+000 -7.628338e+000 45 44 49
2.714559e-001 -3.297790e+000 -7.852049e+000 62 60 65
4.277750e-001 -3.882608e+000 -7.836055e+000 38 36 41
1.977264e-001 -3.734904e+000 -7.825160e+000 37 36 41
2.124205e-001 -3.823551e+000 -7.770471e+000 37 32 38
8.087405e-002 -4.345271e+000 -7.752498e+000 105 104 110
-1.445938e+000 -3.418777e-002 -9.123663e+000 200 185 172
1.961194e-002 -4.277707e+000 -7.808651e+000 121 120 126
-1.163564e-001 -4.337835e+000 -7.758451e+000 35 34 40
-1.772642e-001 -4.334145e+000 -7.959889e+000 35 32 41
-3.164907e-001 -4.034493e+000 -8.095873e+000 39 34 41
-4.229023e-001 -4.456659e+000 -7.990347e+000 35 34 40
2.930222e+000 -3.327135e+000 -5.607370e+000 38 38 44
3.008427e+000 -3.509373e+000 -5.583414e+000 38 37 43
2.659817e+000 -3.336290e+000 -5.782370e+000 38 37 43
2.714116e+000 -3.425507e+000 -5.744811e+000 35 34 40
2.558640e+000 -3.485550e+000 -5.729806e+000 34 33 39
2.641018e+000 -3.687320e+000 -5.691603e+000 34 33 39
2.684859e+000 -3.679007e+000 -5.721501e+000 34 33 39
2.603642e+000 -3.266891e+000 -5.871306e+000 34 32 39
1.904267e+000 -1.255202e+000 -5.979121e+000 202 149 119
1.558061e+000 -1.170620e+000 -6.063606e+000 198 161 123
9.490196e-001 -6.722445e-001 -5.735906e+000 169 162 149
1.973316e+000 -2.729128e+000 -6.287499e+000 71 74 79
7.620356e-002 -1.390665e+000 -5.066929e+000 154 92 59
2.409709e-001 -1.332998e+000 -5.317641e+000 104 96 84
1.338633e+000 -1.833219e+000 -6.292352e+000 159 160 148
-1.656360e+000 -4.450864e-001 -4.115830e+000 59 38 17
-4.580390e-001 4.692941e+000 -8.944728e+000 35 37 37
-3.968038e-001 9.671551e-001 -8.336289e+000 219 221 208
-1.031360e+000 1.172529e+000 -8.601017e+000 194 72 75
-1.674538e+000 1.626300e+000 -9.897766e+000 29 27 32
-1.722933e+000 1.564478e+000 -1.000973e+001 32 30 35
-6.352847e-001 -2.676962e+000 -8.118994e+000 170 162 153
-8.819424e-001 -2.237530e+000 -8.523455e+000 169 160 147
-8.819424e-001 -2.237530e+000 -8.523455e+000 169 160 147
-7.633008e-002 -4.273463e+000 -8.074781e+000 36 35 41
-1.584093e-001 -4.297912e+000 -7.883320e+000 36 35 41
-4.927928e-001 -4.022718e+000 -8.216692e+000 37 32 38
-4.927928e-001 -4.022718e+000 -8.216692e+000 37 32 38
-4.015357e-001 -4.313443e+000 -7.972396e+000 34 32 38
2.915118e+000 -3.505337e+000 -5.670333e+000 38 36 42
2.589340e+000 2.114550e+000 -5.552979e+000 193 82 81
3.001440e+000 2.512172e+000 -5.882533e+000 24 16 22
2.669118e+000 -3.563350e-001 -5.723927e+000 200 185 128
2.846184e+000 -3.572434e+000 -5.737133e+000 36 33 40
2.479087e+000 3.382388e-001 -5.872683e+000 177 64 58
2.692304e+000 -3.150603e+000 -5.833287e+000 33 32 38
2.625582e+000 -3.579883e+000 -5.731707e+000 33 32 38
2.170724e+000 -3.340368e-001 -5.779043e+000 183 176 121
2.381418e+000 -3.697474e+000 -5.951848e+000 27 24 31
1.552141e+000 -1.269771e+000 -6.163604e+000 209 180 132
1.103620e-001 -1.393658e+000 -5.193895e+000 93 83 72
6.494828e-002 4.151519e+000 -9.129501e+000 59 57 58
2.637092e-002 4.027628e+000 -9.028333e+000 59 57 58
-4.521392e-001 1.928899e+000 -8.443529e+000 175 67 64
-3.351965e-001 -1.629018e+000 -7.523975e+000 215 215 205
-7.370568e-001 -3.271985e-002 -8.171804e+000 231 233 222
3.037069e+000 -3.441923e+000 -5.572460e+000 58 57 63
2.521666e+000 -1.648532e-001 -5.645376e+000 190 177 122
-4.074582e-001 -1.288866e+000 -4.684121e+000 178 108 71
1.075252e+000 -9.853511e-001 -6.081900e+000 88 74 65
-2.998712e-001 2.185441e+000 -8.108201e+000 209 203 191
6.965327e-001 -2.709754e+000 -7.303956e+000 15 12 19
-7.806062e-001 1.320094e+000 -8.732263e+000 214 215 198
2.558954e+000 5.536134e-001 -5.867237e+000 30 26 30
-2.547656e-001 -1.170363e+000 -4.738826e+000 137 76 42
-1.285293e-001 4.825370e+000 -8.704360e+000 25 21 25
-8.686535e-001 4.596566e+000 -9.259733e+000 93 94 99
-5.193391e-001 1.671164e+000 -8.453391e+000 226 225 216
-5.416258e-001 -4.887638e-001 -8.092348e+000 183 183 171
-8.146147e-001 -2.442455e-002 -8.506935e+000 238 239 231
-7.384174e-001 -2.442687e+000 -8.150344e+000 195 191 182
-9.720790e-002 -8.928476e-001 -4.647793e+000 144 78 44
-4.491323e-001 1.113305e+000 -8.260250e+000 94 81 65
-4.447900e-001 1.124891e+000 -8.269484e+000 94 81 65
-1.232677e+000 -7.198126e-001 -4.077895e+000 53 16 12
-6.306762e-001 4.358833e+000 -9.267019e+000 33 32 37
-4.416631e-001 2.131073e+000 -8.391170e+000 140 44 42
3.643447e-001 -2.526861e+000 -7.305667e+000 75 33 35
-8.630434e-001 4.094136e+000 -9.539732e+000 99 100 105
-2.002081e+000 1.181220e+000 -9.734671e+000 58 57 62
-1.077964e+000 -2.925115e+000 -8.325713e+000 186 71 76
1.952131e-001 -1.157633e+000 -4.957946e+000 96 82 75
-1.117003e+000 5.070681e+000 -8.938545e+000 59 58 63
-2.179951e-001 -2.391421e+000 -7.882431e+000 219 221 210
-1.005384e+000 -2.385086e-001 -8.631593e+000 156 150 139
-5.598997e-001 -2.443925e+000 -8.009058e+000 246 247 239
-7.108644e-001 -3.218841e+000 -8.331249e+000 179 59 61
6.940075e-001 -1.255618e+000 -6.328391e+000 111 102 87
1.369414e+000 -4.078303e+000 -7.308414e+000 91 91 99
-3.477119e-001 -2.667042e+000 -7.882124e+000 211 211 199
2.983651e+000 2.999498e+000 -6.025446e+000 81 72 80
2.912537e+000 -2.840000e+000 -5.419516e+000 55 54 60
2.795142e+000 -1.257929e+000 -5.693595e+000 96 97 102
2.773594e+000 -2.801672e+000 -5.533954e+000 143 144 149
2.170751e+000 1.819711e+000 -5.688507e+000 180 87 87
2.663600e+000 -1.503148e+000 -5.767324e+000 49 49 54
2.470019e+000 -1.999454e+000 -5.964168e+000 38 37 43
2.472405e+000 -2.952249e+000 -5.836237e+000 63 62 68
2.425887e+000 -2.971065e+000 -5.799769e+000 63 62 68
2.533507e+000 -3.432254e+000 -5.699177e+000 92 91 97
2.533507e+000 -3.432254e+000 -5.699177e+000 92 91 97
2.361456e+000 -3.217343e+000 -5.898823e+000 75 73 79
2.361456e+000 -3.217343e+000 -5.898823e+000 75 73 79
1.212730e-001 -8.390176e-001 -4.779409e+000 177 128 83
2.286863e+000 -3.251945e+000 -5.992107e+000 28 26 31
1.275883e+000 -1.035202e+000 -5.900648e+000 140 115 86
2.002061e+000 -2.454059e+000 -6.221064e+000 44 45 50
2.118719e+000 -2.474840e+000 -6.173821e+000 50 53 58
-1.128830e+000 -7.790635e-001 -4.022775e+000 121 56 38
-1.123015e+000 -8.865065e-001 -3.976345e+000 117 49 33
1.854446e+000 -2.533384e+000 -6.374421e+000 45 45 50
1.832426e+000 -2.810105e+000 -6.386623e+000 91 90 95
1.718027e+000 -2.597733e+000 -6.506639e+000 72 71 76
1.699504e+000 -2.670601e+000 -6.539620e+000 62 61 66
9.411720e-001 -2.702994e+000 -7.125077e+000 42 37 43
-3.569675e-001 -2.948860e-001 -7.282163e+000 216 216 207
1.063291e+000 -3.903711e+000 -7.241658e+000 31 27 32
-7.092422e-001 3.953668e-001 -8.589343e+000 202 205 194
-5.615410e-001 -7.221007e-001 -7.940958e+000 192 193 184
4.854170e-001 -3.362933e+000 -7.691220e+000 44 39 45
-1.659921e+000 2.272456e+000 -9.773947e+000 70 70 78
-1.646142e+000 2.198090e+000 -9.766094e+000 102 102 110
3.439345e-001 -3.472941e+000 -7.804383e+000 90 89 95
3.041673e-001 -3.723793e+000 -7.801077e+000 46 45 51
-1.856549e+000 1.935275e+000 -9.859196e+000 84 85 90
3.417494e-001 -3.900412e+000 -7.763146e+000 106 102 109
-2.051928e+000 1.818994e+000 -9.973396e+000 52 51 56
-2.092802e+000 1.664871e+000 -9.980291e+000 66 65 70
2.326821e-001 -4.347787e+000 -7.774526e+000 45 43 52
-4.285199e-001 -3.084746e+000 -7.954518e+000 185 176 167
-1.700187e-001 -4.169213e+000 -8.009088e+000 44 40 45
-3.450338e-001 -4.236508e+000 -8.059133e+000 47 42 49
2.906901e+000 -2.782202e+000 -5.439239e+000 50 49 55
2.828891e+000 -3.080802e+000 -5.470958e+000 131 130 138
2.826010e+000 -2.995864e+000 -5.498362e+000 122 121 129
2.776383e+000 -3.080062e+000 -5.484420e+000 45 44 52
2.864245e+000 -3.187546e+000 -5.449430e+000 49 48 56
2.540209e+000 -3.862520e-001 -5.730604e+000 219 207 152
2.623721e+000 -1.527721e+000 -5.635545e+000 37 36 42
2.764641e+000 -2.676049e+000 -5.588370e+000 46 45 50
2.358195e+000 -4.596121e-002 -5.825128e+000 167 109 86
2.582939e+000 -1.759125e+000 -5.828891e+000 39 40 45
2.364128e+000 -1.928441e+000 -5.940529e+000 147 150 155
2.399443e+000 -2.997352e+000 -5.915739e+000 27 26 32
2.157446e+000 -2.276725e+000 -6.085880e+000 56 59 64
-1.336112e+000 -6.850592e-001 -3.971947e+000 98 54 52
1.915184e+000 -2.812112e+000 -6.309710e+000 40 39 44
1.732320e+000 -2.607943e+000 -6.470524e+000 33 32 37
1.863501e+000 -2.800721e+000 -6.368622e+000 40 39 44
1.764025e+000 -2.838143e+000 -6.443539e+000 34 33 38
1.930189e+000 -3.372866e+000 -6.514048e+000 27 25 30
9.698506e-001 -1.701029e+000 -6.682539e+000 104 96 83
1.303231e+000 -2.954058e+000 -6.862885e+000 26 25 30
-2.975250e-001 4.502642e+000 -8.941273e+000 79 78 83
-1.149649e-002 4.188364e+000 -9.061775e+000 30 28 29
-1.029935e+000 1.672161e+000 -8.531830e+000 72 57 54
-3.968953e-001 -1.427039e+000 -7.571242e+000 182 183 175
4.930633e-001 -3.268575e+000 -7.701709e+000 44 39 44
8.220077e-001 -3.981799e+000 -7.564245e+000 47 45 50
-1.744763e+000 2.032581e+000 -9.804556e+000 60 61 66
3.899448e-001 -3.520687e+000 -7.860834e+000 38 37 42
-9.865647e-001 -4.732166e-001 -8.824569e+000 190 191 183
4.807771e-001 -4.392763e+000 -7.661941e+000 45 44 51
2.456188e-001 -4.327938e+000 -7.741043e+000 42 41 49
3.162821e-001 -4.368276e+000 -7.691708e+000 118 117 125
2.058960e-002 -4.306459e+000 -7.856852e+000 34 32 38
-3.390422e-001 -3.964380e+000 -8.158442e+000 39 34 40
-3.390422e-001 -3.964380e+000 -8.158442e+000 39 34 40
-2.979251e-001 -4.183857e+000 -8.060328e+000 40 35 42
-9.860957e-001 -3.058840e+000 -8.421773e+000 138 43 48
-6.731714e-001 -3.696636e+000 -8.426182e+000 38 31 38
-7.165375e-001 -3.643875e+000 -8.498414e+000 40 33 40
2.935176e+000 -2.706761e+000 -5.421035e+000 48 48 56
2.803451e+000 -2.583721e+000 -5.586125e+000 38 37 43
2.830435e+000 -2.714752e+000 -5.512600e+000 137 138 143
2.830435e+000 -2.714752e+000 -5.512600e+000 137 138 143
2.857222e+000 -2.842485e+000 -5.447287e+000 50 49 57
2.754253e+000 -3.225572e+000 -5.481355e+000 38 36 47
2.683798e+000 -2.944879e+000 -5.569100e+000 44 43 49
2.433618e+000 -3.102817e+000 -5.887785e+000 31 30 36
2.324429e+000 -3.222257e+000 -5.924144e+000 33 30 37
2.338898e+000 -3.309214e+000 -5.948304e+000 31 29 34
2.338898e+000 -3.309214e+000 -5.948304e+000 31 29 34
2.299886e+000 -3.422114e+000 -5.956101e+000 29 27 32
2.050910e+000 -2.375487e+000 -6.196135e+000 40 41 46
1.948106e+000 -3.405877e+000 -6.497956e+000 59 57 62
1.604049e+000 -2.974901e+000 -6.595646e+000 26 24 29
1.417113e+000 -2.731748e+000 -6.767453e+000 30 29 34
1.514341e+000 -3.008087e+000 -6.694577e+000 48 46 51
1.514341e+000 -3.008087e+000 -6.694577e+000 48 46 51
1.639206e+000 -3.400341e+000 -6.606946e+000 22 20 25
2.201673e-001 -4.307893e+000 -7.771948e+000 139 139 147
-4.063883e-001 -4.039030e+000 -8.145871e+000 41 36 42
-2.903879e-001 -4.289350e+000 -8.064718e+000 36 31 37
2.900917e+000 -2.769495e+000 -5.492632e+000 129 128 137
2.902489e+000 -3.211995e+000 -5.506675e+000 120 119 127
2.902489e+000 -3.211995e+000 -5.506675e+000 120 119 127
2.448272e+000 3.256176e+000 -6.162276e+000 204 79 87
2.605187e+000 -2.591557e+000 -5.712880e+000 36 33 40
1.322316e+000 -9.811555e-001 -6.169092e+000 98 67 49
-5.377225e-001 -5.290139e-001 -6.290969e+000 203 203 187
-6.528728e-001 -1.926664e+000 -8.222900e+000 190 190 177
-1.726814e+000 4.201254e-001 -9.524946e+000 50 35 36
-1.252714e-001 -3.949655e+000 -7.815577e+000 22 14 20
-3.229849e-001 -4.109091e+000 -8.130064e+000 38 33 39
-2.789025e-001 -2.923170e-001 -7.333294e+000 134 129 118
-5.635109e-001 -8.387692e-001 -7.784581e+000 238 240 235
-2.933630e-001 2.176573e+000 -8.099332e+000 201 204 199
1.156672e+000 -2.251943e+000 -6.607956e+000 191 191 183
1.156672e+000 -2.251943e+000 -6.607956e+000 191 191 183
7.867287e-002 -3.210028e+000 -7.421798e+000 25 20 24
7.706092e-001 -2.921643e+000 -7.259309e+000 26 21 25
6.523554e-001 -1.499380e+000 -5.557999e+000 37 27 27
1.264706e+000 3.444516e+000 -6.690660e+000 46 34 33
3.275620e+000 2.894984e+000 -5.532503e+000 67 67 75
2.137869e+000 -2.327100e+000 -6.089585e+000 134 139 145
1.976811e+000 -2.430228e+000 -6.214385e+000 90 95 101
1.742644e+000 -2.506586e+000 -6.493438e+000 78 78 83
-3.316267e-001 6.016900e+000 -8.568013e+000 70 68 73
-1.442301e-002 4.963228e+000 -8.591696e+000 101 101 105
-7.790488e-001 4.516224e+000 -9.080400e+000 95 96 101
-1.647716e-001 -1.194305e+000 -7.110130e+000 123 114 98
-4.448868e-001 -1.585872e+000 -7.627334e+000 194 192 179
5.064827e-001 -3.480499e+000 -7.833862e+000 61 59 64
-1.365168e+000 2.733458e+000 -9.599111e+000 59 60 65
-8.303987e-001 -5.238220e-001 -8.539033e+000 205 205 195
-7.785003e-001 -1.589439e+000 -8.015915e+000 127 118 106
2.562725e-001 -3.855412e+000 -7.872177e+000 47 42 48
-7.001007e-002 -3.966330e+000 -7.721333e+000 19 13 18
1.744438e-001 -4.245340e+000 -7.883246e+000 75 72 79
-1.235236e+000 -1.435527e+000 -8.308851e+000 203 203 193
-5.245084e-001 -4.241235e+000 -8.291784e+000 54 49 55
-5.245084e-001 -4.241235e+000 -8.291784e+000 54 49 55
3.292522e+000 2.797216e+000 -5.538237e+000 63 66 73
3.099445e+000 2.491247e+000 -5.766700e+000 70 73 76
3.026270e+000 2.503579e+000 -5.783415e+000 128 126 131
3.174571e+000 2.230569e+000 -5.775213e+000 105 106 111
2.384660e+000 -2.996378e+000 -5.895646e+000 27 25 30
-2.075605e-001 5.640065e+000 -8.493049e+000 33 31 34
1.999857e-002 4.412807e+000 -8.801975e+000 43 38 42
1.109485e-001 2.499863e+000 -7.962832e+000 220 208 191
-3.402700e-001 2.050618e+000 -8.234678e+000 183 174 155
-3.461471e-001 -8.409584e-001 -7.661654e+000 214 217 208
3.457591e-001 -3.619119e+000 -7.899452e+000 113 111 116
-1.941357e+000 2.193288e+000 -9.987637e+000 44 44 50
1.566400e-002 -4.234263e+000 -7.992212e+000 105 104 110
-7.498314e-002 -4.239991e+000 -8.015602e+000 37 36 43
2.758184e+000 -2.740992e+000 -5.459772e+000 138 137 143
2.504407e+000 -2.707911e+000 -5.832866e+000 27 26 31
-5.305816e-001 -1.375435e+000 -4.776311e+000 71 25 12
-2.479916e-001 -8.673366e-001 -7.291747e+000 218 221 214
-5.101339e-001 2.722071e+000 -9.008556e+000 65 45 51
-3.969723e-001 4.885437e-001 -8.209654e+000 201 203 192
-3.600301e-001 -4.247925e+000 -8.209768e+000 77 71 81
2.838077e+000 -1.059525e-001 -5.449135e+000 181 166 111
-1.440566e-001 5.120826e+000 -8.676777e+000 26 21 25
-4.119566e-001 4.375828e+000 -8.973780e+000 29 26 30
-1.121874e+000 -2.341050e+000 -8.741673e+000 153 46 47
-9.749642e-001 -1.005600e+000 -4.019450e+000 175 105 73
1.244822e+000 -1.883318e+000 -6.426396e+000 193 194 182
-3.231744e-001 5.543208e+000 -8.647826e+000 35 33 38
-4.644070e-001 1.460856e-001 -8.261208e+000 213 215 204
-1.293504e+000 -9.277783e-001 -4.096406e+000 89 32 18
2.048796e+000 -2.030314e+000 -6.210636e+000 57 60 66
-4.720572e-001 -1.537437e+000 -4.990052e+000 141 81 49
-1.004512e-001 4.590262e+000 -8.876924e+000 55 56 60
-2.886900e-001 2.921856e+000 -8.514086e+000 42 43 42
-1.049029e+000 3.504884e+000 -9.775699e+000 86 89 94
-1.100520e+000 -4.296887e-001 -8.878344e+000 222 222 211
1.729391e+000 -2.268422e+000 -6.282469e+000 19 17 22
4.023659e-001 -1.163408e+000 -6.430080e+000 24 17 16
5.619651e-001 -3.819431e+000 -7.782455e+000 39 37 42
3.558825e-001 -3.525698e+000 -7.881358e+000 96 95 100
2.756273e-001 -3.625816e+000 -7.910198e+000 87 87 92
-1.194012e-002 -4.113829e+000 -8.089249e+000 48 47 52
-7.295786e-001 4.355303e+000 -9.046116e+000 40 42 45
6.395950e-001 -4.092066e+000 -7.722365e+000 37 34 43
4.049233e-001 -3.415693e+000 -7.868964e+000 34 33 39
-1.297304e+000 -2.160336e+000 -9.002305e+000 156 51 51
1.868066e+000 -2.264103e+000 -6.417743e+000 23 23 28
-5.038745e-001 -1.388635e+000 -4.815307e+000 78 32 17
-9.686767e-002 -1.792294e+000 -7.309723e+000 122 114 101
3.887226e+000 1.484964e+000 -5.081598e+000 33 32 36
3.188071e+000 -1.501909e+000 -5.260062e+000 37 39 43
3.542961e+000 1.928172e+000 -5.252246e+000 38 35 42
2.916133e+000 -2.010754e+000 -5.352115e+000 45 46 50
2.916133e+000 -2.010754e+000 -5.352115e+000 45 46 50
2.870175e+000 -2.102094e+000 -5.343844e+000 52 53 57
2.851508e+000 -2.223880e+000 -5.377064e+000 43 45 49
2.876313e+000 -2.279619e+000 -5.334389e+000 58 58 63
3.490988e+000 2.002864e+000 -5.375630e+000 74 75 80
3.406593e+000 2.270873e+000 -5.377138e+000 61 64 69
3.536046e+000 1.995227e+000 -5.343731e+000 46 45 51
3.549858e+000 1.671225e+000 -5.379060e+000 40 39 44
3.574456e+000 1.776812e+000 -5.471385e+000 47 48 53
2.808892e+000 -2.081736e+000 -5.534477e+000 37 36 42
2.623676e+000 -2.935623e+000 -5.508971e+000 134 135 140
2.578275e+000 -3.511238e+000 -5.670134e+000 124 124 131
2.577007e+000 -1.463477e+000 -5.761333e+000 109 110 115
2.577007e+000 -1.463477e+000 -5.761333e+000 109 110 115
2.466474e+000 -2.750992e+000 -5.763115e+000 72 71 76
2.184536e+000 -3.977211e+000 -6.007416e+000 30 27 34
2.158236e+000 -2.066461e+000 -6.066251e+000 66 69 74
1.756249e+000 -2.530161e+000 -6.462555e+000 34 37 42
1.679295e+000 -2.397420e+000 -6.545292e+000 33 36 41
1.726846e+000 -3.097973e+000 -6.539213e+000 36 35 41
1.617689e+000 -2.474553e+000 -6.582159e+000 47 51 54
1.623849e+000 -2.854021e+000 -6.611321e+000 32 33 38
1.558519e+000 -2.834203e+000 -6.630358e+000 36 35 40
1.080850e+000 -4.127177e+000 -7.268226e+000 78 73 80
-1.596639e-001 4.542543e+000 -8.762212e+000 77 78 82
3.562143e-001 -2.232128e+000 -7.344908e+000 104 83 79
-3.340913e-001 2.530590e+000 -8.317719e+000 187 74 77
-1.832358e-001 -1.322459e+000 -7.009118e+000 123 115 100
7.458594e-001 -3.517383e+000 -7.711903e+000 43 41 46
7.050008e-001 -3.511243e+000 -7.733786e+000 49 47 52
-2.531471e-001 -1.619004e+000 -7.268763e+000 177 181 175
6.081442e-001 -3.733444e+000 -7.809951e+000 71 68 75
-9.240339e-001 4.064990e+000 -9.078470e+000 64 65 70
4.139778e-001 -3.507660e+000 -7.895470e+000 42 41 47
-5.239229e-001 -1.117431e+000 -7.770070e+000 220 221 215
3.339093e-001 -3.612056e+000 -7.935027e+000 49 48 54
3.082554e-001 -3.740417e+000 -7.940441e+000 102 103 108
1.807671e-001 -4.219879e+000 -7.965081e+000 132 129 136
1.553984e-002 -4.236267e+000 -8.047071e+000 48 45 52
-1.044196e+000 -1.034015e+000 -8.631227e+000 196 196 186
-1.580215e+000 6.439249e-001 -9.070996e+000 85 47 54
3.108094e+000 -1.637447e+000 -5.208974e+000 41 42 46
3.567766e+000 2.123066e+000 -5.184444e+000 48 49 54
3.002939e+000 -1.883566e+000 -5.297832e+000 45 46 51
2.977760e+000 -1.884281e+000 -5.365309e+000 43 44 48
2.771665e+000 -2.632925e+000 -5.391711e+000 60 60 66
3.472002e+000 2.496187e+000 -5.323297e+000 54 55 60
2.896888e+000 -2.250456e+000 -5.481905e+000 39 40 45
2.589801e+000 -2.916396e+000 -5.606705e+000 50 51 55
3.180037e+000 2.398463e+000 -5.627291e+000 67 67 74
2.550299e+000 -2.541151e+000 -5.729425e+000 35 33 38
2.213280e+000 -3.797090e+000 -5.970559e+000 28 25 32
2.057248e+000 -2.366333e+000 -6.199577e+000 53 56 63
7.320613e-002 -1.342258e+000 -4.844077e+000 100 91 80
1.587444e+000 -3.163091e+000 -6.647161e+000 25 24 29
1.298019e+000 -2.797132e+000 -6.931908e+000 58 57 62
3.766497e-001 3.283025e+000 -7.641251e+000 152 55 53
9.782309e-003 4.391260e+000 -8.791267e+000 48 47 50
-4.726050e-001 4.341850e+000 -8.830315e+000 80 81 86
-4.572633e-001 4.398149e+000 -8.870886e+000 80 81 86
-2.093855e-001 -1.315864e+000 -7.171745e+000 186 189 182
5.170212e-001 -3.538838e+000 -7.826536e+000 39 38 43
3.794923e-001 -3.604388e+000 -7.940984e+000 113 112 117
3.829397e-001 -3.603432e+000 -7.946496e+000 113 112 117
4.872174e-001 -3.960291e+000 -7.900105e+000 38 33 39
-1.339152e+000 2.352072e+000 -9.522210e+000 89 92 97
-5.141918e-001 -3.959728e+000 -8.393400e+000 38 33 39
3.684242e+000 1.978639e+000 -5.237537e+000 36 36 42
2.933735e+000 -2.164909e+000 -5.365785e+000 53 54 58
2.820892e+000 -1.201305e-001 -5.443104e+000 188 176 119
2.688072e+000 -2.328177e+000 -5.629838e+000 37 38 42
2.701679e+000 -2.321733e+000 -5.639253e+000 37 38 42
2.595341e+000 -3.621728e+000 -5.652796e+000 104 105 110
2.422823e+000 -3.953913e+000 -5.738607e+000 38 34 41
2.367724e+000 -1.036789e-001 -5.805020e+000 244 241 186
2.386726e+000 -3.056913e+000 -5.830893e+000 34 35 40
2.265889e+000 -3.548909e+000 -5.994036e+000 34 31 38
2.073265e+000 -2.565428e+000 -6.149950e+000 45 46 51
2.128012e+000 -3.425124e+000 -6.122415e+000 24 23 29
2.100661e+000 -3.483230e+000 -6.162323e+000 27 26 32
1.773701e+000 -1.956161e+000 -5.979198e+000 72 74 78
1.682823e+000 -1.420963e+000 -6.159688e+000 191 127 114
1.953798e+000 -3.773623e+000 -6.340808e+000 39 37 42
1.568345e+000 -2.982072e+000 -6.687256e+000 28 27 32
1.417482e+000 -2.800038e+000 -6.855691e+000 32 31 36
-1.445538e+000 -7.224511e-001 -4.353770e+000 100 54 36
3.843166e-001 3.290721e+000 -7.839135e+000 182 79 75
-2.845504e-001 -8.308573e-001 -7.639304e+000 235 240 233
6.232273e-001 -3.457340e+000 -7.841645e+000 31 30 35
6.262245e-001 -3.520173e+000 -7.809574e+000 70 69 74
-2.455337e-001 -1.842595e+000 -7.470732e+000 121 114 101
3.468192e-001 -3.319971e+000 -7.907643e+000 42 41 46
-5.848386e-001 -1.209985e+000 -7.844883e+000 206 209 200
-5.848386e-001 -1.209985e+000 -7.844883e+000 206 209 200
3.370693e-001 -3.772919e+000 -7.994948e+000 34 33 38
-4.394933e-001 -2.207758e+000 -8.024495e+000 194 192 177
-4.394933e-001 -2.207758e+000 -8.024495e+000 194 192 177
-5.256598e-001 -2.049298e+000 -8.118678e+000 193 190 173
5.959293e-003 -4.302393e+000 -8.017102e+000 45 42 51
-1.304053e-001 -3.999196e+000 -8.229727e+000 46 41 48
-1.380887e-002 -4.259448e+000 -8.045586e+000 137 134 141
2.577522e+000 -3.586017e+000 -5.699761e+000 38 37 43
2.452299e+000 -2.882895e+000 -5.839926e+000 35 34 40
2.379936e+000 -3.754800e+000 -5.858936e+000 34 31 38
2.281667e+000 -4.026138e+000 -5.912015e+000 28 25 32
2.256310e+000 -3.137451e+000 -6.023402e+000 29 26 33
2.032260e+000 -3.841031e+000 -6.237216e+000 23 20 27
1.326937e+000 -1.847123e+000 -6.289151e+000 166 164 155
1.624188e+000 -2.889529e+000 -6.628649e+000 32 31 36
-2.845855e-001 -9.755019e-001 -6.615585e+000 78 65 56
-2.429889e-001 -7.416925e-001 -6.936263e+000 115 110 103
3.088144e-001 -2.104743e+000 -7.204831e+000 115 98 90
-3.538162e-001 -3.719939e-001 -7.451546e+000 190 195 189
6.191096e-001 -3.408079e+000 -7.816933e+000 47 46 51
6.024861e-001 -3.563297e+000 -7.852727e+000 44 43 48
1.196936e-001 -3.035961e+000 -7.640617e+000 162 67 72
-8.312489e-001 -5.634832e-001 -8.586938e+000 228 228 216
3.009171e+000 2.048166e-001 -5.334159e+000 145 132 88
2.455742e+000 -3.916538e+000 -5.748583e+000 36 34 40
2.455742e+000 -3.916538e+000 -5.748583e+000 36 34 40
2.357542e+000 -3.990528e+000 -5.813247e+000 29 27 34
2.273417e-001 -1.192039e+000 -4.857798e+000 106 97 88
-7.200489e-001 -1.568896e+000 -8.184849e+000 93 84 69
-6.556121e-001 -1.928700e+000 -8.218513e+000 192 188 175
3.335732e+000 -1.085582e-001 -5.322374e+000 27 22 28
1.823493e+000 -1.346376e+000 -6.078868e+000 184 147 104
-1.382418e+000 -9.859179e-001 -4.237735e+000 89 35 18
-6.447725e-002 -3.431759e+000 -7.704209e+000 181 164 155
3.293713e+000 4.123644e-001 -5.220663e+000 48 42 42
1.202716e+000 -1.328567e+000 -6.363155e+000 95 85 73
3.203603e-002 -1.768636e+000 -7.335287e+000 105 99 87
1.268797e-002 -2.962182e+000 -7.405479e+000 74 34 34
-5.879639e-001 -2.226817e-001 -8.206515e+000 228 230 219
2.753556e+000 -1.054896e-002 -5.473555e+000 174 163 109
-6.799873e-002 1.761029e+000 -7.948164e+000 186 182 170
2.683263e+000 -1.457587e+000 -5.909092e+000 66 67 72
-7.870403e-001 -9.969446e-001 -8.229794e+000 239 240 232
2.963510e+000 -7.167778e-002 -5.377231e+000 166 153 102
2.402560e+000 1.219780e-001 -5.585063e+000 46 49 53
2.131736e+000 -4.956262e-001 -5.955331e+000 255 254 222
2.131736e+000 -4.956262e-001 -5.955331e+000 255 254 222
1.717868e-001 -3.975982e+000 -7.938895e+000 29 24 30
-3.218183e-001 -1.071340e+000 -7.740440e+000 229 234 227
-9.723757e-001 -1.043967e+000 -3.951629e+000 120 67 50
-7.153425e-001 -8.409672e-001 -4.107257e+000 55 43 42
-4.432493e-001 -1.342087e+000 -4.643603e+000 186 112 70
-1.036926e+000 -1.060263e+000 -3.933690e+000 47 9 7
-5.008757e-001 -1.402807e+000 -4.750721e+000 104 52 31
-3.710188e-001 -7.914973e-001 -4.536186e+000 97 34 16
-1.398912e+000 -1.070286e+000 -3.903611e+000 32 11 15
-1.031994e+000 -1.079445e+000 -4.100061e+000 83 34 19
-1.304679e+000 -8.561935e-001 -4.047114e+000 46 19 16
3.212289e+000 2.067035e+000 -5.755023e+000 42 41 46
1.576864e+000 -3.167857e+000 -6.689058e+000 39 38 43
4.937493e-001 -3.918938e+000 -7.823052e+000 43 42 48
1.921310e+000 -2.515463e+000 -6.311200e+000 122 125 130
-9.188595e-001 -1.092447e+000 -4.007639e+000 109 50 31
1.281634e+000 -1.928340e+000 -6.376521e+000 171 173 162
-5.709054e-001 -1.341012e+000 -4.736085e+000 67 28 18
-5.468054e-001 1.611294e+000 -8.372684e+000 228 223 216
4.587892e+000 2.581967e+000 -4.426083e+000 90 91 95
4.479677e+000 2.180010e+000 -4.597243e+000 62 61 67
4.526551e+000 1.884175e+000 -4.647884e+000 40 39 44
4.340006e+000 1.748354e+000 -4.677715e+000 75 74 79
4.630261e+000 1.721596e+000 -4.730040e+000 33 32 37
4.602159e+000 1.410499e+000 -4.920657e+000 37 35 40
4.602159e+000 1.410499e+000 -4.920657e+000 37 35 40
4.439669e+000 1.320930e+000 -4.957047e+000 42 41 46
4.309106e+000 7.333994e-001 -5.078375e+000 46 44 47
3.233626e+000 -1.649852e+000 -5.230275e+000 49 48 54
3.183338e+000 -1.801873e+000 -5.292507e+000 53 52 58
3.195488e+000 -1.817065e+000 -5.341345e+000 91 91 97
4.503533e+000 3.025069e+000 -4.503682e+000 73 74 79
4.462951e+000 2.725312e+000 -4.519520e+000 74 77 82
4.466203e+000 2.482591e+000 -4.586488e+000 70 71 75
4.466811e+000 2.375020e+000 -4.666980e+000 66 67 72
4.466811e+000 2.375020e+000 -4.666980e+000 66 67 72
4.375098e+000 2.073332e+000 -4.757573e+000 64 65 70
4.383619e+000 2.215667e+000 -4.755432e+000 57 58 62
4.449730e+000 1.661974e+000 -4.854997e+000 57 56 64
3.303641e+000 -1.344500e+000 -5.470268e+000 35 34 40
2.852507e+000 -2.377434e+000 -5.520449e+000 45 46 49
2.837384e+000 -2.344334e+000 -5.536851e+000 86 87 92
2.705696e+000 -2.829552e+000 -5.651794e+000 109 109 114
2.497794e+000 -3.421719e+000 -5.784073e+000 50 49 55
4.289487e+000 3.109777e+000 -4.603385e+000 61 61 69
3.957105e+000 1.838860e+000 -4.954827e+000 58 59 64
4.000228e+000 1.904759e+000 -5.119235e+000 104 104 109
3.011822e+000 -1.626744e+000 -5.563205e+000 47 46 51
2.778063e+000 -2.134796e+000 -5.700033e+000 37 36 42
2.564733e+000 -2.645347e+000 -5.746360e+000 34 35 40
2.604915e+000 -2.934926e+000 -5.752226e+000 109 110 115
2.474375e+000 -3.068983e+000 -5.797942e+000 45 46 51
2.424507e+000 -3.196382e+000 -5.753123e+000 42 43 48
2.395249e+000 -3.207144e+000 -5.908986e+000 102 103 108
