ply
format ascii 1.0
element face 0
property list uchar int vertex_indices
element vertex 876
property float x
property float y
property float z
property uchar diffuse_red
property uchar diffuse_green
property uchar diffuse_blue
end_header
-6.031136e-001 2.206550e+000 -8.634569e+000 187 73 76
2.418577e+000 -8.962767e-001 -6.015180e+000 41 38 38
-8.726452e-001 -6.601339e-001 -4.081609e+000 210 178 133
-8.773499e-001 -6.608035e-001 -4.099623e+000 210 178 133
7.429911e-001 1.899643e+000 -6.829848e+000 212 214 203
1.813098e+000 8.825742e-001 -5.805889e+000 238 239 231
1.098972e+000 1.423173e+000 -6.633426e+000 231 234 225
-2.867284e-001 2.195315e+000 -8.102182e+000 221 215 214
-1.604217e-001 -7.867383e-001 -4.819632e+000 161 121 88
1.476713e-001 1.682366e+000 -7.582473e+000 237 240 231
2.500101e+000 3.998086e-002 -5.865787e+000 54 49 51
-2.878337e-001 -7.120830e-001 -4.666615e+000 171 136 106
-3.196193e-001 -1.124970e+000 -4.608819e+000 89 37 24
2.088782e+000 -2.796950e-001 -6.236201e+000 165 155 107
-2.015549e-001 -5.490900e-001 -4.659132e+000 110 61 39
2.154750e+000 -1.048557e+000 -5.940619e+000 208 87 90
5.691146e-002 -9.218683e-001 -4.869231e+000 231 195 145
2.311306e+000 1.839245e+000 -5.619088e+000 182 86 80
2.006954e+000 1.561980e+000 -5.810198e+000 198 185 176
-1.290570e+000 -5.213394e-001 -4.046395e+000 93 43 37
3.100200e-001 -1.964298e-001 -4.866815e+000 126 129 118
-2.478510e-001 -1.676843e-001 -4.568571e+000 52 51 43
-5.486182e-001 -5.872452e-001 -4.318460e+000 155 117 89
-1.411497e+000 -5.344110e-001 -4.122468e+000 160 140 89
-1.195259e-001 -2.545438e-001 -4.652398e+000 163 121 97
1.610230e+000 -6.759872e-001 -6.092231e+000 178 149 117
-7.726037e-001 -4.897570e-001 -4.343580e+000 85 49 51
2.374447e+000 -9.819730e-001 -5.962958e+000 44 35 33
-1.455240e+000 -5.238246e-001 -4.142687e+000 49 42 34
2.341450e+000 1.556501e+000 -5.903073e+000 189 90 86
2.326278e+000 1.374707e+000 -5.763737e+000 46 41 48
1.734917e-001 -4.718684e-001 -4.623035e+000 213 191 149
7.218940e-001 -4.605986e-001 -5.492489e+000 166 162 159
-9.337546e-001 -4.641693e-001 -4.136162e+000 90 33 24
-1.548247e+000 -6.124363e-001 -4.061392e+000 34 28 30
1.910643e+000 -1.434429e+000 -6.136645e+000 111 34 31
1.428229e+000 2.100364e+000 -6.396178e+000 254 255 213
1.665224e+000 1.770477e+000 -6.142573e+000 201 199 186
1.073814e+000 1.690691e+000 -6.586420e+000 227 233 223
2.418580e+000 -6.981533e-001 -5.899269e+000 47 27 22
1.520118e+000 2.270838e+000 -6.281043e+000 222 219 204
-1.068561e+000 1.708355e+000 -8.745935e+000 191 73 67
-7.320661e-001 1.568913e+000 -8.442374e+000 220 228 217
-1.947421e-001 -2.915273e-001 -4.594544e+000 141 95 68
-3.390231e-001 1.934717e+000 -8.490647e+000 212 213 201
1.075689e+000 7.520297e-001 -5.803740e+000 113 106 80
-1.281646e+000 -6.059929e-001 -4.027497e+000 82 32 26
-7.523471e-001 -7.170055e-001 -4.175389e+000 47 36 34
-9.744380e-001 -6.341391e-001 -3.970122e+000 126 58 39
2.087680e+000 1.288874e+000 -5.606913e+000 228 228 220
1.392072e+000 -1.172109e+000 -6.138331e+000 63 31 31
1.532350e+000 -9.484648e-001 -6.008319e+000 224 190 142
8.854457e-001 1.608368e+000 -6.639853e+000 216 219 208
-6.736950e-001 -6.128022e-001 -4.240209e+000 217 184 133
2.328234e+000 1.684500e+000 -5.811479e+000 93 45 48
3.447621e-001 8.499204e-001 -6.712296e+000 236 239 233
6.264836e-001 5.729568e-001 -6.475392e+000 213 217 202
4.984958e-001 -6.783703e-002 -5.341946e+000 215 220 214
2.127352e+000 -1.876279e-001 -6.072444e+000 128 103 81
4.300536e-001 -2.063232e-001 -5.073817e+000 140 137 132
1.015990e-001 -5.639859e-001 -4.538544e+000 175 125 85
-9.220378e-001 -7.034363e-001 -4.041489e+000 129 73 44
-7.476223e-001 -7.396615e-001 -4.152587e+000 96 74 59
1.432285e+000 9.258128e-001 -6.045757e+000 231 235 220
2.637428e+000 3.862439e-001 -5.977595e+000 99 100 102
-7.296276e-001 1.305094e+000 -8.580959e+000 206 210 196
6.586840e-001 -1.033091e-001 -5.373293e+000 203 206 199
-3.540482e-001 -1.424180e-001 -4.590208e+000 171 159 133
3.325630e-001 -1.498915e-001 -4.935112e+000 178 183 174
1.154777e+000 -3.062075e-001 -5.679464e+000 161 164 157
-8.055530e-001 -4.481514e-001 -4.410873e+000 197 174 160
-1.482685e+000 -6.338568e-001 -4.057471e+000 148 131 83
1.189555e+000 1.469018e+000 -6.350746e+000 139 129 93
2.920051e+000 1.141372e+000 -5.928908e+000 47 46 52
-7.649843e-001 1.376331e+000 -8.627661e+000 220 204 189
6.148181e-001 -3.102073e-001 -5.350745e+000 115 111 108
-6.675723e-001 -3.405655e-001 -4.877926e+000 161 74 35
1.843943e+000 -8.089142e-001 -6.343084e+000 197 69 77
2.663594e+000 1.511414e+000 -6.064841e+000 64 63 71
2.825142e+000 1.457480e+000 -5.989608e+000 58 59 64
1.309230e-001 2.527489e+000 -7.906290e+000 217 213 193
1.145934e+000 1.335066e+000 -6.518146e+000 230 233 215
2.999149e-001 1.123565e+000 -6.873696e+000 226 230 224
2.716721e+000 -8.959605e-001 -5.865517e+000 46 44 49
-9.730621e-001 -4.318501e-001 -4.135271e+000 165 92 60
-1.459919e+000 -5.272414e-001 -4.155515e+000 49 42 34
-1.333726e+000 -4.941108e-001 -4.119938e+000 63 22 21
1.044285e+000 1.823801e+000 -6.616053e+000 222 224 214
1.460417e+000 1.500584e+000 -6.218080e+000 253 254 212
-1.137229e+000 1.827765e+000 -8.865785e+000 71 44 45
-9.335499e-001 1.292065e+000 -8.795598e+000 200 71 79
-5.079623e-001 -5.875117e-001 -4.329894e+000 166 137 100
-1.075253e+000 -6.593899e-001 -3.982795e+000 166 82 46
-9.717083e-001 -9.656393e-001 -3.987288e+000 90 39 34
1.194378e+000 1.106869e+000 -6.218496e+000 121 117 93
-7.949639e-001 1.462750e+000 -8.620790e+000 105 59 48
-1.120311e+000 1.417256e+000 -8.918455e+000 186 71 68
-8.771073e-001 1.171077e+000 -8.788019e+000 213 217 203
-1.058301e+000 1.075074e+000 -8.912648e+000 185 72 67
1.608304e+000 -5.990231e-001 -6.118223e+000 73 50 37
1.733628e+000 -9.754873e-001 -6.089922e+000 102 32 31
-1.393283e+000 -8.314386e-001 -3.969730e+000 42 32 25
-1.393283e+000 -8.314386e-001 -3.969730e+000 42 32 25
1.909769e+000 2.281969e+000 -6.085526e+000 205 197 184
2.122166e+000 2.152603e+000 -5.892223e+000 230 225 218
3.982757e-001 1.568314e+000 -7.027189e+000 201 204 195
6.603920e-002 7.538021e-001 -6.974008e+000 187 187 176
1.079949e+000 -5.581845e-001 -5.666329e+000 172 175 167
-7.613142e-001 1.225765e+000 -8.518747e+000 214 216 204
-1.510687e-001 8.762769e-001 -7.562489e+000 236 241 234
8.169470e-002 -3.803817e-001 -4.607926e+000 149 71 56
1.124081e+000 -8.163179e-001 -5.828744e+000 209 215 200
-1.561054e+000 -5.063340e-001 -4.110594e+000 143 125 78
-1.482724e+000 -8.278525e-001 -3.915623e+000 141 119 74
1.315875e+000 1.034451e+000 -6.125100e+000 254 255 244
3.467589e-001 -3.943570e-001 -4.692152e+000 179 181 172
3.685019e-001 -7.376753e-001 -4.838588e+000 58 33 26
1.700685e+000 -2.070060e+000 -6.185672e+000 199 195 184
5.787663e-001 2.134698e+000 -7.012844e+000 218 218 206
3.230282e-001 1.402489e+000 -6.926777e+000 207 211 202
-1.323483e+000 -6.220675e-001 -4.002100e+000 130 79 75
6.123634e-001 2.111941e+000 -6.957805e+000 189 189 177
6.174244e-001 2.115561e+000 -6.971025e+000 189 189 177
2.388305e-001 9.309941e-001 -6.767033e+000 224 230 220
-3.207374e+000 7.577022e-001 -1.088800e+001 56 56 58
-3.760541e-001 -1.923906e-001 -4.554163e+000 175 169 150
2.795042e+000 -7.119596e-001 -5.819097e+000 50 49 54
-1.144308e+000 -3.227828e-001 -4.224783e+000 83 45 39
2.757842e+000 -8.407034e-001 -5.831861e+000 109 108 114
-1.084842e+000 -5.387481e-001 -4.065230e+000 191 103 65
5.299119e-001 1.806205e+000 -6.960294e+000 228 229 221
2.575929e+000 1.270624e+000 -5.980871e+000 67 68 73
9.147768e-001 5.896711e-001 -6.199679e+000 226 229 216
6.502501e-002 4.416661e-001 -6.565449e+000 195 196 183
-1.039104e+000 -4.957693e-001 -4.082448e+000 170 82 46
1.943446e+000 -1.262876e+000 -6.036433e+000 207 143 126
1.989589e+000 -1.314405e+000 -6.060595e+000 128 36 35
-3.443931e-001 -9.782582e-001 -4.610785e+000 128 68 42
-1.532397e+000 -8.170371e-001 -3.949574e+000 148 129 86
1.120579e+000 1.466034e+000 -6.602307e+000 237 240 229
-7.822254e-001 -7.542972e-001 -4.072408e+000 128 72 50
-1.348402e-001 -9.687712e-001 -4.755246e+000 155 105 65
1.339941e-001 9.952764e-001 -7.032025e+000 234 238 228
4.435865e-001 -1.266223e-001 -5.175304e+000 185 190 184
1.962945e+000 7.662405e-001 -5.815922e+000 237 238 227
1.819495e-001 4.068106e-001 -6.445922e+000 232 239 226
-8.412401e-001 -7.271592e-001 -4.051081e+000 105 43 27
-2.635355e-001 -9.954622e-001 -4.709851e+000 91 44 32
-5.260955e-001 2.406356e+000 -8.267688e+000 185 71 69
1.600452e+000 1.368623e+000 -6.118351e+000 229 230 222
8.141757e-001 1.143851e+000 -6.661839e+000 236 243 236
2.471007e+000 2.444104e+000 -6.037539e+000 204 86 89
1.432450e+000 -3.955703e-001 -5.879755e+000 56 38 38
-1.602017e+000 -6.752932e-001 -3.971703e+000 160 140 80
-1.602017e+000 -6.752932e-001 -3.971703e+000 160 140 80
-1.281644e+000 -7.492143e-001 -4.038290e+000 104 56 46
1.073994e+000 -8.949545e-001 -5.861314e+000 200 202 192
-6.135563e-001 2.536386e+000 -8.528073e+000 87 57 58
-3.199675e+000 5.540117e-001 -1.093302e+001 58 57 62
-1.970326e-001 1.295015e-001 -5.966040e+000 200 202 191
-1.005252e+000 -2.514184e-001 -4.283994e+000 92 61 56
-1.392881e+000 -5.258159e-001 -4.150539e+000 98 65 49
-7.427477e-001 -6.696153e-001 -4.191248e+000 216 198 175
-6.218393e-001 -8.440536e-001 -4.196965e+000 110 53 26
2.708823e+000 1.713568e+000 -6.049426e+000 107 106 112
-6.514104e-001 -1.441213e-001 -4.962169e+000 229 138 100
-6.166127e-001 -2.441763e-001 -4.914859e+000 222 126 79
-4.685075e-001 -2.197830e-001 -4.549632e+000 169 152 128
-6.491427e-001 -4.029642e-001 -4.662523e+000 193 89 47
-8.565052e-001 -4.348030e-001 -4.387521e+000 165 130 112
-7.982012e-001 -4.209527e-001 -4.462719e+000 112 54 33
-1.414698e+000 -6.672573e-001 -4.042120e+000 111 92 52
2.571245e+000 1.601795e+000 -6.032570e+000 59 54 61
2.740494e+000 1.664051e+000 -6.041728e+000 68 67 73
-3.873245e-001 -1.647772e-001 -4.586296e+000 68 62 63
5.611978e-001 -1.817877e-001 -5.278127e+000 143 145 139
-1.283756e+000 -4.483100e-001 -4.146588e+000 105 58 51
8.839471e-001 -6.114224e-001 -5.762391e+000 139 135 126
-1.332914e+000 -5.905665e-001 -3.987090e+000 98 45 51
-1.102363e+000 -5.108556e-001 -4.081906e+000 210 124 80
1.108199e+000 1.203341e+000 -6.616599e+000 233 236 222
4.815182e-001 1.688664e-001 -5.792392e+000 223 227 213
4.117716e-001 3.911865e-002 -5.516098e+000 226 232 222
-5.672956e-001 -1.683667e-001 -4.888524e+000 205 118 69
-5.913705e-001 -4.609788e-001 -4.635698e+000 175 90 55
-7.347726e-001 -7.825320e-001 -4.104893e+000 79 33 19
-1.545737e+000 -8.325866e-001 -3.880975e+000 43 33 31
-9.268479e-001 -1.092485e+000 -3.997385e+000 40 26 25
4.675326e-001 1.783890e+000 -7.060331e+000 189 191 180
2.580003e-001 1.410965e+000 -6.952022e+000 236 239 230
-1.729402e+000 5.537152e-002 -9.459232e+000 183 64 63
-1.497236e+000 1.191528e-001 -9.172108e+000 188 65 56
-1.772751e+000 -1.613103e-001 -9.511301e+000 191 65 59
-5.558471e-001 -7.069094e-002 -5.156556e+000 110 51 38
-2.923997e-001 -1.995302e-001 -4.573081e+000 204 185 143
-1.671730e+000 -6.283275e-001 -3.990262e+000 35 28 28
-2.607923e-001 9.749495e-001 -8.153736e+000 248 253 246
6.686071e-001 9.791906e-001 -6.686568e+000 243 252 244
-1.362886e+000 4.896170e-001 -9.102027e+000 187 71 66
1.680719e+000 -1.031750e+000 -5.988399e+000 217 191 140
7.377036e-001 2.056807e+000 -6.820448e+000 235 235 226
2.614257e+000 -4.401168e-002 -5.846403e+000 253 250 194
-6.923948e-001 -4.944632e-001 -4.388119e+000 212 180 139
2.636946e+000 -6.114207e-001 -5.692566e+000 31 25 25
2.786114e+000 -5.513173e-001 -5.655638e+000 27 22 22
-1.219830e+000 -1.012634e+000 -4.147458e+000 156 84 40
-1.958742e-001 -5.522946e-001 -4.667226e+000 111 61 38
2.947939e-002 3.230216e-001 -6.113022e+000 181 182 168
7.611246e-001 -1.494166e+000 -6.367126e+000 100 84 69
1.012765e+000 1.014996e+000 -6.577853e+000 239 244 239
-4.027358e-001 -5.372943e-002 -4.993260e+000 163 70 71
2.608362e+000 3.762968e-001 -5.681739e+000 64 62 67
1.391332e+000 2.715205e+000 -6.552326e+000 179 163 141
3.178005e+000 2.328217e+000 -5.740032e+000 41 38 45
-2.884006e-001 3.239135e+000 -8.753928e+000 71 67 73
-5.432506e-001 2.911689e+000 -8.979050e+000 66 66 70
-4.870742e-001 2.911779e+000 -8.983622e+000 94 90 97
3.062418e+000 1.685288e+000 -5.985647e+000 97 96 102
2.591339e+000 1.487773e+000 -6.062349e+000 129 128 133
1.212686e+000 1.514921e+000 -6.590403e+000 138 130 96
3.066764e+000 1.278485e+000 -5.940542e+000 62 59 66
-5.744001e-001 1.269326e+000 -8.468460e+000 213 209 202
-5.782303e-001 1.269995e+000 -8.462185e+000 213 209 202
1.992608e+000 7.617926e-001 -6.091446e+000 220 224 213
2.814914e+000 8.021769e-001 -5.899664e+000 87 86 91
3.018379e+000 7.494132e-001 -5.879827e+000 61 59 64
3.053747e+000 6.884603e-001 -5.837801e+000 63 60 67
3.000494e+000 6.649892e-001 -5.866252e+000 62 61 66
3.000494e+000 6.649892e-001 -5.866252e+000 62 61 66
4.840304e-001 4.097585e-001 -6.110680e+000 212 214 204
2.803994e-001 3.069682e-001 -6.168472e+000 198 201 190
6.141554e-001 3.293836e-001 -5.741191e+000 206 212 202
2.586658e+000 3.138385e-001 -5.975304e+000 63 60 66
2.518770e-001 3.936302e-002 -5.261033e+000 198 204 192
2.657757e-001 2.811518e-002 -5.575989e+000 198 204 192
-2.951916e-001 -8.748549e-002 -4.656082e+000 96 47 37
-2.129144e-002 -9.799539e-002 -4.705450e+000 199 202 193
3.360184e-001 -1.522011e-002 -5.431757e+000 217 223 214
3.661843e-001 -1.442480e-001 -5.022761e+000 127 131 124
5.309090e-001 -5.331633e-002 -5.235579e+000 190 195 188
7.463853e-001 -3.854394e-002 -5.469714e+000 180 185 178
6.845140e-001 -1.423826e-001 -5.381139e+000 184 187 180
2.190958e+000 -1.529660e-001 -5.831538e+000 105 64 50
-1.534534e-001 -1.314244e-001 -4.530290e+000 165 85 81
-8.068705e-002 -2.447698e-001 -4.687746e+000 164 72 57
-7.290528e-002 -3.824856e-001 -4.640597e+000 175 109 72
8.212181e-002 -3.555672e-001 -4.601577e+000 148 62 53
-1.609872e+000 -4.598106e-001 -4.106889e+000 123 108 76
-4.545669e-001 -4.730949e-001 -4.563948e+000 186 138 97
-3.278657e-001 -5.177320e-001 -4.544799e+000 167 103 65
1.132360e-001 -4.614784e-001 -4.616792e+000 152 103 73
7.188161e-002 -4.952568e-001 -4.699804e+000 180 118 79
5.139841e-001 -5.203480e-001 -4.809829e+000 80 73 65
7.255358e-001 -5.460516e-001 -5.652472e+000 103 96 92
3.005456e+000 -5.264643e-001 -5.645555e+000 45 43 48
-1.450314e+000 -5.839536e-001 -4.089815e+000 112 94 50
-1.307173e+000 -5.505990e-001 -4.046954e+000 93 49 41
-9.693991e-001 -5.795916e-001 -3.995437e+000 136 67 51
-6.075046e-001 -5.540695e-001 -4.288184e+000 185 148 116
-1.395485e+000 -6.080183e-001 -4.076787e+000 158 130 91
-1.342960e+000 -6.463577e-001 -3.994634e+000 93 48 36
-1.400418e+000 -7.089683e-001 -4.042175e+000 108 88 49
-1.369410e+000 -7.078851e-001 -4.022162e+000 147 119 80
-1.264603e+000 -6.524317e-001 -3.991119e+000 112 62 55
-6.949702e-001 -7.396217e-001 -4.170071e+000 132 100 88
-1.360723e+000 -7.682868e-001 -3.985629e+000 149 127 81
-1.348228e+000 -8.381462e-001 -4.024274e+000 116 73 52
-1.293056e+000 -7.296061e-001 -4.018589e+000 119 68 62
-1.001063e+000 -7.381732e-001 -3.959853e+000 189 103 70
1.644901e+000 -1.184380e+000 -5.978808e+000 174 137 92
1.644901e+000 -1.184380e+000 -5.978808e+000 174 137 92
2.870889e+000 -1.024998e+000 -5.692327e+000 65 63 68
-1.271397e+000 -8.323482e-001 -3.848881e+000 96 58 35
-1.146057e+000 -9.143213e-001 -4.087227e+000 118 54 25
-9.314388e-001 -8.875730e-001 -3.922017e+000 140 64 30
-1.495707e-001 -1.124501e+000 -4.881126e+000 83 39 23
1.848937e+000 -1.395976e+000 -6.081174e+000 180 127 106
2.714686e+000 -1.181162e+000 -5.646854e+000 65 59 66
1.648422e+000 -1.556941e+000 -6.438117e+000 212 105 113
-8.651627e-001 -1.146187e+000 -4.066690e+000 48 31 28
-1.332323e-001 -1.633338e+000 -5.107880e+000 81 51 40
1.632099e+000 2.802510e+000 -6.660303e+000 236 204 189
1.252360e+000 2.307554e+000 -5.727699e+000 173 160 132
-4.948477e-001 3.062715e+000 -8.928129e+000 66 67 71
2.857187e+000 1.837936e+000 -6.111970e+000 53 50 57
2.695579e+000 1.696806e+000 -6.101305e+000 70 69 75
2.928000e+000 1.625401e+000 -5.999990e+000 61 60 66
2.656438e+000 1.602553e+000 -6.112616e+000 133 132 138
2.711218e+000 1.589579e+000 -6.126275e+000 73 72 78
1.181626e+000 1.394981e+000 -6.311367e+000 133 125 89
2.492802e+000 1.341602e+000 -5.999927e+000 81 81 86
2.941768e+000 1.285751e+000 -5.908369e+000 58 57 63
2.894921e+000 1.189415e+000 -5.932763e+000 95 94 100
-6.037429e-001 1.322655e+000 -8.581395e+000 206 207 202
-6.070338e-001 1.339830e+000 -8.698409e+000 206 207 202
1.193102e+000 1.013511e+000 -6.232979e+000 205 202 154
1.698783e+000 9.107326e-001 -5.862889e+000 219 220 210
1.780498e+000 8.782786e-001 -5.973413e+000 220 223 211
3.684272e-001 8.607824e-001 -6.650008e+000 237 243 235
2.791496e+000 7.472359e-001 -5.894062e+000 101 100 105
1.734875e+000 5.567005e-001 -6.046557e+000 242 245 236
2.735075e+000 5.522620e-001 -5.974448e+000 110 109 114
-3.366574e+000 7.278594e-001 -1.089509e+001 72 73 77
-3.751828e-001 5.351035e-001 -8.085322e+000 200 202 189
1.804704e+000 4.163754e-001 -5.746985e+000 214 216 205
2.742682e+000 3.967166e-001 -5.924649e+000 96 94 99
2.770752e+000 3.836942e-001 -5.877433e+000 48 47 52
2.862293e+000 4.581128e-001 -5.881695e+000 82 80 85
2.615404e+000 2.917754e-001 -5.958851e+000 88 91 91
2.867246e+000 3.032725e-001 -5.859515e+000 83 82 86
2.904964e+000 2.926194e-001 -5.844588e+000 49 43 49
2.834988e+000 2.108139e-001 -5.801034e+000 83 80 80
-4.725093e-001 8.406001e-002 -5.122530e+000 131 65 41
2.229508e-001 7.136722e-002 -5.743279e+000 201 207 197
2.229508e-001 7.136722e-002 -5.743279e+000 201 207 197
-8.419786e-002 -6.993409e-002 -4.976476e+000 200 203 194
2.089910e-001 -7.624342e-002 -5.079196e+000 216 221 217
2.089910e-001 -7.624342e-002 -5.079196e+000 216 221 217
7.141156e-001 -5.655588e-002 -5.446726e+000 201 207 197
7.701183e-001 -6.928210e-002 -5.466873e+000 200 206 196
8.504358e-001 -6.011803e-002 -5.501006e+000 173 177 169
8.684330e-001 -9.989468e-002 -5.498259e+000 191 195 188
2.241448e+000 -1.154257e-001 -5.963667e+000 174 79 77
-2.995999e-001 -1.504956e-001 -4.579665e+000 173 163 136
5.173544e-001 -2.038902e-001 -5.420417e+000 152 151 147
6.706237e-001 -1.866697e-001 -5.366902e+000 140 143 136
7.499376e-001 -1.798110e-001 -5.550118e+000 148 150 145
1.264272e+000 -3.117103e-001 -5.681524e+000 142 138 132
-1.327178e+000 -4.354135e-001 -4.165662e+000 74 30 26
-8.339254e-001 -4.260502e-001 -4.263332e+000 165 130 112
-6.240375e-001 -4.323388e-001 -4.676818e+000 218 120 75
-6.361815e-001 -4.427938e-001 -4.752799e+000 218 120 75
-5.392542e-001 -4.625144e-001 -4.628932e+000 220 172 129
8.473137e-002 -4.189265e-001 -4.610250e+000 152 84 59
9.803597e-001 -6.517314e-001 -5.780339e+000 162 150 142
2.171950e+000 -7.277948e-001 -6.185744e+000 106 57 39
3.041760e+000 -6.746397e-001 -5.651432e+000 56 52 58
-1.361421e+000 -5.738047e-001 -4.057306e+000 105 60 47
-1.284634e+000 -5.177937e-001 -4.033577e+000 93 43 37
-1.322010e+000 -5.697944e-001 -4.019566e+000 115 69 62
-1.034951e+000 -6.088807e-001 -4.110167e+000 134 57 32
-6.712911e-001 -5.475416e-001 -4.239140e+000 212 176 133
-5.481314e-001 -5.854062e-001 -4.308611e+000 155 117 89
4.410767e-001 -6.176603e-001 -4.726434e+000 114 102 95
3.082009e+000 -7.638564e-001 -5.564748e+000 50 48 53
-1.425120e+000 -6.721449e-001 -4.069175e+000 111 92 52
-1.388729e+000 -6.671318e-001 -4.059587e+000 171 144 102
-1.289091e+000 -6.851322e-001 -3.996364e+000 132 88 83
-1.064342e+000 -6.052411e-001 -4.008591e+000 199 116 76
-7.061101e-001 -6.935527e-001 -4.199022e+000 106 84 64
2.452047e+000 -9.125801e-001 -5.877023e+000 48 43 49
2.576019e+000 -8.821069e-001 -5.863827e+000 100 98 103
2.591239e+000 -8.884222e-001 -5.906672e+000 100 98 103
2.752501e+000 -9.731823e-001 -5.747061e+000 40 38 43
2.922042e+000 -9.127649e-001 -5.598123e+000 41 39 44
2.978035e+000 -9.619714e-001 -5.586889e+000 41 38 45
-1.418478e+000 -7.723296e-001 -3.992732e+000 123 103 63
-1.393641e+000 -8.427813e-001 -4.029153e+000 71 62 35
-1.247838e+000 -8.310225e-001 -3.966342e+000 124 68 60
-1.074322e+000 -7.918291e-001 -4.121001e+000 197 105 66
2.777519e+000 -1.070718e+000 -5.681521e+000 42 40 45
2.864555e+000 -1.039356e+000 -5.574087e+000 80 78 83
-1.514102e+000 -8.619449e-001 -3.898217e+000 161 140 93
-1.514102e+000 -8.619449e-001 -3.898217e+000 161 140 93
-1.232568e+000 -9.208854e-001 -3.982805e+000 126 66 48
-8.583974e-001 -9.310868e-001 -3.907188e+000 87 32 16
-4.727272e-001 -1.032771e+000 -4.460139e+000 125 69 49
-3.352383e-001 -1.000858e+000 -4.536675e+000 114 50 25
-1.315402e-001 -1.146627e+000 -4.855735e+000 126 78 53
1.752225e+000 -1.365700e+000 -6.130868e+000 118 61 36
1.721297e+000 -1.390700e+000 -6.145857e+000 188 136 109
1.725765e+000 -1.397408e+000 -6.190507e+000 188 136 109
2.000941e+000 -1.400062e+000 -6.196391e+000 171 60 59
2.124050e+000 -1.376826e+000 -6.022532e+000 132 48 50
1.990275e+000 -1.652765e+000 -6.257106e+000 44 27 29
2.035179e+000 -1.594933e+000 -6.197265e+000 59 27 30
1.337786e+000 -1.857259e+000 -6.271212e+000 176 168 157
7.337251e-001 2.399851e+000 -7.214949e+000 211 209 197
7.055299e-001 2.277402e+000 -7.157870e+000 208 205 194
7.055299e-001 2.277402e+000 -7.157870e+000 208 205 194
1.028415e+000 1.901223e+000 -6.392065e+000 121 111 77
2.854875e+000 1.712726e+000 -6.095003e+000 61 60 68
2.932810e+000 1.691068e+000 -5.976602e+000 60 59 65
3.074916e+000 1.696583e+000 -5.936362e+000 53 50 57
2.707549e+000 1.599842e+000 -6.112711e+000 70 69 75
2.720580e+000 1.538413e+000 -6.034475e+000 177 176 182
3.006210e+000 1.476754e+000 -6.001825e+000 48 49 54
1.431071e+000 1.311962e+000 -6.035754e+000 148 140 103
1.431071e+000 1.311962e+000 -6.035754e+000 148 140 103
2.536316e+000 1.416507e+000 -6.128237e+000 149 148 151
2.628133e+000 1.356330e+000 -6.061533e+000 159 160 165
3.111959e+000 1.361411e+000 -5.844028e+000 44 43 48
-1.217283e+000 1.736795e+000 -8.853413e+000 60 39 40
7.684808e-001 1.206018e+000 -6.674879e+000 229 233 224
2.828556e+000 1.158306e+000 -6.068983e+000 62 62 67
2.952320e+000 1.060140e+000 -5.929748e+000 52 49 56
3.053590e+000 1.123046e+000 -5.889734e+000 44 42 47
3.298626e-001 1.206075e+000 -6.931124e+000 198 200 189
1.383563e+000 9.180830e-001 -6.078252e+000 201 201 166
3.028693e+000 1.020754e+000 -5.905205e+000 45 44 50
3.156117e+000 9.310613e-001 -5.939857e+000 42 39 46
2.107119e-001 1.011393e+000 -6.958583e+000 187 193 183
4.669705e-001 7.975241e-001 -6.668083e+000 236 242 234
1.054123e+000 8.894387e-001 -6.202336e+000 218 220 208
2.806621e+000 7.007156e-001 -5.928152e+000 54 52 57
2.895574e+000 7.092210e-001 -5.871291e+000 52 51 57
8.296079e-001 6.697254e-001 -6.444969e+000 239 242 231
2.840045e+000 6.555014e-001 -5.901736e+000 93 92 98
2.840045e+000 6.555014e-001 -5.901736e+000 93 92 98
3.162312e+000 5.337798e-001 -5.465981e+000 58 50 44
2.673815e+000 4.513702e-001 -5.937382e+000 89 88 93
2.678530e+000 4.518894e-001 -5.945778e+000 89 88 93
2.833105e+000 5.087885e-001 -5.887589e+000 53 52 57
2.933556e+000 3.399985e-001 -5.771513e+000 45 44 49
-3.369066e+000 5.709115e-001 -1.083825e+001 66 65 70
2.748635e+000 2.141097e-001 -5.938014e+000 52 51 56
2.811352e+000 3.371501e-001 -5.921118e+000 88 89 94
2.470768e-001 1.127929e-001 -5.644551e+000 227 233 223
2.470768e-001 1.127929e-001 -5.644551e+000 227 233 223
1.241457e+000 5.329404e-002 -5.580891e+000 156 153 146
9.187216e-001 -1.220136e-001 -5.549111e+000 193 194 189
2.926078e-001 -2.296045e-001 -4.856775e+000 179 182 174
4.008968e-001 -2.384146e-001 -4.976644e+000 99 96 87
-1.044063e+000 -2.504650e-001 -4.291551e+000 35 26 23
-6.693848e-001 -3.408903e-001 -4.871252e+000 161 74 35
-9.623265e-004 -3.453407e-001 -4.741713e+000 204 157 128
5.891341e-001 -4.133166e-001 -5.400738e+000 101 94 84
1.029431e+000 -4.853047e-001 -5.639144e+000 156 156 148
1.485196e+000 -4.681285e-001 -6.017002e+000 56 41 32
-1.281919e+000 -3.976490e-001 -4.185728e+000 40 28 28
-8.540070e-001 -4.954528e-001 -4.264490e+000 111 89 76
-6.590876e-001 -4.377834e-001 -4.676340e+000 162 81 37
1.483368e+000 -6.793394e-001 -6.074545e+000 133 99 65
1.483368e+000 -6.793394e-001 -6.074545e+000 133 99 65
2.417521e+000 -6.293857e-001 -5.787323e+000 107 92 62
2.560890e+000 -5.827067e-001 -5.722944e+000 116 101 67
2.813409e+000 -6.653329e-001 -5.853817e+000 108 104 105
2.890828e+000 -6.717666e-001 -5.779301e+000 101 97 104
2.894668e+000 -6.715518e-001 -5.787126e+000 101 97 104
3.006114e+000 -6.077451e-001 -5.702760e+000 63 62 65
3.028326e+000 -6.300381e-001 -5.663654e+000 38 36 41
-1.462023e+000 -5.393140e-001 -4.173538e+000 54 45 34
-1.459779e+000 -5.536647e-001 -4.096189e+000 136 122 80
-9.739068e-001 -5.443324e-001 -4.010827e+000 116 44 22
-6.270057e-001 -5.452734e-001 -4.218876e+000 150 123 73
1.641662e+000 -7.537795e-001 -6.215386e+000 60 33 22
2.852559e+000 -7.542076e-001 -5.771981e+000 48 46 51
2.773075e+000 -7.928787e-001 -5.807826e+000 53 52 57
2.897845e+000 -6.874989e-001 -5.687109e+000 44 43 48
2.990242e+000 -7.541193e-001 -5.705788e+000 39 37 42
3.010807e+000 -7.223239e-001 -5.572870e+000 40 35 41
-4.078211e-001 -7.768335e-001 -4.440866e+000 130 75 51
2.468259e+000 -1.000702e+000 -5.922667e+000 43 36 43
2.501971e+000 -9.846332e-001 -5.786696e+000 50 48 53
2.685366e+000 -9.309104e-001 -5.897976e+000 99 97 102
2.504901e+000 -1.069150e+000 -5.841639e+000 46 41 47
2.649132e+000 -1.071013e+000 -5.867736e+000 44 39 43
2.776495e+000 -1.189296e+000 -5.697268e+000 43 37 44
-8.940099e-001 -9.431691e-001 -3.914310e+000 112 60 50
-8.056864e-001 -9.664729e-001 -4.042164e+000 82 32 20
-6.819348e-001 -1.020251e+000 -4.233244e+000 83 52 40
-2.987257e-001 -1.019016e+000 -4.679993e+000 121 65 44
1.683603e+000 -1.426581e+000 -6.280020e+000 106 41 29
1.942260e+000 -1.261546e+000 -6.030782e+000 207 143 126
2.604448e+000 -1.245849e+000 -5.859514e+000 38 33 39
2.829198e+000 -1.179604e+000 -5.631261e+000 34 31 36
-3.639264e-001 -1.188178e+000 -4.790163e+000 87 28 17
-6.472306e-002 -1.246552e+000 -4.967351e+000 176 64 52
-6.518127e-002 -1.243882e+000 -4.957557e+000 176 64 52
-8.840211e-001 -1.127610e+000 -4.029087e+000 148 85 46
1.752849e+000 -1.731390e+000 -6.222259e+000 178 69 69
-2.181094e-001 -1.609704e+000 -5.080140e+000 74 37 27
1.441173e+000 2.823646e+000 -6.671101e+000 233 213 203
1.668934e+000 2.844202e+000 -6.640199e+000 178 78 76
1.691180e+000 2.716959e+000 -6.469946e+000 232 222 212
2.073141e+000 1.550485e+000 -5.837431e+000 133 60 60
3.080057e+000 1.522355e+000 -5.943353e+000 63 60 67
2.634723e+000 1.280928e+000 -5.891208e+000 57 57 67
2.681889e+000 1.230461e+000 -6.018207e+000 71 70 75
3.119022e+000 1.029605e+000 -5.870010e+000 40 38 45
-1.229607e+000 1.477490e+000 -9.025724e+000 50 42 44
2.323083e-001 1.203546e+000 -7.018611e+000 176 175 166
-4.097787e-001 9.976127e-001 -8.244615e+000 205 207 195
8.005597e-001 8.419342e-001 -6.689268e+000 219 221 207
1.408000e+000 6.177621e-001 -5.802271e+000 224 230 220
2.996371e+000 4.580895e-001 -5.849929e+000 44 42 45
5.635451e-002 2.055081e-001 -5.941969e+000 222 224 213
2.547607e+000 2.830981e-001 -6.002578e+000 49 49 47
-3.431896e-001 1.283180e-001 -5.152750e+000 221 226 214
-5.361426e-001 -1.193408e-001 -5.002123e+000 166 99 65
2.380504e+000 -1.022643e-001 -5.822504e+000 180 176 129
-4.180114e-001 -2.282390e-001 -4.555995e+000 69 55 74
3.651639e-002 -2.496079e-001 -4.642690e+000 208 200 190
8.954925e-001 -6.061345e-001 -5.773604e+000 147 143 134
1.606926e+000 -6.778980e-001 -6.115736e+000 178 149 117
2.938511e+000 -6.580831e-001 -5.744756e+000 49 44 50
9.419259e-001 -7.380406e-001 -5.786921e+000 200 202 193
1.001090e+000 -7.047024e-001 -5.838845e+000 60 44 36
2.544596e+000 -8.761975e-001 -5.925206e+000 52 50 55
2.908582e+000 -7.876824e-001 -5.738985e+000 41 39 44
3.113654e+000 -7.106683e-001 -5.570355e+000 48 46 51
2.998565e+000 -8.265014e-001 -5.608198e+000 38 36 41
2.602680e+000 -9.347710e-001 -5.864052e+000 61 60 65
2.825191e+000 -9.331289e-001 -5.704012e+000 42 40 45
2.896226e+000 -8.604567e-001 -5.658878e+000 40 38 43
2.919885e+000 -9.999733e-001 -5.648670e+000 43 40 47
-7.876999e-001 -7.586350e-001 -4.098914e+000 128 72 50
-1.953409e-001 -1.129137e+000 -4.766450e+000 111 53 34
-9.923613e-002 -1.113568e+000 -4.898796e+000 160 116 85
1.638052e+000 -1.504857e+000 -6.378392e+000 202 96 97
-1.021138e-002 -1.331492e+000 -4.968613e+000 219 128 83
1.722621e+000 -1.518840e+000 -6.274797e+000 205 90 97
1.375280e-001 3.089292e+000 -8.003127e+000 199 69 68
-3.775983e-001 2.781368e+000 -8.636676e+000 60 51 49
2.143704e-001 2.637110e+000 -7.890607e+000 211 202 188
2.298249e+000 2.047722e+000 -6.023872e+000 199 83 83
-7.240191e-001 2.160548e+000 -8.581764e+000 55 50 57
4.693607e-001 1.784760e+000 -7.068386e+000 189 191 180
2.515006e+000 1.324245e+000 -5.935442e+000 74 73 82
2.851172e+000 1.052525e+000 -5.963890e+000 59 56 63
7.503454e-002 5.920906e-001 -6.673988e+000 224 226 213
3.124357e-001 4.266953e-001 -6.173379e+000 189 190 176
2.801127e+000 4.061252e-001 -5.872438e+000 58 57 62
-4.473813e-001 -2.047522e-002 -5.133347e+000 211 214 199
-4.473813e-001 -2.047522e-002 -5.133347e+000 211 214 199
-4.655518e-001 -2.613583e-001 -4.582877e+000 213 182 141
-2.963866e-001 -2.065122e-001 -4.640610e+000 204 185 143
4.633375e-003 -2.892515e-001 -4.612611e+000 174 77 69
4.372637e-001 -3.761301e-001 -4.725907e+000 147 149 138
8.218507e-001 -4.932609e-001 -5.581817e+000 111 102 94
2.358671e+000 -7.555079e-001 -5.948000e+000 187 80 77
3.132469e+000 -7.790127e-001 -5.551652e+000 86 85 91
-1.313232e+000 -6.668470e-001 -3.983285e+000 77 33 28
7.773063e-001 -8.773130e-001 -5.703035e+000 89 80 74
1.510158e+000 -1.165948e+000 -6.178827e+000 179 142 108
-1.244318e+000 -9.275820e-001 -4.123964e+000 89 34 22
-4.996879e-002 -1.006723e+000 -4.633250e+000 141 81 51
-8.831470e-001 -9.873721e-001 -3.983909e+000 65 27 14
-8.182781e-002 -1.192307e+000 -4.953246e+000 70 31 29
1.246951e+000 -1.553519e+000 -6.272653e+000 152 142 132
-8.549815e-001 -1.124287e+000 -4.091286e+000 41 32 35
1.252362e+000 -1.841450e+000 -6.344471e+000 189 181 170
2.304061e+000 2.511752e+000 -5.897149e+000 43 31 36
2.567136e+000 2.601897e+000 -6.152185e+000 43 33 42
3.864094e-001 2.985591e+000 -7.579430e+000 187 76 72
-3.349803e-002 3.197946e+000 -8.449882e+000 42 53 56
1.796846e+000 2.272818e+000 -6.198970e+000 207 200 182
-1.656530e-001 2.784191e+000 -8.315436e+000 189 70 66
9.361875e-001 1.544432e+000 -6.432004e+000 212 212 201
9.763635e-001 1.593917e+000 -6.667070e+000 212 212 201
1.367764e+000 1.561198e+000 -6.253477e+000 150 142 100
-3.467142e-001 1.930931e+000 -8.406042e+000 209 215 201
-7.205891e-001 1.047865e+000 -8.523669e+000 199 201 188
-3.008910e-002 8.735078e-001 -7.206604e+000 235 241 229
-3.207832e-001 7.407215e-001 -8.102829e+000 186 184 172
1.651942e-001 -3.961755e-001 -4.624226e+000 182 79 68
1.277505e+000 -5.085864e-001 -5.854973e+000 101 66 53
1.109642e+000 -6.906408e-001 -5.839652e+000 64 32 27
1.628098e+000 -6.053496e-001 -6.197015e+000 73 50 37
1.307382e+000 -7.885490e-001 -6.067183e+000 52 36 34
-1.547257e+000 -6.110274e-001 -4.060158e+000 36 31 31
-5.144661e-001 -7.267969e-001 -4.271939e+000 102 59 35
-1.516697e+000 -7.399586e-001 -3.980615e+000 46 33 26
4.491640e-001 -9.778851e-001 -5.063133e+000 82 65 54
1.198309e+000 -1.047401e+000 -5.829487e+000 163 161 152
-1.286810e+000 -9.236045e-001 -3.989675e+000 41 41 39
-1.286810e+000 -9.236045e-001 -3.989675e+000 41 41 39
1.432128e+000 -2.040390e+000 -6.514092e+000 178 172 160
7.204104e-001 2.946355e+000 -7.272053e+000 203 88 91
2.091387e-001 2.867782e+000 -7.881358e+000 184 70 65
7.528793e-001 2.067006e+000 -6.856299e+000 235 235 226
3.620932e-001 1.925260e+000 -7.496483e+000 230 230 218
2.364475e+000 1.573474e+000 -5.960427e+000 190 92 86
1.066776e-001 1.697991e+000 -7.552983e+000 243 248 241
2.364928e-001 1.259934e+000 -6.955844e+000 194 194 182
1.092603e+000 1.103337e+000 -6.365372e+000 230 235 228
9.538311e-001 5.797345e-001 -5.790739e+000 93 91 69
9.538311e-001 5.797345e-001 -5.790739e+000 93 91 69
9.888810e-002 -1.206742e-001 -4.831853e+000 181 187 177
3.830566e-001 -1.971980e-001 -4.936211e+000 111 107 99
-1.306164e-001 -3.589556e-001 -4.667679e+000 213 175 130
-1.088172e-001 -3.614728e-001 -4.685121e+000 213 175 130
1.427098e+000 -5.409449e-001 -5.995131e+000 174 146 115
1.391978e+000 -8.591006e-001 -5.983985e+000 224 191 150
1.726894e+000 -7.845545e-001 -6.239397e+000 70 32 33
3.057153e+000 -8.873224e-001 -5.594936e+000 65 62 69
-1.170235e+000 -8.777570e-001 -3.983570e+000 124 73 69
-9.884492e-002 -1.565920e+000 -5.058423e+000 81 36 31
-2.383911e-001 3.465803e+000 -8.961729e+000 83 82 88
1.069023e+000 2.636905e+000 -6.584903e+000 126 117 78
-1.041086e-001 1.886129e+000 -8.002999e+000 184 181 165
-5.696140e-001 8.635099e-001 -8.364478e+000 224 226 213
1.081512e+000 5.493372e-001 -5.550041e+000 230 233 223
5.988340e-001 -1.227343e-001 -5.331883e+000 203 208 201
1.230798e+000 -1.744842e-001 -5.664923e+000 152 149 142
-6.001219e-001 -4.640353e-001 -4.576667e+000 157 83 48
7.834340e-001 -9.540223e-001 -5.647737e+000 87 73 65
-3.644251e-001 -1.009900e+000 -4.560884e+000 117 56 29
-1.309419e-001 -1.226550e+000 -4.894656e+000 65 26 22
1.499147e-001 -1.353889e+000 -5.086831e+000 74 36 28
2.754228e+000 2.385523e+000 -5.814901e+000 202 85 88
2.762131e+000 2.147321e+000 -5.770665e+000 33 24 29
-1.782932e-001 9.025032e-001 -7.787358e+000 236 241 234
2.331926e-002 3.148636e-001 -6.353813e+000 181 182 168
5.111898e-001 -2.915804e-001 -5.161835e+000 85 78 72
5.270961e-001 -3.155004e-001 -5.441810e+000 85 78 72
-2.019561e-001 -5.502062e-001 -4.639011e+000 110 61 39
-9.068726e-004 -5.556746e-001 -4.696543e+000 216 179 137
1.125047e+000 -1.224431e+000 -6.001650e+000 90 68 54
4.469954e-002 -3.080541e+000 -7.390165e+000 27 14 20
1.525684e+000 2.663494e+000 -6.549761e+000 227 221 202
2.001746e+000 -6.293433e-002 -5.898158e+000 66 37 39
2.869581e+000 -2.960881e-001 -5.512640e+000 131 116 75
-9.069796e-001 -5.097790e-001 -4.382329e+000 100 64 45
3.621646e-001 -7.331892e-001 -4.785949e+000 58 33 26
-1.109898e+000 -7.545164e-001 -3.991362e+000 227 135 90
-1.562059e-001 7.968376e-002 -4.950451e+000 218 219 211
-4.205768e-001 -3.814104e-001 -4.624741e+000 223 180 135
2.570592e+000 -4.019412e-001 -5.847589e+000 194 179 124
7.046366e-001 -6.145004e-001 -5.541534e+000 43 32 35
7.135457e-001 -6.395272e-001 -5.731044e+000 43 32 35
3.291601e+000 1.738016e+000 -6.502873e+000 98 97 103
1.264934e+000 1.343458e+000 -6.015257e+000 127 118 84
1.595919e+000 -3.217426e-001 -5.904913e+000 58 46 38
5.193848e-002 -9.187717e-001 -4.861962e+000 231 195 145
-1.846508e-001 -1.420863e+000 -5.296609e+000 96 41 30
6.175585e-001 -1.898050e+000 -6.769384e+000 56 21 23
-1.127758e+000 -6.984932e-001 -4.073357e+000 191 98 57
2.038456e+000 8.661601e-001 -5.858452e+000 219 218 210
-7.633768e-001 2.518886e+000 -9.075780e+000 69 65 72
1.366486e+000 2.326756e+000 -6.153931e+000 155 142 105
-1.013483e+000 2.241983e+000 -9.237046e+000 57 55 59
2.527153e+000 2.477851e+000 -5.940479e+000 48 35 38
1.041056e+000 2.019631e+000 -6.440021e+000 157 148 105
1.334695e+000 2.024959e+000 -6.275998e+000 198 188 135
-3.522378e+000 1.053407e+000 -1.098214e+001 63 62 67
-3.508183e+000 9.922971e-001 -1.104083e+001 62 61 66
-3.496834e+000 8.949873e-001 -1.105552e+001 68 67 72
-3.478709e+000 8.923935e-001 -1.100188e+001 68 67 72
-3.371509e+000 9.559655e-001 -1.091319e+001 57 56 62
2.732133e+000 1.811982e+000 -6.089629e+000 53 49 58
1.152257e+000 1.386404e+000 -6.197921e+000 136 125 93
1.426117e+000 1.494629e+000 -6.211312e+000 214 207 162
2.558585e+000 1.586429e+000 -6.093879e+000 128 126 134
2.686370e+000 1.662406e+000 -6.078301e+000 65 64 70
1.162334e+000 1.194042e+000 -6.595037e+000 205 207 193
2.528839e+000 1.515963e+000 -6.147434e+000 90 90 98
2.525818e+000 1.489373e+000 -6.084848e+000 61 59 66
2.717046e+000 1.508270e+000 -6.082509e+000 79 76 83
2.541809e+000 1.391611e+000 -6.042485e+000 59 58 63
2.614865e+000 1.300948e+000 -5.984998e+000 62 59 67
2.649751e+000 1.278271e+000 -6.019632e+000 101 98 103
2.864188e+000 1.269358e+000 -5.924762e+000 45 42 49
-5.110259e-001 6.574642e-002 -4.974112e+000 153 79 46
-6.057123e-001 -2.860372e-002 -5.051293e+000 212 135 92
-1.499914e-001 -5.088852e-002 -5.722146e+000 214 218 203
5.972517e-001 1.729120e-001 -5.670837e+000 207 211 200
2.728167e+000 5.674840e-001 -6.022382e+000 57 53 60
2.789393e+000 5.612956e-001 -5.883183e+000 51 50 55
2.789393e+000 5.612956e-001 -5.883183e+000 51 50 55
2.943325e+000 5.087450e-001 -5.815237e+000 61 60 65
2.943325e+000 5.087450e-001 -5.815237e+000 61 60 65
-3.904837e-001 -1.377204e-001 -4.603441e+000 150 122 110
2.674305e+000 1.942748e-001 -5.889030e+000 73 71 74
2.839414e+000 3.119572e-001 -5.800823e+000 70 69 74
2.964881e+000 3.433840e-001 -5.755411e+000 60 59 64
1.210579e+000 -2.723174e-001 -5.703982e+000 166 166 156
-1.436189e+000 -5.964149e-001 -4.067743e+000 158 136 87
-1.357184e+000 -5.293273e-001 -4.114194e+000 106 61 52
-9.684786e-001 -5.722599e-001 -4.034785e+000 144 73 53
-7.364023e-001 -6.881066e-001 -4.184758e+000 79 61 61
-3.160777e-001 -8.309006e-001 -4.762356e+000 146 101 67
2.720980e+000 -7.441536e-001 -5.874017e+000 65 60 62
-7.793779e-001 -8.948262e-001 -4.055635e+000 102 35 10
-4.587033e-001 -1.054493e+000 -4.479798e+000 133 60 27
9.301333e-001 -1.758152e+000 -6.691468e+000 108 92 76
1.613239e+000 -1.179782e+000 -6.095866e+000 199 160 115
3.082968e+000 -7.461936e-001 -5.620666e+000 52 47 51
-1.563711e-001 -1.290899e+000 -4.788167e+000 127 56 30
2.790697e+000 -1.063995e+000 -5.714565e+000 33 28 32
1.602225e+000 2.533631e+000 -6.402324e+000 207 197 179
-3.271700e+000 6.408417e-001 -1.092455e+001 54 53 58
2.769441e-001 1.242964e+000 -6.890717e+000 211 212 197
2.729144e+000 1.775393e+000 -6.045007e+000 111 106 113
2.661170e+000 1.676744e+000 -6.108926e+000 134 132 137
2.661170e+000 1.676744e+000 -6.108926e+000 134 132 137
2.639633e+000 1.592062e+000 -6.069449e+000 157 156 162
2.639987e+000 1.454160e+000 -6.058141e+000 120 117 124
2.664843e+000 1.455608e+000 -6.019718e+000 54 51 58
2.727444e+000 1.558373e+000 -6.138874e+000 66 63 70
2.756805e+000 1.590166e+000 -5.999527e+000 59 58 64
2.879696e+000 1.624106e+000 -6.034700e+000 56 53 60
2.745089e+000 1.344951e+000 -5.998894e+000 49 47 52
1.444563e-001 5.960212e-001 -6.695151e+000 234 238 224
4.737260e-001 4.164039e-001 -6.561496e+000 203 213 203
6.354194e-001 5.710684e-001 -6.526176e+000 213 217 203
1.838107e+000 8.658738e-001 -6.149374e+000 224 224 214
1.886261e+000 8.319209e-001 -5.806892e+000 213 213 201
2.852441e+000 1.129123e+000 -6.006534e+000 82 77 83
-4.766774e-001 1.204208e-001 -5.096962e+000 156 96 68
1.434401e+000 5.834600e-001 -5.163683e+000 217 222 215
2.791403e+000 7.531944e-001 -5.894098e+000 75 74 78
3.016543e+000 8.223170e-001 -5.941265e+000 40 38 43
-6.439343e-001 -2.269786e-001 -4.987470e+000 220 119 66
-3.102120e-001 -4.832699e-002 -4.615638e+000 170 79 79
3.463609e-001 -5.194085e-002 -5.187399e+000 205 212 204
2.859444e+000 4.638377e-001 -5.873968e+000 66 65 70
-5.520222e-001 -2.794896e-001 -4.763319e+000 185 95 59
-4.664091e-001 -1.992662e-001 -4.547516e+000 174 144 114
-3.210428e-001 -1.151881e-001 -4.552989e+000 88 74 63
-3.210428e-001 -1.151881e-001 -4.552989e+000 88 74 63
2.773389e+000 2.272828e-001 -5.862092e+000 65 63 66
7.371751e-001 -3.141071e-001 -5.444324e+000 177 178 170
2.685600e+000 5.985105e-002 -5.793341e+000 133 118 87
-1.444458e+000 -5.754341e-001 -4.060027e+000 102 82 33
-6.239370e-001 -4.594029e-001 -4.518467e+000 175 93 54
1.196958e+000 -3.582171e-001 -5.678197e+000 162 162 151
-1.424535e+000 -6.203142e-001 -4.080213e+000 117 94 44
-1.417388e+000 -6.133202e-001 -4.061980e+000 117 94 44
-7.697418e-001 -5.333712e-001 -4.313017e+000 208 188 164
1.470822e+000 -6.775447e-001 -6.054257e+000 164 124 82
-1.454472e+000 -7.094558e-001 -3.995756e+000 148 127 77
-1.072502e+000 -7.393962e-001 -3.960174e+000 224 132 89
-9.595372e-001 -7.366936e-001 -3.973684e+000 183 97 62
1.677842e+000 -1.269128e+000 -6.185344e+000 210 172 129
2.588383e+000 -8.832762e-001 -5.902479e+000 65 60 64
2.716470e+000 -8.314705e-001 -5.965806e+000 59 54 58
3.054299e+000 -6.503429e-001 -5.574260e+000 32 27 31
3.054299e+000 -6.503429e-001 -5.574260e+000 32 27 31
-7.253150e-001 -9.732942e-001 -4.118671e+000 91 42 19
5.565484e-002 -1.160723e+000 -4.891825e+000 177 122 89
1.739444e+000 -1.411033e+000 -6.207810e+000 191 130 106
2.284798e+000 -1.405142e+000 -6.214864e+000 43 18 18
2.759452e+000 -1.074384e+000 -5.871434e+000 52 47 51
1.681942e+000 2.235410e+000 -6.194022e+000 203 197 184
2.631225e+000 1.637086e+000 -6.090061e+000 63 57 63
2.711656e+000 1.715346e+000 -6.052775e+000 160 156 162
2.831055e+000 1.689548e+000 -6.041735e+000 60 57 64
-4.034981e-001 8.617721e-001 -8.215844e+000 221 222 207
2.697139e+000 1.529308e+000 -5.982168e+000 158 155 162
2.697139e+000 1.529308e+000 -5.982168e+000 158 155 162
2.758114e+000 1.482525e+000 -6.039139e+000 56 53 60
2.635930e+000 1.352629e+000 -6.069417e+000 128 125 134
2.788300e+000 1.390030e+000 -6.078822e+000 52 49 55
2.774517e+000 1.387715e+000 -6.049930e+000 52 49 55
2.764118e+000 1.434510e+000 -6.012355e+000 115 112 120
2.752909e+000 1.431883e+000 -5.986498e+000 115 112 120
2.837911e+000 1.421849e+000 -6.050492e+000 52 49 56
2.703145e+000 1.360580e+000 -5.993457e+000 111 109 114
8.308078e-001 7.760534e-001 -6.561851e+000 237 239 225
1.372165e+000 8.612427e-001 -6.001813e+000 229 231 214
2.750532e+000 1.260050e+000 -6.053585e+000 108 107 113
2.687461e+000 1.237057e+000 -5.817581e+000 53 50 57
3.310173e-001 4.917584e-001 -6.326295e+000 213 216 205
2.846265e+000 1.022193e+000 -5.962926e+000 49 46 55
-2.243766e+000 -7.444140e-001 -1.046212e+001 24 19 21
-2.325151e+000 -8.185640e-001 -1.051660e+001 59 57 60
-6.141444e-001 -1.579870e-001 -4.963252e+000 210 113 62
-1.898806e-001 -2.136850e-002 -4.764990e+000 185 184 172
4.954848e-001 -2.901597e-002 -5.347652e+000 194 204 195
-3.519142e-001 -1.431359e-001 -4.594556e+000 168 155 131
-2.061995e-001 -1.654634e-001 -4.581742e+000 182 137 104
-2.032046e-001 -1.615017e-001 -4.545159e+000 182 137 104
2.482648e-001 -1.630365e-001 -4.816994e+000 161 166 156
2.583157e+000 2.490717e-001 -5.890921e+000 50 48 53
2.922506e+000 2.815070e-001 -5.888070e+000 40 38 45
-7.824081e-001 -4.064389e-001 -4.674544e+000 196 111 66
-6.297880e-001 -4.275724e-001 -4.648681e+000 217 120 75
-8.820089e-001 -4.589811e-001 -4.236593e+000 85 42 24
5.885297e-001 -4.242718e-001 -5.455610e+000 122 116 104
-1.386298e+000 -6.044101e-001 -4.062634e+000 154 126 79
-1.317890e+000 -5.687191e-001 -4.025000e+000 119 67 57
-6.619522e-001 -5.393943e-001 -4.205424e+000 219 181 132
8.313092e-001 -8.601558e-001 -5.650233e+000 153 149 137
1.634679e+000 -8.034054e-001 -6.166559e+000 183 140 108
1.554242e+000 -8.032608e-001 -6.048281e+000 143 95 59
1.691286e+000 -8.433321e-001 -6.139360e+000 146 56 45
1.918560e+000 -8.024389e-001 -6.329326e+000 188 78 76
2.041274e+000 -7.574677e-001 -6.131544e+000 192 79 76
-1.482494e+000 -7.968270e-001 -3.902701e+000 142 121 67
-9.797700e-001 -7.943119e-001 -3.953707e+000 210 118 77
-9.271721e-001 -7.974718e-001 -3.957262e+000 192 104 64
-8.476892e-001 -9.386985e-001 -4.022526e+000 149 76 47
1.638387e+000 -1.128894e+000 -6.005010e+000 214 178 132
1.622283e+000 -1.267569e+000 -6.134213e+000 165 122 84
2.742740e+000 -9.097846e-001 -5.917219e+000 44 39 43
-8.851904e-001 -9.728018e-001 -3.922646e+000 92 39 25
3.103393e+000 -7.620430e-001 -5.535060e+000 63 58 62
-2.172347e-001 -1.397238e+000 -4.810767e+000 134 67 41
2.029945e+000 1.522364e+000 -5.786201e+000 136 61 57
2.500137e+000 1.578714e+000 -6.078196e+000 58 41 43
1.193444e+000 1.212002e+000 -6.542500e+000 234 233 213
2.728863e+000 1.593356e+000 -6.143604e+000 58 57 63
2.723507e+000 1.308473e+000 -6.070634e+000 55 50 57
2.814035e+000 1.452848e+000 -5.965980e+000 50 47 55
7.061749e-001 7.927135e-001 -6.511579e+000 232 235 222
3.164563e-001 4.365394e-001 -6.140535e+000 196 200 184
2.768084e+000 1.106433e+000 -5.941605e+000 54 53 59
2.978338e+000 1.054643e+000 -5.988458e+000 42 39 46
-3.555491e+000 -1.287564e+000 -1.111144e+001 54 52 57
1.815317e-001 1.086133e-001 -5.703923e+000 200 207 199
1.877573e-002 3.931931e-002 -5.678871e+000 202 208 204
5.058792e-001 1.180020e-001 -5.541020e+000 202 209 197
-3.927589e-001 -1.150544e-001 -4.676552e+000 116 49 49
-4.745001e-001 -2.242465e-001 -4.580087e+000 196 173 128
-2.894194e-001 -1.761762e-001 -4.504474e+000 202 184 142
-6.804611e-001 -4.483772e-001 -4.661827e+000 154 68 32
2.375151e+000 -9.872065e-002 -5.794596e+000 214 199 149
-1.546533e+000 -5.172560e-001 -4.072826e+000 141 119 71
-1.520143e+000 -5.835153e-001 -4.079533e+000 147 127 77
-8.559770e-001 -4.944929e-001 -4.256676e+000 119 93 70
-8.552293e-001 -4.330465e-001 -4.381523e+000 171 135 108
-5.425113e-001 -4.708827e-001 -4.676336e+000 214 169 122
-5.225375e-001 -4.819510e-001 -4.543832e+000 154 89 48
-1.762687e-002 -3.412192e-001 -4.658327e+000 216 171 128
1.623968e+000 -6.793267e-001 -6.113845e+000 182 148 107
-1.275604e+000 -6.822200e-001 -3.997718e+000 117 63 55
9.760971e-001 -7.252572e-001 -5.605483e+000 182 179 164
1.850166e+000 -8.684499e-001 -6.196339e+000 194 76 69
3.211396e+000 -6.299471e-001 -5.619722e+000 32 30 33
1.649105e+000 -1.406499e+000 -6.190140e+000 176 91 78
1.792318e+000 -1.431807e+000 -6.236434e+000 152 71 61
7.803371e-001 2.345651e+000 -7.065225e+000 238 238 226
1.869455e-002 1.059454e+000 -7.642438e+000 219 221 208
2.537135e+000 1.409347e+000 -5.950697e+000 61 60 64
2.684307e+000 1.422017e+000 -6.034700e+000 55 53 58
-1.411773e+000 -2.091944e-003 -9.134164e+000 219 212 201
-6.255239e-001 3.972976e-001 -8.410327e+000 229 233 221
-1.775856e+000 -3.257434e-001 -9.535397e+000 179 61 57
3.568305e-001 5.482109e-001 -6.522382e+000 195 201 189
-1.220131e-001 1.645404e-001 -6.006857e+000 195 200 193
1.397663e+000 5.199143e-001 -5.657093e+000 193 196 189
-1.605018e+000 -5.302427e-001 -4.094512e+000 163 146 90
-1.674300e+000 -7.318557e-001 -3.955070e+000 36 23 23
-3.043821e-001 -5.960756e-001 -4.597823e+000 142 80 48
8.972167e-001 -6.915996e-001 -5.855699e+000 85 76 69
9.182691e-001 -6.795071e-001 -5.815748e+000 85 76 69
9.435305e-001 -7.521586e-001 -5.821581e+000 201 199 187
1.582706e+000 -5.915494e-001 -6.075221e+000 81 55 32
-9.844341e-001 -6.632852e-001 -4.012159e+000 112 42 21
2.274367e+000 -6.808869e-001 -5.976549e+000 105 77 47
-1.332949e+000 -8.444250e-001 -3.952284e+000 151 120 74
-6.536980e-001 -8.341304e-001 -4.194374e+000 125 58 33
1.563446e+000 -1.289895e+000 -6.147846e+000 219 191 141
-7.872626e-002 -3.983919e+000 -7.881247e+000 169 51 49
-8.137468e-002 -3.917157e+000 -7.772658e+000 169 51 49
-3.488080e-001 1.921787e+000 -8.385434e+000 216 210 199
1.104441e+000 1.960472e+000 -6.402678e+000 213 201 143
2.453757e+000 1.942230e+000 -5.745666e+000 175 67 68
-1.360102e+000 2.440612e-001 -9.148898e+000 217 217 202
2.176196e-001 7.307587e-001 -6.686003e+000 238 241 230
1.198300e+000 1.107559e+000 -6.266619e+000 129 117 85
2.789849e-001 -9.210763e-002 -5.049225e+000 157 163 156
-1.971751e-001 -2.913197e-001 -4.593912e+000 159 115 79
-8.579988e-001 -5.487981e-001 -4.219410e+000 123 67 42
2.662993e+000 -2.840963e-001 -5.741553e+000 150 133 80
-1.288182e+000 -7.947031e-001 -3.968329e+000 69 22 14
2.510936e+000 -6.718713e-001 -5.820952e+000 38 30 28
3.279453e+000 -6.960696e-001 -5.653728e+000 51 47 53
-8.823841e-001 -9.672848e-001 -3.989505e+000 86 33 23
1.846033e+000 -1.352198e+000 -6.100449e+000 197 159 115
5.848133e-003 -3.780674e+000 -7.762288e+000 18 15 12
9.924091e-001 2.468621e+000 -6.095468e+000 134 120 83
1.303086e+000 1.674294e+000 -6.120676e+000 162 153 103
2.379400e-001 1.265219e+000 -7.010528e+000 180 179 167
2.217903e+000 -2.995467e-002 -5.970442e+000 195 82 81
-3.784872e-002 -7.246371e-001 -4.826605e+000 185 146 102
3.012959e+000 -1.820547e-001 -5.209809e+000 118 99 62
1.148178e+000 -1.207733e+000 -5.981593e+000 116 103 87
-1.418936e-001 -1.210270e+000 -4.827542e+000 60 19 19
-4.293876e-001 7.871687e-002 -5.275886e+000 102 59 47
-2.093685e-001 -1.207807e-001 -4.521406e+000 169 88 83
1.118982e+000 -2.274410e-002 -5.561112e+000 211 216 209
-9.535732e-001 -5.914320e-001 -4.099827e+000 125 57 36
-3.674350e-001 -1.016737e+000 -4.590080e+000 137 62 35
-7.872042e-001 -1.015403e+000 -3.952736e+000 36 24 30
