ply
format ascii 1.0
element face 0
property list uchar int vertex_indices
element vertex 874
property float x
property float y
property float z
property uchar diffuse_red
property uchar diffuse_green
property uchar diffuse_blue
end_header
5.864382e-001 -7.589408e-001 -8.519476e+000 155 30 40
4.514080e+000 -8.246880e-001 -1.044286e+001 124 100 93
-4.593741e-001 -8.263627e-001 -8.172028e+000 21 57 28
5.352581e-001 -1.024279e+000 -8.850904e+000 166 72 74
-7.675231e-001 -1.052472e+000 -8.378671e+000 126 133 115
4.598001e+000 -2.973941e+000 -1.051836e+001 35 29 32
-8.268139e-001 -8.736319e-001 -8.085462e+000 63 93 61
-7.653212e-001 -9.167149e-001 -8.180966e+000 24 53 35
4.334457e+000 -2.823097e-001 -9.714643e+000 111 81 67
-2.393702e-001 -4.179436e-001 -7.902270e+000 72 112 111
4.026455e+000 -1.345208e-001 -9.413476e+000 172 82 47
-4.058993e-001 -6.062496e-001 -7.977436e+000 56 101 112
8.031130e-001 -1.147111e+000 -9.244108e+000 15 88 143
4.771321e+000 6.523389e-001 -9.599586e+000 155 116 85
2.077519e+000 -6.446138e-001 -9.076692e+000 122 68 58
4.655842e+000 -1.044024e+000 -1.087340e+001 32 18 31
1.791552e-001 -1.484410e-001 -7.838523e+000 159 155 130
-1.537657e+000 -5.631620e-001 -7.522240e+000 17 84 126
3.128934e+000 -1.075355e+000 -1.024509e+001 185 131 119
2.609093e+000 -3.001545e-002 -8.775166e+000 168 113 92
8.247797e-001 -1.529661e-001 -8.129167e+000 185 137 114
1.320660e+000 -1.597088e-001 -8.336209e+000 77 27 17
1.435029e+000 -9.385256e-002 -8.341663e+000 78 25 22
2.687948e+000 -1.282485e-001 -8.878146e+000 169 55 63
3.014087e+000 -2.047072e-001 -9.077056e+000 183 68 69
2.654107e+000 -4.723446e-001 -9.139166e+000 141 25 39
4.356262e+000 -3.985725e-001 -9.856574e+000 107 87 78
-9.900378e-001 -5.982726e-001 -7.715041e+000 158 32 35
-1.621306e-001 -6.624943e-001 -8.116160e+000 148 151 47
1.585273e+000 -1.036503e+000 -9.345059e+000 143 88 83
5.171115e+000 3.583582e-001 -9.593611e+000 32 23 27
1.357934e+000 6.751014e-002 -8.218252e+000 172 112 101
1.297360e+000 -1.360438e-001 -8.321546e+000 156 103 95
8.225528e-001 -5.753174e-001 -8.460270e+000 25 73 107
-4.984627e-001 -8.849465e-001 -8.238358e+000 18 56 30
4.074380e+000 5.649258e-001 -9.274898e+000 155 63 47
4.439857e+000 2.735624e-001 -9.364191e+000 39 17 31
-2.573773e-001 -9.806875e-001 -8.477051e+000 154 156 31
1.047569e+000 -1.041988e+000 -9.141879e+000 133 86 79
1.675037e+000 -9.757459e-001 -9.289763e+000 180 122 110
1.632366e+000 -1.062697e+000 -9.478566e+000 181 127 115
-4.230550e-001 -1.096759e+000 -8.580799e+000 26 54 37
1.760567e+000 -1.787433e-001 -8.530888e+000 123 65 64
-6.750715e-001 -2.294923e-001 -7.594271e+000 33 96 137
-1.175552e+000 -1.040501e+000 -8.162201e+000 175 36 52
-2.924428e-001 -5.087759e-001 -7.920334e+000 101 118 50
2.195877e+000 -1.478475e-001 -8.702068e+000 144 101 78
2.195877e+000 -1.478475e-001 -8.702068e+000 144 101 78
4.439887e+000 -2.984704e+000 -1.042862e+001 54 46 59
2.719195e+000 5.468804e-001 -8.708620e+000 182 132 69
3.489990e+000 6.394036e-001 -9.078243e+000 136 119 117
2.575690e+000 3.431281e-001 -8.580495e+000 185 133 86
2.899720e+000 -7.528395e-003 -8.864621e+000 172 17 34
4.846657e+000 1.753835e-001 -9.628643e+000 184 110 59
4.888401e+000 1.533259e-001 -9.615328e+000 161 97 55
4.854856e+000 1.166433e-001 -9.617786e+000 37 7 11
4.958448e+000 1.269781e-001 -9.671162e+000 42 10 7
7.944989e-001 -1.168096e-001 -8.095760e+000 187 155 116
4.667283e+000 -3.250110e-002 -9.670324e+000 110 49 10
4.611217e+000 -5.522206e-002 -9.634688e+000 171 96 41
4.907105e+000 -1.642396e-002 -9.783422e+000 36 10 8
2.713600e+000 -2.490773e-001 -8.985668e+000 164 25 31
4.382749e+000 -1.860244e-001 -9.642771e+000 125 98 77
4.386648e+000 -1.827457e-001 -9.650298e+000 125 98 77
4.769154e+000 -9.968196e-002 -9.833241e+000 179 104 47
4.847930e+000 -1.944608e-001 -9.967273e+000 41 5 4
-6.643615e-001 -3.858913e-001 -7.683756e+000 150 159 58
-3.696042e-001 -4.310036e-001 -7.849803e+000 152 147 25
7.330832e-001 -4.109098e-001 -8.270603e+000 197 166 127
2.642144e+000 -3.731460e-001 -9.049994e+000 199 92 84
2.989038e+000 -3.249506e-001 -9.164275e+000 207 100 90
3.350571e+000 -4.255192e-001 -9.391746e+000 196 143 109
3.611339e+000 -3.317178e-001 -9.435604e+000 184 133 90
4.377575e+000 -2.692443e-001 -9.730104e+000 182 155 128
4.377575e+000 -2.692443e-001 -9.730104e+000 182 155 128
2.986649e-001 -5.744748e-001 -8.217866e+000 164 162 131
6.440664e-001 -4.917831e-001 -8.279859e+000 148 8 9
7.161652e-001 -5.750196e-001 -8.394442e+000 156 12 12
7.153124e-001 -5.772278e-001 -8.389136e+000 156 12 12
3.008054e+000 -4.334553e-001 -9.278605e+000 158 23 28
3.151636e+000 -5.330054e-001 -9.432706e+000 192 140 100
3.789279e+000 -4.615980e-001 -9.629594e+000 189 89 57
3.834996e+000 -4.563593e-001 -9.648843e+000 127 44 14
3.797277e+000 -5.244367e-001 -9.656790e+000 142 53 11
3.762973e+000 -5.443593e-001 -9.702627e+000 198 117 43
4.122058e+000 -5.151658e-001 -9.844821e+000 37 13 16
-1.024489e-001 -5.845712e-001 -8.050131e+000 17 47 60
6.566601e-001 -6.527737e-001 -8.437188e+000 173 39 42
1.313117e+000 -6.468466e-001 -8.699338e+000 92 43 39
1.313120e+000 -6.477928e-001 -8.697727e+000 92 43 39
2.930243e+000 -5.641320e-001 -9.336087e+000 201 89 85
2.965985e+000 -6.565207e-001 -9.450072e+000 193 83 76
3.304747e+000 -5.794967e-001 -9.514359e+000 130 72 60
3.652288e+000 -6.232653e-001 -9.712104e+000 191 128 98
3.825317e+000 -5.870781e-001 -9.785569e+000 179 136 102
3.948546e+000 -6.497827e-001 -9.913483e+000 182 144 108
4.074179e+000 -6.496021e-001 -9.982420e+000 41 22 19
-1.172475e+000 -7.199516e-001 -7.754932e+000 185 153 115
-7.354064e-001 -7.621671e-001 -7.961780e+000 18 55 36
6.649514e-001 -6.956201e-001 -8.484164e+000 200 174 118
1.377962e+000 -7.265680e-001 -8.815598e+000 189 132 106
1.377962e+000 -7.265680e-001 -8.815598e+000 189 132 106
1.758033e+000 -6.994485e-001 -8.959974e+000 103 45 43
2.605893e+000 -7.395629e-001 -9.396673e+000 207 96 97
2.606169e+000 -7.391677e-001 -9.397583e+000 207 96 97
3.230779e+000 -7.706426e-001 -9.702495e+000 196 135 116
3.620865e+000 -7.056861e-001 -9.814112e+000 173 138 104
3.593610e+000 -7.870234e-001 -9.915004e+000 171 136 92
3.683243e+000 -7.684043e-001 -9.960173e+000 172 138 103
3.726866e+000 -7.860819e-001 -9.939395e+000 173 138 108
-1.214163e+000 -8.505147e-001 -7.917269e+000 179 43 44
-1.214163e+000 -8.505147e-001 -7.917269e+000 179 43 44
3.431634e+000 -8.591588e-001 -9.939996e+000 177 143 111
3.785248e+000 -8.507361e-001 -1.003541e+001 173 137 111
3.854082e+000 -8.051271e-001 -1.005348e+001 97 59 54
4.514156e+000 -7.571176e-001 -1.039514e+001 156 138 118
-1.191074e+000 -8.839543e-001 -7.958629e+000 178 39 50
-1.232633e+000 -9.084096e-001 -7.976401e+000 185 29 51
-1.232458e+000 -9.091234e-001 -7.976171e+000 185 29 51
-1.203703e+000 -8.995237e-001 -7.976250e+000 184 169 122
-1.628588e-001 -8.949189e-001 -8.396655e+000 177 170 40
5.725163e-001 -9.528977e-001 -8.795590e+000 155 24 30
5.725163e-001 -9.528977e-001 -8.795590e+000 155 24 30
3.481592e+000 -8.899168e-001 -1.007278e+001 170 137 117
-1.181852e+000 -9.887107e-001 -8.101365e+000 189 45 49
-1.179373e+000 -1.005746e+000 -8.124099e+000 210 160 123
-1.178915e+000 -1.004542e+000 -8.129216e+000 210 160 123
-1.216072e+000 -1.037697e+000 -8.151586e+000 192 172 129
-1.215957e+000 -1.037022e+000 -8.151886e+000 192 172 129
-4.746780e-001 -9.907341e-001 -8.415618e+000 175 170 39
-4.746780e-001 -9.907341e-001 -8.415618e+000 175 170 39
5.499045e-001 -1.030381e+000 -8.891966e+000 206 162 133
1.232230e+000 -1.066215e+000 -9.232539e+000 112 63 59
1.232230e+000 -1.066215e+000 -9.232539e+000 112 63 59
1.769662e+000 -1.064355e+000 -9.568869e+000 195 133 120
1.782177e+000 -1.097022e+000 -9.553791e+000 129 75 61
1.782177e+000 -1.097022e+000 -9.553791e+000 129 75 61
2.246423e+000 -1.054034e+000 -9.682639e+000 117 71 57
2.247023e+000 -1.053645e+000 -9.684155e+000 117 71 57
2.568500e+000 -1.068647e+000 -9.869690e+000 168 29 44
2.715373e+000 -1.054151e+000 -9.915000e+000 203 87 90
2.713382e+000 -1.056249e+000 -9.910620e+000 203 87 90
1.006021e+000 -1.104206e+000 -9.213315e+000 111 70 65
1.678108e+000 -1.171062e+000 -9.666535e+000 167 29 36
3.903778e+000 2.319089e-001 -9.170709e+000 192 101 44
4.984561e+000 2.438522e-001 -9.594472e+000 46 5 21
4.975169e+000 2.369740e-001 -9.579434e+000 46 5 21
-2.443932e+000 6.842883e-001 -7.996058e+000 183 151 113
1.409415e+000 -7.687198e-002 -8.315130e+000 188 128 99
2.693068e+000 -8.856008e-002 -8.864976e+000 176 31 37
2.726631e+000 -1.473499e-001 -8.906107e+000 171 22 33
3.936887e+000 -6.872216e-002 -9.363794e+000 119 36 30
2.808665e+000 -3.030748e-001 -9.034285e+000 193 84 77
4.876439e+000 -9.751236e-002 -9.874457e+000 46 9 3
4.876439e+000 -9.751236e-002 -9.874457e+000 46 9 3
9.248156e-001 -3.711101e-001 -8.279326e+000 23 84 123
2.665440e+000 -4.002178e-001 -9.062391e+000 166 19 35
3.733809e+000 -3.132941e-001 -9.449146e+000 189 117 37
4.270814e+000 -3.242144e-001 -9.729090e+000 189 89 27
2.246064e-001 -5.528738e-001 -8.175933e+000 134 22 27
2.658134e+000 -4.364574e-001 -9.097295e+000 157 26 34
3.720501e+000 -4.234265e-001 -9.565425e+000 197 66 42
3.914975e+000 -4.486826e-001 -9.688351e+000 121 57 38
3.756513e+000 -4.823206e-001 -9.649618e+000 142 40 18
3.894065e+000 -5.064381e-001 -9.727331e+000 130 68 37
-1.185251e+000 -6.595198e-001 -7.707318e+000 177 34 38
-7.328027e-001 -6.394375e-001 -7.842425e+000 166 155 30
-7.328027e-001 -6.394375e-001 -7.842425e+000 166 155 30
7.995347e-001 -6.559089e-001 -8.455811e+000 16 91 130
2.697050e+000 -6.018536e-001 -9.261742e+000 167 22 39
2.697050e+000 -6.018536e-001 -9.261742e+000 167 22 39
2.713180e+000 -6.558563e-001 -9.325772e+000 205 93 85
2.879761e+000 -6.730943e-001 -9.425399e+000 178 75 60
2.995659e+000 -6.064308e-001 -9.442437e+000 203 79 78
3.861058e+000 -6.051171e-001 -9.821231e+000 126 87 75
3.861058e+000 -6.051171e-001 -9.821231e+000 126 87 75
-1.619666e+000 -6.957967e-001 -7.591427e+000 188 167 152
-1.171011e+000 -7.644092e-001 -7.807450e+000 177 31 44
-1.136440e+000 -7.622037e-001 -7.822746e+000 187 42 51
2.620168e+000 -6.901953e-001 -9.323514e+000 204 94 92
2.620168e+000 -6.901953e-001 -9.323514e+000 204 94 92
2.665539e+000 -7.672380e-001 -9.447591e+000 176 70 63
2.630799e+000 -7.648190e-001 -9.458927e+000 162 27 35
2.867526e+000 -7.276187e-001 -9.514096e+000 199 83 75
3.545223e+000 -7.422066e-001 -9.852699e+000 174 142 101
4.034246e+000 -6.615146e-001 -9.982639e+000 197 165 126
-1.243310e+000 -8.160094e-001 -7.870995e+000 179 33 39
-1.065643e+000 -8.160158e-001 -7.910503e+000 183 30 33
1.906297e-001 -8.449097e-001 -8.481093e+000 118 21 33
2.585769e+000 -8.556841e-001 -9.529452e+000 167 24 41
2.903475e+000 -8.078144e-001 -9.614154e+000 195 81 76
2.860684e+000 -8.202036e-001 -9.621859e+000 175 31 43
3.666165e+000 -8.024510e-001 -9.988780e+000 172 140 105
3.749827e+000 -7.952717e-001 -1.001986e+001 172 138 111
3.763139e+000 -8.464281e-001 -1.008137e+001 100 70 52
4.049909e+000 -8.473154e-001 -1.020783e+001 125 107 90
4.683152e+000 -7.476656e-001 -1.058617e+001 105 35 32
-7.105875e-001 -8.941329e-001 -8.169106e+000 175 170 27
2.348618e+000 -9.074519e-001 -9.505406e+000 202 133 114
2.420209e+000 -9.643979e-001 -9.609534e+000 187 105 85
2.463730e+000 -9.638206e-001 -9.646837e+000 165 25 41
2.522647e+000 -9.506703e-001 -9.794693e+000 211 90 92
2.568207e+000 -9.430136e-001 -9.677284e+000 168 27 41
2.869270e+000 -9.037496e-001 -9.777809e+000 193 89 85
3.632339e+000 -9.424364e-001 -1.012927e+001 136 102 74
-1.321273e+000 -1.008763e+000 -8.077011e+000 183 39 42
-3.777822e-001 -9.897214e-001 -8.442742e+000 166 165 17
-3.778713e-001 -9.907311e-001 -8.439527e+000 166 165 17
2.159648e+000 -1.099948e+000 -9.730986e+000 196 139 122
2.410717e+000 -1.060434e+000 -9.755042e+000 170 42 55
2.779105e+000 -1.021806e+000 -9.961579e+000 152 17 27
-7.445411e-001 -1.076570e+000 -8.410246e+000 168 164 30
-7.449089e-001 -1.076250e+000 -8.411123e+000 168 164 30
1.659501e+000 -1.190714e+000 -9.740053e+000 195 100 94
1.703394e+000 -1.196673e+000 -9.733722e+000 178 39 46
-2.080741e+000 -1.304173e+000 -8.627983e+000 217 205 197
9.101744e-001 3.933395e-002 -8.037907e+000 40 34 58
2.891174e+000 3.671507e-002 -8.863249e+000 199 93 76
3.635277e+000 3.847758e-003 -9.184169e+000 176 118 54
3.847613e+000 5.877927e-002 -9.213631e+000 176 81 21
-3.500036e-003 -1.529828e-001 -7.790827e+000 153 145 46
9.118719e-001 -1.625915e-001 -8.172471e+000 10 78 113
1.656061e+000 -1.200927e-001 -8.453303e+000 105 58 51
2.079988e+000 -2.147884e-001 -8.678203e+000 118 73 67
4.344706e+000 -1.646637e-001 -9.599677e+000 191 165 140
-2.378210e-001 -4.225705e-001 -7.892765e+000 76 103 97
3.028898e+000 -4.320090e-001 -9.236998e+000 207 95 78
4.894818e+000 -2.117244e-001 -1.001438e+001 161 83 37
2.372184e+000 -6.547287e-001 -9.192954e+000 194 135 108
3.160017e+000 -6.364482e-001 -9.521883e+000 106 54 43
4.734879e+000 -5.305544e-001 -1.029631e+001 115 48 21
-2.296421e+000 -6.082561e-001 -7.606290e+000 185 163 150
1.159109e+000 -7.596703e-001 -8.769422e+000 103 57 59
1.771486e+000 -7.324594e-001 -8.997402e+000 196 135 104
2.176852e+000 -7.182562e-001 -9.182596e+000 163 112 103
2.357906e+000 -6.835538e-001 -9.241001e+000 195 130 98
2.357934e+000 -6.834614e-001 -9.241346e+000 195 130 98
2.473171e+000 -7.205692e-001 -9.277707e+000 169 29 40
3.191330e+000 -7.207875e-001 -9.648873e+000 195 137 111
2.937828e-001 -8.401180e-001 -8.514873e+000 143 101 94
7.050092e-001 -8.810637e-001 -8.787492e+000 22 84 128
2.496074e+000 -8.128987e-001 -9.454819e+000 185 87 78
3.998212e+000 -8.749870e-001 -1.023904e+001 145 129 117
1.709333e+000 -1.012477e+000 -9.335098e+000 142 95 77
2.636649e+000 -9.323835e-001 -9.642984e+000 174 29 43
3.679202e+000 -9.929773e-001 -1.017589e+001 136 102 83
1.710922e+000 -1.021875e+000 -9.559641e+000 120 68 54
2.789169e+000 -1.112171e+000 -1.007472e+001 162 21 31
1.187058e+000 -1.189583e+000 -9.476730e+000 170 33 37
1.529737e+000 -1.183415e+000 -9.611561e+000 176 38 46
2.179667e+000 -1.162919e+000 -1.007456e+001 126 26 31
-5.398176e-001 4.222398e-001 -7.425787e+000 56 101 122
3.930067e+000 2.454138e-001 -9.212708e+000 183 97 31
-2.410256e+000 7.352617e-001 -7.904360e+000 82 62 48
3.822575e+000 -4.991362e-003 -9.258100e+000 182 73 33
1.099355e+000 -2.286999e-001 -8.280838e+000 14 87 123
1.620582e+000 -2.326735e-001 -8.490646e+000 184 128 103
7.838626e-001 -5.396603e-001 -8.416204e+000 155 30 36
1.271029e+000 -6.306051e-001 -8.670309e+000 198 137 109
2.242711e+000 -6.949628e-001 -9.108880e+000 194 131 112
-1.185453e+000 -6.977068e-001 -7.729621e+000 173 32 40
8.221376e-001 -7.183964e-001 -8.534486e+000 15 63 95
1.840381e+000 -7.183248e-001 -9.050772e+000 152 97 88
4.592079e+000 -7.103208e-001 -1.040729e+001 158 141 121
6.202541e-001 -9.768119e-001 -8.779530e+000 147 28 36
1.908786e+000 -9.622504e-001 -9.370468e+000 192 130 109
5.957493e-001 -1.028037e+000 -8.885304e+000 167 29 36
1.509427e+000 -1.074266e+000 -9.427916e+000 197 139 118
1.767667e+000 -1.020379e+000 -9.456078e+000 197 134 110
1.767667e+000 -1.020379e+000 -9.456078e+000 197 134 110
1.871210e+000 -1.037015e+000 -9.511215e+000 192 134 118
1.871210e+000 -1.037015e+000 -9.511215e+000 192 134 118
1.850038e+000 -1.068934e+000 -9.562094e+000 193 136 119
1.982530e+000 -1.029580e+000 -9.491506e+000 195 136 117
2.104710e+000 -1.023268e+000 -9.565243e+000 200 139 119
1.964191e+000 -1.070998e+000 -9.587753e+000 198 136 115
1.242945e+000 6.587132e-002 -8.214763e+000 6 80 119
1.111391e+000 -1.729532e-001 -8.208884e+000 14 86 128
1.057813e+000 -1.930492e-001 -8.251606e+000 1 31 51
-4.797438e-001 -5.010058e-001 -7.851213e+000 23 47 32
-1.142919e+000 -7.307814e-001 -7.783795e+000 163 73 61
9.283445e-001 -7.235282e-001 -8.628510e+000 1 44 73
-6.072763e-001 -8.116249e-001 -8.082008e+000 39 64 35
-2.679489e+000 -3.615568e-001 -8.407855e+000 203 56 101
1.230772e+000 -1.157071e+000 -9.438074e+000 192 130 117
2.046009e+000 -1.130257e+000 -9.761620e+000 202 141 123
2.297481e+000 -1.130105e+000 -9.869607e+000 175 28 46
-6.925465e-001 -5.927897e-001 -7.840397e+000 24 57 27
5.801210e-001 -9.168301e-001 -8.745785e+000 178 98 87
1.481968e+000 -1.130627e+000 -9.578038e+000 202 141 123
2.199192e+000 -1.148612e+000 -9.977148e+000 132 38 42
3.847661e+000 2.863306e-001 -9.112149e+000 123 20 24
-9.821688e-002 -2.779264e-001 -7.839441e+000 103 126 121
-9.821688e-002 -2.779264e-001 -7.839441e+000 103 126 121
-2.929266e-001 -3.452792e-001 -7.810818e+000 24 51 33
1.206257e+000 -5.276850e-001 -8.630608e+000 195 124 96
-4.380678e-001 -8.614855e-001 -8.243563e+000 24 63 26
3.493378e+000 -9.796699e-001 -1.011661e+001 177 140 111
4.387829e+000 -1.032961e+000 -1.058038e+001 77 57 46
2.879612e+000 3.082884e-001 -8.772307e+000 47 17 25
1.861796e+000 -9.606693e-002 -8.542033e+000 196 137 97
3.722298e+000 -6.681523e-001 -9.820538e+000 178 143 102
-9.605262e-001 -7.419600e-001 -7.961398e+000 15 86 132
-1.572671e+000 -5.897464e-001 -7.553975e+000 12 77 115
9.934790e-001 -7.539496e-001 -8.658405e+000 4 81 121
2.015782e+000 -7.945021e-001 -9.201795e+000 193 131 107
-3.850396e-001 2.126784e-001 -7.549821e+000 43 94 122
4.471607e+000 -7.317784e-001 -1.012177e+001 163 145 127
-4.847291e-001 -1.056583e+000 -8.489380e+000 158 152 34
2.373806e+000 -3.810130e-001 -8.974268e+000 202 146 109
1.200210e+000 -8.829283e-001 -8.997649e+000 194 126 103
4.444637e+000 -3.179181e-001 -9.778163e+000 194 106 51
7.154078e-001 -9.842628e-001 -9.112294e+000 3 58 95
1.972926e+000 -1.358059e+000 -1.021789e+001 41 35 37
-1.589055e+000 -9.381295e-001 -7.984676e+000 15 90 130
1.890096e+000 -6.159281e-001 -9.390577e+000 198 137 109
-3.177183e+001 2.466692e+001 -5.751742e+001 90 70 67
-1.883021e+001 2.913858e+001 -4.244946e+001 150 83 62
-2.021340e+001 2.843875e+001 -4.501260e+001 91 71 62
-2.319168e+001 2.355734e+001 -4.419008e+001 43 31 27
-1.918888e+001 2.652625e+001 -4.081859e+001 98 75 67
4.673082e+000 1.681223e-001 -9.504029e+000 193 99 47
1.014397e+000 6.251698e-002 -8.095606e+000 7 80 116
1.064300e+000 5.953458e-002 -8.113969e+000 8 76 114
4.957372e+000 1.265444e-001 -9.670545e+000 42 10 7
-2.013961e-001 -1.803244e-001 -7.732462e+000 20 42 26
7.996256e-001 -1.930741e-001 -8.177533e+000 128 12 10
7.955599e-001 -2.072675e-001 -8.156515e+000 128 12 10
4.097153e+000 -8.165659e-002 -9.433730e+000 130 53 21
4.389916e+000 -4.453572e-002 -9.530727e+000 178 155 130
4.438538e+000 -2.956114e-002 -9.541520e+000 174 151 121
4.681892e+000 1.087972e-004 -9.661432e+000 121 56 17
4.505709e+000 -5.398920e-002 -9.607368e+000 34 15 4
-1.306406e-001 -3.168736e-001 -7.852474e+000 159 153 31
7.574750e-001 -2.405129e-001 -8.168196e+000 155 32 31
7.992535e-001 -2.863860e-001 -8.239292e+000 206 158 129
3.786577e+000 -2.042951e-001 -9.419025e+000 178 115 50
4.358504e+000 -2.373357e-001 -9.691911e+000 45 18 35
4.474621e+000 -2.006813e-001 -9.717145e+000 191 162 143
4.448344e+000 -2.326130e-001 -9.732058e+000 44 22 10
4.633618e+000 -2.069170e-001 -9.815510e+000 171 108 41
4.795197e+000 -1.173559e-001 -9.820333e+000 56 10 22
4.840200e+000 -2.014023e-001 -9.955562e+000 41 5 4
4.938638e+000 -1.996991e-001 -9.988892e+000 28 21 27
-6.510551e-001 -3.620269e-001 -7.674054e+000 9 41 17
7.645451e-001 -4.390949e-001 -8.312391e+000 201 160 121
2.971710e+000 -4.012932e-001 -9.230917e+000 186 71 67
2.974399e+000 -3.429946e-001 -9.129604e+000 207 100 90
3.651982e+000 -3.972913e-001 -9.500084e+000 200 128 40
3.691766e+000 -4.223433e-001 -9.456622e+000 193 69 46
3.938795e+000 -3.275558e-001 -9.570057e+000 102 31 13
4.068524e+000 -2.844742e-001 -9.585693e+000 201 129 55
4.213599e+000 -3.205463e-001 -9.694213e+000 216 160 106
-1.615710e+000 -5.088902e-001 -7.505947e+000 131 134 125
-8.453636e-001 -6.325307e-001 -7.552597e+000 14 39 19
-5.804497e-001 -4.564713e-001 -7.797667e+000 154 155 47
-6.139559e-001 -5.417981e-001 -7.824421e+000 157 149 23
-4.671699e-001 -5.385904e-001 -7.873848e+000 162 150 15
-2.868224e-001 -4.952873e-001 -7.918839e+000 73 95 95
-1.316647e-001 -4.995069e-001 -7.971356e+000 102 126 119
7.474390e-001 -5.195288e-001 -8.367518e+000 211 161 125
8.662178e-001 -5.374126e-001 -8.427265e+000 19 83 127
8.662178e-001 -5.374126e-001 -8.427265e+000 19 83 127
3.797234e+000 -4.547948e-001 -9.643831e+000 189 89 57
4.133947e+000 -4.794605e-001 -9.815118e+000 40 15 24
4.626905e+000 -4.414552e-001 -1.006828e+001 162 146 126
4.619082e+000 -4.896718e-001 -1.012972e+001 166 142 126
-1.174292e+000 -5.978755e-001 -7.652770e+000 176 26 30
-7.506474e-001 -6.574469e-001 -7.861707e+000 38 72 70
-4.432463e-001 -6.495905e-001 -7.991813e+000 64 100 97
-4.432463e-001 -6.495905e-001 -7.991813e+000 64 100 97
7.223274e-001 -5.968979e-001 -8.407104e+000 205 175 130
7.209905e-001 -6.319102e-001 -8.437494e+000 206 167 135
2.567289e+000 -6.312146e-001 -9.234060e+000 166 20 33
2.746745e+000 -5.795455e-001 -9.266482e+000 205 92 88
2.951550e+000 -6.099945e-001 -9.416218e+000 165 24 35
2.944830e+000 -6.182677e-001 -9.401688e+000 165 24 35
3.281029e+000 -6.346361e-001 -9.576906e+000 196 135 117
3.932748e+000 -5.576626e-001 -9.815229e+000 185 124 77
3.869810e+000 -5.810100e-001 -9.798964e+000 183 139 100
3.843762e+000 -6.617178e-001 -9.878433e+000 86 50 35
4.524911e+000 -5.974155e-001 -1.019708e+001 30 12 8
-1.535496e+000 -7.013053e-001 -7.616746e+000 167 162 142
-1.535496e+000 -7.013053e-001 -7.616746e+000 167 162 142
-1.507109e+000 -6.992769e-001 -7.622504e+000 144 157 155
-1.507109e+000 -6.992769e-001 -7.622504e+000 144 157 155
-1.107972e+000 -7.631421e-001 -7.795030e+000 198 144 120
5.607364e-001 -7.097706e-001 -8.465761e+000 161 160 131
6.271922e-001 -7.245845e-001 -8.505116e+000 198 174 130
6.269236e-001 -7.271270e-001 -8.501681e+000 198 174 130
6.321991e-001 -7.755528e-001 -8.559614e+000 203 173 134
8.031711e-001 -7.527416e-001 -8.567248e+000 13 88 136
6.682448e-001 -7.671899e-001 -8.581059e+000 200 170 133
2.654559e+000 -7.057158e-001 -9.380728e+000 160 13 25
2.959718e+000 -6.907357e-001 -9.498316e+000 220 100 97
2.925029e+000 -7.708884e-001 -9.580015e+000 198 78 80
3.265175e+000 -6.957439e-001 -9.647114e+000 118 60 45
3.265175e+000 -6.957439e-001 -9.647114e+000 118 60 45
3.227013e+000 -7.891484e-001 -9.745350e+000 123 66 64
3.617948e+000 -7.235146e-001 -9.839405e+000 176 139 111
3.848805e+000 -7.724582e-001 -1.003452e+001 167 132 100
4.043310e+000 -7.337299e-001 -1.007403e+001 25 5 0
4.041381e+000 -7.354443e-001 -1.007027e+001 25 5 0
4.491485e+000 -6.852711e-001 -1.028357e+001 39 18 8
4.703823e+000 -6.816719e-001 -1.035840e+001 133 70 49
-1.127667e+000 -8.033522e-001 -7.875826e+000 193 161 123
-6.567259e-001 -8.036458e-001 -8.064151e+000 165 158 36
3.204867e+000 -8.511146e-001 -9.801446e+000 107 53 47
3.574136e+000 -8.352686e-001 -9.975911e+000 175 141 112
3.673603e+000 -8.489300e-001 -1.004013e+001 120 90 63
3.710744e+000 -8.781933e-001 -1.010533e+001 172 136 110
-1.190665e+000 -8.838162e-001 -7.958865e+000 178 39 50
-1.180462e+000 -9.236678e-001 -8.014304e+000 201 154 117
-1.189714e+000 -9.457615e-001 -8.044026e+000 205 156 125
-4.091018e-001 -8.896123e-001 -8.295083e+000 19 58 24
-3.464636e-001 -9.026690e-001 -8.340344e+000 170 166 36
5.953836e-001 -9.357039e-001 -8.780381e+000 198 165 135
5.550297e-001 -9.856711e-001 -8.835530e+000 145 20 12
1.731731e+000 -9.724270e-001 -9.327855e+000 125 71 52
1.731214e+000 -9.737705e-001 -9.326850e+000 125 71 52
2.490778e+000 -9.139557e-001 -9.584512e+000 151 13 26
2.479517e+000 -9.270488e-001 -9.557173e+000 151 13 26
2.628414e+000 -1.010038e+000 -9.775981e+000 214 94 94
2.623502e+000 -1.017495e+000 -9.758837e+000 214 94 94
2.798317e+000 -9.797604e-001 -9.849324e+000 178 38 55
3.678657e+000 -9.486449e-001 -1.018846e+001 172 137 112
-1.219633e+000 -9.756115e-001 -8.075678e+000 196 150 113
-1.195039e+000 -9.724021e-001 -8.053773e+000 182 31 37
-9.401055e-001 -1.035041e+000 -8.263618e+000 176 167 39
-6.830054e-001 -9.901629e-001 -8.266085e+000 170 166 37
5.260377e-001 -1.079899e+000 -8.965664e+000 207 175 144
1.489058e+000 -1.013060e+000 -9.275882e+000 129 83 66
1.676328e+000 -1.084478e+000 -9.485243e+000 136 83 68
1.927009e+000 -1.043001e+000 -9.515815e+000 103 51 37
2.383971e+000 -1.103578e+000 -9.782371e+000 164 30 47
2.606659e+000 -1.059331e+000 -9.792690e+000 207 89 93
2.572851e+000 -1.063090e+000 -9.881399e+000 168 29 44
2.746017e+000 -1.066220e+000 -9.938170e+000 159 24 34
-1.203645e+000 -1.065146e+000 -8.195485e+000 219 159 131
-1.203645e+000 -1.065146e+000 -8.195485e+000 219 159 131
1.585279e+000 -1.177419e+000 -9.659641e+000 205 121 111
2.338753e+000 -1.174028e+000 -9.888208e+000 188 154 131
1.092782e+000 8.275848e-002 -8.105583e+000 178 159 132
4.631057e+000 2.364840e-001 -9.546648e+000 175 154 128
2.600431e+000 3.401852e-002 -8.684413e+000 201 135 105
3.077386e+000 6.066815e-002 -8.943909e+000 210 93 92
4.395287e+000 1.163070e-001 -9.414196e+000 180 154 126
4.932079e+000 5.758652e-002 -9.731564e+000 49 19 16
-2.629843e-001 -1.756931e-001 -7.697873e+000 148 137 29
2.594146e+000 -8.723266e-002 -8.805576e+000 196 144 104
3.074991e+000 -8.560955e-002 -9.002704e+000 170 24 36
3.933887e+000 -7.133490e-002 -9.360041e+000 119 36 30
4.072919e+000 -1.138185e-001 -9.502567e+000 192 86 37
1.470914e+000 -2.123316e-001 -8.497049e+000 195 132 101
2.814974e+000 -2.954490e-001 -9.049051e+000 193 84 77
4.712400e+000 -2.252494e-001 -9.898629e+000 173 103 29
3.732540e+000 -3.152726e-001 -9.447190e+000 189 117 37
2.649506e+000 -4.481701e-001 -9.084784e+000 157 26 34
2.711488e+000 -5.238983e-001 -9.185917e+000 172 33 41
3.023650e+000 -4.913393e-001 -9.301092e+000 207 92 85
3.343281e+000 -4.558196e-001 -9.414622e+000 130 82 52
3.332700e+000 -5.165375e-001 -9.468511e+000 144 87 68
3.451849e+000 -4.884624e-001 -9.479063e+000 200 81 45
3.451707e+000 -5.361461e-001 -9.581746e+000 191 83 38
3.661337e+000 -5.178707e-001 -9.657104e+000 121 30 17
3.661337e+000 -5.178707e-001 -9.657104e+000 121 30 17
3.887197e+000 -4.215249e-001 -9.657443e+000 194 91 46
3.996151e+000 -4.941534e-001 -9.745717e+000 191 114 44
4.045759e+000 -5.305572e-001 -9.844756e+000 177 86 41
4.793088e+000 -3.546853e-001 -1.009981e+001 124 68 33
2.152762e-001 -6.899530e-001 -8.283267e+000 167 168 129
3.046947e-001 -6.265220e-001 -8.258395e+000 122 8 19
1.116108e+000 -6.021468e-001 -8.550073e+000 26 71 112
1.223462e+000 -6.263576e-001 -8.668153e+000 132 81 92
2.679212e+000 -6.411296e-001 -9.300043e+000 161 22 29
2.684192e+000 -6.343675e-001 -9.311418e+000 161 22 29
2.895824e+000 -6.285953e-001 -9.361400e+000 196 81 71
2.986543e+000 -6.190700e-001 -9.418674e+000 203 79 78
3.405718e+000 -6.299185e-001 -9.603018e+000 198 101 42
4.616652e+000 -5.981344e-001 -1.026132e+001 166 146 123
4.711611e+000 -5.635206e-001 -1.032709e+001 113 48 20
-1.169948e+000 -7.641030e-001 -7.807945e+000 177 31 44
-6.295971e-001 -7.012977e-001 -7.947832e+000 163 162 36
3.138284e-001 -7.094197e-001 -8.355903e+000 162 162 140
2.540147e+000 -7.057438e-001 -9.318703e+000 202 94 89
2.567876e+000 -7.268921e-001 -9.348896e+000 177 30 46
3.547178e+000 -7.401860e-001 -9.855145e+000 174 142 101
3.601213e+000 -7.511753e-001 -9.852870e+000 183 145 117
-1.100975e+000 -7.811686e-001 -7.861195e+000 180 44 46
-1.065520e+000 -8.207226e-001 -7.905896e+000 183 30 33
-6.858080e-001 -8.375708e-001 -8.036148e+000 58 107 110
-6.866008e-001 -8.248480e-001 -8.056136e+000 58 107 110
2.159536e-001 -7.914116e-001 -8.419191e+000 164 167 136
2.184503e-001 -7.925264e-001 -8.418835e+000 164 167 136
7.202620e-001 -8.471596e-001 -8.718400e+000 28 84 134
1.552277e+000 -8.738076e-001 -9.101827e+000 124 77 68
2.121551e+000 -8.624885e-001 -9.344262e+000 116 62 51
2.122344e+000 -8.615994e-001 -9.345621e+000 116 62 51
2.890301e+000 -8.652982e-001 -9.714508e+000 194 76 78
3.479349e+000 -8.796997e-001 -9.995891e+000 176 140 109
-1.255325e+000 -9.236310e-001 -7.987174e+000 196 155 125
-1.209157e+000 -9.558923e-001 -8.038061e+000 208 160 129
7.014515e-001 -9.441576e-001 -8.786665e+000 15 53 86
2.451907e+000 -9.114380e-001 -9.578725e+000 213 109 102
2.446253e+000 -1.004127e+000 -9.708128e+000 163 25 35
2.610141e+000 -9.870987e-001 -9.746442e+000 170 30 42
2.996327e+000 -1.013168e+000 -9.937632e+000 76 28 10
-1.285453e+000 -1.036289e+000 -8.123403e+000 176 29 30
-1.285636e+000 -1.036373e+000 -8.123147e+000 176 29 30
5.192652e-001 -1.003201e+000 -8.841236e+000 193 170 124
6.131017e-001 -1.089027e+000 -8.940633e+000 16 82 125
1.340873e+000 -1.079666e+000 -9.297829e+000 127 74 61
1.566981e+000 -1.079925e+000 -9.418715e+000 126 71 61
1.566584e+000 -1.080420e+000 -9.418068e+000 126 71 61
2.229451e+000 -1.129638e+000 -9.701044e+000 203 138 122
2.495442e+000 -1.056419e+000 -9.831463e+000 171 22 41
2.573680e+000 -1.046810e+000 -9.801997e+000 166 29 41
2.575705e+000 -1.045151e+000 -9.801830e+000 166 29 41
2.600988e+000 -1.072384e+000 -9.851882e+000 206 93 93
2.586419e+000 -1.094539e+000 -9.926813e+000 196 91 89
-1.342103e+000 -1.052625e+000 -8.141408e+000 185 33 39
5.972810e-001 -1.108868e+000 -9.051839e+000 29 89 137
1.174112e+000 -1.142013e+000 -9.366058e+000 99 45 35
1.174112e+000 -1.142013e+000 -9.366058e+000 99 45 35
3.561834e+000 -1.136966e+000 -1.066007e+001 49 14 16
4.293681e+000 -1.146146e+000 -1.082574e+001 184 174 164
1.094242e+000 -1.207376e+000 -9.524393e+000 186 61 56
-2.054630e+000 6.453363e-001 -7.572498e+000 201 177 143
3.968198e+000 3.411199e-001 -9.166458e+000 196 111 30
2.799885e+000 2.734289e-002 -8.822278e+000 187 72 69
5.050472e+000 7.828210e-002 -9.734321e+000 26 20 32
2.239582e+000 -9.456074e-002 -8.690439e+000 115 69 50
2.352686e+000 -9.709051e-002 -8.724139e+000 111 63 47
2.469363e+000 -8.645558e-002 -8.769132e+000 112 65 52
2.475075e+000 -7.739901e-002 -8.784957e+000 112 65 52
2.711204e+000 -1.319604e-001 -8.838394e+000 176 30 35
4.652125e+000 -9.104167e-002 -9.704249e+000 159 88 27
4.919397e+000 -6.508985e-002 -9.773688e+000 136 74 36
2.778573e+000 -2.549278e-001 -9.004377e+000 166 26 34
3.426509e+000 -1.881842e-001 -9.236999e+000 88 39 23
4.191242e+000 -2.515868e-001 -9.618368e+000 215 139 68
4.758158e+000 -1.765459e-001 -9.908259e+000 178 103 33
-6.028095e-001 -4.205774e-001 -7.725047e+000 20 44 36
-6.005885e-001 -4.196325e-001 -7.727367e+000 20 44 36
-2.364788e-001 -4.250434e-001 -7.888650e+000 76 103 97
2.780075e+000 -3.043336e-001 -9.062697e+000 169 22 31
2.617070e+000 -4.237348e-001 -9.072349e+000 202 92 82
-4.553460e-001 -5.527491e-001 -7.900926e+000 53 102 106
-4.413699e-001 -5.492283e-001 -7.897940e+000 59 101 98
3.942065e+000 -4.469128e-001 -9.655158e+000 191 95 50
7.844244e-001 -6.997637e-001 -8.504759e+000 11 91 130
1.246203e+000 -6.791097e-001 -8.729528e+000 193 133 109
1.246203e+000 -6.791097e-001 -8.729528e+000 193 133 109
1.468882e+000 -6.868754e-001 -8.797029e+000 199 133 109
2.672977e+000 -5.725559e-001 -9.229393e+000 208 92 77
2.591651e+000 -6.344962e-001 -9.239440e+000 166 20 33
3.014881e+000 -6.458486e-001 -9.454558e+000 167 21 32
3.159512e+000 -6.370436e-001 -9.521391e+000 106 54 43
4.062252e+000 -6.103701e-001 -9.953385e+000 196 169 131
-1.085355e+000 -7.399007e-001 -7.806318e+000 172 17 35
1.161523e+000 -7.568739e-001 -8.776543e+000 103 57 59
1.486449e+000 -7.444167e-001 -8.905140e+000 167 126 108
1.684294e+000 -7.145573e-001 -8.949988e+000 197 129 106
2.290771e+000 -7.146345e-001 -9.222359e+000 126 81 64
2.540974e+000 -7.572081e-001 -9.383647e+000 162 23 32
3.107846e+000 -7.654759e-001 -9.661432e+000 90 42 38
3.245737e+000 -7.336609e-001 -9.689300e+000 129 76 68
-3.931393e-001 -7.997953e-001 -8.181121e+000 170 162 26
2.643969e+000 -8.228981e-001 -9.529702e+000 189 82 71
3.066992e+000 -8.661157e-001 -9.775302e+000 114 60 51
4.527143e+000 -8.333517e-001 -1.041754e+001 155 123 116
-8.110595e-001 -9.022305e-001 -8.116268e+000 160 163 18
2.173177e+000 -9.879501e-001 -9.530145e+000 123 67 53
2.173177e+000 -9.879501e-001 -9.530145e+000 123 67 53
2.221768e+000 -1.003038e+000 -9.615124e+000 198 131 114
3.114358e+000 -9.256150e-001 -9.897163e+000 192 130 107
-1.144364e+000 -9.938049e-001 -8.114826e+000 195 38 48
1.922523e+000 -1.127222e+000 -9.556319e+000 192 134 117
1.922523e+000 -1.127222e+000 -9.556319e+000 192 134 117
2.131617e+000 -1.062257e+000 -9.628053e+000 139 84 71
2.134566e+000 -1.059337e+000 -9.632841e+000 139 84 71
2.303293e+000 -1.093210e+000 -9.767258e+000 170 28 45
2.341696e+000 -1.027708e+000 -9.686564e+000 174 24 45
2.335650e+000 -1.035723e+000 -9.668961e+000 174 24 45
2.247917e+000 -1.156176e+000 -9.884587e+000 116 20 23
1.436000e+000 -4.056932e-002 -8.304525e+000 185 128 110
4.487808e+000 2.715292e-002 -9.524049e+000 32 18 14
1.392303e+000 -6.802056e-002 -8.330547e+000 190 130 99
1.482221e+000 -1.354085e-001 -8.412815e+000 192 127 99
1.759572e+000 -1.780718e-001 -8.531641e+000 115 55 42
1.877932e+000 -1.715217e-001 -8.577638e+000 98 53 33
1.877932e+000 -1.715217e-001 -8.577638e+000 98 53 33
2.159435e+000 -1.382962e-001 -8.656719e+000 195 143 105
2.159435e+000 -1.382962e-001 -8.656719e+000 195 143 105
2.647303e+000 -5.216282e-002 -8.793010e+000 182 26 46
4.825996e+000 -7.319043e-002 -9.787634e+000 163 98 26
1.507546e+000 -2.288885e-001 -8.460700e+000 180 124 107
-4.176467e-001 -4.384533e-001 -7.826306e+000 59 98 109
8.102737e-001 -4.038256e-001 -8.254674e+000 142 27 37
-4.467649e-001 -5.610730e-001 -7.892989e+000 55 99 102
-4.464828e-001 -5.594101e-001 -7.894827e+000 55 99 102
-3.247477e-001 -6.034005e-001 -7.982649e+000 170 162 27
-3.247477e-001 -6.034005e-001 -7.982649e+000 170 162 27
1.322673e+000 -5.991011e-001 -8.659761e+000 181 125 110
1.360297e+000 -6.613560e-001 -8.786212e+000 200 137 110
3.350316e+000 -6.388628e-001 -9.638219e+000 200 134 108
9.807470e-001 -7.384633e-001 -8.670359e+000 15 88 136
9.822203e-001 -7.336918e-001 -8.672906e+000 15 88 136
1.338955e+000 -7.192033e-001 -8.821924e+000 196 134 107
1.565862e+000 -7.045209e-001 -8.912881e+000 196 133 105
1.600211e+000 -7.421497e-001 -8.940302e+000 161 117 108
1.717266e+000 -7.346120e-001 -8.988911e+000 158 107 94
1.831464e+000 -7.318793e-001 -9.029292e+000 152 97 88
2.013434e+000 -7.035684e-001 -9.092380e+000 194 134 108
2.133427e+000 -6.977011e-001 -9.129778e+000 198 136 98
2.408134e+000 -7.442183e-001 -9.292594e+000 202 135 108
3.616922e-001 -7.901330e-001 -8.484069e+000 162 164 146
6.687544e-001 -8.633046e-001 -8.697034e+000 136 28 30
-1.281299e+000 -9.432404e-001 -8.003762e+000 186 33 36
6.412956e-001 -9.287304e-001 -8.769056e+000 148 26 46
7.443891e-001 -9.013981e-001 -8.786641e+000 2 43 85
7.138321e-001 -9.627886e-001 -8.898774e+000 9 61 87
2.111060e+000 -9.956914e-001 -9.467063e+000 199 133 111
-1.299615e+000 -9.872555e-001 -8.054901e+000 190 35 40
-1.317818e+000 -1.036722e+000 -8.111675e+000 187 30 40
1.300062e+000 -1.032989e+000 -9.267882e+000 195 132 115
1.284244e+000 -1.072296e+000 -9.306116e+000 195 134 113
1.284244e+000 -1.072296e+000 -9.306116e+000 195 134 113
2.105265e+000 -1.022798e+000 -9.565913e+000 200 139 119
2.006517e+000 -1.087892e+000 -9.716345e+000 159 108 104
2.006517e+000 -1.087892e+000 -9.716345e+000 159 108 104
2.002944e+000 -1.193083e+000 -9.751473e+000 156 41 58
8.220634e-001 -3.334133e-001 -8.231799e+000 164 29 34
7.658984e-001 -6.091175e-001 -8.423753e+000 127 11 28
2.470195e+000 -7.520199e-001 -9.367200e+000 176 24 39
-5.207348e-001 -8.435956e-001 -8.202903e+000 126 129 44
4.942299e-001 -9.625848e-001 -8.796516e+000 173 34 49
3.570654e+000 -9.244843e-001 -1.010451e+001 170 135 104
3.930576e+000 -1.072711e+000 -1.050930e+001 143 126 118
1.566594e+000 -1.144977e+000 -9.560961e+000 201 143 123
1.700040e+000 -1.139373e+000 -9.625114e+000 199 140 126
1.928795e+000 -1.128038e+000 -9.717547e+000 205 138 127
4.757462e+000 6.330436e-001 -9.555038e+000 188 155 117
5.882087e-003 -1.947502e-001 -7.826968e+000 31 46 15
1.198234e+000 -8.923539e-002 -8.233930e+000 3 55 82
5.934533e-001 -7.410292e-001 -8.549952e+000 181 31 47
-7.707780e-001 -8.201412e-001 -8.026488e+000 24 56 26
2.756846e+000 -7.793902e-001 -9.552827e+000 174 23 40
2.756846e+000 -7.793902e-001 -9.552827e+000 174 23 40
-6.040263e-001 -9.931567e-001 -8.364822e+000 118 140 118
-8.260855e-002 -1.020323e+000 -8.586653e+000 31 58 32
-8.260855e-002 -1.020323e+000 -8.586653e+000 31 58 32
3.473091e+000 3.252234e-001 -9.023534e+000 73 16 25
3.872138e+000 3.116256e-001 -9.149412e+000 123 20 24
3.146131e+000 7.068158e-002 -8.917558e+000 178 30 45
3.146131e+000 7.068158e-002 -8.917558e+000 178 30 45
1.012799e-001 -1.615782e-001 -7.821579e+000 157 151 129
2.879505e+000 -5.252288e-001 -9.370578e+000 168 27 33
2.888161e+000 -5.075893e-001 -9.397952e+000 168 27 33
1.549398e+000 -7.894855e-001 -8.997418e+000 199 131 103
3.330232e+000 -8.352891e-001 -9.872332e+000 189 135 105
2.307648e+000 -1.133494e+000 -1.031157e+001 185 155 147
-6.188673e-001 -9.726970e-001 -8.289533e+000 114 140 129
-4.032783e-001 -9.482929e-001 -8.378281e+000 124 140 133
-3.258038e-001 -1.008033e+000 -8.474861e+000 23 61 30
1.998051e+000 1.744998e+000 -9.439157e+000 185 162 130
1.060563e+000 9.850801e-002 -8.041296e+000 173 163 125
-2.400246e-001 -3.974415e-002 -7.628374e+000 56 97 123
4.690512e+000 -3.217764e-001 -9.985068e+000 180 149 119
3.949578e+000 6.099780e-001 -9.276028e+000 179 138 92
1.736591e+000 -8.312326e-001 -9.133656e+000 196 135 107
3.749464e+000 -4.506662e-001 -9.625403e+000 142 46 25
3.272968e+000 4.818476e-001 -9.025536e+000 177 129 44
1.610467e+000 -1.055954e+000 -9.915577e+000 172 53 54
4.396270e+000 5.983164e-001 -9.552138e+000 186 105 23
2.878175e+000 -1.460454e-001 -8.967542e+000 167 10 21
2.277088e+000 2.589042e-001 -8.612207e+000 179 140 99
-4.127338e-001 2.767561e-001 -7.469452e+000 61 106 114
3.063053e+000 -1.378752e-001 -9.030940e+000 157 23 32
2.813144e+000 -2.986818e-001 -9.048056e+000 184 72 71
4.761217e+000 -3.175494e-001 -1.000660e+001 141 73 38
4.122302e+000 -5.142876e-001 -9.846189e+000 33 17 28
-9.417356e-001 -5.648766e-001 -7.722553e+000 18 75 111
2.905076e-001 -6.093275e-001 -8.240816e+000 149 158 124
2.911723e-001 -6.060456e-001 -8.247089e+000 149 158 124
2.523182e+000 -5.948397e-001 -9.205462e+000 144 18 31
3.600853e+000 -5.574726e-001 -9.616107e+000 184 59 53
3.722913e+000 -6.517231e-001 -9.812597e+000 182 145 108
3.779574e+000 -5.902982e-001 -9.766171e+000 120 77 49
-1.068945e+000 -7.116935e-001 -7.775908e+000 161 25 30
-1.068945e+000 -7.116935e-001 -7.775908e+000 161 25 30
-1.094317e+000 -7.222142e-001 -7.779806e+000 204 153 120
2.360870e-001 -6.739321e-001 -8.268762e+000 113 26 29
2.701659e+000 -6.888391e-001 -9.381561e+000 179 67 74
3.428048e+000 -6.868559e-001 -9.681314e+000 194 149 107
1.622862e+000 -9.688416e-001 -9.272087e+000 124 74 59
1.885129e+000 -8.960988e-001 -9.282128e+000 111 61 41
2.813205e+000 -1.021531e+000 -9.891825e+000 201 90 97
3.660163e+000 -9.704677e-001 -1.021105e+001 172 139 108
5.125496e-001 -1.190366e+000 -9.190957e+000 34 64 94
9.192817e-001 -1.163852e-001 -8.194776e+000 21 84 117
1.064025e+000 -2.056389e-001 -8.263216e+000 15 52 67
4.888228e+000 -1.311519e-001 -9.816994e+000 124 62 20
2.993654e+000 -3.594747e-001 -9.174465e+000 159 32 41
4.005502e+000 -7.436396e-001 -1.008527e+001 176 144 124
-5.657211e-001 -8.222815e-001 -8.116175e+000 25 56 45
2.908410e+000 -8.025424e-001 -9.629450e+000 162 53 56
2.932576e+000 -8.212180e-001 -9.544020e+000 158 20 35
4.683345e+000 -8.120189e-001 -1.058598e+001 115 53 51
2.446606e+000 -9.176878e-001 -9.566842e+000 203 95 96
2.747193e+000 -1.003496e+000 -9.857360e+000 183 73 79
6.362016e-001 -1.039014e+000 -8.909556e+000 30 86 131
1.075958e+000 -1.192372e+000 -9.453733e+000 165 169 153
2.401043e+000 -6.144283e-001 -9.163487e+000 198 132 110
1.445027e+000 -7.010467e-001 -8.811473e+000 194 132 107
2.919725e+000 -8.707766e-001 -9.669762e+000 150 18 41
7.468230e-001 -9.030315e-001 -8.779320e+000 18 52 84
4.440487e+000 -1.085035e+000 -1.076641e+001 169 153 142
1.919248e+000 1.323390e+000 -8.980124e+000 23 17 22
8.432415e-001 -2.568990e-001 -8.174713e+000 165 17 28
2.267765e+000 -1.421077e-001 -8.707362e+000 196 143 112
-9.528390e-001 -5.168354e-001 -7.661788e+000 28 54 32
-1.792353e+001 2.950840e+001 -4.198111e+001 92 72 63
4.262961e+000 -4.798507e-002 -9.480019e+000 182 111 48
4.938568e+000 1.778201e-003 -9.753477e+000 143 81 44
-4.621559e-001 -6.703655e-001 -8.034651e+000 112 124 40
5.502891e-001 -8.370173e-001 -8.647508e+000 154 29 37
-2.393709e+000 1.621602e+000 -8.426379e+000 107 90 75
4.617303e+000 -1.070613e+000 -1.088004e+001 36 15 24
-1.448258e+000 -1.124975e+000 -8.194860e+000 129 135 136
1.115707e-001 -1.227329e+000 -9.360112e+000 154 160 176
7.176927e-001 -9.683012e-001 -9.137615e+000 15 76 119
-1.711608e-001 -3.310113e-001 -7.907132e+000 23 57 27
5.144261e+000 3.115047e-001 -9.589371e+000 43 22 29
7.613498e-001 -2.469258e-002 -8.020258e+000 143 8 23
4.383474e+000 1.056718e-001 -9.400033e+000 187 156 120
4.882251e+000 1.881098e-001 -9.590892e+000 67 14 32
4.856204e+000 1.185356e-001 -9.623136e+000 56 14 26
7.788225e-001 -1.995281e-001 -8.128875e+000 203 154 109
4.817177e+000 -3.320634e-002 -9.737901e+000 33 7 17
7.503615e-001 -3.443540e-001 -8.232754e+000 183 147 100
4.720102e+000 -1.470138e-001 -9.772205e+000 159 90 24
-1.477080e+000 -1.340087e+000 -6.579980e+000 147 138 117
3.829189e+000 -3.047982e-001 -9.499121e+000 184 66 47
3.744413e+000 -3.634274e-001 -9.537640e+000 180 56 29
3.787780e+000 -3.500482e-001 -9.550214e+000 116 28 9
3.773793e+000 -3.646272e-001 -9.528628e+000 116 28 9
-9.939759e-001 -5.661541e-001 -7.679498e+000 16 69 47
-8.025986e-001 -5.884209e-001 -7.742936e+000 19 70 54
7.148710e-001 -5.783074e-001 -8.389940e+000 137 10 4
3.537622e+000 -3.944583e-001 -9.576576e+000 176 52 34
4.101217e+000 -4.353018e-001 -9.728565e+000 187 148 111
-1.631988e+000 -6.848855e-001 -7.564501e+000 30 76 117
5.953307e-001 -6.838302e-001 -8.399879e+000 152 16 28
7.199717e-001 -6.359321e-001 -8.433178e+000 196 148 112
2.891936e+000 -6.465367e-001 -9.414470e+000 154 15 32
3.281625e+000 -6.350466e-001 -9.576906e+000 177 109 88
3.662353e+000 -6.124821e-001 -9.731840e+000 180 118 85
3.660675e+000 -6.143414e-001 -9.729126e+000 180 118 85
-1.196217e+000 -7.722857e-001 -7.815493e+000 193 141 104
-5.738751e-001 -7.821306e-001 -8.066375e+000 162 145 23
1.978411e-001 -7.089255e-001 -8.336816e+000 155 140 109
6.694955e-001 -7.664247e-001 -8.582476e+000 203 146 116
1.383203e+000 -7.138832e-001 -8.837532e+000 175 115 76
2.703604e+000 -6.868148e-001 -9.384750e+000 187 67 71
2.930314e+000 -6.704532e-001 -9.484888e+000 148 19 27
3.660758e+000 -6.767688e-001 -9.800688e+000 105 60 33
3.782868e+000 -7.077776e-001 -9.927424e+000 161 122 90
2.236163e-001 -8.252183e-001 -8.458050e+000 147 139 115
6.221508e-001 -7.921872e-001 -8.605681e+000 183 153 107
3.910519e+000 -7.523919e-001 -1.001676e+001 169 129 89
3.793153e+000 -8.611981e-001 -1.009838e+001 167 128 96
3.964612e+000 -9.212446e-001 -1.028145e+001 41 23 35
4.420673e+000 -8.806360e-001 -1.048613e+001 27 4 16
4.414778e+000 -8.862718e-001 -1.047663e+001 27 4 16
4.507836e+000 -8.462614e-001 -1.050959e+001 156 129 111
4.507836e+000 -8.462614e-001 -1.050959e+001 156 129 111
4.679899e+000 -8.360702e-001 -1.062017e+001 120 55 48
-6.412711e-001 -9.921080e-001 -8.340510e+000 154 146 35
5.558706e-001 -9.836949e-001 -8.837110e+000 126 15 3
2.387364e+000 -1.037112e+000 -9.728688e+000 197 113 96
3.752635e+000 -9.522482e-001 -1.021658e+001 170 127 100
-1.262649e+000 -1.081104e+000 -8.252119e+000 165 147 114
2.330708e+000 -9.864614e-001 -9.813031e+000 185 117 91
2.829841e+000 -1.069272e+000 -9.967451e+000 150 23 34
2.724790e+000 -1.095400e+000 -9.977962e+000 136 8 21
3.861881e+000 -1.061156e+000 -1.048011e+001 178 148 131
2.070711e+000 -1.137157e+000 -9.801565e+000 197 127 114
1.421925e+000 -1.196441e+000 -9.666615e+000 191 76 80
1.588036e+000 -1.196003e+000 -9.786404e+000 200 119 108
1.587534e+000 -1.197491e+000 -9.784794e+000 200 119 108
4.616806e+000 2.169224e-001 -9.458719e+000 94 48 31
1.053819e+000 -2.313449e-001 -8.234112e+000 14 41 64
2.738495e+000 -1.627076e-001 -8.844219e+000 198 76 79
4.010821e+000 -4.772392e-002 -9.358372e+000 113 35 25
3.013538e+000 -2.100369e-001 -9.070853e+000 191 69 67
4.792794e+000 -1.196572e-001 -9.817500e+000 37 6 31
4.868645e+000 -1.025415e-001 -9.863253e+000 52 12 23
2.700977e+000 -3.088384e-001 -9.046648e+000 147 22 28
2.986317e+000 -3.277431e-001 -9.151022e+000 179 70 67
3.664764e+000 -3.632606e-001 -9.489072e+000 192 132 73
4.773810e+000 -2.118713e-001 -9.923322e+000 48 12 5
-9.392690e-001 -5.704363e-001 -7.718077e+000 1 71 94
-6.141180e-001 -6.070362e-001 -7.858479e+000 42 85 86
2.942452e+000 -5.005290e-001 -9.269140e+000 188 77 76
3.991673e+000 -4.997579e-001 -9.739249e+000 181 99 57
4.690704e+000 -4.269925e-001 -1.009221e+001 169 128 111
2.151852e-001 -6.899986e-001 -8.283336e+000 163 143 106
3.674213e+000 -5.780689e-001 -9.691363e+000 188 85 46
3.948872e+000 -5.084821e-001 -9.779860e+000 182 98 60
3.903588e+000 -6.137821e-001 -9.846409e+000 160 114 81
4.653548e+000 -4.818593e-001 -1.014229e+001 158 123 102
-1.035048e+000 -5.557523e-001 -8.000428e+000 171 27 32
-8.274782e-001 -7.762760e-001 -7.950263e+000 25 69 65
-8.274782e-001 -7.762760e-001 -7.950263e+000 25 69 65
1.879398e-001 -7.560938e-001 -8.363806e+000 159 145 106
3.495062e-001 -7.373596e-001 -8.394964e+000 135 68 65
3.495062e-001 -7.373596e-001 -8.394964e+000 135 68 65
3.308122e-001 -7.452580e-001 -8.431564e+000 150 136 109
3.724967e+000 -6.489529e-001 -9.818456e+000 175 129 96
3.571497e+000 -6.771720e-001 -9.799840e+000 179 136 101
4.601336e+000 -6.448738e-001 -1.031120e+001 158 126 104
1.900664e+000 -8.498442e-001 -9.230491e+000 115 68 60
3.660159e+000 -8.078251e-001 -9.977608e+000 168 124 90
-1.217183e+000 -9.214710e-001 -8.000744e+000 192 147 108
-1.093914e+000 -9.149900e-001 -7.951804e+000 172 27 36
6.973170e-001 -8.884969e-001 -8.804701e+000 25 70 100
1.992043e+000 -9.029170e-001 -9.342387e+000 97 60 45
1.992043e+000 -9.029170e-001 -9.342387e+000 97 60 45
2.483251e+000 -9.260509e-001 -9.622113e+000 153 14 35
2.572255e+000 -8.903892e-001 -9.582211e+000 146 16 29
2.856019e+000 -8.694741e-001 -9.734121e+000 150 25 33
3.450692e+000 -9.324631e-001 -1.005971e+001 172 128 98
4.430275e+000 -7.830609e-001 -1.042053e+001 94 75 64
4.592142e+000 -8.194152e-001 -1.044049e+001 92 31 24
-1.064411e+000 -1.008090e+000 -8.194205e+000 147 140 24
-2.178368e-001 -9.958854e-001 -8.495184e+000 163 150 42
9.032746e-001 -2.842437e-001 -9.923214e+000 27 76 112
9.032746e-001 -2.842437e-001 -9.923214e+000 27 76 112
1.623356e+000 -9.680512e-001 -9.272803e+000 119 68 70
2.042725e+000 -1.034931e+000 -9.554090e+000 112 69 62
2.042725e+000 -1.034931e+000 -9.554090e+000 112 69 62
2.746500e+000 -9.820490e-001 -9.790651e+000 147 30 31
3.909632e+000 -9.689810e-001 -1.035866e+001 188 154 124
-7.434459e-001 -1.067370e+000 -8.419976e+000 156 152 32
-3.360126e-001 -1.043339e+000 -8.554671e+000 157 151 21
1.445101e+000 -1.094580e+000 -9.398370e+000 116 65 59
2.651069e+000 -1.073176e+000 -9.937554e+000 156 22 37
2.650871e+000 -1.073356e+000 -9.937189e+000 156 22 37
4.393795e+000 -1.169078e+000 -1.066585e+001 74 9 23
1.531783e+000 -1.159973e+000 -9.759230e+000 164 26 37
1.489000e+000 -1.197506e+000 -9.739082e+000 172 35 50
1.708983e+000 -1.176179e+000 -9.809174e+000 174 34 47
3.999518e+000 7.330619e-002 -9.286478e+000 210 109 48
4.428914e+000 2.671840e-001 -9.446176e+000 77 46 26
2.120296e+000 -1.020429e-001 -8.639632e+000 117 74 62
2.711328e+000 -4.501075e-002 -8.852205e+000 163 39 47
3.422984e+000 -1.907715e-001 -9.231096e+000 106 49 28
3.848920e+000 -2.323554e-001 -9.453230e+000 185 117 46
4.183121e+000 -2.021972e-001 -9.552402e+000 214 131 65
4.183121e+000 -2.021972e-001 -9.552402e+000 214 131 65
-5.035605e-001 -4.345745e-001 -7.784522e+000 49 87 80
-9.986279e-001 -6.000360e-001 -7.722608e+000 175 26 30
-9.672565e-002 -6.067486e-001 -8.067175e+000 165 156 13
-9.672565e-002 -6.067486e-001 -8.067175e+000 165 156 13
-6.974616e-001 -1.889585e+000 -6.571153e+000 43 84 89
-6.974616e-001 -1.889585e+000 -6.571153e+000 43 84 89
2.347005e+000 -6.225755e-001 -9.148463e+000 96 45 34
2.589386e+000 -5.640178e-001 -9.182196e+000 202 81 86
3.051471e+000 -5.481422e-001 -9.363183e+000 147 8 28
3.290275e+000 -6.125319e-001 -9.552482e+000 122 69 64
4.646327e+000 -5.266028e-001 -1.020087e+001 169 140 124
-1.640630e+000 -7.336463e-001 -7.597127e+000 26 99 124
2.322995e-001 -7.308040e-001 -8.331144e+000 154 144 117
