ply
format ascii 1.0
element face 0
property list uchar int vertex_indices
element vertex 895
property float x
property float y
property float z
property uchar diffuse_red
property uchar diffuse_green
property uchar diffuse_blue
end_header
2.693199e+000 6.330583e-001 -8.752330e+000 46 16 16
1.602745e+000 5.086580e-001 -8.267123e+000 118 53 25
4.221188e+000 -1.985347e+000 -9.715162e+000 98 79 61
3.045212e+000 1.579477e+000 -1.006022e+001 116 80 36
1.465741e+000 1.353268e+000 -9.121899e+000 96 23 19
2.200381e+000 1.374390e+000 -9.403102e+000 63 9 8
1.599345e+000 1.304346e+000 -9.099579e+000 53 35 44
-1.412706e+000 9.213362e-001 -7.853838e+000 156 132 91
1.276706e+000 9.508216e-001 -8.547224e+000 101 11 16
2.530425e+000 9.697154e-001 -9.184987e+000 97 75 54
-1.657012e+000 3.982795e-001 -7.797153e+000 125 95 55
-1.649754e+000 3.674162e-001 -7.777535e+000 136 108 68
-6.630159e-001 7.377653e-001 -7.660836e+000 139 107 69
1.889618e+000 7.462800e-001 -8.516088e+000 117 62 43
2.235413e+000 6.784343e-001 -8.605038e+000 52 16 16
-1.712721e-001 5.531235e-001 -7.628819e+000 123 104 22
-7.985157e-002 5.589063e-001 -7.667170e+000 129 110 27
3.600843e+000 6.131945e-001 -9.135318e+000 104 32 12
3.193857e+000 4.837908e-001 -8.895527e+000 15 43 58
4.859555e+000 -4.351444e-001 -8.304886e+000 88 71 51
4.927460e+000 -3.995352e-001 -8.119333e+000 129 107 84
4.843371e+000 -8.873371e-001 -8.344314e+000 107 84 68
1.226903e+000 1.127807e+000 -8.738457e+000 108 18 19
1.971741e+000 1.065199e+000 -8.931619e+000 59 40 36
4.170062e+000 1.083122e+000 -9.920594e+000 100 50 23
2.009236e+000 7.651519e-001 -8.596854e+000 51 23 19
2.008171e+000 7.658803e-001 -8.598037e+000 51 23 19
2.429077e+000 8.313990e-001 -8.838252e+000 104 79 54
3.084350e+000 8.332658e-001 -9.108535e+000 117 80 43
-1.586253e-001 5.979181e-001 -7.694369e+000 53 69 60
2.731641e+000 4.515669e-001 -8.717093e+000 95 51 6
3.701756e+000 -3.043861e+000 -1.081334e+001 40 32 29
4.982450e+000 -3.856311e-001 -8.011711e+000 90 69 50
-1.577070e+000 9.782197e-001 -8.071067e+000 158 129 85
1.447523e+000 1.141165e+000 -8.837013e+000 24 46 53
1.446682e+000 1.142031e+000 -8.836522e+000 24 46 53
-4.486155e-001 9.020772e-001 -7.971417e+000 49 70 66
1.158086e-001 8.129529e-001 -7.997719e+000 20 39 18
2.447261e+000 6.214684e-001 -8.682411e+000 54 18 18
3.035296e+000 -4.749955e+000 -1.231748e+001 122 110 90
4.756611e+000 -6.553035e-001 -8.569902e+000 111 94 76
3.316867e-001 1.125766e+000 -8.426483e+000 134 114 54
3.316867e-001 1.125766e+000 -8.426483e+000 134 114 54
-1.385482e+000 7.576998e-001 -7.718312e+000 162 135 88
1.194790e+000 1.009074e+000 -8.587772e+000 88 26 4
1.522651e+000 9.762418e-001 -8.657943e+000 58 77 55
8.996327e-001 6.951457e-001 -8.142568e+000 95 36 20
2.502943e+000 6.460507e-001 -8.711011e+000 97 67 51
6.123285e-001 1.382234e+000 -8.893018e+000 134 100 60
1.057207e+000 1.185541e+000 -8.824223e+000 104 13 11
-1.394695e+000 9.401240e-001 -7.847256e+000 157 132 89
2.756910e-001 1.177173e+000 -8.454056e+000 26 39 21
-1.507591e+000 8.097354e-001 -7.865583e+000 132 104 69
-1.506880e+000 8.092716e-001 -7.866811e+000 132 104 69
4.568210e-002 1.024543e+000 -8.282201e+000 28 42 15
1.637765e+000 8.953278e-001 -8.539956e+000 10 47 51
4.955119e-001 7.239847e-001 -7.998198e+000 123 109 66
-1.209724e-001 1.455850e+000 -8.728932e+000 116 102 25
-1.673831e-001 1.411077e+000 -8.667791e+000 17 29 14
-8.260441e-002 1.412766e+000 -8.560589e+000 123 108 30
1.463694e-001 1.410153e+000 -8.757114e+000 120 97 21
-4.151052e-001 1.304773e+000 -8.427486e+000 108 99 37
2.210238e+000 1.480529e+000 -9.585817e+000 105 19 22
-1.577271e+000 1.023793e+000 -8.114472e+000 161 132 88
-1.541467e+000 9.607929e-001 -8.022700e+000 161 133 92
-3.533626e-001 1.199161e+000 -8.329975e+000 119 104 21
-3.342239e-001 1.252850e+000 -8.402493e+000 116 98 27
1.354649e+000 1.329249e+000 -9.048450e+000 115 112 74
1.380780e+000 1.333278e+000 -9.050979e+000 117 114 80
-6.708433e-001 1.097339e+000 -8.120373e+000 43 56 34
-6.764835e-001 1.087125e+000 -8.098866e+000 135 113 68
-6.764835e-001 1.087125e+000 -8.098866e+000 135 113 68
1.354490e+000 1.271010e+000 -8.972947e+000 121 108 70
1.409325e+000 1.278349e+000 -8.986904e+000 111 112 86
1.693707e+000 1.300834e+000 -9.128510e+000 104 55 45
-1.429525e+000 9.285369e-001 -7.869332e+000 67 40 9
-1.232397e+000 1.580111e+000 -6.789577e+000 71 43 18
-1.386076e+000 9.485120e-001 -7.841144e+000 153 131 82
-6.842682e-001 1.042757e+000 -8.035187e+000 151 94 67
-6.844468e-001 1.039131e+000 -8.040246e+000 151 94 67
-6.192618e-001 1.061796e+000 -8.083663e+000 41 61 59
1.106278e+000 1.180386e+000 -8.762616e+000 100 17 13
1.106278e+000 1.180386e+000 -8.762616e+000 100 17 13
1.150940e+000 1.176106e+000 -8.791053e+000 100 10 4
1.150940e+000 1.176106e+000 -8.791053e+000 100 10 4
1.098216e+000 1.164932e+000 -8.743830e+000 138 105 68
1.384963e+000 1.215103e+000 -8.908213e+000 126 122 87
1.424860e+000 1.205348e+000 -8.903149e+000 14 44 51
1.431342e+000 1.201599e+000 -8.911913e+000 14 44 51
1.450197e+000 1.168923e+000 -8.865778e+000 115 104 77
1.547528e+000 1.208731e+000 -8.933308e+000 104 33 13
1.783277e+000 1.183586e+000 -9.004933e+000 99 59 53
1.783277e+000 1.183586e+000 -9.004933e+000 99 59 53
-1.448977e+000 7.460548e-001 -7.783407e+000 92 62 36
-1.394007e+000 8.671530e-001 -7.802395e+000 60 31 22
-1.394007e+000 8.671530e-001 -7.802395e+000 60 31 22
-1.385532e+000 8.319996e-001 -7.770903e+000 68 43 14
-1.373046e+000 7.917350e-001 -7.741671e+000 61 35 16
7.075650e-001 1.047586e+000 -8.471622e+000 116 21 14
1.149211e+000 1.057129e+000 -8.628899e+000 160 106 72
1.442034e+000 1.093477e+000 -8.774593e+000 118 108 76
2.538981e+000 1.203222e+000 -9.322922e+000 100 52 42
-1.418180e+000 7.080027e-001 -7.726241e+000 70 39 9
1.262499e+000 9.753505e-001 -8.564895e+000 155 101 78
1.261659e+000 9.766972e-001 -8.562777e+000 155 101 78
1.462392e+000 1.056785e+000 -8.730237e+000 127 111 80
1.501558e+000 1.052865e+000 -8.723257e+000 107 111 87
2.020411e+000 1.050076e+000 -8.902629e+000 52 33 28
-1.263438e+000 7.302240e-001 -7.609436e+000 62 36 8
1.595712e+000 8.311714e-001 -8.527526e+000 121 109 88
1.866479e+000 8.645938e-001 -8.644149e+000 58 14 7
2.443970e+000 8.705355e-001 -8.879001e+000 93 78 67
-5.642303e-001 6.647442e-001 -7.602924e+000 121 22 23
-5.642303e-001 6.647442e-001 -7.602924e+000 121 22 23
-5.482663e-001 6.740743e-001 -7.621297e+000 150 95 64
1.952294e+000 7.879616e-001 -8.616258e+000 64 16 7
2.112953e+000 7.801251e-001 -8.660716e+000 107 83 72
2.112875e+000 6.058018e-001 -8.541520e+000 57 16 14
-1.875596e-001 4.635490e-001 -7.565765e+000 120 107 14
2.393146e+000 5.374231e-001 -8.602364e+000 138 95 52
2.722808e+000 5.680741e-001 -8.754607e+000 42 9 5
2.782435e+000 5.629301e-001 -8.782678e+000 36 7 10
4.655523e+000 -2.309212e+000 -8.875715e+000 94 74 47
4.749653e+000 -2.239881e+000 -8.891001e+000 98 78 53
7.145570e-001 1.434946e+000 -8.953166e+000 130 95 61
2.819586e+000 1.531543e+000 -9.915239e+000 86 44 6
-4.034837e-001 1.212171e+000 -8.328730e+000 61 71 46
-7.996614e-001 1.037674e+000 -7.978778e+000 139 106 61
1.237179e+000 1.198685e+000 -8.834916e+000 138 58 47
-7.701228e-001 9.510529e-001 -7.905518e+000 140 108 63
1.193179e+000 1.119737e+000 -8.719224e+000 149 106 65
2.350518e+000 1.116842e+000 -9.123483e+000 102 77 57
-1.413307e+000 6.901957e-001 -7.710264e+000 157 131 87
-7.336127e-001 9.095825e-001 -7.858388e+000 119 14 17
2.250716e+000 1.085625e+000 -9.051923e+000 105 83 57
1.202175e+000 9.509449e-001 -8.515478e+000 144 116 67
1.908066e+000 8.938703e-001 -8.686894e+000 67 23 20
1.806015e+000 7.979155e-001 -8.548813e+000 122 60 39
-6.161533e-001 5.403101e-001 -7.453778e+000 123 16 23
-6.153145e-001 5.364837e-001 -7.458378e+000 123 16 23
-2.153595e-001 5.535070e-001 -7.606931e+000 117 102 22
-9.397916e-002 5.621490e-001 -7.651807e+000 119 102 12
1.869827e+000 6.070464e-001 -8.445911e+000 134 89 47
3.924085e+000 7.056934e-001 -9.309991e+000 144 100 65
3.949132e+000 6.546597e-001 -9.297049e+000 147 107 65
3.566929e+000 5.210878e-001 -9.066221e+000 112 46 18
4.259292e+000 -2.033370e+000 -9.707008e+000 116 100 74
4.366672e+000 -1.739188e+000 -9.483950e+000 95 78 58
4.756968e+000 -8.066565e-001 -8.666135e+000 82 61 40
4.466751e+000 -1.947599e+000 -9.212233e+000 92 72 47
3.885044e+000 1.686646e+000 -1.051933e+001 120 81 42
-1.635409e+000 9.709166e-001 -8.165839e+000 158 130 81
-1.628861e+000 9.827127e-001 -8.151582e+000 158 130 81
-1.246717e+000 1.102170e+000 -7.970443e+000 118 97 58
1.608835e+000 1.266971e+000 -9.038586e+000 59 36 29
2.019998e+000 1.094957e+000 -8.948373e+000 55 36 30
1.852016e+000 9.250352e-001 -8.707140e+000 60 35 32
-2.773828e-001 7.059582e-001 -7.760702e+000 48 68 53
1.596329e+000 8.073630e-001 -8.505123e+000 19 44 51
1.834243e+000 8.227875e-001 -8.601049e+000 68 21 17
2.090228e+000 8.266145e-001 -8.699762e+000 74 48 35
-6.451164e-001 6.269618e-001 -7.559243e+000 118 23 24
9.605455e-001 6.939851e-001 -8.171509e+000 125 103 64
1.932143e+000 7.744633e-001 -8.592677e+000 113 57 45
2.041230e+000 7.839971e-001 -8.655675e+000 88 59 50
2.036844e+000 7.911935e-001 -8.646307e+000 88 59 50
2.381601e+000 6.905496e-001 -8.684024e+000 125 89 67
2.511097e+000 4.409798e-001 -8.636646e+000 130 85 46
2.806604e+000 4.344874e-001 -8.751841e+000 138 96 46
3.573302e+000 -3.579828e+000 -1.115592e+001 95 80 59
4.184732e+000 -2.151452e+000 -9.839665e+000 96 75 52
4.262271e+000 -1.941006e+000 -9.726302e+000 115 95 72
4.738991e+000 -1.259638e+000 -8.614851e+000 98 78 54
3.868245e+000 1.742661e+000 -1.052795e+001 26 14 16
6.767589e-001 1.395540e+000 -8.925259e+000 119 104 63
-3.545867e-001 1.250588e+000 -8.377635e+000 15 39 18
-3.545867e-001 1.250588e+000 -8.377635e+000 15 39 18
2.206666e+000 1.201189e+000 -9.185014e+000 66 44 30
-5.892026e-001 9.004968e-001 -7.860721e+000 129 24 23
1.046357e+000 8.965026e-001 -8.393011e+000 119 25 24
1.046843e+000 8.956947e-001 -8.394055e+000 119 25 24
1.858090e+000 6.286137e-001 -8.475490e+000 135 91 44
1.492080e+000 5.563462e-001 -8.269905e+000 99 10 11
3.538964e+000 -3.583024e+000 -1.123919e+001 117 101 78
4.304364e+000 -1.827547e+000 -9.616568e+000 114 98 72
4.215956e+000 -2.888743e+000 -9.846815e+000 130 110 81
5.002167e+000 -4.100036e-001 -8.027399e+000 84 59 40
4.440873e+000 -2.672966e+000 -9.278520e+000 100 79 55
1.904596e+000 1.565592e+000 -9.631544e+000 13 36 46
6.523413e-001 1.412817e+000 -8.961145e+000 123 104 64
-2.421119e-001 1.130263e+000 -8.285600e+000 128 106 16
-7.262854e-001 1.056791e+000 -8.046708e+000 124 19 23
-7.262854e-001 1.056791e+000 -8.046708e+000 124 19 23
2.655155e+000 1.056667e+000 -9.135787e+000 50 30 29
-6.694080e-001 7.131554e-001 -7.631255e+000 112 19 16
-6.453105e-001 6.604001e-001 -7.586106e+000 120 25 25
4.790821e+000 -5.451039e-001 -8.553716e+000 38 27 23
1.458378e+000 1.271588e+000 -8.972660e+000 17 39 51
1.458378e+000 1.271588e+000 -8.972660e+000 17 39 51
-1.427535e+000 7.951091e-001 -7.795933e+000 162 131 86
1.177043e+000 9.154582e-001 -8.479514e+000 106 13 17
3.005432e+000 1.606928e+000 -1.022803e+001 27 9 12
4.249948e-002 1.256042e+000 -8.514387e+000 124 106 38
1.347797e+000 1.168914e+000 -8.885685e+000 15 42 53
-3.589738e-001 1.015818e+000 -8.116898e+000 131 109 32
1.394452e+000 1.063809e+000 -8.711509e+000 16 43 54
-2.575487e-001 8.112667e-001 -7.886404e+000 129 107 42
5.662965e-001 1.373363e+000 -8.802179e+000 114 50 36
8.885372e-001 1.010035e+000 -8.489602e+000 123 105 68
-3.982061e-001 6.982806e-001 -7.740282e+000 34 61 56
4.156034e-002 6.665637e-001 -7.773231e+000 20 38 19
1.144479e+000 6.908201e-001 -8.263591e+000 127 110 67
-1.371763e+000 7.034045e-001 -7.685976e+000 159 134 80
3.185566e+000 -9.575915e-002 -9.265635e+000 153 106 54
8.404031e-001 1.483125e+000 -9.342780e+000 117 97 60
2.807281e+000 1.413709e+000 -9.638313e+000 112 74 37
4.380335e+000 7.779498e-001 -9.492043e+000 32 22 23
3.868431e+000 1.692612e+000 -1.060088e+001 70 19 6
1.971895e+000 1.522024e+000 -9.574950e+000 19 37 37
2.007194e+000 1.518246e+000 -9.578867e+000 46 59 52
2.054968e+000 1.498697e+000 -9.622266e+000 20 40 39
2.047518e+000 1.510770e+000 -9.604903e+000 20 40 39
-4.500769e-001 1.236807e+000 -8.342927e+000 121 99 9
-3.459555e-001 1.216184e+000 -8.344420e+000 60 71 24
-1.532222e+000 9.353731e-001 -7.976896e+000 153 128 87
-1.376697e+000 9.664931e-001 -7.848167e+000 69 43 17
2.641137e+000 1.224394e+000 -9.386226e+000 75 57 47
-1.527974e+000 7.801414e-001 -7.858444e+000 100 75 45
-4.261428e-001 9.457369e-001 -8.031314e+000 107 101 9
-1.427058e+000 7.593985e-001 -7.754710e+000 152 125 78
1.933724e+000 1.050224e+000 -8.881988e+000 54 35 31
1.933724e+000 1.050224e+000 -8.881988e+000 54 35 31
-1.416223e+000 6.354308e-001 -7.700987e+000 162 135 95
-4.055249e-001 1.117472e+000 -7.525705e+000 109 97 17
-2.915842e-001 8.733109e-001 -7.807004e+000 120 104 38
1.527133e+000 9.148677e-001 -8.608000e+000 110 110 80
1.527133e+000 9.148677e-001 -8.608000e+000 110 110 80
7.968275e-001 7.928739e-001 -8.209289e+000 119 107 56
7.968275e-001 7.928739e-001 -8.209289e+000 119 107 56
2.371671e+000 8.969326e-001 -8.887426e+000 93 72 52
2.399724e+000 8.632803e-001 -8.880558e+000 101 79 60
2.242948e+000 8.039329e-001 -8.714371e+000 52 19 17
3.371320e+000 7.164095e-001 -9.133295e+000 90 18 19
-5.369881e-001 6.366716e-001 -7.576298e+000 120 25 21
-5.369881e-001 6.366716e-001 -7.576298e+000 120 25 21
-5.137731e-001 5.839212e-001 -7.546911e+000 117 25 19
-5.137731e-001 5.839212e-001 -7.546911e+000 117 25 19
3.233259e+000 6.388772e-001 -9.008863e+000 10 39 52
3.564314e+000 6.085602e-001 -9.121341e+000 134 86 45
1.622308e+000 5.424981e-001 -8.320176e+000 23 30 34
2.795050e+000 4.630508e-001 -8.774086e+000 104 58 10
4.014490e+000 5.550766e-001 -9.254635e+000 136 68 32
4.227015e+000 -1.989951e+000 -9.721341e+000 94 77 55
1.991324e+000 1.540039e+000 -9.650236e+000 56 68 65
2.092028e+000 1.459605e+000 -9.516868e+000 17 42 48
-3.462603e-001 1.250479e+000 -8.375140e+000 15 33 6
2.193930e+000 1.258185e+000 -9.176878e+000 119 94 64
-1.331522e+000 7.521205e-001 -7.682279e+000 157 132 91
2.592396e+000 1.060380e+000 -9.150648e+000 96 73 53
-1.351404e+000 6.660343e-001 -7.645137e+000 161 136 84
1.906702e+000 8.965030e-001 -8.684675e+000 69 26 22
2.803628e+000 8.724235e-001 -9.057575e+000 83 61 48
3.240321e+000 8.236774e-001 -9.137869e+000 13 38 57
-3.039195e-001 6.714854e-001 -7.723367e+000 109 96 25
4.069718e+000 7.995628e-001 -9.489438e+000 117 92 53
4.255883e+000 8.118048e-001 -9.515351e+000 97 42 29
1.933508e+000 6.026890e-001 -8.465183e+000 125 68 48
4.097127e+000 -2.343245e+000 -1.003703e+001 95 80 57
4.568405e+000 -1.921229e+000 -9.030629e+000 128 106 82
4.395249e+000 -3.012850e+000 -9.325107e+000 102 85 57
4.961081e+000 -1.187036e+000 -8.097020e+000 116 96 72
3.230963e+000 1.474705e+000 -9.952953e+000 85 44 14
-3.430307e-001 1.115368e+000 -8.207770e+000 21 35 20
-1.477398e+000 8.264410e-001 -7.851603e+000 132 105 75
-1.334654e+000 7.960992e-001 -7.708952e+000 155 133 86
1.013855e+000 8.722216e-001 -8.368433e+000 123 100 64
1.012783e+000 8.739655e-001 -8.366282e+000 123 100 64
-5.769477e-001 7.566980e-001 -7.716858e+000 124 20 23
2.024637e+000 8.476672e-001 -8.703243e+000 82 50 40
2.810279e+000 4.283444e-001 -8.758003e+000 141 97 37
3.638016e+000 -3.246429e+000 -1.092800e+001 125 111 86
4.189913e+000 -1.996335e+000 -9.834715e+000 44 35 23
3.356405e+000 1.644581e+000 -1.032034e+001 108 74 37
1.268216e+000 1.052912e+000 -8.666950e+000 104 14 15
1.337065e+000 9.899316e-001 -8.610037e+000 111 33 23
4.202795e+000 9.320885e-001 -9.706748e+000 108 63 28
2.060065e+000 8.666503e-001 -8.721848e+000 52 23 17
-1.642748e+000 -1.880962e-001 -7.845868e+000 27 21 25
2.002419e+000 6.466440e-001 -8.516551e+000 57 20 17
-4.366625e-001 5.587688e-001 -7.535185e+000 125 24 24
4.124400e+000 -2.140797e+000 -9.984507e+000 35 28 23
4.347771e+000 -1.664322e+000 -9.544438e+000 45 35 30
4.611750e+000 -1.046187e+000 -8.921102e+000 112 94 74
2.846955e+000 1.592686e+000 -1.002672e+001 70 32 12
2.845778e+000 1.549339e+000 -9.920909e+000 90 46 18
7.647041e-001 1.345237e+000 -8.867421e+000 127 84 59
-1.612411e+000 8.773971e-001 -8.008708e+000 158 127 83
2.700532e+000 9.450979e-001 -9.030365e+000 55 36 29
9.461729e-001 5.523179e-001 -8.067296e+000 114 51 33
4.904115e+000 -2.259533e-001 -8.185238e+000 125 103 82
2.050733e+000 1.556240e+000 -9.666834e+000 18 39 48
-1.345669e+000 6.163268e-001 -7.630919e+000 161 138 90
-1.395039e+000 9.439592e-001 -7.844642e+000 148 127 85
4.379720e+000 2.868015e-001 -9.319734e+000 29 22 19
1.295331e-001 1.378463e+000 -8.705470e+000 115 102 57
1.678000e-001 8.210641e-001 -8.050450e+000 22 34 21
2.552699e+000 8.051742e-001 -8.849547e+000 94 66 44
3.831384e+000 -5.122017e+000 -1.061651e+001 125 109 74
2.252365e+000 1.530018e+000 -9.654183e+000 117 79 40
3.129359e+000 1.677221e+000 -1.017419e+001 90 56 20
3.728660e-001 1.282658e+000 -8.610470e+000 119 103 60
4.595074e-001 1.117270e+000 -8.459704e+000 124 105 62
4.533221e+000 -1.265516e+000 -8.996706e+000 109 89 64
2.058372e+000 6.835570e-001 -8.492998e+000 77 40 35
-4.320015e-001 1.161962e+000 -8.242204e+000 26 39 19
-4.295969e-001 1.152209e+000 -8.253377e+000 26 39 19
3.397060e+000 1.086877e+000 -9.814692e+000 114 79 41
-1.334484e+001 -3.491597e+001 -4.678181e+001 128 109 104
-1.250054e+001 -3.497063e+001 -4.643183e+001 158 139 137
-1.352498e+001 -3.552874e+001 -4.802164e+001 132 113 107
-1.147490e+001 -3.817530e+001 -4.314729e+001 67 60 72
-1.935257e+001 -3.753120e+001 -4.779158e+001 125 106 109
-1.874228e+001 -3.845045e+001 -4.510261e+001 147 131 136
-2.082256e+001 -3.877400e+001 -4.725910e+001 143 126 144
-1.839170e+001 -3.670792e+001 -4.552533e+001 59 60 101
-2.010024e+001 -3.731632e+001 -4.339217e+001 254 254 253
-1.880179e+001 -3.974846e+001 -4.517074e+001 144 127 135
-1.673791e+001 -3.643162e+001 -4.517953e+001 253 254 254
-1.993759e+001 -3.823009e+001 -4.676940e+001 151 128 132
-2.066448e+001 -3.833722e+001 -4.561768e+001 76 81 136
-1.396469e+001 -4.061446e+001 -4.096531e+001 54 66 115
-1.673193e+001 -3.665348e+001 -3.464812e+001 254 254 254
7.140079e-001 1.434781e+000 -8.987163e+000 138 92 65
1.458379e+000 1.218644e+000 -8.912264e+000 22 39 51
2.596381e+000 1.016255e+000 -9.088094e+000 87 62 39
2.760317e+000 8.467935e-001 -8.977765e+000 52 26 20
4.374870e+000 -2.383070e+000 -9.425564e+000 101 80 53
-3.933296e-001 1.241323e+000 -8.360474e+000 23 34 20
2.052449e+000 1.431110e+000 -9.443883e+000 49 60 56
-2.957533e-001 1.132151e+000 -8.280992e+000 118 104 15
1.999881e+000 1.030583e+000 -8.894803e+000 99 77 64
1.999881e+000 1.030583e+000 -8.894803e+000 99 77 64
-6.777025e-001 8.094925e-001 -7.752731e+000 119 11 9
2.794917e+000 8.628874e-001 -8.997008e+000 82 63 51
1.933325e+000 6.616265e-001 -8.482179e+000 57 16 12
4.984961e+000 -9.177588e-001 -8.015459e+000 122 101 80
4.831027e+000 -1.749034e+000 -8.420904e+000 129 105 79
2.192667e+000 1.508816e+000 -9.612163e+000 114 82 44
8.065743e-001 7.913050e-001 -8.207073e+000 123 103 59
-7.133368e+000 -2.449014e+001 -3.008644e+001 58 61 91
7.695920e-001 1.309938e+000 -8.817882e+000 122 102 60
2.451417e+000 7.688771e-001 -8.778035e+000 101 73 50
1.683197e+000 1.174597e+000 -8.977590e+000 59 36 39
-1.829447e+001 -4.256650e+001 -4.056455e+001 52 52 88
1.851449e-001 1.126368e+000 -8.380447e+000 125 105 51
6.168397e-001 1.387327e+000 -8.891069e+000 122 100 64
6.168397e-001 1.387327e+000 -8.891069e+000 122 100 64
-4.206978e-001 1.234733e+000 -8.336495e+000 112 100 18
-3.007197e-001 1.292719e+000 -8.412758e+000 121 103 27
6.062055e-001 1.349729e+000 -8.814475e+000 129 93 66
6.042259e-001 1.348502e+000 -8.816483e+000 129 93 66
1.387852e+000 1.320825e+000 -9.070952e+000 123 106 74
2.254846e-001 1.592264e+000 -8.015977e+000 131 109 32
1.512441e+000 1.256628e+000 -9.000451e+000 132 78 44
-4.926404e-001 1.084982e+000 -8.092100e+000 104 106 12
1.236390e+000 1.198396e+000 -8.835381e+000 143 67 58
1.442052e+000 1.214589e+000 -8.937199e+000 119 112 80
-6.201687e-001 8.890181e-001 -7.910136e+000 145 93 64
-6.201687e-001 8.890181e-001 -7.910136e+000 145 93 64
1.179628e+000 9.889129e-001 -8.578730e+000 147 112 60
2.435627e+000 9.261758e-001 -8.934933e+000 23 6 3
-6.205368e-001 7.835879e-001 -7.737167e+000 117 15 15
-6.198997e-001 7.848421e-001 -7.736254e+000 117 15 15
-5.908557e-001 7.317796e-001 -7.665204e+000 105 19 10
-2.878904e-002 7.375026e-001 -8.017906e+000 17 30 15
6.955803e-001 8.100769e-001 -8.194418e+000 118 16 17
-4.634649e-002 6.349714e-001 -7.740009e+000 131 104 25
4.315926e+000 5.731735e-001 -9.356013e+000 94 26 6
4.315926e+000 5.731735e-001 -9.356013e+000 94 26 6
6.063828e-001 1.390751e+000 -8.882906e+000 127 96 62
2.574451e+000 1.467972e+000 -9.690767e+000 111 56 36
1.599953e+000 1.236901e+000 -8.983345e+000 130 74 46
2.533405e+000 1.305901e+000 -9.414884e+000 115 79 61
2.588630e+000 1.252947e+000 -9.381059e+000 57 38 30
2.603622e+000 1.223978e+000 -9.350479e+000 53 30 26
-7.924548e-001 9.991360e-001 -7.954775e+000 140 102 57
-6.623058e-001 8.869461e-001 -7.884630e+000 142 95 59
2.378796e+000 1.064048e+000 -9.052975e+000 96 77 55
2.570532e+000 8.263750e-001 -8.888797e+000 103 75 53
-1.841916e-001 7.253975e-001 -7.804803e+000 20 33 22
2.178469e+000 5.885836e-001 -8.582765e+000 56 18 15
4.249245e+000 -2.018837e+000 -9.693625e+000 110 92 68
4.278884e+000 -2.671480e+000 -9.509754e+000 128 108 81
-1.253960e+000 1.159242e+000 -7.953488e+000 113 95 59
1.947084e+000 1.205327e+000 -9.071493e+000 53 34 28
-1.477884e+000 8.271125e-001 -7.850677e+000 132 105 75
-1.408557e+000 7.543578e-001 -7.767246e+000 159 131 86
8.715288e-002 8.429973e-001 -8.029081e+000 119 99 15
8.715288e-002 8.429973e-001 -8.029081e+000 119 99 15
-5.817779e-001 6.143047e-001 -7.536729e+000 122 16 20
4.441355e+000 -1.461581e+000 -9.290731e+000 122 105 80
4.608621e+000 -1.136889e+000 -8.939501e+000 95 77 55
1.505984e+000 1.340189e+000 -9.128631e+000 62 12 15
1.428996e+000 1.181896e+000 -8.867636e+000 47 40 19
2.192058e+000 1.307729e+000 -9.247378e+000 113 88 58
2.653127e+000 1.470619e+000 -9.746302e+000 88 39 19
1.193769e+000 1.010682e+000 -8.586986e+000 95 25 15
1.174461e+000 1.058867e+000 -8.654629e+000 120 58 38
9.282614e-001 1.005620e+000 -8.512652e+000 120 99 65
2.990249e+000 1.580904e+000 -1.004529e+001 92 52 16
3.005119e+000 1.566753e+000 -1.007022e+001 92 52 16
2.000783e+000 1.562506e+000 -9.714838e+000 10 32 31
-2.987659e-003 1.461699e+000 -8.783786e+000 111 103 23
1.982677e+000 1.506739e+000 -9.649961e+000 12 34 40
-1.023609e-001 1.385557e+000 -8.595974e+000 29 32 12
2.885993e+000 1.516502e+000 -9.883652e+000 77 38 10
-4.017629e-001 1.213818e+000 -8.328176e+000 58 74 40
-3.446004e-001 1.210938e+000 -8.348341e+000 65 72 50
2.450528e+000 1.371246e+000 -9.512938e+000 51 12 5
1.359036e+000 1.268555e+000 -8.974372e+000 118 119 91
2.603528e+000 1.291917e+000 -9.418674e+000 68 46 41
-2.840966e-001 1.092986e+000 -8.244783e+000 82 81 67
1.422356e+000 1.205784e+000 -8.902251e+000 16 45 49
1.437457e+000 1.189697e+000 -8.890133e+000 111 108 83
1.778680e+000 1.185144e+000 -9.002657e+000 102 60 51
1.778680e+000 1.185144e+000 -9.002657e+000 102 60 51
2.345439e+000 1.078265e+000 -9.078454e+000 98 76 67
2.664656e+000 1.172909e+000 -9.305716e+000 74 54 49
2.664656e+000 1.172909e+000 -9.305716e+000 74 54 49
1.982509e+000 1.012812e+000 -8.868120e+000 50 31 27
2.505976e+000 9.911923e-001 -9.044869e+000 95 72 54
-1.265639e+000 7.318789e-001 -7.610367e+000 85 62 27
1.946277e+000 8.760130e-001 -8.699109e+000 102 62 52
1.946277e+000 8.760130e-001 -8.699109e+000 102 62 52
-5.793071e-001 7.926859e-001 -7.732907e+000 116 20 17
1.044959e+000 8.105074e-001 -8.306148e+000 127 104 68
-5.723796e-001 6.206427e-001 -7.537555e+000 130 22 25
-4.080720e-001 6.096856e-001 -7.510553e+000 129 115 80
-4.080720e-001 6.096856e-001 -7.510553e+000 129 115 80
2.884338e+000 5.740177e-001 -8.792934e+000 133 102 56
4.468461e+000 5.341050e-001 -9.411263e+000 31 17 17
4.420880e+000 -1.500667e+000 -9.276405e+000 102 85 62
5.097549e+000 3.190325e-001 -7.663718e+000 78 59 52
9.578493e-001 1.485479e+000 -9.566508e+000 103 26 21
3.301279e+000 1.564993e+000 -1.059991e+001 95 63 43
2.888744e+000 1.529693e+000 -9.952685e+000 84 42 17
6.095538e-001 1.387962e+000 -8.883770e+000 125 101 65
6.095538e-001 1.387962e+000 -8.883770e+000 125 101 65
2.031743e+000 1.487767e+000 -9.544649e+000 49 67 70
2.031743e+000 1.487767e+000 -9.544649e+000 49 67 70
3.108967e+000 1.532173e+000 -9.998517e+000 57 21 25
2.188074e+000 1.355244e+000 -9.373746e+000 116 88 64
1.405111e+000 1.235338e+000 -8.935565e+000 15 38 53
-8.529384e-001 1.090428e+000 -8.041210e+000 125 69 57
2.662356e+000 1.188766e+000 -9.360732e+000 74 50 45
-1.445325e+000 8.449277e-001 -7.844046e+000 159 137 100
-7.698086e-001 9.504147e-001 -7.905062e+000 130 111 65
1.962138e+000 1.064888e+000 -8.954310e+000 47 27 28
2.685668e+000 1.122861e+000 -9.208015e+000 71 52 46
1.836664e-001 9.947518e-001 -8.229065e+000 20 37 17
1.940528e+000 1.032018e+000 -8.861073e+000 71 52 46
1.965173e+000 9.799055e-001 -8.818323e+000 69 50 44
-5.681537e-001 7.978845e-001 -7.773434e+000 145 89 59
-5.681537e-001 7.978845e-001 -7.773434e+000 145 89 59
-3.948278e-001 8.455506e-001 -7.875996e+000 107 95 13
-3.714818e-001 8.267112e-001 -7.868925e+000 20 33 17
1.257586e+000 9.442555e-001 -8.514319e+000 145 100 61
2.774202e+000 9.181003e-001 -9.035829e+000 75 55 49
-1.391813e+000 4.988736e-001 -7.610938e+000 166 142 98
-1.391235e+000 5.005124e-001 -7.609096e+000 166 142 98
-1.348205e+000 5.049140e-001 -7.585354e+000 168 144 100
-6.015628e-001 7.679737e-001 -7.730927e+000 139 110 70
-3.821600e-001 7.902313e-001 -7.835086e+000 111 106 25
2.624247e+000 6.859677e-001 -8.765092e+000 62 25 19
2.753104e+000 7.559860e-001 -8.892813e+000 47 18 14
4.169199e+000 6.701622e-001 -9.374961e+000 143 104 68
-3.551811e-001 6.580260e-001 -7.615901e+000 20 35 16
2.110539e+000 6.452586e-001 -8.545454e+000 75 34 31
-3.136179e-001 4.790365e-001 -7.538439e+000 18 38 23
4.968927e+000 -9.754000e-002 -8.078046e+000 120 103 86
5.140983e+000 3.777397e-001 -7.528438e+000 119 100 86
1.305671e+000 1.511015e+000 -9.724327e+000 81 20 15
2.889747e+000 1.636210e+000 -1.024251e+001 84 49 22
2.104023e+000 1.431538e+000 -9.468289e+000 10 38 45
2.670189e+000 1.455666e+000 -9.690376e+000 114 79 41
-4.442550e-001 1.214185e+000 -8.319986e+000 50 68 64
-1.451928e+000 8.988337e-001 -7.863027e+000 154 132 90
2.032430e+000 1.185462e+000 -9.052138e+000 59 40 33
-1.384952e+000 9.023107e-001 -7.813391e+000 154 133 87
-1.386097e+000 9.012647e-001 -7.813258e+000 154 133 87
2.102331e+000 1.138070e+000 -9.075838e+000 98 75 54
2.733821e+000 1.117147e+000 -9.259821e+000 50 32 31
-1.669240e+000 5.011157e-001 -7.823667e+000 139 109 71
2.066145e+000 9.825950e-001 -8.858511e+000 54 34 33
-1.369379e+000 6.816848e-001 -7.673080e+000 163 139 101
1.795362e+000 8.984685e-001 -8.653045e+000 57 17 21
7.236406e-001 7.760708e-001 -8.164896e+000 119 110 75
2.073434e+000 7.978516e-001 -8.669323e+000 55 31 29
3.001939e+000 7.731283e-001 -8.995651e+000 23 16 13
3.002272e+000 7.727627e-001 -8.994413e+000 23 16 13
3.948615e+000 7.290975e-001 -9.339230e+000 138 110 71
6.825264e-002 5.597259e-001 -7.751551e+000 19 40 25
4.090979e+000 -2.047592e+000 -9.837955e+000 112 102 83
4.219760e+000 -1.891691e+000 -9.747285e+000 37 29 23
4.260469e+000 -1.939564e+000 -9.717208e+000 109 97 75
4.306563e+000 -1.743968e+000 -9.609409e+000 35 26 28
4.200596e+000 -1.859774e+000 -9.596049e+000 92 81 61
4.378860e+000 -1.654157e+000 -9.462682e+000 122 109 89
4.663377e+000 -9.097713e-001 -8.806918e+000 122 105 87
4.996665e+000 -1.528766e-002 -8.005924e+000 122 106 91
4.887217e+000 1.599007e-001 -7.918642e+000 43 32 29
5.012135e+000 -2.072955e-001 -7.854431e+000 127 109 89
5.114333e+000 4.091001e-001 -7.624758e+000 125 108 90
3.893679e+000 1.598651e+000 -1.085257e+001 119 63 25
2.034657e+000 1.548240e+000 -9.707984e+000 16 39 56
3.281035e+000 1.563952e+000 -1.009255e+001 107 72 42
2.517419e+000 1.339632e+000 -9.445294e+000 113 77 61
1.203054e+000 1.170246e+000 -8.760005e+000 103 23 22
-5.617870e-001 8.173313e-001 -7.811028e+000 127 26 29
-5.613575e-001 8.175100e-001 -7.811470e+000 127 26 29
2.023384e+000 8.690090e-001 -8.759567e+000 106 78 66
2.023384e+000 8.690090e-001 -8.759567e+000 106 78 66
2.056892e+000 8.677173e-001 -8.719779e+000 46 17 13
2.831187e+000 8.626767e-001 -8.978978e+000 57 34 39
1.867618e+000 7.339354e-001 -8.549677e+000 75 30 27
2.532772e+000 7.142445e-001 -8.712637e+000 104 78 56
2.532772e+000 7.142445e-001 -8.712637e+000 104 78 56
2.616184e+000 3.832432e-001 -8.653217e+000 39 12 12
4.637498e+000 -9.922152e-001 -8.871658e+000 113 97 78
5.039428e+000 1.667677e-001 -7.839423e+000 113 99 83
5.075356e+000 2.159639e-001 -7.780752e+000 98 80 65
5.080437e+000 3.358985e-001 -7.751937e+000 39 29 27
5.092449e+000 3.242515e-001 -7.703103e+000 117 100 85
5.151001e+000 4.173155e-001 -7.599714e+000 120 100 83
1.054744e+000 1.412099e+000 -9.436459e+000 105 25 20
3.119381e+000 1.633498e+000 -1.029067e+001 101 71 42
-7.968057e-001 9.739023e-001 -7.923880e+000 128 24 26
1.461947e+000 1.109563e+000 -8.795132e+000 93 93 77
1.776067e+000 9.823259e-001 -8.759605e+000 47 32 34
2.891169e+000 7.696467e-001 -8.974240e+000 64 33 32
1.932128e+000 5.521891e-001 -8.446896e+000 73 27 19
1.932681e+000 5.528461e-001 -8.447212e+000 73 27 19
4.183339e+000 4.009945e-001 -9.271358e+000 151 71 23
4.445170e+000 -1.369963e+000 -9.288828e+000 39 34 33
5.132239e+000 3.259066e-001 -7.611299e+000 75 56 42
1.388504e+000 1.527046e+000 -9.683046e+000 100 43 26
1.886542e+000 1.496454e+000 -9.508666e+000 16 44 56
6.458757e-001 1.316392e+000 -8.778574e+000 117 100 70
-2.948835e-001 1.212065e+000 -8.363589e+000 121 108 39
-1.328854e+000 7.561005e-001 -7.677848e+000 157 135 86
1.573119e+000 8.745892e-001 -8.599313e+000 100 105 78
1.573119e+000 8.745892e-001 -8.599313e+000 100 105 78
2.475027e+000 3.762703e-001 -8.612635e+000 35 11 16
4.859601e+000 -3.198571e-001 -8.359783e+000 39 29 27
-2.280537e-002 1.142438e+000 -8.398625e+000 20 37 15
9.112420e-001 1.002467e+000 -8.506068e+000 122 111 75
2.425563e+000 5.358444e-001 -8.591427e+000 130 88 45
3.274665e+000 5.462620e-001 -8.961201e+000 16 50 62
1.014491e+000 1.503981e+000 -9.550538e+000 96 25 19
1.465510e+000 1.548574e+000 -9.552395e+000 113 54 37
2.178333e+000 1.123942e+000 -9.066000e+000 105 75 58
2.570213e+000 9.216732e-001 -8.939136e+000 104 76 55
-5.562888e-001 6.165776e-001 -7.554627e+000 157 95 66
3.208405e+000 1.486746e+000 -1.009934e+001 28 10 10
1.327624e+000 6.193949e-001 -8.224464e+000 114 16 17
1.184256e-001 5.099421e-001 -7.744530e+000 24 43 16
3.028974e-001 6.155261e-001 -7.847192e+000 63 66 19
3.587775e+000 4.581933e-001 -9.118082e+000 128 73 38
3.520231e-001 1.361770e+000 -8.729823e+000 122 107 68
2.969961e+000 1.244155e+000 -9.849952e+000 112 77 45
2.969961e+000 1.244155e+000 -9.849952e+000 112 77 45
4.047503e+000 6.288830e-001 -9.291352e+000 125 69 36
4.047503e+000 6.288830e-001 -9.291352e+000 125 69 36
2.449992e+000 1.442672e+000 -1.011933e+001 101 72 42
-8.451867e-001 1.140940e+000 -8.875607e+000 91 88 68
2.021078e+000 1.544703e+000 -9.611554e+000 23 41 45
2.037449e+000 1.524745e+000 -9.559042e+000 18 37 42
2.037449e+000 1.524745e+000 -9.559042e+000 18 37 42
5.300950e-001 1.379322e+000 -8.804249e+000 132 98 73
5.990930e-001 1.400029e+000 -8.872568e+000 129 97 57
5.990930e-001 1.400029e+000 -8.872568e+000 129 97 57
-3.893930e-001 1.222371e+000 -8.348481e+000 110 104 35
-6.639435e-001 1.066849e+000 -8.091674e+000 116 29 18
-1.469327e+000 8.146338e-001 -7.830407e+000 153 128 92
-1.348559e+000 8.891995e-001 -7.760930e+000 154 131 91
1.167034e+000 1.111670e+000 -8.679560e+000 102 19 15
1.167411e+000 1.079406e+000 -8.675180e+000 156 104 82
1.462369e+000 1.057170e+000 -8.730044e+000 107 103 76
2.033207e+000 1.033197e+000 -8.917090e+000 44 24 20
2.039856e+000 1.022759e+000 -8.884703e+000 53 34 32
2.043372e+000 1.016414e+000 -8.890127e+000 53 34 32
-1.347354e+000 5.063954e-001 -7.585216e+000 170 145 104
-1.308055e+000 4.955953e-001 -7.569231e+000 170 146 101
2.018493e+000 9.382881e-001 -8.779181e+000 51 33 31
2.109577e+000 6.769537e-001 -8.581471e+000 89 48 45
4.759736e+000 -1.349055e+000 -8.602405e+000 129 111 87
5.168110e+000 3.480402e-001 -7.614310e+000 78 61 44
1.964739e+000 1.567566e+000 -9.668194e+000 41 55 57
1.964407e+000 1.568645e+000 -9.667106e+000 41 55 57
3.266205e+000 1.654473e+000 -1.038463e+001 93 58 39
2.064747e+000 1.530227e+000 -9.618929e+000 48 66 67
1.371611e+000 1.298283e+000 -8.993591e+000 15 40 46
5.706853e-001 1.042021e+000 -8.386831e+000 126 108 74
1.201635e+000 1.045787e+000 -8.623732e+000 105 18 17
2.652997e+000 1.164693e+000 -9.174963e+000 79 58 57
-6.204139e-001 8.454628e-001 -7.831066e+000 115 29 24
1.242282e+000 9.685886e-001 -8.545748e+000 144 96 59
2.463336e+000 1.056615e+000 -9.047416e+000 101 79 58
2.522084e+000 9.692473e-001 -9.071944e+000 103 80 65
-6.309314e-001 7.537174e-001 -7.710005e+000 147 104 70
2.513288e+000 8.679197e-001 -8.905353e+000 104 79 63
2.684466e+000 8.712359e-001 -8.958610e+000 56 26 16
2.163854e+000 8.115157e-001 -8.722772e+000 102 82 68
2.161307e+000 8.162386e-001 -8.719494e+000 102 82 68
3.036013e+000 7.826790e-001 -9.006025e+000 77 69 55
3.959961e+000 8.352185e-001 -9.464137e+000 119 59 25
4.014171e+000 8.310343e-001 -9.488353e+000 127 63 31
1.842706e+000 7.040216e-001 -8.505252e+000 129 78 51
1.950016e+000 6.317132e-001 -8.505547e+000 59 14 7
2.049997e+000 6.380991e-001 -8.547273e+000 50 15 13
2.264804e+000 6.316685e-001 -8.636422e+000 49 13 12
3.085281e+000 6.483521e-001 -8.937445e+000 93 82 76
3.970972e+000 6.759255e-001 -9.314799e+000 114 43 16
9.942696e-001 5.554597e-001 -8.091940e+000 138 115 83
4.484833e+000 3.011565e-001 -9.388581e+000 34 20 16
9.466876e-001 1.587048e+000 -9.328749e+000 97 21 20
1.542395e-001 1.468752e+000 -8.853912e+000 112 96 36
7.041090e-001 1.349819e+000 -8.846302e+000 123 107 71
2.527632e+000 1.484845e+000 -9.689033e+000 71 23 4
2.519906e+000 1.450746e+000 -9.640361e+000 97 37 29
2.910333e+000 1.547156e+000 -9.908445e+000 96 55 30
-4.453299e-001 1.219656e+000 -8.318059e+000 49 75 59
1.202791e+000 1.183051e+000 -8.778726e+000 97 14 11
-1.330100e+000 8.032302e-001 -7.703263e+000 157 133 95
-1.330880e+000 8.060269e-001 -7.701223e+000 157 133 95
-1.368058e+000 6.796292e-001 -7.674834e+000 161 138 97
8.980145e-002 9.092965e-001 -8.125774e+000 121 105 12
-6.956152e-001 7.278989e-001 -7.672454e+000 125 25 27
-6.956152e-001 7.278989e-001 -7.672454e+000 125 25 27
1.014367e+000 8.686526e-001 -8.370907e+000 128 112 75
1.661634e+000 5.232187e-001 -8.318592e+000 139 99 52
4.324329e+000 -1.845857e+000 -9.620841e+000 113 99 83
4.421002e+000 -1.530919e+000 -9.342908e+000 117 100 78
4.867333e+000 -3.338536e-001 -8.292009e+000 118 102 87
5.041895e+000 1.462693e-001 -7.907391e+000 34 21 19
5.190226e+000 4.306435e-001 -7.512933e+000 87 69 57
3.443795e+000 1.686806e+000 -1.036139e+001 96 65 36
3.176525e+000 1.501298e+000 -9.907583e+000 81 41 15
1.838209e+000 1.013510e+000 -8.786751e+000 95 52 46
1.839568e+000 1.013045e+000 -8.787420e+000 95 52 46
-6.694382e-001 7.064051e-001 -7.632762e+000 121 17 20
-6.063847e-001 5.435310e-001 -7.473910e+000 125 25 25
4.649805e+000 -9.784536e-001 -8.928333e+000 38 30 27
4.784174e+000 -6.810859e-001 -8.583943e+000 121 105 90
5.201339e+000 3.704077e-001 -7.686580e+000 40 29 27
9.548505e-001 1.518684e+000 -9.577704e+000 85 26 18
1.453996e+000 1.537926e+000 -9.771719e+000 80 17 10
9.770420e-001 1.507551e+000 -9.200731e+000 115 96 65
1.880356e+000 1.503151e+000 -9.447381e+000 11 37 50
1.816114e+000 1.459528e+000 -9.358881e+000 76 14 15
1.780584e+000 1.511885e+000 -9.304435e+000 76 14 15
2.458488e+000 1.318203e+000 -9.402047e+000 90 46 33
3.931209e+000 1.216569e+000 -9.848495e+000 113 80 49
2.304396e+000 1.075899e+000 -9.044962e+000 20 9 13
4.221456e+000 8.850516e-001 -9.637319e+000 108 59 25
4.179441e+000 6.447245e-001 -9.363829e+000 138 102 70
3.336152e+000 5.448083e-001 -9.001079e+000 13 50 69
4.429712e+000 -1.462338e+000 -9.369861e+000 41 35 36
4.549325e+000 -1.345940e+000 -9.253861e+000 32 27 23
5.191149e+000 5.318768e-001 -7.558348e+000 45 31 31
5.197782e+000 3.412943e-001 -7.502573e+000 114 92 78
1.366255e+000 1.567299e+000 -9.635868e+000 95 43 32
1.885858e+000 1.566606e+000 -9.627799e+000 16 40 51
3.380399e+000 1.663702e+000 -1.041217e+001 45 17 15
9.234259e-001 1.014967e+000 -8.504867e+000 122 106 72
-1.427485e+000 6.009553e-001 -7.698936e+000 135 111 75
2.463270e+000 5.867866e-001 -8.676814e+000 69 28 28
4.905326e+000 -2.976968e+000 -8.550565e+000 129 108 80
-1.361162e+000 8.435361e-001 -7.783408e+000 154 130 91
-5.342720e-001 9.596062e-001 -8.020583e+000 33 62 60
5.156231e-002 9.796257e-001 -8.187760e+000 25 36 19
1.715056e+000 9.367915e-001 -8.704842e+000 133 95 48
1.715056e+000 9.367915e-001 -8.704842e+000 133 95 48
-9.871070e-003 5.759302e-001 -7.732068e+000 126 113 68
1.355068e+000 5.264860e-001 -8.270813e+000 115 11 18
1.355068e+000 5.264860e-001 -8.270813e+000 115 11 18
-1.445554e+000 9.653520e-001 -7.923787e+000 156 133 91
-7.326253e-001 1.024773e+000 -7.922752e+000 124 26 25
3.274846e+000 1.536439e+000 -1.113608e+001 28 22 26
-6.112153e-001 1.234828e+000 -9.347957e+000 92 88 53
-6.112153e-001 1.234828e+000 -9.347957e+000 92 88 53
-1.119690e+000 1.334865e+000 -8.979290e+000 98 30 20
-9.741120e-001 1.311230e+000 -9.062616e+000 103 96 43
-9.741120e-001 1.311230e+000 -9.062616e+000 103 96 43
5.204084e-001 1.377617e+000 -9.701054e+000 121 70 51
6.419117e-001 1.396695e+000 -9.719652e+000 95 49 32
9.004763e-001 1.564807e+000 -9.603782e+000 103 50 32
9.967648e-001 1.567945e+000 -9.584759e+000 86 22 13
3.631115e+000 1.502025e+000 -1.091205e+001 70 58 46
9.987060e-001 1.499934e+000 -9.288376e+000 123 32 29
1.942411e+000 1.589670e+000 -9.686907e+000 17 41 57
2.015212e+000 1.513721e+000 -9.583562e+000 50 73 76
2.027376e+000 1.492014e+000 -9.445541e+000 55 77 73
2.626800e+000 1.555880e+000 -9.654982e+000 133 89 50
-4.449926e-001 1.245991e+000 -8.360732e+000 13 33 18
1.301802e+000 1.376421e+000 -9.078085e+000 134 124 82
-1.469964e+000 8.091752e-001 -7.832866e+000 178 156 113
-1.413708e+000 9.346416e-001 -7.846883e+000 172 154 104
-4.914639e-001 1.085569e+000 -8.122174e+000 124 122 24
1.531399e+000 1.045234e+000 -8.763353e+000 24 54 75
-1.326539e+000 7.519883e-001 -7.680145e+000 178 159 119
-6.682552e-001 9.030354e-001 -7.865419e+000 158 126 85
1.208030e+000 9.358289e-001 -8.523456e+000 160 123 87
1.994928e+000 9.922739e-001 -8.881647e+000 57 37 39
2.008886e+000 1.004653e+000 -8.827589e+000 51 30 29
2.050830e+000 9.440078e-001 -8.818395e+000 69 47 50
2.535187e+000 1.243236e+000 -8.826926e+000 87 66 61
-2.309575e-001 5.964037e-001 -7.960358e+000 129 119 19
1.823921e+000 9.123086e-001 -8.680373e+000 121 76 74
1.922959e+000 8.194078e-001 -8.707939e+000 120 67 62
2.092766e+000 8.803925e-001 -8.752252e+000 48 20 17
-5.825396e-001 7.350828e-001 -7.695702e+000 146 118 70
2.066047e+000 7.312690e-001 -8.609445e+000 124 93 89
3.601203e+000 7.123696e-001 -9.146543e+000 148 75 33
2.118714e+000 5.761424e-001 -8.555936e+000 75 31 28
-4.030353e-001 5.569418e-001 -7.522806e+000 142 134 89
-6.721007e-001 1.358246e+000 -9.169159e+000 85 81 33
2.725767e-001 1.438596e+000 -9.480083e+000 82 18 18
9.327525e-001 1.442375e+000 -9.739260e+000 104 83 59
1.979147e+000 1.555735e+000 -9.638604e+000 48 68 68
3.853821e+000 1.706334e+000 -1.058366e+001 63 15 11
2.843213e+000 1.513357e+000 -9.887425e+000 122 80 42
2.992936e+000 1.599480e+000 -1.000462e+001 123 77 42
1.966512e+000 1.520622e+000 -9.395007e+000 17 45 58
1.367719e+000 1.305325e+000 -8.988501e+000 24 55 80
2.509665e+000 1.187389e+000 -9.522786e+000 136 102 75
-7.161573e-001 1.124143e+000 -7.970061e+000 140 27 31
1.031240e+000 9.921451e-001 -8.824142e+000 137 127 89
2.025595e+000 9.308368e-001 -8.806682e+000 68 44 54
2.043131e+000 9.009877e-001 -8.783000e+000 68 48 48
2.011111e+000 9.523058e-001 -8.749512e+000 68 48 48
3.171792e+000 8.695885e-001 -9.124794e+000 142 104 57
1.932119e+000 7.031487e-001 -8.536796e+000 71 17 16
1.970080e+000 5.970364e-001 -8.525136e+000 74 21 15
2.316247e+000 5.341548e-001 -8.600708e+000 63 28 34
2.774827e+000 4.048261e-001 -8.746125e+000 124 78 27
3.223298e+000 4.784728e-001 -8.927083e+000 16 59 82
-2.501330e-001 5.479133e-001 -7.602016e+000 131 122 32
-2.585644e-001 5.836658e-001 -7.586503e+000 131 122 32
-5.334798e-001 1.262592e+000 -9.352243e+000 86 87 54
1.203766e+000 1.312798e+000 -1.010996e+001 79 20 15
2.824892e+000 1.646677e+000 -1.016666e+001 81 43 22
-1.975927e+000 3.604266e-001 -8.690681e+000 123 104 81
6.655011e-001 1.530391e+000 -8.989422e+000 131 115 81
2.125995e+000 1.589682e+000 -9.532579e+000 133 97 47
2.202422e+000 1.533466e+000 -9.437718e+000 128 28 33
-1.424444e+000 8.611485e-001 -7.816632e+000 171 153 108
-1.185955e+000 1.006624e+000 -7.835639e+000 88 91 70
2.733405e+000 1.017943e+000 -9.130340e+000 86 65 62
2.804254e+000 9.963717e-001 -9.195809e+000 57 40 44
-1.678475e+000 3.174529e-002 -7.737735e+000 171 55 42
-5.493792e-001 7.029467e-001 -7.642053e+000 142 30 27
-5.487757e-001 6.988821e-001 -7.643638e+000 142 30 27
8.556468e-001 8.069872e-001 -8.119693e+000 139 130 91
2.888171e+000 7.067945e-001 -8.889172e+000 66 41 37
3.409305e+000 6.502123e-001 -9.126408e+000 140 97 62
4.242318e+000 7.662526e-001 -9.353910e+000 117 55 34
5.107305e+000 1.760032e-003 -7.944507e+000 126 110 96
9.271096e-001 1.472432e+000 -9.766766e+000 70 16 14
3.810293e+000 1.657055e+000 -1.077163e+001 118 68 33
9.903236e-001 1.538583e+000 -9.321911e+000 117 23 21
3.166707e+000 1.639116e+000 -1.022385e+001 95 61 24
-7.968460e-001 9.597970e-001 -7.930369e+000 133 27 24
2.497148e+000 7.057654e-001 -8.754473e+000 61 24 18
4.479138e+000 1.694730e-001 -9.423640e+000 30 21 22
-1.703221e-001 1.219848e+000 -9.557122e+000 98 89 69
-1.074288e+000 1.297997e+000 -9.002705e+000 112 98 69
-7.219948e-001 1.351160e+000 -9.138549e+000 30 34 14
-7.189315e-001 1.334633e+000 -9.151002e+000 30 34 14
1.285225e+000 1.124938e+000 -1.035120e+001 100 81 59
-9.934954e-001 1.257882e+000 -8.155654e+000 28 61 68
1.495514e+000 1.240382e+000 -9.254717e+000 22 36 55
7.641433e-001 1.345273e+000 -8.866393e+000 142 105 83
-1.384134e+000 7.539989e-001 -7.708170e+000 178 156 110
4.078495e+000 1.129839e+000 -9.768660e+000 133 78 44
2.154880e+000 9.528528e-001 -8.891651e+000 50 32 32
2.146132e+000 9.556236e-001 -8.730331e+000 77 58 64
-4.700775e-001 6.116100e-001 -7.583863e+000 139 25 28
4.172212e+000 3.199604e-001 -9.252712e+000 33 22 26
9.654064e-001 1.302217e+000 -1.004184e+001 118 75 58
1.221425e+000 1.454398e+000 -9.908175e+000 81 19 20
1.187948e+000 1.531659e+000 -9.744086e+000 101 60 39
1.187948e+000 1.531659e+000 -9.744086e+000 101 60 39
1.368335e+000 1.562098e+000 -9.640448e+000 119 62 50
-1.180266e+000 1.149671e+000 -7.960291e+000 114 109 89
5.970412e-001 1.209847e+000 -8.612742e+000 141 119 86
5.948740e-001 1.220683e+000 -8.606880e+000 141 119 86
8.283844e-001 1.212265e+000 -8.718227e+000 139 118 83
-3.932625e-002 1.059321e+000 -8.246605e+000 142 134 59
-3.932625e-002 1.059321e+000 -8.246605e+000 142 134 59
6.830330e-001 1.036814e+000 -8.385770e+000 132 119 84
6.830330e-001 1.036814e+000 -8.385770e+000 132 119 84
6.618551e-001 9.561388e-001 -8.349798e+000 142 32 29
-2.543642e-001 8.027505e-001 -7.889382e+000 134 124 68
-1.968001e-001 8.496850e-001 -7.909724e+000 27 42 23
2.113879e+000 1.122201e+000 -1.060067e+001 63 29 19
9.666438e-001 1.490296e+000 -9.221056e+000 128 113 82
6.128447e-001 1.214873e+000 -8.618428e+000 138 121 85
3.136608e-001 1.120906e+000 -8.338555e+000 31 44 26
4.068127e+000 1.067959e+000 -9.668744e+000 128 79 34
1.971456e+000 1.613848e+000 -9.771232e+000 104 73 43
-6.909805e-001 1.201042e+000 -8.246414e+000 86 97 89
2.563949e+000 9.226556e-001 -8.936951e+000 119 93 70
-5.572824e-001 6.207814e-001 -7.553287e+000 159 115 78
1.694962e+000 5.704502e-001 -8.407436e+000 17 57 82
2.269257e+000 1.510025e+000 -9.679862e+000 131 96 55
3.185440e+000 1.536259e+000 -1.005245e+001 32 17 17
2.533433e+000 1.432417e+000 -9.652308e+000 112 48 36
2.533433e+000 1.432417e+000 -9.652308e+000 112 48 36
-1.571925e-002 9.427970e-001 -8.112274e+000 140 125 84
1.152532e+000 6.817859e-001 -8.267710e+000 145 130 91
1.661657e+000 5.760745e-001 -8.396442e+000 17 58 80
2.976407e+000 1.567089e+000 -1.054005e+001 89 58 37
3.149677e+000 1.666549e+000 -1.018068e+001 98 64 27
1.998612e+000 2.382287e-001 -8.512582e+000 158 123 70
2.924613e+000 4.399703e-001 -1.181465e+001 37 31 31
1.835692e+000 1.495994e+000 -9.879371e+000 67 12 21
4.160585e+000 5.278048e-001 -9.392878e+000 142 62 38
-2.192859e+001 -3.149086e+001 -4.807242e+001 175 156 149
-2.260054e+001 -3.431797e+001 -5.071932e+001 159 144 145
-2.253033e+001 -3.318192e+001 -4.951022e+001 66 60 112
-1.584155e+001 -3.868926e+001 -4.192691e+001 118 181 227
-1.907980e+001 -3.746393e+001 -4.574783e+001 124 104 95
-1.780685e+001 -3.688694e+001 -4.517311e+001 247 254 252
-1.475626e+001 -3.928361e+001 -4.222001e+001 212 255 254
-1.843136e+001 -4.068220e+001 -3.963675e+001 253 255 255
-1.400590e+001 -3.892921e+001 -4.052814e+001 33 34 64
-1.561081e+001 -3.811589e+001 -4.197658e+001 209 255 255
-1.777835e+001 -3.681835e+001 -4.510800e+001 250 254 255
-1.619858e+001 -5.416112e+001 -3.201044e+001 157 124 80
-1.889950e+001 -4.522139e+001 -4.287451e+001 119 103 97
-5.832671e+000 -5.475644e+001 -3.163872e+001 130 106 60
-5.780031e+000 -5.419374e+001 -3.053373e+001 145 114 68
-5.616740e+000 -5.649448e+001 -3.195911e+001 167 140 93
-5.481572e+000 -5.429198e+001 -2.963522e+001 144 116 68
-5.648024e+000 -5.294926e+001 -3.251844e+001 82 62 29
-5.505377e+000 -5.511712e+001 -3.244230e+001 73 55 25
-4.911852e+000 -5.676211e+001 -3.081409e+001 132 104 65
-1.910244e+000 -3.550367e+001 -2.356657e+001 123 106 77
-6.427444e+000 -5.144204e+001 -3.401547e+001 57 44 27
2.485590e+000 1.363165e+000 -9.474251e+000 77 46 28
1.960964e+000 1.044780e+000 -8.891089e+000 53 37 31
-6.797707e-001 7.985233e-001 -7.758035e+000 111 33 19
1.329218e+000 1.003689e+000 -8.639650e+000 99 18 15
3.813446e+000 1.652611e+000 -1.083455e+001 22 10 11
-6.788481e-001 9.296841e-001 -7.900268e+000 133 96 54
2.027762e+000 1.083524e+000 -8.972102e+000 62 44 40
2.005623e+000 9.756704e-001 -8.843630e+000 53 35 33
1.548441e+000 8.680646e-001 -8.562762e+000 91 98 83
1.548441e+000 8.680646e-001 -8.562762e+000 91 98 83
-5.664178e-001 6.726783e-001 -7.622147e+000 139 102 60
1.637226e+000 7.525253e-001 -8.471214e+000 111 110 90
2.214927e+000 7.055149e-001 -8.639858e+000 55 20 17
-5.567812e+000 -5.499628e+001 -3.186097e+001 147 124 80
4.768003e+000 -8.271562e-001 -8.662592e+000 89 73 63
2.991931e+000 1.614480e+000 -1.008446e+001 109 73 41
3.075867e-001 1.129085e+000 -8.418251e+000 125 110 30
3.075867e-001 1.129085e+000 -8.418251e+000 125 110 30
-5.843702e-001 7.065507e-001 -7.650987e+000 142 96 63
2.190837e+000 7.413219e-001 -8.661310e+000 102 73 64
4.177867e+000 6.358329e-001 -9.362468e+000 141 110 76
-5.291143e+000 -5.988935e+001 -2.706670e+001 49 35 21
-4.902403e+000 -5.955680e+001 -2.698091e+001 76 61 46
2.055885e+000 6.938255e-001 -8.587054e+000 54 21 17
-4.992341e+000 -5.844972e+001 -2.766019e+001 118 97 76
-5.050146e+000 -5.963338e+001 -2.759697e+001 58 42 24
-7.159969e+000 -6.182533e+001 -2.550074e+001 31 21 20
-7.255994e+000 -5.758446e+001 -2.106819e+001 116 82 40
-4.805872e+000 -5.839894e+001 -2.806673e+001 95 77 52
4.727128e+000 -8.175301e-001 -8.710976e+000 99 83 64
-7.946831e+000 -5.734055e+001 -2.390489e+001 130 103 72
-1.273269e+001 -5.841635e+001 -2.615154e+001 166 128 81
-9.192245e+000 -5.961630e+001 -2.573834e+001 106 80 48
-6.984815e+000 -5.865087e+001 -2.589982e+001 131 107 73
-1.062026e+001 -5.714420e+001 -2.720382e+001 179 140 87
-9.741193e+000 -5.822149e+001 -2.735887e+001 117 89 52
-9.283034e+000 -5.838140e+001 -2.965438e+001 170 140 90
4.848901e-001 1.415024e+000 -9.633523e+000 103 53 33
1.927290e+000 1.458485e+000 -1.019263e+001 96 63 46
1.409927e+000 1.577631e+000 -9.670131e+000 84 23 14
1.516532e+000 1.566757e+000 -9.579610e+000 132 76 60
1.521696e+000 1.559723e+000 -9.543752e+000 108 31 23
3.214286e+000 1.648268e+000 -1.025549e+001 112 77 39
-7.523170e-002 1.401345e+000 -8.649638e+000 124 121 21
8.685146e-001 1.490912e+000 -9.065377e+000 114 11 22
