ply
format ascii 1.0
element face 0
property list uchar int vertex_indices
element vertex 882
property float x
property float y
property float z
property uchar diffuse_red
property uchar diffuse_green
property uchar diffuse_blue
end_header
1.770331e+000 -6.233729e-001 -9.015705e+000 200 136 111
5.376277e-001 -6.199305e-001 -8.453004e+000 147 118 113
6.628270e-001 -8.098468e-001 -8.795511e+000 162 38 54
7.873858e-001 -6.336195e-001 -8.577082e+000 194 125 118
8.491413e-001 -7.502299e-001 -8.760112e+000 20 64 98
-6.468200e-001 -8.399451e-001 -8.242546e+000 177 42 33
4.477718e+000 -1.950295e+000 -9.114030e+000 132 111 111
4.548197e+000 -1.751045e+000 -8.611277e+000 125 104 104
4.239334e+000 -2.264026e+000 -9.495745e+000 130 110 108
4.239334e+000 -2.264026e+000 -9.495745e+000 130 110 108
3.806181e+000 1.606062e+000 -1.068210e+001 158 117 89
-6.204684e-001 1.069237e+000 -8.235341e+000 41 63 34
-2.093903e-001 1.048770e+000 -8.355987e+000 181 165 42
8.532271e-001 1.130095e+000 -8.744734e+000 173 149 123
-6.917229e-001 8.641209e-001 -7.962582e+000 156 72 51
1.103810e+000 9.943308e-001 -8.734067e+000 164 30 37
1.539543e+000 9.927903e-001 -8.784504e+000 21 73 114
-1.404647e+000 7.063256e-001 -7.870338e+000 210 186 149
2.990762e+000 7.432860e-001 -9.073507e+000 26 25 50
-1.330456e-001 5.244005e-001 -7.744389e+000 74 108 115
2.588245e+000 4.640464e-001 -8.738020e+000 179 129 75
2.410046e+000 8.619232e-002 -8.703464e+000 160 29 42
1.424620e+000 -1.976513e-002 -8.332749e+000 155 99 83
2.944139e+000 -8.599127e-002 -9.011596e+000 202 146 110
2.911222e-001 -1.522532e-001 -7.961326e+000 24 57 20
-1.683598e+000 -3.958652e-001 -8.234237e+000 70 46 42
8.563236e-001 -4.247979e-001 -8.383963e+000 175 110 83
-3.674204e-001 -5.479686e-001 -7.978806e+000 34 64 35
-3.688500e-001 -5.513360e-001 -7.992870e+000 34 64 35
-1.333047e-002 -7.472921e-001 -8.387383e+000 146 148 131
-1.333047e-002 -7.472921e-001 -8.387383e+000 146 148 131
-7.309971e-001 -8.218475e-001 -8.186374e+000 188 122 104
4.580826e+000 -9.474632e-001 -8.848728e+000 164 143 139
4.549951e+000 -1.224925e+000 -8.867589e+000 153 135 132
4.125382e+000 -1.988061e+000 -9.839661e+000 53 43 47
4.190715e+000 -1.945155e+000 -9.758909e+000 146 126 125
-3.619129e-001 1.180222e+000 -8.442872e+000 32 56 30
3.005589e+000 1.448746e+000 -9.962860e+000 81 34 27
-6.123893e-001 1.012716e+000 -8.185318e+000 155 147 117
-1.566232e-001 1.019030e+000 -8.341737e+000 30 61 26
5.401475e-001 1.151922e+000 -8.708087e+000 193 36 48
9.018849e-001 1.106707e+000 -8.712900e+000 187 35 37
2.183202e+000 1.248928e+000 -9.350823e+000 161 130 110
6.863417e-001 9.369008e-001 -8.455098e+000 169 149 124
1.123518e+000 9.487365e-001 -8.652777e+000 149 33 29
2.083807e+000 1.073982e+000 -9.107793e+000 135 109 94
1.156415e+000 8.864862e-001 -8.604343e+000 159 23 32
1.665287e+000 6.857420e-001 -8.503213e+000 20 71 108
1.664742e+000 6.860448e-001 -8.502551e+000 20 71 108
2.219856e+000 7.225518e-001 -8.746057e+000 89 45 54
2.485661e+000 7.328634e-001 -8.875680e+000 137 108 94
-1.294964e+000 4.753178e-001 -7.696232e+000 187 160 133
3.601027e+000 7.038950e-001 -9.267005e+000 177 85 31
4.127659e+000 3.006311e-001 -9.319893e+000 195 106 43
4.100156e+000 -9.840986e-002 -9.608184e+000 158 93 24
3.934350e+000 -5.305450e-001 -1.001376e+001 146 136 109
-1.249793e-001 -4.952845e-001 -8.012868e+000 33 58 44
-1.245742e-001 -4.972819e-001 -8.022070e+000 33 58 44
-3.182632e-001 -6.894021e-001 -8.176414e+000 37 60 40
-2.585429e-001 -5.736849e-001 -8.076940e+000 40 63 42
-1.878959e-001 -6.729678e-001 -8.212176e+000 34 58 34
-1.297337e-001 -7.782510e-001 -8.368825e+000 33 62 35
4.653513e+000 -7.682284e-001 -8.690075e+000 148 122 121
4.619402e+000 -8.337980e-001 -8.743198e+000 143 122 117
4.549199e+000 -1.023137e+000 -8.906123e+000 140 119 117
3.953436e+000 -2.460417e+000 -1.021043e+001 147 128 124
-1.015982e-001 1.316554e+000 -8.678767e+000 38 62 33
2.200246e+000 1.331849e+000 -9.484986e+000 76 25 26
2.198121e+000 1.331121e+000 -9.473717e+000 76 25 26
2.470816e+000 1.337345e+000 -9.630956e+000 103 25 23
2.271322e-001 1.116353e+000 -8.547724e+000 175 155 106
2.271562e-001 1.116438e+000 -8.547858e+000 175 155 106
1.045096e+000 7.780701e-001 -8.384644e+000 179 29 38
2.883741e+000 7.580220e-001 -9.043001e+000 161 126 81
1.895653e+000 5.703333e-001 -8.569327e+000 160 90 79
4.020677e+000 4.855315e-001 -9.303277e+000 190 154 123
3.877472e+000 1.919072e-001 -9.244242e+000 150 126 110
2.781177e+000 9.210963e-002 -8.831271e+000 158 17 33
2.781177e+000 9.210963e-002 -8.831271e+000 158 17 33
1.895306e+000 -6.138505e-001 -9.041201e+000 193 128 108
2.447548e+000 -7.077238e-001 -9.451223e+000 172 33 46
3.784888e+000 -8.161648e-001 -1.026648e+001 146 129 112
4.347076e-001 -6.403099e-001 -8.470432e+000 169 122 109
-1.971622e-001 -7.725468e-001 -8.325714e+000 123 136 134
4.440639e+000 -1.298796e+000 -9.148762e+000 146 125 123
-1.021230e+000 1.170523e+000 -8.151313e+000 119 127 125
-6.491541e-001 1.141687e+000 -8.278803e+000 107 126 121
-9.072439e-003 1.002050e+000 -8.368313e+000 176 155 117
-4.449338e-001 7.935172e-001 -7.993433e+000 42 94 115
4.022816e+000 9.390141e-001 -9.718707e+000 162 93 48
1.996608e-001 6.522536e-001 -7.999681e+000 33 57 35
1.304729e-002 5.259384e-001 -7.797656e+000 167 156 115
1.304729e-002 5.259384e-001 -7.797656e+000 167 156 115
1.796197e+000 5.543905e-001 -8.478267e+000 184 137 90
-2.578906e-001 4.638434e-001 -7.628309e+000 26 59 35
-1.557537e-001 3.124780e-001 -7.648211e+000 48 103 124
1.231017e-001 7.668410e-002 -7.765437e+000 156 154 142
3.464265e+000 -7.778179e-002 -9.210794e+000 192 94 47
2.003544e-001 1.200195e+000 -8.613461e+000 136 130 30
4.346149e+000 3.612399e-001 -9.389618e+000 204 96 51
1.098340e+000 1.043479e-001 -8.178448e+000 171 160 140
3.822151e+000 1.525509e+000 -1.060080e+001 147 111 75
2.558068e+000 1.050421e+000 -9.087433e+000 87 59 72
3.452888e+000 7.472936e-001 -9.236057e+000 148 26 40
3.379895e+000 6.024781e-001 -9.111399e+000 168 127 83
-9.538788e-001 -4.359987e-001 -7.768901e+000 19 90 134
2.316878e+000 1.189865e+000 -9.489887e+000 147 116 96
2.782927e+000 1.362104e+000 -9.884543e+000 160 121 78
2.208773e+000 3.575158e-001 -8.539463e+000 177 138 99
-5.215576e-001 5.878703e-001 -7.620641e+000 199 161 124
2.826436e+000 3.323484e-001 -8.821205e+000 169 118 53
1.427127e+000 6.394969e-001 -8.367411e+000 159 24 30
2.159136e+000 2.282834e-001 -8.585286e+000 183 141 103
3.946073e+000 4.253117e-001 -9.367660e+000 194 111 40
2.638310e+000 1.155198e+000 -9.404738e+000 64 38 43
-5.773923e-001 9.367733e-001 -8.136166e+000 159 157 109
-5.773923e-001 9.367733e-001 -8.136166e+000 159 157 109
-4.034551e-001 8.593135e-001 -8.070493e+000 71 106 114
2.715337e+000 8.060555e-001 -9.024958e+000 75 45 49
2.511025e+000 4.807228e-001 -8.707721e+000 160 119 69
3.067298e+000 4.791465e-001 -8.927909e+000 149 141 153
4.001846e+000 5.327122e-001 -9.314156e+000 177 141 122
3.957490e+000 1.412892e-001 -9.299232e+000 68 34 40
1.014232e+000 -5.860922e-002 -8.192532e+000 21 82 117
2.470907e+000 8.053973e-001 -8.937776e+000 143 118 113
2.780441e+000 5.664615e-001 -8.857992e+000 66 26 35
2.531453e+000 -2.896380e-002 -8.822777e+000 164 38 48
2.634912e+000 9.348840e-001 -9.110695e+000 64 39 52
-5.670286e-001 4.911886e-001 -7.543319e+000 171 35 47
2.684988e+000 -4.941678e-002 -8.873966e+000 188 84 80
2.684988e+000 -4.941678e-002 -8.873966e+000 188 84 80
2.934718e+000 2.249417e-001 -8.819935e+000 169 117 67
9.074439e-001 -1.519726e-001 -8.173350e+000 149 75 51
1.063957e-003 8.732034e-001 -8.169472e+000 163 152 106
8.201576e-003 8.728943e-001 -8.173565e+000 163 152 106
2.481960e+000 1.359848e+000 -9.670098e+000 140 61 48
-5.859235e-001 1.012385e+000 -8.197507e+000 65 102 112
1.927921e+000 1.125099e+000 -9.095329e+000 84 65 71
-6.676725e-001 9.246105e-001 -8.056558e+000 197 144 112
-6.473487e-001 9.345729e-001 -8.077869e+000 174 41 38
2.296063e+000 1.028263e+000 -9.121630e+000 24 8 12
-1.280144e+000 7.696230e-001 -7.816035e+000 205 183 148
1.540321e+000 8.069354e-001 -8.599572e+000 171 166 144
1.865839e+000 8.367861e-001 -8.740083e+000 143 88 93
2.455627e+000 9.477302e-001 -9.094174e+000 144 114 104
-5.194971e-001 6.273099e-001 -7.723291e+000 182 27 33
-5.194971e-001 6.273099e-001 -7.723291e+000 182 27 33
1.785218e+000 7.268316e-001 -8.618532e+000 178 87 64
1.857655e+000 7.056847e-001 -8.611949e+000 162 93 81
1.976624e+000 7.395157e-001 -8.689457e+000 71 15 16
2.140269e+000 7.233256e-001 -8.725210e+000 133 105 104
2.140911e+000 7.224098e-001 -8.729311e+000 133 105 104
-1.262604e-001 5.424608e-001 -7.747586e+000 79 112 113
1.744806e+000 5.730600e-001 -8.464506e+000 189 139 87
2.082763e+000 5.776488e-001 -8.597265e+000 129 69 71
3.258501e+000 6.180516e-001 -9.058385e+000 32 69 105
2.175495e+000 4.874762e-001 -8.586399e+000 82 26 33
2.700862e+000 3.870609e-001 -8.769276e+000 131 74 27
2.661846e+000 3.048367e-001 -8.741167e+000 142 86 35
4.603110e-001 -4.319729e-001 -8.230657e+000 133 46 42
-4.830325e-001 -4.691578e-001 -7.852410e+000 165 182 159
-7.742538e-001 1.010268e+000 -8.097592e+000 177 151 114
1.211194e+000 1.065912e+000 -8.751856e+000 156 25 30
1.950095e+000 9.873399e-001 -8.965056e+000 81 60 65
2.680969e+000 1.128382e+000 -9.352238e+000 172 131 97
2.186915e+000 8.779060e-001 -8.939529e+000 135 104 93
1.894533e+000 7.116157e-001 -8.618152e+000 162 94 82
-1.427530e+000 3.826042e-001 -7.334562e+000 178 147 117
1.491560e+000 4.880988e-001 -8.323331e+000 150 20 28
2.737959e+000 4.805268e-001 -8.806541e+000 171 130 79
3.523153e+000 4.310587e-001 -9.075853e+000 204 114 39
1.698122e-001 -4.862209e-002 -7.838716e+000 95 125 132
1.698122e-001 -4.862209e-002 -7.838716e+000 95 125 132
2.442312e+000 -6.309169e-002 -8.785991e+000 168 27 39
-1.603803e-001 -4.353296e-001 -7.978832e+000 170 165 24
4.457094e+000 -1.213379e+000 -9.097861e+000 149 127 129
1.937147e+000 6.205622e-001 -8.566374e+000 178 98 84
1.887925e+000 4.589739e-001 -8.484824e+000 181 138 96
4.522155e+000 -1.440758e+000 -8.921900e+000 131 107 105
4.656318e+000 -1.356911e+000 -8.640630e+000 161 135 139
1.512707e+000 9.030470e-001 -8.698101e+000 136 143 120
-1.928194e-001 6.385293e-001 -7.842835e+000 167 160 41
-1.925080e-001 6.391982e-001 -7.842075e+000 167 160 41
-1.001558e+000 -5.260244e-001 -7.755996e+000 28 97 141
6.341526e-001 9.605495e-001 -8.505343e+000 178 41 39
6.326029e-002 9.349280e-001 -8.273909e+000 33 61 34
4.525224e+000 -1.034135e+000 -8.887633e+000 154 131 129
7.308445e-001 1.340780e+000 -9.005820e+000 182 140 115
1.833626e+000 1.416478e+000 -9.569816e+000 30 67 91
1.909293e+000 1.426109e+000 -9.569598e+000 27 71 90
1.892100e+000 1.373967e+000 -9.450879e+000 28 67 93
2.591322e+000 1.424901e+000 -9.780675e+000 168 125 85
-6.706531e-001 1.085787e+000 -8.207951e+000 148 146 35
-6.706531e-001 1.085787e+000 -8.207951e+000 148 146 35
-4.092980e-001 1.189177e+000 -8.436599e+000 158 154 85
9.136857e-001 1.176672e+000 -8.831749e+000 165 160 124
1.577152e+000 1.228278e+000 -9.121022e+000 87 58 81
2.272220e+000 1.335406e+000 -9.560959e+000 157 38 37
2.456588e+000 1.278732e+000 -9.492373e+000 118 70 61
-7.328636e-001 9.399250e-001 -8.050203e+000 177 28 31
-6.488976e-001 1.022144e+000 -8.195186e+000 56 101 115
-6.381129e-001 9.576862e-001 -8.107427e+000 203 142 103
1.166688e+000 1.092735e+000 -8.807988e+000 187 141 98
1.167508e+000 1.092221e+000 -8.818146e+000 187 141 98
2.450611e+000 1.159499e+000 -9.343439e+000 109 45 37
2.515957e+000 1.183620e+000 -9.404568e+000 140 86 79
2.512823e+000 1.182497e+000 -9.388975e+000 140 86 79
-7.440153e-001 9.216336e-001 -8.027950e+000 192 156 118
-7.232246e-001 8.767053e-001 -7.978050e+000 188 146 106
-7.233767e-001 8.773472e-001 -7.972263e+000 188 146 106
-6.835476e-001 8.339754e-001 -7.936866e+000 171 20 27
1.188050e+000 1.046075e+000 -8.750222e+000 210 145 113
1.186903e+000 9.862725e-001 -8.694342e+000 198 158 100
1.316806e+000 9.391183e-001 -8.669606e+000 167 43 45
1.453062e+000 9.804073e-001 -8.770855e+000 166 167 149
1.453150e+000 9.807794e-001 -8.769776e+000 166 167 149
1.954342e+000 1.054893e+000 -9.027322e+000 84 61 69
2.190434e+000 9.713161e-001 -9.047540e+000 138 110 91
2.310787e+000 1.044055e+000 -9.149471e+000 133 115 100
2.332015e+000 1.058336e+000 -9.171239e+000 50 27 11
2.311602e+000 9.862497e-001 -9.081296e+000 31 12 12
2.514493e+000 1.080627e+000 -9.253211e+000 151 107 100
2.518511e+000 1.079333e+000 -9.264147e+000 151 107 100
-6.500550e-001 7.584367e-001 -7.848456e+000 204 155 123
-6.484387e-001 7.597423e-001 -7.840685e+000 204 155 123
-6.490085e-001 7.251641e-001 -7.805723e+000 204 146 107
-6.499220e-001 7.247931e-001 -7.806428e+000 204 146 107
-5.770033e-001 8.305879e-001 -7.964121e+000 191 129 89
-5.770033e-001 8.305879e-001 -7.964121e+000 191 129 89
-6.035259e-001 7.921984e-001 -7.917074e+000 182 159 116
1.261768e-001 7.710028e-001 -8.098696e+000 140 149 44
1.261768e-001 7.710028e-001 -8.098696e+000 140 149 44
1.249690e+000 8.656365e-001 -8.565901e+000 209 154 126
1.509648e+000 9.271397e-001 -8.730617e+000 38 81 117
1.507453e+000 9.266035e-001 -8.730871e+000 38 81 117
1.533128e+000 8.329440e-001 -8.634869e+000 13 63 111
1.847738e+000 8.889191e-001 -8.785701e+000 97 48 53
1.841456e+000 8.473021e-001 -8.763820e+000 100 56 67
2.027635e+000 8.788590e-001 -8.850135e+000 91 64 73
2.457754e+000 9.301104e-001 -9.045810e+000 146 113 101
2.445975e+000 9.383644e-001 -9.013539e+000 146 113 101
-6.092203e-001 6.845999e-001 -7.765040e+000 177 40 55
-6.192774e-001 6.686605e-001 -7.741252e+000 193 159 107
-5.901670e-001 7.089112e-001 -7.808645e+000 169 36 39
-5.900002e-001 7.090976e-001 -7.808750e+000 169 36 39
-5.869365e-001 6.919925e-001 -7.786556e+000 186 144 102
-5.431891e-001 7.163512e-001 -7.830458e+000 168 35 45
-5.416149e-001 6.705389e-001 -7.772228e+000 189 146 103
-2.839270e-001 6.797514e-001 -7.848096e+000 155 154 45
-2.410781e-001 6.420448e-001 -7.829759e+000 88 118 111
-2.410781e-001 6.420448e-001 -7.829759e+000 88 118 111
1.869278e+000 8.031526e-001 -8.714682e+000 156 91 85
1.894987e+000 7.711305e-001 -8.701043e+000 174 96 84
2.656523e+000 7.474109e-001 -8.965092e+000 83 38 42
-1.620337e+000 5.090273e-001 -7.857348e+000 191 176 136
-4.622580e-001 5.845154e-001 -7.690887e+000 192 157 117
1.827387e+000 6.345351e-001 -8.564789e+000 166 101 75
2.964630e+000 6.879384e-001 -9.027606e+000 36 23 37
3.266074e+000 6.305903e-001 -9.098433e+000 35 70 97
3.288674e+000 6.496990e-001 -9.106107e+000 169 128 90
3.796779e+000 7.428108e-001 -9.334721e+000 200 131 92
4.020813e+000 7.020732e-001 -9.440925e+000 176 145 121
-4.311098e-001 5.143301e-001 -7.626475e+000 215 153 116
-3.836325e-001 4.852941e-001 -7.613044e+000 187 37 36
-3.839108e-001 4.853520e-001 -7.613171e+000 187 37 36
1.943763e+000 5.793671e-001 -8.542428e+000 163 92 89
1.943763e+000 5.793671e-001 -8.542428e+000 163 92 89
2.754692e+000 5.858546e-001 -8.875526e+000 118 77 83
-1.117646e-001 4.076382e-001 -7.649947e+000 169 157 37
2.694589e+000 3.893518e-001 -8.752096e+000 134 73 27
3.079921e+000 4.582172e-001 -8.919329e+000 34 25 52
3.079921e+000 4.582172e-001 -8.919329e+000 34 25 52
3.960217e+000 4.675074e-001 -9.259126e+000 192 148 114
2.893206e+000 2.797687e-001 -8.776097e+000 160 88 25
3.452065e+000 2.731186e-002 -9.150126e+000 199 88 44
2.704233e+000 5.185600e-002 -8.753774e+000 167 22 39
9.846518e-001 -2.061712e-001 -8.280668e+000 27 83 111
-1.227081e+000 1.087012e+000 -8.166856e+000 171 151 121
-1.438069e+000 8.950335e-001 -8.067852e+000 203 179 145
-2.545320e-001 1.033992e+000 -8.322518e+000 100 126 112
2.417412e+000 1.227740e+000 -9.448619e+000 118 54 42
-6.832613e-001 8.338039e-001 -7.937344e+000 168 17 25
-1.277867e+000 7.230756e-001 -7.787454e+000 206 184 142
-1.277867e+000 7.230756e-001 -7.787454e+000 206 184 142
-7.088523e-001 7.682705e-001 -7.889386e+000 180 40 38
-6.817544e-001 7.836862e-001 -7.877752e+000 197 152 109
-5.682038e-001 7.925298e-001 -7.928144e+000 195 158 119
1.232097e+000 9.090125e-001 -8.618429e+000 157 24 41
1.983305e+000 9.064819e-001 -8.874367e+000 81 58 62
1.582231e+000 7.387185e-001 -8.551928e+000 20 68 109
1.581809e+000 7.389987e-001 -8.550209e+000 20 68 109
1.913690e+000 7.523332e-001 -8.676031e+000 105 45 52
2.357178e+000 8.016347e-001 -8.919408e+000 143 117 102
1.843063e+000 6.600647e-001 -8.564130e+000 96 27 26
1.937990e+000 6.799348e-001 -8.621039e+000 88 29 43
1.904920e+000 6.421419e-001 -8.576532e+000 89 28 24
2.061952e+000 6.880548e-001 -8.675414e+000 81 45 57
2.032557e+000 6.733064e-001 -8.642133e+000 129 94 88
2.709592e+000 7.127804e-001 -8.883422e+000 143 106 101
2.709995e+000 6.861404e-001 -8.934900e+000 74 29 37
2.693698e+000 6.203883e-001 -8.871692e+000 65 23 27
-1.328808e+000 4.242197e-001 -7.695718e+000 210 183 152
-2.178394e-001 4.888262e-001 -7.677118e+000 165 149 39
2.120617e+000 5.346037e-001 -8.547495e+000 85 27 40
2.625068e+000 5.008184e-001 -8.768081e+000 99 46 58
3.130500e+000 5.575187e-001 -9.009880e+000 15 64 109
3.287767e+000 5.716151e-001 -9.003151e+000 178 135 95
3.515303e+000 5.118017e-001 -9.114608e+000 155 55 43
2.745147e+000 3.828963e-001 -8.775988e+000 183 133 80
2.523422e+000 3.165609e-001 -8.689457e+000 100 35 33
2.664255e+000 3.073284e-001 -8.751497e+000 143 87 38
-1.569622e+000 -1.186972e-001 -7.863142e+000 189 166 134
1.762437e+000 -1.515338e-001 -8.573252e+000 117 64 50
2.966246e+000 -4.215742e-001 -9.314989e+000 202 124 96
-6.383000e-001 -4.754832e-001 -7.773618e+000 186 37 55
2.163382e-001 -4.664887e-001 -8.128009e+000 169 165 50
1.181460e+000 -5.173624e-001 -8.587539e+000 188 131 117
1.246221e+000 -4.815986e-001 -8.575726e+000 128 64 48
-5.933355e-001 -5.717842e-001 -7.882889e+000 190 129 101
4.472939e+000 -1.905412e+000 -9.047559e+000 160 136 136
3.654662e+000 -3.044270e+000 -1.079911e+001 54 42 47
3.931415e+000 1.553774e+000 -1.055338e+001 31 20 29
7.735556e-001 1.228584e+000 -8.855116e+000 175 157 124
1.589511e+000 1.263337e+000 -9.174444e+000 139 24 35
1.980778e+000 1.354627e+000 -9.445080e+000 24 69 103
2.398282e+000 1.340065e+000 -9.581606e+000 148 56 42
2.588752e+000 1.242178e+000 -9.505738e+000 86 58 56
3.909638e+000 1.112728e+000 -9.782552e+000 124 27 38
1.046211e+000 8.220748e-001 -8.449420e+000 182 42 52
-1.319428e+000 6.403716e-001 -7.789412e+000 207 184 147
-6.653161e-001 6.941614e-001 -7.802468e+000 187 36 50
-5.066194e-001 6.301195e-001 -7.723965e+000 179 32 35
3.236462e+000 7.617133e-001 -9.182637e+000 170 113 74
-5.681860e-001 5.779185e-001 -7.638458e+000 194 160 130
1.053236e+000 6.175984e-001 -8.239800e+000 182 156 127
2.172268e+000 6.056487e-001 -8.666213e+000 114 55 61
-5.764222e-001 5.221633e-001 -7.543457e+000 190 41 50
2.144426e+000 5.449185e-001 -8.632983e+000 92 35 47
2.830919e+000 1.059873e-001 -8.883904e+000 160 25 37
2.830919e+000 1.059873e-001 -8.883904e+000 160 25 37
1.339050e+000 -3.847300e-002 -8.302139e+000 110 59 50
3.734143e+000 -1.203973e-001 -9.378218e+000 175 150 119
7.751712e-002 -2.215265e-001 -7.897835e+000 131 135 72
2.710281e-001 -1.121124e-001 -7.930000e+000 160 159 90
9.904439e-001 -3.571409e-001 -8.391023e+000 10 51 93
2.510853e+000 -4.824356e-001 -9.157663e+000 157 20 36
-6.047932e-002 -4.326537e-001 -7.960370e+000 64 108 121
4.578233e+000 -8.418045e-001 -8.790482e+000 47 31 37
3.819732e+000 -2.756472e+000 -1.048847e+001 143 127 125
2.514743e-001 1.241488e+000 -8.708959e+000 27 63 34
7.478972e-001 1.311969e+000 -8.971218e+000 168 106 88
7.479498e-001 1.312197e+000 -8.971017e+000 168 106 88
-6.199941e-001 1.068826e+000 -8.235695e+000 30 53 27
1.538339e+000 1.288286e+000 -9.206358e+000 92 25 39
2.252872e+000 1.304000e+000 -9.510500e+000 84 21 32
2.547043e+000 1.275895e+000 -9.544401e+000 90 55 67
-1.489184e+000 8.629699e-001 -8.102029e+000 154 130 96
-6.946236e-001 1.038646e+000 -8.154934e+000 23 84 114
-1.454891e+000 7.936763e-001 -7.994051e+000 203 176 146
-7.523118e-001 8.959719e-001 -7.999662e+000 171 33 33
-1.360689e+000 7.291620e-001 -7.864320e+000 206 182 148
-1.320174e+000 6.714658e-001 -7.787888e+000 206 183 146
-1.326410e+000 6.651937e-001 -7.821576e+000 206 183 146
-6.767408e-001 7.424530e-001 -7.828045e+000 177 33 49
-6.771326e-001 7.439494e-001 -7.816991e+000 177 33 49
-5.200996e-001 7.591525e-001 -7.877708e+000 184 42 43
-5.200996e-001 7.591525e-001 -7.877708e+000 184 42 43
-4.108205e-001 8.265965e-001 -8.106368e+000 69 107 124
1.511407e+000 9.006416e-001 -8.701403e+000 74 108 119
1.825446e+000 9.300001e-001 -8.840096e+000 128 63 63
2.134805e+000 8.687218e-001 -8.868596e+000 77 56 65
-6.267505e-001 6.434701e-001 -7.714990e+000 173 38 47
-6.035502e-001 5.992025e-001 -7.660385e+000 169 31 31
2.000850e+000 6.563069e-001 -8.603134e+000 88 39 45
-5.443217e-001 5.207870e-001 -7.586097e+000 195 160 125
9.297667e-001 5.603296e-001 -8.145834e+000 167 70 63
9.316743e-001 5.588136e-001 -8.156629e+000 167 70 63
1.982886e+000 5.819800e-001 -8.561605e+000 90 33 48
2.413836e+000 5.578195e-001 -8.718019e+000 70 19 27
2.744042e+000 5.159372e-001 -8.828510e+000 68 28 32
4.109139e+000 4.505637e-001 -9.318094e+000 185 69 41
9.525418e-001 -1.111323e-001 -8.133922e+000 125 22 38
8.664268e-001 -3.467495e-001 -8.332560e+000 191 122 103
4.175169e+000 -2.163472e+000 -9.683711e+000 155 134 131
3.765831e+000 -2.791207e+000 -1.048526e+001 143 128 128
1.403088e+000 1.287852e+000 -9.136785e+000 18 63 96
1.082045e+000 1.045514e+000 -8.758592e+000 161 29 36
1.717147e+000 1.200746e+000 -9.163369e+000 134 78 80
2.101565e+000 9.247005e-001 -8.945721e+000 81 53 72
1.915350e+000 8.265130e-001 -8.748461e+000 85 33 35
1.915350e+000 8.265130e-001 -8.748461e+000 85 33 35
2.175649e+000 7.857241e-001 -8.802736e+000 91 67 84
-5.783591e-001 5.441543e-001 -7.608029e+000 187 44 49
2.153120e+000 4.997085e-001 -8.589157e+000 116 56 64
2.727617e+000 -2.223242e-001 -9.024289e+000 168 27 34
1.962210e-001 -5.305646e-001 -8.184806e+000 35 56 42
4.616610e+000 -7.385913e-001 -8.715384e+000 52 41 50
4.641256e+000 -9.193304e-001 -8.655097e+000 150 126 124
4.490723e+000 -1.156505e+000 -9.024460e+000 155 135 127
4.076699e+000 -2.032425e+000 -9.868474e+000 59 45 54
4.506339e+000 -1.783528e+000 -8.928881e+000 150 130 129
4.010654e+000 -2.524618e+000 -1.004532e+001 168 144 142
-1.044745e-001 1.321295e+000 -8.677304e+000 29 55 26
5.791088e-002 1.120979e+000 -8.484695e+000 179 159 105
5.723640e-002 1.120224e+000 -8.485118e+000 179 159 105
1.453256e+000 1.224688e+000 -9.104716e+000 32 29 57
1.533494e+000 1.200210e+000 -9.076867e+000 184 129 96
-3.234068e-001 9.396401e-001 -8.181720e+000 176 167 85
1.764511e-001 9.778590e-001 -8.379812e+000 32 61 33
-1.352593e+000 5.544809e-001 -7.758684e+000 156 129 101
-1.352593e+000 5.544809e-001 -7.758684e+000 156 129 101
-2.263325e-001 7.411636e-001 -7.957910e+000 168 160 82
1.969241e-001 5.234296e-001 -7.861530e+000 175 161 76
7.076175e-002 1.165470e+000 -8.569648e+000 177 158 105
1.364131e+000 1.049205e+000 -8.869404e+000 16 70 100
1.041969e+000 7.798056e-001 -8.381534e+000 183 49 55
-2.055709e-001 5.186092e-001 -7.686516e+000 84 114 113
-6.470309e-001 1.145076e+000 -8.262547e+000 115 130 126
9.680192e-001 1.064650e+000 -8.664883e+000 173 156 126
8.692418e-002 6.637982e-001 -7.934803e+000 172 156 126
5.214155e-001 6.706013e-001 -8.120081e+000 170 156 128
4.440823e-001 6.028362e-001 -8.025941e+000 36 55 39
-1.312418e+000 4.293453e-001 -7.714503e+000 141 114 87
-3.183117e-003 5.269193e-001 -7.794705e+000 166 158 125
4.048385e+000 -2.179287e+000 -9.860723e+000 133 112 109
2.935054e+000 1.598935e+000 -1.040432e+001 41 35 42
4.306512e-001 1.069430e+000 -8.489754e+000 174 158 125
2.542102e+000 1.177254e+000 -9.341044e+000 96 67 75
1.419675e+000 -7.353235e-001 -9.006117e+000 204 139 115
-3.892294e-001 1.027118e+000 -8.387595e+000 179 164 34
-6.787576e-001 8.425261e-001 -8.123108e+000 191 147 113
2.609034e-001 8.757443e-001 -8.327776e+000 31 58 27
2.117326e+000 5.768748e-001 -8.632807e+000 91 29 40
4.208980e+000 1.210153e+000 -9.904309e+000 40 30 38
3.909469e+000 4.425183e-001 -9.288538e+000 187 100 33
1.956518e+000 1.462686e+000 -9.589104e+000 85 105 109
1.989156e+000 1.420711e+000 -9.523300e+000 78 101 117
2.001960e+000 1.404042e+000 -9.522433e+000 84 109 123
2.001960e+000 1.404042e+000 -9.522433e+000 84 109 123
2.074756e+000 1.396131e+000 -9.556056e+000 83 104 121
2.149223e+000 1.379446e+000 -9.442738e+000 58 12 14
3.134306e+000 1.394703e+000 -9.899531e+000 115 68 38
1.356867e+000 1.212794e+000 -9.001144e+000 22 62 89
1.386419e+000 1.158145e+000 -8.946008e+000 20 70 104
1.386419e+000 1.158145e+000 -8.946008e+000 20 70 104
2.492227e+000 1.227633e+000 -9.414704e+000 166 113 100
2.492227e+000 1.227633e+000 -9.414704e+000 166 113 100
2.534354e+000 1.216323e+000 -9.452365e+000 89 60 66
1.174252e+000 9.243752e-001 -8.612683e+000 187 149 106
1.233487e+000 9.100741e-001 -8.616425e+000 149 22 40
1.538110e+000 8.686956e-001 -8.673974e+000 23 64 99
-1.418851e+000 6.435344e-001 -7.858238e+000 155 128 97
-1.418851e+000 6.435344e-001 -7.858238e+000 155 128 97
-1.362994e+000 6.539317e-001 -7.816676e+000 210 184 151
-1.274300e+000 6.799663e-001 -7.765962e+000 205 181 145
-5.573802e-001 7.004291e-001 -7.807237e+000 174 154 104
1.044164e+000 7.346410e-001 -8.356319e+000 171 153 120
1.046879e+000 7.381220e-001 -8.356474e+000 171 153 120
1.871245e+000 8.007589e-001 -8.722523e+000 153 92 87
2.031725e+000 8.384654e-001 -8.809837e+000 92 59 68
2.421581e+000 8.395352e-001 -8.950304e+000 151 127 108
-1.298907e+000 4.926712e-001 -7.698308e+000 216 192 156
-5.289740e-001 6.468035e-001 -7.744025e+000 186 145 106
-2.335517e-001 6.696896e-001 -7.819555e+000 147 148 38
-2.497731e-001 6.157612e-001 -7.816140e+000 155 145 50
1.841697e+000 7.358963e-001 -8.635192e+000 164 91 83
1.845319e+000 7.313204e-001 -8.646691e+000 164 91 83
1.970243e+000 6.734809e-001 -8.627978e+000 160 91 83
1.908969e+000 6.685780e-001 -8.597725e+000 162 90 91
3.855224e+000 7.125835e-001 -9.406486e+000 154 81 52
-1.286247e+000 4.486410e-001 -7.675595e+000 215 191 156
-5.172457e-001 5.348736e-001 -7.616122e+000 185 151 114
1.923542e+000 5.642317e-001 -8.531797e+000 88 29 32
2.176336e+000 5.299031e-001 -8.633286e+000 115 66 73
3.079755e+000 6.079968e-001 -8.935758e+000 33 72 96
1.588534e+000 4.308045e-001 -8.320284e+000 153 55 54
2.022406e+000 4.724229e-001 -8.532786e+000 81 26 30
3.197065e+000 -1.782213e-001 -9.218132e+000 187 132 91
2.775612e-001 -2.896109e-001 -8.074487e+000 45 48 43
4.735265e+000 -1.022589e+000 -8.643438e+000 162 139 135
1.574143e-001 1.409898e+000 -8.908667e+000 76 84 53
9.958697e-001 1.410543e+000 -9.230676e+000 169 154 117
2.538205e+000 1.381698e+000 -9.697314e+000 158 87 62
-1.175459e+000 1.088397e+000 -7.952930e+000 168 147 114
2.423322e+000 1.279759e+000 -9.498676e+000 153 110 87
1.187557e+000 1.116640e+000 -8.793749e+000 157 27 39
2.553623e+000 1.152550e+000 -9.345188e+000 81 56 57
1.895750e+000 9.994451e-001 -8.895083e+000 105 82 85
-6.817334e-001 7.831166e-001 -7.878715e+000 196 150 103
1.993171e+000 9.287712e-001 -8.895631e+000 107 83 83
1.990931e+000 8.979153e-001 -8.908588e+000 89 64 69
1.997236e+000 8.672503e-001 -8.839432e+000 79 50 59
-1.361389e+000 6.153807e-001 -7.801573e+000 210 184 149
-1.359206e+000 6.170028e-001 -7.796915e+000 210 184 149
-5.408098e-001 7.246237e-001 -7.805700e+000 183 31 46
1.953610e+000 8.002779e-001 -8.743217e+000 80 42 42
2.687297e+000 7.900433e-001 -9.016374e+000 156 117 110
2.756902e+000 7.896800e-001 -9.045093e+000 118 88 86
2.042783e+000 7.326247e-001 -8.705112e+000 70 41 38
1.937806e+000 6.480042e-001 -8.595046e+000 164 83 77
3.899395e+000 7.527356e-001 -9.449499e+000 175 138 113
1.890976e+000 6.150193e-001 -8.554214e+000 161 91 83
1.913054e+000 5.362790e-001 -8.519850e+000 165 90 85
3.306633e+000 6.404368e-001 -9.140210e+000 160 120 84
1.277137e+000 3.744780e-002 -8.281440e+000 12 77 123
3.637430e+000 -1.440027e-001 -9.392388e+000 213 131 64
1.831320e+000 -1.390025e-001 -8.629525e+000 192 135 104
1.999242e+000 -1.230907e-001 -8.669038e+000 191 138 105
2.189761e+000 -1.162561e-001 -8.745332e+000 195 141 106
2.996412e+000 -3.496534e-001 -9.275237e+000 201 142 109
5.393759e-003 -5.325745e-001 -8.130019e+000 24 52 19
4.561573e+000 -9.979957e-001 -8.746199e+000 127 103 99
1.210801e-001 1.377112e+000 -8.890072e+000 147 142 94
2.761495e+000 1.515170e+000 -9.931912e+000 110 61 28
2.019192e+000 1.364687e+000 -9.434452e+000 64 97 111
1.148911e+000 1.063769e+000 -8.773338e+000 153 26 40
-6.208329e-001 8.639330e-001 -7.995332e+000 177 31 39
1.271916e+000 1.036759e+000 -8.779950e+000 198 109 99
1.271739e+000 1.036732e+000 -8.779937e+000 198 109 99
-1.371552e+000 7.751554e-001 -7.920106e+000 203 181 142
-2.024782e-001 8.075444e-001 -8.076949e+000 32 50 34
-1.296217e+000 6.160110e-001 -7.736951e+000 213 186 151
1.898562e+000 7.121644e-001 -8.618079e+000 164 89 74
9.872711e-001 5.165446e-001 -8.146896e+000 169 152 118
2.348232e+000 6.223478e-001 -8.725904e+000 173 130 111
3.581426e+000 6.627991e-001 -9.242851e+000 173 87 31
2.361101e+000 3.978316e-001 -8.630485e+000 142 70 35
3.871799e+000 2.655098e-001 -9.210146e+000 32 22 26
-1.815071e+000 -3.442947e-001 -8.825267e+000 193 167 134
3.818437e+000 9.626001e-002 -9.288604e+000 191 171 141
1.388364e+000 -5.009647e-002 -8.368882e+000 190 125 103
1.432915e+000 -3.667629e-002 -8.379198e+000 129 67 55
1.544554e+000 1.138991e-001 -8.322003e+000 173 159 132
2.285713e+000 -4.741238e-002 -8.741156e+000 195 139 108
2.366605e+000 -3.171815e-002 -8.715152e+000 163 26 37
4.686552e+000 -8.531915e-001 -8.753498e+000 123 101 103
4.105688e+000 -2.041624e+000 -9.815301e+000 154 136 134
4.022116e+000 -2.315322e+000 -1.000734e+001 131 107 108
1.549010e+000 1.248942e+000 -9.155695e+000 179 118 82
-1.386808e+000 8.729374e-001 -8.006625e+000 204 178 141
-6.346272e-001 7.827387e-001 -7.887785e+000 171 33 41
-4.000595e-001 4.959666e-001 -7.616972e+000 171 26 41
4.233568e+000 5.481554e-001 -9.288761e+000 171 78 44
-1.619653e+000 -3.384717e-001 -8.046971e+000 165 133 103
3.391662e+000 -3.827638e-001 -9.499811e+000 131 55 16
-1.558020e+000 -5.754902e-001 -8.207283e+000 162 134 104
8.025937e-001 -4.504793e-001 -8.409051e+000 159 36 40
2.899889e+000 -9.261183e-001 -9.972852e+000 41 32 40
-3.708259e-001 -5.672160e-001 -8.019444e+000 35 63 30
2.012605e-001 -6.728147e-001 -8.374531e+000 164 165 135
-9.459307e-001 1.174642e+000 -8.219526e+000 50 100 118
7.748876e-001 1.267633e+000 -8.901346e+000 178 114 93
6.444180e-001 1.231238e+000 -8.811773e+000 169 148 119
1.292299e+000 1.204171e+000 -9.047991e+000 17 63 90
8.500793e-001 1.129741e+000 -8.757955e+000 164 147 115
6.907195e-001 9.402830e-001 -8.446213e+000 143 146 115
-1.413458e+000 7.008595e-001 -7.899155e+000 206 180 146
-1.357801e+000 7.304913e-001 -7.855196e+000 208 184 147
1.189574e-001 8.099005e-001 -8.138529e+000 29 60 27
1.183409e+000 9.391521e-001 -8.613914e+000 136 42 27
8.773668e-002 7.644957e-001 -8.093352e+000 173 149 56
2.109999e+000 7.937160e-001 -8.782523e+000 108 77 75
5.060972e-001 6.381803e-001 -8.080213e+000 162 151 100
5.033939e-001 6.411129e-001 -8.069133e+000 162 151 100
3.873433e+000 6.857152e-001 -9.348259e+000 180 146 111
3.454957e+000 6.565910e-001 -9.189393e+000 164 117 81
2.865604e+000 5.311061e-001 -8.892213e+000 82 57 64
4.081799e-002 -2.774278e-001 -7.982606e+000 27 56 35
2.233787e+000 -3.800883e-001 -8.944673e+000 201 138 106
4.295059e+000 -1.681195e+000 -9.598564e+000 55 45 48
-5.445738e-003 1.295699e+000 -8.682682e+000 99 124 100
-8.054237e-001 1.013204e+000 -8.110341e+000 174 85 68
-8.054237e-001 1.013204e+000 -8.110341e+000 174 85 68
-1.309268e-001 1.030071e+000 -8.298516e+000 29 52 34
6.151137e-001 1.132690e+000 -8.663210e+000 165 146 115
1.316191e+000 1.149029e+000 -8.991134e+000 17 65 94
-3.218890e-001 9.392479e-001 -8.183756e+000 171 150 75
1.426020e-001 9.327146e-001 -8.287447e+000 177 157 83
2.271820e+000 1.004288e+000 -9.071909e+000 29 17 25
-2.931377e-001 7.750309e-001 -8.028366e+000 25 48 33
-4.042380e-002 8.268792e-001 -8.085678e+000 32 53 34
-4.042380e-002 8.268792e-001 -8.085678e+000 32 53 34
1.154959e+000 8.861708e-001 -8.592841e+000 146 26 35
4.020593e+000 9.895936e-001 -9.730439e+000 148 86 48
2.552755e+000 6.191923e-001 -8.827522e+000 143 116 97
4.080481e+000 5.113243e-002 -9.447793e+000 192 107 40
-5.660888e-001 -4.389506e-001 -7.858824e+000 29 93 136
3.066294e+000 1.529035e+000 -1.019569e+001 149 106 64
-9.939662e-003 1.115314e+000 -8.541654e+000 27 52 36
-6.920283e-002 1.054941e+000 -8.376151e+000 172 155 107
-1.439357e-001 8.251847e-001 -8.085480e+000 167 147 106
-7.366509e-002 7.409028e-001 -8.037561e+000 169 153 103
-7.351835e-002 7.438373e-001 -8.034267e+000 169 153 103
3.614080e+000 7.045145e-001 -9.260438e+000 175 87 31
5.106475e-002 1.740853e-001 -7.713184e+000 89 119 129
4.105715e+000 1.523096e-001 -9.397371e+000 206 121 61
2.584637e+000 -4.498458e-001 -9.194503e+000 171 37 48
3.104607e+000 1.444922e+000 -1.001946e+001 47 16 21
6.939122e-001 6.748931e-001 -8.167992e+000 159 143 117
-4.586721e-003 5.268284e-001 -7.794646e+000 159 146 108
2.071267e-001 1.208972e+000 -8.599979e+000 124 119 35
1.466389e+000 1.289824e+000 -9.198566e+000 144 40 42
1.466389e+000 1.289824e+000 -9.198566e+000 144 40 42
3.899444e+000 -1.808427e-001 -9.616630e+000 172 143 122
2.101902e-001 1.206118e+000 -8.595055e+000 99 101 31
4.083078e-001 1.196724e+000 -8.704509e+000 165 149 116
3.716729e+000 8.476512e-001 -9.475906e+000 142 23 43
3.716729e+000 8.476512e-001 -9.475906e+000 142 23 43
3.257167e-001 -7.002739e-001 -8.534315e+000 160 159 141
-4.564420e-001 2.899251e-001 -7.508270e+000 91 124 133
4.127932e+000 -2.039080e-001 -9.557124e+000 35 24 33
4.225653e+000 7.658128e-001 -9.387452e+000 41 30 38
3.277134e+000 -3.438920e-001 -9.660967e+000 195 142 95
3.362143e+000 1.181883e+000 -9.846042e+000 153 111 71
3.362143e+000 1.181883e+000 -9.846042e+000 153 111 71
-3.231689e+001 -2.259641e+001 -8.090187e+001 65 46 50
-2.694261e+001 -2.691158e+001 -7.307885e+001 162 128 104
-3.061308e+001 -2.623749e+001 -7.393157e+001 74 45 28
-2.699147e+001 -2.629641e+001 -7.507417e+001 119 90 76
-2.699147e+001 -2.629641e+001 -7.507417e+001 119 90 76
-2.848448e+001 -2.637939e+001 -7.119780e+001 156 125 104
2.025484e+000 1.071040e+000 -9.059480e+000 96 73 79
1.534023e+000 8.692510e-001 -8.675071e+000 12 69 115
-5.329994e-001 5.496805e-001 -7.620945e+000 165 38 41
2.229052e+000 4.870438e-001 -8.608324e+000 91 38 45
2.684829e+000 9.492938e-001 -9.152751e+000 122 93 96
2.083603e+000 5.772915e-001 -8.590517e+000 128 66 75
2.510487e+000 4.248158e-001 -8.687961e+000 178 130 81
1.205818e+000 1.017456e+000 -8.728410e+000 157 33 30
4.551768e+000 -1.226759e+000 -8.870534e+000 157 137 130
4.557023e+000 -1.938721e+000 -8.825765e+000 163 144 138
2.859204e+000 9.672674e-003 -8.926992e+000 201 141 105
-2.814948e+001 -3.025095e+001 -6.979185e+001 146 123 110
-2.607277e+001 -3.051492e+001 -7.153992e+001 142 113 97
-6.848326e-001 8.637796e-001 -7.981395e+000 149 73 51
-2.519914e+001 -3.340428e+001 -6.870744e+001 123 93 81
-2.533668e+001 -3.364714e+001 -6.911740e+001 123 93 81
-2.763855e+001 -2.872271e+001 -6.911155e+001 155 124 106
-7.731274e-002 9.511375e-001 -8.195801e+000 27 60 26
-2.911882e+001 -2.998482e+001 -7.075157e+001 56 37 37
-2.689732e+001 -2.810456e+001 -7.471489e+001 118 94 74
-2.976682e+001 -3.104998e+001 -6.792333e+001 31 30 47
1.828578e+000 1.421759e+000 -9.581346e+000 29 60 84
2.036384e+000 1.444396e+000 -9.598841e+000 79 98 106
2.071075e+000 1.398665e+000 -9.546327e+000 83 104 121
-3.934565e-001 1.131824e+000 -8.382527e+000 91 108 93
-3.914326e-001 1.136454e+000 -8.368655e+000 91 108 93
1.477913e+000 1.289287e+000 -9.182245e+000 141 42 41
2.356008e+000 1.253369e+000 -9.371471e+000 166 122 99
-6.185390e-001 9.923533e-001 -8.160372e+000 166 33 38
-7.327797e-001 9.399449e-001 -8.049855e+000 180 26 37
1.139685e+000 1.013456e+000 -8.691554e+000 184 156 106
-1.272125e+000 6.811535e-001 -7.765189e+000 205 181 145
2.002252e+000 8.481534e-001 -8.818883e+000 84 57 63
2.417988e+000 8.769045e-001 -8.982096e+000 157 125 111
-5.699561e-001 6.374977e-001 -7.717489e+000 186 142 109
3.643098e-001 6.576235e-001 -8.045747e+000 156 150 46
-3.030269e-001 4.371799e-001 -7.580454e+000 148 146 29
1.745499e+000 5.140844e-001 -8.439444e+000 178 134 80
3.000534e+000 5.296236e-001 -8.931495e+000 32 30 58
2.308122e+000 4.047732e-001 -8.534783e+000 174 120 76
2.647319e+000 3.196938e-001 -8.753466e+000 126 73 31
3.154563e-001 -7.050000e-002 -7.911558e+000 88 93 61
4.591779e+000 -7.747930e-001 -8.782313e+000 45 32 42
2.156184e+000 1.270697e+000 -9.383596e+000 166 134 109
1.275081e+000 9.361484e-001 -8.672496e+000 155 28 39
1.275081e+000 9.361484e-001 -8.672496e+000 155 28 39
1.768435e+000 8.342048e-001 -8.688142e+000 77 24 33
4.041606e-001 4.204546e-001 -7.877639e+000 164 150 28
4.235570e+000 5.081498e-001 -9.369296e+000 125 35 17
1.066209e+000 -6.870936e-003 -8.186139e+000 13 67 103
4.464367e+000 -1.400835e+000 -9.128019e+000 171 148 142
1.997611e+000 1.003128e+000 -8.995361e+000 87 62 68
8.956170e-001 6.647758e-001 -8.206992e+000 154 148 116
4.123163e+000 -1.999183e+000 -9.845912e+000 58 44 45
1.476244e+000 9.842694e-001 -8.775520e+000 91 97 87
4.037607e+000 1.039533e+000 -9.828732e+000 135 73 48
-4.008723e-001 4.962881e-001 -7.615549e+000 171 26 41
2.752684e+000 4.764477e-001 -8.798992e+000 166 123 69
4.179444e+000 -1.933682e+000 -9.726803e+000 145 130 127
2.569707e+000 6.828228e-001 -8.863092e+000 155 119 105
4.367429e+000 -1.389017e+000 -9.296962e+000 51 39 49
4.178068e+000 -1.899099e+000 -9.783968e+000 49 41 41
3.286011e-001 1.011797e+000 -8.412033e+000 32 56 32
9.615678e-001 8.238382e-001 -8.425622e+000 162 148 121
9.615678e-001 8.238382e-001 -8.425622e+000 162 148 121
5.208893e-001 8.815997e-001 -8.276233e+000 163 147 116
9.749052e-001 5.533439e-001 -8.175776e+000 169 147 116
1.347960e+000 5.528140e-001 -8.310039e+000 150 23 32
1.617276e+000 5.467523e-001 -8.418877e+000 16 69 109
1.654288e-001 1.371959e+000 -8.900109e+000 148 142 47
3.798695e+000 1.616438e+000 -1.063273e+001 152 93 56
2.560260e-001 1.271564e+000 -8.751682e+000 157 149 70
1.990257e+000 1.420119e+000 -9.525681e+000 69 92 99
1.320794e+000 1.296514e+000 -9.147184e+000 17 53 78
1.320511e+000 1.296251e+000 -9.147352e+000 17 53 78
1.481344e+000 1.289034e+000 -9.188976e+000 121 40 37
2.497139e+000 1.274461e+000 -9.510450e+000 144 112 97
2.485372e+000 1.197383e+000 -9.413040e+000 80 31 26
2.551898e+000 1.222083e+000 -9.411161e+000 96 76 78
-1.379087e+000 8.062189e-001 -7.925761e+000 197 177 143
-6.923364e-001 9.383129e-001 -8.069675e+000 172 33 39
-6.930396e-001 9.389447e-001 -8.068282e+000 172 33 39
-6.369863e-001 9.638703e-001 -7.986231e+000 160 15 19
8.749436e-002 9.713832e-001 -8.188983e+000 27 51 20
1.345851e-001 1.010863e+000 -8.398647e+000 25 52 11
1.036169e+000 1.041929e+000 -8.502282e+000 148 138 103
1.397231e+000 1.098922e+000 -8.899959e+000 148 146 115
1.397231e+000 1.098922e+000 -8.899959e+000 148 146 115
2.142062e+000 1.073233e+000 -9.116269e+000 116 90 73
-6.471327e-001 8.732849e-001 -8.023959e+000 195 149 113
-6.170973e-001 8.234140e-001 -7.952735e+000 181 142 102
1.800440e+000 9.666849e-001 -8.886222e+000 137 84 76
-1.376219e+000 6.398181e-001 -7.828823e+000 203 180 148
-5.698750e-001 7.252552e-001 -7.838283e+000 171 146 89
-5.691019e-001 7.238777e-001 -7.841245e+000 171 146 89
-3.474107e-001 6.939310e-001 -7.971898e+000 149 146 33
6.945563e-001 7.660704e-001 -8.276437e+000 141 22 24
6.945563e-001 7.660704e-001 -8.276437e+000 141 22 24
1.269125e+000 8.810388e-001 -8.587960e+000 145 17 19
1.998708e+000 9.101559e-001 -8.873521e+000 72 50 55
2.307336e+000 9.292806e-001 -8.995872e+000 110 82 70
-1.365954e+000 5.380041e-001 -7.771818e+000 202 177 146
-1.365839e+000 5.382899e-001 -7.771603e+000 202 177 146
-1.299159e+000 4.911823e-001 -7.699585e+000 206 184 150
-6.091747e-001 6.844314e-001 -7.765057e+000 156 36 41
-5.536142e-001 6.269821e-001 -7.705493e+000 153 44 48
1.794463e+000 7.923037e-001 -8.683944e+000 78 22 23
1.847187e+000 7.911156e-001 -8.688966e+000 74 16 11
1.838429e+000 7.695104e-001 -8.673644e+000 158 92 67
1.901385e+000 7.923559e-001 -8.714319e+000 78 28 21
1.974903e+000 7.425402e-001 -8.684406e+000 60 20 20
-1.340318e+000 4.600264e-001 -7.721926e+000 205 181 145
-2.713932e-001 6.199328e-001 -7.778764e+000 140 138 28
2.384963e+000 6.065316e-001 -8.724688e+000 94 55 50
2.760648e+000 6.823514e-001 -8.933702e+000 80 48 48
2.756282e+000 6.863096e-001 -8.926784e+000 80 48 48
1.964832e+000 5.195856e-001 -8.516471e+000 77 28 31
3.936120e+000 4.972821e-001 -9.261596e+000 165 79 55
-2.027566e-001 4.020538e-001 -7.626646e+000 161 154 31
3.486936e+000 4.156659e-001 -9.118086e+000 162 114 70
3.808811e+000 2.644745e-001 -9.173620e+000 28 9 3
1.844958e+000 -1.021354e-001 -8.601307e+000 191 139 99
4.644044e+000 -6.407440e-001 -8.570907e+000 135 121 113
-2.842174e-001 1.209639e+000 -8.544714e+000 142 138 34
2.033576e+000 1.361744e+000 -9.499785e+000 76 104 107
2.034235e+000 1.362679e+000 -9.499403e+000 76 104 107
1.939519e+000 1.349855e+000 -9.447789e+000 18 58 87
2.030168e+000 1.298472e+000 -9.385979e+000 86 21 25
-1.909248e+000 6.567380e-001 -8.417889e+000 157 29 31
-1.396531e+000 8.532616e-001 -7.968249e+000 198 179 137
-1.396945e+000 8.518152e-001 -7.972596e+000 198 179 137
4.013434e+000 1.084565e+000 -1.009258e+001 133 88 66
-6.506050e-001 8.316358e-001 -7.952817e+000 168 31 49
-6.506050e-001 8.316358e-001 -7.952817e+000 168 31 49
1.251175e+000 9.879728e-001 -8.724852e+000 136 22 28
1.504442e+000 9.255212e-001 -8.730971e+000 13 60 83
2.521087e+000 9.471421e-001 -9.146675e+000 132 104 90
1.198856e+000 8.788625e-001 -8.559243e+000 181 145 102
2.067070e+000 8.147285e-001 -8.785190e+000 60 29 34
-1.284904e+000 5.943952e-001 -7.727104e+000 207 188 148
-5.809911e-001 6.700482e-001 -7.757162e+000 179 148 95
1.711958e+000 7.999549e-001 -8.641532e+000 149 51 30
2.515597e+000 7.756580e-001 -8.884681e+000 121 98 84
3.303949e+000 7.678080e-001 -9.230197e+000 160 103 72
1.935909e+000 6.504663e-001 -8.589845e+000 157 85 67
2.295622e+000 6.939058e-001 -8.744224e+000 129 97 84
-1.591979e+000 1.543933e-001 -7.936791e+000 179 153 124
3.556998e+000 5.660291e-001 -9.146757e+000 180 99 44
4.069654e+000 5.415368e-001 -9.331919e+000 175 137 112
2.789838e+000 4.073525e-001 -8.862028e+000 165 127 72
3.450397e+000 3.618797e-001 -9.046880e+000 155 53 40
4.391829e+000 4.157120e-001 -9.366052e+000 32 21 37
3.168224e-002 1.335371e-001 -7.702142e+000 91 124 139
1.001448e+000 4.553976e-002 -8.130806e+000 79 35 67
1.336605e+000 -3.409342e-002 -8.304940e+000 126 67 48
1.336605e+000 -3.409342e-002 -8.304940e+000 126 67 48
2.919035e+000 -1.317093e-001 -9.033452e+000 195 143 104
3.972827e+000 -2.435814e+000 -1.013251e+001 134 118 105
3.974665e+000 -2.442854e+000 -1.014064e+001 134 118 105
2.998687e+000 -4.540708e+000 -1.220892e+001 69 61 71
3.833372e+000 -2.830648e+000 -1.032692e+001 131 114 106
3.833372e+000 -2.830648e+000 -1.032692e+001 131 114 106
3.856416e+000 -3.319127e+000 -1.036339e+001 154 140 131
1.021526e+000 1.416066e+000 -9.388904e+000 144 41 35
1.512542e+000 1.445444e+000 -9.517154e+000 146 58 52
1.899770e+000 1.463065e+000 -9.672679e+000 17 55 79
3.846110e+000 1.630678e+000 -1.056669e+001 29 18 24
2.939117e+000 1.470096e+000 -9.992281e+000 141 100 56
1.450972e+000 1.059943e+000 -8.875873e+000 24 59 99
2.413996e+000 1.134128e+000 -9.282878e+000 160 116 99
-1.274379e+000 7.245753e-001 -7.791369e+000 201 182 139
-1.276431e+000 7.214430e-001 -7.797423e+000 201 182 139
-1.248015e+000 6.561220e-001 -7.730645e+000 204 185 145
-1.249055e+000 6.547843e-001 -7.731931e+000 204 185 145
-5.971449e-001 6.294596e-001 -7.688918e+000 181 154 109
2.135453e+000 5.509398e-001 -8.605907e+000 73 22 27
3.528620e+000 3.328765e-001 -9.112708e+000 196 115 48
3.328125e+000 1.513267e-001 -9.053850e+000 105 27 36
4.221025e+000 1.820462e-001 -9.392104e+000 143 81 49
2.393207e+000 1.005693e-001 -8.664206e+000 152 26 36
4.067845e+000 -2.120617e+000 -9.894166e+000 149 137 125
4.128965e+000 -1.974272e+000 -9.759100e+000 149 132 124
4.241541e+000 -1.721506e+000 -9.529530e+000 145 134 130
3.799680e+000 -2.740943e+000 -1.046497e+001 138 129 116
4.110461e+000 -2.174296e+000 -9.661645e+000 133 119 108
4.264681e+000 -2.523845e+000 -9.393336e+000 164 147 137
4.264681e+000 -2.523845e+000 -9.393336e+000 164 147 137
1.798036e+000 1.363131e+000 -9.358276e+000 106 14 26
2.095373e+000 1.353433e+000 -9.532340e+000 18 53 80
-7.494124e-001 8.961225e-001 -8.000193e+000 166 29 36
-6.358055e-001 7.856980e-001 -7.882649e+000 156 32 27
2.491328e+000 8.348848e-001 -8.974000e+000 138 113 93
3.246974e+000 7.710546e-001 -9.202795e+000 150 107 68
2.551517e+000 5.035084e-001 -8.751963e+000 65 22 32
8.741727e-001 -1.139079e-001 -8.193092e+000 158 25 40
4.568151e+000 -8.175756e-001 -8.777387e+000 54 43 46
4.634896e+000 -7.537342e-001 -8.663598e+000 145 128 119
4.102294e+000 -2.038683e+000 -9.808872e+000 148 133 126
3.522014e+000 -3.375598e+000 -1.104753e+001 140 130 127
3.587018e+000 -3.223130e+000 -1.090525e+001 154 145 131
3.681080e+000 -3.005874e+000 -1.070491e+001 144 133 124
3.065432e+000 -4.566461e+000 -1.218493e+001 146 136 135
2.946702e+000 1.527937e+000 -1.017588e+001 30 13 21
-4.317875e-001 1.185922e+000 -8.433408e+000 76 79 11
-3.442877e-001 1.124815e+000 -8.396170e+000 100 107 71
1.265970e+000 1.251284e+000 -9.099084e+000 14 58 88
-1.461003e+000 7.865869e-001 -8.003846e+000 199 177 138
1.096579e+000 1.001796e+000 -8.702922e+000 135 20 32
1.169297e+000 9.899897e-001 -8.692561e+000 146 52 40
1.451809e+000 1.030829e+000 -8.832672e+000 116 119 101
1.454297e+000 1.030651e+000 -8.835754e+000 116 119 101
2.448273e+000 1.163168e+000 -9.295391e+000 93 53 49
6.935919e-001 9.386884e-001 -8.450553e+000 161 140 116
3.961175e+000 8.981043e-001 -9.646098e+000 160 88 43
-1.332802e+000 5.068158e-001 -7.730906e+000 208 186 151
4.752847e+000 -4.390175e-001 -8.377410e+000 142 124 120
4.606588e+000 -8.178655e-001 -8.720633e+000 143 131 119
3.537110e+000 -3.240423e+000 -1.099472e+001 55 50 49
3.776366e+000 -2.647243e+000 -1.044041e+001 51 47 52
4.890281e+000 -9.612105e-001 -8.075217e+000 157 136 133
4.895717e+000 -9.672224e-001 -8.080831e+000 157 136 133
4.101948e+000 -2.799963e+000 -9.801410e+000 157 141 128
9.308848e-001 1.375333e+000 -9.121942e+000 140 27 34
9.269280e-001 1.367041e+000 -9.131998e+000 140 27 34
2.930462e+000 1.497573e+000 -9.995513e+000 121 87 39
2.930462e+000 1.497573e+000 -9.995513e+000 121 87 39
8.369418e-001 1.125863e+000 -8.766673e+000 159 142 111
9.189874e-001 9.326688e-001 -8.551434e+000 151 140 112
1.912750e+000 4.957073e-001 -8.487829e+000 99 43 45
1.016373e+000 2.390918e-002 -8.126278e+000 28 65 108
4.252995e+000 -2.508041e+000 -9.447131e+000 164 147 137
4.263770e+000 -2.527341e+000 -9.467768e+000 164 147 137
-1.012682e-002 1.111600e+000 -8.548264e+000 31 53 37
1.363430e+000 1.049172e+000 -8.867602e+000 10 68 99
8.942788e-001 6.974070e-001 -8.268286e+000 159 145 118
5.085675e-001 6.662872e-001 -8.051489e+000 162 151 121
8.816336e-001 1.253745e+000 -8.878589e+000 159 142 112
2.073083e-001 1.056281e+000 -8.422976e+000 166 149 104
2.156194e+000 1.039991e+000 -9.096423e+000 137 112 92
3.052948e-001 6.640847e-001 -8.037342e+000 160 149 123
3.770683e+000 -2.896689e+000 -1.055502e+001 140 127 118
2.262739e+000 1.230109e+000 -9.342299e+000 148 120 96
-4.392904e-001 1.334997e+000 -8.861686e+000 73 101 102
2.298663e+000 1.447938e+000 -9.888640e+000 146 108 69
3.759696e+000 1.510325e+000 -1.049560e+001 134 101 68
3.759696e+000 1.510325e+000 -1.049560e+001 134 101 68
2.597659e+000 1.048806e+000 -9.196341e+000 69 48 53
5.939005e-001 6.974861e-001 -8.512629e+000 158 147 116
1.515115e+000 -3.587553e-001 -1.689033e+001 67 51 14
6.705302e-002 1.380092e+000 -8.827401e+000 149 136 51
1.848546e+000 1.439839e+000 -9.577404e+000 137 138 96
1.912972e+000 1.447017e+000 -9.605476e+000 134 135 114
1.912706e+000 1.447013e+000 -9.605327e+000 134 135 114
1.962088e+000 1.422778e+000 -9.556641e+000 27 52 55
1.973303e+000 1.400657e+000 -9.530163e+000 29 54 61
2.755442e+000 1.485608e+000 -1.000537e+001 144 97 51
-4.126960e-001 1.207316e+000 -8.458242e+000 29 41 28
5.431635e-001 1.260087e+000 -8.835568e+000 143 26 31
1.356669e+000 1.284022e+000 -9.141526e+000 148 145 106
1.353617e+000 1.287534e+000 -9.131852e+000 148 145 106
2.044895e+000 1.398181e+000 -9.565814e+000 27 54 58
