ply
format ascii 1.0
element face 0
property list uchar int vertex_indices
element vertex 875
property float x
property float y
property float z
property uchar diffuse_red
property uchar diffuse_green
property uchar diffuse_blue
end_header
1.609675e+000 2.414530e-001 -8.234508e+000 191 144 98
-1.014061e-002 -1.910544e-001 -7.793601e+000 137 143 21
-2.450101e-002 -2.243378e-001 -7.831353e+000 19 41 23
3.355589e+000 -1.399625e-001 -9.210711e+000 124 55 6
-1.537030e-001 -2.715870e-001 -7.785377e+000 155 154 29
8.700838e-001 -3.004220e-001 -8.265724e+000 191 160 121
2.423527e+000 -1.977194e-001 -8.846019e+000 193 83 78
1.729002e-001 -3.410467e-001 -8.014108e+000 102 126 119
-1.053528e+000 -5.304881e-001 -7.693047e+000 20 91 138
4.583931e-001 -6.634080e-001 -8.137758e+000 155 169 143
4.977111e-001 -5.929940e-001 -8.386985e+000 169 157 145
-2.695380e-001 -6.764530e-001 -8.150476e+000 155 154 27
-1.753120e-001 -7.243484e-001 -8.267208e+000 159 161 30
2.877869e-002 -6.716298e-001 -8.286446e+000 21 55 20
-7.102339e-001 -7.490008e-001 -8.072172e+000 196 150 113
-6.148953e-001 -8.027856e-001 -8.191451e+000 173 171 53
-2.001811e-001 -7.790105e-001 -8.337082e+000 170 160 46
2.723062e-003 -8.021160e-001 -8.457166e+000 170 172 51
-1.837958e-001 -8.258580e-001 -8.405485e+000 166 165 43
2.717543e+000 -1.433680e-001 -8.931939e+000 202 92 85
2.715788e+000 -1.447204e-001 -8.929602e+000 202 92 85
3.495376e+000 -2.487338e-001 -9.366469e+000 184 85 43
-1.659016e+000 -6.613722e-002 -7.900048e+000 177 150 121
1.495815e-001 -4.999270e-001 -8.097087e+000 165 155 21
2.478280e+000 -4.706138e-001 -9.101631e+000 205 93 85
2.583121e+000 -5.703885e-001 -9.303369e+000 201 84 81
2.114663e+000 -7.572115e-001 -9.310103e+000 137 87 76
-1.031783e+001 3.349439e+001 -3.904415e+001 100 86 83
-6.443129e-001 -5.206241e-001 -7.805351e+000 182 29 41
-6.443129e-001 -5.206241e-001 -7.805351e+000 182 29 41
1.400461e+000 -7.484134e-001 -9.000461e+000 126 77 73
1.401172e+000 -7.472667e-001 -9.001761e+000 126 77 73
2.089173e+000 -7.325428e-001 -9.296192e+000 199 134 112
3.295736e+000 -6.910616e-001 -9.803598e+000 141 106 87
2.583884e+000 -7.807332e-001 -9.586119e+000 159 21 34
-6.813603e-001 -8.337840e-001 -8.195672e+000 195 39 40
1.365446e+000 2.633431e-003 -8.260029e+000 91 47 43
-9.854826e+000 3.550249e+001 -3.642315e+001 109 94 90
-1.056547e+001 3.376207e+001 -3.821859e+001 112 92 89
4.192322e-001 -6.032820e-002 -7.906529e+000 163 153 128
-1.648710e+001 2.152151e+001 -3.759420e+001 119 100 85
3.372735e-001 -3.672494e-002 -7.830751e+000 167 152 116
1.643693e-001 -9.617196e-002 -7.813727e+000 26 48 23
9.236522e-001 -3.965000e-002 -8.095882e+000 195 141 101
1.710751e+000 2.157449e+000 -1.045785e+001 144 23 21
3.842209e+000 4.179415e-002 -9.282305e+000 183 151 122
7.739860e-002 -2.183453e-001 -7.840047e+000 150 143 33
9.113169e-001 -1.732773e-001 -8.183801e+000 146 13 29
9.248064e-001 -1.866909e-001 -8.198534e+000 195 133 105
3.355622e+000 -1.218403e-001 -9.185606e+000 128 60 26
3.355622e+000 -1.218403e-001 -9.185606e+000 128 60 26
3.791562e+000 -2.567687e-002 -9.312919e+000 55 22 15
-1.523295e-001 -3.031306e-001 -7.828546e+000 153 142 33
8.724768e-001 -2.793764e-001 -8.240693e+000 194 150 104
3.229804e+000 -2.075769e-001 -9.221280e+000 122 52 7
3.403403e+000 -1.577083e-001 -9.276584e+000 184 66 47
3.356593e+000 -2.401574e-001 -9.286645e+000 168 61 39
4.031106e+000 -9.649915e-002 -9.506189e+000 168 101 55
4.210926e+000 -7.844904e-002 -9.637354e+000 40 2 4
-1.956937e-001 -4.444862e-001 -7.908898e+000 148 137 12
4.611339e-001 -3.783194e-001 -8.131154e+000 117 30 22
4.611339e-001 -3.783194e-001 -8.131154e+000 117 30 22
8.586016e-001 -4.158215e-001 -8.334236e+000 137 10 4
3.273495e+000 -2.478044e-001 -9.265753e+000 106 24 18
-1.045725e+000 -5.047909e-001 -7.666122e+000 30 76 117
-5.552753e-001 -4.668643e-001 -7.793568e+000 205 135 95
-5.551123e-001 -4.719287e-001 -7.789006e+000 205 135 95
-3.053223e-001 1.362273e-001 -8.487155e+000 20 43 16
-4.108425e-001 -5.391266e-001 -7.883597e+000 21 46 29
4.497267e-001 -4.573072e-001 -8.201609e+000 130 20 19
5.150963e-001 -4.428057e-001 -8.212566e+000 157 146 119
8.549887e-001 -4.848019e-001 -8.396950e+000 191 140 108
8.546356e-001 -4.855924e-001 -8.396024e+000 191 140 108
8.478986e-001 -5.093223e-001 -8.424810e+000 189 146 101
2.352798e+000 -4.676356e-001 -9.050655e+000 185 64 71
2.413730e+000 -4.155471e-001 -9.059053e+000 143 19 22
2.655757e+000 -3.898622e-001 -9.113532e+000 186 68 72
2.789678e+000 -3.797841e-001 -9.173644e+000 195 123 83
3.278356e+000 -4.147907e-001 -9.430744e+000 117 44 18
3.323383e+000 -4.093204e-001 -9.483011e+000 161 116 83
3.608522e+000 -3.514796e-001 -9.552609e+000 184 155 127
3.983307e+000 -3.034402e-001 -9.707053e+000 41 13 11
-9.566956e-001 -5.365259e-001 -7.713935e+000 26 84 108
-7.142371e-001 -5.376970e-001 -7.797426e+000 187 137 99
-7.142371e-001 -5.376970e-001 -7.797426e+000 187 137 99
-6.761965e-001 -5.558489e-001 -7.842116e+000 187 145 105
-6.086547e-001 -5.405653e-001 -7.833675e+000 194 143 97
-1.537996e-001 -5.681822e-001 -8.013395e+000 160 149 34
-7.391291e-003 -5.552168e-001 -8.096037e+000 156 146 19
5.070272e-001 -5.201106e-001 -8.286312e+000 114 15 19
5.070272e-001 -5.201106e-001 -8.286312e+000 114 15 19
8.376640e-001 -5.310265e-001 -8.450179e+000 183 144 107
1.311763e+000 -5.460911e-001 -8.684285e+000 169 113 98
2.662612e+000 -4.651664e-001 -9.218846e+000 146 16 28
2.691343e+000 -4.591111e-001 -9.218703e+000 185 66 64
3.269374e+000 -4.910605e-001 -9.522094e+000 173 129 93
3.481174e+000 -4.548034e-001 -9.587802e+000 166 123 90
-6.783958e-001 -6.002256e-001 -7.890520e+000 162 33 31
-7.209394e-001 -6.598866e-001 -7.948636e+000 186 147 108
-6.255015e-001 -6.625586e-001 -7.987127e+000 194 125 92
-6.256282e-001 -6.645438e-001 -7.985204e+000 194 125 92
-2.980558e-001 -5.993272e-001 -8.154141e+000 156 144 52
-3.584621e-002 -6.222714e-001 -8.194805e+000 152 148 25
4.236460e-001 -6.240090e-001 -8.383980e+000 159 128 110
4.245942e-001 -6.207358e-001 -8.388026e+000 159 128 110
4.745338e-001 -5.940370e-001 -8.380696e+000 102 18 20
4.745338e-001 -5.940370e-001 -8.380696e+000 102 18 20
4.155285e-001 -6.491280e-001 -8.410784e+000 150 140 115
8.130698e-001 -5.908802e-001 -8.520720e+000 200 140 111
7.573862e-001 -6.553121e-001 -8.587596e+000 194 149 103
7.573862e-001 -6.553121e-001 -8.587596e+000 194 149 103
7.842158e-001 -6.553584e-001 -8.596884e+000 173 149 92
2.324334e+000 -6.119329e-001 -9.231978e+000 151 16 36
2.891134e+000 -5.935367e-001 -9.482970e+000 76 24 26
2.889320e+000 -5.954965e-001 -9.480249e+000 76 24 26
3.196301e+000 -5.558943e-001 -9.550195e+000 170 125 91
3.214963e+000 -5.360344e-001 -9.576989e+000 170 125 91
3.243770e+000 -5.975708e-001 -9.681659e+000 164 126 93
3.351334e+000 -6.153247e-001 -9.703139e+000 168 127 96
-6.677614e-001 -6.796821e-001 -7.996167e+000 191 133 103
-6.464994e-001 -6.768116e-001 -7.987816e+000 162 22 25
-6.589320e-001 -6.958451e-001 -8.038116e+000 171 30 39
-4.114409e-001 -6.759209e-001 -8.089241e+000 155 147 26
-4.702614e-001 -7.329074e-001 -8.145765e+000 75 93 70
7.640619e-001 -6.693759e-001 -8.607003e+000 146 10 22
7.640487e-001 -6.698102e-001 -8.606496e+000 146 10 22
1.515559e+000 -6.846696e-001 -8.965706e+000 172 115 90
2.396951e+000 -6.688271e-001 -9.346400e+000 175 61 54
2.325867e+000 -6.959118e-001 -9.364941e+000 184 71 71
2.555553e+000 -6.411508e-001 -9.394693e+000 180 60 67
2.568018e+000 -6.811884e-001 -9.456585e+000 142 15 25
3.356693e+000 -6.714780e-001 -9.854302e+000 166 126 100
3.497864e+000 -6.724590e-001 -9.892780e+000 41 23 35
3.930326e+000 -6.377461e-001 -1.010900e+001 159 134 115
7.507934e-001 -7.324004e-001 -8.687542e+000 192 142 113
7.250105e-001 -7.827113e-001 -8.743350e+000 188 147 104
1.569021e+000 -7.630785e-001 -9.103783e+000 180 119 93
1.849347e+000 -7.583557e-001 -9.225647e+000 188 121 94
1.849347e+000 -7.583557e-001 -9.225647e+000 188 121 94
3.915432e+000 -7.504455e-001 -1.023350e+001 169 131 105
-6.268466e-001 -8.225094e-001 -8.220003e+000 147 137 41
-6.393312e-001 -8.286777e-001 -8.272949e+000 142 143 35
6.868400e-001 -8.027527e-001 -8.763044e+000 180 153 114
1.615303e+000 -8.464877e-001 -9.274443e+000 181 124 98
2.354748e+000 -8.104017e-001 -9.587076e+000 142 15 27
3.437742e+000 -7.860461e-001 -1.004384e+001 38 17 17
3.817616e+000 -7.632357e-001 -1.020449e+001 31 11 4
1.201760e+000 -8.942248e-001 -9.239741e+000 180 52 56
1.383591e+000 -8.994852e-001 -9.304261e+000 166 47 49
3.019185e+000 -8.632031e-001 -1.017065e+001 151 85 61
4.318251e+000 2.740065e-001 -9.331514e+000 56 17 19
4.318251e+000 2.740065e-001 -9.331514e+000 56 17 19
2.516493e+000 7.034077e-002 -8.704508e+000 147 15 25
2.516493e+000 7.034077e-002 -8.704508e+000 147 15 25
3.813759e+000 1.542435e-001 -9.192222e+000 72 38 27
2.552415e+000 -6.042357e-002 -8.796531e+000 154 26 30
2.552415e+000 -6.042357e-002 -8.796531e+000 154 26 30
2.728535e+000 -5.581444e-002 -8.863223e+000 172 54 46
4.187051e+000 1.218745e-001 -9.421985e+000 182 101 43
4.280148e+000 1.255639e-001 -9.445717e+000 45 15 13
4.253753e+000 6.701233e-002 -9.489882e+000 46 14 12
2.533253e+000 -1.155179e-001 -8.816057e+000 151 21 29
2.546063e+000 -1.472907e-001 -8.892556e+000 150 20 28
3.419294e+000 -5.715584e-002 -9.178855e+000 177 104 43
4.236566e+000 -4.160042e-002 -9.527861e+000 138 72 38
-1.989045e-001 -2.903353e-001 -7.802303e+000 27 45 16
-1.989045e-001 -2.903353e-001 -7.802303e+000 27 45 16
3.695418e+000 -1.839155e-001 -9.412571e+000 202 134 82
4.239272e+000 -1.268467e-001 -9.616122e+000 28 12 23
3.403376e+000 -3.198620e-001 -9.391962e+000 182 72 39
-6.408588e-001 -4.871678e-001 -7.772832e+000 174 24 26
-6.408588e-001 -4.871678e-001 -7.772832e+000 174 24 26
-4.234255e-001 -4.115294e-001 -7.981047e+000 158 146 18
1.608077e-002 -5.085702e-001 -8.053245e+000 155 139 21
1.608077e-002 -5.085702e-001 -8.053245e+000 155 139 21
1.720936e-001 -5.156812e-001 -8.111735e+000 21 44 35
1.267536e+000 -4.613580e-001 -8.548189e+000 137 83 71
1.228319e+000 -4.974203e-001 -8.580685e+000 173 110 88
1.345184e+000 -4.656593e-001 -8.592050e+000 68 24 18
2.479291e+000 -4.728260e-001 -9.108943e+000 182 65 66
2.678455e+000 -3.742810e-001 -9.106518e+000 158 5 36
2.678070e+000 -4.052812e-001 -9.141952e+000 141 17 30
3.379829e+000 -4.905978e-001 -9.437329e+000 160 114 81
4.305461e-001 -5.200803e-001 -8.255475e+000 105 16 18
4.317696e-001 -5.622856e-001 -8.311666e+000 159 145 106
1.866949e+000 -4.928234e-001 -8.854382e+000 181 115 91
1.867999e+000 -4.925760e-001 -8.854844e+000 181 115 91
2.421038e+000 -5.241697e-001 -9.129818e+000 153 25 35
3.042118e+000 -4.687313e-001 -9.387797e+000 162 73 42
4.185740e+000 -3.537405e-001 -1.001124e+001 137 83 61
-7.259703e-001 -5.826448e-001 -7.912497e+000 170 31 38
-8.603174e-003 -6.145739e-001 -8.165400e+000 154 145 28
2.556608e+000 -6.074931e-001 -9.340418e+000 195 71 79
2.900088e+000 -5.686168e-001 -9.453560e+000 103 55 40
3.303389e+000 -6.029647e-001 -9.700701e+000 169 128 96
-7.265853e-001 -6.761976e-001 -7.979024e+000 184 151 96
-6.644495e-001 -7.149421e-001 -8.040756e+000 173 25 33
1.806957e+000 -6.671086e-001 -9.067520e+000 108 60 55
1.806957e+000 -6.671086e-001 -9.067520e+000 108 60 55
2.358236e+000 -7.105529e-001 -9.375147e+000 152 15 34
2.595210e+000 -6.921081e-001 -9.461753e+000 181 65 66
2.809441e+000 -6.710530e-001 -9.567616e+000 184 116 90
3.333289e+000 -6.222636e-001 -9.754414e+000 71 33 14
3.333289e+000 -6.222636e-001 -9.754414e+000 71 33 14
3.929512e+000 -5.684268e-001 -1.002312e+001 160 131 113
-6.777892e-001 -7.717111e-001 -8.112314e+000 181 148 101
-6.215978e-001 -7.870693e-001 -8.169075e+000 77 98 93
-1.043890e-001 -7.561003e-001 -8.347941e+000 153 141 39
-1.043890e-001 -7.561003e-001 -8.347941e+000 153 141 39
1.398791e+000 -7.565133e-001 -9.010545e+000 129 75 75
1.502178e+000 -7.278281e-001 -9.018832e+000 102 54 50
1.658942e+000 -7.819303e-001 -9.173443e+000 108 57 35
1.661481e+000 -7.779086e-001 -9.178935e+000 108 57 35
2.276123e+000 -7.251478e-001 -9.406071e+000 153 17 38
2.411756e+000 -7.538214e-001 -9.472841e+000 196 78 87
2.522129e+000 -7.778159e-001 -9.569047e+000 161 25 45
2.715620e+000 -7.472803e-001 -9.620912e+000 59 17 28
2.100495e+000 -8.374214e-001 -9.452212e+000 183 116 99
2.226139e+000 -8.133383e-001 -9.510318e+000 151 28 38
3.994638e+000 1.919169e-001 -9.254033e+000 190 160 129
2.185284e+000 -1.678245e-002 -8.611570e+000 90 39 23
4.167553e+000 4.438468e-002 -9.472071e+000 184 92 32
1.968056e+000 -1.105664e-001 -8.579392e+000 114 76 53
2.460795e+000 -7.346226e-002 -8.773962e+000 154 40 39
4.051500e+000 1.741244e-003 -9.420711e+000 149 73 19
-1.274970e-001 -3.048300e-001 -7.838600e+000 49 87 80
4.866777e-002 -2.744658e-001 -7.896458e+000 169 150 37
3.955365e+000 -1.408858e-001 -9.500037e+000 171 90 33
4.191922e+000 -1.943650e-001 -9.716612e+000 132 58 32
2.179658e+000 -4.466778e-001 -8.952763e+000 96 45 34
2.226739e+000 -4.384323e-001 -8.967378e+000 187 120 95
-1.848373e+000 4.960237e-001 -8.565274e+000 180 150 115
-6.460010e-001 -5.735553e-001 -7.865839e+000 168 27 31
-6.460010e-001 -5.735553e-001 -7.865839e+000 168 27 31
-2.755917e-001 -6.027310e-001 -8.037879e+000 56 97 87
5.046327e-001 -5.812953e-001 -8.371175e+000 156 140 114
1.221410e+000 -5.594007e-001 -8.651120e+000 100 47 39
2.139369e+000 -5.146461e-001 -9.022385e+000 124 82 70
4.053650e+000 -4.033551e-001 -9.809311e+000 102 35 19
-3.782861e-001 -6.391957e-001 -8.057386e+000 157 149 21
-3.836659e-002 -5.992521e-001 -8.162721e+000 156 141 34
4.656122e-001 -6.226658e-001 -8.402126e+000 146 141 117
2.585334e+000 -5.537687e-001 -9.272085e+000 170 55 60
2.581579e+000 -6.309727e-001 -9.364213e+000 151 23 30
3.529146e+000 -5.321028e-001 -9.732625e+000 188 155 122
3.509669e+000 -5.734610e-001 -9.780854e+000 192 154 117
-7.448115e-001 -6.687457e-001 -7.960894e+000 172 31 38
3.091192e+000 -6.319566e-001 -9.615736e+000 171 129 92
-6.826763e-001 -7.406263e-001 -8.066388e+000 177 36 45
6.719327e-002 -7.521810e-001 -8.408617e+000 159 142 28
6.775763e-002 -7.494823e-001 -8.411284e+000 159 142 28
1.986994e+000 -7.716661e-001 -9.230977e+000 186 123 92
-2.335155e-001 -8.216935e-001 -8.383476e+000 163 151 36
7.508778e-001 -8.641294e-001 -8.933997e+000 13 74 108
3.190966e+000 -8.771201e-001 -1.012576e+001 186 141 103
1.128711e+000 -9.213842e-001 -9.334289e+000 183 60 68
1.530315e+000 -4.042562e-002 -8.353255e+000 106 57 42
1.557952e+000 -1.017586e-001 -8.407679e+000 182 114 83
1.557952e+000 -1.017586e-001 -8.407679e+000 182 114 83
1.751697e+000 -9.229451e-002 -8.482467e+000 190 120 86
1.751697e+000 -9.229451e-002 -8.482467e+000 190 120 86
2.125661e+000 -4.448254e-002 -8.600736e+000 183 125 85
2.125867e+000 -6.904799e-002 -8.638908e+000 184 129 94
1.598192e+000 -1.183276e-001 -8.437514e+000 165 107 85
1.598192e+000 -1.183276e-001 -8.437514e+000 165 107 85
1.452250e-001 -2.689483e-001 -7.938522e+000 161 145 13
1.001559e+000 -3.133149e-001 -8.318475e+000 16 43 70
2.963273e+000 -2.392589e-001 -9.118025e+000 191 132 90
1.313339e+000 -4.460296e-001 -8.577898e+000 184 119 90
1.972975e+000 -4.710038e-001 -8.862508e+000 140 87 81
1.972975e+000 -4.710038e-001 -8.862508e+000 140 87 81
1.618604e-002 -5.510399e-001 -8.113099e+000 159 153 30
4.887383e-001 -6.461162e-001 -8.456335e+000 139 138 117
8.196368e-001 -6.549725e-001 -8.633837e+000 111 10 26
2.310651e+000 -6.486887e-001 -9.300152e+000 154 26 35
2.437304e+000 -6.715353e-001 -9.392219e+000 149 15 30
1.783007e+000 -8.037277e-001 -9.301920e+000 178 115 98
3.881265e+000 2.431766e-001 -9.156941e+000 156 122 92
2.345896e+000 -1.282743e-001 -8.747575e+000 187 122 82
4.170724e+000 -5.100113e-002 -9.569264e+000 159 87 29
2.853022e+000 -2.763480e-001 -9.143562e+000 192 126 81
-1.392779e-001 -5.731634e-001 -8.062962e+000 60 104 105
4.918965e-001 -5.444161e-001 -8.316909e+000 156 138 117
3.563613e+000 -4.786674e-001 -9.686481e+000 170 144 110
5.203846e-001 -6.298537e-001 -8.436413e+000 138 100 89
2.855620e+000 -5.618788e-001 -9.427837e+000 182 115 92
2.720809e+000 -6.275081e-001 -9.498520e+000 187 113 87
3.009154e+000 -6.976464e-001 -9.685731e+000 96 59 42
3.009095e+000 -6.988678e-001 -9.684547e+000 96 59 42
1.123250e+000 -8.032439e-001 -8.931322e+000 97 46 31
3.869988e+000 -8.124149e-001 -1.031261e+001 173 156 137
9.297172e-003 -2.990880e-001 -7.929454e+000 26 51 21
2.148753e-001 -7.670659e-001 -8.511268e+000 22 50 25
2.148753e-001 -7.670659e-001 -8.511268e+000 22 50 25
-2.128890e-001 -8.109791e-001 -8.377650e+000 129 129 82
3.757525e+000 -7.726056e-001 -1.020735e+001 153 135 133
3.753876e+000 5.163889e-002 -9.247667e+000 204 123 47
2.664772e+000 -1.800233e-001 -9.021425e+000 157 21 30
2.627504e+000 -2.855521e-001 -9.068484e+000 146 13 26
-4.580342e-001 -4.265080e-001 -7.836554e+000 19 76 102
1.816694e-001 -5.451690e-001 -8.058452e+000 28 47 28
2.980628e+000 -6.085425e-001 -9.558997e+000 176 123 84
1.606827e+000 -5.772604e-001 -8.868824e+000 179 110 79
2.859714e+000 -7.197947e-001 -9.618994e+000 187 117 91
2.061071e+000 -7.124944e-002 -8.578733e+000 171 120 101
-9.697781e-001 -4.706262e-001 -7.586982e+000 17 80 111
3.801824e+000 -7.978408e-001 -1.041069e+001 189 168 148
4.284340e+000 4.013375e-001 -9.376481e+000 183 95 34
2.719905e+000 7.392560e-002 -9.004191e+000 156 21 33
1.468171e-001 -1.829356e-001 -7.952683e+000 25 50 22
8.525478e-001 -7.710470e-001 -8.895584e+000 20 67 92
4.804729e-001 -4.254518e-001 -8.419970e+000 158 133 113
2.461969e+000 -4.053500e-002 -8.742114e+000 167 66 58
3.589689e+000 -1.087092e-001 -9.275505e+000 164 80 43
-2.004062e-001 -2.581956e-001 -7.771566e+000 133 129 40
-1.770187e-001 -2.735560e-001 -7.773169e+000 35 70 64
-1.179219e-001 -2.811974e-001 -7.823855e+000 147 144 35
3.998849e+000 -2.748243e-001 -9.685430e+000 37 18 13
-2.430476e-001 -4.642972e-001 -7.879914e+000 161 140 46
-2.106644e-001 -1.375243e-001 -8.458445e+000 48 88 111
8.254249e-001 -4.864259e-001 -8.391220e+000 188 150 114
4.833422e-001 -5.737521e-001 -8.350438e+000 121 27 43
2.395307e+000 -5.980080e-001 -9.252358e+000 137 13 23
3.439435e+000 -5.700100e-001 -9.715881e+000 170 131 100
2.157495e+000 -7.324933e-001 -9.313897e+000 190 121 89
2.302164e+000 -6.724804e-001 -9.323368e+000 154 19 34
3.226332e+000 -6.600678e-001 -9.755734e+000 172 135 103
2.514286e+000 -7.886948e-001 -9.614835e+000 165 26 34
3.236865e+000 7.142704e-002 -9.000829e+000 173 111 39
-6.263154e-002 -2.193372e-001 -7.798627e+000 154 147 33
3.441556e+000 -4.981675e-002 -9.159397e+000 122 26 4
-2.187561e-001 -4.404182e-001 -7.899922e+000 35 82 107
2.718812e+000 -3.879800e-001 -9.141685e+000 142 35 29
3.446918e+000 -3.139393e-001 -9.419688e+000 87 43 30
2.917589e+000 -5.931083e-001 -9.467118e+000 181 120 92
1.489220e+000 -7.588870e-001 -9.063513e+000 121 70 56
2.252037e+000 -7.049644e-001 -9.350461e+000 171 66 71
1.452424e+000 -8.270927e-001 -9.161423e+000 111 59 49
-1.080054e+001 3.351763e+001 -3.841093e+001 67 57 68
-1.001916e+001 3.438198e+001 -3.824647e+001 113 101 84
2.157779e+000 -1.026602e-001 -8.655942e+000 173 124 101
3.944335e+000 -3.061435e-002 -9.414420e+000 177 146 125
6.308408e-001 -3.910933e-001 -8.212439e+000 157 148 121
-5.809392e-001 -5.974561e-001 -7.915669e+000 171 34 42
1.223025e+000 -5.562398e-001 -8.654444e+000 109 65 61
-1.708626e+000 -2.802978e-001 -8.049440e+000 186 162 160
1.894253e+000 -6.873361e-001 -9.152993e+000 92 39 29
1.896517e+000 -6.839084e-001 -9.158436e+000 92 39 29
2.053603e+000 -7.970819e-001 -9.421510e+000 185 128 110
-1.234721e+000 -9.623271e-001 -8.149490e+000 140 128 123
-1.101963e+001 3.323145e+001 -3.734971e+001 107 90 77
-9.280977e+000 3.527678e+001 -3.582992e+001 63 52 64
1.205146e+000 -2.409658e-001 -8.360759e+000 6 49 73
-2.727274e-001 -5.939078e-001 -8.046169e+000 42 90 95
1.185688e+000 -8.232656e-001 -9.032424e+000 190 125 107
3.047291e+000 -4.909577e-001 -9.522477e+000 183 129 101
1.310790e+000 -1.999549e-001 -8.381801e+000 180 110 85
3.985799e+000 -4.649632e-001 -9.907254e+000 62 38 25
2.568341e+000 -5.155617e-001 -9.699110e+000 158 23 36
-8.354571e-001 -8.552488e-001 -8.626901e+000 158 156 157
2.450829e+000 1.681432e-001 -8.638511e+000 160 17 34
2.450829e+000 1.681432e-001 -8.638511e+000 160 17 34
4.258926e+000 1.786842e-001 -9.375355e+000 48 6 7
4.212595e+000 1.169416e-001 -9.411194e+000 43 7 22
4.215906e+000 1.208275e-001 -9.414130e+000 43 7 22
-1.722679e-001 -2.377016e-001 -7.796692e+000 52 85 84
9.117271e-001 -2.443007e-001 -8.236673e+000 200 145 98
4.273504e+000 1.187247e-001 -9.439226e+000 35 0 9
-2.284466e-002 -4.435561e-001 -7.988191e+000 84 104 47
-2.284466e-002 -4.435561e-001 -7.988191e+000 84 104 47
5.402735e-001 -3.897598e-001 -8.191720e+000 124 31 26
3.268855e+000 -1.568355e-001 -9.183799e+000 181 104 36
4.159236e+000 -2.670640e-002 -9.509420e+000 53 10 4
4.109120e+000 -4.632325e-002 -9.493814e+000 166 89 33
4.212763e+000 -7.683861e-002 -9.638746e+000 48 5 3
-6.259249e-001 -5.781784e-001 -7.846116e+000 201 155 112
-1.552095e-001 -4.365157e-001 -7.965696e+000 16 52 14
2.324482e-001 -4.654268e-001 -8.120705e+000 168 159 56
5.560465e-001 -4.305431e-001 -8.232457e+000 167 149 112
2.689922e+000 -3.426697e-001 -9.059069e+000 159 22 29
2.689922e+000 -3.426697e-001 -9.059069e+000 159 22 29
2.841433e+000 -3.579922e-001 -9.192284e+000 196 129 94
3.504424e+000 -2.277958e-001 -9.346672e+000 180 85 41
-5.907897e-001 -5.845039e-001 -7.889002e+000 196 119 79
8.200433e-001 -5.088644e-001 -8.413970e+000 199 164 114
8.214887e-001 -5.676498e-001 -8.491950e+000 207 154 115
1.247702e+000 -5.077820e-001 -8.601967e+000 83 32 15
-5.977524e-001 -1.062109e+000 -7.776415e+000 34 80 107
-5.669245e-001 -1.365007e+000 -7.605939e+000 52 93 102
-1.503079e-001 -6.785035e-001 -8.212309e+000 149 144 35
7.509095e-001 -6.465586e-001 -8.566892e+000 145 20 22
3.254343e+000 -4.745472e-001 -9.503862e+000 114 70 43
3.398510e+000 -4.632034e-001 -9.562810e+000 86 44 30
3.586684e+000 -4.510332e-001 -9.648999e+000 40 12 17
2.878765e+000 -5.764331e-001 -9.465149e+000 171 107 79
3.356227e+000 -5.704608e-001 -9.694851e+000 165 127 96
3.356227e+000 -5.704608e-001 -9.694851e+000 165 127 96
6.831220e-001 -7.725929e-001 -8.717168e+000 143 23 27
6.981871e-001 -7.800383e-001 -8.735853e+000 192 155 108
2.760249e+000 -6.462734e-001 -9.496388e+000 184 113 94
3.091215e+000 -6.642769e-001 -9.686248e+000 158 122 89
3.929552e+000 -5.680107e-001 -1.002346e+001 149 125 113
3.867671e+000 -6.350631e-001 -1.006169e+001 37 14 15
3.934874e+000 -6.327156e-001 -1.011510e+001 160 129 109
-9.904160e-002 -8.655807e-001 -8.508071e+000 145 140 39
6.578709e-001 -8.219873e-001 -8.781070e+000 184 153 113
6.939187e-001 -8.487268e-001 -8.840989e+000 200 149 119
6.939187e-001 -8.487268e-001 -8.840989e+000 200 149 119
-1.941141e+000 -3.290111e-002 -8.583780e+000 209 187 192
8.103084e-001 -9.154782e-001 -9.028928e+000 25 74 126
1.412828e+000 -9.019226e-001 -9.358538e+000 156 28 40
1.535421e+000 -8.940220e-001 -9.449273e+000 172 82 75
1.444705e+000 -9.193174e-001 -9.562129e+000 159 29 43
1.600424e+000 -9.122745e-001 -9.636780e+000 195 116 103
2.785185e+000 1.336418e-001 -8.800398e+000 208 89 75
4.171718e+000 8.010131e-002 -9.444397e+000 171 103 46
-3.159126e-001 -4.689153e-001 -7.888752e+000 163 153 38
2.699697e+000 -2.027094e-001 -8.962921e+000 191 67 66
2.817701e+000 -1.841090e-001 -9.033447e+000 170 18 32
3.835786e+000 -9.666932e-002 -9.396626e+000 190 162 117
-5.990505e-001 -5.037445e-001 -7.798848e+000 202 149 97
9.158094e-001 -5.109101e-001 -8.430571e+000 31 78 109
-2.714035e-001 -5.791745e-001 -8.024339e+000 160 148 30
2.268907e+000 -4.784632e-001 -9.024502e+000 200 121 84
2.693259e+000 -4.568546e-001 -9.220594e+000 193 69 66
3.256429e+000 -3.394341e-001 -9.377526e+000 106 15 3
3.296803e+000 -3.725769e-001 -9.401727e+000 124 25 4
3.388512e+000 -3.977219e-001 -9.492060e+000 152 110 72
4.079451e+000 -2.715973e-001 -9.738042e+000 158 121 89
-6.601802e-001 -6.914620e-001 -8.014129e+000 183 39 34
9.100078e-001 -6.457400e-001 -8.605441e+000 24 76 99
2.372612e+000 -5.098775e-001 -9.137067e+000 162 25 33
2.658113e+000 -5.503404e-001 -9.321674e+000 180 51 51
3.197642e+000 -4.258091e-001 -9.453484e+000 158 109 69
3.289313e+000 -4.697449e-001 -9.503693e+000 160 117 86
3.362999e+000 -4.588430e-001 -9.535887e+000 168 124 87
3.256407e+000 -5.772995e-001 -9.651381e+000 153 113 81
7.011726e-001 -7.586228e-001 -8.704585e+000 194 155 106
2.342337e+000 -7.235300e-001 -9.432654e+000 151 16 33
3.314032e+000 -6.521823e-001 -9.767407e+000 67 31 10
3.314032e+000 -6.521823e-001 -9.767407e+000 67 31 10
-6.652245e-001 -8.489392e-001 -8.220368e+000 165 152 111
1.844075e+000 -7.817960e-001 -9.262131e+000 121 68 54
1.724096e+000 -8.313856e-001 -9.285245e+000 121 69 52
1.722978e+000 -8.329374e-001 -9.283861e+000 121 69 52
2.244404e+000 -7.793431e-001 -9.419395e+000 153 15 31
2.372921e+000 -7.795328e-001 -9.509219e+000 150 22 31
2.364123e+000 -8.026401e-001 -9.550902e+000 138 12 24
2.391583e+000 -8.111265e-001 -9.548334e+000 196 82 89
7.864499e-001 -8.893434e-001 -8.959894e+000 24 67 96
1.650594e+000 -8.737374e-001 -9.394720e+000 167 32 37
3.019100e+000 -8.296245e-001 -1.015204e+001 158 95 42
2.959760e+000 -8.505716e-001 -1.024401e+001 76 20 11
3.379515e+000 -8.597169e-001 -1.032506e+001 139 66 42
3.378433e+000 -8.601812e-001 -1.032425e+001 139 66 42
3.887793e+000 3.055167e-001 -9.152075e+000 44 7 4
3.856657e+000 2.801411e-001 -9.177921e+000 113 84 75
1.907813e+000 -1.715335e-002 -8.503715e+000 135 79 51
1.999210e+000 -2.122804e-002 -8.541608e+000 134 77 54
3.265396e+000 6.796324e-002 -8.997924e+000 93 13 18
2.246754e+000 -1.001957e-001 -8.684814e+000 103 49 14
3.061303e+000 -7.794587e-002 -9.037178e+000 119 70 40
2.975512e+000 -1.868380e-001 -9.069706e+000 194 136 96
3.262357e+000 -2.109377e-001 -9.239068e+000 201 141 82
1.907012e+000 -4.371243e-001 -8.815281e+000 107 47 37
2.002302e+000 -4.277656e-001 -8.857276e+000 91 35 19
2.002302e+000 -4.277656e-001 -8.857276e+000 91 35 19
1.666186e-002 -5.496857e-001 -8.113868e+000 165 155 17
2.186855e+000 -5.015869e-001 -9.024536e+000 190 125 94
2.186354e+000 -5.020366e-001 -9.024104e+000 190 125 94
2.663958e+000 -4.487350e-001 -9.191634e+000 166 16 29
2.842053e+000 -4.486533e-001 -9.267700e+000 102 46 45
4.041008e+000 -3.526935e-001 -9.818510e+000 151 114 98
-7.514203e-001 -7.385572e-001 -8.039698e+000 195 142 95
2.317694e+000 -6.428238e-001 -9.306271e+000 164 27 34
2.307618e+000 -6.553730e-001 -9.293131e+000 164 27 34
2.768586e+000 -6.337845e-001 -9.475154e+000 96 38 34
2.094265e+000 -7.229832e-001 -9.305820e+000 192 125 96
3.288399e+000 -6.584107e-001 -9.787634e+000 162 121 85
9.570490e-001 -9.145208e-001 -9.070041e+000 16 80 116
2.031211e+000 -8.296959e-001 -9.434302e+000 190 126 100
2.167947e+000 -8.450258e-001 -9.618247e+000 176 138 105
1.157500e+000 -9.129148e-001 -9.197020e+000 161 147 140
3.976243e+000 -8.704161e-001 -1.049173e+001 136 25 41
-1.968502e+000 -1.926673e-001 -8.576623e+000 194 167 158
1.065220e+000 -9.321162e-001 -9.403469e+000 169 41 49
1.818762e+000 -8.255328e-001 -9.939313e+000 22 81 160
9.594634e-001 -1.549424e-001 -8.155692e+000 153 30 47
1.709323e+000 -7.741572e-002 -8.466458e+000 97 29 14
1.939177e+000 -4.568153e-002 -8.536737e+000 194 134 92
2.032543e+000 -4.617041e-002 -8.567719e+000 197 135 86
2.433976e+000 -9.829397e-003 -8.729343e+000 153 18 25
3.598522e+000 4.338219e-002 -9.178627e+000 201 97 35
5.021289e-001 -4.216012e-001 -8.200907e+000 165 158 119
8.856188e-001 -4.987354e-001 -8.399872e+000 118 17 47
1.626364e+000 -5.451520e-001 -8.785988e+000 195 126 97
1.669115e+000 -5.424985e-001 -8.822741e+000 166 108 86
1.719389e+000 -5.394811e-001 -8.822702e+000 194 125 93
1.760782e+000 -5.417641e-001 -8.855353e+000 99 41 22
1.825513e+000 -5.002368e-001 -8.886572e+000 195 127 92
1.943752e+000 -4.478084e-001 -8.852347e+000 197 128 92
1.943752e+000 -4.478084e-001 -8.852347e+000 197 128 92
2.015297e+000 -4.972480e-001 -8.953775e+000 196 130 95
2.123538e+000 -4.636111e-001 -8.964771e+000 194 125 92
2.101476e+000 -5.042108e-001 -8.975889e+000 192 125 98
3.991853e+000 -5.070686e-001 -9.991207e+000 156 120 97
7.850769e-001 -7.336552e-001 -8.724272e+000 92 19 32
8.572345e-001 -7.325412e-001 -8.737457e+000 9 52 71
2.476983e+000 -7.233461e-001 -9.454909e+000 162 26 36
1.779102e+000 -8.122322e-001 -9.296886e+000 187 123 95
3.474441e+000 -6.782842e-001 -9.920872e+000 160 125 93
1.922263e+000 -8.764330e-001 -9.499961e+000 134 23 34
2.860470e+000 1.624819e-001 -8.811064e+000 156 11 28
4.027744e+000 1.143191e-001 -9.330999e+000 185 91 34
8.707962e-001 -3.304729e-001 -8.256486e+000 186 84 65
1.945514e+000 -4.505537e-001 -8.908749e+000 193 129 96
1.686428e+000 -8.138825e-001 -9.265219e+000 184 124 98
1.686428e+000 -8.138825e-001 -9.265219e+000 184 124 98
4.296095e+000 2.995855e-001 -9.327980e+000 84 29 15
8.309034e-002 -4.103916e-001 -7.973417e+000 29 57 20
3.443130e+000 -7.512283e-001 -1.001057e+001 99 66 49
2.732368e+000 1.635932e-001 -8.771035e+000 167 26 34
2.617889e+000 -3.613144e-001 -9.145341e+000 173 21 36
2.550118e+000 -4.936142e-001 -9.244546e+000 170 20 32
2.550118e+000 -4.936142e-001 -9.244546e+000 170 20 32
-1.692888e-001 -6.934378e-001 -8.214823e+000 103 114 78
4.252605e+000 4.319254e-001 -9.319531e+000 196 101 41
-5.002889e-002 -4.333377e-001 -8.003827e+000 75 108 105
1.750484e+000 -5.361306e-001 -8.814317e+000 119 56 38
1.750484e+000 -5.361306e-001 -8.814317e+000 119 56 38
1.006171e+000 7.969645e-002 -8.121294e+000 173 28 37
6.997912e-001 -8.940321e-001 -8.914887e+000 160 25 40
4.047212e+000 -7.786771e-001 -1.037590e+001 28 15 21
-1.819770e+000 -1.635849e-001 -8.485190e+000 218 193 186
3.821331e+000 -7.749529e-001 -1.043702e+001 190 160 140
3.447905e+000 -3.779196e-002 -9.169517e+000 125 26 9
-2.285946e-001 -4.024479e-001 -7.882956e+000 44 82 70
-2.285946e-001 -4.024479e-001 -7.882956e+000 44 82 70
2.614407e+000 -4.975605e-001 -9.225379e+000 185 65 68
2.614407e+000 -4.975605e-001 -9.225379e+000 185 65 68
5.469000e-001 -6.237858e-001 -8.439800e+000 141 140 118
5.469000e-001 -6.237858e-001 -8.439800e+000 141 140 118
7.365989e-001 -7.051353e-001 -8.644099e+000 176 141 103
-5.024365e-003 -7.603820e-001 -8.356039e+000 18 43 35
2.526108e+000 -7.627538e-001 -9.525791e+000 135 13 24
-2.328523e-001 -8.350849e-001 -8.403649e+000 28 51 29
1.417984e+000 -9.060569e-001 -9.318709e+000 160 40 46
-1.564449e+000 -3.981714e-001 -7.590419e+000 178 146 108
2.298803e+000 -7.997860e-001 -9.507901e+000 152 21 35
1.507807e+000 -9.020240e-001 -9.420440e+000 164 26 37
2.597624e+000 -2.665627e-002 -8.805182e+000 182 71 66
-7.712698e-002 -4.047880e-001 -7.920423e+000 61 97 95
1.268000e+000 -5.412281e-001 -8.653751e+000 175 114 88
3.297908e+000 -4.842435e-001 -9.562080e+000 162 119 77
-7.283493e-001 -6.171122e-001 -7.907647e+000 166 26 35
8.518754e-001 -1.739376e-001 -8.177508e+000 143 15 19
9.320894e-001 -3.123722e-001 -8.291407e+000 108 17 29
2.897468e+000 -2.731249e-001 -9.114530e+000 130 83 61
1.426622e+000 -8.854936e-002 -8.326875e+000 95 33 9
3.233202e+000 -3.228007e-002 -8.985088e+000 116 20 26
2.557808e+000 -5.590534e-002 -8.800341e+000 148 17 26
-5.696875e-002 -2.875866e-001 -7.976507e+000 73 99 66
-9.759244e-002 -4.524436e-001 -7.962069e+000 154 149 35
4.242257e+000 6.602924e-003 -9.563381e+000 47 6 2
-6.097338e-001 -4.852444e-001 -7.784743e+000 178 34 35
-6.248436e-001 -5.238469e-001 -7.873045e+000 201 155 112
-1.196456e-001 -5.105268e-001 -8.028529e+000 163 154 39
4.521274e-001 -4.528191e-001 -8.203989e+000 138 35 33
4.818782e-001 -4.741808e-001 -8.227404e+000 169 159 118
8.486017e-001 -3.896506e-001 -8.331554e+000 202 152 79
2.409743e+000 -4.028631e-001 -9.010068e+000 165 25 33
3.283149e+000 -2.848839e-001 -9.285905e+000 181 67 43
3.473625e+000 -1.893639e-001 -9.384384e+000 188 86 43
3.616984e+000 -2.979441e-001 -9.505990e+000 187 148 107
-2.967613e-001 -5.782210e-001 -8.055166e+000 148 142 31
-9.027051e-002 -5.632594e-001 -8.090890e+000 151 151 26
1.325195e-001 -6.674433e-001 -8.081233e+000 29 52 26
1.493143e+000 -5.194774e-001 -8.735105e+000 192 130 96
2.047651e+000 -5.048610e-001 -8.955990e+000 195 128 105
2.400916e+000 -4.336023e-001 -9.018382e+000 159 23 29
2.723219e+000 -4.061101e-001 -9.205357e+000 203 81 75
2.954003e+000 -4.286034e-001 -9.327235e+000 187 123 86
3.368214e+000 -3.600053e-001 -9.442930e+000 146 67 26
1.184123e-001 -6.700449e-001 -8.252796e+000 167 156 17
2.889968e+000 -5.682513e-001 -9.412974e+000 192 121 88
3.253363e+000 -4.750115e-001 -9.503069e+000 114 70 43
-6.592817e-001 -7.252154e-001 -8.096666e+000 194 116 81
-6.592817e-001 -7.252154e-001 -8.096666e+000 194 116 81
-2.718231e-001 -7.234671e-001 -8.220102e+000 155 143 38
-2.821944e-001 -8.030805e-001 -8.217724e+000 158 156 40
-4.417465e-002 -6.876393e-001 -8.270313e+000 156 151 34
7.646118e-001 -6.684478e-001 -8.607304e+000 156 20 24
1.516440e+000 -6.837432e-001 -8.966599e+000 191 127 100
3.166669e+000 -6.073934e-001 -9.589108e+000 159 118 87
3.263473e+000 -5.567042e-001 -9.620364e+000 161 122 92
3.255510e+000 -5.669697e-001 -9.611634e+000 161 122 92
4.055902e+000 -5.295627e-001 -9.965678e+000 122 57 45
-5.614292e-001 -8.184292e-001 -8.249990e+000 33 54 22
-2.571211e-001 -8.712920e-001 -8.301673e+000 33 46 33
7.495830e-001 -7.330305e-001 -8.687212e+000 193 147 102
7.261155e-001 -7.826916e-001 -8.745090e+000 196 149 113
7.261155e-001 -7.826916e-001 -8.745090e+000 196 149 113
1.658339e+000 -7.266156e-001 -9.039624e+000 183 118 88
2.368356e+000 -6.654284e-001 -9.343860e+000 157 17 27
3.274372e+000 -6.605488e-001 -9.735608e+000 153 115 84
3.495179e+000 -6.760591e-001 -9.889882e+000 29 11 23
-1.015837e-001 -8.387288e-001 -8.500799e+000 26 45 32
6.536268e-001 -8.360391e-001 -8.771016e+000 184 153 113
1.365967e+000 -8.027499e-001 -9.046443e+000 180 118 99
3.360088e+000 -7.323035e-001 -9.856817e+000 169 129 92
3.360088e+000 -7.323035e-001 -9.856817e+000 169 129 92
6.543242e-001 -9.318030e-001 -8.960325e+000 139 8 21
7.025755e-001 -9.290158e-001 -9.002897e+000 146 148 143
1.391489e+000 -9.129588e-001 -9.321597e+000 205 108 100
1.446255e+000 -8.984396e-001 -9.343637e+000 178 83 69
3.461388e+000 -8.462101e-001 -1.029210e+001 182 128 112
1.497515e+000 -9.149064e-001 -9.549860e+000 179 91 89
1.549112e+000 -9.195340e-001 -9.518682e+000 178 101 93
2.917248e+000 -8.871602e-001 -1.012462e+001 145 75 28
1.518322e+000 -8.790837e-001 -9.719884e+000 178 74 78
1.848761e+000 -8.237021e-001 -9.983872e+000 111 143 202
1.973321e+000 -8.694255e-001 -9.905843e+000 86 135 189
1.855919e+000 -8.537916e-001 -9.918779e+000 28 80 153
2.006965e+000 -8.135678e-001 -1.003157e+001 94 133 199
2.420533e+000 -8.107160e-001 -1.020967e+001 181 143 131
3.776249e-001 -7.996861e-001 -9.511141e+000 162 107 117
1.785077e+000 -7.145103e-001 -1.013045e+001 107 22 33
-9.600170e-001 -3.798154e-001 -9.464709e+000 155 171 140
-8.767030e-001 -5.202382e-001 -9.317545e+000 34 50 28
-2.662743e-001 -5.395423e-001 -9.555825e+000 60 74 53
-2.311812e-001 -5.351426e-001 -9.561528e+000 164 167 90
-1.416066e-001 -5.185693e-001 -9.623480e+000 57 69 38
-1.225222e+000 -3.783022e-001 -9.387010e+000 202 140 142
-1.225222e+000 -3.783022e-001 -9.387010e+000 202 140 142
1.356062e+000 -2.143795e-002 -8.249265e+000 101 45 26
-2.391499e-001 -2.408015e-001 -7.755812e+000 35 53 7
2.356386e+000 5.062406e-002 -8.692934e+000 188 134 98
2.395844e+000 5.892563e-002 -8.653718e+000 193 126 94
2.562540e+000 1.050855e-001 -8.710849e+000 182 61 59
2.586963e+000 8.569561e-002 -8.734330e+000 163 32 38
2.598069e+000 4.388570e-002 -8.792999e+000 157 23 29
2.598069e+000 4.388570e-002 -8.792999e+000 157 23 29
2.773190e+000 1.157988e-001 -8.789746e+000 208 89 75
2.766675e+000 4.053589e-002 -8.858276e+000 210 95 92
3.588590e+000 1.029588e-001 -9.151856e+000 202 80 36
-1.695971e+000 5.390338e-001 -7.732053e+000 193 46 39
-4.969400e-001 -3.353616e-001 -7.721118e+000 167 157 30
-4.969400e-001 -3.353616e-001 -7.721118e+000 167 157 30
-2.563047e-001 -2.786167e-001 -7.772337e+000 31 54 26
8.080800e-001 -2.281896e-001 -8.230841e+000 172 152 116
1.981806e+000 -8.164754e-002 -8.596994e+000 112 57 25
2.970016e+000 -1.531428e-002 -8.946734e+000 195 135 89
2.952446e+000 -5.413924e-002 -8.986643e+000 195 134 88
3.077304e+000 -1.103978e-001 -9.059522e+000 202 140 100
3.823809e+000 -5.222770e-002 -9.362728e+000 191 163 120
3.948215e+000 -3.061378e-002 -9.414947e+000 185 151 115
-3.156321e-001 -4.664094e-001 -7.889822e+000 163 153 38
5.708080e-001 -3.985739e-001 -8.227255e+000 173 158 118
9.596548e-001 -3.626802e-001 -8.379244e+000 25 81 106
9.596548e-001 -3.626802e-001 -8.379244e+000 25 81 106
2.463091e+000 -2.272499e-001 -8.922389e+000 160 27 28
2.755039e+000 -2.468621e-001 -9.045483e+000 194 71 67
3.530713e+000 -1.273860e-001 -9.302449e+000 191 122 38
-3.421201e-001 -4.697417e-001 -7.892548e+000 156 147 20
-3.124236e-001 -5.252767e-001 -7.938115e+000 154 149 18
-2.284667e-001 -5.098208e-001 -7.977069e+000 162 149 21
1.542905e-002 -5.093438e-001 -8.054364e+000 162 148 31
1.542905e-002 -5.093438e-001 -8.054364e+000 162 148 31
3.507267e+000 -2.341324e-001 -9.378309e+000 181 87 36
3.430077e+000 -3.339632e-001 -9.404039e+000 109 56 33
4.004199e+000 -2.685680e-001 -9.620684e+000 119 89 78
4.334823e-001 -5.551075e-001 -8.316079e+000 180 157 120
2.441747e+000 -4.928260e-001 -9.152117e+000 166 22 32
2.323294e+000 -5.485703e-001 -9.180390e+000 187 65 60
2.615372e+000 -5.086753e-001 -9.262841e+000 187 61 61
3.045687e+000 -4.620185e-001 -9.393875e+000 158 62 24
3.199345e+000 -5.397765e-001 -9.540435e+000 159 119 84
3.199811e+000 -5.390968e-001 -9.540973e+000 159 119 84
3.329298e+000 -5.240373e-001 -9.589752e+000 159 119 79
-5.937871e-001 -7.173982e-001 -8.105471e+000 39 82 95
3.268374e+000 -5.993952e-001 -9.672449e+000 120 79 55
3.194359e+000 -6.964927e-001 -9.620039e+000 126 85 64
3.530937e+000 -5.944864e-001 -9.798046e+000 35 16 16
3.976853e+000 -4.573289e-001 -9.902974e+000 152 119 103
3.899954e+000 -5.487057e-001 -9.972992e+000 30 11 16
-1.026204e-001 -7.599694e-001 -8.345328e+000 155 150 47
-1.026204e-001 -7.599694e-001 -8.345328e+000 155 150 47
7.227000e-001 -7.371335e-001 -8.673274e+000 202 155 108
7.391750e-001 -7.604775e-001 -8.714485e+000 189 148 96
2.587106e+000 -6.495652e-001 -9.428739e+000 159 21 39
3.350631e+000 -6.661589e-001 -9.817332e+000 169 127 90
3.342482e+000 -6.828414e-001 -9.842384e+000 163 122 89
3.980521e+000 -5.716205e-001 -1.005285e+001 153 107 98
7.274587e-001 -9.738688e-001 -8.661544e+000 24 83 102
8.180980e-001 -7.045709e-001 -8.917960e+000 17 73 100
1.364839e+000 -8.226450e-001 -9.084187e+000 113 68 55
1.660139e+000 -7.808229e-001 -9.176834e+000 104 54 45
2.333986e+000 -7.440556e-001 -9.488274e+000 159 25 36
2.262982e+000 -8.090881e-001 -9.515449e+000 164 49 47
7.581857e-001 -8.539426e-001 -8.912709e+000 22 74 104
1.969955e+000 -8.816017e-001 -9.506492e+000 127 24 37
1.126134e+000 -9.365696e-001 -9.288519e+000 167 54 43
1.478127e-001 -9.560017e-001 -9.152332e+000 68 93 93
1.082480e+000 -7.105185e-001 -9.897895e+000 129 146 191
-6.086245e-001 -3.340424e-001 -9.660052e+000 38 58 39
-4.623731e-001 -5.624031e-001 -9.435058e+000 170 169 147
-3.197354e-001 -4.081881e-001 -9.690875e+000 37 63 35
6.562097e-001 -3.904425e-001 -1.010286e+001 185 132 132
-1.306873e+000 -3.908706e-001 -9.327148e+000 182 41 57
-1.306873e+000 -3.908706e-001 -9.327148e+000 182 41 57
-8.700925e-001 -3.278378e-001 -9.576129e+000 166 171 89
1.619030e+000 2.745894e-001 -8.324068e+000 176 162 114
3.084791e+000 3.885514e-001 -8.848761e+000 70 14 13
3.889916e+000 3.075687e-001 -9.152307e+000 44 7 4
1.646557e+000 1.595445e-002 -8.420013e+000 120 55 34
2.289019e+000 5.866519e-003 -8.657538e+000 117 68 32
2.642668e+000 1.295705e-001 -8.747613e+000 189 79 73
4.339860e+000 1.539224e-001 -9.450672e+000 157 84 41
-4.975504e-001 -3.635240e-001 -7.738680e+000 29 55 21
2.158346e+000 -1.015669e-001 -8.656441e+000 181 123 88
2.253779e+000 -8.749955e-002 -8.692562e+000 103 49 14
3.601454e+000 5.341742e-002 -9.190788e+000 188 84 18
4.054232e+000 4.655367e-003 -9.424462e+000 152 85 30
2.974896e+000 -1.873888e-001 -9.069354e+000 194 136 96
3.928155e+000 -1.705603e-001 -9.480575e+000 172 94 27
-6.965397e-001 -5.460407e-001 -7.828172e+000 174 30 31
-2.057320e-001 -4.901661e-001 -7.956251e+000 48 93 101
-2.140080e-001 -5.455353e-001 -7.927007e+000 48 93 101
1.265190e+000 -4.621660e-001 -8.543398e+000 112 52 30
2.483746e+000 -3.355228e-001 -8.974271e+000 175 34 43
2.651101e+000 -3.619806e-001 -9.062351e+000 192 68 66
3.633308e+000 -2.701114e-001 -9.498587e+000 169 139 82
-2.706872e-001 -5.788244e-001 -8.053580e+000 66 95 96
1.527944e+000 -4.730739e-001 -8.695253e+000 99 52 31
-3.795373e-001 -6.476027e-001 -8.053875e+000 157 147 32
2.041070e+000 -5.276199e-001 -8.978350e+000 179 122 99
2.129471e+000 -5.311732e-001 -9.009411e+000 145 87 73
2.129471e+000 -5.311732e-001 -9.009411e+000 145 87 73
2.934088e+000 -4.678918e-001 -9.336735e+000 180 114 103
2.933958e+000 -4.677335e-001 -9.336452e+000 180 114 103
3.360070e+000 -4.777197e-001 -9.569280e+000 159 117 71
2.646043e+000 -6.314775e-001 -9.332684e+000 154 8 26
-8.377508e-001 -7.116931e-001 -8.121286e+000 34 91 117
2.490809e+000 -6.954963e-001 -9.424405e+000 160 16 29
2.651430e+000 -6.504249e-001 -9.453578e+000 153 22 35
3.504213e+000 -6.006312e-001 -9.821970e+000 185 142 100
7.249643e-001 -8.726258e-001 -8.846446e+000 77 22 43
1.267556e+000 -8.279665e-001 -9.090501e+000 154 98 83
1.267556e+000 -8.279665e-001 -9.090501e+000 154 98 83
2.529144e+000 -7.680209e-001 -9.582210e+000 146 18 33
2.376147e+000 -8.256554e-001 -9.593646e+000 177 67 68
1.204351e+000 -8.933474e-001 -9.229173e+000 167 42 36
1.521601e+000 -8.923808e-001 -9.337152e+000 158 32 40
1.708071e+000 -8.217226e-001 -9.531119e+000 175 28 48
3.822553e+000 -8.382224e-001 -1.034949e+001 75 41 45
9.965787e-001 -9.316509e-001 -9.446380e+000 168 167 166
1.938739e+000 -8.690148e-001 -9.862013e+000 16 80 151
4.946229e-001 -7.569080e-001 -9.606785e+000 176 165 173
5.860524e-001 -8.093764e-001 -9.564238e+000 161 114 123
5.864313e-001 -8.047650e-001 -9.567108e+000 161 114 123
6.144769e-002 1.346511e-001 -7.594242e+000 108 124 115
2.660670e+000 3.327101e-001 -8.679363e+000 48 18 21
2.557823e+000 1.536519e-001 -8.685959e+000 159 24 31
3.528333e+000 3.815571e-001 -8.996336e+000 201 118 28
3.889073e+000 2.607419e-001 -9.174138e+000 191 155 121
1.197649e+000 -4.131474e-002 -8.228845e+000 18 85 114
1.561853e+000 -6.792128e-002 -8.381824e+000 197 129 91
1.561853e+000 -6.792128e-002 -8.381824e+000 197 129 91
1.570150e+000 -7.587448e-002 -8.423272e+000 192 120 82
1.813619e+000 -5.212590e-002 -8.517511e+000 113 64 48
1.799548e+000 -8.055835e-002 -8.501733e+000 113 64 48
2.005211e+000 -8.978028e-003 -8.552803e+000 125 69 51
-2.060102e+000 3.503245e-001 -7.527155e+000 228 70 66
-1.590130e+000 3.274345e-001 -7.712648e+000 48 34 23
-5.340290e-002 -4.323420e-001 -7.989764e+000 65 105 98
5.859336e-001 -3.560957e-001 -8.173466e+000 173 155 119
9.164922e-001 -3.763929e-001 -8.339720e+000 147 20 34
-1.052008e+000 -5.390808e-001 -7.700413e+000 32 94 121
1.699891e-001 -4.768980e-001 -8.081946e+000 33 56 18
1.311670e+000 -4.485690e-001 -8.576639e+000 192 123 90
4.269877e+000 -5.973285e-002 -9.699045e+000 132 73 31
-6.673428e-001 -5.932810e-001 -7.920345e+000 182 27 36
1.462381e+000 -5.019058e-001 -8.685436e+000 191 124 89
1.467157e+000 -4.902592e-001 -8.693104e+000 191 124 89
1.367598e+000 -5.237894e-001 -8.691760e+000 192 125 89
1.399339e+000 -5.331842e-001 -8.730711e+000 188 130 108
1.399339e+000 -5.331842e-001 -8.730711e+000 188 130 108
1.591264e+000 -5.343445e-001 -8.754177e+000 123 75 62
1.591264e+000 -5.343445e-001 -8.754177e+000 123 75 62
1.644096e+000 -5.113676e-001 -8.809215e+000 195 126 97
1.809810e+000 -4.554538e-001 -8.808045e+000 125 67 44
2.195224e+000 -4.814857e-001 -8.988363e+000 196 125 94
8.340737e-001 -6.181551e-001 -8.540673e+000 147 20 33
2.889670e+000 -4.889629e-001 -9.363047e+000 193 127 99
2.807867e+000 -5.448478e-001 -9.389095e+000 113 61 47
1.825523e+000 -5.469776e-001 -9.171497e+000 192 123 94
2.818474e+000 -6.414218e-001 -9.476088e+000 180 114 89
2.818474e+000 -6.414218e-001 -9.476088e+000 180 114 89
1.818280e+000 -7.360645e-001 -9.128066e+000 187 123 94
1.735166e+000 -8.035894e-001 -9.238013e+000 106 51 44
1.735166e+000 -8.035894e-001 -9.238013e+000 106 51 44
1.834156e+000 -8.760527e-001 -9.262416e+000 189 123 97
1.834156e+000 -8.760527e-001 -9.262416e+000 189 123 97
7.792830e-001 -8.897493e-001 -8.916102e+000 7 44 67
9.272532e-001 -9.850869e-001 -9.449743e+000 168 164 172
2.114872e+000 -8.127164e-001 -1.008321e+001 188 142 118
2.114872e+000 -8.127164e-001 -1.008321e+001 188 142 118
6.160160e-001 -6.733436e-001 -9.756742e+000 173 166 174
1.059661e+000 -7.500799e-001 -9.803674e+000 60 76 143
-5.437723e-001 -5.567482e-001 -9.412470e+000 37 65 46
-5.167186e-001 -4.492389e-001 -9.562452e+000 170 166 137
-3.243378e-002 -6.417726e-001 -9.511372e+000 43 68 30
3.433090e+000 1.854945e-001 -9.167377e+000 124 15 23
4.171276e+000 1.534914e-001 -9.383307e+000 186 93 33
2.103736e-001 -3.440544e-001 -8.168536e+000 38 54 23
2.103736e-001 -3.440544e-001 -8.168536e+000 38 54 23
1.441323e+000 -5.479375e-001 -8.703245e+000 193 127 92
3.659000e+000 -3.251957e-001 -9.533235e+000 127 105 83
7.706619e-002 -7.430529e-001 -8.409086e+000 143 139 65
7.706619e-002 -7.430529e-001 -8.409086e+000 143 139 65
1.410705e+000 -8.135999e-001 -9.154810e+000 185 120 96
1.410705e+000 -8.135999e-001 -9.154810e+000 185 120 96
1.528646e+000 -7.672903e-001 -9.104902e+000 186 121 88
6.912857e-001 -9.096573e-001 -8.978295e+000 126 11 42
1.991351e+000 -8.906787e-001 -9.763847e+000 102 17 31
3.906908e+000 -8.514534e-001 -1.053351e+001 185 146 110
1.048883e+000 -9.248330e-001 -9.459327e+000 162 37 41
-2.556256e-001 -8.577120e-001 -9.196156e+000 34 65 45
5.380495e-001 -8.124067e-001 -9.514640e+000 165 166 177
1.709194e+000 -7.285022e-001 -1.006963e+001 131 38 48
-1.191745e-001 -4.945135e-001 -9.665718e+000 49 67 37
5.818387e-002 -5.822452e-001 -9.630095e+000 166 163 174
1.538236e-001 4.372554e-001 -7.692108e+000 178 160 120
2.029109e-001 1.339376e-001 -7.757840e+000 158 151 117
4.644507e-002 -1.340334e-001 -7.804724e+000 28 58 27
8.873941e-002 -1.654622e-001 -7.838828e+000 108 127 106
8.873941e-002 -1.654622e-001 -7.838828e+000 108 127 106
2.833618e+000 2.644222e-001 -8.959044e+000 166 23 37
5.188286e-003 -3.008932e-001 -7.929123e+000 29 54 32
1.386884e-001 -2.620942e-001 -8.005617e+000 32 60 29
-3.415736e-001 -5.911132e-001 -7.843413e+000 53 79 59
-2.133230e-001 -5.387848e-001 -7.951475e+000 118 128 61
8.392369e-001 -4.645788e-001 -8.341115e+000 163 51 45
-2.765221e-001 -6.774933e-001 -8.136678e+000 103 116 69
3.461481e+000 -7.291804e-001 -1.003092e+001 99 66 49
1.821770e+000 -8.664211e-001 -9.404270e+000 192 125 108
1.295311e+000 -9.010307e-001 -9.266385e+000 189 64 66
2.032542e+000 -7.236164e-001 -1.021343e+001 73 29 39
-1.176239e+000 -5.682360e-001 -9.186433e+000 197 138 130
-7.054261e-001 -4.962154e-001 -9.400918e+000 43 63 38
-2.836432e-001 -4.165587e-001 -9.671219e+000 78 97 72
4.176921e-001 -4.127522e-001 -8.202331e+000 172 152 125
-1.558977e-001 -8.056016e-001 -8.332859e+000 26 50 29
2.473996e+000 -6.562349e-001 -9.367241e+000 172 24 38
3.138099e+000 -8.399148e-001 -1.019232e+001 48 20 23
-1.373987e-002 -4.276255e-001 -9.792812e+000 175 167 176
-4.978009e-001 -5.930731e-001 -7.943482e+000 26 90 119
1.319013e+000 -7.904156e-001 -9.852499e+000 112 32 32
-1.329975e+000 -7.965141e-001 -8.801594e+000 164 161 179
3.675243e+000 4.656409e-001 -9.130075e+000 201 109 30
-9.863869e-001 -5.356014e-001 -7.579903e+000 24 91 120
2.016518e+000 -8.705557e-001 -9.615580e+000 108 15 25
2.396474e-001 -8.541447e-001 -9.352891e+000 169 165 179
1.952340e-001 -3.182095e-001 -7.956925e+000 30 63 24
9.066775e-001 -6.448989e-001 -9.864827e+000 164 35 47
3.700527e+000 -5.737020e-001 -9.944750e+000 64 41 40
-1.003681e+000 -7.737478e-001 -7.953516e+000 18 84 113
2.534697e+000 -6.967337e-001 -1.022503e+001 174 138 122
1.350608e+000 1.332363e-001 -8.200585e+000 163 97 77
3.368332e+000 9.845746e-002 -9.041080e+000 86 9 16
2.372996e+000 -7.804788e-002 -8.730694e+000 182 121 91
1.327613e+000 -1.491427e-001 -8.339197e+000 184 110 83
3.281028e+000 -2.778474e-001 -9.256708e+000 168 66 38
3.372071e+000 -2.219768e-001 -9.305189e+000 167 78 50
3.432310e+000 -2.422332e-001 -9.347355e+000 173 76 42
