ply
format ascii 1.0
element face 0
property list uchar int vertex_indices
element vertex 875
property float x
property float y
property float z
property uchar diffuse_red
property uchar diffuse_green
property uchar diffuse_blue
end_header
2.776988e+000 9.292906e-002 -8.832272e+000 178 30 45
2.776988e+000 9.292906e-002 -8.832272e+000 178 30 45
3.832875e-001 -1.045867e-001 -7.977534e+000 157 151 129
2.571116e+000 -3.760442e-001 -9.188996e+000 168 27 33
2.577919e+000 -3.619969e-001 -9.210590e+000 168 27 33
1.526150e+000 -5.901202e-001 -8.898329e+000 199 131 103
2.928131e+000 -6.164088e-001 -9.583232e+000 189 135 105
2.126722e+000 -8.557798e-001 -9.929224e+000 185 155 147
-1.768588e-001 -7.449171e-001 -8.346157e+000 114 140 129
-8.065499e-003 -7.238280e-001 -8.416025e+000 124 140 133
5.111818e-002 -7.717472e-001 -8.489359e+000 23 61 30
1.870523e+000 1.405107e+000 -9.243610e+000 185 162 130
1.136175e+000 1.042301e-001 -8.147843e+000 173 163 125
1.144489e-001 -1.016692e-002 -7.827118e+000 56 97 123
3.995522e+000 -2.066531e-001 -9.669298e+000 180 149 119
3.406940e+000 5.200517e-001 -9.111070e+000 179 138 92
1.673570e+000 -6.221487e-001 -9.004653e+000 196 135 107
3.256050e+000 -3.118270e-001 -9.389259e+000 142 46 25
2.875245e+000 4.161904e-001 -8.915876e+000 177 129 44
1.577704e+000 -7.982536e-001 -9.619626e+000 172 53 54
3.758895e+000 5.133362e-001 -9.327283e+000 186 105 23
2.567531e+000 -7.832298e-002 -8.872442e+000 167 10 21
2.092714e+000 2.363326e-001 -8.593629e+000 179 140 99
-2.303816e-002 2.370258e-001 -7.701936e+000 61 106 114
2.712806e+000 -7.105278e-002 -8.921782e+000 157 23 32
2.517214e+000 -1.985390e-001 -8.935815e+000 184 72 71
4.050982e+000 -2.032034e-001 -9.685784e+000 141 73 38
3.548975e+000 -3.609915e-001 -9.560808e+000 33 17 28
-4.340916e-001 -4.262823e-001 -7.901982e+000 18 75 111
5.346485e-001 -4.551428e-001 -8.306258e+000 149 158 124
5.353007e-001 -4.524999e-001 -8.311340e+000 149 158 124
2.290962e+000 -4.323942e-001 -9.060106e+000 144 18 31
3.138672e+000 -3.975850e-001 -9.380908e+000 184 59 53
3.235512e+000 -4.708649e-001 -9.535133e+000 182 145 108
3.279646e+000 -4.224265e-001 -9.498466e+000 120 77 49
-5.331223e-001 -5.420454e-001 -7.944322e+000 161 25 30
-5.331223e-001 -5.420454e-001 -7.944322e+000 161 25 30
-5.529476e-001 -5.504100e-001 -7.947459e+000 204 153 120
4.922777e-001 -5.061114e-001 -8.328302e+000 113 26 29
2.432022e+000 -5.052520e-001 -9.198157e+000 179 67 74
3.003592e+000 -4.999623e-001 -9.432538e+000 194 149 107
1.585183e+000 -7.305197e-001 -9.113708e+000 124 74 59
1.791137e+000 -6.719411e-001 -9.121600e+000 111 61 41
2.522423e+000 -7.655465e-001 -9.599153e+000 201 90 97
3.188627e+000 -7.211883e-001 -9.848562e+000 172 139 108
7.135825e-001 -9.098481e-001 -9.051546e+000 34 64 94
1.026463e+000 -6.496959e-002 -8.268884e+000 21 84 117
1.140700e+000 -1.343961e-001 -8.322346e+000 15 52 67
4.149738e+000 -5.609381e-002 -9.536840e+000 124 62 20
2.659622e+000 -2.453712e-001 -9.034784e+000 159 32 41
3.458762e+000 -5.415103e-001 -9.748994e+000 176 144 124
-1.369064e-001 -6.263621e-001 -8.210271e+000 25 56 45
2.595608e+000 -5.933440e-001 -9.392676e+000 162 53 56
2.614402e+000 -6.079803e-001 -9.325535e+000 158 20 35
3.993184e+000 -5.916194e-001 -1.014126e+001 115 53 51
2.233092e+000 -6.859942e-001 -9.344369e+000 203 95 96
2.470360e+000 -7.517398e-001 -9.571960e+000 183 73 79
8.097312e-001 -7.903425e-001 -8.831135e+000 30 86 131
1.157175e+000 -9.082248e-001 -9.257938e+000 165 169 153
2.194971e+000 -4.483961e-001 -9.027349e+000 198 132 110
1.443389e+000 -5.212289e-001 -8.752562e+000 194 132 107
2.604883e+000 -6.468361e-001 -9.424410e+000 150 18 41
8.957183e-001 -6.831670e-001 -8.728579e+000 18 52 84
3.803414e+000 -8.070687e-001 -1.028333e+001 169 153 142
1.808107e+000 1.071256e+000 -8.881876e+000 23 17 22
9.672586e-001 -1.757248e-001 -8.253371e+000 165 17 28
2.087157e+000 -7.841417e-002 -8.669007e+000 196 143 112
-4.430234e-001 -3.881948e-001 -7.854994e+000 28 54 32
-1.391467e+001 2.331277e+001 -3.499000e+001 92 72 63
3.656641e+000 5.663177e-003 -9.272511e+000 182 111 48
4.190394e+000 5.044265e-002 -9.489051e+000 143 81 44
-5.645162e-002 -5.066660e-001 -8.146008e+000 112 124 40
7.405910e-001 -6.324649e-001 -8.625013e+000 154 29 37
-1.581535e+000 1.284525e+000 -8.455208e+000 107 90 75
3.942689e+000 -7.947984e-001 -1.037237e+001 36 15 24
-8.278896e-001 -8.680462e-001 -8.273554e+000 129 135 136
3.996446e-001 -9.401958e-001 -9.185983e+000 154 160 176
8.740347e-001 -7.342407e-001 -9.010013e+000 15 76 119
1.702652e-001 -2.388954e-001 -8.045220e+000 23 57 27
4.348745e+000 2.926821e-001 -9.357140e+000 43 22 29
9.015952e-001 5.957099e-003 -8.131905e+000 143 8 23
3.750765e+000 1.270162e-001 -9.209592e+000 187 156 120
4.143634e+000 1.948513e-001 -9.359359e+000 67 14 32
4.123059e+000 1.396838e-001 -9.384234e+000 56 14 26
9.163877e-001 -1.308581e-001 -8.217632e+000 203 154 109
4.093625e+000 2.074292e-002 -9.475067e+000 33 7 17
8.947812e-001 -2.449206e-001 -8.298998e+000 183 147 100
4.017529e+000 -6.939493e-002 -9.501872e+000 159 90 24
-8.534014e-001 -1.036394e+000 -7.009859e+000 147 138 117
3.317000e+000 -1.979609e-001 -9.288688e+000 184 66 47
3.250539e+000 -2.445731e-001 -9.318854e+000 180 56 29
3.284523e+000 -2.339381e-001 -9.328521e+000 116 28 9
3.273722e+000 -2.452375e-001 -9.311939e+000 116 28 9
-4.750610e-001 -4.271631e-001 -7.868873e+000 16 69 47
-3.247009e-001 -4.438172e-001 -7.918129e+000 19 70 54
8.682579e-001 -4.285869e-001 -8.422740e+000 137 10 4
3.088197e+000 -2.700761e-001 -9.349535e+000 176 52 34
3.531853e+000 -2.990065e-001 -9.468560e+000 187 148 111
-9.750275e-001 -5.230825e-001 -7.780434e+000 30 76 117
7.748288e-001 -5.119269e-001 -8.430923e+000 152 16 28
8.725420e-001 -4.738803e-001 -8.456571e+000 196 148 112
2.581312e+000 -4.712793e-001 -9.223416e+000 154 15 32
2.887888e+000 -4.602320e-001 -9.350417e+000 177 109 88
3.187442e+000 -4.404921e-001 -9.471602e+000 180 118 85
3.186162e+000 -4.419046e-001 -9.469552e+000 180 118 85
-6.326099e-001 -5.900895e-001 -7.975729e+000 193 141 104
-1.436910e-001 -5.949751e-001 -8.171080e+000 162 145 23
4.626348e-001 -5.334731e-001 -8.382200e+000 155 140 109
8.338671e-001 -5.763524e-001 -8.574117e+000 203 146 116
1.394881e+000 -5.316342e-001 -8.773021e+000 175 115 76
2.433423e+000 -5.038145e-001 -9.200415e+000 187 67 71
2.611744e+000 -4.898377e-001 -9.278658e+000 148 19 27
3.186754e+000 -4.908043e-001 -9.525946e+000 105 60 33
3.283133e+000 -5.145504e-001 -9.625217e+000 161 122 90
4.834696e-001 -6.250189e-001 -8.476760e+000 147 139 115
7.967650e-001 -5.969629e-001 -8.592169e+000 183 153 107
3.383796e+000 -5.488936e-001 -9.695198e+000 169 129 89
3.292082e+000 -6.349081e-001 -9.759439e+000 167 128 96
3.427534e+000 -6.812155e-001 -9.902878e+000 41 23 35
3.786401e+000 -6.467961e-001 -1.006319e+001 27 4 16
3.782244e+000 -6.510805e-001 -1.005623e+001 27 4 16
3.855217e+000 -6.193134e-001 -1.008174e+001 156 129 111
3.855217e+000 -6.193134e-001 -1.008174e+001 156 129 111
3.990591e+000 -6.103623e-001 -1.016830e+001 120 55 48
-1.951291e-001 -7.601011e-001 -8.386154e+000 154 146 35
7.458948e-001 -7.476889e-001 -8.773722e+000 126 15 3
2.187197e+000 -7.802578e-001 -9.471081e+000 197 113 96
3.260982e+000 -7.065387e-001 -9.852436e+000 170 127 100
-6.823702e-001 -8.330082e-001 -8.317762e+000 165 147 114
2.142796e+000 -7.406951e-001 -9.537382e+000 185 117 91
2.535631e+000 -8.031571e-001 -9.658056e+000 150 23 34
2.453308e+000 -8.240695e-001 -9.666660e+000 136 8 21
3.348166e+000 -7.912685e-001 -1.005956e+001 178 148 131
1.939097e+000 -8.601759e-001 -9.529022e+000 197 127 114
1.429315e+000 -9.099246e-001 -9.424021e+000 191 76 80
1.559411e+000 -9.101026e-001 -9.515482e+000 200 119 108
1.559639e+000 -9.096733e-001 -9.516603e+000 200 119 108
3.934556e+000 2.161294e-001 -9.255969e+000 94 48 31
1.132658e+000 -1.547855e-001 -8.299408e+000 14 41 64
2.457370e+000 -9.241472e-002 -8.775546e+000 198 76 79
3.458063e+000 4.388038e-003 -9.177183e+000 113 35 25
2.674505e+000 -1.279466e-001 -8.953361e+000 191 69 67
4.074918e+000 -4.730427e-002 -9.537595e+000 37 6 31
4.134595e+000 -3.352587e-002 -9.573336e+000 52 12 23
2.428868e+000 -2.074762e-001 -8.934310e+000 147 22 28
2.653769e+000 -2.204706e-001 -9.016430e+000 179 70 67
3.187738e+000 -2.449379e-001 -9.280723e+000 192 132 73
4.060629e+000 -1.197666e-001 -9.620810e+000 48 12 5
-4.320180e-001 -4.303949e-001 -7.898868e+000 1 71 94
-1.764380e-001 -4.575942e-001 -8.008261e+000 42 85 86
2.620113e+000 -3.563891e-001 -9.109232e+000 188 77 76
3.446040e+000 -3.501418e-001 -9.477186e+000 181 99 57
3.996376e+000 -2.892652e-001 -9.753487e+000 169 128 111
4.758300e-001 -5.189149e-001 -8.339685e+000 163 143 106
3.196516e+000 -4.134442e-001 -9.439764e+000 188 85 46
3.412425e+000 -3.573309e-001 -9.508911e+000 182 98 60
3.378717e+000 -4.386435e-001 -9.563075e+000 160 114 81
3.967434e+000 -3.324744e-001 -9.792895e+000 158 123 102
-5.066313e-001 -4.192854e-001 -8.120234e+000 171 27 32
-3.429674e-001 -5.914589e-001 -8.080694e+000 25 69 65
-3.429674e-001 -5.914589e-001 -8.080694e+000 25 69 65
4.550941e-001 -5.706188e-001 -8.403330e+000 159 145 106
5.819712e-001 -5.551371e-001 -8.427488e+000 135 68 65
5.819712e-001 -5.551371e-001 -8.427488e+000 135 68 65
5.672403e-001 -5.617203e-001 -8.455779e+000 150 136 109
3.237210e+000 -4.685876e-001 -9.539813e+000 175 129 96
3.116547e+000 -4.916531e-001 -9.525249e+000 179 136 101
3.927583e+000 -4.606721e-001 -9.925855e+000 158 126 104
1.802793e+000 -6.359002e-001 -9.080470e+000 115 68 60
3.187271e+000 -5.936163e-001 -9.664994e+000 168 124 90
-6.478829e-001 -7.073696e-001 -8.120938e+000 192 147 108
-5.514211e-001 -7.017133e-001 -8.082321e+000 172 27 36
8.566054e-001 -6.722564e-001 -8.748094e+000 25 70 100
1.875083e+000 -6.770511e-001 -9.168241e+000 97 60 45
1.875083e+000 -6.770511e-001 -9.168241e+000 97 60 45
2.261801e+000 -6.927420e-001 -9.387103e+000 153 14 35
2.331508e+000 -6.642286e-001 -9.355728e+000 146 16 29
2.554849e+000 -6.462624e-001 -9.474700e+000 150 25 33
3.023142e+000 -6.926612e-001 -9.729489e+000 172 128 98
3.794089e+000 -5.698474e-001 -1.001230e+001 94 75 64
3.921603e+000 -5.974725e-001 -1.002800e+001 92 31 24
-5.273401e-001 -7.745783e-001 -8.272306e+000 147 140 24
1.377519e-001 -7.608241e-001 -8.507082e+000 163 150 42
1.019111e+000 -1.964812e-001 -9.624774e+000 27 76 112
1.019111e+000 -1.964812e-001 -9.624774e+000 27 76 112
1.585476e+000 -7.300415e-001 -9.114139e+000 119 68 70
1.915914e+000 -7.804119e-001 -9.334346e+000 112 69 62
1.915914e+000 -7.804119e-001 -9.334346e+000 112 69 62
2.469276e+000 -7.352392e-001 -9.519174e+000 147 30 31
3.385047e+000 -7.186891e-001 -9.964109e+000 188 154 124
-2.747335e-001 -8.195142e-001 -8.448834e+000 156 152 32
4.532791e-002 -7.985195e-001 -8.554075e+000 157 151 21
1.446170e+000 -8.303050e-001 -9.212875e+000 116 65 59
2.395195e+000 -8.070143e-001 -9.634997e+000 156 22 37
2.394912e+000 -8.073144e-001 -9.634428e+000 156 22 37
3.767699e+000 -8.727564e-001 -1.020589e+001 74 9 23
1.515820e+000 -8.805611e-001 -9.496823e+000 164 26 37
1.482270e+000 -9.103400e-001 -9.480940e+000 172 35 50
1.655229e+000 -8.923750e-001 -9.535848e+000 174 34 47
3.449129e+000 9.989241e-002 -9.121395e+000 210 109 48
3.785425e+000 2.533855e-001 -9.244642e+000 77 46 26
1.970834e+000 -4.814496e-002 -8.615520e+000 117 74 62
2.435421e+000 -4.694536e-004 -8.781290e+000 163 39 47
2.996733e+000 -1.105797e-001 -9.078732e+000 106 49 28
3.332884e+000 -1.403389e-001 -9.253327e+000 185 117 46
3.594853e+000 -1.156662e-001 -9.329848e+000 214 131 65
3.594853e+000 -1.156662e-001 -9.329848e+000 214 131 65
-9.049497e-002 -3.215270e-001 -7.950123e+000 49 87 80
-4.784121e-001 -4.535276e-001 -7.902868e+000 175 26 30
2.302425e-001 -4.548336e-001 -8.171022e+000 165 156 13
2.302425e-001 -4.548336e-001 -8.171022e+000 165 156 13
-2.397516e-001 -1.464405e+000 -7.001341e+000 43 84 89
-2.397516e-001 -1.464405e+000 -7.001341e+000 43 84 89
2.152402e+000 -4.552323e-001 -9.015398e+000 96 45 34
2.342709e+000 -4.080747e-001 -9.041465e+000 202 81 86
2.706136e+000 -3.932423e-001 -9.182862e+000 147 8 28
2.894727e+000 -4.423780e-001 -9.331421e+000 122 69 64
3.962190e+000 -3.676428e-001 -9.839000e+000 169 140 124
-9.815699e-001 -5.615754e-001 -7.805890e+000 26 99 124
4.897407e-001 -5.505843e-001 -8.377595e+000 154 144 117
8.213725e-001 -5.604048e-001 -8.544204e+000 153 25 35
-2.810561e-001 -6.180676e-001 -8.126436e+000 21 45 24
4.888143e-001 -6.280377e-001 -8.490258e+000 146 141 117
3.857463e+000 -5.600621e-001 -9.900159e+000 158 128 107
-2.487045e-001 -6.743342e-001 -8.260466e+000 153 139 22
-2.487045e-001 -6.743342e-001 -8.260466e+000 153 139 22
-5.128069e-002 -6.914371e-001 -8.354515e+000 163 149 20
1.895786e+000 -7.159147e-001 -9.232549e+000 184 114 82
2.697351e+000 -6.792801e-001 -9.546709e+000 137 78 74
3.429756e+000 -6.150678e-001 -9.832421e+000 187 152 118
-6.219530e-001 -7.424902e-001 -8.173831e+000 177 36 45
1.465411e+000 -7.935839e-001 -9.150695e+000 99 49 35
1.465474e+000 -7.936090e-001 -9.150701e+000 99 49 35
2.359865e+000 -7.555115e-001 -9.537956e+000 146 16 28
1.764521e+000 -8.024397e-001 -9.415037e+000 188 125 113
2.400335e+000 -7.983425e-001 -9.584512e+000 153 22 38
2.111337e+000 -8.948724e-001 -9.590226e+000 175 131 100
3.843308e+000 -8.613320e-001 -1.051717e+001 190 162 112
-1.217368e+000 -1.019871e+000 -8.415250e+000 161 155 152
1.907288e+000 -8.223750e-002 -8.598459e+000 183 121 81
2.173530e+000 -9.175029e-002 -8.680169e+000 185 123 82
1.811286e+000 -1.279491e-001 -8.585167e+000 188 128 73
1.808497e+000 -1.327766e-001 -8.579932e+000 188 128 73
-5.185989e-001 -4.574648e-001 -7.893341e+000 170 28 32
-5.216806e-001 -4.657541e-001 -7.884661e+000 170 28 32
-1.456505e+000 -4.030988e-001 -7.653255e+000 188 156 117
3.240423e+000 -8.600334e-002 -9.783989e+000 189 117 89
1.813675e+000 -4.973120e-001 -8.913280e+000 182 111 84
9.200097e-001 -6.120999e-001 -8.655936e+000 15 49 74
1.830887e+000 -6.722080e-001 -9.124301e+000 177 114 82
1.830887e+000 -6.722080e-001 -9.124301e+000 177 114 82
1.918884e+000 -6.772515e-001 -9.188963e+000 182 113 90
1.919141e+000 -6.776189e-001 -9.188851e+000 182 113 90
1.350687e+000 -7.511579e-001 -9.071204e+000 186 116 95
1.788749e+000 -7.542047e-001 -9.251792e+000 179 118 95
1.305098e+000 -8.364312e-001 -9.178489e+000 179 117 96
1.305947e+000 -8.346645e-001 -9.180297e+000 179 117 96
1.977950e+000 -7.581572e-001 -9.490483e+000 182 121 102
4.292150e+000 1.493395e-001 -9.397266e+000 29 24 33
4.092903e+000 -5.319041e-003 -9.516257e+000 159 82 33
4.086929e+000 -6.777231e-003 -9.512577e+000 159 82 33
1.447520e+000 -5.259906e-001 -8.793233e+000 179 113 86
2.151641e+000 -6.693392e-001 -9.288586e+000 182 115 89
2.211866e+000 -6.538904e-001 -9.323198e+000 158 25 38
1.823489e+000 -8.840253e-001 -9.510100e+000 154 32 44
3.876299e+000 -3.054864e-001 -9.694892e+000 93 67 68
3.830722e+000 -6.654642e-001 -1.009943e+001 125 99 77
1.760816e+000 -8.445481e-001 -9.449763e+000 186 121 104
1.564542e+000 -9.138441e-001 -9.470352e+000 181 99 81
1.975415e-001 -3.560745e-003 -7.793739e+000 150 143 115
3.412664e+000 -5.783410e-002 -9.173702e+000 160 62 34
3.592816e+000 -2.469267e-001 -9.463577e+000 193 152 119
-9.536640e-001 -4.490989e-001 -7.812397e+000 28 87 117
-9.769785e-001 -5.541242e-001 -7.858132e+000 19 87 111
-4.569383e-001 -8.183786e-001 -8.347244e+000 118 121 103
1.367302e+000 -8.755864e-001 -9.277115e+000 188 122 105
1.465247e+000 -8.675836e-001 -9.319871e+000 194 127 112
3.052923e+000 -2.481768e-001 -9.245624e+000 180 123 81
-8.151543e-002 -5.624526e-001 -8.249424e+000 78 106 107
1.915369e+000 -5.928421e-001 -9.065852e+000 178 111 84
1.568255e+000 -8.409995e-001 -9.765029e+000 189 93 94
3.597812e-001 -4.824960e-001 -8.281879e+000 152 144 116
2.112093e+000 -5.866714e-001 -9.212784e+000 189 119 86
1.108520e+000 -4.350854e-002 -8.364884e+000 147 160 142
1.096540e+000 -7.991908e-002 -8.321157e+000 147 160 142
2.063358e+000 3.161031e-001 -8.813192e+000 187 123 85
3.177372e+000 -6.957415e-001 -1.004186e+001 173 130 98
1.492512e+000 -9.721417e-001 -8.660399e+000 134 68 41
-1.781942e+001 2.074377e+001 -3.834326e+001 75 60 53
1.591662e+000 2.041663e-001 -8.318695e+000 191 144 98
2.395248e-002 -2.130266e-001 -7.905199e+000 137 143 21
1.038458e-002 -2.451789e-001 -7.941719e+000 19 41 23
3.286512e+000 -1.652123e-001 -9.247563e+000 124 55 6
-1.147006e-001 -2.907534e-001 -7.898285e+000 155 154 29
8.773914e-001 -3.190835e-001 -8.353942e+000 191 160 121
2.382611e+000 -2.206169e-001 -8.902321e+000 193 83 78
2.023319e-001 -3.580152e-001 -8.116441e+000 102 126 119
-9.838364e-001 -5.405229e-001 -7.815829e+000 20 91 138
4.787275e-001 -6.694090e-001 -8.233120e+000 155 169 143
5.187653e-001 -6.016004e-001 -8.473541e+000 169 157 145
-2.237090e-001 -6.818826e-001 -8.251051e+000 155 154 27
-1.318622e-001 -7.282250e-001 -8.362928e+000 159 161 30
6.529277e-002 -6.773732e-001 -8.380003e+000 21 55 20
-6.496428e-001 -7.518027e-001 -8.178768e+000 196 150 113
-5.567028e-001 -8.038432e-001 -8.293069e+000 173 171 53
-1.553168e-001 -7.810530e-001 -8.430492e+000 170 160 46
4.146664e-002 -8.034886e-001 -8.544812e+000 170 172 51
-1.389729e-001 -8.263414e-001 -8.496324e+000 166 165 43
2.667519e+000 -1.682179e-001 -8.983147e+000 202 92 85
2.665754e+000 -1.695306e-001 -8.980866e+000 202 92 85
3.422884e+000 -2.704368e-001 -9.396862e+000 184 85 43
-1.566579e+000 -9.221533e-002 -8.020924e+000 177 150 121
1.804206e-001 -5.114736e-001 -8.196508e+000 165 155 21
2.437479e+000 -4.844273e-001 -9.148444e+000 205 93 85
2.540450e+000 -5.809801e-001 -9.342414e+000 201 84 81
2.087761e+000 -7.613347e-001 -9.352223e+000 137 87 76
-9.873769e+000 3.302290e+001 -3.887249e+001 100 86 83
-5.880838e-001 -5.311405e-001 -7.921045e+000 182 29 41
-5.880838e-001 -5.311405e-001 -7.921045e+000 182 29 41
1.395328e+000 -7.523718e-001 -9.058641e+000 126 77 73
1.395920e+000 -7.513334e-001 -9.059788e+000 126 77 73
2.062964e+000 -7.376422e-001 -9.338851e+000 199 134 112
3.233353e+000 -6.981139e-001 -9.820198e+000 141 106 87
2.543432e+000 -7.845023e-001 -9.615174e+000 159 21 34
-6.207995e-001 -8.338236e-001 -8.297566e+000 195 39 40
1.355867e+000 -2.645910e-002 -8.345000e+000 91 47 43
-9.434739e+000 3.499310e+001 -3.627458e+001 109 94 90
-1.012211e+001 3.327840e+001 -3.805190e+001 112 92 89
4.393635e-001 -8.693062e-002 -8.011014e+000 163 153 128
-1.583347e+001 2.100066e+001 -3.718925e+001 119 100 85
3.596749e-001 -6.398032e-002 -7.938583e+000 167 152 116
1.926258e-001 -1.213102e-001 -7.923480e+000 26 48 23
9.279557e-001 -6.695619e-002 -8.190037e+000 195 141 101
1.710751e+000 2.058139e+000 -1.047200e+001 144 23 21
3.757960e+000 1.058214e-002 -9.313556e+000 183 151 122
1.088304e-001 -2.393119e-001 -7.949398e+000 150 143 33
9.166262e-001 -1.962096e-001 -8.274720e+000 146 13 29
9.297604e-001 -2.091688e-001 -8.288819e+000 195 133 105
3.286492e+000 -1.475425e-001 -9.223480e+000 128 60 26
3.286492e+000 -1.475425e-001 -9.223480e+000 128 60 26
3.709133e+000 -5.469828e-002 -9.343372e+000 55 22 15
-1.130261e-001 -3.212058e-001 -7.939927e+000 153 142 33
8.795397e-001 -2.986645e-001 -8.329855e+000 194 150 104
3.165134e+000 -2.304026e-001 -9.258795e+000 122 52 7
3.333429e+000 -1.822827e-001 -9.310970e+000 184 66 47
3.288136e+000 -2.620009e-001 -9.320876e+000 168 61 39
3.942272e+000 -1.233302e-001 -9.528206e+000 168 101 55
4.117340e+000 -1.059377e-001 -9.653715e+000 40 2 4
-1.542891e-001 -4.577398e-001 -8.017638e+000 148 137 12
4.814794e-001 -3.940952e-001 -8.227160e+000 117 30 22
4.814794e-001 -3.940952e-001 -8.227160e+000 117 30 22
8.668052e-001 -4.305405e-001 -8.420047e+000 137 10 4
3.207645e+000 -2.693531e-001 -9.301326e+000 106 24 18
-9.765080e-001 -5.156960e-001 -7.789810e+000 30 76 117
-5.022168e-001 -4.792170e-001 -7.909085e+000 205 135 95
-5.021029e-001 -4.841213e-001 -7.904656e+000 205 135 95
-2.552510e-001 1.029920e-001 -8.577800e+000 20 43 16
-3.621497e-001 -5.490784e-001 -7.994750e+000 21 46 29
4.709829e-001 -4.704353e-001 -8.295132e+000 130 20 19
5.341682e-001 -4.564720e-001 -8.305196e+000 157 146 119
8.637592e-001 -4.972453e-001 -8.480477e+000 191 140 108
8.634136e-001 -4.980064e-001 -8.479587e+000 191 140 108
8.571262e-001 -5.209459e-001 -8.507393e+000 189 146 101
2.315823e+000 -4.814882e-001 -9.100175e+000 185 64 71
2.374829e+000 -4.311608e-001 -9.107927e+000 143 19 22
2.609171e+000 -4.064418e-001 -9.158724e+000 186 68 72
2.739107e+000 -3.967701e-001 -9.215791e+000 195 123 83
3.213565e+000 -4.308717e-001 -9.460430e+000 117 44 18
3.257574e+000 -4.256212e-001 -9.510622e+000 161 116 83
3.533855e+000 -3.697948e-001 -9.575835e+000 184 155 127
3.897573e+000 -3.234937e-001 -9.722380e+000 41 13 11
-8.901986e-001 -5.463611e-001 -7.835256e+000 26 84 108
-6.555982e-001 -5.475797e-001 -7.913951e+000 187 137 99
-6.555982e-001 -5.475797e-001 -7.913951e+000 187 137 99
-6.185462e-001 -5.651687e-001 -7.956740e+000 187 145 105
-5.534222e-001 -5.503985e-001 -7.948109e+000 194 143 97
-1.130790e-001 -5.772971e-001 -8.117961e+000 160 149 34
2.888843e-002 -5.648341e-001 -8.196639e+000 156 146 19
5.269633e-001 -5.310675e-001 -8.376430e+000 114 15 19
5.269633e-001 -5.310675e-001 -8.376430e+000 114 15 19
8.474476e-001 -5.418944e-001 -8.531960e+000 183 144 107
1.307136e+000 -5.567427e-001 -8.754282e+000 169 113 98
2.616628e+000 -4.792830e-001 -9.260301e+000 146 16 28
2.644398e+000 -4.734417e-001 -9.259948e+000 185 66 64
3.205571e+000 -5.046749e-001 -9.548609e+000 173 129 93
3.410968e+000 -4.696544e-001 -9.610652e+000 166 123 90
-6.203012e-001 -6.080303e-001 -8.003425e+000 162 33 31
-6.609051e-001 -6.656841e-001 -8.059747e+000 186 147 108
-5.685039e-001 -6.682998e-001 -8.096161e+000 194 125 92
-5.686506e-001 -6.702131e-001 -8.094301e+000 194 125 92
-2.511711e-001 -6.074110e-001 -8.254932e+000 156 144 52
2.191195e-003 -6.296508e-001 -8.292098e+000 152 148 25
4.472010e-001 -6.315610e-001 -8.471134e+000 159 128 110
4.481355e-001 -6.284125e-001 -8.475021e+000 159 128 110
4.962937e-001 -6.026384e-001 -8.467595e+000 102 18 20
4.962937e-001 -6.026384e-001 -8.467595e+000 102 18 20
4.395682e-001 -6.558411e-001 -8.497030e+000 150 140 115
8.242350e-001 -5.997756e-001 -8.600141e+000 200 140 111
7.709940e-001 -6.620351e-001 -8.665049e+000 194 149 103
7.709940e-001 -6.620351e-001 -8.665049e+000 194 149 103
7.969580e-001 -6.620941e-001 -8.673801e+000 173 149 92
2.289742e+000 -6.210269e-001 -9.275335e+000 151 16 36
2.839610e+000 -6.035709e-001 -9.513549e+000 76 24 26
2.837800e+000 -6.054920e-001 -9.510887e+000 76 24 26
3.135182e+000 -5.672861e-001 -9.576283e+000 170 125 91
3.153421e+000 -5.481672e-001 -9.602000e+000 170 125 91
3.182104e+000 -6.077276e-001 -9.702824e+000 164 126 93
3.286200e+000 -6.249402e-001 -9.722705e+000 168 127 96
-6.092155e-001 -6.848343e-001 -8.105186e+000 191 133 103
-5.887545e-001 -6.820295e-001 -8.096992e+000 162 22 25
-6.003781e-001 -7.004625e-001 -8.145589e+000 171 30 39
-3.611452e-001 -6.813084e-001 -8.193037e+000 155 147 26
-4.174652e-001 -7.363583e-001 -8.247971e+000 75 93 70
7.775993e-001 -6.756303e-001 -8.683720e+000 146 10 22
7.775669e-001 -6.760345e-001 -8.683236e+000 146 10 22
1.506166e+000 -6.908874e-001 -9.024228e+000 172 115 90
2.360823e+000 -6.761137e-001 -9.385216e+000 175 61 54
2.292290e+000 -7.022639e-001 -9.403649e+000 184 71 71
2.514520e+000 -6.494427e-001 -9.430723e+000 180 60 67
2.527081e+000 -6.881595e-001 -9.490385e+000 142 15 25
3.292667e+000 -6.793176e-001 -9.868684e+000 166 126 100
3.429481e+000 -6.802708e-001 -9.904874e+000 41 23 35
3.849386e+000 -6.470277e-001 -1.011059e+001 159 134 115
7.654098e-001 -7.365617e-001 -8.761478e+000 192 142 113
7.409429e-001 -7.851972e-001 -8.815470e+000 188 147 104
1.558905e+000 -7.667313e-001 -9.157069e+000 180 119 93
1.830699e+000 -7.623484e-001 -9.272628e+000 188 121 94
1.830699e+000 -7.623484e-001 -9.272628e+000 188 121 94
3.836005e+000 -7.559759e-001 -1.023095e+001 169 131 105
-5.680100e-001 -8.229281e-001 -8.320675e+000 147 137 41
-5.796463e-001 -8.288930e-001 -8.371900e+000 142 143 35
7.042256e-001 -8.045385e-001 -8.834763e+000 180 153 114
1.604876e+000 -8.476182e-001 -9.321234e+000 181 124 98
2.321978e+000 -8.130934e-001 -9.617820e+000 142 15 27
3.372370e+000 -7.903459e-001 -1.005089e+001 38 17 17
3.741089e+000 -7.683417e-001 -1.020354e+001 31 11 4
1.205281e+000 -8.934563e-001 -9.290948e+000 180 52 56
1.381422e+000 -8.985972e-001 -9.351931e+000 166 47 49
2.969194e+000 -8.646834e-001 -1.017687e+001 151 85 61
4.218924e+000 2.350555e-001 -9.357910e+000 56 17 19
4.218924e+000 2.350555e-001 -9.357910e+000 56 17 19
2.471672e+000 3.864283e-002 -8.765463e+000 147 15 25
2.471672e+000 3.864283e-002 -8.765463e+000 147 15 25
3.729807e+000 1.193273e-001 -9.226877e+000 72 38 27
2.507011e+000 -8.777197e-002 -8.853896e+000 154 26 30
2.507011e+000 -8.777197e-002 -8.853896e+000 154 26 30
2.678071e+000 -8.301699e-002 -8.917276e+000 172 54 46
4.092907e+000 8.818309e-002 -9.446354e+000 182 101 43
4.182886e+000 9.145885e-002 -9.468337e+000 45 15 13
4.157667e+000 3.481116e-002 -9.511116e+000 46 14 12
2.488585e+000 -1.410458e-001 -8.872797e+000 151 21 29
2.501593e+000 -1.717947e-001 -8.946561e+000 150 20 28
3.348279e+000 -8.482901e-002 -9.216768e+000 177 104 43
4.141177e+000 -7.021447e-002 -9.547762e+000 138 72 38
-1.581788e-001 -3.088222e-001 -7.914980e+000 27 45 16
-1.581788e-001 -3.088222e-001 -7.914980e+000 27 45 16
3.616843e+000 -2.077405e-001 -9.440120e+000 202 134 82
4.144446e+000 -1.527070e-001 -9.632889e+000 28 12 23
3.334226e+000 -3.390781e-001 -9.422208e+000 182 72 39
-5.849683e-001 -4.987833e-001 -7.889718e+000 174 24 26
-5.849683e-001 -4.987833e-001 -7.889718e+000 174 24 26
-3.734692e-001 -4.259152e-001 -8.089116e+000 158 146 18
5.121938e-002 -5.197600e-001 -8.155223e+000 155 139 21
5.121938e-002 -5.197600e-001 -8.155223e+000 155 139 21
2.022575e-001 -5.266981e-001 -8.210453e+000 21 44 35
1.263365e+000 -4.747815e-001 -8.623345e+000 137 83 71
1.225725e+000 -5.096513e-001 -8.654947e+000 173 110 88
1.338691e+000 -4.790097e-001 -8.665058e+000 68 24 18
2.438531e+000 -4.865694e-001 -9.155506e+000 182 65 66
2.631057e+000 -3.913882e-001 -9.151795e+000 158 5 36
2.631019e+000 -4.213287e-001 -9.186031e+000 141 17 30
3.311510e+000 -5.042247e-001 -9.465788e+000 160 114 81
4.528648e-001 -5.310952e-001 -8.347183e+000 105 16 18
4.544778e-001 -5.718929e-001 -8.401356e+000 159 145 106
1.844788e+000 -5.055546e-001 -8.914315e+000 181 115 91
1.845829e+000 -5.052363e-001 -8.914829e+000 181 115 91
2.382394e+000 -5.361667e-001 -9.176053e+000 153 25 35
2.984819e+000 -4.829279e-001 -9.420639e+000 162 73 42
4.095915e+000 -3.723915e-001 -1.001479e+001 137 83 61
-6.660307e-001 -5.910587e-001 -8.025037e+000 170 31 38
2.825321e-002 -6.221731e-001 -8.263540e+000 154 145 28
2.515106e+000 -6.168701e-001 -9.378341e+000 195 71 79
2.848004e+000 -5.794982e-001 -9.485064e+000 103 55 40
3.239918e+000 -6.129310e-001 -9.720815e+000 169 128 96
-6.661222e-001 -6.814523e-001 -8.089095e+000 184 151 96
-6.056680e-001 -7.189041e-001 -8.148152e+000 173 25 33
1.788492e+000 -6.740624e-001 -9.120365e+000 108 60 55
1.788492e+000 -6.740624e-001 -9.120365e+000 108 60 55
2.323631e+000 -7.164282e-001 -9.413228e+000 152 15 34
2.553363e+000 -6.987350e-001 -9.495134e+000 181 65 66
2.761349e+000 -6.785104e-001 -9.595861e+000 184 116 90
3.269263e+000 -6.316325e-001 -9.772462e+000 71 33 14
3.269263e+000 -6.316325e-001 -9.772462e+000 71 33 14
3.848020e+000 -5.798681e-001 -1.002783e+001 160 131 113
-6.180052e-001 -7.737790e-001 -8.217219e+000 181 148 101
-5.633343e-001 -7.887289e-001 -8.271492e+000 77 98 93
-6.278816e-002 -7.589771e-001 -8.440246e+000 153 141 39
-6.278816e-002 -7.589771e-001 -8.440246e+000 153 141 39
1.393721e+000 -7.602716e-001 -9.068332e+000 129 75 75
1.493667e+000 -7.326024e-001 -9.075587e+000 102 54 50
1.646321e+000 -7.850512e-001 -9.223596e+000 108 57 35
1.648822e+000 -7.811586e-001 -9.228904e+000 108 57 35
2.244561e+000 -7.305295e-001 -9.443720e+000 153 17 38
2.376119e+000 -7.583513e-001 -9.507100e+000 196 78 87
2.483570e+000 -7.816420e-001 -9.599173e+000 161 25 45
2.670918e+000 -7.524241e-001 -9.647695e+000 59 17 28
2.075159e+000 -8.390422e-001 -9.489361e+000 183 116 99
2.197090e+000 -8.157984e-001 -9.544680e+000 151 28 38
3.905307e+000 1.557463e-001 -9.285347e+000 190 160 129
2.150728e+000 -4.549253e-002 -8.678084e+000 90 39 23
4.074135e+000 1.294092e-002 -9.494504e+000 184 92 32
1.940542e+000 -1.359866e-001 -8.648624e+000 114 76 53
2.418539e+000 -9.995587e-002 -8.833113e+000 154 40 39
3.961403e+000 -2.825916e-002 -9.445650e+000 149 73 19
-8.898039e-002 -3.228536e-001 -7.949438e+000 49 87 80
8.151444e-002 -2.935892e-001 -8.003954e+000 169 150 37
3.868923e+000 -1.662425e-001 -9.522739e+000 171 90 33
4.099459e+000 -2.181008e-001 -9.730209e+000 132 58 32
2.147737e+000 -4.611257e-001 -9.006986e+000 96 45 34
2.193436e+000 -4.530619e-001 -9.020865e+000 187 120 95
-1.744435e+000 4.509674e-001 -8.665882e+000 180 150 115
-5.892291e-001 -5.822718e-001 -7.979386e+000 168 27 31
-5.892291e-001 -5.822718e-001 -7.979386e+000 168 27 31
-2.304266e-001 -6.106277e-001 -8.142516e+000 56 97 87
5.252651e-001 -5.903046e-001 -8.458211e+000 156 140 114
1.219618e+000 -5.693920e-001 -8.723053e+000 100 47 39
2.109345e+000 -5.268313e-001 -9.074443e+000 124 82 70
3.966251e+000 -4.202294e-001 -9.820414e+000 102 35 19
-3.293854e-001 -6.458221e-001 -8.162099e+000 157 149 21
-3.218971e-004 -6.071151e-001 -8.261435e+000 156 141 34
4.878440e-001 -6.302208e-001 -8.488370e+000 146 141 117
2.542360e+000 -5.649112e-001 -9.312198e+000 170 55 60
2.539358e+000 -6.396811e-001 -9.400992e+000 151 23 30
3.458492e+000 -5.444977e-001 -9.750100e+000 188 155 122
3.440094e+000 -5.844434e-001 -9.796849e+000 192 154 117
-6.838423e-001 -6.742323e-001 -8.071760e+000 172 31 38
3.034052e+000 -6.408960e-001 -9.640212e+000 171 129 92
-6.230701e-001 -7.437314e-001 -8.172979e+000 177 36 45
1.032817e-001 -7.552947e-001 -8.497465e+000 159 142 28
1.038135e-001 -7.527382e-001 -8.499989e+000 159 142 28
1.963670e+000 -7.752847e-001 -9.276647e+000 186 123 92
-1.871570e-001 -8.223359e-001 -8.475419e+000 163 151 36
7.674315e-001 -8.639995e-001 -8.999213e+000 13 74 108
3.134512e+000 -8.783905e-001 -1.013175e+001 186 141 103
1.135516e+000 -9.197526e-001 -9.382784e+000 183 60 68
1.515916e+000 -6.796092e-002 -8.433796e+000 106 57 42
1.542997e+000 -1.272788e-001 -8.486024e+000 182 114 83
1.542997e+000 -1.272788e-001 -8.486024e+000 182 114 83
1.730737e+000 -1.182745e-001 -8.556686e+000 190 120 86
1.730737e+000 -1.182745e-001 -8.556686e+000 190 120 86
2.093052e+000 -7.215576e-002 -8.668127e+000 183 125 85
2.093551e+000 -9.591740e-002 -8.704960e+000 184 129 94
1.582094e+000 -1.433183e-001 -8.514492e+000 165 107 85
1.582094e+000 -1.433183e-001 -8.514492e+000 165 107 85
1.751748e-001 -2.877895e-001 -8.044155e+000 161 145 13
1.004751e+000 -3.315787e-001 -8.403828e+000 16 43 70
2.906947e+000 -2.605169e-001 -9.161371e+000 191 132 90
1.307875e+000 -4.599236e-001 -8.651764e+000 184 119 90
1.947287e+000 -4.845096e-001 -8.921372e+000 140 87 81
1.947287e+000 -4.845096e-001 -8.921372e+000 140 87 81
5.177603e-002 -5.608113e-001 -8.212933e+000 159 153 30
5.105914e-001 -6.529892e-001 -8.540428e+000 139 138 117
8.314838e-001 -6.617501e-001 -8.709226e+000 111 10 26
2.277064e+000 -6.565989e-001 -9.341228e+000 154 26 35
2.400215e+000 -6.787648e-001 -9.429187e+000 149 15 30
1.767138e+000 -8.063673e-001 -9.346585e+000 178 115 98
3.794922e+000 2.053917e-001 -9.192476e+000 156 122 92
2.307203e+000 -1.529447e-001 -8.808405e+000 187 122 82
4.077898e+000 -7.937347e-002 -9.588226e+000 159 87 29
2.800430e+000 -2.965557e-001 -9.186688e+000 192 126 81
-9.866613e-002 -5.821240e-001 -8.165706e+000 60 104 105
5.126200e-001 -5.544342e-001 -8.406144e+000 156 138 117
3.491817e+000 -4.925220e-001 -9.705653e+000 170 144 110
5.411197e-001 -6.370389e-001 -8.521187e+000 138 100 89
2.804977e+000 -5.728434e-001 -9.460704e+000 182 115 92
2.675156e+000 -6.363497e-001 -9.529851e+000 187 113 87
2.955317e+000 -7.043618e-001 -9.708410e+000 96 59 42
2.955312e+000 -7.055374e-001 -9.707290e+000 96 59 42
1.126962e+000 -8.052925e-001 -8.993849e+000 97 46 31
3.791853e+000 -8.162926e-001 -1.030700e+001 173 156 137
4.377061e-002 -3.173829e-001 -8.036082e+000 26 51 21
2.472911e-001 -7.711272e-001 -8.595209e+000 22 50 25
2.475665e-001 -7.683990e-001 -8.596621e+000 22 50 25
-1.672937e-001 -8.119881e-001 -8.469654e+000 129 129 82
3.683041e+000 -7.773882e-001 -1.020676e+001 153 135 133
3.672739e+000 2.062328e-002 -9.281213e+000 204 123 47
2.617368e+000 -2.035720e-001 -9.070057e+000 157 21 30
2.581623e+000 -3.055892e-001 -9.115619e+000 146 13 26
-4.080080e-001 -4.400896e-001 -7.950038e+000 19 76 102
2.110494e-001 -5.551372e-001 -8.158896e+000 28 47 28
2.926744e+000 -6.181517e-001 -9.586307e+000 176 123 84
1.593602e+000 -5.870680e-001 -8.930149e+000 179 110 79
2.810236e+000 -7.258331e-001 -9.644873e+000 187 117 91
2.030432e+000 -9.800697e-002 -8.647325e+000 171 120 101
-9.038210e-001 -4.826412e-001 -7.712923e+000 17 80 111
3.727849e+000 -8.018453e-001 -1.040317e+001 189 168 148
4.186836e+000 3.581548e-001 -9.401876e+000 183 95 34
2.670926e+000 4.205889e-002 -9.053609e+000 156 21 33
1.767502e-001 -2.052291e-001 -8.057606e+000 25 50 22
8.653208e-001 -7.740621e-001 -8.961529e+000 20 67 92
5.024935e-001 -4.397778e-001 -8.505825e+000 158 133 113
2.419048e+000 -6.865656e-002 -8.801918e+000 167 66 58
3.513481e+000 -1.349834e-001 -9.308553e+000 164 80 43
-1.598662e-001 -2.777694e-001 -7.885363e+000 133 129 40
-1.372916e-001 -2.926148e-001 -7.886701e+000 35 70 64
-7.984715e-002 -3.000310e-001 -7.935161e+000 147 144 35
3.912427e+000 -2.958585e-001 -9.701370e+000 37 18 13
-2.002272e-001 -4.768397e-001 -7.990003e+000 161 140 46
-1.642279e-001 -1.616152e-001 -8.548797e+000 48 88 111
8.351816e-001 -4.987738e-001 -8.475201e+000 188 150 114
5.045702e-001 -5.830160e-001 -8.438356e+000 121 27 43
2.358515e+000 -6.075908e-001 -9.294514e+000 137 13 23
3.371602e+000 -5.810935e-001 -9.734543e+000 170 131 100
2.129178e+000 -7.374838e-001 -9.355597e+000 190 121 89
2.269027e+000 -6.796579e-001 -9.363626e+000 154 19 34
3.165886e+000 -6.681275e-001 -9.774502e+000 172 135 103
2.476378e+000 -7.922795e-001 -9.643377e+000 165 26 34
3.170220e+000 3.927187e-002 -9.046041e+000 173 111 39
-2.666845e-002 -2.402902e-001 -7.910453e+000 154 147 33
3.369344e+000 -7.799278e-002 -9.197552e+000 122 26 4
-1.766143e-001 -4.538031e-001 -8.009158e+000 35 82 107
2.670326e+000 -4.046680e-001 -9.185428e+000 142 35 29
3.376515e+000 -3.334226e-001 -9.448639e+000 87 43 30
2.865040e+000 -6.031444e-001 -9.498029e+000 181 120 92
1.481455e+000 -7.626921e-001 -9.118712e+000 121 70 56
2.220853e+000 -7.109469e-001 -9.390240e+000 171 66 71
1.446672e+000 -8.286681e-001 -9.213405e+000 111 59 49
-1.035627e+001 3.305525e+001 -3.825913e+001 67 57 68
-9.587169e+000 3.391121e+001 -3.809422e+001 113 101 84
2.124517e+000 -1.283934e-001 -8.721157e+000 173 124 101
3.857610e+000 -5.963836e-002 -9.440213e+000 177 146 125
6.459370e-001 -4.065616e-001 -8.304244e+000 157 148 121
-5.260413e-001 -6.052498e-001 -8.027048e+000 171 34 42
1.221208e+000 -5.664852e-001 -8.726160e+000 109 65 61
-1.613332e+000 -2.989832e-001 -8.165340e+000 186 162 160
1.874611e+000 -6.921216e-001 -9.203437e+000 92 39 29
1.875784e+000 -6.903615e-001 -9.207495e+000 92 39 29
2.029689e+000 -7.999306e-001 -9.460268e+000 185 128 110
-1.155098e+000 -9.578999e-001 -8.256975e+000 140 128 123
-1.057528e+001 3.275421e+001 -3.719607e+001 107 90 77
-8.873591e+000 3.477506e+001 -3.568768e+001 63 52 64
1.201847e+000 -2.614334e-001 -8.443464e+000 6 49 73
-2.275941e-001 -6.021066e-001 -8.150513e+000 42 90 95
1.187982e+000 -8.248323e-001 -9.090830e+000 190 125 107
2.990980e+000 -5.045057e-001 -9.550711e+000 183 129 101
1.304139e+000 -2.216842e-001 -8.463127e+000 180 110 85
3.901514e+000 -4.797717e-001 -9.915584e+000 62 38 25
2.529684e+000 -5.282860e-001 -9.725071e+000 158 23 36
-7.661348e-001 -8.548615e-001 -8.715002e+000 158 156 157
2.407679e+000 1.330424e-001 -8.702261e+000 160 17 34
2.407679e+000 1.330424e-001 -8.702261e+000 160 17 34
4.161772e+000 1.428252e-001 -9.400540e+000 48 6 7
4.117283e+000 8.318884e-002 -9.435492e+000 43 7 22
4.121216e+000 8.776874e-002 -9.438936e+000 43 7 22
-1.324945e-001 -2.580176e-001 -7.909418e+000 52 85 84
9.173719e-001 -2.649368e-001 -8.325601e+000 200 145 98
4.176368e+000 8.484617e-002 -9.462089e+000 35 0 9
1.314941e-002 -4.569577e-001 -8.092804e+000 84 104 47
1.314941e-002 -4.569577e-001 -8.092804e+000 84 104 47
5.583254e-001 -4.052903e-001 -8.284920e+000 124 31 26
3.202566e+000 -1.813762e-001 -9.222323e+000 181 104 36
4.066315e+000 -5.579255e-002 -9.530552e+000 53 10 4
4.017708e+000 -7.473940e-002 -9.515818e+000 166 89 33
4.119124e+000 -1.043799e-001 -9.655050e+000 48 5 3
-5.700017e-001 -5.867291e-001 -7.960190e+000 201 155 112
-1.147630e-001 -4.501082e-001 -8.072144e+000 16 52 14
2.605918e-001 -4.782326e-001 -8.218677e+000 168 159 56
5.738800e-001 -4.446164e-001 -8.324130e+000 167 149 112
2.641765e+000 -3.608101e-001 -9.105917e+000 159 22 29
2.641765e+000 -3.608101e-001 -9.105917e+000 159 22 29
2.789345e+000 -3.757045e-001 -9.233474e+000 196 129 94
3.431590e+000 -2.500852e-001 -9.377810e+000 180 85 41
-5.357697e-001 -5.928871e-001 -8.001286e+000 196 119 79
8.301359e-001 -5.205207e-001 -8.497124e+000 199 164 114
8.321371e-001 -5.773375e-001 -8.572322e+000 207 154 115
1.244589e+000 -5.197052e-001 -8.675309e+000 83 32 15
-5.435364e-001 -1.053845e+000 -7.891981e+000 34 80 107
-5.152571e-001 -1.346023e+000 -7.726812e+000 52 93 102
-1.081674e-001 -6.839536e-001 -8.309783e+000 149 144 35
7.645569e-001 -6.535823e-001 -8.645104e+000 145 20 22
3.190967e+000 -4.886445e-001 -9.531199e+000 114 70 43
3.330868e+000 -4.777147e-001 -9.587127e+000 86 44 30
3.513514e+000 -4.660380e-001 -9.669026e+000 40 12 17
2.827535e+000 -5.870264e-001 -9.496456e+000 171 107 79
3.291021e+000 -5.814776e-001 -9.714868e+000 165 127 96
3.291021e+000 -5.814776e-001 -9.714868e+000 165 127 96
7.002868e-001 -7.753518e-001 -8.790566e+000 143 23 27
7.149592e-001 -7.826081e-001 -8.808434e+000 192 155 108
2.713212e+000 -6.545001e-001 -9.527434e+000 184 113 94
3.034719e+000 -6.720868e-001 -9.708396e+000 158 122 89
3.848126e+000 -5.793928e-001 -1.002824e+001 149 125 113
3.788395e+000 -6.443346e-001 -1.006539e+001 37 14 15
3.853983e+000 -6.420190e-001 -1.011665e+001 160 129 109
-5.641243e-002 -8.648514e-001 -8.594565e+000 145 140 39
6.763836e-001 -8.231464e-001 -8.852335e+000 184 153 113
7.116643e-001 -8.489956e-001 -8.909895e+000 200 149 119
7.116643e-001 -8.489956e-001 -8.909895e+000 200 149 119
-1.833590e+000 -6.041991e-002 -8.683416e+000 209 187 192
8.255618e-001 -9.136222e-001 -9.090401e+000 25 74 126
1.410152e+000 -9.009377e-001 -9.404201e+000 156 28 40
1.529302e+000 -8.934550e-001 -9.490888e+000 172 82 75
1.442634e+000 -9.179511e-001 -9.600590e+000 159 29 43
1.595639e+000 -9.069730e-001 -9.673999e+000 195 116 103
2.732111e+000 9.958516e-002 -8.856014e+000 208 89 75
4.078361e+000 4.795229e-002 -9.468161e+000 171 103 46
-2.704829e-001 -4.813193e-001 -7.999076e+000 163 153 38
2.650734e+000 -2.252767e-001 -9.013363e+000 191 67 66
2.765202e+000 -2.076035e-001 -9.080438e+000 170 18 32
3.752514e+000 -1.233874e-001 -9.423812e+000 190 162 117
-5.444339e-001 -5.148582e-001 -7.914446e+000 202 149 97
9.227176e-001 -5.225264e-001 -8.512399e+000 31 78 109
-2.264851e-001 -5.878685e-001 -8.129452e+000 160 148 30
2.234567e+000 -4.918926e-001 -9.075561e+000 200 121 84
2.646282e+000 -4.712548e-001 -9.261773e+000 193 69 66
3.192108e+000 -3.579145e-001 -9.409390e+000 106 15 3
3.231273e+000 -3.899914e-001 -9.432385e+000 124 25 4
3.320831e+000 -4.142114e-001 -9.519089e+000 152 110 72
3.990806e+000 -2.927469e-001 -9.751657e+000 158 121 89
-6.017583e-001 -6.962269e-001 -8.122443e+000 183 39 34
9.184748e-001 -6.528562e-001 -8.681089e+000 24 76 99
2.335681e+000 -5.223569e-001 -9.183449e+000 162 25 33
2.613097e+000 -5.616478e-001 -9.359557e+000 180 51 51
3.135842e+000 -4.414535e-001 -9.483079e+000 158 109 69
3.224757e+000 -4.840414e-001 -9.530752e+000 160 117 86
3.296274e+000 -4.735143e-001 -9.561344e+000 168 124 87
3.194171e+000 -5.880265e-001 -9.673607e+000 153 113 81
7.175327e-001 -7.619903e-001 -8.778181e+000 194 155 106
2.308726e+000 -7.291204e-001 -9.468801e+000 151 16 33
3.250668e+000 -6.606475e-001 -9.785026e+000 67 31 10
3.250668e+000 -6.606475e-001 -9.785026e+000 67 31 10
-6.050473e-001 -8.484545e-001 -8.321271e+000 165 152 111
1.825923e+000 -7.849876e-001 -9.307907e+000 121 68 54
1.709955e+000 -8.332315e-001 -9.330736e+000 121 69 52
1.708925e+000 -8.346290e-001 -9.329494e+000 121 69 52
2.213993e+000 -7.828690e-001 -9.456762e+000 153 15 31
2.338806e+000 -7.833758e-001 -9.542370e+000 150 22 31
2.330787e+000 -8.055116e-001 -9.582883e+000 138 12 24
2.357291e+000 -8.137010e-001 -9.580189e+000 196 82 89
8.017786e-001 -8.886742e-001 -9.023627e+000 24 67 96
1.639558e+000 -8.750083e-001 -9.436691e+000 167 32 37
2.969169e+000 -8.320218e-001 -1.015916e+001 158 95 42
2.912538e+000 -8.524205e-001 -1.024838e+001 76 20 11
3.318289e+000 -8.620105e-001 -1.032282e+001 139 66 42
3.317349e+000 -8.623538e-001 -1.032217e+001 139 66 42
3.801330e+000 2.656645e-001 -9.187829e+000 44 7 4
3.771313e+000 2.410147e-001 -9.212922e+000 113 84 75
1.881728e+000 -4.584128e-002 -8.576014e+000 135 79 51
1.970337e+000 -4.980688e-002 -8.611897e+000 134 77 54
3.197865e+000 3.599375e-002 -9.043090e+000 93 13 18
2.210619e+000 -1.262209e-001 -8.748174e+000 103 49 14
3.000879e+000 -1.049320e-001 -9.082435e+000 119 70 40
2.918101e+000 -2.101976e-001 -9.114329e+000 194 136 96
3.197111e+000 -2.332577e-001 -9.276057e+000 201 141 82
1.883230e+000 -4.516880e-001 -8.876360e+000 107 47 37
1.975604e+000 -4.427631e-001 -8.916141e+000 91 35 19
1.975604e+000 -4.427631e-001 -8.916141e+000 91 35 19
5.224166e-002 -5.594971e-001 -8.213677e+000 165 155 17
2.155310e+000 -5.141368e-001 -9.076250e+000 190 125 94
2.154770e+000 -5.146677e-001 -9.075758e+000 190 125 94
2.617760e+000 -4.633705e-001 -9.234050e+000 166 16 29
2.790520e+000 -4.633799e-001 -9.306183e+000 102 46 45
3.954256e+000 -3.711718e-001 -9.829604e+000 151 114 98
-6.896090e-001 -7.417572e-001 -8.147723e+000 195 142 95
2.283982e+000 -6.508832e-001 -9.347161e+000 164 27 34
2.274102e+000 -6.630097e-001 -9.334503e+000 164 27 34
2.721123e+000 -6.423927e-001 -9.506899e+000 96 38 34
2.067903e+000 -7.284847e-001 -9.348099e+000 192 125 96
3.225974e+000 -6.668310e-001 -9.804643e+000 162 121 85
9.675405e-001 -9.128277e-001 -9.128912e+000 16 80 116
2.008103e+000 -8.314828e-001 -9.472692e+000 190 126 100
2.141839e+000 -8.464056e-001 -9.649454e+000 176 138 105
1.162198e+000 -9.113652e-001 -9.250096e+000 161 147 140
3.896741e+000 -8.722394e-001 -1.047978e+001 136 25 41
-1.860016e+000 -2.147578e-001 -8.676430e+000 194 167 158
1.075583e+000 -9.283272e-001 -9.451015e+000 169 41 49
1.806494e+000 -8.298569e-001 -9.961232e+000 22 81 160
9.628530e-001 -1.785980e-001 -8.247158e+000 153 30 47
1.690013e+000 -1.031831e-001 -8.542019e+000 97 29 14
1.912343e+000 -7.330026e-002 -8.607711e+000 194 134 92
2.002708e+000 -7.395531e-002 -8.636794e+000 197 135 86
2.391989e+000 -3.896122e-002 -8.789878e+000 153 18 25
3.521457e+000 1.216359e-002 -9.215180e+000 201 97 35
5.215795e-001 -4.359505e-001 -8.294102e+000 165 158 119
8.933525e-001 -5.106662e-001 -8.483069e+000 118 17 47
1.611763e+000 -5.560382e-001 -8.849999e+000 195 126 97
1.653372e+000 -5.535034e-001 -8.885177e+000 166 108 86
1.701929e+000 -5.506031e-001 -8.884751e+000 194 125 93
1.742182e+000 -5.528414e-001 -8.915963e+000 99 41 22
1.805016e+000 -5.127592e-001 -8.945691e+000 195 127 92
1.919087e+000 -4.619055e-001 -8.911956e+000 197 128 92
1.919087e+000 -4.619055e-001 -8.911956e+000 197 128 92
1.988948e+000 -5.099060e-001 -9.009189e+000 196 130 95
2.093607e+000 -4.774923e-001 -9.018985e+000 194 125 92
2.072344e+000 -5.167213e-001 -9.029823e+000 192 125 98
3.908259e+000 -5.201254e-001 -9.996905e+000 156 120 97
7.987775e-001 -7.378263e-001 -8.796655e+000 92 19 32
8.685673e-001 -7.367515e-001 -8.808854e+000 9 52 71
2.438931e+000 -7.290741e-001 -9.489197e+000 162 26 36
1.763278e+000 -8.146359e-001 -9.341703e+000 187 123 95
3.407112e+000 -6.859007e-001 -9.932217e+000 160 125 93
1.903307e+000 -8.767806e-001 -9.536735e+000 134 23 34
2.805125e+000 1.276031e-001 -8.865903e+000 156 11 28
3.937897e+000 8.071623e-002 -9.359384e+000 185 91 34
8.781865e-001 -3.474097e-001 -8.345392e+000 186 84 65
1.921172e+000 -4.647995e-001 -8.966273e+000 193 129 96
1.673624e+000 -8.159758e-001 -9.312010e+000 184 124 98
1.673624e+000 -8.159758e-001 -9.312010e+000 184 124 98
4.197573e+000 2.598446e-001 -9.354759e+000 84 29 15
1.153973e-001 -4.244069e-001 -8.078070e+000 29 57 20
3.379776e+000 -7.551664e-001 -1.002075e+001 99 66 49
2.680984e+000 1.287129e-001 -8.828223e+000 167 26 34
2.572922e+000 -3.788492e-001 -9.189828e+000 173 21 36
2.508155e+000 -5.067400e-001 -9.285978e+000 170 20 32
2.508155e+000 -5.067400e-001 -9.285978e+000 170 20 32
-1.264717e-001 -6.983758e-001 -8.312332e+000 103 114 78
4.155572e+000 3.876572e-001 -9.347035e+000 196 101 41
-1.295417e-002 -4.471136e-001 -8.108113e+000 75 108 105
1.731875e+000 -5.473953e-001 -8.876392e+000 119 56 38
1.731875e+000 -5.473953e-001 -8.876392e+000 119 56 38
1.007904e+000 4.821316e-002 -8.214020e+000 173 28 37
7.187269e-001 -8.920590e-001 -8.981829e+000 160 25 40
3.964333e+000 -7.835211e-001 -1.036738e+001 28 15 21
-1.717151e+000 -1.866148e-001 -8.587050e+000 218 193 186
3.747222e+000 -7.795129e-001 -1.042881e+001 190 160 140
3.375680e+000 -6.630563e-002 -9.207370e+000 125 26 9
-1.862321e-001 -4.171242e-001 -7.992913e+000 44 82 70
-1.862321e-001 -4.171242e-001 -7.992913e+000 44 82 70
2.570069e+000 -5.105864e-001 -9.266920e+000 185 65 68
2.570069e+000 -5.105864e-001 -9.266920e+000 185 65 68
5.666072e-001 -6.314277e-001 -8.524040e+000 141 140 118
5.666072e-001 -6.314277e-001 -8.524040e+000 141 140 118
7.513440e-001 -7.102011e-001 -8.719669e+000 176 141 103
3.315492e-002 -7.631358e-001 -8.447278e+000 18 43 35
2.487068e+000 -7.670354e-001 -9.557402e+000 135 13 24
-1.863643e-001 -8.352854e-001 -8.494858e+000 28 51 29
1.414724e+000 -9.049964e-001 -9.365560e+000 160 40 46
-1.477599e+000 -4.125540e-001 -7.720988e+000 178 146 108
2.267159e+000 -8.029309e-001 -9.541559e+000 152 21 35
1.502349e+000 -9.012001e-001 -9.463174e+000 164 26 37
2.550826e+000 -5.517497e-002 -8.861936e+000 182 71 66
-3.975902e-002 -4.194384e-001 -8.027887e+000 61 97 95
1.264607e+000 -5.520306e-001 -8.725118e+000 175 114 88
3.233580e+000 -4.980723e-001 -9.587125e+000 162 119 77
-6.683600e-001 -6.243399e-001 -8.020323e+000 166 26 35
8.591890e-001 -1.968147e-001 -8.269120e+000 143 15 19
9.374594e-001 -3.306337e-001 -8.378243e+000 108 17 29
2.842898e+000 -2.936743e-001 -9.158031e+000 130 83 61
1.415499e+000 -1.144529e-001 -8.408990e+000 95 33 9
3.166694e+000 -6.063829e-002 -9.030926e+000 116 20 26
2.512374e+000 -8.328125e-002 -8.857603e+000 148 17 26
-1.978042e-002 -3.061860e-001 -8.082095e+000 73 99 66
-5.920432e-002 -4.654723e-001 -8.068177e+000 154 149 35
4.147189e+000 -2.353532e-002 -9.582219e+000 47 6 2
-5.548560e-001 -4.970815e-001 -7.900902e+000 178 34 35
-5.687177e-001 -5.342250e-001 -7.986289e+000 201 155 112
-7.996440e-002 -5.215392e-001 -8.132452e+000 163 154 39
4.733396e-001 -4.660057e-001 -8.297463e+000 138 35 33
5.022346e-001 -4.866561e-001 -8.319803e+000 169 159 118
8.571317e-001 -4.052546e-001 -8.417558e+000 202 152 79
2.370669e+000 -4.187456e-001 -9.060741e+000 165 25 33
3.217263e+000 -3.050397e-001 -9.320787e+000 181 67 43
3.402392e+000 -2.128024e-001 -9.414695e+000 188 86 43
3.541728e+000 -3.179898e-001 -9.530831e+000 187 148 107
-2.507150e-001 -5.869425e-001 -8.159416e+000 148 142 31
-5.114685e-002 -5.725341e-001 -8.192324e+000 151 151 26
1.637179e-001 -6.731829e-001 -8.181086e+000 29 52 26
1.482775e+000 -5.310044e-001 -8.802052e+000 192 130 96
2.020158e+000 -5.173590e-001 -9.010991e+000 195 128 105
2.362094e+000 -4.485655e-001 -9.068700e+000 159 23 29
2.675199e+000 -4.221738e-001 -9.246943e+000 203 81 75
2.899255e+000 -4.440348e-001 -9.362908e+000 187 123 86
3.300669e+000 -3.778766e-001 -9.471682e+000 146 67 26
1.514843e-001 -6.758502e-001 -8.346788e+000 167 156 17
2.837894e+000 -5.790981e-001 -9.445946e+000 192 121 88
3.190084e+000 -4.890202e-001 -9.530501e+000 114 70 43
