ply
format ascii 1.0
element face 0
property list uchar int vertex_indices
element vertex 684
property float x
property float y
property float z
property uchar diffuse_red
property uchar diffuse_green
property uchar diffuse_blue
end_header
3.935573e-001 -1.063016e+000 -8.967764e+000 160 41 54
-2.786983e-001 -9.257231e-001 -8.449980e+000 155 152 136
-7.480313e-001 -1.060089e+000 -8.484117e+000 27 56 41
-2.177981e-001 -8.525938e-001 -8.401536e+000 31 60 43
-2.407209e-001 -6.761436e-001 -8.163182e+000 159 170 103
4.835793e-001 -8.789253e-001 -8.724638e+000 166 45 48
-2.177981e-001 -8.525938e-001 -8.401536e+000 31 60 43
5.895185e-001 -6.388094e-001 -8.425737e+000 165 34 44
1.016158e+000 -1.019042e+000 -9.116355e+000 144 86 82
-6.012534e-001 -4.197393e-001 -7.831903e+000 137 145 66
-3.964969e-001 -2.907893e-001 -7.783828e+000 159 162 24
-2.946254e-002 -1.671004e-001 -7.844649e+000 29 57 34
-5.872039e-002 -3.227354e-001 -7.940694e+000 22 56 37
-5.872039e-002 -3.227354e-001 -7.940694e+000 22 56 37
-6.749425e-001 -3.760174e-001 -7.750849e+000 29 60 41
-4.643235e-001 -4.799379e-001 -7.903717e+000 147 144 43
2.498745e+000 -8.928310e-002 -8.796160e+000 193 141 109
-1.014975e+000 -4.953353e-001 -7.692896e+000 23 50 23
3.675742e+000 -1.048037e-001 -9.125457e+000 134 48 51
3.228629e+000 -5.241362e-001 -9.387678e+000 195 134 114
-7.387008e-001 -7.104096e-001 -8.043032e+000 30 67 35
-3.964969e-001 -2.907893e-001 -7.783828e+000 159 162 24
1.447473e+000 -8.976721e-002 -8.312790e+000 186 128 109
-3.832881e-001 -6.963788e-001 -8.114227e+000 125 139 68
-5.372205e-001 -3.421425e-001 -7.760060e+000 26 56 27
-5.372205e-001 -3.421425e-001 -7.760060e+000 26 56 27
3.357346e+000 3.752300e-002 -8.857774e+000 196 137 107
3.880989e+000 -1.157066e-001 -9.233746e+000 194 139 93
1.672391e+000 -1.352203e-001 -8.457140e+000 190 125 105
2.498745e+000 -8.928310e-002 -8.796160e+000 193 141 109
3.247920e+000 -1.882782e-001 -9.093163e+000 139 96 84
-7.269853e-001 -3.474502e-001 -7.672058e+000 135 136 74
7.369064e-001 -3.179871e-001 -8.219118e+000 174 114 81
3.202418e+000 -5.773551e-001 -9.422897e+000 188 126 107
-1.598471e-001 -4.626752e-001 -7.965435e+000 150 152 62
-1.598471e-001 -4.626752e-001 -7.965435e+000 150 152 62
1.069583e+000 -5.616574e-001 -8.543641e+000 17 56 92
-8.095031e-001 -1.046332e+000 -8.423976e+000 143 154 67
-6.688487e-001 -9.655411e-001 -8.356458e+000 114 137 124
-3.665967e-001 -9.775370e-001 -8.509189e+000 35 58 41
1.134464e+000 3.026948e-002 -8.071021e+000 17 85 134
4.878606e+000 2.637637e-001 -9.416437e+000 161 98 58
4.327237e+000 1.900343e-001 -9.275767e+000 90 65 61
3.954108e+000 5.082159e-002 -9.162431e+000 190 82 42
1.366065e+000 -3.543666e-002 -8.273589e+000 187 130 105
3.247920e+000 -1.882782e-001 -9.093163e+000 139 96 84
4.349260e+000 -5.491284e-002 -9.426989e+000 185 162 144
2.652677e+000 1.317393e-001 -8.647023e+000 169 33 48
1.004377e+000 -2.054441e-001 -8.238574e+000 14 59 83
3.333488e-001 -6.265320e-001 -8.296201e+000 131 88 79
-3.201324e-001 -6.359029e-001 -8.018160e+000 33 60 32
1.875942e-001 -6.680449e-001 -8.432358e+000 161 107 104
3.286554e+000 -7.190762e-002 -9.026835e+000 195 144 124
-6.128622e-002 -1.064487e-001 -7.810589e+000 147 156 129
4.480230e+000 3.448791e-001 -9.234891e+000 34 18 32
4.392753e+000 2.444140e-001 -9.263121e+000 184 159 142
1.386272e+000 -1.300623e-001 -8.323732e+000 114 59 63
-3.480800e-001 -4.135321e-001 -7.911718e+000 24 53 30
4.021433e+000 -6.344084e-001 -9.909264e+000 172 146 128
-4.932690e-001 -8.371751e-001 -8.253330e+000 28 55 40
3.063548e-001 -5.423897e-001 -8.193372e+000 173 156 133
1.473517e+000 -9.188879e-001 -9.115824e+000 140 80 70
-2.424009e-001 2.891952e-001 -7.560671e+000 160 158 137
4.913005e+000 1.419887e-001 -9.521653e+000 159 92 46
4.677086e+000 2.529012e-001 -9.292286e+000 183 100 52
2.929864e+000 1.275031e-001 -8.749596e+000 170 34 47
3.462554e+000 5.559626e-001 -8.875569e+000 22 20 44
4.392566e+000 3.239929e-001 -9.203273e+000 37 17 19
4.450924e+000 2.918841e-001 -9.249214e+000 186 159 138
4.408720e+000 1.374875e-001 -9.325356e+000 190 173 145
3.266424e+000 -1.389496e-001 -9.052999e+000 199 145 114
3.813966e+000 -1.836959e-001 -9.321891e+000 193 129 58
-3.769877e-001 -3.778241e-001 -7.840534e+000 174 163 47
1.342849e+000 -1.409967e-001 -8.347314e+000 187 128 110
4.762101e+000 -1.283153e-002 -9.627945e+000 174 106 40
1.432813e+000 -1.490597e-001 -8.333546e+000 197 132 112
-1.140106e-001 -9.965169e-001 -8.637340e+000 33 63 19
-1.140106e-001 -9.965169e-001 -8.637340e+000 33 63 19
1.016978e+000 -7.269934e-001 -8.742919e+000 18 65 112
1.616195e+000 6.176092e-001 -8.279233e+000 167 165 135
2.086001e+000 7.148589e-001 -8.474497e+000 164 91 90
2.544102e+000 -1.395465e-001 -8.758302e+000 186 129 102
4.048818e+000 -4.776631e-001 -9.698369e+000 188 153 126
3.946515e+000 -7.287740e-002 -9.252638e+000 104 37 11
-6.596956e-001 -5.474251e-001 -7.807548e+000 47 105 123
4.090108e+000 -3.904705e-001 -9.646531e+000 189 162 126
3.925818e+000 -7.850175e-001 -1.002359e+001 166 139 117
3.963698e+000 1.271570e-001 -9.145853e+000 209 121 71
6.408562e-001 -7.976783e-001 -8.582602e+000 130 32 68
-5.970764e-001 -8.811789e-001 -8.281944e+000 150 153 39
3.920579e+000 1.897492e-001 -9.132294e+000 186 92 29
8.686184e-001 3.970696e-003 -8.056134e+000 102 22 57
3.590506e+000 2.599623e-001 -8.887046e+000 101 23 37
2.044375e+000 7.665334e-001 -8.498599e+000 93 29 30
3.100152e+000 6.611360e-001 -8.802322e+000 65 32 41
3.365535e+000 7.613247e-001 -8.907587e+000 31 27 55
3.392073e+000 7.200265e-001 -8.936647e+000 35 30 51
1.694606e+000 6.176588e-001 -8.310456e+000 187 149 99
2.086001e+000 7.148589e-001 -8.474497e+000 164 91 90
2.839182e+000 6.514095e-001 -8.700503e+000 68 21 32
2.943742e+000 6.529281e-001 -8.769427e+000 82 35 41
2.759069e+000 4.604920e-001 -8.635573e+000 46 14 25
2.791741e+000 -1.939156e-001 -8.899484e+000 186 70 74
1.570611e-001 6.206564e-001 -7.748927e+000 36 59 48
2.055745e+000 6.424850e-001 -8.454135e+000 121 53 64
4.438574e+000 8.568942e-002 -9.329470e+000 33 17 31
1.804892e+000 -1.505619e-001 -8.552045e+000 195 134 99
-3.342268e-001 -3.765704e-001 -7.867347e+000 178 173 28
4.028072e+000 -5.628639e-001 -9.806115e+000 191 158 138
-7.858103e-001 -6.879647e-001 -7.960751e+000 152 158 40
-1.378969e-001 6.989627e-001 -7.696410e+000 167 151 91
3.299666e+000 8.336687e-001 -9.011312e+000 155 121 97
2.523058e+000 -1.846066e-001 -8.767451e+000 192 135 105
2.012252e-001 -7.130695e-001 -8.341526e+000 163 164 146
-3.121522e-001 -9.639079e-001 -8.506294e+000 160 160 43
-5.720561e+001 2.516082e+001 -1.561010e+002 81 66 54
7.064482e-001 -4.140685e-001 -8.262419e+000 200 140 104
4.435505e+000 -8.146857e-001 -1.031416e+001 132 112 103
4.729657e+000 -2.683918e+000 -1.013055e+001 136 120 122
-7.661816e+001 3.016188e+001 -1.522610e+002 88 78 66
-8.510387e+001 2.851565e+001 -1.568392e+002 71 60 62
-7.557342e+001 2.752980e+001 -1.821823e+002 89 40 29
-6.016590e+001 2.471034e+001 -1.697578e+002 55 55 70
2.614727e+000 7.008215e-001 -8.647969e+000 73 26 37
-5.995854e+001 3.132119e+001 -1.696457e+002 69 55 44
-7.376496e+001 2.926983e+001 -1.575000e+002 57 47 42
-7.133651e+001 2.998136e+001 -1.538186e+002 92 83 66
-6.088058e+001 2.534917e+001 -1.621372e+002 115 95 84
2.828028e+000 5.550499e-001 -8.649852e+000 152 107 55
3.688145e+000 6.135521e-001 -8.996952e+000 14 61 103
4.645191e+000 -2.779533e-001 -9.814363e+000 178 146 125
-8.163123e+001 3.003837e+001 -1.489879e+002 101 89 53
-6.988650e+001 2.982966e+001 -1.674587e+002 65 55 51
-6.119433e+001 2.968586e+001 -1.675477e+002 39 23 23
-8.568236e+001 2.918640e+001 -1.547541e+002 51 35 37
3.431078e+000 3.351707e-001 -8.851939e+000 68 18 27
-7.357106e+001 3.150136e+001 -1.648177e+002 139 112 69
-2.575717e-001 -6.306771e-003 -7.641058e+000 62 111 141
2.911396e-001 -5.532337e-001 -8.235745e+000 160 141 125
-1.249508e+000 1.292153e+000 -8.081349e+000 167 39 46
-1.190699e+000 1.298519e+000 -8.120070e+000 176 27 44
1.243305e+000 1.347321e+000 -8.862280e+000 196 93 85
2.230145e+000 9.888237e-001 -8.737904e+000 120 88 89
-8.470500e-001 6.371228e-001 -7.407997e+000 158 157 138
2.584781e+000 8.070304e-001 -8.703764e+000 164 126 113
3.365131e+000 8.364056e-001 -9.000368e+000 28 28 56
2.281240e+000 6.333888e-001 -8.506366e+000 84 32 36
2.934167e+000 3.933932e-001 -8.686092e+000 137 83 51
-1.298995e+000 1.064365e+000 -7.750770e+000 176 38 46
9.967871e-001 9.386342e-001 -8.261195e+000 181 46 41
1.608882e+000 1.193300e+000 -8.730116e+000 16 78 121
1.584595e+000 6.478889e-001 -8.267895e+000 69 41 59
2.472732e+000 6.414588e-001 -8.577681e+000 62 26 24
4.005988e+000 5.940048e-001 -9.065210e+000 138 51 67
3.971932e+000 8.471639e-003 -9.213448e+000 131 49 26
8.921678e-001 -1.275339e-001 -8.192871e+000 12 84 124
-6.416490e-001 -3.898803e-001 -7.761358e+000 22 50 39
-7.888151e-001 -6.267093e-001 -7.910335e+000 159 153 46
-7.216454e-001 -5.583839e-001 -7.838654e+000 40 58 26
5.254043e-001 7.791400e-001 -7.985584e+000 29 55 20
5.254043e-001 7.791400e-001 -7.985584e+000 29 55 20
7.684311e-001 8.210683e-001 -8.120838e+000 165 88 78
3.201876e+000 9.039966e-001 -8.999552e+000 76 46 59
-2.100217e+000 7.007216e-001 -7.604893e+000 195 171 145
5.086124e+000 4.738724e-001 -9.403733e+000 199 104 52
2.825657e+000 -1.009373e-001 -8.876028e+000 202 86 93
2.979982e+000 -2.687464e-001 -9.108622e+000 201 96 93
2.998261e+000 -3.811372e-001 -9.128901e+000 200 86 96
3.228629e+000 -5.241362e-001 -9.387678e+000 195 134 114
-6.501144e-001 -6.180682e-001 -7.887953e+000 44 108 125
-8.376801e-001 1.092639e+000 -7.964628e+000 163 153 112
-5.648889e-001 1.080207e+000 -8.024396e+000 168 152 97
-1.784671e-001 1.010413e+000 -8.001959e+000 32 61 33
9.452709e-001 1.018222e+000 -8.327026e+000 179 46 47
3.299666e+000 8.336687e-001 -9.011312e+000 155 121 97
3.285059e+000 -2.410385e-001 -9.123046e+000 194 143 116
3.228395e+000 -4.183789e-001 -9.232976e+000 196 141 110
2.010682e+000 -6.247117e-001 -8.973214e+000 189 131 117
2.012252e-001 -7.130695e-001 -8.341526e+000 163 164 146
2.984801e+000 -8.342807e-001 -9.717402e+000 194 128 113
-7.244134e+001 2.311811e+001 -1.318277e+002 67 53 53
-7.486456e+001 2.623414e+001 -1.652757e+002 158 108 87
-9.424261e+001 2.660706e+001 -1.703833e+002 108 62 46
-9.099555e+001 2.153435e+001 -1.585286e+002 145 112 97
-9.095889e+001 2.201648e+001 -1.619973e+002 134 102 90
-1.194276e+002 1.719384e+001 -2.187581e+002 75 44 41
-9.538742e+001 1.159306e+001 -1.763511e+002 65 44 59
2.543513e+000 9.814874e-001 -8.847822e+000 144 119 97
1.572029e+000 8.765751e-001 -8.501425e+000 21 78 107
2.954021e+000 8.886186e-001 -8.888198e+000 73 30 40
7.729728e-001 -9.960256e-002 -8.033615e+000 144 21 24
3.294535e+000 -1.553834e-001 -9.051940e+000 193 138 106
3.994193e+000 -2.980207e-001 -9.446776e+000 172 81 47
4.901099e+000 -2.167883e+000 -9.737043e+000 44 32 44
-9.418792e+001 2.525751e+001 -1.689717e+002 148 94 77
-9.418792e+001 2.525751e+001 -1.689717e+002 148 94 77
-9.299741e+001 2.565444e+001 -1.723038e+002 164 74 53
-9.719253e+001 2.434553e+001 -1.800313e+002 130 104 89
-8.585257e+001 1.694031e+001 -1.720339e+002 45 27 23
-8.606486e+001 1.816852e+001 -1.750740e+002 115 95 82
-1.070185e+002 2.016594e+001 -2.005282e+002 70 40 50
1.605153e-001 8.104883e-001 -7.863790e+000 30 57 36
-8.536440e-001 5.653417e-001 -7.340413e+000 48 99 123
5.298390e-002 -1.318159e-001 -7.845316e+000 163 164 144
-8.002699e-001 -6.586130e-001 -7.931778e+000 90 118 87
-8.250824e+001 2.676748e+001 -1.784051e+002 100 42 31
-8.236084e+001 2.566287e+001 -1.708025e+002 51 31 30
-8.579804e+001 2.463930e+001 -1.772437e+002 132 113 110
-7.845869e+001 2.506617e+001 -1.853694e+002 132 90 82
-1.051576e+002 2.373187e+001 -1.936237e+002 131 101 87
-9.766457e+001 1.927858e+001 -2.014846e+002 61 41 32
-8.323396e+001 1.828080e+001 -1.753562e+002 66 47 30
-8.719741e+001 1.669137e+001 -2.008622e+002 163 103 69
-9.714132e+001 1.372438e+001 -2.188190e+002 93 70 78
-9.714132e+001 1.372438e+001 -2.188190e+002 93 70 78
1.899657e+000 7.246210e-001 -8.466836e+000 181 143 96
1.549771e+000 5.796816e-001 -8.234906e+000 167 161 134
-1.488146e-001 -6.549449e-001 -8.128735e+000 39 62 47
-7.848646e+001 2.794068e+001 -1.517268e+002 140 127 118
-7.356543e+001 2.773801e+001 -1.697792e+002 176 121 84
-9.000586e+001 2.654957e+001 -1.809001e+002 28 17 30
-9.839845e+001 1.775513e+001 -2.078962e+002 157 58 65
-2.335809e-001 6.343967e-001 -7.612466e+000 31 58 40
3.480537e+000 -3.202611e-001 -9.355999e+000 193 143 108
-9.334082e+001 2.890529e+001 -1.666108e+002 177 123 64
-9.334082e+001 2.890529e+001 -1.666108e+002 177 123 64
-8.965177e+001 2.017652e+001 -1.585851e+002 151 122 103
1.055837e+000 8.241680e-001 -8.150143e+000 170 159 132
-5.750513e-001 3.173120e-001 -7.402653e+000 28 91 126
2.796317e+000 3.780934e-001 -8.660301e+000 41 16 27
2.911396e-001 -5.532337e-001 -8.235745e+000 160 141 125
-7.747547e+001 2.456524e+001 -1.462929e+002 24 13 19
-8.544058e+001 2.138667e+001 -1.770857e+002 31 21 29
-4.344511e-001 4.421120e-001 -7.480177e+000 155 148 122
4.091090e+000 -8.060048e-001 -1.012363e+001 103 86 79
-8.100835e+001 2.751476e+001 -1.616864e+002 170 118 87
4.720086e+000 5.287452e-001 -9.776774e+000 174 102 39
-1.086511e+000 6.990112e-001 -7.388283e+000 180 154 112
1.595957e+000 1.026624e+000 -8.563420e+000 26 78 122
1.989186e+000 1.009407e+000 -8.664045e+000 162 94 93
1.980211e+000 9.695897e-001 -8.628141e+000 90 27 35
2.906124e+000 9.180627e-001 -8.883894e+000 79 29 35
3.248972e+000 9.118665e-001 -8.991988e+000 129 43 51
2.148397e+000 7.074522e-001 -8.480037e+000 163 99 101
2.685466e+000 6.830424e-001 -8.657910e+000 117 69 69
2.996799e+000 6.553591e-001 -8.769016e+000 62 24 32
3.644717e+000 7.540661e-001 -9.012971e+000 18 54 96
1.653067e+000 5.707025e-001 -8.341505e+000 175 87 71
3.043515e+000 5.542583e-001 -8.698300e+000 119 75 32
2.806909e+000 4.349218e-002 -8.765814e+000 157 30 37
2.707260e+000 -2.155590e-002 -8.736141e+000 159 26 40
3.730255e-001 1.672969e+000 -8.911287e+000 155 93 75
8.324470e-001 8.128623e-001 -8.108951e+000 179 151 126
1.948441e+000 8.676007e-001 -8.519248e+000 102 36 45
4.027796e+000 8.685670e-001 -9.232577e+000 108 27 27
4.826952e+000 2.955016e-001 -9.377838e+000 51 21 20
2.689757e+000 8.483805e-002 -8.692210e+000 192 74 81
2.736871e+000 -2.584178e-001 -8.920221e+000 156 24 37
3.088107e+000 -3.467930e-001 -9.210574e+000 160 34 45
3.855459e+000 -3.775206e-001 -9.531857e+000 188 97 69
2.004489e+000 -8.895960e-001 -9.338001e+000 186 125 110
7.307788e-002 8.347876e-001 -7.896473e+000 164 156 54
7.307788e-002 8.347876e-001 -7.896473e+000 164 156 54
2.200230e+000 1.029607e+000 -8.745783e+000 80 39 48
2.623324e+000 1.085684e+000 -8.964967e+000 31 14 22
2.623324e+000 1.085684e+000 -8.964967e+000 31 14 22
2.593404e+000 2.954160e-002 -8.740928e+000 190 139 111
1.941785e+000 -1.416236e-001 -8.499176e+000 95 46 39
-9.556939e+001 2.233378e+001 -1.719422e+002 100 75 64
-1.128505e+000 7.291679e-001 -7.401393e+000 164 37 38
-9.381819e-001 7.426771e-001 -7.487564e+000 179 33 47
8.154486e-001 6.541586e-001 -7.973685e+000 166 83 72
2.155955e+000 6.428842e-001 -8.471682e+000 111 52 58
1.311142e+000 -3.168441e-002 -8.235946e+000 104 53 42
1.311142e+000 -3.168441e-002 -8.235946e+000 104 53 42
8.215490e-001 -2.197000e-001 -8.240514e+000 140 31 48
-8.964124e+001 1.919385e+001 -1.774550e+002 62 45 37
-1.065346e+002 1.812683e+001 -1.950034e+002 103 28 41
-4.760100e-001 1.385464e+000 -8.372800e+000 171 150 121
5.748610e-001 9.800783e-001 -8.212290e+000 171 35 36
1.673743e+000 1.052116e+000 -8.587814e+000 9 72 119
3.219418e+000 6.912754e-001 -8.862732e+000 83 53 65
4.599941e+000 8.333256e-001 -9.460840e+000 161 73 66
-7.384755e-001 -5.849585e-001 -7.823118e+000 31 63 36
-8.585257e+001 1.694031e+001 -1.720339e+002 45 27 23
-3.938470e-001 1.321732e+000 -8.360905e+000 163 150 117
9.708649e-001 1.156004e+000 -8.505285e+000 168 149 125
1.176150e+000 -5.769547e-002 -8.240707e+000 23 69 105
2.812416e+000 -6.475949e-001 -9.462746e+000 172 29 47
2.812416e+000 -6.475949e-001 -9.462746e+000 172 29 47
-1.057475e+002 1.387993e+001 -2.251251e+002 85 81 95
-1.344192e+002 1.031390e+001 -2.371523e+002 109 86 72
-1.234984e+002 9.910346e+000 -2.256095e+002 100 73 65
4.616190e+000 -3.167667e+000 -1.027728e+001 160 141 145
-2.624766e-001 8.800028e-001 -7.807185e+000 165 152 118
2.506010e+000 -2.166977e-001 -8.855288e+000 196 139 112
3.674257e+000 -6.279013e-001 -9.716386e+000 160 121 95
-1.022342e+002 1.591605e+001 -2.175006e+002 36 19 33
-1.242566e+002 1.206131e+001 -2.221071e+002 174 152 135
-1.140167e+002 1.128195e+001 -2.115541e+002 139 119 103
1.692896e+000 7.181395e-001 -8.333442e+000 17 81 123
1.199987e+000 -5.093880e-001 -8.669597e+000 201 122 116
-4.713420e-001 -5.765213e-001 -8.004761e+000 69 105 132
-9.907731e+001 1.680625e+001 -1.978974e+002 150 46 52
-7.747547e+001 2.456524e+001 -1.462929e+002 24 13 19
-9.732716e+001 1.142355e+001 -1.899104e+002 21 14 21
-1.376722e+002 3.387153e+001 -2.463725e+002 131 105 90
-8.752234e+001 2.275995e+001 -1.715058e+002 27 21 28
1.433317e+000 1.431245e+000 -8.968719e+000 141 141 131
2.017145e+000 9.248471e-001 -8.594725e+000 165 97 83
3.003857e+000 1.076660e+000 -9.041625e+000 76 52 58
2.070177e+000 8.849317e-001 -8.590467e+000 88 26 31
2.024309e+000 8.358669e-001 -8.526210e+000 93 29 25
2.025716e+000 7.087930e-001 -8.445874e+000 168 99 92
2.110114e+000 8.735787e-001 -8.604365e+000 169 105 95
2.964069e+000 4.516180e-001 -8.699177e+000 156 104 68
4.819366e+000 1.742285e-001 -9.462749e+000 58 18 9
1.822545e+000 1.040882e+000 -8.603585e+000 183 140 75
2.693940e+000 1.051947e+000 -8.937830e+000 36 16 16
-8.470500e-001 6.371228e-001 -7.407997e+000 158 157 138
3.880989e+000 -1.157066e-001 -9.233746e+000 194 139 93
-2.415389e+000 -2.547121e-001 -7.731824e+000 186 165 148
3.014683e+000 -4.486671e-001 -9.266797e+000 195 78 85
-2.074563e+000 8.270022e-001 -7.663701e+000 197 177 149
-1.189913e+000 8.613434e-001 -7.507488e+000 169 31 43
2.944549e+000 9.898242e-001 -8.968532e+000 88 50 50
4.479922e+000 7.402397e-001 -9.291708e+000 181 143 116
2.615439e+000 5.167299e-001 -8.636403e+000 116 59 30
-7.739938e+001 2.588248e+001 -1.814646e+002 93 58 50
3.254553e+000 -3.688090e-001 -9.215998e+000 193 139 111
3.297689e+000 -5.573857e-001 -9.386144e+000 203 136 109
1.827808e+000 1.220598e+000 -8.849688e+000 68 42 57
1.653470e+000 1.123878e+000 -8.704966e+000 19 76 128
3.202533e+000 -4.460712e-002 -8.990427e+000 197 140 111
-8.129557e+001 2.079282e+001 -1.726428e+002 53 39 47
4.806241e+000 -2.691220e+000 -9.776309e+000 151 132 130
1.418115e+000 1.245472e+000 -8.855103e+000 13 76 112
1.641805e+000 1.404183e+000 -9.036276e+000 186 136 92
-6.548636e-001 6.878641e-001 -7.509826e+000 82 108 101
4.997345e+000 -1.913180e+000 -9.502661e+000 57 46 54
4.419754e+000 -3.411989e+000 -1.093569e+001 56 45 54
-1.223488e+000 1.502153e+000 -8.248200e+000 115 126 124
-9.231628e-002 -4.503945e-001 -7.958454e+000 30 59 44
-8.280842e+001 1.860032e+001 -1.792172e+002 80 62 48
5.007844e+000 -2.023384e+000 -9.541250e+000 132 116 117
3.619071e+000 -4.467921e-001 -9.492982e+000 163 56 36
-1.284539e-001 1.765156e+000 -8.933745e+000 56 53 7
-1.284539e-001 1.765156e+000 -8.933745e+000 56 53 7
1.579173e+000 1.671322e+000 -9.331335e+000 100 13 21
2.060890e+000 1.684259e+000 -9.507568e+000 104 28 29
2.177868e+000 1.753837e+000 -9.625236e+000 79 115 131
2.286032e+000 1.688117e+000 -9.578648e+000 85 19 32
3.299694e+000 1.842426e+000 -1.016139e+001 95 46 22
-1.162519e+000 1.321228e+000 -8.138544e+000 159 150 124
-1.162519e+000 1.321228e+000 -8.138544e+000 159 150 124
1.046103e+000 1.421011e+000 -8.831639e+000 194 143 110
1.087008e+000 1.385458e+000 -8.805453e+000 158 31 38
2.387134e+000 1.454743e+000 -9.320843e+000 105 79 73
2.799031e+000 1.685312e+000 -9.762385e+000 151 110 90
-1.247870e+000 1.192941e+000 -7.944509e+000 174 31 39
-1.247870e+000 1.192941e+000 -7.944509e+000 174 31 39
-1.184025e+000 1.176330e+000 -7.896500e+000 157 40 31
1.151287e+000 1.211040e+000 -8.618241e+000 206 148 115
-1.260417e+000 1.038861e+000 -7.756079e+000 187 145 102
6.423085e-001 9.521806e-001 -8.184319e+000 165 156 129
9.111486e-001 1.048916e+000 -8.377074e+000 172 150 117
1.140787e+000 1.144469e+000 -8.551275e+000 188 151 114
1.140787e+000 1.144469e+000 -8.551275e+000 188 151 114
1.900164e+000 1.086251e+000 -8.704976e+000 140 83 66
-9.858781e-001 7.350032e-001 -7.470294e+000 194 142 109
-9.858781e-001 7.350032e-001 -7.470294e+000 194 142 109
1.668931e+000 8.975828e-001 -8.465701e+000 154 166 131
1.629536e+000 8.504683e-001 -8.410475e+000 179 173 141
1.629536e+000 8.504683e-001 -8.410475e+000 179 173 141
1.923382e+000 9.408162e-001 -8.600868e+000 92 32 35
1.923382e+000 9.408162e-001 -8.600868e+000 92 32 35
2.498364e+000 8.802292e-001 -8.765202e+000 68 29 34
2.518033e+000 8.875967e-001 -8.713963e+000 137 108 97
2.777939e+000 1.024704e+000 -8.936682e+000 36 11 13
2.777939e+000 1.024704e+000 -8.936682e+000 36 11 13
3.018456e+000 1.033950e+000 -9.086432e+000 152 114 111
3.077163e+000 8.525970e-001 -8.919702e+000 124 86 94
3.077163e+000 8.525970e-001 -8.919702e+000 124 86 94
3.345935e+000 8.884157e-001 -9.028424e+000 26 18 40
-8.211573e-001 6.514098e-001 -7.397944e+000 66 86 63
9.556180e-001 6.713253e-001 -8.046666e+000 169 166 128
2.050564e+000 7.378938e-001 -8.479869e+000 96 31 36
2.126779e+000 8.033967e-001 -8.532339e+000 167 98 103
2.126779e+000 8.033967e-001 -8.532339e+000 167 98 103
2.099860e+000 7.733652e-001 -8.503662e+000 93 33 37
2.148397e+000 7.074522e-001 -8.480037e+000 163 99 101
2.530107e+000 6.567533e-001 -8.582634e+000 123 74 72
2.630894e+000 8.302215e-001 -8.690084e+000 144 108 104
4.496748e+000 7.975632e-001 -9.372952e+000 157 28 63
4.496748e+000 7.975632e-001 -9.372952e+000 157 28 63
3.396693e+000 6.158415e-001 -8.870283e+000 27 30 65
-3.007714e+000 1.710377e-001 -7.532718e+000 181 27 39
4.826952e+000 2.955016e-001 -9.377838e+000 51 21 20
2.726973e+000 6.139405e-002 -8.710716e+000 163 31 41
2.735592e+000 2.795779e-002 -8.782424e+000 161 30 39
3.005036e+000 -2.820855e-001 -9.070794e+000 166 28 44
2.978177e+000 -3.190297e-001 -9.086627e+000 149 23 37
4.072904e+000 -4.367149e-001 -9.694261e+000 179 145 107
1.868149e+000 -6.505068e-001 -8.925334e+000 191 130 111
2.355204e+000 -6.460919e-001 -9.094221e+000 139 83 74
1.590279e+000 -9.302317e-001 -9.201721e+000 141 80 72
-4.657729e-002 1.624828e+000 -8.755315e+000 38 52 37
2.907729e+000 1.787481e+000 -9.939260e+000 118 55 22
2.792599e+000 1.725122e+000 -9.762960e+000 86 28 19
3.610986e+000 1.866580e+000 -1.027686e+001 43 8 2
-8.568453e+001 2.967317e+001 -1.814876e+002 137 89 70
-8.568453e+001 2.967317e+001 -1.814876e+002 137 89 70
-9.881877e-003 1.327430e+000 -8.415419e+000 29 56 43
1.433317e+000 1.431245e+000 -8.968719e+000 141 141 131
2.381788e+000 1.498658e+000 -9.340340e+000 163 132 119
-1.190704e+000 1.150685e+000 -7.972389e+000 179 42 51
1.201034e+000 1.315949e+000 -8.802529e+000 158 31 44
1.501360e+000 1.277879e+000 -8.805577e+000 141 149 138
2.137603e+000 1.374780e+000 -9.114012e+000 120 98 100
2.137603e+000 1.374780e+000 -9.114012e+000 120 98 100
2.077147e+000 1.275127e+000 -9.000740e+000 92 68 83
-1.099959e+000 9.767662e-001 -7.780197e+000 172 38 33
-2.186858e-001 9.832946e-001 -7.984011e+000 18 49 27
2.050423e+000 1.012461e+000 -8.678231e+000 168 99 94
2.655119e+000 1.133356e+000 -8.993335e+000 145 124 116
-1.120170e+000 7.747930e-001 -7.459877e+000 184 149 118
-1.035723e-001 8.993033e-001 -7.941909e+000 30 46 30
2.084498e+000 9.219887e-001 -8.606355e+000 153 85 82
2.084498e+000 9.219887e-001 -8.606355e+000 153 85 82
3.289585e+000 9.487288e-001 -9.030247e+000 156 119 78
-2.107578e+000 5.825027e-001 -7.568161e+000 191 170 143
2.044375e+000 7.665334e-001 -8.498599e+000 93 29 30
2.257202e+000 6.724243e-001 -8.516297e+000 141 85 89
4.231674e+000 1.218995e-002 -9.307221e+000 212 134 59
4.231674e+000 1.218995e-002 -9.307221e+000 212 134 59
2.271679e+000 -7.368057e-002 -8.644958e+000 192 141 114
2.759412e+000 -2.818527e-002 -8.794167e+000 187 75 74
4.625598e+000 -4.124087e-001 -9.973189e+000 150 119 109
-6.416490e-001 -3.898803e-001 -7.761358e+000 22 50 39
2.558214e+000 -5.120165e-001 -9.069697e+000 192 78 78
-1.649488e-001 -5.460634e-001 -8.078364e+000 29 60 43
3.720084e-001 -6.263766e-001 -8.256865e+000 163 161 150
1.823028e+000 -6.856712e-001 -9.001880e+000 140 82 71
3.922425e+000 -7.254071e-001 -9.900636e+000 171 148 127
4.153166e+000 -7.073429e-001 -1.001258e+001 137 120 109
4.497527e+000 -6.653194e-001 -1.015716e+001 163 143 134
-7.503841e-001 -8.320582e-001 -8.231876e+000 74 116 116
1.473517e+000 -9.188879e-001 -9.115824e+000 140 80 70
3.043630e+000 -8.150475e-001 -9.672815e+000 124 63 57
3.043630e+000 -8.150475e-001 -9.672815e+000 124 63 57
3.174203e+000 -7.902850e-001 -9.681812e+000 151 95 79
4.974435e+000 -2.042937e+000 -9.546655e+000 140 124 124
5.033798e+000 -2.676688e+000 -9.424357e+000 133 115 115
-6.970598e-001 1.597805e+000 -8.542775e+000 38 53 34
-6.061855e-001 1.348497e+000 -8.307121e+000 34 54 42
2.821198e+000 1.691430e+000 -9.712048e+000 157 118 77
-1.030104e+002 2.520097e+001 -1.867868e+002 116 94 83
-7.325441e+001 2.632922e+001 -1.801898e+002 104 60 46
-2.230155e+000 1.154742e+000 -8.015723e+000 188 169 139
-2.259915e+000 1.075715e+000 -7.943858e+000 188 166 142
-1.327203e+000 1.127109e+000 -7.806372e+000 168 44 51
-1.327203e+000 1.127109e+000 -7.806372e+000 168 44 51
-1.298995e+000 1.064365e+000 -7.750770e+000 176 38 46
1.306795e+000 1.189632e+000 -8.649536e+000 182 87 75
2.612433e+000 1.270330e+000 -9.270815e+000 138 114 104
-2.139381e+000 1.043496e+000 -7.783673e+000 195 175 148
-2.520535e-001 1.064566e+000 -8.053928e+000 31 54 58
1.331424e+000 1.119050e+000 -8.557198e+000 169 71 62
2.038715e+000 1.151928e+000 -8.863646e+000 87 60 79
-1.189913e+000 8.613434e-001 -7.507488e+000 169 31 43
-1.162961e+000 8.002394e-001 -7.464078e+000 174 40 49
-1.033888e+000 8.405672e-001 -7.575361e+000 169 42 34
-1.765540e-001 8.991392e-001 -7.910882e+000 28 53 28
9.347681e-001 9.505406e-001 -8.265787e+000 170 153 128
8.324470e-001 8.128623e-001 -8.108951e+000 179 151 126
9.967871e-001 9.386342e-001 -8.261195e+000 181 46 41
-1.108253e+000 6.611194e-001 -7.336220e+000 171 35 47
8.550952e-001 7.344957e-001 -8.056997e+000 170 153 133
2.884053e+000 7.956285e-001 -8.736122e+000 77 35 45
2.845922e+000 7.507773e-001 -8.735269e+000 79 38 44
3.209376e+000 8.303264e-001 -8.948240e+000 70 39 42
-3.016572e-001 3.517458e-001 -7.482441e+000 121 126 122
4.947353e+000 2.042142e-001 -9.482128e+000 158 98 34
8.860716e-001 8.194915e-002 -8.027777e+000 51 54 96
3.026758e+000 5.255695e-002 -8.837320e+000 190 69 80
3.026758e+000 5.255695e-002 -8.837320e+000 190 69 80
3.794537e+000 1.186147e-001 -9.034065e+000 194 91 50
3.574022e+000 -3.311874e-001 -9.367772e+000 158 85 49
4.530996e+000 -2.741131e-001 -9.713205e+000 185 154 134
-3.474628e-001 -4.827606e-001 -7.927119e+000 138 145 61
-3.474628e-001 -4.827606e-001 -7.927119e+000 138 145 61
3.228395e+000 -4.183789e-001 -9.232976e+000 196 141 110
3.350875e+000 -4.520106e-001 -9.336716e+000 197 131 104
-4.892135e-001 -5.404697e-001 -7.917643e+000 56 105 122
8.027945e-001 -6.795142e-001 -8.609378e+000 11 59 105
1.896784e+000 -5.872894e-001 -8.865490e+000 192 131 110
2.360138e+000 -5.714047e-001 -9.061358e+000 195 132 115
-4.393988e-001 -7.954479e-001 -8.209355e+000 133 138 34
-4.393988e-001 -7.954479e-001 -8.209355e+000 133 138 34
1.145008e+000 -7.224329e-001 -8.793555e+000 137 82 80
5.132058e+000 -1.625999e+000 -9.157286e+000 155 137 137
5.206243e+000 -2.387274e+000 -9.037213e+000 159 141 141
-5.276685e+001 2.468593e+001 -1.390673e+002 84 65 60
-1.813709e+000 1.425854e+000 -7.973319e+000 127 131 130
5.235729e-001 1.619671e+000 -8.919889e+000 167 146 119
4.484197e+000 2.030249e+000 -1.094036e+001 148 116 79
-1.399703e+000 1.288401e+000 -8.022616e+000 170 33 43
-1.399703e+000 1.288401e+000 -8.022616e+000 170 33 43
-5.533506e-001 1.444399e+000 -8.406107e+000 27 61 44
1.501898e+000 1.487908e+000 -9.115004e+000 24 79 104
-1.287857e+000 1.145945e+000 -7.890266e+000 165 104 80
1.192055e+000 1.253919e+000 -8.656033e+000 160 31 43
2.243407e+000 1.387220e+000 -9.154419e+000 133 106 93
2.491413e+000 1.297091e+000 -9.137532e+000 33 15 13
2.491413e+000 1.297091e+000 -9.137532e+000 33 15 13
2.210669e-001 1.004451e+000 -8.108650e+000 29 50 26
2.210669e-001 1.004451e+000 -8.108650e+000 29 50 26
1.184934e+000 1.145219e+000 -8.539121e+000 197 147 111
2.201723e+000 1.030118e+000 -8.750586e+000 80 39 48
2.760661e+000 1.078277e+000 -9.003263e+000 145 122 106
-1.163395e+000 8.000967e-001 -7.469738e+000 174 40 49
-1.128505e+000 7.291679e-001 -7.401393e+000 164 37 38
8.898744e-001 8.277706e-001 -8.145013e+000 154 78 62
9.976573e-001 9.410432e-001 -8.273372e+000 182 47 41
9.976573e-001 9.410432e-001 -8.273372e+000 182 47 41
3.029746e+000 9.462956e-001 -8.948500e+000 133 98 96
-2.100217e+000 7.007216e-001 -7.604893e+000 195 171 145
8.154486e-001 6.541586e-001 -7.973685e+000 166 83 72
4.371959e+000 8.449895e-002 -9.322540e+000 40 23 35
1.557629e+000 -1.456853e-001 -8.443097e+000 185 124 103
2.129252e+000 -1.204396e-001 -8.602073e+000 193 142 111
-7.269853e-001 -3.474502e-001 -7.672058e+000 135 136 74
2.479033e+000 -5.123086e-001 -9.144148e+000 194 132 105
6.416687e-001 -6.770777e-001 -8.485759e+000 198 132 110
3.345261e+000 -8.692496e-001 -9.858453e+000 146 115 95
3.450170e+000 -9.247777e-001 -1.001431e+001 184 150 123
-9.649344e-001 -8.795896e-001 -8.158255e+000 34 64 39
4.948771e-001 -9.998609e-001 -8.846762e+000 193 130 119
4.940597e+000 -2.173152e+000 -9.673119e+000 154 140 139
4.724285e+000 -2.791435e+000 -1.028287e+001 142 126 128
-5.110204e+001 2.902916e+001 -1.524607e+002 90 79 80
-4.664981e-001 1.620237e+000 -8.609860e+000 31 54 25
1.334594e+000 1.604762e+000 -9.172190e+000 96 115 113
1.334594e+000 1.604762e+000 -9.172190e+000 96 115 113
-5.314608e+001 2.809488e+001 -1.635213e+002 86 69 61
1.371054e+000 1.527480e+000 -9.077049e+000 108 122 134
1.371054e+000 1.527480e+000 -9.077049e+000 108 122 134
1.462678e+000 1.585600e+000 -9.196331e+000 38 40 63
1.663776e+000 1.549143e+000 -9.186019e+000 88 62 81
2.319990e+000 1.485077e+000 -9.314904e+000 99 78 95
-8.057510e-001 1.242462e+000 -8.141414e+000 172 157 72
-8.057510e-001 1.242462e+000 -8.141414e+000 172 157 72
-2.079453e-001 1.224473e+000 -8.245816e+000 162 156 81
-2.079453e-001 1.224473e+000 -8.245816e+000 162 156 81
2.646135e+000 1.433850e+000 -9.350687e+000 145 113 99
-6.785742e-001 9.818466e-001 -7.847591e+000 171 154 96
-6.785742e-001 9.818466e-001 -7.847591e+000 171 154 96
-4.580649e-001 1.075768e+000 -8.036727e+000 34 54 28
-2.740975e-001 1.006339e+000 -7.978702e+000 174 155 62
-9.381819e-001 7.426771e-001 -7.487564e+000 179 33 47
7.684311e-001 8.210683e-001 -8.120838e+000 165 88 78
2.867824e+000 1.021199e+000 -8.969627e+000 140 110 102
-2.052871e+000 6.505475e-001 -7.544471e+000 148 123 101
9.229054e-001 7.098708e-001 -8.057479e+000 157 85 70
3.219418e+000 6.912754e-001 -8.862732e+000 83 53 65
4.046427e+000 2.648127e-002 -9.242235e+000 185 87 31
1.043923e+000 -1.638322e-001 -8.341193e+000 15 59 92
-4.086109e-001 -5.087647e-001 -8.028939e+000 27 58 30
6.535093e-001 -6.171057e-001 -8.382206e+000 153 88 60
1.526970e+000 -7.519078e-001 -8.964633e+000 197 132 114
-2.786983e-001 -9.257231e-001 -8.449980e+000 155 152 136
3.775163e-001 -1.136267e+000 -9.064243e+000 167 46 61
5.046443e+000 -1.829401e+000 -9.450889e+000 60 50 59
5.061758e+000 -1.837999e+000 -9.341660e+000 138 121 121
4.853635e+000 -2.261019e+000 -9.665801e+000 135 122 122
4.809045e+000 -2.612164e+000 -1.011839e+001 136 119 125
-1.712115e+002 -1.271888e+002 -4.540227e+002 109 81 77
4.622139e+000 -2.995107e+000 -1.044648e+001 149 130 133
4.524084e+000 -3.263605e+000 -1.070764e+001 143 127 130
4.444711e+000 -3.341714e+000 -1.073254e+001 147 131 134
-6.060843e+001 3.037230e+001 -1.613499e+002 124 92 87
-5.152433e-001 1.521243e+000 -8.513830e+000 170 157 113
-4.084113e-001 1.471192e+000 -8.514990e+000 36 60 30
-2.109106e-001 1.458669e+000 -8.505748e+000 29 51 30
-2.109106e-001 1.458669e+000 -8.505748e+000 29 51 30
1.563596e+000 1.563451e+000 -9.191232e+000 180 127 96
1.563596e+000 1.563451e+000 -9.191232e+000 180 127 96
1.526028e+000 1.423086e+000 -9.002311e+000 30 76 112
1.641805e+000 1.404183e+000 -9.036276e+000 186 136 92
-7.270534e+001 2.421028e+001 -1.784112e+002 104 71 57
-9.064741e-001 1.258394e+000 -8.179706e+000 30 53 24
-8.376801e-001 1.092639e+000 -7.964628e+000 163 153 112
-6.649965e-001 1.182404e+000 -8.054588e+000 35 55 39
-6.008153e-001 1.254943e+000 -8.201585e+000 171 154 111
-6.008153e-001 1.254943e+000 -8.201585e+000 171 154 111
-7.375064e-004 1.234731e+000 -8.311185e+000 167 149 115
-7.375064e-004 1.234731e+000 -8.311185e+000 167 149 115
-6.767348e-002 1.158654e+000 -8.199836e+000 37 60 43
-6.767348e-002 1.158654e+000 -8.199836e+000 37 60 43
-7.799642e-001 1.010337e+000 -7.914366e+000 32 60 31
-5.463171e-001 9.311294e-001 -7.804389e+000 38 64 45
-4.717853e-001 9.895275e-001 -7.903735e+000 168 155 110
-4.717853e-001 9.895275e-001 -7.903735e+000 168 155 110
5.748610e-001 9.800783e-001 -8.212290e+000 171 35 36
8.547974e-001 1.079634e+000 -8.369780e+000 163 156 131
8.547974e-001 1.079634e+000 -8.369780e+000 163 156 131
1.470444e+000 1.108306e+000 -8.664815e+000 6 77 115
2.407848e+000 1.213095e+000 -9.050799e+000 130 101 93
-2.051117e-001 8.064627e-001 -7.777596e+000 161 155 93
-2.051117e-001 8.064627e-001 -7.777596e+000 161 155 93
1.430449e-001 8.798270e-001 -7.992043e+000 28 53 26
1.430449e-001 8.798270e-001 -7.992043e+000 28 53 26
1.515164e+000 9.896524e-001 -8.529311e+000 26 74 118
1.840527e+000 8.577433e-001 -8.483559e+000 176 114 89
2.738962e+000 8.557033e-001 -8.790750e+000 92 53 58
3.262618e+000 9.816456e-001 -9.062341e+000 158 118 83
4.658378e+000 6.244991e-001 -9.332465e+000 176 141 126
3.848153e+000 3.719017e-001 -9.002282e+000 125 27 47
3.848153e+000 3.719017e-001 -9.002282e+000 125 27 47
-3.342129e-001 -3.165816e-001 -7.835570e+000 23 61 45
-2.925081e-001 -3.989703e-001 -7.862540e+000 93 116 116
-7.395979e-001 -8.110956e-001 -8.111180e+000 78 113 131
1.893010e+000 -7.564357e-001 -9.097226e+000 194 131 113
2.007673e+000 -7.662676e-001 -9.181655e+000 193 134 112
-1.144544e+000 -1.090229e+000 -8.366853e+000 39 67 47
5.571157e-001 -1.124346e+000 -9.158235e+000 20 76 127
-8.163123e+001 3.003837e+001 -1.489879e+002 101 89 53
-5.272479e+001 2.724029e+001 -1.540801e+002 38 26 26
-7.356543e+001 2.773801e+001 -1.697792e+002 176 121 84
-1.161222e-001 1.394033e+000 -8.444293e+000 169 153 109
-1.161222e-001 1.394033e+000 -8.444293e+000 169 153 109
3.385196e-003 1.453540e+000 -8.557342e+000 39 55 23
-7.281137e+001 2.606085e+001 -1.723702e+002 89 44 31
-4.895464e-001 1.248891e+000 -8.219846e+000 35 61 30
1.100265e-001 1.221838e+000 -8.331439e+000 34 57 28
2.350119e+000 1.332161e+000 -9.123304e+000 150 124 109
-1.162462e+000 9.489571e-001 -7.689374e+000 154 58 55
-9.623717e-001 1.051658e+000 -7.962449e+000 44 95 121
-3.641780e-001 9.801231e-001 -7.916084e+000 35 60 36
-1.039003e+000 7.346978e-001 -7.435078e+000 168 122 89
-1.039003e+000 7.346978e-001 -7.435078e+000 168 122 89
2.626620e-001 8.876359e-001 -8.010672e+000 163 152 122
5.218918e-001 8.819874e-001 -8.090617e+000 162 150 126
3.718454e+000 1.021268e+000 -9.225659e+000 154 118 87
3.856098e+000 9.354529e-001 -9.205452e+000 132 24 40
-8.376795e-001 6.581618e-001 -7.407909e+000 96 120 118
-7.186593e-001 6.245849e-001 -7.411520e+000 26 56 29
4.566428e+000 9.132233e-001 -9.557751e+000 168 138 114
4.437492e+000 7.117289e-001 -9.476047e+000 169 85 38
3.858509e+000 -1.556573e-001 -9.275534e+000 183 125 68
3.858509e+000 -1.556573e-001 -9.275534e+000 183 125 68
-6.564281e-001 -5.746618e-001 -7.854975e+000 66 110 108
1.763707e+000 -7.961580e-001 -9.109338e+000 193 130 112
-7.045530e+001 2.815193e+001 -1.723438e+002 171 120 76
-2.624766e-001 8.800028e-001 -7.807185e+000 165 152 118
6.965358e-003 8.790333e-001 -7.915026e+000 160 151 110
-2.075552e+000 5.985459e-001 -7.556941e+000 151 126 104
2.828028e+000 5.550499e-001 -8.649852e+000 152 107 55
-4.713420e-001 -5.765213e-001 -8.004761e+000 69 105 132
4.724236e+000 -7.725672e-001 -1.045129e+001 30 19 27
-1.452867e+002 -1.081500e+002 -3.729368e+002 52 27 29
-1.812598e+002 -1.436323e+002 -5.012896e+002 59 30 35
3.630607e+000 8.885595e-001 -9.146699e+000 17 58 109
4.327500e+000 1.107398e+000 -9.633871e+000 141 25 37
4.327500e+000 1.107398e+000 -9.633871e+000 141 25 37
8.559221e-001 7.240268e-001 -8.107249e+000 174 156 134
3.014409e+000 7.479378e-001 -8.774928e+000 53 19 23
-4.344511e-001 4.421120e-001 -7.480177e+000 155 148 122
3.263738e+000 5.558349e-001 -8.828942e+000 156 116 80
3.263738e+000 5.558349e-001 -8.828942e+000 156 116 80
8.232909e-003 -6.328636e-001 -8.077876e+000 156 156 144
-9.777331e-001 4.101776e-001 -7.326407e+000 93 121 135
2.363378e+000 -3.498379e-001 -8.905656e+000 194 140 112
-1.177963e+000 -6.951781e-001 -7.799525e+000 197 114 104
4.339288e+000 -2.291316e-001 -9.540220e+000 112 68 38
4.791533e-001 -4.080009e-001 -8.124314e+000 164 160 141
2.871237e+000 -1.153758e-001 -8.922519e+000 171 33 46
4.830320e+000 1.549361e+000 -1.001535e+001 40 32 43
9.426424e-001 -1.563987e-001 -7.980596e+000 99 130 151
2.224397e+000 -1.912911e-001 -9.831955e+000 129 80 75
6.377849e-003 -2.026827e-003 1.962853e-002 0 255 0
6.346675e-003 -2.018971e-003 -3.037146e-002 255 255 0
1.183649e-001 9.576099e-001 2.969973e-001 255 0 0
1.187628e-001 9.539436e-001 2.471335e-001 255 255 0
