ply
format ascii 1.0
element face 0
property list uchar int vertex_indices
element vertex 886
property float x
property float y
property float z
property uchar diffuse_red
property uchar diffuse_green
property uchar diffuse_blue
end_header
-2.779310e-001 8.965999e-001 -8.051754e+000 188 146 106
-2.462159e-001 8.616861e-001 -8.023667e+000 171 20 27
1.247969e+000 1.021553e+000 -8.694022e+000 210 145 113
1.247105e+000 9.738347e-001 -8.648449e+000 198 158 100
1.351298e+000 9.356232e-001 -8.629676e+000 167 43 45
1.460267e+000 9.677360e-001 -8.712987e+000 166 167 149
1.460293e+000 9.681566e-001 -8.711721e+000 166 167 149
1.862879e+000 1.023956e+000 -8.926737e+000 84 61 69
2.051176e+000 9.569309e-001 -8.942050e+000 138 110 91
2.147735e+000 1.014519e+000 -9.025576e+000 133 115 100
2.164832e+000 1.025721e+000 -9.043681e+000 50 27 11
2.148640e+000 9.681908e-001 -8.970983e+000 31 12 12
2.311361e+000 1.042837e+000 -9.111341e+000 151 107 100
2.314958e+000 1.041563e+000 -9.120654e+000 151 107 100
-2.186334e-001 8.016400e-001 -7.952328e+000 204 155 123
-2.171498e-001 8.028263e-001 -7.945353e+000 204 155 123
-2.176553e-001 7.750534e-001 -7.918569e+000 204 146 107
-2.181710e-001 7.750199e-001 -7.917716e+000 204 146 107
-1.609739e-001 8.585674e-001 -8.046316e+000 191 129 89
-1.609739e-001 8.585674e-001 -8.046316e+000 191 129 89
-1.816842e-001 8.281194e-001 -8.008850e+000 182 159 116
4.004034e-001 8.075575e-001 -8.160083e+000 140 149 44
4.004034e-001 8.075575e-001 -8.160083e+000 140 149 44
1.297712e+000 8.773164e-001 -8.545366e+000 209 154 126
1.505593e+000 9.251268e-001 -8.679999e+000 38 81 117
1.503873e+000 9.246176e-001 -8.680735e+000 38 81 117
1.525244e+000 8.494098e-001 -8.604643e+000 13 63 111
1.776650e+000 8.929729e-001 -8.727525e+000 97 48 53
1.771573e+000 8.596879e-001 -8.709736e+000 100 56 67
1.922577e+000 8.842714e-001 -8.782493e+000 91 64 73
2.266362e+000 9.223755e-001 -8.944258e+000 146 113 101
2.256527e+000 9.296818e-001 -8.916456e+000 146 113 101
-1.856340e-001 7.428522e-001 -7.885746e+000 177 40 55
-1.931419e-001 7.307801e-001 -7.865756e+000 193 159 107
-1.700699e-001 7.618414e-001 -7.921945e+000 169 36 39
-1.700699e-001 7.618414e-001 -7.921945e+000 169 36 39
-1.679878e-001 7.483536e-001 -7.903521e+000 186 144 102
-1.332487e-001 7.667619e-001 -7.940955e+000 168 35 45
-1.316913e-001 7.310837e-001 -7.892230e+000 189 146 103
7.397759e-002 7.373403e-001 -7.954126e+000 155 154 45
1.082467e-001 7.070866e-001 -7.939635e+000 88 118 111
1.082467e-001 7.070866e-001 -7.939635e+000 88 118 111
1.795934e+000 8.221785e-001 -8.677358e+000 156 91 85
1.814406e+000 7.987418e-001 -8.658530e+000 174 96 84
2.425194e+000 7.758412e-001 -8.877802e+000 83 38 42
-9.963403e-001 6.058686e-001 -7.951347e+000 191 176 136
-6.792902e-002 6.621198e-001 -7.827976e+000 192 157 117
1.760402e+000 6.899469e-001 -8.548213e+000 166 101 75
2.673191e+000 7.262965e-001 -8.932510e+000 36 23 37
2.915203e+000 6.789449e-001 -8.991653e+000 35 70 97
2.933214e+000 6.942583e-001 -8.997522e+000 169 128 90
3.341674e+000 7.662708e-001 -9.186378e+000 200 131 92
3.522635e+000 7.316755e-001 -9.276467e+000 176 145 121
-4.277767e-002 6.061179e-001 -7.776347e+000 215 153 116
-4.732608e-003 5.829600e-001 -7.765360e+000 187 37 36
-4.947871e-003 5.830091e-001 -7.765439e+000 187 37 36
1.853550e+000 6.454455e-001 -8.530296e+000 163 92 89
1.853550e+000 6.454455e-001 -8.530296e+000 163 92 89
2.504123e+000 6.460323e-001 -8.806550e+000 118 77 83
2.121737e-001 5.199580e-001 -7.795383e+000 169 157 37
2.455314e+000 4.891602e-001 -8.705009e+000 134 73 27
2.765746e+000 5.416223e-001 -8.845847e+000 34 25 52
2.765746e+000 5.416223e-001 -8.845847e+000 34 25 52
3.473641e+000 5.440733e-001 -9.128309e+000 192 148 114
2.614617e+000 4.002650e-001 -8.725776e+000 160 88 25
3.063107e+000 1.930994e-001 -9.032764e+000 199 88 44
2.462219e+000 2.180808e-001 -8.705738e+000 167 22 39
1.083112e+000 2.087676e-002 -8.309289e+000 27 83 111
-6.818534e-001 1.065838e+000 -8.203603e+000 171 151 121
-8.509469e-001 9.132791e-001 -8.123184e+000 203 179 145
9.513541e-002 1.018435e+000 -8.339088e+000 100 126 112
2.233143e+000 1.160766e+000 -9.268828e+000 118 54 42
-2.460935e-001 8.615831e-001 -8.023857e+000 168 17 25
-7.201922e-001 7.763012e-001 -7.897142e+000 206 184 142
-7.201922e-001 7.763012e-001 -7.897142e+000 206 184 142
-2.659982e-001 8.095935e-001 -7.984926e+000 180 40 38
-2.444971e-001 8.201590e-001 -7.979211e+000 197 152 109
-1.537082e-001 8.282817e-001 -8.017264e+000 195 158 119
1.283484e+000 9.119278e-001 -8.587801e+000 157 24 41
1.885364e+000 9.060801e-001 -8.800907e+000 81 58 62
1.564215e+000 7.743160e-001 -8.536768e+000 20 68 109
1.563986e+000 7.743822e-001 -8.535908e+000 20 68 109
1.831908e+000 7.827572e-001 -8.642893e+000 105 45 52
2.184929e+000 8.206525e-001 -8.838686e+000 143 117 102
1.773426e+000 7.102041e-001 -8.548859e+000 96 27 26
1.848938e+000 7.257733e-001 -8.594001e+000 88 29 43
1.822757e+000 6.954666e-001 -8.559149e+000 89 28 24
1.948427e+000 7.315299e-001 -8.639514e+000 81 45 57
1.925062e+000 7.194712e-001 -8.613699e+000 129 94 88
2.467914e+000 7.481856e-001 -8.812008e+000 143 106 101
2.468071e+000 7.265706e-001 -8.853647e+000 74 29 37
2.455165e+000 6.739943e-001 -8.802960e+000 65 23 27
-7.619585e-001 5.373364e-001 -7.824341e+000 210 183 152
1.271824e-001 5.846044e-001 -7.818461e+000 165 149 39
1.995326e+000 6.088658e-001 -8.535594e+000 85 27 40
2.400086e+000 5.786386e-001 -8.718735e+000 99 46 58
2.806327e+000 6.209887e-001 -8.919155e+000 15 64 109
2.932118e+000 6.320976e-001 -8.913171e+000 178 135 95
3.115365e+000 5.824418e-001 -9.006299e+000 155 55 43
2.496485e+000 4.833705e-001 -8.726357e+000 183 133 80
2.317991e+000 4.315521e-001 -8.653591e+000 100 35 33
2.426708e+000 4.269968e-001 -8.699338e+000 143 87 38
-9.583123e-001 1.034453e-001 -7.953410e+000 189 166 134
1.705657e+000 5.971671e-002 -8.551727e+000 117 64 50
2.670818e+000 -1.670876e-001 -9.161606e+000 202 124 96
-2.135864e-001 -1.852349e-001 -7.887516e+000 186 37 55
4.677182e-001 -1.836524e-001 -8.179365e+000 169 165 50
1.238210e+000 -2.315133e-001 -8.557579e+000 188 131 117
1.290345e+000 -2.030012e-001 -8.548646e+000 128 64 48
-1.789821e-001 -2.632660e-001 -7.975456e+000 190 129 101
3.879143e+000 -1.365204e+000 -8.952993e+000 160 136 136
3.219932e+000 -2.303442e+000 -1.037358e+001 54 42 47
3.452194e+000 1.414551e+000 -1.018011e+001 31 20 29
9.155828e-001 1.169095e+000 -8.775753e+000 175 157 124
1.565325e+000 1.197068e+000 -9.025182e+000 139 24 35
1.882453e+000 1.264244e+000 -9.262894e+000 24 69 103
2.218292e+000 1.250841e+000 -9.377084e+000 148 56 42
2.370856e+000 1.171565e+000 -9.316895e+000 86 58 56
3.433246e+000 1.061669e+000 -9.551688e+000 124 27 38
1.135111e+000 8.436334e-001 -8.449564e+000 182 42 52
-7.541883e-001 7.109484e-001 -7.897261e+000 207 184 147
-2.306779e-001 7.504925e-001 -7.915171e+000 187 36 50
-1.034255e-001 6.987970e-001 -7.853684e+000 179 32 35
2.891858e+000 7.838388e-001 -9.060630e+000 170 113 74
-1.514084e-001 6.577731e-001 -7.785379e+000 194 160 130
1.141320e+000 6.805384e-001 -8.280821e+000 182 156 127
2.036873e+000 6.649996e-001 -8.633010e+000 114 55 61
-1.578875e-001 6.138645e-001 -7.706462e+000 190 41 50
2.014381e+000 6.165686e-001 -8.605560e+000 92 35 47
2.563904e+000 2.603616e-001 -8.812083e+000 160 25 37
2.563904e+000 2.603616e-001 -8.812083e+000 160 25 37
1.367607e+000 1.537149e-001 -8.329912e+000 110 59 50
3.289812e+000 7.177883e-002 -9.219839e+000 175 150 119
3.592239e-001 1.455410e-002 -7.993838e+000 131 135 72
5.142542e-001 1.010011e-001 -8.022247e+000 160 159 90
1.086703e+000 -1.011203e-001 -8.398793e+000 10 51 93
2.308441e+000 -2.194159e-001 -9.049922e+000 157 20 36
2.474843e-001 -1.543526e-001 -8.042327e+000 64 108 121
3.963929e+000 -5.071266e-001 -8.746893e+000 47 31 37
3.353836e+000 -2.066947e+000 -1.012061e+001 143 127 125
4.988724e-001 1.182149e+000 -8.653210e+000 27 63 34
8.939671e-001 1.236844e+000 -8.865592e+000 168 106 88
8.940503e-001 1.236967e+000 -8.865900e+000 168 106 88
-1.967623e-001 1.048689e+000 -8.264067e+000 30 53 27
1.525789e+000 1.214628e+000 -9.060011e+000 92 25 39
2.100872e+000 1.222430e+000 -9.317963e+000 84 21 32
2.337177e+000 1.198709e+000 -9.347673e+000 90 55 67
-8.890175e-001 8.907869e-001 -8.143891e+000 154 130 96
-2.558147e-001 1.024973e+000 -8.198463e+000 23 84 114
-8.639830e-001 8.326086e-001 -8.063045e+000 203 176 146
-3.013406e-001 9.114413e-001 -8.073743e+000 171 33 33
-7.876669e-001 7.808873e-001 -7.959898e+000 206 182 148
-7.545981e-001 7.349837e-001 -7.898187e+000 206 183 146
-7.600245e-001 7.297901e-001 -7.925525e+000 206 183 146
-2.400867e-001 7.897899e-001 -7.934219e+000 177 33 49
-2.399488e-001 7.904076e-001 -7.926030e+000 177 33 49
-1.149782e-001 8.015162e-001 -7.977163e+000 184 42 43
-1.149782e-001 8.015162e-001 -7.977163e+000 184 42 43
-2.912935e-002 8.542749e-001 -8.161318e+000 69 107 124
1.507428e+000 9.035624e-001 -8.657443e+000 74 108 119
1.758651e+000 9.258137e-001 -8.771380e+000 128 63 63
2.008648e+000 8.733507e-001 -8.802274e+000 77 56 65
-1.993771e-001 7.099770e-001 -7.845550e+000 173 38 47
-1.807585e-001 6.737333e-001 -7.803790e+000 169 31 31
1.897396e+000 7.071300e-001 -8.578214e+000 88 39 45
-1.317534e-001 6.117066e-001 -7.744355e+000 195 160 125
1.042756e+000 6.354879e-001 -8.204119e+000 167 70 63
1.044033e+000 6.344948e-001 -8.211528e+000 167 70 63
1.886411e+000 6.471507e-001 -8.548331e+000 90 33 48
2.233305e+000 6.227577e-001 -8.685560e+000 70 19 27
2.496022e+000 5.897329e-001 -8.769699e+000 68 28 32
3.592692e+000 5.299454e-001 -9.175821e+000 185 69 41
1.058548e+000 9.803686e-002 -8.191080e+000 125 22 38
9.876639e-001 -9.189300e-002 -8.350544e+000 191 122 103
3.640445e+000 -1.578943e+000 -9.466187e+000 155 134 131
3.310233e+000 -2.094883e+000 -1.011762e+001 143 128 128
1.419299e+000 1.213514e+000 -9.008431e+000 18 63 96
1.163154e+000 1.019752e+000 -8.703718e+000 161 29 36
1.671082e+000 1.142424e+000 -9.032283e+000 134 78 80
1.979883e+000 9.202492e-001 -8.858332e+000 81 53 72
1.830874e+000 8.428442e-001 -8.697724e+000 85 33 35
1.830874e+000 8.428442e-001 -8.697724e+000 85 33 35
2.039703e+000 8.088244e-001 -8.744048e+000 91 67 84
-1.591931e-001 6.311840e-001 -7.760458e+000 187 44 49
2.020728e+000 5.805914e-001 -8.569827e+000 116 56 64
2.480054e+000 -4.162531e-003 -8.925311e+000 168 27 34
4.509519e-001 -2.353169e-001 -8.224796e+000 35 56 42
3.994480e+000 -4.237177e-001 -8.686728e+000 52 41 50
4.016302e+000 -5.692427e-001 -8.640263e+000 150 126 124
3.894337e+000 -7.620324e-001 -8.935270e+000 155 135 127
3.562101e+000 -1.475297e+000 -9.617265e+000 59 45 54
3.903401e+000 -1.264389e+000 -8.854120e+000 150 130 129
3.507713e+000 -1.874416e+000 -9.759504e+000 168 144 142
2.165114e-001 1.245815e+000 -8.632965e+000 29 55 26
3.451222e-001 1.088275e+000 -8.467942e+000 179 159 105
3.451222e-001 1.088275e+000 -8.467942e+000 179 159 105
1.459073e+000 1.163342e+000 -8.981641e+000 32 29 57
1.521893e+000 1.145301e+000 -8.953242e+000 184 129 96
4.055049e-002 9.440321e-001 -8.223620e+000 176 167 85
4.393762e-001 9.720094e-001 -8.386806e+000 32 61 33
-7.809798e-001 6.414423e-001 -7.874899e+000 156 129 101
-7.809798e-001 6.414423e-001 -7.874899e+000 156 129 101
1.192649e-001 7.855564e-001 -8.044233e+000 168 160 82
4.577449e-001 6.099948e-001 -7.969612e+000 175 161 76
3.546865e-001 1.114982e+000 -8.555576e+000 177 158 105
1.387784e+000 1.023435e+000 -8.790570e+000 16 70 100
1.131989e+000 8.091051e-001 -8.397041e+000 183 49 55
1.373236e-001 6.087933e-001 -7.824968e+000 84 114 113
-2.183924e-001 1.109529e+000 -8.286583e+000 115 130 126
1.072686e+000 1.037633e+000 -8.623828e+000 173 156 126
3.698430e-001 7.234702e-001 -8.026540e+000 172 156 126
7.162560e-001 7.255527e-001 -8.180195e+000 170 156 128
6.499827e-001 6.797578e-001 -8.087152e+000 36 55 39
-7.487921e-001 5.414993e-001 -7.838898e+000 141 114 87
2.977217e-001 6.132992e-001 -7.915353e+000 166 158 125
3.538823e+000 -1.593614e+000 -9.610212e+000 133 112 109
2.648705e+000 1.454946e+000 -1.005044e+001 41 35 42
6.425556e-001 1.043977e+000 -8.478025e+000 174 158 125
2.340378e+000 1.116445e+000 -9.196794e+000 96 67 75
1.426677e+000 -4.105491e-001 -8.897538e+000 204 139 115
-1.355495e-002 1.013654e+000 -8.388857e+000 179 164 34
-2.438258e-001 8.679033e-001 -8.173532e+000 191 147 113
5.069874e-001 8.900506e-001 -8.345730e+000 31 58 27
1.992963e+000 6.420775e-001 -8.606156e+000 91 29 40
3.674437e+000 1.138481e+000 -9.653074e+000 40 30 38
3.431755e+000 5.245466e-001 -9.149331e+000 187 100 33
1.862733e+000 1.350704e+000 -9.380131e+000 85 105 109
1.888768e+000 1.317178e+000 -9.325871e+000 78 101 117
1.899341e+000 1.303599e+000 -9.326295e+000 84 109 123
1.899341e+000 1.303599e+000 -9.326295e+000 84 109 123
1.956741e+000 1.297708e+000 -9.350400e+000 83 104 121
2.018035e+000 1.283495e+000 -9.263059e+000 58 12 14
2.809178e+000 1.291177e+000 -9.640462e+000 115 68 38
1.382769e+000 1.153753e+000 -8.898994e+000 22 62 89
1.406574e+000 1.109979e+000 -8.854477e+000 20 70 104
1.406574e+000 1.109979e+000 -8.854477e+000 20 70 104
2.293538e+000 1.160383e+000 -9.242774e+000 166 113 100
2.293538e+000 1.160383e+000 -9.242774e+000 166 113 100
2.329600e+000 1.148495e+000 -9.279444e+000 89 60 66
1.237118e+000 9.246822e-001 -8.582311e+000 187 149 106
1.285233e+000 9.125910e-001 -8.587113e+000 149 22 40
1.528686e+000 8.781663e-001 -8.635291e+000 23 64 99
-8.349558e-001 7.120641e-001 -7.955863e+000 155 128 97
-8.349558e-001 7.120641e-001 -7.955863e+000 155 128 97
-7.897204e-001 7.203784e-001 -7.922778e+000 210 184 151
-7.178261e-001 7.413782e-001 -7.881778e+000 205 181 145
-1.445125e-001 7.547406e-001 -7.920632e+000 174 154 104
1.132165e+000 7.767657e-001 -8.369229e+000 171 153 120
1.135955e+000 7.765831e-001 -8.374920e+000 171 153 120
1.795803e+000 8.220919e-001 -8.677455e+000 153 92 87
1.923664e+000 8.519597e-001 -8.747709e+000 92 59 68
2.236892e+000 8.505607e-001 -8.865264e+000 151 127 108
-7.372238e-001 5.933898e-001 -7.824194e+000 216 192 156
-1.212248e-001 7.118231e-001 -7.870404e+000 186 145 106
1.143395e-001 7.288435e-001 -7.932908e+000 147 148 38
1.011243e-001 6.856095e-001 -7.930368e+000 155 145 50
1.773654e+000 7.688293e-001 -8.610578e+000 164 91 83
1.775022e+000 7.668613e-001 -8.615675e+000 164 91 83
1.875172e+000 7.200067e-001 -8.601493e+000 160 91 83
1.826745e+000 7.155646e-001 -8.578678e+000 162 90 91
3.389207e+000 7.411094e-001 -9.246524e+000 154 81 52
-7.277164e-001 5.564417e-001 -7.809153e+000 215 191 156
-1.115028e-001 6.229388e-001 -7.767003e+000 185 151 114
1.837835e+000 6.328930e-001 -8.523455e+000 88 29 32
2.040284e+000 6.040377e-001 -8.607046e+000 115 66 73
2.765863e+000 6.618925e-001 -8.859184e+000 33 72 96
1.569426e+000 5.283138e-001 -8.349360e+000 153 55 54
1.916865e+000 5.589733e-001 -8.524496e+000 81 26 30
2.858464e+000 2.745011e-002 -9.088175e+000 187 132 91
5.178022e-001 -4.265524e-002 -8.139302e+000 45 48 43
4.088410e+000 -6.509398e-001 -8.627391e+000 162 139 135
4.217796e-001 1.316540e+000 -8.815299e+000 76 84 53
1.092356e+000 1.313169e+000 -9.081897e+000 169 154 117
2.330497e+000 1.283150e+000 -9.472922e+000 158 87 62
-6.386841e-001 1.067249e+000 -8.033167e+000 168 147 114
2.239394e+000 1.201007e+000 -9.313565e+000 153 110 87
1.247636e+000 1.077899e+000 -8.729752e+000 157 27 39
2.342720e+000 1.099956e+000 -9.186694e+000 81 56 57
1.815272e+000 9.809250e-001 -8.817162e+000 105 82 85
-2.444778e-001 8.198109e-001 -7.979693e+000 196 150 103
1.893849e+000 9.238145e-001 -8.818623e+000 107 83 83
1.891367e+000 8.990360e-001 -8.828648e+000 89 64 69
1.896650e+000 8.745435e-001 -8.772928e+000 79 50 59
-7.882019e-001 6.899087e-001 -7.909502e+000 210 184 149
-7.866522e-001 6.908868e-001 -7.906827e+000 210 184 149
-1.311327e-001 7.740394e-001 -7.919590e+000 183 31 46
1.861427e+000 8.219044e-001 -8.693743e+000 80 42 42
2.446709e+000 8.132098e-001 -8.911073e+000 156 117 110
2.506414e+000 8.086767e-001 -8.945323e+000 118 88 86
1.933340e+000 7.669374e-001 -8.664408e+000 70 41 38
1.849320e+000 6.997450e-001 -8.574837e+000 164 83 77
3.425026e+000 7.727120e-001 -9.282602e+000 175 138 113
1.811119e+000 6.741848e-001 -8.540244e+000 161 91 83
1.829314e+000 6.106795e-001 -8.513341e+000 165 90 85
2.948114e+000 6.862266e-001 -9.026590e+000 160 120 84
1.318698e+000 2.143135e-001 -8.314758e+000 12 77 123
3.213030e+000 5.222572e-002 -9.233099e+000 213 131 64
1.761357e+000 6.836899e-002 -8.599976e+000 192 135 104
1.896174e+000 8.017846e-002 -8.633397e+000 191 138 105
2.049085e+000 8.435657e-002 -8.696832e+000 195 141 106
2.696358e+000 -1.100589e-001 -9.132487e+000 201 142 109
2.984000e-001 -2.368952e-001 -8.181561e+000 24 52 19
3.953536e+000 -6.342166e-001 -8.714467e+000 127 103 99
3.962092e-001 1.293149e+000 -8.796339e+000 147 142 94
2.509608e+000 1.389228e+000 -9.664865e+000 110 61 28
1.913432e+000 1.272139e+000 -9.255148e+000 64 97 111
1.216435e+000 1.035869e+000 -8.712061e+000 153 26 40
-1.962975e-001 8.849404e-001 -8.071841e+000 177 31 39
1.315174e+000 1.012888e+000 -8.720147e+000 198 109 99
1.315174e+000 1.012888e+000 -8.720147e+000 198 109 99
-7.967172e-001 8.174455e-001 -8.004779e+000 203 181 142
1.376412e-001 8.380509e-001 -8.140389e+000 32 50 34
-7.355816e-001 6.901440e-001 -7.858970e+000 213 186 151
1.817826e+000 7.513938e-001 -8.592992e+000 164 89 74
1.088654e+000 5.999822e-001 -8.205619e+000 169 152 118
2.178361e+000 6.771544e-001 -8.683513e+000 173 130 111
3.170045e+000 7.010227e-001 -9.114709e+000 173 87 31
2.188617e+000 4.970914e-001 -8.606633e+000 142 70 35
3.402431e+000 3.819582e-001 -9.087812e+000 32 22 26
-1.168820e+000 -8.483488e-002 -8.733179e+000 193 167 134
3.358971e+000 2.456961e-001 -9.150264e+000 191 171 141
1.407206e+000 1.431167e-001 -8.386047e+000 190 125 103
1.442944e+000 1.536291e-001 -8.394788e+000 129 67 55
1.533351e+000 2.741107e-001 -8.350327e+000 173 159 132
2.126384e+000 1.393324e-001 -8.694286e+000 195 139 108
2.191455e+000 1.518469e-001 -8.673696e+000 163 26 37
4.051476e+000 -5.165082e-001 -8.718224e+000 123 101 103
3.587108e+000 -1.483781e+000 -9.576839e+000 154 136 134
3.518587e+000 -1.705985e+000 -9.730991e+000 131 107 108
1.536710e+000 1.180037e+000 -9.027422e+000 179 118 82
-8.138698e-001 8.914162e-001 -8.079003e+000 204 178 141
-2.071790e-001 8.232301e-001 -7.980066e+000 171 33 41
-1.868506e-002 5.916124e-001 -7.767636e+000 171 26 41
3.693139e+000 6.077604e-001 -9.154007e+000 171 78 44
-1.002749e+000 -7.531865e-002 -8.104427e+000 165 133 103
3.014543e+000 -1.398521e-001 -9.318142e+000 131 55 16
-9.562593e-001 -2.668253e-001 -8.233641e+000 162 134 104
9.358640e-001 -1.761178e-001 -8.413149e+000 159 36 40
2.616238e+000 -5.796258e-001 -9.698921e+000 41 32 40
-2.307427e-003 -2.625524e-001 -8.089599e+000 35 63 30
4.530336e-001 -3.520750e-001 -8.380348e+000 164 165 135
-4.572078e-001 1.134525e+000 -8.249499e+000 50 100 118
9.163290e-001 1.201018e+000 -8.810987e+000 178 114 93
8.121601e-001 1.171897e+000 -8.739291e+000 169 148 119
1.329108e+000 1.148554e+000 -8.930306e+000 17 63 90
9.771814e-001 1.089802e+000 -8.698029e+000 164 147 115
8.506768e-001 9.395585e-001 -8.444956e+000 143 146 115
-8.265158e-001 7.637290e-001 -7.979598e+000 206 180 146
-7.856095e-001 7.814861e-001 -7.953969e+000 208 184 147
3.932812e-001 8.377807e-001 -8.192836e+000 29 60 27
1.244681e+000 9.361978e-001 -8.584173e+000 136 42 27
3.698268e-001 8.018377e-001 -8.157096e+000 173 149 56
1.987172e+000 8.154385e-001 -8.727483e+000 108 77 75
7.041885e-001 6.996102e-001 -8.148385e+000 162 151 100
7.036007e-001 7.020546e-001 -8.140657e+000 162 151 100
3.403677e+000 7.197199e-001 -9.199160e+000 180 146 111
3.061849e+000 7.005271e-001 -9.060774e+000 164 117 81
2.593544e+000 6.011578e-001 -8.822006e+000 82 57 64
3.289141e-001 -3.141329e-002 -8.063555e+000 27 56 35
2.083199e+000 -1.292352e-001 -8.858233e+000 201 138 106
3.738793e+000 -1.190017e+000 -9.400144e+000 55 45 48
2.890146e-001 1.226399e+000 -8.626202e+000 99 124 100
-3.454391e-001 1.005012e+000 -8.161547e+000 174 85 68
-3.454391e-001 1.005012e+000 -8.161547e+000 174 85 68
1.893276e-001 1.008419e+000 -8.327558e+000 29 52 34
7.885289e-001 1.093936e+000 -8.617295e+000 165 146 115
1.350245e+000 1.100305e+000 -8.895169e+000 17 65 94
4.087050e-002 9.440695e-001 -8.224063e+000 171 150 75
4.120513e-001 9.362635e-001 -8.311799e+000 177 157 83
2.117450e+000 9.841976e-001 -8.962646e+000 29 17 25
6.534815e-002 8.125104e-001 -8.100729e+000 25 48 33
2.633441e-001 8.445559e-001 -8.157419e+000 32 53 34
2.633441e-001 8.445559e-001 -8.157419e+000 32 53 34
1.220565e+000 8.954349e-001 -8.563413e+000 146 26 35
3.522072e+000 9.622666e-001 -9.510181e+000 148 86 48
2.342452e+000 6.733673e-001 -8.767440e+000 143 116 97
3.569842e+000 2.074841e-001 -9.281413e+000 192 107 40
-1.567688e-001 -1.578404e-001 -7.958963e+000 29 93 136
2.754538e+000 1.398690e+000 -9.881518e+000 149 106 64
2.870787e-001 1.079282e+000 -8.520959e+000 27 52 36
2.428800e-001 1.034653e+000 -8.382432e+000 172 155 107
1.846101e-001 8.469740e-001 -8.156186e+000 167 147 106
2.417098e-001 7.894963e-001 -8.103701e+000 169 153 103
2.417098e-001 7.894963e-001 -8.103701e+000 169 153 103
3.195163e+000 7.362122e-001 -9.125951e+000 175 87 31
3.409218e-001 3.314448e-001 -7.848765e+000 89 119 129
3.590238e+000 2.891189e-001 -9.240842e+000 206 121 61
2.364655e+000 -1.884642e-001 -9.063437e+000 171 37 48
2.785729e+000 1.331047e+000 -9.739106e+000 47 16 21
8.541080e-001 7.279177e-001 -8.220575e+000 159 143 117
2.970117e-001 6.136751e-001 -7.914472e+000 159 146 108
4.631137e-001 1.156329e+000 -8.565060e+000 124 119 35
1.469729e+000 1.214787e+000 -9.058598e+000 144 40 42
1.469729e+000 1.214787e+000 -9.058598e+000 144 40 42
3.424025e+000 2.019331e-002 -9.417249e+000 172 143 122
4.656412e-001 1.153891e+000 -8.561936e+000 99 101 31
6.234727e-001 1.145526e+000 -8.650512e+000 165 149 116
3.277792e+000 8.501205e-001 -9.301514e+000 142 23 43
3.277792e+000 8.501205e-001 -9.301514e+000 142 23 43
5.516056e-001 -3.756410e-001 -8.510092e+000 160 159 141
-6.299703e-002 4.269474e-001 -7.680970e+000 91 124 133
3.607735e+000 1.246733e-003 -9.370108e+000 35 24 33
3.686884e+000 7.825396e-001 -9.233881e+000 41 30 38
2.921737e+000 -1.086939e-001 -9.447278e+000 195 142 95
2.992758e+000 1.119109e+000 -9.599645e+000 153 111 71
2.992758e+000 1.119109e+000 -9.599645e+000 153 111 71
-3.297413e+001 -2.292694e+001 -8.143823e+001 65 46 50
-2.658895e+001 -2.622900e+001 -7.118541e+001 162 128 104
-2.993981e+001 -2.537323e+001 -7.151112e+001 74 45 28
-2.678420e+001 -2.577428e+001 -7.345196e+001 119 90 76
-2.678420e+001 -2.577428e+001 -7.345196e+001 119 90 76
-2.769462e+001 -2.534347e+001 -6.851771e+001 156 125 104
1.920958e+000 1.035267e+000 -8.956327e+000 96 73 79
1.523625e+000 8.794009e-001 -8.633300e+000 12 69 115
-1.239003e-001 6.351509e-001 -7.770311e+000 165 38 41
2.082499e+000 5.696374e-001 -8.587283e+000 91 38 45
2.448241e+000 9.370807e-001 -9.031049e+000 122 93 96
1.966102e+000 6.426803e-001 -8.571968e+000 128 66 75
2.308190e+000 5.184173e-001 -8.653300e+000 178 130 81
1.262124e+000 9.986246e-001 -8.676285e+000 157 33 30
3.943865e+000 -8.179053e-001 -8.812698e+000 157 137 130
3.944802e+000 -1.388999e+000 -8.773018e+000 163 144 138
2.586861e+000 1.823485e-001 -8.848329e+000 201 141 105
-2.767340e+001 -2.939505e+001 -6.785500e+001 146 123 110
-2.610260e+001 -3.017164e+001 -7.061281e+001 142 113 97
-2.472360e-001 8.858756e-001 -8.058524e+000 149 73 51
-2.507450e+001 -3.279142e+001 -6.744114e+001 123 93 81
-2.525456e+001 -3.307981e+001 -6.793036e+001 123 93 81
-2.707780e+001 -2.781651e+001 -6.700449e+001 155 124 106
2.374890e-001 9.522412e-001 -8.236886e+000 27 60 26
-2.874940e+001 -2.927245e+001 -6.906889e+001 56 37 37
-2.695201e+001 -2.782614e+001 -7.375969e+001 118 94 74
-2.906097e+001 -2.997996e+001 -6.571265e+001 31 30 47
1.759430e+000 1.318418e+000 -9.371521e+000 29 60 84
1.926552e+000 1.335819e+000 -9.387511e+000 79 98 106
1.954850e+000 1.298873e+000 -9.346132e+000 83 104 121
-1.649841e-002 1.097691e+000 -8.384368e+000 91 108 93
-1.478129e-002 1.101230e+000 -8.373845e+000 91 108 93
1.479069e+000 1.214329e+000 -9.045512e+000 141 42 41
2.183936e+000 1.181781e+000 -9.205927e+000 166 122 99
-1.953707e-001 9.873761e-001 -8.204394e+000 166 33 38
-2.856234e-001 9.463148e-001 -8.114468e+000 180 26 37
1.209331e+000 9.957373e-001 -8.646247e+000 184 156 106
-7.158916e-001 7.424526e-001 -7.880828e+000 205 181 145
1.900566e+000 8.594419e-001 -8.755854e+000 84 57 63
2.233800e+000 8.783233e-001 -8.894131e+000 157 125 111
-1.545299e-001 7.046098e-001 -7.848163e+000 186 142 109
5.909575e-001 7.158886e-001 -8.119564e+000 156 150 46
5.963050e-002 5.440361e-001 -7.739952e+000 148 146 29
1.695221e+000 5.937887e-001 -8.447425e+000 178 134 80
2.702228e+000 5.990115e-001 -8.855490e+000 32 30 58
2.146158e+000 5.035423e-001 -8.528316e+000 174 120 76
2.417859e+000 4.328705e-001 -8.707483e+000 126 73 31
5.501447e-001 1.334451e-001 -8.009775e+000 88 93 61
3.977930e+000 -4.548833e-001 -8.744386e+000 45 32 42
2.023465e+000 1.196237e+000 -9.214698e+000 166 134 109
1.317797e+000 9.332891e-001 -8.631902e+000 155 28 39
1.317797e+000 9.332891e-001 -8.631902e+000 155 28 39
1.713321e+000 8.496021e-001 -8.648404e+000 77 24 33
6.231900e-001 5.264443e-001 -7.984522e+000 164 150 28
3.695037e+000 5.750265e-001 -9.219755e+000 125 35 17
1.150077e+000 1.799097e-001 -8.236854e+000 13 67 103
3.875633e+000 -9.611837e-001 -9.021814e+000 171 148 142
1.896539e+000 9.832424e-001 -8.898576e+000 87 62 68
1.015389e+000 7.189131e-001 -8.253476e+000 154 148 116
3.601894e+000 -1.450078e+000 -9.602611e+000 58 44 45
1.478814e+000 9.707927e-001 -8.716691e+000 91 97 87
3.536049e+000 1.002069e+000 -9.590208e+000 135 73 48
-1.856052e-002 5.915368e-001 -7.767621e+000 171 26 41
2.502803e+000 5.581618e-001 -8.745394e+000 166 123 69
3.646663e+000 -1.395879e+000 -9.505483e+000 145 130 127
2.356091e+000 7.242154e-001 -8.796442e+000 155 119 105
3.798267e+000 -9.529438e-001 -9.158379e+000 51 39 49
3.646294e+000 -1.368786e+000 -9.552729e+000 49 41 41
5.609702e-001 9.985050e-001 -8.414054e+000 32 56 32
1.063938e+000 8.459117e-001 -8.426506e+000 162 148 121
1.063938e+000 8.459117e-001 -8.426506e+000 162 148 121
7.105289e-001 8.988446e-001 -8.294439e+000 163 147 116
1.078679e+000 6.283163e-001 -8.230647e+000 169 147 116
1.376985e+000 6.270083e-001 -8.339825e+000 150 23 32
1.592494e+000 6.205343e-001 -8.429937e+000 16 69 109
4.280144e-001 1.286358e+000 -8.806859e+000 148 142 47
3.349846e+000 1.464264e+000 -1.024895e+001 152 93 56
5.013489e-001 1.206186e+000 -8.686847e+000 157 149 70
1.889321e+000 1.316915e+000 -9.326944e+000 69 92 99
1.350611e+000 1.220112e+000 -9.014514e+000 17 53 78
1.350611e+000 1.220112e+000 -9.014514e+000 17 53 78
1.482465e+000 1.213847e+000 -9.052333e+000 121 40 37
2.307422e+000 1.188800e+000 -9.343333e+000 144 112 97
2.286413e+000 1.137234e+000 -9.238097e+000 80 31 26
2.340946e+000 1.155977e+000 -9.239146e+000 96 76 78
-8.019437e-001 8.441729e-001 -8.006074e+000 197 177 143
-2.545614e-001 9.452279e-001 -8.129381e+000 172 33 39
-2.545614e-001 9.452279e-001 -8.129381e+000 172 33 39
-2.086163e-001 9.654855e-001 -8.063659e+000 160 15 19
3.695127e-001 9.678058e-001 -8.232777e+000 27 51 20
4.057600e-001 9.986247e-001 -8.401731e+000 25 52 11
1.127480e+000 1.019655e+000 -8.492644e+000 148 138 103
1.414909e+000 1.062778e+000 -8.816203e+000 148 146 115
1.414909e+000 1.062778e+000 -8.816203e+000 148 146 115
2.012153e+000 1.038790e+000 -8.997076e+000 116 90 73
-2.174714e-001 8.928728e-001 -8.093819e+000 195 149 113
-1.930197e-001 8.530345e-001 -8.036873e+000 181 142 102
1.738459e+000 9.551341e-001 -8.808643e+000 137 84 76
-8.016901e-001 7.069489e-001 -7.934482e+000 203 180 148
-1.546118e-001 7.743194e-001 -7.945849e+000 171 146 89
-1.540920e-001 7.734667e-001 -7.947840e+000 171 146 89
2.206933e-002 7.480994e-001 -8.054524e+000 149 146 33
8.542068e-001 8.006269e-001 -8.307746e+000 141 22 24
8.542068e-001 8.006269e-001 -8.307746e+000 141 22 24
1.313683e+000 8.891669e-001 -8.564904e+000 145 17 19
1.897630e+000 9.090552e-001 -8.800002e+000 72 50 55
2.145108e+000 9.229319e-001 -8.901115e+000 110 82 70
-7.919256e-001 6.284147e-001 -7.885028e+000 202 177 146
-7.918274e-001 6.287423e-001 -7.884764e+000 202 177 146
-7.378179e-001 5.917026e-001 -7.826437e+000 206 184 150
-1.857156e-001 7.425758e-001 -7.886072e+000 156 36 41
-1.409041e-001 6.965250e-001 -7.838514e+000 153 44 48
1.729297e+000 8.231149e-001 -8.633033e+000 78 22 23
1.776370e+000 8.146789e-001 -8.649720e+000 74 16 11
1.769982e+000 7.973232e-001 -8.637558e+000 158 92 67
1.819362e+000 8.159107e-001 -8.669538e+000 78 28 21
1.879894e+000 7.740063e-001 -8.649701e+000 60 20 20
-7.713924e-001 5.660775e-001 -7.845064e+000 205 181 145
8.420405e-002 6.892179e-001 -7.900061e+000 140 138 28
2.208560e+000 6.630234e-001 -8.685153e+000 94 55 50
2.504239e+000 7.268674e-001 -8.846015e+000 80 48 48
2.505669e+000 7.263384e-001 -8.848673e+000 80 48 48
1.870909e+000 5.968232e-001 -8.511547e+000 77 28 31
3.453758e+000 5.683396e-001 -9.129041e+000 165 79 55
1.394673e-001 5.151066e-001 -7.778225e+000 161 154 31
3.092815e+000 5.048726e-001 -9.009761e+000 162 114 70
3.351181e+000 3.819486e-001 -9.056524e+000 28 9 3
1.772678e+000 9.788563e-002 -8.577816e+000 191 139 99
4.022364e+000 -3.481369e-001 -8.577916e+000 135 121 113
6.995720e-002 1.159295e+000 -8.515575e+000 142 138 34
1.924728e+000 1.269452e+000 -9.308101e+000 76 104 107
1.924105e+000 1.270734e+000 -9.304696e+000 76 104 107
1.848649e+000 1.260820e+000 -9.263488e+000 18 58 87
1.921612e+000 1.219380e+000 -9.214132e+000 86 21 25
-1.232760e+000 7.237018e-001 -8.398752e+000 157 29 31
-8.167892e-001 8.800539e-001 -8.043196e+000 198 179 137
-8.170468e-001 8.790419e-001 -8.046274e+000 198 179 137
3.516051e+000 1.037815e+000 -9.803638e+000 133 88 66
-2.194947e-001 8.596217e-001 -8.037079e+000 168 31 49
-2.194947e-001 8.596217e-001 -8.037079e+000 168 31 49
1.298480e+000 9.747842e-001 -8.674001e+000 136 22 28
1.502225e+000 9.243780e-001 -8.680322e+000 13 60 83
2.316463e+000 9.359857e-001 -9.024763e+000 132 104 90
1.257089e+000 8.880696e-001 -8.539815e+000 181 145 102
1.952653e+000 8.324537e-001 -8.729253e+000 60 29 34
-7.262261e-001 6.733936e-001 -7.849681e+000 207 188 148
-1.638021e-001 7.323315e-001 -7.877076e+000 179 148 95
1.668032e+000 8.225089e-001 -8.610268e+000 149 51 30
2.312529e+000 7.991577e-001 -8.812860e+000 121 98 84
2.945597e+000 7.885898e-001 -9.098592e+000 160 103 72
1.847712e+000 7.017675e-001 -8.570492e+000 157 85 67
2.136064e+000 7.348594e-001 -8.697599e+000 129 97 84
-9.764154e-001 3.212974e-001 -8.014983e+000 179 153 124
3.148997e+000 6.256541e-001 -9.032992e+000 180 99 44
3.554391e+000 6.079387e-001 -9.176703e+000 175 137 112
2.532277e+000 5.023201e-001 -8.796335e+000 165 127 72
3.063750e+000 4.618283e-001 -8.952391e+000 155 53 40
3.820476e+000 5.000958e-001 -9.218103e+000 32 21 37
3.253684e-001 2.987876e-001 -7.840211e+000 91 124 139
1.098781e+000 2.221995e-001 -8.192391e+000 79 35 67
1.366295e+000 1.560846e-001 -8.335064e+000 126 67 48
1.366295e+000 1.560846e-001 -8.335064e+000 126 67 48
2.634670e+000 6.753299e-002 -8.935271e+000 195 143 104
3.479918e+000 -1.806113e+000 -9.834926e+000 134 118 105
3.485951e+000 -1.818417e+000 -9.851073e+000 134 118 105
2.683733e+000 -3.539245e+000 -1.153058e+001 69 61 71
3.366542e+000 -2.127594e+000 -9.992229e+000 131 114 106
3.366542e+000 -2.127594e+000 -9.992229e+000 131 114 106
3.384999e+000 -2.524559e+000 -1.002212e+001 154 140 131
1.111597e+000 1.317595e+000 -9.207716e+000 144 41 35
1.505408e+000 1.339044e+000 -9.315805e+000 146 58 52
1.816985e+000 1.350644e+000 -9.448117e+000 17 55 79
3.382489e+000 1.474007e+000 -1.019308e+001 29 18 24
2.656311e+000 1.349588e+000 -9.723540e+000 141 100 56
1.458189e+000 1.031337e+000 -8.797429e+000 24 59 99
2.236815e+000 1.078595e+000 -9.147473e+000 160 116 99
-7.176678e-001 7.773373e-001 -7.901598e+000 201 182 139
-7.195849e-001 7.746211e-001 -7.906794e+000 201 182 139
-6.977406e-001 7.212673e-001 -7.854400e+000 204 185 145
-6.977406e-001 7.212673e-001 -7.854400e+000 204 185 145
-1.753114e-001 6.990639e-001 -7.824536e+000 181 154 109
2.006848e+000 6.224381e-001 -8.582975e+000 73 22 27
3.125873e+000 4.384280e-001 -9.004904e+000 196 115 48
2.964771e+000 2.931692e-001 -8.956279e+000 105 27 36
3.682773e+000 3.128137e-001 -9.237007e+000 143 81 49
2.213406e+000 2.582614e-001 -8.633065e+000 152 26 36
3.560357e+000 -1.552951e+000 -9.647590e+000 149 137 125
3.605529e+000 -1.427473e+000 -9.530603e+000 149 132 124
3.696169e+000 -1.221050e+000 -9.344672e+000 145 134 130
3.343257e+000 -2.062085e+000 -1.011342e+001 138 129 116
3.591685e+000 -1.590745e+000 -9.453224e+000 133 119 108
3.716258e+000 -1.872494e+000 -9.237387e+000 164 147 137
3.716258e+000 -1.872494e+000 -9.237387e+000 164 147 137
1.735386e+000 1.272237e+000 -9.189847e+000 106 14 26
1.973009e+000 1.263392e+000 -9.331936e+000 18 53 80
-2.991687e-001 9.115009e-001 -8.074036e+000 166 29 36
-2.075119e-001 8.233961e-001 -7.979936e+000 156 32 27
2.294375e+000 8.466471e-001 -8.886002e+000 138 113 93
2.915146e+000 7.804337e-001 -9.101765e+000 150 107 68
2.343013e+000 5.790296e-001 -8.709542e+000 65 22 32
9.958961e-001 9.444917e-002 -8.241359e+000 158 25 40
3.961456e+000 -4.911394e-001 -8.743026e+000 54 43 46
4.011820e+000 -4.364697e-001 -8.647903e+000 145 128 119
3.585099e+000 -1.482138e+000 -9.572730e+000 148 133 126
3.113236e+000 -2.576866e+000 -1.057928e+001 140 130 127
3.165844e+000 -2.451344e+000 -1.046281e+001 154 145 131
3.242578e+000 -2.273015e+000 -1.029959e+001 144 133 124
2.738093e+000 -3.560361e+000 -1.151145e+001 146 136 135
2.656718e+000 1.398804e+000 -9.861257e+000 30 13 21
-4.736329e-002 1.141273e+000 -8.424628e+000 76 79 11
2.273903e-002 1.091988e+000 -8.395536e+000 100 107 71
1.306910e+000 1.186934e+000 -8.971444e+000 14 58 88
-8.655458e-001 8.300396e-001 -8.065657e+000 199 177 138
1.174084e+000 9.877488e-001 -8.652095e+000 135 20 32
1.229776e+000 9.814401e-001 -8.636652e+000 146 52 40
1.459034e+000 1.008041e+000 -8.762697e+000 116 119 101
1.459216e+000 1.007638e+000 -8.763616e+000 116 119 101
2.257894e+000 1.109371e+000 -9.144528e+000 93 53 49
8.529373e-001 9.382564e-001 -8.448461e+000 161 140 116
3.468973e+000 8.915470e-001 -9.434533e+000 160 88 43
-7.653487e-001 6.034589e-001 -7.852437e+000 208 186 151
4.108233e+000 -1.835806e-001 -8.421260e+000 142 124 120
3.992295e+000 -4.908996e-001 -8.697208e+000 143 131 119
3.125173e+000 -2.466057e+000 -1.053551e+001 55 50 49
3.320914e+000 -1.979814e+000 -1.008475e+001 51 47 52
4.217495e+000 -6.044534e-001 -8.179849e+000 157 136 133
4.217481e+000 -6.037210e-001 -8.179220e+000 157 136 133
3.584312e+000 -2.098982e+000 -9.566851e+000 157 141 128
1.037188e+000 1.278773e+000 -9.000696e+000 140 27 34
1.037188e+000 1.278773e+000 -9.000696e+000 140 27 34
2.644591e+000 1.374620e+000 -9.715971e+000 121 87 39
2.644591e+000 1.374620e+000 -9.715971e+000 121 87 39
9.664071e-001 1.086867e+000 -8.704289e+000 159 142 111
1.035420e+000 9.315073e-001 -8.534437e+000 151 140 112
1.829217e+000 5.779344e-001 -8.488110e+000 99 43 45
1.110704e+000 2.048087e-001 -8.188828e+000 28 65 108
3.710632e+000 -1.867130e+000 -9.288135e+000 164 147 137
3.708807e+000 -1.865568e+000 -9.285706e+000 164 147 137
2.878990e-001 1.078304e+000 -8.522733e+000 31 53 37
1.389454e+000 1.020395e+000 -8.795404e+000 10 68 99
1.017625e+000 7.439134e-001 -8.306514e+000 159 145 118
7.062301e-001 7.224063e-001 -8.124811e+000 162 151 121
9.983890e-001 1.197775e+000 -8.776463e+000 159 142 112
4.649411e-001 1.029593e+000 -8.429416e+000 166 149 104
2.028174e+000 1.008479e+000 -8.989411e+000 137 112 92
5.442426e-001 7.212148e-001 -8.112684e+000 160 149 123
3.315415e+000 -2.183126e+000 -1.017775e+001 140 127 118
2.112625e+000 1.157367e+000 -9.193000e+000 148 120 96
-5.648979e-002 1.259586e+000 -8.769702e+000 73 101 102
2.135998e+000 1.337307e+000 -9.623579e+000 146 108 69
3.311602e+000 1.380655e+000 -1.012880e+001 134 101 68
3.311602e+000 1.380655e+000 -1.012880e+001 134 101 68
2.376497e+000 1.021767e+000 -9.060418e+000 69 48 53
7.718216e-001 7.450015e-001 -8.497540e+000 158 147 116
1.465803e+000 -1.588940e-001 -1.540890e+001 67 51 14
3.496462e-001 1.293662e+000 -8.746525e+000 149 136 51
1.776558e+000 1.331705e+000 -9.371040e+000 137 138 96
1.827414e+000 1.338059e+000 -9.392113e+000 134 135 114
1.827057e+000 1.338046e+000 -9.391511e+000 134 135 114
1.869663e+000 1.316138e+000 -9.358551e+000 27 52 55
1.875663e+000 1.301127e+000 -9.331223e+000 29 54 61
2.514041e+000 1.356105e+000 -9.748318e+000 144 97 51
-3.336028e-002 1.156077e+000 -8.448187e+000 29 41 28
7.307315e-001 1.195772e+000 -8.756545e+000 143 26 31
1.381610e+000 1.210946e+000 -9.010694e+000 148 145 106
1.379403e+000 1.213254e+000 -9.004187e+000 148 145 106
1.934722e+000 1.296590e+000 -9.365020e+000 27 54 58
1.934109e+000 1.297736e+000 -9.363664e+000 27 54 58
1.945753e+000 1.281286e+000 -9.329561e+000 27 57 68
1.464942e+000 1.187481e+000 -9.041095e+000 145 43 47
1.390102e+000 1.148917e+000 -8.922599e+000 24 59 71
1.390102e+000 1.148917e+000 -8.922599e+000 24 59 71
1.419471e+000 1.139495e+000 -8.915700e+000 145 154 119
1.472472e+000 1.154452e+000 -8.985239e+000 75 15 26
1.549410e+000 1.140713e+000 -8.952484e+000 170 117 81
2.227692e+000 1.163439e+000 -9.249083e+000 102 47 26
2.345778e+000 1.164478e+000 -9.320798e+000 101 71 64
-1.190594e+000 7.215055e-001 -8.381230e+000 149 80 62
-1.180216e+000 6.931811e-001 -8.421550e+000 180 141 98
-4.537807e-002 9.753754e-001 -8.311835e+000 147 138 3
1.992352e-002 9.499677e-001 -8.270448e+000 158 143 29
9.935394e-001 1.029272e+000 -8.624070e+000 155 144 95
1.175926e+000 1.053899e+000 -8.720651e+000 185 151 90
1.232225e+000 1.057458e+000 -8.743225e+000 187 141 97
1.661568e+000 1.083269e+000 -8.931883e+000 139 74 59
1.673982e+000 1.057705e+000 -8.899262e+000 157 81 72
1.673982e+000 1.057705e+000 -8.899262e+000 157 81 72
2.306459e+000 1.132374e+000 -9.224759e+000 144 85 73
2.317870e+000 1.088989e+000 -9.173480e+000 139 78 65
-7.303773e-001 8.376117e-001 -7.948789e+000 201 175 122
-2.771926e-001 8.977094e-001 -8.052897e+000 177 154 87
1.099586e+000 1.001460e+000 -8.493323e+000 154 144 98
1.216545e+000 9.689354e-001 -8.632263e+000 183 147 97
1.272220e+000 9.725003e-001 -8.652677e+000 188 147 90
1.272220e+000 9.725003e-001 -8.652677e+000 188 147 90
1.507034e+000 9.688823e-001 -8.731333e+000 7 62 84
1.837106e+000 1.047361e+000 -8.950147e+000 73 55 55
1.837106e+000 1.047361e+000 -8.950147e+000 73 55 55
2.147195e+000 9.846146e-001 -8.985890e+000 110 102 72
2.316483e+000 1.065243e+000 -9.141340e+000 141 76 62
-7.002064e-001 8.095882e-001 -7.901365e+000 81 50 31
-7.008413e-001 8.073002e-001 -7.905928e+000 81 50 31
-1.777061e-001 8.621924e-001 -8.042195e+000 161 30 39
-1.777061e-001 8.621924e-001 -8.042195e+000 161 30 39
1.293370e+000 9.268301e-001 -8.604993e+000 188 128 82
1.293370e+000 9.268301e-001 -8.604993e+000 188 128 82
1.485276e+000 9.473731e-001 -8.702147e+000 24 59 76
1.861626e+000 9.361140e-001 -8.817506e+000 73 48 44
1.863757e+000 9.337739e-001 -8.822008e+000 73 48 44
1.948496e+000 9.075425e-001 -8.823244e+000 69 45 41
-8.135802e-001 6.868116e-001 -7.929866e+000 106 76 38
-7.712435e-001 6.702435e-001 -7.886039e+000 206 179 136
-7.741658e-001 6.279089e-001 -7.879777e+000 120 89 48
-2.178808e-001 7.753085e-001 -7.918071e+000 179 143 89
1.751225e+000 8.233398e-001 -8.645093e+000 145 84 68
2.225733e+000 8.195040e-001 -8.832080e+000 126 105 78
-7.719086e-001 5.643000e-001 -7.846722e+000 212 181 124
-7.266586e-001 5.617966e-001 -7.802539e+000 205 176 130
-7.482169e-002 6.865054e-001 -7.857409e+000 188 121 80
-7.482169e-002 6.865054e-001 -7.857409e+000 188 121 80
1.905180e+000 7.935235e-001 -8.671218e+000 75 34 29
2.415923e+000 8.166766e-001 -8.901348e+000 68 24 21
3.383976e-002 6.263617e-001 -7.898770e+000 142 125 29
8.894208e-001 6.315124e-001 -8.151167e+000 166 148 32
1.117041e+000 6.463419e-001 -8.265047e+000 171 140 101
1.117041e+000 6.463419e-001 -8.265047e+000 171 140 101
3.153451e+000 6.642073e-001 -9.063709e+000 174 90 33
3.492695e+000 7.292693e-001 -9.263392e+000 129 29 29
3.491403e+000 7.304031e-001 -9.262058e+000 129 29 29
6.057561e-001 5.861483e-001 -8.003582e+000 21 45 22
1.143500e+000 5.927903e-001 -8.225461e+000 163 149 97
1.918430e+000 5.955342e-001 -8.537505e+000 71 24 24
2.478279e+000 6.189498e-001 -8.758712e+000 52 16 18
2.759608e+000 5.779599e-001 -8.853272e+000 26 14 24
2.290847e+000 5.050788e-001 -8.640942e+000 131 85 30
2.476966e+000 4.930603e-001 -8.703156e+000 173 119 56
1.458014e+000 -2.726081e-001 -8.686978e+000 52 44 38
2.494412e+000 -3.324713e+000 -1.207877e+001 64 58 59
4.028964e+000 -2.781424e-001 -8.539642e+000 38 29 25
3.704805e+000 -1.134144e+000 -9.299098e+000 52 35 31
3.370655e+000 -2.413227e+000 -1.011110e+001 154 136 114
4.242563e+000 -3.478338e-001 -8.010551e+000 159 133 116
8.792347e-001 1.262049e+000 -8.887359e+000 169 137 95
1.098951e+000 1.313480e+000 -9.075143e+000 165 136 96
1.820617e+000 1.318731e+000 -9.371477e+000 16 56 72
1.877099e+000 1.373686e+000 -9.423298e+000 12 53 75
2.150931e+000 1.304895e+000 -9.422404e+000 155 112 61
1.413423e+000 1.105979e+000 -8.871978e+000 11 55 71
1.414108e+000 1.105433e+000 -8.873426e+000 11 55 71
-3.002573e-001 8.985268e-001 -8.037332e+000 157 25 32
2.314609e+000 1.117364e+000 -8.848978e+000 100 75 69
-1.533888e-001 8.291833e-001 -8.017656e+000 179 147 93
-9.824643e-001 5.304332e-001 -8.008961e+000 167 134 89
-2.014830e-001 7.579941e-001 -7.888796e+000 170 147 80
1.526021e+000 8.775728e-001 -8.635957e+000 19 56 74
-1.121935e-001 6.971923e-001 -7.850553e+000 159 34 37
-1.121935e-001 6.971923e-001 -7.850553e+000 159 34 37
1.675486e+000 7.292332e-001 -8.566022e+000 164 88 52
1.786353e+000 7.456344e-001 -8.589133e+000 159 89 74
2.000788e+000 7.804378e-001 -8.704222e+000 145 119 104
2.180261e+000 6.752224e-001 -8.686576e+000 170 127 103
3.519115e+000 7.352644e-001 -9.271302e+000 170 130 86
3.681692e+000 7.212612e-001 -9.356934e+000 132 54 28
3.032067e-002 5.704072e-001 -7.745117e+000 57 86 83
2.905206e-002 5.654801e-001 -7.752367e+000 57 86 83
1.609850e+000 5.599177e-001 -8.390697e+000 173 129 69
1.944890e+000 5.365112e-001 -8.539472e+000 169 129 85
2.931074e+000 6.368577e-001 -8.916096e+000 162 125 73
3.053035e+000 4.725228e-001 -8.931553e+000 148 49 19
2.362159e+000 2.591783e-001 -8.706154e+000 162 19 28
1.307791e+000 2.263903e-001 -8.275329e+000 25 73 101
1.346633e+000 6.493002e-002 -8.389457e+000 147 93 62
1.345042e+000 6.629715e-002 -8.387333e+000 147 93 62
4.100897e+000 -4.256368e-001 -8.624411e+000 112 90 76
4.072727e+000 -9.154781e-001 -8.717417e+000 124 98 81
2.783437e+000 -3.911175e+000 -1.128235e+001 168 155 139
3.655621e+000 -1.968539e+000 -9.316276e+000 164 139 117
-7.918192e-001 1.262027e+000 -8.429635e+000 156 135 89
4.222820e-001 1.308693e+000 -8.859457e+000 52 58 30
4.222820e-001 1.308693e+000 -8.859457e+000 52 58 30
2.546003e+000 1.388141e+000 -9.860755e+000 107 57 20
2.611924e+000 1.372851e+000 -9.744462e+000 148 96 46
-6.798211e-001 1.064857e+000 -8.189496e+000 160 138 90
2.223986e+000 1.229419e+000 -9.307153e+000 68 14 6
-7.594520e-001 8.543124e-001 -7.984524e+000 200 177 125
-7.594520e-001 8.543124e-001 -7.984524e+000 200 177 125
-7.796289e-001 8.129192e-001 -7.969539e+000 200 172 121
2.279848e+000 1.041327e+000 -9.078478e+000 93 63 44
-2.430100e-001 8.598769e-001 -8.028033e+000 172 34 37
-2.430100e-001 8.598769e-001 -8.028033e+000 172 34 37
3.968271e-001 8.597862e-001 -8.238829e+000 162 142 27
1.596035e+000 9.190419e-001 -8.630276e+000 167 128 66
-7.375193e-001 6.918858e-001 -7.861446e+000 206 178 134
-7.379066e-001 6.913176e-001 -7.862316e+000 206 178 134
2.455066e+000 8.466709e-001 -8.939829e+000 80 54 56
2.417891e+000 9.611401e-001 -8.740364e+000 71 45 51
-6.744160e-001 6.632237e-001 -7.811047e+000 189 159 112
1.131642e+000 7.746543e-001 -8.371465e+000 160 147 96
3.093265e+000 6.914521e-001 -9.004351e+000 117 26 22
3.722768e+000 6.750949e-001 -9.385073e+000 122 48 22
3.575486e+000 6.236932e-001 -9.214868e+000 174 141 90
1.019283e+000 4.225998e-002 -8.267186e+000 189 120 86
1.194436e+000 6.944011e-002 -8.329815e+000 15 56 74
-7.350873e-001 1.016590e-001 -7.357224e+000 149 126 92
3.808496e+000 -9.649537e-001 -9.168100e+000 49 39 38
3.938748e+000 -6.224562e-001 -8.867618e+000 53 37 37
3.035425e+000 -2.795852e+000 -1.079464e+001 153 137 117
3.201706e+000 -2.327215e+000 -1.035128e+001 151 141 122
3.232562e+000 -2.458087e+000 -1.024491e+001 160 142 118
4.123175e+000 -1.081543e+000 -8.512739e+000 108 87 68
1.757491e+000 1.342878e+000 -9.416911e+000 24 52 75
1.876652e+000 1.262305e+000 -9.263195e+000 16 55 73
7.638316e-001 1.160180e+000 -8.706476e+000 162 143 98
1.822483e+000 9.033320e-001 -8.833437e+000 68 45 48
1.969536e+000 9.380220e-001 -8.853423e+000 67 44 42
9.371411e-001 7.460836e-001 -8.275167e+000 168 23 23
-1.793643e-001 6.780788e-001 -7.797281e+000 164 41 40
3.118397e+000 7.096207e-001 -9.086471e+000 116 22 24
2.895153e+000 6.381691e-001 -8.903135e+000 25 70 94
1.310326e+000 1.959080e-001 -8.314068e+000 14 67 85
3.517866e+000 -1.517251e+000 -9.654251e+000 48 35 35
3.791640e+000 -1.107801e+000 -9.255230e+000 151 133 111
2.903981e+000 -3.151672e+000 -1.112785e+001 153 139 126
8.490225e-001 1.222083e+000 -8.814343e+000 160 140 93
2.234313e+000 1.232816e+000 -9.320734e+000 66 14 3
1.963201e+000 1.038915e+000 -8.985053e+000 125 95 69
-7.920669e-001 7.738158e-001 -7.970868e+000 201 174 126
4.927718e-001 7.509741e-001 -8.134931e+000 160 145 49
-9.844497e-001 -6.751368e-002 -8.069379e+000 153 134 94
3.821766e-001 2.567591e-001 -7.871625e+000 139 139 112
4.125252e+000 -1.255523e-001 -8.369648e+000 150 125 105
4.056423e+000 -3.276762e-001 -8.552888e+000 163 140 124
3.375188e+000 -1.884033e+000 -1.000436e+001 48 38 37
1.888938e+000 1.358379e+000 -9.644676e+000 141 102 61
2.906866e-001 1.226023e+000 -8.628010e+000 107 108 92
7.542480e-001 1.195974e+000 -8.759320e+000 163 87 69
1.354488e+000 1.217104e+000 -9.019016e+000 23 56 71
1.354898e+000 1.216728e+000 -9.019355e+000 23 56 71
7.847698e-001 1.090892e+000 -8.621051e+000 162 140 96
-2.465890e-001 8.841758e-001 -8.061680e+000 140 36 15
4.288371e-001 9.802269e-001 -8.377077e+000 33 49 31
5.616912e-001 1.000889e+000 -8.410626e+000 28 48 18
-7.233419e-001 6.388243e-001 -7.843555e+000 208 175 130
1.530715e+000 7.083159e-001 -8.519150e+000 27 57 84
3.457114e+000 7.487285e-001 -9.284302e+000 174 134 96
3.464829e+000 7.438611e-001 -9.294356e+000 174 134 96
3.168880e+000 7.537213e-001 -9.090710e+000 170 84 27
3.453328e-001 3.334158e-001 -7.846110e+000 88 117 115
2.892005e+000 2.030447e-001 -8.974734e+000 97 26 23
2.892005e+000 2.030447e-001 -8.974734e+000 97 26 23
3.569808e+000 2.953614e-001 -9.210270e+000 206 114 46
2.666896e+000 -3.917118e+000 -1.191442e+001 44 34 32
4.219205e-001 1.222180e+000 -8.689141e+000 157 142 81
8.689849e-001 9.360217e-001 -8.456728e+000 162 137 98
8.689849e-001 9.360217e-001 -8.456728e+000 162 137 98
1.026244e+000 9.328403e-001 -8.529758e+000 156 137 96
1.370984e-001 8.120532e-001 -8.124422e+000 21 49 21
4.992077e-001 8.369266e-001 -8.226406e+000 163 143 88
4.992077e-001 8.369266e-001 -8.226406e+000 163 143 88
6.684566e-001 8.003073e-001 -8.236638e+000 32 51 32
6.684566e-001 8.003073e-001 -8.236638e+000 32 51 32
-1.746861e-001 7.417602e-001 -7.891549e+000 185 116 89
2.345433e+000 7.426947e-001 -8.853600e+000 128 91 71
2.249925e+000 5.181133e-001 -8.656296e+000 159 110 54
3.106609e+000 -2.697290e-002 -9.263068e+000 166 109 43
2.790146e+000 1.396368e+000 -9.931078e+000 129 87 39
1.352531e-001 9.032427e-001 -8.202382e+000 27 52 28
2.186448e+000 9.217795e-001 -8.918173e+000 135 103 78
4.488438e-001 7.975347e-001 -8.168093e+000 24 47 19
2.450904e+000 9.033996e-001 -8.964376e+000 101 76 72
7.209542e-001 7.278681e-001 -8.175008e+000 158 141 95
2.290736e+000 4.256670e-001 -8.628889e+000 52 17 19
1.259625e+000 1.465781e-001 -8.312419e+000 18 63 83
2.182924e+000 7.490835e-001 -8.826936e+000 145 110 80
1.371189e+000 6.103720e-001 -8.343540e+000 151 28 31
1.371189e+000 6.103720e-001 -8.343540e+000 151 28 31
9.006237e-001 1.010903e+000 -8.568991e+000 157 138 98
3.737840e+000 2.302226e-001 -9.246887e+000 33 23 24
-1.112243e-002 1.039572e+000 -8.345671e+000 29 54 25
1.375241e+000 1.020253e+000 -8.651892e+000 29 40 51
