ply
format ascii 1.0
element face 0
property list uchar int vertex_indices
element vertex 885
property float x
property float y
property float z
property uchar diffuse_red
property uchar diffuse_green
property uchar diffuse_blue
end_header
-5.373425e-001 -6.673382e-001 -8.098694e+000 183 47 56
8.713876e-002 -7.332246e-001 -8.448786e+000 48 63 34
1.594377e+000 -7.760329e-001 -9.179840e+000 186 126 112
-7.155134e-001 -8.108257e-001 -8.226859e+000 176 44 53
-7.193136e-001 -8.111907e-001 -8.224102e+000 176 44 53
-7.334628e-001 -8.491014e-001 -8.266567e+000 184 51 56
4.251966e+000 -1.527280e+000 -9.460587e+000 45 35 39
6.432133e-001 1.195944e+000 -8.818853e+000 166 152 120
-7.762097e-001 9.711986e-001 -8.112598e+000 170 135 122
-4.970940e-001 7.800293e-001 -7.940757e+000 168 40 44
-9.689335e-002 5.092696e-001 -7.790467e+000 65 99 108
2.117529e+000 5.277486e-001 -8.624852e+000 69 24 31
3.390456e+000 3.504191e-001 -9.020976e+000 135 45 53
2.020035e+000 -1.040560e-001 -8.662596e+000 153 107 84
2.020035e+000 -1.040560e-001 -8.662596e+000 153 107 84
2.104848e+000 -1.458226e-001 -8.745308e+000 164 118 103
3.814244e+000 -7.907850e-002 -9.445699e+000 186 158 147
5.915894e-002 -3.413926e-001 -8.048270e+000 24 53 30
2.939862e+000 -3.616349e-001 -9.256871e+000 197 131 104
3.547367e+000 -3.584250e-001 -9.563149e+000 82 69 75
-5.920029e-001 -4.806679e-001 -7.881341e+000 196 40 57
-5.921636e-001 -4.804143e-001 -7.881666e+000 196 40 57
-5.140353e-001 -4.828331e-001 -7.903296e+000 186 45 46
-1.630352e-001 -5.033871e-001 -8.098477e+000 44 108 125
5.170672e-001 -4.577104e-001 -8.309075e+000 164 154 142
9.688520e-001 -4.796680e-001 -8.507404e+000 6 54 92
1.251982e+000 -4.805812e-001 -8.632488e+000 118 69 53
1.335400e+000 -4.598974e-001 -8.655729e+000 172 110 97
7.336499e-002 -7.383833e-001 -8.465187e+000 36 64 42
6.919818e-001 -7.472195e-001 -8.746367e+000 168 29 46
-6.028803e-001 -8.163318e-001 -8.265069e+000 190 46 56
-4.636988e-001 -8.385454e-001 -8.359432e+000 142 144 89
2.461247e+000 7.120581e-001 -8.889282e+000 128 97 94
3.340658e+000 1.463808e-001 -9.086073e+000 196 104 33
4.313945e+000 1.800299e-001 -9.501423e+000 30 18 30
1.529804e+000 -1.333608e-001 -8.501545e+000 185 124 103
1.891689e+000 -1.220047e-001 -8.650336e+000 189 140 110
9.449003e-001 -2.528396e-001 -8.322763e+000 151 35 36
2.374972e-001 -4.380305e-001 -8.153013e+000 25 62 31
2.292269e-001 -4.339133e-001 -8.168779e+000 25 62 31
7.987818e-001 -6.189893e-001 -8.572144e+000 182 110 94
-3.343403e-001 -6.836411e-001 -8.201220e+000 123 134 65
6.707137e-001 -7.976250e-001 -8.829902e+000 151 35 42
-5.745565e-001 -8.350319e-001 -8.335449e+000 143 141 101
-1.642826e-001 -8.253156e-001 -8.481127e+000 139 147 59
4.095979e+000 -1.974790e+000 -9.814024e+000 142 128 129
2.112078e+000 4.868318e-001 -8.589597e+000 84 37 43
2.389960e+000 8.318186e-002 -8.721990e+000 169 33 48
3.890646e+000 -8.521132e-002 -9.493419e+000 137 84 43
1.283703e-001 -2.243836e-001 -7.967114e+000 100 119 137
1.283703e-001 -2.243836e-001 -7.967114e+000 100 119 137
3.904177e+000 -3.729004e-001 -9.795807e+000 156 125 114
-4.034640e-001 -4.846811e-001 -7.943002e+000 11 85 134
-1.123715e-001 -4.654185e-001 -8.042348e+000 21 55 33
8.080373e-001 -4.436230e-001 -8.426078e+000 152 28 38
2.468339e+000 -5.809335e-001 -9.371572e+000 168 31 40
2.468339e+000 -5.809335e-001 -9.371572e+000 168 31 40
2.911108e+000 -6.172228e-001 -9.603894e+000 189 138 116
2.911108e+000 -6.172228e-001 -9.603894e+000 189 138 116
-2.716154e-001 -5.286108e-001 -8.027958e+000 90 118 87
1.577046e-001 -5.469924e-001 -8.247660e+000 159 170 103
1.002325e-001 -5.932370e-001 -8.290694e+000 30 66 45
-2.852722e-001 -7.082401e-001 -8.304377e+000 32 68 39
-6.639700e-001 -8.086595e-001 -8.236269e+000 205 148 129
4.113367e+000 -1.868078e+000 -9.796911e+000 50 38 53
3.984390e+000 -2.240910e+000 -1.005288e+001 146 132 132
-1.784401e-001 4.962951e-001 -7.732487e+000 82 108 101
6.841158e-002 5.084578e-001 -7.859218e+000 163 148 120
6.313854e-002 5.062555e-001 -7.842954e+000 163 148 120
2.499407e+000 5.062437e-001 -8.754267e+000 68 22 32
3.968350e+000 7.309321e-002 -9.353696e+000 187 104 52
2.275918e+000 -4.583894e-001 -9.065266e+000 180 57 68
3.071301e+000 -6.055018e-001 -9.672954e+000 140 106 81
1.433598e+000 -6.240685e-001 -8.875160e+000 193 131 110
-1.687312e-001 -7.609146e-001 -8.353443e+000 114 137 124
-1.000090e-001 -7.799784e-001 -8.461219e+000 31 61 39
-6.575829e-003 -7.393332e-001 -8.419883e+000 137 148 142
4.654023e-002 7.200035e-001 -8.067215e+000 35 60 36
3.571909e+000 -2.651834e-001 -9.476292e+000 197 167 143
-8.771064e-002 -6.102414e-001 -8.168373e+000 79 114 133
2.650932e+000 -8.411806e-001 -9.887836e+000 201 140 139
2.371418e+000 6.844490e-001 -8.872175e+000 136 108 97
3.339496e+000 5.828179e-001 -9.129573e+000 156 116 81
1.348518e+000 -3.078375e-001 -8.561697e+000 193 128 108
1.736287e-001 -2.815797e-001 -8.050638e+000 23 59 30
1.752152e+000 -5.549327e-001 -9.278913e+000 188 127 108
1.264207e+000 5.102157e-001 -8.273158e+000 155 22 24
3.942387e+000 1.638187e-001 -9.307882e+000 204 117 46
2.504469e+000 1.516798e-002 -8.802725e+000 157 24 27
2.390554e+000 -8.759782e-002 -8.811621e+000 194 92 88
2.424616e+000 -1.077075e-001 -8.845549e+000 166 32 36
2.424616e+000 -1.077075e-001 -8.845549e+000 166 32 36
3.142069e+000 -4.627158e-002 -9.061737e+000 188 121 77
5.413321e-001 -4.116523e-001 -8.285546e+000 176 153 131
2.602362e+000 -4.120528e-001 -9.151541e+000 160 30 38
2.737061e+000 -5.480571e-001 -9.387455e+000 139 80 66
2.828412e+000 -5.534099e-001 -9.443593e+000 138 80 60
1.380120e+000 -7.662743e-001 -9.065688e+000 142 80 65
-1.820089e-002 -8.526682e-001 -8.592054e+000 68 81 35
4.023324e+000 -2.178383e+000 -9.969441e+000 152 134 130
2.381568e+000 3.944491e-001 -8.680262e+000 181 129 83
3.511494e+000 -3.206081e-001 -9.523109e+000 180 148 111
-5.097954e-001 -4.822563e-001 -7.904687e+000 182 49 49
-8.968771e-002 -4.280590e-001 -8.036793e+000 171 156 30
3.764152e+000 -7.396881e-001 -1.013755e+001 149 110 102
4.225714e+000 -1.599766e+000 -9.532175e+000 62 43 52
1.823577e+000 5.618778e-001 -8.554429e+000 185 140 84
3.922621e+000 7.258796e-002 -9.347619e+000 198 108 45
1.422181e+000 -2.454315e-002 -8.372890e+000 154 98 82
-1.852728e-001 -3.576455e-001 -7.946644e+000 105 104 24
4.051629e+000 -2.176810e+000 -9.868928e+000 153 135 133
4.126814e+000 -2.127237e+000 -9.706430e+000 143 125 121
3.917280e+000 5.093078e-001 -9.303186e+000 189 154 125
1.113983e+000 7.510007e-002 -8.221563e+000 168 163 140
2.514629e+000 6.075576e-001 -8.819726e+000 145 114 96
1.288133e+000 -2.250428e-001 -8.511835e+000 189 119 103
4.047429e+000 -2.179525e+000 -9.964481e+000 131 113 111
3.991924e+000 1.037350e-001 -9.363870e+000 191 99 42
1.019632e+000 -2.985008e-001 -8.395571e+000 27 78 112
2.659812e+000 -3.628904e-001 -9.148796e+000 197 79 76
3.398177e+000 3.924476e-001 -9.072379e+000 175 118 83
3.792355e+000 -2.767897e+000 -1.048611e+001 115 97 97
4.306574e+000 -1.454299e+000 -9.336756e+000 160 139 134
1.185874e+000 -2.928395e-001 -8.436589e+000 17 66 96
-6.458711e+000 -4.950815e+001 -3.432553e+001 48 34 21
-4.575294e+000 -5.768005e+001 -1.766518e+001 140 117 83
-7.347185e+000 -6.212851e+001 -1.980867e+001 72 60 48
-3.848081e+000 -5.846691e+001 -1.678068e+001 48 40 37
-3.567223e+000 -6.105116e+001 -1.554570e+001 134 113 83
-2.127505e+000 -5.486659e+001 -2.574494e+001 143 129 102
-2.127505e+000 -5.486659e+001 -2.574494e+001 143 129 102
-1.835320e+000 -5.539068e+001 -2.496074e+001 129 108 81
-1.835320e+000 -5.539068e+001 -2.496074e+001 129 108 81
-4.204186e+000 -5.803785e+001 -1.747496e+001 130 122 113
-3.350620e+000 -5.759955e+001 -1.750421e+001 58 57 63
-3.350620e+000 -5.759955e+001 -1.750421e+001 58 57 63
-5.089477e+000 -5.996262e+001 -1.660876e+001 166 128 85
-7.827234e+000 -6.018559e+001 -2.110399e+001 41 27 18
-8.209223e+000 -6.347857e+001 -2.055033e+001 60 47 38
-1.943771e+000 -5.659914e+001 -1.768963e+001 56 51 47
2.556004e+000 -5.678970e+001 -1.796875e+001 24 14 15
2.556004e+000 -5.678970e+001 -1.796875e+001 24 14 15
-6.739478e+000 -7.182418e+001 -1.684103e+001 135 104 62
-6.111023e+000 -6.786794e+001 -1.674742e+001 202 166 113
-8.278643e+000 -6.006879e+001 -2.057446e+001 174 144 94
-4.480360e+000 -5.761725e+001 -1.929015e+001 23 17 19
-7.984047e+000 -2.580169e+001 -2.100782e+001 186 149 97
-5.488758e+000 -5.687971e+001 -1.687190e+001 40 29 21
-7.348685e+000 -6.107165e+001 -2.285613e+001 190 158 107
-7.858378e+000 -6.586999e+001 -2.108764e+001 64 51 41
-7.858378e+000 -6.586999e+001 -2.108764e+001 64 51 41
2.518437e+000 1.303840e+000 -9.609244e+000 153 118 77
1.912625e+000 1.320818e+000 -9.445808e+000 24 63 94
-6.813437e-001 9.505708e-001 -8.150410e+000 157 30 41
-2.456580e-001 -6.418528e+001 -1.512163e+001 98 77 60
-5.866860e-001 -6.334453e+001 -1.486645e+001 91 78 60
-5.521834e-001 -6.435728e+001 -1.500340e+001 91 78 60
2.178365e+000 1.318577e+000 -9.536355e+000 53 15 16
-4.274114e+000 -5.945695e+001 -1.709912e+001 46 37 36
4.648364e+000 -1.053420e+000 -8.481530e+000 139 123 107
4.648364e+000 -1.053420e+000 -8.481530e+000 139 123 107
-4.477752e+000 -5.681501e+001 -1.797088e+001 173 150 117
-4.212065e+000 -5.833447e+001 -1.752008e+001 147 145 143
-3.714705e+000 -5.856737e+001 -1.722756e+001 24 18 28
-3.791101e+000 -6.403097e+001 -1.552962e+001 92 88 59
-3.170936e+000 -6.491514e+001 -1.529994e+001 159 152 126
-2.292326e+000 -6.481745e+001 -1.484240e+001 136 134 119
-9.721985e-001 -6.349069e+001 -1.493137e+001 133 127 105
-6.994163e+000 -7.399062e+001 -1.333717e+001 111 83 57
3.039707e-001 -4.465555e+001 -1.741693e+001 204 188 149
-7.740410e+000 -7.379553e+001 -1.303941e+001 85 63 45
-2.345668e+000 -6.603535e+001 -1.310586e+001 192 172 139
-1.087067e+000 -6.592176e+001 -1.357642e+001 187 177 145
1.325650e+000 1.263966e+000 -9.161508e+000 26 73 96
-4.035947e+000 -5.871153e+001 -1.832334e+001 29 22 30
-1.345402e+000 -6.508853e+001 -1.430958e+001 58 70 71
-7.068658e-001 -6.598925e+001 -1.373624e+001 173 163 127
-7.193492e-001 -6.654442e+001 -1.284415e+001 57 83 70
-2.809277e+000 -6.625747e+001 -1.414292e+001 54 74 68
-1.855792e+000 -6.634725e+001 -1.336323e+001 186 167 136
-2.047134e+000 -6.698491e+001 -1.235534e+001 62 95 86
-7.431746e+000 -6.540441e+001 -1.802055e+001 201 173 126
-3.800226e+000 -6.930190e+001 -1.272387e+001 213 187 150
-3.800226e+000 -6.930190e+001 -1.272387e+001 213 187 150
-4.713949e+000 -6.241328e+001 -1.503622e+001 213 185 138
-1.072827e+000 1.072254e+000 -9.169481e+000 119 42 36
9.081911e-001 1.082508e+000 -1.009093e+001 88 30 28
2.813297e+000 1.389609e+000 -9.877135e+000 110 58 32
1.293010e+000 1.232316e+000 -9.117573e+000 21 67 96
-1.415994e+000 6.824863e-001 -8.013560e+000 194 172 135
-6.409598e-001 9.097545e-001 -8.117692e+000 166 28 43
-5.951829e-001 8.047656e-001 -8.007259e+000 164 32 29
2.209934e+000 9.820226e-001 -9.098505e+000 138 118 104
1.099271e+000 7.540465e-001 -8.399903e+000 161 151 120
-4.787625e-001 6.100034e-001 -7.775269e+000 172 33 38
-1.076342e+000 9.770999e-001 -9.290431e+000 135 39 38
3.444415e+000 1.526260e+000 -1.049257e+001 98 59 55
1.947000e-001 1.331977e+000 -8.916291e+000 153 139 44
1.844382e+000 1.398278e+000 -9.581743e+000 133 129 107
2.893517e+000 1.408036e+000 -9.919932e+000 87 38 24
-2.596467e-001 1.121068e+000 -8.480141e+000 30 44 24
-2.596467e-001 1.121068e+000 -8.480141e+000 30 44 24
2.495400e+000 1.147869e+000 -9.403626e+000 138 84 74
2.495400e+000 1.147869e+000 -9.403626e+000 138 84 74
1.923079e+000 1.082187e+000 -9.117690e+000 81 55 67
1.964456e+000 1.084562e+000 -9.129693e+000 122 97 101
-2.100300e-001 6.266121e-001 -7.886120e+000 79 109 120
3.210231e+000 1.384143e+000 -1.071387e+001 41 43 38
3.210231e+000 1.384143e+000 -1.071387e+001 41 43 38
2.632261e+000 1.326038e+000 -9.720130e+000 152 118 81
-2.564502e-001 9.899096e-001 -8.327044e+000 17 52 33
1.193531e+000 9.893782e-001 -8.750778e+000 143 24 27
1.193531e+000 9.893782e-001 -8.750778e+000 143 24 27
1.627184e-001 7.200885e-001 -8.107803e+000 19 47 14
-1.196879e-001 9.950107e-001 -9.695270e+000 106 104 86
4.040663e+000 8.188169e-001 -9.619418e+000 140 77 43
1.965338e+000 1.431258e+000 -9.777390e+000 129 91 67
9.285687e-001 1.371512e+000 -9.290191e+000 138 129 100
-1.182068e+000 8.511048e-001 -9.389578e+000 109 14 29
-8.922273e-001 8.883109e-001 -9.506241e+000 104 106 54
-1.167241e+000 9.390280e-001 -9.284766e+000 129 26 46
-1.128300e+000 9.361109e-001 -9.327224e+000 123 37 44
-1.089000e+000 1.036154e+000 -9.219142e+000 105 26 27
-5.543982e-001 9.545093e-001 -9.598216e+000 113 113 32
-5.525469e-001 9.723076e-001 -9.536617e+000 110 106 39
-5.521671e-001 9.744006e-001 -9.536456e+000 110 106 39
-9.202262e-002 1.046143e+000 -9.687469e+000 83 23 29
8.636388e-001 1.048606e+000 -1.012371e+001 133 73 66
8.449053e-001 1.060492e+000 -1.008798e+001 94 15 21
8.891307e-001 1.072036e+000 -1.011204e+001 89 23 24
1.484110e+000 1.044371e+000 -1.040809e+001 118 85 70
-1.120917e+000 1.104342e+000 -9.101680e+000 143 108 78
-1.092964e+000 9.520870e-001 -9.149633e+000 143 108 78
-1.105078e+000 1.142022e+000 -9.059771e+000 139 120 83
-1.087327e+000 1.161087e+000 -9.042523e+000 110 21 31
-1.087327e+000 1.161087e+000 -9.042523e+000 110 21 31
-9.817764e-001 1.131361e+000 -9.126952e+000 126 116 103
-5.762499e-001 1.092271e+000 -9.389607e+000 31 39 29
1.051297e+000 1.302536e+000 -9.916129e+000 124 65 60
1.028370e+000 1.278125e+000 -9.867924e+000 122 61 61
1.111943e+000 1.331332e+000 -9.911590e+000 122 59 59
1.183067e+000 1.279406e+000 -9.970907e+000 107 46 45
1.202031e+000 1.294920e+000 -9.944344e+000 118 51 58
1.889984e+000 1.340689e+000 -1.020223e+001 77 25 27
1.794314e+000 1.491512e+000 -1.000186e+001 104 72 57
1.417884e+000 1.430881e+000 -9.698727e+000 104 31 33
1.556316e+000 1.422011e+000 -9.863912e+000 91 19 24
3.195916e+000 1.536969e+000 -1.033732e+001 65 19 22
3.766197e+000 1.610340e+000 -1.059874e+001 34 21 26
9.304504e-001 1.356089e+000 -9.209889e+000 150 144 108
2.039362e+000 1.463475e+000 -9.652463e+000 22 54 58
3.085525e+000 1.402914e+000 -9.979398e+000 46 11 21
1.304836e+000 1.246858e+000 -9.134284e+000 151 146 112
-6.109695e-001 1.003840e+000 -8.250247e+000 153 148 15
-1.298759e+000 7.893997e-001 -7.974938e+000 112 90 67
-1.172139e-001 1.018081e+000 -8.384554e+000 30 45 29
1.108115e+000 1.053725e+000 -8.810897e+000 177 144 92
2.424749e+000 1.092816e+000 -9.236949e+000 98 67 63
2.424749e+000 1.092816e+000 -9.236949e+000 98 67 63
-1.201417e+000 6.986740e-001 -7.840985e+000 204 182 146
-6.162652e-001 9.554790e-001 -8.105729e+000 174 27 46
1.819379e+000 7.603313e-001 -8.695118e+000 156 91 85
4.644101e+000 -6.128371e-001 -8.484614e+000 128 112 102
4.864259e+000 2.037972e-001 -7.843859e+000 133 118 117
4.872533e+000 3.409245e-001 -7.785415e+000 61 51 52
4.897994e+000 2.962570e-001 -7.704273e+000 87 73 72
5.294515e+000 -1.704871e+000 -7.211916e+000 29 19 28
-1.223998e+000 8.672760e-001 -9.327444e+000 124 29 34
-1.223998e+000 8.672760e-001 -9.327444e+000 124 29 34
-1.183608e+000 8.674855e-001 -9.356731e+000 123 66 55
-7.463183e-001 9.437235e-001 -9.500468e+000 119 104 33
-5.922324e-002 9.728598e-001 -9.791365e+000 112 106 90
2.794128e-001 9.200381e-001 -1.000009e+001 123 67 59
3.462702e-001 1.038435e+000 -9.902729e+000 133 79 67
4.968147e-001 9.649757e-001 -1.006104e+001 96 37 27
5.884422e-001 9.767823e-001 -1.006979e+001 102 44 33
5.875176e-001 9.761224e-001 -1.006980e+001 102 44 33
1.370879e+000 1.045339e+000 -1.038625e+001 100 74 56
-1.157998e+000 1.036940e+000 -9.150956e+000 109 26 30
-1.145074e+000 1.079890e+000 -9.110932e+000 110 21 34
-1.030253e+000 1.101565e+000 -9.166492e+000 134 26 44
-4.058911e-001 1.093730e+000 -9.452190e+000 22 37 41
4.562819e-001 1.224857e+000 -9.713495e+000 109 56 45
4.526277e-001 1.220087e+000 -9.672513e+000 126 71 59
6.510658e-001 1.250066e+000 -9.746686e+000 128 71 60
6.791180e-001 1.287585e+000 -9.731969e+000 110 50 44
3.211781e+000 1.449324e+000 -1.063440e+001 73 74 67
3.211781e+000 1.449324e+000 -1.063440e+001 73 74 67
1.384589e+000 1.422279e+000 -9.694737e+000 128 74 56
1.381769e+000 1.424450e+000 -9.692917e+000 128 74 56
1.378230e+000 1.407672e+000 -9.788228e+000 101 25 29
1.642784e+000 1.425910e+000 -9.894553e+000 77 12 22
1.879019e+000 1.421536e+000 -9.952078e+000 112 78 61
1.351373e+000 1.439444e+000 -9.555010e+000 117 26 31
1.462267e+000 1.441199e+000 -9.624089e+000 141 62 57
1.474730e+000 1.445738e+000 -9.477112e+000 149 61 54
3.156265e+000 1.486817e+000 -1.019979e+001 151 110 78
3.158814e+000 1.453041e+000 -1.003894e+001 149 98 65
-6.007395e-001 1.035430e+000 -8.265048e+000 30 55 29
3.382258e-001 1.168471e+000 -8.651357e+000 157 150 43
2.614980e+000 1.174107e+000 -9.452272e+000 163 128 91
-1.315608e+000 7.569477e-001 -7.974608e+000 202 182 143
-1.315306e+000 7.508143e-001 -7.975007e+000 202 182 143
-6.417030e-001 9.412406e-001 -8.132877e+000 185 140 113
2.235210e+000 1.098752e+000 -9.237331e+000 141 112 99
1.965584e+000 8.018746e-001 -8.795134e+000 125 90 88
2.754205e+000 7.926400e-001 -9.072017e+000 74 47 48
8.295322e-001 6.682850e-001 -8.277960e+000 179 39 38
2.519327e+000 6.229760e-001 -8.832388e+000 152 117 108
2.324753e+000 6.060076e-001 -8.747814e+000 172 128 116
4.853887e+000 9.286627e-002 -7.780191e+000 147 129 124
4.900499e+000 3.928887e-001 -7.731120e+000 60 51 60
-1.282636e+000 8.219143e-001 -9.350290e+000 19 53 80
-8.300100e-001 7.969479e-001 -9.603167e+000 74 81 64
-8.636739e-001 8.689747e-001 -9.540424e+000 23 36 18
-5.447219e-001 8.945097e-001 -9.663457e+000 27 41 20
-6.236211e-001 1.018409e+000 -9.450074e+000 126 107 38
-3.444067e-001 1.057174e+000 -9.542839e+000 28 35 15
-3.444067e-001 1.057174e+000 -9.542839e+000 28 35 15
2.363311e-001 1.009655e+000 -9.911158e+000 123 73 63
3.612972e-001 1.101311e+000 -9.847695e+000 128 74 62
1.072221e+000 9.828847e-001 -1.023406e+001 123 73 62
-1.241905e+000 1.159871e+000 -8.976864e+000 48 68 77
-9.984152e-001 1.179559e+000 -9.080099e+000 134 31 37
-9.984152e-001 1.179559e+000 -9.080099e+000 134 31 37
4.338987e-001 1.041099e+000 -9.887942e+000 113 55 44
4.105260e-001 1.103879e+000 -9.806974e+000 134 80 68
4.105260e-001 1.103879e+000 -9.806974e+000 134 80 68
4.042699e-001 1.258390e+000 -9.679848e+000 133 80 67
1.040924e+000 1.330284e+000 -9.823788e+000 129 72 65
2.685996e+000 1.247001e+000 -1.071830e+001 102 68 56
1.298727e+000 1.389510e+000 -9.745870e+000 96 22 18
1.335559e+000 1.403055e+000 -9.744290e+000 117 59 45
2.791495e+000 1.502189e+000 -1.025692e+001 83 41 22
2.747166e+000 1.503320e+000 -1.008821e+001 86 40 20
1.501881e+000 1.230166e+000 -9.175772e+000 85 13 16
-5.975464e-001 1.037152e+000 -8.266939e+000 34 46 9
-5.933388e-001 1.029917e+000 -8.269380e+000 34 46 9
1.216141e+000 9.363894e-001 -8.691860e+000 139 19 30
1.216141e+000 9.363894e-001 -8.691860e+000 139 19 30
4.112418e+000 7.584763e-001 -9.654929e+000 143 83 43
3.999798e+000 5.981262e-001 -9.361121e+000 169 135 104
1.055066e+000 4.612166e-001 -8.202935e+000 166 115 87
-3.546144e-001 4.770232e-001 -7.682899e+000 180 40 38
4.667554e+000 -3.629924e-001 -8.411413e+000 48 36 40
4.981206e+000 -5.385566e-001 -7.554758e+000 159 141 131
4.916275e+000 4.386568e-001 -7.697061e+000 55 47 59
-4.614782e-001 9.280076e-001 -9.662128e+000 107 104 55
-8.619676e-001 1.016188e+000 -9.351314e+000 109 96 53
3.121939e-001 1.044157e+000 -9.821657e+000 130 80 65
1.987702e+000 1.239190e+000 -1.040132e+001 77 30 27
2.056283e+000 1.244173e+000 -1.043004e+001 100 62 51
9.787162e-001 1.387977e+000 -9.333081e+000 144 126 107
2.363931e+000 1.297076e+000 -9.565378e+000 135 53 43
1.880149e+000 8.831753e-001 -8.849832e+000 84 58 71
3.083602e-001 6.066361e-001 -8.031927e+000 164 152 79
3.083602e-001 6.066361e-001 -8.031927e+000 164 152 79
5.083804e+000 -1.420609e+000 -7.443590e+000 157 140 120
-7.399416e-001 8.879686e-001 -9.576528e+000 25 39 24
-6.343687e-001 8.930946e-001 -9.612581e+000 26 40 26
-7.940089e-001 1.076223e+000 -9.330608e+000 32 35 27
-6.465544e-001 9.592240e-001 -9.513043e+000 110 106 75
-5.165221e-001 9.906647e-001 -9.588824e+000 24 35 27
1.286905e+000 1.216722e+000 -1.012010e+001 116 60 47
3.359393e-001 1.274450e+000 -9.613386e+000 129 72 63
3.124406e+000 1.344957e+000 -1.071462e+001 28 31 22
2.587147e+000 1.354817e+000 -9.744966e+000 116 44 26
8.581528e-001 1.108771e+000 -8.793148e+000 161 145 115
4.009193e+000 9.029934e-001 -9.741614e+000 161 100 59
2.365889e+000 8.117146e-001 -8.946455e+000 32 16 31
-1.592561e-001 6.173962e-001 -7.892918e+000 158 149 47
4.631312e+000 -1.947485e-001 -8.329487e+000 61 50 51
4.653676e+000 1.056355e-001 -8.107924e+000 56 43 50
-1.139437e+000 1.010763e+000 -9.222217e+000 126 67 57
3.566610e+000 1.358051e+000 -1.086575e+001 82 52 44
2.470547e+000 1.208219e+000 -9.489999e+000 149 115 99
2.183909e+000 1.045960e+000 -9.155744e+000 137 112 90
1.744650e-001 9.040773e-001 -8.328760e+000 172 152 89
1.381790e+000 9.747016e-001 -8.812631e+000 15 64 99
7.561559e-001 7.271252e-001 -8.293376e+000 177 42 49
4.665672e+000 -7.424410e-001 -8.723116e+000 51 42 47
2.768030e+000 1.399407e+000 -1.013247e+001 132 92 65
-8.155835e-001 1.026834e+000 -8.187069e+000 28 82 112
-1.852495e-001 1.102619e+000 -8.493490e+000 144 136 67
-3.255799e-001 8.521452e-001 -8.186838e+000 33 58 39
5.203381e-001 6.648921e-001 -8.154252e+000 155 146 112
3.711673e+000 4.507302e-001 -9.219448e+000 182 104 38
-7.679189e-002 1.129098e+000 -9.577338e+000 109 103 88
-1.169091e+000 1.149795e+000 -8.980518e+000 126 113 95
3.364062e+000 1.450781e+000 -1.067170e+001 20 29 23
1.481535e+000 1.418569e+000 -9.786397e+000 110 27 35
1.481535e+000 1.418569e+000 -9.786397e+000 110 27 35
3.194507e+000 1.488591e+000 -1.044349e+001 93 56 47
1.911183e-001 1.124466e+000 -8.436840e+000 169 151 117
-4.605280e-001 8.577930e-001 -9.642176e+000 28 44 35
1.118390e+000 1.375207e+000 -9.570911e+000 117 27 32
1.913413e+000 1.265899e+000 -9.374279e+000 95 19 29
1.072598e+000 1.288297e+000 -9.035666e+000 146 23 34
-7.267824e-001 5.533862e-001 -9.822525e+000 39 59 59
-1.171679e+000 7.550420e-001 -9.508424e+000 96 104 67
-4.849490e-001 7.849067e-001 -9.780356e+000 106 117 83
-4.849490e-001 7.849067e-001 -9.780356e+000 106 117 83
2.761529e-001 5.814505e-001 -1.024070e+001 120 72 75
2.761529e-001 5.814505e-001 -1.024070e+001 120 72 75
2.091940e-001 7.283292e-001 -1.012934e+001 119 66 73
3.320032e+000 4.103841e-001 -1.166970e+001 24 18 30
3.212866e+000 5.464871e-001 -1.155958e+001 115 66 59
-1.534839e+000 8.331516e-001 -9.219583e+000 14 43 72
-4.165299e-001 9.612766e-001 -9.728590e+000 115 119 116
-9.678872e-002 9.379016e-001 -9.814798e+000 82 28 32
1.284174e-001 9.279930e-001 -9.942325e+000 96 31 35
7.982893e-001 9.975182e-001 -1.016885e+001 82 21 20
2.172824e+000 7.258607e-001 -1.093610e+001 93 64 59
3.009463e+000 9.093629e-001 -1.117348e+001 45 55 46
-1.055020e+000 9.720836e-001 -9.310917e+000 134 120 108
-1.079718e+000 1.058806e+000 -9.197593e+000 112 34 31
-1.042207e+000 1.076276e+000 -9.199941e+000 117 25 27
-8.304893e-002 1.007188e+000 -9.749450e+000 76 21 27
-4.892658e-002 1.064375e+000 -9.688947e+000 85 33 39
4.975909e-001 1.043965e+000 -1.000030e+001 107 48 40
3.125639e+000 9.403323e-001 -1.116531e+001 26 32 28
-1.109777e+000 1.134996e+000 -9.081769e+000 101 21 16
-1.109777e+000 1.134996e+000 -9.081769e+000 101 21 16
-4.948769e-001 1.142232e+000 -9.360956e+000 101 96 58
9.123713e-001 1.177898e+000 -1.000859e+001 84 22 20
1.264501e+000 1.166195e+000 -1.013517e+001 129 66 56
-1.922619e+000 1.123199e+000 -8.543785e+000 126 63 56
9.646593e-001 1.399239e+000 -9.515532e+000 126 39 42
-2.148385e+000 6.442926e-001 -8.208479e+000 160 20 31
3.250196e+000 1.484872e+000 -1.038912e+001 106 62 56
1.787770e+000 1.420774e+000 -9.568357e+000 23 59 82
1.971938e+000 1.399235e+000 -9.597086e+000 71 100 109
1.344630e+000 1.241201e+000 -9.125724e+000 25 60 81
2.032651e+000 1.294286e+000 -9.473003e+000 68 101 113
2.245129e+000 1.150778e+000 -9.312822e+000 132 105 84
2.535241e+000 1.167614e+000 -9.523331e+000 138 109 93
2.327248e+000 1.011533e+000 -9.184625e+000 40 17 10
-4.884169e-001 8.150585e-001 -8.070033e+000 166 156 117
-4.884169e-001 8.150585e-001 -8.070033e+000 166 156 117
1.174604e+000 9.048637e-001 -8.641440e+000 187 134 94
1.987831e+000 8.388703e-001 -8.861143e+000 87 64 70
1.885924e+000 7.409452e-001 -8.719895e+000 158 101 85
3.925504e+000 6.777461e-001 -9.414784e+000 147 52 37
3.925504e+000 6.777461e-001 -9.414784e+000 147 52 37
-5.577262e-001 6.174561e-001 -7.744125e+000 188 153 109
-5.366249e-001 6.544221e-001 -7.811782e+000 192 148 104
8.225414e-001 6.966204e-001 -8.298599e+000 164 147 115
8.225414e-001 6.966204e-001 -8.298599e+000 164 147 115
2.535587e+000 6.055651e-001 -8.836143e+000 150 113 97
5.166367e+000 -2.077003e+000 -7.483218e+000 66 60 62
-7.059585e-001 3.034541e-001 -9.947033e+000 59 91 137
1.384377e+000 7.472669e-001 -1.064937e+001 93 63 61
2.896365e-001 9.341878e-001 -1.002644e+001 150 97 101
3.059077e-001 9.754349e-001 -9.985397e+000 130 81 67
4.482440e-001 9.321836e-001 -1.010697e+001 119 64 67
7.901526e-001 1.037346e+000 -1.020535e+001 88 27 32
1.499384e+000 7.886528e-001 -1.061377e+001 93 62 57
1.740299e+000 8.578937e-001 -1.068058e+001 98 63 61
1.833901e+000 8.399379e-001 -1.075823e+001 96 66 64
-8.268423e-001 1.031296e+000 -9.336949e+000 108 105 28
-2.345989e-002 1.051594e+000 -9.716761e+000 108 95 79
9.600186e-001 1.039468e+000 -1.008516e+001 86 20 24
1.157226e+000 1.218627e+000 -1.016439e+001 110 102 74
2.678023e+000 9.700650e-001 -1.091351e+001 79 40 34
-1.189130e+000 1.147702e+000 -9.055138e+000 40 59 67
-1.112279e+000 1.168131e+000 -9.055638e+000 138 109 81
4.815642e-001 1.180056e+000 -9.728422e+000 99 39 36
9.079700e-001 1.159077e+000 -9.956552e+000 96 31 27
4.903936e-001 1.263386e+000 -9.700244e+000 133 77 64
4.903936e-001 1.263386e+000 -9.700244e+000 133 77 64
6.202901e-001 1.204217e+000 -9.768607e+000 112 58 48
6.710672e-001 1.217618e+000 -9.756201e+000 127 73 61
1.053749e+000 1.264646e+000 -9.903373e+000 101 41 36
3.995035e+000 1.419559e+000 -1.059483e+001 29 19 28
2.768306e+000 1.413857e+000 -1.000396e+001 139 99 66
-1.499354e+000 9.106528e-001 -8.275149e+000 190 167 133
2.247328e+000 1.281516e+000 -9.619567e+000 153 28 42
-6.425002e-001 1.085012e+000 -8.250651e+000 149 140 27
1.581389e+000 1.194378e+000 -9.133614e+000 79 57 72
1.632388e+000 1.105453e+000 -9.104972e+000 78 56 68
-1.268598e+000 8.543636e-001 -7.946812e+000 203 185 143
1.226252e+000 1.041575e+000 -8.855321e+000 148 22 35
1.159928e+000 1.038617e+000 -8.800502e+000 147 19 27
2.582608e+000 1.057956e+000 -9.356150e+000 72 51 58
2.775298e+000 8.521961e-001 -9.217017e+000 69 52 53
-5.275695e-001 7.914717e-001 -7.978535e+000 193 148 109
1.378890e+000 7.960567e-001 -8.624419e+000 170 65 62
1.572958e+000 7.643957e-001 -8.621781e+000 17 70 88
2.130033e+000 7.071379e-001 -8.776362e+000 144 112 107
4.076744e+000 5.214805e-001 -9.377424e+000 180 130 98
-5.499417e-001 4.845074e-001 -7.793589e+000 191 36 40
-5.876620e-001 6.172756e-001 -7.738737e+000 178 44 51
-1.973412e-001 4.865738e-001 -7.953354e+000 34 52 31
1.032355e+000 5.311027e-001 -8.222846e+000 155 100 79
2.924488e+000 4.952595e-001 -8.924032e+000 168 138 99
2.924488e+000 4.952595e-001 -8.924032e+000 168 138 99
4.057229e+000 3.579555e-001 -9.272867e+000 46 25 32
4.341685e+000 4.498382e-001 -9.421676e+000 30 19 14
4.690538e+000 -3.740598e-001 -8.355813e+000 135 121 116
4.643101e+000 -1.190627e-001 -8.250363e+000 62 51 52
4.732918e+000 -3.599058e-001 -8.074796e+000 131 115 99
4.799507e+000 1.335021e-001 -7.982355e+000 49 37 38
2.355195e-001 5.314049e-001 -1.018080e+001 138 93 99
2.535430e-001 1.042317e+000 -9.933187e+000 102 48 36
9.464999e-001 9.080417e-001 -1.025028e+001 123 68 67
9.524648e-001 9.431927e-001 -1.027356e+001 106 42 43
1.657476e+000 9.408849e-001 -1.056160e+001 98 60 46
1.715917e+000 9.185715e-001 -1.060934e+001 123 93 85
1.834601e+000 9.530757e-001 -1.065376e+001 119 90 82
1.941084e+000 8.869668e-001 -1.075501e+001 117 91 84
1.933729e+000 1.000710e+000 -1.068510e+001 113 84 76
2.150586e+000 8.923603e-001 -1.087409e+001 112 83 78
2.093493e-002 1.002384e+000 -9.776223e+000 91 67 57
4.440396e-002 1.034322e+000 -9.736470e+000 99 82 66
3.572529e-001 1.040342e+000 -9.842482e+000 100 43 32
9.592224e-001 9.514713e-001 -1.021094e+001 123 65 64
2.074077e+000 1.059455e+000 -1.064362e+001 78 35 29
2.547770e+000 9.984458e-001 -1.083501e+001 62 22 12
2.547770e+000 9.984458e-001 -1.083501e+001 62 22 12
2.688882e+000 1.005162e+000 -1.092545e+001 98 62 44
-1.134476e+000 1.137252e+000 -9.066598e+000 122 27 32
-1.124130e+000 1.170094e+000 -9.028262e+000 126 27 37
3.206523e+000 1.235890e+000 -1.090419e+001 39 42 35
3.206523e+000 1.235890e+000 -1.090419e+001 39 42 35
5.209647e-001 1.308551e+000 -9.669841e+000 94 35 27
6.142251e-001 1.198787e+000 -9.730470e+000 130 78 65
2.340910e+000 1.221907e+000 -1.048023e+001 93 59 53
2.340910e+000 1.221907e+000 -1.048023e+001 93 59 53
3.284108e+000 1.213632e+000 -1.089387e+001 29 31 28
3.284108e+000 1.213632e+000 -1.089387e+001 29 31 28
3.208957e+000 1.411545e+000 -1.055502e+001 31 34 26
1.885988e-001 1.365882e+000 -8.988258e+000 49 62 42
1.554862e+000 1.241634e+000 -9.226444e+000 84 20 26
3.900575e-002 1.137857e+000 -8.564101e+000 35 48 45
3.030530e-001 1.037378e+000 -8.526943e+000 29 57 29
-5.267406e-001 8.537307e-001 -8.003330e+000 163 36 43
1.282402e-001 7.936453e-001 -8.175440e+000 15 54 35
2.508069e+000 7.559959e-001 -8.996450e+000 146 123 103
2.550246e+000 7.521658e-001 -8.961468e+000 148 121 103
2.804970e+000 6.959686e-001 -9.013705e+000 85 52 56
3.158109e+000 7.675673e-001 -9.192063e+000 156 120 71
4.391680e-001 6.887354e-001 -8.132469e+000 27 45 27
9.153933e-001 6.081312e-001 -8.236286e+000 150 100 83
1.038700e+000 4.229573e-001 -8.168626e+000 178 158 129
4.647546e+000 -4.051808e-001 -8.396611e+000 144 131 127
4.886506e+000 -1.086623e-001 -8.111513e+000 57 45 49
4.965543e+000 7.840840e-002 -7.860886e+000 148 130 120
-6.817777e-001 7.730392e-001 -9.711416e+000 39 53 54
-6.817777e-001 7.730392e-001 -9.711416e+000 39 53 54
-6.048738e-001 7.100745e-001 -9.763725e+000 103 110 87
-5.680038e-001 7.769153e-001 -9.752840e+000 37 49 37
-5.680038e-001 7.769153e-001 -9.752840e+000 37 49 37
8.591020e-001 3.268255e-001 -1.059340e+001 140 118 116
-5.885629e-001 9.260060e-001 -9.617150e+000 87 85 42
-4.326929e-001 9.483615e-001 -9.701715e+000 28 35 19
7.597069e-001 8.385131e-001 -1.029823e+001 87 23 31
1.535059e+000 9.230859e-001 -1.056430e+001 122 92 90
-7.260043e-001 9.573252e-001 -9.469749e+000 25 31 18
1.789303e+000 9.581535e-001 -1.055088e+001 105 61 48
2.058747e+000 1.008778e+000 -1.062869e+001 97 56 42
2.017399e+000 1.055431e+000 -1.055181e+001 75 25 26
-1.024812e+000 1.146995e+000 -9.120237e+000 117 31 28
-4.128763e-001 1.165244e+000 -9.431058e+000 26 37 20
-4.128763e-001 1.165244e+000 -9.431058e+000 26 37 20
-1.668673e-001 1.193262e+000 -9.458326e+000 19 38 22
-1.668673e-001 1.193262e+000 -9.458326e+000 19 38 22
-3.813407e-001 1.241107e+000 -9.284472e+000 21 37 26
1.125914e+000 1.358120e+000 -9.850390e+000 120 68 57
1.045242e+000 1.351349e+000 -9.312711e+000 145 41 41
2.422053e+000 1.246738e+000 -9.540676e+000 84 22 18
3.329890e-001 9.598373e-001 -8.462224e+000 22 57 29
2.955272e+000 7.686578e-001 -9.124225e+000 168 122 88
9.167428e-001 6.059806e-001 -8.236297e+000 150 99 83
1.012989e+000 6.101529e-001 -8.277199e+000 157 88 75
6.162298e-002 5.216141e-001 -7.859228e+000 162 154 84
4.561937e+000 -3.402540e-001 -8.469237e+000 43 36 38
4.876246e+000 -2.016829e+000 -7.962435e+000 155 145 120
4.988219e+000 1.791536e-002 -7.678835e+000 161 143 133
-5.246256e-001 8.377648e-001 -9.732200e+000 115 120 98
-4.498370e-001 7.937004e-001 -9.788788e+000 36 50 48
-4.498370e-001 7.937004e-001 -9.788788e+000 36 50 48
-9.656579e-001 8.285964e-001 -9.506538e+000 23 33 17
-6.431327e-001 9.153969e-001 -9.606626e+000 30 39 25
4.170090e-001 8.606432e-001 -1.010023e+001 136 87 83
1.911520e+000 9.889553e-001 -1.053159e+001 81 33 33
1.041985e+000 1.146247e+000 -9.998777e+000 126 76 63
2.162911e+000 1.151479e+000 -1.058345e+001 99 65 48
3.129964e+000 1.105543e+000 -1.093298e+001 27 35 27
3.587750e+000 1.013848e+000 -1.113570e+001 66 35 26
8.702186e-001 1.471397e+000 -9.531922e+000 121 103 85
1.039345e+000 1.444186e+000 -9.641279e+000 113 28 35
8.060749e-002 1.093930e+000 -8.518471e+000 168 156 81
8.486982e-001 1.195217e+000 -8.832091e+000 166 36 42
3.083042e-001 1.056334e+000 -8.536109e+000 34 54 31
1.510843e+000 1.053224e+000 -8.954511e+000 16 49 81
9.450188e-001 9.987601e-001 -8.628725e+000 174 37 51
1.508574e+000 9.977249e-001 -8.806114e+000 29 73 109
2.092589e+000 8.807187e-001 -8.917381e+000 79 57 70
-3.439601e-001 8.396121e-001 -8.060232e+000 157 153 100
2.522348e+000 7.858900e-001 -8.986981e+000 142 116 99
2.269078e+000 5.806324e-001 -8.705145e+000 99 52 51
2.112452e-001 5.182045e-001 -7.917487e+000 168 154 57
5.115448e+000 -1.682295e+000 -7.581355e+000 159 140 123
-1.226746e+000 7.731639e-001 -9.485140e+000 32 70 119
1.772904e-001 9.098448e-001 -9.946905e+000 93 33 28
1.772904e-001 9.098448e-001 -9.946905e+000 93 33 28
4.348092e-001 1.087546e+000 -9.935135e+000 127 76 57
1.224011e+000 1.116534e+000 -1.023386e+001 112 98 71
-1.094726e+000 1.185557e+000 -9.087106e+000 129 93 71
2.034776e+000 1.418377e+000 -9.685599e+000 14 61 78
7.245462e-003 1.266744e+000 -8.704537e+000 104 115 108
7.245462e-003 1.266744e+000 -8.704537e+000 104 115 108
6.028501e-001 1.218054e+000 -8.876900e+000 141 40 37
1.643141e+000 1.112868e+000 -9.081429e+000 85 60 78
8.463585e-002 9.343737e-001 -8.288894e+000 34 60 36
2.357466e+000 8.728223e-001 -9.026026e+000 138 113 93
7.767990e-001 1.082473e+000 -1.014883e+001 113 54 54
-6.486848e-001 1.150752e+000 -9.345210e+000 106 102 75
-6.486848e-001 1.150752e+000 -9.345210e+000 106 102 75
-4.749442e-001 1.125039e+000 -9.408878e+000 77 82 78
-4.749442e-001 1.125039e+000 -9.408878e+000 77 82 78
7.937529e-001 1.279504e+000 -9.982452e+000 85 20 21
-9.213108e-001 1.270338e+000 -9.081692e+000 23 36 30
1.252218e+000 1.306706e+000 -9.921820e+000 91 18 26
1.879145e+000 1.261367e+000 -9.380028e+000 109 22 28
1.030492e-001 6.754694e-001 -7.984510e+000 163 149 118
1.030492e-001 6.754694e-001 -7.984510e+000 163 149 118
2.414853e-001 6.046580e-001 -8.005634e+000 38 66 43
4.701457e-001 5.847167e-001 -8.078714e+000 30 52 29
2.693313e+000 5.795746e-001 -8.888037e+000 84 43 48
2.794571e+000 4.856932e-001 -1.133287e+001 93 63 55
7.143740e-001 7.618566e-001 -1.026734e+001 133 122 128
6.040640e-001 9.367770e-001 -1.006345e+001 107 50 41
1.031817e+000 1.113648e+000 -1.009114e+001 131 99 76
3.395145e+000 1.208539e+000 -9.999407e+000 146 112 77
3.984240e-002 8.575742e-001 -8.219872e+000 165 153 114
2.310470e+000 7.222360e-001 -8.873319e+000 148 117 104
3.369439e+000 1.443275e+000 -1.067451e+001 21 31 23
-1.181290e+000 7.903752e-001 -9.415339e+000 144 89 80
-1.189458e+000 1.151746e+000 -9.222837e+000 143 93 72
3.743688e+000 1.421816e+000 -1.039871e+001 132 99 68
-7.729179e-001 1.106738e+000 -8.274156e+000 22 82 111
7.794939e-002 1.115276e+000 -9.577156e+000 100 94 79
1.789601e+000 1.377058e+000 -9.839734e+000 87 14 29
1.903948e+000 1.082650e+000 -1.039945e+001 85 40 37
3.574142e+000 1.353553e+000 -1.020531e+001 143 106 77
5.437262e-001 1.246162e+000 -8.738275e+000 162 34 35
2.368988e+000 4.003930e-001 -8.674601e+000 160 115 68
1.521127e+000 2.388697e-001 -8.113148e+000 164 99 72
1.102249e+000 2.693002e-002 -8.176989e+000 114 144 155
3.094715e-001 -7.670123e-002 -7.955467e+000 150 154 132
3.455381e+000 -5.129792e-002 -9.242449e+000 191 96 51
2.360672e+000 -2.389582e-001 -8.917795e+000 201 75 79
2.811899e+000 -3.107495e-001 -9.181683e+000 118 66 51
3.329944e+000 -2.747148e-001 -9.391622e+000 170 84 50
3.396190e+000 -2.638986e-001 -9.387523e+000 178 91 59
2.385091e+000 -4.286017e-001 -9.099825e+000 193 75 77
2.432842e+000 -3.518538e-001 -9.050709e+000 164 37 45
2.630616e+000 -3.274175e-001 -9.098165e+000 168 51 62
2.594560e+000 -3.690835e-001 -9.122430e+000 189 72 81
3.219081e+000 -3.573580e-001 -9.403265e+000 144 47 17
-5.641211e-001 -4.768029e-001 -7.888758e+000 189 35 45
-5.641211e-001 -4.768029e-001 -7.888758e+000 189 35 45
8.264152e-001 -4.649028e-001 -8.441098e+000 158 36 41
2.560941e+000 -4.661716e-001 -9.202872e+000 186 61 76
2.978165e+000 -6.242508e-001 -9.611653e+000 143 105 86
3.230140e+000 -5.288689e-001 -9.606987e+000 171 134 107
3.306886e+000 -5.147586e-001 -9.610960e+000 172 138 110
-5.404508e-001 -6.348484e-001 -8.047871e+000 203 148 129
-2.601924e-001 -6.095904e-001 -8.136926e+000 159 164 40
2.094674e+000 -7.373625e-001 -9.298108e+000 184 113 103
-5.501046e-001 -7.862427e-001 -8.302298e+000 63 106 145
1.088519e+000 -8.501770e-001 -9.064358e+000 141 89 94
2.012745e+000 -7.771429e-001 -9.326071e+000 184 126 118
-5.248281e-001 -7.993818e-001 -8.253108e+000 122 135 84
-1.269915e+000 8.724850e-001 -7.974741e+000 195 173 149
2.315997e+000 3.586178e-001 -8.644808e+000 162 114 86
2.503170e+000 4.051624e-001 -8.730032e+000 161 120 65
3.981669e+000 5.289476e-001 -9.339486e+000 164 58 75
2.509250e+000 3.071318e-001 -8.724436e+000 87 32 43
2.929398e+000 3.169558e-001 -8.877212e+000 171 119 81
1.129287e+000 4.600684e-002 -8.214204e+000 21 88 131
2.326865e+000 -2.131391e-003 -8.729537e+000 185 137 110
-1.545822e+000 -1.737667e-001 -8.049767e+000 181 158 135
2.180861e+000 -7.029651e-002 -8.728720e+000 196 142 116
2.652497e+000 -9.862091e-002 -8.933476e+000 201 86 88
2.652497e+000 -9.862091e-002 -8.933476e+000 201 86 88
3.685227e+000 -9.983150e-002 -9.381531e+000 188 168 144
1.681090e+000 -1.843848e-001 -8.597573e+000 195 128 101
2.364601e+000 -3.962386e-001 -9.049740e+000 159 31 45
2.666156e+000 -4.129201e-001 -9.170590e+000 161 36 49
3.137877e+000 -3.991026e-001 -9.399656e+000 150 45 25
3.373065e+000 -3.657913e-001 -9.492316e+000 179 102 60
2.286129e-001 -4.676911e-001 -8.195896e+000 163 167 26
2.241277e+000 -5.261655e-001 -9.135012e+000 157 37 43
2.897127e+000 -4.840519e-001 -9.366510e+000 196 134 116
-6.135771e-001 -5.471228e-001 -7.931452e+000 175 21 49
-1.766237e-001 -6.305910e-001 -8.193114e+000 23 58 43
-1.766237e-001 -6.305910e-001 -8.193114e+000 23 58 43
1.850195e+000 -7.034992e-001 -9.176997e+000 140 82 70
-7.050861e-001 -7.721954e-001 -8.181596e+000 169 49 59
1.070374e-001 -7.624291e-001 -8.495844e+000 160 160 43
6.170030e-001 5.212528e-001 -8.049729e+000 172 159 62
2.661601e+000 3.741765e-001 -8.776363e+000 117 63 25
4.239006e+000 5.153515e-001 -9.434734e+000 160 73 47
2.371986e+000 -8.079575e-003 -8.771858e+000 158 23 34
2.386902e+000 -1.121220e-001 -8.820022e+000 186 68 72
1.475517e+000 -1.703096e-001 -8.501690e+000 169 110 106
-2.259053e-002 -3.465753e-001 -7.998634e+000 63 107 125
5.245934e-001 -5.170081e-001 -8.366435e+000 166 164 144
5.334626e-001 -5.181572e-001 -8.364156e+000 166 164 144
2.222527e+000 6.956399e-001 -8.799160e+000 78 35 45
6.901992e-001 -8.491972e-001 -8.889550e+000 189 128 119
-2.108289e+001 1.001765e+001 -6.128895e+001 23 16 24
2.698440e+000 -2.184324e-001 -9.030593e+000 171 35 49
8.693050e-001 -4.289849e-001 -8.463256e+000 205 150 124
-4.553366e-001 -6.300192e-001 -8.098582e+000 23 90 148
-3.642218e+001 3.854758e+000 -7.247476e+001 59 47 50
4.133973e+000 2.229947e-001 -9.350465e+000 49 11 9
3.082139e+000 3.477630e-001 -8.930570e+000 157 113 88
1.917511e+000 -5.005007e-001 -8.940370e+000 134 71 62
3.136363e+000 1.264578e-001 -1.021552e+001 157 21 35
3.136363e+000 1.264578e-001 -1.021552e+001 157 21 35
6.388576e-001 -4.258303e-001 -8.342002e+000 172 160 144
1.180374e+000 -5.486806e-001 -8.693807e+000 188 131 111
2.317219e+000 3.489514e-001 -8.662077e+000 177 131 83
2.713929e+000 3.694527e-001 -8.785754e+000 181 135 72
3.279101e+000 1.065330e-002 -9.111175e+000 200 84 37
-6.708092e-002 -3.916897e-001 -8.025818e+000 30 59 39
-3.630725e+001 4.551034e+000 -7.426641e+001 86 65 68
-2.568308e+001 4.082688e+000 -7.878015e+001 111 97 84
-2.461599e+001 8.016704e+000 -7.428778e+001 68 56 56
-3.646719e+001 5.385293e+000 -7.303983e+001 133 91 81
-3.019051e+001 5.915277e+000 -7.300178e+001 84 41 36
-2.780365e+001 6.522570e+000 -7.530709e+001 41 28 25
-2.714408e+001 7.068607e+000 -7.471200e+001 53 44 45
-2.585454e+001 3.564404e+000 -8.010502e+001 38 27 22
-2.579939e+001 3.560379e+000 -7.994870e+001 38 27 22
-2.508894e+001 4.096627e+000 -7.925475e+001 118 102 90
8.651294e-001 -1.433354e-001 -8.145691e+000 157 22 36
-2.568800e+001 6.694007e+000 -7.459265e+001 104 90 90
-2.637693e+001 5.835828e+000 -7.648094e+001 113 94 93
-2.920610e+001 4.263045e+000 -7.806654e+001 84 80 94
-2.493576e+001 4.713363e+000 -7.599594e+001 48 38 36
-2.425908e+001 8.528797e+000 -7.444131e+001 38 33 36
-2.518445e+001 7.065146e+000 -7.584321e+001 51 37 36
-2.469373e+001 6.251941e+000 -7.738525e+001 74 61 61
-2.825409e+001 5.595842e+000 -7.632805e+001 145 53 53
-2.824533e+001 3.800865e+000 -7.869728e+001 30 19 24
-2.489726e+001 4.703321e+000 -7.588309e+001 49 37 36
-5.730196e+000 -7.609577e+001 -1.388968e+001 141 113 81
-6.231039e-001 1.103982e+000 -8.429961e+000 37 57 17
1.254748e-001 8.103533e-001 -8.249975e+000 45 55 39
3.964439e-001 6.013677e-001 -8.037525e+000 160 161 23
1.958700e+000 8.284325e-001 -8.837840e+000 116 83 88
2.076353e+000 8.298783e-001 -8.875757e+000 122 97 101
-5.447175e-001 4.528085e-001 -7.577763e+000 190 148 126
2.261772e+000 6.747243e-001 -8.808128e+000 81 40 42
2.701231e+000 6.901173e-001 -9.009790e+000 67 27 34
2.968002e+000 7.198713e-001 -9.083931e+000 30 27 38
-1.285836e+000 4.147990e-001 -7.784205e+000 199 176 142
2.017275e+000 4.419484e-001 -8.549075e+000 168 129 89
2.476952e+000 4.201122e-001 -8.730971e+000 165 125 74
2.776260e+000 4.878457e-001 -8.845862e+000 67 38 43
3.037781e+000 4.418793e-001 -8.928188e+000 30 24 51
3.037781e+000 4.418793e-001 -8.928188e+000 30 24 51
3.173022e+000 5.460145e-001 -9.021575e+000 140 149 126
2.719928e+000 3.442920e-001 -8.759146e+000 162 126 75
3.225027e+000 3.849790e-001 -8.908289e+000 159 127 85
4.199040e+000 3.597525e-001 -9.203025e+000 200 98 56
4.154907e+000 2.334243e-001 -9.340112e+000 160 77 56
1.014614e+000 4.758270e-002 -8.184395e+000 26 37 71
3.740646e+000 1.389851e-001 -9.228296e+000 38 12 16
3.786379e+000 1.175994e-001 -9.265585e+000 46 21 24
4.073404e+000 1.604409e-001 -9.307626e+000 59 19 32
9.497072e-001 -8.447215e-002 -8.218679e+000 185 143 120
1.418199e+000 -6.593600e-002 -8.401096e+000 77 34 28
2.509699e+000 -6.241740e-002 -8.905168e+000 136 21 34
2.546551e+000 -6.169209e-002 -8.838590e+000 141 17 35
3.278967e+000 2.509021e-002 -9.110174e+000 182 75 50
3.349779e+000 -3.977939e-002 -9.151470e+000 117 36 30
3.386334e+000 -4.850859e-002 -9.198684e+000 153 74 53
3.420906e+000 -4.083891e-002 -9.210404e+000 112 36 21
3.777340e+000 -5.329742e-003 -9.313103e+000 167 145 131
3.777340e+000 -5.329742e-003 -9.313103e+000 167 145 131
3.946135e+000 -7.146658e-003 -9.308597e+000 156 96 59
4.130083e+000 6.721401e-002 -9.466657e+000 50 9 13
1.036603e-001 -2.346802e-001 -7.977331e+000 161 156 53
9.243149e-001 -2.285593e-001 -8.306553e+000 181 139 109
1.052677e+000 -1.635240e-001 -8.304261e+000 10 59 99
1.311332e+000 -1.917487e-001 -8.429601e+000 167 105 95
1.477241e+000 -1.440312e-001 -8.475732e+000 176 119 99
2.638969e+000 -1.500575e-001 -8.944705e+000 182 69 77
3.218984e+000 -1.672214e-001 -9.218745e+000 171 109 51
3.341328e+000 -8.821312e-002 -9.218838e+000 101 22 1
3.317830e+000 -1.798232e-001 -9.280274e+000 99 36 3
3.321710e+000 -1.785727e-001 -9.283421e+000 99 36 3
3.353628e+000 -1.649966e-001 -9.294206e+000 186 132 86
3.347497e+000 -1.684106e-001 -9.278374e+000 186 132 86
3.458269e+000 -1.325488e-001 -9.305661e+000 97 27 8
3.660485e+000 -1.212928e-001 -9.397393e+000 61 38 37
3.677609e+000 -1.702443e-001 -9.409577e+000 33 14 12
3.669612e+000 -1.795518e-001 -9.446173e+000 161 140 131
3.710395e+000 -7.433826e-002 -9.274505e+000 100 77 69
3.710395e+000 -7.433826e-002 -9.274505e+000 100 77 69
3.734220e+000 -1.461330e-001 -9.365803e+000 171 151 133
4.014173e+000 -4.543255e-002 -9.532278e+000 157 89 51
-1.098672e-001 -3.329105e-001 -7.988945e+000 151 152 10
-1.112644e-001 -3.373915e-001 -7.961590e+000 151 152 10
2.612783e+000 -2.467283e-001 -8.997680e+000 189 74 84
2.899560e+000 -3.187887e-001 -9.175269e+000 183 134 109
3.257273e+000 -3.083243e-001 -9.372863e+000 172 76 51
3.404723e+000 -2.236735e-001 -9.355895e+000 182 123 63
3.393173e+000 -2.908699e-001 -9.231831e+000 160 69 30
3.540753e+000 -3.022383e-001 -9.499392e+000 121 105 85
3.582048e+000 -2.995731e-001 -9.515263e+000 126 106 99
-6.136501e-001 -4.581516e-001 -7.856917e+000 169 152 123
-4.362815e-001 -3.788383e-001 -7.860621e+000 146 154 35
1.423465e-002 -4.465582e-001 -8.133073e+000 150 155 28
2.121845e-001 -4.022683e-001 -8.176066e+000 148 149 46
4.994702e-001 -4.135115e-001 -8.268954e+000 148 150 119
4.811514e-001 -4.291507e-001 -8.273829e+000 137 20 45
5.534302e-001 -4.286664e-001 -8.297232e+000 107 27 34
5.702120e-001 -4.647623e-001 -8.342932e+000 161 141 129
8.655129e-001 -3.661853e-001 -8.385835e+000 175 143 115
8.764345e-001 -3.850698e-001 -8.403489e+000 159 24 37
8.764285e-001 -3.851509e-001 -8.403302e+000 159 24 37
9.962976e-001 -4.334731e-001 -8.493476e+000 12 42 77
2.381563e+000 -3.756321e-001 -9.036371e+000 185 79 89
2.455842e+000 -3.724590e-001 -9.069782e+000 184 71 77
2.901368e+000 -3.366344e-001 -9.222293e+000 119 75 57
3.179606e+000 -3.472222e-001 -9.346667e+000 173 69 54
3.180521e+000 -3.702847e-001 -9.385703e+000 177 67 61
3.180521e+000 -3.702847e-001 -9.385703e+000 177 67 61
3.458491e+000 -3.236481e-001 -9.473346e+000 142 60 23
3.496109e+000 -3.570082e-001 -9.552411e+000 167 131 103
3.963652e+000 -3.002004e-001 -9.774970e+000 154 113 99
-6.134661e-001 -5.193413e-001 -7.912930e+000 170 28 40
-5.439031e-001 -5.150593e-001 -7.923421e+000 169 33 28
-5.438438e-001 -5.138340e-001 -7.928252e+000 169 33 28
-5.321524e-001 -5.300467e-001 -7.937478e+000 189 151 114
-5.336015e-001 -5.291282e-001 -7.941042e+000 189 151 114
-4.277193e-001 -4.786244e-001 -7.920379e+000 8 76 127
5.739364e-002 -5.344583e-001 -8.177027e+000 150 150 40
5.739364e-002 -5.344583e-001 -8.177027e+000 150 150 40
4.508993e-001 -5.481273e-001 -8.363896e+000 112 26 40
4.691584e-001 -4.893220e-001 -8.312426e+000 118 22 41
5.421649e-001 -4.873138e-001 -8.336439e+000 111 25 33
4.963363e-001 -5.472178e-001 -8.379546e+000 122 33 47
1.806873e+000 -4.934279e-001 -8.896824e+000 181 124 106
1.805508e+000 -4.944555e-001 -8.889444e+000 181 124 106
2.165438e+000 -5.203819e-001 -9.055308e+000 111 55 57
2.199178e+000 -5.343510e-001 -9.106583e+000 179 107 101
2.360541e+000 -4.688915e-001 -9.095084e+000 186 76 79
2.317385e+000 -5.083736e-001 -9.131902e+000 147 31 39
2.275657e+000 -5.742336e-001 -9.204022e+000 145 25 37
2.531738e+000 -5.530625e-001 -9.295968e+000 177 71 75
2.556744e+000 -4.709054e-001 -9.187317e+000 186 71 76
2.574640e+000 -4.947995e-001 -9.227013e+000 142 20 33
2.860785e+000 -4.589440e-001 -9.336262e+000 97 43 41
2.858973e+000 -4.592916e-001 -9.332511e+000 97 43 41
3.078110e+000 -4.831681e-001 -9.464021e+000 171 134 97
3.135818e+000 -4.853546e-001 -9.495675e+000 167 128 100
3.099537e+000 -5.655045e-001 -9.561995e+000 163 131 106
3.228893e+000 -5.540448e-001 -9.619313e+000 158 128 108
3.280534e+000 -4.542798e-001 -9.556977e+000 165 127 98
3.333711e+000 -4.785047e-001 -9.604653e+000 156 127 97
-5.963293e-001 -6.133987e-001 -8.020402e+000 203 156 134
-6.326144e-001 -6.354162e-001 -8.027173e+000 193 149 126
-6.326102e-001 -6.362425e-001 -8.025796e+000 193 149 126
-5.699181e-001 -6.743183e-001 -8.101008e+000 174 46 51
-3.344259e-001 -6.832637e-001 -8.194867e+000 59 92 79
-3.388257e-001 -6.787216e-001 -8.231696e+000 59 92 79
-1.802196e-001 -6.299526e-001 -8.187697e+000 24 49 44
-7.753159e-002 -6.639603e-001 -8.297150e+000 136 152 37
-7.738250e-002 -6.640195e-001 -8.297280e+000 136 152 37
4.285674e-001 -5.987680e-001 -8.427144e+000 124 33 44
4.288770e-001 -5.987870e-001 -8.427362e+000 124 33 44
5.162873e-001 -6.129743e-001 -8.477509e+000 147 142 133
5.625872e-001 -5.833724e-001 -8.483313e+000 148 142 131
1.207461e+000 -5.845128e-001 -8.730448e+000 88 47 45
1.782680e+000 -6.534687e-001 -9.085409e+000 122 68 58
1.783408e+000 -6.526467e-001 -9.087895e+000 122 68 58
1.931435e+000 -6.894209e-001 -9.146478e+000 135 82 78
2.247426e+000 -5.962547e-001 -9.202159e+000 179 70 74
