ply
format ascii 1.0
element face 0
property list uchar int vertex_indices
element vertex 894
property float x
property float y
property float z
property uchar diffuse_red
property uchar diffuse_green
property uchar diffuse_blue
end_header
1.213465e+000 1.096299e+000 -8.702458e+000 149 106 65
2.342770e+000 1.092819e+000 -9.098044e+000 102 77 57
-1.328167e+000 6.783144e-001 -7.716429e+000 157 131 87
-6.653907e-001 8.920709e-001 -7.861372e+000 119 14 17
2.245364e+000 1.062432e+000 -9.028087e+000 105 83 57
1.222310e+000 9.315577e-001 -8.503709e+000 144 116 67
1.911099e+000 8.755588e-001 -8.671519e+000 67 23 20
1.811587e+000 7.820242e-001 -8.536653e+000 122 60 39
-5.506632e-001 5.319604e-001 -7.466780e+000 123 16 23
-5.498612e-001 5.282619e-001 -7.471216e+000 123 16 23
-1.599851e-001 5.446535e-001 -7.616312e+000 117 102 22
-4.165617e-002 5.531670e-001 -7.659977e+000 119 102 12
1.873860e+000 5.957734e-001 -8.436216e+000 134 89 47
3.879228e+000 6.907576e-001 -9.281558e+000 144 100 65
3.903718e+000 6.409958e-001 -9.268867e+000 147 107 65
3.530506e+000 5.107956e-001 -9.043181e+000 112 46 18
4.209518e+000 -1.986522e+000 -9.669708e+000 116 100 74
4.313846e+000 -1.698243e+000 -9.451456e+000 95 78 58
4.693389e+000 -7.858345e-001 -8.652713e+000 82 61 40
4.411376e+000 -1.901536e+000 -9.185710e+000 92 72 47
3.844498e+000 1.645180e+000 -1.046754e+001 120 81 42
-1.544996e+000 9.520469e-001 -8.160644e+000 158 130 81
-1.538626e+000 9.634220e-001 -8.146901e+000 158 130 81
-1.165600e+000 1.080171e+000 -7.970124e+000 118 97 58
1.618907e+000 1.239667e+000 -9.014520e+000 59 36 29
2.020289e+000 1.071599e+000 -8.926940e+000 55 36 30
1.856431e+000 9.059745e-001 -8.691270e+000 60 35 32
-2.206228e-001 6.934421e-001 -7.766175e+000 48 68 53
1.606954e+000 7.912218e-001 -8.493965e+000 19 44 51
1.839090e+000 8.062630e-001 -8.587656e+000 68 21 17
2.088918e+000 8.098125e-001 -8.684262e+000 74 48 35
-5.789785e-001 6.165733e-001 -7.569482e+000 118 23 24
9.867153e-001 6.809931e-001 -8.167903e+000 125 103 64
1.935314e+000 7.586757e-001 -8.580249e+000 113 57 45
2.041079e+000 7.682935e-001 -8.641134e+000 88 59 50
2.035326e+000 7.778650e-001 -8.629665e+000 88 59 50
2.373276e+000 6.769426e-001 -8.669042e+000 125 89 67
2.499761e+000 4.333016e-001 -8.622874e+000 130 85 46
2.788189e+000 4.267905e-001 -8.735539e+000 138 96 46
3.541729e+000 -3.504943e+000 -1.108944e+001 95 80 59
4.137237e+000 -2.102714e+000 -9.799898e+000 96 75 52
4.212418e+000 -1.896269e+000 -9.688659e+000 115 95 72
4.676250e+000 -1.228101e+000 -8.602264e+000 98 78 54
3.824445e+000 1.703075e+000 -1.047074e+001 26 14 16
7.093616e-001 1.365491e+000 -8.902956e+000 119 104 63
-2.960985e-001 1.224537e+000 -8.368026e+000 15 39 18
-2.960985e-001 1.224537e+000 -8.368026e+000 15 39 18
2.202366e+000 1.175135e+000 -9.158067e+000 66 44 30
-5.245791e-001 8.831699e-001 -7.863735e+000 129 24 23
1.070337e+000 8.785127e-001 -8.384105e+000 119 25 24
1.070721e+000 8.777400e-001 -8.385037e+000 119 25 24
1.862408e+000 6.168116e-001 -8.465087e+000 135 91 44
1.505328e+000 5.465244e-001 -8.264165e+000 99 10 11
3.508438e+000 -3.508495e+000 -1.117131e+001 117 101 78
4.253251e+000 -1.785014e+000 -9.581260e+000 114 98 72
4.167912e+000 -2.823633e+000 -9.806209e+000 130 110 81
4.932818e+000 -3.985782e-001 -8.029802e+000 84 59 40
4.386710e+000 -2.611008e+000 -9.250177e+000 100 79 55
1.907396e+000 1.530749e+000 -9.593752e+000 13 36 46
6.856446e-001 1.382392e+000 -8.938073e+000 123 104 64
-1.863751e-001 1.107377e+000 -8.278068e+000 128 106 16
-6.583386e-001 1.035615e+000 -8.045060e+000 124 19 23
-6.583386e-001 1.035615e+000 -8.045060e+000 124 19 23
2.642732e+000 1.030252e+000 -9.114281e+000 50 30 29
-6.027021e-001 7.004018e-001 -7.639958e+000 112 19 16
-5.791757e-001 6.491765e-001 -7.595693e+000 120 25 25
4.727187e+000 -5.311411e-001 -8.543974e+000 38 27 23
1.471947e+000 1.244460e+000 -8.949724e+000 17 39 51
1.471947e+000 1.244460e+000 -8.949724e+000 17 39 51
-1.342009e+000 7.807904e-001 -7.799840e+000 162 131 86
1.197830e+000 8.970434e-001 -8.468520e+000 106 13 17
2.984974e+000 1.570349e+000 -1.017983e+001 27 9 12
8.910533e-002 1.232061e+000 -8.498248e+000 124 106 38
1.364049e+000 1.144385e+000 -8.864662e+000 15 42 53
-2.996617e-001 9.946427e-001 -8.114810e+000 131 109 32
1.409784e+000 1.041706e+000 -8.694971e+000 16 43 54
-2.005259e-001 7.945091e-001 -7.890494e+000 129 107 42
6.018042e-001 1.343955e+000 -8.782884e+000 114 50 36
9.163610e-001 9.894446e-001 -8.478156e+000 123 105 68
-3.383762e-001 6.860040e-001 -7.746170e+000 34 61 56
9.038789e-002 6.547383e-001 -7.778697e+000 20 38 19
1.166165e+000 6.779604e-001 -8.257716e+000 127 110 67
-1.287541e+000 6.911844e-001 -7.692817e+000 159 134 80
3.158766e+000 -9.154895e-002 -9.237682e+000 153 106 54
8.689468e-001 1.450815e+000 -9.310871e+000 117 97 60
2.788564e+000 1.382105e+000 -9.601283e+000 112 74 37
4.325197e+000 7.607949e-001 -9.460104e+000 32 22 23
3.824426e+000 1.654280e+000 -1.054184e+001 70 19 6
1.972821e+000 1.489060e+000 -9.537653e+000 19 37 37
2.007462e+000 1.484591e+000 -9.542275e+000 46 59 52
2.054010e+000 1.465592e+000 -9.584539e+000 20 40 39
2.046594e+000 1.477857e+000 -9.567012e+000 20 40 39
-3.890044e-001 1.210625e+000 -8.334467e+000 121 99 9
-2.876600e-001 1.190981e+000 -8.335655e+000 60 71 24
-1.444057e+000 9.174640e-001 -7.976448e+000 153 128 87
-1.292288e+000 9.475976e-001 -7.851208e+000 69 43 17
2.626255e+000 1.197689e+000 -9.354674e+000 75 57 47
-1.440027e+000 7.658776e-001 -7.861076e+000 100 75 45
-3.657298e-001 9.271670e-001 -8.030254e+000 107 101 9
-1.341496e+000 7.456577e-001 -7.759973e+000 152 125 78
1.936018e+000 1.028114e+000 -8.861915e+000 54 35 31
1.936018e+000 1.028114e+000 -8.861915e+000 54 35 31
-1.331002e+000 6.247653e-001 -7.707534e+000 162 135 95
-3.448589e-001 1.094614e+000 -7.537487e+000 109 97 17
-2.342785e-001 8.565104e-001 -7.811584e+000 120 104 38
1.539343e+000 8.963094e-001 -8.594142e+000 110 110 80
1.539343e+000 8.963094e-001 -8.594142e+000 110 110 80
8.269877e-001 7.776238e-001 -8.204589e+000 119 107 56
8.269877e-001 7.776238e-001 -8.204589e+000 119 107 56
2.363498e+000 8.782786e-001 -8.867634e+000 93 72 52
2.391003e+000 8.452937e-001 -8.861102e+000 101 79 60
2.237911e+000 7.876561e-001 -8.698570e+000 52 19 17
3.339460e+000 7.014972e-001 -9.108569e+000 90 18 19
-4.735215e-001 6.257258e-001 -7.586460e+000 120 25 21
-4.735215e-001 6.257258e-001 -7.586460e+000 120 25 21
-4.508895e-001 5.742494e-001 -7.557809e+000 117 25 19
-4.508895e-001 5.742494e-001 -7.557809e+000 117 25 19
3.204657e+000 6.260357e-001 -8.986833e+000 10 39 52
3.527940e+000 5.961611e-001 -9.097022e+000 134 86 45
1.632355e+000 5.329452e-001 -8.313297e+000 23 30 34
2.776902e+000 4.546879e-001 -8.757235e+000 104 58 10
3.967571e+000 5.438158e-001 -9.227439e+000 136 68 32
4.178278e+000 -1.944094e+000 -9.683844e+000 94 77 55
1.991075e+000 1.507276e+000 -9.610250e+000 56 68 65
2.089801e+000 1.427855e+000 -9.481015e+000 17 42 48
-2.879836e-001 1.224445e+000 -8.365590e+000 15 33 6
2.189875e+000 1.230795e+000 -9.150052e+000 119 94 64
-1.248250e+000 7.385589e-001 -7.689401e+000 157 132 91
2.578860e+000 1.037625e+000 -9.124773e+000 96 73 53
-1.267678e+000 6.546243e-001 -7.653125e+000 161 136 84
1.909747e+000 8.781474e-001 -8.669334e+000 69 26 22
2.785162e+000 8.540614e-001 -9.034161e+000 83 61 48
3.211411e+000 8.063620e-001 -9.112800e+000 13 38 57
-2.463740e-001 6.595642e-001 -7.730013e+000 109 96 25
4.021451e+000 7.823136e-001 -9.456903e+000 117 92 53
4.203188e+000 7.942621e-001 -9.482270e+000 97 42 29
1.935991e+000 5.915081e-001 -8.455050e+000 125 68 48
4.052187e+000 -2.291184e+000 -9.993298e+000 95 80 57
4.510394e+000 -1.875199e+000 -9.008015e+000 128 106 82
4.345473e+000 -2.947647e+000 -9.298367e+000 102 85 57
4.892635e+000 -1.156731e+000 -8.096640e+000 116 96 72
3.202098e+000 1.441531e+000 -9.908775e+000 85 44 14
-2.847468e-001 1.092637e+000 -8.202380e+000 21 35 20
-1.390624e+000 8.110806e-001 -7.854402e+000 132 105 75
-1.251292e+000 7.814472e-001 -7.715423e+000 155 133 86
1.038636e+000 8.549280e-001 -8.360022e+000 123 100 64
1.037591e+000 8.566637e-001 -8.357890e+000 123 100 64
-5.125878e-001 7.430762e-001 -7.723271e+000 124 20 23
2.025228e+000 8.307654e-001 -8.687695e+000 82 50 40
2.791778e+000 4.208156e-001 -8.741532e+000 141 97 37
3.604388e+000 -3.177277e+000 -1.086562e+001 125 111 86
4.142212e+000 -1.950644e+000 -9.794843e+000 44 35 23
3.324389e+000 1.607431e+000 -1.026741e+001 108 74 37
1.286658e+000 1.031132e+000 -8.651442e+000 104 14 15
1.354104e+000 9.694989e-001 -8.596222e+000 111 33 23
4.151340e+000 9.116680e-001 -9.669154e+000 108 63 28
2.059394e+000 8.489559e-001 -8.705710e+000 52 23 17
-1.553195e+000 -1.786661e-001 -7.848199e+000 27 21 25
2.003279e+000 6.340639e-001 -8.505480e+000 57 20 17
-3.757244e-001 5.497930e-001 -7.546305e+000 125 24 24
4.078594e+000 -2.092876e+000 -9.941835e+000 35 28 23
4.295389e+000 -1.625112e+000 -9.510615e+000 45 35 30
4.554704e+000 -1.022987e+000 -8.903998e+000 112 94 74
2.825809e+000 1.558305e+000 -9.978413e+000 70 32 12
2.826055e+000 1.514648e+000 -9.876976e+000 90 46 18
7.953102e-001 1.316486e+000 -8.846674e+000 127 84 59
-1.522483e+000 8.607948e-001 -8.007470e+000 158 127 83
2.684955e+000 9.240834e-001 -9.008162e+000 55 36 29
9.727642e-001 5.425797e-001 -8.066328e+000 114 51 33
4.836027e+000 -2.179754e-001 -8.183233e+000 125 103 82
2.049880e+000 1.521791e+000 -9.627961e+000 18 39 48
-1.262225e+000 6.063776e-001 -7.638967e+000 161 138 90
-1.310181e+000 9.259215e-001 -7.847452e+000 148 127 85
4.325277e+000 2.810084e-001 -9.292062e+000 29 22 19
1.760504e-001 1.349358e+000 -8.688003e+000 115 102 57
2.123744e-001 8.046105e-001 -8.049006e+000 22 34 21
2.541412e+000 7.878077e-001 -8.831896e+000 94 66 44
3.794997e+000 -5.016573e+000 -1.056179e+001 125 109 74
2.246759e+000 1.495928e+000 -9.616084e+000 117 79 40
3.102526e+000 1.639425e+000 -1.012424e+001 90 56 20
4.131469e-001 1.256061e+000 -8.595145e+000 119 103 60
4.976777e-001 1.094445e+000 -8.448403e+000 124 105 62
4.475519e+000 -1.234350e+000 -8.975240e+000 109 89 64
2.057802e+000 6.703901e-001 -8.482284e+000 77 40 35
-3.714645e-001 1.138413e+000 -8.235626e+000 26 39 19
-3.691647e-001 1.128640e+000 -8.246763e+000 26 39 19
3.364773e+000 1.062800e+000 -9.774262e+000 114 79 41
-1.347117e+001 -3.525595e+001 -4.709584e+001 128 109 104
-1.262085e+001 -3.531545e+001 -4.674855e+001 158 139 137
-1.366596e+001 -3.590648e+001 -4.838115e+001 132 113 107
-1.159056e+001 -3.856634e+001 -4.345396e+001 67 60 72
-1.956560e+001 -3.795502e+001 -4.817264e+001 125 106 109
-1.893652e+001 -3.886250e+001 -4.543786e+001 147 131 136
-2.106382e+001 -3.923363e+001 -4.765652e+001 143 126 144
-1.856547e+001 -3.706890e+001 -4.583112e+001 59 60 101
-2.028263e+001 -3.767322e+001 -4.366949e+001 254 254 253
-1.901686e+001 -4.021690e+001 -4.554695e+001 144 127 135
-1.689039e+001 -3.677612e+001 -4.546935e+001 253 254 254
-2.015897e+001 -3.866609e+001 -4.714543e+001 151 128 132
-2.088977e+001 -3.876913e+001 -4.597666e+001 76 81 136
-1.411012e+001 -4.104950e+001 -4.126716e+001 54 66 115
-1.682479e+001 -3.689335e+001 -3.477743e+001 254 254 254
7.458008e-001 1.403826e+000 -8.963434e+000 138 92 65
1.472148e+000 1.192622e+000 -8.891076e+000 22 39 51
2.582809e+000 9.945217e-001 -9.063756e+000 87 62 39
2.742885e+000 8.291138e-001 -8.956161e+000 52 26 20
4.322471e+000 -2.328024e+000 -9.394372e+000 101 80 53
-3.338804e-001 1.215546e+000 -8.351191e+000 23 34 20
2.051703e+000 1.399549e+000 -9.410518e+000 49 60 56
-2.387044e-001 1.109014e+000 -8.273793e+000 118 104 15
2.000633e+000 1.008855e+000 -8.874534e+000 99 77 64
2.000633e+000 1.008855e+000 -8.874534e+000 99 77 64
-6.108292e-001 7.944656e-001 -7.758341e+000 119 11 9
2.776723e+000 8.447292e-001 -8.975090e+000 82 63 51
1.935824e+000 6.490019e-001 -8.471667e+000 57 16 12
4.916093e+000 -8.939356e-001 -8.017351e+000 122 101 80
4.768887e+000 -1.709009e+000 -8.414647e+000 129 105 79
2.188491e+000 1.475296e+000 -9.574904e+000 114 82 44
8.364613e-001 7.759733e-001 -8.202531e+000 123 103 59
-7.101609e+000 -2.444500e+001 -3.001326e+001 58 61 91
8.001236e-001 1.282027e+000 -8.798342e+000 122 102 60
2.441395e+000 7.533054e-001 -8.760889e+000 101 73 50
1.691522e+000 1.149522e+000 -8.955048e+000 59 36 39
-1.850939e+001 -4.308377e+001 -4.090650e+001 52 52 88
2.302433e-001 1.103227e+000 -8.371125e+000 125 105 51
6.510272e-001 1.357704e+000 -8.869478e+000 122 100 64
6.510272e-001 1.357704e+000 -8.869478e+000 122 100 64
-3.604607e-001 1.209390e+000 -8.327567e+000 112 100 18
-2.435317e-001 1.265628e+000 -8.402328e+000 121 103 27
6.405520e-001 1.321283e+000 -8.794381e+000 129 93 66
6.387511e-001 1.319762e+000 -8.796769e+000 129 93 66
1.403194e+000 1.292428e+000 -9.045767e+000 123 106 74
2.701717e-001 1.557520e+000 -8.015857e+000 131 109 32
1.524603e+000 1.229891e+000 -8.976854e+000 132 78 44
-4.305066e-001 1.063073e+000 -8.089457e+000 104 106 12
1.255548e+000 1.172953e+000 -8.815889e+000 143 67 58
1.456161e+000 1.188750e+000 -8.915320e+000 119 112 80
-5.548234e-001 8.719306e-001 -7.911937e+000 145 93 64
-5.548234e-001 8.719306e-001 -7.911937e+000 145 93 64
1.200289e+000 9.686978e-001 -8.565336e+000 147 112 60
2.425902e+000 9.067611e-001 -8.914075e+000 23 6 3
-5.550964e-001 7.693126e-001 -7.743042e+000 117 15 15
-5.544644e-001 7.703318e-001 -7.742354e+000 117 15 15
-5.260787e-001 7.185926e-001 -7.673064e+000 105 19 10
2.171113e-002 7.238619e-001 -8.017401e+000 17 30 15
7.282412e-001 7.944184e-001 -8.190048e+000 118 16 17
4.768051e-003 6.239530e-001 -7.746259e+000 131 104 25
4.261960e+000 5.613539e-001 -9.326658e+000 94 26 6
4.261960e+000 5.613539e-001 -9.326658e+000 94 26 6
6.408330e-001 1.361049e+000 -8.861502e+000 127 96 62
2.559400e+000 1.437448e+000 -9.649529e+000 111 56 36
1.610226e+000 1.210429e+000 -8.960500e+000 130 74 46
2.520985e+000 1.277277e+000 -9.382467e+000 115 79 61
2.574890e+000 1.225746e+000 -9.349377e+000 57 38 30
2.589800e+000 1.197231e+000 -9.319866e+000 53 30 26
-7.227662e-001 9.793966e-001 -7.955380e+000 140 102 57
-5.958824e-001 8.699236e-001 -7.887042e+000 142 95 59
2.370452e+000 1.041271e+000 -9.029307e+000 96 77 55
2.557608e+000 8.093551e-001 -8.869100e+000 103 75 53
-1.297293e-001 7.120345e-001 -7.809513e+000 20 33 22
2.175065e+000 5.775752e-001 -8.570011e+000 56 18 15
4.200069e+000 -1.972750e+000 -9.657058e+000 110 92 68
4.229157e+000 -2.610655e+000 -9.476802e+000 128 108 81
-1.172464e+000 1.135700e+000 -7.953870e+000 113 95 59
1.948704e+000 1.179669e+000 -9.046519e+000 53 34 28
-1.391090e+000 8.117387e-001 -7.853492e+000 132 105 75
-1.323467e+000 7.407893e-001 -7.772147e+000 159 131 86
1.348459e-001 8.267934e-001 -8.028359e+000 119 99 15
1.348459e-001 8.267934e-001 -8.028359e+000 119 99 15
-5.172692e-001 6.038498e-001 -7.547841e+000 122 16 20
4.388710e+000 -1.429330e+000 -9.265174e+000 122 105 80
4.549271e+000 -1.108532e+000 -8.919487e+000 95 77 55
1.518442e+000 1.311257e+000 -9.102165e+000 62 12 15
1.443991e+000 1.157077e+000 -8.847680e+000 47 40 19
2.187987e+000 1.279184e+000 -9.218774e+000 113 88 58
2.638068e+000 1.437844e+000 -9.706359e+000 88 39 19
1.213926e+000 9.899689e-001 -8.573299e+000 95 25 15
1.195205e+000 1.036956e+000 -8.639381e+000 120 58 38
9.550658e-001 9.851258e-001 -8.500657e+000 120 99 65
2.967134e+000 1.545278e+000 -9.998657e+000 92 52 16
2.981364e+000 1.531618e+000 -1.002273e+001 92 52 16
2.000952e+000 1.527987e+000 -9.674655e+000 10 32 31
4.657466e-002 1.430635e+000 -8.764122e+000 111 103 23
1.983170e+000 1.473730e+000 -9.611124e+000 12 34 40
-5.023899e-002 1.357025e+000 -8.580273e+000 29 32 12
2.865327e+000 1.482534e+000 -9.840661e+000 77 38 10
-3.420375e-001 1.189235e+000 -8.319318e+000 58 74 40
-2.863224e-001 1.185846e+000 -8.339500e+000 65 72 50
2.440342e+000 1.341156e+000 -9.478246e+000 51 12 5
1.374977e+000 1.241692e+000 -8.951252e+000 118 119 91
2.589416e+000 1.263691e+000 -9.386193e+000 68 46 41
-2.272908e-001 1.071452e+000 -8.237949e+000 82 81 67
1.436802e+000 1.180393e+000 -8.880973e+000 16 45 49
1.451497e+000 1.164760e+000 -8.869059e+000 111 108 83
1.784511e+000 1.159994e+000 -8.979358e+000 102 60 51
1.784511e+000 1.159994e+000 -8.979358e+000 102 60 51
2.337721e+000 1.055284e+000 -9.053989e+000 98 76 67
2.649151e+000 1.147634e+000 -9.275936e+000 74 54 49
2.649151e+000 1.147634e+000 -9.275936e+000 74 54 49
1.983564e+000 9.916127e-001 -8.848382e+000 50 31 27
2.494486e+000 9.702568e-001 -9.021366e+000 95 72 54
-1.184107e+000 7.193982e-001 -7.618739e+000 85 62 27
1.948271e+000 8.582525e-001 -8.683329e+000 102 62 52
1.948271e+000 8.582525e-001 -8.683329e+000 102 62 52
-5.150285e-001 7.783963e-001 -7.738768e+000 116 20 17
1.068978e+000 7.947546e-001 -8.299238e+000 127 104 68
-5.081068e-001 6.106990e-001 -7.548190e+000 130 22 25
-3.477796e-001 5.997531e-001 -7.522150e+000 129 115 80
-3.477796e-001 5.997531e-001 -7.522150e+000 129 115 80
2.863827e+000 5.632844e-001 -8.775433e+000 133 102 56
4.410985e+000 5.232662e-001 -9.380679e+000 31 17 17
4.373026e+000 -1.474933e+000 -9.255933e+000 102 85 62
5.022714e+000 3.151062e-001 -7.674204e+000 78 59 52
9.831400e-001 1.453592e+000 -9.528579e+000 103 26 21
3.270099e+000 1.530318e+000 -1.053971e+001 95 63 43
2.868358e+000 1.495389e+000 -9.908359e+000 84 42 17
6.439388e-001 1.358217e+000 -8.862490e+000 125 101 65
6.439388e-001 1.358217e+000 -8.862490e+000 125 101 65
2.030914e+000 1.455436e+000 -9.508126e+000 49 67 70
2.030914e+000 1.455436e+000 -9.508126e+000 49 67 70
3.082450e+000 1.498178e+000 -9.952377e+000 57 21 25
2.183978e+000 1.325735e+000 -9.341937e+000 116 88 64
1.420081e+000 1.208986e+000 -8.913690e+000 15 38 53
-7.817288e-001 1.069165e+000 -8.039027e+000 125 69 57
2.646910e+000 1.162976e+000 -9.329745e+000 74 50 45
-1.359399e+000 8.293646e-001 -7.846798e+000 159 137 100
-7.006532e-001 9.312584e-001 -7.907168e+000 130 111 65
1.963643e+000 1.042500e+000 -8.932422e+000 47 27 28
2.669743e+000 1.098628e+000 -9.180734e+000 71 52 46
2.288248e-001 9.752258e-001 -8.223129e+000 20 37 17
1.942553e+000 1.010408e+000 -8.841420e+000 71 52 46
1.965401e+000 9.619227e-001 -8.798048e+000 69 50 44
-5.040490e-001 7.835724e-001 -7.778226e+000 145 89 59
-5.040490e-001 7.835724e-001 -7.778226e+000 145 89 59
-3.350893e-001 8.297533e-001 -7.878551e+000 107 95 13
-3.123299e-001 8.115441e-001 -7.871527e+000 20 33 17
1.276356e+000 9.250951e-001 -8.502558e+000 145 100 61
2.756538e+000 8.985738e-001 -9.012998e+000 75 55 49
-1.307529e+000 4.916530e-001 -7.619443e+000 166 142 98
-1.306650e+000 4.932669e-001 -7.617831e+000 166 142 98
-1.264641e+000 4.975472e-001 -7.594725e+000 168 144 100
-5.365784e-001 7.538877e-001 -7.737164e+000 139 110 70
-3.227388e-001 7.759274e-001 -7.838543e+000 111 106 25
2.610319e+000 6.719786e-001 -8.748671e+000 62 25 19
2.735847e+000 7.406161e-001 -8.873134e+000 47 18 14
4.119475e+000 6.552467e-001 -9.346012e+000 143 104 68
-2.963319e-001 6.469670e-001 -7.624810e+000 20 35 16
2.108898e+000 6.323014e-001 -8.534049e+000 75 34 31
-2.558615e-001 4.720679e-001 -7.549417e+000 18 38 23
4.892854e+000 -8.648949e-002 -8.075837e+000 120 103 86
5.067081e+000 3.692981e-001 -7.544156e+000 119 100 86
1.322453e+000 1.478349e+000 -9.682962e+000 81 20 15
2.869392e+000 1.599064e+000 -1.019167e+001 84 49 22
2.101658e+000 1.400468e+000 -9.433820e+000 10 38 45
2.653917e+000 1.423827e+000 -9.650899e+000 114 79 41
-3.813847e-001 1.190674e+000 -8.311904e+000 50 68 64
-1.365779e+000 8.818296e-001 -7.865395e+000 154 132 90
2.038505e+000 1.150666e+000 -9.035675e+000 59 40 33
-1.299625e+000 8.856210e-001 -7.817254e+000 154 133 87
-1.301388e+000 8.842527e-001 -7.816964e+000 154 133 87
2.100440e+000 1.113783e+000 -9.051199e+000 98 75 54
2.716741e+000 1.093035e+000 -9.231342e+000 50 32 31
-1.577979e+000 4.940175e-001 -7.826815e+000 139 109 71
2.065245e+000 9.620169e-001 -8.839136e+000 54 34 33
-1.285188e+000 6.700136e-001 -7.680286e+000 163 139 101
1.800995e+000 8.800673e-001 -8.638369e+000 57 17 21
7.555648e-001 7.613114e-001 -8.161194e+000 119 110 75
2.072477e+000 7.816323e-001 -8.654583e+000 55 31 29
2.978129e+000 7.580928e-001 -8.973208e+000 23 16 13
2.979394e+000 7.565348e-001 -8.972861e+000 23 16 13
3.896521e+000 7.192517e-001 -9.304768e+000 138 110 71
1.164985e-001 5.503299e-001 -7.757701e+000 19 40 25
4.046666e+000 -2.002919e+000 -9.799474e+000 112 102 83
4.172108e+000 -1.849798e+000 -9.710496e+000 37 29 23
4.216438e+000 -1.903894e+000 -9.686182e+000 109 97 75
4.260790e+000 -1.711433e+000 -9.580116e+000 35 26 28
4.152960e+000 -1.817941e+000 -9.562224e+000 92 81 61
4.326002e+000 -1.614866e+000 -9.430717e+000 122 109 89
4.602144e+000 -8.860355e-001 -8.789794e+000 122 105 87
4.927652e+000 -1.433328e-002 -8.009698e+000 122 106 91
4.817937e+000 1.593929e-001 -7.922908e+000 43 32 29
4.943461e+000 -2.002506e-001 -7.862095e+000 127 109 89
5.037055e+000 4.052222e-001 -7.634982e+000 125 108 90
3.848214e+000 1.563233e+000 -1.078660e+001 119 63 25
2.034327e+000 1.514120e+000 -9.668165e+000 16 39 56
3.250928e+000 1.528658e+000 -1.004498e+001 107 72 42
2.505593e+000 1.310169e+000 -9.412300e+000 113 77 61
1.218691e+000 1.152275e+000 -8.736202e+000 103 23 22
-4.979458e-001 8.022387e-001 -7.815085e+000 127 26 29
-4.975686e-001 8.023880e-001 -7.815519e+000 127 26 29
2.023598e+000 8.510159e-001 -8.742688e+000 106 78 66
2.023598e+000 8.510159e-001 -8.742688e+000 106 78 66
2.054139e+000 8.499447e-001 -8.702403e+000 46 17 13
2.812168e+000 8.444539e-001 -8.957538e+000 57 34 39
1.871708e+000 7.191082e-001 -8.537863e+000 75 30 27
2.520616e+000 7.002950e-001 -8.696822e+000 104 78 56
2.520616e+000 7.002950e-001 -8.696822e+000 104 78 56
2.602232e+000 3.771294e-001 -8.638900e+000 39 12 12
4.577320e+000 -9.682669e-001 -8.854084e+000 113 97 78
4.969798e+000 1.637759e-001 -7.847482e+000 113 99 83
5.002902e+000 2.125393e-001 -7.789468e+000 98 80 65
5.006348e+000 3.309498e-001 -7.760653e+000 39 29 27
5.013081e+000 3.265723e-001 -7.710779e+000 117 100 85
5.067363e+000 4.175722e-001 -7.608754e+000 120 100 83
1.077800e+000 1.381863e+000 -9.401893e+000 105 25 20
3.093380e+000 1.596355e+000 -1.023868e+001 101 71 42
-7.269671e-001 9.547961e-001 -7.925256e+000 128 24 26
1.475683e+000 1.086117e+000 -8.776861e+000 93 93 77
1.779209e+000 9.676254e-001 -8.738133e+000 47 32 34
2.870801e+000 7.536152e-001 -8.953011e+000 64 33 32
1.934845e+000 5.417264e-001 -8.437586e+000 73 27 19
1.935157e+000 5.429453e-001 -8.437452e+000 73 27 19
4.132390e+000 3.936170e-001 -9.243611e+000 151 71 23
4.394527e+000 -1.343140e+000 -9.265211e+000 39 34 33
5.058544e+000 3.187117e-001 -7.624913e+000 75 56 42
1.403311e+000 1.493943e+000 -9.642741e+000 100 43 26
1.890163e+000 1.462980e+000 -9.473957e+000 16 44 56
6.792513e-001 1.289087e+000 -8.759154e+000 117 100 70
-2.378543e-001 1.187481e+000 -8.353936e+000 121 108 39
-1.245691e+000 7.428404e-001 -7.684738e+000 157 135 86
1.584206e+000 8.569697e-001 -8.585727e+000 100 105 78
1.584206e+000 8.569697e-001 -8.585727e+000 100 105 78
2.464444e+000 3.704041e-001 -8.599174e+000 35 11 16
4.795145e+000 -3.127556e-001 -8.355599e+000 39 29 27
2.616323e-002 1.125651e+000 -8.384526e+000 20 37 15
9.384145e-001 9.820713e-001 -8.494200e+000 122 111 75
2.416075e+000 5.262369e-001 -8.578430e+000 130 88 45
3.244885e+000 5.359937e-001 -8.939982e+000 16 50 62
1.038577e+000 1.471453e+000 -9.513275e+000 96 25 19
1.477093e+000 1.514529e+000 -9.514337e+000 113 54 37
2.173898e+000 1.100649e+000 -9.040865e+000 105 75 58
2.557423e+000 9.021712e-001 -8.918432e+000 104 76 55
-4.924090e-001 6.065381e-001 -7.565001e+000 157 95 66
3.179607e+000 1.453782e+000 -1.005101e+001 28 10 10
1.344768e+000 6.081955e-001 -8.219671e+000 114 16 17
1.654144e-001 5.017354e-001 -7.750843e+000 24 43 16
3.452963e-001 6.049379e-001 -7.850950e+000 63 66 19
3.551740e+000 4.486661e-001 -9.094540e+000 128 73 38
3.857576e-001 1.342146e+000 -8.702036e+000 122 107 68
2.947197e+000 1.216934e+000 -9.807668e+000 112 77 45
2.947197e+000 1.216934e+000 -9.807668e+000 112 77 45
3.999489e+000 6.161752e-001 -9.262999e+000 125 69 36
3.999489e+000 6.161752e-001 -9.262999e+000 125 69 36
2.439870e+000 1.410458e+000 -1.007078e+001 101 72 42
-7.752262e-001 1.117984e+000 -8.853172e+000 91 88 68
2.020640e+000 1.510730e+000 -9.573653e+000 23 41 45
2.036975e+000 1.491082e+000 -9.522705e+000 18 37 42
2.036975e+000 1.491082e+000 -9.522705e+000 18 37 42
5.665700e-001 1.349647e+000 -8.784981e+000 132 98 73
6.337154e-001 1.370027e+000 -8.851474e+000 129 97 57
6.337154e-001 1.370027e+000 -8.851474e+000 129 97 57
-3.299259e-001 1.197107e+000 -8.339467e+000 110 104 35
-5.975343e-001 1.046317e+000 -8.088285e+000 116 29 18
-1.382637e+000 7.998351e-001 -7.833591e+000 153 128 92
-1.264853e+000 8.728444e-001 -7.765652e+000 154 131 91
1.187964e+000 1.088382e+000 -8.663785e+000 102 19 15
1.188344e+000 1.056878e+000 -8.659533e+000 156 104 82
1.475872e+000 1.035281e+000 -8.713061e+000 107 103 76
2.033121e+000 1.011387e+000 -8.896306e+000 44 24 20
2.039607e+000 1.001228e+000 -8.864681e+000 53 34 32
2.042961e+000 9.951082e-001 -8.869905e+000 53 34 32
-1.263820e+000 4.989697e-001 -7.594593e+000 170 145 104
-1.225499e+000 4.884000e-001 -7.579035e+000 170 146 101
2.018830e+000 9.188062e-001 -8.761693e+000 51 33 31
2.108094e+000 6.630247e-001 -8.569306e+000 89 48 45
4.694152e+000 -1.312086e+000 -8.588839e+000 129 111 87
5.086219e+000 3.486711e-001 -7.623358e+000 78 61 44
1.968593e+000 1.528396e+000 -9.632684e+000 41 55 57
1.965096e+000 1.534741e+000 -9.627247e+000 41 55 57
3.235193e+000 1.617827e+000 -1.032884e+001 93 58 39
2.063423e+000 1.496945e+000 -9.580777e+000 48 66 67
1.387163e+000 1.270843e+000 -8.969889e+000 15 40 46
6.063178e-001 1.020572e+000 -8.377727e+000 126 108 74
1.221721e+000 1.023964e+000 -8.609365e+000 105 18 17
2.637943e+000 1.139336e+000 -9.148543e+000 79 58 57
-5.546344e-001 8.293433e-001 -7.835013e+000 115 29 24
1.261237e+000 9.488843e-001 -8.533111e+000 144 96 59
2.448811e+000 1.038524e+000 -9.019921e+000 101 79 58
2.510457e+000 9.485195e-001 -9.048095e+000 103 80 65
-5.652232e-001 7.396812e-001 -7.716878e+000 147 104 70
2.501950e+000 8.496770e-001 -8.885481e+000 104 79 63
2.667316e+000 8.550667e-001 -8.935995e+000 56 26 16
2.160859e+000 7.947311e-001 -8.706964e+000 102 82 68
2.158393e+000 7.993829e-001 -8.703760e+000 102 82 68
3.012474e+000 7.660639e-001 -8.984316e+000 77 69 55
3.915030e+000 8.165308e-001 -9.432753e+000 119 59 25
3.967108e+000 8.131982e-001 -9.455640e+000 127 63 31
1.847363e+000 6.904245e-001 -8.494123e+000 129 78 51
1.952345e+000 6.191309e-001 -8.494942e+000 59 14 7
2.050010e+000 6.250020e-001 -8.535972e+000 50 15 13
2.259760e+000 6.185093e-001 -8.623238e+000 49 13 12
3.060722e+000 6.346881e-001 -8.917550e+000 93 82 76
3.926269e+000 6.605710e-001 -9.287347e+000 114 43 16
1.019637e+000 5.453839e-001 -8.090527e+000 138 115 83
4.427274e+000 2.958603e-001 -9.358528e+000 34 20 16
9.725496e-001 1.552343e+000 -9.296812e+000 97 21 20
2.004517e-001 1.435164e+000 -8.834013e+000 112 96 36
7.359517e-001 1.321863e+000 -8.825146e+000 123 107 71
2.515291e+000 1.451861e+000 -9.650110e+000 71 23 4
2.506909e+000 1.419939e+000 -9.601341e+000 97 37 29
2.890806e+000 1.508436e+000 -9.867906e+000 96 55 30
-3.809602e-001 1.191975e+000 -8.312812e+000 49 75 59
1.222560e+000 1.158469e+000 -8.760145e+000 97 14 11
-1.246912e+000 7.884319e-001 -7.709730e+000 157 133 95
-1.247509e+000 7.912595e-001 -7.707815e+000 157 133 95
-1.284071e+000 6.677698e-001 -7.682007e+000 161 138 97
1.372234e-001 8.916541e-001 -8.122487e+000 121 105 12
-6.283289e-001 7.155135e-001 -7.679602e+000 125 25 27
-6.283289e-001 7.155135e-001 -7.679602e+000 125 25 27
1.039060e+000 8.513401e-001 -8.362477e+000 128 112 75
1.671179e+000 5.126786e-001 -8.312741e+000 139 99 52
4.272481e+000 -1.801645e+000 -9.584850e+000 113 99 83
4.370232e+000 -1.498049e+000 -9.316348e+000 117 100 78
4.799634e+000 -3.224465e-001 -8.286892e+000 118 102 87
4.970500e+000 1.440086e-001 -7.913267e+000 34 21 19
5.115473e+000 4.198289e-001 -7.529521e+000 87 69 57
3.425160e+000 1.634431e+000 -1.032430e+001 96 65 36
3.149528e+000 1.467304e+000 -9.864763e+000 81 41 15
1.842899e+000 9.921687e-001 -8.769012e+000 95 52 46
1.844187e+000 9.918354e-001 -8.769587e+000 95 52 46
-6.032574e-001 6.927704e-001 -7.641477e+000 121 17 20
-5.414890e-001 5.350399e-001 -7.486272e+000 125 25 25
4.596340e+000 -9.632724e-001 -8.914791e+000 38 30 27
4.725145e+000 -6.696155e-001 -8.576547e+000 121 105 90
5.126159e+000 3.615987e-001 -7.698607e+000 40 29 27
9.818073e-001 1.484631e+000 -9.541221e+000 85 26 18
1.467550e+000 1.504084e+000 -9.729930e+000 80 17 10
1.007378e+000 1.464229e+000 -9.180011e+000 115 96 65
1.883470e+000 1.470140e+000 -9.413425e+000 11 37 50
1.821022e+000 1.427522e+000 -9.327143e+000 76 14 15
1.786182e+000 1.478671e+000 -9.273846e+000 76 14 15
2.447636e+000 1.289742e+000 -9.369510e+000 90 46 33
3.886569e+000 1.189013e+000 -9.807883e+000 113 80 49
2.299433e+000 1.050626e+000 -9.023008e+000 20 9 13
4.170823e+000 8.646219e-001 -9.602558e+000 108 59 25
4.130078e+000 6.298214e-001 -9.335567e+000 138 102 70
3.306067e+000 5.330928e-001 -8.980184e+000 13 50 69
4.375121e+000 -1.426675e+000 -9.339749e+000 41 35 36
4.491835e+000 -1.312857e+000 -9.226485e+000 32 27 23
5.115977e+000 5.188072e-001 -7.573793e+000 45 31 31
5.123007e+000 3.326552e-001 -7.519350e+000 114 92 78
1.381913e+000 1.532881e+000 -9.597057e+000 95 43 32
1.889010e+000 1.531969e+000 -9.589688e+000 16 40 51
3.351311e+000 1.624225e+000 -1.036003e+001 45 17 15
9.501290e-001 9.943713e-001 -8.492896e+000 122 106 72
-1.341970e+000 5.913149e-001 -7.705413e+000 135 111 75
2.453067e+000 5.756606e-001 -8.662047e+000 69 28 28
4.858299e+000 -2.936081e+000 -8.552024e+000 129 108 80
-1.277329e+000 8.281708e-001 -7.787544e+000 154 130 91
-4.710872e-001 9.406447e-001 -8.019784e+000 33 62 60
1.001111e-001 9.598938e-001 -8.183200e+000 25 36 19
1.722230e+000 9.188365e-001 -8.688127e+000 133 95 48
1.722230e+000 9.188365e-001 -8.688127e+000 133 95 48
4.032359e-002 5.662037e-001 -7.738596e+000 126 113 68
1.371472e+000 5.176811e-001 -8.264782e+000 115 11 18
1.371472e+000 5.176811e-001 -8.264782e+000 115 11 18
-1.359531e+000 9.467175e-001 -7.924651e+000 156 133 91
-6.644611e-001 1.004951e+000 -7.923768e+000 124 26 25
3.244158e+000 1.502667e+000 -1.106352e+001 28 22 26
-5.465581e-001 1.205401e+000 -9.317657e+000 92 88 53
-5.465581e-001 1.205401e+000 -9.317657e+000 92 88 53
-1.042249e+000 1.302693e+000 -8.957564e+000 98 30 20
-9.003423e-001 1.280048e+000 -9.038705e+000 103 96 43
-9.003423e-001 1.280048e+000 -9.038705e+000 103 96 43
5.572922e-001 1.346227e+000 -9.661801e+000 121 70 51
6.761202e-001 1.364240e+000 -9.680544e+000 95 49 32
9.284479e-001 1.528704e+000 -9.567017e+000 103 50 32
1.021951e+000 1.532712e+000 -9.547658e+000 86 22 13
3.593288e+000 1.467770e+000 -1.084639e+001 70 58 46
1.012936e+000 1.489504e+000 -9.239727e+000 123 32 29
1.946513e+000 1.551157e+000 -9.650417e+000 17 41 57
2.015573e+000 1.479955e+000 -9.546946e+000 50 73 76
2.028047e+000 1.457946e+000 -9.412903e+000 55 77 73
2.615337e+000 1.517427e+000 -9.620293e+000 133 89 50
-3.844322e-001 1.229034e+000 -8.347609e+000 13 33 18
1.318316e+000 1.348452e+000 -9.051249e+000 134 124 82
-1.383556e+000 7.955554e-001 -7.835348e+000 178 156 113
-1.328573e+000 9.192842e-001 -7.848381e+000 172 154 104
-4.299977e-001 1.067352e+000 -8.116676e+000 124 122 24
1.542938e+000 1.024216e+000 -8.745243e+000 24 54 75
-1.243605e+000 7.391678e-001 -7.686821e+000 178 159 119
-6.021599e-001 8.891374e-001 -7.866491e+000 158 126 85
1.227556e+000 9.176245e-001 -8.510954e+000 160 123 87
1.995633e+000 9.716167e-001 -8.861566e+000 57 37 39
2.008576e+000 9.848072e-001 -8.808069e+000 51 30 29
2.050983e+000 9.232558e-001 -8.800697e+000 69 47 50
2.521975e+000 1.217526e+000 -8.807632e+000 87 66 61
-1.753381e-001 5.853697e-001 -7.961543e+000 129 119 19
1.828404e+000 8.943468e-001 -8.664577e+000 121 76 74
1.925587e+000 8.027133e-001 -8.692169e+000 120 67 62
2.091146e+000 8.624213e-001 -8.735366e+000 48 20 17
-5.179517e-001 7.210327e-001 -7.703038e+000 146 118 70
2.065204e+000 7.167102e-001 -8.596116e+000 124 93 89
3.567723e+000 6.931924e-001 -9.124697e+000 148 75 33
2.117516e+000 5.638492e-001 -8.544786e+000 75 31 28
-3.433853e-001 5.499956e-001 -7.533347e+000 142 134 89
-6.058599e-001 1.327183e+000 -9.141907e+000 85 81 33
3.153023e-001 1.406749e+000 -9.444952e+000 82 18 18
9.576657e-001 1.413023e+000 -9.696173e+000 104 83 59
1.984324e+000 1.515606e+000 -9.604827e+000 48 68 68
3.808665e+000 1.668209e+000 -1.052381e+001 63 15 11
2.828212e+000 1.474121e+000 -9.849290e+000 122 80 42
2.970154e+000 1.562975e+000 -9.959219e+000 123 77 42
1.967446e+000 1.487656e+000 -9.362005e+000 17 45 58
1.382336e+000 1.279630e+000 -8.963537e+000 24 55 80
2.501150e+000 1.157421e+000 -9.491410e+000 136 102 75
-6.489102e-001 1.106071e+000 -7.967719e+000 140 27 31
1.055156e+000 9.721602e-001 -8.804504e+000 137 127 89
2.025557e+000 9.116214e-001 -8.788454e+000 68 44 54
2.042699e+000 8.824619e-001 -8.765380e+000 68 48 48
2.011224e+000 9.330013e-001 -8.732368e+000 68 48 48
3.146544e+000 8.488061e-001 -9.101748e+000 142 104 57
1.935020e+000 6.885010e-001 -8.525600e+000 71 17 16
1.972932e+000 5.834186e-001 -8.515114e+000 74 21 15
2.309600e+000 5.241756e-001 -8.587897e+000 63 28 34
2.761375e+000 3.915916e-001 -8.733764e+000 124 78 27
3.197756e+000 4.658722e-001 -8.909380e+000 16 59 82
-1.941165e-001 5.389202e-001 -7.611532e+000 131 122 32
-2.024073e-001 5.752554e-001 -7.595861e+000 131 122 32
-4.707796e-001 1.233161e+000 -9.321343e+000 86 87 54
1.225431e+000 1.280146e+000 -1.006434e+001 79 20 15
2.804532e+000 1.610744e+000 -1.011560e+001 81 43 22
-1.879962e+000 3.407058e-001 -8.681686e+000 123 104 81
6.971888e-001 1.500494e+000 -8.962887e+000 131 115 81
2.124791e+000 1.552538e+000 -9.498527e+000 133 97 47
2.199137e+000 1.498037e+000 -9.405640e+000 128 28 33
-1.339063e+000 8.459951e-001 -7.819722e+000 171 153 108
-1.106575e+000 9.910182e-001 -7.836770e+000 88 91 70
2.713121e+000 9.997556e-001 -9.102353e+000 86 65 62
2.786011e+000 9.748282e-001 -9.169312e+000 57 40 44
-1.588130e+000 3.014492e-002 -7.745209e+000 171 55 42
-4.858640e-001 6.905842e-001 -7.650312e+000 142 30 27
-4.850054e-001 6.856812e-001 -7.652283e+000 142 30 27
8.843580e-001 7.913060e-001 -8.117254e+000 139 130 91
2.868782e+000 6.910410e-001 -8.870731e+000 66 41 37
3.380237e+000 6.325415e-001 -9.104897e+000 140 97 62
4.193737e+000 7.460598e-001 -9.327479e+000 117 55 34
5.036695e+000 1.302681e-003 -7.950008e+000 126 110 96
9.633437e-001 1.421872e+000 -9.739230e+000 70 16 14
3.783000e+000 1.604068e+000 -1.072317e+001 118 68 33
1.019572e+000 1.497421e+000 -9.295780e+000 117 23 21
3.138140e+000 1.602711e+000 -1.017173e+001 95 61 24
-7.283711e-001 9.441530e-001 -7.929743e+000 133 27 24
2.486209e+000 6.914861e-001 -8.738163e+000 61 24 18
4.432092e+000 1.559739e-001 -9.400686e+000 30 21 22
-1.166598e-001 1.191704e+000 -9.521441e+000 98 89 69
-9.980299e-001 1.266850e+000 -8.980365e+000 112 98 69
-6.545355e-001 1.320376e+000 -9.111920e+000 30 34 14
-6.513347e-001 1.309094e+000 -9.121215e+000 30 34 14
1.306533e+000 1.093267e+000 -1.030363e+001 100 81 59
-9.193085e-001 1.233440e+000 -8.149859e+000 28 61 68
1.508084e+000 1.214044e+000 -9.225117e+000 22 36 55
7.949435e-001 1.316167e+000 -8.845784e+000 142 105 83
-1.299787e+000 7.412058e-001 -7.714091e+000 178 156 110
4.034167e+000 1.100533e+000 -9.733134e+000 133 78 44
2.152022e+000 9.327497e-001 -8.871742e+000 50 32 32
2.143166e+000 9.359205e-001 -8.713920e+000 77 58 64
-4.087915e-001 6.035627e-001 -7.592745e+000 139 25 28
4.128051e+000 3.073262e-001 -9.230506e+000 33 22 26
9.932717e-001 1.268533e+000 -9.998798e+000 118 75 58
1.242615e+000 1.418818e+000 -9.866609e+000 81 19 20
1.209000e+000 1.496188e+000 -9.704410e+000 101 60 39
1.209000e+000 1.496188e+000 -9.704410e+000 101 60 39
1.381014e+000 1.531639e+000 -9.597991e+000 119 62 50
-1.101920e+000 1.127716e+000 -7.959177e+000 114 109 89
6.283605e-001 1.184693e+000 -8.595943e+000 141 119 86
6.286047e-001 1.198184e+000 -8.590217e+000 141 119 86
8.576751e-001 1.186326e+000 -8.701343e+000 139 118 83
1.479290e-002 1.026698e+000 -8.246112e+000 142 134 59
1.479290e-002 1.026698e+000 -8.246112e+000 142 134 59
7.149350e-001 1.018045e+000 -8.375232e+000 132 119 84
7.149350e-001 1.018045e+000 -8.375232e+000 132 119 84
6.949965e-001 9.370946e-001 -8.341417e+000 142 32 29
-1.976914e-001 7.887081e-001 -7.891798e+000 134 124 68
-1.424297e-001 8.354917e-001 -7.910705e+000 27 42 23
2.118280e+000 1.087800e+000 -1.055098e+001 63 29 19
9.912064e-001 1.460054e+000 -9.190079e+000 128 113 82
6.460778e-001 1.192596e+000 -8.601439e+000 138 121 85
3.608622e-001 1.085387e+000 -8.336685e+000 31 44 26
4.024052e+000 1.040109e+000 -9.635480e+000 128 79 34
1.969715e+000 1.576526e+000 -9.728246e+000 104 73 43
-6.248378e-001 1.180747e+000 -8.237507e+000 86 97 89
2.551130e+000 9.032798e-001 -8.916146e+000 119 93 70
-4.938857e-001 6.132558e-001 -7.562585e+000 159 115 78
1.704959e+000 5.564707e-001 -8.400619e+000 17 57 82
2.265934e+000 1.473002e+000 -9.644132e+000 131 96 55
3.155452e+000 1.507862e+000 -1.000250e+001 32 17 17
2.515676e+000 1.409468e+000 -9.608447e+000 112 48 36
2.515676e+000 1.409468e+000 -9.608447e+000 112 48 36
3.596896e-002 9.227628e-001 -8.110558e+000 140 125 84
1.174919e+000 6.666207e-001 -8.263161e+000 145 130 91
1.672293e+000 5.622641e-001 -8.389703e+000 17 58 80
2.953864e+000 1.531685e+000 -1.048212e+001 89 58 37
3.121668e+000 1.629698e+000 -1.012984e+001 98 64 27
2.004473e+000 2.262967e-001 -8.506551e+000 158 123 70
2.916829e+000 4.126042e-001 -1.174965e+001 37 31 31
1.843100e+000 1.458426e+000 -9.839697e+000 67 12 21
4.116406e+000 5.106416e-001 -9.367374e+000 142 62 38
-2.214842e+001 -3.182907e+001 -4.843111e+001 175 156 149
-2.288778e+001 -3.477310e+001 -5.120982e+001 159 144 145
-2.279489e+001 -3.359246e+001 -4.995006e+001 66 60 112
-1.598521e+001 -3.905455e+001 -4.219247e+001 118 181 227
-1.926338e+001 -3.783667e+001 -4.606008e+001 124 104 95
-1.796974e+001 -3.723636e+001 -4.546357e+001 247 254 252
-1.490431e+001 -3.969275e+001 -4.252263e+001 212 255 254
-1.860416e+001 -4.108294e+001 -3.989535e+001 253 255 255
-1.413301e+001 -3.930089e+001 -4.078820e+001 33 34 64
-1.574874e+001 -3.846583e+001 -4.223340e+001 209 255 255
-1.793807e+001 -3.716032e+001 -4.539112e+001 250 254 255
-1.656163e+001 -5.546833e+001 -3.256373e+001 157 124 80
-1.918532e+001 -4.591879e+001 -4.335342e+001 119 103 97
-6.003399e+000 -5.647718e+001 -3.236279e+001 130 106 60
-5.942206e+000 -5.584075e+001 -3.120222e+001 145 114 68
-5.791971e+000 -5.836294e+001 -3.273343e+001 167 140 93
-5.633135e+000 -5.592345e+001 -3.027155e+001 144 116 68
-5.790452e+000 -5.434637e+001 -3.313916e+001 82 62 29
-5.671941e+000 -5.689501e+001 -3.321031e+001 73 55 25
-5.063993e+000 -5.862704e+001 -3.154909e+001 132 104 65
-1.913443e+000 -3.595761e+001 -2.375458e+001 123 106 77
-6.586947e+000 -5.278781e+001 -3.466525e+001 57 44 27
2.474495e+000 1.333125e+000 -9.440554e+000 77 46 28
1.962425e+000 1.022865e+000 -8.870706e+000 53 37 31
-6.128834e-001 7.834360e-001 -7.763676e+000 111 33 19
1.346267e+000 9.827713e-001 -8.625106e+000 99 18 15
3.770116e+000 1.615062e+000 -1.076971e+001 22 10 11
-6.108364e-001 9.108357e-001 -7.903217e+000 133 96 54
2.027904e+000 1.060370e+000 -8.950141e+000 62 44 40
2.003119e+000 9.602996e-001 -8.820781e+000 53 35 33
1.560283e+000 8.502752e-001 -8.550307e+000 91 98 83
1.560283e+000 8.502752e-001 -8.550307e+000 91 98 83
-5.023189e-001 6.605494e-001 -7.631243e+000 139 102 60
1.647003e+000 7.374504e-001 -8.461062e+000 111 110 90
2.210895e+000 6.912713e-001 -8.626142e+000 55 20 17
-5.738603e+000 -5.682510e+001 -3.263312e+001 147 124 80
4.706916e+000 -8.081214e-001 -8.650937e+000 89 73 63
2.968389e+000 1.578196e+000 -1.003655e+001 109 73 41
3.496399e-001 1.105644e+000 -8.408199e+000 125 110 30
3.496399e-001 1.105644e+000 -8.408199e+000 125 110 30
-5.200075e-001 6.940976e-001 -7.659022e+000 142 96 63
2.187352e+000 7.262420e-001 -8.647052e+000 102 73 64
4.128157e+000 6.216791e-001 -9.333809e+000 141 110 76
-5.466826e+000 -6.204643e+001 -2.776351e+001 49 35 21
-5.060787e+000 -6.168103e+001 -2.765575e+001 76 61 46
2.055462e+000 6.799895e-001 -8.574348e+000 54 21 17
-5.155060e+000 -6.058401e+001 -2.836594e+001 118 97 76
-5.220329e+000 -6.186702e+001 -2.831984e+001 58 42 24
-7.376818e+000 -6.378795e+001 -2.605513e+001 31 21 20
-7.509852e+000 -6.003333e+001 -2.165102e+001 116 82 40
-4.963746e+000 -6.054707e+001 -2.879168e+001 95 77 52
4.667987e+000 -7.999733e-001 -8.698907e+000 99 83 64
-8.165403e+000 -5.911575e+001 -2.439945e+001 130 103 72
-1.305702e+001 -6.004116e+001 -2.665629e+001 166 128 81
-9.471778e+000 -6.161341e+001 -2.633123e+001 106 80 48
-7.211120e+000 -6.079349e+001 -2.655786e+001 131 107 73
-1.094118e+001 -5.907580e+001 -2.784899e+001 179 140 87
-1.003278e+001 -6.014278e+001 -2.799077e+001 117 89 52
-9.570952e+000 -6.033455e+001 -3.036387e+001 170 140 90
5.218174e-001 1.384647e+000 -9.594059e+000 103 53 33
1.928534e+000 1.427210e+000 -1.014034e+001 96 63 46
1.424417e+000 1.542893e+000 -9.630506e+000 84 23 14
1.529932e+000 1.529840e+000 -9.543712e+000 132 76 60
1.532613e+000 1.526600e+000 -9.506017e+000 108 31 23
3.185421e+000 1.610827e+000 -1.020381e+001 112 77 39
-2.392824e-002 1.371842e+000 -8.633266e+000 124 121 21
8.963446e-001 1.458709e+000 -9.039691e+000 114 11 22
1.970512e+000 1.491942e+000 -9.537100e+000 20 47 64
1.976422e+000 1.486839e+000 -9.498109e+000 17 40 46
-3.955365e-001 1.266216e+000 -8.385097e+000 30 36 16
5.826175e-001 1.313396e+000 -8.759555e+000 136 120 73
5.824473e-001 1.313802e+000 -8.758922e+000 136 120 73
1.323959e+000 1.333804e+000 -9.061376e+000 134 124 82
-1.292093e+000 8.713918e-001 -7.809704e+000 173 155 107
-6.055226e-001 9.491443e-001 -7.954977e+000 135 27 27
-6.055226e-001 9.491443e-001 -7.954977e+000 135 27 27
-5.833615e-001 9.044216e-001 -7.901810e+000 136 19 26
-5.787840e-001 8.805881e-001 -7.913064e+000 136 19 26
1.842892e+000 7.803501e-001 -8.558648e+000 70 15 13
6.179632e-002 6.039851e-001 -7.780707e+000 10 37 11
-3.320457e-001 5.066538e-001 -7.553714e+000 142 134 89
4.699851e+000 -6.894896e-001 -8.608662e+000 130 117 101
4.697745e+000 -7.086067e-001 -8.581264e+000 105 87 73
4.728458e+000 -1.148876e+000 -8.514581e+000 105 88 64
4.728458e+000 -1.148876e+000 -8.514581e+000 105 88 64
1.563723e+000 1.526226e+000 -9.572100e+000 101 12 16
1.222088e+000 1.039450e+000 -8.634904e+000 160 125 80
-6.690044e-001 8.615567e-001 -7.847158e+000 152 127 79
2.017949e+000 9.802005e-001 -8.843111e+000 97 76 72
1.400615e-001 8.254275e-001 -8.030881e+000 127 114 10
1.400615e-001 8.254275e-001 -8.030881e+000 127 114 10
1.578992e+000 8.372507e-001 -8.527562e+000 19 53 72
4.266497e+000 7.259306e-001 -9.513110e+000 101 49 35
3.114555e+000 1.626025e+000 -1.030992e+001 85 50 30
3.512243e+000 1.670872e+000 -1.036349e+001 113 78 50
2.205806e+000 1.182340e+000 -9.153132e+000 75 57 48
1.891957e+000 1.035643e+000 -8.890805e+000 63 47 50
-5.437591e-001 8.518630e-001 -7.856943e+000 165 121 79
8.992068e-001 8.468188e-001 -8.302018e+000 137 123 88
2.056818e+000 8.468203e-001 -8.703831e+000 50 20 16
3.298800e+000 7.299912e-001 -9.084200e+000 93 17 28
4.488105e+000 -1.244888e+000 -9.090172e+000 131 116 93
4.610511e+000 -9.806121e-001 -8.917893e+000 46 38 31
3.129309e+000 1.541582e+000 -1.050231e+001 102 62 30
9.098698e-001 1.565554e+000 -9.337340e+000 117 98 71
3.233415e+000 1.572205e+000 -1.047040e+001 90 62 43
7.292344e-001 1.409033e+000 -8.981583e+000 107 33 24
7.292344e-001 1.409033e+000 -8.981583e+000 107 33 24
2.206802e+000 1.173875e+000 -9.157199e+000 74 56 49
-3.833064e-001 8.817035e-001 -7.967594e+000 49 75 81
2.488219e+000 6.885568e-001 -8.738888e+000 61 24 18
2.479790e-001 5.990030e-001 -7.842392e+000 23 37 25
2.406340e-001 6.133787e-001 -7.835655e+000 23 37 25
4.505997e+000 -1.121266e+000 -9.063371e+000 41 32 32
4.531696e+000 -1.162847e+000 -9.016158e+000 138 120 97
4.615814e+000 -8.475411e-001 -8.830318e+000 41 30 24
4.614704e+000 -7.664851e-001 -8.759067e+000 48 38 34
4.650737e+000 -8.373953e-001 -8.597939e+000 140 124 101
4.815217e+000 -1.631063e+000 -8.336496e+000 141 123 99
4.829792e+000 -1.646930e+000 -8.342843e+000 141 123 99
5.015129e+000 -1.219105e+000 -7.927299e+000 119 101 81
3.332527e+000 1.439037e+000 -9.966711e+000 122 89 53
-6.932295e-001 1.257167e+000 -9.137497e+000 116 116 59
-6.932295e-001 1.257167e+000 -9.137497e+000 116 116 59
-3.570984e-001 1.268770e+000 -9.306716e+000 38 44 18
3.236224e-001 1.147264e+000 -9.791705e+000 122 69 55
3.181113e-001 1.165906e+000 -9.778361e+000 122 69 55
9.607619e-001 1.483386e+000 -9.559528e+000 112 41 35
6.635263e-001 1.341728e+000 -8.826775e+000 163 149 110
6.635263e-001 1.341728e+000 -8.826775e+000 163 149 110
1.355212e+000 1.349073e+000 -9.040726e+000 21 67 95
-3.339721e-001 1.163607e+000 -8.308613e+000 164 154 38
2.505280e+000 1.263113e+000 -9.410131e+000 94 50 39
1.403644e+000 1.182663e+000 -8.889657e+000 152 157 134
2.473216e+000 1.211405e+000 -9.275991e+000 105 49 48
2.281531e+000 1.016136e+000 -9.001886e+000 123 101 90
-2.533836e-001 7.303525e-001 -7.790932e+000 156 145 44
1.992841e+000 8.205181e-001 -8.672701e+000 101 52 53
3.856952e-001 6.572184e-001 -7.914882e+000 20 52 29
3.283408e+000 6.940639e-001 -9.041836e+000 30 65 101
4.730775e+000 -5.475174e-001 -8.417882e+000 124 109 103
4.983973e+000 6.582611e-002 -7.968477e+000 54 47 50
3.922677e-001 1.345623e+000 -9.564979e+000 121 68 54
-1.902576e+000 5.044938e-001 -8.567385e+000 151 130 112
3.298607e+000 1.632220e+000 -1.025909e+001 135 97 67
-4.276268e-001 1.287877e+000 -8.404196e+000 56 93 100
-3.037974e-001 1.250027e+000 -8.398283e+000 141 134 28
2.140447e+000 1.430065e+000 -9.490728e+000 17 62 87
2.615444e+000 1.439828e+000 -9.655013e+000 95 37 15
1.291252e+000 9.361162e-001 -8.529337e+000 146 25 33
2.742512e+000 1.010703e+000 -9.090280e+000 80 53 63
2.122695e+000 8.626181e-001 -8.718441e+000 130 105 105
1.842004e+000 6.948296e-001 -8.496881e+000 171 108 71
4.559739e+000 -1.115904e+000 -8.924498e+000 124 111 99
4.861099e+000 -1.265957e-001 -8.118030e+000 146 132 125
-1.246912e+000 1.176101e+000 -8.982114e+000 34 63 87
-5.644892e-001 1.216089e+000 -9.263328e+000 33 46 29
1.627160e+000 1.502692e+000 -9.822002e+000 88 18 24
1.839116e+000 1.499882e+000 -9.548471e+000 21 58 82
2.620127e+000 1.406241e+000 -9.619094e+000 146 113 67
-1.362171e+000 7.575912e-001 -7.803287e+000 199 180 142
1.638223e+000 1.212301e+000 -9.028379e+000 79 61 74
-1.397692e+000 6.640752e-001 -7.774892e+000 203 183 146
-1.397692e+000 6.640752e-001 -7.774892e+000 203 183 146
-1.316736e+000 7.764339e-001 -7.764047e+000 200 181 139
-1.316736e+000 7.764339e-001 -7.764047e+000 200 181 139
-6.549081e-001 9.532502e-001 -7.955769e+000 175 39 33
-6.549081e-001 9.532502e-001 -7.955769e+000 175 39 33
1.790018e+000 1.106490e+000 -8.929257e+000 89 67 80
2.068217e+000 1.079968e+000 -8.899222e+000 79 58 68
-6.374741e-001 7.490604e-001 -7.709758e+000 164 36 47
1.068915e+000 8.806744e-001 -8.384851e+000 157 31 34
2.557163e+000 7.037927e-001 -8.748302e+000 151 119 105
2.557163e+000 7.037927e-001 -8.748302e+000 151 119 105
2.769104e+000 5.731422e-001 -8.777799e+000 72 33 34
3.559700e+000 6.524810e-001 -9.129284e+000 146 53 45
4.462826e+000 -1.194563e+000 -9.126159e+000 47 38 38
4.591324e+000 -8.765406e-001 -8.787752e+000 156 142 132
4.609688e+000 -8.043758e-001 -8.724256e+000 154 140 131
4.827814e+000 -2.002122e-001 -8.181267e+000 151 141 139
4.913827e+000 -1.194948e+000 -7.934943e+000 164 147 131
4.913827e+000 -1.194948e+000 -7.934943e+000 164 147 131
5.031815e+000 4.044922e-001 -7.641728e+000 148 134 131
5.060652e+000 5.724960e-001 -7.496351e+000 146 135 129
-7.176210e-001 1.136554e+000 -9.316878e+000 36 47 22
1.922854e+000 1.410601e+000 -9.437600e+000 17 56 83
8.544708e-001 7.189812e-001 -8.146761e+000 159 148 122
3.918678e+000 7.458630e-001 -9.337654e+000 171 144 110
5.047758e+000 1.229546e-001 -7.603569e+000 152 135 127
2.313362e-001 1.214915e+000 -9.659060e+000 104 34 32
2.895312e-001 1.391184e+000 -9.463197e+000 108 31 37
2.815108e+000 1.527355e+000 -9.867010e+000 116 66 32
7.973914e-001 1.313252e+000 -8.846922e+000 168 132 106
-1.384410e+000 8.641088e-001 -7.895758e+000 195 177 141
1.477892e+000 1.091168e+000 -8.777905e+000 126 131 124
9.661489e-001 9.867070e-001 -8.503802e+000 162 146 112
