ply
format ascii 1.0
element face 0
property list uchar int vertex_indices
element vertex 876
property float x
property float y
property float z
property uchar diffuse_red
property uchar diffuse_green
property uchar diffuse_blue
end_header
3.410609e+000 -4.618943e-001 -9.609476e+000 166 123 90
-6.083655e-001 -5.984643e-001 -8.011853e+000 162 33 31
-6.487878e-001 -6.558418e-001 -8.068080e+000 186 147 108
-5.566787e-001 -6.584950e-001 -8.104260e+000 194 125 92
-5.568294e-001 -6.604363e-001 -8.102373e+000 194 125 92
-2.403096e-001 -5.979493e-001 -8.262121e+000 156 144 52
1.219657e-002 -6.201825e-001 -8.298920e+000 152 148 25
4.558035e-001 -6.222212e-001 -8.476890e+000 159 128 110
4.567381e-001 -6.190781e-001 -8.480769e+000 159 128 110
5.047296e-001 -5.934011e-001 -8.473327e+000 102 18 20
5.047296e-001 -5.934011e-001 -8.473327e+000 102 18 20
4.482142e-001 -6.464145e-001 -8.502704e+000 150 140 115
8.316417e-001 -5.906547e-001 -8.605078e+000 200 140 111
7.786280e-001 -6.526850e-001 -8.669810e+000 194 149 103
7.786280e-001 -6.526850e-001 -8.669810e+000 194 149 103
8.045098e-001 -6.527469e-001 -8.678513e+000 173 149 92
2.292707e+000 -6.123333e-001 -9.276442e+000 151 16 36
2.840972e+000 -5.951376e-001 -9.513285e+000 76 24 26
2.839168e+000 -5.970497e-001 -9.510637e+000 76 24 26
3.135646e+000 -5.590896e-001 -9.575505e+000 170 125 91
3.153867e+000 -5.400329e-001 -9.601129e+000 170 125 91
3.182538e+000 -5.994045e-001 -9.701582e+000 164 126 93
3.286313e+000 -6.166031e-001 -9.721291e+000 168 127 96
-5.972438e-001 -6.749591e-001 -8.113295e+000 191 133 103
-5.768598e-001 -6.721861e-001 -8.105098e+000 162 22 25
-5.884098e-001 -6.905678e-001 -8.153514e+000 171 30 39
-3.499624e-001 -6.715133e-001 -8.200604e+000 155 147 26
-4.060481e-001 -7.263703e-001 -8.255388e+000 75 93 70
7.852211e-001 -6.662441e-001 -8.688399e+000 146 10 22
7.851917e-001 -6.666284e-001 -8.687937e+000 146 10 22
1.511559e+000 -6.816768e-001 -9.027000e+000 172 115 90
2.363632e+000 -6.672606e-001 -9.385870e+000 175 61 54
2.295344e+000 -6.932931e-001 -9.404313e+000 184 71 71
2.516865e+000 -6.407351e-001 -9.431067e+000 180 60 67
2.529426e+000 -6.793264e-001 -9.490510e+000 142 15 25
3.292887e+000 -6.707989e-001 -9.866774e+000 166 126 100
3.429288e+000 -6.718105e-001 -9.902696e+000 41 23 35
3.848121e+000 -6.388368e-001 -1.010734e+001 159 134 115
7.731255e-001 -7.269654e-001 -8.765892e+000 192 142 113
7.487784e-001 -7.754279e-001 -8.819715e+000 188 147 104
1.564214e+000 -7.572815e-001 -9.159325e+000 180 119 93
1.835180e+000 -7.530074e-001 -9.274208e+000 188 121 94
1.835180e+000 -7.530074e-001 -9.274208e+000 188 121 94
3.834856e+000 -7.474357e-001 -1.022730e+001 169 131 105
-5.560223e-001 -8.125862e-001 -8.327993e+000 147 137 41
-5.675857e-001 -8.185548e-001 -8.379015e+000 142 143 35
7.122105e-001 -7.946615e-001 -8.839011e+000 180 153 114
1.610142e+000 -8.379232e-001 -9.322853e+000 181 124 98
2.325093e+000 -8.037725e-001 -9.617697e+000 142 15 27
3.372465e+000 -7.815009e-001 -1.004828e+001 38 17 17
3.740197e+000 -7.597183e-001 -1.020007e+001 31 11 4
1.211882e+000 -8.834951e-001 -9.293030e+000 180 52 56
1.387483e+000 -8.886492e-001 -9.353671e+000 166 47 49
2.970688e+000 -8.554416e-001 -1.017421e+001 151 85 61
4.216023e+000 2.401388e-001 -9.356689e+000 56 17 19
4.216023e+000 2.401388e-001 -9.356689e+000 56 17 19
2.473716e+000 4.494332e-002 -8.768044e+000 147 15 25
2.473716e+000 4.494332e-002 -8.768044e+000 147 15 25
3.728230e+000 1.249543e-001 -9.226599e+000 72 38 27
2.508992e+000 -8.101307e-002 -8.856179e+000 154 26 30
2.508992e+000 -8.101307e-002 -8.856179e+000 154 26 30
2.679542e+000 -7.635147e-002 -8.919149e+000 172 54 46
4.090478e+000 9.384080e-002 -9.445023e+000 182 101 43
4.180199e+000 9.708380e-002 -9.466853e+000 45 15 13
4.155085e+000 4.063870e-002 -9.509526e+000 46 14 12
2.490630e+000 -1.340971e-001 -8.875038e+000 151 21 29
2.503659e+000 -1.647349e-001 -8.948544e+000 150 20 28
3.347866e+000 -7.835432e-002 -9.216958e+000 177 104 43
4.138626e+000 -6.406540e-002 -9.546038e+000 138 72 38
-1.478774e-001 -3.004587e-001 -7.923231e+000 27 45 16
-1.478774e-001 -3.004587e-001 -7.923231e+000 27 45 16
3.615737e+000 -2.009503e-001 -9.439285e+000 202 134 82
4.141934e+000 -1.462865e-001 -9.630880e+000 28 12 23
3.333965e+000 -3.317361e-001 -9.421734e+000 182 72 39
-5.732345e-001 -4.895784e-001 -7.898532e+000 174 24 26
-5.732345e-001 -4.895784e-001 -7.898532e+000 174 24 26
-3.622889e-001 -4.170696e-001 -8.096971e+000 158 146 18
6.095896e-002 -5.106971e-001 -8.162468e+000 155 139 21
6.095896e-002 -5.106971e-001 -8.162468e+000 155 139 21
2.115151e-001 -5.176539e-001 -8.217359e+000 21 44 35
1.269295e+000 -4.662462e-001 -8.627748e+000 137 83 71
1.231802e+000 -5.009845e-001 -8.659276e+000 173 110 88
1.344392e+000 -4.704888e-001 -8.669233e+000 68 24 18
2.440919e+000 -4.783943e-001 -9.156867e+000 182 65 66
2.632822e+000 -3.836126e-001 -9.152962e+000 158 5 36
2.632805e+000 -4.134558e-001 -9.187077e+000 141 17 30
3.311323e+000 -4.963111e-001 -9.465207e+000 160 114 81
4.613608e-001 -5.220945e-001 -8.353376e+000 105 16 18
4.630074e-001 -5.627472e-001 -8.407363e+000 159 145 106
1.848965e+000 -4.971063e-001 -8.917116e+000 181 115 91
1.849983e+000 -4.968163e-001 -8.917597e+000 181 115 91
2.384973e+000 -5.278029e-001 -9.177400e+000 153 25 35
2.985648e+000 -4.749604e-001 -9.420538e+000 162 73 42
4.093880e+000 -3.651965e-001 -1.001160e+001 137 83 61
-6.539161e-001 -5.815405e-001 -8.033426e+000 170 31 38
3.814508e-002 -6.127377e-001 -8.270440e+000 154 145 28
2.517412e+000 -6.082717e-001 -9.378867e+000 195 71 79
2.849319e+000 -5.711495e-001 -9.484889e+000 103 55 40
3.240169e+000 -6.046228e-001 -9.719441e+000 169 128 96
-6.539656e-001 -6.715494e-001 -8.097337e+000 184 151 96
-5.936762e-001 -7.089268e-001 -8.156097e+000 173 25 33
1.793003e+000 -6.650088e-001 -9.122516e+000 108 60 55
1.793003e+000 -6.650088e-001 -9.122516e+000 108 60 55
2.326582e+000 -7.074221e-001 -9.413825e+000 152 15 34
2.555629e+000 -6.898711e-001 -9.495223e+000 181 65 66
2.763020e+000 -6.697951e-001 -9.595392e+000 184 116 90
3.269463e+000 -6.232754e-001 -9.770881e+000 71 33 14
3.269463e+000 -6.232754e-001 -9.770881e+000 71 33 14
3.846678e+000 -5.719080e-001 -1.002483e+001 160 131 113
-6.059197e-001 -7.635746e-001 -8.224965e+000 181 148 101
-5.513908e-001 -7.785181e-001 -8.278972e+000 77 98 93
-5.245702e-002 -7.490391e-001 -8.446614e+000 153 141 39
-5.245702e-002 -7.490391e-001 -8.446614e+000 153 141 39
1.399524e+000 -7.507823e-001 -9.071066e+000 129 75 75
1.499139e+000 -7.232479e-001 -9.078191e+000 102 54 50
1.651378e+000 -7.755842e-001 -9.225511e+000 108 57 35
1.653884e+000 -7.716892e-001 -9.230819e+000 108 57 35
2.247802e+000 -7.214476e-001 -9.444290e+000 153 17 38
2.378971e+000 -7.492250e-001 -9.507320e+000 196 78 87
2.486144e+000 -7.724746e-001 -9.598973e+000 161 25 45
2.672900e+000 -7.434393e-001 -9.647122e+000 59 17 28
2.078955e+000 -8.295535e-001 -9.489913e+000 183 116 99
2.200558e+000 -8.064108e-001 -9.544948e+000 151 28 38
3.903268e+000 1.611979e-001 -9.284695e+000 190 160 129
2.153753e+000 -3.878311e-002 -8.681316e+000 90 39 23
4.071739e+000 1.882803e-002 -9.493005e+000 184 92 32
1.944242e+000 -1.288722e-001 -8.652203e+000 114 76 53
2.420783e+000 -9.315965e-002 -8.835530e+000 154 40 39
3.959288e+000 -2.219714e-002 -9.444430e+000 149 73 19
-7.889324e-002 -3.144580e-001 -7.957505e+000 49 87 80
9.105388e-002 -2.853338e-001 -8.011671e+000 169 150 37
3.867139e+000 -1.596691e-001 -9.521386e+000 171 90 33
4.097183e+000 -2.114193e-001 -9.727960e+000 132 58 32
2.150976e+000 -4.529379e-001 -9.009151e+000 96 45 34
2.196519e+000 -4.449417e-001 -9.022913e+000 187 120 95
-1.728035e+000 4.572033e-001 -8.672840e+000 180 150 115
-5.774167e-001 -5.728091e-001 -7.987865e+000 168 27 31
-5.774167e-001 -5.728091e-001 -7.987865e+000 168 27 31
-2.197317e-001 -6.011597e-001 -8.150088e+000 56 97 87
5.335735e-001 -5.811543e-001 -8.463917e+000 156 140 114
1.225738e+000 -5.605493e-001 -8.727122e+000 100 47 39
2.112759e+000 -5.184011e-001 -9.076420e+000 124 82 70
3.964413e+000 -4.128277e-001 -9.818011e+000 102 35 19
-3.183357e-001 -6.361992e-001 -8.169702e+000 157 149 21
9.647815e-003 -5.977378e-001 -8.268356e+000 156 141 34
4.963102e-001 -6.209078e-001 -8.494019e+000 146 141 117
2.544512e+000 -5.565182e-001 -9.312902e+000 170 55 60
2.541585e+000 -6.310274e-001 -9.401401e+000 151 23 30
3.458100e+000 -5.365000e-001 -9.748414e+000 188 155 122
3.439804e+000 -5.762959e-001 -9.795035e+000 192 154 117
-6.718943e-001 -6.637550e-001 -8.080693e+000 172 31 38
3.034875e+000 -6.324197e-001 -9.639312e+000 171 129 92
-6.107685e-001 -7.301013e-001 -8.184036e+000 177 36 45
1.130874e-001 -7.453907e-001 -8.503503e+000 159 142 28
1.136113e-001 -7.428727e-001 -8.505987e+000 159 142 28
1.967697e+000 -7.659520e-001 -9.278074e+000 186 123 92
-1.763674e-001 -8.121141e-001 -8.481817e+000 163 151 36
7.753104e-001 -8.539844e-001 -9.002765e+000 13 74 108
3.135414e+000 -8.691650e-001 -1.012908e+001 186 141 103
1.142427e+000 -9.096980e-001 -9.384587e+000 183 60 68
1.520899e+000 -6.095093e-002 -8.438543e+000 106 57 42
1.547922e+000 -1.200615e-001 -8.490577e+000 182 114 83
1.547922e+000 -1.200615e-001 -8.490577e+000 182 114 83
1.735067e+000 -1.111769e-001 -8.560775e+000 190 120 86
1.735067e+000 -1.111769e-001 -8.560775e+000 190 120 86
2.096266e+000 -6.531577e-002 -8.671474e+000 183 125 85
2.096793e+000 -8.898904e-002 -8.708186e+000 184 129 94
1.586905e+000 -1.360562e-001 -8.518909e+000 165 107 85
1.586905e+000 -1.360562e-001 -8.518909e+000 165 107 85
1.843988e-001 -2.796075e-001 -8.051617e+000 161 145 13
1.011412e+000 -3.234734e-001 -8.409233e+000 16 43 70
2.907848e+000 -2.533003e-001 -9.162205e+000 191 132 90
1.313666e+000 -4.514744e-001 -8.656001e+000 184 119 90
1.951125e+000 -4.761706e-001 -8.924042e+000 140 87 81
1.951125e+000 -4.761706e-001 -8.924042e+000 140 87 81
6.155463e-002 -5.515746e-001 -8.220003e+000 159 153 30
5.190272e-001 -6.435883e-001 -8.545885e+000 139 138 117
8.389430e-001 -6.524302e-001 -8.713760e+000 111 10 26
2.280125e+000 -6.477776e-001 -9.342123e+000 154 26 35
2.402933e+000 -6.699160e-001 -9.429651e+000 149 15 30
1.771882e+000 -7.968693e-001 -9.347954e+000 178 115 98
3.793139e+000 2.107185e-001 -9.192250e+000 156 122 92
2.309788e+000 -1.459201e-001 -8.811033e+000 187 122 82
4.075576e+000 -7.315434e-002 -9.586449e+000 159 87 29
2.801693e+000 -2.891769e-001 -9.187546e+000 192 126 81
-8.840620e-002 -5.727955e-001 -8.173066e+000 60 104 105
5.219506e-001 -5.444745e-001 -8.412775e+000 156 138 117
3.491318e+000 -4.846963e-001 -9.704101e+000 170 144 110
5.494101e-001 -6.277323e-001 -8.526652e+000 138 100 89
2.806399e+000 -5.645144e-001 -9.460640e+000 182 115 92
2.677061e+000 -6.277479e-001 -9.529689e+000 187 113 87
2.956457e+000 -6.956313e-001 -9.707369e+000 96 59 42
2.956438e+000 -6.968103e-001 -9.706242e+000 96 59 42
1.133604e+000 -7.955807e-001 -8.997084e+000 97 46 31
3.790926e+000 -8.075156e-001 -1.030316e+001 173 156 137
5.346641e-002 -3.090159e-001 -8.043736e+000 26 51 21
2.566449e-001 -7.612659e-001 -8.600707e+000 22 50 25
2.569292e-001 -7.585385e-001 -8.602123e+000 22 50 25
-1.565765e-001 -8.018082e-001 -8.476052e+000 129 129 82
3.682331e+000 -7.687084e-001 -1.020333e+001 153 135 133
3.671406e+000 2.663467e-002 -9.280853e+000 204 123 47
2.619152e+000 -1.964463e-001 -9.071493e+000 157 21 30
2.583542e+000 -2.980937e-001 -9.116950e+000 146 13 26
-3.968381e-001 -4.311560e-001 -7.958450e+000 19 76 102
2.202262e-001 -5.459971e-001 -8.165981e+000 28 47 28
2.927879e+000 -6.097070e-001 -9.585700e+000 176 123 84
1.598633e+000 -5.782555e-001 -8.933147e+000 179 110 79
2.811765e+000 -7.169865e-001 -9.644176e+000 187 117 91
2.033836e+000 -9.105265e-002 -8.650816e+000 171 120 101
-8.911269e-001 -4.734427e-001 -7.722623e+000 17 80 111
3.727190e+000 -7.931088e-001 -1.039904e+001 189 168 148
4.184099e+000 3.628414e-001 -9.400527e+000 183 95 34
2.672611e+000 4.836533e-002 -9.055063e+000 156 21 33
1.860199e-001 -1.973105e-001 -8.065025e+000 25 50 22
8.728615e-001 -7.643505e-001 -8.965162e+000 20 67 92
5.109754e-001 -4.311272e-001 -8.511381e+000 158 133 113
2.421272e+000 -6.195311e-002 -8.804453e+000 167 66 58
3.512581e+000 -1.284171e-001 -9.308246e+000 164 80 43
-1.495824e-001 -2.695434e-001 -7.893702e+000 133 129 40
-1.270935e-001 -2.843096e-001 -7.895041e+000 35 70 64
-6.980025e-002 -2.917588e-001 -7.943237e+000 147 144 35
3.910663e+000 -2.888483e-001 -9.699406e+000 37 18 13
-1.897458e-001 -4.678826e-001 -7.998045e+000 161 140 46
-1.533354e-001 -1.537093e-001 -8.554813e+000 48 88 111
8.424540e-001 -4.900237e-001 -8.480548e+000 188 150 114
5.129493e-001 -5.738597e-001 -8.444174e+000 121 27 43
2.361273e+000 -5.989630e-001 -9.295489e+000 137 13 23
3.371474e+000 -5.729214e-001 -9.733012e+000 170 131 100
2.132737e+000 -7.283233e-001 -9.356604e+000 190 121 89
2.272114e+000 -6.707662e-001 -9.364434e+000 154 19 34
3.166450e+000 -6.595708e-001 -9.773067e+000 172 135 103
2.478997e+000 -7.830793e-001 -9.643016e+000 165 26 34
3.170224e+000 4.536232e-002 -9.046965e+000 173 111 39
-1.682368e-002 -2.322398e-001 -7.918565e+000 154 147 33
3.368808e+000 -7.158005e-002 -9.197756e+000 122 26 4
-1.661949e-001 -4.449329e-001 -8.017108e+000 35 82 107
2.671988e+000 -3.968613e-001 -9.186441e+000 142 35 29
3.376145e+000 -3.261132e-001 -9.448032e+000 87 43 30
2.866308e+000 -5.947127e-001 -9.497799e+000 181 120 92
1.486989e+000 -7.532367e-001 -9.121167e+000 121 70 56
2.224142e+000 -7.019100e-001 -9.391033e+000 171 66 71
1.452395e+000 -8.189734e-001 -9.215563e+000 111 59 49
-1.032310e+001 3.309999e+001 -3.829668e+001 67 57 68
-9.553200e+000 3.395628e+001 -3.813049e+001 113 101 84
2.127651e+000 -1.213893e-001 -8.724277e+000 173 124 101
3.855804e+000 -5.342325e-002 -9.439134e+000 177 146 125
6.537386e-001 -3.980957e-001 -8.310354e+000 157 148 121
-5.144158e-001 -5.957048e-001 -8.035330e+000 171 34 42
1.227343e+000 -5.576260e-001 -8.730238e+000 109 65 61
-1.597831e+000 -2.901624e-001 -8.174093e+000 186 162 160
1.878872e+000 -6.830624e-001 -9.205181e+000 92 39 29
1.880078e+000 -6.812771e-001 -9.209261e+000 92 39 29
2.033672e+000 -7.905172e-001 -9.461018e+000 185 128 110
-1.141118e+000 -9.469046e-001 -8.265097e+000 140 128 123
-1.054249e+001 3.279591e+001 -3.723046e+001 107 90 77
-8.841181e+000 3.482302e+001 -3.572296e+001 63 52 64
1.207852e+000 -2.536779e-001 -8.448489e+000 6 49 73
-2.161298e-001 -5.870781e-001 -8.164282e+000 42 90 95
1.194479e+000 -8.150813e-001 -9.093655e+000 190 125 107
2.991934e+000 -4.964408e-001 -9.550193e+000 183 129 101
1.309812e+000 -2.141076e-001 -8.467969e+000 180 110 85
3.899939e+000 -4.721503e-001 -9.912916e+000 62 38 25
2.532363e+000 -5.199261e-001 -9.724475e+000 158 23 36
-7.531594e-001 -8.443261e-001 -8.721132e+000 158 156 157
2.409890e+000 1.390072e-001 -8.705094e+000 160 17 34
2.409890e+000 1.390072e-001 -8.705094e+000 160 17 34
4.159033e+000 1.482100e-001 -9.399226e+000 48 6 7
4.114727e+000 8.881864e-002 -9.434138e+000 43 7 22
4.118725e+000 9.344241e-002 -9.437617e+000 43 7 22
-1.222805e-001 -2.498281e-001 -7.917659e+000 52 85 84
9.242758e-001 -2.570647e-001 -8.331340e+000 200 145 98
4.173640e+000 9.043455e-002 -9.460573e+000 35 0 9
2.298068e-002 -4.480674e-001 -8.100324e+000 84 104 47
2.298068e-002 -4.480674e-001 -8.100324e+000 84 104 47
5.664221e-001 -3.967927e-001 -8.291190e+000 124 31 26
3.202572e+000 -1.745416e-001 -9.222634e+000 181 104 36
4.063951e+000 -4.968576e-002 -9.528940e+000 53 10 4
4.015462e+000 -6.855953e-002 -9.514299e+000 166 89 33
4.116696e+000 -9.813571e-002 -9.652968e+000 48 5 3
-5.582723e-001 -5.771736e-001 -7.968781e+000 201 155 112
-1.045025e-001 -4.412307e-001 -8.079838e+000 16 52 14
2.696601e-001 -4.693756e-001 -8.225492e+000 168 159 56
5.819493e-001 -4.359635e-001 -8.330267e+000 167 149 112
2.643460e+000 -3.531489e-001 -9.107225e+000 159 22 29
2.643460e+000 -3.531489e-001 -9.107225e+000 159 22 29
2.790670e+000 -3.680363e-001 -9.234201e+000 196 129 94
3.430992e+000 -2.430967e-001 -9.377368e+000 180 85 41
-5.241239e-001 -5.833019e-001 -8.009712e+000 196 119 79
8.374455e-001 -5.116925e-001 -8.502400e+000 199 164 114
8.394957e-001 -5.683017e-001 -8.577343e+000 207 154 115
1.250618e+000 -5.110021e-001 -8.679554e+000 83 32 15
-5.320281e-001 -1.042678e+000 -7.900851e+000 34 80 107
-5.040330e-001 -1.333806e+000 -7.736310e+000 52 93 102
-9.776388e-002 -6.742146e-001 -8.316695e+000 149 144 35
7.722036e-001 -6.442387e-001 -8.649959e+000 145 20 22
3.191221e+000 -4.807479e-001 -9.530503e+000 114 70 43
3.330734e+000 -4.699032e-001 -9.586105e+000 86 44 30
3.512886e+000 -4.583323e-001 -9.667547e+000 40 12 17
2.828911e+000 -5.786595e-001 -9.496246e+000 171 107 79
3.291106e+000 -5.733033e-001 -9.713456e+000 165 127 96
3.291106e+000 -5.733033e-001 -9.713456e+000 165 127 96
7.082574e-001 -7.655607e-001 -8.794982e+000 143 23 27
7.228953e-001 -7.727937e-001 -8.812775e+000 192 155 108
2.714980e+000 -6.458545e-001 -9.527241e+000 184 113 94
3.035597e+000 -6.635045e-001 -9.707265e+000 158 122 89
3.846763e+000 -5.714539e-001 -1.002522e+001 149 125 113
3.787248e+000 -6.361433e-001 -1.006232e+001 37 14 15
3.852667e+000 -6.338823e-001 -1.011333e+001 160 129 109
-4.597844e-002 -8.544996e-001 -8.600434e+000 145 140 39
6.844844e-001 -8.131774e-001 -8.856563e+000 184 153 113
7.196846e-001 -8.389513e-001 -8.913884e+000 200 149 119
7.196846e-001 -8.389513e-001 -8.913884e+000 200 149 119
-1.816920e+000 -5.237842e-002 -8.690514e+000 209 187 192
8.333263e-001 -9.034004e-001 -9.093636e+000 25 74 126
1.416171e+000 -8.909573e-001 -9.405758e+000 156 28 40
1.534994e+000 -8.835412e-001 -9.492026e+000 172 82 75
1.448714e+000 -9.079351e-001 -9.601420e+000 159 29 43
1.601222e+000 -8.971117e-001 -9.674359e+000 195 116 103
2.733373e+000 1.055770e-001 -8.857999e+000 208 89 75
4.076000e+000 5.377167e-002 -9.466790e+000 171 103 46
-2.597468e-001 -4.722264e-001 -8.007223e+000 163 153 38
2.652352e+000 -2.180940e-001 -9.014962e+000 191 67 66
2.766497e+000 -2.005261e-001 -9.081682e+000 170 18 32
3.750983e+000 -1.169499e-001 -9.422873e+000 190 162 117
-5.328218e-001 -5.055427e-001 -7.923173e+000 202 149 97
9.297202e-001 -5.137083e-001 -8.517540e+000 31 78 109
-2.158065e-001 -5.784272e-001 -8.137106e+000 160 148 30
2.237551e+000 -4.836490e-001 -9.077385e+000 200 121 84
2.648077e+000 -4.632106e-001 -9.262552e+000 193 69 66
3.192284e+000 -3.504618e-001 -9.409100e+000 106 15 3
3.231336e+000 -3.824426e-001 -9.431981e+000 124 25 4
3.320696e+000 -4.066012e-001 -9.518313e+000 152 110 72
3.988810e+000 -2.858241e-001 -9.749397e+000 158 121 89
-5.897962e-001 -6.862812e-001 -8.130506e+000 183 39 34
9.256116e-001 -6.435798e-001 -8.685651e+000 24 76 99
2.338433e+000 -5.140186e-001 -9.184821e+000 162 25 33
2.615072e+000 -5.532766e-001 -9.360043e+000 180 51 51
3.136245e+000 -4.336930e-001 -9.482601e+000 158 109 69
3.224913e+000 -4.761645e-001 -9.530032e+000 160 117 86
3.296219e+000 -4.657129e-001 -9.560436e+000 168 124 87
3.194527e+000 -5.797868e-001 -9.672436e+000 153 113 81
7.254134e-001 -7.523050e-001 -8.782580e+000 194 155 106
2.311749e+000 -7.200906e-001 -9.469196e+000 151 16 33
3.250929e+000 -6.521838e-001 -9.783425e+000 67 31 10
3.250929e+000 -6.521838e-001 -9.783425e+000 67 31 10
-5.929317e-001 -8.380280e-001 -8.328608e+000 165 152 111
1.830455e+000 -7.755512e-001 -9.309384e+000 121 68 54
1.714859e+000 -8.236360e-001 -9.332205e+000 121 69 52
1.713830e+000 -8.250309e-001 -9.330966e+000 121 69 52
2.217338e+000 -7.735883e-001 -9.457328e+000 153 15 31
2.341782e+000 -7.741711e-001 -9.542484e+000 150 22 31
2.333841e+000 -7.962046e-001 -9.582888e+000 138 12 24
2.360260e+000 -8.043690e-001 -9.580187e+000 196 82 89
8.095532e-001 -8.785751e-001 -9.027079e+000 24 67 96
1.644765e+000 -8.652720e-001 -9.437834e+000 167 32 37
2.970675e+000 -8.228540e-001 -1.015660e+001 158 95 42
2.914290e+000 -8.431860e-001 -1.024554e+001 76 20 11
3.318821e+000 -8.528901e-001 -1.031936e+001 139 66 42
3.317891e+000 -8.532230e-001 -1.031873e+001 139 66 42
3.799534e+000 2.707558e-001 -9.187582e+000 44 7 4
3.769604e+000 2.461910e-001 -9.212615e+000 113 84 75
1.885570e+000 -3.906228e-002 -8.579862e+000 135 79 51
1.973910e+000 -4.303833e-002 -8.615534e+000 134 77 54
3.197767e+000 4.206370e-002 -9.043976e+000 93 13 18
2.213484e+000 -1.192526e-001 -8.751112e+000 103 49 14
3.001433e+000 -9.829568e-002 -9.083417e+000 119 70 40
2.918929e+000 -2.031622e-001 -9.115304e+000 194 136 96
3.197194e+000 -2.262273e-001 -9.276211e+000 201 141 82
1.887247e+000 -4.434504e-001 -8.879240e+000 107 47 37
1.979350e+000 -4.345808e-001 -8.918794e+000 91 35 19
1.979350e+000 -4.345808e-001 -8.918794e+000 91 35 19
6.202244e-002 -5.502470e-001 -8.220753e+000 165 155 17
2.158549e+000 -5.058016e-001 -9.078143e+000 190 125 94
2.158019e+000 -5.063188e-001 -9.077663e+000 190 125 94
2.619620e+000 -4.553537e-001 -9.234944e+000 166 16 29
2.791878e+000 -4.554218e-001 -9.306657e+000 102 46 45
3.952451e+000 -3.639483e-001 -9.827151e+000 151 114 98
-6.773194e-001 -7.316660e-001 -8.155764e+000 195 142 95
2.287017e+000 -6.420897e-001 -9.348020e+000 164 27 34
2.277166e+000 -6.541579e-001 -9.335430e+000 164 27 34
2.722848e+000 -6.337910e-001 -9.506769e+000 96 38 34
2.071637e+000 -7.193622e-001 -9.349159e+000 192 125 96
3.226337e+000 -6.583338e-001 -9.803005e+000 162 121 85
9.748488e-001 -9.026462e-001 -9.131881e+000 16 80 116
2.012146e+000 -8.219622e-001 -9.473407e+000 190 126 100
2.145592e+000 -8.368807e-001 -9.649427e+000 176 138 105
1.168936e+000 -9.012607e-001 -9.252441e+000 161 147 140
3.895597e+000 -8.633751e-001 -1.047521e+001 136 25 41
-1.843271e+000 -2.062725e-001 -8.683523e+000 194 167 158
1.082759e+000 -9.182171e-001 -9.452662e+000 169 41 49
1.811666e+000 -8.203271e-001 -9.960404e+000 22 81 160
9.695448e-001 -1.710595e-001 -8.253105e+000 153 30 47
1.694456e+000 -9.615804e-002 -8.546178e+000 97 29 14
1.916101e+000 -6.643672e-002 -8.611420e+000 194 134 92
2.006182e+000 -6.711628e-002 -8.640312e+000 197 135 86
2.394300e+000 -3.236497e-002 -8.792467e+000 153 18 25
3.520489e+000 1.822035e-002 -9.215164e+000 201 97 35
5.298064e-001 -4.273104e-001 -8.300397e+000 165 158 119
9.004313e-001 -5.018820e-001 -8.488339e+000 118 17 47
1.616667e+000 -5.473340e-001 -8.853264e+000 195 126 97
1.658167e+000 -5.448195e-001 -8.888278e+000 166 108 86
1.706555e+000 -5.419512e-001 -8.887800e+000 194 125 93
1.746699e+000 -5.441906e-001 -8.918867e+000 99 41 22
1.809355e+000 -5.042714e-001 -8.948422e+000 195 127 92
1.922992e+000 -4.536766e-001 -8.914652e+000 197 128 92
1.922992e+000 -4.536766e-001 -8.914652e+000 197 128 92
1.992711e+000 -5.014999e-001 -9.011506e+000 196 130 95
2.097037e+000 -4.692270e-001 -9.021167e+000 194 125 92
2.075846e+000 -5.083122e-001 -9.031992e+000 192 125 98
3.906789e+000 -5.123461e-001 -9.994003e+000 156 120 97
8.064200e-001 -7.281978e-001 -8.800950e+000 92 19 32
8.759744e-001 -7.271575e-001 -8.813029e+000 9 52 71
2.441541e+000 -7.200872e-001 -9.489399e+000 162 26 36
1.768014e+000 -8.051255e-001 -9.343078e+000 187 123 95
3.406999e+000 -6.774295e-001 -9.929951e+000 160 125 93
1.907719e+000 -8.671083e-001 -9.537288e+000 134 23 34
2.806173e+000 1.334748e-001 -8.867777e+000 156 11 28
3.935813e+000 8.641810e-002 -9.358469e+000 185 91 34
8.851961e-001 -3.392693e-001 -8.351090e+000 186 84 65
1.925145e+000 -4.565200e-001 -8.968809e+000 193 129 96
1.678672e+000 -8.063806e-001 -9.313623e+000 184 124 98
1.678672e+000 -8.063806e-001 -9.313623e+000 184 124 98
4.194743e+000 2.648480e-001 -9.353568e+000 84 29 15
1.248295e-001 -4.157345e-001 -8.085494e+000 29 57 20
3.379843e+000 -7.464442e-001 -1.001824e+001 99 66 49
2.682406e+000 1.346170e-001 -8.830351e+000 167 26 34
2.574922e+000 -3.710928e-001 -9.190924e+000 173 21 36
2.510429e+000 -4.985148e-001 -9.286823e+000 170 20 32
2.510429e+000 -4.985148e-001 -9.286823e+000 170 20 32
-1.160045e-001 -6.885800e-001 -8.319255e+000 103 114 78
4.152830e+000 3.921976e-001 -9.345853e+000 196 101 41
-3.018323e-003 -4.382813e-001 -8.115580e+000 75 108 105
1.736387e+000 -5.387729e-001 -8.879435e+000 119 56 38
1.736387e+000 -5.387729e-001 -8.879435e+000 119 56 38
1.014452e+000 5.492141e-002 -8.219986e+000 173 28 37
7.267431e-001 -8.819309e-001 -8.985502e+000 160 25 40
3.962933e+000 -7.749356e-001 -1.036316e+001 28 15 21
-1.700953e+000 -1.782372e-001 -8.594340e+000 218 193 186
3.746556e+000 -7.708311e-001 -1.042461e+001 190 160 140
3.375150e+000 -5.991900e-002 -9.207546e+000 125 26 9
-1.757868e-001 -4.083296e-001 -8.000970e+000 44 82 70
-1.757868e-001 -4.083296e-001 -8.000970e+000 44 82 70
2.572113e+000 -5.023764e-001 -9.267763e+000 185 65 68
2.572113e+000 -5.023764e-001 -9.267763e+000 185 65 68
5.748399e-001 -6.221083e-001 -8.529513e+000 141 140 118
5.748399e-001 -6.221083e-001 -8.529513e+000 141 140 118
7.590853e-001 -7.006692e-001 -8.724272e+000 176 141 103
4.315915e-002 -7.531797e-001 -8.453569e+000 18 43 35
2.489589e+000 -7.579207e-001 -9.557337e+000 135 13 24
-1.755671e-001 -8.250146e-001 -8.501197e+000 28 51 29
1.420682e+000 -8.950368e-001 -9.367221e+000 160 40 46
-1.462928e+000 -4.033824e-001 -7.731226e+000 178 146 108
2.270374e+000 -7.936286e-001 -9.541746e+000 152 21 35
1.508093e+000 -8.912902e-001 -9.464402e+000 164 26 37
2.552674e+000 -4.856355e-002 -8.864123e+000 182 71 66
-2.979552e-002 -4.106818e-001 -8.035678e+000 61 97 95
1.270604e+000 -5.432230e-001 -8.729171e+000 175 114 88
3.233756e+000 -4.901469e-001 -9.586206e+000 162 119 77
-6.562461e-001 -6.146526e-001 -8.028793e+000 166 26 35
8.662680e-001 -1.891461e-001 -8.275117e+000 143 15 19
9.443343e-001 -3.225079e-001 -8.383808e+000 108 17 29
2.843991e+000 -2.863146e-001 -9.158948e+000 130 83 61
1.420792e+000 -1.072464e-001 -8.413925e+000 95 33 9
3.166694e+000 -5.418717e-002 -9.031927e+000 116 20 26
2.514337e+000 -7.656978e-002 -8.859844e+000 148 17 26
-9.798562e-003 -2.976830e-001 -8.089720e+000 73 99 66
-4.914009e-002 -4.564710e-001 -8.075881e+000 154 149 35
4.144688e+000 -1.752076e-002 -9.580383e+000 47 6 2
-5.432129e-001 -4.877677e-001 -7.909707e+000 178 34 35
-5.569465e-001 -5.246234e-001 -7.994893e+000 201 155 112
-6.976322e-002 -5.122392e-001 -8.140015e+000 163 154 39
4.817354e-001 -4.572173e-001 -8.303810e+000 138 35 33
5.105445e-001 -4.778053e-001 -8.326046e+000 169 159 118
8.643201e-001 -3.967817e-001 -8.423107e+000 202 152 79
2.373205e+000 -4.108011e-001 -9.062477e+000 165 25 33
3.217291e+000 -2.977757e-001 -9.320770e+000 181 67 43
3.401952e+000 -2.059096e-001 -9.414168e+000 188 86 43
3.540915e+000 -3.108010e-001 -9.529773e+000 187 148 107
-2.399196e-001 -5.774362e-001 -8.167015e+000 148 142 31
-4.102031e-002 -5.631587e-001 -8.199600e+000 151 151 26
1.730772e-001 -6.634739e-001 -8.188242e+000 29 52 26
1.488082e+000 -5.223536e-001 -8.805605e+000 192 130 96
2.023812e+000 -5.089438e-001 -9.013268e+000 195 128 105
2.364662e+000 -4.405067e-001 -9.070426e+000 159 23 29
2.676877e+000 -4.143401e-001 -9.247716e+000 203 81 75
2.900292e+000 -4.362084e-001 -9.363056e+000 187 123 86
3.300538e+000 -3.704075e-001 -9.471062e+000 146 67 26
1.610367e-001 -6.661021e-001 -8.353385e+000 167 156 17
2.839155e+000 -5.708075e-001 -9.445864e+000 192 121 88
3.190350e+000 -4.811079e-001 -9.529820e+000 114 70 43
-5.882039e-001 -7.185696e-001 -8.209974e+000 194 116 81
-5.882039e-001 -7.185696e-001 -8.209974e+000 194 116 81
-2.145625e-001 -7.173008e-001 -8.325252e+000 155 143 38
-2.245934e-001 -7.938323e-001 -8.322976e+000 158 156 40
4.818593e-003 -6.829913e-001 -8.371613e+000 156 151 34
7.857581e-001 -6.652232e-001 -8.688766e+000 156 20 24
1.512326e+000 -6.809443e-001 -9.027736e+000 191 127 100
3.107281e+000 -6.088253e-001 -9.613025e+000 159 118 87
3.201082e+000 -5.599075e-001 -9.642551e+000 161 122 92
3.193159e+000 -5.699448e-001 -9.634050e+000 161 122 92
3.967282e+000 -5.350640e-001 -9.967925e+000 122 57 45
-4.928330e-001 -8.085546e-001 -8.356374e+000 33 54 22
-1.997961e-001 -8.596046e-001 -8.403358e+000 33 46 33
7.719565e-001 -7.274511e-001 -8.765667e+000 193 147 102
7.498551e-001 -7.752874e-001 -8.821473e+000 196 149 113
7.498551e-001 -7.752874e-001 -8.821473e+000 196 149 113
1.649511e+000 -7.223653e-001 -9.096704e+000 183 118 88
2.335936e+000 -6.642223e-001 -9.383498e+000 157 17 27
3.212505e+000 -6.600441e-001 -9.753255e+000 153 115 84
3.426654e+000 -6.752706e-001 -9.899921e+000 29 11 23
-4.847661e-002 -8.286418e-001 -8.593512e+000 26 45 32
6.802302e-001 -8.268409e-001 -8.846790e+000 184 153 113
1.368090e+000 -7.955329e-001 -9.105633e+000 180 118 99
3.295839e+000 -7.296270e-001 -9.868842e+000 169 129 92
3.295839e+000 -7.296270e-001 -9.868842e+000 169 129 92
6.823942e-001 -9.194623e-001 -9.028524e+000 139 8 21
7.293774e-001 -9.164218e-001 -9.069426e+000 146 148 143
1.395171e+000 -9.016866e-001 -9.370208e+000 205 108 100
1.447986e+000 -8.879136e-001 -9.390780e+000 178 83 69
3.397213e+000 -8.401453e-001 -1.028674e+001 182 128 112
1.498967e+000 -9.045612e-001 -9.588394e+000 179 91 89
1.548407e+000 -9.088315e-001 -9.558054e+000 178 101 93
2.871899e+000 -8.785468e-001 -1.013053e+001 145 75 28
1.521007e+000 -8.692595e-001 -9.752554e+000 178 74 78
1.841666e+000 -8.167176e-001 -1.000413e+001 111 143 202
1.960661e+000 -8.609831e-001 -9.927454e+000 86 135 189
1.847910e+000 -8.456081e-001 -9.941331e+000 28 80 153
1.992458e+000 -8.105592e-001 -1.004717e+001 94 133 199
2.394251e+000 -8.050500e-001 -1.021653e+001 181 143 131
4.213691e-001 -7.926669e-001 -9.561285e+000 162 107 117
1.781893e+000 -7.116632e-001 -1.014611e+001 107 22 33
-8.656221e-001 -3.875531e-001 -9.529208e+000 155 171 140
-7.867663e-001 -5.226563e-001 -9.386546e+000 34 50 28
-1.974429e-001 -5.415826e-001 -9.610717e+000 60 74 53
-1.636643e-001 -5.376856e-001 -9.615648e+000 164 167 90
-7.693340e-002 -5.218391e-001 -9.674540e+000 57 69 38
-1.121475e+000 -3.855447e-001 -9.456995e+000 202 140 142
-1.121475e+000 -3.855447e-001 -9.456995e+000 202 140 142
1.352260e+000 -4.253444e-002 -8.339962e+000 101 45 26
-1.869930e-001 -2.527040e-001 -7.878937e+000 35 53 7
2.319541e+000 2.623300e-002 -8.758383e+000 188 134 98
2.357151e+000 3.420383e-002 -8.720277e+000 193 126 94
2.518329e+000 7.859241e-002 -8.773911e+000 182 61 59
2.541996e+000 5.981713e-002 -8.796231e+000 163 32 38
2.553184e+000 1.949853e-002 -8.852556e+000 157 23 29
2.553184e+000 1.949853e-002 -8.852556e+000 157 23 29
2.721978e+000 8.876347e-002 -8.848050e+000 208 89 75
2.716217e+000 1.620057e-002 -8.913961e+000 210 95 92
3.510991e+000 7.586676e-002 -9.189716e+000 202 80 36
-1.588316e+000 4.994068e-001 -7.869940e+000 193 46 39
-4.352561e-001 -3.435825e-001 -7.847692e+000 167 157 30
-4.352561e-001 -3.435825e-001 -7.847692e+000 167 157 30
-2.033638e-001 -2.890884e-001 -7.894941e+000 31 54 26
8.246130e-001 -2.411865e-001 -8.326843e+000 172 152 116
1.957696e+000 -1.010679e-001 -8.669014e+000 112 57 25
2.912845e+000 -3.771389e-002 -8.997301e+000 195 135 89
2.896188e+000 -7.520984e-002 -9.035772e+000 195 134 88
3.017113e+000 -1.294471e-001 -9.104819e+000 202 140 100
3.739711e+000 -7.352435e-002 -9.390811e+000 191 163 120
3.860162e+000 -5.275033e-002 -9.440113e+000 185 151 115
-2.594695e-001 -4.698001e-001 -8.008259e+000 163 153 38
5.962599e-001 -4.047126e-001 -8.325401e+000 173 158 118
9.716209e-001 -3.709272e-001 -8.468048e+000 25 81 106
9.716209e-001 -3.709272e-001 -8.468048e+000 25 81 106
2.423980e+000 -2.416941e-001 -8.977855e+000 160 27 28
2.706642e+000 -2.603485e-001 -9.094118e+000 194 71 67
3.456225e+000 -1.461855e-001 -9.334844e+000 191 122 38
-2.849208e-001 -4.729789e-001 -8.011109e+000 156 147 20
-2.559886e-001 -5.264444e-001 -8.054615e+000 154 149 18
-1.748988e-001 -5.116403e-001 -8.091376e+000 162 149 21
6.036308e-002 -5.112091e-001 -8.163672e+000 162 148 31
6.036308e-002 -5.112091e-001 -8.163672e+000 162 148 31
3.434143e+000 -2.491067e-001 -9.407898e+000 181 87 36
3.359791e+000 -3.453175e-001 -9.433118e+000 109 56 33
3.915026e+000 -2.828740e-001 -9.636903e+000 119 89 78
4.647069e-001 -5.557729e-001 -8.411635e+000 180 157 120
2.405298e+000 -4.974800e-001 -9.198868e+000 166 22 32
2.291358e+000 -5.512180e-001 -9.226948e+000 187 65 60
2.573382e+000 -5.131354e-001 -9.303793e+000 187 61 61
2.989458e+000 -4.681855e-001 -9.426624e+000 158 62 24
3.138654e+000 -5.434094e-001 -9.566222e+000 159 119 84
3.139024e+000 -5.428787e-001 -9.566641e+000 159 119 84
3.264085e+000 -5.286264e-001 -9.612411e+000 159 119 79
-5.251679e-001 -7.112350e-001 -8.217792e+000 39 82 95
3.206051e+000 -6.012819e-001 -9.692415e+000 120 79 55
3.134006e+000 -6.947589e-001 -9.642331e+000 126 85 64
3.460373e+000 -5.966105e-001 -9.811329e+000 35 16 16
3.891220e+000 -4.648231e-001 -9.908850e+000 152 119 103
3.817344e+000 -5.531238e-001 -9.976556e+000 30 11 16
-5.077099e-002 -7.526126e-001 -8.444174e+000 155 150 47
-5.077099e-002 -7.526126e-001 -8.444174e+000 155 150 47
7.459641e-001 -7.313756e-001 -8.752482e+000 202 155 108
7.621646e-001 -7.538928e-001 -8.791951e+000 189 148 96
2.547411e+000 -6.491508e-001 -9.463353e+000 159 21 39
3.286741e+000 -6.655880e-001 -9.831301e+000 169 127 90
3.279064e+000 -6.817400e-001 -9.855398e+000 163 122 89
3.895651e+000 -5.752481e-001 -1.005278e+001 153 107 98
7.501053e-001 -9.594207e-001 -8.740576e+000 24 83 102
8.399160e-001 -7.005475e-001 -8.986977e+000 17 73 100
1.367325e+000 -8.147312e-001 -9.141921e+000 113 68 55
1.652436e+000 -7.747181e-001 -9.228622e+000 104 54 45
2.304156e+000 -7.399437e-001 -9.522758e+000 159 25 36
2.235881e+000 -8.027022e-001 -9.549288e+000 164 49 47
7.820538e-001 -8.443275e-001 -8.982130e+000 22 74 104
1.953753e+000 -8.720222e-001 -9.543303e+000 127 24 37
1.139108e+000 -9.249433e-001 -9.340036e+000 167 54 43
1.977544e-001 -9.380872e-001 -9.219161e+000 68 93 93
1.103316e+000 -7.072759e-001 -9.928051e+000 129 146 191
-5.258377e-001 -3.438833e-001 -9.714258e+000 38 58 39
-3.871897e-001 -5.636417e-001 -9.495904e+000 170 169 147
-2.476523e-001 -4.154986e-001 -9.741228e+000 37 63 35
6.951697e-001 -3.993193e-001 -1.012953e+001 185 132 132
-1.200512e+000 -3.978364e-001 -9.399841e+000 182 41 57
-1.200512e+000 -3.978364e-001 -9.399841e+000 182 41 57
-7.781346e-001 -3.376670e-001 -9.635779e+000 166 171 89
1.606421e+000 2.423195e-001 -8.410026e+000 176 162 114
3.023202e+000 3.514046e-001 -8.902609e+000 70 14 13
3.801838e+000 2.730298e-001 -9.187968e+000 44 7 4
1.633477e+000 -6.778610e-003 -8.501779e+000 120 55 34
2.254261e+000 -1.682809e-002 -8.724821e+000 117 68 32
2.595858e+000 1.020677e-001 -8.808615e+000 189 79 73
4.237915e+000 1.244816e-001 -9.471214e+000 157 84 41
-4.356261e-001 -3.699856e-001 -7.864863e+000 29 55 21
2.128469e+000 -1.198897e-001 -8.724942e+000 181 123 88
2.220454e+000 -1.068629e-001 -8.758635e+000 103 49 14
3.523674e+000 2.810738e-002 -9.227025e+000 188 84 18
3.962106e+000 -1.924762e-002 -9.448132e+000 152 85 30
2.918420e+000 -2.035839e-001 -9.115035e+000 194 136 96
3.840780e+000 -1.880960e-001 -9.502929e+000 172 94 27
-6.262229e-001 -5.457330e-001 -7.952436e+000 174 30 31
-1.531555e-001 -4.924254e-001 -8.071338e+000 48 93 101
-1.614203e-001 -5.457751e-001 -8.043162e+000 48 93 101
1.267039e+000 -4.668153e-001 -8.623261e+000 112 52 30
2.444224e+000 -3.459711e-001 -9.027479e+000 175 34 43
2.606128e+000 -3.716726e-001 -9.110730e+000 192 68 66
3.557320e+000 -2.832129e-001 -9.523123e+000 169 139 82
-2.148598e-001 -5.780279e-001 -8.165261e+000 66 95 96
1.521269e+000 -4.776588e-001 -8.767029e+000 99 52 31
-3.195405e-001 -6.440029e-001 -8.166489e+000 157 147 32
2.017649e+000 -5.308800e-001 -9.034803e+000 179 122 99
2.103058e+000 -5.343438e-001 -9.063951e+000 145 87 73
2.103058e+000 -5.343438e-001 -9.063951e+000 145 87 73
2.881295e+000 -4.738978e-001 -9.372425e+000 180 114 103
2.881251e+000 -4.736094e-001 -9.372262e+000 180 114 103
3.293874e+000 -4.837468e-001 -9.592736e+000 159 117 71
2.603379e+000 -6.315413e-001 -9.370509e+000 154 8 26
-7.596016e-001 -7.054814e-001 -8.235228e+000 34 91 117
2.454548e+000 -6.934129e-001 -9.459873e+000 160 16 29
2.609606e+000 -6.500321e-001 -9.486741e+000 153 22 35
3.434713e+000 -6.027577e-001 -9.834452e+000 185 142 100
7.495685e-001 -8.619676e-001 -8.918827e+000 77 22 43
1.273878e+000 -8.195582e-001 -9.149031e+000 154 98 83
1.273878e+000 -8.195582e-001 -9.149031e+000 154 98 83
2.492950e+000 -7.632813e-001 -9.611454e+000 146 18 33
2.345587e+000 -8.187840e-001 -9.623572e+000 177 67 68
1.214245e+000 -8.826273e-001 -9.282892e+000 167 42 36
1.520249e+000 -8.824955e-001 -9.383666e+000 158 32 40
1.701820e+000 -8.145190e-001 -9.569135e+000 175 28 48
3.745185e+000 -8.328856e-001 -1.033874e+001 75 41 45
1.016253e+000 -9.196455e-001 -9.493635e+000 168 167 166
1.927061e+000 -8.602974e-001 -9.885895e+000 16 80 151
5.349087e-001 -7.513349e-001 -9.652706e+000 176 165 173
6.224474e-001 -8.018452e-001 -9.610855e+000 161 114 123
6.225894e-001 -7.982488e-001 -9.612892e+000 161 114 123
1.009782e-001 1.088162e-001 -7.721397e+000 108 124 115
2.612973e+000 2.979418e-001 -8.743138e+000 48 18 21
2.513604e+000 1.253650e-001 -8.750052e+000 159 24 31
3.451955e+000 3.444126e-001 -9.040883e+000 201 118 28
3.801070e+000 2.277878e-001 -9.208863e+000 191 155 121
1.200007e+000 -6.046358e-002 -8.322233e+000 18 85 114
1.551475e+000 -8.748866e-002 -8.465642e+000 197 129 91
1.551475e+000 -8.748866e-002 -8.465642e+000 197 129 91
1.559895e+000 -9.503383e-002 -8.505530e+000 192 120 82
1.795159e+000 -7.235211e-002 -8.594122e+000 113 64 48
1.781915e+000 -9.866095e-002 -8.579565e+000 113 64 48
1.979936e+000 -3.103660e-002 -8.626400e+000 125 69 51
-1.940335e+000 3.175862e-001 -7.675580e+000 228 70 66
-1.486635e+000 2.961604e-001 -7.850318e+000 48 34 23
-6.382376e-003 -4.371523e-001 -8.102168e+000 65 105 98
6.102571e-001 -3.641694e-001 -8.273407e+000 173 155 119
9.297514e-001 -3.839782e-001 -8.430436e+000 147 20 34
-9.692063e-001 -5.390498e-001 -7.832494e+000 32 94 121
2.092490e-001 -4.802034e-001 -8.188828e+000 33 56 18
1.312091e+000 -4.537805e-001 -8.654859e+000 192 123 90
4.172514e+000 -8.156551e-002 -9.710736e+000 132 73 31
-5.974301e-001 -5.914404e-001 -8.040669e+000 182 27 36
1.458044e+000 -5.053694e-001 -8.758109e+000 191 124 89
1.462646e+000 -4.943442e-001 -8.765348e+000 191 124 89
1.366863e+000 -5.263831e-001 -8.764994e+000 192 125 89
1.397666e+000 -5.356820e-001 -8.802048e+000 188 130 108
1.397666e+000 -5.356820e-001 -8.802048e+000 188 130 108
1.582580e+000 -5.369240e-001 -8.822947e+000 123 75 62
1.582580e+000 -5.369240e-001 -8.822947e+000 123 75 62
1.633978e+000 -5.148696e-001 -8.875501e+000 195 126 97
1.793742e+000 -4.606781e-001 -8.873298e+000 125 67 44
2.166323e+000 -4.863872e-001 -9.043305e+000 196 125 94
8.520304e-001 -6.168016e-001 -8.624131e+000 147 20 33
2.839063e+000 -4.940153e-001 -9.398282e+000 193 127 99
2.759909e+000 -5.481926e-001 -9.423631e+000 113 61 47
1.811951e+000 -5.495822e-001 -9.222564e+000 192 123 94
2.770806e+000 -6.413391e-001 -9.507089e+000 180 114 89
2.770806e+000 -6.413391e-001 -9.507089e+000 180 114 89
1.804389e+000 -7.314257e-001 -9.180596e+000 187 123 94
1.725095e+000 -7.968302e-001 -9.286722e+000 106 51 44
1.725095e+000 -7.968302e-001 -9.286722e+000 106 51 44
1.820582e+000 -8.665949e-001 -9.309296e+000 189 123 97
1.820582e+000 -8.665949e-001 -9.309296e+000 189 123 97
8.024317e-001 -8.785595e-001 -8.985337e+000 7 44 67
9.494082e-001 -9.713449e-001 -9.497084e+000 168 164 172
2.098738e+000 -8.066077e-001 -1.009736e+001 188 142 118
2.098738e+000 -8.066077e-001 -1.009736e+001 188 142 118
6.530524e-001 -6.714510e-001 -9.795894e+000 173 166 174
1.080339e+000 -7.455570e-001 -9.837163e+000 60 76 143
-4.656673e-001 -5.578182e-001 -9.475137e+000 37 65 46
-4.383102e-001 -4.547727e-001 -9.619247e+000 170 166 137
2.702018e-002 -6.404238e-001 -9.565397e+000 43 68 30
3.361541e+000 1.554826e-001 -9.206182e+000 124 15 23
4.074818e+000 1.241804e-001 -9.407761e+000 186 93 33
2.489841e-001 -3.523748e-001 -8.271991e+000 38 54 23
2.489841e-001 -3.523748e-001 -8.271991e+000 38 54 23
1.437800e+000 -5.498683e-001 -8.775233e+000 193 127 92
3.581764e+000 -3.371601e-001 -9.555678e+000 127 105 83
1.225882e-001 -7.365393e-001 -8.503925e+000 143 139 65
1.225882e-001 -7.365393e-001 -8.503925e+000 143 139 65
1.412127e+000 -8.061247e-001 -9.209506e+000 185 120 96
1.412127e+000 -8.061247e-001 -9.209506e+000 185 120 96
1.525162e+000 -7.616384e-001 -9.160492e+000 186 121 88
7.180950e-001 -8.982191e-001 -9.045539e+000 126 11 42
1.976578e+000 -8.815290e-001 -9.790426e+000 102 17 31
3.827923e+000 -8.460225e-001 -1.051503e+001 185 146 110
1.068510e+000 -9.085319e-001 -9.508032e+000 162 37 41
-1.905692e-001 -8.477591e-001 -9.263598e+000 34 65 45
5.757240e-001 -8.050025e-001 -9.563242e+000 165 166 177
1.708096e+000 -7.253374e-001 -1.008785e+001 131 38 48
-5.496513e-002 -4.987368e-001 -9.715052e+000 49 67 37
1.152973e-001 -5.832540e-001 -9.679043e+000 166 163 174
1.909258e-001 4.000391e-001 -7.815056e+000 178 160 120
2.384642e-001 1.078341e-001 -7.877474e+000 158 151 117
8.849533e-002 -1.487182e-001 -7.924191e+000 28 58 27
1.291491e-001 -1.803643e-001 -7.956034e+000 108 127 106
1.291491e-001 -1.803643e-001 -7.956034e+000 108 127 106
2.782117e+000 2.318622e-001 -9.010832e+000 166 23 37
4.970488e-002 -3.097892e-001 -8.043871e+000 29 54 32
1.786597e-001 -2.732777e-001 -8.116033e+000 32 60 29
-2.848455e-001 -5.894779e-001 -7.963833e+000 53 79 59
-1.605786e-001 -5.395015e-001 -8.066587e+000 118 128 61
8.554328e-001 -4.684057e-001 -8.432528e+000 163 51 45
-2.197803e-001 -6.730132e-001 -8.245109e+000 103 116 69
3.395144e+000 -7.269482e-001 -1.003560e+001 99 66 49
1.809898e+000 -8.576156e-001 -9.445838e+000 192 125 108
1.301862e+000 -8.905805e-001 -9.317525e+000 189 64 66
2.020948e+000 -7.206748e-001 -1.022391e+001 73 29 39
-1.076068e+000 -5.682808e-001 -9.263108e+000 197 138 130
-6.212717e-001 -4.997250e-001 -9.465326e+000 43 63 38
-2.131026e-001 -4.235607e-001 -9.721973e+000 78 97 72
4.486341e-001 -4.186309e-001 -8.302579e+000 172 152 125
-1.021923e-001 -7.967275e-001 -8.432410e+000 26 50 29
2.438071e+000 -6.552364e-001 -9.405281e+000 172 24 38
3.086052e+000 -8.304914e-001 -1.019496e+001 48 20 23
4.764363e-002 -4.345218e-001 -9.836631e+000 175 167 176
-4.340566e-001 -5.913205e-001 -8.061485e+000 26 90 119
1.330356e+000 -7.845733e-001 -9.881881e+000 112 32 32
-1.227206e+000 -7.877070e-001 -8.893598e+000 164 161 179
3.595152e+000 4.255040e-001 -9.168700e+000 201 109 30
-9.071376e-001 -5.354734e-001 -7.716137e+000 24 91 120
1.999477e+000 -8.617779e-001 -9.647726e+000 108 15 25
2.871803e-001 -8.448314e-001 -9.410072e+000 169 165 179
2.326314e-001 -3.270144e-001 -8.068740e+000 30 63 24
9.337745e-001 -6.443078e-001 -9.897545e+000 164 35 47
3.625096e+000 -5.768999e-001 -9.951157e+000 64 41 40
-9.206073e-001 -7.653985e-001 -8.074999e+000 18 84 113
2.504532e+000 -6.953573e-001 -1.023061e+001 174 138 122
1.346681e+000 1.062789e-001 -8.293342e+000 163 97 77
3.297463e+000 7.141419e-002 -9.084735e+000 86 9 16
2.335505e+000 -9.800927e-002 -8.794213e+000 182 121 91
1.325477e+000 -1.657181e-001 -8.426479e+000 184 110 83
3.214813e+000 -2.911614e-001 -9.292539e+000 168 66 38
3.303120e+000 -2.373884e-001 -9.338575e+000 167 78 50
3.361523e+000 -2.569640e-001 -9.378630e+000 173 76 42
3.507769e+000 -1.704217e-001 -9.358793e+000 178 113 57
3.787005e+000 -1.569907e-001 -9.481500e+000 167 142 102
3.558103e+000 -3.252942e-001 -9.535112e+000 43 14 11
5.627169e-001 -5.028251e-001 -8.386195e+000 156 137 115
8.080988e-001 -5.330766e-001 -8.519460e+000 168 151 106
-5.588486e-001 -5.844622e-001 -8.003100e+000 186 133 101
-2.417031e-001 -5.905934e-001 -8.166368e+000 149 142 30
-1.912593e-001 -5.862276e-001 -8.174969e+000 146 130 26
-5.861525e-002 -5.979355e-001 -8.235961e+000 154 135 34
-7.059841e-001 -6.803577e-001 -8.110983e+000 175 136 110
-7.059841e-001 -6.803577e-001 -8.110983e+000 175 136 110
7.954932e-001 -6.765786e-001 -8.705185e+000 183 140 103
4.702962e-002 -6.928597e-001 -8.433520e+000 146 139 38
-1.733186e-001 -7.684311e-001 -8.418140e+000 151 134 24
1.568848e+000 -7.537364e-001 -9.162701e+000 174 116 104
3.797810e+000 -7.473873e-001 -1.021413e+001 158 129 111
3.797810e+000 -7.473873e-001 -1.021413e+001 158 129 111
-5.628133e-001 -8.527183e-001 -8.322808e+000 143 133 16
2.530416e+000 -8.088594e-001 -9.646139e+000 140 23 29
2.483716e+000 -8.189495e-001 -9.681066e+000 195 88 89
6.183030e-001 -9.066001e-001 -8.984113e+000 134 139 126
1.259807e+000 -8.878049e-001 -9.279029e+000 159 32 33
1.619135e+000 -9.048438e-001 -9.522543e+000 164 29 43
3.407832e+000 -4.203535e-002 -9.183020e+000 175 72 37
4.077235e+000 5.527057e-002 -9.466778e+000 161 92 35
3.834188e+000 -2.237467e-002 -9.379936e+000 172 137 101
-4.711466e-001 -4.378624e-001 -7.966174e+000 163 21 25
6.273200e-002 -4.330678e-001 -8.094931e+000 22 41 12
9.493221e-001 -4.650774e-001 -8.507367e+000 23 69 85
3.032559e+000 -3.491945e-001 -9.326265e+000 169 55 12
3.158569e+000 -3.535075e-001 -9.375513e+000 174 51 43
9.716187e-001 -5.305007e-001 -8.583358e+000 22 68 89
-5.559639e-001 -6.399365e-001 -8.062721e+000 168 142 96
8.145408e-001 -5.668085e-001 -8.571126e+000 180 152 105
3.412613e+000 -4.590222e-001 -9.611552e+000 157 117 83
3.481790e+000 -4.678163e-001 -9.674373e+000 176 139 101
2.244505e+000 -6.411626e-001 -9.294168e+000 171 55 55
3.066290e+000 -5.896611e-001 -9.596420e+000 155 115 85
-4.051611e-001 -7.264508e-001 -8.256409e+000 74 96 74
3.040176e+000 -6.491144e-001 -9.670924e+000 166 124 83
2.334612e+000 -7.942223e-001 -9.583132e+000 141 20 27
1.504272e+000 -8.977832e-001 -9.517439e+000 178 97 89
1.047665e+000 -9.099377e-001 -9.464146e+000 160 168 172
3.253207e+000 1.508632e+000 -1.016082e+001 99 48 28
2.393501e+000 7.046694e-003 -8.757528e+000 143 26 30
3.596296e+000 -1.065323e-001 -9.338993e+000 195 121 51
3.959131e+000 -2.336676e-002 -9.445447e+000 150 80 25
7.696297e-001 -4.756602e-001 -8.427695e+000 145 140 106
3.410831e+000 -2.936289e-001 -9.415291e+000 173 76 31
2.062615e+000 -4.552502e-001 -8.981544e+000 102 56 43
4.745925e-001 -5.848141e-001 -8.453277e+000 141 138 112
2.757094e+000 -5.518524e-001 -9.420503e+000 84 36 26
2.326948e+000 -7.020317e-001 -9.417937e+000 140 13 24
3.239022e+000 -6.836740e-001 -9.824210e+000 137 103 79
1.745498e+000 -7.507763e-001 -9.230358e+000 61 11 8
3.192786e+000 -7.431812e-001 -9.890230e+000 174 127 93
2.397410e+000 -7.965130e-001 -9.635735e+000 150 23 36
1.537201e+000 -8.628038e-001 -9.451122e+000 157 25 38
1.088471e+000 3.172668e-002 -8.225056e+000 6 43 60
2.198935e+000 -4.769401e-002 -8.731116e+000 177 119 86
1.826071e-001 -2.810718e-001 -8.050504e+000 158 140 26
2.336185e+000 -2.628169e-001 -8.930867e+000 139 15 27
-1.134876e-001 -4.303611e-001 -8.032113e+000 34 53 17
-5.885988e-003 -4.403609e-001 -8.101207e+000 60 90 90
1.350810e+000 -4.324787e-001 -8.637520e+000 166 111 71
1.734892e+000 -4.939991e-001 -8.876912e+000 168 105 74
2.965290e+000 -4.004342e-001 -9.344448e+000 184 109 86
-6.997339e-001 -7.531645e-001 -8.169477e+000 160 26 28
1.609742e+000 -7.701163e-001 -9.212633e+000 173 107 75
1.228796e+000 -9.230803e-001 -9.390879e+000 172 41 48
2.024645e+000 -8.940751e-001 -9.828380e+000 175 136 111
8.654896e-001 -2.182998e-001 -8.305628e+000 141 11 16
2.631980e+000 -1.174047e-001 -9.012930e+000 149 19 29
8.060940e-001 -6.213533e-001 -8.636359e+000 120 19 23
1.260016e-001 -2.864896e-001 -8.059798e+000 80 93 94
-9.576590e-002 -7.693941e-001 -8.450116e+000 24 50 21
1.221546e+000 -5.720370e-001 -8.820932e+000 176 106 80
2.747438e+000 1.153539e-001 -8.905861e+000 180 60 65
1.263171e+000 2.063472e-002 -8.246203e+000 30 71 91
4.149457e+000 2.148210e-001 -9.367929e+000 61 15 10
2.901973e+000 -5.097065e-002 -8.989123e+000 192 135 92
9.407563e-002 -3.773269e-001 -8.075552e+000 152 147 26
2.185800e+000 -4.810113e-001 -8.844983e+000 199 123 81
3.379274e+000 -2.226425e-001 -9.369157e+000 183 91 43
3.658418e+000 -2.036074e-001 -9.464189e+000 181 82 30
-3.202954e-001 -3.252062e-001 -8.050743e+000 25 49 21
-1.637920e-001 -5.159696e-001 -8.073380e+000 66 91 77
-1.637920e-001 -5.159696e-001 -8.073380e+000 66 91 77
-5.997707e-002 -5.190254e-001 -8.153730e+000 82 104 76
2.426571e-002 -4.662167e-001 -8.213675e+000 34 54 23
5.257681e-001 -5.179379e-001 -8.359800e+000 167 145 110
2.330798e+000 -4.029875e-001 -8.997561e+000 181 58 54
3.333642e+000 -2.975707e-001 -9.413995e+000 139 40 11
3.197605e+000 -4.211462e-001 -9.477953e+000 174 107 72
3.166877e+000 -4.768332e-001 -9.504014e+000 168 127 83
-2.464598e-001 -6.718756e-001 -8.211164e+000 157 133 48
4.680643e-002 -6.783246e-001 -8.390065e+000 159 148 24
