ply
format ascii 1.0
element face 0
property list uchar int vertex_indices
element vertex 885
property float x
property float y
property float z
property uchar diffuse_red
property uchar diffuse_green
property uchar diffuse_blue
end_header
-6.432114e-001 1.194601e+000 -9.316559e+000 31 39 29
1.049877e+000 1.413128e+000 -9.879667e+000 124 65 60
1.026359e+000 1.387701e+000 -9.829188e+000 122 61 61
1.113179e+000 1.443132e+000 -9.875455e+000 122 59 59
1.186811e+000 1.388945e+000 -9.937914e+000 107 46 45
1.206829e+000 1.405109e+000 -9.910378e+000 118 51 58
1.922033e+000 1.452479e+000 -1.018517e+001 77 25 27
1.824110e+000 1.609820e+000 -9.975439e+000 104 72 57
1.434113e+000 1.546852e+000 -9.656067e+000 104 31 33
1.577063e+000 1.537490e+000 -9.829531e+000 91 19 24
3.282608e+000 1.656425e+000 -1.033714e+001 65 19 22
3.875009e+000 1.732445e+000 -1.061463e+001 34 21 26
9.299236e-001 1.469158e+000 -9.142046e+000 150 144 108
2.082625e+000 1.580513e+000 -9.613130e+000 22 54 58
3.170622e+000 1.516672e+000 -9.963009e+000 46 11 21
1.320973e+000 1.355046e+000 -9.066399e+000 151 146 112
-6.696970e-001 1.102481e+000 -8.127853e+000 153 148 15
-1.384765e+000 8.790746e-001 -7.834796e+000 112 90 67
-1.558508e-001 1.117136e+000 -8.272187e+000 30 45 29
1.118506e+000 1.153707e+000 -8.727424e+000 177 144 92
2.487877e+000 1.193760e+000 -9.183082e+000 98 67 63
2.487877e+000 1.193760e+000 -9.183082e+000 98 67 63
-1.282114e+000 7.844080e-001 -7.695920e+000 204 182 146
-6.739909e-001 1.052032e+000 -7.977073e+000 174 27 46
1.861087e+000 8.473784e-001 -8.612787e+000 156 91 85
4.806817e+000 -5.856725e-001 -8.417624e+000 128 112 102
5.042475e+000 2.654518e-001 -7.751509e+000 133 118 117
5.051922e+000 4.081989e-001 -7.690674e+000 61 51 52
5.078935e+000 3.617890e-001 -7.606273e+000 87 73 72
5.494804e+000 -1.724313e+000 -7.096516e+000 29 19 28
-1.318363e+000 9.601514e-001 -9.246145e+000 124 29 34
-1.318363e+000 9.601514e-001 -9.246145e+000 124 29 34
-1.276482e+000 9.603561e-001 -9.277041e+000 123 66 55
-8.215933e-001 1.039698e+000 -9.430721e+000 119 104 33
-1.074293e-001 1.069780e+000 -9.740018e+000 112 106 90
2.439495e-001 1.014518e+000 -9.960600e+000 123 67 59
3.145653e-001 1.137996e+000 -9.859642e+000 133 79 67
4.701853e-001 1.061285e+000 -1.002603e+001 96 37 27
5.656753e-001 1.073566e+000 -1.003593e+001 102 44 33
5.647113e-001 1.072873e+000 -1.003594e+001 102 44 33
1.378974e+000 1.144678e+000 -1.037264e+001 100 74 56
-1.247968e+000 1.137133e+000 -9.062637e+000 109 26 30
-1.234134e+000 1.181936e+000 -9.021003e+000 110 21 34
-1.114837e+000 1.204495e+000 -9.079946e+000 134 26 44
-4.660567e-001 1.196045e+000 -9.383297e+000 22 37 41
4.310089e-001 1.332420e+000 -9.663235e+000 109 56 45
4.275458e-001 1.327456e+000 -9.620459e+000 126 71 59
6.338877e-001 1.358627e+000 -9.699519e+000 128 71 60
6.632883e-001 1.397749e+000 -9.684413e+000 110 50 44
3.296503e+000 1.564993e+000 -1.064703e+001 73 74 67
3.296503e+000 1.564993e+000 -1.064703e+001 73 74 67
1.399428e+000 1.537889e+000 -9.651625e+000 128 74 56
1.396499e+000 1.540161e+000 -9.649701e+000 128 74 56
1.391975e+000 1.522656e+000 -9.749069e+000 101 25 29
1.666974e+000 1.541506e+000 -9.862225e+000 77 12 22
1.912826e+000 1.536807e+000 -9.924231e+000 112 78 61
1.365997e+000 1.555830e+000 -9.505615e+000 117 26 31
1.481048e+000 1.557599e+000 -9.578606e+000 141 62 57
1.495319e+000 1.562338e+000 -9.425428e+000 149 61 54
3.242440e+000 1.604164e+000 -1.019339e+001 151 110 78
3.246547e+000 1.568892e+000 -1.002573e+001 149 98 65
-6.591422e-001 1.135427e+000 -8.143379e+000 30 55 29
3.169494e-001 1.273797e+000 -8.554391e+000 157 150 43
2.684406e+000 1.278425e+000 -9.409261e+000 163 128 91
-1.402345e+000 8.452324e-001 -7.834308e+000 202 182 143
-1.402028e+000 8.387833e-001 -7.834733e+000 202 182 143
-7.007631e-001 1.037193e+000 -8.005171e+000 185 140 113
2.290233e+000 1.200059e+000 -9.181851e+000 141 112 99
2.012712e+000 8.906257e-001 -8.718355e+000 125 90 88
2.832638e+000 8.805579e-001 -9.013893e+000 74 47 48
8.323475e-001 7.518609e-001 -8.169178e+000 179 39 38
2.589698e+000 7.037691e-001 -8.761970e+000 152 117 108
2.387532e+000 6.861781e-001 -8.672094e+000 172 128 116
5.032153e+000 1.497821e-001 -7.685047e+000 147 129 124
5.081385e+000 4.625295e-001 -7.634285e+000 60 51 60
-1.379725e+000 9.128578e-001 -9.269470e+000 19 53 80
-9.098117e-001 8.866115e-001 -9.537107e+000 74 81 64
-9.443627e-001 9.617602e-001 -9.471383e+000 23 36 18
-6.127372e-001 9.882594e-001 -9.602445e+000 27 41 20
-6.931644e-001 1.117562e+000 -9.379216e+000 126 107 38
-4.027173e-001 1.157876e+000 -9.478370e+000 28 35 15
-4.027173e-001 1.157876e+000 -9.478370e+000 28 35 15
1.998189e-001 1.108016e+000 -9.867491e+000 123 73 63
3.307375e-001 1.203579e+000 -9.802378e+000 128 74 62
1.068796e+000 1.079702e+000 -1.021138e+001 123 73 62
-1.333960e+000 1.265424e+000 -8.880332e+000 48 68 77
-1.080870e+000 1.285856e+000 -8.990106e+000 134 31 37
-1.080870e+000 1.285856e+000 -8.990106e+000 134 31 37
4.060847e-001 1.140741e+000 -9.844968e+000 113 55 44
3.824295e-001 1.206246e+000 -9.760328e+000 134 80 68
3.824295e-001 1.206246e+000 -9.760328e+000 134 80 68
3.770665e-001 1.367423e+000 -9.627701e+000 133 80 67
1.039861e+000 1.442100e+000 -9.783271e+000 129 72 65
2.747545e+000 1.354239e+000 -1.073009e+001 102 68 56
1.309419e+000 1.503759e+000 -9.704212e+000 96 22 18
1.347859e+000 1.517856e+000 -9.702886e+000 117 59 45
2.861707e+000 1.620342e+000 -1.024991e+001 83 41 22
2.816900e+000 1.621623e+000 -1.007357e+001 86 40 20
1.526113e+000 1.337513e+000 -9.111365e+000 85 13 16
-6.558273e-001 1.137222e+000 -8.145378e+000 34 46 9
-6.514631e-001 1.129672e+000 -8.147961e+000 34 46 9
1.232134e+000 1.031272e+000 -8.604200e+000 139 19 30
1.232134e+000 1.031272e+000 -8.604200e+000 139 19 30
4.243476e+000 8.442169e-001 -9.633338e+000 143 83 43
4.128610e+000 6.770209e-001 -9.326048e+000 169 135 104
1.068100e+000 5.357959e-001 -8.092883e+000 166 115 87
-3.976028e-001 5.528235e-001 -7.538350e+000 180 40 38
4.832096e+000 -3.252541e-001 -8.341520e+000 48 36 40
5.166428e+000 -5.086442e-001 -7.451145e+000 159 141 131
5.098165e+000 5.102233e-001 -7.598913e+000 55 47 59
-5.258906e-001 1.023169e+000 -9.601775e+000 107 104 55
-9.409207e-001 1.115348e+000 -9.274161e+000 109 96 53
2.797186e-001 1.143993e+000 -9.774794e+000 130 80 65
2.022177e+000 1.346517e+000 -1.039362e+001 77 30 27
2.093423e+000 1.351705e+000 -1.042414e+001 100 62 51
9.792264e-001 1.502369e+000 -9.270954e+000 144 126 107
2.421743e+000 1.406786e+000 -9.525082e+000 135 53 43
1.923210e+000 9.754318e-001 -8.774672e+000 84 58 71
2.908921e-001 6.877703e-001 -7.908081e+000 164 152 79
2.908921e-001 6.877703e-001 -7.908081e+000 164 152 79
5.273327e+000 -1.427789e+000 -7.336164e+000 157 140 120
-8.156117e-001 9.815219e-001 -9.510103e+000 25 39 24
-7.058053e-001 9.868251e-001 -9.548612e+000 26 40 26
-8.698410e-001 1.177948e+000 -9.253152e+000 32 35 27
-7.176425e-001 1.055825e+000 -9.444693e+000 110 106 75
-5.826517e-001 1.088556e+000 -9.524853e+000 24 35 27
1.293791e+000 1.323481e+000 -1.009439e+001 116 60 47
3.063746e-001 1.384219e+000 -9.557797e+000 129 72 63
3.204650e+000 1.456207e+000 -1.072992e+001 28 31 22
2.652956e+000 1.466873e+000 -9.714268e+000 116 44 26
8.579899e-001 1.211245e+000 -8.706762e+000 161 145 115
4.135303e+000 9.948675e-001 -9.722892e+000 161 100 59
2.428845e+000 9.006548e-001 -8.879614e+000 32 16 31
-1.956107e-001 6.991737e-001 -7.759067e+000 158 149 47
4.795166e+000 -1.498630e-001 -8.255798e+000 61 50 51
4.820782e+000 1.630998e-001 -8.025017e+000 56 43 50
-1.229221e+000 1.109809e+000 -9.137128e+000 126 67 57
3.664345e+000 1.469577e+000 -1.089123e+001 82 52 44
2.533503e+000 1.314075e+000 -9.447372e+000 149 115 99
2.237415e+000 1.145032e+000 -9.096323e+000 137 112 90
1.488168e-001 9.980707e-001 -8.216513e+000 172 152 89
1.403868e+000 1.071147e+000 -8.731585e+000 15 64 99
7.557347e-001 8.132293e-001 -8.184630e+000 177 42 49
4.827129e+000 -7.207639e-001 -8.666456e+000 51 42 47
2.838212e+000 1.513240e+000 -1.011990e+001 132 92 65
-8.825607e-001 1.126533e+000 -8.060197e+000 28 82 112
-2.277175e-001 1.205347e+000 -8.385224e+000 144 136 67
-3.715373e-001 9.441256e-001 -8.064179e+000 33 58 39
5.109447e-001 7.484509e-001 -8.037489e+000 155 146 112
3.829363e+000 5.235223e-001 -9.175835e+000 182 104 38
-1.238588e-001 1.232787e+000 -9.516652e+000 109 103 88
-1.258049e+000 1.254887e+000 -8.884770e+000 126 113 95
3.455028e+000 1.566329e+000 -1.068727e+001 20 29 23
1.499734e+000 1.533965e+000 -9.748045e+000 110 27 35
1.499734e+000 1.533965e+000 -9.748045e+000 110 27 35
3.280199e+000 1.605955e+000 -1.044784e+001 93 56 47
1.653447e-001 1.227962e+000 -8.329379e+000 169 151 117
-5.247595e-001 9.499420e-001 -9.580964e+000 28 44 35
1.122845e+000 1.488954e+000 -9.520199e+000 117 27 32
1.953583e+000 1.374545e+000 -9.321925e+000 95 19 29
1.079639e+000 1.398393e+000 -8.961550e+000 146 23 34
-8.041078e-001 6.324980e-001 -9.766752e+000 39 59 59
-1.265375e+000 8.430249e-001 -9.435353e+000 96 104 67
-5.514414e-001 8.739112e-001 -9.724866e+000 106 117 83
-5.514414e-001 8.739112e-001 -9.724866e+000 106 117 83
2.383311e-001 6.613626e-001 -1.021146e+001 120 72 75
2.383311e-001 6.613626e-001 -1.021146e+001 120 72 75
1.695150e-001 8.145966e-001 -1.009477e+001 119 66 73
3.399550e+000 4.817092e-001 -1.172711e+001 24 18 30
3.288885e+000 6.236671e-001 -1.161143e+001 115 66 59
-1.641656e+000 9.246630e-001 -9.130971e+000 14 43 72
-4.795739e-001 1.057864e+000 -9.671478e+000 115 119 116
-1.468337e-001 1.033350e+000 -9.764127e+000 82 28 32
8.695510e-002 1.022909e+000 -9.899057e+000 96 31 35
7.836740e-001 1.095120e+000 -1.014103e+001 82 21 20
2.210216e+000 8.111509e-001 -1.095272e+001 93 64 59
3.080432e+000 1.002156e+000 -1.120725e+001 45 55 46
-1.141954e+000 1.069428e+000 -9.230361e+000 134 120 108
-1.166722e+000 1.159923e+000 -9.111950e+000 112 34 31
-1.127611e+000 1.178133e+000 -9.114723e+000 117 25 27
-1.319170e-001 1.105625e+000 -9.696094e+000 76 21 27
-9.578638e-002 1.165269e+000 -9.633288e+000 85 33 39
4.715385e-001 1.143716e+000 -9.962687e+000 107 48 40
3.201625e+000 1.034397e+000 -1.119971e+001 26 32 28
-1.197062e+000 1.239432e+000 -8.990885e+000 101 21 16
-1.197062e+000 1.239432e+000 -8.990885e+000 101 21 16
-5.580854e-001 1.246707e+000 -9.287371e+000 101 96 58
9.041140e-001 1.283226e+000 -9.974889e+000 84 22 20
1.270242e+000 1.270848e+000 -1.010990e+001 129 66 56
-2.040254e+000 1.227510e+000 -8.422753e+000 126 63 56
9.630101e-001 1.514097e+000 -9.461129e+000 126 39 42
-2.272926e+000 7.281560e-001 -8.071097e+000 160 20 31
3.338562e+000 1.602200e+000 -1.039156e+001 106 62 56
1.820967e+000 1.536127e+000 -9.523264e+000 23 59 82
2.012752e+000 1.513567e+000 -9.554797e+000 71 100 109
1.362591e+000 1.349056e+000 -9.057827e+000 25 60 81
2.077086e+000 1.404077e+000 -9.425906e+000 68 101 113
2.299962e+000 1.254295e+000 -9.260669e+000 132 105 84
2.600613e+000 1.271727e+000 -9.482673e+000 138 109 93
2.386628e+000 1.109028e+000 -9.127674e+000 40 17 10
-5.403899e-001 9.055279e-001 -7.940951e+000 166 156 117
-5.403899e-001 9.055279e-001 -7.940951e+000 166 156 117
1.189291e+000 9.983216e-001 -8.551264e+000 187 134 94
2.035428e+000 9.291024e-001 -8.787401e+000 87 64 70
1.930330e+000 8.270200e-001 -8.639213e+000 158 101 85
4.050564e+000 7.602485e-001 -9.381324e+000 147 52 37
4.050564e+000 7.602485e-001 -9.381324e+000 147 52 37
-6.099477e-001 6.994759e-001 -7.600453e+000 188 153 109
-5.885079e-001 7.380168e-001 -7.671195e+000 192 148 104
8.249596e-001 7.812963e-001 -8.190652e+000 164 147 115
8.249596e-001 7.812963e-001 -8.190652e+000 164 147 115
2.606649e+000 6.855506e-001 -8.766031e+000 150 113 97
5.358324e+000 -2.111714e+000 -7.378227e+000 66 60 62
-7.835388e-001 3.717931e-001 -9.896757e+000 59 91 137
1.390604e+000 8.338230e-001 -1.064709e+001 93 63 61
2.543817e-001 1.029295e+000 -9.988161e+000 150 97 101
2.717213e-001 1.072316e+000 -9.945501e+000 130 81 67
4.191083e-001 1.027130e+000 -1.007350e+001 119 64 67
7.748918e-001 1.136663e+000 -1.017903e+001 88 27 32
1.510860e+000 8.769373e-001 -1.061094e+001 93 62 57
1.761522e+000 9.490473e-001 -1.068265e+001 98 63 61
1.858438e+000 9.302767e-001 -1.076441e+001 96 66 64
-9.041665e-001 1.131113e+000 -9.259475e+000 108 105 28
-6.946887e-002 1.151925e+000 -9.662514e+000 108 95 79
9.530806e-001 1.138810e+000 -1.005513e+001 86 20 24
1.158144e+000 1.325581e+000 -1.013945e+001 110 102 74
2.737233e+000 1.065607e+000 -1.093344e+001 79 40 34
-1.279598e+000 1.252719e+000 -8.962426e+000 40 59 67
-1.199438e+000 1.274002e+000 -8.963609e+000 138 109 81
4.572206e-001 1.285699e+000 -9.679011e+000 99 39 36
8.999645e-001 1.263599e+000 -9.920577e+000 96 31 27
4.667086e-001 1.372618e+000 -9.649705e+000 133 77 64
4.667086e-001 1.372618e+000 -9.649705e+000 133 77 64
6.015721e-001 1.310834e+000 -9.722111e+000 112 58 48
6.546435e-001 1.324788e+000 -9.709607e+000 127 73 61
1.052506e+000 1.373649e+000 -9.866369e+000 101 41 36
4.113085e+000 1.533695e+000 -1.061229e+001 29 19 28
2.839529e+000 1.528415e+000 -9.985859e+000 139 99 66
-1.596551e+000 1.005707e+000 -8.146190e+000 190 167 133
2.299653e+000 1.390646e+000 -9.580584e+000 153 28 42
-7.025635e-001 1.187184e+000 -8.128002e+000 149 140 27
1.609412e+000 1.300094e+000 -9.068087e+000 79 57 72
1.662795e+000 1.207324e+000 -9.038648e+000 78 56 68
-1.353065e+000 9.469324e-001 -7.805721e+000 203 185 143
1.241373e+000 1.140898e+000 -8.774782e+000 148 22 35
1.172676e+000 1.137844e+000 -8.717036e+000 147 19 27
2.651397e+000 1.157338e+000 -9.308732e+000 72 51 58
2.853395e+000 9.426620e-001 -9.165281e+000 69 52 53
-5.804484e-001 8.809500e-001 -7.845183e+000 193 148 109
1.402439e+000 8.847287e-001 -8.535270e+000 170 65 62
1.604826e+000 8.516218e-001 -8.534192e+000 17 70 88
2.184370e+000 7.916483e-001 -8.700203e+000 144 112 107
4.208420e+000 5.972573e-001 -9.343650e+000 180 130 98
-6.023047e-001 5.608057e-001 -7.652117e+000 191 36 40
-6.411251e-001 6.993046e-001 -7.594576e+000 178 44 51
-2.359127e-001 5.627644e-001 -7.821779e+000 34 52 31
1.044353e+000 6.085629e-001 -8.113459e+000 155 100 79
3.011286e+000 5.703541e-001 -8.861022e+000 168 138 99
3.011286e+000 5.703541e-001 -8.861022e+000 168 138 99
4.188884e+000 4.267733e-001 -9.234456e+000 46 25 32
4.484092e+000 5.224708e-001 -9.392043e+000 30 19 14
4.856308e+000 -3.365943e-001 -8.283743e+000 135 121 116
4.807929e+000 -7.072375e-002 -8.173401e+000 62 51 52
4.902872e+000 -3.218326e-001 -7.991138e+000 131 115 99
4.973369e+000 1.925297e-001 -7.895352e+000 49 37 38
1.964458e-001 6.091862e-001 -1.014864e+001 138 93 99
2.175835e-001 1.142106e+000 -9.890609e+000 102 48 36
9.374986e-001 1.001722e+000 -1.022720e+001 123 68 67
9.435345e-001 1.038381e+000 -1.025154e+001 106 42 43
1.676234e+000 1.035645e+000 -1.055790e+001 98 60 46
1.736749e+000 1.012342e+000 -1.060817e+001 123 93 85
1.860133e+000 1.048272e+000 -1.065549e+001 119 90 82
1.970249e+000 9.792756e-001 -1.076196e+001 117 91 84
1.963241e+000 1.097910e+000 -1.068902e+001 113 84 76
2.187649e+000 9.848049e-001 -1.088789e+001 112 83 78
-2.369366e-002 1.100567e+000 -9.724908e+000 91 67 57
1.138143e-003 1.133876e+000 -9.683651e+000 99 82 66
3.265264e-001 1.140011e+000 -9.796894e+000 100 43 32
9.511254e-001 1.047018e+000 -1.018629e+001 123 65 64
2.109969e+000 1.159113e+000 -1.064695e+001 78 35 29
2.602142e+000 1.095265e+000 -1.085050e+001 62 22 12
2.602142e+000 1.095265e+000 -1.085050e+001 62 22 12
2.748465e+000 1.102203e+000 -1.094598e+001 98 62 44
-1.222694e+000 1.241797e+000 -8.974848e+000 122 27 32
-1.211565e+000 1.276059e+000 -8.934952e+000 126 27 37
3.288374e+000 1.342576e+000 -1.092818e+001 39 42 35
3.288374e+000 1.342576e+000 -1.092818e+001 39 42 35
4.988768e-001 1.419715e+000 -9.618262e+000 94 35 27
5.955732e-001 1.305174e+000 -9.682284e+000 130 78 65
2.389684e+000 1.328421e+000 -1.047885e+001 93 59 53
2.389684e+000 1.328421e+000 -1.047885e+001 93 59 53
3.369326e+000 1.319331e+000 -1.091806e+001 29 31 28
3.369326e+000 1.319331e+000 -1.091806e+001 29 31 28
3.294071e+000 1.525758e+000 -1.056417e+001 31 34 26
1.581025e-001 1.479719e+000 -8.904517e+000 49 62 42
1.580967e+000 1.349399e+000 -9.164676e+000 84 20 26
5.621800e-003 1.241944e+000 -8.460812e+000 35 48 45
2.813159e-001 1.136995e+000 -8.424331e+000 29 57 29
-5.797739e-001 9.458873e-001 -7.871048e+000 163 36 43
1.018985e-001 8.828613e-001 -8.056205e+000 15 54 35
2.576664e+000 8.424328e-001 -8.932976e+000 146 123 103
2.620931e+000 8.384289e-001 -8.896857e+000 148 121 103
2.886022e+000 7.797094e-001 -8.953516e+000 85 52 56
3.252661e+000 8.542258e-001 -9.142537e+000 156 120 71
4.265284e-001 7.732735e-001 -8.014074e+000 27 45 27
9.222924e-001 6.889586e-001 -8.126465e+000 150 100 83
1.051380e+000 4.957742e-001 -8.056968e+000 178 158 129
4.811141e+000 -3.690289e-001 -8.325904e+000 144 131 127
5.062758e+000 -5.995732e-002 -8.030755e+000 57 45 49
5.147386e+000 1.350315e-001 -7.770161e+000 148 130 120
-7.561458e-001 8.616113e-001 -9.651275e+000 39 53 54
-7.561458e-001 8.616113e-001 -9.651275e+000 39 53 54
-6.764050e-001 7.958994e-001 -9.706486e+000 103 110 87
-6.378336e-001 8.656080e-001 -9.695456e+000 37 49 37
-6.378336e-001 8.656080e-001 -9.695456e+000 37 49 37
8.431299e-001 3.955433e-001 -1.058420e+001 140 118 116
-6.580660e-001 1.021153e+000 -9.553768e+000 87 85 42
-4.962076e-001 1.044403e+000 -9.643308e+000 28 35 19
7.422498e-001 9.292815e-001 -1.027561e+001 87 23 31
1.548552e+000 1.017135e+000 -1.055967e+001 122 92 90
-8.001492e-001 1.053894e+000 -9.398850e+000 25 31 18
1.813798e+000 1.053594e+000 -1.054784e+001 105 61 48
2.094092e+000 1.106267e+000 -1.063125e+001 97 56 42
2.051675e+000 1.154942e+000 -1.055075e+001 75 25 26
-1.108766e+000 1.251911e+000 -9.031740e+000 117 31 28
-4.731469e-001 1.270670e+000 -9.361194e+000 26 37 20
-4.731469e-001 1.270670e+000 -9.361194e+000 26 37 20
-2.167751e-001 1.299792e+000 -9.391748e+000 19 38 22
-2.167751e-001 1.299792e+000 -9.391748e+000 19 38 22
-4.389718e-001 1.349811e+000 -9.208576e+000 21 37 26
1.128266e+000 1.471117e+000 -9.811736e+000 120 68 57
1.048787e+000 1.464105e+000 -9.250282e+000 145 41 41
2.482500e+000 1.354291e+000 -9.499802e+000 84 22 18
3.130652e-001 1.056095e+000 -8.357086e+000 22 57 29
3.041800e+000 8.554458e-001 -9.070060e+000 168 122 88
9.236987e-001 6.867148e-001 -8.126488e+000 150 99 83
1.023728e+000 6.910192e-001 -8.169978e+000 157 88 75
3.501785e-002 5.991749e-001 -7.725842e+000 162 154 84
4.721362e+000 -3.013305e-001 -8.400884e+000 43 36 38
5.052117e+000 -2.049121e+000 -7.875234e+000 155 145 120
5.172517e+000 7.197245e-002 -7.580569e+000 161 143 133
-5.923928e-001 9.290668e-001 -9.674306e+000 115 120 98
-5.148893e-001 8.830707e-001 -9.733962e+000 36 50 48
-5.148893e-001 8.830707e-001 -9.733962e+000 36 50 48
-1.050462e+000 9.196892e-001 -9.435157e+000 23 33 17
-7.148960e-001 1.010107e+000 -9.542323e+000 30 39 25
3.865593e-001 9.525232e-001 -1.006620e+001 136 87 83
1.941415e+000 1.085667e+000 -1.052876e+001 81 33 33
1.039359e+000 1.250152e+000 -9.965756e+000 126 76 63
2.203161e+000 1.255048e+000 -1.058497e+001 99 65 48
3.208256e+000 1.206683e+000 -1.095755e+001 27 35 27
3.683599e+000 1.110851e+000 -1.117272e+001 66 35 26
8.644039e-001 1.589414e+000 -9.477419e+000 121 103 85
1.039833e+000 1.560941e+000 -9.592917e+000 113 28 35
4.939096e-002 1.196100e+000 -8.413577e+000 168 156 81
8.478782e-001 1.301348e+000 -8.747309e+000 166 36 42
2.867237e-001 1.156763e+000 -8.433936e+000 34 54 31
1.537323e+000 1.152902e+000 -8.880681e+000 16 49 81
9.500010e-001 1.096376e+000 -8.536025e+000 174 37 51
1.536218e+000 1.095005e+000 -8.725892e+000 29 73 109
2.144200e+000 9.726991e-001 -8.846953e+000 79 57 70
-3.896193e-001 9.310607e-001 -7.931971e+000 157 153 100
2.591648e+000 8.736043e-001 -8.923226e+000 142 116 99
2.329893e+000 6.596606e-001 -8.627126e+000 99 52 51
1.905733e-001 5.955372e-001 -7.787894e+000 168 154 57
5.304728e+000 -1.700326e+000 -7.480071e+000 159 140 123
-1.322604e+000 8.619473e-001 -9.410596e+000 32 70 119
1.378807e-001 1.003959e+000 -9.904250e+000 93 33 28
1.378807e-001 1.003959e+000 -9.904250e+000 93 33 28
4.066399e-001 1.189206e+000 -9.894194e+000 127 76 57
1.227142e+000 1.219059e+000 -1.021247e+001 112 98 71
-1.181393e+000 1.292168e+000 -8.996584e+000 129 93 71
2.077511e+000 1.533503e+000 -9.647639e+000 14 61 78
-2.866025e-002 1.376401e+000 -8.607021e+000 104 115 108
-2.866025e-002 1.376401e+000 -8.607021e+000 104 115 108
5.910800e-001 1.325299e+000 -8.791928e+000 141 40 37
1.674224e+000 1.215043e+000 -9.014189e+000 85 60 78
5.550154e-002 1.029669e+000 -8.174159e+000 34 60 36
2.419435e+000 9.643504e-001 -8.962530e+000 138 113 93
7.614723e-001 1.183744e+000 -1.011998e+001 113 54 54
-7.183728e-001 1.255654e+000 -9.269629e+000 106 102 75
-7.183728e-001 1.255654e+000 -9.269629e+000 106 102 75
-5.377105e-001 1.228757e+000 -9.337525e+000 77 82 78
-5.377105e-001 1.228757e+000 -9.337525e+000 77 82 78
7.806767e-001 1.389264e+000 -9.946625e+000 85 20 21
-1.000443e+000 1.380549e+000 -8.992429e+000 23 36 30
1.259346e+000 1.417421e+000 -9.887305e+000 91 18 26
1.917806e+000 1.369823e+000 -9.327629e+000 109 22 28
7.721585e-002 7.596175e-001 -7.856856e+000 163 149 118
7.721585e-002 7.596175e-001 -7.856856e+000 163 149 118
2.213947e-001 6.856878e-001 -7.880085e+000 38 66 43
4.592519e-001 6.647679e-001 -7.958279e+000 30 52 29
2.770629e+000 6.583824e-001 -8.821502e+000 84 43 48
2.854825e+000 5.604316e-001 -1.137159e+001 93 63 55
6.952051e-001 8.493472e-001 -1.024300e+001 133 122 128
5.819931e-001 1.031860e+000 -1.002944e+001 107 50 41
1.027941e+000 1.216148e+000 -1.006199e+001 131 99 76
3.492921e+000 1.313990e+000 -9.986414e+000 146 112 77
9.340516e-003 9.495880e-001 -8.101784e+000 165 153 114
2.371676e+000 8.073215e-001 -8.802869e+000 148 117 104
3.460321e+000 1.558758e+000 -1.069011e+001 21 31 23
-1.274597e+000 8.799056e-001 -9.338181e+000 144 89 80
-1.281367e+000 1.256897e+000 -9.137348e+000 143 93 72
3.852845e+000 1.536185e+000 -1.040571e+001 132 99 68
-8.387932e-001 1.209913e+000 -8.151395e+000 22 82 111
3.752363e-002 1.218324e+000 -9.517782e+000 100 94 79
1.820490e+000 1.490532e+000 -9.806285e+000 87 14 29
1.934715e+000 1.183395e+000 -1.039091e+001 85 40 37
3.677774e+000 1.465110e+000 -1.020263e+001 143 106 77
5.306245e-001 1.354644e+000 -8.646833e+000 162 34 35
2.434307e+000 4.716701e-001 -8.596085e+000 160 115 68
1.554911e+000 3.035943e-001 -8.003172e+000 164 99 72
1.117404e+000 8.274463e-002 -8.066404e+000 114 144 155
2.923586e-001 -2.498922e-002 -7.828671e+000 150 154 132
3.561874e+000 9.939420e-005 -9.197583e+000 191 96 51
2.423326e+000 -1.951222e-001 -8.849928e+000 201 75 79
2.891517e+000 -2.701852e-001 -9.128990e+000 118 66 51
3.429746e+000 -2.328186e-001 -9.352255e+000 170 84 50
3.498910e+000 -2.215964e-001 -9.348493e+000 178 91 59
2.447146e+000 -3.929189e-001 -9.040102e+000 193 75 77
2.497402e+000 -3.128960e-001 -8.989230e+000 164 37 45
2.703217e+000 -2.874927e-001 -9.040375e+000 168 51 62
2.665510e+000 -3.308967e-001 -9.065585e+000 189 72 81
3.314073e+000 -3.189541e-001 -9.363519e+000 144 47 17
-6.185715e-001 -4.419521e-001 -7.752036e+000 189 35 45
-6.185715e-001 -4.419521e-001 -7.752036e+000 189 35 45
8.272259e-001 -4.301313e-001 -8.339902e+000 158 36 41
2.629590e+000 -4.321727e-001 -9.149061e+000 186 61 76
3.061009e+000 -5.971841e-001 -9.579041e+000 143 105 86
3.323754e+000 -4.978127e-001 -9.576172e+000 171 134 107
3.403759e+000 -4.831229e-001 -9.580991e+000 172 138 110
-5.954319e-001 -6.068368e-001 -7.918446e+000 203 148 129
-3.037288e-001 -5.805980e-001 -8.013666e+000 159 164 40
2.142466e+000 -7.148176e-001 -9.244739e+000 184 113 103
-6.076617e-001 -7.647476e-001 -8.183948e+000 63 106 145
1.095074e+000 -8.320843e-001 -8.992582e+000 141 89 94
2.056764e+000 -7.562736e-001 -9.273238e+000 184 126 118
-5.808781e-001 -7.784698e-001 -8.132840e+000 122 135 84
-1.354833e+000 9.658089e-001 -7.835206e+000 195 173 149
2.379236e+000 4.281768e-001 -8.564778e+000 162 114 86
2.573734e+000 4.765957e-001 -8.655106e+000 161 120 65
4.109687e+000 6.049176e-001 -9.303249e+000 164 58 75
2.580098e+000 3.743448e-001 -8.649299e+000 87 32 43
3.016795e+000 3.844063e-001 -8.812232e+000 171 119 81
1.145299e+000 1.026303e-001 -8.105480e+000 21 88 131
2.389707e+000 5.190273e-002 -8.653147e+000 185 137 110
-1.643939e+000 -1.253693e-001 -7.911754e+000 181 158 135
2.237502e+000 -1.914403e-002 -8.651087e+000 196 142 116
2.727546e+000 -4.888927e-002 -8.868666e+000 201 86 88
2.727546e+000 -4.888927e-002 -8.868666e+000 201 86 88
3.800207e+000 -5.060240e-002 -9.344586e+000 188 168 144
1.717399e+000 -1.379136e-001 -8.510138e+000 195 128 101
2.426214e+000 -3.591585e-001 -8.987662e+000 159 31 45
2.739627e+000 -3.766771e-001 -9.116281e+000 161 36 49
3.229417e+000 -3.624575e-001 -9.359082e+000 150 45 25
3.473788e+000 -3.278107e-001 -9.457672e+000 179 102 60
2.057725e-001 -4.327866e-001 -8.079087e+000 163 167 26
2.296829e+000 -4.946114e-001 -9.075663e+000 157 37 43
2.978875e+000 -4.509360e-001 -9.322790e+000 196 134 116
-6.710000e-001 -5.153578e-001 -7.795838e+000 175 21 49
-2.170231e-001 -6.025395e-001 -8.072984e+000 23 58 43
-2.170231e-001 -6.025395e-001 -8.072984e+000 23 58 43
1.888556e+000 -6.794037e-001 -9.116310e+000 140 82 70
-7.684588e-001 -7.500453e-001 -8.056860e+000 169 49 59
7.623575e-002 -7.401736e-001 -8.391274e+000 160 160 43
6.125665e-001 5.985754e-001 -7.929476e+000 172 159 62
2.738511e+000 4.441856e-001 -8.704700e+000 117 63 25
4.376981e+000 5.906068e-001 -9.404794e+000 160 73 47
2.436452e+000 4.565888e-002 -8.697667e+000 158 23 34
2.451554e+000 -6.285750e-002 -8.748071e+000 186 68 72
1.503835e+000 -1.231419e-001 -8.408392e+000 169 110 106
-5.453757e-002 -3.063319e-001 -7.871082e+000 63 107 125
5.130435e-001 -4.843487e-001 -8.259555e+000 166 164 144
5.202294e-001 -4.855511e-001 -8.256344e+000 166 164 144
2.280632e+000 7.796944e-001 -8.724897e+000 78 35 45
6.811335e-001 -8.309111e-001 -8.806982e+000 189 128 119
-2.246398e+001 1.051231e+001 -6.327948e+001 23 16 24
2.774568e+000 -1.743919e-001 -8.969657e+000 171 35 49
8.717846e-001 -3.926832e-001 -8.363360e+000 205 150 124
-5.070774e-001 -6.018144e-001 -7.972087e+000 23 90 148
-3.840581e+001 4.078856e+000 -7.455300e+001 59 47 50
4.267972e+000 2.858100e-001 -9.315726e+000 49 11 9
3.175589e+000 4.164208e-001 -8.869019e+000 157 113 88
1.960891e+000 -4.677141e-001 -8.869918e+000 134 71 62
3.220887e+000 1.857128e-001 -1.021030e+001 157 21 35
3.220887e+000 1.857128e-001 -1.021030e+001 157 21 35
6.324509e-001 -3.893201e-001 -8.234775e+000 172 160 144
1.194173e+000 -5.176794e-001 -8.606406e+000 188 131 111
2.380403e+000 4.180394e-001 -8.582570e+000 177 131 83
2.792989e+000 4.392305e-001 -8.714915e+000 181 135 72
3.379275e+000 6.479480e-002 -9.059240e+000 200 84 37
-1.011792e-001 -3.534145e-001 -7.899007e+000 30 59 39
-3.829262e+001 4.801188e+000 -7.639967e+001 86 65 68
-2.735995e+001 4.319507e+000 -8.133482e+001 111 97 84
-2.622639e+001 8.417202e+000 -7.671567e+001 68 56 56
-3.845290e+001 5.668396e+000 -7.513287e+001 133 91 81
-3.198244e+001 6.224892e+000 -7.524755e+001 84 41 36
-2.954053e+001 6.859901e+000 -7.771551e+001 41 28 25
-2.885171e+001 7.428473e+000 -7.710955e+001 53 44 45
-2.754692e+001 3.780003e+000 -8.270376e+001 38 27 22
-2.748689e+001 3.775687e+000 -8.253737e+001 38 27 22
-2.674680e+001 4.333947e+000 -8.183645e+001 118 102 90
8.702751e-001 -9.476494e-002 -8.031725e+000 157 22 36
-2.733874e+001 7.038818e+000 -7.700553e+001 104 90 90
-2.806709e+001 6.144865e+000 -7.895175e+001 113 94 93
-3.100864e+001 4.507125e+000 -8.053777e+001 84 80 94
-2.656467e+001 4.976400e+000 -7.846232e+001 48 38 36
-2.586032e+001 8.951869e+000 -7.688968e+001 38 33 36
-2.682734e+001 7.425595e+000 -7.831786e+001 51 37 36
-2.632789e+001 6.578449e+000 -7.992090e+001 74 61 61
-3.001195e+001 5.894497e+000 -7.875912e+001 145 53 53
-3.002018e+001 4.026663e+000 -8.121573e+001 30 19 24
-2.652331e+001 4.965859e+000 -7.834426e+001 49 37 36
-6.040453e+000 -7.864816e+001 -1.391974e+001 141 113 81
-6.841562e-001 1.207304e+000 -8.316541e+000 37 57 17
9.821974e-002 9.005950e-001 -8.134911e+000 45 55 39
3.826237e-001 6.823099e-001 -7.915031e+000 160 161 23
2.005383e+000 9.185713e-001 -8.763795e+000 116 83 88
2.127737e+000 9.199890e-001 -8.804247e+000 122 97 101
-5.952576e-001 5.275728e-001 -7.426684e+000 190 148 126
2.321605e+000 7.580067e-001 -8.735058e+000 81 40 42
2.778098e+000 7.738164e-001 -8.949075e+000 67 27 34
3.055501e+000 8.046200e-001 -9.028359e+000 30 27 38
-1.370165e+000 4.882865e-001 -7.635953e+000 199 176 142
2.068671e+000 5.152150e-001 -8.462296e+000 168 129 89
2.546423e+000 4.922014e-001 -8.655864e+000 165 125 74
2.857486e+000 5.626622e-001 -8.778120e+000 67 38 43
3.129373e+000 5.145650e-001 -8.866103e+000 30 24 51
3.129373e+000 5.145650e-001 -8.866103e+000 30 24 51
3.269586e+000 6.231348e-001 -8.964780e+000 140 149 126
2.799449e+000 4.129507e-001 -8.687102e+000 162 126 75
3.324727e+000 4.551234e-001 -8.846886e+000 159 127 85
4.336819e+000 4.282001e-001 -9.162099e+000 200 98 56
4.289837e+000 2.966293e-001 -9.305057e+000 160 77 56
1.025963e+000 1.043216e-001 -8.073369e+000 26 37 71
3.859260e+000 1.983829e-001 -9.185063e+000 38 12 16
3.906583e+000 1.760611e-001 -9.224351e+000 46 21 24
4.205142e+000 2.205185e-001 -9.270359e+000 59 19 32
9.579306e-001 -3.330589e-002 -8.108905e+000 185 143 120
1.444993e+000 -1.417437e-002 -8.303150e+000 77 34 28
2.578884e+000 -1.108694e-002 -8.837841e+000 136 21 34
2.617902e+000 -1.035208e-002 -8.768683e+000 141 17 35
3.379080e+000 7.978562e-002 -9.057915e+000 182 75 50
3.452353e+000 1.205396e-002 -9.101272e+000 117 36 30
3.490284e+000 3.034133e-003 -9.151345e+000 153 74 53
3.526210e+000 1.101451e-002 -9.163848e+000 112 36 21
3.896589e+000 4.779865e-002 -9.273522e+000 167 145 131
3.896589e+000 4.779865e-002 -9.273522e+000 167 145 131
4.072435e+000 4.581767e-002 -9.270174e+000 156 96 59
4.262855e+000 1.233225e-001 -9.436785e+000 50 9 13
7.741523e-002 -1.897067e-001 -7.849734e+000 161 156 53
9.306310e-001 -1.836580e-001 -8.200220e+000 181 139 109
1.064549e+000 -1.158956e-001 -8.198793e+000 10 59 99
1.333247e+000 -1.454344e-001 -8.331812e+000 167 105 95
1.505893e+000 -9.574689e-002 -8.381255e+000 176 119 99
2.713304e+000 -1.025580e-001 -8.880142e+000 182 69 77
3.315653e+000 -1.206924e-001 -9.170924e+000 171 109 51
3.443195e+000 -3.835479e-002 -9.172006e+000 101 22 1
3.418133e+000 -1.338960e-001 -9.235891e+000 99 36 3
3.422051e+000 -1.326183e-001 -9.238997e+000 99 36 3
3.455347e+000 -1.184235e-001 -9.250785e+000 186 132 86
3.449011e+000 -1.220162e-001 -9.234025e+000 186 132 86
3.564298e+000 -8.465769e-002 -9.263479e+000 97 27 8
3.774260e+000 -7.299163e-002 -9.360886e+000 61 38 37
3.791755e+000 -1.241101e-001 -9.373323e+000 33 14 12
3.783354e+000 -1.337407e-001 -9.411884e+000 161 140 131
3.827132e+000 -2.412333e-002 -9.232726e+000 100 77 69
3.827132e+000 -2.412333e-002 -9.232726e+000 100 77 69
3.851153e+000 -9.898821e-002 -9.328181e+000 171 151 133
4.141334e+000 5.842940e-003 -9.503884e+000 157 89 51
-1.454723e-001 -2.921049e-001 -7.859940e+000 151 152 10
-1.467552e-001 -2.967555e-001 -7.831587e+000 151 152 10
2.685536e+000 -2.033502e-001 -8.935295e+000 189 74 84
2.982866e+000 -2.786550e-001 -9.122712e+000 183 134 109
3.354112e+000 -2.678739e-001 -9.331914e+000 172 76 51
3.507767e+000 -1.798658e-001 -9.315032e+000 182 123 63
3.496821e+000 -2.497865e-001 -9.185535e+000 160 69 30
3.648573e+000 -2.616175e-001 -9.466405e+000 121 105 85
3.691459e+000 -2.588601e-001 -9.483252e+000 126 106 99
-6.703449e-001 -4.230143e-001 -7.716998e+000 169 152 123
-4.849393e-001 -3.398507e-001 -7.723497e+000 146 154 35
-1.731636e-002 -4.106607e-001 -8.011715e+000 150 155 28
1.888409e-001 -3.645590e-001 -8.058124e+000 148 149 46
4.878565e-001 -3.763214e-001 -8.157856e+000 148 150 119
4.686832e-001 -3.926287e-001 -8.162788e+000 137 20 45
5.437592e-001 -3.922298e-001 -8.187453e+000 107 27 34
5.608898e-001 -4.298596e-001 -8.235466e+000 161 141 129
8.686136e-001 -3.271386e-001 -8.282731e+000 175 143 115
8.799107e-001 -3.467948e-001 -8.301404e+000 159 24 37
8.798829e-001 -3.468935e-001 -8.301159e+000 159 24 37
1.004011e+000 -3.974327e-001 -8.395891e+000 12 42 77
2.444084e+000 -3.376718e-001 -8.973886e+000 185 79 89
2.521150e+000 -3.344314e-001 -9.009073e+000 184 71 77
2.984445e+000 -2.972266e-001 -9.172063e+000 119 75 57
3.273387e+000 -3.084011e-001 -9.303995e+000 173 69 54
3.274008e+000 -3.324429e-001 -9.344775e+000 177 67 61
3.274008e+000 -3.324429e-001 -9.344775e+000 177 67 61
3.563125e+000 -2.839402e-001 -9.438560e+000 142 60 23
3.601515e+000 -3.188126e-001 -9.521183e+000 167 131 103
4.086755e+000 -2.596710e-001 -9.757165e+000 154 113 99
-6.705554e-001 -4.863299e-001 -7.776696e+000 170 28 40
-5.980687e-001 -4.819080e-001 -7.788122e+000 169 33 28
-5.979093e-001 -4.805977e-001 -7.793396e+000 169 33 28
-5.861982e-001 -4.976685e-001 -7.802641e+000 189 151 114
-5.873212e-001 -4.965675e-001 -7.806842e+000 189 151 114
-4.765746e-001 -4.439387e-001 -7.786036e+000 8 76 127
2.730309e-002 -5.023689e-001 -8.058021e+000 150 150 40
2.730309e-002 -5.023689e-001 -8.058021e+000 150 150 40
4.363157e-001 -5.167021e-001 -8.256657e+000 112 26 40
4.557486e-001 -4.554408e-001 -8.202786e+000 118 22 41
5.318194e-001 -4.533019e-001 -8.228756e+000 111 25 33
4.836413e-001 -5.157966e-001 -8.273390e+000 122 33 47
1.845935e+000 -4.602969e-001 -8.823544e+000 181 124 106
1.844563e+000 -4.613695e-001 -8.815817e+000 181 124 106
2.218409e+000 -4.885813e-001 -8.991638e+000 111 55 57
2.253742e+000 -5.025232e-001 -9.046998e+000 179 107 101
2.421592e+000 -4.349352e-001 -9.034944e+000 186 76 79
2.376260e+000 -4.760996e-001 -9.072986e+000 147 31 39
2.332106e+000 -5.447618e-001 -9.147957e+000 145 25 37
2.598518e+000 -5.227194e-001 -9.246317e+000 177 71 75
2.625435e+000 -4.371105e-001 -9.132848e+000 186 71 76
2.643836e+000 -4.620013e-001 -9.174590e+000 142 20 33
2.941225e+000 -4.247403e-001 -9.290843e+000 97 43 41
2.939307e+000 -4.251116e-001 -9.286858e+000 97 43 41
3.166728e+000 -4.500871e-001 -9.425959e+000 171 134 97
3.226441e+000 -4.524088e-001 -9.459249e+000 167 128 100
3.188014e+000 -5.359782e-001 -9.528161e+000 163 131 106
3.322352e+000 -5.240785e-001 -9.588979e+000 158 128 108
3.376835e+000 -4.200934e-001 -9.524404e+000 165 127 98
3.431898e+000 -4.453609e-001 -9.574641e+000 156 127 97
-6.534624e-001 -5.844447e-001 -7.889239e+000 203 156 134
-6.917139e-001 -6.074237e-001 -7.895870e+000 193 149 126
-6.916279e-001 -6.082627e-001 -7.894502e+000 193 149 126
-6.267184e-001 -6.488362e-001 -7.972215e+000 174 46 51
-3.817306e-001 -6.574269e-001 -8.073563e+000 59 92 79
-3.866524e-001 -6.526674e-001 -8.112052e+000 59 92 79
-2.207472e-001 -6.018806e-001 -8.067283e+000 24 49 44
-1.141662e-001 -6.373541e-001 -8.182848e+000 136 152 37
-1.141564e-001 -6.374064e-001 -8.182967e+000 136 152 37
4.123921e-001 -5.695742e-001 -8.322308e+000 124 33 44
4.128176e-001 -5.695124e-001 -8.322856e+000 124 33 44
5.033835e-001 -5.844576e-001 -8.375395e+000 147 142 133
5.516139e-001 -5.536308e-001 -8.381495e+000 148 142 131
1.222160e+000 -5.550542e-001 -8.645009e+000 88 47 45
1.819034e+000 -6.271938e-001 -9.020250e+000 122 68 58
1.819949e+000 -6.261990e-001 -9.023342e+000 122 68 58
1.973543e+000 -6.647747e-001 -9.084956e+000 135 82 78
2.302688e+000 -5.677118e-001 -9.145834e+000 179 70 74
2.255300e+000 -6.766785e-001 -9.273598e+000 190 90 96
2.400758e+000 -5.587772e-001 -9.188965e+000 157 41 54
2.551243e+000 -6.049527e-001 -9.335203e+000 191 78 86
3.101712e+000 -6.075116e-001 -9.585719e+000 157 127 103
3.291764e+000 -6.146937e-001 -9.723425e+000 157 130 101
3.313828e+000 -6.718276e-001 -9.763193e+000 154 130 103
3.360443e+000 -5.770300e-001 -9.684559e+000 161 134 109
3.396532e+000 -5.876594e-001 -9.485640e+000 164 143 123
-7.285167e-001 -6.995242e-001 -8.002380e+000 195 147 123
-7.402955e-001 -7.353883e-001 -8.040400e+000 184 158 122
-7.405567e-001 -7.356188e-001 -8.040208e+000 184 158 122
-6.311280e-001 -6.721952e-001 -7.970380e+000 171 42 54
-6.478144e-001 -6.892857e-001 -8.014458e+000 168 35 47
-8.215665e-002 -6.873916e-001 -8.248155e+000 164 157 46
-9.385214e-002 -7.505947e-001 -8.345322e+000 157 163 11
-9.385214e-002 -7.505947e-001 -8.345322e+000 157 163 11
1.473670e+000 -7.851273e-001 -9.096252e+000 115 64 61
1.474076e+000 -7.850746e-001 -9.097067e+000 115 64 61
1.970219e+000 -6.863528e-001 -9.159482e+000 120 67 60
1.932836e+000 -7.689638e-001 -9.258315e+000 116 61 56
2.123367e+000 -7.298637e-001 -9.293884e+000 124 66 52
2.247260e+000 -6.984626e-001 -9.326346e+000 180 90 89
2.301067e+000 -6.980246e-001 -9.295499e+000 187 76 85
2.743187e+000 -7.495122e-001 -9.585622e+000 188 131 117
3.285798e+000 -7.384574e-001 -9.897233e+000 165 137 113
-7.524679e-001 -7.728629e-001 -8.086222e+000 184 159 133
-7.682000e-001 -8.130812e-001 -8.131660e+000 190 161 137
-6.702490e-001 -8.275095e-001 -8.196962e+000 177 42 44
-6.653013e-001 -8.300685e-001 -8.183743e+000 177 42 44
1.246260e+000 -9.226337e-001 -9.326518e+000 179 72 79
1.366361e+000 -8.081472e-001 -9.068061e+000 113 64 67
1.522571e+000 -8.914837e-001 -9.355142e+000 146 59 65
1.693669e+000 -8.328965e-001 -9.124759e+000 125 72 68
1.693669e+000 -8.328965e-001 -9.124759e+000 125 72 68
-1.243313e-001 1.170709e+000 -8.339401e+000 33 62 32
2.539577e-001 1.214593e+000 -8.540528e+000 169 163 32
2.539577e-001 1.214593e+000 -8.540528e+000 169 163 32
1.983040e+000 1.496174e+000 -9.537874e+000 109 136 144
-5.746603e-001 8.713179e-001 -7.911438e+000 194 155 97
1.272415e+000 9.640194e-001 -8.567398e+000 174 114 84
-1.499209e+000 8.134501e-001 -7.974796e+000 193 169 141
-1.449128e+000 8.042907e-001 -7.872149e+000 192 171 144
4.492104e-001 7.619351e-001 -8.062939e+000 32 50 34
7.160046e-001 8.407397e-001 -8.241932e+000 181 40 49
7.160046e-001 8.407397e-001 -8.241932e+000 181 40 49
-1.846863e+000 6.891723e-001 -8.179077e+000 182 35 44
9.883007e-001 6.983711e-001 -8.220581e+000 167 156 124
1.878520e+000 6.731128e-001 -8.453509e+000 87 24 32
1.953098e+000 6.488419e-001 -8.484590e+000 86 25 28
2.978726e+000 8.069536e-001 -9.009815e+000 167 115 87
3.344993e+000 7.014729e-001 -9.049243e+000 164 124 85
2.209277e+000 5.444037e-001 -8.507865e+000 75 31 28
-1.690864e+000 4.758618e-001 -7.936157e+000 196 172 141
2.737762e+000 4.410584e-001 -8.692955e+000 116 62 18
4.105400e+000 4.907185e-001 -9.151697e+000 158 54 46
4.497076e+000 4.829041e-001 -9.401269e+000 39 35 42
1.086771e+000 5.039230e-002 -8.139050e+000 4 56 93
2.883995e+000 1.374492e-001 -8.774221e+000 182 125 95
4.236549e+000 2.312205e-001 -9.441408e+000 178 102 59
2.533192e+000 -2.387061e-002 -8.793529e+000 154 48 55
2.699368e+000 -2.501678e-002 -8.843417e+000 146 28 44
3.916978e+000 5.554015e-003 -9.354300e+000 171 147 140
1.429258e+000 -7.440377e-002 -8.335185e+000 83 52 41
1.885595e+000 -8.911128e-002 -8.541108e+000 100 63 51
2.058346e+000 -1.056525e-001 -8.609839e+000 111 72 82
2.372745e+000 -4.776799e-002 -8.705352e+000 169 119 94
3.058822e+000 -1.402086e-001 -9.055774e+000 178 124 101
3.393948e+000 -1.120096e-001 -9.208509e+000 178 121 59
3.640771e+000 -9.173259e-002 -9.231676e+000 196 126 70
3.669078e+000 -8.364902e-002 -9.291832e+000 196 126 70
2.682145e+000 -2.807554e-001 -9.053048e+000 177 66 72
2.739677e+000 -1.901507e-001 -8.981511e+000 154 32 43
2.938372e+000 -2.583982e-001 -9.110442e+000 176 128 105
5.677916e-001 -4.051333e-001 -8.219582e+000 157 143 128
2.515889e+000 -2.979700e-001 -8.957926e+000 179 71 81
3.434639e+000 -4.077369e-001 -9.501034e+000 166 128 100
3.431238e+000 -4.065811e-001 -9.496962e+000 166 128 100
3.480755e+000 -2.781685e-001 -9.394177e+000 165 85 46
-6.100351e-001 -5.170948e-001 -7.816396e+000 185 44 52
-6.100351e-001 -5.170948e-001 -7.816396e+000 185 44 52
-5.412465e-001 -5.256137e-001 -7.853071e+000 171 33 44
-3.043012e-001 -4.666895e-001 -7.892875e+000 152 152 53
-2.217498e-001 -5.154939e-001 -7.979353e+000 155 159 35
2.493519e-001 -5.046951e-001 -8.012756e+000 170 161 53
7.890124e-001 -4.468418e-001 -8.348213e+000 149 16 30
1.414538e+000 -5.034647e-001 -8.680597e+000 104 54 40
1.511374e+000 -5.002042e-001 -8.738644e+000 113 56 50
1.511374e+000 -5.002042e-001 -8.738644e+000 113 56 50
1.649368e+000 -5.118936e-001 -8.793478e+000 174 121 105
1.739748e+000 -5.089199e-001 -8.824849e+000 175 115 97
1.702364e+000 -5.362130e-001 -8.779939e+000 182 116 103
2.190975e+000 -4.727106e-001 -8.953426e+000 182 124 114
2.329493e+000 -5.070197e-001 -9.076112e+000 185 73 82
2.795570e+000 -5.487689e-001 -9.372650e+000 101 47 47
2.798593e+000 -5.472578e-001 -9.383857e+000 101 47 47
2.827039e+000 -4.829010e-001 -9.296735e+000 130 83 69
2.904971e+000 -5.232625e-001 -9.399937e+000 115 59 50
3.362373e+000 -4.698139e-001 -9.574734e+000 157 126 98
3.521197e+000 -5.293933e-001 -9.729860e+000 174 148 121
3.521197e+000 -5.293933e-001 -9.729860e+000 174 148 121
-6.856770e-001 -5.475236e-001 -7.828614e+000 166 29 35
-5.895504e-001 -5.525668e-001 -7.857113e+000 167 49 53
-5.959012e-001 -6.051803e-001 -7.925290e+000 188 161 125
-2.714313e-001 -6.141707e-001 -8.189365e+000 64 98 115
-6.411046e-002 -5.856918e-001 -8.130698e+000 159 159 32
-9.760128e-002 -6.186668e-001 -8.146269e+000 22 53 30
4.002204e-001 -6.161803e-001 -8.376014e+000 117 15 30
1.539493e+000 -6.370064e-001 -8.906239e+000 116 69 60
1.539493e+000 -6.370064e-001 -8.906239e+000 116 69 60
2.578212e+000 -5.532699e-001 -9.272018e+000 172 67 74
2.520504e+000 -6.227307e-001 -9.332510e+000 156 25 39
3.077093e+000 -6.361790e-001 -9.598960e+000 168 137 115
-7.340078e-001 -6.669031e-001 -7.961960e+000 183 36 47
-7.362242e-001 -6.667169e-001 -7.965209e+000 183 36 47
-6.673688e-001 -7.398432e-001 -8.054186e+000 171 43 54
-5.963392e-001 -6.757349e-001 -7.989411e+000 181 39 42
7.503186e-002 -7.426134e-001 -8.409317e+000 150 154 25
7.503186e-002 -7.426134e-001 -8.409317e+000 150 154 25
1.295336e+000 -7.699789e-001 -8.977263e+000 138 80 73
1.396207e+000 -7.468812e-001 -8.978163e+000 96 64 60
1.508415e+000 -7.033335e-001 -8.975108e+000 130 80 70
1.486249e+000 -7.541748e-001 -9.042101e+000 113 62 61
1.486249e+000 -7.541748e-001 -9.042101e+000 113 62 61
1.594323e+000 -7.161375e-001 -9.037412e+000 116 65 55
1.594323e+000 -7.161375e-001 -9.037412e+000 116 65 55
1.668031e+000 -7.519264e-001 -9.117381e+000 125 73 65
1.667167e+000 -7.514089e-001 -9.117894e+000 125 73 65
1.755833e+000 -7.573059e-001 -9.175617e+000 115 65 60
1.839622e+000 -7.754421e-001 -9.248229e+000 114 61 51
1.835361e+000 -7.770028e-001 -9.230189e+000 114 61 51
1.892557e+000 -8.081350e-001 -9.230692e+000 131 77 75
1.892557e+000 -8.081350e-001 -9.230692e+000 131 77 75
1.966842e+000 -7.677830e-001 -9.233561e+000 183 129 118
2.053219e+000 -7.409204e-001 -9.373440e+000 126 69 67
2.000987e+000 -7.954426e-001 -9.333051e+000 136 83 77
1.972443e+000 -8.010416e-001 -9.208677e+000 136 83 77
2.060641e+000 -7.815066e-001 -9.373007e+000 186 130 119
2.060641e+000 -7.815066e-001 -9.373007e+000 186 130 119
2.218178e+000 -7.554626e-001 -9.394528e+000 182 95 91
2.579018e+000 -7.090845e-001 -9.367059e+000 152 29 40
-2.257125e-001 -8.159695e-001 -8.383273e+000 162 158 26
-2.249701e-001 -8.161380e-001 -8.384052e+000 162 158 26
1.441505e+000 -8.251257e-001 -9.094301e+000 117 66 63
1.556092e+000 -8.028360e-001 -9.186682e+000 120 67 66
2.024925e+000 -8.501801e-001 -9.460597e+000 189 130 128
4.090222e+000 -2.244267e+000 -1.006538e+001 60 47 54
4.154552e+000 -2.158962e+000 -9.957355e+000 146 129 135
4.074209e+000 -2.355649e+000 -1.014794e+001 144 130 130
-1.151687e+000 1.197684e+000 -8.062953e+000 125 138 140
-4.000151e-001 1.312893e+000 -8.499209e+000 45 59 43
-4.000151e-001 1.312893e+000 -8.499209e+000 45 59 43
7.553484e-001 1.408593e+000 -8.956017e+000 146 110 83
-8.243377e-001 1.088282e+000 -8.116256e+000 170 42 50
-1.444002e+000 9.170198e-001 -8.007188e+000 195 172 141
-5.304548e-001 8.297708e-001 -7.809882e+000 166 41 36
2.110373e+000 1.146266e+000 -9.052295e+000 128 102 97
2.176075e+000 1.232768e+000 -9.199475e+000 88 67 82
2.302430e+000 1.070255e+000 -9.014807e+000 45 19 19
2.315999e+000 1.086129e+000 -9.065335e+000 45 19 19
2.483810e+000 1.243125e+000 -9.291465e+000 117 67 57
2.570101e+000 1.039007e+000 -9.083913e+000 124 95 89
-1.349824e+000 7.238597e-001 -7.708580e+000 195 173 142
3.916733e-001 7.392807e-001 -7.982058e+000 28 58 26
1.104469e+000 7.829918e-001 -8.275984e+000 173 39 43
2.523010e+000 8.976349e-001 -8.908314e+000 147 118 108
2.804225e+000 8.323789e-001 -8.907972e+000 83 54 68
-1.326532e-001 5.947267e-001 -7.672783e+000 73 107 118
1.095103e+000 6.405082e-001 -8.187436e+000 166 157 128
1.847016e+000 7.339670e-001 -8.557033e+000 166 100 67
2.019719e+000 7.134762e-001 -8.535032e+000 82 40 50
2.016038e+000 7.093805e-001 -8.520685e+000 82 40 50
2.018447e+000 6.408397e-001 -8.501511e+000 71 29 37
2.185690e+000 6.470417e-001 -8.532641e+000 106 51 64
2.467819e+000 6.514437e-001 -8.668429e+000 122 93 90
2.893572e+000 6.880539e-001 -8.872020e+000 67 45 52
3.642152e+000 6.946621e-001 -9.251407e+000 128 37 58
3.607410e+000 6.574568e-001 -9.235060e+000 155 121 75
2.384062e+000 4.334164e-001 -8.513421e+000 118 54 18
4.180353e+000 4.683254e-001 -9.292740e+000 190 101 57
4.315154e+000 5.498796e-001 -9.287922e+000 171 75 48
1.290475e+000 1.024480e-001 -8.167967e+000 5 60 100
2.896593e+000 1.833325e-001 -8.895290e+000 146 25 46
3.827919e+000 2.586047e-001 -9.157383e+000 58 37 46
1.408620e+000 2.253286e-003 -8.281266e+000 170 115 92
1.580128e+000 -4.651623e-002 -8.388354e+000 170 113 94
1.941060e+000 -4.219508e-002 -8.489846e+000 176 122 98
1.920845e+000 -5.973295e-002 -8.489874e+000 173 122 101
1.184594e+000 -1.085337e-001 -8.274813e+000 22 74 118
1.594784e+000 -1.214494e-001 -8.427684e+000 158 105 97
1.846254e+000 -8.442661e-002 -8.501177e+000 176 126 100
1.828194e+000 -1.049921e-001 -8.519348e+000 175 123 102
2.154044e+000 -1.008264e-001 -8.648744e+000 161 116 111
2.362625e+000 -9.373515e-002 -8.584716e+000 138 13 27
2.943297e+000 -7.718645e-002 -8.979293e+000 179 127 95
2.981996e+000 -1.276363e-001 -9.027220e+000 179 128 102
2.981996e+000 -1.276363e-001 -9.027220e+000 179 128 102
3.830424e+000 -8.664756e-003 -9.317142e+000 169 146 130
1.527177e-001 -2.698349e-001 -7.940822e+000 164 157 34
1.527177e-001 -2.698349e-001 -7.940822e+000 164 157 34
2.929096e+000 -3.409400e-001 -9.185610e+000 178 123 102
2.925499e+000 -3.435387e-001 -9.176719e+000 178 123 102
9.415726e-001 -5.310577e-001 -8.342120e+000 9 49 92
1.079268e+000 -5.382427e-001 -8.519151e+000 22 82 132
1.308542e+000 -4.515520e-001 -8.549485e+000 179 115 100
1.383877e+000 -4.783283e-001 -8.658679e+000 182 121 108
1.554463e+000 -5.042483e-001 -8.770965e+000 178 118 101
1.550698e+000 -5.090470e-001 -8.743757e+000 178 118 101
1.675481e+000 -5.297855e-001 -8.831447e+000 125 73 63
1.801752e+000 -5.040956e-001 -8.743372e+000 175 118 101
1.856954e+000 -4.471411e-001 -8.816052e+000 177 119 95
2.026898e+000 -4.575933e-001 -8.900331e+000 174 120 102
2.102696e+000 -4.855760e-001 -8.944534e+000 176 120 105
2.102696e+000 -4.855760e-001 -8.944534e+000 176 120 105
2.809067e+000 -5.205224e-001 -9.339368e+000 139 93 81
3.976070e+000 -5.061960e-001 -9.963191e+000 143 123 123
-7.168315e-001 -6.331842e-001 -7.928866e+000 183 41 51
-6.575195e-001 -6.111341e-001 -7.912001e+000 182 39 53
1.011945e+000 -5.569985e-001 -8.570218e+000 20 56 94
2.827267e+000 -6.189241e-001 -9.487673e+000 182 122 112
3.166199e+000 -6.750076e-001 -9.743957e+000 169 133 112
-7.533023e-001 -7.122952e-001 -8.022657e+000 169 35 28
-7.681859e-001 -7.486873e-001 -8.063353e+000 187 46 61
-5.736722e-001 -7.501060e-001 -8.040651e+000 45 96 122
-2.095918e-002 -7.418342e-001 -8.351973e+000 144 160 52
1.331379e+000 -7.984740e-001 -9.115216e+000 178 125 118
1.331379e+000 -7.984740e-001 -9.115216e+000 178 125 118
1.552736e+000 -7.128498e-001 -9.052383e+000 176 119 107
1.620629e+000 -7.553800e-001 -9.113738e+000 179 121 112
1.601567e+000 -8.011606e-001 -9.216621e+000 179 125 119
1.724976e+000 -7.602166e-001 -9.267643e+000 179 121 110
1.725856e+000 -7.605267e-001 -9.258289e+000 179 121 110
1.733370e+000 -7.159836e-001 -9.101939e+000 181 125 110
1.732904e+000 -7.172147e-001 -9.097702e+000 181 125 110
1.794622e+000 -7.586833e-001 -9.162632e+000 187 131 121
1.877711e+000 -7.990157e-001 -9.344986e+000 180 126 114
1.877711e+000 -7.990157e-001 -9.344986e+000 180 126 114
1.911350e+000 -7.572827e-001 -9.360696e+000 182 125 113
