ply
format ascii 1.0
element face 0
property list uchar int vertex_indices
element vertex 894
property float x
property float y
property float z
property uchar diffuse_red
property uchar diffuse_green
property uchar diffuse_blue
end_header
-6.323277e-001 9.531329e-001 -8.161350e+000 124 19 23
-6.323277e-001 9.531329e-001 -8.161350e+000 124 19 23
2.590840e+000 9.498283e-001 -9.175303e+000 50 30 29
-5.812677e-001 6.267057e-001 -7.766341e+000 112 19 16
-5.587028e-001 5.768331e-001 -7.723024e+000 120 25 25
4.615210e+000 -5.688246e-001 -8.602818e+000 38 27 23
1.449595e+000 1.157801e+000 -9.024805e+000 17 39 51
1.449595e+000 1.157801e+000 -9.024805e+000 17 39 51
-1.299906e+000 7.044634e-001 -7.928211e+000 162 131 86
1.178923e+000 8.194228e-001 -8.558354e+000 106 13 17
2.932220e+000 1.475644e+000 -1.020986e+001 27 9 12
9.922113e-002 1.144945e+000 -8.596547e+000 124 106 38
1.343897e+000 1.060301e+000 -8.942855e+000 15 42 53
-2.824249e-001 9.134934e-001 -8.226290e+000 131 109 32
1.387101e+000 9.603637e-001 -8.777206e+000 16 43 54
-1.875891e-001 7.186481e-001 -8.006999e+000 129 107 42
6.008184e-001 1.254202e+000 -8.869537e+000 114 50 36
9.048544e-001 9.092346e-001 -8.570074e+000 123 105 68
-3.229754e-001 6.128901e-001 -7.867554e+000 34 61 56
9.490766e-002 5.827062e-001 -7.895717e+000 20 38 19
1.146504e+000 6.060498e-001 -8.353320e+000 127 110 67
-1.247691e+000 6.171909e-001 -7.823593e+000 159 134 80
3.094706e+000 -1.419886e-001 -9.291043e+000 153 106 54
8.652408e-001 1.358341e+000 -9.381487e+000 117 97 60
2.736479e+000 1.292392e+000 -9.648261e+000 112 74 37
4.230942e+000 6.883928e-001 -9.497930e+000 32 22 23
3.751878e+000 1.557704e+000 -1.055508e+001 70 19 6
1.941911e+000 1.396125e+000 -9.593174e+000 19 37 37
1.975700e+000 1.391730e+000 -9.597471e+000 46 59 52
2.021335e+000 1.373301e+000 -9.638147e+000 20 40 39
2.013974e+000 1.385251e+000 -9.621140e+000 20 40 39
-3.677661e-001 1.123754e+000 -8.440984e+000 121 99 9
-2.690342e-001 1.104693e+000 -8.441308e+000 60 71 24
-1.397894e+000 8.374499e-001 -8.101106e+000 153 128 87
-1.251186e+000 8.669032e-001 -7.977891e+000 69 43 17
2.576658e+000 1.112816e+000 -9.409509e+000 75 57 47
-1.394803e+000 6.898101e-001 -7.988745e+000 100 75 45
-3.474260e-001 8.477575e-001 -8.144455e+000 107 101 9
-1.299701e+000 6.701935e-001 -7.889457e+000 152 125 78
1.900839e+000 9.474113e-001 -8.935414e+000 54 35 31
1.900839e+000 9.474113e-001 -8.935414e+000 54 35 31
-1.289823e+000 5.524598e-001 -7.838309e+000 162 135 95
-3.312975e-001 1.010830e+000 -7.664392e+000 109 97 17
-2.211666e-001 7.790047e-001 -7.930424e+000 120 104 38
1.512496e+000 8.188982e-001 -8.677879e+000 110 110 80
1.512496e+000 8.188982e-001 -8.677879e+000 110 110 80
8.156843e-001 7.029245e-001 -8.304347e+000 119 107 56
8.156843e-001 7.029245e-001 -8.304347e+000 119 107 56
2.317134e+000 8.017380e-001 -8.937449e+000 93 72 52
2.343874e+000 7.696241e-001 -8.930867e+000 101 79 60
2.193562e+000 7.134266e-001 -8.773872e+000 52 19 17
3.269092e+000 6.301076e-001 -9.163979e+000 90 18 19
-4.558576e-001 5.540264e-001 -7.713194e+000 120 25 21
-4.558576e-001 5.540264e-001 -7.713194e+000 120 25 21
-4.340151e-001 5.038906e-001 -7.685118e+000 117 25 19
-4.340151e-001 5.038906e-001 -7.685118e+000 117 25 19
3.136941e+000 5.566018e-001 -9.046536e+000 10 39 52
3.452460e+000 5.276703e-001 -9.151165e+000 134 86 45
1.600968e+000 4.651241e-001 -8.403596e+000 23 30 34
2.718854e+000 3.895659e-001 -8.826493e+000 104 58 10
3.881246e+000 4.770138e-001 -9.274405e+000 136 68 32
4.090888e+000 -1.943942e+000 -9.716351e+000 94 77 55
1.960261e+000 1.413854e+000 -9.663707e+000 56 68 65
2.055358e+000 1.336609e+000 -9.537033e+000 17 42 48
-2.691217e-001 1.137297e+000 -8.470448e+000 15 33 6
2.150231e+000 1.144814e+000 -9.213965e+000 119 94 64
-1.209494e+000 6.633490e-001 -7.819946e+000 157 132 91
2.528770e+000 9.569691e-001 -9.186062e+000 96 73 53
-1.228646e+000 5.815848e-001 -7.784789e+000 161 136 84
1.873787e+000 8.013658e-001 -8.748107e+000 69 26 22
2.728950e+000 7.783531e-001 -9.096128e+000 83 61 48
3.144430e+000 7.321529e-001 -9.169134e+000 13 38 57
-2.334844e-001 5.871743e-001 -7.851083e+000 109 96 25
3.935461e+000 7.091116e-001 -9.497439e+000 117 92 53
4.112471e+000 7.208393e-001 -9.520618e+000 97 42 29
1.897727e+000 5.223214e-001 -8.539154e+000 125 68 48
3.970906e+000 -2.281838e+000 -1.001855e+001 95 80 57
4.408463e+000 -1.876812e+000 -9.056047e+000 128 106 82
4.250447e+000 -2.919768e+000 -9.339455e+000 102 85 57
4.772805e+000 -1.177646e+000 -8.166179e+000 116 96 72
3.141478e+000 1.350322e+000 -9.944284e+000 85 44 14
-2.672415e-001 1.008962e+000 -8.311434e+000 21 35 20
-1.346785e+000 7.339392e-001 -7.981759e+000 132 105 75
-1.212273e+000 7.051197e-001 -7.845309e+000 155 133 86
1.023047e+000 7.782766e-001 -8.454048e+000 123 100 64
1.021990e+000 7.800241e-001 -8.451915e+000 123 100 64
-4.928519e-001 6.683372e-001 -7.846725e+000 124 20 23
1.986387e+000 7.552855e-001 -8.765032e+000 82 50 40
2.733223e+000 3.565974e-001 -8.811079e+000 141 97 37
3.542542e+000 -3.143961e+000 -1.087068e+001 125 111 86
4.056720e+000 -1.950349e+000 -9.824678e+000 44 35 23
3.263235e+000 1.511827e+000 -1.029235e+001 108 74 37
1.266840e+000 9.500369e-001 -8.735779e+000 104 14 15
1.332116e+000 8.900133e-001 -8.681495e+000 111 33 23
4.063456e+000 8.350858e-001 -9.702959e+000 108 63 28
2.019777e+000 7.730513e-001 -8.782260e+000 52 23 17
-1.504299e+000 -2.300800e-001 -7.977196e+000 27 21 25
1.963651e+000 5.637305e-001 -8.587776e+000 57 20 17
-3.608844e-001 4.801482e-001 -7.673271e+000 125 24 24
3.996110e+000 -2.088873e+000 -9.968290e+000 35 28 23
4.203300e+000 -1.633548e+000 -9.546905e+000 45 35 30
4.450361e+000 -1.047366e+000 -8.954450e+000 112 94 74
2.775718e+000 1.463872e+000 -1.001514e+001 70 32 12
2.775156e+000 1.421391e+000 -9.916380e+000 90 46 18
7.898129e-001 1.227569e+000 -8.930052e+000 127 84 59
-1.473945e+000 7.822203e-001 -8.131944e+000 158 127 83
2.631137e+000 8.464931e-001 -9.071620e+000 55 36 29
9.566866e-001 4.740130e-001 -8.168587e+000 114 51 33
4.718113e+000 -2.640295e-001 -8.250909e+000 125 103 82
2.017630e+000 1.428018e+000 -9.680449e+000 18 39 48
-1.223401e+000 5.347006e-001 -7.770868e+000 161 138 90
-1.268629e+000 8.458242e-001 -7.974326e+000 148 127 85
4.229872e+000 2.214426e-001 -9.334283e+000 29 22 19
1.853969e-001 1.259208e+000 -8.780658e+000 115 102 57
2.158412e-001 7.287530e-001 -8.157965e+000 22 34 21
2.490061e+000 7.137463e-001 -8.901169e+000 94 66 44
3.725927e+000 -4.932493e+000 -1.057285e+001 125 109 74
2.209252e+000 1.402866e+000 -9.667351e+000 117 79 40
3.046122e+000 1.542940e+000 -1.015477e+001 90 56 20
4.155972e-001 1.168506e+000 -8.688259e+000 119 103 60
4.968101e-001 1.011196e+000 -8.544611e+000 124 105 62
4.374111e+000 -1.253307e+000 -9.024553e+000 109 89 64
2.016521e+000 5.991583e-001 -8.564728e+000 77 40 35
-3.514491e-001 1.053442e+000 -8.344576e+000 26 39 19
-3.491086e-001 1.043939e+000 -8.355390e+000 26 39 19
3.298820e+000 9.818599e-001 -9.811754e+000 114 79 41
-1.266643e+001 -3.413803e+001 -4.601214e+001 128 109 104
-1.184681e+001 -3.419290e+001 -4.566686e+001 158 139 137
-1.284115e+001 -3.476038e+001 -4.724854e+001 132 113 107
-1.087492e+001 -3.733021e+001 -4.247065e+001 67 60 72
-1.852584e+001 -3.670991e+001 -4.706012e+001 125 106 109
-1.794283e+001 -3.759060e+001 -4.441923e+001 147 131 136
-1.997173e+001 -3.793768e+001 -4.656651e+001 143 126 144
-1.758555e+001 -3.586462e+001 -4.480222e+001 59 60 101
-1.926228e+001 -3.645164e+001 -4.273079e+001 254 254 253
-1.801596e+001 -3.889284e+001 -4.451997e+001 144 127 135
-1.597529e+001 -3.559052e+001 -4.444895e+001 253 254 254
-1.910655e+001 -3.739653e+001 -4.607311e+001 151 128 132
-1.982265e+001 -3.749861e+001 -4.495273e+001 76 81 136
-1.331943e+001 -3.971108e+001 -4.036140e+001 54 66 115
-1.601171e+001 -3.573096e+001 -3.413873e+001 254 254 254
7.425040e-001 1.312553e+000 -9.044207e+000 138 92 65
1.449333e+000 1.107337e+000 -8.967679e+000 22 39 51
2.532133e+000 9.150154e-001 -9.126608e+000 87 62 39
2.687169e+000 7.540610e-001 -9.020511e+000 52 26 20
4.228984e+000 -2.317553e+000 -9.433503e+000 101 80 53
-3.139283e-001 1.128576e+000 -8.456826e+000 23 34 20
2.017693e+000 1.309045e+000 -9.468696e+000 49 60 56
-2.218104e-001 1.024907e+000 -8.380644e+000 118 104 15
1.963860e+000 9.286865e-001 -8.947178e+000 99 77 64
1.963860e+000 9.286865e-001 -8.947178e+000 99 77 64
-5.882746e-001 7.183206e-001 -7.881693e+000 119 11 9
2.720244e+000 7.692835e-001 -9.038657e+000 82 63 51
1.897699e+000 5.782628e-001 -8.555394e+000 57 16 12
4.795067e+000 -9.220368e-001 -8.088887e+000 122 101 80
4.654993e+000 -1.714859e+000 -8.476426e+000 129 105 79
2.152136e+000 1.382835e+000 -9.627611e+000 114 82 44
8.249149e-001 7.012728e-001 -8.302335e+000 123 103 59
-6.675917e+000 -2.374870e+001 -2.950504e+001 58 61 91
7.941180e-001 1.194016e+000 -8.882949e+000 122 102 60
2.392169e+000 6.800990e-001 -8.832865e+000 101 73 50
1.663478e+000 1.065484e+000 -9.028151e+000 59 36 39
-1.756213e+001 -4.165961e+001 -4.003472e+001 52 52 88
2.357056e-001 1.019592e+000 -8.471552e+000 125 105 51
6.494683e-001 1.267596e+000 -8.953486e+000 122 100 64
6.494683e-001 1.267596e+000 -8.953486e+000 122 100 64
-3.400145e-001 1.122560e+000 -8.434045e+000 112 100 18
-2.255514e-001 1.177409e+000 -8.505895e+000 121 103 27
6.386731e-001 1.232148e+000 -8.880419e+000 129 93 66
6.369324e-001 1.230682e+000 -8.882738e+000 129 93 66
1.383409e+000 1.204447e+000 -9.118920e+000 123 106 74
2.713803e-001 1.462094e+000 -8.125252e+000 131 109 32
1.501101e+000 1.143635e+000 -9.050788e+000 132 78 44
-4.101090e-001 9.800504e-001 -8.202687e+000 104 106 12
1.237821e+000 1.088080e+000 -8.896237e+000 143 67 58
1.433978e+000 1.103543e+000 -8.991432e+000 119 112 80
-5.325161e-001 7.938096e-001 -8.030815e+000 145 93 64
-5.325161e-001 7.938096e-001 -8.030815e+000 145 93 64
1.182088e+000 8.891506e-001 -8.652688e+000 147 112 60
2.378233e+000 8.294970e-001 -8.982157e+000 23 6 3
-5.341046e-001 6.938619e-001 -7.866332e+000 117 15 15
-5.334978e-001 6.948512e-001 -7.865659e+000 117 15 15
-5.063912e-001 6.444723e-001 -7.797945e+000 105 19 10
2.993592e-002 6.499822e-001 -8.128757e+000 17 30 15
7.194122e-001 7.191510e-001 -8.291079e+000 118 16 17
1.127496e-002 5.526488e-001 -7.864840e+000 131 104 25
4.168422e+000 4.942655e-001 -9.368513e+000 94 26 6
4.168422e+000 4.942655e-001 -9.368513e+000 94 26 6
6.394729e-001 1.270848e+000 -8.945803e+000 127 96 62
2.513841e+000 1.346144e+000 -9.697180e+000 111 56 36
1.584348e+000 1.124729e+000 -9.034160e+000 130 74 46
2.474360e+000 1.190242e+000 -9.437452e+000 115 79 61
2.526603e+000 1.140100e+000 -9.404785e+000 57 38 30
2.540882e+000 1.112358e+000 -9.375915e+000 53 30 26
-6.957781e-001 8.983541e-001 -8.074524e+000 140 102 57
-5.727058e-001 7.918260e-001 -8.006910e+000 142 95 59
2.325119e+000 9.604189e-001 -9.094832e+000 96 77 55
2.506127e+000 7.347288e-001 -8.937272e+000 103 75 53
-1.192488e-001 6.383665e-001 -7.927545e+000 20 33 22
2.131451e+000 5.088444e-001 -8.649187e+000 56 18 15
4.111931e+000 -1.971913e+000 -9.690181e+000 110 92 68
4.138893e+000 -2.592459e+000 -9.514352e+000 128 108 81
-1.133813e+000 1.050197e+000 -8.076846e+000 113 95 59
1.914614e+000 1.094948e+000 -9.115109e+000 53 34 28
-1.347245e+000 7.345890e-001 -7.980862e+000 132 105 75
-1.282030e+000 6.655459e-001 -7.901077e+000 159 131 86
1.401432e-001 7.503185e-001 -8.138487e+000 119 99 15
1.401432e-001 7.503185e-001 -8.138487e+000 119 99 15
-4.987481e-001 5.327151e-001 -7.675935e+000 122 16 20
4.291988e+000 -1.442872e+000 -9.307245e+000 122 105 80
4.445316e+000 -1.130736e+000 -8.969634e+000 95 77 55
1.496075e+000 1.222836e+000 -9.172886e+000 62 12 15
1.421592e+000 1.072702e+000 -8.925656e+000 47 40 19
2.148903e+000 1.191940e+000 -9.280866e+000 113 88 58
2.590837e+000 1.346580e+000 -9.751815e+000 88 39 19
1.195421e+000 9.098679e-001 -8.660334e+000 95 25 15
1.177704e+000 9.556128e-001 -8.724847e+000 120 58 38
9.427435e-001 9.050105e-001 -8.591720e+000 120 99 65
2.913395e+000 1.451274e+000 -1.003361e+001 92 52 16
2.927432e+000 1.437978e+000 -1.005692e+001 92 52 16
1.970375e+000 1.434027e+000 -9.726320e+000 10 32 31
5.988077e-002 1.338256e+000 -8.855885e+000 111 103 23
1.952554e+000 1.381241e+000 -9.664558e+000 12 34 40
-3.588593e-002 1.266507e+000 -8.677637e+000 29 32 12
2.813066e+000 1.390208e+000 -9.880628e+000 77 38 10
-3.221311e-001 1.102939e+000 -8.425858e+000 58 74 40
-2.677003e-001 1.099684e+000 -8.445044e+000 65 72 50
2.396594e+000 1.252418e+000 -9.531354e+000 51 12 5
1.355196e+000 1.155047e+000 -9.027098e+000 118 119 91
2.541013e+000 1.177066e+000 -9.440499e+000 68 46 41
-2.109761e-001 9.883154e-001 -8.345645e+000 82 81 67
1.414855e+000 1.095401e+000 -8.958139e+000 16 45 49
1.429083e+000 1.080172e+000 -8.946427e+000 111 108 83
1.754224e+000 1.075716e+000 -9.051063e+000 102 60 51
1.754224e+000 1.075716e+000 -9.051063e+000 102 60 51
2.293456e+000 9.740485e-001 -9.119136e+000 98 76 67
2.598303e+000 1.064166e+000 -9.332590e+000 74 54 49
2.598303e+000 1.064166e+000 -9.332590e+000 74 54 49
1.947057e+000 9.118641e-001 -8.921870e+000 50 31 27
2.445838e+000 8.913462e-001 -9.086064e+000 95 72 54
-1.147602e+000 6.448559e-001 -7.750498e+000 85 62 27
1.911463e+000 7.819410e-001 -8.761483e+000 102 62 52
1.911463e+000 7.819410e-001 -8.761483e+000 102 62 52
-4.951226e-001 7.027549e-001 -7.861828e+000 116 20 17
1.052144e+000 7.196598e-001 -8.394622e+000 127 104 68
-4.898309e-001 5.394216e-001 -7.676179e+000 130 22 25
-3.339077e-001 5.288595e-001 -7.649488e+000 129 115 80
-3.339077e-001 5.288595e-001 -7.649488e+000 129 115 80
2.803554e+000 4.953401e-001 -8.843514e+000 133 102 56
4.313824e+000 4.573105e-001 -9.419844e+000 31 17 17
4.276636e+000 -1.487249e+000 -9.298370e+000 102 85 62
4.895361e+000 2.549845e-001 -7.753886e+000 78 59 52
9.782127e-001 1.361105e+000 -9.592506e+000 103 26 21
3.212335e+000 1.436998e+000 -1.055734e+001 95 63 43
2.816534e+000 1.402737e+000 -9.946481e+000 84 42 17
6.425032e-001 1.268115e+000 -8.946712e+000 125 101 65
6.425032e-001 1.268115e+000 -8.946712e+000 125 101 65
1.998240e+000 1.363432e+000 -9.563925e+000 49 67 70
1.998240e+000 1.363432e+000 -9.563925e+000 49 67 70
3.025121e+000 1.405671e+000 -9.987351e+000 57 21 25
2.145956e+000 1.237281e+000 -9.400790e+000 116 88 64
1.398816e+000 1.123246e+000 -8.990127e+000 15 38 53
-7.525764e-001 9.857231e-001 -8.156494e+000 125 69 57
2.596576e+000 1.079046e+000 -9.385052e+000 74 50 45
-1.316487e+000 7.517820e-001 -7.974081e+000 159 137 100
-6.746148e-001 8.514854e-001 -8.027385e+000 130 111 65
1.928335e+000 9.613733e-001 -9.003903e+000 47 27 28
2.617642e+000 1.016412e+000 -9.239791e+000 71 52 46
2.331880e-001 8.948963e-001 -8.327438e+000 20 37 17
1.907065e+000 9.301430e-001 -8.915435e+000 71 52 46
1.928965e+000 8.829573e-001 -8.872993e+000 69 50 44
-4.841110e-001 7.077900e-001 -7.900171e+000 145 89 59
-4.841110e-001 7.077900e-001 -7.900171e+000 145 89 59
-3.187675e-001 7.528743e-001 -7.996482e+000 107 95 13
-2.966493e-001 7.351517e-001 -7.989454e+000 20 33 17
1.255677e+000 8.467174e-001 -8.590926e+000 145 100 61
2.700876e+000 8.217038e-001 -9.075732e+000 75 55 49
-1.267574e+000 4.229991e-001 -7.752215e+000 166 142 98
-1.266734e+000 4.244956e-001 -7.750684e+000 166 142 98
-1.226032e+000 4.287090e-001 -7.727827e+000 168 144 100
-5.161066e-001 6.788535e-001 -7.860455e+000 139 110 70
-3.070335e-001 7.004576e-001 -7.957416e+000 111 106 25
2.556553e+000 6.009835e-001 -8.819588e+000 62 25 19
2.679709e+000 6.678800e-001 -8.939740e+000 47 18 14
4.029859e+000 5.856367e-001 -9.388505e+000 143 104 68
-2.829855e-001 5.748720e-001 -7.749046e+000 20 35 16
2.066727e+000 5.620530e-001 -8.614743e+000 75 34 31
-2.440660e-001 4.045570e-001 -7.675298e+000 18 38 23
4.772263e+000 -1.358418e-001 -8.145817e+000 120 103 86
4.937508e+000 3.078144e-001 -7.626926e+000 119 100 86
1.309838e+000 1.385403e+000 -9.739966e+000 81 20 15
2.819752e+000 1.503603e+000 -1.022226e+001 84 49 22
2.066540e+000 1.309959e+000 -9.490977e+000 10 38 45
2.605840e+000 1.332955e+000 -9.697702e+000 114 79 41
-3.605220e-001 1.104336e+000 -8.418941e+000 50 68 64
-1.322605e+000 8.028143e-001 -7.992273e+000 154 132 90
2.001964e+000 1.066753e+000 -9.103797e+000 59 40 33
-1.258589e+000 8.066001e-001 -7.944808e+000 154 133 87
-1.260287e+000 8.052315e-001 -7.944578e+000 154 133 87
2.062411e+000 1.030881e+000 -9.118392e+000 98 75 54
2.663795e+000 1.010989e+000 -9.288667e+000 50 32 31
-1.529172e+000 4.250368e-001 -7.956472e+000 139 109 71
2.026520e+000 8.830943e-001 -8.912189e+000 54 34 33
-1.245470e+000 5.966253e-001 -7.811324e+000 163 139 101
1.767656e+000 8.031533e-001 -8.718865e+000 57 17 21
7.458040e-001 6.869111e-001 -8.262755e+000 119 110 75
2.032154e+000 7.074535e-001 -8.732408e+000 55 31 29
2.916278e+000 6.850514e-001 -9.035141e+000 23 16 13
2.917540e+000 6.835067e-001 -9.034820e+000 23 16 13
3.812628e+000 6.477545e-001 -9.350277e+000 138 110 71
1.202341e-001 4.810049e-001 -7.875067e+000 19 40 25
3.963948e+000 -2.001537e+000 -9.830144e+000 112 102 83
4.085148e+000 -1.852362e+000 -9.742479e+000 37 29 23
4.127987e+000 -1.904740e+000 -9.718296e+000 109 97 75
4.170195e+000 -1.717440e+000 -9.614743e+000 35 26 28
4.065274e+000 -1.821346e+000 -9.598318e+000 92 81 61
4.232350e+000 -1.623399e+000 -9.468804e+000 122 109 89
4.495494e+000 -9.140463e-001 -8.842934e+000 122 105 87
4.805646e+000 -6.566410e-002 -8.081203e+000 122 106 91
4.697799e+000 1.037227e-001 -7.997380e+000 43 32 29
4.819796e+000 -2.465263e-001 -7.937362e+000 127 109 89
4.908972e+000 3.428148e-001 -7.715565e+000 125 108 90
3.776722e+000 1.469302e+000 -1.079265e+001 119 63 25
2.002793e+000 1.420581e+000 -9.719672e+000 16 39 56
3.190004e+000 1.435189e+000 -1.007636e+001 107 72 42
2.459617e+000 1.222250e+000 -9.466641e+000 113 77 61
1.201298e+000 1.067908e+000 -8.818957e+000 103 23 22
-4.778739e-001 7.259837e-001 -7.936013e+000 127 26 29
-4.775025e-001 7.261292e-001 -7.936432e+000 127 26 29
1.985257e+000 7.749808e-001 -8.818614e+000 106 78 66
1.985257e+000 7.749808e-001 -8.818614e+000 106 78 66
2.014636e+000 7.739733e-001 -8.779112e+000 46 17 13
2.754601e+000 7.690334e-001 -9.021279e+000 57 34 39
1.835789e+000 6.464414e-001 -8.620415e+000 75 30 27
2.468809e+000 6.285057e-001 -8.769849e+000 104 78 56
2.468809e+000 6.285057e-001 -8.769849e+000 104 78 56
2.547956e+000 3.138944e-001 -8.712759e+000 39 12 12
4.471845e+000 -9.939551e-001 -8.905639e+000 113 97 78
4.845260e+000 1.077113e-001 -7.922955e+000 113 99 83
4.877046e+000 1.551672e-001 -7.866245e+000 98 80 65
4.880064e+000 2.705203e-001 -7.838129e+000 39 29 27
4.886273e+000 2.661047e-001 -7.789571e+000 117 100 85
4.938327e+000 3.546858e-001 -7.689834e+000 120 100 83
1.069405e+000 1.291314e+000 -9.468385e+000 105 25 20
3.038129e+000 1.501046e+000 -1.026616e+001 101 71 42
-7.001047e-001 8.743767e-001 -8.045233e+000 128 24 26
1.451908e+000 1.003642e+000 -8.856406e+000 93 93 77
1.747195e+000 8.884104e-001 -8.816186e+000 47 32 34
2.811675e+000 6.806198e-001 -9.016376e+000 64 33 32
1.896523e+000 4.737697e-001 -8.522223e+000 73 27 19
1.896840e+000 4.749371e-001 -8.522108e+000 73 27 19
4.041622e+000 3.311066e-001 -9.288577e+000 151 71 23
4.297576e+000 -1.358970e+000 -9.307234e+000 39 34 33
4.929797e+000 2.586146e-001 -7.705589e+000 75 56 42
1.388230e+000 1.400639e+000 -9.700136e+000 100 43 26
1.860944e+000 1.370703e+000 -9.531840e+000 16 44 56
6.760915e-001 1.200801e+000 -8.845803e+000 117 100 70
-2.203778e-001 1.101299e+000 -8.458712e+000 121 108 39
-1.207039e+000 6.676041e-001 -7.815307e+000 157 135 86
1.556160e+000 7.805504e-001 -8.669380e+000 100 105 78
1.556160e+000 7.805504e-001 -8.669380e+000 100 105 78
2.413533e+000 3.072302e-001 -8.675238e+000 35 11 16
4.679500e+000 -3.560344e-001 -8.418833e+000 39 29 27
3.704524e-002 1.041281e+000 -8.486292e+000 20 37 15
9.265139e-001 9.019055e-001 -8.585668e+000 122 111 75
2.366192e+000 4.589448e-001 -8.655440e+000 130 88 45
3.175710e+000 4.690396e-001 -9.000519e+000 16 50 62
1.032085e+000 1.378493e+000 -9.577199e+000 96 25 19
1.459082e+000 1.420665e+000 -9.574620e+000 113 54 37
2.133843e+000 1.018127e+000 -9.107721e+000 105 75 58
2.506313e+000 8.250712e-001 -8.985331e+000 104 76 55
-4.743999e-001 5.353718e-001 -7.692426e+000 157 95 66
3.120475e+000 1.362492e+000 -1.008252e+001 28 10 10
1.320207e+000 5.380304e-001 -8.314955e+000 114 16 17
1.678496e-001 4.337178e-001 -7.867983e+000 24 43 16
3.438051e-001 5.342614e-001 -7.964048e+000 63 66 19
3.475621e+000 3.841592e-001 -9.148468e+000 128 73 38
3.897523e-001 1.252324e+000 -8.792588e+000 122 107 68
2.892558e+000 1.131792e+000 -9.847671e+000 112 77 45
2.892558e+000 1.131792e+000 -9.847671e+000 112 77 45
3.912373e+000 5.476567e-001 -9.308574e+000 125 69 36
3.912373e+000 5.476567e-001 -9.308574e+000 125 69 36
2.400854e+000 1.319805e+000 -1.010819e+001 101 72 42
-7.394708e-001 1.033229e+000 -8.949300e+000 91 88 68
1.988726e+000 1.417259e+000 -9.627797e+000 23 41 45
2.004227e+000 1.398149e+000 -9.578052e+000 18 37 42
2.004227e+000 1.398149e+000 -9.578052e+000 18 37 42
5.665090e-001 1.259770e+000 -8.871839e+000 132 98 73
6.324435e-001 1.279640e+000 -8.936054e+000 129 97 57
6.324435e-001 1.279640e+000 -8.936054e+000 129 97 57
-3.101795e-001 1.110642e+000 -8.445361e+000 110 104 35
-5.727737e-001 9.635888e-001 -8.202943e+000 116 29 18
-1.339194e+000 7.228524e-001 -7.961504e+000 153 128 92
-1.225138e+000 7.941401e-001 -7.894291e+000 154 131 91
1.170794e+000 1.005743e+000 -8.748630e+000 102 19 15
1.171150e+000 9.750604e-001 -8.744485e+000 156 104 82
1.451609e+000 9.541239e-001 -8.794287e+000 107 103 76
1.995665e+000 9.311696e-001 -8.968107e+000 44 24 20
2.001727e+000 9.212846e-001 -8.937257e+000 53 34 32
2.005045e+000 9.153157e-001 -8.942326e+000 53 34 32
-1.225230e+000 4.299836e-001 -7.727741e+000 170 145 104
-1.188038e+000 4.197229e-001 -7.712267e+000 170 146 101
1.980713e+000 8.410150e-001 -8.837146e+000 51 33 31
2.066203e+000 5.919884e-001 -8.649072e+000 89 48 45
4.583383e+000 -1.328349e+000 -8.646474e+000 129 111 87
4.956871e+000 2.876568e-001 -7.703910e+000 78 61 44
1.938557e+000 1.434395e+000 -9.685746e+000 41 55 57
1.935099e+000 1.440573e+000 -9.680477e+000 41 55 57
3.176915e+000 1.521939e+000 -1.035281e+001 93 58 39
2.030473e+000 1.403829e+000 -9.634410e+000 48 66 67
1.367188e+000 1.183455e+000 -9.045137e+000 15 40 46
6.020624e-001 9.393631e-001 -8.474853e+000 126 108 74
1.203270e+000 9.430057e-001 -8.695375e+000 105 18 17
2.586431e+000 1.055996e+000 -9.208746e+000 79 58 57
-5.329269e-001 7.523309e-001 -7.955901e+000 115 29 24
1.241186e+000 8.698800e-001 -8.620806e+000 144 96 59
2.401319e+000 9.577799e-001 -9.085044e+000 101 79 58
2.461610e+000 8.701932e-001 -9.111950e+000 103 80 65
-5.441532e-001 6.649964e-001 -7.840938e+000 147 104 70
2.452073e+000 7.739332e-001 -8.953697e+000 104 79 63
2.613420e+000 7.792883e-001 -9.001496e+000 56 26 16
2.118616e+000 7.202640e-001 -8.782685e+000 102 82 68
2.116180e+000 7.247915e-001 -8.779583e+000 102 82 68
2.949830e+000 6.927837e-001 -9.045709e+000 77 69 55
3.831695e+000 7.423754e-001 -9.474767e+000 119 59 25
3.882570e+000 7.391421e-001 -9.496633e+000 127 63 31
1.811725e+000 6.185322e-001 -8.577999e+000 129 78 51
1.913986e+000 5.491603e-001 -8.577935e+000 59 14 7
2.009404e+000 5.549311e-001 -8.617088e+000 50 15 13
2.214312e+000 5.487353e-001 -8.700330e+000 49 13 12
2.996308e+000 5.649309e-001 -8.980283e+000 93 82 76
3.841481e+000 5.906455e-001 -9.333057e+000 114 43 16
1.002513e+000 4.768101e-001 -8.191751e+000 138 115 83
4.329690e+000 2.358952e-001 -9.398182e+000 34 20 16
9.659683e-001 1.457271e+000 -9.366976e+000 97 21 20
2.103208e-001 1.342759e+000 -8.922682e+000 112 96 36
7.318282e-001 1.232762e+000 -8.909597e+000 123 107 71
2.470924e+000 1.360128e+000 -9.698140e+000 71 23 4
2.462386e+000 1.329067e+000 -9.650713e+000 97 37 29
2.838145e+000 1.415346e+000 -9.907029e+000 96 55 30
-3.601049e-001 1.105605e+000 -8.419821e+000 49 75 59
1.205255e+000 1.073961e+000 -8.842231e+000 97 14 11
-1.208070e+000 7.119249e-001 -7.839687e+000 157 133 95
-1.208659e+000 7.146352e-001 -7.837864e+000 157 133 95
-1.244379e+000 5.943907e-001 -7.813000e+000 161 138 97
1.431960e-001 8.134910e-001 -8.230146e+000 121 105 12
-6.059000e-001 6.414206e-001 -7.805154e+000 125 25 27
-6.059000e-001 6.414206e-001 -7.805154e+000 125 25 27
1.023486e+000 7.747632e-001 -8.456459e+000 128 112 75
1.638807e+000 4.453282e-001 -8.402820e+000 139 99 52
4.181553e+000 -1.805061e+000 -9.619149e+000 113 99 83
4.274351e+000 -1.509584e+000 -9.357104e+000 117 100 78
4.683520e+000 -3.656831e-001 -8.352055e+000 118 102 87
4.846531e+000 8.842713e-002 -7.986997e+000 34 21 19
4.984562e+000 3.569305e-001 -7.612321e+000 87 69 57
3.361762e+000 1.538170e+000 -1.034682e+001 96 65 36
3.089880e+000 1.375484e+000 -9.901724e+000 81 41 15
1.809445e+000 9.123496e-001 -8.845733e+000 95 52 46
1.810699e+000 9.120449e-001 -8.846269e+000 95 52 46
-5.817629e-001 6.192793e-001 -7.767832e+000 121 17 20
-5.227680e-001 4.657091e-001 -7.616177e+000 125 25 25
4.490927e+000 -9.892328e-001 -8.964624e+000 38 30 27
4.613377e+000 -7.034106e-001 -8.634431e+000 121 105 90
4.996277e+000 3.002821e-001 -7.776813e+000 40 29 27
9.770699e-001 1.391245e+000 -9.604940e+000 85 26 18
1.451525e+000 1.410464e+000 -9.784577e+000 80 17 10
9.990003e-001 1.371496e+000 -9.252960e+000 115 96 65
1.853907e+000 1.377707e+000 -9.472924e+000 11 37 50
1.792447e+000 1.336177e+000 -9.389446e+000 76 14 15
1.758048e+000 1.385993e+000 -9.337824e+000 76 14 15
2.402877e+000 1.202331e+000 -9.425465e+000 90 46 33
3.806764e+000 1.104959e+000 -9.840133e+000 113 80 49
2.255926e+000 9.694885e-001 -9.089286e+000 20 9 13
4.081828e+000 7.893884e-001 -9.637848e+000 108 59 25
4.040164e+000 5.608342e-001 -9.378288e+000 138 102 70
3.235627e+000 4.661668e-001 -9.039216e+000 13 50 69
4.279336e+000 -1.440248e+000 -9.379911e+000 41 35 36
4.391919e+000 -1.329437e+000 -9.268756e+000 32 27 23
4.985386e+000 4.532806e-001 -7.655404e+000 45 31 31
4.991832e+000 2.720749e-001 -7.602367e+000 114 92 78
1.367062e+000 1.438467e+000 -9.655947e+000 95 43 32
1.860720e+000 1.437842e+000 -9.644541e+000 16 40 51
3.290190e+000 1.528197e+000 -1.038222e+001 45 17 15
9.378685e-001 9.140065e-001 -8.584205e+000 122 106 72
-1.300485e+000 5.198426e-001 -7.836321e+000 135 111 75
2.402834e+000 5.071104e-001 -8.736535e+000 69 28 28
4.742925e+000 -2.907834e+000 -8.608993e+000 129 108 80
-1.237060e+000 7.506469e-001 -7.915699e+000 154 130 91
-4.501250e-001 8.607861e-001 -8.135159e+000 33 62 60
1.075002e-001 8.799507e-001 -8.289571e+000 25 36 19
1.691335e+000 8.408841e-001 -8.767953e+000 133 95 48
1.691335e+000 8.408841e-001 -8.767953e+000 133 95 48
4.587813e-002 4.964468e-001 -7.857077e+000 126 113 68
1.346561e+000 4.500689e-001 -8.358540e+000 115 11 18
1.346561e+000 4.500689e-001 -8.358540e+000 115 11 18
-1.316081e+000 8.659406e-001 -8.049959e+000 156 133 91
-6.392918e-001 9.232895e-001 -8.043248e+000 124 26 25
3.191599e+000 1.409677e+000 -1.106778e+001 28 22 26
-5.130083e-001 1.118463e+000 -9.399767e+000 92 88 53
-5.130083e-001 1.118463e+000 -9.399767e+000 92 88 53
-9.987905e-001 1.212942e+000 -9.053183e+000 98 30 20
-8.599096e-001 1.190966e+000 -9.131037e+000 103 96 43
-8.599096e-001 1.190966e+000 -9.131037e+000 103 96 43
5.647276e-001 1.256226e+000 -9.725813e+000 121 70 51
6.805911e-001 1.273822e+000 -9.743090e+000 95 49 32
9.252909e-001 1.434106e+000 -9.630511e+000 103 50 32
1.016172e+000 1.438085e+000 -9.610867e+000 86 22 13
3.529726e+000 1.375826e+000 -1.085361e+001 70 58 46
1.004892e+000 1.396094e+000 -9.311072e+000 123 32 29
1.917157e+000 1.456576e+000 -9.703153e+000 17 41 57
1.983634e+000 1.387248e+000 -9.601878e+000 50 73 76
1.994672e+000 1.365892e+000 -9.471224e+000 55 77 73
2.567923e+000 1.424138e+000 -9.668164e+000 133 89 50
-3.632303e-001 1.141701e+000 -8.453743e+000 13 33 18
1.300840e+000 1.258858e+000 -9.125037e+000 134 124 82
-1.340097e+000 7.191105e-001 -7.962995e+000 178 156 113
-1.286560e+000 8.396086e-001 -7.975245e+000 172 154 104
-4.093921e-001 9.841792e-001 -8.229212e+000 124 122 24
1.517250e+000 9.432702e-001 -8.825147e+000 24 54 75
-1.205016e+000 6.640648e-001 -7.817296e+000 178 159 119
-5.790110e-001 8.105697e-001 -7.986933e+000 158 126 85
1.208295e+000 8.392867e-001 -8.599585e+000 160 123 87
1.958954e+000 8.923487e-001 -8.934638e+000 57 37 39
1.971100e+000 9.052200e-001 -8.882430e+000 51 30 29
2.012377e+000 8.452829e-001 -8.874912e+000 69 47 50
2.470690e+000 1.132152e+000 -8.877747e+000 87 66 61
-1.623178e-001 5.149446e-001 -8.075995e+000 129 119 19
1.794584e+000 8.170177e-001 -8.744197e+000 121 76 74
1.889472e+000 7.278519e-001 -8.770248e+000 120 67 62
2.050959e+000 7.861036e-001 -8.810940e+000 48 20 17
-4.982160e-001 6.468725e-001 -7.827067e+000 146 118 70
2.024624e+000 6.442362e-001 -8.675528e+000 124 93 89
3.491142e+000 6.223689e-001 -9.177610e+000 148 75 33
2.075223e+000 4.954264e-001 -8.625107e+000 75 31 28
-3.294983e-001 4.804884e-001 -7.660337e+000 142 134 89
-5.723067e-001 1.237020e+000 -9.229154e+000 85 81 33
3.272598e-001 1.315008e+000 -9.516715e+000 82 18 18
9.548922e-001 1.321448e+000 -9.756024e+000 104 83 59
1.953668e+000 1.421939e+000 -9.658500e+000 48 68 68
3.736520e+000 1.571216e+000 -1.053776e+001 63 15 11
2.776934e+000 1.382094e+000 -9.889253e+000 122 80 42
2.916134e+000 1.468389e+000 -9.995326e+000 123 77 42
1.935234e+000 1.394814e+000 -9.422162e+000 17 45 58
1.362498e+000 1.191893e+000 -9.039077e+000 24 55 80
2.456000e+000 1.073551e+000 -9.543647e+000 136 102 75
-6.238631e-001 1.021799e+000 -8.085923e+000 140 27 31
1.042798e+000 8.922481e-001 -8.886905e+000 137 127 89
1.987493e+000 8.339895e-001 -8.863162e+000 68 44 54
2.004007e+000 8.056087e-001 -8.840548e+000 68 48 48
1.973096e+000 8.547722e-001 -8.808696e+000 68 48 48
3.081081e+000 7.735660e-001 -9.158819e+000 142 104 57
1.897350e+000 6.166620e-001 -8.607956e+000 71 17 16
1.934232e+000 5.143635e-001 -8.597424e+000 74 21 15
2.262567e+000 4.569296e-001 -8.665486e+000 63 28 34
2.703556e+000 3.281463e-001 -8.803760e+000 124 78 27
3.129561e+000 4.008202e-001 -8.971078e+000 16 59 82
-1.834562e-001 4.697384e-001 -7.735274e+000 131 122 32
-1.917003e-001 5.051439e-001 -7.720064e+000 131 122 32
-4.392013e-001 1.145539e+000 -9.402745e+000 86 87 54
1.218602e+000 1.192311e+000 -1.011206e+001 79 20 15
2.756092e+000 1.514880e+000 -1.014887e+001 81 43 22
-1.815892e+000 2.759408e-001 -8.791137e+000 123 104 81
6.951635e-001 1.406566e+000 -9.044169e+000 131 115 81
2.089472e+000 1.458048e+000 -9.553774e+000 133 97 47
2.161131e+000 1.405029e+000 -9.462715e+000 128 28 33
-1.296961e+000 7.680127e-001 -7.947521e+000 171 153 108
-1.070553e+000 9.095599e-001 -7.962123e+000 88 91 70
2.659263e+000 9.201759e-001 -9.163100e+000 86 65 62
2.730800e+000 8.958986e-001 -9.227712e+000 57 40 44
-1.539325e+000 -2.613959e-002 -7.876864e+000 171 55 42
-4.673790e-001 6.172608e-001 -7.775446e+000 142 30 27
-4.665202e-001 6.124590e-001 -7.777368e+000 142 30 27
8.709058e-001 7.160952e-001 -8.218969e+000 139 130 91
2.809010e+000 6.197909e-001 -8.936225e+000 66 41 37
3.308613e+000 5.631891e-001 -9.159906e+000 140 97 62
4.101697e+000 6.742964e-001 -9.369710e+000 117 55 34
4.910831e+000 -4.995723e-002 -8.022033e+000 126 110 96
9.607725e-001 1.330053e+000 -9.797908e+000 70 16 14
3.713152e+000 1.508748e+000 -1.073198e+001 118 68 33
1.011819e+000 1.403789e+000 -9.365611e+000 117 23 21
3.081242e+000 1.507196e+000 -1.020072e+001 95 61 24
-7.014331e-001 8.640272e-001 -8.049600e+000 133 27 24
2.435632e+000 6.199077e-001 -8.810372e+000 61 24 18
4.334449e+000 1.001080e-001 -9.438906e+000 30 21 22
-9.265644e-002 1.105374e+000 -9.594665e+000 98 89 69
-9.555146e-001 1.178064e+000 -9.075018e+000 112 98 69
-6.199556e-001 1.230369e+000 -9.200345e+000 30 34 14
-6.167602e-001 1.219241e+000 -9.209464e+000 30 34 14
1.299612e+000 1.010396e+000 -1.034428e+001 100 81 59
-8.857858e-001 1.145617e+000 -8.265578e+000 28 61 68
1.487106e+000 1.128077e+000 -9.292735e+000 22 36 55
7.894388e-001 1.227302e+000 -8.929167e+000 142 105 83
-1.259499e+000 6.660069e-001 -7.844321e+000 178 156 110
3.949545e+000 1.019193e+000 -9.765914e+000 133 78 44
2.111268e+000 8.546398e-001 -8.943210e+000 50 32 32
2.101383e+000 8.577030e-001 -8.789635e+000 77 58 64
-3.927432e-001 5.326007e-001 -7.718727e+000 139 25 28
4.037261e+000 2.472034e-001 -9.275839e+000 33 22 26
9.920621e-001 1.180811e+000 -1.005025e+001 118 75 58
1.233678e+000 1.327304e+000 -9.919504e+000 81 19 20
1.199588e+000 1.402635e+000 -9.761893e+000 101 60 39
1.199588e+000 1.402635e+000 -9.761893e+000 101 60 39
1.366231e+000 1.437232e+000 -9.656895e+000 119 62 50
-1.065117e+000 1.042529e+000 -8.081377e+000 114 109 89
6.252459e-001 1.099148e+000 -8.687235e+000 141 119 86
6.254922e-001 1.112136e+000 -8.681761e+000 141 119 86
8.494162e-001 1.100917e+000 -8.787961e+000 139 118 83
2.488695e-002 9.449245e-001 -8.351569e+000 142 134 59
2.488695e-002 9.449245e-001 -8.351569e+000 142 134 59
7.079043e-001 9.367784e-001 -8.471641e+000 132 119 84
7.079043e-001 9.367784e-001 -8.471641e+000 132 119 84
6.882038e-001 8.580656e-001 -8.438784e+000 142 32 29
-1.848019e-001 7.129932e-001 -8.008249e+000 134 124 68
-1.308566e-001 7.585410e-001 -8.026230e+000 27 42 23
2.091776e+000 1.005609e+000 -1.057811e+001 63 29 19
9.833684e-001 1.367344e+000 -9.262950e+000 128 113 82
6.426041e-001 1.106707e+000 -8.692543e+000 138 121 85
3.626515e-001 1.002289e+000 -8.436936e+000 31 44 26
3.938960e+000 9.603753e-001 -9.670950e+000 128 79 34
1.940416e+000 1.481222e+000 -9.778800e+000 104 73 43
-5.982428e-001 1.094510e+000 -8.348494e+000 86 97 89
2.500154e+000 8.261488e-001 -8.983151e+000 119 93 70
-4.758732e-001 5.420141e-001 -7.690048e+000 159 115 78
1.672425e+000 4.879306e-001 -8.488150e+000 17 57 82
2.228077e+000 1.380676e+000 -9.694324e+000 131 96 55
3.096773e+000 1.414907e+000 -1.003582e+001 32 17 17
2.470980e+000 1.318880e+000 -9.657551e+000 112 48 36
2.470980e+000 1.318880e+000 -9.657551e+000 112 48 36
4.447055e-002 8.437073e-001 -8.219373e+000 140 125 84
1.155141e+000 5.948343e-001 -8.358673e+000 145 130 91
1.640527e+000 4.935527e-001 -8.477789e+000 17 58 80
2.904508e+000 1.437808e+000 -1.050447e+001 89 58 37
3.064855e+000 1.533466e+000 -1.016008e+001 98 64 27
1.965071e+000 1.666315e-001 -8.588802e+000 158 123 70
2.878574e+000 3.492311e-001 -1.173718e+001 37 31 31
1.818058e+000 1.366220e+000 -9.888268e+000 67 12 21
4.026932e+000 4.450851e-001 -9.409172e+000 142 62 38
-2.103644e+001 -3.082068e+001 -4.736137e+001 175 156 149
-2.171415e+001 -3.364730e+001 -5.002959e+001 159 144 145
-2.164061e+001 -3.251463e+001 -4.882169e+001 66 60 112
-1.512557e+001 -3.778853e+001 -4.127353e+001 118 181 227
-1.825264e+001 -3.659664e+001 -4.501922e+001 124 104 95
-1.701209e+001 -3.602273e+001 -4.443915e+001 247 254 252
-1.407833e+001 -3.840442e+001 -4.158362e+001 212 255 254
-1.766878e+001 -3.974085e+001 -3.906926e+001 253 255 255
-1.335096e+001 -3.803473e+001 -3.990957e+001 33 34 64
-1.489780e+001 -3.722071e+001 -4.131201e+001 209 255 255
-1.698165e+001 -3.594794e+001 -4.436761e+001 250 254 255
-1.572693e+001 -5.356373e+001 -3.194044e+001 157 124 80
-1.818258e+001 -4.437176e+001 -4.238320e+001 119 103 97
-5.544812e+000 -5.453006e+001 -3.165934e+001 130 106 60
-5.496498e+000 -5.392435e+001 -3.054281e+001 145 114 68
-5.335152e+000 -5.633362e+001 -3.200865e+001 167 140 93
-5.206123e+000 -5.400660e+001 -2.964353e+001 144 116 68
-5.336790e+000 -5.249705e+001 -3.241687e+001 82 62 29
-5.217503e+000 -5.492838e+001 -3.247209e+001 73 55 25
-4.642943e+000 -5.659160e+001 -3.086213e+001 132 104 65
-1.689951e+000 -3.486264e+001 -2.337827e+001 123 106 77
-6.094332e+000 -5.099581e+001 -3.389718e+001 57 44 27
2.429580e+000 1.244554e+000 -9.494433e+000 77 46 28
1.926629e+000 9.422838e-001 -8.943782e+000 53 37 31
-5.902135e-001 7.075765e-001 -7.886910e+000 111 33 19
1.324699e+000 9.029587e-001 -8.709671e+000 99 18 15
3.701071e+000 1.519315e+000 -1.077752e+001 22 10 11
-5.871578e-001 8.316567e-001 -8.022793e+000 133 96 54
1.990997e+000 9.788425e-001 -9.020584e+000 62 44 40
1.965859e+000 8.814049e-001 -8.894808e+000 53 35 33
1.532561e+000 7.740429e-001 -8.635067e+000 91 98 83
1.532561e+000 7.740429e-001 -8.635067e+000 91 98 83
-4.835375e-001 5.879643e-001 -7.757024e+000 139 102 60
1.616337e+000 6.642169e-001 -8.547446e+000 111 110 90
2.166718e+000 6.195510e-001 -8.703563e+000 55 20 17
-5.286534e+000 -5.485960e+001 -3.191544e+001 147 124 80
4.596269e+000 -8.381552e-001 -8.706942e+000 89 73 63
2.914995e+000 1.483230e+000 -1.007060e+001 109 73 41
3.522816e-001 1.022056e+000 -8.506648e+000 125 110 30
3.522816e-001 1.022056e+000 -8.506648e+000 125 110 30
-5.005591e-001 6.206469e-001 -7.784213e+000 142 96 63
2.143949e+000 6.535895e-001 -8.724119e+000 102 73 64
4.038351e+000 5.528374e-001 -9.376657e+000 141 110 76
-5.058043e+000 -5.986318e+001 -2.720626e+001 49 35 21
-4.668344e+000 -5.951751e+001 -2.710116e+001 76 61 46
2.014982e+000 6.084782e-001 -8.654407e+000 54 21 17
-4.754749e+000 -5.846821e+001 -2.778942e+001 118 97 76
-4.816263e+000 -5.969370e+001 -2.774169e+001 58 42 24
-6.909560e+000 -6.152247e+001 -2.556922e+001 31 21 20
-7.081168e+000 -5.794605e+001 -2.133588e+001 116 82 40
-4.566871e+000 -5.843280e+001 -2.819847e+001 95 77 52
4.558788e+000 -8.302357e-001 -8.753940e+000 99 83 64
-7.691812e+000 -5.706341e+001 -2.399217e+001 130 103 72
-1.238563e+001 -5.793909e+001 -2.620265e+001 166 128 81
-8.929784e+000 -5.944337e+001 -2.585703e+001 106 80 48
-6.750964e+000 -5.866383e+001 -2.606058e+001 131 107 73
-1.033807e+001 -5.701283e+001 -2.733695e+001 179 140 87
-9.459202e+000 -5.803375e+001 -2.746379e+001 117 89 52
-8.993415e+000 -5.821216e+001 -2.974548e+001 170 140 90
5.296313e-001 1.293589e+000 -9.660198e+000 103 53 33
1.903741e+000 1.335736e+000 -1.018031e+001 96 63 46
1.408737e+000 1.448210e+000 -9.688184e+000 84 23 14
1.510782e+000 1.435580e+000 -9.602795e+000 132 76 60
1.513083e+000 1.432422e+000 -9.566073e+000 108 31 23
3.127570e+000 1.515035e+000 -1.023163e+001 112 77 39
-9.838118e-003 1.281008e+000 -8.728989e+000 124 121 21
8.897154e-001 1.366108e+000 -9.117207e+000 114 11 22
1.939675e+000 1.398914e+000 -9.592662e+000 20 47 64
1.945114e+000 1.393955e+000 -9.554648e+000 17 40 46
-3.737508e-001 1.177905e+000 -8.490349e+000 30 36 16
5.819888e-001 1.224403e+000 -8.847001e+000 136 120 73
5.818171e-001 1.224809e+000 -8.846376e+000 136 120 73
1.306379e+000 1.244684e+000 -9.134780e+000 134 124 82
-1.251328e+000 7.926896e-001 -7.937421e+000 173 155 107
-5.815988e-001 8.689936e-001 -8.073146e+000 135 27 27
-5.815988e-001 8.689936e-001 -8.073146e+000 135 27 27
-5.604210e-001 8.254542e-001 -8.021182e+000 136 19 26
-5.558495e-001 8.022363e-001 -8.032108e+000 136 19 26
1.807840e+000 7.060875e-001 -8.640871e+000 70 15 13
6.712492e-002 5.332685e-001 -7.897911e+000 10 37 11
-3.182299e-001 4.382001e-001 -7.680122e+000 142 134 89
4.588745e+000 -7.224058e-001 -8.665730e+000 130 117 101
4.586691e+000 -7.412483e-001 -8.639198e+000 105 87 73
4.616118e+000 -1.169565e+000 -8.573976e+000 105 88 64
4.616118e+000 -1.169565e+000 -8.573976e+000 105 88 64
1.543910e+000 1.432063e+000 -9.630156e+000 101 12 16
1.203846e+000 9.580381e-001 -8.720264e+000 160 125 80
-6.442465e-001 7.836597e-001 -7.968660e+000 152 127 79
1.980482e+000 9.007710e-001 -8.916443e+000 97 76 72
1.452625e-001 7.489675e-001 -8.140917e+000 127 114 10
1.452625e-001 7.489675e-001 -8.140917e+000 127 114 10
1.550624e+000 7.613256e-001 -8.612787e+000 19 53 72
4.174324e+000 6.543899e-001 -9.550042e+000 101 49 35
3.059359e+000 1.529876e+000 -1.033541e+001 85 50 30
3.446883e+000 1.573596e+000 -1.038433e+001 113 78 50
2.165783e+000 1.097653e+000 -9.216793e+000 75 57 48
1.858170e+000 9.546918e-001 -8.963928e+000 63 47 50
-5.221830e-001 7.742958e-001 -7.977156e+000 165 121 79
8.868183e-001 7.702449e-001 -8.398739e+000 137 123 88
2.017244e+000 7.709456e-001 -8.780477e+000 50 20 16
3.229279e+000 6.578355e-001 -9.140562e+000 93 17 28
4.387090e+000 -1.263194e+000 -9.136089e+000 131 116 93
4.504571e+000 -1.005856e+000 -8.967415e+000 46 38 31
3.075324e+000 1.447636e+000 -1.052255e+001 102 62 30
9.052861e-001 1.470069e+000 -9.406995e+000 117 98 71
3.176359e+000 1.477506e+000 -1.049062e+001 90 62 43
7.265260e-001 1.317652e+000 -9.061989e+000 107 33 24
7.265260e-001 1.317652e+000 -9.061989e+000 107 33 24
2.166785e+000 1.089412e+000 -9.220740e+000 74 56 49
-3.650271e-001 8.034539e-001 -8.083594e+000 49 75 81
2.437584e+000 6.170661e-001 -8.811054e+000 61 24 18
2.489597e-001 5.285380e-001 -7.956449e+000 23 37 25
2.417488e-001 5.425178e-001 -7.949956e+000 23 37 25
4.404204e+000 -1.142845e+000 -9.109861e+000 41 32 32
4.428923e+000 -1.183406e+000 -9.063755e+000 138 120 97
4.509092e+000 -8.765054e-001 -8.882239e+000 41 30 24
4.507340e+000 -7.975489e-001 -8.812887e+000 48 38 34
4.541073e+000 -8.664928e-001 -8.655754e+000 140 124 101
4.699042e+000 -1.638413e+000 -8.399844e+000 141 123 99
4.713346e+000 -1.653976e+000 -8.405932e+000 141 123 99
4.890105e+000 -1.237642e+000 -8.000108e+000 119 101 81
3.268806e+000 1.348035e+000 -9.999455e+000 122 89 53
-6.573946e-001 1.168630e+000 -9.225656e+000 116 116 59
-6.573946e-001 1.168630e+000 -9.225656e+000 116 116 59
-3.285985e-001 1.180098e+000 -9.387720e+000 38 44 18
3.384147e-001 1.062205e+000 -9.854288e+000 122 69 55
3.329136e-001 1.080403e+000 -9.841312e+000 122 69 55
9.567367e-001 1.390015e+000 -9.622948e+000 112 41 35
6.613080e-001 1.252059e+000 -8.911793e+000 163 149 110
6.613080e-001 1.252059e+000 -8.911793e+000 163 149 110
1.336593e+000 1.259638e+000 -9.114374e+000 21 67 95
-3.143720e-001 1.078077e+000 -8.415312e+000 164 154 38
2.459379e+000 1.176355e+000 -9.464575e+000 94 50 39
1.382649e+000 1.097574e+000 -8.966879e+000 152 157 134
2.427063e+000 1.126076e+000 -9.334192e+000 105 49 48
2.238371e+000 9.358636e-001 -9.068884e+000 123 101 90
-2.398426e-001 6.561460e-001 -7.910466e+000 156 145 44
1.954734e+000 7.452852e-001 -8.750699e+000 101 52 53
3.836350e-001 5.853155e-001 -8.025918e+000 20 52 29
3.214048e+000 6.227703e-001 -9.099483e+000 30 65 101
4.617434e+000 -5.844708e-001 -8.479937e+000 124 109 103
4.860305e+000 1.214167e-002 -8.040705e+000 54 47 50
4.032668e-001 1.255472e+000 -9.632977e+000 121 68 54
-1.839094e+000 4.343590e-001 -8.680575e+000 151 130 112
3.238127e+000 1.535945e+000 -1.028443e+001 135 97 67
-4.048687e-001 1.198993e+000 -8.509213e+000 56 93 100
-2.842978e-001 1.162205e+000 -8.502430e+000 141 134 28
2.104774e+000 1.338758e+000 -9.546085e+000 17 62 87
2.568526e+000 1.348375e+000 -9.702130e+000 95 37 15
1.270395e+000 8.574538e-001 -8.616887e+000 146 25 33
2.687797e+000 9.308232e-001 -9.151119e+000 80 53 63
2.081518e+000 7.863216e-001 -8.794186e+000 130 105 105
1.806524e+000 6.228030e-001 -8.580732e+000 171 108 71
4.455344e+000 -1.137587e+000 -8.974272e+000 124 111 99
4.741741e+000 -1.749082e-001 -8.187131e+000 146 132 125
-1.197753e+000 1.088917e+000 -9.079127e+000 34 63 87
-5.309104e-001 1.128655e+000 -9.347161e+000 33 46 29
1.607726e+000 1.409123e+000 -9.872943e+000 88 18 24
1.811848e+000 1.406577e+000 -9.604833e+000 21 58 82
2.572747e+000 1.315776e+000 -9.667045e+000 146 113 67
-1.319525e+000 6.818906e-001 -7.931707e+000 199 180 142
1.612176e+000 1.126541e+000 -9.100035e+000 79 61 74
-1.354245e+000 5.905564e-001 -7.904443e+000 203 183 146
-1.354245e+000 5.905564e-001 -7.904443e+000 203 183 146
-1.275624e+000 7.002795e-001 -7.893114e+000 200 181 139
-1.275624e+000 7.002795e-001 -7.893114e+000 200 181 139
-6.296803e-001 8.729337e-001 -8.074339e+000 175 39 33
-6.296803e-001 8.729337e-001 -8.074339e+000 175 39 33
1.759219e+000 1.023595e+000 -9.002239e+000 89 67 80
2.029837e+000 9.979240e-001 -8.970691e+000 79 58 68
-6.145753e-001 6.740641e-001 -7.834610e+000 164 36 47
1.052710e+000 8.033639e-001 -8.477993e+000 157 31 34
2.504806e+000 6.318784e-001 -8.819684e+000 151 119 105
2.504806e+000 6.318784e-001 -8.819684e+000 151 119 105
2.711389e+000 5.048219e-001 -8.846627e+000 72 33 34
3.483551e+000 5.825415e-001 -9.182259e+000 146 53 45
4.362866e+000 -1.214345e+000 -9.171384e+000 47 38 38
4.484895e+000 -9.046858e-001 -8.840987e+000 156 142 132
4.502264e+000 -8.345243e-001 -8.779077e+000 154 140 131
4.709845e+000 -2.465188e-001 -8.248932e+000 151 141 139
4.791606e+000 -1.214175e+000 -8.008361e+000 164 147 131
4.791606e+000 -1.214175e+000 -8.008361e+000 164 147 131
4.903986e+000 3.418716e-001 -7.722212e+000 148 134 131
4.931182e+000 5.051505e-001 -7.580555e+000 146 135 129
-6.794945e-001 1.050935e+000 -9.400658e+000 36 47 22
1.892518e+000 1.319712e+000 -9.496165e+000 17 56 83
8.420283e-001 6.457625e-001 -8.247885e+000 159 148 122
3.834474e+000 6.736305e-001 -9.382124e+000 171 144 110
4.919326e+000 6.782418e-002 -7.684970e+000 152 135 127
2.474067e-001 1.128039e+000 -9.725914e+000 104 34 32
3.023427e-001 1.299799e+000 -9.534724e+000 108 31 37
2.764566e+000 1.433596e+000 -9.906898e+000 116 66 32
7.918584e-001 1.224411e+000 -8.930293e+000 168 132 106
-1.340493e+000 7.855480e-001 -8.021979e+000 195 177 141
1.454060e+000 1.008553e+000 -8.857417e+000 126 131 124
9.535191e-001 9.066489e-001 -8.594643e+000 162 146 112
2.970549e+000 7.683472e-001 -9.128849e+000 161 129 93
3.302108e+000 1.522912e+000 -1.048255e+001 92 51 31
3.301876e+000 1.524942e+000 -1.048158e+001 92 51 31
-1.015006e-001 1.069493e+000 -8.456408e+000 29 59 28
-8.668288e-003 8.409905e-001 -8.208551e+000 159 144 112
1.049652e+000 7.614960e-001 -8.414136e+000 171 38 41
2.437090e+000 8.876297e-001 -9.047701e+000 128 106 93
3.186573e+000 4.401166e-001 -9.023702e+000 27 77 115
3.051750e+000 1.501033e+000 -1.027110e+001 128 95 63
2.680893e-002 1.255695e+000 -8.713110e+000 102 115 112
2.680893e-002 1.255695e+000 -8.713110e+000 102 115 112
3.384807e-001 1.084887e+000 -8.620655e+000 33 59 30
2.145345e+000 1.066789e+000 -9.249964e+000 90 70 80
3.269049e-001 6.455270e-001 -8.080693e+000 155 148 102
5.416941e-001 6.378885e-001 -8.161597e+000 154 147 109
3.953111e-001 1.182548e+000 -8.671590e+000 158 148 113
2.868945e+000 8.045239e-001 -9.131972e+000 159 123 87
2.868945e+000 8.045239e-001 -9.131972e+000 159 123 87
-1.023542e+000 1.156763e+000 -8.278375e+000 128 129 115
-5.329985e-001 9.477288e-001 -8.623964e+000 94 113 109
-1.115039e+000 8.608280e-001 -9.418983e+000 116 37 30
-1.077685e+000 8.684381e-001 -9.431893e+000 12 47 72
-1.550331e+000 7.990546e-001 -9.193131e+000 36 68 100
-1.203579e+000 8.919557e-001 -9.291731e+000 113 22 27
-1.176202e+000 1.000662e+000 -9.192314e+000 129 29 29
-1.176202e+000 1.000662e+000 -9.192314e+000 129 29 29
-6.095669e-001 9.926840e-001 -9.496855e+000 37 37 27
5.465539e-001 1.005414e+000 -9.999156e+000 112 56 41
8.654772e-001 1.038007e+000 -1.015403e+001 86 25 24
-3.602227e-001 1.223274e+000 -9.292148e+000 35 36 13
-3.632945e-001 1.222227e+000 -9.291511e+000 35 36 13
3.270768e+000 1.245369e+000 -1.087995e+001 28 33 26
1.251645e+000 1.418118e+000 -9.710567e+000 126 61 57
3.291948e+000 1.476315e+000 -1.035929e+001 67 24 19
2.020527e+000 1.377948e+000 -9.623882e+000 19 53 67
1.973816e+000 1.345547e+000 -9.505604e+000 26 55 84
-2.055507e+000 5.894373e-001 -7.965285e+000 168 16 34
7.766716e-001 1.167810e+000 -8.843507e+000 169 29 36
2.352190e+000 1.260836e+000 -9.504230e+000 91 8 15
-1.647504e+000 8.869613e-001 -7.897870e+000 181 103 83
1.350277e+000 1.158669e+000 -9.025056e+000 151 139 112
1.405437e+000 1.120702e+000 -8.993838e+000 25 66 96
1.376032e+000 1.106461e+000 -8.962904e+000 148 147 122
2.183006e+000 1.123974e+000 -9.275466e+000 156 130 108
-6.939030e-001 8.892091e-001 -8.076280e+000 183 153 107
-1.542102e+000 4.363366e-002 -7.821163e+000 189 46 45
-6.394485e-001 8.020879e-001 -7.985572e+000 171 37 37
1.176833e+000 9.013330e-001 -8.641551e+000 184 145 99
1.169400e+000 9.136783e-001 -8.636955e+000 184 145 99
1.215800e+000 9.167526e-001 -8.655903e+000 179 128 94
2.035912e+000 9.102283e-001 -8.934907e+000 119 98 97
-1.241225e+000 4.849911e-001 -7.757415e+000 211 191 158
-5.331149e-001 7.600864e-001 -7.956944e+000 161 27 24
-2.013502e-001 6.461543e-001 -7.903981e+000 154 149 34
-4.913148e-001 6.122526e-001 -7.750515e+000 186 142 100
2.707323e+000 -3.619066e+000 -1.415221e+001 68 66 69
-1.237902e+000 8.458703e-001 -9.363809e+000 110 16 30
-9.039016e-001 8.861405e-001 -9.477372e+000 42 50 30
-4.853480e-002 1.040347e+000 -9.706282e+000 78 47 39
5.497800e-001 1.059404e+000 -9.910491e+000 131 78 64
2.125414e+000 1.139501e+000 -1.054543e+001 79 39 31
