ply
format ascii 1.0
element face 0
property list uchar int vertex_indices
element vertex 866
property float x
property float y
property float z
property uchar diffuse_red
property uchar diffuse_green
property uchar diffuse_blue
end_header
1.184167e+000 -3.643898e+000 -1.198036e+001 221 162 126
3.802823e+000 -9.856483e-001 -8.548185e+000 156 86 70
1.341349e+000 -3.427107e+000 -1.130626e+001 222 161 126
3.081118e-002 9.489483e-001 -1.046841e+001 214 211 204
7.782058e-002 1.062734e+000 -1.049607e+001 186 179 169
3.365274e+000 2.103923e+000 -7.869047e+000 207 190 137
3.573381e+000 1.737010e+000 -7.515093e+000 249 242 205
-1.204399e+000 1.440071e-002 -9.194820e+000 100 40 32
3.997271e+000 1.537682e+000 -7.667034e+000 176 106 98
-2.587630e+000 -7.016871e-001 -8.176829e+000 99 46 33
-7.753197e-001 -6.407105e-001 -9.054156e+000 119 108 102
1.496686e+000 -1.332307e-001 -9.236990e+000 203 193 157
2.601594e+000 7.101456e-002 -8.407036e+000 164 152 102
2.725044e+000 1.053008e-001 -8.436422e+000 169 154 111
-2.917203e+000 -1.356301e+000 -8.242916e+000 105 43 26
-2.121751e+000 -1.459345e+000 -8.894494e+000 164 74 41
2.553371e+000 -7.308343e-002 -8.557583e+000 99 91 67
2.472482e+000 -3.356945e-001 -8.474977e+000 171 161 148
1.175120e+000 -3.555484e+000 -1.189602e+001 252 198 164
1.766574e+000 -3.449953e+000 -1.108413e+001 214 147 105
3.874350e+000 -1.221940e+000 -8.469026e+000 197 119 69
2.779431e+000 -2.791097e+000 -1.009600e+001 150 114 66
-6.579113e-001 2.092782e+000 -1.254417e+001 206 200 194
1.075864e+000 2.150719e+000 -1.146809e+001 216 210 196
3.632585e+000 1.999547e+000 -7.588040e+000 244 223 168
-3.640197e+000 -2.384788e-001 -7.987683e+000 130 105 65
-1.050563e+000 3.509196e-002 -9.019720e+000 125 68 53
-1.460380e+000 -6.360580e-002 -8.424611e+000 206 106 58
2.584012e+000 8.713270e-001 -8.424493e+000 147 134 91
-1.096965e+000 -2.738854e-001 -8.863877e+000 44 22 22
-1.095952e+000 -4.656019e-001 -9.282013e+000 91 73 65
1.717376e+000 -3.676553e-002 -9.090517e+000 114 103 74
2.982036e+000 5.301419e-001 -8.077679e+000 163 151 102
3.129475e+000 7.375995e-001 -7.874494e+000 163 148 124
-1.564935e+000 -9.316749e-001 -8.212781e+000 68 43 43
-1.564935e+000 -9.316749e-001 -8.212781e+000 68 43 43
1.154747e+000 -6.880328e-001 -8.864089e+000 165 152 143
-6.549897e-001 -1.230529e+000 -8.698720e+000 180 170 160
4.338990e+000 -9.680305e-002 -7.391107e+000 192 177 170
2.101291e+000 -2.228998e+000 -9.754817e+000 158 140 97
2.932359e+000 -3.106344e+000 -9.964259e+000 249 205 179
3.575611e+000 -2.485411e+000 -9.154348e+000 201 123 66
5.795676e-001 1.929350e+000 -1.170500e+001 203 200 193
2.497678e+000 1.017115e+000 -9.107718e+000 202 197 186
2.344980e+000 5.951461e-001 -9.304474e+000 191 174 154
2.590950e+000 8.358079e-001 -8.392523e+000 187 173 122
-3.627648e+000 -8.807446e-001 -7.981837e+000 161 110 106
1.861146e+000 -1.007691e-001 -9.229630e+000 159 151 115
2.119936e+000 4.509669e-002 -9.047048e+000 238 225 174
-3.380054e+000 -1.104383e+000 -8.008675e+000 223 119 72
-2.829090e+000 -1.441403e+000 -8.323300e+000 154 81 50
-1.034133e-001 -1.125995e+000 -9.181572e+000 181 178 175
1.593818e+000 -2.821477e+000 -1.108987e+001 224 93 89
-1.500032e+000 4.582196e-001 -1.049076e+001 176 97 73
-1.500032e+000 4.582196e-001 -1.049076e+001 176 97 73
-5.206160e-001 7.752220e-001 -1.116460e+001 202 196 185
-4.146930e-001 6.325978e-001 -1.014684e+001 140 132 121
2.095764e-001 6.191189e-001 -9.913218e+000 171 168 163
3.338798e+000 1.606467e+000 -7.873693e+000 219 200 142
-1.211154e+000 4.449964e-002 -8.966430e+000 144 78 53
-7.744917e-001 -4.959633e-004 -9.509385e+000 113 95 85
-2.273572e+000 -4.490399e-001 -8.680950e+000 126 50 27
2.003847e+000 1.127647e-001 -9.457901e+000 175 169 160
-2.579250e+000 -7.516464e-001 -8.213790e+000 137 96 71
-2.122994e-001 -6.642091e-001 -9.411210e+000 35 27 25
1.568790e+000 -4.029806e-001 -9.249363e+000 85 78 52
-1.531460e+000 -1.737598e+000 -8.929105e+000 59 49 48
3.946968e+000 -1.174074e+000 -8.444158e+000 197 73 77
3.424318e+000 2.286126e+000 -7.904603e+000 132 118 92
-8.152819e-001 8.652260e-002 -9.374637e+000 111 75 58
1.882183e+000 -3.040709e-002 -9.221554e+000 117 108 77
-1.532619e+000 -1.115010e+000 -8.354663e+000 205 155 120
-1.484369e+000 -1.654552e+000 -8.631367e+000 241 148 93
2.192852e-001 -2.899608e+000 -1.212544e+001 181 134 112
-8.606009e-001 6.539370e-001 -1.045138e+001 169 162 146
3.423595e+000 2.282464e+000 -7.902636e+000 134 122 94
3.279402e+000 1.835394e+000 -8.034786e+000 245 226 169
2.414709e+000 9.227914e-001 -9.188131e+000 219 215 207
1.500594e+000 -1.612220e-001 -9.512113e+000 119 111 96
-1.656245e+000 -1.020598e+000 -8.210472e+000 222 191 155
5.142928e-001 -1.512401e+000 -1.000428e+001 177 170 167
7.023210e-001 -3.420004e+000 -1.231999e+001 247 197 165
3.895429e+000 -1.096789e+000 -8.591273e+000 170 97 64
-2.188785e+000 -3.522724e-001 -8.714180e+000 150 70 46
-2.188785e+000 -3.522724e-001 -8.714180e+000 150 70 46
2.198308e+000 5.636935e-001 -9.369234e+000 221 217 207
-2.048743e+000 -1.140732e+000 -8.621696e+000 131 55 37
-5.892040e-001 -9.087462e-001 -8.930798e+000 163 154 148
3.785055e+000 -1.078484e+000 -8.596738e+000 168 121 101
1.916177e+000 -3.329762e+000 -1.122914e+001 126 110 69
2.696814e+000 -2.975062e+000 -9.503205e+000 95 68 69
5.201792e-001 1.857032e+000 -1.079712e+001 160 156 147
-7.732437e-001 1.158182e+000 -1.260166e+001 240 237 233
3.418636e+000 1.910678e+000 -8.137323e+000 255 248 197
2.578980e+000 8.856707e-001 -8.765914e+000 224 218 205
-2.313155e+000 -7.394460e-001 -8.691770e+000 78 23 13
2.118449e+000 -2.338305e+000 -9.706814e+000 247 233 178
3.780453e+000 -1.126668e+000 -8.328366e+000 189 113 65
1.806980e+000 -3.170919e+000 -9.926674e+000 112 96 63
-1.255376e+000 4.947490e-001 -1.017967e+001 238 236 223
2.805725e+000 1.005325e+000 -8.473228e+000 255 250 195
2.805725e+000 1.005325e+000 -8.473228e+000 255 250 195
2.255508e+000 3.671251e-002 -9.114488e+000 255 250 202
-1.963470e+000 -9.675783e-001 -8.543145e+000 234 195 146
3.160352e+000 -2.643202e+000 -9.593530e+000 126 71 40
1.230811e+000 1.596680e+000 -1.005127e+001 169 162 156
1.230811e+000 1.596680e+000 -1.005127e+001 169 162 156
4.468039e-001 -2.321653e+000 -1.141107e+001 134 94 82
1.021587e+000 -2.325570e+000 -1.125733e+001 172 53 56
4.245418e+000 -1.654013e-001 -7.312010e+000 192 67 71
-3.297675e+000 -5.741830e-001 -7.965918e+000 75 32 31
3.000599e+000 3.610702e-001 -8.329068e+000 149 137 95
-7.479816e-001 -1.214959e+000 -8.742366e+000 185 179 174
2.686031e+000 8.725183e-001 -7.695273e+000 253 252 198
-5.513303e-001 -5.375831e-001 -9.132467e+000 62 50 38
-5.513303e-001 -5.375831e-001 -9.132467e+000 62 50 38
3.465187e+000 7.341756e-001 -8.213399e+000 151 138 105
-8.613683e-001 -2.202948e-001 -8.827638e+000 51 33 30
3.603039e+000 1.737118e+000 -7.806194e+000 254 250 202
-1.580088e+000 -1.059845e+000 -8.260459e+000 192 156 123
-1.972683e+000 -1.967633e+000 -9.836443e+000 60 22 11
-1.071720e-001 -4.057789e-002 -9.304699e+000 157 154 145
-3.855017e+000 -4.236914e-001 -8.064973e+000 123 95 51
3.762997e+000 -1.149113e+000 -8.682598e+000 131 78 57
3.923404e+000 -1.223398e+000 -8.487905e+000 230 184 167
3.852427e+000 -1.174964e+000 -8.620833e+000 179 106 62
3.829464e+000 -1.218738e+000 -8.650078e+000 177 105 56
-2.048332e+000 3.886595e+000 -1.418316e+001 238 230 228
-1.583418e-001 -1.802276e-001 -9.253629e+000 147 138 130
-3.220410e+000 -1.007168e+000 -7.917912e+000 204 103 57
8.131143e-001 -1.789455e+000 -1.106401e+001 163 98 60
-8.283316e-001 1.158124e-001 -9.344145e+000 109 63 54
2.034705e+000 -2.990592e+000 -8.668247e+000 122 105 62
1.061222e+000 -2.197823e+000 -1.122550e+001 144 40 37
-5.445799e-001 2.543898e+000 -1.280497e+001 177 171 159
-4.539734e-001 4.465805e+000 -1.274569e+001 236 226 216
8.795093e-001 -8.007341e-001 -8.894561e+000 231 228 219
-3.640143e+000 -1.097218e+000 -8.157024e+000 135 70 64
-2.891183e-001 4.249555e+000 -1.256650e+001 214 206 195
-8.274521e-001 2.620674e+000 -1.290777e+001 184 177 166
-4.709072e-001 2.336800e+000 -1.269152e+001 229 223 215
-6.436486e-002 3.670988e+000 -1.225742e+001 205 196 187
-6.030720e-002 3.666448e+000 -1.225062e+001 205 196 187
-9.940597e-002 1.914323e+000 -1.144894e+001 187 180 170
-7.535844e-001 2.915263e+000 -1.300179e+001 222 218 213
3.773296e+000 1.548874e-001 -7.769312e+000 213 201 187
3.867579e+000 -9.684899e-001 -8.589353e+000 142 77 53
-2.798152e+000 -1.211969e+000 -8.245835e+000 92 62 53
-2.784100e+000 -1.402304e+000 -8.345507e+000 164 105 71
2.146425e+000 -2.270591e+000 -9.865753e+000 162 140 94
-8.090526e-001 1.154235e-001 -9.452718e+000 138 121 112
3.805028e+000 -1.058612e+000 -8.513229e+000 166 137 131
-6.572009e-001 -4.433134e-001 -9.323270e+000 92 83 64
-3.850869e+000 -4.481357e-001 -8.114623e+000 133 103 52
-3.586229e+000 -7.784920e-001 -7.980256e+000 140 80 75
2.087182e+000 -2.210096e+000 -9.861265e+000 133 116 68
7.241125e-001 -2.693438e+000 -1.232670e+001 137 100 91
2.301469e+000 5.422033e-001 -9.237643e+000 218 208 188
-6.141969e-001 -4.825942e-001 -9.330548e+000 100 89 69
-2.586513e+000 -8.597121e-001 -8.248228e+000 47 27 29
-2.803918e+000 -1.252572e+000 -8.319158e+000 77 56 56
3.164333e+000 -2.447089e+000 -9.431973e+000 177 93 60
8.783580e-001 -2.609817e+000 -1.162159e+001 209 101 83
8.689276e-001 -2.842339e+000 -1.215506e+001 186 105 71
7.231198e-001 1.213466e+000 -9.857216e+000 237 232 226
-7.098286e-001 -4.316803e-001 -9.423107e+000 55 42 27
-5.239124e-001 -4.095276e-001 -9.388387e+000 62 51 32
-3.602563e+000 -6.033370e-001 -7.990936e+000 128 97 51
-1.484004e+000 -1.000376e+000 -8.072759e+000 201 77 77
-1.356787e+000 -1.641670e+000 -8.812260e+000 221 163 120
1.631848e+000 -2.835579e+000 -1.137172e+001 204 108 72
1.639096e+000 -3.330215e+000 -1.144802e+001 253 251 241
2.644247e+000 4.892887e-001 -8.296904e+000 243 227 165
-5.537976e-001 -7.961858e-002 -9.327070e+000 170 163 155
2.239723e-001 -1.455679e-001 -9.400372e+000 155 148 138
2.066531e+000 -2.960564e-001 -9.015814e+000 200 187 135
-3.765320e+000 -6.945070e-001 -8.041618e+000 249 225 164
-1.749768e-001 -1.059406e+000 -9.150749e+000 128 120 109
-1.564919e+000 -1.149428e+000 -8.503937e+000 185 117 82
3.436277e+000 -1.893326e+000 -8.987410e+000 183 143 116
-5.069661e-001 -1.529274e+000 -1.015726e+001 127 114 101
-3.371485e+000 -1.491029e+000 -8.510940e+000 144 50 32
-7.812714e-001 -1.901104e+000 -1.432074e+001 251 207 57
1.628991e+000 -3.009617e+000 -1.147201e+001 227 186 106
3.883564e-001 4.640143e+000 -1.197302e+001 237 223 207
2.457210e+000 7.282355e-001 -8.913202e+000 203 195 184
-9.113562e-001 1.231364e-001 -9.309976e+000 141 80 64
2.112164e+000 -3.997101e-001 -8.982193e+000 228 228 216
2.294958e+000 -3.844117e-001 -8.803594e+000 244 237 227
-1.649435e+000 -9.898351e-001 -8.226933e+000 205 175 136
-1.649435e+000 -9.898351e-001 -8.226933e+000 205 175 136
-3.790180e+000 -9.549675e-001 -8.175479e+000 187 147 98
-4.942756e-001 -1.443135e+000 -1.019673e+001 135 124 113
-2.519971e+000 -1.210789e+000 -8.205416e+000 179 123 78
7.858953e-001 -1.656293e+000 -1.058163e+001 210 171 134
-8.774402e-001 -1.911895e+000 -1.421314e+001 223 137 59
-9.704114e-001 -2.029843e+000 -1.467940e+001 244 174 119
2.908075e+000 1.268230e+000 -8.416388e+000 203 187 135
2.366153e+000 3.903612e-001 -8.897631e+000 213 197 138
4.981829e-001 4.755520e-001 -9.687502e+000 157 153 142
4.271966e+000 -9.670084e-001 -7.992859e+000 146 123 106
2.910018e-001 -3.027122e-001 -9.433879e+000 161 156 146
-1.510949e+000 -7.538721e-001 -8.293645e+000 123 42 44
-3.130271e+000 -8.494540e-001 -7.871142e+000 223 127 74
3.340021e+000 -2.080163e+000 -9.246561e+000 226 182 116
-2.653752e+000 -1.739103e+000 -9.772389e+000 45 23 15
-2.653752e+000 -1.739103e+000 -9.772389e+000 45 23 15
2.476626e-001 4.493715e+000 -1.188711e+001 243 234 224
-4.279274e-001 4.578643e+000 -1.263406e+001 214 80 81
1.906665e+000 1.972152e+000 -9.381480e+000 200 193 184
2.233879e+000 3.779943e-001 -9.164366e+000 205 200 187
1.531076e-001 4.404674e-001 -9.545246e+000 153 145 135
-1.155790e+000 -2.289978e-001 -8.839891e+000 158 82 53
-7.379082e-001 -1.398866e-001 -9.397803e+000 136 126 117
-1.976205e-001 4.476849e+000 -1.241554e+001 242 234 227
2.151799e-001 9.272194e-001 -1.022717e+001 234 233 223
3.412468e+000 -6.440025e-001 -8.214303e+000 106 40 41
1.033164e+000 -2.495997e+000 -1.142286e+001 168 45 49
1.563933e+000 1.611527e+000 -9.357168e+000 238 233 227
4.033206e-001 7.642630e-001 -9.796565e+000 171 164 148
-2.458876e+000 -1.202954e+000 -8.315404e+000 167 113 81
-2.459328e+000 -1.266794e+000 -9.248796e+000 118 35 19
7.218161e-001 -3.069116e+000 -1.232931e+001 213 167 142
1.098045e+000 3.622859e+000 -1.093455e+001 250 244 232
2.998870e+000 2.875061e-001 -8.408737e+000 100 87 68
1.860218e+000 -2.275927e+000 -1.005731e+001 111 88 57
-4.801552e-001 3.806093e+000 -1.220521e+001 243 239 230
-2.995360e-001 3.786425e-001 -9.522766e+000 166 159 151
3.734259e+000 -1.670568e+000 -9.142603e+000 93 48 45
-3.564523e-001 -1.355365e+000 -9.977504e+000 98 85 76
-1.617571e+000 -1.723233e+000 -9.219837e+000 237 197 145
-6.915985e-001 -2.777147e-001 -9.446321e+000 124 110 83
-3.588705e+000 -1.386631e+000 -8.377339e+000 117 68 70
-2.100002e+000 -1.672731e+000 -9.141838e+000 202 86 40
2.696013e+000 -2.044853e+000 -9.865886e+000 175 68 59
3.746591e+000 -1.247626e+000 -8.726264e+000 166 127 112
2.304448e+000 -2.117045e+000 -9.843429e+000 221 84 85
9.111614e-001 -2.780477e+000 -1.218201e+001 124 91 87
2.435999e+000 -2.747933e+000 -8.464088e+000 108 88 55
1.236544e+000 -3.197715e+000 -1.186394e+001 198 103 74
1.447917e+000 -3.043004e+000 -1.154821e+001 198 99 78
-1.449333e-001 -7.536044e-002 -9.256986e+000 165 158 150
2.069938e+000 -9.575197e-001 -9.099087e+000 228 221 211
-3.758757e+000 -7.277969e-001 -8.071082e+000 155 128 72
3.373994e+000 -2.177178e+000 -9.224516e+000 221 136 103
9.161597e-001 -3.091798e+000 -1.219669e+001 204 134 85
-3.642930e+000 -5.437706e-001 -7.977427e+000 138 109 63
-2.787624e+000 -1.368094e+000 -8.350262e+000 198 158 120
6.212398e-001 -2.235176e+000 -1.151699e+001 217 176 126
3.303935e-001 -1.119857e+000 -9.337573e+000 175 172 165
-3.108371e+000 -1.302707e+000 -8.119786e+000 155 75 54
-2.867368e+000 -1.329518e+000 -8.377133e+000 57 38 38
-3.226314e+000 -1.319520e+000 -8.112043e+000 189 82 49
4.306026e+000 -1.023892e-001 -7.318807e+000 135 103 91
1.132504e+000 4.725169e-001 -9.740455e+000 144 137 127
-2.642450e+000 -1.002328e+000 -8.257932e+000 172 146 131
1.892341e+000 -5.210553e-001 -9.090968e+000 164 156 143
3.998646e+000 -9.079007e-001 -8.454257e+000 185 134 117
3.990747e+000 -9.115920e-001 -8.437568e+000 185 134 117
3.937098e+000 -1.174095e+000 -8.541109e+000 197 117 73
-2.581478e+000 -8.079654e-001 -8.218759e+000 76 46 32
1.066887e+000 -2.219583e+000 -4.442798e+000 141 55 50
-2.869047e+000 -1.210497e+000 -8.225864e+000 71 39 28
-2.793806e+000 -1.192697e+000 -8.237361e+000 169 129 96
-3.294634e+000 -1.446306e+000 -8.278094e+000 195 88 46
-2.397837e+000 -1.491557e+000 -9.107917e+000 179 84 46
2.073068e+000 -2.169367e+000 -9.951708e+000 108 89 52
-3.079084e+000 -1.586999e+000 -8.723719e+000 133 60 46
7.054371e-001 -2.657804e+000 -1.227105e+001 110 53 50
8.619334e-001 -2.762956e+000 -1.216447e+001 141 107 113
1.485329e+000 -3.228307e+000 -1.142058e+001 214 161 90
1.805703e+000 2.395884e-002 -9.232926e+000 113 102 76
3.831889e+000 -1.014704e+000 -8.693637e+000 150 107 96
3.972538e+000 -9.731343e-001 -8.491920e+000 206 160 142
3.971123e+000 -1.054967e+000 -8.499434e+000 172 109 74
-4.555636e-001 -3.908969e-001 -9.290092e+000 61 52 38
-2.042249e+000 -5.007203e-001 -8.654299e+000 146 71 48
-3.359374e+000 -1.393906e+000 -8.170112e+000 208 101 49
-2.564955e+000 -1.418997e+000 -8.479603e+000 157 110 74
4.399592e-001 -1.832443e+000 -1.096111e+001 163 125 100
2.164812e+000 -2.337419e+000 -9.854365e+000 186 170 111
1.733993e+000 -2.890757e+000 -1.124533e+001 187 112 69
1.057198e+000 -2.932904e+000 -1.195174e+001 194 180 169
1.125316e+000 -3.014460e+000 -1.183591e+001 213 163 115
4.098516e+000 -1.011727e+000 -8.249613e+000 221 180 163
-7.505028e-001 -2.515413e-001 -9.486258e+000 87 74 54
-7.505028e-001 -2.515413e-001 -9.486258e+000 87 74 54
3.734682e+000 -1.225852e+000 -8.763040e+000 138 97 85
-4.796385e-001 -3.991984e-001 -9.334826e+000 87 76 58
3.473534e+000 -1.378774e+000 -8.838201e+000 111 72 62
3.560937e+000 -1.734493e+000 -8.911050e+000 129 87 72
-3.483399e+000 -7.408067e-001 -7.888252e+000 103 58 52
-3.473436e+000 -6.956230e-001 -7.900773e+000 129 79 72
3.530623e+000 -1.899809e+000 -8.960578e+000 196 142 87
-3.108918e+000 -1.069987e+000 -7.895959e+000 142 60 37
-6.371415e-002 -1.374050e+000 -9.775248e+000 138 133 127
-3.291069e+000 -1.417174e+000 -8.244831e+000 215 109 69
1.595178e+000 -2.882236e+000 -1.136038e+001 182 93 59
2.793492e+000 -3.051401e+000 -1.013114e+001 253 211 191
8.336215e-001 -2.772036e+000 -1.219410e+001 191 161 160
1.014734e+000 -2.847304e+000 -1.182460e+001 206 172 170
1.709930e+000 -3.155229e+000 -1.125800e+001 203 132 80
4.057135e+000 -9.867226e-001 -8.261963e+000 208 174 164
3.985365e+000 -1.030273e+000 -8.444804e+000 208 176 162
3.950492e+000 -1.115235e+000 -8.518865e+000 182 108 69
3.894064e+000 -1.128671e+000 -8.551694e+000 180 102 55
1.447174e-001 -3.366941e-001 -9.340999e+000 137 128 119
-3.546944e-001 -5.279842e-001 -9.379781e+000 59 47 37
-3.657715e+000 -6.104082e-001 -8.004727e+000 211 185 128
-3.125151e+000 -9.698021e-001 -7.868875e+000 212 116 70
2.111941e+000 -1.884779e+000 -9.853387e+000 198 59 62
1.096758e+000 -1.894179e+000 -1.101791e+001 151 89 63
-3.217380e+000 -1.412527e+000 -8.150693e+000 184 75 45
2.116161e+000 -2.273520e+000 -9.936415e+000 168 143 89
1.664672e+000 -2.672342e+000 -1.075880e+001 220 81 81
1.612684e+000 -2.826246e+000 -1.134391e+001 191 110 57
1.728809e+000 -2.729473e+000 -1.099076e+001 118 40 31
1.728809e+000 -2.729473e+000 -1.099076e+001 118 40 31
9.858101e-001 8.643510e-001 -9.875433e+000 156 152 139
4.004947e+000 -1.149231e+000 -8.350233e+000 209 185 174
-8.500303e-001 -5.565358e-002 -9.519459e+000 74 54 51
1.147214e-001 -3.952479e-001 -9.349278e+000 132 123 114
3.887060e+000 -1.229842e+000 -8.524802e+000 190 118 64
-3.486095e+000 -5.106239e-001 -7.932628e+000 189 164 107
9.170540e-001 -1.111585e+000 -9.133980e+000 221 217 208
-6.936869e-001 -1.292205e+000 -8.813139e+000 107 93 80
8.819031e-002 -1.478701e+000 -1.044454e+001 141 127 115
-1.240823e+000 -1.815131e+000 -9.056049e+000 215 164 124
-1.238173e+000 -1.813552e+000 -9.070258e+000 215 164 124
-6.557780e-001 -1.868934e+000 -1.360902e+001 248 204 74
2.989826e+000 -3.208389e-001 -8.262218e+000 181 169 153
9.665868e-001 8.573498e-002 -9.722796e+000 144 140 131
4.080527e+000 -9.007943e-001 -7.998780e+000 151 44 48
4.002753e+000 -1.082642e+000 -8.457874e+000 187 112 66
4.561023e+000 -1.007960e+000 -8.703441e+000 136 111 97
-1.418626e-001 -3.339486e-001 -9.312355e+000 111 104 96
-7.689757e-001 -8.816654e-001 -8.607400e+000 134 121 112
3.331208e+000 -1.998027e+000 -9.288314e+000 198 126 101
1.331324e+000 -3.064962e+000 -1.157228e+001 223 177 103
2.653120e+000 -3.210457e+000 -1.032180e+001 205 123 63
-4.439778e-001 4.472992e+000 -1.278386e+001 239 229 220
2.561126e+000 1.512973e-001 -8.622151e+000 201 185 126
-2.656071e+000 -7.826777e-001 -8.163255e+000 105 63 47
-2.648629e+000 -7.909854e-001 -8.147736e+000 105 63 47
-2.453999e+000 -1.272148e+000 -8.648683e+000 150 105 74
-3.502125e+000 -1.404201e+000 -8.370977e+000 66 18 14
1.434625e+000 1.817680e+000 -9.736021e+000 218 214 203
-1.767838e+000 4.185355e+000 -1.394284e+001 231 228 225
3.805354e+000 -1.120062e+000 -8.643581e+000 139 79 50
3.880683e+000 -1.094062e+000 -8.573388e+000 161 93 49
2.496402e-001 -1.759035e+000 -1.057620e+001 175 165 153
1.514565e+000 -3.237260e+000 -1.143126e+001 230 185 114
2.310215e+000 6.234626e-001 -9.049296e+000 226 219 203
2.593415e+000 6.797044e-002 -8.702337e+000 255 254 198
-3.334573e-001 -3.373791e-002 -9.324407e+000 175 170 164
-2.820520e-001 -4.078476e-001 -9.607483e+000 118 109 100
1.352850e+000 -1.743615e+000 -1.007113e+001 104 77 56
2.104573e+000 -2.097604e+000 -1.004666e+001 61 22 24
1.497612e+000 -3.055060e+000 -1.146073e+001 183 81 70
-1.528773e+000 4.390326e+000 -1.377677e+001 226 222 219
6.654518e-001 1.115585e+000 -9.852398e+000 177 170 159
2.505614e+000 1.342057e-001 -9.160621e+000 160 147 95
3.502081e-001 1.601347e-001 -9.566048e+000 148 142 129
7.155984e-001 -6.780668e-001 -9.083351e+000 215 215 208
5.670314e-001 -8.009324e-001 -9.133972e+000 175 171 162
-1.363776e+000 -1.717012e+000 -8.862338e+000 240 203 158
4.015747e+000 -8.093445e-001 -8.194793e+000 127 37 43
1.537499e-001 -1.050107e+000 -9.149388e+000 131 122 113
2.054876e+000 -2.366153e+000 -9.920013e+000 253 245 186
3.244591e+000 3.129071e-001 -8.252600e+000 240 231 222
1.676345e+000 1.284018e+000 -9.311971e+000 243 238 232
1.080217e+000 -4.902432e-001 -8.920948e+000 144 131 97
3.313900e+000 -1.665232e-001 -8.110333e+000 246 237 228
3.338571e+000 -1.036329e+000 -8.198178e+000 115 41 45
2.773827e+000 5.518406e-001 -8.216118e+000 196 183 125
2.774994e+000 1.464166e-001 -8.308444e+000 106 93 58
2.638549e+000 1.532544e-003 -8.424828e+000 110 96 71
4.087436e+000 -8.492390e-001 -8.276348e+000 153 95 67
2.389295e+000 -1.363475e-001 -8.746009e+000 198 182 123
3.169783e+000 -6.427573e-001 -8.356527e+000 133 110 96
4.056186e+000 -9.677332e-001 -8.254009e+000 227 168 131
3.804147e+000 -9.335259e-001 -8.559935e+000 82 36 35
3.834885e+000 -1.050964e+000 -8.768798e+000 142 101 81
3.917334e+000 -1.078392e+000 -8.839394e+000 174 148 129
3.890887e+000 -1.094017e+000 -8.790895e+000 174 148 129
2.172378e+000 -3.061327e-001 -9.081298e+000 191 182 147
4.009125e+000 -1.611482e+000 -8.505085e+000 234 191 146
-1.722905e+000 -7.587953e-001 -8.281164e+000 83 65 54
-8.653370e-001 -6.994891e-001 -8.762546e+000 48 37 30
-5.028955e-001 -4.806978e-001 -9.326546e+000 61 52 32
3.348056e+000 -2.033433e+000 -9.315706e+000 227 172 98
3.698275e+000 -2.132340e+000 -9.041175e+000 233 173 127
3.601086e+000 -2.245581e+000 -9.099871e+000 224 168 116
-3.301777e+000 -4.202409e-001 -7.883166e+000 114 91 85
-2.530897e+000 -4.844135e-001 -8.534119e+000 165 104 86
-3.585147e+000 -5.546044e-001 -7.910282e+000 137 113 75
-3.494060e+000 -6.666210e-001 -7.897958e+000 100 56 49
-2.694225e+000 -8.705468e-001 -8.158097e+000 52 28 25
-2.661083e+000 -8.786876e-001 -8.135967e+000 68 48 45
-2.645643e+000 -8.399304e-001 -8.167524e+000 70 48 44
-2.699989e+000 -9.563806e-001 -8.002375e+000 68 38 30
-2.670157e+000 -1.006078e+000 -8.153476e+000 93 64 55
-2.647130e+000 -9.930548e-001 -8.209953e+000 120 104 105
-2.146406e+000 -7.741622e-001 -8.714628e+000 95 37 26
-5.101159e-001 -1.206202e+000 -9.477243e+000 43 33 23
-3.220209e+000 -1.006741e+000 -7.901297e+000 188 91 50
-2.851489e+000 -1.166716e+000 -8.181207e+000 95 60 30
-2.461719e+000 -1.279456e+000 -8.286026e+000 148 95 86
-2.175763e+000 -1.096255e+000 -8.865806e+000 113 56 34
-1.355148e+000 -1.448186e+000 -8.463158e+000 148 48 33
-1.511759e+000 -1.438815e+000 -8.804309e+000 232 180 130
4.826573e-002 -1.365341e+000 -1.013361e+001 72 60 54
2.149638e+000 -2.146562e+000 -1.014388e+001 109 88 48
-3.582955e+000 -1.018824e+000 -8.045599e+000 148 104 100
-2.903908e+000 -1.230739e+000 -8.194391e+000 77 47 38
-2.833076e+000 -1.222053e+000 -8.212817e+000 72 48 44
-2.741547e+000 -1.296532e+000 -8.187234e+000 52 37 33
4.925466e-001 -1.627999e+000 -1.087386e+001 104 63 42
8.491410e-001 -1.768010e+000 -1.073099e+001 147 92 60
3.185146e+000 -2.829595e+000 -9.556948e+000 140 87 56
3.070560e+000 -2.960791e+000 -9.729949e+000 131 77 48
-3.454743e+000 -1.284368e+000 -8.228424e+000 214 112 64
-2.994388e+000 -1.530005e+000 -8.491507e+000 139 73 52
-3.006011e+000 -1.540732e+000 -8.518066e+000 80 18 7
-2.169101e+000 -1.547396e+000 -9.431039e+000 172 68 26
-2.138303e+000 -1.554774e+000 -9.418129e+000 143 61 33
1.163351e+000 -2.195760e+000 -1.104899e+001 149 86 66
-3.528736e+000 -1.433858e+000 -8.409293e+000 70 24 24
1.206489e-001 -2.930445e+000 -8.740446e+000 155 117 97
1.052433e+000 -2.484439e+000 -1.149522e+001 155 40 40
1.091799e+000 -2.441585e+000 -1.185819e+001 155 40 40
1.751252e+000 -2.842747e+000 -1.117399e+001 177 79 49
1.737929e+000 -2.878304e+000 -1.123298e+001 176 88 48
1.867128e+000 -3.173552e+000 -1.090941e+001 224 157 83
2.435042e+000 -3.252123e+000 -1.048459e+001 255 229 196
2.355595e+000 -3.362587e+000 -1.042477e+001 199 134 93
2.490193e+000 -3.301975e+000 -1.076713e+001 198 134 89
8.463583e-001 -2.726405e+000 -1.213182e+001 172 129 130
8.261121e-001 -2.727371e+000 -1.225759e+001 122 95 94
1.373970e+000 -2.917732e+000 -1.166191e+001 192 131 67
2.289019e+000 -3.450940e+000 -1.048589e+001 208 137 89
1.700662e+000 -3.547585e+000 -1.130439e+001 245 216 186
1.776880e+000 -3.502430e+000 -1.115060e+001 241 197 158
1.776880e+000 -3.502430e+000 -1.115060e+001 241 197 158
1.792345e+000 -3.509031e+000 -1.133912e+001 206 139 90
1.524590e+000 -3.553123e+000 -1.159413e+001 234 166 113
3.008041e+000 4.930588e-001 -7.946580e+000 197 182 119
2.221901e+000 2.908074e-001 -8.769133e+000 151 139 101
2.899330e+000 -3.554596e-001 -8.136367e+000 199 191 178
2.971288e+000 -3.364620e-001 -8.204857e+000 190 179 167
3.028561e+000 -3.513863e-001 -8.251198e+000 181 171 158
2.237724e+000 1.766655e-001 -8.876547e+000 173 162 116
4.047099e+000 -8.537145e-001 -8.401800e+000 187 141 118
3.997804e+000 -8.959653e-001 -8.413688e+000 224 171 146
4.073658e+000 -9.828182e-001 -8.307639e+000 230 185 167
4.059716e+000 -1.014972e+000 -8.298262e+000 195 115 67
3.950610e+000 -9.679047e-001 -8.435284e+000 180 107 60
3.996641e+000 -9.696676e-001 -8.473548e+000 182 102 61
4.076925e+000 -1.019962e+000 -8.275888e+000 188 112 73
4.076925e+000 -1.019962e+000 -8.275888e+000 188 112 73
4.056209e+000 -1.175238e+000 -8.319444e+000 243 197 175
3.854249e+000 -9.500923e-001 -8.680162e+000 153 111 94
3.897264e+000 -9.298237e-001 -8.618663e+000 176 141 116
3.928469e+000 -1.051149e+000 -8.471757e+000 211 173 144
3.935849e+000 -1.207025e+000 -8.515190e+000 238 192 155
3.952843e+000 -1.192623e+000 -8.547430e+000 238 192 155
1.531618e+000 -1.334890e-001 -9.201609e+000 111 101 76
4.071322e+000 -1.550183e+000 -8.358539e+000 120 90 76
-4.821517e-001 -3.949685e-001 -9.343358e+000 103 95 76
-4.816754e-001 -5.034644e-001 -9.178251e+000 63 55 32
3.564074e+000 -1.924865e+000 -9.031609e+000 178 89 52
-2.636615e+000 -5.365674e-001 -7.826462e+000 215 207 204
-2.735460e+000 -5.830455e-001 -7.867832e+000 129 81 77
-1.779684e+000 -7.601477e-001 -8.273906e+000 150 127 104
-1.564926e+000 -8.246338e-001 -8.227195e+000 76 24 23
-1.564926e+000 -8.246338e-001 -8.227195e+000 76 24 23
3.351022e+000 -2.026180e+000 -9.217304e+000 195 108 67
4.504544e+000 -1.963269e+000 -9.977047e+000 130 112 93
-3.503730e+000 -3.516050e-001 -7.850149e+000 136 115 86
-3.395623e+000 -5.222348e-001 -7.838065e+000 102 73 45
-3.236418e+000 -6.075337e-001 -7.829849e+000 95 54 53
-2.679232e+000 -6.162578e-001 -7.886603e+000 79 37 37
3.524206e+000 -2.352583e+000 -9.291337e+000 254 247 224
-3.772187e+000 -6.205597e-001 -8.017784e+000 198 170 106
-3.601796e+000 -5.698128e-001 -7.955454e+000 216 194 142
-3.600864e+000 -5.699947e-001 -7.954126e+000 216 194 142
-3.443583e+000 -7.237300e-001 -7.834283e+000 119 76 66
-3.583741e+000 -7.359389e-001 -7.931499e+000 126 80 71
-3.534748e+000 -8.034999e-001 -7.876601e+000 157 107 103
-2.650006e+000 -8.619996e-001 -8.186779e+000 33 22 25
-1.393151e+000 -1.302168e+000 -8.312386e+000 202 82 76
1.496379e+000 -1.704062e+000 -1.009998e+001 140 123 82
-3.721149e+000 -8.134846e-001 -8.042584e+000 179 148 101
-3.223148e+000 -1.123396e+000 -7.809737e+000 197 107 62
-3.142715e+000 -1.019778e+000 -7.864739e+000 189 96 55
-3.142715e+000 -1.019778e+000 -7.864739e+000 189 96 55
-2.863869e+000 -1.190313e+000 -8.207283e+000 105 72 56
-1.394417e+000 -1.420313e+000 -8.577701e+000 169 82 56
-3.518024e+000 -1.161854e+000 -8.242379e+000 239 143 85
-2.848863e+000 -1.328692e+000 -8.250831e+000 86 66 62
7.945981e-001 -1.699015e+000 -1.090666e+001 153 99 63
-3.500135e+000 -1.434659e+000 -8.276290e+000 56 16 9
-3.360838e+000 -1.508329e+000 -8.253465e+000 213 121 72
-2.918972e+000 -1.530894e+000 -8.539756e+000 122 53 33
-2.794888e+000 -1.510991e+000 -8.636977e+000 176 135 107
-2.682032e+000 -1.440708e+000 -8.906659e+000 148 69 39
-1.421107e+000 -1.717764e+000 -9.159364e+000 228 190 145
-1.171034e+000 -1.910710e+000 -9.170669e+000 129 94 85
1.842532e-001 -1.985175e+000 -1.099950e+001 237 224 213
1.892051e+000 -2.800515e+000 -9.749233e+000 103 86 60
-3.510843e+000 -1.500520e+000 -8.367285e+000 138 87 85
-3.510843e+000 -1.500520e+000 -8.367285e+000 138 87 85
2.437444e+000 -3.026722e+000 -1.055210e+001 166 85 53
-2.430819e+000 -1.764440e+000 -9.974088e+000 175 63 24
7.786362e-001 -2.646692e+000 -1.155398e+001 197 79 74
1.924953e+000 -3.143985e+000 -1.090158e+001 224 151 94
2.545527e+000 -3.238390e+000 -1.051082e+001 208 154 109
2.419678e+000 -3.321487e+000 -1.091004e+001 210 137 82
7.571446e-001 -2.680297e+000 -1.230993e+001 80 54 51
1.338889e+000 -3.182999e+000 -1.162185e+001 211 133 73
1.411835e+000 -3.214873e+000 -1.149036e+001 203 128 66
1.630192e+000 -3.195302e+000 -1.145367e+001 217 157 83
1.681570e+000 -3.240506e+000 -1.123749e+001 202 111 69
1.580472e+000 -3.251516e+000 -1.137309e+001 210 138 80
1.864924e+000 -3.385309e+000 -1.098303e+001 225 142 82
1.980987e+000 -3.421156e+000 -1.104678e+001 231 160 108
1.989097e+000 -3.466956e+000 -1.110370e+001 253 235 213
2.168141e+000 -3.338688e+000 -1.079926e+001 202 126 74
1.743149e+000 -3.496219e+000 -1.124321e+001 254 243 225
4.679027e-001 -3.290963e+000 -1.289553e+001 247 207 180
4.651044e-001 -3.298812e+000 -1.276169e+001 247 207 180
2.850658e+000 1.343827e+000 -8.594934e+000 191 176 125
1.926946e+000 1.397003e+000 -9.159709e+000 206 203 194
4.133040e+000 -8.544651e-001 -8.212590e+000 123 66 45
3.844697e+000 -8.748534e-001 -8.412064e+000 151 60 58
4.003915e+000 -9.485974e-001 -8.454532e+000 218 190 173
3.996230e+000 -1.022138e+000 -8.464487e+000 222 191 175
3.996230e+000 -1.022138e+000 -8.464487e+000 222 191 175
4.022139e+000 -1.148104e+000 -8.301949e+000 196 115 64
1.999178e+000 2.649903e-001 -9.359328e+000 194 185 176
2.033214e+000 2.464743e-002 -9.119239e+000 176 163 117
2.224023e+000 -2.418423e-001 -9.042352e+000 254 247 193
4.099257e+000 -1.621571e+000 -8.455852e+000 102 74 62
-7.106988e-001 -4.892849e-002 -9.431904e+000 138 124 115
3.771599e+000 -2.059084e+000 -8.855864e+000 185 109 45
4.475174e+000 -1.951142e+000 -9.877961e+000 162 142 118
-2.649829e+000 -6.167152e-001 -7.880146e+000 139 91 91
-1.663233e+000 -7.621984e-001 -8.277538e+000 69 40 43
-5.876820e-001 -4.893717e-001 -9.262126e+000 59 52 33
3.478712e+000 -2.016881e+000 -9.143540e+000 225 161 95
3.472368e+000 -2.059047e+000 -9.129740e+000 179 78 56
3.700485e+000 -2.220433e+000 -9.100237e+000 188 108 53
-3.233447e+000 -5.890559e-001 -7.803571e+000 58 24 25
-1.735382e+000 -9.009701e-001 -8.169780e+000 51 51 59
-1.568034e+000 -8.674560e-001 -8.219361e+000 137 92 76
-3.722491e+000 -5.663899e-001 -7.948043e+000 130 107 67
-3.691619e+000 -6.608524e-001 -8.011592e+000 239 216 165
-3.618229e+000 -6.963513e-001 -7.929735e+000 116 90 51
-3.487317e+000 -7.447302e-001 -7.834249e+000 78 34 30
-2.698034e+000 -8.544986e-001 -8.125558e+000 92 56 45
-2.737949e+000 -9.481236e-001 -8.176482e+000 100 66 51
2.724209e+000 -2.116131e+000 -1.010390e+001 130 69 33
3.416249e+000 -2.499539e+000 -9.357337e+000 253 250 233
-3.711046e+000 -7.564415e-001 -8.044354e+000 251 227 171
-1.388238e+000 -1.376708e+000 -8.572224e+000 141 43 32
-5.368420e-001 -1.195347e+000 -9.856795e+000 62 49 34
-4.946644e-001 -1.189916e+000 -9.922811e+000 74 62 42
2.774553e-001 -1.575460e+000 -1.040276e+001 99 58 44
1.319420e+000 -1.656621e+000 -1.088983e+001 83 51 30
2.130681e+000 -2.299616e+000 -9.889588e+000 175 154 99
-2.915391e+000 -1.325424e+000 -8.117610e+000 90 50 42
-2.880960e+000 -1.322931e+000 -8.226670e+000 27 17 18
-2.849911e+000 -1.348256e+000 -8.307026e+000 32 20 22
2.493821e-001 -1.600389e+000 -1.041819e+001 140 121 107
-3.257274e+000 -1.457869e+000 -8.280087e+000 158 57 24
-3.241051e+000 -1.491654e+000 -8.368907e+000 179 96 62
-3.116136e+000 -1.542494e+000 -8.445228e+000 119 44 22
-2.376017e+000 -1.517776e+000 -9.163607e+000 120 34 14
-2.363805e+000 -1.472242e+000 -9.454220e+000 124 38 18
-1.230184e+000 -1.803432e+000 -9.286971e+000 112 43 28
-1.197589e+000 -1.857254e+000 -9.202022e+000 171 58 54
1.799605e+000 -2.907368e+000 -9.646383e+000 121 104 78
1.671942e+000 -2.854390e+000 -1.120685e+001 158 53 39
1.671411e+000 -2.944978e+000 -1.125672e+001 221 164 85
1.794311e+000 -2.884306e+000 -1.113896e+001 189 110 51
2.265877e-001 -2.586019e+000 -1.132727e+001 157 127 109
6.774499e-001 -2.776633e+000 -1.226822e+001 148 86 45
9.524954e-001 -2.812953e+000 -1.210204e+001 133 111 113
1.711596e+000 -3.148665e+000 -1.122654e+001 189 108 62
1.705043e+000 -3.282798e+000 -1.120584e+001 188 99 48
1.789750e-001 -2.785104e+000 -1.187997e+001 147 118 99
1.280185e+000 -3.170521e+000 -1.169899e+001 215 148 78
1.940658e+000 -3.577409e+000 -1.105370e+001 208 143 101
2.588145e+000 8.301365e-001 -8.212839e+000 200 185 131
2.716052e+000 9.010061e-002 -8.414332e+000 104 91 60
2.209791e+000 2.121152e-001 -8.911763e+000 142 128 85
3.905582e+000 -9.299484e-001 -8.493310e+000 152 83 42
4.000610e+000 -1.115392e+000 -8.317993e+000 191 111 54
4.004955e+000 -1.113612e+000 -8.320454e+000 191 111 54
4.061524e+000 -1.077774e+000 -8.297286e+000 200 110 47
1.352062e+000 -1.134230e-001 -9.395811e+000 198 199 186
1.618305e+000 -1.537780e-001 -9.164390e+000 144 134 99
1.581108e+000 -9.776943e-002 -9.371531e+000 145 134 100
1.202736e+000 -6.959304e-001 -8.812523e+000 117 108 77
-5.581340e-001 -9.345627e-002 -9.265768e+000 167 160 155
-1.676605e+000 -8.197317e-001 -8.199834e+000 152 123 103
-3.174902e-001 -7.003317e-001 -9.149425e+000 57 48 33
3.335612e+000 -1.962509e+000 -9.430163e+000 203 134 81
3.473201e+000 -2.014110e+000 -9.148399e+000 223 165 94
-1.733819e+000 -8.981552e-001 -8.175559e+000 50 51 58
-3.712688e+000 -5.085600e-001 -7.980921e+000 44 30 24
-2.394193e+000 -7.984011e-001 -8.755297e+000 73 15 14
-6.065796e-001 -1.250446e+000 -8.911402e+000 122 106 90
-2.626697e+000 -1.111202e+000 -8.190550e+000 167 123 84
2.202978e+000 -2.084103e+000 -1.007053e+001 190 58 59
2.441307e+000 -2.788613e+000 -8.599218e+000 84 57 38
3.252089e+000 -2.810217e+000 -9.417877e+000 99 51 34
-3.572497e+000 -1.134964e+000 -8.038980e+000 176 124 119
2.735189e-001 -1.661879e+000 -1.013428e+001 102 59 43
3.242813e+000 -2.848948e+000 -9.587227e+000 99 60 38
-3.073892e+000 -1.516797e+000 -8.309356e+000 120 46 24
-2.879302e+000 -1.490647e+000 -8.367673e+000 137 70 51
2.838085e+000 -2.988971e+000 -1.016517e+001 175 105 56
-3.403526e+000 -1.575857e+000 -8.528572e+000 198 120 58
2.469356e+000 -3.147582e+000 -1.042432e+001 211 140 87
2.540432e+000 -3.165393e+000 -1.051491e+001 206 130 78
2.685857e+000 -3.063584e+000 -1.024569e+001 199 123 65
-9.817808e-001 -1.361562e+000 -1.383013e+001 233 84 96
7.038240e-001 -2.458641e+000 -1.173119e+001 140 52 41
7.729482e-001 -2.731851e+000 -1.226322e+001 164 143 145
1.593112e+000 -3.283295e+000 -1.140167e+001 161 68 48
2.086514e+000 -3.492745e+000 -1.089403e+001 206 135 75
-5.588860e-001 -2.450048e+000 -1.378430e+001 208 130 64
1.363045e+000 -3.230222e+000 -1.159174e+001 212 131 71
1.517138e+000 -3.333361e+000 -1.154124e+001 202 113 50
1.653743e+000 -3.569878e+000 -1.128314e+001 210 123 69
1.785319e+000 -3.518785e+000 -1.096442e+001 212 132 73
1.971459e+000 -3.509499e+000 -1.107486e+001 208 133 66
1.971459e+000 -3.509499e+000 -1.107486e+001 208 133 66
2.007748e+000 -3.554958e+000 -1.106721e+001 215 144 92
1.735403e+000 2.065510e+000 -9.591701e+000 249 243 231
2.270797e+000 2.657694e-001 -8.702102e+000 190 177 127
2.165022e+000 1.614230e-001 -9.215235e+000 210 199 151
2.322414e+000 -3.411704e-001 -8.942858e+000 244 241 231
3.789013e+000 -9.555942e-001 -8.566076e+000 72 31 26
-8.487582e-001 3.323135e+000 -1.335820e+001 222 220 208
-9.573131e-001 3.363950e+000 -1.344930e+001 224 220 209
-9.573131e-001 3.363950e+000 -1.344930e+001 224 220 209
2.042641e+000 -2.969016e-001 -9.158149e+000 148 134 96
2.154405e+000 -2.799034e-001 -9.142663e+000 181 167 113
4.131096e+000 -1.556925e+000 -8.632591e+000 112 63 36
4.223923e+000 -1.565559e+000 -8.601324e+000 125 107 87
-7.454213e-001 3.921797e-001 -9.619093e+000 166 153 147
-7.015724e-001 2.904270e-001 -9.540014e+000 199 196 191
4.375751e+000 -1.801905e+000 -9.295387e+000 122 99 68
-1.327251e+000 -1.780052e-001 -8.734028e+000 97 37 30
3.560933e+000 -1.930291e+000 -9.122993e+000 224 174 99
-2.648963e+000 -5.495713e-001 -7.876176e+000 71 40 43
-2.635597e+000 -5.659197e-001 -7.845375e+000 71 40 43
-1.776124e+000 -4.068085e-001 -8.560402e+000 161 86 55
-9.146197e-001 -8.953183e-001 -8.540385e+000 118 110 99
-9.058310e-002 -8.839880e-001 -9.129762e+000 113 102 94
3.430410e+000 -2.024868e+000 -9.186560e+000 179 83 63
3.494911e+000 -2.003034e+000 -9.077659e+000 180 75 62
3.744545e+000 -2.107887e+000 -9.044960e+000 250 243 224
-2.582723e+000 -7.485443e-001 -8.231679e+000 114 77 64
-1.847913e+000 -9.041900e-001 -8.124875e+000 212 179 126
-7.027199e-001 -1.214363e+000 -8.686079e+000 112 102 92
-1.657108e-001 -1.057336e+000 -9.144527e+000 104 95 88
2.125543e-001 -1.080612e+000 -9.280681e+000 114 105 96
3.262290e+000 -2.088723e+000 -9.341056e+000 202 130 76
3.346536e+000 -2.228637e+000 -9.284163e+000 194 85 69
3.306419e+000 -2.269450e+000 -9.324014e+000 234 176 94
-3.887476e+000 -5.323263e-001 -8.034300e+000 197 170 103
-3.885324e+000 -5.367700e-001 -8.025576e+000 197 170 103
-3.063192e+000 -7.868078e-001 -7.844716e+000 151 63 38
-3.002334e+000 -8.315338e-001 -7.843526e+000 158 80 52
-3.002334e+000 -8.315338e-001 -7.843526e+000 158 80 52
-1.495102e+000 -1.107754e+000 -8.495774e+000 190 116 95
-1.424996e+000 -1.261977e+000 -8.549852e+000 198 85 73
2.665385e+000 -2.103292e+000 -1.014638e+001 122 71 40
-3.745200e+000 -8.583945e-001 -8.049965e+000 84 52 27
-2.560943e+000 -1.132102e+000 -8.170903e+000 167 123 88
-1.338243e+000 -1.474543e+000 -8.586186e+000 180 82 63
-1.359511e+000 -1.426118e+000 -8.725276e+000 180 82 63
2.330346e+000 -2.319761e+000 -9.878707e+000 71 35 21
-2.757941e+000 -1.380271e+000 -8.308028e+000 171 137 99
-1.327278e+000 -1.595667e+000 -8.632392e+000 165 92 64
-1.230681e-001 -1.711983e+000 -1.044251e+001 167 160 150
1.085645e+000 -1.804495e+000 -1.084095e+001 193 151 111
1.085645e+000 -1.804495e+000 -1.084095e+001 193 151 111
-2.960422e+000 -1.517710e+000 -8.335297e+000 94 31 14
-2.994177e+000 -1.545449e+000 -8.551899e+000 82 19 18
-2.607442e+000 -1.500949e+000 -8.903569e+000 141 45 19
-2.398413e+000 -1.591283e+000 -9.093775e+000 160 74 40
-1.928174e-001 -1.732974e+000 -1.050429e+001 186 182 173
-1.303058e-001 -1.780558e+000 -1.046082e+001 153 143 134
-1.754250e+000 -1.899430e+000 -9.621639e+000 155 59 42
2.592521e+000 -3.185596e+000 -1.042202e+001 249 240 230
-2.754945e+000 -1.789556e+000 -9.698416e+000 204 121 64
-2.173213e+000 -1.816221e+000 -9.906500e+000 108 36 21
1.813998e+000 -3.081755e+000 -1.111075e+001 227 184 99
1.840191e+000 -3.137560e+000 -1.105517e+001 198 97 74
7.238419e-001 -2.841857e+000 -1.225089e+001 176 117 47
1.405546e+000 -3.042961e+000 -1.153702e+001 182 83 54
1.641285e+000 -3.283242e+000 -1.126027e+001 227 175 96
1.723663e+000 -3.615215e+000 -1.130570e+001 218 144 100
2.061070e+000 -3.549270e+000 -1.091608e+001 209 138 86
2.556990e+000 1.204266e+000 -9.271301e+000 240 234 222
1.244098e+000 1.709430e+000 -9.813217e+000 251 247 236
2.338885e+000 6.229918e-001 -9.078039e+000 232 223 217
4.091005e+000 -1.131311e+000 -8.115070e+000 195 116 56
2.118654e+000 -3.917362e-001 -9.046471e+000 230 231 215
3.981149e+000 -1.608151e+000 -8.291604e+000 103 70 55
-8.671440e-001 3.431559e-001 -9.531513e+000 143 82 62
-6.469037e-001 -4.354415e-002 -9.366970e+000 118 102 89
2.814693e-001 -2.908737e-001 -9.467808e+000 156 157 143
-1.261484e+000 -1.808836e-001 -8.902277e+000 102 36 28
2.629820e-001 -4.636886e-001 -9.415298e+000 104 96 83
-1.931242e+000 -4.675297e-001 -8.610994e+000 150 76 49
-1.600934e+000 -6.691833e-001 -8.270314e+000 207 71 65
-9.230440e-001 -7.577851e-001 -8.646860e+000 158 153 140
-1.730268e+000 -8.468883e-001 -8.216548e+000 58 50 61
-1.724324e+000 -8.578593e-001 -8.192902e+000 58 50 61
7.887823e-002 -1.165757e+000 -9.226091e+000 114 105 96
2.222112e+000 -1.892252e+000 -1.008923e+001 207 81 79
3.212989e+000 -2.379561e+000 -9.420846e+000 190 87 70
1.441943e-001 -1.520691e+000 -1.012915e+001 66 39 32
1.478994e+000 -1.733923e+000 -1.108742e+001 93 69 44
2.204920e+000 -2.321120e+000 -9.903001e+000 199 182 128
-3.339026e+000 -1.124911e+000 -7.938603e+000 204 96 60
-3.444444e+000 -1.381699e+000 -8.366142e+000 208 117 68
-2.992358e+000 -1.407128e+000 -8.288381e+000 89 27 17
-3.120130e+000 -1.561903e+000 -8.319089e+000 149 72 47
4.826955e-001 -1.843585e+000 -1.101852e+001 154 117 92
-2.044555e+000 -1.862555e+000 -1.010784e+001 178 98 61
9.129617e-001 -2.618021e+000 -1.134936e+001 215 171 132
1.785065e+000 -2.814728e+000 -1.109312e+001 206 138 68
-7.787030e-001 -1.867265e+000 -1.391023e+001 253 254 228
1.264382e+000 -3.149147e+000 -1.169615e+001 218 161 79
2.243239e+000 -3.502053e+000 -1.080844e+001 196 125 81
2.505711e-001 -2.966269e+000 -1.245782e+001 152 108 86
1.497834e+000 -3.285939e+000 -1.138876e+001 221 179 99
1.856282e+000 1.816835e+000 -9.354551e+000 236 232 223
2.665188e+000 1.190812e+000 -8.761656e+000 244 237 231
1.211070e+000 1.281436e+000 -9.569353e+000 245 241 232
3.090005e+000 -2.399001e-001 -8.328671e+000 237 230 218
1.388156e+000 -6.010508e-002 -9.402171e+000 201 202 195
2.069403e+000 -4.862766e-001 -9.087003e+000 188 182 170
-7.774754e-001 1.629791e-002 -9.447084e+000 95 71 62
1.719414e+000 -9.579083e-001 -9.083890e+000 147 139 130
4.499277e+000 -1.815276e+000 -9.701604e+000 129 99 73
-5.654428e-001 -9.160396e-001 -8.778233e+000 117 107 97
3.435537e+000 -1.972236e+000 -9.077316e+000 219 173 96
3.403149e+000 -2.112307e+000 -9.172082e+000 226 171 84
3.403332e+000 -2.111562e+000 -9.176286e+000 226 171 84
-2.196513e+000 -5.633462e-001 -8.609024e+000 149 76 52
1.741606e-001 -1.177518e+000 -9.294733e+000 152 150 146
1.095615e+000 -1.360990e+000 -9.550472e+000 180 176 167
3.267024e+000 -2.283112e+000 -9.387978e+000 184 78 65
-3.934685e+000 -5.704046e-001 -8.068884e+000 224 189 123
-3.847616e+000 -6.790970e-001 -8.042521e+000 35 28 22
-1.889896e+000 -1.306578e+000 -8.739686e+000 177 138 99
2.252359e+000 -2.247820e+000 -9.879817e+000 84 34 32
-2.045747e+000 -1.325364e+000 -9.103454e+000 180 134 101
-1.274477e+000 -1.702679e+000 -8.770001e+000 227 181 139
1.183823e+000 -1.873307e+000 -1.103986e+001 91 25 27
-3.318525e+000 -1.500381e+000 -8.405794e+000 98 26 13
-2.649878e+000 -1.668152e+000 -9.591960e+000 137 38 20
-2.649878e+000 -1.668152e+000 -9.591960e+000 137 38 20
-1.968879e+000 -1.828119e+000 -9.808543e+000 222 128 74
7.817491e-001 -2.552566e+000 -1.158607e+001 237 192 143
1.134109e+000 -2.722661e+000 -1.159627e+001 217 81 85
1.089666e+000 -2.889346e+000 -1.185226e+001 113 95 96
1.744449e+000 -3.216311e+000 -1.117791e+001 224 171 88
1.868420e+000 -3.205017e+000 -1.106491e+001 177 77 64
1.849973e+000 -3.215992e+000 -1.100941e+001 177 77 64
8.641034e-001 -3.031843e+000 -1.212010e+001 186 87 53
1.388721e+000 1.566080e+000 -9.691976e+000 246 242 235
1.247861e+000 1.487379e+000 -9.655281e+000 200 196 187
1.247861e+000 1.487379e+000 -9.655281e+000 200 196 187
2.528218e+000 -2.062500e-002 -8.543084e+000 254 254 206
3.687813e+000 -9.172823e-001 -7.893790e+000 228 106 103
2.280862e+000 5.040328e-001 -9.437398e+000 210 205 189
3.161164e+000 -6.276770e-001 -8.368993e+000 141 118 104
3.991759e+000 -9.254322e-001 -8.422983e+000 211 155 129
3.920960e+000 -1.139352e+000 -8.470465e+000 180 106 52
-1.166258e+000 -1.945743e-001 -8.933541e+000 148 79 53
3.730452e+000 -1.854516e+000 -9.061826e+000 227 144 78
-1.426621e+000 -7.009561e-001 -8.328437e+000 155 138 126
-1.095583e+000 -6.745176e-001 -8.682469e+000 153 147 135
-2.440064e-001 -1.219668e+000 -9.637130e+000 131 115 116
-3.749422e-002 -1.744982e+000 -1.045190e+001 142 127 118
3.573794e-001 -1.665396e+000 -1.032449e+001 106 70 50
9.086430e-001 -1.795978e+000 -1.107243e+001 104 38 24
-4.490704e-001 -2.482455e+000 -1.305497e+001 216 129 58
2.860410e-001 -3.065739e+000 -1.278168e+001 191 118 64
4.483692e-001 -3.323139e+000 -1.284062e+001 224 154 111
3.413018e+000 5.029646e-001 -8.039619e+000 229 221 210
1.744762e+000 1.823449e+000 -9.433970e+000 168 161 151
1.989327e+000 2.759641e-001 -9.239385e+000 231 227 216
3.787902e+000 -9.501120e-001 -8.123547e+000 77 32 30
-9.949286e-001 2.543201e-001 -9.402641e+000 242 239 232
-1.040320e+000 4.694028e-001 -9.813944e+000 242 239 232
7.231946e-001 -6.549369e-001 -9.125068e+000 214 212 203
-2.966477e-001 -4.820020e-001 -9.153034e+000 126 119 111
2.885584e-001 -1.560815e+000 -1.014643e+001 178 178 168
2.574770e+000 -2.535296e+000 -9.237881e+000 122 91 52
-1.736459e+000 -1.498925e+000 -9.100260e+000 181 130 91
6.548002e-001 -1.651710e+000 -1.084167e+001 91 27 30
1.033820e+000 -1.802698e+000 -1.080567e+001 202 157 115
1.009316e+000 -1.833683e+000 -1.065455e+001 202 157 115
-2.107250e+000 -1.463387e+000 -9.668342e+000 69 15 13
-3.247650e+000 -1.560594e+000 -8.409383e+000 85 15 25
-2.036220e+000 -1.626815e+000 -9.828223e+000 109 31 26
9.046226e-001 -3.330840e+000 -1.209701e+001 189 109 49
2.902405e+000 7.549987e-001 -8.219184e+000 179 163 111
1.487280e+000 2.187129e+000 -9.870199e+000 247 243 232
2.354366e+000 -5.914742e-002 -9.090281e+000 253 249 195
4.036008e-001 7.742314e-001 -9.808781e+000 179 169 157
2.191323e+000 -4.003329e-001 -9.130862e+000 237 232 222
4.194893e+000 -1.469600e+000 -8.474667e+000 97 58 41
-1.912806e+000 -2.933467e-001 -8.654076e+000 148 66 42
4.699943e-001 -1.008764e+000 -9.171601e+000 191 190 186
1.333859e-001 -1.274765e+000 -9.502766e+000 117 108 103
-5.901158e-003 -1.429555e+000 -1.011914e+001 62 42 35
1.057164e+000 -1.614154e+000 -1.026866e+001 67 43 30
1.924452e+000 -2.251409e+000 -1.016386e+001 96 79 52
-2.310311e+000 -1.683429e+000 -9.276860e+000 90 20 13
1.249254e+000 -2.938749e+000 -1.183339e+001 217 205 208
2.489993e+000 9.480114e-001 -8.811605e+000 240 234 222
3.468622e+000 -3.442017e-001 -8.435343e+000 241 233 222
2.210674e+000 8.219096e-002 -8.863727e+000 156 144 103
4.089743e+000 -1.774495e+000 -8.724522e+000 106 56 34
2.819203e+000 -1.980499e+000 -9.482704e+000 104 54 36
-3.448590e+000 -7.830119e-001 -7.922799e+000 63 24 24
-2.450586e+000 -9.633976e-001 -8.289276e+000 149 113 81
-2.461371e+000 -9.736965e-001 -8.258777e+000 149 113 81
-1.580466e+000 -1.453855e+000 -8.724094e+000 229 186 136
-6.819137e-001 -1.287261e+000 -9.554738e+000 116 100 87
8.540807e-001 -1.685083e+000 -1.055042e+001 192 155 113
-1.388279e+000 -1.691341e+000 -8.927787e+000 233 195 150
5.099495e-001 -4.072214e-001 -9.160989e+000 122 115 99
3.765691e+000 -1.592991e+000 -9.181219e+000 78 34 31
-1.862497e+000 -1.001920e+000 -8.388155e+000 227 193 147
-1.869501e+000 -9.935794e-001 -8.408075e+000 227 193 147
-1.057125e+000 -1.230004e+000 -8.464991e+000 118 104 95
1.583802e+000 -1.919420e+000 -1.060715e+001 171 149 100
-3.494785e+000 -1.130064e+000 -8.323503e+000 245 150 97
8.672343e-001 5.951196e-001 -9.663461e+000 151 147 138
-3.879057e+000 -5.691114e-001 -8.210655e+000 220 193 138
-2.568973e+000 -1.290303e+000 -8.086840e+000 211 177 132
1.198210e+000 -1.806909e+000 -9.972903e+000 103 64 38
1.937155e+000 -2.042373e+000 -9.765870e+000 76 46 33
5.347099e-001 -1.674176e+000 -1.081896e+001 120 68 43
3.793036e+000 -5.338771e-001 -7.884922e+000 100 33 37
3.242090e+000 -1.690780e+000 -8.802447e+000 230 223 215
-2.669107e+000 8.399634e-002 -9.182211e+000 230 226 226
4.976739e-001 -2.553793e+000 -1.213180e+001 105 31 32
4.044586e+000 -1.140419e+000 -8.601169e+000 199 115 49
-2.663090e+000 -8.292395e-001 -7.888868e+000 76 28 24
-2.260290e+000 -1.321822e+000 -8.790217e+000 72 18 15
-3.541661e-001 -1.486646e+000 -9.614403e+000 62 47 40
1.279946e+000 -1.908872e+000 -1.098990e+001 77 23 23
7.465575e-001 -1.400330e-004 -9.186300e+000 131 128 119
-2.046141e-001 -2.140961e+000 -1.237089e+001 244 237 230
