ply
format ascii 1.0
element face 0
property list uchar int vertex_indices
element vertex 505
property float x
property float y
property float z
property uchar diffuse_red
property uchar diffuse_green
property uchar diffuse_blue
end_header
8.427223e-001 -3.209199e+000 -1.240784e+001 186 85 58
8.066430e-001 -3.128813e+000 -1.247225e+001 218 166 96
1.550890e+000 -3.410791e+000 -1.163300e+001 230 183 106
2.128526e+000 -1.554785e+000 -9.370466e+000 173 165 154
-3.046079e+000 -1.537625e+000 -8.385844e+000 191 165 157
-1.662928e+000 -1.141269e+000 -8.267412e+000 48 37 47
8.995205e-001 -2.147908e+000 -1.105141e+001 212 168 123
1.810644e+000 -1.318657e+000 -9.193810e+000 210 203 195
-1.474958e+000 -1.643783e+000 -8.745259e+000 199 83 60
-1.693515e+000 -1.058904e+000 -8.220363e+000 183 160 125
9.968851e-001 -3.301757e+000 -1.222781e+001 216 160 86
1.730760e+000 -3.430104e+000 -1.139767e+001 194 113 71
2.102636e+000 -4.974222e-001 -9.136425e+000 211 207 196
1.710621e+000 -3.133256e+000 -1.146561e+001 181 88 68
1.921046e+000 1.038027e+000 -9.234925e+000 211 205 194
1.076719e+000 -2.558433e+000 -1.149591e+001 156 43 47
3.526879e+000 -2.317452e+000 -9.280864e+000 202 103 91
8.415810e-001 -3.028463e+000 -1.244679e+001 160 72 60
-3.010090e+000 -1.427143e+000 -8.303129e+000 45 34 40
2.244036e+000 -1.897159e+000 -9.611804e+000 235 228 218
2.483949e+000 1.154417e+000 -9.105733e+000 196 189 174
3.998574e+000 -1.383040e+000 -8.677868e+000 193 142 121
3.575489e+000 -2.320178e+000 -9.254850e+000 200 106 77
3.388299e+000 -2.386147e+000 -9.376665e+000 224 165 97
3.976317e+000 -1.319658e+000 -8.735870e+000 143 75 40
1.803287e+000 -3.381333e+000 -1.135080e+001 199 131 70
3.451846e+000 -7.403970e-001 -8.422526e+000 162 132 118
-3.734360e+000 -1.011304e+000 -7.935789e+000 140 83 72
7.211012e-001 -2.251295e+000 -1.109515e+001 244 208 160
-1.660981e+000 -1.102341e+000 -8.242437e+000 116 94 93
3.998574e+000 -1.383040e+000 -8.677868e+000 193 142 121
9.539321e-001 -3.191535e+000 -1.224241e+001 186 109 67
-6.949044e-001 -1.370594e+000 -8.770872e+000 183 173 161
1.758750e+000 -3.364733e+000 -1.137145e+001 186 104 64
1.306445e+000 1.103437e+000 -9.677744e+000 238 234 224
-1.590316e+000 -1.092659e+000 -8.274036e+000 149 37 41
-1.747474e+000 -9.792611e-001 -8.243768e+000 171 144 114
5.959843e-001 3.269159e+000 -1.185488e+001 199 191 177
2.545709e+000 -2.291769e+000 -9.636065e+000 98 43 37
-1.775810e+000 -9.200217e-001 -8.262763e+000 158 128 104
-6.776231e-001 1.171990e-001 -9.388209e+000 165 156 151
1.537485e+000 -1.120116e+000 -9.095213e+000 161 151 141
4.050304e+000 -1.109479e+000 -8.574014e+000 137 82 52
4.103966e+000 -1.290180e+000 -8.547394e+000 223 185 170
4.026147e+000 -1.221656e+000 -8.653918e+000 147 82 54
5.411407e-001 -3.164277e+000 -1.275103e+001 126 88 77
-2.765076e+000 -1.042425e+000 -8.251745e+000 40 30 35
-2.442993e+000 -1.278468e+000 -8.888880e+000 178 124 90
-3.022508e+000 -1.108523e+000 -8.011984e+000 98 34 24
-2.727426e+000 -9.521855e-001 -8.247564e+000 149 131 127
-3.767575e+000 -5.827724e-001 -7.958919e+000 72 43 27
-1.693515e+000 -1.058904e+000 -8.220363e+000 183 160 125
1.631351e-002 -1.209104e+000 -9.114050e+000 186 182 170
-3.367206e+000 -1.057054e+000 -7.911401e+000 209 108 66
3.290087e-001 -1.794096e-001 -9.493512e+000 154 146 135
-1.693253e+000 -9.635548e-001 -8.266702e+000 45 33 37
2.176611e+000 1.873968e-001 -9.271897e+000 212 209 195
-2.979721e+000 -1.610469e+000 -8.475452e+000 149 57 29
9.132190e-001 -3.216809e+000 -1.228837e+001 194 103 74
3.771598e+000 4.434890e-001 -7.911451e+000 198 185 169
4.000175e+000 1.884863e-001 -7.911265e+000 207 195 182
2.320303e+000 1.607634e+000 -9.110025e+000 246 241 235
1.264039e+000 -3.163784e+000 -1.164222e+001 229 209 219
1.570506e+000 -3.214350e+000 -1.130384e+001 184 81 67
-3.884095e+000 -4.080631e-001 -7.905572e+000 251 227 161
-3.884095e+000 -4.080631e-001 -7.905572e+000 251 227 161
3.333485e+000 -4.305937e-001 -8.445973e+000 167 149 134
-3.682681e+000 -9.016821e-001 -7.937849e+000 73 25 23
-3.309902e+000 -1.317331e+000 -7.999691e+000 105 37 28
2.162710e+000 -2.533165e+000 -9.817413e+000 226 208 149
2.208239e+000 1.216341e+000 -8.974243e+000 173 165 152
7.211012e-001 -2.251295e+000 -1.109515e+001 244 208 160
1.160928e+000 -7.600228e-001 -8.856973e+000 74 62 45
2.619847e+000 1.025543e+000 -9.121370e+000 208 201 187
-2.914897e+000 -1.084654e+000 -8.224175e+000 138 101 74
5.959843e-001 3.269159e+000 -1.185488e+001 199 191 177
-3.666144e-001 -8.726259e-002 -9.293753e+000 197 195 187
3.744851e+000 7.060782e-001 -8.098328e+000 150 136 123
3.982826e+000 -1.362382e+000 -8.713637e+000 178 143 135
-3.734360e+000 -1.011304e+000 -7.935789e+000 140 83 72
-1.671737e+000 -8.833858e-001 -8.251505e+000 209 90 81
-3.119488e+000 -1.000897e+000 -7.890690e+000 152 66 43
2.588639e+000 1.001092e+000 -9.103795e+000 208 199 182
-1.804289e+000 3.089590e+000 -1.423806e+001 225 220 210
3.360641e+000 -2.422634e+000 -9.187687e+000 189 87 84
2.442680e-001 -8.393932e-001 -9.010143e+000 197 193 184
3.977759e+000 -1.251812e+000 -8.670527e+000 133 82 67
3.512120e+000 -2.366358e+000 -9.270624e+000 214 129 98
4.150903e+000 9.864000e-001 -7.729804e+000 214 196 182
2.056445e+000 9.954387e-002 -9.290805e+000 190 182 170
-1.830532e+000 -8.773631e-001 -8.303112e+000 39 34 48
-3.844368e+000 -8.146529e-001 -8.014286e+000 207 178 118
-1.886134e+000 -9.699182e-001 -8.274747e+000 134 127 118
4.302685e+000 1.056070e+000 -7.512858e+000 199 73 76
-7.945823e-001 3.596968e-001 -9.662252e+000 168 158 149
-3.100821e+000 -1.481743e+000 -8.355911e+000 33 18 23
3.489350e+000 -2.450655e+000 -9.319298e+000 229 166 100
3.532021e+000 -2.408186e+000 -9.275330e+000 196 86 80
-1.453056e+000 -1.752934e+000 -8.795481e+000 232 174 129
2.872210e+000 -2.686437e+000 -1.011850e+001 121 56 40
-6.720145e-001 2.282526e+000 -1.286673e+001 196 188 178
-1.811822e+000 -9.758615e-001 -8.224591e+000 52 49 52
-1.671737e+000 -8.833858e-001 -8.251505e+000 209 90 81
-3.268470e+000 -9.007948e-001 -7.877027e+000 181 84 51
-9.629248e-001 -1.390692e+000 -8.626305e+000 177 167 157
1.052927e+000 -3.351462e+000 -1.220162e+001 172 79 75
2.470291e+000 1.888700e+000 -8.902515e+000 219 211 202
2.470291e+000 1.888700e+000 -8.902515e+000 219 211 202
1.436790e+000 -1.404901e-001 -9.486837e+000 191 187 178
2.362563e+000 -5.558870e-001 -8.871553e+000 223 216 203
-3.639350e+000 -5.332415e-001 -7.934993e+000 201 167 116
-1.860615e+000 -9.386959e-001 -8.248915e+000 54 49 57
2.825148e+000 -2.641809e+000 -1.021998e+001 149 108 64
2.545670e-001 -3.125014e+000 -1.245479e+001 201 129 82
7.456458e-001 3.347088e+000 -1.173070e+001 247 241 229
-2.345129e+000 -6.783532e-001 -8.633049e+000 176 88 52
2.173867e+000 -2.420795e+000 -1.004439e+001 254 250 189
2.909822e+000 -2.852878e+000 -1.007718e+001 153 115 60
4.136789e+000 8.857454e-001 -7.664352e+000 209 191 177
7.371869e-001 -7.480179e-001 -9.089520e+000 222 222 214
-2.665402e+000 -8.169276e-001 -8.412822e+000 94 32 21
-2.698367e+000 -9.256670e-001 -8.308264e+000 147 104 70
-2.698367e+000 -9.256670e-001 -8.308264e+000 147 104 70
-1.954887e+000 3.415910e+000 -1.452381e+001 203 76 77
-1.954887e+000 3.415910e+000 -1.452381e+001 203 76 77
3.368589e+000 2.884979e-001 -8.157939e+000 240 234 221
3.853102e+000 7.156675e-001 -7.915941e+000 236 224 213
3.204126e+000 2.717001e-001 -8.469388e+000 125 110 91
5.051633e-001 -2.664738e+000 -1.200308e+001 128 78 65
3.811149e+000 1.034849e+000 -7.880012e+000 99 83 67
1.156508e+000 1.123491e+000 -9.708788e+000 233 229 218
-4.004151e+000 -6.379306e-001 -8.040442e+000 138 105 56
2.690453e+000 1.531128e+000 -8.789967e+000 222 216 204
-8.513717e-001 2.796896e-001 -9.763034e+000 137 98 89
-2.958489e+000 -1.449966e+000 -8.329987e+000 86 56 51
1.459922e+000 3.067208e+000 -1.076216e+001 213 205 192
2.415122e+000 3.925465e-002 -8.925856e+000 171 152 102
-3.942233e+000 -6.582512e-001 -7.973161e+000 223 194 129
-3.704874e+000 -8.608448e-001 -7.880333e+000 131 82 77
-2.861390e+000 -1.089361e+000 -8.226543e+000 107 82 74
4.293812e+000 1.520674e+000 -7.682964e+000 174 133 117
-5.232816e-001 -4.362543e-001 -9.364271e+000 71 60 42
-3.972563e+000 -7.684215e-001 -8.090317e+000 241 215 148
2.436929e+000 -2.627169e+000 -9.825380e+000 134 112 77
2.874382e+000 -2.812461e+000 -1.009369e+001 127 87 36
9.150742e-001 -8.726772e-002 -9.725014e+000 173 170 161
-8.170104e-001 -9.751595e-002 -9.560265e+000 146 130 123
-3.427616e+000 -1.149621e+000 -7.932377e+000 211 108 66
2.752334e+000 -2.579160e+000 -1.029422e+001 101 43 31
1.776125e+000 -3.129988e+000 -1.134131e+001 227 168 98
-8.900860e-001 2.247027e+000 -1.296494e+001 231 227 219
1.644065e-001 1.279748e+000 -1.070067e+001 234 230 221
-1.307267e-001 -5.989495e-001 -9.393981e+000 143 136 125
-1.495482e+000 -9.288602e-001 -8.167672e+000 149 138 121
-4.009852e+000 -9.774819e-001 -8.080948e+000 74 20 22
-3.404838e+000 -1.104439e+000 -7.907265e+000 233 137 90
-7.562192e-001 -1.353430e+000 -8.995297e+000 148 138 128
3.700852e+000 -2.105521e+000 -8.968094e+000 220 170 108
-2.102575e-001 -1.876904e+000 -1.058821e+001 211 206 195
3.852408e+000 5.656068e-001 -8.017760e+000 230 218 204
1.839784e+000 -8.528898e-001 -9.093052e+000 163 155 144
-1.811822e+000 -9.758615e-001 -8.224591e+000 52 49 52
3.460382e+000 -2.293217e+000 -9.304431e+000 225 186 107
3.578632e+000 -2.256970e+000 -9.113309e+000 222 173 97
3.578632e+000 -2.256970e+000 -9.113309e+000 222 173 97
4.222238e+000 1.581663e+000 -7.688814e+000 152 110 100
-8.374314e-001 -3.295491e-002 -9.571941e+000 110 90 79
-1.959937e+000 -4.317112e-001 -8.642772e+000 165 70 39
-2.352335e+000 -5.684590e-001 -8.690685e+000 138 58 34
-1.599852e+000 -1.360562e+000 -8.567017e+000 220 161 116
-8.408726e-001 -1.402026e+000 -8.630981e+000 141 131 119
1.921046e+000 1.038027e+000 -9.234925e+000 211 205 194
2.080087e+000 9.271582e-001 -9.298393e+000 203 195 182
-1.295735e+000 1.948459e+000 -1.325485e+001 194 186 175
-1.295735e+000 1.948459e+000 -1.325485e+001 194 186 175
1.082697e-001 8.203095e-001 -1.039084e+001 162 158 147
8.670999e-002 -5.253202e-001 -9.497612e+000 153 143 137
-2.740901e-001 -6.163923e-001 -9.411582e+000 144 140 128
-3.531686e+000 -4.940608e-001 -8.323392e+000 181 98 57
1.113352e-001 -1.170590e+000 -9.319164e+000 157 147 137
-2.693874e+000 -1.309976e+000 -8.277178e+000 180 126 83
-2.480822e+000 -1.154990e+000 -8.702031e+000 121 55 31
1.336108e+000 -3.463675e+000 -1.185319e+001 189 89 66
1.610576e+000 -3.461667e+000 -1.153817e+001 231 188 111
2.807891e+000 2.339319e+000 -8.807816e+000 235 227 216
4.158204e+000 1.282449e+000 -7.722109e+000 156 124 113
2.271728e+000 -4.794188e-001 -9.047746e+000 236 232 221
-3.109257e+000 -8.938219e-001 -7.867266e+000 146 64 42
3.823230e+000 1.441668e+000 -7.711356e+000 249 228 167
2.606892e+000 -2.822619e-001 -8.722481e+000 97 82 63
2.943939e+000 2.078440e+000 -8.521474e+000 162 148 136
2.722909e+000 1.930824e+000 -8.716046e+000 242 234 227
3.189271e+000 1.844076e+000 -8.272947e+000 227 219 208
2.388938e+000 -1.018864e-001 -9.342171e+000 253 247 196
2.153910e+000 -2.173820e+000 -9.868061e+000 65 28 32
-2.412702e+000 -9.117815e-001 -8.579260e+000 121 50 29
-2.959964e+000 -9.070988e-001 -8.260995e+000 94 42 29
-2.797125e+000 -1.389465e+000 -8.328340e+000 238 202 157
3.714667e+000 -1.131597e+000 -8.669048e+000 128 47 48
2.765325e+000 9.435638e-001 -8.334460e+000 229 211 148
1.660347e+000 -1.682192e-001 -9.305512e+000 202 188 147
1.690939e+000 -3.279719e+000 -1.144985e+001 207 144 80
1.405845e+000 -3.404154e+000 -1.180308e+001 212 138 84
-3.784011e+000 -3.763672e-001 -7.938141e+000 130 93 60
-7.434523e-001 -3.432072e-001 -9.498931e+000 138 123 92
-1.886134e+000 -9.699182e-001 -8.274747e+000 134 127 118
-3.994166e+000 -9.337025e-001 -8.091550e+000 208 177 128
-3.049850e+000 -1.338649e+000 -8.249910e+000 146 110 83
-3.827474e+000 -7.210081e-001 -7.978723e+000 127 95 56
-2.953875e+000 -1.142037e+000 -8.177375e+000 161 112 78
-2.917791e+000 -1.099367e+000 -8.142096e+000 98 56 35
-2.785299e+000 -1.103047e+000 -8.257774e+000 51 34 33
2.874382e+000 -2.812461e+000 -1.009369e+001 127 87 36
2.366229e+000 3.101022e-001 -9.092167e+000 224 219 204
2.110480e+000 1.039848e-001 -9.229922e+000 134 123 102
-2.051186e+000 -5.986154e-001 -8.635535e+000 175 91 56
-3.604199e+000 -8.026912e-001 -7.850927e+000 117 62 61
-8.053752e-001 -9.253752e-001 -8.646996e+000 164 154 144
3.846167e+000 -1.695657e+000 -8.955142e+000 114 68 45
3.661297e+000 -2.231746e+000 -9.112658e+000 173 81 69
7.896654e-001 -2.913910e+000 -1.244254e+001 185 147 150
2.858620e+000 -2.934671e+000 -1.004815e+001 112 50 36
1.848229e+000 -9.331392e-001 -9.101199e+000 188 179 172
-3.540850e+000 -7.606132e-001 -7.863623e+000 105 53 51
2.511971e+000 -2.614742e+000 -1.018922e+001 84 47 21
1.119552e+000 -3.499992e+000 -1.217472e+001 213 161 127
2.433120e-001 1.193292e+000 -1.055046e+001 230 227 218
2.176611e+000 1.873968e-001 -9.271897e+000 212 209 195
-1.835029e+000 -3.542684e-001 -8.616533e+000 180 76 39
-8.286152e-001 -9.892538e-001 -8.641187e+000 136 124 111
-3.069185e+000 -1.014058e+000 -7.918651e+000 193 113 70
1.428806e-001 -1.245794e+000 -9.311965e+000 174 168 162
-8.652540e-001 -2.924174e-001 -9.464895e+000 49 34 30
-2.188413e+000 -4.792870e-001 -8.733278e+000 133 45 26
-1.694698e-001 -4.031812e-001 -9.281152e+000 134 127 119
-1.694698e-001 -4.031812e-001 -9.281152e+000 134 127 119
2.737277e+000 2.714609e+000 -9.367400e+000 221 213 202
-3.666144e-001 -8.726259e-002 -9.293753e+000 197 195 187
2.471543e+000 -4.633700e-001 -8.864569e+000 240 236 227
-2.324677e+000 -4.559145e-001 -8.736268e+000 153 78 50
2.274596e+000 -2.383138e+000 -9.951070e+000 91 37 32
-1.159175e+000 1.702071e+000 -1.299223e+001 248 243 236
-8.095754e-001 -1.869291e-001 -9.509893e+000 142 127 120
-1.949433e+000 -7.068861e-001 -8.780298e+000 51 12 17
3.362039e+000 -2.151549e+000 -9.138842e+000 198 138 86
2.129327e+000 3.740345e-001 -9.495842e+000 230 228 216
3.405283e+000 9.047682e-001 -7.895595e+000 186 170 119
3.386981e+000 5.658435e-001 -8.035228e+000 120 104 88
3.386981e+000 5.658435e-001 -8.035228e+000 120 104 88
2.435254e+000 2.088771e-001 -9.014207e+000 140 126 86
1.246512e+000 -6.800589e-001 -9.200132e+000 81 70 50
-3.682681e+000 -9.016821e-001 -7.937849e+000 73 25 23
2.943939e+000 2.078440e+000 -8.521474e+000 162 148 136
4.008237e+000 1.365297e+000 -7.696344e+000 120 86 74
-3.479679e+000 -1.106136e+000 -7.893687e+000 235 131 85
-5.567160e-002 4.398545e-001 -9.920318e+000 159 151 140
8.675057e-001 -3.276204e+000 -1.207429e+001 209 164 142
4.258868e-002 1.359671e+000 -1.083572e+001 214 210 202
-3.478915e+000 -5.521306e-001 -7.797164e+000 105 58 47
-4.223726e-001 2.953353e+000 -1.303901e+001 219 213 199
1.703255e+000 -1.480724e-001 -9.288774e+000 190 177 133
-6.155054e-001 -4.246919e-001 -9.384557e+000 92 78 49
4.137086e+000 -1.294503e+000 -8.467868e+000 191 131 101
1.803287e+000 -3.381333e+000 -1.135080e+001 199 131 70
4.297001e+000 1.160665e+000 -7.584182e+000 199 152 144
-1.531497e+000 -2.444004e-001 -8.516381e+000 166 84 54
-2.539765e+000 -7.469846e-001 -8.536567e+000 142 77 57
-2.524336e+000 -7.267134e-001 -8.584556e+000 101 28 13
-3.054435e+000 -1.576912e+000 -8.415981e+000 122 44 21
2.200240e+000 -2.379152e+000 -9.923274e+000 128 107 63
9.440307e-001 -3.116382e+000 -1.229385e+001 210 148 87
1.115556e+000 -3.147716e+000 -1.212537e+001 218 177 163
1.522899e+000 -3.496021e+000 -1.166130e+001 187 104 63
3.847884e+000 1.781727e+000 -7.527856e+000 204 186 148
1.356863e+000 -3.129574e-001 -9.396975e+000 181 166 126
-4.140733e-001 -1.004608e+000 -8.986705e+000 164 157 148
4.130941e+000 -1.349251e+000 -8.539471e+000 195 124 88
2.479139e+000 -2.597004e+000 -9.715021e+000 83 52 25
1.728085e+000 -3.502581e+000 -1.138773e+001 233 178 110
2.867172e+000 -3.073329e+000 -1.006777e+001 103 46 36
3.585182e+000 2.272452e+000 -8.116872e+000 227 214 199
-1.566345e+000 3.169525e+000 -1.423118e+001 216 206 196
4.488157e-001 1.747598e+000 -1.102581e+001 237 233 225
-1.166608e+000 1.988218e+000 -1.322471e+001 234 230 220
-1.023680e+000 1.888649e+000 -1.304220e+001 211 208 199
-8.990167e-001 1.899544e+000 -1.292332e+001 217 214 207
2.751507e+000 1.058297e+000 -8.454489e+000 230 227 213
2.558938e+000 5.022624e-001 -8.665927e+000 214 198 139
6.472671e-001 -5.000728e-001 -9.514577e+000 144 141 130
-1.752110e+000 -8.422452e-001 -8.353907e+000 40 29 35
-3.522281e+000 -1.175429e+000 -7.934468e+000 255 169 119
2.872210e+000 -2.686437e+000 -1.011850e+001 121 56 40
1.338512e+000 -3.089653e+000 -1.152793e+001 214 74 74
2.792866e+000 -2.812498e+000 -1.018783e+001 120 47 43
1.145649e+000 6.620309e-001 -9.861574e+000 163 157 145
-2.012100e+000 1.239359e+000 -1.476159e+001 220 211 202
1.919169e+000 -8.233709e-001 -9.044039e+000 197 188 179
-1.698773e-001 -1.949049e+000 -1.066970e+001 197 190 182
1.628874e+000 -3.095315e+000 -1.134228e+001 226 173 102
1.628874e+000 -3.095315e+000 -1.134228e+001 226 173 102
1.263807e+000 -3.435998e+000 -1.187865e+001 191 87 74
-1.186517e+000 2.041820e+000 -1.307082e+001 235 231 220
-1.718304e+000 -3.154294e-001 -8.573221e+000 148 61 37
5.979212e-001 -2.339156e+000 -1.168879e+001 243 208 162
2.268444e+000 3.475206e-001 -9.339011e+000 169 158 140
1.502157e+000 1.340449e-002 -9.640748e+000 206 201 195
1.502157e+000 1.340449e-002 -9.640748e+000 206 201 195
1.563898e+000 -1.174031e-001 -9.353553e+000 138 131 111
-2.493953e+000 -1.387158e+000 -8.936086e+000 115 34 20
1.046731e+000 -3.187161e+000 -1.245801e+001 219 194 141
2.015937e+000 1.981218e+000 -9.410522e+000 195 188 180
-8.904071e-001 2.731030e+000 -1.309369e+001 178 170 159
1.387385e+000 1.664135e+000 -9.780462e+000 239 236 231
2.680446e+000 8.532926e-001 -8.801297e+000 233 227 215
3.895628e-001 9.384143e-001 -9.991175e+000 189 182 172
-1.200875e+000 3.373353e-001 -1.013332e+001 106 53 46
-8.901106e-001 2.984376e-001 -9.703493e+000 138 79 58
-8.901106e-001 2.984376e-001 -9.703493e+000 138 79 58
-5.204608e-001 -2.137424e-002 -9.202009e+000 159 152 146
-2.324677e+000 -4.559145e-001 -8.736268e+000 153 78 50
-5.342148e-001 -4.875088e-001 -9.267688e+000 73 63 41
-1.949433e+000 -7.068861e-001 -8.780298e+000 51 12 17
-4.454467e-001 -8.970936e-001 -9.127380e+000 157 145 137
-1.071019e+000 -9.783828e-001 -8.376070e+000 170 160 148
-1.071019e+000 -9.783828e-001 -8.376070e+000 170 160 148
2.909822e+000 -2.852878e+000 -1.007718e+001 153 115 60
2.354825e+000 2.345355e+000 -9.425645e+000 185 178 164
2.397830e+000 2.103267e+000 -8.860269e+000 241 234 226
1.327813e+000 2.330784e+000 -1.109562e+001 243 239 227
4.309680e+000 1.324175e+000 -7.716588e+000 221 199 186
1.520050e-002 1.250403e+000 -1.081240e+001 191 183 171
-3.297467e-001 1.915402e-001 -9.251918e+000 156 149 143
3.000430e+000 -4.864773e-001 -8.142304e+000 218 211 201
-1.609272e+000 -7.226352e-001 -8.582508e+000 161 138 122
-4.148383e+000 -9.217151e-001 -8.124354e+000 223 191 120
-2.290142e+000 -1.160682e+000 -8.772472e+000 126 51 30
7.856676e-001 3.554251e-001 -9.654007e+000 132 125 115
-6.355004e-001 2.677414e-001 -9.555977e+000 215 210 205
1.466940e+000 -2.592194e-001 -9.560341e+000 181 172 132
1.230551e+000 1.886152e+000 -1.032110e+001 188 180 169
2.996190e+000 9.174400e-001 -8.500217e+000 254 251 202
-2.187158e+000 2.114789e+000 -1.453793e+001 226 91 94
-1.757260e+000 -1.761456e+000 -9.058696e+000 233 189 142
3.201446e+000 -2.468752e+000 -9.446663e+000 229 197 140
1.395067e+000 3.020065e+000 -1.045996e+001 220 212 201
1.395067e+000 3.020065e+000 -1.045996e+001 220 212 201
1.627392e+000 1.670828e+000 -9.986183e+000 241 237 228
-5.118378e-001 -1.600106e-001 -9.683406e+000 161 154 149
1.889628e+000 2.739815e+000 -1.011537e+001 243 237 225
-1.178637e+000 -8.835241e-001 -8.662164e+000 162 148 135
-1.486924e-002 -2.439650e+000 -1.124492e+001 245 238 230
1.873645e+000 8.882359e-001 -1.039537e+001 224 220 209
3.522209e+000 2.077171e+000 -7.919079e+000 175 160 106
-3.059797e-001 8.875264e-001 -1.055283e+001 234 231 221
-4.617863e-001 6.263919e-001 -1.011793e+001 168 161 151
2.498286e+000 5.530735e-001 -9.349089e+000 230 219 201
2.530578e+000 5.346352e-001 -8.672154e+000 170 152 104
2.435272e+000 4.024736e-001 -8.822172e+000 201 185 133
-5.928974e-001 -4.000570e-001 -9.515503e+000 79 66 49
-4.036253e+000 -7.988139e-001 -8.058225e+000 236 209 142
-1.739733e+000 -8.763669e-001 -8.353390e+000 128 87 75
-2.694922e+000 -9.920526e-001 -8.263875e+000 130 111 105
-2.804244e+000 -1.106796e+000 -8.207285e+000 144 128 131
-3.765222e+000 -1.331371e+000 -7.978648e+000 113 42 41
4.010368e+000 -1.304268e+000 -8.737741e+000 165 127 104
4.010368e+000 -1.304268e+000 -8.737741e+000 165 127 104
-3.844362e+000 -1.560417e+000 -8.412250e+000 112 70 63
-3.844362e+000 -1.560417e+000 -8.412250e+000 112 70 63
-2.077025e+000 -1.953001e+000 -9.277078e+000 145 96 67
-2.077025e+000 -1.953001e+000 -9.277078e+000 145 96 67
1.098089e+000 -3.097565e+000 -1.212696e+001 157 92 82
3.386029e+000 -2.521033e+000 -9.426524e+000 197 100 84
1.663956e+000 -3.483197e+000 -1.149459e+001 217 160 87
1.459922e+000 3.067208e+000 -1.076216e+001 213 205 192
4.137057e+000 2.162013e+000 -7.169531e+000 167 149 101
-6.979901e-001 3.439291e+000 -1.338741e+001 223 217 205
-6.979901e-001 3.439291e+000 -1.338741e+001 223 217 205
-5.561417e-001 3.500400e+000 -1.328622e+001 227 223 211
4.150903e+000 9.864000e-001 -7.729804e+000 214 196 182
8.974920e-001 1.122808e+000 -9.988905e+000 176 170 157
2.768541e+000 8.583027e-001 -8.393271e+000 200 182 120
2.470742e+000 5.786213e-001 -9.386790e+000 187 169 149
-1.095468e+000 3.480020e-001 -1.005793e+001 149 129 115
1.660347e+000 -1.682192e-001 -9.305512e+000 202 188 147
-4.048255e+000 -6.164196e-001 -8.000244e+000 248 220 155
-3.573809e+000 -4.775258e-001 -7.890388e+000 101 76 50
-3.988345e-001 -5.720449e-001 -9.360335e+000 78 67 49
4.538291e-001 -6.411357e-001 -9.444296e+000 104 95 74
-3.974274e+000 -7.414576e-001 -7.984115e+000 237 208 150
-4.006021e+000 -8.686275e-001 -8.073525e+000 147 117 65
-3.972883e+000 -8.687458e-001 -8.059669e+000 241 212 156
-4.743990e-001 -9.964256e-001 -9.032813e+000 136 125 114
-2.908153e+000 -9.794303e-001 -8.021275e+000 100 47 29
-2.880078e+000 -1.066898e+000 -8.207567e+000 68 34 20
-3.999266e+000 -1.195891e+000 -8.137314e+000 123 65 62
-3.859248e+000 -1.172843e+000 -8.064985e+000 93 35 34
4.156812e+000 -1.332243e+000 -8.482811e+000 230 178 152
4.156812e+000 -1.332243e+000 -8.482811e+000 230 178 152
-2.268820e+000 -1.701894e+000 -9.179984e+000 177 72 31
9.460294e-001 -3.023495e+000 -1.228413e+001 204 185 181
1.804570e+000 -3.529752e+000 -1.137737e+001 202 117 66
-8.345287e-001 4.198972e-001 -9.716429e+000 207 199 189
-2.310862e-001 6.243798e-001 -9.984712e+000 192 184 174
-6.878049e-001 -1.158215e-001 -9.534145e+000 147 138 128
-3.631439e+000 -5.994512e-001 -7.921788e+000 82 42 22
-3.954023e+000 -7.320693e-001 -8.004219e+000 152 121 74
-2.886102e+000 -6.825512e-001 -7.860184e+000 131 75 66
-2.597351e+000 -7.852812e-001 -8.315116e+000 124 57 41
-2.861081e+000 -1.001458e+000 -8.082483e+000 129 91 72
-3.901204e+000 -1.301895e+000 -8.195149e+000 91 22 22
-3.438864e+000 -1.312814e+000 -8.003825e+000 171 82 61
-3.437622e+000 -1.482655e+000 -8.125027e+000 186 88 56
-2.282467e-001 -1.995443e+000 -1.071593e+001 241 236 230
3.825669e+000 -1.967480e+000 -8.919710e+000 158 103 64
3.358861e+000 -2.320958e+000 -9.148737e+000 205 121 83
1.817684e+000 -3.368865e+000 -1.144970e+001 237 191 114
3.847884e+000 1.781727e+000 -7.527856e+000 204 186 148
-3.398173e-001 2.465345e+000 -1.253776e+001 229 223 211
2.474136e+000 5.710369e-001 -9.380126e+000 193 180 157
-2.118865e+000 -6.031578e-001 -8.692920e+000 137 56 27
-2.051186e+000 -5.986154e-001 -8.635535e+000 175 91 56
-3.800358e+000 -7.425562e-001 -7.998088e+000 192 164 102
-2.811503e+000 -7.304345e-001 -7.899499e+000 112 61 54
-3.798340e+000 -9.401101e-001 -7.934366e+000 131 73 68
-2.955806e+000 -8.850590e-001 -7.991211e+000 85 25 15
2.479139e+000 -2.597004e+000 -9.715021e+000 83 52 25
1.671339e+000 -3.543574e+000 -1.152702e+001 171 86 70
1.875379e+000 -3.291020e+000 -1.118856e+001 237 197 116
2.150110e+000 2.432001e+000 -9.983331e+000 243 237 225
1.861951e+000 2.114889e+000 -9.607517e+000 166 157 145
-1.528440e-001 1.620651e+000 -1.116901e+001 213 209 200
-9.304951e-001 3.592537e-001 -9.685171e+000 146 75 55
-1.497003e+000 -1.672605e-001 -8.462799e+000 202 107 59
-1.240390e+000 -6.571579e-002 -8.562441e+000 119 52 36
1.596081e+000 -2.106208e-001 -9.401060e+000 203 190 147
-1.865493e-001 -5.593598e-001 -9.371928e+000 133 125 116
2.864101e-001 -6.052687e-001 -9.542467e+000 107 99 88
9.323430e-001 -9.017627e-001 -9.079957e+000 232 229 220
-4.009852e+000 -9.774819e-001 -8.080948e+000 74 20 22
-3.446068e+000 -9.504022e-001 -7.918730e+000 229 130 74
-3.446068e+000 -9.504022e-001 -7.918730e+000 229 130 74
-2.824280e+000 -1.017467e+000 -8.227285e+000 30 23 25
-3.563757e+000 -1.224303e+000 -7.951639e+000 229 118 74
-7.511677e-001 -1.419666e+000 -8.850116e+000 137 127 115
1.442810e+000 -3.727814e+000 -1.197549e+001 225 149 91
3.491693e+000 1.999787e+000 -7.882601e+000 216 199 141
-9.678605e-001 1.795950e+000 -1.299394e+001 251 247 244
4.587007e-001 1.491248e+000 -1.033752e+001 237 234 228
4.587007e-001 1.491248e+000 -1.033752e+001 237 234 228
2.617132e+000 1.096270e+000 -9.102150e+000 237 230 220
2.484189e+000 4.872794e-001 -9.217135e+000 237 231 217
-3.988702e+000 -4.087903e-001 -7.965659e+000 245 218 146
-3.422922e+000 -5.864311e-001 -7.929669e+000 80 32 23
-2.665305e+000 -1.336761e+000 -8.183970e+000 182 126 79
2.498255e+000 -1.320277e+000 -8.986175e+000 208 201 185
2.498255e+000 -1.320277e+000 -8.986175e+000 208 201 185
-3.728800e+000 -1.549906e+000 -8.335925e+000 69 24 21
2.391914e+000 2.542278e+000 -9.636259e+000 244 239 226
1.740603e-001 1.766320e+000 -1.137454e+001 224 219 213
1.740603e-001 1.766320e+000 -1.137454e+001 224 219 213
-2.274375e+000 -1.994027e-001 -8.995429e+000 156 61 33
2.063034e+000 -3.272580e-001 -9.403503e+000 172 159 120
-3.578886e+000 -7.181539e-001 -7.850563e+000 65 17 17
-2.801730e+000 -6.688385e-001 -7.919181e+000 68 24 29
-2.331237e+000 -9.346461e-001 -8.770650e+000 156 100 70
-1.567786e+000 -8.823377e-001 -8.179998e+000 120 36 40
-9.629248e-001 -1.390692e+000 -8.626305e+000 177 167 157
4.044612e+000 -1.334531e+000 -8.641732e+000 174 104 55
4.067385e+000 -1.202660e+000 -8.508734e+000 171 103 64
3.597803e+000 2.612074e+000 -8.299830e+000 209 197 187
2.784264e+000 9.749670e-001 -8.510517e+000 155 140 101
2.784264e+000 9.749670e-001 -8.510517e+000 155 140 101
2.434170e+000 7.043601e-001 -9.245099e+000 227 222 210
-1.128929e-001 -3.664311e-002 -9.336741e+000 184 177 169
2.400782e+000 -3.542671e-001 -8.994067e+000 107 94 62
2.844400e+000 -2.808552e-001 -8.853512e+000 190 182 167
-4.120711e+000 -4.531492e-001 -8.072316e+000 73 18 23
-2.162282e+000 -7.192035e-001 -8.767319e+000 154 64 32
4.141391e+000 -1.312289e+000 -8.264824e+000 204 136 96
1.840319e+000 -3.386384e+000 -1.116585e+001 231 178 108
2.737277e+000 2.714609e+000 -9.367400e+000 221 213 202
-1.702179e+000 2.792123e+000 -1.392276e+001 191 185 173
-2.033786e+000 2.490755e+000 -1.408785e+001 239 234 228
-2.764613e+001 1.646350e+000 -5.786350e+001 27 15 19
-1.217185e+000 -3.012520e-001 -8.868007e+000 162 81 51
3.892610e+000 -1.189516e+000 -8.646873e+000 100 48 38
-1.659576e+000 -1.286666e+000 -8.480420e+000 202 145 108
2.160056e+000 2.170913e+000 -9.391697e+000 234 227 218
3.438357e+000 1.890215e+000 -8.157857e+000 152 135 97
2.129327e+000 3.740345e-001 -9.495842e+000 230 228 216
-1.568832e+000 -1.493104e+000 -8.736939e+000 180 60 42
-1.474958e+000 -1.643783e+000 -8.745259e+000 199 83 60
4.029709e+000 2.044146e+000 -7.181120e+000 254 238 171
4.168220e+000 1.711098e+000 -7.488619e+000 115 41 46
-1.695250e-001 1.984813e+000 -1.190470e+001 175 167 157
-5.862245e-001 1.922147e+000 -1.271737e+001 242 242 234
2.716720e+000 1.917726e+000 -8.726503e+000 242 235 229
3.435752e+000 -1.847726e+000 -8.765712e+000 232 225 217
3.505386e+000 -4.795537e-001 -7.877565e+000 242 233 224
5.112529e-002 2.954741e+000 -1.229386e+001 250 243 233
-1.057125e+000 -2.871962e-001 -9.354741e+000 40 25 25
2.721106e-002 1.822720e-002 1.572554e-001 0 255 0
2.707214e-002 1.813720e-002 1.072556e-001 255 255 0
-1.193459e-001 1.009371e+000 2.305782e-001 255 0 0
-1.182406e-001 1.004900e+000 1.807909e-001 255 255 0
