ply
format ascii 1.0
element face 0
property list uchar int vertex_indices
element vertex 864
property float x
property float y
property float z
property uchar diffuse_red
property uchar diffuse_green
property uchar diffuse_blue
end_header
3.644974e+000 -1.078930e+000 -8.809416e+000 162 124 111
3.644974e+000 -1.078930e+000 -8.809416e+000 162 124 111
3.604306e+000 -1.191749e+000 -8.873042e+000 146 91 71
3.564166e+000 -1.268015e+000 -8.881446e+000 173 124 109
3.591661e+000 -1.243569e+000 -8.846928e+000 180 132 110
3.600791e+000 -1.249066e+000 -8.866579e+000 180 132 110
3.673887e+000 -1.222506e+000 -8.672292e+000 179 113 78
8.858702e-001 -2.984619e+000 -1.198459e+001 196 133 79
3.400254e+000 1.505176e+000 -7.721009e+000 241 229 187
3.445453e+000 1.519965e+000 -7.732869e+000 254 244 178
-6.753208e-001 4.695534e-001 -1.006953e+001 209 202 192
4.684426e-001 6.365836e-001 -9.684918e+000 201 196 184
2.874415e+000 5.341038e-001 -8.002927e+000 250 234 177
3.807761e+000 7.789893e-001 -7.744639e+000 203 154 142
-9.361988e-001 -1.280830e-001 -8.911752e+000 107 49 37
2.103689e+000 1.417342e-001 -9.073994e+000 135 123 96
2.259955e+000 1.838784e-001 -8.746002e+000 254 244 189
2.776495e+000 3.683228e-001 -8.281649e+000 220 203 147
2.694456e+000 2.504719e-001 -8.118697e+000 159 145 99
1.600347e+000 -1.940247e-001 -9.246170e+000 130 120 87
1.876361e+000 -1.362710e-002 -9.149854e+000 171 159 115
2.022106e+000 3.713400e-002 -9.017085e+000 171 157 112
-3.235343e+000 -6.091629e-001 -8.070788e+000 216 191 129
-9.081984e-001 -5.980539e-001 -8.799502e+000 139 123 110
-3.568933e-001 -5.409582e-001 -9.461898e+000 83 71 52
1.135078e+000 -3.972081e-001 -9.272502e+000 132 119 86
1.249626e+000 -3.616906e-001 -9.327589e+000 132 119 84
-3.433459e+000 -8.442186e-001 -8.141496e+000 159 128 79
-3.204133e+000 -8.212555e-001 -8.005121e+000 143 92 91
-3.213223e-002 -7.523109e-001 -9.410714e+000 126 117 86
3.655504e-001 -6.551055e-001 -9.422238e+000 105 97 76
5.101108e-001 -6.114391e-001 -9.428014e+000 116 106 81
-2.333240e+000 -9.316147e-001 -8.345978e+000 139 121 117
-1.404340e+000 -8.622834e-001 -8.282487e+000 209 89 90
-1.404340e+000 -8.622834e-001 -8.282487e+000 209 89 90
1.070410e+000 -7.597277e-001 -8.849892e+000 192 188 177
1.194834e+000 -8.128937e-001 -8.863577e+000 200 197 182
-2.703486e+000 -1.358173e+000 -8.368883e+000 71 26 14
-2.032045e+000 -1.690775e+000 -9.716636e+000 128 50 25
-1.928686e+000 -1.716243e+000 -9.249402e+000 194 87 39
3.663354e+000 -1.197180e+000 -8.663928e+000 223 184 165
3.690390e+000 -1.184132e+000 -8.650523e+000 187 115 71
3.651057e+000 -1.133695e+000 -8.087625e+000 236 195 178
1.247342e+000 -3.460702e+000 -1.174968e+001 253 200 159
1.304320e+000 -3.476783e+000 -1.174158e+001 251 199 156
3.236146e+000 -2.138679e+000 -9.295005e+000 188 119 64
3.626140e+000 -2.134785e+000 -9.003093e+000 171 100 54
6.981190e+000 -3.103045e+000 -1.197989e+001 201 191 188
1.298995e+000 -3.537425e+000 -1.168293e+001 210 146 104
3.597227e+000 2.417126e+000 -8.110953e+000 132 89 64
-1.583867e-001 2.146422e+000 -1.220533e+001 230 222 212
-8.199168e-001 1.971719e+000 -1.241657e+001 225 222 212
1.258704e+000 1.518421e+000 -1.002905e+001 177 168 161
1.384851e+000 1.746353e+000 -1.019193e+001 164 160 150
1.520667e+000 1.787859e+000 -1.020598e+001 204 200 191
3.860598e+000 1.298639e+000 -7.910238e+000 184 69 67
-6.423794e-001 4.425601e-001 -9.887816e+000 178 171 161
-8.269260e-001 2.411571e-001 -9.606072e+000 193 180 172
2.239321e+000 4.226884e-001 -8.801019e+000 144 128 96
-2.571264e+000 -4.680764e-001 -9.179027e+000 130 73 60
-1.021944e-001 -1.803470e-001 -9.330669e+000 168 163 157
-1.021944e-001 -1.803470e-001 -9.330669e+000 168 163 157
1.732341e+000 -8.794349e-002 -9.188303e+000 167 159 123
1.894614e+000 -5.737757e-002 -9.104854e+000 214 200 150
2.002836e+000 4.414353e-002 -9.125588e+000 192 179 134
-3.592248e+000 -5.728963e-001 -8.174405e+000 227 197 125
-3.346818e+000 -6.411417e-001 -8.077124e+000 153 123 71
-2.507023e+000 -6.198345e-001 -8.093295e+000 101 43 31
-2.469292e+000 -6.302691e-001 -8.021529e+000 115 64 62
-2.354188e+000 -6.355411e-001 -8.591767e+000 116 40 17
-2.210097e+000 -6.608794e-001 -8.570988e+000 116 39 19
6.883962e-001 -5.217149e-001 -9.457571e+000 86 79 54
5.686769e-001 -5.876339e-001 -9.419187e+000 137 126 95
6.264812e-001 -5.768288e-001 -9.424207e+000 154 148 117
-3.678797e+000 -8.191052e-001 -8.243680e+000 122 51 41
-3.373062e+000 -8.119241e-001 -8.124191e+000 171 145 90
-2.577374e+000 -6.536648e-001 -8.031254e+000 105 53 49
-2.492076e+000 -6.614725e-001 -7.975322e+000 137 78 74
-2.420328e+000 -1.136373e+000 -9.612879e+000 136 68 49
-5.222597e-001 -7.356969e-001 -9.339214e+000 82 69 52
-3.072799e+000 -1.060894e+000 -8.098943e+000 233 132 81
-2.466090e+000 -9.363646e-001 -8.145204e+000 134 93 71
-3.978572e-001 -9.034754e-001 -9.015939e+000 138 129 118
-2.956792e+000 -1.316022e+000 -8.155103e+000 199 109 76
-1.353403e+000 -1.411778e+000 -8.620896e+000 204 107 72
7.139059e-001 -2.658343e+000 -1.214113e+001 154 83 66
3.685097e+000 -1.259798e+000 -8.629382e+000 191 115 67
3.756247e-001 -2.941794e+000 -1.254149e+001 199 133 77
2.502662e+000 -2.446633e+000 -1.021702e+001 110 59 36
1.241378e+000 -3.528718e+000 -1.173288e+001 208 149 114
1.323152e+000 -3.513204e+000 -1.170964e+001 206 136 85
1.623202e+000 -3.095283e+000 -1.121223e+001 230 173 107
2.630224e+000 -2.797031e+000 -1.029155e+001 124 78 51
6.828881e+000 -3.138990e+000 -1.243334e+001 194 188 185
6.910977e+000 -3.085451e+000 -1.222914e+001 236 226 224
6.956822e+000 -3.090130e+000 -1.219386e+001 236 228 225
3.394224e+000 -2.415249e+000 -9.262375e+000 200 121 65
3.171702e+000 1.819531e+000 -7.959337e+000 230 211 154
3.604837e+000 1.828644e+000 -7.507041e+000 183 164 112
2.786696e+000 1.284478e+000 -8.390784e+000 207 198 182
-1.709647e-001 7.440203e-001 -1.061744e+001 225 223 211
2.522779e+000 9.213648e-001 -8.452137e+000 175 158 117
2.528152e+000 9.205469e-001 -8.469408e+000 175 158 117
2.562208e+000 9.240784e-001 -8.404614e+000 249 233 164
-9.725771e-001 3.232038e-001 -1.007654e+001 194 184 174
-7.548870e-001 2.883332e-001 -9.692882e+000 208 200 190
-3.237080e-001 4.685424e-001 -9.896744e+000 187 178 169
-2.717283e-001 5.526044e-001 -1.039933e+001 163 158 152
2.453832e+000 6.698398e-001 -8.467286e+000 204 187 132
-9.313646e-001 -1.660170e-001 -8.972645e+000 128 73 54
-7.433903e-001 -1.196753e-001 -9.478891e+000 120 98 90
-6.852487e-001 -1.448241e-001 -9.476091e+000 146 129 121
1.807515e-001 2.113764e-002 -9.397919e+000 149 145 135
-3.383896e+000 -3.463896e-001 -8.020190e+000 225 205 129
-3.571026e+000 -5.211361e-001 -8.129534e+000 253 226 150
-1.415657e+000 -2.564050e-001 -8.644538e+000 230 136 79
-9.565675e-001 -2.864372e-001 -9.281550e+000 97 52 43
2.583859e+000 1.297810e-001 -8.309527e+000 183 167 112
-2.110072e+000 -5.178595e-001 -8.883880e+000 163 84 53
-6.135513e-001 -6.898234e-001 -9.448193e+000 87 75 53
-6.079062e-001 -6.759528e-001 -9.374503e+000 87 75 53
5.621936e-001 -5.483882e-001 -9.534649e+000 136 128 116
1.336879e+000 -2.957919e-001 -9.345395e+000 199 188 146
1.336879e+000 -2.957919e-001 -9.345395e+000 199 188 146
1.522983e+000 -2.499654e-001 -9.313599e+000 124 113 81
1.666571e+000 -3.622554e-001 -9.088400e+000 132 121 89
-2.989291e+000 -6.890959e-001 -7.979964e+000 118 63 56
-1.929828e+000 -9.006077e-001 -8.700503e+000 175 119 86
-1.862194e+000 -7.382918e-001 -8.836929e+000 150 66 32
-2.226512e-001 -7.797500e-001 -9.277718e+000 63 51 39
2.107465e-001 -7.012671e-001 -9.415620e+000 146 139 121
-2.474551e+000 -9.097293e-001 -8.093293e+000 104 49 33
-1.618713e+000 -8.305688e-001 -8.350768e+000 182 147 104
1.805889e-001 -1.238268e+000 -9.618796e+000 173 164 156
-3.191924e+000 -1.480846e+000 -8.469049e+000 74 24 19
1.923440e+000 -1.495776e+000 -9.420108e+000 189 182 170
2.585667e+000 -2.118915e+000 -9.961776e+000 191 162 115
2.222432e+000 -2.336647e+000 -9.840592e+000 84 53 30
2.303458e+000 -2.358771e+000 -1.001470e+001 135 105 67
3.150847e+000 -1.917338e+000 -8.996623e+000 187 99 85
1.010939e+000 -3.456489e+000 -1.219084e+001 199 119 59
3.335053e+000 -2.440786e+000 -9.264083e+000 200 118 62
3.512019e-001 1.573583e+000 -1.117753e+001 221 216 210
1.293173e+000 1.634299e+000 -1.019126e+001 172 168 156
-1.150728e+000 1.224059e+000 -1.271973e+001 215 211 200
-1.363708e-001 5.285972e-001 -1.012404e+001 162 155 145
1.965939e-001 1.402843e-001 -9.442195e+000 144 136 125
-9.318003e-001 -1.132428e-001 -9.326448e+000 85 37 27
6.875594e-001 -2.611714e-001 -9.583661e+000 160 155 144
2.012271e+000 -1.345863e-002 -9.119680e+000 183 170 121
-3.164840e+000 -6.822369e-001 -8.021932e+000 164 103 99
-2.215604e+000 -5.380790e-001 -8.770034e+000 119 42 24
1.062488e+000 -4.115273e-001 -9.400697e+000 184 172 129
-1.975999e+000 -7.547439e-001 -8.775141e+000 168 84 47
-1.641019e+000 -8.819176e-001 -8.334855e+000 58 56 64
-3.598314e-001 -8.938587e-001 -9.029514e+000 170 163 157
-1.160789e-001 -1.051541e+000 -9.218765e+000 165 158 150
1.167181e+000 -7.434533e-001 -8.909353e+000 61 51 41
1.594874e+000 -9.298353e-001 -9.155534e+000 154 146 135
1.948529e+000 -8.825888e-001 -9.127524e+000 203 199 188
-1.757624e+000 -1.979380e+000 -9.859274e+000 67 44 40
3.371355e-001 -3.191423e+000 -1.265510e+001 218 146 98
1.552598e+000 -2.791148e+000 -1.114502e+001 196 97 76
1.997310e+000 -2.332544e+000 -9.957374e+000 201 179 126
2.350011e+000 -2.437479e+000 -1.024617e+001 136 106 68
3.221696e+000 -1.899750e+000 -8.939827e+000 175 84 82
9.311737e-001 -3.485867e+000 -1.217086e+001 222 153 109
3.036483e+000 1.693863e+000 -8.349173e+000 189 178 160
2.809587e+000 1.160505e+000 -8.375431e+000 209 193 142
3.782052e+000 9.914432e-001 -7.836270e+000 187 158 144
-7.886523e-001 -1.656447e-001 -9.520042e+000 81 56 51
-3.676504e+000 -4.936038e-001 -8.268206e+000 104 26 32
-1.034289e+000 -2.321157e-001 -8.750794e+000 105 49 40
-3.254204e+000 -6.595935e-001 -8.068597e+000 198 171 116
-9.890794e-001 -6.101380e-001 -9.230079e+000 96 66 58
-1.822391e-001 -5.230219e-001 -9.404477e+000 168 164 155
3.855602e-001 -6.042449e-001 -9.476385e+000 85 74 60
9.003228e-001 -5.075912e-001 -9.500514e+000 156 146 110
-3.265082e+000 -8.123317e-001 -8.064608e+000 74 31 22
-2.822453e+000 -8.504249e-001 -7.983385e+000 187 90 52
-2.643521e+000 -6.942694e-001 -8.064627e+000 101 39 28
1.781108e+000 -4.775873e-001 -9.153451e+000 172 167 155
1.969301e+000 -5.485733e-001 -9.120366e+000 200 193 181
-3.312514e+000 -1.137163e+000 -8.181114e+000 142 83 79
-2.551026e+000 -1.069286e+000 -8.150614e+000 106 45 34
1.833366e+000 -6.923135e-001 -9.136138e+000 206 199 191
-1.426131e+000 -1.068832e+000 -8.346674e+000 42 42 44
-6.442071e-002 -1.171671e+000 -9.297792e+000 181 179 173
2.331279e+000 -1.205877e+000 -9.154122e+000 208 201 189
2.331279e+000 -1.205877e+000 -9.154122e+000 208 201 189
1.097785e+000 -2.519855e+000 -1.132655e+001 219 86 89
9.768794e-001 -3.016837e+000 -1.189351e+001 165 74 74
3.500897e+000 2.423316e+000 -8.200487e+000 200 80 78
-3.957786e-001 1.848995e+000 -1.204824e+001 233 227 221
1.557258e+000 1.851536e+000 -1.020679e+001 234 230 219
1.926416e+000 1.999491e+000 -9.879627e+000 186 180 168
1.926416e+000 1.999491e+000 -9.879627e+000 186 180 168
1.580112e-002 1.729771e+000 -1.171972e+001 200 195 189
-1.720347e+000 1.042334e+000 -1.413952e+001 216 206 196
9.705350e-001 1.015179e+000 -9.685824e+000 235 235 227
-1.681722e-001 7.765045e-001 -1.070219e+001 228 224 215
-1.703294e+000 1.141623e-002 -9.742175e+000 59 40 38
-1.710899e-001 1.968144e-001 -9.361897e+000 183 176 168
-1.710899e-001 1.968144e-001 -9.361897e+000 183 176 168
5.105754e-001 2.865192e-001 -9.879931e+000 160 156 145
2.290641e+000 3.991673e-001 -8.936353e+000 173 158 113
-8.234233e-001 1.161679e-002 -9.375238e+000 146 84 63
-6.055063e-001 -4.587510e-002 -9.386727e+000 161 152 143
-3.410001e+000 -5.853018e-001 -8.027655e+000 155 119 67
-2.961696e+000 -6.033736e-001 -8.232326e+000 159 87 57
-7.792323e-001 -6.320006e-001 -9.340222e+000 31 21 19
-3.543862e-001 -4.377816e-001 -9.329984e+000 161 152 143
2.382552e+000 -1.456361e-001 -8.702205e+000 187 177 127
2.353442e+000 -2.240102e-001 -8.849182e+000 154 145 109
-3.286525e+000 -9.624148e-001 -8.028750e+000 69 24 26
-3.033134e+000 -1.021522e+000 -8.044036e+000 236 135 86
-3.033134e+000 -1.021522e+000 -8.044036e+000 236 135 86
-2.776317e+000 -9.843764e-001 -8.002851e+000 170 72 43
-2.783494e+000 -9.836474e-001 -7.992985e+000 170 72 43
-2.099767e+000 -1.380705e+000 -8.960034e+000 176 74 36
1.078378e+000 -2.122293e+000 -1.110518e+001 193 146 106
1.078378e+000 -2.122293e+000 -1.110518e+001 193 146 106
4.179502e+000 -9.472122e-001 -7.907366e+000 204 72 78
1.464360e+000 -2.954055e+000 -1.126888e+001 178 81 69
1.476378e+000 -3.142677e+000 -1.138510e+001 223 183 113
3.398665e+000 2.184135e+000 -8.041617e+000 122 107 78
3.126223e+000 1.791344e+000 -8.128391e+000 153 138 97
3.625641e+000 1.868376e+000 -7.524387e+000 161 143 97
-1.522393e+000 8.019503e-001 -1.386321e+001 225 220 204
2.442892e+000 1.250226e+000 -8.847275e+000 220 213 203
2.442892e+000 1.250226e+000 -8.847275e+000 220 213 203
-1.244376e+000 2.632276e-001 -1.050948e+001 250 243 239
-8.371264e-001 3.021123e-001 -9.766998e+000 205 198 190
2.263282e+000 5.871061e-001 -9.039401e+000 189 180 164
2.090938e+000 8.706396e-002 -9.306640e+000 138 124 100
-3.549506e+000 -4.626038e-001 -8.160288e+000 100 24 27
-2.015662e-001 -6.287901e-001 -9.419867e+000 152 142 132
2.559740e+000 -3.038504e-001 -8.896822e+000 190 181 164
1.081257e+000 -7.389618e-001 -9.094401e+000 69 58 42
-2.223539e+000 -1.244130e+000 -8.395087e+000 163 105 86
-1.524104e+000 -1.104186e+000 -8.381083e+000 227 194 149
-1.525813e+000 -1.103997e+000 -8.378389e+000 227 194 149
2.768211e-001 -1.695070e+000 -1.034644e+001 194 187 175
1.241520e+000 -2.949682e+000 -1.148450e+001 226 179 105
1.241493e+000 -2.928080e+000 -1.143314e+001 226 179 105
2.827509e+000 2.029753e+000 -8.759398e+000 238 230 219
-2.494039e+000 1.051034e+000 -1.483119e+001 236 98 98
2.965670e+000 4.903786e-001 -8.330326e+000 255 246 187
2.070651e+000 2.466177e-001 -9.396823e+000 167 154 136
3.244585e+000 3.983878e-001 -8.211110e+000 222 215 205
-1.074493e+000 -2.041524e-001 -8.771405e+000 113 52 36
3.485670e+000 -8.033383e-001 -8.300136e+000 209 90 88
1.744145e+000 2.102044e+000 -1.021369e+001 239 233 221
2.539398e+000 2.012038e+000 -8.915940e+000 229 225 213
2.020648e-001 1.193933e+000 -1.069769e+001 237 233 222
2.076147e-001 1.196552e+000 -1.072491e+001 237 233 222
3.892513e+000 9.727215e-001 -7.785843e+000 184 68 69
-1.347027e+000 -4.812129e-002 -9.856232e+000 126 62 44
-2.119221e+000 -8.317153e-001 -8.897979e+000 88 25 16
-2.119221e+000 -8.317153e-001 -8.897979e+000 88 25 16
7.839570e-001 -6.236874e-001 -9.244786e+000 76 64 48
1.901762e+000 -8.005510e-001 -9.150386e+000 200 196 184
-9.527050e-001 -1.431656e+000 -8.572761e+000 155 143 129
-1.200732e+000 -1.985637e+000 -9.336279e+000 69 50 46
-9.929306e-001 -1.817241e+000 -8.970745e+000 197 189 178
3.421770e+000 -8.592778e-001 -7.683967e+000 129 42 46
2.254922e+000 -1.782938e+000 -9.466965e+000 231 224 214
1.623250e+000 -2.883637e+000 -1.106411e+001 227 180 108
3.366983e+000 -2.298891e+000 -9.224628e+000 211 135 80
2.426080e+000 1.922251e+000 -9.036235e+000 178 170 157
2.554148e+000 1.176200e+000 -8.406453e+000 236 227 218
-4.569109e-001 4.877448e-001 -1.030270e+001 158 151 141
1.346959e+000 5.049092e-001 -9.734652e+000 184 178 164
2.449488e+000 6.983344e-001 -8.523374e+000 161 149 99
3.839517e+000 7.032807e-001 -7.686104e+000 207 74 74
2.301500e+000 2.371601e-001 -8.819166e+000 253 250 195
-5.397909e-001 -8.391116e-001 -8.956567e+000 156 143 134
-3.192598e-002 3.003324e+000 -1.230548e+001 248 245 236
-1.532561e+000 1.457106e+000 -1.359942e+001 239 235 224
-5.130377e-001 -2.584369e-001 -9.385420e+000 165 156 147
2.887857e+000 -1.574138e-001 -8.601799e+000 236 228 213
-1.481622e+000 -9.380572e-001 -8.529831e+000 55 31 23
-1.477280e+000 -9.315308e-001 -8.503928e+000 55 31 23
1.971087e-001 -1.362963e+000 -9.945548e+000 162 157 151
1.386027e+000 -1.037433e+000 -9.047779e+000 162 154 143
2.718200e+000 -2.481879e+000 -9.634337e+000 125 70 50
3.689697e+000 8.833209e-001 -7.814476e+000 231 217 203
-1.317380e+000 -5.019313e-001 -8.892089e+000 84 36 29
3.727374e-001 -6.034785e-001 -9.278094e+000 78 69 51
2.852269e+000 5.460026e-001 -8.731393e+000 255 254 215
3.197860e+000 5.725204e-001 -8.236310e+000 122 106 90
-1.550297e+000 -2.308363e-001 -8.532436e+000 234 139 87
2.544279e+000 1.464878e-001 -8.976284e+000 254 253 199
9.319980e-001 -1.050880e+000 -9.274083e+000 231 228 221
3.490869e+000 1.518914e+000 -8.006605e+000 255 241 182
-1.359439e+000 5.562494e-001 -1.143557e+001 248 243 237
2.471458e+000 -1.225214e+000 -8.916105e+000 244 239 232
2.401496e+000 6.329726e-001 -8.719662e+000 167 153 118
2.244861e+000 4.188439e-001 -9.387664e+000 198 185 167
2.201949e+000 2.820345e-001 -8.920425e+000 197 184 131
-3.286075e+000 -3.569650e-001 -7.946441e+000 126 100 56
-2.486636e+000 -1.043656e+000 -8.307988e+000 121 80 52
-2.639359e+000 -1.274828e+000 -8.327676e+000 77 53 46
1.789304e+000 -2.676551e+000 -9.865323e+000 130 109 78
-3.359097e-001 2.661339e+000 -1.257384e+001 230 221 213
-3.369134e-001 2.660530e+000 -1.256515e+001 230 221 213
-9.153512e-001 1.814194e-001 -9.740728e+000 122 82 68
-3.306500e+000 -3.213312e-001 -7.973763e+000 109 91 62
-3.255732e+000 -3.612674e-001 -7.959252e+000 118 97 78
-3.567370e+000 -5.628338e-001 -8.285290e+000 128 95 53
-3.101097e+000 -5.593320e-001 -7.989089e+000 167 135 90
3.011538e+000 -7.709391e-001 -8.558184e+000 144 107 97
-3.324961e+000 -6.252296e-001 -8.087912e+000 165 138 84
-3.362718e+000 -7.696754e-001 -8.119786e+000 161 131 80
-3.425715e+000 -8.252767e-001 -8.150646e+000 248 219 163
-1.424695e+000 -1.036664e+000 -8.322861e+000 113 93 90
-2.631556e+000 -1.348660e+000 -8.388746e+000 82 65 65
-1.786635e+000 -1.798437e+000 -9.198469e+000 44 23 14
-3.179998e+000 -6.602167e-001 -8.002490e+000 120 74 60
-2.484775e+000 -9.979631e-001 -8.277808e+000 59 32 23
-2.422429e+000 -9.979176e-001 -8.319829e+000 121 107 107
-2.417557e+000 -1.052656e+000 -8.305138e+000 163 146 147
6.776306e-001 -2.691363e+000 -1.218584e+001 169 111 60
6.787546e-001 -2.703552e+000 -1.223643e+001 169 111 60
-2.491501e+000 -1.019625e+000 -8.232758e+000 137 97 72
-2.491501e+000 -1.019625e+000 -8.232758e+000 137 97 72
1.776580e-001 -1.031431e+000 -9.239706e+000 177 170 160
-2.953615e+000 -1.188551e+000 -8.128772e+000 121 42 30
3.194224e+000 -2.182081e+000 -8.958825e+000 251 254 248
3.194224e+000 -2.182081e+000 -8.958825e+000 251 254 248
6.022948e-001 -3.070087e+000 -1.230978e+001 201 119 60
2.306219e+000 5.410323e-001 -8.810063e+000 204 195 183
-6.207938e-001 -1.315855e+000 -8.882172e+000 134 122 108
-2.974395e+000 -1.260104e+000 -8.136091e+000 154 54 38
-4.002566e-001 1.879264e+000 -1.221895e+001 231 228 221
3.776498e+000 7.387824e-001 -7.881641e+000 208 190 174
-1.374832e+000 -1.107821e+000 -8.351843e+000 203 146 111
2.250748e+000 7.912139e-001 -9.168852e+000 216 212 203
-2.220516e+000 -1.039893e+000 -8.323842e+000 178 136 95
-2.220516e+000 -1.039893e+000 -8.323842e+000 178 136 95
3.095990e+000 -1.704172e+000 -8.967649e+000 227 223 213
1.828647e+000 -2.765291e+000 -9.796563e+000 103 80 48
-2.070496e+000 -1.980856e+000 -9.136011e+000 31 21 20
3.615394e+000 1.165739e-001 -7.674415e+000 241 231 222
9.898316e-001 -7.248067e-001 -8.993404e+000 151 141 128
-2.094509e+000 -4.428634e-001 -8.851573e+000 160 82 59
3.645692e+000 1.387334e+000 -7.739759e+000 134 92 80
4.437325e-001 -5.584175e-001 -9.495205e+000 93 83 73
-1.219738e+000 -1.308938e+000 -8.532133e+000 199 186 174
-3.062990e+000 -1.039371e+000 -8.089449e+000 235 135 88
-1.043710e+000 -1.053427e+000 -8.427298e+000 169 160 150
-3.327857e-001 2.387763e+000 -1.266519e+001 235 229 214
-1.705933e-002 2.241757e+000 -1.217558e+001 238 235 220
1.977971e+000 5.643150e-001 -9.339486e+000 222 216 202
-1.278286e+000 -8.944151e-001 -8.290861e+000 150 137 121
-3.038318e+000 -1.221547e+000 -8.140050e+000 191 86 57
2.641712e+000 -2.801127e+000 -9.925328e+000 127 71 39
3.303698e-001 1.363669e+000 -1.078136e+001 166 159 149
2.553518e+000 1.235059e+000 -8.565866e+000 237 230 220
-3.028883e+000 -1.048007e+000 -8.106434e+000 233 132 88
2.165177e+000 2.156836e-001 -8.890184e+000 170 154 103
1.835230e+000 -4.099140e-002 -9.202492e+000 164 153 114
-3.091164e+000 -4.972429e-001 -8.054755e+000 107 82 52
1.129551e+000 -1.093972e+000 -9.008058e+000 194 190 182
-3.229906e+000 -1.485550e+000 -8.500068e+000 104 55 53
-2.530029e+000 -1.299559e+000 -8.329259e+000 81 60 61
-2.540189e+000 -1.740443e+000 -9.629280e+000 122 69 48
2.384307e-001 -1.944149e+000 -1.086153e+001 172 120 109
1.660228e+000 -2.788688e+000 -1.111422e+001 186 111 70
3.816825e+000 1.320825e+000 -7.898662e+000 163 97 89
2.471820e+000 5.990875e-001 -8.534311e+000 196 180 121
-3.476154e+000 -8.444900e-001 -8.170997e+000 227 196 140
-3.475742e+000 -1.060335e+000 -8.190887e+000 101 40 34
7.153722e-001 -2.662350e+000 -1.218239e+001 147 79 54
2.600765e+000 -2.517058e+000 -9.991790e+000 159 122 67
3.645805e+000 -1.025929e+000 -8.692102e+000 188 138 127
3.530371e+000 -1.179632e+000 -8.862179e+000 111 57 46
-2.527536e+000 -1.328781e+000 -8.383648e+000 79 59 50
8.207833e-001 -2.785422e+000 -1.204230e+001 208 148 87
-2.493768e+000 -1.343493e+000 -8.389567e+000 218 181 141
-3.650856e+000 -4.846598e-001 -8.189089e+000 69 22 21
-3.216395e+000 -6.014945e-001 -8.063324e+000 190 161 104
-2.996316e+000 -9.562158e-001 -8.038641e+000 251 157 106
2.632144e-001 -6.140191e-002 -9.481093e+000 154 146 135
-6.104096e-002 -1.156271e+000 -9.218240e+000 187 183 176
-8.509827e-001 -1.024549e+000 -8.501930e+000 170 161 152
-1.435467e-001 -1.106732e+000 -9.107592e+000 145 135 125
1.758701e+000 -1.034240e+000 -9.207674e+000 199 195 184
-1.939967e+000 2.547791e+000 -1.412784e+001 194 77 78
-2.637423e+000 1.088189e+000 -1.555802e+001 236 98 102
1.522321e+000 8.989477e-002 -9.486941e+000 170 161 144
-2.080122e-001 -5.929560e-001 -9.483565e+000 155 151 141
2.265337e+000 -1.515383e+000 -9.291195e+000 242 235 227
-1.832188e+000 -9.559433e-001 -8.714204e+000 230 187 142
8.640250e-001 9.080865e-001 -9.692509e+000 239 236 226
-3.546508e+000 -4.885510e-001 -8.095673e+000 107 81 43
-3.116050e+000 -5.362663e-001 -8.030105e+000 141 111 65
-4.900120e-001 -7.129874e-001 -9.278357e+000 59 47 30
2.121231e+000 -4.292505e-001 -9.001372e+000 185 178 161
-2.457279e+000 -1.003735e+000 -8.254078e+000 104 77 66
1.111849e+000 -7.962676e-001 -8.938444e+000 209 205 193
3.009780e+000 -6.051988e-001 -8.575344e+000 157 138 123
-2.700592e+000 -1.294814e+000 -8.306101e+000 117 70 55
-2.631076e+000 -1.348691e+000 -8.392620e+000 89 72 75
-3.720953e-002 -1.127029e+000 -9.200608e+000 148 139 131
-1.933912e+000 -1.672106e+000 -9.229160e+000 194 82 39
-1.174786e+000 -1.398698e+000 -8.501021e+000 184 94 82
8.960772e-001 -2.947035e+000 -1.198011e+001 208 146 89
2.681698e+000 -2.627197e+000 -1.000014e+001 134 84 53
3.363963e+000 -2.258939e+000 -8.971403e+000 190 115 57
-3.379004e-001 5.899575e-001 -1.033319e+001 179 175 166
-1.301752e+000 2.323729e-001 -1.051404e+001 252 249 240
-1.301752e+000 2.323729e-001 -1.051404e+001 252 249 240
2.482035e+000 7.704359e-001 -8.501708e+000 163 147 96
-7.983430e-001 2.657087e-001 -9.648953e+000 138 77 63
-3.310411e+000 -3.961143e-001 -8.053250e+000 136 104 52
-1.532087e+000 -7.806130e-001 -8.465516e+000 153 100 76
-2.420266e+000 -9.958640e-001 -8.312842e+000 139 124 128
-2.557315e+000 -1.407025e+000 -8.427853e+000 194 157 127
3.561568e+000 -1.196983e+000 -8.863093e+000 158 120 114
4.223282e+000 -9.814846e-001 -7.823726e+000 183 81 87
-7.110628e-001 1.007610e-002 -9.491358e+000 145 131 122
-6.414039e-001 -9.995420e-002 -9.365048e+000 127 111 102
-2.070590e+000 -4.642344e-001 -8.800051e+000 141 65 42
-2.131838e+000 -5.044741e-001 -8.787854e+000 162 83 53
-5.222261e-001 -7.371403e-001 -9.344045e+000 82 69 52
3.127032e-001 -6.639015e-001 -9.387416e+000 104 96 73
-3.307988e+000 -1.177694e+000 -8.198251e+000 127 78 64
-3.307591e+000 -1.177570e+000 -8.198258e+000 127 78 64
-2.551171e+000 -1.369214e+000 -8.375148e+000 63 31 23
-1.718901e+000 -1.907728e+000 -9.787775e+000 201 77 63
4.645800e-002 7.945729e-001 -1.040170e+001 225 220 212
-4.271293e-001 -8.914155e-001 -9.076968e+000 132 122 112
-5.700813e-001 -1.267491e+000 -8.781028e+000 182 172 160
1.909513e+000 -1.548397e+000 -9.411481e+000 192 182 175
1.089924e+000 -3.148054e+000 -1.174604e+001 209 154 115
2.538348e+000 -2.603913e+000 -1.010057e+001 148 115 64
9.783003e-002 2.178920e+000 -1.202626e+001 210 203 193
2.360876e+000 9.123903e-001 -9.151131e+000 235 231 219
2.902064e-001 -4.315122e-001 -9.418805e+000 169 163 154
-2.663080e+000 -8.475943e-001 -8.021692e+000 123 46 30
-2.663080e+000 -8.475943e-001 -8.021692e+000 123 46 30
3.737074e+000 5.794159e-001 -7.692062e+000 237 221 209
7.210760e-001 1.527978e+000 -1.027867e+001 239 235 224
-6.609885e-001 -1.156164e+000 -8.527016e+000 189 186 177
2.868895e+000 -1.146056e+000 -8.567650e+000 224 220 209
6.787005e-002 7.629960e-001 -1.046939e+001 182 178 169
7.127974e-002 7.234155e-001 -1.051486e+001 155 151 142
1.620050e+000 1.487355e-001 -9.670439e+000 187 181 167
1.845862e+000 -1.367988e-002 -9.216378e+000 140 126 101
1.739066e+000 -7.123804e-002 -9.203954e+000 124 113 87
2.019433e+000 -3.453915e-001 -9.093194e+000 187 174 121
2.091984e+000 -3.987694e-001 -9.098235e+000 105 90 60
-2.338180e+000 -9.317765e-001 -8.416011e+000 119 88 68
-2.454564e+000 -1.044369e+000 -8.326769e+000 103 77 70
3.463476e+000 -1.475910e+000 -8.734125e+000 164 101 60
-2.536161e+000 -1.475088e+000 -8.540660e+000 145 61 31
2.393835e-001 -1.923722e+000 -1.078770e+001 182 171 168
2.147377e+000 -2.113927e+000 -9.734512e+000 215 81 81
8.976835e-001 -2.946843e+000 -1.197141e+001 210 147 94
2.686724e+000 -2.534586e+000 -1.003264e+001 140 91 52
2.911001e+000 -2.797081e+000 -9.735937e+000 191 133 93
2.202691e+000 3.605631e-001 -8.876586e+000 150 140 101
2.444002e+000 4.136748e-001 -8.549207e+000 216 200 141
-7.342773e-001 1.792897e-001 -9.638214e+000 150 112 100
1.482102e+000 -1.999542e-001 -9.335953e+000 132 121 97
-4.896140e-001 -4.315528e-001 -9.400470e+000 147 133 104
-4.188017e-001 -4.815893e-001 -9.374809e+000 95 83 60
1.816074e+000 -4.623837e-001 -9.108257e+000 172 161 155
-3.574862e+000 -5.112609e-001 -8.255339e+000 117 84 51
-2.331137e+000 -6.264045e-001 -8.603089e+000 115 38 15
-4.871806e-001 -5.187997e-001 -9.387714e+000 84 73 53
5.883335e-001 -5.583260e-001 -9.412864e+000 92 81 58
-3.369477e+000 -6.454311e-001 -8.170514e+000 229 202 149
3.654648e+000 -9.840678e-001 -8.662026e+000 185 129 118
-2.457534e+000 -9.032406e-001 -8.359530e+000 75 53 49
-2.466478e+000 -9.238401e-001 -8.322560e+000 82 57 47
-2.490897e+000 -9.634104e-001 -8.166914e+000 98 62 43
-2.470486e+000 -9.740065e-001 -8.284408e+000 78 54 45
-1.398046e+000 -8.877082e-001 -8.299591e+000 188 75 70
-1.396808e+000 -8.879015e-001 -8.299281e+000 188 75 70
-2.625816e+000 -1.210848e+000 -8.299544e+000 140 96 67
-2.400953e+000 -1.062439e+000 -8.351879e+000 170 148 138
1.671112e+000 -2.703954e+000 -1.111311e+001 193 116 86
8.362453e-001 9.380311e-001 -9.913985e+000 172 167 155
-7.205025e-001 1.019184e-002 -9.552218e+000 144 131 121
-1.014812e-001 -1.818680e-001 -9.312531e+000 167 160 152
1.359643e+000 -2.535517e-001 -9.355095e+000 122 113 86
-2.765779e+000 -5.663458e-001 -8.134641e+000 149 75 47
-2.361608e+000 -5.959681e-001 -8.559319e+000 134 54 35
-3.352062e+000 -7.065482e-001 -8.119142e+000 201 175 118
-3.451338e+000 -7.355840e-001 -8.220437e+000 239 213 154
-2.514909e+000 -6.639596e-001 -8.019856e+000 126 73 67
-2.468852e+000 -6.949910e-001 -8.021107e+000 83 34 25
-3.209162e+000 -8.163327e-001 -8.018705e+000 124 70 64
3.554832e-001 -2.355589e+000 -1.193104e+001 184 149 133
3.172003e+000 -2.001728e+000 -9.167065e+000 224 171 112
3.262925e+000 -1.985258e+000 -9.133696e+000 217 158 105
6.155328e+000 -2.992453e+000 -1.315574e+001 224 214 213
1.652370e+000 -3.222296e+000 -1.085016e+001 254 239 215
1.652370e+000 -3.222296e+000 -1.085016e+001 254 239 215
-6.435275e-001 -1.106620e-001 -9.520476e+000 126 108 99
-4.863502e-001 -1.884279e-001 -9.420579e+000 176 170 163
-2.363847e+000 -7.922143e-001 -8.450714e+000 105 48 29
-3.582572e+000 -7.960612e-001 -8.249245e+000 243 219 148
-1.220668e+000 -1.459172e+000 -8.578080e+000 210 91 77
3.249627e+000 -2.017812e+000 -9.089497e+000 180 91 80
1.089779e+000 -2.990772e+000 -1.179755e+001 214 158 84
3.353941e+000 1.243755e+000 -7.705371e+000 212 193 161
-7.932450e-001 2.617651e-001 -9.697553e+000 141 75 61
2.497881e-001 -3.506699e-001 -9.428610e+000 143 136 125
-3.410515e+000 -6.535687e-001 -8.118531e+000 222 194 131
-3.509324e+000 -7.697221e-001 -8.226657e+000 243 216 147
-2.565904e+000 -6.868157e-001 -8.062399e+000 89 32 21
-2.577132e+000 -6.865285e-001 -8.088113e+000 89 32 21
-1.522551e+000 -8.064210e-001 -8.478010e+000 39 25 33
1.557469e+000 -9.227091e-001 -8.969898e+000 149 141 130
-3.243360e+000 -7.923176e-001 -8.027196e+000 78 33 28
-2.438264e+000 -8.764666e-001 -8.203314e+000 117 77 58
1.899421e-001 -1.187371e+000 -9.350370e+000 174 169 162
-3.317035e+000 -1.069393e+000 -8.189562e+000 124 66 60
-3.050459e+000 -1.043824e+000 -8.046388e+000 232 126 79
-2.889374e+000 -1.383157e+000 -8.265297e+000 140 52 29
7.964345e-001 -2.731402e+000 -1.209578e+001 158 69 64
2.562057e+000 -2.479469e+000 -1.002589e+001 149 109 53
3.243032e+000 -2.367111e+000 -9.006468e+000 199 123 64
3.852229e+000 1.085775e+000 -7.793710e+000 205 72 77
9.453962e-001 9.480192e-001 -9.716108e+000 211 208 199
9.417319e-001 9.360985e-001 -9.669305e+000 211 208 199
-9.623424e-002 7.029672e-001 -1.036336e+001 183 176 166
-2.188965e+000 -3.400728e-001 -9.145526e+000 136 52 28
-7.921814e-001 -8.867699e-001 -8.625978e+000 173 165 152
3.526722e+000 -9.484361e-001 -8.141761e+000 209 93 91
3.301379e-001 -1.203993e+000 -9.424766e+000 160 153 143
-3.322835e+000 -1.149741e+000 -8.196705e+000 128 67 62
-3.101641e+000 -1.146985e+000 -8.136251e+000 224 117 71
-1.367509e+000 -1.269150e+000 -8.650256e+000 218 158 114
-4.901005e-001 -2.453238e+000 -1.341504e+001 221 146 82
1.089160e+000 -2.509897e+000 -1.130347e+001 219 83 87
1.453784e+000 -3.167414e+000 -1.140019e+001 228 184 111
2.364087e+000 9.094564e-001 -9.139735e+000 238 232 220
-3.300611e+000 -6.598242e-001 -8.156519e+000 207 180 121
2.318122e+000 -1.192640e+000 -9.129861e+000 206 198 183
2.318122e+000 -1.192640e+000 -9.129861e+000 206 198 183
5.655991e-002 -1.557130e+000 -1.019357e+001 178 170 157
2.439184e+000 2.303149e+000 -9.300455e+000 216 211 199
-6.584433e-001 -1.715930e-003 -9.490987e+000 152 139 130
3.043541e-001 -4.151200e-001 -9.386172e+000 163 160 148
-3.457936e+000 -5.845061e-001 -8.112070e+000 128 94 53
-2.202798e+000 -1.296514e+000 -9.085971e+000 112 33 18
-1.689730e+000 -1.445146e+000 -9.112207e+000 234 186 142
1.528710e+000 -2.105201e+000 -1.071948e+001 124 94 60
2.811741e+000 2.017190e+000 -8.732411e+000 236 229 219
1.729426e+000 2.047893e+000 -9.976318e+000 241 234 224
1.411207e+000 1.753463e+000 -1.015107e+001 209 205 194
-1.748803e+000 2.180534e+000 -1.368833e+001 238 234 225
3.166223e+000 -2.165512e+000 -9.180272e+000 207 128 69
6.890887e-001 -2.974095e+000 -1.233271e+001 198 154 134
-4.259098e-002 2.930704e+000 -1.196967e+001 248 244 235
1.341286e+000 5.190568e-001 -9.677293e+000 183 175 162
-2.888592e+000 -1.224035e+000 -8.123927e+000 103 35 24
-3.047581e+000 -1.410931e+000 -8.332529e+000 221 117 72
1.667630e+000 1.773653e+000 -9.851397e+000 167 157 147
3.590645e+000 1.151719e+000 -7.975301e+000 118 81 74
-7.196633e-002 1.588674e+000 -1.098123e+001 181 172 163
-1.460176e+000 3.579433e+000 -1.354764e+001 199 73 76
-1.460176e+000 3.579433e+000 -1.354764e+001 199 73 76
2.518902e+000 1.215159e+000 -8.489153e+000 241 234 224
2.872551e+000 -1.693046e-001 -8.519372e+000 236 227 217
3.154468e+000 -5.107637e-001 -8.127790e+000 239 230 223
2.823749e+000 5.334092e-001 -8.782501e+000 254 254 204
2.841984e+000 -1.140102e+000 -8.526543e+000 224 217 207
3.608814e+000 -6.780300e-001 -8.008585e+000 133 43 44
3.783894e-001 -6.221827e-001 -9.413201e+000 76 69 50
3.576525e+000 -1.063819e+000 -8.702574e+000 134 80 56
3.576525e+000 -1.063819e+000 -8.702574e+000 134 80 56
3.598456e+000 -1.080442e+000 -8.672091e+000 155 90 63
2.472812e+000 1.808572e+000 -8.735039e+000 218 209 200
2.855367e-001 -5.379324e-001 -9.469691e+000 94 84 74
-2.624270e+000 -1.473334e+000 -8.495494e+000 156 81 53
3.780625e+000 2.580622e+000 -8.112975e+000 163 142 101
3.215877e+000 1.836443e+000 -8.130259e+000 195 177 127
3.218948e+000 1.836605e+000 -8.094838e+000 231 216 160
1.918984e+000 1.344859e+000 -9.172169e+000 186 181 177
3.597463e+000 1.831738e+000 -7.599008e+000 209 194 142
3.718233e+000 1.856527e+000 -7.739601e+000 184 165 123
2.276023e-001 6.521906e-001 -9.975568e+000 205 203 192
-9.456494e-001 3.009743e-001 -9.950182e+000 173 157 147
-7.623355e-001 3.268177e-001 -9.772369e+000 182 175 169
1.134524e+000 5.737128e-001 -1.057462e+001 169 164 154
2.682852e+000 9.333919e-001 -8.327187e+000 163 149 98
2.406264e+000 5.222282e-001 -8.763682e+000 171 158 111
2.804242e+000 7.086312e-001 -8.257216e+000 213 197 138
-3.368666e+000 -3.460858e-001 -8.059796e+000 128 95 54
-2.568278e+000 -4.224055e-001 -8.736950e+000 143 68 53
-9.362483e-001 -1.289769e-001 -8.875063e+000 113 55 40
-6.843477e-002 -1.002522e-001 -9.267492e+000 165 165 157
-3.458056e+000 -6.554359e-001 -8.117815e+000 177 148 93
2.074082e+000 7.318438e-002 -9.132837e+000 188 175 131
2.691831e+000 5.585757e-002 -8.501664e+000 120 108 86
-2.388212e+000 -8.600016e-001 -8.246072e+000 81 60 55
9.020882e-001 -6.763753e-001 -9.081587e+000 125 118 105
9.451358e-001 -6.805054e-001 -8.948535e+000 127 119 108
-1.435978e+000 -8.460104e-001 -8.233877e+000 119 84 72
-1.425437e+000 -8.695385e-001 -8.280930e+000 119 53 53
1.040323e+000 -7.498235e-001 -8.935617e+000 159 152 144
2.429397e+000 -4.372079e-001 -8.690936e+000 171 163 148
-2.646061e+000 -1.298647e+000 -8.209926e+000 74 30 25
-2.531246e+000 -1.295819e+000 -8.380944e+000 185 156 141
2.644760e+000 -2.532351e+000 -9.895912e+000 132 92 55
2.658052e+000 2.300745e+000 -9.327474e+000 208 201 193
3.235758e+000 1.800020e+000 -8.160467e+000 244 225 169
3.254315e+000 1.917178e+000 -8.064673e+000 189 173 122
3.355521e+000 1.931328e+000 -8.274577e+000 189 173 122
8.424051e-002 1.145693e+000 -1.076284e+001 198 193 187
3.242463e+000 1.666839e+000 -8.495892e+000 178 160 112
-4.514544e-001 5.490044e-001 -1.037372e+001 165 160 154
-3.268639e+000 -3.533106e-001 -7.930475e+000 130 100 66
-3.254897e+000 -3.754259e-001 -7.944946e+000 123 100 56
3.679777e+000 7.641205e-001 -8.027064e+000 190 177 161
-4.563264e-001 -4.181728e-001 -9.319971e+000 103 92 74
2.048390e+000 5.329823e-002 -9.154795e+000 178 166 126
-3.442447e+000 -7.823218e-001 -8.147880e+000 199 169 113
-6.368298e-001 -6.620052e-001 -8.904251e+000 73 67 59
-3.277244e+000 -8.493008e-001 -8.013818e+000 142 90 84
-3.343671e+000 -9.850102e-001 -8.041241e+000 123 72 69
-2.362470e+000 -1.030798e+000 -8.235592e+000 164 142 128
-3.759734e-001 -9.753525e-001 -9.114499e+000 133 123 114
4.259212e+000 6.937719e-002 -7.510122e+000 193 91 90
-3.236091e+000 -1.471711e+000 -8.454951e+000 105 66 60
-2.600476e+000 -1.418087e+000 -8.399630e+000 135 59 30
-1.822419e+000 -1.693761e+000 -9.113549e+000 153 79 47
2.384728e-001 -2.663513e+000 -1.184159e+001 189 160 152
1.251839e+000 -3.453588e+000 -1.164264e+001 204 144 110
3.041300e+000 -2.297044e+000 -9.478495e+000 183 96 79
-1.249729e+000 1.219918e+000 -1.293297e+001 239 235 226
3.490143e+000 2.005237e+000 -7.865236e+000 140 125 93
-5.223640e-001 7.415811e-001 -1.157123e+001 218 217 213
2.970967e+000 1.421942e+000 -8.226151e+000 183 170 120
3.428995e+000 1.500585e+000 -7.736406e+000 215 201 174
3.605253e+000 1.498126e+000 -8.064036e+000 215 201 174
-5.577929e-001 4.540834e-001 -9.915538e+000 190 185 176
-4.873175e-001 5.029179e-001 -1.026462e+001 151 144 136
-8.859870e-001 2.296407e-001 -9.839574e+000 147 130 121
2.382584e+000 5.642906e-001 -8.709810e+000 171 157 112
2.556196e+000 7.174449e-001 -8.472698e+000 250 231 171
-3.383975e+000 -3.449360e-001 -8.021809e+000 216 189 114
-3.063206e+000 -5.096997e-001 -8.098185e+000 139 104 71
-1.298331e+000 -4.745720e-001 -8.747474e+000 57 22 19
1.924460e+000 -7.034204e-002 -9.212431e+000 211 201 151
-3.346904e+000 -6.416039e-001 -8.079412e+000 136 108 61
-3.317853e+000 -6.444541e-001 -8.076953e+000 197 170 117
-3.313265e+000 -6.422785e-001 -8.069890e+000 197 170 117
-3.355748e+000 -7.608873e-001 -8.110248e+000 156 128 77
-9.284078e-001 -5.968253e-001 -9.357087e+000 99 82 74
1.155638e+000 -4.137600e-001 -9.395628e+000 119 107 76
1.098826e+000 -4.320424e-001 -9.382031e+000 124 111 77
-3.451115e+000 -1.016488e+000 -8.177281e+000 167 143 88
-3.438002e+000 -1.062775e+000 -8.145565e+000 58 38 39
-3.412867e+000 -1.084812e+000 -8.144382e+000 125 76 76
-2.470844e+000 -9.404805e-001 -8.156153e+000 123 88 69
-2.177567e+000 -7.929301e-001 -8.370040e+000 126 60 44
-1.320934e+000 -1.093431e+000 -8.106103e+000 178 76 43
-6.611119e-001 -1.291261e+000 -8.753354e+000 133 125 114
-1.370744e+000 -1.669610e+000 -8.716682e+000 234 149 89
8.667648e-001 -2.760014e+000 -1.187832e+001 208 147 86
3.653940e+000 -1.076970e+000 -8.735443e+000 177 146 136
3.649053e+000 -1.071858e+000 -8.726351e+000 177 146 136
1.384156e+000 -3.129601e+000 -1.139417e+001 185 108 60
2.580648e+000 -2.539964e+000 -1.004663e+001 121 87 46
3.757593e+000 -1.632968e+000 -8.518808e+000 184 114 62
1.470820e+000 -3.398070e+000 -1.132914e+001 239 172 131
1.784711e+000 -3.407833e+000 -1.092111e+001 185 135 105
2.513370e+000 -2.664602e+000 -1.012468e+001 101 60 34
1.903484e+000 7.569675e-001 -9.359224e+000 199 195 186
-1.101325e+000 -7.672047e-002 -9.076722e+000 145 80 62
-9.174202e-001 -1.493863e-001 -8.834376e+000 130 73 56
-2.663356e+000 -4.728226e-001 -8.349099e+000 149 69 36
2.065003e+000 3.198085e-002 -9.108325e+000 186 172 125
-2.849144e+000 -5.734464e-001 -7.932679e+000 98 40 29
-2.394644e+000 -6.735663e-001 -8.065474e+000 102 44 33
3.435732e-001 -5.688532e-001 -9.501438e+000 107 98 89
-2.464765e+000 -8.225619e-001 -8.165257e+000 87 40 28
-2.350325e+000 -9.055004e-001 -8.333953e+000 148 127 126
2.110156e-001 -7.017862e-001 -9.417497e+000 136 130 112
-2.911508e+000 -1.066134e+000 -8.019259e+000 201 103 61
-2.911508e+000 -1.066134e+000 -8.019259e+000 201 103 61
-2.889343e+000 -1.014155e+000 -7.986066e+000 219 123 80
-2.889343e+000 -1.014155e+000 -7.986066e+000 219 123 80
-2.446914e+000 -1.015168e+000 -8.305126e+000 53 42 45
2.127065e+000 -2.360957e+000 -9.765643e+000 134 115 74
2.499901e+000 -2.739838e+000 -9.980368e+000 121 78 51
3.530583e+000 1.802841e+000 -7.967655e+000 181 163 113
-2.693955e-001 5.519444e-001 -1.026887e+001 158 153 147
2.786949e+000 1.119627e+000 -8.473253e+000 186 172 125
2.538934e+000 7.661412e-001 -8.528913e+000 225 209 150
-1.028532e+000 -5.560030e-002 -8.925946e+000 104 45 37
-9.628234e-001 -1.187529e-001 -8.746360e+000 108 50 32
-3.081783e+000 -5.498605e-001 -8.023921e+000 79 47 27
-1.977915e+000 -4.734323e-001 -8.827658e+000 159 80 50
-3.459974e+000 -7.143109e-001 -8.107881e+000 220 192 129
-3.134741e+000 -5.876428e-001 -8.026143e+000 82 40 32
-1.955804e+000 -5.495931e-001 -8.561417e+000 135 60 35
1.546585e+000 -4.329016e-001 -9.333812e+000 128 119 88
-2.346247e+000 -8.049335e-001 -8.268727e+000 131 95 64
-8.197533e-001 -9.310975e-001 -8.563455e+000 111 100 86
5.903440e-002 -1.185307e+000 -9.344456e+000 179 174 168
8.766929e-001 -9.631315e-001 -9.104826e+000 228 226 222
-2.925482e+000 -1.204829e+000 -8.006255e+000 143 52 31
7.798352e-001 -2.717420e+000 -1.206574e+001 158 83 68
1.203130e+000 -2.834173e+000 -1.140659e+001 212 69 79
1.472871e+000 -2.741156e+000 -1.098605e+001 211 164 94
3.261757e+000 2.092280e+000 -8.133165e+000 230 218 204
2.757729e+000 1.166681e+000 -8.450071e+000 135 125 96
-1.234523e+000 1.898022e-001 -1.043876e+001 135 78 61
-9.697779e-001 -5.463812e-002 -9.317293e+000 126 68 54
-2.923124e+000 -5.825490e-001 -8.119509e+000 146 78 56
-2.372404e+000 -7.543930e-001 -8.320131e+000 92 33 25
-1.753131e+000 -7.702291e-001 -8.702901e+000 142 84 57
8.478971e-001 -5.776216e-001 -9.435157e+000 77 69 48
1.628850e+000 -2.960010e-001 -9.298251e+000 161 151 116
-3.178510e+000 -8.548953e-001 -7.978626e+000 71 27 28
-2.459692e+000 -8.855265e-001 -8.263492e+000 115 78 62
-5.429790e-001 -7.027676e-001 -9.042805e+000 44 36 32
-2.145811e+000 -1.420712e+000 -8.854951e+000 130 46 22
-1.342188e+000 -1.656695e+000 -8.698878e+000 235 145 94
-1.232264e+000 -1.667434e+000 -8.855922e+000 222 181 134
3.603378e+000 -9.981681e-001 -8.039734e+000 124 39 42
1.988526e-001 5.866286e-001 -1.013539e+001 148 143 137
2.516624e+000 9.000520e-001 -8.897244e+000 210 205 195
-1.573386e+000 -4.705568e-001 -8.666328e+000 182 95 51
-1.017660e+000 -3.145747e-001 -8.855571e+000 157 81 50
1.932690e+000 1.539989e-002 -9.333849e+000 113 105 84
-3.645835e+000 -7.534590e-001 -8.250729e+000 47 37 36
-3.403823e+000 -8.702607e-001 -8.183465e+000 212 183 130
-3.090813e-001 -6.497499e-001 -9.385041e+000 64 55 40
-2.154226e+000 -1.282986e+000 -8.954661e+000 126 35 24
-2.041349e+000 -1.284306e+000 -8.698669e+000 172 74 37
2.564064e-001 -2.997686e+000 -1.200881e+001 80 65 56
1.233662e+000 -3.088328e+000 -1.152503e+001 182 81 66
5.057261e-001 1.623684e+000 -1.080815e+001 161 157 148
1.937504e+000 1.991419e+000 -9.826187e+000 173 166 157
1.937504e+000 1.991419e+000 -9.826187e+000 173 166 157
-1.049377e+000 -7.342660e-002 -8.739419e+000 166 100 65
-1.049377e+000 -7.342660e-002 -8.739419e+000 166 100 65
-9.519332e-001 -7.490371e-002 -8.807882e+000 142 84 58
-1.964551e+000 -8.683405e-001 -8.732467e+000 151 94 64
-2.233281e+000 -1.256361e+000 -8.431951e+000 162 101 85
-2.170229e+000 -1.320613e+000 -8.484938e+000 167 126 90
-5.463165e-001 -1.328602e+000 -8.929070e+000 135 124 112
1.433228e-001 -1.331258e+000 -9.593545e+000 147 139 135
4.098615e+000 -2.546158e-001 -7.625281e+000 146 54 53
1.628488e+000 2.222568e+000 -1.054420e+001 221 216 206
-6.663900e-001 8.651411e-001 -1.209482e+001 199 196 189
-6.663900e-001 8.651411e-001 -1.209482e+001 199 196 189
-3.618925e+000 -5.901476e-001 -8.185762e+000 236 211 137
1.719106e+000 -3.332003e+000 -1.095437e+001 238 184 150
3.351283e+000 2.304787e+000 -8.066012e+000 221 208 199
3.133470e+000 1.600938e+000 -8.441319e+000 145 131 97
-2.246509e+000 -1.039692e+000 -8.284553e+000 190 149 108
-1.354460e+000 -9.984832e-001 -8.312793e+000 126 38 42
-1.413449e+000 -1.467705e+000 -8.678408e+000 235 194 151
1.820449e+000 -1.339497e+000 -9.297831e+000 169 159 148
1.388475e+000 1.758852e+000 -1.034815e+001 156 152 141
-6.326423e-001 6.325321e-001 -1.127516e+001 235 232 225
1.839748e+000 -3.263741e-002 -9.380710e+000 128 116 100
-1.629272e+000 -6.456951e-001 -8.699775e+000 46 17 18
-1.629272e+000 -6.456951e-001 -8.699775e+000 46 17 18
-1.191658e+000 -1.827610e+000 -8.869463e+000 64 48 40
-4.721833e-001 1.629706e+000 -1.215688e+001 234 231 226
-1.345305e+000 -7.006221e-001 -8.598946e+000 157 134 118
1.300100e+000 2.042249e+000 -1.061493e+001 242 239 234
1.699893e+000 1.763081e+000 -9.772158e+000 158 146 137
-2.109061e+000 -9.082541e-001 -8.693524e+000 112 44 28
2.516620e+000 1.595038e-001 -8.876341e+000 255 254 206
2.168540e+000 -6.783961e-001 -9.055334e+000 220 216 207
7.811721e-001 -2.905347e+000 -1.165998e+001 202 160 136
1.502127e+000 -3.127717e+000 -1.107125e+001 196 124 75
3.622102e+000 -1.366224e+000 -8.436632e+000 194 119 64
3.459801e+000 2.550985e+000 -8.792044e+000 236 227 219
3.769099e+000 -7.817388e-001 -8.230956e+000 128 43 46
2.902154e+000 1.091490e+000 -8.266759e+000 165 151 105
3.820076e+000 5.737753e-002 -7.914039e+000 237 228 220
-1.004938e+000 -1.115167e+000 -8.383450e+000 165 155 145
2.601178e+000 2.296894e+000 -9.179690e+000 208 201 193
-6.266964e-001 4.849891e-001 -1.004365e+001 172 165 157
3.001441e+000 1.502321e+000 -8.160371e+000 202 187 135
-6.412056e-001 -2.815371e-001 -9.380278e+000 151 138 130
2.219137e+000 4.355417e-001 -9.424769e+000 202 187 169
2.308832e+000 4.558018e-001 -8.751451e+000 184 171 119
-1.311900e+000 -2.773146e-001 -8.572744e+000 161 83 54
-5.894985e-001 -5.207084e-001 -9.432075e+000 82 70 56
2.189718e+000 2.962963e-001 -8.921307e+000 211 197 148
2.198558e+000 2.915004e-001 -8.822376e+000 248 235 180
-2.641611e+000 -1.377737e+000 -8.381199e+000 141 115 115
1.044101e+000 -7.825392e-001 -9.075164e+000 149 145 134
2.371544e+000 -4.250143e-001 -8.682631e+000 159 146 133
-7.193635e-001 -1.761360e+000 -8.901732e+000 71 57 48
2.042660e+000 -2.207368e+000 -9.889148e+000 103 85 56
3.391104e+000 2.284335e+000 -7.973347e+000 205 142 136
3.164146e+000 1.904371e+000 -8.032958e+000 178 162 117
-1.258658e+000 1.798339e-001 -1.013020e+001 154 91 74
9.819507e-001 7.292160e-001 -9.819461e+000 155 151 142
2.199942e+000 2.842470e-001 -8.896455e+000 203 187 137
2.312319e+000 3.964450e-001 -8.780548e+000 249 238 184
-3.354345e+000 -7.609622e-001 -8.106779e+000 151 124 77
-1.940488e+000 -6.946811e-001 -8.723108e+000 155 61 32
1.934820e+000 -9.410423e-002 -9.185908e+000 192 180 130
2.773301e+000 3.722384e-001 -8.266522e+000 193 177 123
-2.509392e+000 -9.462475e-001 -8.125589e+000 123 78 63
3.633912e-001 -6.496041e-001 -9.403830e+000 107 96 73
2.148435e+000 -4.463432e-001 -9.203811e+000 169 162 144
1.297451e+000 -3.449755e+000 -1.156964e+001 212 150 109
3.137096e+000 -1.949761e+000 -9.076226e+000 204 161 116
3.065957e+000 -2.761667e+000 -9.541445e+000 149 99 65
-2.143216e-001 9.975932e-001 -1.091132e+001 231 228 221
-6.610030e-001 4.692688e-001 -1.004029e+001 199 195 186
2.484945e+000 6.258774e-001 -8.531950e+000 185 168 115
-1.655665e+000 -4.836652e-001 -8.689754e+000 154 68 41
-1.424706e+000 -6.954722e-001 -8.499398e+000 154 131 117
-1.019320e+000 -6.182539e-001 -8.932332e+000 146 124 113
-2.943017e+000 -1.031072e+000 -8.014971e+000 232 134 87
1.931227e+000 -3.746340e-001 -9.230548e+000 161 149 108
-2.975883e+000 -1.286569e+000 -8.120312e+000 205 111 78
2.818827e-001 -1.118559e+000 -9.344645e+000 183 178 172
4.423338e+000 -2.402856e-002 -7.751009e+000 180 83 77
1.761551e+000 -3.269405e+000 -1.092956e+001 234 191 155
6.711186e+000 -3.013412e+000 -1.202326e+001 195 187 188
3.195145e+000 -2.571399e+000 -9.495338e+000 155 91 50
3.195145e+000 -2.571399e+000 -9.495338e+000 155 91 50
-2.060875e-001 2.220653e+000 -1.231037e+001 201 194 184
5.023126e-001 1.394424e+000 -1.060715e+001 174 171 164
-5.196334e-001 7.459188e-001 -1.154571e+001 222 218 215
3.032363e+000 1.674847e+000 -8.208288e+000 220 209 193
-1.383483e+000 2.010764e-001 -1.036914e+001 230 228 218
-3.511715e+000 -7.577771e-001 -8.148856e+000 105 80 47
-3.511715e+000 -7.577771e-001 -8.148856e+000 105 80 47
-2.594075e+000 -5.073951e-001 -8.427951e+000 151 69 39
2.296660e+000 4.399157e-001 -8.733360e+000 193 180 128
-6.074978e-001 -6.929201e-001 -9.421454e+000 82 68 53
3.914333e-001 -5.377116e-001 -9.492021e+000 118 109 99
1.193528e+000 -7.891636e-001 -9.059274e+000 71 61 51
3.052575e+000 -6.817804e-001 -8.607194e+000 151 131 117
8.910819e-001 -2.323897e+000 -1.097182e+001 190 77 64
2.173151e+000 1.676360e+000 -8.941803e+000 216 211 203
-9.507808e-001 2.766665e-001 -9.905544e+000 99 58 46
-1.313078e+000 -2.405146e-002 -8.968456e+000 151 81 56
-1.967803e+000 -3.464301e-001 -8.804351e+000 134 53 31
-1.967803e+000 -3.464301e-001 -8.804351e+000 134 53 31
-3.041235e+000 -5.329349e-001 -8.036641e+000 60 31 18
-1.836366e+000 -6.025290e-001 -8.728784e+000 132 50 27
-3.274311e+000 -7.738436e-001 -8.104881e+000 82 38 31
-2.920661e+000 -7.137161e-001 -8.065979e+000 121 59 43
-2.418852e+000 -6.516063e-001 -7.989741e+000 68 27 27
-6.604653e-001 -6.232982e-001 -9.279100e+000 74 62 48
5.716380e-001 -4.131922e-001 -9.554156e+000 153 149 142
3.212550e-001 -2.751649e+000 -1.211175e+001 199 125 71
6.909962e-001 -2.560860e+000 -1.194360e+001 157 99 86
3.200312e+000 1.915364e+000 -7.997134e+000 200 180 130
-4.149650e-001 6.705084e-001 -1.094662e+001 206 200 186
2.610243e-001 1.006264e+000 -1.037888e+001 222 218 211
2.963078e+000 1.476763e+000 -8.100032e+000 199 180 128
-3.252390e+000 -5.721456e-001 -8.070281e+000 64 41 27
-3.190135e+000 -5.711791e-001 -8.048850e+000 186 160 101
