ply
format ascii 1.0
element face 0
property list uchar int vertex_indices
element vertex 867
property float x
property float y
property float z
property uchar diffuse_red
property uchar diffuse_green
property uchar diffuse_blue
end_header
3.769288e-001 -1.233912e+000 -9.331424e+000 169 168 162
-5.602777e-001 -1.372422e+000 -9.034863e+000 132 119 109
2.634841e+000 -2.506103e+000 -1.010514e+001 130 90 44
2.810296e+000 -2.987724e+000 -9.863966e+000 254 249 243
-4.429999e-001 -1.200094e+000 -9.583377e+000 64 56 45
9.102333e-001 -2.717624e+000 -1.199617e+001 176 154 149
9.802892e-001 -2.834822e+000 -1.208561e+001 217 183 115
9.110040e-001 -3.249490e+000 -1.208249e+001 189 109 49
-1.379028e-001 4.769064e+000 -1.226150e+001 212 77 81
1.206273e+000 4.277455e+000 -1.046745e+001 231 116 114
2.398712e+000 -3.329117e+000 -1.093131e+001 130 122 103
9.295584e-001 -2.806444e+000 -1.198927e+001 204 192 177
1.466578e+000 -3.234880e+000 -1.137730e+001 211 166 80
3.754353e+000 -2.013027e+000 -8.727604e+000 98 66 46
3.308052e+000 -1.929911e+000 -9.321751e+000 209 146 75
5.299853e+000 -1.602186e+000 -1.108069e+001 90 76 63
5.299853e+000 -1.602186e+000 -1.108069e+001 90 76 63
2.980997e+000 -2.935566e+000 -9.738630e+000 119 104 94
2.370283e+000 -2.729540e+000 -1.032825e+001 78 41 25
9.998618e-001 -2.885356e+000 -1.192360e+001 203 162 77
4.922994e-001 -3.038271e+000 -1.248915e+001 197 114 55
6.496646e-001 -3.120802e+000 -1.227034e+001 189 109 47
6.421682e+000 -1.264457e+000 -1.234742e+001 85 68 42
5.001997e+000 -2.073167e+000 -1.177837e+001 131 118 116
-2.511883e+000 -5.403476e-001 -7.977739e+000 221 211 213
1.382341e+000 -2.975940e+000 -1.147715e+001 170 67 50
1.136984e+000 -3.074100e+000 -1.178503e+001 171 75 55
3.666549e+000 -2.418057e+000 -1.640915e+001 196 191 189
5.369968e+000 -1.994382e+000 -1.206432e+001 92 90 85
3.523598e+000 -2.634318e+000 -1.044230e+001 121 104 94
5.198638e+000 -2.149798e+000 -1.249872e+001 106 103 98
4.610055e+000 -2.392320e+000 -1.198990e+001 146 133 125
1.602184e+000 -2.343478e+000 -1.090291e+001 200 64 66
6.968032e-001 -2.717250e+000 -1.228391e+001 145 88 44
3.141491e+000 -2.214591e+000 -1.711100e+001 194 185 186
7.262413e+000 1.034098e+000 -1.160191e+001 131 116 103
2.305102e+000 1.244326e+000 -9.169898e+000 239 235 226
2.257052e+000 1.202011e+000 -9.275142e+000 215 211 200
2.486277e+000 9.314034e-001 -9.134899e+000 243 240 228
2.387543e+000 8.160611e-001 -9.175641e+000 215 211 199
6.110814e+000 -1.758603e+000 -1.311802e+001 97 75 61
5.168622e+000 -2.176578e+000 -1.254641e+001 137 128 124
5.089168e+000 -2.235778e+000 -1.241739e+001 137 128 124
-3.171918e+000 -1.246060e+000 -8.107259e+000 233 147 107
1.297312e+000 -3.017330e+000 -1.163615e+001 223 178 95
-1.197154e+000 -1.321436e+000 -1.429739e+001 215 146 100
2.638086e+000 1.217188e+000 -8.918906e+000 244 242 236
1.203169e+000 4.496857e+000 -1.113957e+001 248 233 230
4.501297e+000 -1.532222e+000 -9.453109e+000 162 146 127
2.345150e+000 -2.607949e+000 -1.044739e+001 74 25 21
-2.603982e+000 -1.398330e+000 -8.401642e+000 169 136 107
5.598473e-001 -2.174553e+000 -1.153954e+001 233 203 148
1.557822e+000 4.173031e+000 -1.043774e+001 239 226 217
1.183269e+000 4.341554e+000 -1.081450e+001 225 85 86
3.277681e+000 -2.102830e+000 -9.367915e+000 203 106 71
-1.307422e-001 -8.167798e-001 -9.172175e+000 151 147 138
1.052005e+000 -1.444997e+000 -9.408242e+000 175 173 161
-3.139140e+000 2.669346e+001 -2.249331e+001 200 195 192
-3.139140e+000 2.669346e+001 -2.249331e+001 200 195 192
1.259714e+000 4.231140e+000 -1.054637e+001 234 231 219
1.259714e+000 4.231140e+000 -1.054637e+001 234 231 219
1.682290e+000 9.048774e-001 -9.398522e+000 243 243 235
4.270886e+000 -1.931233e+000 -9.749037e+000 117 94 60
4.280316e+000 -1.922587e+000 -9.761819e+000 117 94 60
-6.177178e-001 -5.783754e-001 -1.277195e+001 240 232 217
-3.326451e+000 -1.473832e+000 -8.524832e+000 75 33 35
9.536609e-001 4.910821e+000 -1.089063e+001 232 184 64
2.220361e+000 1.438447e+000 -9.129992e+000 249 244 239
2.033013e+000 -2.634825e+000 -1.082899e+001 213 175 104
2.061752e+000 -2.613236e+000 -1.089386e+001 213 175 104
2.123327e+000 -3.172704e+000 -1.064023e+001 192 108 48
-1.681029e+000 -7.450204e-001 -1.497697e+001 232 228 224
7.234237e-001 -2.994769e+000 -1.220323e+001 195 146 123
2.384520e+000 1.017933e+000 -8.949926e+000 238 234 225
5.812281e+000 -1.819886e+000 -1.279394e+001 100 80 73
2.069040e+000 -2.733396e+000 -1.093863e+001 174 101 62
5.065440e-001 -2.594410e+000 -1.191811e+001 105 29 30
-6.554122e-001 -1.397624e+000 -1.250157e+001 190 57 59
-6.565264e-001 -1.388225e+000 -1.251440e+001 190 57 59
-1.312044e+000 -3.967303e-001 -8.644064e+000 96 43 39
-5.116760e-002 -2.272044e+000 -1.105772e+001 237 233 222
-7.557951e-002 -2.028219e+000 -1.278223e+001 237 233 224
1.174565e-001 -1.396686e+000 -1.023634e+001 129 122 120
2.240166e+000 -2.884847e+000 -1.052820e+001 187 107 80
-2.718498e+000 -1.236399e+000 -8.301474e+000 69 41 33
-2.646349e+000 -1.264631e+000 -8.330564e+000 103 86 85
-3.711452e+000 -9.256229e-001 -8.227156e+000 192 167 107
1.467851e+000 -2.797458e+000 -1.136899e+001 177 117 66
1.577383e+000 -2.995518e+000 -1.130294e+001 194 133 62
8.482027e-001 -2.688555e+000 -1.210220e+001 153 128 129
9.009256e-001 -2.736413e+000 -1.206338e+001 106 78 80
7.470551e-001 -2.643411e+000 -1.219813e+001 81 61 64
1.042334e+000 -2.831813e+000 -1.191437e+001 87 79 75
1.227347e+000 -2.924774e+000 -1.206876e+001 185 114 49
1.707161e+000 5.417978e+000 -1.059450e+001 173 164 161
1.725007e+000 5.476353e+000 -1.068326e+001 91 79 78
3.607701e+000 -1.161197e+000 -8.567522e+000 125 79 63
3.424755e+000 -1.919982e+000 -9.059247e+000 182 97 47
3.161598e+000 -1.878860e+000 -9.400855e+000 137 69 44
-1.210190e+000 -8.711306e-002 -8.598342e+000 142 75 58
-1.103493e+000 -1.101629e-001 -8.636357e+000 118 64 52
4.803243e+000 -2.119909e+000 -1.154493e+001 130 111 109
-1.597252e+000 -1.162755e+000 -8.470957e+000 171 133 96
-1.597252e+000 -1.162755e+000 -8.470957e+000 171 133 96
-2.506726e+000 -9.695719e-001 -8.288276e+000 81 71 71
2.086931e+000 -2.651570e+000 -1.074686e+001 181 122 68
1.997921e+000 -2.760101e+000 -1.079812e+001 206 165 92
1.851067e+000 -2.724123e+000 -1.102031e+001 179 108 54
2.963579e+000 -3.048150e+000 -1.165177e+001 130 115 109
-1.192319e+000 -1.854326e+000 -9.388863e+000 152 48 46
1.894995e+000 -2.877918e+000 -1.089191e+001 200 147 71
1.839424e+000 -3.066316e+000 -1.100018e+001 224 157 84
3.115359e+000 -2.980557e+000 -1.207805e+001 89 75 68
1.584672e+000 -3.169290e+000 -1.123660e+001 192 119 58
1.097420e+000 -2.760872e+000 -1.162239e+001 153 65 62
1.417625e+000 -2.989279e+000 -1.148276e+001 188 89 65
1.496475e+000 -3.123145e+000 -1.139367e+001 208 154 78
1.117198e+000 -2.900524e+000 -1.180005e+001 154 143 146
9.047613e-001 -2.850566e+000 -1.204284e+001 197 129 56
2.186911e-001 -2.678046e+000 -1.191321e+001 150 130 113
7.190846e-001 -3.326732e+000 -1.239287e+001 247 193 150
1.692516e+000 5.415254e+000 -1.052978e+001 177 137 72
3.645255e+000 -1.261008e+000 -8.788687e+000 183 151 136
1.940682e+000 -6.350439e-002 -9.133407e+000 175 166 127
4.282956e+000 -1.809503e+000 -9.507572e+000 120 98 68
5.561026e+000 -1.514281e+000 -1.139291e+001 92 77 57
3.102898e+000 -2.360071e+000 -9.520508e+000 175 93 55
2.589288e+000 -2.359230e+000 -1.011635e+001 94 52 25
-4.848687e-001 -1.257854e+000 -9.789639e+000 58 44 31
2.313052e+000 -3.011435e+000 -1.037729e+001 168 79 44
1.694355e+000 -2.759368e+000 -1.120972e+001 146 50 27
1.068625e+000 -2.745289e+000 -1.183643e+001 76 49 53
1.045597e+000 -2.730867e+000 -1.192863e+001 185 164 169
1.337206e+000 -2.871726e+000 -1.156537e+001 186 125 65
1.369850e+000 -2.809143e+000 -1.169973e+001 186 125 65
1.381340e+000 -3.154889e+000 -1.146391e+001 196 116 49
4.457699e+000 -2.590252e+000 -1.564980e+001 194 190 187
-2.513467e+000 -1.385678e+000 -1.043128e+001 176 87 54
9.611526e-001 -2.812463e+000 -1.198057e+001 219 191 186
1.042410e+000 4.936157e+000 -1.078442e+001 209 75 82
4.962840e+000 -2.107390e+000 -1.174093e+001 131 116 113
-1.521996e+000 -9.819103e-001 -8.281155e+000 154 133 114
-1.658872e+000 -9.502083e-001 -8.294936e+000 173 160 135
-1.465604e+000 -9.880192e-001 -8.283677e+000 85 57 50
-1.285229e+000 -1.210624e+000 -8.355080e+000 159 142 134
2.632973e+000 -2.583365e+000 -1.004681e+001 111 71 31
2.634478e+000 -2.701153e+000 -1.005271e+001 96 38 26
2.166069e+000 -2.755848e+000 -1.060467e+001 158 66 50
3.779933e-001 -1.687948e+000 -1.057787e+001 142 125 106
3.799173e-001 -1.688924e+000 -1.057717e+001 142 125 106
2.081481e+000 -2.769716e+000 -1.075423e+001 209 171 87
-3.690001e+000 -9.051624e-001 -8.261095e+000 82 62 53
1.817049e+000 -2.774517e+000 -1.102997e+001 165 65 46
-3.252027e+000 -1.399597e+000 -8.327524e+000 200 114 73
-3.308246e+000 -1.422455e+000 -8.420428e+000 189 101 59
-1.373141e+000 -1.708031e+000 -1.073663e+001 248 247 238
5.854717e-001 -2.258604e+000 -1.165239e+001 89 29 21
9.477337e-001 -2.906300e+000 -1.198236e+001 219 187 108
9.097101e-001 -2.933622e+000 -1.202080e+001 168 73 33
8.234481e-001 -3.360676e+000 -1.216659e+001 197 114 58
-1.127611e+000 -1.340468e+000 -1.435910e+001 195 117 62
4.466588e+000 -1.801153e+000 -9.850223e+000 144 124 97
2.024516e+000 -8.354304e-001 -9.216997e+000 194 190 180
8.577468e-001 -8.842735e-001 -9.012097e+000 227 227 219
8.849555e-001 -9.565517e-001 -9.093806e+000 228 228 222
-8.668152e-002 -1.421932e-001 -9.377451e+000 145 141 132
4.835696e-002 -1.123619e+000 -9.275852e+000 154 151 144
-2.452851e+000 -6.408773e-001 -7.969620e+000 216 218 216
-1.349146e+000 -1.177540e+000 -8.262318e+000 125 44 46
-6.489206e-001 -1.264949e+000 -8.719257e+000 112 105 95
-6.489206e-001 -1.264949e+000 -8.719257e+000 112 105 95
-6.142333e-001 -1.268466e+000 -8.784601e+000 140 133 123
-1.345140e+000 -1.220415e+000 -8.513922e+000 199 105 88
1.519339e+000 -1.595202e+000 -1.094842e+001 125 104 70
1.766745e+000 -2.817624e+000 -9.715695e+000 120 102 80
-3.456640e+000 -5.979169e-001 -8.045929e+000 116 93 59
-4.926997e-002 -1.280358e+000 -1.003913e+001 117 109 107
1.105065e+000 -2.508238e+000 -1.145378e+001 206 56 57
4.511016e+000 -2.109681e+000 -1.554341e+001 162 150 134
-3.242284e+000 -1.522968e+000 -8.566052e+000 205 176 158
7.564467e-001 -2.328952e+000 -1.186314e+001 148 46 44
1.615553e+000 -3.196518e+000 -1.124551e+001 222 174 97
8.068785e-001 -2.912722e+000 -1.217619e+001 175 56 42
-2.312778e+000 -3.806951e-001 -1.606165e+001 183 79 78
1.604432e+000 5.093136e+000 -1.053316e+001 201 193 202
1.641247e+000 5.245413e+000 -1.063655e+001 201 193 202
1.328550e+000 4.928584e+000 -1.043527e+001 228 176 62
2.277724e+000 1.546256e+000 -9.055907e+000 225 222 215
2.277724e+000 1.546256e+000 -9.055907e+000 225 222 215
2.059629e+000 6.730471e-001 -9.438644e+000 218 216 203
2.044086e+000 6.596856e-001 -9.422295e+000 218 216 203
6.591453e-001 -6.027002e-001 -9.104742e+000 162 159 150
2.746323e+000 -2.265960e+000 -1.002916e+001 125 87 49
-3.008236e+000 -5.539022e-001 -7.936573e+000 217 213 212
-3.433837e+000 -5.010181e-001 -8.016643e+000 179 157 111
-3.388244e+000 -6.036662e-001 -8.084163e+000 150 131 91
2.123303e+000 -2.609181e+000 -1.067900e+001 95 44 28
-1.131911e+000 -1.851141e+000 -8.983290e+000 185 144 113
4.109301e+000 -2.690947e+000 -1.320046e+001 169 161 156
-3.001817e+000 -1.323900e+000 -8.139393e+000 149 74 54
1.688164e+000 -2.789027e+000 -1.118459e+001 197 98 70
-3.341838e+000 -1.223099e+000 -8.446095e+000 194 110 68
1.553053e+000 -3.106080e+000 -1.136238e+001 218 172 95
-2.586914e+000 -1.606824e+000 -9.990016e+000 221 199 193
-2.624130e+000 -1.704799e+000 -9.857371e+000 150 74 46
7.355151e-001 -2.598847e+000 -1.220736e+001 70 48 44
1.380033e+000 4.773907e+000 -1.044486e+001 181 59 60
2.391870e+000 1.583567e+000 -8.919461e+000 227 222 216
2.219053e+000 -5.168837e-001 -9.018659e+000 220 216 205
4.379424e+000 -1.819797e+000 -9.660994e+000 136 113 88
5.375332e-002 -1.094575e+000 -9.253730e+000 153 150 143
1.914344e-001 -1.214620e+000 -9.317203e+000 147 146 143
-3.002741e+000 -5.474776e-001 -7.935085e+000 218 213 212
-3.171101e-001 -1.159029e+000 -9.665345e+000 49 41 33
-3.483032e+000 -3.096638e-001 -8.013670e+000 187 166 123
-3.520387e+000 -4.165804e-001 -8.006150e+000 186 165 122
-3.309580e+000 -4.988943e-001 -7.994191e+000 211 202 193
-3.411757e+000 -9.148201e-001 -8.050526e+000 61 27 27
-1.275098e+000 -1.746850e+000 -9.344101e+000 152 99 61
1.931509e+000 -2.755524e+000 -1.124107e+001 219 169 83
1.877775e+000 -3.105803e+000 -1.094009e+001 217 147 78
-3.399868e+000 -1.474348e+000 -8.457763e+000 215 213 208
-1.907235e+000 -1.748971e+000 -1.002572e+001 185 107 69
-1.161020e+000 -9.197148e-001 -1.490574e+001 200 111 57
1.773908e+000 5.408756e+000 -1.044588e+001 196 150 42
1.770120e+000 5.260997e+000 -1.054619e+001 141 62 65
2.460241e+000 8.674005e-001 -8.857048e+000 242 240 228
1.377372e+000 3.822389e+000 -1.043755e+001 205 197 186
9.463330e-001 4.957594e+000 -1.117331e+001 215 76 78
2.296287e+000 6.590468e-001 -9.241030e+000 233 230 216
-3.509594e+000 -1.044444e+000 -8.235029e+000 68 31 33
-3.242991e+000 -1.421459e+000 -8.406950e+000 189 108 70
1.067896e+000 1.360122e+000 -9.767773e+000 245 242 235
-1.610777e+000 -1.254993e+000 -8.737613e+000 179 97 59
-3.193119e+000 -1.037811e+000 -8.041276e+000 238 150 97
-1.811611e+000 -1.490800e+000 -9.309986e+000 195 156 117
-3.949145e-001 -1.222615e+000 -9.617832e+000 59 49 39
-4.005551e-001 -1.250818e+000 -9.581758e+000 59 49 39
-1.140245e-001 -1.163845e+000 -9.787186e+000 117 115 112
2.043771e+000 -2.970571e+000 -1.080207e+001 218 188 102
-2.468262e-001 -1.720733e+000 -1.061282e+001 184 181 175
9.688446e-001 4.030768e+000 -1.062145e+001 217 78 81
3.754068e+000 -1.951823e+000 -8.565177e+000 108 59 32
-3.007577e+000 -1.144699e+000 -8.143194e+000 88 30 29
1.245400e+000 -1.901134e+000 -1.111264e+001 74 22 23
-1.710917e+000 -1.469098e+000 -1.109277e+001 247 244 235
3.155537e+000 -2.415187e+000 -8.820410e+000 218 132 56
8.022349e-001 2.458409e-001 -9.587905e+000 157 153 142
-2.954631e+000 -6.598495e-001 -8.668328e+000 139 103 79
3.764767e+000 -1.069843e+000 -8.814592e+000 171 129 105
3.713386e+000 -1.117551e+000 -8.848661e+000 176 140 124
1.691610e+000 5.424715e+000 -1.055272e+001 185 150 93
3.455607e+000 -1.705225e+000 -9.005183e+000 122 88 73
3.150989e+000 -2.780745e+000 -9.506855e+000 118 96 81
5.083886e+000 -1.939631e+000 -1.167830e+001 109 91 87
2.082033e+000 -2.657137e+000 -1.074331e+001 181 121 61
-3.449318e+000 -3.672149e-001 -7.940304e+000 163 148 118
-2.525773e+000 -8.994011e-001 -8.247487e+000 77 58 53
4.486620e+000 -2.448731e+000 -1.340546e+001 120 107 101
-1.039169e+000 -1.839056e+000 -9.338706e+000 135 43 46
1.622757e+000 -2.936156e+000 -1.123002e+001 224 174 96
2.415123e+000 -3.233302e+000 -1.152856e+001 92 77 67
1.570192e+000 -3.006505e+000 -1.128428e+001 192 126 57
1.026966e+000 -2.691449e+000 -1.193805e+001 112 71 73
9.611268e-001 -2.674205e+000 -1.199094e+001 98 55 58
1.093808e+000 -2.915417e+000 -1.182191e+001 208 188 173
1.075474e+000 -2.900070e+000 -1.184467e+001 210 189 184
9.435083e-001 -2.812372e+000 -1.202636e+001 208 167 82
1.235745e+000 -3.225353e+000 -1.164114e+001 198 115 68
7.814231e-001 -2.635153e+000 -1.218962e+001 134 114 116
6.240789e-001 -2.500125e+000 -1.244792e+001 58 32 31
8.741879e-001 -3.386706e+000 -1.224202e+001 242 213 178
8.614447e-001 -2.635460e+000 -1.437174e+001 192 183 176
8.614447e-001 -2.635460e+000 -1.437174e+001 192 183 176
-1.089933e+000 -1.440078e+000 -1.425404e+001 236 172 126
-1.029691e+000 -1.577247e+000 -1.416641e+001 238 176 124
2.434418e+000 9.550937e-001 -9.190947e+000 205 199 187
3.369269e+000 -1.889401e+000 -9.374996e+000 191 114 60
3.168509e+000 -1.941695e+000 -9.358739e+000 159 83 47
3.239260e+000 -1.977842e+000 -9.468242e+000 203 145 69
1.166186e+000 -1.034001e+000 -9.032265e+000 179 176 169
1.098941e+000 -1.137389e+000 -9.017182e+000 190 187 180
4.801160e+000 -2.274833e+000 -1.196599e+001 115 99 92
4.589467e+000 -2.354981e+000 -1.204586e+001 127 116 112
4.589467e+000 -2.354981e+000 -1.204586e+001 127 116 112
2.491170e+000 -2.784336e+000 -1.036447e+001 163 113 50
-1.492287e+000 -1.109537e+000 -8.322602e+000 153 114 96
2.291211e+000 -3.024193e+000 -1.045331e+001 161 71 42
2.978028e+000 -3.037352e+000 -1.091487e+001 119 105 92
5.948026e-001 -1.567432e+000 -1.038427e+001 126 94 71
1.637938e+000 -2.612664e+000 -1.054315e+001 123 95 69
2.083545e+000 -2.884478e+000 -1.074215e+001 212 183 94
1.834050e+000 -2.872503e+000 -1.100363e+001 229 179 89
4.399662e+000 -2.562950e+000 -1.328217e+001 89 75 72
-1.162999e+000 -1.785257e+000 -9.319113e+000 106 47 36
7.741098e-001 -2.592676e+000 -1.218197e+001 66 43 43
9.249609e-001 -2.655855e+000 -1.204168e+001 79 41 41
5.461537e-001 -2.470838e+000 -1.232692e+001 44 23 23
9.878553e-002 -3.070046e+000 -1.304435e+001 186 119 65
3.544287e-001 -3.122928e+000 -1.283036e+001 248 224 194
4.367345e+000 -1.655447e+000 -9.526924e+000 122 101 72
1.908677e+000 5.216656e+000 -1.040721e+001 205 186 192
2.013095e+000 -9.138623e-001 -9.216626e+000 188 185 176
-4.931477e-002 -9.857094e-002 -9.351492e+000 182 178 169
2.664351e+000 -2.709660e+000 -1.011675e+001 105 69 36
4.504608e+000 -2.368021e+000 -1.190232e+001 132 115 116
-3.958187e-001 -9.051227e-001 -8.991257e+000 159 152 145
1.954960e+000 -1.706517e+000 -1.048520e+001 84 51 34
1.853062e+000 -2.004279e+000 -1.044160e+001 105 89 64
1.878921e+000 -2.549941e+000 -1.005367e+001 107 91 65
-1.333973e+000 -1.322701e+000 -8.610120e+000 151 86 68
-1.195240e+000 -1.588118e+000 -8.625483e+000 202 92 85
-5.177982e-001 -1.207318e+000 -9.419712e+000 82 71 64
5.339080e-001 -1.613527e+000 -1.031896e+001 49 50 52
1.678530e+000 -2.592936e+000 -1.061892e+001 115 57 43
-1.992528e+000 -1.008259e+000 -8.602728e+000 139 88 62
-4.911846e-001 -1.245679e+000 -9.808322e+000 52 42 32
3.744217e-001 -1.523622e+000 -1.042347e+001 151 54 56
8.062824e-001 -1.676939e+000 -1.082010e+001 125 76 44
1.830362e+000 -2.637655e+000 -1.102891e+001 152 94 51
3.826793e+000 -2.758124e+000 -1.279276e+001 107 92 85
-3.147986e+000 -1.025710e+000 -8.002976e+000 198 111 67
-3.548435e+000 -8.068854e-001 -8.065496e+000 168 146 108
-3.569558e+000 -7.402337e-001 -8.152511e+000 124 104 70
-3.505294e+000 -1.036197e+000 -8.074820e+000 114 77 66
6.619037e-001 -2.184265e+000 -1.132213e+001 221 180 126
2.247598e+000 -3.245256e+000 -1.183306e+001 91 74 64
-3.294727e+000 -1.522902e+000 -8.705488e+000 223 215 206
-1.860744e+000 -1.811080e+000 -9.829469e+000 77 22 27
9.333485e-001 -2.882557e+000 -1.201841e+001 217 189 119
1.134671e+000 -2.924589e+000 -1.179546e+001 214 206 210
1.134671e+000 -2.924589e+000 -1.179546e+001 214 206 210
7.972021e-001 -3.302436e+000 -1.236374e+001 213 142 86
1.317240e-001 -2.956173e+000 -1.315468e+001 190 121 57
-1.025062e+000 -1.803566e+000 -1.383441e+001 197 121 64
-7.319635e-001 -2.039642e+000 -1.403883e+001 237 170 127
-2.893650e-001 -2.585205e+000 -1.357326e+001 255 228 201
-1.419002e-001 -2.664866e+000 -1.358147e+001 196 124 64
4.388945e+000 -1.912576e+000 -9.688420e+000 121 100 68
3.213135e+000 -2.405380e+000 -9.007988e+000 208 127 61
9.667389e-001 -7.632406e-001 -8.958027e+000 228 228 218
2.653147e+000 -2.442371e+000 -1.008038e+001 106 47 36
4.943957e+000 -2.127104e+000 -1.172500e+001 124 108 106
4.906575e+000 -2.093833e+000 -1.174743e+001 99 80 74
2.534405e+000 -2.349951e+000 -1.022265e+001 79 31 19
-1.440068e+000 -9.186263e-001 -8.198633e+000 190 76 76
-1.440068e+000 -9.186263e-001 -8.198633e+000 190 76 76
-1.403912e+000 -1.356979e+000 -8.601683e+000 159 77 54
-2.383689e-001 -1.171360e+000 -9.836198e+000 45 35 33
1.672851e+000 -2.491936e+000 -1.072722e+001 114 62 41
1.705969e+000 -2.590282e+000 -1.069465e+001 205 72 74
2.223096e+000 -3.338004e+000 -1.059412e+001 252 220 187
-2.979757e+000 -9.082941e-001 -7.959189e+000 186 105 67
-3.010206e+000 -9.267491e-001 -7.993860e+000 169 86 52
4.616695e-001 -1.539650e+000 -1.060724e+001 113 89 79
-3.342466e+000 -7.201086e-001 -7.984267e+000 135 109 83
-2.709397e+000 -1.418338e+000 -8.298356e+000 81 42 37
-1.049897e+000 -1.846394e+000 -9.407873e+000 115 76 73
-3.654879e+000 -6.493053e-001 -8.172956e+000 83 62 43
-3.654879e+000 -6.493053e-001 -8.172956e+000 83 62 43
-3.740231e+000 -6.442223e-001 -8.194655e+000 87 70 51
-3.525488e+000 -7.689964e-001 -8.142118e+000 151 122 89
2.215211e-001 -1.830482e+000 -1.098627e+001 172 167 154
1.679237e+000 -3.014743e+000 -1.130524e+001 179 84 48
1.574166e+000 -3.182490e+000 -1.137786e+001 157 68 49
2.368881e+000 -3.162166e+000 -1.213601e+001 100 86 73
2.368881e+000 -3.162166e+000 -1.213601e+001 100 86 73
-2.955820e+000 -1.542830e+000 -8.771478e+000 156 89 58
-2.539991e+000 -1.548125e+000 -9.151217e+000 146 60 33
-2.245621e+000 -1.554862e+000 -9.388847e+000 96 34 25
-1.945822e+000 -1.629406e+000 -9.637946e+000 119 60 41
1.236401e+000 -2.936574e+000 -1.176961e+001 219 211 211
-2.472836e+000 -1.499605e+000 -1.026586e+001 172 88 53
5.529371e-001 -3.264802e+000 -1.259257e+001 246 188 149
-9.954152e-001 -1.249557e+000 -1.399294e+001 181 64 40
3.153172e-001 -3.228973e+000 -1.285216e+001 99 57 32
1.873399e+000 1.604968e+000 -9.215993e+000 218 215 208
2.020356e+000 5.101207e-001 -9.446042e+000 183 179 167
3.304029e+000 -2.068022e+000 -9.052829e+000 169 74 54
5.196938e+000 -1.943256e+000 -1.192501e+001 94 76 73
-1.766157e-001 -7.392826e-001 -9.162539e+000 133 129 120
2.031433e+000 -2.176652e+000 -9.977665e+000 219 204 146
2.599179e+000 -2.427678e+000 -1.006129e+001 122 86 47
2.565339e+000 -2.570856e+000 -1.015561e+001 98 33 29
-4.876249e-001 -1.199338e+000 -8.860531e+000 145 137 126
-2.256721e-002 -1.221019e+000 -9.212538e+000 113 109 99
-1.406807e+000 -1.155893e+000 -8.376621e+000 142 79 62
-3.631898e-001 -1.154404e+000 -9.842502e+000 71 55 39
-2.538933e+000 -8.071520e-001 -8.257571e+000 112 80 64
-1.315638e+000 -1.632324e+000 -8.781223e+000 231 190 145
-6.924294e-001 -1.501349e+000 -9.505592e+000 92 79 71
4.283643e-001 -1.657751e+000 -1.071047e+001 125 50 44
3.999148e+000 -2.679386e+000 -1.289406e+001 125 110 105
3.809704e+000 -2.734329e+000 -1.272603e+001 66 47 42
3.926751e+000 -2.751257e+000 -1.301627e+001 99 83 79
5.266077e+000 -2.343735e+000 -1.439900e+001 156 146 137
-3.333123e+000 -8.719673e-001 -8.044328e+000 100 56 57
-1.064953e+000 -1.818481e+000 -9.232481e+000 144 85 70
1.877568e+000 -3.378997e+000 -1.100637e+001 215 135 77
-3.395683e+000 -9.395569e-001 -8.137870e+000 93 50 47
-2.012991e+000 -1.371432e+000 -9.109769e+000 131 66 43
-3.729107e+000 -9.631318e-001 -8.159508e+000 167 144 92
-3.149969e+000 -1.416568e+000 -8.692691e+000 170 91 58
-1.318351e+000 -1.626191e+000 -1.037387e+001 109 57 45
-1.580688e+000 -1.917172e+000 -1.007916e+001 127 70 50
-1.355619e+000 -1.739820e+000 -1.055291e+001 240 242 237
-2.598366e+000 -1.847321e+000 -9.697430e+000 154 81 52
-2.525122e+000 -1.610356e+000 -9.858507e+000 199 116 68
2.267050e-001 -3.020043e+000 -1.230369e+001 147 109 75
-1.256959e+000 -1.031422e+000 -1.433113e+001 189 80 50
-2.040543e+000 -5.500966e-001 -1.500340e+001 219 219 217
2.662625e+000 3.037650e-001 -8.770268e+000 202 189 144
2.527795e+000 6.030073e-002 -8.844982e+000 254 251 192
4.380664e+000 -1.832076e+000 -9.703614e+000 140 120 93
3.337938e+000 -2.029042e+000 -9.280555e+000 221 171 91
1.897681e+000 2.620457e-001 -9.372241e+000 234 231 223
4.825432e+000 -1.792838e+000 -1.055364e+001 86 76 63
-3.478530e-002 -6.234898e-001 -9.238788e+000 132 125 115
2.590131e+000 -2.386516e+000 -1.018664e+001 111 76 36
2.480034e+000 -2.438026e+000 -1.028286e+001 81 30 23
4.693629e+000 -2.180578e+000 -1.198231e+001 126 109 106
-5.249799e-001 -9.704753e-001 -8.824524e+000 129 120 113
-1.297239e-001 -7.974839e-001 -9.186660e+000 151 148 139
2.197245e+000 -2.406904e+000 -1.042026e+001 71 29 17
-1.907600e+000 -3.164190e-001 -8.680555e+000 222 222 221
-1.400225e+000 -1.418733e+000 -8.639844e+000 225 137 95
1.926623e+000 -2.586191e+000 -1.089088e+001 92 31 31
-3.399378e+000 -6.347959e-001 -7.941662e+000 182 162 122
9.540742e-002 -1.538704e+000 -1.039586e+001 135 129 117
4.358714e+000 -2.487338e+000 -1.336882e+001 92 79 73
4.733730e+000 -2.439194e+000 -1.373794e+001 143 137 125
5.118741e-001 -1.701411e+000 -1.082556e+001 131 85 62
-2.899745e+000 -1.554584e+000 -8.534793e+000 126 67 48
-2.899745e+000 -1.554584e+000 -8.534793e+000 126 67 48
9.783785e-001 -2.570675e+000 -1.158996e+001 124 33 32
1.317504e+000 -2.998457e+000 -1.156895e+001 213 167 90
-3.237345e+000 -1.355360e+000 -8.767845e+000 132 58 43
-2.706302e+000 -1.277763e+000 -9.606339e+000 161 80 54
-1.024250e+000 9.027587e-003 -1.292238e+001 207 202 192
5.475117e-001 -3.190802e+000 -1.256870e+001 193 116 58
-1.413601e+000 -1.130458e+000 -1.434232e+001 188 114 69
2.320228e+000 -1.232924e+000 -9.032577e+000 192 183 166
2.320228e+000 -1.232924e+000 -9.032577e+000 192 183 166
5.985736e+000 -1.611206e+000 -1.261149e+001 95 79 67
-5.706590e-001 -1.200451e+000 -8.786974e+000 152 143 134
-3.145013e-001 -1.236112e+000 -9.026650e+000 104 100 91
2.436347e+000 -2.501312e+000 -1.034182e+001 106 77 52
2.439330e+000 -2.501380e+000 -1.034665e+001 106 77 52
4.970073e+000 -2.274624e+000 -1.269620e+001 123 111 94
-1.993724e+000 -4.781548e-001 -8.517884e+000 130 75 45
1.269220e+000 -1.647510e+000 -1.070084e+001 151 108 74
1.266855e+000 -1.650484e+000 -1.069746e+001 151 108 74
-3.574272e+000 -5.010232e-001 -8.085710e+000 214 211 201
-3.550585e+000 -5.988842e-001 -8.024767e+000 214 211 201
-2.290078e+000 -1.434389e+000 -8.649654e+000 115 69 53
-1.926580e+000 -1.389526e+000 -9.133490e+000 164 123 95
-1.504169e+000 -1.561789e+000 -9.204820e+000 181 127 80
-3.634028e+000 -7.274358e-001 -8.196798e+000 180 161 106
-3.618136e+000 -9.873312e-001 -8.240466e+000 210 205 196
-3.360359e+000 -1.556891e+000 -8.569736e+000 224 220 219
-2.618925e+000 -1.428516e+000 -9.302581e+000 180 94 65
-1.672190e+000 -1.915331e+000 -9.785581e+000 194 187 183
-7.811957e-001 -1.595580e+000 -1.346603e+001 123 54 34
-1.084136e+000 -1.781199e+000 -1.390614e+001 207 151 117
-2.018733e+000 -5.392573e-001 -1.480757e+001 93 37 40
2.461210e+000 9.843658e-001 -9.113766e+000 240 236 224
4.430252e+000 -1.903611e+000 -9.794296e+000 135 116 86
2.165472e+000 -8.956291e-002 -9.054865e+000 201 193 146
7.230224e-001 -6.987887e-001 -9.117970e+000 217 217 210
9.072410e-001 -7.668383e-001 -9.025310e+000 223 221 213
2.405635e-001 -8.503306e-001 -9.061905e+000 180 177 168
-6.985233e-001 -1.285841e+000 -8.758568e+000 104 93 85
1.516954e+000 -1.496312e+000 -1.090250e+001 61 39 28
2.230427e+000 -2.671917e+000 -1.055294e+001 75 25 25
-1.380986e-001 -1.190653e+000 -1.001512e+001 43 22 27
-6.394542e-001 -1.347208e+000 -9.813666e+000 100 91 86
-9.204326e-001 -1.678888e+000 -9.636790e+000 107 47 46
5.167907e-001 -1.776216e+000 -1.109296e+001 150 114 92
-1.688099e+000 -1.510802e+000 -9.337979e+000 171 128 92
-2.771645e+000 -1.495193e+000 -8.693537e+000 103 50 36
-2.086420e+000 -1.632679e+000 -9.483037e+000 122 60 39
-1.724446e+000 -1.839665e+000 -9.988090e+000 83 34 29
-9.535950e-001 -2.269868e-001 -1.228398e+001 212 205 197
1.940527e+000 8.391711e-001 -9.342790e+000 188 182 168
5.013920e+000 -2.052341e+000 -1.164250e+001 94 74 73
2.065601e+000 -1.638953e+000 -1.038717e+001 182 54 53
-2.228429e-001 -9.332886e-001 -9.119166e+000 150 143 138
-1.662676e-002 -1.091796e+000 -9.240175e+000 130 125 119
-5.571054e-001 -1.349067e+000 -8.869766e+000 96 82 67
-6.482147e-001 -1.481632e+000 -8.901247e+000 128 115 106
-2.115234e+000 -5.976132e-001 -8.562809e+000 224 224 219
-9.084614e-001 -1.848832e+000 -9.275130e+000 122 113 104
6.371196e-001 -1.816768e+000 -1.091368e+001 189 152 110
-2.177029e+000 -1.448300e+000 -9.063430e+000 76 26 23
-3.360217e-001 -1.409544e+000 -1.301566e+001 238 241 234
2.629611e+000 -2.805948e+000 -1.007354e+001 87 31 24
-1.687986e+000 -7.067580e-001 -8.430886e+000 149 138 128
1.874735e+000 -2.557386e+000 -1.085801e+001 78 30 20
3.008896e-001 -1.570086e+000 -1.043212e+001 61 36 32
3.008896e-001 -1.570086e+000 -1.043212e+001 61 36 32
-2.137862e+000 -1.344891e+000 -8.750149e+000 112 71 53
4.176219e-001 -1.682085e+000 -1.101032e+001 120 70 59
-3.277640e-001 -1.353503e+000 -1.123453e+001 145 136 121
-3.688729e-001 -1.524698e+000 -1.103074e+001 145 136 121
1.223257e+000 -2.870990e+000 -1.174275e+001 215 204 211
-2.131225e+000 -5.596048e-001 -1.437441e+001 234 227 219
-2.131225e+000 -5.596048e-001 -1.437441e+001 234 227 219
-1.864685e+000 -8.994781e-001 -1.410661e+001 92 32 33
-1.864685e+000 -8.994781e-001 -1.410661e+001 92 32 33
2.501105e+000 6.066103e-001 -8.723580e+000 128 122 90
3.534068e+000 -1.690768e+000 -9.017843e+000 100 52 42
2.988887e+000 -1.997992e+000 -9.236116e+000 93 55 37
-1.144952e+000 -1.956678e-002 -8.731238e+000 95 43 37
2.046387e+000 -2.260480e+000 -1.001915e+001 197 183 126
-2.463521e+000 -8.342684e-001 -8.297413e+000 82 61 51
4.305027e+000 -2.345006e+000 -1.489458e+001 168 153 133
1.097781e+000 4.149788e+000 -1.119939e+001 249 249 239
2.837774e+000 -2.573833e+000 -9.816762e+000 109 60 42
-3.249695e+000 -1.499677e+000 -8.516985e+000 186 111 71
-1.485894e+000 -1.714559e+000 -1.040172e+001 95 47 37
-1.489309e+000 -1.847167e+000 -1.025558e+001 95 47 37
3.174769e+000 -1.660300e+000 -8.902448e+000 226 222 211
9.348745e-001 -1.104121e+000 -8.920523e+000 225 224 219
2.041010e+000 -2.797041e+000 -1.080618e+001 167 97 59
6.854279e-001 -2.094424e+000 -1.110046e+001 239 201 155
-2.330727e+000 2.183760e-001 -1.397295e+001 218 79 86
2.182071e+000 -2.372414e+000 -9.318762e+000 152 51 51
1.454680e+000 -1.678393e+000 -9.750626e+000 207 203 196
-2.167832e+000 -6.501230e-001 -8.239798e+000 219 215 212
-1.159096e+000 -1.866629e+000 -9.480213e+000 108 86 75
-3.032038e+000 -1.255455e+000 -9.694171e+000 226 222 223
-3.570084e-001 -1.225249e+000 -1.003268e+001 43 23 25
-3.987146e-001 -1.426500e+000 -9.829904e+000 43 23 25
1.468899e+000 -2.546799e+000 -1.012537e+001 84 67 41
1.724376e+000 5.030534e+000 -1.034936e+001 128 69 69
3.612159e+000 -1.702857e+000 -9.278549e+000 177 94 39
3.612159e+000 -1.702857e+000 -9.278549e+000 177 94 39
2.866960e+000 -2.728318e+000 -8.397296e+000 211 132 71
3.231860e+000 -2.581129e+000 -9.790199e+000 148 92 57
-2.924327e+000 -7.533761e-001 -7.952869e+000 153 86 65
3.291460e+000 -2.778902e+000 -1.216606e+001 94 81 75
4.452801e+000 -2.524849e+000 -1.341354e+001 128 117 111
1.697170e+000 -2.831763e+000 -1.114771e+001 186 88 51
1.082022e+000 -2.975829e+000 -1.171069e+001 214 190 180
3.870772e+000 -2.056865e+000 -9.421061e+000 102 85 67
1.205608e+000 1.376613e+000 -9.680568e+000 224 221 214
1.205608e+000 1.376613e+000 -9.680568e+000 224 221 214
3.282278e+000 -2.527372e+000 -9.616114e+000 140 82 47
2.073470e+000 -2.046810e+000 -1.006479e+001 108 74 44
4.942376e+000 -2.106563e+000 -1.228941e+001 124 106 102
2.999096e+000 -2.986656e+000 -1.094547e+001 91 75 63
3.109794e+000 -2.937411e+000 -1.112262e+001 99 83 70
3.410402e+000 -2.710782e+000 -1.228873e+001 137 124 122
-1.060387e+000 -1.837203e+000 -9.267801e+000 90 27 20
1.359838e+000 -3.614020e+000 -1.141878e+001 182 120 78
1.289007e+000 4.945462e+000 -1.040231e+001 194 118 59
3.139964e+000 -2.539198e+000 -9.732891e+000 191 145 119
5.304689e+000 -1.758654e+000 -1.179730e+001 118 102 92
-4.824031e-001 -1.174721e+000 -9.544759e+000 85 74 65
2.270789e+000 -3.316028e+000 -1.068999e+001 165 92 48
2.940330e+000 -2.996647e+000 -1.154204e+001 145 131 120
3.662584e+000 -2.759124e+000 -1.261612e+001 78 59 55
1.810828e+000 -2.989968e+000 -1.107356e+001 224 167 84
-1.256859e-001 -1.698327e+000 -1.189929e+001 239 236 225
2.133772e-001 -3.402309e+000 -1.239410e+001 187 116 66
4.918524e+000 -2.083632e+000 -1.176329e+001 104 84 81
2.724173e+000 -2.468433e+000 -1.020376e+001 110 71 31
1.947671e+000 -1.506513e+000 -1.067284e+001 86 43 32
2.416045e+000 -2.634922e+000 -1.033453e+001 76 34 19
-1.266984e+000 -1.478421e+000 -8.587180e+000 136 54 43
3.926389e+000 -2.543723e+000 -1.246296e+001 156 145 143
3.391634e+000 -2.793643e+000 -1.200222e+001 137 126 123
-2.605154e+000 -1.344558e+000 -8.279225e+000 138 111 97
2.149916e+000 -3.341320e+000 -1.092154e+001 171 103 50
9.593166e-001 -3.570737e+000 -1.170514e+001 252 233 206
-1.155957e+000 -1.778850e+000 -1.357482e+001 199 111 50
4.601047e+000 -1.469830e+000 -9.726985e+000 147 127 102
3.334449e+000 -2.547807e+000 -9.746822e+000 103 55 35
3.197226e+000 -2.567510e+000 -9.700638e+000 135 76 43
2.830719e+000 -2.268417e+000 -1.039307e+001 142 106 68
2.848563e+000 -2.783170e+000 -9.935926e+000 137 74 33
2.877650e+000 -2.918270e+000 -9.866703e+000 180 113 61
-2.102558e-003 -9.345015e-001 -9.195714e+000 117 108 101
1.880556e+000 -1.433456e+000 -1.069906e+001 86 37 30
-1.256370e+000 -1.290958e+000 -8.379251e+000 161 147 139
3.219562e+000 -2.891364e+000 -1.122766e+001 141 128 112
2.387785e+000 -3.157977e+000 -1.055608e+001 202 123 64
-8.919213e-001 -1.700988e+000 -9.616857e+000 84 39 34
1.611455e+000 -3.199729e+000 -1.123588e+001 224 176 86
8.754172e-001 -3.593867e+000 -1.171462e+001 250 220 194
-5.399312e-002 -1.057993e+000 -9.295604e+000 145 141 135
2.983661e+000 -3.042878e+000 -1.126893e+001 145 131 118
2.317952e+000 -3.147429e+000 -1.078392e+001 201 123 61
2.115489e+000 -3.303505e+000 -1.072616e+001 209 129 63
4.350878e+000 -2.627163e+000 -1.346620e+001 112 99 93
-3.552894e+000 -8.153722e-001 -8.001608e+000 179 160 112
-4.561539e-001 -2.532321e+000 -1.278891e+001 229 186 55
1.710018e+000 -2.756536e+000 -1.034409e+001 106 75 49
2.104890e+000 1.882154e-002 -9.244313e+000 198 189 148
1.455099e+000 3.011321e+000 -1.040624e+001 220 216 205
2.312179e+000 -3.601436e+000 -9.791813e+000 129 112 104
8.465512e-001 -2.661724e+000 -1.186842e+001 205 69 72
1.167398e+000 5.806401e-001 -9.731094e+000 230 228 221
3.771863e+000 -2.824032e+000 -1.291265e+001 109 94 91
-1.916719e+000 -1.851890e+000 -9.231991e+000 95 43 31
-3.147166e+000 -1.586717e+000 -8.508354e+000 99 38 35
-5.169372e-001 -1.087045e+000 -1.218730e+001 87 27 33
2.191997e+000 -3.502056e-001 -9.212460e+000 236 233 224
3.736798e+000 -1.744575e+000 -8.996212e+000 231 168 128
-2.914719e+000 -1.581590e+000 -8.671963e+000 100 41 28
-9.131048e-001 -1.015839e+000 -8.703346e+000 125 116 107
-1.510955e+000 -1.406981e+000 -8.868332e+000 221 182 139
-1.510955e+000 -1.406981e+000 -8.868332e+000 221 182 139
6.904820e+000 -8.924585e-001 -1.282588e+001 105 84 60
3.018259e+000 -2.049707e+000 -9.985932e+000 230 199 144
3.018259e+000 -2.049707e+000 -9.985932e+000 230 199 144
3.399734e-002 -3.373797e-001 -9.302595e+000 147 144 133
-2.090858e+000 -8.570884e-001 -8.630491e+000 116 58 47
7.784910e+000 5.463865e-001 -1.244107e+001 94 80 68
2.434572e+000 -2.319483e+000 -1.075997e+001 92 55 34
3.796505e+000 -2.735204e+000 -1.192816e+001 145 134 132
-1.364642e+000 -1.485549e+000 -1.156641e+001 242 244 233
6.561500e-001 -3.318658e+000 -1.249974e+001 245 192 149
6.561500e-001 -3.318658e+000 -1.249974e+001 245 192 149
8.023029e-001 -3.379870e+000 -1.232716e+001 236 166 124
8.023029e-001 -3.379870e+000 -1.232716e+001 236 166 124
7.254674e-001 -3.098487e+000 -1.216877e+001 195 149 131
8.847900e-001 -3.463778e+000 -1.212581e+001 253 188 142
9.355317e-001 -3.370155e+000 -1.228615e+001 199 119 58
6.274053e-001 -3.322284e+000 -1.245035e+001 207 126 71
9.518337e-001 -3.397156e+000 -1.236236e+001 197 120 57
2.300071e-001 -2.729999e+000 -1.176402e+001 157 127 116
1.476603e+000 -3.603794e+000 -1.123967e+001 193 128 80
3.324731e+000 -2.355957e+000 -1.665866e+001 200 192 190
3.717095e+000 -2.468884e+000 -1.625064e+001 188 182 182
8.248708e-001 -1.617999e+000 -1.102500e+001 146 97 59
9.937304e-001 -2.568510e+000 -1.157961e+001 145 30 31
2.962140e+000 -3.055049e+000 -1.088486e+001 123 109 98
3.108885e+000 -3.015715e+000 -1.085020e+001 164 154 142
2.778443e+000 -3.091376e+000 -1.095291e+001 172 159 147
1.558537e+000 -3.406262e+000 -1.133717e+001 214 132 64
-9.178774e-002 -1.711680e+000 -1.113941e+001 232 229 220
8.595541e-001 -3.173009e+000 -1.187259e+001 203 156 129
1.526226e+000 -1.459137e+000 -1.096635e+001 65 41 27
1.016628e+000 -3.301432e+000 -1.190707e+001 193 111 47
1.602465e+000 -3.288449e+000 -1.135917e+001 202 121 48
1.193964e+000 -3.198166e+000 -1.172166e+001 188 91 63
-2.458098e+000 2.867444e+001 -2.155814e+001 204 199 196
2.013702e+000 -3.661728e-001 -9.146328e+000 160 154 124
5.095337e+000 -1.601440e+000 -1.088288e+001 92 75 55
5.269885e+000 -2.005978e+000 -1.204017e+001 102 99 94
4.567141e+000 -2.348815e+000 -1.173763e+001 118 99 93
8.717686e-001 -1.495692e+000 -1.036667e+001 114 66 52
2.227373e+000 -3.400112e+000 -1.050427e+001 158 89 37
3.196394e+000 -2.960893e+000 -1.157086e+001 125 114 104
3.526819e+000 -2.810894e+000 -1.187009e+001 118 108 110
1.850232e+000 -2.724410e+000 -1.101255e+001 173 100 48
1.966250e+000 -3.036649e+000 -1.086171e+001 139 63 40
2.043563e+000 -3.461322e+000 -1.072774e+001 175 106 54
-1.044369e+000 -1.841085e+000 -9.311577e+000 166 54 57
1.650265e+000 -2.879413e+000 -1.132472e+001 224 173 95
1.696878e+000 -3.243765e+000 -1.106079e+001 190 98 44
1.881460e+000 -3.443455e+000 -1.088303e+001 252 253 247
1.392990e+000 -2.917096e+000 -1.152096e+001 197 124 65
8.026298e-001 -2.573989e+000 -1.161397e+001 176 75 65
8.700872e-001 -2.671461e+000 -1.202911e+001 103 64 59
8.647645e-001 -2.637273e+000 -1.211217e+001 137 124 130
8.047468e-001 -2.682749e+000 -1.217712e+001 175 153 150
3.664648e+000 -2.435733e+000 -1.621849e+001 210 203 197
4.455012e-001 -3.249146e+000 -1.262735e+001 248 204 166
4.636469e-001 -3.314686e+000 -1.254404e+001 239 178 135
-1.090424e+000 -1.414120e+000 -1.429154e+001 236 172 126
3.303041e+000 -2.072999e+000 -9.317595e+000 196 96 61
5.112401e+000 -1.937337e+000 -1.155125e+001 118 104 92
2.618597e+000 -2.117526e+000 -1.007248e+001 129 75 39
4.873311e+000 -2.182718e+000 -1.175670e+001 114 98 96
4.914551e+000 -2.156721e+000 -1.195821e+001 94 81 75
1.754299e+000 -1.630512e+000 -1.062098e+001 117 95 66
2.403013e+000 -2.976187e+000 -1.026507e+001 207 156 73
2.915668e+000 -3.075532e+000 -1.080852e+001 82 68 57
2.909547e+000 -3.082912e+000 -1.079889e+001 82 68 57
5.751655e+000 -2.569349e+000 -1.369090e+001 150 139 137
-1.244859e+000 -1.555057e+000 -8.670637e+000 150 79 57
-1.241630e+000 -1.560605e+000 -8.666939e+000 150 79 57
2.009717e+000 -2.814764e+000 -1.083546e+001 183 132 63
2.193840e+000 -3.416712e+000 -1.053402e+001 165 97 47
1.216533e+000 -1.832244e+000 -1.096137e+001 141 89 65
1.927200e+000 -2.778702e+000 -1.091183e+001 215 184 111
2.609541e+000 -3.201591e+000 -1.144824e+001 94 81 63
6.706490e-001 -2.317302e+000 -1.129614e+001 219 175 122
1.360210e+000 -2.829952e+000 -1.149239e+001 200 151 81
3.790391e-001 -2.279480e+000 -1.160109e+001 136 94 77
1.617150e-001 -2.787762e+000 -1.126235e+001 160 129 118
9.192288e-001 -2.662490e+000 -1.203169e+001 79 41 41
7.250872e-001 -2.555382e+000 -1.221888e+001 50 36 33
8.771836e-001 -2.746974e+000 -1.428404e+001 220 213 203
-1.150888e+000 -1.255348e+000 -1.438337e+001 239 174 136
-1.150888e+000 -1.255348e+000 -1.438337e+001 239 174 136
2.390645e+000 4.786179e+000 -9.557160e+000 205 137 77
1.696012e+000 5.300939e+000 -1.057052e+001 107 77 72
2.230359e+000 3.400124e-001 -9.043040e+000 141 132 92
5.137029e+000 -1.911758e+000 -1.163113e+001 85 73 67
5.480260e+000 -1.973164e+000 -1.197772e+001 100 83 76
5.239304e+000 -1.927054e+000 -1.207110e+001 92 78 75
4.643969e+000 -2.292308e+000 -1.172826e+001 122 109 102
4.643969e+000 -2.292308e+000 -1.172826e+001 122 109 102
5.464597e+000 -1.929460e+000 -1.213541e+001 112 102 101
5.793290e+000 -1.875815e+000 -1.267153e+001 107 91 83
-1.022431e+000 -1.338456e-002 -8.733545e+000 110 64 55
2.243234e+000 -2.883093e+000 -1.048297e+001 137 50 49
5.635619e+000 -2.125601e+000 -1.410715e+001 113 98 82
1.814901e+000 -2.837024e+000 -1.102075e+001 189 108 56
-1.207025e+000 -1.698871e+000 -9.381316e+000 128 71 47
1.703519e+000 -2.860538e+000 -1.116254e+001 220 164 79
2.531718e+000 -3.188165e+000 -1.174611e+001 165 148 132
1.215267e+000 -2.989937e+000 -1.169367e+001 221 206 198
3.607542e+000 -2.370525e+000 -1.649055e+001 189 184 178
3.607542e+000 -2.370525e+000 -1.649055e+001 189 184 178
2.941160e+000 -2.193105e+000 -1.709342e+001 191 184 182
8.214487e-001 -2.627729e+000 -1.434844e+001 171 164 157
-1.242026e-001 -2.780592e+000 -1.336031e+001 253 242 229
2.104427e+000 -1.951472e+000 -1.787322e+001 187 182 179
2.104427e+000 -1.951472e+000 -1.787322e+001 187 182 179
1.777499e+000 -1.723667e+000 -1.844303e+001 192 185 180
4.705671e+000 -1.399936e+000 -9.480797e+000 138 122 107
5.396018e+000 -1.960727e+000 -1.213610e+001 86 82 78
5.907410e+000 -1.722053e+000 -1.304425e+001 88 67 64
5.997570e+000 -1.831355e+000 -1.278969e+001 87 69 60
5.997570e+000 -1.831355e+000 -1.278969e+001 87 69 60
2.352079e+000 -2.909068e+000 -1.021525e+001 133 69 40
5.444363e+000 -2.206016e+000 -1.340918e+001 121 99 86
1.460996e+000 -1.858137e+000 -1.117246e+001 87 40 27
2.673446e+000 -3.164127e+000 -1.145801e+001 142 128 113
2.392762e+000 -3.274118e+000 -1.155963e+001 81 61 54
4.609843e+000 -2.117411e+000 -1.542731e+001 152 138 119
5.856507e-001 -2.254675e+000 -1.165297e+001 89 24 22
1.422839e+000 -3.069005e+000 -1.143163e+001 182 84 53
1.129542e+000 -3.475188e+000 -1.171760e+001 211 127 61
1.057697e+000 -3.405455e+000 -1.203396e+001 254 241 202
1.025675e+000 -2.673499e+000 -1.419549e+001 155 145 136
4.584098e+000 -1.652342e+000 -9.546978e+000 129 113 97
4.569288e-001 5.486483e+000 -1.193466e+001 133 67 65
2.393852e+000 -2.234778e+000 -1.036817e+001 70 25 19
-3.415852e-001 -1.130937e+000 -9.952738e+000 47 32 28
2.793415e+000 -3.147107e+000 -1.125391e+001 133 119 106
-3.469163e+000 -6.589577e-001 -8.089102e+000 181 160 115
-2.750558e+000 -1.397666e+000 -8.362055e+000 61 38 34
-2.752550e+000 -1.533313e+000 -8.708850e+000 100 51 34
4.394119e+000 -2.208820e+000 -1.528861e+001 153 142 120
4.396339e+000 -2.216633e+000 -1.543441e+001 199 190 174
2.538445e+000 9.827043e-001 -8.778158e+000 242 239 232
4.361227e+000 -1.673630e+000 -9.354405e+000 162 149 133
2.008326e+000 1.762271e+001 -1.699922e+001 198 195 191
1.075971e+000 -3.800169e-001 -9.167085e+000 172 169 158
2.263858e+000 -1.793083e+000 -1.010113e+001 185 57 58
-2.437801e+000 -7.307858e-001 -8.016008e+000 80 48 47
2.058277e+000 -2.527385e+000 -1.075651e+001 92 54 38
2.932424e-001 -1.555836e+000 -1.059641e+001 136 122 110
3.107193e+000 -2.956338e+000 -1.180936e+001 135 122 113
1.707045e+000 -3.131664e+000 -1.117635e+001 225 176 89
2.619789e+000 -3.141775e+000 -1.175266e+001 158 143 130
-2.570459e+000 -1.377160e+000 -8.834726e+000 79 25 24
-1.020185e+000 -2.322257e-003 -1.291350e+001 207 202 192
3.445899e+000 -1.483065e+000 -8.608846e+000 173 138 126
2.137705e+000 -1.904153e+000 -1.005565e+001 198 67 65
2.313028e+000 -2.874603e+000 -1.047367e+001 122 42 40
-1.845368e+000 -1.642038e+000 -9.800076e+000 49 27 26
9.043099e-001 -2.578475e+000 -1.202575e+001 207 71 75
-2.017197e+000 -5.121298e-001 -1.484528e+001 93 37 40
1.482558e+000 5.037638e+000 -1.046176e+001 199 176 157
1.805883e+000 9.446373e-001 -9.307397e+000 202 196 182
2.047538e+000 -1.136092e-001 -9.146336e+000 189 180 138
-8.977658e-001 6.913563e-002 -8.908361e+000 225 224 222
-1.938368e+000 -1.126017e+000 -8.608263e+000 118 62 46
2.082424e+000 3.958770e+000 -9.651762e+000 243 236 228
1.672528e+000 1.083467e+000 -9.217007e+000 246 243 236
1.658642e+000 1.047214e+000 -9.197225e+000 246 243 236
3.575082e+000 -1.734815e+000 -1.619551e+001 230 220 208
-8.650355e-001 -1.763280e+000 -8.758127e+000 113 104 96
2.203085e+000 -3.048302e+000 -1.079467e+001 181 100 34
-6.329937e-001 -5.115971e-001 -1.284319e+001 239 234 217
5.641728e+000 -1.771255e+000 -1.208531e+001 117 108 103
1.841212e+000 3.570384e+000 -1.005765e+001 246 242 231
-8.996068e-001 -1.117443e+000 -8.655409e+000 127 116 110
1.904039e+000 -1.893617e+000 -1.086240e+001 76 62 36
4.583465e+000 -2.576724e+000 -1.407549e+001 144 128 105
-1.057933e+000 -9.015841e-001 -1.121286e+001 244 240 231
-1.057933e+000 -9.015841e-001 -1.121286e+001 244 240 231
2.904576e+000 -2.148445e+000 -9.857209e+000 224 195 134
2.904576e+000 -2.148445e+000 -9.857209e+000 224 195 134
2.430117e+000 -2.288590e+000 -1.015157e+001 62 22 25
2.551669e+000 -2.115599e+000 -1.032989e+001 62 22 25
-2.052445e+000 -8.836683e-001 -8.661954e+000 108 54 42
3.688891e+000 -2.118975e+000 -1.000383e+001 109 59 29
3.232516e-001 1.131810e+000 -9.760408e+000 244 244 234
-1.598244e+000 -2.083465e-001 -8.561920e+000 210 185 175
3.235168e+000 -2.172570e+000 -9.270332e+000 212 119 76
-3.511100e+000 -6.975750e-001 -8.098508e+000 168 146 106
-2.739893e+000 -1.226395e+000 -8.263315e+000 79 47 34
1.833311e+000 -3.066747e+000 -1.099096e+001 214 155 81
-1.182270e+000 -1.788938e+000 -9.443828e+000 144 51 48
9.767637e-001 -2.713639e+000 -1.428205e+001 186 179 169
1.481686e-001 -3.051558e+000 -1.299911e+001 253 232 197
4.692985e+000 -2.158404e+000 -1.135797e+001 127 108 99
9.888894e-001 -1.625240e+000 -1.046264e+001 133 95 64
4.170930e+000 -2.053025e+000 -1.563969e+001 193 180 164
3.098436e+000 -2.272089e+000 -1.687463e+001 183 174 172
2.652894e+000 -2.143739e+000 -1.730386e+001 184 179 175
-2.698507e+000 -1.415325e+000 -8.880314e+000 101 40 29
1.943982e+000 -1.751994e+000 -1.819536e+001 224 220 211
-3.618669e+000 -9.746056e-001 -8.235873e+000 206 199 187
-1.657425e+000 -1.673143e+000 -9.371231e+000 201 159 118
1.011444e+000 -3.134798e+000 -1.194760e+001 197 147 112
-1.897128e+000 -7.101987e-001 -1.463655e+001 222 218 216
1.127718e+000 -2.716640e+000 -1.185857e+001 67 39 45
1.389436e+000 -1.744203e+000 -1.163211e+001 105 42 35
3.359020e+000 -1.849847e+000 -9.314975e+000 209 148 68
-1.111519e+000 -1.786681e+000 -9.397032e+000 146 46 49
1.510687e+000 -2.779365e+000 -1.135918e+001 171 113 55
1.801261e+000 -3.007738e+000 -1.096804e+001 204 119 62
4.237053e+000 -2.657538e+000 -1.538557e+001 227 219 213
1.065956e+000 -3.034993e+000 -1.184000e+001 199 131 65
3.477554e+000 -2.503529e+000 -1.620293e+001 189 185 186
1.919674e+000 -2.088035e+000 -1.760958e+001 194 189 185
1.047323e+000 4.844446e+000 -1.092178e+001 213 78 81
2.454172e+000 -1.402589e+000 -9.248467e+000 222 219 210
-3.021431e+000 -1.039506e+000 -7.994192e+000 186 104 68
1.810931e+000 -2.930667e+000 -1.092914e+001 231 178 99
4.274655e+000 -1.809969e+000 -9.770495e+000 136 116 92
4.216220e+000 -1.865040e+000 -9.809759e+000 142 127 104
3.934189e+000 -2.046803e+000 -1.023796e+001 125 107 95
8.816936e-001 -3.400475e+000 -1.198487e+001 200 119 56
2.234644e+000 -2.888444e+000 -1.052209e+001 186 105 75
-2.493960e+000 -9.951994e-001 -8.298559e+000 59 45 45
1.790700e+000 -3.005247e+000 -1.099694e+001 216 151 84
-3.723736e+000 -9.161071e-001 -8.243546e+000 171 151 110
1.174977e+000 -3.046948e+000 -1.176658e+001 183 124 51
1.876622e+000 -5.100027e-001 -9.054994e+000 138 134 103
6.738144e-001 -1.719075e+000 -1.088074e+001 152 107 71
-2.610873e+000 -1.274343e+000 -8.346255e+000 135 114 97
-2.420549e+000 -1.531783e+000 -9.241407e+000 148 70 46
8.537529e-001 -2.823366e+000 -1.209552e+001 196 132 54
-2.441660e+000 -1.686526e+000 -9.441887e+000 186 92 54
1.921004e+000 -1.598241e+000 -9.372669e+000 178 174 163
2.305792e+000 -2.860808e+000 -1.037404e+001 114 47 39
1.827444e+000 -2.818814e+000 -1.095233e+001 206 151 68
-1.096143e+000 -1.813650e+000 -9.418060e+000 105 36 35
1.058513e+000 -3.406362e+000 -1.203326e+001 254 241 202
3.452023e+000 -1.743113e+000 -1.637824e+001 212 200 190
2.464439e+000 9.529362e-001 -9.124261e+000 241 237 225
4.807255e-001 3.751727e-001 -9.697786e+000 163 159 150
2.257072e+000 -2.412399e+000 -1.053210e+001 70 22 18
2.558656e-001 3.339312e+001 -1.845265e+001 200 196 195
1.883859e+000 -1.248016e+000 -9.292353e+000 153 145 132
1.638002e+000 -3.349573e+000 -1.111590e+001 210 116 52
-3.738491e+000 -3.718627e-001 -7.970212e+000 211 205 205
2.166001e+000 -2.858821e+000 -1.063132e+001 179 113 46
-3.327698e+000 -1.435668e+000 -8.496484e+000 90 50 49
-3.296190e+000 -1.376734e+000 -8.366440e+000 156 75 44
-1.230456e-002 -2.824353e+000 -1.310970e+001 192 107 50
2.459489e+000 6.243663e-001 -8.468320e+000 161 149 109
2.498492e+000 -2.929660e+000 -1.011697e+001 128 65 21
2.401587e+000 -2.621454e+000 -1.030937e+001 94 63 41
2.398547e+000 -3.271856e+000 -1.022729e+001 254 230 190
2.350200e+000 -3.302433e+000 -1.030856e+001 227 164 107
2.350200e+000 -3.302433e+000 -1.030856e+001 227 164 107
2.785778e+000 -2.732363e+000 -1.104715e+001 187 125 71
