ply
format ascii 1.0
element face 0
property list uchar int vertex_indices
element vertex 864
property float x
property float y
property float z
property uchar diffuse_red
property uchar diffuse_green
property uchar diffuse_blue
end_header
1.488179e+000 -3.166979e+000 -1.140355e+001 223 183 113
3.441056e+000 2.235324e+000 -8.018134e+000 122 107 78
3.164457e+000 1.837324e+000 -8.105908e+000 153 138 97
3.670307e+000 1.915552e+000 -7.492917e+000 161 143 97
-1.542845e+000 8.323237e-001 -1.392302e+001 225 220 204
2.471562e+000 1.288514e+000 -8.835432e+000 220 213 203
2.471562e+000 1.288514e+000 -8.835432e+000 220 213 203
-1.266561e+000 2.904498e-001 -1.052345e+001 250 243 239
-8.546851e-001 3.302983e-001 -9.770164e+000 205 198 190
2.288650e+000 6.160409e-001 -9.029175e+000 189 180 164
2.113467e+000 1.088667e-001 -9.299713e+000 138 124 100
-3.608019e+000 -4.393009e-001 -8.142918e+000 100 24 27
-2.119612e-001 -6.139904e-001 -9.416123e+000 152 142 132
2.587917e+000 -2.876683e-001 -8.883212e+000 190 181 164
1.088263e+000 -7.270753e-001 -9.084502e+000 69 58 42
-2.264417e+000 -1.233901e+000 -8.378415e+000 163 105 86
-1.555081e+000 -1.092994e+000 -8.363644e+000 227 194 149
-1.556818e+000 -1.092792e+000 -8.360895e+000 227 194 149
2.728352e-001 -1.696784e+000 -1.035370e+001 194 187 175
1.250458e+000 -2.971034e+000 -1.150455e+001 226 179 105
1.250404e+000 -2.949151e+000 -1.145267e+001 226 179 105
2.862518e+000 2.078590e+000 -8.746604e+000 238 230 219
-2.525632e+000 1.084696e+000 -1.490518e+001 236 98 98
3.000058e+000 5.179413e-001 -8.309099e+000 255 246 187
2.093207e+000 2.705661e-001 -9.391375e+000 167 154 136
3.282635e+000 4.244263e-001 -8.187842e+000 222 215 205
-1.097422e+000 -1.814193e-001 -8.760105e+000 113 52 36
3.525556e+000 -7.947156e-001 -8.276523e+000 209 90 88
1.765641e+000 2.151216e+000 -1.022287e+001 239 233 221
2.570543e+000 2.060816e+000 -8.905768e+000 229 225 213
2.013880e-001 1.231822e+000 -1.071394e+001 237 233 222
2.070698e-001 1.234441e+000 -1.074163e+001 237 233 222
3.939920e+000 1.006498e+000 -7.756604e+000 184 68 69
-1.371977e+000 -2.421748e-002 -9.860718e+000 126 62 44
-2.157338e+000 -8.164567e-001 -8.888778e+000 88 25 16
-2.157338e+000 -8.164567e-001 -8.888778e+000 88 25 16
7.871430e-001 -6.099695e-001 -9.237569e+000 76 64 48
1.920332e+000 -7.907624e-001 -9.140130e+000 200 196 184
-9.758165e-001 -1.426085e+000 -8.557052e+000 155 143 129
-1.226971e+000 -1.988231e+000 -9.330788e+000 69 50 46
-1.016550e+000 -1.817419e+000 -8.960185e+000 197 189 178
3.460133e+000 -8.506187e-001 -7.651540e+000 129 42 46
2.277389e+000 -1.787746e+000 -9.460061e+000 231 224 214
1.637069e+000 -2.904272e+000 -1.107830e+001 227 180 108
3.403970e+000 -2.312120e+000 -9.212598e+000 211 135 80
2.455616e+000 1.969741e+000 -9.027708e+000 178 170 157
2.583780e+000 1.213907e+000 -8.387695e+000 236 227 218
-4.681974e-001 5.172818e-001 -1.031311e+001 158 151 141
1.360117e+000 5.330077e-001 -9.735074e+000 184 178 164
2.477121e+000 7.292828e-001 -8.505792e+000 161 149 99
3.885720e+000 7.334747e-001 -7.655139e+000 207 74 74
2.326665e+000 2.614257e-001 -8.805180e+000 253 250 195
-5.558102e-001 -8.262222e-001 -8.946376e+000 156 143 134
-3.129604e-002 3.064206e+000 -1.234768e+001 248 245 236
-1.552688e+000 1.496710e+000 -1.365705e+001 239 235 224
-5.272695e-001 -2.379980e-001 -9.382057e+000 165 156 147
2.920565e+000 -1.392534e-001 -8.583859e+000 236 228 213
-1.511556e+000 -9.247435e-001 -8.514553e+000 55 31 23
-1.507197e+000 -9.181304e-001 -8.488408e+000 55 31 23
1.919570e-001 -1.359541e+000 -9.947799e+000 162 157 151
1.396887e+000 -1.030136e+000 -9.036744e+000 162 154 143
2.746335e+000 -2.497251e+000 -9.628568e+000 125 70 50
3.734244e+000 9.160983e-001 -7.785733e+000 231 217 203
-1.343905e+000 -4.831713e-001 -8.882292e+000 84 36 29
3.702285e-001 -5.889536e-001 -9.271823e+000 78 69 51
2.885493e+000 5.739679e-001 -8.715970e+000 255 254 215
3.235517e+000 6.010476e-001 -8.213587e+000 122 106 90
-1.580240e+000 -2.075080e-001 -8.518137e+000 234 139 87
2.572885e+000 1.689400e-001 -8.964168e+000 254 253 199
9.367198e-001 -1.043387e+000 -9.266640e+000 231 228 221
3.533711e+000 1.560691e+000 -7.981691e+000 255 241 182
-1.381489e+000 5.864207e-001 -1.146269e+001 248 243 237
2.497193e+000 -1.221922e+000 -8.901928e+000 244 239 232
2.428548e+000 6.628011e-001 -8.704792e+000 167 153 118
2.270083e+000 4.449755e-001 -9.382125e+000 198 185 167
2.225913e+000 3.069309e-001 -8.908142e+000 197 184 131
-3.341125e+000 -3.322641e-001 -7.925763e+000 126 100 56
-2.531046e+000 -1.030139e+000 -8.290569e+000 121 80 52
-2.686166e+000 -1.264352e+000 -8.310476e+000 77 53 46
1.804425e+000 -2.693568e+000 -9.863426e+000 130 109 78
-3.394633e-001 2.717478e+000 -1.261952e+001 230 221 213
-3.405385e-001 2.716665e+000 -1.261062e+001 230 221 213
-9.341075e-001 2.080844e-001 -9.743333e+000 122 82 68
-3.361735e+000 -2.961376e-001 -7.953544e+000 109 91 62
-3.310355e+000 -3.366853e-001 -7.938714e+000 118 97 78
-3.625931e+000 -5.410269e-001 -8.269482e+000 128 95 53
-3.153819e+000 -5.377761e-001 -7.968503e+000 167 135 90
3.045081e+000 -7.614995e-001 -8.538576e+000 144 107 97
-3.380637e+000 -6.043940e-001 -8.068912e+000 165 138 84
-3.419058e+000 -7.508399e-001 -8.101109e+000 161 131 80
-3.482938e+000 -8.071630e-001 -8.132432e+000 248 219 163
-1.454289e+000 -1.024585e+000 -8.304499e+000 113 93 90
-2.678260e+000 -1.339299e+000 -8.372326e+000 82 65 65
-1.820997e+000 -1.797476e+000 -9.192013e+000 44 23 14
-3.233912e+000 -6.399769e-001 -7.982080e+000 120 74 60
-2.529131e+000 -9.837710e-001 -8.259992e+000 59 32 23
-2.465882e+000 -9.838679e-001 -8.302593e+000 121 107 107
-2.461020e+000 -1.039359e+000 -8.287572e+000 163 146 147
6.799770e-001 -2.709071e+000 -1.221610e+001 169 111 60
6.811508e-001 -2.721583e+000 -1.226780e+001 169 111 60
-2.536071e+000 -1.005684e+000 -8.214349e+000 137 97 72
-2.536071e+000 -1.005684e+000 -8.214349e+000 137 97 72
1.718188e-001 -1.022568e+000 -9.232503e+000 177 170 160
-3.004920e+000 -1.176178e+000 -8.109261e+000 121 42 30
3.228783e+000 -2.193179e+000 -8.943324e+000 251 254 248
3.228783e+000 -2.193179e+000 -8.943324e+000 251 254 248
6.032086e-001 -3.093029e+000 -1.234172e+001 201 119 60
2.331891e+000 5.695736e-001 -8.796440e+000 204 195 183
-6.387053e-001 -1.309456e+000 -8.870492e+000 134 122 108
-3.026091e+000 -1.248705e+000 -8.116580e+000 154 54 38
-4.062951e-001 1.925229e+000 -1.225820e+001 231 228 221
3.822085e+000 7.693122e-001 -7.853501e+000 208 190 174
-1.403765e+000 -1.096834e+000 -8.333676e+000 203 146 111
2.276374e+000 8.228629e-001 -9.160890e+000 216 212 203
-2.261208e+000 -1.026722e+000 -8.306344e+000 178 136 95
-2.261208e+000 -1.026722e+000 -8.306344e+000 178 136 95
3.129857e+000 -1.708488e+000 -8.952991e+000 227 223 213
1.844139e+000 -2.783559e+000 -9.793662e+000 103 80 48
-2.109130e+000 -1.981958e+000 -9.128812e+000 31 21 20
3.657759e+000 1.388263e-001 -7.642653e+000 241 231 222
9.954796e-001 -7.124926e-001 -8.982330e+000 151 141 128
-2.131904e+000 -4.221792e-001 -8.842277e+000 160 82 59
3.690253e+000 1.427401e+000 -7.710688e+000 134 92 80
4.425451e-001 -5.436107e-001 -9.491892e+000 93 83 73
-1.246503e+000 -1.301207e+000 -8.516189e+000 199 186 174
-3.115671e+000 -1.024712e+000 -8.069709e+000 235 135 88
-1.067820e+000 -1.042237e+000 -8.409975e+000 169 160 150
-3.366767e-001 2.439908e+000 -1.271116e+001 235 229 214
-1.745791e-002 2.292234e+000 -1.221429e+001 238 235 220
1.999612e+000 5.929170e-001 -9.333751e+000 222 216 202
-1.305671e+000 -8.805006e-001 -8.272038e+000 150 137 121
-3.090788e+000 -1.209517e+000 -8.120763e+000 191 86 57
2.668623e+000 -2.821132e+000 -9.923372e+000 127 71 39
3.318087e-001 1.403620e+000 -1.079892e+001 166 159 149
2.583373e+000 1.273372e+000 -8.549436e+000 237 230 220
-3.081084e+000 -1.033540e+000 -8.086886e+000 233 132 88
2.188514e+000 2.397395e-001 -8.877437e+000 170 154 103
1.853900e+000 -2.049316e-002 -9.194158e+000 164 153 114
-3.143498e+000 -4.749071e-001 -8.035067e+000 107 82 52
1.136772e+000 -1.087055e+000 -8.996228e+000 194 190 182
-3.284824e+000 -1.477335e+000 -8.485792e+000 104 55 53
-2.575356e+000 -1.289588e+000 -8.311901e+000 81 60 61
-2.584163e+000 -1.738018e+000 -9.629656e+000 122 69 48
2.342286e-001 -1.949910e+000 -1.087528e+001 172 120 109
1.674682e+000 -2.808212e+000 -1.112938e+001 186 111 70
3.863779e+000 1.359496e+000 -7.871845e+000 163 97 89
2.499654e+000 6.286021e-001 -8.516744e+000 196 180 121
-3.534055e+000 -8.265960e-001 -8.153076e+000 227 196 140
-3.533910e+000 -1.045473e+000 -8.173008e+000 101 40 34
7.181997e-001 -2.679792e+000 -1.221264e+001 147 79 54
2.627506e+000 -2.533052e+000 -9.990886e+000 159 122 67
3.687820e+000 -1.021062e+000 -8.673232e+000 188 138 127
3.570849e+000 -1.176980e+000 -8.845889e+000 111 57 46
-2.572891e+000 -1.319285e+000 -8.367107e+000 79 59 50
8.247450e-001 -2.804485e+000 -1.207039e+001 208 148 87
-2.538646e+000 -1.334262e+000 -8.373049e+000 218 181 141
-3.710540e+000 -4.615223e-001 -8.172038e+000 69 22 21
-3.270620e+000 -5.804421e-001 -8.043969e+000 190 161 104
-3.048039e+000 -9.404183e-001 -8.018060e+000 251 157 106
2.601961e-001 -3.939230e-002 -9.478434e+000 154 146 135
-7.035987e-002 -1.148821e+000 -9.210728e+000 187 183 176
-8.722235e-001 -1.013294e+000 -8.485328e+000 170 161 152
-1.541743e-001 -1.098313e+000 -9.098670e+000 145 135 125
1.774929e+000 -1.027552e+000 -9.198179e+000 199 195 184
-1.963097e+000 2.601874e+000 -1.419501e+001 194 77 78
-2.669523e+000 1.121541e+000 -1.564164e+001 236 98 102
1.537133e+000 1.122926e-001 -9.483263e+000 170 161 144
-2.183378e-001 -5.777167e-001 -9.480640e+000 155 151 141
2.288180e+000 -1.516236e+000 -9.281666e+000 242 235 227
-1.866737e+000 -9.425988e-001 -8.701858e+000 230 187 142
8.709560e-001 9.425278e-001 -9.693567e+000 239 236 226
-3.605058e+000 -4.655006e-001 -8.077224e+000 107 81 43
-3.168955e+000 -5.144337e-001 -8.010214e+000 141 111 65
-5.047313e-001 -6.988044e-001 -9.272904e+000 59 47 30
2.143192e+000 -4.143626e-001 -8.989573e+000 185 178 161
-2.501327e+000 -9.896556e-001 -8.236008e+000 104 77 66
1.119062e+000 -7.850881e-001 -8.926477e+000 209 205 193
3.043564e+000 -5.934861e-001 -8.556390e+000 157 138 123
-2.748257e+000 -1.284493e+000 -8.288665e+000 117 70 55
-2.677712e+000 -1.339320e+000 -8.376258e+000 89 72 75
-4.625317e-002 -1.119184e+000 -9.193126e+000 148 139 131
-1.970013e+000 -1.669154e+000 -9.223311e+000 194 82 39
-1.201086e+000 -1.392289e+000 -8.484625e+000 184 94 82
9.008722e-001 -2.968311e+000 -1.200711e+001 208 146 89
2.709458e+000 -2.644869e+000 -9.999249e+000 134 84 53
3.400792e+000 -2.271402e+000 -8.956006e+000 190 115 57
-3.473668e-001 6.207056e-001 -1.034406e+001 179 175 166
-1.324785e+000 2.592391e-001 -1.052792e+001 252 249 240
-1.324785e+000 2.592391e-001 -1.052792e+001 252 249 240
2.510215e+000 8.023845e-001 -8.483906e+000 163 147 96
-8.155732e-001 2.934891e-001 -9.650384e+000 138 77 63
-3.365758e+000 -3.720721e-001 -8.034090e+000 136 104 52
-1.562634e+000 -7.649749e-001 -8.449719e+000 153 100 76
-2.463695e+000 -9.817950e-001 -8.295571e+000 139 124 128
-2.602948e+000 -1.398616e+000 -8.411835e+000 194 157 127
3.602478e+000 -1.194672e+000 -8.846970e+000 158 120 114
4.272602e+000 -9.757681e-001 -7.792536e+000 183 81 87
-7.276247e-001 3.438591e-002 -9.490083e+000 145 131 122
-6.573066e-001 -7.711249e-002 -9.361785e+000 127 111 102
-2.107751e+000 -4.438162e-001 -8.789971e+000 141 65 42
-2.169911e+000 -4.845164e-001 -8.777620e+000 162 83 53
-5.373357e-001 -7.233247e-001 -9.339504e+000 82 69 52
3.094118e-001 -6.502742e-001 -9.382682e+000 104 96 73
-3.363978e+000 -1.164706e+000 -8.180120e+000 127 78 64
-3.363562e+000 -1.164570e+000 -8.180089e+000 127 78 64
-2.596769e+000 -1.360231e+000 -8.358421e+000 63 31 23
-1.751503e+000 -1.908933e+000 -9.789124e+000 201 77 63
4.269954e-002 8.275501e-001 -1.041337e+001 225 220 212
-4.414658e-001 -8.795679e-001 -9.068390e+000 132 122 112
-5.873361e-001 -1.260407e+000 -8.768092e+000 182 172 160
1.927427e+000 -1.549413e+000 -9.404480e+000 192 182 175
1.096803e+000 -3.172143e+000 -1.176954e+001 209 154 115
2.564247e+000 -2.621160e+000 -1.010122e+001 148 115 64
9.874920e-002 2.228607e+000 -1.206258e+001 210 203 193
2.388186e+000 9.456059e-001 -9.142825e+000 235 231 219
2.869556e-001 -4.146328e-001 -9.414771e+000 169 163 154
-2.710154e+000 -8.307628e-001 -8.000768e+000 123 46 30
-2.710154e+000 -8.307628e-001 -8.000768e+000 123 46 30
3.781701e+000 6.080066e-001 -7.661047e+000 237 221 209
7.275735e-001 1.570433e+000 -1.028911e+001 239 235 224
-6.797203e-001 -1.147108e+000 -8.510735e+000 189 186 177
2.899991e+000 -1.141797e+000 -8.548234e+000 224 220 209
6.451486e-002 7.954128e-001 -1.048195e+001 182 178 169
6.797459e-002 7.552154e-001 -1.052797e+001 155 151 142
1.636484e+000 1.715799e-001 -9.669292e+000 187 181 167
1.864725e+000 7.167542e-003 -9.208263e+000 140 126 101
1.756341e+000 -5.103436e-002 -9.195701e+000 124 113 87
2.040138e+000 -3.292754e-001 -9.082669e+000 187 174 121
2.113634e+000 -3.835082e-001 -9.087616e+000 105 90 60
-2.380159e+000 -9.170299e-001 -8.399958e+000 119 88 68
-2.498465e+000 -1.030929e+000 -8.309483e+000 103 77 70
3.502497e+000 -1.477180e+000 -8.715689e+000 164 101 60
-2.581489e+000 -1.467804e+000 -8.526115e+000 145 61 31
2.350719e-001 -1.929055e+000 -1.080119e+001 182 171 168
2.168095e+000 -2.123434e+000 -9.730816e+000 215 81 81
9.023294e-001 -2.968207e+000 -1.199856e+001 210 147 94
2.714701e+000 -2.550998e+000 -1.003229e+001 140 91 52
2.941434e+000 -2.817144e+000 -9.730930e+000 191 133 93
2.226746e+000 3.866292e-001 -8.863859e+000 150 140 101
2.471209e+000 4.406005e-001 -8.531645e+000 216 200 141
-7.506343e-001 2.058018e-001 -9.639083e+000 150 112 100
1.495757e+000 -1.813640e-001 -9.329739e+000 132 121 97
-5.037367e-001 -4.135708e-001 -9.397043e+000 147 133 104
-4.320483e-001 -4.643747e-001 -9.370801e+000 95 83 60
1.833782e+000 -4.476482e-001 -9.097996e+000 172 161 155
-3.633460e+000 -4.886875e-001 -8.239141e+000 117 84 51
-2.372278e+000 -6.076218e-001 -8.590021e+000 115 38 15
-5.014099e-001 -5.020293e-001 -9.383776e+000 84 73 53
5.890677e-001 -5.436193e-001 -9.408075e+000 92 81 58
-3.425631e+000 -6.249153e-001 -8.152681e+000 229 202 149
3.696927e+000 -9.786017e-001 -8.642911e+000 185 129 118
-2.501217e+000 -8.878584e-001 -8.342859e+000 75 53 49
-2.510374e+000 -9.086900e-001 -8.305353e+000 82 57 47
-2.535442e+000 -9.485974e-001 -8.147488e+000 98 62 43
-2.514643e+000 -9.595049e-001 -8.266765e+000 78 54 45
-1.427055e+000 -8.735345e-001 -8.280882e+000 188 75 70
-1.425784e+000 -8.737342e-001 -8.280519e+000 188 75 70
-2.672382e+000 -1.199462e+000 -8.281942e+000 140 96 67
-2.444097e+000 -1.049357e+000 -8.334861e+000 170 148 138
1.685807e+000 -2.722293e+000 -1.112822e+001 193 116 86
8.431159e-001 9.726344e-001 -9.918335e+000 172 167 155
-7.370187e-001 3.444297e-002 -9.551606e+000 144 131 121
-1.099544e-001 -1.608270e-001 -9.307730e+000 167 160 152
1.371530e+000 -2.355682e-001 -9.349207e+000 122 113 86
-2.813593e+000 -5.455413e-001 -8.115540e+000 149 75 47
-2.403197e+000 -5.766646e-001 -8.545704e+000 134 54 35
-3.408114e+000 -6.868470e-001 -8.100409e+000 201 175 118
-3.508660e+000 -7.162671e-001 -8.203337e+000 239 213 154
-2.559584e+000 -6.447371e-001 -7.998698e+000 126 73 67
-2.512933e+000 -6.762705e-001 -7.999875e+000 83 34 25
-3.263603e+000 -7.982486e-001 -7.998242e+000 124 70 64
3.535718e-001 -2.368068e+000 -1.195876e+001 184 149 133
3.206627e+000 -2.010454e+000 -9.154489e+000 224 171 112
3.298777e+000 -1.993823e+000 -9.120432e+000 217 158 105
6.231051e+000 -3.022177e+000 -1.319216e+001 224 214 213
1.665864e+000 -3.247595e+000 -1.086155e+001 254 239 215
1.665864e+000 -3.247595e+000 -1.086155e+001 254 239 215
-6.591860e-001 -8.815731e-002 -9.519162e+000 126 108 99
-5.000672e-001 -1.670951e-001 -9.417577e+000 176 170 163
-2.405922e+000 -7.755197e-001 -8.435334e+000 105 48 29
-3.641717e+000 -7.774304e-001 -8.232686e+000 243 219 148
-1.247586e+000 -1.453593e+000 -8.562425e+000 210 91 77
3.285251e+000 -2.026786e+000 -9.075765e+000 180 91 80
1.096875e+000 -3.012938e+000 -1.182270e+001 214 158 84
3.394386e+000 1.282404e+000 -7.676364e+000 212 193 161
-8.102213e-001 2.894384e-001 -9.699547e+000 141 75 61
2.461656e-001 -3.326171e-001 -9.424860e+000 143 136 125
-3.467385e+000 -6.330278e-001 -8.100194e+000 222 194 131
-3.567475e+000 -7.508040e-001 -8.209699e+000 243 216 147
-2.611248e+000 -6.678936e-001 -8.041880e+000 89 32 21
-2.622591e+000 -6.676172e-001 -8.067968e+000 89 32 21
-1.552920e+000 -7.911409e-001 -8.462086e+000 39 25 33
1.570768e+000 -9.139078e-001 -8.957345e+000 149 141 130
-3.298290e+000 -7.738530e-001 -8.007071e+000 78 33 28
-2.481898e+000 -8.605530e-001 -8.184446e+000 117 77 58
1.841689e-001 -1.180819e+000 -9.344328e+000 174 169 162
-3.373108e+000 -1.054890e+000 -8.171535e+000 124 66 60
-3.103118e+000 -1.029181e+000 -8.026032e+000 232 126 79
-2.939904e+000 -1.373762e+000 -8.247437e+000 140 52 29
8.000352e-001 -2.749295e+000 -1.212592e+001 158 69 64
2.588319e+000 -2.494910e+000 -1.002545e+001 149 109 53
3.278042e+000 -2.380896e+000 -8.991334e+000 199 123 64
3.899311e+000 1.121261e+000 -7.765063e+000 205 72 77
9.536436e-001 9.829835e-001 -9.717971e+000 211 208 199
9.498099e-001 9.708864e-001 -9.670160e+000 211 208 199
-1.020750e-001 7.349196e-001 -1.037453e+001 183 176 166
-2.226883e+000 -3.181651e-001 -9.140311e+000 136 52 28
-8.122211e-001 -8.738098e-001 -8.611131e+000 173 165 152
3.566831e+000 -9.416876e-001 -8.115406e+000 209 93 91
3.264211e-001 -1.197969e+000 -9.419794e+000 160 153 143
-3.379034e+000 -1.136354e+000 -8.178590e+000 128 67 62
-3.154971e+000 -1.133819e+000 -8.117075e+000 224 117 71
-1.396101e+000 -1.260775e+000 -8.635988e+000 218 158 114
-5.016274e-001 -2.467232e+000 -1.346280e+001 221 146 82
1.096360e+000 -2.524990e+000 -1.132201e+001 219 83 87
1.465176e+000 -3.192126e+000 -1.141919e+001 228 184 111
2.391472e+000 9.427036e-001 -9.131633e+000 238 232 220
-3.355870e+000 -6.395911e-001 -8.138370e+000 207 180 121
2.341925e+000 -1.188856e+000 -9.118589e+000 206 198 183
2.341925e+000 -1.188856e+000 -9.118589e+000 206 198 183
4.947866e-002 -1.556484e+000 -1.019924e+001 178 170 157
2.469817e+000 2.355788e+000 -9.297199e+000 216 211 199
-6.741756e-001 2.238063e-002 -9.489638e+000 152 139 130
3.012921e-001 -3.979915e-001 -9.381507e+000 163 160 148
-3.515355e+000 -5.629252e-001 -8.093799e+000 128 94 53
-2.242390e+000 -1.287826e+000 -9.078883e+000 112 33 18
-1.722366e+000 -1.439286e+000 -9.104649e+000 234 186 142
1.541845e+000 -2.114712e+000 -1.072997e+001 124 94 60
2.846630e+000 2.066129e+000 -8.720165e+000 236 229 219
1.750428e+000 2.096846e+000 -9.982869e+000 241 234 224
1.427526e+000 1.798412e+000 -1.015977e+001 209 205 194
-1.770439e+000 2.230129e+000 -1.374905e+001 238 234 225
3.200606e+000 -2.176551e+000 -9.167834e+000 207 128 69
6.913369e-001 -2.995818e+000 -1.236476e+001 198 154 134
-4.253586e-002 2.991271e+000 -1.200764e+001 248 244 235
1.354382e+000 5.474743e-001 -9.677254e+000 183 175 162
-2.939220e+000 -1.212234e+000 -8.104287e+000 103 35 24
-3.100228e+000 -1.401767e+000 -8.315838e+000 221 117 72
1.687237e+000 1.819002e+000 -9.855689e+000 167 157 147
3.634395e+000 1.188278e+000 -7.949622e+000 118 81 74
-7.545770e-002 1.632004e+000 -1.100249e+001 181 172 163
-1.476309e+000 3.647884e+000 -1.360886e+001 199 73 76
-1.476309e+000 3.647884e+000 -1.360886e+001 199 73 76
2.548269e+000 1.253430e+000 -8.472072e+000 241 234 224
2.904894e+000 -1.511429e-001 -8.500083e+000 236 227 217
3.189952e+000 -4.973278e-001 -8.102072e+000 239 230 223
2.856673e+000 5.611889e-001 -8.768093e+000 254 254 204
2.872585e+000 -1.135603e+000 -8.505903e+000 224 217 207
3.650307e+000 -6.674154e-001 -7.980533e+000 133 43 44
3.761007e-001 -6.080849e-001 -9.408772e+000 76 69 50
3.617697e+000 -1.059469e+000 -8.684307e+000 134 80 56
3.617697e+000 -1.059469e+000 -8.684307e+000 134 80 56
3.639890e+000 -1.076323e+000 -8.653371e+000 155 90 63
2.502559e+000 1.854855e+000 -8.722058e+000 218 209 200
2.821341e-001 -5.225975e-001 -9.466251e+000 94 84 74
-2.670801e+000 -1.465824e+000 -8.480420e+000 156 81 53
3.827977e+000 2.636395e+000 -8.089241e+000 163 142 101
3.255413e+000 1.882923e+000 -8.107734e+000 195 177 127
3.258493e+000 1.883135e+000 -8.071806e+000 231 216 160
1.940750e+000 1.384729e+000 -9.165363e+000 186 181 177
3.641697e+000 1.878316e+000 -7.568451e+000 209 194 142
3.764016e+000 1.903045e+000 -7.710469e+000 184 165 123
2.256251e-001 6.835223e-001 -9.980927e+000 205 203 192
-9.644825e-001 3.290384e-001 -9.956042e+000 173 157 147
-7.788252e-001 3.552320e-001 -9.775571e+000 182 175 169
1.145754e+000 6.019178e-001 -1.058697e+001 169 164 154
2.713915e+000 9.676047e-001 -8.306889e+000 163 149 98
2.433284e+000 5.504184e-001 -8.749360e+000 171 158 111
2.836643e+000 7.395852e-001 -8.235533e+000 213 197 138
-3.424943e+000 -3.214063e-001 -8.041377e+000 128 95 54
-2.612417e+000 -4.006485e-001 -8.726640e+000 143 68 53
-9.570143e-001 -1.055373e-001 -8.865288e+000 113 55 40
-7.645584e-002 -7.806598e-002 -9.262174e+000 165 165 157
-3.515804e+000 -6.350273e-001 -8.099913e+000 177 148 93
2.096180e+000 9.503422e-002 -9.123498e+000 188 175 131
2.721981e+000 7.741447e-002 -8.482782e+000 120 108 86
-2.431151e+000 -8.440133e-001 -8.228014e+000 81 60 55
9.066708e-001 -6.633829e-001 -9.071957e+000 125 118 105
9.501667e-001 -6.674793e-001 -8.937009e+000 127 119 108
-1.465612e+000 -8.311662e-001 -8.214626e+000 119 84 72
-1.454885e+000 -8.550964e-001 -8.262311e+000 119 53 53
1.046584e+000 -7.378895e-001 -8.923732e+000 159 152 144
2.455367e+000 -4.224894e-001 -8.674461e+000 171 163 148
-2.693136e+000 -1.288355e+000 -8.191068e+000 74 30 25
-2.576472e+000 -1.285861e+000 -8.364398e+000 185 156 141
2.672006e+000 -2.548520e+000 -9.893652e+000 132 92 55
2.691652e+000 2.352774e+000 -9.323353e+000 208 201 193
3.275559e+000 1.845915e+000 -8.138310e+000 244 225 169
3.294427e+000 1.964834e+000 -8.041277e+000 189 173 122
3.397163e+000 1.978708e+000 -8.253905e+000 189 173 122
8.193325e-002 1.182971e+000 -1.078010e+001 198 193 187
3.282468e+000 1.710356e+000 -8.478262e+000 178 160 112
-4.625032e-001 5.792820e-001 -1.038521e+001 165 160 154
-3.323761e+000 -3.287085e-001 -7.910072e+000 130 100 66
-3.309827e+000 -3.511671e-001 -7.924684e+000 123 100 56
3.724309e+000 7.949083e-001 -8.001357e+000 190 177 161
-4.701259e-001 -3.999593e-001 -9.315391e+000 103 92 74
2.070112e+000 7.488751e-002 -9.145725e+000 178 166 126
-3.499918e+000 -7.636221e-001 -8.129810e+000 199 169 113
-6.540498e-001 -6.464769e-001 -8.893823e+000 73 67 59
-3.332881e+000 -8.317066e-001 -7.993867e+000 142 90 84
-3.400141e+000 -9.690997e-001 -8.021197e+000 123 72 69
-2.405268e+000 -1.017216e+000 -8.217116e+000 164 142 128
-3.896625e-001 -9.648094e-001 -9.106331e+000 133 123 114
4.310384e+000 9.015267e-002 -7.475904e+000 193 91 90
-3.290990e+000 -1.463172e+000 -8.439933e+000 105 66 60
-2.646768e+000 -1.409745e+000 -8.383266e+000 135 59 30
-1.857198e+000 -1.691180e+000 -9.106019e+000 153 79 47
2.345273e-001 -2.679762e+000 -1.186748e+001 189 160 152
1.260402e+000 -3.481826e+000 -1.166401e+001 204 144 110
3.074035e+000 -2.310125e+000 -9.470430e+000 183 96 79
-1.267351e+000 1.256877e+000 -1.298128e+001 239 235 226
3.533393e+000 2.054046e+000 -7.838817e+000 140 125 93
-5.325277e-001 7.729707e-001 -1.159942e+001 218 217 213
3.006638e+000 1.462798e+000 -8.204717e+000 183 170 120
3.470698e+000 1.542565e+000 -7.707650e+000 215 201 174
3.649571e+000 1.539354e+000 -8.039501e+000 215 201 174
-5.710675e-001 4.838006e-001 -9.920688e+000 190 185 176
-4.990749e-001 5.327472e-001 -1.027460e+001 151 144 136
-9.042331e-001 2.567835e-001 -9.843695e+000 147 130 121
2.409276e+000 5.931859e-001 -8.694783e+000 171 157 112
2.585317e+000 7.485815e-001 -8.454328e+000 250 231 171
-3.440395e+000 -3.200949e-001 -8.002535e+000 216 189 114
-3.115305e+000 -4.876925e-001 -8.079328e+000 139 104 71
-1.324807e+000 -4.553204e-001 -8.735831e+000 57 22 19
1.944343e+000 -5.040129e-002 -9.204192e+000 211 201 151
-3.403045e+000 -6.210085e-001 -8.060460e+000 136 108 61
-3.373721e+000 -6.240224e-001 -8.058236e+000 197 170 117
-3.368965e+000 -6.217290e-001 -8.050761e+000 197 170 117
-3.412084e+000 -7.419708e-001 -8.091569e+000 156 128 77
-9.489866e-001 -5.805071e-001 -9.353339e+000 99 82 74
1.164481e+000 -3.978005e-001 -9.390368e+000 119 107 76
1.106832e+000 -4.162463e-001 -9.376629e+000 124 111 77
-3.509050e+000 -1.001173e+000 -8.159678e+000 167 143 88
-3.495693e+000 -1.047948e+000 -8.127054e+000 58 38 39
-3.470258e+000 -1.070335e+000 -8.125803e+000 125 76 76
-2.515167e+000 -9.253944e-001 -8.136814e+000 123 88 69
-2.217304e+000 -7.764540e-001 -8.353604e+000 126 60 44
-1.349467e+000 -1.082111e+000 -8.084684e+000 178 76 43
-6.797022e-001 -1.284370e+000 -8.740136e+000 133 125 114
-1.399805e+000 -1.666948e+000 -8.703220e+000 234 149 89
8.712776e-001 -2.778506e+000 -1.190397e+001 208 147 86
3.696205e+000 -1.072977e+000 -8.717622e+000 177 146 136
3.691250e+000 -1.067776e+000 -8.708415e+000 177 146 136
1.394691e+000 -3.153438e+000 -1.141252e+001 185 108 60
2.607143e+000 -2.556290e+000 -1.004649e+001 121 87 46
3.800373e+000 -1.636720e+000 -8.497370e+000 184 114 62
1.482116e+000 -3.425686e+000 -1.134633e+001 239 172 131
1.799876e+000 -3.435726e+000 -1.093259e+001 185 135 105
2.538834e+000 -2.682628e+000 -1.012553e+001 101 60 34
1.924369e+000 7.883482e-001 -9.354099e+000 199 195 186
-1.124050e+000 -5.257341e-002 -9.070018e+000 145 80 62
-9.380022e-001 -1.261989e-001 -8.823938e+000 130 73 56
-2.709502e+000 -4.511726e-001 -8.333401e+000 149 69 36
2.086888e+000 5.330464e-002 -9.098573e+000 186 172 125
-2.898676e+000 -5.524676e-001 -7.911270e+000 98 40 29
-2.437730e+000 -6.547457e-001 -8.045115e+000 102 44 33
3.409800e-001 -5.540523e-001 -9.498286e+000 107 98 89
-2.508845e+000 -8.058442e-001 -8.146189e+000 87 40 28
-2.392647e+000 -8.902983e-001 -8.317019e+000 148 127 126
2.062903e-001 -6.885570e-001 -9.413161e+000 136 130 112
-2.962260e+000 -1.051994e+000 -7.998326e+000 201 103 61
-2.962260e+000 -1.051994e+000 -7.998326e+000 201 103 61
-2.939786e+000 -9.992875e-001 -7.964711e+000 219 123 80
-2.939786e+000 -9.992875e-001 -7.964711e+000 219 123 80
-2.490753e+000 -1.001328e+000 -8.287761e+000 53 42 45
2.147247e+000 -2.373927e+000 -9.762349e+000 134 115 74
2.524949e+000 -2.758772e+000 -9.979218e+000 121 78 51
3.574109e+000 1.848592e+000 -7.942127e+000 181 163 113
-2.780507e-001 5.821563e-001 -1.027872e+001 158 153 147
2.819863e+000 1.156123e+000 -8.455139e+000 186 172 125
2.567941e+000 7.979079e-001 -8.511448e+000 225 209 150
-1.050427e+000 -3.107125e-002 -8.917100e+000 104 45 37
-9.841232e-001 -9.495554e-002 -8.734748e+000 108 50 32
-3.134367e+000 -5.283512e-001 -8.004191e+000 79 47 27
-2.013756e+000 -4.533014e-001 -8.817821e+000 159 80 50
-3.517678e+000 -6.945983e-001 -8.089383e+000 220 192 129
-3.188003e+000 -5.665234e-001 -8.006231e+000 82 40 32
-1.991850e+000 -5.302464e-001 -8.547744e+000 135 60 35
1.560801e+000 -4.176578e-001 -9.327197e+000 128 119 88
-2.388502e+000 -7.882634e-001 -8.251020e+000 131 95 64
-8.403443e-001 -9.186705e-001 -8.548050e+000 111 100 86
5.144998e-002 -1.178563e+000 -9.338782e+000 179 174 168
8.805592e-001 -9.541232e-001 -9.095140e+000 228 226 222
-2.976651e+000 -1.192631e+000 -7.985103e+000 143 52 31
7.834392e-001 -2.735339e+000 -1.209389e+001 158 83 68
1.211603e+000 -2.853769e+000 -1.142568e+001 212 69 79
1.484710e+000 -2.759482e+000 -1.099935e+001 211 164 94
3.302229e+000 2.142274e+000 -8.110937e+000 230 218 204
2.790291e+000 1.203911e+000 -8.431766e+000 135 125 96
-1.256820e+000 2.160684e-001 -1.045153e+001 135 78 61
-9.902929e-001 -3.066411e-002 -9.313810e+000 126 68 54
-2.973344e+000 -5.617799e-001 -8.100676e+000 146 78 56
-2.414877e+000 -7.370347e-001 -8.303235e+000 92 33 25
-1.786410e+000 -7.544255e-001 -8.690717e+000 142 84 57
8.522578e-001 -5.635601e-001 -9.430533e+000 77 69 48
1.644372e+000 -2.789242e-001 -9.291260e+000 161 151 116
-3.232739e+000 -8.373785e-001 -7.957736e+000 71 27 28
-2.503620e+000 -8.698088e-001 -8.245720e+000 115 78 62
-5.587368e-001 -6.880773e-001 -9.034087e+000 44 36 32
-2.185111e+000 -1.413573e+000 -8.844461e+000 130 46 22
-1.370859e+000 -1.653873e+000 -8.685144e+000 235 145 94
-1.259164e+000 -1.665040e+000 -8.844169e+000 222 181 134
3.644544e+000 -9.922725e-001 -8.012448e+000 124 39 42
1.965879e-001 6.168742e-001 -1.014286e+001 148 143 137
2.545842e+000 9.332373e-001 -8.885131e+000 210 205 195
-1.603822e+000 -4.507593e-001 -8.653810e+000 182 95 51
-1.039828e+000 -2.935808e-001 -8.845282e+000 157 81 50
1.952918e+000 3.639174e-002 -9.327344e+000 113 105 84
-3.705844e+000 -7.341883e-001 -8.234401e+000 47 37 36
-3.460809e+000 -8.528775e-001 -8.165721e+000 212 183 130
-3.210419e-001 -6.350427e-001 -9.380895e+000 64 55 40
-2.193327e+000 -1.274034e+000 -8.945746e+000 126 35 24
-2.079274e+000 -1.275234e+000 -8.685999e+000 172 74 37
2.524781e-001 -3.018606e+000 -1.203643e+001 80 65 56
1.242337e+000 -3.111525e+000 -1.154536e+001 182 81 66
5.099925e-001 1.666973e+000 -1.082634e+001 161 157 148
1.961151e+000 2.039373e+000 -9.829606e+000 173 166 157
1.961151e+000 2.039373e+000 -9.829606e+000 173 166 157
-1.071852e+000 -4.888135e-002 -8.727936e+000 166 100 65
-1.071852e+000 -4.888135e-002 -8.727936e+000 166 100 65
-9.729369e-001 -5.058321e-002 -8.797181e+000 142 84 58
-2.000846e+000 -8.536320e-001 -8.720771e+000 151 94 64
-2.274243e+000 -1.246332e+000 -8.415818e+000 162 101 85
-2.210331e+000 -1.311653e+000 -8.469449e+000 167 126 90
-5.631049e-001 -1.322572e+000 -8.918118e+000 135 124 112
1.370351e-001 -1.326931e+000 -9.591036e+000 147 139 135
4.147346e+000 -2.384025e-001 -7.592600e+000 146 54 53
1.648895e+000 2.273073e+000 -1.055822e+001 221 216 206
-6.776689e-001 8.976741e-001 -1.213057e+001 199 196 189
-6.776689e-001 8.976741e-001 -1.213057e+001 199 196 189
-3.678466e+000 -5.685547e-001 -8.168676e+000 236 211 137
1.733506e+000 -3.358760e+000 -1.096640e+001 238 184 150
3.393156e+000 2.357703e+000 -8.042984e+000 221 208 199
3.171861e+000 1.643768e+000 -8.423035e+000 145 131 97
-2.287630e+000 -1.026456e+000 -8.266624e+000 190 149 108
-1.383029e+000 -9.859901e-001 -8.294390e+000 126 38 42
-1.442903e+000 -1.462086e+000 -8.664596e+000 235 194 151
1.837249e+000 -1.337299e+000 -9.289457e+000 169 159 148
1.404687e+000 1.803513e+000 -1.035915e+001 156 152 141
-6.448769e-001 6.629691e-001 -1.129938e+001 235 232 225
1.858663e+000 -1.225360e-002 -9.374914e+000 128 116 100
-1.660658e+000 -6.283056e-001 -8.687541e+000 46 17 18
-1.660658e+000 -6.283056e-001 -8.687541e+000 46 17 18
-1.218177e+000 -1.827525e+000 -8.857680e+000 64 48 40
-4.797082e-001 1.672376e+000 -1.219469e+001 234 231 226
-1.372930e+000 -6.842742e-001 -8.584904e+000 157 134 118
1.315770e+000 2.090584e+000 -1.063010e+001 242 239 234
1.719809e+000 1.808247e+000 -9.774604e+000 158 146 137
-2.147470e+000 -8.938413e-001 -8.681342e+000 112 44 28
2.544796e+000 1.822915e-001 -8.863020e+000 255 254 206
2.190863e+000 -6.671317e-001 -9.043933e+000 220 216 207
7.840724e-001 -2.925466e+000 -1.168261e+001 202 160 136
1.513943e+000 -3.151455e+000 -1.108525e+001 196 124 75
3.663375e+000 -1.366020e+000 -8.414588e+000 194 119 64
3.503950e+000 2.606011e+000 -8.779028e+000 236 227 219
3.813057e+000 -7.732473e-001 -8.206490e+000 128 43 46
2.936464e+000 1.127712e+000 -8.245584e+000 165 151 105
3.865584e+000 7.807980e-002 -7.885911e+000 237 228 220
-1.028650e+000 -1.104900e+000 -8.365564e+000 165 155 145
2.633771e+000 2.349181e+000 -9.173327e+000 208 201 193
-6.407191e-001 5.150547e-001 -1.005071e+001 172 165 157
3.037576e+000 1.544366e+000 -8.138051e+000 202 187 135
-6.573298e-001 -2.612440e-001 -9.376948e+000 151 138 130
2.244073e+000 4.618892e-001 -9.419826e+000 202 187 169
2.334392e+000 4.832073e-001 -8.736996e+000 184 171 119
-1.338553e+000 -2.550364e-001 -8.558830e+000 161 83 54
-6.051385e-001 -5.038706e-001 -9.429053e+000 82 70 56
2.213551e+000 3.213929e-001 -8.909182e+000 211 197 148
2.222397e+000 3.166597e-001 -8.808791e+000 248 235 180
-2.688436e+000 -1.368740e+000 -8.364653e+000 141 115 115
1.050533e+000 -7.712239e-001 -9.065174e+000 149 145 134
2.396728e+000 -4.100447e-001 -8.666152e+000 159 146 133
-7.391636e-001 -1.761098e+000 -8.890071e+000 71 57 48
2.062018e+000 -2.218240e+000 -9.887874e+000 103 85 56
3.433407e+000 2.337029e+000 -7.948966e+000 205 142 136
3.202952e+000 1.952028e+000 -8.009190e+000 178 162 117
-1.281736e+000 2.064153e-001 -1.013865e+001 154 91 74
9.904198e-001 7.608330e-001 -9.821787e+000 155 151 142
2.223878e+000 3.091924e-001 -8.883955e+000 203 187 137
2.337875e+000 4.229698e-001 -8.766428e+000 249 238 184
-3.410641e+000 -7.420217e-001 -8.087981e+000 151 124 77
-1.976244e+000 -6.775662e-001 -8.711474e+000 155 61 32
1.954805e+000 -7.448640e-002 -9.177300e+000 192 180 130
2.804830e+000 3.984558e-001 -8.244626e+000 193 177 123
-2.554298e+000 -9.311469e-001 -8.105853e+000 123 78 63
3.608512e-001 -6.358614e-001 -9.399274e+000 107 96 73
2.170957e+000 -4.319894e-001 -9.194826e+000 169 162 144
1.306609e+000 -3.478093e+000 -1.159029e+001 212 150 109
3.171328e+000 -1.957768e+000 -9.062948e+000 204 161 116
3.098414e+000 -2.781272e+000 -9.533676e+000 149 99 65
-2.207772e-001 1.033010e+000 -1.093071e+001 231 228 221
-6.755290e-001 4.991670e-001 -1.004732e+001 199 195 186
2.513005e+000 6.557361e-001 -8.514408e+000 185 168 115
-1.687229e+000 -4.639526e-001 -8.677608e+000 154 68 41
-1.453585e+000 -6.788261e-001 -8.484059e+000 154 131 117
-1.041793e+000 -6.015996e-001 -8.922727e+000 146 124 113
-2.994173e+000 -1.016396e+000 -7.994065e+000 232 134 87
1.950827e+000 -3.590056e-001 -9.222246e+000 161 149 108
-3.027608e+000 -1.275522e+000 -8.100614e+000 205 111 78
2.775060e-001 -1.111141e+000 -9.338690e+000 183 178 172
4.476720e+000 -5.086429e-003 -7.719833e+000 180 83 77
1.776633e+000 -3.295444e+000 -1.094147e+001 234 191 155
6.792737e+000 -3.042371e+000 -1.204233e+001 195 187 188
3.229619e+000 -2.588490e+000 -9.486997e+000 155 91 50
3.229619e+000 -2.588490e+000 -9.486997e+000 155 91 50
-2.089532e-001 2.270879e+000 -1.235114e+001 201 194 184
5.059643e-001 1.434831e+000 -1.062209e+001 174 171 164
-5.297912e-001 7.773968e-001 -1.157358e+001 222 218 215
3.069196e+000 1.719213e+000 -8.186831e+000 220 209 193
-1.407919e+000 2.278057e-001 -1.038107e+001 230 228 218
-3.570057e+000 -7.386109e-001 -8.130839e+000 105 80 47
-3.570057e+000 -7.386109e-001 -8.130839e+000 105 80 47
-2.639169e+000 -4.864071e-001 -8.413170e+000 151 69 39
2.322009e+000 4.671381e-001 -8.718644e+000 193 180 128
-6.236268e-001 -6.784371e-001 -9.418065e+000 82 68 53
3.895396e-001 -5.225212e-001 -9.488701e+000 118 109 99
1.202034e+000 -7.781328e-001 -9.048905e+000 71 61 51
3.086911e+000 -6.712845e-001 -8.588672e+000 151 131 117
8.955014e-001 -2.335753e+000 -1.098618e+001 190 77 64
2.198678e+000 1.720906e+000 -8.931734e+000 216 211 203
-9.697819e-001 3.044575e-001 -9.910751e+000 99 58 46
-1.338856e+000 1.270057e-003 -8.960497e+000 151 81 56
-2.003385e+000 -3.245084e-001 -8.794348e+000 134 53 31
-2.003385e+000 -3.245084e-001 -8.794348e+000 134 53 31
-3.093159e+000 -5.112059e-001 -8.016838e+000 60 31 18
-1.870547e+000 -5.842795e-001 -8.717240e+000 132 50 27
-3.329575e+000 -7.552230e-001 -8.086003e+000 82 38 31
-2.971067e+000 -6.947029e-001 -8.046169e+000 121 59 43
-2.462360e+000 -6.323416e-001 -7.968338e+000 68 27 27
-6.774425e-001 -6.076245e-001 -9.273944e+000 74 62 48
5.725066e-001 -3.966160e-001 -9.551745e+000 153 149 142
3.186717e-001 -2.769453e+000 -1.214101e+001 199 125 71
6.934944e-001 -2.576545e+000 -1.197072e+001 157 99 86
3.239582e+000 1.963169e+000 -7.972806e+000 200 180 130
-4.245873e-001 7.016226e-001 -1.096618e+001 206 200 186
2.605033e-001 1.041923e+000 -1.039033e+001 222 218 211
2.998597e+000 1.518589e+000 -8.076884e+000 199 180 128
-3.307194e+000 -5.507109e-001 -8.051171e+000 64 41 27
-3.244120e+000 -5.497901e-001 -8.029354e+000 186 160 101
-3.508349e+000 -9.581326e-001 -8.211831e+000 184 160 104
-4.428942e-002 -4.137139e-001 -9.322086e+000 162 157 151
2.100884e+000 -1.702336e-001 -9.114594e+000 205 192 141
3.215066e+000 5.146782e-001 -8.178696e+000 175 163 154
-3.296094e+000 -9.453210e-001 -8.058050e+000 139 83 81
-3.098151e+000 -1.003178e+000 -8.020979e+000 233 131 84
2.239018e+000 2.059711e+000 -9.258621e+000 206 197 188
1.331239e+000 -1.814967e-001 -9.545356e+000 178 177 170
-5.286066e-001 -9.020468e-001 -8.875164e+000 159 151 144
2.701425e+000 -2.861885e+000 -9.969336e+000 130 77 43
3.148578e+000 -2.709490e+000 -9.556778e+000 221 171 148
3.075412e+000 1.642048e+000 -8.227637e+000 140 126 94
-3.205155e+000 -8.641610e-001 -8.019161e+000 79 31 29
-1.386811e+000 -1.399055e+000 -8.809393e+000 197 83 66
8.819709e-001 1.214151e+000 -9.764871e+000 183 179 168
8.819709e-001 1.214151e+000 -9.764871e+000 183 179 168
-3.533154e-003 7.374103e-001 -1.033497e+001 160 156 147
7.221443e-001 -2.147215e+000 -1.103059e+001 236 203 159
4.712304e+000 -1.013858e+000 -7.763533e+000 200 81 83
-7.988278e-001 4.765471e-001 -1.042095e+001 192 189 179
2.425970e+000 -2.625198e+000 -9.736670e+000 122 82 53
2.919850e+000 -1.351032e-001 -8.574815e+000 233 226 216
3.817561e+000 1.416848e+000 -7.849273e+000 137 45 50
1.483012e+000 -3.106654e+000 -1.137329e+001 211 158 82
1.558161e+000 -2.984674e+000 -1.128010e+001 207 144 80
3.644053e+000 -1.051211e+000 -8.733384e+000 164 115 99
3.632608e+000 -1.193872e+000 -8.787654e+000 148 91 58
-2.434634e+000 -1.051099e+000 -8.292936e+000 178 153 141
3.660552e+000 -1.097435e+000 -8.677122e+000 157 88 52
3.672889e+000 -1.070220e+000 -8.682695e+000 177 143 128
3.086104e+000 -2.237302e+000 -9.413143e+000 205 106 89
-3.396663e+000 -7.390619e-001 -8.054892e+000 166 136 81
-2.772610e+000 -7.401167e-001 -7.973943e+000 182 93 59
-2.216299e+000 -1.832547e+000 -9.908869e+000 113 53 36
-3.384129e+000 -3.506626e-001 -8.048001e+000 131 100 64
-3.261598e+000 -1.494341e+000 -8.472906e+000 76 28 26
-2.448750e+000 -1.654122e+000 -9.362558e+000 182 72 19
2.646857e+000 1.095459e+000 -8.363597e+000 146 131 102
3.213064e+000 4.654624e-001 -8.286219e+000 140 126 113
-3.445677e+000 -3.693055e-001 -8.013744e+000 236 208 145
3.347997e+000 -1.650080e+000 -8.839935e+000 137 94 80
2.978108e-001 -2.680412e+000 -1.226348e+001 155 120 103
2.854133e-001 -1.102234e+000 -9.344332e+000 183 179 171
1.157986e+000 -2.174673e+000 -1.110945e+001 204 137 121
1.158806e+000 -2.173645e+000 -1.110751e+001 204 137 121
-3.715561e+000 -7.888088e-001 -8.252851e+000 219 191 106
7.952228e-001 -2.989459e+000 -1.212630e+001 209 158 137
1.882260e+000 -7.704733e-001 -9.111306e+000 177 169 158
8.090688e-001 -2.410596e+000 -1.149047e+001 230 179 138
8.090688e-001 -2.410596e+000 -1.149047e+001 230 179 138
-9.210876e-001 2.163368e-001 -9.820924e+000 139 117 107
3.661177e+000 -1.107290e+000 -8.733223e+000 169 129 110
3.661177e+000 -1.107290e+000 -8.733223e+000 169 129 110
3.741737e+000 -1.148987e+000 -8.610196e+000 196 140 124
3.744322e+000 -1.174601e+000 -8.555765e+000 212 159 145
3.755102e+000 -1.232875e+000 -8.589196e+000 213 161 126
-9.553349e-002 -1.066810e-001 -9.382841e+000 176 169 163
-6.926897e-001 -6.223442e-001 -9.282045e+000 78 67 49
3.591304e+000 2.342118e-001 -8.086281e+000 201 191 181
-1.517593e+000 -8.167603e-001 -8.372554e+000 111 82 70
2.757502e+000 -1.885268e+000 -9.258125e+000 215 210 206
3.196417e+000 -2.174126e+000 -9.347032e+000 203 116 89
-3.095490e-001 5.476463e-001 -1.015910e+001 176 171 165
-8.728007e-001 1.954132e-001 -9.524164e+000 145 124 116
4.248791e+000 1.649248e-001 -7.468169e+000 177 57 65
3.026412e+000 -5.807601e-001 -8.488780e+000 149 132 120
3.233526e+000 -6.247112e-001 -8.061476e+000 136 56 59
1.835512e+000 1.182065e+000 -9.151538e+000 194 191 185
1.170456e+000 -3.493276e-001 -9.367806e+000 186 176 138
4.086602e-001 1.747835e+000 -1.147870e+001 214 211 206
-7.221759e-001 2.910396e-002 -9.515470e+000 145 130 124
1.612102e+000 2.475105e-001 -9.711726e+000 180 175 163
2.537527e+000 -2.553218e+000 -1.013158e+001 120 61 50
2.583098e+000 -2.476098e+000 -1.002362e+001 146 108 70
3.919544e+000 1.280815e+000 -7.851944e+000 184 70 70
-2.375345e+000 -6.593881e-001 -8.510614e+000 140 68 44
1.772994e+000 -1.021251e+000 -9.155311e+000 197 194 186
-9.974024e-001 -9.793103e-001 -8.392138e+000 142 133 121
1.994588e+000 -2.460255e+000 -9.713249e+000 116 97 64
3.831427e+000 8.856773e-001 -7.823910e+000 221 211 199
3.073332e+000 1.673206e+000 -8.292459e+000 172 160 139
3.827170e+000 1.435114e+000 -7.906677e+000 141 82 77
1.937603e+000 1.404213e+000 -9.182929e+000 190 183 175
3.279058e+000 7.668635e-001 -8.171502e+000 109 93 74
2.537540e+000 7.656271e-001 -8.524501e+000 223 209 148
2.503081e+000 4.353447e-001 -8.642827e+000 217 201 142
2.427972e+000 6.203310e-002 -8.789557e+000 221 205 146
2.640115e+000 1.346703e-001 -8.600059e+000 240 222 159
2.654179e+000 9.820529e-002 -8.531202e+000 163 145 96
-7.581294e-001 3.030501e-001 -9.660816e+000 208 197 185
1.909077e+000 3.632491e-002 -9.300000e+000 133 123 94
1.909077e+000 3.632491e-002 -9.300000e+000 133 123 94
2.245928e+000 -1.070358e-002 -9.070682e+000 173 157 105
1.985175e+000 -4.154253e-001 -9.254369e+000 189 181 170
4.148001e+000 -9.726851e-001 -8.517698e+000 183 117 92
3.637537e+000 -1.204177e+000 -8.985056e+000 144 98 82
3.728046e+000 -1.200959e+000 -8.769808e+000 199 124 85
7.223014e-001 -1.634061e+000 -1.046518e+001 212 171 133
4.596137e-001 -1.763243e+000 -1.075245e+001 170 128 95
2.152555e-001 -1.996438e+000 -1.102447e+001 237 228 213
2.112434e+000 -2.115105e+000 -9.954049e+000 201 64 62
3.250371e+000 -2.129117e+000 -9.232685e+000 201 120 75
-1.335444e+000 -1.890743e+000 -9.413825e+000 200 82 65
-1.259604e+000 -1.883495e+000 -9.373496e+000 212 73 72
3.344864e+000 -2.406271e+000 -9.357069e+000 244 216 182
8.295327e-001 -2.654041e+000 -1.195710e+001 184 137 135
8.295327e-001 -2.654041e+000 -1.195710e+001 184 137 135
2.458404e+000 2.074940e+000 -9.115060e+000 219 211 200
3.900989e+000 1.008836e+000 -7.818267e+000 199 148 137
2.872414e+000 1.236502e+000 -8.256357e+000 193 176 130
3.089019e+000 1.025917e+000 -8.029456e+000 183 165 116
3.055378e+000 6.275544e-001 -7.969309e+000 148 135 118
2.254710e+000 3.565108e-001 -8.959050e+000 174 162 113
2.715873e+000 1.872307e-001 -8.445009e+000 182 166 107
2.283080e+000 3.012480e-001 -8.876954e+000 232 216 160
2.171278e+000 1.929043e-002 -9.054924e+000 227 214 160
-5.039305e-001 -4.154621e-001 -9.386234e+000 141 127 100
-3.492756e+000 -5.950456e-001 -8.007646e+000 141 105 58
-2.770927e+000 -1.324996e+000 -8.326029e+000 126 73 58
3.749060e-001 -1.657326e+000 -1.032867e+001 146 126 107
3.451143e+000 -1.806869e+000 -8.976160e+000 156 101 66
3.392936e+000 -1.910053e+000 -9.047612e+000 186 109 77
-2.764120e+000 -1.564993e+000 -8.554196e+000 46 21 16
2.031847e+000 -1.879971e+000 -9.965242e+000 181 84 82
3.219840e+000 -1.996240e+000 -9.403271e+000 196 137 104
3.242327e+000 -2.020576e+000 -9.434788e+000 231 181 127
-1.204016e+000 -1.833549e+000 -9.227223e+000 184 88 67
2.055655e+000 -2.257793e+000 -9.896319e+000 182 160 106
3.168496e+000 -2.403820e+000 -9.265206e+000 255 243 220
3.356212e+000 -2.445583e+000 -9.528913e+000 248 228 204
3.381259e+000 -2.357746e+000 -9.352603e+000 248 228 203
8.591404e-001 -2.730493e+000 -1.206162e+001 195 172 167
8.598489e-001 -2.730993e+000 -1.205984e+001 195 172 167
8.957731e-001 -2.761368e+000 -1.201918e+001 207 191 180
1.001712e+000 -2.775689e+000 -1.184309e+001 214 175 173
3.089389e+000 -2.463622e+000 -9.282834e+000 250 228 207
8.898694e-001 -2.834993e+000 -1.203733e+001 216 158 92
1.020752e+000 -2.796205e+000 -1.174290e+001 140 94 91
1.024193e+000 -2.830842e+000 -1.169989e+001 208 187 183
1.521634e+000 -3.114220e+000 -1.095633e+001 206 135 89
1.523920e+000 -3.202038e+000 -1.127053e+001 185 117 86
1.604864e+000 -3.176830e+000 -1.110297e+001 226 163 98
2.775754e+000 1.163965e+000 -8.281222e+000 189 175 131
1.237273e+000 1.539198e+000 -9.917016e+000 185 183 171
2.571441e+000 9.281689e-001 -8.408964e+000 215 197 136
2.532447e+000 7.075913e-001 -8.508919e+000 201 184 127
3.112188e+000 6.369183e-001 -8.046340e+000 94 80 54
3.174144e+000 7.021379e-001 -8.067411e+000 99 83 57
8.961084e-003 5.121805e-001 -9.852387e+000 170 163 153
2.460369e+000 5.658452e-002 -8.705398e+000 220 204 142
-7.193341e-001 3.418392e-001 -9.712686e+000 207 200 194
-7.859438e-001 -3.790630e-002 -9.418134e+000 105 82 73
-7.859438e-001 -3.790630e-002 -9.418134e+000 105 82 73
1.705725e+000 -1.205739e-001 -9.242519e+000 169 157 123
-9.569737e-001 -1.393344e-001 -8.777157e+000 133 78 63
-3.048412e+000 -4.944385e-001 -7.928072e+000 136 100 74
-2.553586e+000 -1.002544e+000 -8.255761e+000 132 96 75
-2.013771e+000 -1.559966e+000 -9.289779e+000 185 78 37
-2.086491e-001 -1.786193e+000 -1.059719e+001 204 200 196
1.087900e+000 -1.874680e+000 -1.105874e+001 171 108 82
3.527637e+000 -2.176183e+000 -9.030962e+000 194 123 67
2.288841e+000 -2.379255e+000 -9.840397e+000 84 53 32
2.545963e+000 -2.457489e+000 -1.027935e+001 110 55 29
3.489113e+000 -2.237668e+000 -9.092721e+000 196 128 71
-2.714647e-001 -2.597962e+000 -1.300255e+001 220 157 108
-3.069857e-001 -2.713604e+000 -1.317528e+001 216 137 82
3.278693e+000 -2.471586e+000 -9.539801e+000 253 215 185
1.404681e+000 -3.169313e+000 -1.146019e+001 193 112 67
4.070915e+000 1.023567e+000 -7.126088e+000 150 44 50
1.987168e-001 7.409571e-001 -1.021814e+001 222 218 207
-1.073437e+000 3.529268e-001 -1.008582e+001 232 228 217
1.942378e+000 1.393831e-001 -9.402088e+000 159 149 132
-2.465147e+000 -6.199517e-001 -8.102290e+000 142 74 54
-6.487139e-001 -5.963393e-001 -9.347811e+000 65 54 35
-3.132811e+000 -7.467530e-001 -7.914624e+000 103 54 49
-1.489803e+000 -8.423910e-001 -8.345481e+000 148 101 79
2.118469e-001 -1.052143e+000 -9.285158e+000 176 169 161
-2.911475e+000 -1.070430e+000 -8.035091e+000 212 120 75
-2.961820e+000 -1.144314e+000 -8.083339e+000 174 88 62
4.686721e-001 -1.725878e+000 -1.046136e+001 166 124 89
-2.487779e+000 -1.669576e+000 -9.516021e+000 194 69 32
2.055792e+000 -1.938381e+000 -1.008009e+001 203 77 78
2.558811e+000 -2.096089e+000 -1.014196e+001 146 86 50
3.217479e+000 -1.951725e+000 -9.189767e+000 220 177 128
-1.113551e+000 -1.870968e+000 -9.348066e+000 190 57 54
3.257341e+000 -2.563640e+000 -9.662879e+000 162 94 57
2.986224e+000 -2.843975e+000 -9.681317e+000 163 100 63
1.613987e+000 -3.235926e+000 -1.118413e+001 209 126 65
1.661589e+000 1.926904e+000 -9.722766e+000 180 173 155
-8.809707e-001 2.965177e-001 -9.750117e+000 203 196 188
2.115205e+000 6.198652e-002 -8.860822e+000 191 176 125
-9.789723e-001 2.896179e-001 -9.861881e+000 113 65 54
-1.161955e+000 -2.874420e-001 -8.897980e+000 110 43 32
-3.034073e+000 -5.585733e-001 -8.081587e+000 80 28 28
-2.459626e+000 -6.713948e-001 -8.101852e+000 74 32 30
-2.207604e+000 -7.024980e-001 -8.603813e+000 102 28 17
-1.539849e+000 -6.822306e-001 -8.504333e+000 193 71 55
-1.595919e+000 -7.742292e-001 -8.410240e+000 158 113 89
-1.507519e+000 -7.585511e-001 -8.472455e+000 213 74 67
-4.127798e-001 -7.611986e-001 -9.070043e+000 72 59 40
-2.393267e+000 -7.552762e-001 -8.340172e+000 98 39 25
4.710691e-002 -1.151203e+000 -9.426110e+000 181 176 167
-1.492788e+000 -1.168725e+000 -8.431140e+000 200 148 108
-3.090031e+000 -1.217416e+000 -8.097367e+000 176 68 38
-1.283278e+000 -1.663314e+000 -8.767064e+000 247 211 161
4.116537e-001 -1.858703e+000 -1.091237e+001 223 200 192
3.499598e+000 -2.133922e+000 -9.023980e+000 249 198 161
-2.591557e+000 -1.776149e+000 -9.771635e+000 220 132 76
-1.187591e+000 -1.788521e+000 -9.079481e+000 230 191 149
-1.187591e+000 -1.788521e+000 -9.079481e+000 230 191 149
7.450673e-001 -2.574163e+000 -1.198415e+001 190 72 74
3.771380e+000 7.474036e-001 -7.751834e+000 209 189 175
-1.331853e-001 7.557243e-001 -1.016954e+001 232 229 220
3.429086e+000 -1.002909e+000 -8.626601e+000 146 54 55
-7.161088e-001 -6.768785e-001 -9.246094e+000 36 28 25
-3.605439e+000 -7.384162e-001 -8.147199e+000 119 31 37
-2.050520e+000 -8.775092e-001 -8.788624e+000 157 102 74
-2.249544e+000 -1.137846e+000 -8.981255e+000 139 80 48
-3.819172e-002 -1.332550e+000 -9.861597e+000 157 153 150
-3.157854e+000 -1.133089e+000 -8.122902e+000 226 117 73
-1.869229e+000 -1.323850e+000 -8.993827e+000 216 149 113
1.674318e-002 -1.436715e+000 -1.011750e+001 108 95 84
2.100740e-001 -1.565953e+000 -1.031379e+001 151 122 107
1.213254e+000 -1.795637e+000 -1.093355e+001 160 113 80
