ply
format ascii 1.0
element face 0
property list uchar int vertex_indices
element vertex 864
property float x
property float y
property float z
property uchar diffuse_red
property uchar diffuse_green
property uchar diffuse_blue
end_header
3.787435e+000 -7.759525e-001 -8.229269e+000 128 43 46
2.916619e+000 1.107204e+000 -8.267930e+000 165 151 105
3.839403e+000 6.801290e-002 -7.912332e+000 237 228 220
-1.011793e+000 -1.111851e+000 -8.379750e+000 165 155 145
2.612788e+000 2.316955e+000 -9.187069e+000 208 201 193
-6.318191e-001 4.943249e-001 -1.004962e+001 172 165 157
3.016540e+000 1.520474e+000 -8.161792e+000 202 187 135
-6.462631e-001 -2.749693e-001 -9.382176e+000 151 138 130
2.228504e+000 4.457626e-001 -9.429210e+000 202 187 169
2.319563e+000 4.672713e-001 -8.753299e+000 184 171 119
-1.320512e+000 -2.696159e-001 -8.571020e+000 161 83 54
-5.942597e-001 -5.153820e-001 -9.433624e+000 82 70 56
2.199609e+000 3.066419e-001 -8.923529e+000 211 197 148
2.208595e+000 3.020048e-001 -8.824080e+000 248 235 180
-2.656732e+000 -1.375437e+000 -8.375940e+000 141 115 115
1.047907e+000 -7.780592e-001 -9.075596e+000 149 145 134
2.382582e+000 -4.180921e-001 -8.682657e+000 159 146 133
-7.245591e-001 -1.761691e+000 -8.898947e+000 71 57 48
2.050195e+000 -2.210153e+000 -9.890176e+000 103 85 56
3.408270e+000 2.306926e+000 -7.975615e+000 205 142 136
3.180234e+000 1.924917e+000 -8.034687e+000 178 162 117
-1.266804e+000 1.875299e-001 -1.013543e+001 154 91 74
9.848897e-001 7.402248e-001 -9.825576e+000 155 151 142
2.209916e+000 2.945705e-001 -8.898554e+000 203 187 137
2.323022e+000 4.075507e-001 -8.782411e+000 249 238 184
-3.373402e+000 -7.551537e-001 -8.101294e+000 151 124 77
-1.952238e+000 -6.893740e-001 -8.720961e+000 155 61 32
1.943066e+000 -8.619292e-002 -9.188366e+000 192 180 130
2.787033e+000 3.840687e-001 -8.266228e+000 193 177 123
-2.524265e+000 -9.415292e-001 -8.120112e+000 123 78 63
3.634852e-001 -6.448801e-001 -9.405485e+000 107 96 73
2.157661e+000 -4.402303e-001 -9.205775e+000 169 162 144
1.299863e+000 -3.457811e+000 -1.157151e+001 212 150 109
3.150771e+000 -1.950662e+000 -9.075623e+000 204 161 116
3.078139e+000 -2.766214e+000 -9.540625e+000 149 99 65
-2.176905e-001 1.007770e+000 -1.092100e+001 231 228 221
-6.662927e-001 4.785310e-001 -1.004622e+001 199 195 186
2.496888e+000 6.386300e-001 -8.533237e+000 185 168 115
-1.666024e+000 -4.772305e-001 -8.688020e+000 154 68 41
-1.433847e+000 -6.899195e-001 -8.496499e+000 154 131 117
-1.026277e+000 -6.128316e-001 -8.931628e+000 146 124 113
-2.960064e+000 -1.026609e+000 -8.008662e+000 232 134 87
1.939370e+000 -3.682111e-001 -9.232664e+000 161 149 108
-2.992838e+000 -1.283491e+000 -8.113949e+000 205 111 78
2.816026e-001 -1.116031e+000 -9.344991e+000 183 178 172
4.445484e+000 -1.356750e-002 -7.748819e+000 180 83 77
1.766416e+000 -3.276694e+000 -1.093087e+001 234 191 155
6.726590e+000 -3.016922e+000 -1.202486e+001 195 187 188
3.208023e+000 -2.575104e+000 -9.494788e+000 155 91 50
3.208023e+000 -2.575104e+000 -9.494788e+000 155 91 50
-2.098644e-001 2.232810e+000 -1.232459e+001 201 194 184
5.023940e-001 1.407065e+000 -1.061712e+001 174 171 164
-5.244756e-001 7.538029e-001 -1.155581e+001 222 218 215
3.047523e+000 1.693820e+000 -8.210269e+000 220 209 193
-1.392166e+000 2.084908e-001 -1.037506e+001 230 228 218
-3.531446e+000 -7.519853e-001 -8.143528e+000 105 80 47
-3.531446e+000 -7.519853e-001 -8.143528e+000 105 80 47
-2.609413e+000 -5.007844e-001 -8.424814e+000 151 69 39
2.307352e+000 4.513328e-001 -8.735093e+000 193 180 128
-6.123271e-001 -6.884308e-001 -9.422595e+000 82 68 53
3.916162e-001 -5.324949e-001 -9.494094e+000 118 109 99
1.198115e+000 -7.846885e-001 -9.059695e+000 71 61 51
3.066976e+000 -6.760224e-001 -8.606783e+000 151 131 117
8.925381e-001 -2.327925e+000 -1.097498e+001 190 77 64
2.183033e+000 1.693926e+000 -8.946819e+000 216 211 203
-9.574744e-001 2.851939e-001 -9.910494e+000 99 58 46
-1.321678e+000 -1.558913e-002 -8.968996e+000 151 81 56
-1.979787e+000 -3.394579e-001 -8.803348e+000 134 53 31
-1.979787e+000 -3.394579e-001 -8.803348e+000 134 53 31
-3.059074e+000 -5.259342e-001 -8.031517e+000 60 31 18
-1.847619e+000 -5.967687e-001 -8.726922e+000 132 50 27
-3.293050e+000 -7.681549e-001 -8.099494e+000 82 38 31
-2.937706e+000 -7.076355e-001 -8.060461e+000 121 59 43
-2.433478e+000 -6.451643e-001 -7.984199e+000 68 27 27
-6.655698e-001 -6.183207e-001 -9.279906e+000 74 62 48
5.726930e-001 -4.074699e-001 -9.556893e+000 153 149 142
3.197406e-001 -2.757705e+000 -1.211561e+001 199 125 71
6.909349e-001 -2.566197e+000 -1.194782e+001 157 99 86
3.216583e+000 1.936040e+000 -7.998634e+000 200 180 130
-4.192391e-001 6.791366e-001 -1.095558e+001 206 200 186
2.600937e-001 1.017540e+000 -1.038729e+001 222 218 211
2.978118e+000 1.494908e+000 -8.101180e+000 199 180 128
-3.271197e+000 -5.653868e-001 -8.065195e+000 64 41 27
-3.208671e+000 -5.643986e-001 -8.043698e+000 186 160 101
-3.469977e+000 -9.695256e-001 -8.223723e+000 184 160 104
-3.827596e-002 -4.252492e-001 -9.328646e+000 162 157 151
2.088080e+000 -1.808763e-001 -9.126402e+000 205 192 141
3.193588e+000 4.998491e-001 -8.201625e+000 175 163 154
-3.259514e+000 -9.565516e-001 -8.071695e+000 139 83 81
-3.063180e+000 -1.013646e+000 -8.035201e+000 233 131 84
2.221808e+000 2.029532e+000 -9.270784e+000 206 197 188
1.324430e+000 -1.931984e-001 -9.551784e+000 178 177 170
-5.170231e-001 -9.099233e-001 -8.884985e+000 159 151 144
2.684059e+000 -2.846609e+000 -9.971257e+000 130 77 43
3.127705e+000 -2.695045e+000 -9.563635e+000 221 171 148
3.053671e+000 1.617298e+000 -8.250630e+000 140 126 94
-3.169489e+000 -8.759832e-001 -8.033368e+000 79 31 29
-1.366978e+000 -1.403759e+000 -8.818342e+000 197 83 66
8.769242e-001 1.189411e+000 -9.769420e+000 183 179 168
8.769242e-001 1.189411e+000 -9.769420e+000 183 179 168
-1.077028e-003 7.154475e-001 -1.033189e+001 160 156 147
7.205012e-001 -2.141463e+000 -1.101885e+001 236 203 159
4.679807e+000 -1.013116e+000 -7.791958e+000 200 81 83
-7.889840e-001 4.558209e-001 -1.041555e+001 192 189 179
2.411480e+000 -2.612676e+000 -9.740693e+000 122 82 53
2.900849e+000 -1.448007e-001 -8.593113e+000 233 226 216
3.789994e+000 1.395013e+000 -7.876115e+000 137 45 50
1.474835e+000 -3.090579e+000 -1.135927e+001 211 158 82
1.549307e+000 -2.969738e+000 -1.126736e+001 207 144 80
3.619417e+000 -1.051889e+000 -8.751477e+000 164 115 99
3.608096e+000 -1.193294e+000 -8.805110e+000 148 91 58
-2.405765e+000 -1.060370e+000 -8.305953e+000 178 153 141
3.635990e+000 -1.097688e+000 -8.695822e+000 157 88 52
3.648160e+000 -1.070694e+000 -8.701355e+000 177 143 128
3.066350e+000 -2.228036e+000 -9.423274e+000 205 106 89
-3.359665e+000 -7.522449e-001 -8.068818e+000 166 136 81
-2.740956e+000 -7.524678e-001 -7.989498e+000 182 93 59
-2.189713e+000 -1.834256e+000 -9.905426e+000 113 53 36
-3.347742e+000 -3.671231e-001 -8.061967e+000 131 100 64
-3.225009e+000 -1.500854e+000 -8.483000e+000 76 28 26
-2.419895e+000 -1.657990e+000 -9.364940e+000 182 72 19
2.628979e+000 1.074655e+000 -8.383439e+000 146 131 102
3.191270e+000 4.509465e-001 -8.307832e+000 140 126 113
-3.408710e+000 -3.856873e-001 -8.027952e+000 236 208 145
3.326714e+000 -1.645902e+000 -8.856773e+000 137 94 80
2.988345e-001 -2.669720e+000 -1.223723e+001 155 120 103
2.894802e-001 -1.107319e+000 -9.351266e+000 183 179 171
1.152257e+000 -2.168211e+000 -1.109794e+001 204 137 121
1.153068e+000 -2.167184e+000 -1.109601e+001 204 137 121
-3.675843e+000 -8.019936e-001 -8.264413e+000 219 191 106
7.921047e-001 -2.975142e+000 -1.210442e+001 209 158 137
1.872325e+000 -7.761782e-001 -9.122837e+000 177 169 158
8.062371e-001 -2.402249e+000 -1.147438e+001 230 179 138
8.062371e-001 -2.402249e+000 -1.147438e+001 230 179 138
-9.089804e-001 1.979387e-001 -9.821624e+000 139 117 107
3.635945e+000 -1.107225e+000 -8.750404e+000 169 129 110
3.635945e+000 -1.107225e+000 -8.750404e+000 169 129 110
3.716109e+000 -1.148426e+000 -8.628694e+000 196 140 124
3.718841e+000 -1.173807e+000 -8.574791e+000 212 159 145
3.729510e+000 -1.231543e+000 -8.607895e+000 213 161 126
-8.958263e-002 -1.210022e-001 -9.388975e+000 176 169 163
-6.806944e-001 -6.330019e-001 -9.288116e+000 78 67 49
3.566939e+000 2.223546e-001 -8.110464e+000 201 191 181
-1.496961e+000 -8.267625e-001 -8.385881e+000 111 82 70
2.740269e+000 -1.879410e+000 -9.268213e+000 215 210 206
3.175122e+000 -2.164828e+000 -9.356624e+000 203 116 89
-3.038176e-001 5.270279e-001 -1.015740e+001 176 171 165
-8.606879e-001 1.773429e-001 -9.527979e+000 145 124 116
4.220125e+000 1.547499e-001 -7.499160e+000 177 57 65
3.007156e+000 -5.863669e-001 -8.507780e+000 149 132 120
3.213479e+000 -6.295807e-001 -8.084849e+000 136 56 59
1.823323e+000 1.159190e+000 -9.163612e+000 194 191 185
1.165654e+000 -3.597561e-001 -9.375718e+000 186 176 138
4.040021e-001 1.716412e+000 -1.146392e+001 214 211 206
-7.111404e-001 1.270015e-002 -9.519470e+000 145 130 124
1.601893e+000 2.323244e-001 -9.717193e+000 180 175 163
2.521029e+000 -2.541091e+000 -1.013174e+001 120 61 50
2.566326e+000 -2.464677e+000 -1.002504e+001 146 108 70
3.891544e+000 1.260419e+000 -7.879502e+000 184 70 70
-2.347689e+000 -6.718978e-001 -8.521520e+000 140 68 44
1.764078e+000 -1.024831e+000 -9.165713e+000 197 194 186
-9.809972e-001 -9.872067e-001 -8.405915e+000 142 133 121
1.984061e+000 -2.450065e+000 -9.717164e+000 116 97 64
3.804771e+000 8.686005e-001 -7.851323e+000 221 211 199
3.050624e+000 1.647616e+000 -8.313164e+000 172 160 139
3.799108e+000 1.412892e+000 -7.932503e+000 141 82 77
1.923663e+000 1.379190e+000 -9.192974e+000 190 183 175
3.256411e+000 7.497889e-001 -8.194181e+000 109 93 74
2.520741e+000 7.474750e-001 -8.542485e+000 223 209 148
2.486859e+000 4.200285e-001 -8.659705e+000 217 201 142
2.412673e+000 4.985718e-002 -8.804961e+000 221 205 146
2.623233e+000 1.221869e-001 -8.617659e+000 240 222 159
2.637393e+000 8.607702e-002 -8.549518e+000 163 145 96
-7.474114e-001 2.842048e-001 -9.662504e+000 208 197 185
1.897343e+000 2.356538e-002 -9.309502e+000 133 123 94
1.897343e+000 2.356538e-002 -9.309502e+000 133 123 94
2.231734e+000 -2.254834e-002 -9.083001e+000 173 157 105
1.973507e+000 -4.241044e-001 -9.264479e+000 189 181 170
4.119369e+000 -9.733171e-001 -8.538952e+000 183 117 92
3.612466e+000 -1.203470e+000 -9.000534e+000 144 98 82
3.702848e+000 -1.200167e+000 -8.787895e+000 199 124 85
7.211793e-001 -1.633568e+000 -1.046031e+001 212 171 133
4.605448e-001 -1.761846e+000 -1.074388e+001 170 128 95
2.182919e-001 -1.993101e+000 -1.101225e+001 237 228 213
2.100291e+000 -2.108277e+000 -9.957232e+000 201 64 62
3.229687e+000 -2.120695e+000 -9.245723e+000 201 120 75
-1.316145e+000 -1.891088e+000 -9.417103e+000 200 82 65
-1.240937e+000 -1.883821e+000 -9.377317e+000 212 73 72
3.323244e+000 -2.395128e+000 -9.368629e+000 244 216 182
8.258782e-001 -2.642906e+000 -1.193398e+001 184 137 135
8.258782e-001 -2.642906e+000 -1.193398e+001 184 137 135
2.438595e+000 2.044187e+000 -9.125980e+000 219 211 200
3.873266e+000 9.905657e-001 -7.845229e+000 199 148 137
2.852407e+000 1.214667e+000 -8.277304e+000 193 176 130
3.067998e+000 1.006363e+000 -8.053093e+000 183 165 116
3.035438e+000 6.114605e-001 -7.993471e+000 148 135 118
2.240134e+000 3.414742e-001 -8.972441e+000 174 162 113
2.698608e+000 1.744366e-001 -8.464286e+000 182 166 107
2.268518e+000 2.867577e-001 -8.891211e+000 232 216 160
2.157745e+000 7.081257e-003 -9.067265e+000 227 214 160
-4.939811e-001 -4.276943e-001 -9.390580e+000 141 127 100
-3.454899e+000 -6.096330e-001 -8.021505e+000 141 105 58
-2.738806e+000 -1.332367e+000 -8.338391e+000 126 73 58
3.772276e-001 -1.657158e+000 -1.032483e+001 146 126 107
3.428895e+000 -1.801072e+000 -8.992194e+000 156 101 66
3.371092e+000 -1.903425e+000 -9.062567e+000 186 109 77
-2.731767e+000 -1.570250e+000 -8.564008e+000 46 21 16
2.020043e+000 -1.875397e+000 -9.967635e+000 181 84 82
3.198597e+000 -1.988955e+000 -9.413797e+000 196 137 104
3.220825e+000 -2.013023e+000 -9.445022e+000 231 181 127
-1.185734e+000 -1.834296e+000 -9.232681e+000 184 88 67
2.044357e+000 -2.249771e+000 -9.899959e+000 182 160 106
3.148717e+000 -2.393015e+000 -9.277373e+000 255 243 220
3.334053e+000 -2.433970e+000 -9.538625e+000 248 228 204
3.359246e+000 -2.346985e+000 -9.364251e+000 248 228 203
8.559411e-001 -2.718551e+000 -1.204166e+001 195 172 167
8.558467e-001 -2.719033e+000 -1.203878e+001 195 172 167
8.914183e-001 -2.748641e+000 -1.199991e+001 207 191 180
9.967551e-001 -2.763151e+000 -1.182156e+001 214 175 173
3.070366e+000 -2.452392e+000 -9.294684e+000 250 228 207
8.856784e-001 -2.821917e+000 -1.201325e+001 216 158 92
1.015836e+000 -2.783500e+000 -1.172263e+001 140 94 91
1.019375e+000 -2.817815e+000 -1.168014e+001 208 187 183
1.513944e+000 -3.098196e+000 -1.094634e+001 206 135 89
1.515732e+000 -3.185046e+000 -1.125770e+001 185 117 86
1.596133e+000 -3.159949e+000 -1.109136e+001 226 163 98
2.756699e+000 1.142662e+000 -8.301827e+000 189 175 131
1.227946e+000 1.511537e+000 -9.918036e+000 185 183 171
2.554343e+000 9.086714e-001 -8.428105e+000 215 197 136
2.515843e+000 6.899689e-001 -8.527122e+000 201 184 127
3.091579e+000 6.208195e-001 -8.069974e+000 94 80 54
3.152809e+000 6.855338e-001 -8.090915e+000 99 83 57
1.232965e-002 4.924689e-001 -9.853191e+000 170 163 153
2.444988e+000 4.452252e-002 -8.721710e+000 220 204 142
-7.089881e-001 3.224902e-001 -9.712887e+000 207 200 194
-7.741824e-001 -5.371452e-002 -9.422457e+000 105 82 73
-7.741824e-001 -5.371452e-002 -9.422457e+000 105 82 73
1.696067e+000 -1.323060e-001 -9.251762e+000 169 157 123
-9.427125e-001 -1.543588e-001 -8.787753e+000 133 78 63
-3.014528e+000 -5.092686e-001 -7.943371e+000 136 100 74
-2.523658e+000 -1.012397e+000 -8.268814e+000 132 96 75
-1.988788e+000 -1.564146e+000 -9.293266e+000 185 78 37
-2.012864e-001 -1.785579e+000 -1.058936e+001 204 200 196
1.082533e+000 -1.871210e+000 -1.104740e+001 171 108 82
3.504965e+000 -2.166986e+000 -9.046296e+000 194 123 67
2.275582e+000 -2.369732e+000 -9.844545e+000 84 53 32
2.529301e+000 -2.446593e+000 -1.027896e+001 110 55 29
3.466703e+000 -2.227953e+000 -9.107353e+000 196 128 71
-2.661010e-001 -2.588343e+000 -1.296450e+001 220 157 108
-3.013611e-001 -2.702722e+000 -1.313476e+001 216 137 82
3.257247e+000 -2.459849e+000 -9.549240e+000 253 215 185
1.397166e+000 -3.152676e+000 -1.144508e+001 193 112 67
4.043927e+000 1.005875e+000 -7.159961e+000 150 44 50
1.994477e-001 7.190025e-001 -1.021402e+001 222 218 207
-1.060550e+000 3.330224e-001 -1.008236e+001 232 228 217
1.929954e+000 1.257234e-001 -9.410527e+000 159 149 132
-2.436384e+000 -6.329294e-001 -8.116919e+000 142 74 54
-6.371932e-001 -6.071769e-001 -9.352428e+000 65 54 35
-3.097985e+000 -7.595297e-001 -7.930251e+000 103 54 49
-1.469387e+000 -8.522057e-001 -8.359145e+000 148 101 79
2.166112e-001 -1.057821e+000 -9.291750e+000 176 169 161
-2.878238e+000 -1.080179e+000 -8.049979e+000 212 120 75
-2.928265e+000 -1.153454e+000 -8.098169e+000 174 88 62
4.699969e-001 -1.724907e+000 -1.045612e+001 166 124 89
-2.458536e+000 -1.673319e+000 -9.516287e+000 194 69 32
2.043630e+000 -1.933207e+000 -1.008159e+001 203 77 78
2.541911e+000 -2.088620e+000 -1.014314e+001 146 86 50
3.196900e+000 -1.944945e+000 -9.202930e+000 220 177 128
-1.096161e+000 -1.871224e+000 -9.352392e+000 190 57 54
3.235881e+000 -2.551028e+000 -9.670968e+000 162 94 57
2.967620e+000 -2.829220e+000 -9.688845e+000 163 100 63
1.605066e+000 -3.218385e+000 -1.117156e+001 209 126 65
1.648092e+000 1.896147e+000 -9.726065e+000 180 173 155
-8.692809e-001 2.775218e-001 -9.750642e+000 203 196 188
2.102460e+000 4.930600e-002 -8.874651e+000 191 176 125
-9.665527e-001 2.705022e-001 -9.861040e+000 113 65 54
-1.145774e+000 -3.016152e-001 -8.906336e+000 110 43 32
-3.000450e+000 -5.728227e-001 -8.095657e+000 80 28 28
-2.430856e+000 -6.839261e-001 -8.116541e+000 74 32 30
-2.181485e+000 -7.144441e-001 -8.614005e+000 102 28 17
-1.519404e+000 -6.934732e-001 -8.516304e+000 193 71 55
-1.574835e+000 -7.847324e-001 -8.423424e+000 158 113 89
-1.487292e+000 -7.690674e-001 -8.485183e+000 213 74 67
-4.027249e-001 -7.702050e-001 -9.078661e+000 72 59 40
-2.365229e+000 -7.670041e-001 -8.352747e+000 98 39 25
5.318666e-002 -1.156193e+000 -9.431723e+000 181 176 167
-1.472041e+000 -1.175764e+000 -8.444289e+000 200 148 108
-3.055268e+000 -1.226117e+000 -8.111915e+000 176 68 38
-1.263997e+000 -1.665793e+000 -8.777172e+000 247 211 161
4.128722e-001 -1.856429e+000 -1.090169e+001 223 200 192
3.477130e+000 -2.125144e+000 -9.039301e+000 249 198 161
-2.561549e+000 -1.779012e+000 -9.769547e+000 220 132 76
-1.169339e+000 -1.789692e+000 -9.086523e+000 230 191 149
-1.169339e+000 -1.789692e+000 -9.086523e+000 230 191 149
7.420824e-001 -2.563938e+000 -1.196063e+001 190 72 74
3.745321e+000 7.312061e-001 -7.779027e+000 209 189 175
-1.294052e-001 7.334522e-001 -1.016651e+001 232 229 220
3.406516e+000 -1.004441e+000 -8.645018e+000 146 54 55
-7.037422e-001 -6.870983e-001 -9.251697e+000 36 28 25
-3.566820e+000 -7.518541e-001 -8.160258e+000 119 31 37
-2.025716e+000 -8.877479e-001 -8.797197e+000 157 102 74
-2.222784e+000 -1.146082e+000 -8.987561e+000 139 80 48
-3.177774e-002 -1.335913e+000 -9.862676e+000 157 153 150
-3.122458e+000 -1.142621e+000 -8.136611e+000 226 117 73
-1.845592e+000 -1.329973e+000 -9.000661e+000 216 149 113
2.234127e-002 -1.439108e+000 -1.011557e+001 108 95 84
2.137851e-001 -1.566857e+000 -1.030992e+001 151 122 107
1.206940e+000 -1.792715e+000 -1.092470e+001 160 113 80
1.921238e+000 -1.882688e+000 -9.837091e+000 81 41 38
-1.162616e+000 -1.922648e+000 -9.397055e+000 172 152 141
5.549139e-001 -2.146630e+000 -1.153649e+001 248 210 158
6.972798e-001 -2.305351e+000 -1.153966e+001 243 207 156
-4.057229e-001 -2.573663e+000 -1.333609e+001 240 168 115
9.102172e-001 -2.543664e+000 -1.141148e+001 222 177 136
1.374889e+000 -2.829270e+000 -1.144204e+001 227 184 117
1.360219e+000 -2.826992e+000 -1.133390e+001 227 184 117
1.530520e+000 -3.089766e+000 -1.135558e+001 225 186 111
1.437915e+000 -3.147079e+000 -1.123026e+001 231 186 117
2.417578e+000 1.876224e+000 -8.840070e+000 161 153 142
2.417578e+000 1.876224e+000 -8.840070e+000 161 153 142
1.242540e+000 1.632068e+000 -1.014730e+001 182 179 164
3.650973e-001 1.231448e+000 -1.028123e+001 196 189 179
1.814391e+000 -5.809206e-001 -9.109506e+000 171 162 152
2.065455e+000 -3.782880e-001 -9.157701e+000 149 136 91
-2.760757e+000 -8.316540e-001 -8.000693e+000 141 61 36
-1.645824e+000 -8.172274e-001 -8.386935e+000 191 152 110
-1.384758e+000 -1.260440e+000 -8.664227e+000 215 158 114
8.679904e-001 -1.782542e+000 -1.098999e+001 140 48 42
-1.967090e+000 -1.656281e+000 -9.545376e+000 159 66 43
-1.260716e-004 -1.714424e+000 -1.049366e+001 174 166 154
4.903109e-001 -2.016562e+000 -1.132460e+001 148 49 47
3.323223e+000 -2.107671e+000 -9.015602e+000 253 250 247
3.323223e+000 -2.107671e+000 -9.015602e+000 253 250 247
-1.190493e+000 -1.772769e+000 -9.078626e+000 233 197 150
9.931423e-001 -2.629639e+000 -1.144078e+001 214 71 69
1.088571e+000 -3.071177e+000 -1.187006e+001 178 87 85
1.980300e+000 1.874166e+000 -9.270773e+000 232 226 215
1.291535e+000 1.442231e+000 -9.824756e+000 239 236 228
1.561648e-001 9.782546e-001 -1.046258e+001 177 168 159
1.561648e-001 9.782546e-001 -1.046258e+001 177 168 159
1.835270e+000 6.594768e-002 -9.432689e+000 142 132 113
4.105703e+000 -9.141087e-001 -8.141851e+000 172 58 60
-3.132120e+000 -5.382650e-001 -7.974310e+000 198 168 112
-2.463332e+000 -6.194862e-001 -8.070461e+000 74 31 27
-2.227321e+000 -1.293433e+000 -9.120260e+000 111 31 19
-2.187980e+000 -1.315316e+000 -8.528202e+000 172 125 84
3.638821e-001 -1.587079e+000 -1.007024e+001 196 188 183
1.024380e+000 -1.794527e+000 -1.074656e+001 212 169 127
-2.294120e+000 -1.456095e+000 -8.669927e+000 149 53 22
-2.156869e+000 -1.650149e+000 -9.538971e+000 143 43 21
-1.547700e+000 -1.503349e+000 -8.940663e+000 222 169 123
2.165899e+000 -2.110431e+000 -9.892169e+000 220 86 84
9.514830e-001 -2.810045e+000 -1.197125e+001 216 198 154
2.094072e+000 1.971381e+000 -9.279330e+000 188 177 167
3.927648e+000 1.001749e+000 -7.833371e+000 190 71 73
1.186564e+000 1.890855e+000 -1.045593e+001 243 241 232
3.772856e+000 6.107962e-001 -7.692921e+000 233 222 210
1.069415e+000 1.268700e+000 -9.831619e+000 239 236 227
2.545121e+000 7.646246e-001 -8.349785e+000 254 248 188
2.437681e+000 7.496915e-001 -9.037219e+000 233 231 216
-7.547051e-001 1.872766e-001 -9.528799e+000 138 79 62
-1.656073e+000 -6.930042e-001 -8.613022e+000 61 20 21
-3.540068e-001 -8.522776e-001 -9.091069e+000 154 145 136
-2.787945e+000 -1.531709e+000 -8.480621e+000 170 89 63
-1.969915e+000 -1.581074e+000 -9.134930e+000 215 113 69
-1.379813e+000 -1.497904e+000 -8.694218e+000 245 204 154
3.988942e+000 1.418686e+000 -7.795763e+000 207 74 77
3.948866e+000 1.011300e+000 -7.862492e+000 183 64 66
2.521319e+000 7.286403e-001 -8.260674e+000 254 246 183
3.310843e+000 -7.089100e-001 -8.523256e+000 109 44 49
-2.390338e+000 -7.142692e-001 -8.259344e+000 87 34 26
3.545263e+000 -1.100094e+000 -8.894794e+000 90 47 39
-3.624298e+000 -8.638946e-001 -8.250655e+000 244 215 143
-1.941801e+000 -1.099283e+000 -8.714753e+000 128 53 34
-1.903875e+000 -1.477738e+000 -9.350808e+000 90 24 21
-9.394529e-001 -1.832392e+000 -8.934686e+000 185 178 168
3.326502e+000 1.344072e+000 -8.124470e+000 169 152 103
1.146048e+000 1.633311e+000 -1.025605e+001 191 183 170
1.146048e+000 1.633311e+000 -1.025605e+001 191 183 170
2.861226e+000 6.979740e-001 -8.341232e+000 187 172 117
-5.377690e-001 1.667840e-001 -9.496003e+000 206 202 199
3.609675e+000 -1.884817e+000 -9.018897e+000 253 255 252
3.609675e+000 -1.884817e+000 -9.018897e+000 253 255 252
-2.026343e+000 -1.691966e+000 -9.502201e+000 207 99 50
2.527874e+000 1.200237e+000 -8.453815e+000 240 233 224
2.430639e+000 5.161594e-001 -8.912523e+000 156 142 99
-3.638243e-001 -6.677002e-001 -9.141779e+000 69 57 39
2.725062e+000 -2.178518e+000 -9.790657e+000 223 198 144
1.365802e+000 2.075997e+000 -1.058853e+001 242 239 230
1.010131e+000 -9.199171e-001 -8.962209e+000 231 231 223
3.076915e+000 -1.680263e+000 -8.824443e+000 222 217 209
2.845153e+000 -2.234383e+000 -9.709194e+000 226 201 147
2.845220e+000 -2.586979e+000 -9.889271e+000 119 60 42
1.664992e+000 2.202009e+000 -9.648422e+000 242 235 225
3.238167e+000 6.194078e-001 -8.380251e+000 103 84 70
2.868580e+000 5.708836e-001 -8.883434e+000 255 255 199
1.719719e+000 -3.190353e-001 -9.123645e+000 97 87 61
1.718105e+000 -3.158673e-001 -9.130188e+000 97 87 61
1.898482e+000 -2.837284e+000 -9.808309e+000 101 78 46
-6.933057e-001 7.952547e-001 -1.034731e+001 224 221 214
3.760468e+000 1.960233e-001 -7.887328e+000 242 231 223
2.365621e+000 -1.271639e+000 -8.697265e+000 240 236 227
-8.282408e-001 1.663043e+000 -1.260132e+001 225 220 214
2.609653e+000 2.315937e+000 -9.184550e+000 208 201 193
1.095647e+000 2.972405e-001 -9.653362e+000 177 173 162
-3.328894e+000 -6.143453e-001 -8.069153e+000 173 144 94
-3.207594e+000 -6.009404e-001 -8.078011e+000 136 107 71
-3.042294e+000 -4.914672e-001 -8.064485e+000 118 61 35
2.168760e+000 2.243561e-001 -8.885900e+000 155 140 97
-3.356889e+000 -7.633271e-001 -8.120729e+000 199 172 119
-3.187697e+000 -7.985122e-001 -7.994965e+000 125 74 70
-2.494842e+000 -6.456674e-001 -7.991000e+000 104 49 46
-2.852511e-001 -6.170758e-001 -9.381323e+000 90 78 62
-2.482140e-001 -6.339721e-001 -9.332920e+000 136 127 118
9.915986e-001 -4.146602e-001 -9.385943e+000 179 169 133
-8.384118e-002 -1.081216e+000 -9.195346e+000 164 159 153
1.706170e+000 -3.424725e+000 -1.108824e+001 222 163 132
1.799533e+000 -2.691117e+000 -9.889348e+000 129 108 76
-5.695836e-001 4.703257e-001 -9.901083e+000 191 186 178
-3.553679e+000 -5.396182e-001 -8.101818e+000 229 200 130
-2.024590e+000 -7.165245e-001 -8.717337e+000 136 50 24
-2.429556e+000 -1.024405e+000 -8.316840e+000 54 42 45
-2.358920e+000 -1.061372e+000 -8.336798e+000 186 151 122
-6.676075e-001 4.799522e-001 -1.004122e+001 199 195 186
-2.483145e+000 -8.816392e-001 -8.238160e+000 128 91 66
-6.392315e-001 1.661619e+000 -1.235147e+001 213 210 205
-7.786900e-001 -7.085650e-002 -9.408110e+000 100 76 72
-1.295035e+000 -8.774195e-001 -8.248737e+000 146 137 122
-1.385459e+000 3.524881e-001 -1.040565e+001 184 97 76
-2.820949e+000 -1.391433e+000 -8.259318e+000 112 45 28
3.666420e+000 -1.211053e+000 -8.743916e+000 173 104 63
3.056204e+000 -2.524242e+000 -9.458847e+000 136 77 47
-1.337303e+000 1.582268e+000 -1.320596e+001 245 240 235
8.376019e-001 -9.327767e-001 -9.168360e+000 194 190 181
-2.152534e+000 -3.224574e-001 -9.035284e+000 140 53 32
2.479273e+000 7.023906e-001 -8.582562e+000 158 144 98
1.549010e+000 1.820015e+000 -1.002684e+001 195 191 182
2.787203e+000 2.120711e+000 -8.841475e+000 203 199 192
8.700598e-002 7.575004e-001 -1.040183e+001 184 178 173
-9.469432e-001 2.439878e-001 -9.858663e+000 119 76 64
-7.065292e-001 1.907841e-001 -9.609027e+000 136 103 94
-3.446800e+000 -6.558835e-001 -8.130696e+000 202 172 121
3.323889e+000 1.132549e+000 -7.792448e+000 215 196 138
2.263896e+000 4.563620e-001 -8.731819e+000 206 190 140
-2.350693e+000 -9.195189e-001 -8.292035e+000 75 62 62
-5.201515e-001 -7.257868e-001 -9.415285e+000 57 45 32
1.796384e+000 -1.386147e-001 -9.200034e+000 164 156 119
2.034774e+000 -1.114925e-001 -8.969978e+000 195 181 133
2.877756e+000 5.200680e-001 -8.034954e+000 209 194 134
3.040672e+000 6.051045e-001 -8.007378e+000 167 155 134
3.023945e+000 5.747897e-001 -8.003396e+000 127 115 91
-3.285346e+000 -1.326611e+000 -8.294354e+000 71 27 17
-1.947704e+000 -1.210531e+000 -8.948426e+000 188 126 90
1.868893e+000 -3.326892e-001 -9.128416e+000 164 152 114
2.104689e+000 -4.339028e-001 -9.003307e+000 219 215 205
2.217442e+000 -3.911519e-001 -8.894029e+000 174 165 143
1.151857e+000 -3.512326e+000 -1.187838e+001 221 162 126
3.606089e+000 -1.013642e+000 -8.647097e+000 156 86 70
1.300261e+000 -3.309134e+000 -1.124305e+001 222 161 126
5.480488e-002 7.935922e-001 -1.043414e+001 214 211 204
9.841296e-002 9.006893e-001 -1.045974e+001 186 179 169
3.184765e+000 1.879508e+000 -7.998717e+000 207 190 137
3.381941e+000 1.534907e+000 -7.668390e+000 249 242 205
-1.096886e+000 -9.307540e-002 -9.238636e+000 100 40 32
3.780236e+000 1.350489e+000 -7.812342e+000 176 106 98
-2.388291e+000 -7.737870e-001 -8.282423e+000 99 46 33
-6.914397e-001 -7.067744e-001 -9.110581e+000 119 108 102
1.438104e+000 -2.211175e-001 -9.286370e+000 203 193 157
2.475455e+000 -2.794810e-002 -8.508946e+000 164 152 102
2.591079e+000 4.789279e-003 -8.536739e+000 169 154 111
-2.695672e+000 -1.389192e+000 -8.346125e+000 105 43 26
-1.951352e+000 -1.480840e+000 -8.960316e+000 164 74 41
2.430573e+000 -1.628160e-001 -8.650735e+000 99 91 67
2.355868e+000 -4.097329e-001 -8.573855e+000 171 161 148
1.143218e+000 -3.429421e+000 -1.179862e+001 252 198 164
1.700254e+000 -3.329194e+000 -1.103483e+001 214 147 105
3.674220e+000 -1.235208e+000 -8.573588e+000 197 119 69
2.650589e+000 -2.708140e+000 -1.010506e+001 150 114 66
-6.024933e-001 1.873504e+000 -1.237804e+001 206 200 194
1.028486e+000 1.929885e+000 -1.137137e+001 216 210 196
3.436465e+000 1.781671e+000 -7.735982e+000 244 223 168
-3.376590e+000 -3.436792e-001 -8.099400e+000 130 105 65
-9.520461e-001 -7.369707e-002 -9.074626e+000 125 68 53
-1.334080e+000 -1.699668e-001 -8.515400e+000 206 106 58
2.455762e+000 7.226313e-001 -8.522552e+000 147 134 91
-9.939339e-001 -3.643537e-001 -8.929489e+000 44 22 22
-9.936891e-001 -5.428728e-001 -9.322871e+000 91 73 65
1.645135e+000 -1.302483e-001 -9.149052e+000 114 103 74
2.831007e+000 4.029743e-001 -8.199190e+000 163 151 102
2.968754e+000 5.973682e-001 -8.008102e+000 163 148 124
-1.428317e+000 -9.855462e-001 -8.319930e+000 68 43 43
-1.428317e+000 -9.855462e-001 -8.319930e+000 68 43 43
1.120294e+000 -7.443200e-001 -8.937380e+000 165 152 143
-5.752143e-001 -1.260977e+000 -8.779505e+000 180 170 160
4.107283e+000 -1.815326e-001 -7.559052e+000 192 177 170
2.012520e+000 -2.184113e+000 -9.781247e+000 158 140 97
2.795546e+000 -3.003691e+000 -9.982369e+000 249 205 179
3.398064e+000 -2.420065e+000 -9.220608e+000 201 123 66
5.627307e-001 1.721172e+000 -1.159363e+001 203 200 193
2.372939e+000 8.616866e-001 -9.163112e+000 202 197 186
2.231020e+000 4.659392e-001 -9.349106e+000 191 174 154
2.462495e+000 6.892114e-001 -8.492755e+000 187 173 122
-3.362959e+000 -9.464204e-001 -8.096875e+000 161 110 106
1.779977e+000 -1.892424e-001 -9.280224e+000 159 151 115
2.022583e+000 -5.198260e-002 -9.108856e+000 238 225 174
-3.129964e+000 -1.155286e+000 -8.123860e+000 223 119 72
-2.613017e+000 -1.468475e+000 -8.422146e+000 154 81 50
-5.950185e-002 -1.159285e+000 -9.233937e+000 181 178 175
1.535618e+000 -2.739616e+000 -1.103802e+001 224 93 89
-1.380351e+000 3.271570e-001 -1.045277e+001 176 97 73
-1.380351e+000 3.271570e-001 -1.045277e+001 176 97 73
-4.643099e-001 6.311054e-001 -1.108758e+001 202 196 185
-3.611879e-001 4.936885e-001 -1.013216e+001 140 132 121
2.254594e-001 4.825312e-001 -9.914652e+000 171 168 163
3.161749e+000 1.412912e+000 -8.004812e+000 219 200 142
-1.102557e+000 -6.567080e-002 -9.024104e+000 144 78 53
-6.944899e-001 -1.043049e-001 -9.535310e+000 113 95 85
-2.096448e+000 -5.338339e-001 -8.755258e+000 126 50 27
1.912559e+000 1.250259e-002 -9.494179e+000 175 169 160
-2.380410e+000 -8.205158e-001 -8.317334e+000 137 96 71
-1.641157e-001 -7.255105e-001 -9.447508e+000 35 27 25
1.506813e+000 -4.739568e-001 -9.299216e+000 85 78 52
-1.396554e+000 -1.739627e+000 -8.995418e+000 59 49 48
3.742196e+000 -1.190088e+000 -8.550225e+000 197 73 77
3.239451e+000 2.050818e+000 -8.031491e+000 132 118 92
-7.326501e-001 -2.325664e-002 -9.408245e+000 111 75 58
1.799454e+000 -1.231617e-001 -9.272435e+000 117 108 77
-1.397846e+000 -1.156996e+000 -8.453826e+000 205 155 120
-1.351617e+000 -1.662324e+000 -8.715681e+000 241 148 93
2.418387e-001 -2.816409e+000 -1.201042e+001 181 134 112
-7.807511e-001 5.131908e-001 -1.041676e+001 169 162 146
3.238789e+000 2.047372e+000 -8.029658e+000 134 122 94
3.104902e+000 1.627991e+000 -8.154998e+000 245 226 169
2.295325e+000 7.731846e-001 -9.238756e+000 219 215 207
1.441253e+000 -2.464179e-001 -9.544865e+000 119 111 96
-1.513640e+000 -1.069334e+000 -8.317848e+000 222 191 155
5.194888e-001 -1.517266e+000 -1.001004e+001 177 170 167
6.973042e-001 -3.303246e+000 -1.219663e+001 247 197 165
3.693371e+000 -1.117400e+000 -8.688091e+000 170 97 64
-2.017365e+000 -4.425958e-001 -8.786282e+000 150 70 46
-2.017365e+000 -4.425958e-001 -8.786282e+000 150 70 46
2.093395e+000 4.360943e-001 -9.409674e+000 221 217 207
-1.882933e+000 -1.182321e+000 -8.703171e+000 131 55 37
-5.154171e-001 -9.580356e-001 -8.996366e+000 163 154 148
3.589734e+000 -1.100661e+000 -8.692961e+000 168 121 101
1.840018e+000 -3.215374e+000 -1.117123e+001 126 110 69
2.574670e+000 -2.882326e+000 -9.547987e+000 95 68 69
5.096909e-001 1.649152e+000 -1.074012e+001 160 156 147
-7.075416e-001 9.955016e-001 -1.243660e+001 240 237 233
3.235135e+000 1.699612e+000 -8.251302e+000 255 248 197
2.450350e+000 7.373873e-001 -8.842874e+000 224 218 205
-2.132646e+000 -8.064945e-001 -8.766556e+000 78 23 13
2.029134e+000 -2.286757e+000 -9.736500e+000 247 233 178
3.585907e+000 -1.146612e+000 -8.441015e+000 189 113 65
1.739458e+000 -3.069063e+000 -9.944920e+000 112 96 63
-1.149789e+000 3.612014e-001 -1.016112e+001 238 236 223
2.663099e+000 8.493745e-001 -8.568327e+000 255 250 195
2.663099e+000 8.493745e-001 -8.568327e+000 255 250 195
2.149647e+000 -5.904600e-002 -9.172434e+000 255 250 202
-1.803237e+000 -1.019721e+000 -8.628966e+000 234 195 146
3.008303e+000 -2.568788e+000 -9.632897e+000 126 71 40
1.179669e+000 1.404402e+000 -1.004298e+001 169 162 156
1.179669e+000 1.404402e+000 -1.004298e+001 169 162 156
4.554180e-001 -2.273998e+000 -1.133621e+001 134 94 82
9.958242e-001 -2.275736e+000 -1.119282e+001 172 53 56
4.019796e+000 -2.464687e-001 -7.484854e+000 192 67 71
-3.054063e+000 -6.575355e-001 -8.081800e+000 75 32 31
2.848653e+000 2.454249e-001 -8.435637e+000 149 137 95
-6.626622e-001 -1.246594e+000 -8.820177e+000 185 179 174
2.552684e+000 7.213899e-001 -7.838588e+000 253 252 198
-4.818944e-001 -6.088659e-001 -9.184302e+000 62 50 38
-4.818944e-001 -6.088659e-001 -9.184302e+000 62 50 38
3.283114e+000 5.968006e-001 -8.326760e+000 151 138 105
-7.729878e-001 -3.132974e-001 -8.895934e+000 51 33 30
3.409327e+000 1.536297e+000 -7.941586e+000 254 250 202
-1.442048e+000 -1.105472e+000 -8.364771e+000 192 156 123
-1.812623e+000 -1.954311e+000 -9.845734e+000 60 22 11
-6.765715e-002 -1.400622e-001 -9.345281e+000 157 154 145
-3.578893e+000 -5.184422e-001 -8.173079e+000 123 95 51
3.569568e+000 -1.167186e+000 -8.775211e+000 131 78 57
3.720837e+000 -1.236895e+000 -8.593147e+000 230 184 167
3.653836e+000 -1.191309e+000 -8.717525e+000 179 106 62
3.632655e+000 -1.232442e+000 -8.745135e+000 177 105 56
-1.922537e+000 3.561105e+000 -1.390853e+001 238 230 228
-1.149795e-001 -2.714912e-001 -9.297678e+000 147 138 130
-2.979775e+000 -1.063698e+000 -8.038741e+000 204 103 57
7.983729e-001 -1.772857e+000 -1.100567e+001 163 98 60
-7.453785e-001 3.957673e-003 -9.379404e+000 109 63 54
1.953864e+000 -2.900679e+000 -8.760927e+000 122 105 62
1.032573e+000 -2.154934e+000 -1.115947e+001 144 40 37
-4.990754e-001 2.298670e+000 -1.262177e+001 177 171 159
-4.213954e-001 4.103261e+000 -1.255478e+001 236 226 216
8.621605e-001 -8.508534e-001 -8.965245e+000 231 228 219
-3.374502e+000 -1.149175e+000 -8.262002e+000 135 70 64
-2.662699e-001 3.901273e+000 -1.238968e+001 214 206 195
-7.658527e-001 2.370388e+000 -1.271791e+001 184 177 166
-4.286874e-001 2.103975e+000 -1.251648e+001 229 223 215
-5.130840e-002 3.356634e+000 -1.210182e+001 205 196 187
-4.723065e-002 3.352196e+000 -1.209525e+001 205 196 187
-7.425951e-002 1.703276e+000 -1.135080e+001 187 180 170
-6.975843e-001 2.647256e+000 -1.280358e+001 222 218 213
3.575154e+000 5.280034e-002 -7.913103e+000 213 201 187
3.667295e+000 -9.976418e-001 -8.687267e+000 142 77 53
-2.583946e+000 -1.253094e+000 -8.348012e+000 92 62 53
-2.570242e+000 -1.431297e+000 -8.441907e+000 164 105 71
2.054588e+000 -2.222288e+000 -9.885404e+000 162 140 94
-7.275030e-001 4.039738e-003 -9.481520e+000 138 121 112
3.609030e+000 -1.082566e+000 -8.616472e+000 166 137 131
-5.823200e-001 -5.201945e-001 -9.362171e+000 92 83 64
-3.574853e+000 -5.413371e-001 -8.219192e+000 133 103 52
-3.324355e+000 -8.505722e-001 -8.095176e+000 140 80 75
1.998742e+000 -2.165752e+000 -9.880775e+000 133 116 68
7.155344e-001 -2.619180e+000 -1.220117e+001 137 100 91
2.190634e+000 4.160470e-001 -9.286706e+000 218 208 188
-5.418277e-001 -5.568654e-001 -9.369233e+000 100 89 69
-2.386887e+000 -9.218465e-001 -8.349734e+000 47 27 29
-2.589375e+000 -1.291026e+000 -8.416496e+000 77 56 56
3.011222e+000 -2.385168e+000 -9.480731e+000 177 93 60
8.615354e-001 -2.541676e+000 -1.153341e+001 209 101 83
8.519023e-001 -2.761158e+000 -1.203065e+001 186 105 71
7.052237e-001 1.042212e+000 -9.861328e+000 237 232 226
-6.320666e-001 -5.091705e-001 -9.455644e+000 55 42 27
-4.575732e-001 -4.877561e-001 -9.423525e+000 62 51 32
-3.340420e+000 -6.863332e-001 -8.104448e+000 128 97 51
-1.351491e+000 -1.049907e+000 -8.188744e+000 201 77 77
-1.232043e+000 -1.648759e+000 -8.884018e+000 221 163 120
1.570802e+000 -2.751343e+000 -1.130160e+001 204 108 72
1.579462e+000 -3.215828e+000 -1.137537e+001 253 251 241
2.514202e+000 3.644005e-001 -8.405627e+000 243 227 165
-4.867626e-001 -1.784350e-001 -9.364975e+000 170 163 155
2.431742e-001 -2.370386e-001 -9.435992e+000 155 148 138
1.973776e+000 -3.721815e-001 -9.081212e+000 200 187 135
-3.492942e+000 -7.724327e-001 -8.151493e+000 249 225 164
-1.268375e-001 -1.096927e+000 -9.203368e+000 128 120 109
-1.428270e+000 -1.188761e+000 -8.593074e+000 185 117 82
3.265186e+000 -1.865660e+000 -9.063015e+000 183 143 116
-4.395248e-001 -1.536300e+000 -1.014858e+001 127 114 101
-3.121805e+000 -1.516530e+000 -8.595238e+000 144 50 32
-7.090751e-001 -1.875715e+000 -1.407028e+001 251 207 57
1.568620e+000 -2.914632e+000 -1.139666e+001 227 186 106
3.716755e-001 4.264093e+000 -1.182560e+001 237 223 207
2.336692e+000 5.900536e-001 -8.982075e+000 203 195 184
-8.230960e-001 1.039727e-002 -9.347313e+000 141 80 64
2.017104e+000 -4.693188e-001 -9.050403e+000 228 228 216
2.188915e+000 -4.548133e-001 -8.883371e+000 244 237 227
-1.507659e+000 -1.039884e+000 -8.333904e+000 205 175 136
-1.507659e+000 -1.039884e+000 -8.333904e+000 205 175 136
-3.515611e+000 -1.016480e+000 -8.277634e+000 187 147 98
-4.280835e-001 -1.455292e+000 -1.018549e+001 135 124 113
-2.322729e+000 -1.250859e+000 -8.311403e+000 179 123 78
7.734521e-001 -1.649255e+000 -1.055127e+001 210 171 134
-7.991659e-001 -1.886521e+000 -1.396866e+001 223 137 59
-8.877506e-001 -1.996673e+000 -1.440931e+001 244 174 119
2.758175e+000 1.096011e+000 -8.513646e+000 203 187 135
2.252639e+000 2.727244e-001 -8.968908e+000 213 197 138
4.973191e-001 3.479068e-001 -9.703713e+000 157 153 142
4.047880e+000 -9.969023e-001 -8.127568e+000 146 123 106
3.066451e-001 -3.841090e-001 -9.468348e+000 161 156 146
-1.378723e+000 -8.180677e-001 -8.395554e+000 123 42 44
-2.895255e+000 -9.156794e-001 -7.994546e+000 223 127 74
3.175571e+000 -2.040701e+000 -9.307340e+000 226 182 116
-2.452536e+000 -1.742825e+000 -9.782532e+000 45 23 15
-2.452536e+000 -1.742825e+000 -9.782532e+000 45 23 15
2.402959e-001 4.127604e+000 -1.174871e+001 243 234 224
-3.980991e-001 4.209217e+000 -1.244944e+001 214 80 81
1.814102e+000 1.756162e+000 -9.412996e+000 200 193 184
2.128020e+000 2.614988e-001 -9.218662e+000 205 200 187
1.740063e-001 3.132711e-001 -9.570018e+000 153 145 135
-1.049492e+000 -3.225911e-001 -8.906802e+000 158 82 53
-6.596629e-001 -2.354793e-001 -9.430946e+000 136 126 117
-1.796818e-001 4.113276e+000 -1.224533e+001 242 234 227
2.284866e-001 7.728705e-001 -1.020827e+001 234 233 223
3.239249e+000 -6.960823e-001 -8.333554e+000 106 40 41
1.007071e+000 -2.434462e+000 -1.134803e+001 168 45 49
1.494002e+000 1.416892e+000 -9.392074e+000 238 233 227
4.066224e-001 6.193346e-001 -9.805444e+000 171 164 148
-2.265993e+000 -1.242821e+000 -8.414864e+000 167 113 81
-2.269813e+000 -1.300273e+000 -9.289842e+000 118 35 19
7.147411e-001 -2.972255e+000 -1.220344e+001 213 167 142
1.044787e+000 3.307940e+000 -1.085889e+001 250 244 232
2.847348e+000 1.766317e-001 -8.511260e+000 100 87 68
1.785448e+000 -2.227917e+000 -1.006392e+001 111 88 57
-4.424720e-001 3.481448e+000 -1.205034e+001 243 239 230
-2.509598e-001 2.534434e-001 -9.547621e+000 166 159 151
3.544037e+000 -1.655212e+000 -9.208647e+000 93 48 45
-2.983987e-001 -1.372987e+000 -9.979649e+000 98 85 76
-1.477839e+000 -1.725217e+000 -9.266083e+000 237 197 145
-6.156949e-001 -3.644550e-001 -9.477203e+000 124 110 83
-3.325732e+000 -1.419818e+000 -8.469412e+000 117 68 70
-1.930556e+000 -1.679982e+000 -9.191752e+000 202 86 40
2.569426e+000 -2.008353e+000 -9.885596e+000 175 68 59
3.554548e+000 -1.259497e+000 -8.816589e+000 166 127 112
2.202195e+000 -2.077597e+000 -9.864016e+000 221 84 85
8.915865e-001 -2.700532e+000 -1.206021e+001 124 91 87
2.330113e+000 -2.672153e+000 -8.571387e+000 108 88 55
1.199594e+000 -3.091797e+000 -1.176278e+001 198 103 74
1.398408e+000 -2.946375e+000 -1.146766e+001 198 99 78
-1.029549e-001 -1.730842e-001 -9.300144e+000 165 158 150
1.979240e+000 -9.925481e-001 -9.161416e+000 228 221 211
-3.486898e+000 -8.034834e-001 -8.179430e+000 155 128 72
3.207348e+000 -2.131580e+000 -9.286269e+000 221 136 103
8.974499e-001 -2.992918e+000 -1.207485e+001 204 134 85
-3.378576e+000 -6.306588e-001 -8.091482e+000 138 109 63
-2.573703e+000 -1.399217e+000 -8.446267e+000 198 158 120
6.218601e-001 -2.184773e+000 -1.145502e+001 217 176 126
3.470751e-001 -1.151067e+000 -9.380780e+000 175 172 165
-2.874093e+000 -1.339878e+000 -8.229112e+000 155 75 54
-2.648962e+000 -1.363268e+000 -8.471345e+000 57 38 38
-2.984521e+000 -1.356192e+000 -8.221258e+000 189 82 49
4.076587e+000 -1.887611e-001 -7.489887e+000 135 103 91
1.092669e+000 3.477754e-001 -9.755272e+000 144 137 127
-2.438936e+000 -1.055770e+000 -8.359473e+000 172 146 131
1.810999e+000 -5.837643e-001 -9.151824e+000 164 156 143
3.790428e+000 -9.408412e-001 -8.560332e+000 185 134 117
3.782964e+000 -9.443835e-001 -8.544670e+000 185 134 117
3.733538e+000 -1.190517e+000 -8.642672e+000 197 117 73
-2.382340e+000 -8.733533e-001 -8.322129e+000 76 46 32
1.053454e+000 -2.191260e+000 -4.806527e+000 141 55 50
-2.650031e+000 -1.252151e+000 -8.328895e+000 71 39 28
-2.579861e+000 -1.235047e+000 -8.339997e+000 169 129 96
-3.048896e+000 -1.474882e+000 -8.377325e+000 195 88 46
-2.210733e+000 -1.511249e+000 -9.158780e+000 179 84 46
1.984875e+000 -2.127270e+000 -9.965419e+000 108 89 52
-2.847851e+000 -1.604719e+000 -8.796166e+000 133 60 46
6.976058e-001 -2.585985e+000 -1.214330e+001 110 53 50
8.453117e-001 -2.684412e+000 -1.204371e+001 141 107 113
1.434203e+000 -3.120514e+000 -1.134575e+001 214 161 90
1.727223e+000 -7.236815e-002 -9.282423e+000 113 102 76
3.633897e+000 -1.040883e+000 -8.785062e+000 150 107 96
3.766075e+000 -1.002116e+000 -8.595622e+000 206 160 142
3.765054e+000 -1.078843e+000 -8.603018e+000 172 109 74
-3.933789e-001 -4.702559e-001 -9.331606e+000 61 52 38
-1.879591e+000 -5.816108e-001 -8.731094e+000 146 71 48
-3.109381e+000 -1.426332e+000 -8.275631e+000 208 101 49
-2.365241e+000 -1.445626e+000 -8.568599e+000 157 110 74
4.483676e-001 -1.814948e+000 -1.090818e+001 163 125 100
2.071770e+000 -2.284931e+000 -9.874121e+000 186 170 111
1.666734e+000 -2.802925e+000 -1.118030e+001 187 112 69
1.029847e+000 -2.845168e+000 -1.184326e+001 194 180 169
1.094472e+000 -2.920303e+000 -1.173592e+001 213 163 115
3.884886e+000 -1.038740e+000 -8.368335e+000 221 180 163
-6.713788e-001 -3.399987e-001 -9.514380e+000 87 74 54
-6.713788e-001 -3.399987e-001 -9.514380e+000 87 74 54
3.543573e+000 -1.239027e+000 -8.851178e+000 138 97 85
-4.159854e-001 -4.780036e-001 -9.373537e+000 87 76 58
3.298372e+000 -1.383248e+000 -8.921253e+000 111 72 62
3.381732e+000 -1.716405e+000 -8.991225e+000 129 87 72
-3.227446e+000 -8.151370e-001 -8.008943e+000 103 58 52
-3.218480e+000 -7.726063e-001 -8.020858e+000 129 79 72
3.353685e+000 -1.871593e+000 -9.037536e+000 196 142 87
-2.874624e+000 -1.122246e+000 -8.018613e+000 142 60 37
-2.308189e-002 -1.389800e+000 -9.791556e+000 138 133 127
-3.045554e+000 -1.447627e+000 -8.346116e+000 215 109 69
1.536497e+000 -2.795189e+000 -1.129084e+001 182 93 59
2.663910e+000 -2.952117e+000 -1.013625e+001 253 211 191
8.188842e-001 -2.692945e+000 -1.207545e+001 191 161 160
9.900119e-001 -2.763710e+000 -1.172484e+001 206 172 170
1.645054e+000 -3.051298e+000 -1.119240e+001 203 132 80
3.846397e+000 -1.015319e+000 -8.380197e+000 208 174 164
3.778378e+000 -1.055685e+000 -8.551937e+000 208 176 162
3.745876e+000 -1.135371e+000 -8.621485e+000 182 108 69
3.692785e+000 -1.147997e+000 -8.652366e+000 180 102 55
1.696227e-001 -4.168830e-001 -9.380780e+000 137 128 119
-2.983514e-001 -5.981970e-001 -9.416603e+000 59 47 37
-3.392248e+000 -6.931597e-001 -8.117195e+000 211 185 128
-2.890134e+000 -1.028459e+000 -7.992844e+000 212 116 70
2.020587e+000 -1.860381e+000 -9.872005e+000 198 59 62
1.065305e+000 -1.870113e+000 -1.096413e+001 151 89 63
-2.975823e+000 -1.443267e+000 -8.257872e+000 184 75 45
2.025718e+000 -2.224946e+000 -9.950953e+000 168 143 89
1.601884e+000 -2.599140e+000 -1.072333e+001 220 81 81
1.552737e+000 -2.742463e+000 -1.127621e+001 191 110 57
1.661867e+000 -2.652046e+000 -1.094160e+001 118 40 31
1.661867e+000 -2.652046e+000 -1.094160e+001 118 40 31
9.530040e-001 7.151960e-001 -9.879365e+000 156 152 139
3.797774e+000 -1.167566e+000 -8.463742e+000 209 185 174
-7.655595e-001 -1.565156e-001 -9.544332e+000 74 54 51
1.417173e-001 -4.719227e-001 -9.388661e+000 132 123 114
3.687043e+000 -1.243000e+000 -8.627856e+000 190 118 64
-3.231300e+000 -5.990664e-001 -8.049929e+000 189 164 107
8.977841e-001 -1.141297e+000 -9.192013e+000 221 217 208
-6.116710e-001 -1.318248e+000 -8.886551e+000 107 93 80
1.180392e-001 -1.485529e+000 -1.042126e+001 141 127 115
-1.123580e+000 -1.810303e+000 -9.114300e+000 215 164 124
-1.121171e+000 -1.808810e+000 -9.127353e+000 215 164 124
-5.899476e-001 -1.845554e+000 -1.340976e+001 248 204 74
2.841364e+000 -3.943995e-001 -8.376560e+000 181 169 153
9.383887e-001 -1.606136e-002 -9.739432e+000 144 140 131
3.867961e+000 -9.354165e-001 -8.132878e+000 151 44 48
3.794976e+000 -1.104713e+000 -8.564439e+000 187 112 66
4.319262e+000 -1.032070e+000 -8.795164e+000 136 111 97
-9.950242e-002 -4.152801e-001 -9.353595e+000 111 104 96
-6.832819e-001 -9.340368e-001 -8.692150e+000 134 121 112
3.166353e+000 -1.963565e+000 -9.345004e+000 198 126 101
1.288734e+000 -2.967466e+000 -1.148843e+001 223 177 103
2.532375e+000 -3.101512e+000 -1.031505e+001 205 123 63
-4.137074e-001 4.113387e+000 -1.259466e+001 239 229 220
2.436707e+000 4.789143e-002 -8.710901e+000 201 185 126
-2.452511e+000 -8.497266e-001 -8.270516e+000 105 63 47
-2.445183e+000 -8.578043e-001 -8.255507e+000 105 63 47
-2.262611e+000 -1.306891e+000 -8.727495e+000 150 105 74
-3.243835e+000 -1.436129e+000 -8.463090e+000 66 18 14
1.370877e+000 1.610999e+000 -9.745502e+000 218 214 203
-1.660851e+000 3.843760e+000 -1.368485e+001 231 228 225
3.609643e+000 -1.139917e+000 -8.738734e+000 139 79 50
3.680520e+000 -1.115666e+000 -8.672621e+000 161 93 49
2.699522e-001 -1.747301e+000 -1.054750e+001 175 165 153
1.461079e+000 -3.125127e+000 -1.136290e+001 230 185 114
2.198717e+000 4.913968e-001 -9.109011e+000 226 219 203
2.467217e+000 -2.977765e-002 -8.786741e+000 255 254 198
-2.803861e-001 -1.344391e-001 -9.362946e+000 175 170 164
-2.313612e-001 -4.844574e-001 -9.629996e+000 118 109 100
1.307156e+000 -1.730262e+000 -1.007428e+001 104 77 56
2.014034e+000 -2.059645e+000 -1.005403e+001 61 22 24
1.445455e+000 -2.957585e+000 -1.138647e+001 183 81 70
-1.436021e+000 4.036169e+000 -1.352729e+001 226 222 219
6.513233e-001 9.496733e-001 -9.855887e+000 177 170 159
2.383797e+000 3.355623e-002 -9.216017e+000 160 147 95
3.599592e-001 5.083870e-002 -9.590457e+000 148 142 129
7.074021e-001 -7.357322e-001 -9.141966e+000 215 215 208
5.683071e-001 -8.514514e-001 -9.189383e+000 175 171 162
-1.238758e+000 -1.719163e+000 -8.932802e+000 240 203 158
3.806352e+000 -8.491313e-001 -8.316591e+000 127 37 43
1.814486e-001 -1.086809e+000 -9.203571e+000 131 122 113
1.968468e+000 -2.311887e+000 -9.936743e+000 253 245 186
3.077995e+000 2.006312e-001 -8.364811e+000 240 231 222
1.600770e+000 1.109410e+000 -9.350453e+000 243 238 232
1.049160e+000 -5.586195e-001 -8.989884e+000 144 131 97
3.145092e+000 -2.490868e-001 -8.233816e+000 246 237 228
3.171167e+000 -1.064456e+000 -8.319434e+000 115 41 45
2.635125e+000 4.222036e-001 -8.327786e+000 196 183 125
2.637395e+000 4.223032e-002 -8.415842e+000 106 93 58
2.509738e+000 -9.370508e-002 -8.525312e+000 110 96 71
3.873839e+000 -8.863165e-001 -8.392779e+000 153 95 67
2.276078e+000 -2.225695e-001 -8.826991e+000 198 182 123
3.010468e+000 -6.961484e-001 -8.464767e+000 133 110 96
3.844797e+000 -9.977268e-001 -8.372022e+000 227 168 131
3.607561e+000 -9.653298e-001 -8.659056e+000 82 36 35
3.636790e+000 -1.074595e+000 -8.855873e+000 142 101 81
3.714530e+000 -1.099630e+000 -8.922899e+000 174 148 129
3.689620e+000 -1.114733e+000 -8.876857e+000 174 148 129
2.072820e+000 -3.812216e-001 -9.142269e+000 191 182 147
3.802579e+000 -1.600974e+000 -8.609735e+000 234 191 146
-1.577488e+000 -8.237138e-001 -8.382744e+000 83 65 54
-7.749858e-001 -7.633416e-001 -8.835988e+000 48 37 30
-4.376118e-001 -5.546371e-001 -9.365868e+000 61 52 32
3.181734e+000 -1.996894e+000 -9.369888e+000 227 172 98
3.511589e+000 -2.089172e+000 -9.113634e+000 233 173 127
3.420418e+000 -2.195681e+000 -9.168392e+000 224 168 116
-3.058787e+000 -5.133823e-001 -8.004477e+000 114 91 85
-2.337970e+000 -5.682302e-001 -8.617757e+000 165 104 86
-3.324177e+000 -6.406162e-001 -8.029112e+000 137 113 75
-3.238199e+000 -7.452090e-001 -8.018562e+000 100 56 49
-2.487523e+000 -9.326691e-001 -8.265202e+000 52 28 25
-2.456352e+000 -9.402171e-001 -8.244613e+000 68 48 45
-2.442286e+000 -9.036279e-001 -8.274269e+000 70 48 44
-2.492056e+000 -1.013527e+000 -8.119768e+000 68 38 30
-2.464258e+000 -1.059890e+000 -8.260911e+000 93 64 55
-2.442943e+000 -1.047363e+000 -8.314037e+000 120 104 105
-1.976456e+000 -8.383059e-001 -8.788401e+000 95 37 26
-4.419178e-001 -1.234954e+000 -9.509872e+000 43 33 23
-2.979465e+000 -1.063170e+000 -8.023563e+000 188 91 50
-2.633839e+000 -1.211031e+000 -8.287208e+000 95 60 30
-2.268031e+000 -1.315045e+000 -8.386554e+000 148 95 86
