ply
format ascii 1.0
element face 0
property list uchar int vertex_indices
element vertex 866
property float x
property float y
property float z
property uchar diffuse_red
property uchar diffuse_green
property uchar diffuse_blue
end_header
1.802899e+000 -2.707016e+000 -9.760272e+000 103 86 60
-3.218416e+000 -1.517945e+000 -8.458480e+000 138 87 85
-3.218416e+000 -1.517945e+000 -8.458480e+000 138 87 85
2.313989e+000 -2.917341e+000 -1.051857e+001 166 85 53
-2.225394e+000 -1.759416e+000 -9.962521e+000 175 63 24
7.654796e-001 -2.571088e+000 -1.146000e+001 197 79 74
1.836827e+000 -3.029278e+000 -1.084532e+001 224 151 94
2.415282e+000 -3.114162e+000 -1.047947e+001 208 154 109
2.299626e+000 -3.193127e+000 -1.085656e+001 210 137 82
7.452606e-001 -2.603732e+000 -1.218027e+001 80 54 51
1.290572e+000 -3.069836e+000 -1.152430e+001 211 133 73
1.358683e+000 -3.098955e+000 -1.139955e+001 203 128 66
1.562710e+000 -3.079741e+000 -1.136648e+001 217 157 83
1.609857e+000 -3.123636e+000 -1.115279e+001 202 111 69
1.516356e+000 -3.132247e+000 -1.128920e+001 210 138 80
1.781394e+000 -3.254786e+000 -1.092012e+001 225 142 82
1.890153e+000 -3.287998e+000 -1.098166e+001 231 160 108
1.898015e+000 -3.330883e+000 -1.103551e+001 253 235 213
2.064053e+000 -3.209685e+000 -1.074903e+001 202 126 74
1.668618e+000 -3.359494e+000 -1.116585e+001 254 243 225
4.751033e-001 -3.178032e+000 -1.273200e+001 247 207 180
4.731093e-001 -3.184715e+000 -1.261012e+001 247 207 180
2.683998e+000 1.150518e+000 -8.686166e+000 191 176 125
1.824096e+000 1.198804e+000 -9.210213e+000 206 203 194
3.883185e+000 -8.905982e-001 -8.334556e+000 123 66 45
3.614545e+000 -9.095831e-001 -8.521355e+000 151 60 58
3.763938e+000 -9.775310e-001 -8.561491e+000 218 190 173
3.757057e+000 -1.045792e+000 -8.571052e+000 222 191 175
3.757057e+000 -1.045792e+000 -8.571052e+000 222 191 175
3.782682e+000 -1.161793e+000 -8.422206e+000 196 115 64
1.895393e+000 1.468313e-001 -9.401236e+000 194 185 176
1.927434e+000 -7.787697e-002 -9.176591e+000 176 163 117
2.105807e+000 -3.250819e-001 -9.106219e+000 254 247 193
3.853747e+000 -1.603369e+000 -8.561373e+000 102 74 62
-6.283862e-001 -1.547634e-001 -9.462124e+000 138 124 115
3.549924e+000 -2.010800e+000 -8.933769e+000 185 109 45
4.219057e+000 -1.906237e+000 -9.904696e+000 162 142 118
-2.419334e+000 -6.935844e-001 -8.009827e+000 139 91 91
-1.504776e+000 -8.247910e-001 -8.381728e+000 69 40 43
-5.107911e-001 -5.652730e-001 -9.303640e+000 59 52 33
3.277798e+000 -1.972205e+000 -9.202542e+000 225 161 95
3.273218e+000 -2.010781e+000 -9.192247e+000 179 78 56
3.485522e+000 -2.160822e+000 -9.163079e+000 188 108 53
-2.962007e+000 -6.692740e-001 -7.938289e+000 58 24 25
-1.570467e+000 -9.541788e-001 -8.281094e+000 51 51 59
-1.415789e+000 -9.218003e-001 -8.328973e+000 137 92 76
-3.418458e+000 -6.501031e-001 -8.070094e+000 130 107 67
-3.387963e+000 -7.393313e-001 -8.125917e+000 239 216 165
-3.320394e+000 -7.704699e-001 -8.053658e+000 116 90 51
-3.197360e+000 -8.150330e-001 -7.965436e+000 78 34 30
-2.465002e+000 -9.139393e-001 -8.238603e+000 92 56 45
-2.501935e+000 -1.001076e+000 -8.285719e+000 100 66 51
2.578390e+000 -2.067201e+000 -1.010123e+001 130 69 33
3.221063e+000 -2.421746e+000 -9.400433e+000 253 250 233
-3.405773e+000 -8.280381e-001 -8.156548e+000 251 227 171
-1.248237e+000 -1.394476e+000 -8.656718e+000 141 43 32
-4.629826e-001 -1.221366e+000 -9.861857e+000 62 49 34
-4.239543e-001 -1.216031e+000 -9.924104e+000 74 62 42
2.961274e-001 -1.571986e+000 -1.037792e+001 99 58 44
1.268682e+000 -1.643239e+000 -1.084129e+001 83 51 30
2.024909e+000 -2.240023e+000 -9.897072e+000 175 154 99
-2.663716e+000 -1.352819e+000 -8.228791e+000 90 50 42
-2.632495e+000 -1.350444e+000 -8.330030e+000 27 17 18
-2.601995e+000 -1.376352e+000 -8.399904e+000 32 20 22
2.699911e-001 -1.595318e+000 -1.039239e+001 140 121 107
-2.982055e+000 -1.477127e+000 -8.378675e+000 158 57 24
-2.967418e+000 -1.508563e+000 -8.461012e+000 179 96 62
-2.851404e+000 -1.555483e+000 -8.531845e+000 119 44 22
-2.169474e+000 -1.529452e+000 -9.204741e+000 120 34 14
-2.160890e+000 -1.486645e+000 -9.477712e+000 124 38 18
-1.102967e+000 -1.790988e+000 -9.322472e+000 112 43 28
-1.072030e+000 -1.840607e+000 -9.243974e+000 171 58 54
1.716815e+000 -2.806512e+000 -9.662395e+000 121 104 78
1.600483e+000 -2.760834e+000 -1.113425e+001 158 53 39
1.601856e+000 -2.843177e+000 -1.118555e+001 221 164 85
1.714984e+000 -2.788130e+000 -1.107094e+001 189 110 51
2.499481e-001 -2.516176e+000 -1.124392e+001 157 127 109
6.708558e-001 -2.693968e+000 -1.214076e+001 148 86 45
9.281698e-001 -2.726815e+000 -1.197998e+001 133 111 113
1.637954e+000 -3.035587e+000 -1.115002e+001 189 108 62
1.631967e+000 -3.160416e+000 -1.112978e+001 188 99 48
2.048719e-001 -2.703294e+000 -1.176645e+001 147 118 99
1.235656e+000 -3.058896e+000 -1.159626e+001 215 148 78
1.852959e+000 -3.433876e+000 -1.098744e+001 208 143 101
2.439439e+000 6.684456e-001 -8.328571e+000 200 185 131
2.560946e+000 -1.728561e-002 -8.519359e+000 104 91 60
2.090784e+000 9.618475e-002 -8.982336e+000 142 128 85
3.673247e+000 -9.599503e-001 -8.599205e+000 152 83 42
3.762451e+000 -1.131527e+000 -8.436979e+000 191 111 54
3.763831e+000 -1.131613e+000 -8.435013e+000 191 111 54
3.816495e+000 -1.098240e+000 -8.413288e+000 200 110 47
1.294029e+000 -2.076416e-001 -9.434336e+000 198 199 186
1.541858e+000 -2.452136e-001 -9.218021e+000 144 134 99
1.507462e+000 -1.919093e-001 -9.413087e+000 145 134 100
1.156749e+000 -7.521990e-001 -8.887837e+000 117 108 77
-4.857146e-001 -1.958322e-001 -9.307652e+000 167 160 155
-1.516508e+000 -8.783718e-001 -8.309433e+000 152 123 103
-2.579787e-001 -7.609920e-001 -9.198825e+000 57 48 33
3.145605e+000 -1.921963e+000 -9.471085e+000 203 134 81
3.272606e+000 -1.969710e+000 -9.206755e+000 223 165 94
-1.569080e+000 -9.515224e-001 -8.286542e+000 50 51 58
-3.409229e+000 -5.970188e-001 -8.099308e+000 44 30 24
-2.187529e+000 -8.601258e-001 -8.825692e+000 73 15 14
-5.241538e-001 -1.273978e+000 -8.975581e+000 122 106 90
-2.396846e+000 -1.153102e+000 -8.296826e+000 167 123 84
2.092051e+000 -2.039436e+000 -1.006717e+001 190 58 59
2.309995e+000 -2.692253e+000 -8.684121e+000 84 57 38
3.069300e+000 -2.711142e+000 -9.456416e+000 99 51 34
-3.275262e+000 -1.178528e+000 -8.153596e+000 176 124 119
2.933270e-001 -1.652768e+000 -1.012477e+001 102 59 43
3.061845e+000 -2.747327e+000 -9.616272e+000 99 60 38
-2.810989e+000 -1.531537e+000 -8.405269e+000 120 46 24
-2.631072e+000 -1.506221e+000 -8.460950e+000 137 70 51
2.686333e+000 -2.880100e+000 -1.015577e+001 175 105 56
-3.118628e+000 -1.588089e+000 -8.606965e+000 198 120 58
2.343298e+000 -3.029654e+000 -1.039658e+001 211 140 87
2.410379e+000 -3.046147e+000 -1.048366e+001 206 130 78
2.544802e+000 -2.950196e+000 -1.023074e+001 199 123 65
-8.969873e-001 -1.373876e+000 -1.362985e+001 233 84 96
6.949499e-001 -2.395940e+000 -1.162923e+001 140 52 41
7.603072e-001 -2.653188e+000 -1.213237e+001 164 143 145
1.528001e+000 -3.162047e+000 -1.131519e+001 161 68 48
1.988611e+000 -3.353860e+000 -1.083795e+001 206 135 75
-4.944147e-001 -2.395329e+000 -1.358310e+001 208 130 64
1.312901e+000 -3.116408e+000 -1.148643e+001 212 131 71
1.457469e+000 -3.209326e+000 -1.144787e+001 202 113 50
1.585067e+000 -3.428739e+000 -1.120102e+001 210 123 69
1.707440e+000 -3.379403e+000 -1.090164e+001 212 132 73
1.881622e+000 -3.370508e+000 -1.100809e+001 208 133 66
1.881622e+000 -3.370508e+000 -1.100809e+001 208 133 66
1.915725e+000 -3.412745e+000 -1.100134e+001 215 144 92
1.643612e+000 1.823124e+000 -9.611600e+000 249 243 231
2.147015e+000 1.454682e-001 -8.786507e+000 190 177 127
2.049967e+000 5.053075e-002 -9.267122e+000 210 199 151
2.197312e+000 -4.175319e-001 -9.013255e+000 244 241 231
3.562872e+000 -9.848716e-001 -8.664313e+000 72 31 26
-7.879497e-001 3.023075e+000 -1.316053e+001 222 220 208
-8.906311e-001 3.061993e+000 -1.324703e+001 224 220 209
-8.906311e-001 3.061993e+000 -1.324703e+001 224 220 209
1.937198e+000 -3.768667e-001 -9.213593e+000 148 134 96
2.041249e+000 -3.604325e-001 -9.199956e+000 181 167 113
3.884882e+000 -1.542542e+000 -8.728069e+000 112 63 36
3.971613e+000 -1.550481e+000 -8.698719e+000 125 107 87
-6.630998e-001 2.567716e-001 -9.636918e+000 166 153 147
-6.222556e-001 1.619580e-001 -9.563107e+000 199 196 191
4.121395e+000 -1.767781e+000 -9.355513e+000 122 99 68
-1.197942e+000 -2.792902e-001 -8.808274e+000 97 37 30
3.354200e+000 -1.891468e+000 -9.183580e+000 224 174 99
-2.418783e+000 -6.312587e-001 -8.006054e+000 71 40 43
-2.406661e+000 -6.456013e-001 -7.979037e+000 71 40 43
-1.613443e+000 -4.938779e-001 -8.645799e+000 161 86 55
-8.099839e-001 -9.454379e-001 -8.628626e+000 118 110 99
-4.622288e-002 -9.308527e-001 -9.181597e+000 113 102 94
3.234404e+000 -1.979039e+000 -9.245519e+000 179 83 63
3.292661e+000 -1.959272e+000 -9.140933e+000 180 75 62
3.525782e+000 -2.056187e+000 -9.110882e+000 250 243 224
-2.358995e+000 -8.152876e-001 -8.337018e+000 114 77 64
-1.674827e+000 -9.572929e-001 -8.239763e+000 212 179 126
-6.127306e-001 -1.240849e+000 -8.765324e+000 112 102 92
-1.162713e-001 -1.088912e+000 -9.200704e+000 104 95 88
2.353132e-001 -1.110532e+000 -9.326344e+000 114 105 96
3.077559e+000 -2.039224e+000 -9.388713e+000 202 130 76
3.153419e+000 -2.171624e+000 -9.329025e+000 194 85 69
3.117725e+000 -2.208442e+000 -9.369692e+000 234 176 94
-3.572161e+000 -6.199052e-001 -8.147666e+000 197 170 103
-3.571115e+000 -6.230925e-001 -8.141459e+000 197 170 103
-2.801648e+000 -8.535154e-001 -7.974760e+000 151 63 38
-2.745388e+000 -8.944053e-001 -7.974694e+000 158 80 52
-2.745388e+000 -8.944053e-001 -7.974694e+000 158 80 52
-1.348237e+000 -1.145015e+000 -8.585433e+000 190 116 95
-1.282648e+000 -1.288101e+000 -8.635743e+000 198 85 73
2.523825e+000 -2.055358e+000 -1.014150e+001 122 71 40
-3.437858e+000 -9.222552e-001 -8.163193e+000 84 52 27
-2.335732e+000 -1.172059e+000 -8.279296e+000 167 123 88
-1.201366e+000 -1.485438e+000 -8.669055e+000 180 82 63
-1.221928e+000 -1.440631e+000 -8.798429e+000 180 82 63
2.210643e+000 -2.258272e+000 -9.886383e+000 71 35 21
-2.518579e+000 -1.403116e+000 -8.406299e+000 171 137 99
-1.190672e+000 -1.597905e+000 -8.712128e+000 165 92 64
-7.731426e-002 -1.701352e+000 -1.041157e+001 167 160 150
1.050729e+000 -1.782267e+000 -1.079383e+001 193 151 111
1.050729e+000 -1.782267e+000 -1.079383e+001 193 151 111
-2.705857e+000 -1.531900e+000 -8.429824e+000 94 31 14
-2.738913e+000 -1.557765e+000 -8.631524e+000 82 19 18
-2.382596e+000 -1.514811e+000 -8.960840e+000 141 45 19
-2.189297e+000 -1.597889e+000 -9.139281e+000 160 74 40
-1.423743e-001 -1.720849e+000 -1.047106e+001 186 182 173
-8.369443e-002 -1.765202e+000 -1.042938e+001 153 143 134
-1.591952e+000 -1.882550e+000 -9.633211e+000 155 59 42
2.458598e+000 -3.064611e+000 -1.039583e+001 249 240 230
-2.524861e+000 -1.784010e+000 -9.702936e+000 204 121 64
-1.984628e+000 -1.806455e+000 -9.900351e+000 108 36 21
1.732849e+000 -2.972622e+000 -1.104027e+001 227 184 99
1.757754e+000 -3.024166e+000 -1.098908e+001 198 97 74
7.145458e-001 -2.754733e+000 -1.212427e+001 176 117 47
1.352259e+000 -2.938717e+000 -1.144379e+001 182 83 54
1.572297e+000 -3.161599e+000 -1.117953e+001 227 175 96
1.650933e+000 -3.470803e+000 -1.122480e+001 218 144 100
1.965064e+000 -3.406727e+000 -1.085842e+001 209 138 86
2.411842e+000 1.022539e+000 -9.317183e+000 240 234 222
1.186705e+000 1.490454e+000 -9.818160e+000 251 247 236
2.210979e+000 4.799964e-001 -9.138337e+000 232 223 217
3.844181e+000 -1.147638e+000 -8.244498e+000 195 116 56
2.008033e+000 -4.651069e-001 -9.109515e+000 230 231 215
3.743149e+000 -1.590918e+000 -8.408912e+000 103 70 55
-7.758818e-001 2.097683e-001 -9.553608e+000 143 82 62
-5.688188e-001 -1.497057e-001 -9.401547e+000 118 102 89
2.973474e-001 -3.767078e-001 -9.498620e+000 156 157 143
-1.137487e+000 -2.814501e-001 -8.965206e+000 102 36 28
2.808519e-001 -5.377359e-001 -9.449797e+000 104 96 83
-1.757635e+000 -5.511790e-001 -8.691727e+000 150 76 49
-1.447345e+000 -7.380267e-001 -8.375441e+000 207 71 65
-8.189378e-001 -8.176862e-001 -8.727363e+000 158 153 140
-1.566954e+000 -9.030856e-001 -8.325883e+000 58 50 61
-1.560593e+000 -9.139827e-001 -8.302828e+000 58 50 61
1.124910e-001 -1.192386e+000 -9.272033e+000 114 105 96
2.109986e+000 -1.860241e+000 -1.008705e+001 207 81 79
3.032383e+000 -2.310035e+000 -9.462380e+000 190 87 70
1.722678e-001 -1.521926e+000 -1.011892e+001 66 39 32
1.422303e+000 -1.706023e+000 -1.104485e+001 93 69 44
2.094184e+000 -2.259377e+000 -9.910959e+000 199 182 128
-3.057033e+000 -1.168479e+000 -8.060750e+000 204 96 60
-3.157744e+000 -1.406860e+000 -8.458917e+000 208 117 68
-2.734845e+000 -1.430192e+000 -8.384277e+000 89 27 17
-2.853809e+000 -1.573649e+000 -8.413929e+000 149 72 47
4.873293e-001 -1.821654e+000 -1.095708e+001 154 117 92
-1.865932e+000 -1.849417e+000 -1.008881e+001 178 98 61
8.910498e-001 -2.543430e+000 -1.126722e+001 215 171 132
1.706075e+000 -2.723030e+000 -1.102844e+001 206 138 68
-7.041381e-001 -1.848571e+000 -1.370566e+001 253 254 228
1.220116e+000 -3.036515e+000 -1.159951e+001 218 161 79
2.134859e+000 -3.361741e+000 -1.075838e+001 196 125 81
2.713642e-001 -2.873353e+000 -1.232005e+001 152 108 86
1.438961e+000 -3.164724e+000 -1.130239e+001 221 179 99
1.756889e+000 1.589730e+000 -9.389816e+000 236 232 223
2.511983e+000 1.008309e+000 -8.841965e+000 244 237 231
1.158299e+000 1.093059e+000 -9.595103e+000 245 241 232
2.908620e+000 -3.236147e-001 -8.439272e+000 237 230 218
1.327418e+000 -1.579921e-001 -9.440009e+000 201 202 195
1.963001e+000 -5.538074e-001 -9.147342e+000 188 182 170
-6.904571e-001 -9.437785e-002 -9.476100e+000 95 71 62
1.638495e+000 -9.923479e-001 -9.145683e+000 147 139 130
4.241067e+000 -1.779026e+000 -9.740368e+000 129 99 73
-4.863267e-001 -9.631096e-001 -8.851469e+000 117 107 97
3.237288e+000 -1.930750e+000 -9.140670e+000 219 173 96
3.208437e+000 -2.060513e+000 -9.231432e+000 226 171 84
3.208959e+000 -2.059729e+000 -9.235716e+000 226 171 84
-2.003689e+000 -6.411988e-001 -8.689376e+000 149 76 52
2.007595e-001 -1.204119e+000 -9.334515e+000 152 150 146
1.059006e+000 -1.369813e+000 -9.579117e+000 180 176 167
3.082659e+000 -2.220056e+000 -9.432306e+000 184 78 65
-3.617569e+000 -6.542638e-001 -8.182023e+000 224 189 123
-3.535046e+000 -7.553983e-001 -8.157135e+000 35 28 22
-1.715535e+000 -1.331418e+000 -8.810638e+000 177 138 99
2.138235e+000 -2.191169e+000 -9.889265e+000 84 34 32
-1.862934e+000 -1.349055e+000 -9.150395e+000 180 134 101
-1.145389e+000 -1.695140e+000 -8.840877e+000 227 181 139
1.142084e+000 -1.846884e+000 -1.097846e+001 91 25 27
-3.039949e+000 -1.516826e+000 -8.495539e+000 98 26 13
-2.426942e+000 -1.670439e+000 -9.604263e+000 137 38 20
-2.426942e+000 -1.670439e+000 -9.604263e+000 137 38 20
-1.793619e+000 -1.816684e+000 -9.809343e+000 222 128 74
7.766803e-001 -2.481246e+000 -1.151971e+001 237 192 143
1.097827e+000 -2.640782e+000 -1.150072e+001 217 81 85
1.056723e+000 -2.797185e+000 -1.174251e+001 113 95 96
1.668251e+000 -3.098585e+000 -1.110225e+001 224 171 88
1.784593e+000 -3.086864e+000 -1.099915e+001 177 77 64
1.766356e+000 -3.097329e+000 -1.094353e+001 177 77 64
8.507304e-001 -2.914063e+000 -1.205234e+001 186 87 53
1.322106e+000 1.357102e+000 -9.705980e+000 246 242 235
1.191138e+000 1.282950e+000 -9.671427e+000 200 196 187
1.191138e+000 1.282950e+000 -9.671427e+000 200 196 187
2.386555e+000 -1.208374e-001 -8.638446e+000 254 254 206
3.467700e+000 -9.494642e-001 -8.040182e+000 228 106 103
2.157280e+000 3.709335e-001 -9.474985e+000 210 205 189
2.976172e+000 -6.829482e-001 -8.478473e+000 141 118 104
3.753732e+000 -9.555544e-001 -8.533701e+000 211 155 129
3.688001e+000 -1.154487e+000 -8.578174e+000 180 106 52
-1.048974e+000 -2.937795e-001 -8.994643e+000 148 79 53
3.512050e+000 -1.820531e+000 -9.126951e+000 227 144 78
-1.285554e+000 -7.668952e-001 -8.429890e+000 155 138 126
-9.799395e-001 -7.406234e-001 -8.760559e+000 153 147 135
-1.896579e-001 -1.243427e+000 -9.655322e+000 131 115 116
2.748343e-003 -1.731453e+000 -1.042220e+001 142 127 118
3.711476e-001 -1.655629e+000 -1.030413e+001 106 70 50
8.848467e-001 -1.775864e+000 -1.100818e+001 104 38 24
-3.881952e-001 -2.424399e+000 -1.288506e+001 216 129 58
3.041000e-001 -2.967480e+000 -1.262387e+001 191 118 64
4.569974e-001 -3.208052e+000 -1.267937e+001 224 154 111
3.207480e+000 3.671176e-001 -8.169518e+000 229 221 210
1.653031e+000 1.596507e+000 -9.464531e+000 168 161 151
1.886193e+000 1.566697e-001 -9.289137e+000 231 227 216
3.558539e+000 -9.819013e-001 -8.248309e+000 77 32 30
-8.945146e-001 1.268763e-001 -9.433873e+000 242 239 232
-9.392074e-001 3.287532e-001 -9.819444e+000 242 239 232
7.104928e-001 -7.148176e-001 -9.179401e+000 214 212 203
-2.393709e-001 -5.575943e-001 -9.202417e+000 126 119 111
3.093852e-001 -1.561598e+000 -1.012983e+001 178 178 168
2.436657e+000 -2.457125e+000 -9.285663e+000 122 91 52
-1.574297e+000 -1.509408e+000 -9.147875e+000 181 130 91
6.473692e-001 -1.641940e+000 -1.079050e+001 91 27 30
1.001959e+000 -1.781517e+000 -1.075731e+001 202 157 115
9.796148e-001 -1.809829e+000 -1.061755e+001 202 157 115
-1.923577e+000 -1.477369e+000 -9.679068e+000 69 15 13
-2.973363e+000 -1.572777e+000 -8.498112e+000 85 15 25
-1.857655e+000 -1.629336e+000 -9.828629e+000 109 31 26
8.848788e-001 -3.211108e+000 -1.197177e+001 189 109 49
2.732808e+000 6.012198e-001 -8.337321e+000 179 163 111
1.411686e+000 1.936857e+000 -9.870581e+000 247 243 232
2.226351e+000 -1.549296e-001 -9.150149e+000 253 249 195
4.063127e-001 6.176364e-001 -9.817047e+000 179 169 157
2.075902e+000 -4.724180e-001 -9.189096e+000 237 232 222
3.943480e+000 -1.461449e+000 -8.580203e+000 97 58 41
-1.741900e+000 -3.882283e-001 -8.733525e+000 148 66 42
4.752941e-001 -1.044041e+000 -9.223765e+000 191 190 186
1.628699e-001 -1.293335e+000 -9.531347e+000 117 108 103
3.203389e-002 -1.437531e+000 -1.010928e+001 62 42 35
1.023316e+000 -1.605835e+000 -1.025134e+001 67 43 30
1.833212e+000 -2.196161e+000 -1.015425e+001 96 79 52
-2.108011e+000 -1.683620e+000 -9.309355e+000 90 20 13
1.206696e+000 -2.842662e+000 -1.172682e+001 217 205 208
2.349556e+000 7.819134e-001 -8.888698e+000 240 234 222
3.263443e+000 -4.169364e-001 -8.543404e+000 241 233 222
2.092968e+000 -2.308357e-002 -8.941216e+000 156 144 103
3.846811e+000 -1.745113e+000 -8.813279e+000 106 56 34
2.664921e+000 -1.939876e+000 -9.520503e+000 104 54 36
-3.161891e+000 -8.503095e-001 -8.048011e+000 63 24 24
-2.235084e+000 -1.015059e+000 -8.389265e+000 149 113 81
-2.240352e+000 -1.021349e+000 -8.371509e+000 149 113 81
-1.427275e+000 -1.467393e+000 -8.796047e+000 229 186 136
-5.964775e-001 -1.308041e+000 -9.577343e+000 116 100 87
8.340013e-001 -1.672529e+000 -1.051625e+001 192 155 113
-1.248740e+000 -1.687660e+000 -8.985424e+000 233 195 150
5.111357e-001 -4.849838e-001 -9.212220e+000 122 115 99
3.545817e+000 -1.576484e+000 -9.240977e+000 78 34 31
-1.689516e+000 -1.048154e+000 -8.483909e+000 227 193 147
-1.696134e+000 -1.040344e+000 -8.502778e+000 227 193 147
-9.409510e-001 -1.256878e+000 -8.558117e+000 118 104 95
1.515859e+000 -1.887757e+000 -1.057378e+001 171 149 100
-3.206239e+000 -1.172790e+000 -8.420340e+000 245 150 97
8.395897e-001 4.519841e-001 -9.683023e+000 151 147 138
-3.567405e+000 -6.522244e-001 -8.315144e+000 220 193 138
-2.341781e+000 -1.319008e+000 -8.200984e+000 211 177 132
1.155630e+000 -1.784574e+000 -9.974827e+000 103 64 38
1.844110e+000 -2.001136e+000 -9.781522e+000 76 46 33
5.353394e-001 -1.663507e+000 -1.076830e+001 120 68 43
3.564315e+000 -5.936948e-001 -8.030045e+000 100 33 37
3.056187e+000 -1.668846e+000 -8.886396e+000 230 223 215
-2.452812e+000 -3.657394e-002 -9.227677e+000 230 226 226
5.019466e-001 -2.486133e+000 -1.200980e+001 105 31 32
3.804198e+000 -1.154921e+000 -8.700349e+000 199 115 49
-2.430735e+000 -8.906942e-001 -8.018467e+000 76 28 24
-2.060002e+000 -1.347001e+000 -8.856425e+000 72 18 15
-2.906830e-001 -1.492447e+000 -9.633909e+000 62 47 40
1.232295e+000 -1.879228e+000 -1.093365e+001 77 23 23
7.297779e-001 -1.057881e-001 -9.234804e+000 131 128 119
-1.579061e-001 -2.102794e+000 -1.223558e+001 244 237 230
2.541160e+000 -1.236380e+000 -9.109039e+000 244 239 233
2.541160e+000 -1.236380e+000 -9.109039e+000 244 239 233
-9.927686e-001 2.833807e-001 -9.870045e+000 222 207 197
-2.319401e+000 -9.202718e-001 -8.332144e+000 109 88 87
3.005690e+000 -2.584464e+000 -8.971564e+000 138 87 52
-1.005664e+000 -1.829340e+000 -8.554524e+000 188 95 82
2.245274e+000 -3.205722e+000 -1.020145e+001 241 198 159
1.126196e+000 -3.024631e+000 -1.156313e+001 194 130 61
-9.468887e-001 3.251807e-002 -9.495830e+000 127 75 61
-3.286265e+000 -4.960462e-001 -8.169942e+000 125 104 70
-3.181848e+000 -5.762081e-001 -8.098010e+000 109 77 51
-1.245226e+000 -1.355959e+000 -8.629223e+000 188 70 66
-2.268541e+000 -1.323009e+000 -8.373368e+000 147 97 77
5.591153e-001 -1.589243e+000 -1.081873e+001 125 78 61
-3.214215e+000 -1.378864e+000 -8.091241e+000 105 26 23
-1.111912e+000 -1.895339e+000 -9.365145e+000 135 107 97
6.637882e-001 -2.556158e+000 -1.222501e+001 74 43 35
2.386820e+000 -3.114393e+000 -1.002077e+001 234 171 130
1.311736e+000 -3.417705e+000 -1.146105e+001 243 211 175
2.416900e+000 9.478055e-001 -9.338591e+000 205 198 184
1.893821e+000 1.527158e-001 -9.524820e+000 209 202 192
3.734292e+000 -1.556291e+000 -8.537689e+000 230 153 95
3.768449e+000 -1.631290e+000 -8.465275e+000 137 107 96
-1.390665e+000 -2.399497e-001 -8.549649e+000 200 116 74
-3.218535e+000 -5.346495e-001 -8.081819e+000 77 60 44
-3.393694e+000 -7.174402e-001 -8.094635e+000 116 88 49
3.107411e+000 -2.481448e+000 -9.270571e+000 255 251 241
-1.481073e+000 -2.525516e-001 -8.624129e+000 200 118 73
-8.072744e-001 4.399140e-002 -9.451347e+000 129 76 58
-1.859858e+000 -1.017951e+000 -8.510087e+000 138 85 56
2.105538e+000 -3.285921e+000 -1.043279e+001 204 129 80
9.831222e-001 1.065704e+000 -9.776906e+000 240 236 227
9.752511e-001 1.049017e+000 -9.744254e+000 240 236 227
6.220128e-001 2.570322e-001 -9.463756e+000 163 152 134
3.617976e+000 -9.479830e-001 -8.603757e+000 81 37 29
-7.384624e-001 3.987215e-001 -9.846446e+000 243 249 241
-6.975081e-001 3.777413e-002 -9.551631e+000 146 129 122
-2.938974e+000 -6.535854e-001 -7.994187e+000 103 53 52
3.875064e-001 -1.226804e+000 -9.290898e+000 171 166 161
4.814489e-001 -1.634156e+000 -1.054071e+001 179 153 145
1.324406e+000 -1.731266e+000 -1.094130e+001 99 75 47
-1.196525e+000 -1.649345e+000 -8.771119e+000 193 136 99
4.461432e-001 -1.665043e+000 -1.063520e+001 113 47 35
1.109896e-001 -3.016836e+000 -1.230808e+001 201 128 64
1.020757e+000 1.177872e+000 -9.858553e+000 213 206 198
2.263421e+000 3.355010e-001 -9.143477e+000 199 183 131
4.016690e+000 -1.220259e+000 -8.377955e+000 123 100 86
6.632453e-001 -1.504457e-001 -9.609172e+000 119 111 100
4.435472e+000 -1.486983e+000 -9.459192e+000 150 130 112
-4.757438e-001 -2.868832e-001 -9.501386e+000 150 141 136
-4.796397e-001 -1.287809e+000 -8.870443e+000 103 87 74
2.691440e-003 -1.221943e+000 -9.115234e+000 111 99 90
-2.959726e+000 -1.058642e+000 -7.991258e+000 207 111 69
-2.959726e+000 -1.058642e+000 -7.991258e+000 207 111 69
3.057378e+000 -2.436456e+000 -9.107405e+000 188 117 65
-4.314773e-001 -1.563925e+000 -1.000797e+001 88 76 62
-1.691183e+000 -1.950819e+000 -9.581200e+000 126 48 25
5.391112e-002 -3.033995e+000 -1.270660e+001 218 143 89
2.156798e+000 2.605743e-002 -9.384586e+000 188 169 119
3.775294e+000 -1.055661e+000 -8.491391e+000 192 105 51
3.103470e+000 -2.053450e+000 -9.219875e+000 220 175 96
-1.702257e+000 -1.343780e+000 -8.773575e+000 180 140 104
1.148411e+000 -3.122009e+000 -1.151214e+001 179 76 63
4.058391e+000 -8.869573e-001 -8.103891e+000 162 51 49
-7.962429e-002 3.646614e-001 -9.682742e+000 160 151 142
-3.757052e-001 -8.620324e-001 -9.057053e+000 147 138 130
1.989458e+000 -1.957340e+000 -9.915354e+000 207 79 78
6.982343e-001 -1.640958e+000 -1.042588e+001 192 154 117
2.730591e+000 9.304572e-001 -8.883120e+000 192 178 117
2.442614e+000 6.123477e-001 -8.685541e+000 147 132 89
2.217767e+000 -1.611637e-001 -9.135513e+000 255 253 200
1.886155e+000 -1.846718e+000 -1.002834e+001 73 25 25
-3.575508e+000 -8.670959e-001 -8.228350e+000 249 227 169
-2.098891e+000 -1.684092e+000 -9.308642e+000 95 23 14
4.024706e+000 -8.234874e-001 -8.272228e+000 172 54 54
4.024706e+000 -8.234874e-001 -8.272228e+000 172 54 54
1.072503e+000 -4.655912e-001 -9.277811e+000 115 106 75
-2.148991e+000 -6.060488e-001 -8.979705e+000 108 33 23
3.052875e+000 -4.076083e-001 -8.498137e+000 169 152 136
7.571464e-001 1.028460e+000 -9.911833e+000 227 219 210
3.779029e+000 -8.854892e-001 -8.564421e+000 136 84 58
3.751184e+000 -9.238748e-001 -8.572925e+000 203 155 125
3.786285e+000 -9.182073e-001 -8.613593e+000 185 124 96
3.799183e+000 -9.314337e-001 -8.536848e+000 206 159 135
-9.565855e-001 -1.604060e-001 -8.766381e+000 134 88 74
2.968853e+000 -2.392624e+000 -9.451142e+000 166 89 50
1.916827e+000 -1.941912e+000 -1.014184e+001 95 69 54
2.159832e+000 -2.116960e+000 -9.826623e+000 191 71 70
2.348395e+000 -2.893971e+000 -1.029116e+001 188 132 68
8.916571e-001 -2.673286e+000 -1.195412e+001 106 70 71
8.836907e-001 -2.705778e+000 -1.199978e+001 102 77 73
1.532995e+000 -3.114401e+000 -1.124911e+001 206 139 75
8.772145e-001 -2.925360e+000 -1.193970e+001 200 115 71
3.873357e+000 -8.751298e-001 -8.368106e+000 158 107 89
3.797322e+000 -8.960152e-001 -8.548382e+000 161 96 58
3.861480e+000 -9.856432e-001 -8.413462e+000 190 104 50
3.817927e+000 -1.183599e+000 -8.443538e+000 243 197 175
3.366448e-001 8.638377e-001 -9.983378e+000 241 234 226
-6.744889e-001 -1.407849e-001 -9.488907e+000 130 112 105
3.132748e+000 -2.149911e+000 -9.316474e+000 218 117 90
-4.833617e-001 -1.242712e+000 -9.072783e+000 90 77 61
-4.833617e-001 -1.242712e+000 -9.072783e+000 90 77 61
2.087121e+000 -2.139740e+000 -9.915809e+000 210 69 70
-2.131120e+000 -1.783184e+000 -9.875666e+000 124 41 25
6.634497e-001 -2.336321e+000 -1.162058e+001 212 141 122
8.894591e-001 -2.819061e+000 -1.202458e+001 203 133 65
1.020808e+000 -2.800455e+000 -1.185559e+001 88 74 72
1.062149e+000 -2.848640e+000 -1.185540e+001 205 184 180
1.176469e+000 -2.980129e+000 -1.165824e+001 209 155 75
1.556675e+000 -3.113713e+000 -1.120831e+001 199 118 68
6.115262e-001 -3.265551e+000 -1.235422e+001 196 115 51
-2.642643e+000 -1.380236e+000 -8.335673e+000 95 46 32
1.566934e+000 -2.375837e+000 -1.068355e+001 112 79 48
1.715260e+000 -2.786985e+000 -1.107448e+001 189 110 51
2.000549e+000 -3.051143e+000 -1.072040e+001 207 148 77
9.393958e-001 -2.778895e+000 -1.190920e+001 209 190 183
9.191363e-001 -2.848645e+000 -1.198635e+001 215 188 121
1.631857e+000 -3.004465e+000 -1.114534e+001 224 177 91
1.526770e+000 -3.159945e+000 -1.122490e+001 171 79 44
1.529938e+000 -3.157808e+000 -1.122685e+001 171 79 44
3.905870e-001 -2.942731e+000 -1.255195e+001 194 115 57
1.081352e+000 -3.005873e+000 -1.172806e+001 205 143 73
1.149593e+000 -3.490986e+000 -1.166842e+001 201 124 63
9.923466e-001 1.092236e+000 -9.712580e+000 214 210 201
7.043675e-001 1.042337e+000 -9.914556e+000 236 231 221
3.797167e+000 -1.112836e+000 -8.381470e+000 200 110 47
3.570842e+000 -1.245341e+000 -8.847259e+000 188 150 137
-6.875332e-001 -1.444504e-002 -9.447145e+000 149 131 124
-1.096806e+000 -2.292585e-001 -8.921472e+000 140 69 49
-2.873919e+000 -1.079987e+000 -8.023460e+000 192 107 67
-2.894148e+000 -1.135260e+000 -8.020475e+000 149 62 36
2.246604e+000 -2.924491e+000 -1.041611e+001 188 98 74
2.347625e+000 -2.853871e+000 -1.029197e+001 206 150 82
2.320928e+000 -2.902897e+000 -1.031410e+001 156 74 49
3.836541e-001 -2.357656e+000 -1.251832e+001 74 32 20
1.115895e+000 -3.035100e+000 -1.172783e+001 176 81 58
1.171539e+000 -3.040093e+000 -1.173708e+001 203 145 70
3.610606e+000 -2.221354e+000 -9.326350e+000 146 132 121
-1.504574e+000 -9.126497e-001 -8.320052e+000 157 131 106
-6.130140e-001 -1.231089e+000 -8.783258e+000 112 102 92
3.844195e-001 -1.789375e+000 -1.102472e+001 232 223 211
1.964677e+000 -3.083787e+000 -1.073622e+001 159 69 58
1.090167e+000 -3.151960e+000 -1.173454e+001 209 152 109
5.341090e-001 -3.205187e+000 -1.253283e+001 194 117 57
1.917078e-001 3.376483e-001 -9.680209e+000 164 155 145
-4.994804e-001 -1.269083e+000 -8.875741e+000 103 86 71
2.425975e+000 -2.852610e+000 -1.020537e+001 194 156 86
-2.492437e+000 -5.962274e-001 -7.979414e+000 234 226 226
-2.796664e+000 -9.651685e-001 -8.006123e+000 144 59 39
2.051234e+000 -2.136748e+000 -9.939663e+000 98 36 32
2.131416e+000 -2.109210e+000 -9.886013e+000 224 91 84
2.599879e-001 4.279380e+000 -1.201223e+001 245 237 227
1.363375e+000 1.508695e+000 -9.639186e+000 227 223 212
-1.455071e+000 -1.237266e+000 -8.622860e+000 206 153 109
1.011431e+000 -3.037089e+000 -1.183585e+001 159 64 60
-4.998718e-001 -1.293466e+000 -8.970208e+000 97 78 64
-8.342991e-001 -1.153113e+000 -1.356263e+001 233 84 88
-1.674334e-001 4.108439e+000 -1.230254e+001 243 239 228
9.930387e-001 -2.764197e-001 -9.315185e+000 191 191 181
5.132019e-003 -6.272925e-001 -9.265305e+000 109 99 88
-3.064881e+000 -1.079264e+000 -8.045918e+000 250 164 100
2.088174e+000 -4.528709e-002 -8.914124e+000 156 144 103
8.238207e-001 -1.667244e+000 -1.052360e+001 192 155 113
2.446997e+000 -3.395887e-001 -8.387030e+000 116 103 85
2.275967e+000 -9.704220e-001 -8.923142e+000 248 244 235
-9.397324e-001 -1.269113e+000 -8.534808e+000 118 104 95
1.551073e+000 -5.440472e-001 -9.093322e+000 136 129 105
3.796841e+000 -1.120602e+000 -8.470437e+000 193 119 81
3.696465e+000 -1.241468e+000 -8.680141e+000 204 141 98
-7.697070e-001 -2.009901e-002 -9.476077e+000 113 83 75
3.298769e+000 -2.012683e+000 -9.193079e+000 206 116 62
-2.376435e+000 -1.059853e+000 -8.313636e+000 140 122 112
-3.118885e+000 -1.445089e+000 -8.439624e+000 186 91 51
2.493248e+000 -2.825950e+000 -1.014225e+001 159 103 56
1.667610e+000 -2.764196e+000 -1.113678e+001 207 118 83
1.546022e+000 -2.955625e+000 -1.127104e+001 202 136 68
1.383456e+000 -2.948489e+000 -1.140666e+001 191 97 71
1.518326e+000 -2.968693e+000 -1.127504e+001 209 139 83
1.503688e+000 -2.974150e+000 -1.128469e+001 189 99 74
-9.912309e-001 -1.688772e-001 -8.695231e+000 119 71 62
-5.625931e-001 -1.902648e-001 -9.410318e+000 142 127 119
3.230362e+000 -1.892365e+000 -9.289538e+000 213 148 87
-1.421538e+000 -1.029819e+000 -8.315110e+000 90 79 75
3.050529e+000 -2.269291e+000 -9.511572e+000 189 88 66
-2.912656e+000 -1.164266e+000 -8.087429e+000 146 70 51
-2.515108e+000 -1.285860e+000 -8.369315e+000 155 132 114
1.297748e-001 -1.950490e+000 -1.082439e+001 196 188 181
9.925123e-001 -2.847807e+000 -1.189460e+001 206 167 92
-1.244156e+000 -1.391476e+000 -8.671554e+000 146 46 36
-3.105014e+000 -1.390686e+000 -8.363350e+000 196 79 36
-2.835872e+000 -1.448517e+000 -8.296172e+000 119 42 25
1.620416e+000 -3.069182e+000 -1.118615e+001 224 175 90
3.664691e+000 -1.241053e+000 -8.665992e+000 200 113 50
-2.534602e+000 -1.013278e+000 -8.217241e+000 101 64 48
1.553769e+000 -2.823009e+000 -1.123375e+001 181 72 55
1.405420e+000 -3.012324e+000 -1.140955e+001 184 90 65
-3.428063e+000 -6.876218e-001 -8.094274e+000 248 223 157
-3.526855e+000 -9.209274e-001 -8.278289e+000 84 42 27
5.885228e-002 5.225301e-001 -9.609009e+000 197 193 184
2.564493e+000 -2.079069e+000 -1.006041e+001 135 76 44
1.491932e+000 -2.923300e+000 -1.129846e+001 182 95 62
3.637486e+000 -1.007360e+000 -8.711307e+000 164 114 97
6.937653e-001 -2.231676e+000 -1.184519e+001 209 165 120
1.719456e+000 -2.847784e+000 -1.113060e+001 234 186 102
3.184579e+000 -2.113512e+000 -9.304345e+000 225 129 83
3.859109e-001 -2.245764e+000 -1.147444e+001 141 84 72
2.453946e-001 -2.647866e+000 -1.192484e+001 158 123 107
1.216616e+000 -3.363943e+000 -1.181127e+001 253 233 209
1.216616e+000 -3.363943e+000 -1.181127e+001 253 233 209
1.159625e+000 -3.388454e+000 -1.173471e+001 202 124 51
1.245222e+000 -3.491720e+000 -1.164821e+001 210 131 74
1.450343e+000 -3.425644e+000 -1.166337e+001 203 118 53
1.427888e+000 -3.491900e+000 -1.150293e+001 214 147 99
1.662534e+000 -8.699050e-001 -9.164155e+000 170 166 154
-3.864473e-002 -4.165564e-001 -9.373447e+000 140 137 128
2.370957e+000 -1.374265e+000 -9.183787e+000 223 219 208
1.284778e+000 -3.402550e+000 -1.175358e+001 206 119 49
1.284778e+000 -3.402550e+000 -1.175358e+001 206 119 49
4.995647e-001 3.362954e-001 -9.703862e+000 164 156 147
-3.096036e-001 -6.899026e-001 -9.245016e+000 76 65 50
9.897984e-002 5.058342e-001 -9.642147e+000 225 222 211
7.706903e-001 -2.598073e+000 -1.214834e+001 155 105 108
1.359239e+000 -2.885313e+000 -1.150166e+001 203 140 80
1.032342e+000 -3.169119e+000 -1.185870e+001 184 110 62
3.050962e+000 -2.293701e+000 -9.387639e+000 174 82 62
2.192904e+000 8.706338e-001 -9.158175e+000 218 211 200
1.891292e+000 5.613273e-001 -9.403253e+000 180 169 154
-5.555464e-001 -2.150453e+000 -1.389727e+001 220 139 63
-7.796838e-001 -1.662150e+000 -1.387061e+001 243 203 64
3.735073e+000 -1.206216e+000 -8.452872e+000 186 116 67
3.661495e+000 -1.310685e+000 -8.561163e+000 209 118 49
3.450467e-001 6.259946e-001 -9.658584e+000 241 234 226
4.099944e+000 -1.972274e+000 -9.696599e+000 150 126 100
2.570116e+000 -2.038416e+000 -9.975698e+000 133 80 46
1.994586e+000 -1.713712e+000 -1.032601e+001 195 64 61
7.823005e-001 -1.638375e+000 -1.083007e+001 151 104 66
2.418811e+000 -2.799615e+000 -1.021093e+001 143 92 46
2.401434e+000 -2.832646e+000 -1.019546e+001 164 117 53
-2.008666e+000 -1.616022e+000 -9.524423e+000 132 64 40
-1.343318e+000 -1.688813e+000 -1.074294e+001 236 229 211
1.552098e+000 -2.947941e+000 -1.130266e+001 197 134 62
1.696540e+000 -3.146920e+000 -1.112043e+001 204 97 57
8.965236e-001 -2.972866e+000 -1.202864e+001 192 115 59
8.844277e-001 -2.991905e+000 -1.196423e+001 192 115 59
7.126743e-001 -2.965823e+000 -1.260253e+001 205 151 128
3.500936e+000 -1.193082e+000 -8.833094e+000 110 62 48
3.754458e+000 -1.623767e+000 -8.424082e+000 108 79 71
3.754458e+000 -1.623767e+000 -8.424082e+000 108 79 71
-9.219703e-001 -7.834244e-003 -9.326242e+000 244 247 233
-1.451899e+000 -8.598241e-001 -8.348496e+000 137 88 76
-2.977381e+000 -5.773331e-001 -8.209668e+000 118 58 46
-3.179302e+000 -7.589238e-001 -8.027755e+000 110 65 59
-2.500547e+000 -9.252206e-001 -8.240070e+000 74 44 30
-2.421770e+000 -8.519989e-001 -8.311172e+000 71 41 36
2.003484e+000 -1.717301e+000 -1.041572e+001 167 55 54
-2.657971e+000 -1.196798e+000 -8.338187e+000 83 48 35
-2.618805e+000 -1.217835e+000 -8.286736e+000 92 58 37
-2.589310e+000 -1.172490e+000 -8.503751e+000 128 105 97
-1.365624e+000 -1.437702e+000 -8.674493e+000 229 137 90
1.242351e-001 -1.378037e+000 -1.023865e+001 131 125 125
-1.172753e+000 -1.731434e+000 -9.627252e+000 168 57 54
2.122311e+000 -3.028605e+000 -1.063282e+001 171 75 53
4.162407e+000 -2.650660e+000 -1.342895e+001 136 125 116
1.913594e+000 -3.002783e+000 -1.082080e+001 158 77 55
1.957447e+000 -3.033838e+000 -1.093298e+001 197 108 72
2.036422e+000 -3.067398e+000 -1.066210e+001 173 82 52
-1.734661e+000 -8.044678e-001 -1.442976e+001 194 90 89
3.563372e-001 -2.158832e+000 -1.288180e+001 161 133 115
8.963645e-001 -2.666933e+000 -1.197313e+001 90 60 56
7.940581e-001 -2.656706e+000 -1.215836e+001 182 156 151
1.035563e+000 -2.866299e+000 -1.186193e+001 211 162 76
1.203016e+000 -2.941291e+000 -1.168889e+001 225 204 184
2.301272e+000 7.225850e-001 -9.025778e+000 205 201 189
3.712556e+000 -1.052945e+000 -8.492283e+000 184 101 55
3.754703e+000 -1.222997e+000 -8.426515e+000 197 115 56
3.529409e+000 -1.365331e+000 -8.325625e+000 196 111 50
4.177678e+000 -1.788406e+000 -9.512329e+000 124 102 76
4.057591e+000 -1.974921e+000 -9.707618e+000 122 102 75
-1.493103e+000 -8.423836e-001 -8.353990e+000 98 55 53
-1.400669e+000 -9.015244e-001 -8.308462e+000 88 42 39
-3.304927e+000 -6.808103e-001 -8.106610e+000 117 93 54
-3.102332e+000 -7.796244e-001 -7.958462e+000 98 55 57
-2.493793e+000 -1.021375e+000 -8.258699e+000 110 78 62
-2.421567e+000 -1.025941e+000 -8.348742e+000 140 122 114
-1.262699e+000 -1.424102e+000 -8.644527e+000 166 80 60
-3.454084e+000 -7.894124e-001 -8.185039e+000 142 115 70
-3.411411e+000 -8.166776e-001 -8.170219e+000 222 199 142
-3.368889e+000 -7.811118e-001 -8.169450e+000 176 151 108
9.520735e-001 -1.702163e+000 -1.058666e+001 156 109 67
-3.082317e+000 -1.249629e+000 -8.232032e+000 212 116 76
-2.541143e+000 -1.436551e+000 -8.426785e+000 130 80 56
2.338825e+000 -2.905102e+000 -1.057188e+001 176 88 53
4.631916e+000 -2.470134e+000 -1.361010e+001 172 159 151
-1.877172e+000 -1.629639e+000 -9.967278e+000 87 25 18
-1.886968e+000 -1.609598e+000 -1.000940e+001 87 25 18
-8.679218e-001 -6.568034e-001 -1.392208e+001 211 68 76
1.809127e+000 -2.815522e+000 -1.102041e+001 238 184 94
1.959761e+000 -2.846166e+000 -1.079912e+001 192 150 72
1.295303e+000 -2.735630e+000 -1.155101e+001 132 47 30
-1.496086e+000 -8.681603e-001 -1.446861e+001 209 85 90
1.110889e+000 -2.761046e+000 -1.153496e+001 101 59 62
1.011140e+000 -2.725823e+000 -1.183782e+001 203 187 188
2.035772e+000 -3.381906e+000 -1.085388e+001 204 136 94
2.103492e-001 -2.644725e+000 -1.189046e+001 157 130 115
8.946057e-001 -2.956029e+000 -1.195110e+001 219 152 80
7.321547e-001 -3.034880e+000 -1.228124e+001 200 156 129
8.957422e-001 -3.306068e+000 -1.233648e+001 239 177 129
2.095429e+000 1.515745e-001 -8.795721e+000 149 137 97
3.914763e+000 -1.591408e+000 -8.596945e+000 137 114 98
3.405073e+000 -1.605771e+000 -8.987157e+000 84 41 32
1.949706e-001 1.207247e-001 -9.516792e+000 160 153 143
2.114758e-001 -3.532073e-002 -9.412915e+000 186 179 169
4.207198e+000 -1.744356e+000 -9.437902e+000 153 129 101
4.412190e+000 -1.821435e+000 -9.819964e+000 143 127 104
-6.652479e-001 2.223943e-001 -9.592815e+000 168 157 151
-6.259996e-001 1.343780e-001 -9.525653e+000 194 189 180
-4.641305e-002 -2.687943e-001 -9.222657e+000 178 174 165
4.200226e+000 -1.916943e+000 -9.899457e+000 163 141 117
-7.171715e-002 -5.882264e-001 -9.282434e+000 136 132 123
3.090671e+000 -1.875915e+000 -9.448748e+000 198 126 78
-2.377855e+000 -6.483212e-001 -8.015913e+000 224 221 216
-1.847723e+000 -5.692568e-001 -8.710331e+000 149 74 53
-1.847723e+000 -5.692568e-001 -8.710331e+000 149 74 53
-1.673312e+000 -5.161614e-001 -8.667800e+000 159 83 59
-3.103387e+000 -4.876120e-001 -8.050960e+000 119 92 73
-2.962868e+000 -6.416799e-001 -8.004161e+000 100 56 55
-2.927002e+000 -7.004906e-001 -7.933267e+000 100 56 55
4.848510e+000 -2.006132e+000 -1.144941e+001 144 129 123
-2.451858e+000 -9.312890e-001 -8.207057e+000 97 64 49
-2.449405e+000 -9.365996e-001 -8.199336e+000 97 64 49
-1.929265e+000 -9.625319e-001 -8.662100e+000 151 99 68
-1.251094e+000 -1.296545e+000 -8.653417e+000 188 76 67
-3.287640e+000 -9.966368e-001 -8.168532e+000 111 56 51
-1.324681e+000 -1.490790e+000 -8.585189e+000 221 132 90
2.572797e+000 -2.543635e+000 -1.003299e+001 112 67 24
-3.301688e+000 -1.055933e+000 -8.189514e+000 142 89 84
2.754726e-001 -1.561607e+000 -1.050666e+001 139 123 108
-3.060639e+000 -1.352273e+000 -8.278240e+000 204 99 54
-2.575415e+000 -1.503926e+000 -8.759704e+000 175 135 99
2.350314e+000 -2.853438e+000 -1.030302e+001 205 156 80
2.324233e+000 -2.900613e+000 -1.032369e+001 163 75 51
1.772394e+000 -2.671356e+000 -1.100514e+001 199 128 70
1.789434e+000 -2.716276e+000 -1.104458e+001 175 69 45
1.911304e+000 -2.913409e+000 -1.081222e+001 218 200 113
2.182419e+000 -3.002858e+000 -1.046303e+001 165 67 58
2.179451e+000 -3.004935e+000 -1.045364e+001 165 67 58
5.842087e-001 -2.241021e+000 -1.162977e+001 98 31 21
6.130633e-001 -2.494547e+000 -1.235084e+001 67 33 35
1.136347e+000 -2.866285e+000 -1.179927e+001 217 213 210
1.824233e+000 -3.391510e+000 -1.103813e+001 220 144 88
1.091813e+000 -2.980963e+000 -1.183364e+001 209 147 65
1.408718e+000 -3.179618e+000 -1.137277e+001 230 189 105
1.279239e+000 -3.453313e+000 -1.183415e+001 218 143 89
7.133519e-001 -3.347280e+000 -1.241259e+001 202 124 62
1.434537e+000 1.306801e+000 -9.047987e+000 204 197 187
2.124085e+000 9.674483e-002 -8.768786e+000 176 164 115
2.214170e+000 4.454693e-001 -9.282740e+000 223 214 197
2.418918e-001 1.973422e-001 -9.559356e+000 195 188 178
3.334803e+000 -1.855987e+000 -9.064299e+000 187 135 66
-5.759132e-001 -2.061363e-002 -9.365750e+000 163 155 151
5.504533e-001 -5.579796e-001 -9.193433e+000 157 150 140
3.278498e+000 -1.950911e+000 -9.211139e+000 221 174 94
3.156204e+000 -1.933000e+000 -9.371832e+000 184 99 64
-1.416257e+000 -8.089203e-001 -8.251237e+000 203 76 76
-1.454624e+000 -9.201816e-001 -8.322040e+000 52 43 50
-8.033809e-001 -9.657494e-001 -8.604858e+000 134 125 116
-3.040274e+000 -5.080374e-001 -7.982986e+000 221 217 213
-1.589230e+000 -9.718976e-001 -8.316193e+000 176 165 130
1.820254e+000 -1.793255e+000 -9.928638e+000 183 51 57
2.115177e+000 -1.853348e+000 -1.013159e+001 211 79 77
-2.121071e+000 -9.147009e-001 -8.737638e+000 84 27 20
-2.870051e-001 -1.183101e+000 -9.629118e+000 53 47 35
-2.871736e-001 -1.185336e+000 -9.623586e+000 53 47 35
2.048533e+000 -1.934155e+000 -1.018077e+001 201 77 75
-1.192140e+000 -1.578603e+000 -8.759712e+000 163 92 65
2.015580e+000 -2.238928e+000 -9.951875e+000 190 170 113
2.485906e+000 -2.560094e+000 -1.008026e+001 100 36 32
2.764063e+000 -2.909084e+000 -9.666689e+000 252 252 244
-1.397643e+000 -1.570540e+000 -9.365425e+000 201 146 92
-9.461124e-001 -1.866450e+000 -9.077209e+000 172 167 156
-1.078494e+000 -1.820569e+000 -9.260938e+000 120 53 37
1.714173e+000 -2.789788e+000 -9.739515e+000 121 104 78
2.306775e+000 -2.825584e+000 -1.037239e+001 205 154 74
2.158219e+000 -2.845700e+000 -1.053572e+001 153 65 56
2.158219e+000 -2.845700e+000 -1.053572e+001 153 65 56
-8.925762e-001 -6.177136e-001 -1.320066e+001 236 229 215
-2.449264e-001 -1.337942e+000 -1.255397e+001 244 241 230
-2.724693e-001 -1.396576e+000 -1.266085e+001 248 236 230
-2.519085e+000 -1.554360e+000 -1.011340e+001 235 232 228
-1.962153e+000 -1.755096e+000 -9.960112e+000 153 78 54
1.601715e+000 -2.763733e+000 -1.121296e+001 164 56 46
-1.951694e+000 -5.920188e-001 -1.474382e+001 119 45 43
-1.945174e+000 -6.417086e-001 -1.460169e+001 119 45 43
-1.267264e+000 -1.120434e+000 -1.435269e+001 229 165 123
1.351475e+000 -3.444815e+000 -1.183802e+001 211 145 94
3.946926e+000 -1.278630e+000 -8.282631e+000 146 125 106
2.176541e+000 -3.206933e-001 -9.050436e+000 255 252 199
1.554474e+000 1.312234e-001 -9.588683e+000 180 177 160
2.018267e+000 -4.517355e-001 -9.131408e+000 234 230 221
3.877693e+000 -1.660271e+000 -8.623494e+000 135 116 100
1.826106e+000 -5.431678e-001 -9.190309e+000 169 162 152
4.415821e+000 -1.508479e+000 -9.485479e+000 157 139 119
9.862984e-002 2.051912e-001 -9.435063e+000 239 236 227
1.667054e+000 -8.001482e-001 -9.133873e+000 147 140 130
1.406169e-001 -6.834178e-001 -9.197420e+000 131 122 115
-1.929550e+000 -4.557103e-001 -8.573994e+000 153 84 55
-1.926406e+000 -4.599731e-001 -8.569967e+000 153 84 55
-2.004914e+000 -4.051197e-001 -8.752107e+000 221 219 213
-7.472524e-001 -1.018324e+000 -8.764690e+000 132 126 118
-2.904672e+000 -5.594413e-001 -8.014507e+000 229 223 217
-2.924107e+000 -5.209816e-001 -8.062296e+000 229 223 217
-1.319078e+000 -1.149042e+000 -8.587664e+000 185 127 98
1.948713e-002 -1.077952e+000 -9.426797e+000 120 113 104
-2.623021e+000 -9.486986e-001 -7.997272e+000 162 88 59
-2.538959e+000 -9.893056e-001 -8.199524e+000 107 69 51
-1.364719e+000 -1.267942e+000 -8.641915e+000 189 131 96
-1.364719e+000 -1.267942e+000 -8.641915e+000 189 131 96
1.900684e+000 -1.659461e+000 -1.064882e+001 125 106 66
2.002540e+000 -2.045527e+000 -1.006526e+001 83 37 31
2.190229e+000 -2.367694e+000 -9.713158e+000 96 76 51
-3.643521e+000 -6.228088e-001 -8.220017e+000 197 168 98
-1.835105e+000 -1.258258e+000 -8.834834e+000 126 74 50
-1.203259e+000 -1.643962e+000 -8.807159e+000 189 136 96
2.098323e+000 -2.368745e+000 -9.800499e+000 116 97 64
2.629831e+000 -2.525718e+000 -1.028818e+001 139 105 51
2.629831e+000 -2.525718e+000 -1.028818e+001 139 105 51
-1.356577e-002 -1.488721e+000 -1.037372e+001 121 112 103
2.513772e+000 -2.669950e+000 -1.013627e+001 86 38 20
-2.773325e+000 -1.473105e+000 -8.433440e+000 132 64 45
-2.826290e+000 -1.499673e+000 -8.475691e+000 117 45 30
-2.761647e+000 -1.468721e+000 -8.573068e+000 98 36 23
-1.438071e-001 -1.727487e+000 -1.045111e+001 185 182 175
4.607083e+000 -2.558093e+000 -1.358262e+001 154 142 130
-2.871775e+000 -1.369326e+000 -9.051764e+000 221 219 213
1.704218e+000 -2.718472e+000 -1.107154e+001 206 146 71
2.232842e+000 -3.125970e+000 -1.063029e+001 209 130 73
4.243004e+000 -2.649587e+000 -1.335476e+001 127 112 105
-1.888945e+000 -7.643111e-001 -1.453355e+001 234 231 232
6.232448e-001 -2.645593e+000 -1.227019e+001 96 51 36
2.260126e+000 5.182194e-001 -8.783159e+000 240 238 223
1.364864e+000 1.501670e+000 -9.633355e+000 226 224 212
2.957395e+000 -7.499499e-001 -8.411503e+000 150 123 112
1.921994e+000 -3.778025e-001 -9.177290e+000 138 128 92
1.302414e+000 -1.903346e-001 -9.396389e+000 208 206 201
4.195711e+000 -1.790168e+000 -9.673786e+000 128 104 67
-1.159177e+000 -2.786575e-001 -8.763362e+000 233 83 82
-1.159177e+000 -2.786575e-001 -8.763362e+000 233 83 82
6.324211e-001 -5.954998e-001 -9.159612e+000 145 136 127
3.174465e+000 -1.875665e+000 -9.337311e+000 210 152 80
3.229724e+000 -1.834985e+000 -9.107049e+000 115 70 40
3.263840e+000 -1.937703e+000 -9.018396e+000 222 171 90
4.112021e+000 -1.945865e+000 -9.644250e+000 128 103 73
-1.527426e+000 -7.178987e-001 -8.441055e+000 120 41 33
-3.778580e-001 -8.887444e-001 -9.016078e+000 159 152 143
2.162582e+000 -1.945150e+000 -1.000553e+001 172 51 50
-1.398224e+000 -1.191256e+000 -8.558878e+000 155 90 64
2.320118e-001 -1.496655e+000 -1.042599e+001 72 45 37
-2.562397e+000 -1.471772e+000 -8.459566e+000 108 44 26
1.118451e-001 -1.512227e+000 -1.038432e+001 137 128 119
1.057045e+000 -1.776270e+000 -1.078263e+001 190 148 106
2.196451e+000 -2.756135e+000 -1.049954e+001 201 158 80
-7.117199e-001 -7.290004e-001 -1.329023e+001 225 71 73
-1.350257e-001 -1.701425e+000 -1.112485e+001 232 229 222
2.179411e+000 -2.970342e+000 -1.085056e+001 173 72 55
3.746224e+000 -2.787228e+000 -1.292269e+001 124 107 98
-2.438694e+000 -1.514161e+000 -1.020753e+001 167 70 40
-3.561148e-001 -1.478823e+000 -1.292956e+001 241 237 232
-1.382517e+000 -1.017610e+000 -1.430419e+001 210 100 76
1.647522e+000 1.513139e+000 -9.337279e+000 175 168 158
3.481474e+000 -1.059049e+000 -8.609171e+000 73 33 32
-8.814740e-001 4.216774e-002 -9.327325e+000 245 243 238
-7.724943e-001 7.574543e-002 -9.450463e+000 126 72 55
3.263410e+000 -1.899673e+000 -9.202232e+000 220 171 94
-1.264241e+000 -8.189138e-001 -8.352587e+000 157 141 128
-2.321734e+000 -8.733637e-001 -8.337319e+000 124 94 70
-1.737266e+000 -1.308810e+000 -8.848958e+000 175 134 102
1.080577e+000 -1.708868e+000 -1.066639e+001 71 39 30
-1.866654e+000 -1.341018e+000 -9.183783e+000 176 133 101
-1.110502e+000 -1.767324e+000 -9.188738e+000 187 155 118
3.372930e-001 -1.627219e+000 -1.035217e+001 94 62 44
2.397742e+000 -2.737906e+000 -1.025030e+001 91 36 27
1.117217e+000 -1.948995e+000 -1.112508e+001 95 28 26
2.392978e+000 -2.861190e+000 -1.026882e+001 208 164 86
-1.014889e+000 -7.063003e-001 -1.345675e+001 245 239 227
-1.858687e+000 -1.714863e+000 -1.007507e+001 203 110 68
1.876650e+000 -2.949909e+000 -1.087221e+001 160 63 54
-1.768255e+000 -7.765249e-001 -1.425104e+001 122 41 43
-1.768255e+000 -7.765249e-001 -1.425104e+001 122 41 43
1.241727e+000 -3.130406e+000 -1.154675e+001 189 81 64
1.865122e+000 1.760266e-001 -9.340114e+000 231 229 219
2.531400e+000 -2.024308e+000 -9.784737e+000 83 34 28
-1.469237e+000 -1.237313e+000 -8.614432e+000 205 155 113
-1.393361e-001 -1.479442e+000 -1.034522e+001 118 110 99
1.507214e+000 -1.745045e+000 -1.121081e+001 158 135 91
2.227427e+000 -2.872721e+000 -1.047729e+001 141 59 53
1.690588e+000 -2.612655e+000 -1.104618e+001 90 24 25
1.439747e+000 -2.957347e+000 -1.134999e+001 178 71 61
-8.419331e-001 -1.577820e+000 -1.371456e+001 239 197 45
9.583188e-001 -2.830984e+000 -1.192074e+001 224 190 116
8.709221e-001 -3.078687e+000 -1.195772e+001 209 164 130
6.505488e-001 -3.180517e+000 -1.290806e+001 201 127 66
3.962556e+000 -1.451630e+000 -8.589558e+000 99 60 45
1.599959e+000 1.105802e-002 -9.334154e+000 234 230 219
2.062054e+000 -5.063030e-001 -9.105622e+000 237 235 224
1.196943e-001 4.361336e-001 -9.614572e+000 243 238 228
9.891868e-001 -7.418661e-001 -8.840684e+000 97 92 69
6.949296e-001 -7.471225e-001 -9.095971e+000 213 214 208
-1.168954e-002 -1.260637e+000 -9.948076e+000 125 125 123
-5.805480e-001 -1.229876e+000 -9.856231e+000 114 101 92
