ply
format ascii 1.0
element face 0
property list uchar int vertex_indices
element vertex 865
property float x
property float y
property float z
property uchar diffuse_red
property uchar diffuse_green
property uchar diffuse_blue
end_header
-2.159950e+000 -1.284613e+000 -9.075121e+000 112 33 18
-1.656847e+000 -1.430581e+000 -9.100206e+000 234 186 142
1.511622e+000 -2.094129e+000 -1.070707e+001 124 94 60
2.760741e+000 1.963233e+000 -8.724543e+000 236 229 219
1.708540e+000 2.002987e+000 -9.970500e+000 241 234 224
1.395561e+000 1.713606e+000 -1.014553e+001 209 205 194
-1.739786e+000 2.172401e+000 -1.377144e+001 238 234 225
3.107068e+000 -2.143439e+000 -9.155176e+000 207 128 69
6.904696e-001 -2.972439e+000 -1.235506e+001 198 154 134
-3.352519e-002 2.901702e+000 -1.200143e+001 248 244 235
1.322450e+000 4.965419e-001 -9.675410e+000 183 175 162
-2.821574e+000 -1.209464e+000 -8.115344e+000 103 35 24
-2.981755e+000 -1.392922e+000 -8.325241e+000 221 117 72
1.645914e+000 1.731308e+000 -9.844226e+000 167 157 147
3.512971e+000 1.109717e+000 -7.967971e+000 118 81 74
-6.541226e-002 1.556898e+000 -1.098373e+001 181 172 163
-1.448963e+000 3.571463e+000 -1.362456e+001 199 73 76
-1.448963e+000 3.571463e+000 -1.362456e+001 199 73 76
2.467205e+000 1.173551e+000 -8.481318e+000 241 234 224
2.813525e+000 -1.821907e-001 -8.512513e+000 236 227 217
3.081754e+000 -5.169865e-001 -8.115859e+000 239 230 223
2.768526e+000 5.059846e-001 -8.769794e+000 254 254 204
2.779643e+000 -1.133108e+000 -8.510812e+000 224 217 207
3.525252e+000 -6.809354e-001 -7.994424e+000 133 43 44
3.720389e-001 -6.258885e-001 -9.396969e+000 76 69 50
3.507255e+000 -1.061459e+000 -8.687637e+000 134 80 56
3.507255e+000 -1.061459e+000 -8.687637e+000 134 80 56
3.528447e+000 -1.077720e+000 -8.657355e+000 155 90 63
2.420862e+000 1.753474e+000 -8.710736e+000 218 209 200
2.811518e-001 -5.432230e-001 -9.453163e+000 94 84 74
-2.570899e+000 -1.456049e+000 -8.493196e+000 156 81 53
3.704024e+000 2.509819e+000 -8.096256e+000 163 142 101
3.141596e+000 1.777678e+000 -8.109418e+000 195 177 127
3.144178e+000 1.777597e+000 -8.074540e+000 231 216 160
1.881042e+000 1.302129e+000 -9.143637e+000 186 181 177
3.510141e+000 1.770608e+000 -7.585978e+000 209 194 142
3.632870e+000 1.796291e+000 -7.727102e+000 184 165 123
2.261500e-001 6.265183e-001 -9.950376e+000 205 203 192
-9.268145e-001 2.820392e-001 -9.928040e+000 173 157 147
-7.465164e-001 3.069521e-001 -9.750563e+000 182 175 169
1.121876e+000 5.504632e-001 -1.055234e+001 169 164 154
2.621903e+000 8.953618e-001 -8.310406e+000 163 149 98
2.356049e+000 4.945997e-001 -8.744279e+000 171 158 111
2.740304e+000 6.754297e-001 -8.242092e+000 213 197 138
-3.293284e+000 -3.512945e-001 -8.057720e+000 128 95 54
-2.515222e+000 -4.276993e-001 -8.730670e+000 143 68 53
-9.162423e-001 -1.403430e-001 -8.859526e+000 113 55 40
-6.645786e-002 -1.131385e-001 -9.249509e+000 165 165 157
-3.383004e+000 -6.540318e-001 -8.116687e+000 177 148 93
2.034359e+000 5.524793e-002 -9.113403e+000 188 175 131
2.633964e+000 3.722280e-002 -8.487341e+000 120 108 86
-2.335848e+000 -8.545708e-001 -8.244488e+000 81 60 55
8.841644e-001 -6.787107e-001 -9.066243e+000 125 118 105
9.255980e-001 -6.825080e-001 -8.934035e+000 127 119 108
-1.404087e+000 -8.401266e-001 -8.228197e+000 119 84 72
-1.394047e+000 -8.633773e-001 -8.275061e+000 119 53 53
1.018830e+000 -7.505429e-001 -8.921410e+000 159 152 144
2.379150e+000 -4.455647e-001 -8.677130e+000 171 163 148
-2.589588e+000 -1.283853e+000 -8.210712e+000 74 30 25
-2.478169e+000 -1.281602e+000 -8.379297e+000 185 156 141
2.608774e+000 -2.514729e+000 -9.888148e+000 132 92 55
2.608352e+000 2.240999e+000 -9.292032e+000 208 201 193
3.161575e+000 1.742317e+000 -8.139519e+000 244 225 169
3.178515e+000 1.856243e+000 -8.044231e+000 189 173 122
3.281030e+000 1.871885e+000 -8.251407e+000 189 173 122
8.745617e-002 1.115322e+000 -1.073750e+001 198 193 187
3.172646e+000 1.614278e+000 -8.471453e+000 178 160 112
-4.409513e-001 5.264679e-001 -1.035111e+001 165 160 154
-3.193606e+000 -3.580790e-001 -7.929486e+000 130 100 66
-3.180450e+000 -3.797730e-001 -7.944127e+000 123 100 56
3.597795e+000 7.290920e-001 -8.014038e+000 190 177 161
-4.469251e-001 -4.248243e-001 -9.304128e+000 103 92 74
2.009573e+000 3.566197e-002 -9.135976e+000 178 166 126
-3.368442e+000 -7.782540e-001 -8.147036e+000 199 169 113
-6.238367e-001 -6.624454e-001 -8.890202e+000 73 67 59
-3.205123e+000 -8.433892e-001 -8.014714e+000 142 90 84
-3.272059e+000 -9.770211e-001 -8.044141e+000 123 72 69
-2.311053e+000 -1.021625e+000 -8.234697e+000 164 142 128
-3.686990e-001 -9.708713e-001 -9.101530e+000 133 123 114
4.163201e+000 4.823859e-002 -7.505895e+000 193 91 90
-3.172219e+000 -1.455632e+000 -8.455498e+000 105 66 60
-2.546752e+000 -1.401728e+000 -8.398733e+000 135 59 30
-1.788433e+000 -1.675683e+000 -9.106495e+000 153 79 47
2.413804e-001 -2.658321e+000 -1.185423e+001 189 160 152
1.246410e+000 -3.443975e+000 -1.165557e+001 204 144 110
2.994890e+000 -2.279838e+000 -9.469049e+000 183 96 79
-1.233993e+000 1.200635e+000 -1.294898e+001 239 235 226
3.408056e+000 1.941623e+000 -7.847159e+000 140 125 93
-5.106177e-001 7.199232e-001 -1.155997e+001 218 217 213
2.902767e+000 1.372629e+000 -8.207461e+000 183 170 120
3.346180e+000 1.447415e+000 -7.723681e+000 215 201 174
3.524837e+000 1.447207e+000 -8.047617e+000 215 201 174
-5.456158e-001 4.321147e-001 -9.892578e+000 190 185 176
-4.763269e-001 4.809314e-001 -1.024118e+001 151 144 136
-8.681301e-001 2.116455e-001 -9.818682e+000 147 130 121
2.332297e+000 5.355513e-001 -8.691235e+000 171 157 112
2.499734e+000 6.846811e-001 -8.455657e+000 250 231 171
-3.307416e+000 -3.498208e-001 -8.019408e+000 216 189 114
-2.994102e+000 -5.110722e-001 -8.095743e+000 139 104 71
-1.270848e+000 -4.786217e-001 -8.736502e+000 57 22 19
1.888316e+000 -8.541335e-002 -9.193382e+000 211 201 151
-3.273121e+000 -6.402537e-001 -8.078450e+000 136 108 61
-3.244899e+000 -6.432506e-001 -8.076550e+000 197 170 117
-3.240030e+000 -6.409230e-001 -8.069146e+000 197 170 117
-3.282704e+000 -7.571028e-001 -8.109633e+000 156 128 77
-9.100333e-001 -5.997142e-001 -9.342026e+000 99 82 74
1.134923e+000 -4.218535e-001 -9.377672e+000 119 107 76
1.079055e+000 -4.397235e-001 -9.364239e+000 124 111 77
-3.378519e+000 -1.007841e+000 -8.177477e+000 167 143 88
-3.365968e+000 -1.053424e+000 -8.147266e+000 58 38 39
-3.341054e+000 -1.074758e+000 -8.145593e+000 125 76 76
-2.416257e+000 -9.329157e-001 -8.155728e+000 123 88 69
-2.130121e+000 -7.891154e-001 -8.365817e+000 126 60 44
-1.291831e+000 -1.081633e+000 -8.103094e+000 178 76 43
-6.483853e-001 -1.278911e+000 -8.744527e+000 133 125 114
-1.343858e+000 -1.649577e+000 -8.711125e+000 234 149 89
8.653555e-001 -2.755566e+000 -1.189168e+001 208 147 86
3.586616e+000 -1.076190e+000 -8.724408e+000 177 146 136
3.581851e+000 -1.071294e+000 -8.715676e+000 177 146 136
1.375818e+000 -3.118737e+000 -1.140136e+001 185 108 60
2.547068e+000 -2.523042e+000 -1.003879e+001 121 87 46
3.687911e+000 -1.622889e+000 -8.512129e+000 184 114 62
1.461489e+000 -3.385138e+000 -1.133682e+001 239 172 131
1.769453e+000 -3.390736e+000 -1.092411e+001 185 135 105
2.481682e+000 -2.646911e+000 -1.011777e+001 101 60 34
1.868411e+000 7.265773e-001 -9.334762e+000 199 195 186
-1.078212e+000 -8.920701e-002 -9.060309e+000 145 80 62
-8.978435e-001 -1.604361e-001 -8.819783e+000 130 73 56
-2.605089e+000 -4.761212e-001 -8.345408e+000 149 69 36
2.025421e+000 1.469709e-002 -9.089881e+000 186 172 125
-2.783756e+000 -5.735728e-001 -7.933964e+000 98 40 29
-2.340165e+000 -6.716398e-001 -8.064852e+000 102 44 33
3.381870e-001 -5.737954e-001 -9.485281e+000 107 98 89
-2.409879e+000 -8.174511e-001 -8.163821e+000 87 40 28
-2.299386e+000 -8.992150e-001 -8.331030e+000 148 127 126
2.077390e-001 -7.041017e-001 -9.402450e+000 136 130 112
-2.847420e+000 -1.055588e+000 -8.021561e+000 201 103 61
-2.847420e+000 -1.055588e+000 -8.021561e+000 201 103 61
-2.825248e+000 -1.004657e+000 -7.988703e+000 219 123 80
-2.825248e+000 -1.004657e+000 -7.988703e+000 219 123 80
-2.394173e+000 -1.006529e+000 -8.303268e+000 53 42 45
2.095667e+000 -2.342448e+000 -9.756214e+000 134 115 74
2.466854e+000 -2.719978e+000 -9.973279e+000 121 78 51
3.449777e+000 1.744566e+000 -7.950392e+000 181 163 113
-2.619396e-001 5.290426e-001 -1.024495e+001 158 153 147
2.725650e+000 1.078153e+000 -8.453687e+000 186 172 125
2.483151e+000 7.326186e-001 -8.510252e+000 225 209 150
-1.006578e+000 -6.853003e-002 -8.910132e+000 104 45 37
-9.421279e-001 -1.305024e-001 -8.732785e+000 108 50 32
-3.012471e+000 -5.506997e-001 -8.024021e+000 79 47 27
-1.936669e+000 -4.774761e-001 -8.817805e+000 159 80 50
-3.384898e+000 -7.115586e-001 -8.107016e+000 220 192 129
-3.064597e+000 -5.876879e-001 -8.026555e+000 82 40 32
-1.913729e+000 -5.516389e-001 -8.554329e+000 135 60 35
1.518624e+000 -4.411866e-001 -9.316864e+000 128 119 88
-2.294799e+000 -8.008029e-001 -8.266722e+000 131 95 64
-8.031571e-001 -9.256928e-001 -8.556384e+000 111 100 86
5.812340e-002 -1.178325e+000 -9.330957e+000 179 174 168
8.596135e-001 -9.606090e-001 -9.092118e+000 228 226 222
-2.861450e+000 -1.191157e+000 -8.008872e+000 143 52 31
7.799694e-001 -2.715168e+000 -1.208280e+001 158 83 68
1.196183e+000 -2.824663e+000 -1.141201e+001 212 69 79
1.460408e+000 -2.728620e+000 -1.098595e+001 211 164 94
3.186744e+000 2.028020e+000 -8.110613e+000 230 218 204
2.696404e+000 1.124124e+000 -8.429841e+000 135 125 96
-1.212276e+000 1.733806e-001 -1.041963e+001 135 78 61
-9.498729e-001 -6.768197e-002 -9.299280e+000 126 68 54
-2.857395e+000 -5.824739e-001 -8.117459e+000 146 78 56
-2.320347e+000 -7.511807e-001 -8.316351e+000 92 33 25
-1.716275e+000 -7.676319e-001 -8.693831e+000 142 84 57
8.331067e-001 -5.827786e-001 -9.418943e+000 77 69 48
1.598889e+000 -3.066391e-001 -9.280004e+000 161 151 116
-3.108255e+000 -8.490238e-001 -7.980925e+000 71 27 28
-2.405896e+000 -8.794271e-001 -8.261344e+000 115 78 62
-5.321938e-001 -7.035856e-001 -9.030567e+000 44 36 32
-2.104181e+000 -1.406897e+000 -8.850560e+000 130 46 22
-1.315779e+000 -1.636725e+000 -8.693181e+000 235 145 94
-1.208853e+000 -1.649000e+000 -8.850547e+000 222 181 134
3.526289e+000 -9.965928e-001 -8.034226e+000 124 39 42
1.982965e-001 5.625279e-001 -1.011068e+001 148 143 137
2.465552e+000 8.650236e-001 -8.874832e+000 210 205 195
-1.539750e+000 -4.744696e-001 -8.656552e+000 182 95 51
-9.962729e-001 -3.222794e-001 -8.842422e+000 157 81 50
1.897730e+000 -1.354573e-003 -9.314514e+000 113 105 84
-3.569456e+000 -7.502816e-001 -8.248488e+000 47 37 36
-3.331302e+000 -8.645147e-001 -8.182833e+000 212 183 130
-3.026713e-001 -6.524376e-001 -9.370207e+000 64 55 40
-2.112244e+000 -1.271588e+000 -8.947699e+000 126 35 24
-2.000349e+000 -1.272279e+000 -8.695003e+000 172 74 37
2.594234e-001 -2.993137e+000 -1.202709e+001 80 65 56
1.227443e+000 -3.078826e+000 -1.153386e+001 182 81 66
5.029468e-001 1.586419e+000 -1.077786e+001 161 157 148
1.905120e+000 1.940829e+000 -9.790335e+000 173 166 157
1.905120e+000 1.940829e+000 -9.790335e+000 173 166 157
-1.026512e+000 -8.576777e-002 -8.724293e+000 166 100 65
-1.026512e+000 -8.576777e-002 -8.724293e+000 166 100 65
-9.315116e-001 -8.755923e-002 -8.793326e+000 142 84 58
-1.924010e+000 -8.642073e-001 -8.725107e+000 151 94 64
-2.186652e+000 -1.243402e+000 -8.429878e+000 162 101 85
-2.125250e+000 -1.306441e+000 -8.482193e+000 167 126 90
-5.360392e-001 -1.316528e+000 -8.918996e+000 135 124 112
1.414343e-001 -1.322972e+000 -9.579826e+000 147 139 135
4.006310e+000 -2.682374e-001 -7.620263e+000 146 54 53
1.607728e+000 2.174281e+000 -1.050887e+001 221 216 206
-6.533117e-001 8.442857e-001 -1.209064e+001 199 196 189
-6.533117e-001 8.442857e-001 -1.209064e+001 199 196 189
-3.542264e+000 -5.906773e-001 -8.184848e+000 236 211 137
1.704568e+000 -3.315451e+000 -1.095700e+001 238 184 150
3.274486e+000 2.235786e+000 -8.043496e+000 221 208 199
3.064521e+000 1.549256e+000 -8.417365e+000 145 131 97
-2.197889e+000 -1.030516e+000 -8.283043e+000 190 149 108
-1.325016e+000 -9.895373e-001 -8.306772e+000 126 38 42
-1.384944e+000 -1.450969e+000 -8.671610e+000 235 194 151
1.788145e+000 -1.332403e+000 -9.285058e+000 169 159 148
1.369755e+000 1.716168e+000 -1.031502e+001 156 152 141
-6.196368e-001 6.114090e-001 -1.125891e+001 235 232 225
1.806769e+000 -4.836429e-002 -9.361199e+000 128 116 100
-1.594968e+000 -6.460368e-001 -8.690830e+000 46 17 18
-1.594968e+000 -6.460368e-001 -8.690830e+000 46 17 18
-1.169406e+000 -1.806434e+000 -8.864665e+000 64 48 40
-4.602800e-001 1.602216e+000 -1.214803e+001 234 231 226
-1.316885e+000 -6.998404e-001 -8.591159e+000 157 134 118
1.284599e+000 1.997186e+000 -1.058061e+001 242 239 234
1.671039e+000 1.716089e+000 -9.737833e+000 158 146 137
-2.065602e+000 -9.034038e-001 -8.687871e+000 112 44 28
2.466365e+000 1.392019e-001 -8.858657e+000 255 254 206
2.127408e+000 -6.825882e-001 -9.040854e+000 220 216 207
7.790948e-001 -2.897698e+000 -1.167036e+001 202 160 136
1.490321e+000 -3.113410e+000 -1.107423e+001 196 124 75
3.551349e+000 -1.358924e+000 -8.428079e+000 194 119 64
3.392775e+000 2.484210e+000 -8.762579e+000 236 227 219
3.691712e+000 -7.848987e-001 -8.221976e+000 128 43 46
2.835971e+000 1.049814e+000 -8.249166e+000 165 151 105
3.735165e+000 3.743938e-002 -7.904971e+000 237 228 220
-9.837481e-001 -1.103770e+000 -8.375572e+000 165 155 145
2.550927e+000 2.235687e+000 -9.146269e+000 208 201 193
-6.133675e-001 4.629457e-001 -1.001946e+001 172 165 157
2.931920e+000 1.450766e+000 -8.142454e+000 202 187 135
-6.280565e-001 -2.905966e-001 -9.363314e+000 151 138 130
2.179546e+000 4.112134e-001 -9.401849e+000 202 187 169
2.260327e+000 4.295241e-001 -8.732594e+000 184 171 119
-1.283323e+000 -2.854799e-001 -8.562642e+000 161 83 54
-5.776903e-001 -5.256718e-001 -9.416783e+000 82 70 56
2.145403e+000 2.736956e-001 -8.901853e+000 211 197 148
2.153373e+000 2.686237e-001 -8.804746e+000 248 235 180
-2.587115e+000 -1.362415e+000 -8.380914e+000 141 115 115
1.023588e+000 -7.832685e-001 -9.061000e+000 149 145 134
2.321976e+000 -4.332714e-001 -8.668118e+000 159 146 133
-7.062493e-001 -1.741669e+000 -8.895218e+000 71 57 48
2.013219e+000 -2.191207e+000 -9.878405e+000 103 85 56
3.312814e+000 2.215201e+000 -7.952799e+000 205 142 136
3.089859e+000 1.843250e+000 -8.013892e+000 178 162 117
-1.235053e+000 1.634440e-001 -1.010935e+001 154 91 74
9.666379e-001 7.012267e-001 -9.793810e+000 155 151 142
2.155195e+000 2.618379e-001 -8.877270e+000 203 187 137
2.264120e+000 3.714654e-001 -8.761716e+000 249 238 184
-3.281297e+000 -7.571090e-001 -8.106224e+000 151 124 77
-1.899940e+000 -6.939716e-001 -8.714636e+000 155 61 32
1.898202e+000 -1.086954e-001 -9.166924e+000 192 180 130
2.710755e+000 3.463817e-001 -8.253716e+000 193 177 123
-2.453806e+000 -9.384632e-001 -8.125529e+000 123 78 63
3.572919e-001 -6.528821e-001 -9.388112e+000 107 96 73
2.108526e+000 -4.545862e-001 -9.186164e+000 169 162 144
1.291185e+000 -3.439290e+000 -1.158130e+001 212 150 109
3.083052e+000 -1.934310e+000 -9.065400e+000 204 161 116
3.021242e+000 -2.739408e+000 -9.533865e+000 149 99 65
-2.067527e-001 9.702223e-001 -1.088720e+001 231 228 221
-6.470903e-001 4.475172e-001 -1.001620e+001 199 195 186
2.430390e+000 5.953743e-001 -8.514157e+000 185 168 115
-1.620394e+000 -4.872872e-001 -8.679828e+000 154 68 41
-1.394174e+000 -6.945300e-001 -8.492641e+000 154 131 117
-9.984884e-001 -6.199992e-001 -8.920432e+000 146 124 113
-2.878123e+000 -1.021269e+000 -8.017210e+000 232 134 87
1.895315e+000 -3.840089e-001 -9.212623e+000 161 149 108
-2.912629e+000 -1.272168e+000 -8.122969e+000 205 111 78
2.769819e-001 -1.113821e+000 -9.332851e+000 183 178 172
4.328513e+000 -4.263815e-002 -7.742066e+000 180 83 77
1.746358e+000 -3.253026e+000 -1.093153e+001 234 191 155
6.724915e+000 -3.038858e+000 -1.207004e+001 195 187 188
3.147711e+000 -2.551238e+000 -9.486652e+000 155 91 50
3.147711e+000 -2.551238e+000 -9.486652e+000 155 91 50
-1.961042e-001 2.189217e+000 -1.230315e+001 201 194 184
4.987041e-001 1.359278e+000 -1.057776e+001 174 171 164
-5.079752e-001 7.242302e-001 -1.153273e+001 222 218 215
2.962891e+000 1.619748e+000 -8.188835e+000 220 209 193
-1.358625e+000 1.846933e-001 -1.034907e+001 230 228 218
-3.436354e+000 -7.540875e-001 -8.147657e+000 105 80 47
-3.436354e+000 -7.540875e-001 -8.147657e+000 105 80 47
-2.537044e+000 -5.092102e-001 -8.420619e+000 151 69 39
2.248230e+000 4.139211e-001 -8.714823e+000 193 180 128
-5.955458e-001 -6.948194e-001 -9.407335e+000 82 68 53
3.851965e-001 -5.434051e-001 -9.476186e+000 118 109 99
1.170058e+000 -7.898680e-001 -9.045037e+000 71 61 51
2.990308e+000 -6.856617e-001 -8.593454e+000 151 131 117
8.841839e-001 -2.313521e+000 -1.096905e+001 190 77 64
2.128089e+000 1.625219e+000 -8.914093e+000 216 211 203
-9.318256e-001 2.581852e-001 -9.883024e+000 99 58 46
-1.285213e+000 -3.753994e-002 -8.952880e+000 151 81 56
-1.925954e+000 -3.525067e-001 -8.791840e+000 134 53 31
-1.925954e+000 -3.525067e-001 -8.791840e+000 134 53 31
-2.971942e+000 -5.335211e-001 -8.034817e+000 60 31 18
-1.797673e+000 -6.036101e-001 -8.719255e+000 132 50 27
-3.202447e+000 -7.694709e-001 -8.103856e+000 82 38 31
-2.855498e+000 -7.110581e-001 -8.066470e+000 121 59 43
-2.363200e+000 -6.499847e-001 -7.990025e+000 68 27 27
-6.472831e-001 -6.259527e-001 -9.264828e+000 74 62 48
5.623780e-001 -4.210651e-001 -9.536513e+000 153 149 142
3.241789e-001 -2.749176e+000 -1.213018e+001 199 125 71
6.909380e-001 -2.557490e+000 -1.195631e+001 157 99 86
3.125350e+000 1.853781e+000 -7.979322e+000 200 180 130
-4.048038e-001 6.479036e-001 -1.092549e+001 206 200 186
2.602563e-001 9.761582e-001 -1.035131e+001 222 218 211
2.893156e+000 1.425457e+000 -8.082274e+000 199 180 128
-3.179493e+000 -5.718790e-001 -8.068192e+000 64 41 27
-3.118114e+000 -5.708134e-001 -8.046811e+000 186 160 101
-3.378042e+000 -9.660675e-001 -8.227764e+000 184 160 104
-3.502876e-002 -4.379185e-001 -9.310783e+000 162 157 151
2.039622e+000 -2.015384e-001 -9.106928e+000 205 192 141
3.106665e+000 4.587757e-001 -8.188418e+000 175 163 154
-3.170594e+000 -9.531019e-001 -8.078294e+000 139 83 81
-2.978862e+000 -1.008655e+000 -8.043024e+000 233 131 84
2.169480e+000 1.955521e+000 -9.231129e+000 206 197 188
1.297066e+000 -2.122539e-001 -9.529053e+000 178 177 170
-5.028786e-001 -9.106493e-001 -8.877133e+000 159 151 144
2.639082e+000 -2.820451e+000 -9.963669e+000 130 77 43
3.070079e+000 -2.669619e+000 -9.556179e+000 221 171 148
2.969602e+000 1.545683e+000 -8.229244e+000 140 126 94
-3.081759e+000 -8.744540e-001 -8.039899e+000 79 31 29
-1.331784e+000 -1.391340e+000 -8.814619e+000 197 83 66
8.605113e-001 1.139769e+000 -9.733380e+000 183 179 168
8.605113e-001 1.139769e+000 -9.733380e+000 183 179 168
4.342822e-003 6.800602e-001 -1.030022e+001 160 156 147
7.149559e-001 -2.129576e+000 -1.101213e+001 236 203 159
4.565901e+000 -1.019369e+000 -7.790858e+000 200 81 83
-7.674858e-001 4.266216e-001 -1.038721e+001 192 189 179
2.367308e+000 -2.587122e+000 -9.731870e+000 122 82 53
2.827197e+000 -1.677102e-001 -8.578346e+000 233 226 216
3.689374e+000 1.329766e+000 -7.867500e+000 137 45 50
1.460029e+000 -3.067750e+000 -1.134654e+001 211 158 82
1.532712e+000 -2.947485e+000 -1.125227e+001 207 144 80
3.530709e+000 -1.052720e+000 -8.730310e+000 164 115 99
3.520615e+000 -1.190837e+000 -8.783764e+000 148 91 58
-2.338910e+000 -1.053756e+000 -8.305150e+000 178 153 141
3.545960e+000 -1.097254e+000 -8.675084e+000 157 88 52
3.558063e+000 -1.070975e+000 -8.680657e+000 177 143 128
2.999809e+000 -2.203993e+000 -9.398533e+000 205 106 89
-3.266978e+000 -7.540249e-001 -8.073330e+000 166 136 81
-2.662537e+000 -7.540256e-001 -7.994832e+000 182 93 59
-2.141187e+000 -1.816387e+000 -9.893599e+000 113 53 36
-3.255559e+000 -3.796196e-001 -8.067726e+000 131 100 64
-3.140762e+000 -1.483452e+000 -8.480522e+000 76 28 26
-2.362303e+000 -1.640628e+000 -9.354121e+000 182 72 19
2.561232e+000 1.020334e+000 -8.374821e+000 146 131 102
3.107413e+000 4.121785e-001 -8.297124e+000 140 126 113
-3.314738e+000 -3.976654e-001 -8.034114e+000 236 208 145
3.244396e+000 -1.631869e+000 -8.832492e+000 137 94 80
3.037004e-001 -2.661439e+000 -1.225109e+001 155 120 103
2.843480e-001 -1.104036e+000 -9.333914e+000 183 179 171
1.139870e+000 -2.155259e+000 -1.108403e+001 204 137 121
1.140641e+000 -2.154177e+000 -1.108197e+001 204 137 121
-3.579167e+000 -8.028066e-001 -8.266675e+000 219 191 106
7.916808e-001 -2.962122e+000 -1.212410e+001 209 158 137
1.827784e+000 -7.820290e-001 -9.103956e+000 177 169 158
8.013829e-001 -2.389171e+000 -1.146874e+001 230 179 138
8.013829e-001 -2.389171e+000 -1.146874e+001 230 179 138
-8.843913e-001 1.724435e-001 -9.795869e+000 139 117 107
3.552756e+000 -1.109194e+000 -8.739242e+000 169 129 110
3.552756e+000 -1.109194e+000 -8.739242e+000 169 129 110
3.629637e+000 -1.149440e+000 -8.618914e+000 196 140 124
3.631489e+000 -1.174136e+000 -8.565714e+000 212 159 145
3.642399e+000 -1.230536e+000 -8.598360e+000 213 161 126
-8.481593e-002 -1.406965e-001 -9.368167e+000 176 169 163
-6.619070e-001 -6.398359e-001 -9.271693e+000 78 67 49
3.471351e+000 1.882010e-001 -8.100144e+000 201 191 181
-1.455488e+000 -8.274231e-001 -8.384707e+000 111 82 70
2.682859e+000 -1.864868e+000 -9.257591e+000 215 210 206
3.112068e+000 -2.146924e+000 -9.346868e+000 203 116 89
-2.924378e-001 4.950759e-001 -1.012686e+001 176 171 165
-8.368390e-001 1.515668e-001 -9.503781e+000 145 124 116
4.101923e+000 1.207504e-001 -7.496772e+000 177 57 65
2.931058e+000 -5.987025e-001 -8.497278e+000 149 132 120
3.126646e+000 -6.409593e-001 -8.080361e+000 136 56 59
1.779676e+000 1.106057e+000 -9.132395e+000 194 191 185
1.140640e+000 -3.751482e-001 -9.356176e+000 186 176 138
4.062545e-001 1.670595e+000 -1.142816e+001 214 211 206
-6.911196e-001 -9.376074e-003 -9.496873e+000 145 130 124
1.569749e+000 2.038846e-001 -9.690409e+000 180 175 163
2.480019e+000 -2.520618e+000 -1.012296e+001 120 61 50
2.523214e+000 -2.444732e+000 -1.001590e+001 146 108 70
3.784366e+000 1.197604e+000 -7.864957e+000 184 70 70
-2.283662e+000 -6.763598e-001 -8.517894e+000 140 68 44
1.724149e+000 -1.025690e+000 -9.151816e+000 197 194 186
-9.542310e-001 -9.840130e-001 -8.404846e+000 142 133 121
1.946921e+000 -2.426035e+000 -9.708192e+000 116 97 64
3.699132e+000 8.160971e-001 -7.840471e+000 221 211 199
2.976031e+000 1.580966e+000 -8.308296e+000 172 160 139
3.703701e+000 1.351108e+000 -7.930954e+000 141 82 77
1.883196e+000 1.323508e+000 -9.179805e+000 190 183 175
3.171270e+000 7.035613e-001 -8.187402e+000 109 93 74
2.456775e+000 7.021420e-001 -8.531562e+000 223 209 148
2.424241e+000 3.832697e-001 -8.646364e+000 217 201 142
2.352692e+000 2.270608e-002 -8.788839e+000 221 205 146
2.555918e+000 9.271848e-002 -8.603291e+000 240 222 159
2.568586e+000 5.732190e-002 -8.535521e+000 163 145 96
-7.271890e-001 2.560748e-001 -9.649996e+000 208 197 185
1.855562e+000 -1.514661e-003 -9.291401e+000 133 123 94
1.855562e+000 -1.514661e-003 -9.291401e+000 133 123 94
2.179534e+000 -4.721465e-002 -9.065182e+000 173 157 105
1.928430e+000 -4.389416e-001 -9.244044e+000 189 181 170
4.019848e+000 -9.765671e-001 -8.522033e+000 183 117 92
3.528226e+000 -1.201517e+000 -8.977271e+000 144 98 82
3.612476e+000 -1.197837e+000 -8.764338e+000 199 124 85
7.116791e-001 -1.624511e+000 -1.044084e+001 212 171 133
4.572020e-001 -1.751984e+000 -1.072785e+001 170 128 95
2.199217e-001 -1.981106e+000 -1.099995e+001 237 228 213
2.058669e+000 -2.088245e+000 -9.928814e+000 201 64 62
3.154544e+000 -2.097657e+000 -9.214134e+000 201 120 75
-1.283284e+000 -1.868305e+000 -9.399128e+000 200 82 65
-1.209734e+000 -1.860955e+000 -9.359554e+000 212 73 72
3.250638e+000 -2.368023e+000 -9.341343e+000 244 216 182
8.236830e-001 -2.632053e+000 -1.193899e+001 184 137 135
8.236830e-001 -2.632053e+000 -1.193899e+001 184 137 135
2.389341e+000 1.975818e+000 -9.116122e+000 219 211 200
3.772285e+000 9.380611e-001 -7.843230e+000 199 148 137
2.779077e+000 1.156892e+000 -8.271047e+000 193 176 130
2.985582e+000 9.525498e-001 -8.048830e+000 183 165 116
2.952502e+000 5.684461e-001 -7.992492e+000 148 135 118
2.187260e+000 3.078780e-001 -8.956870e+000 174 162 113
2.627484e+000 1.432449e-001 -8.451811e+000 182 166 107
2.213719e+000 2.541229e-001 -8.875714e+000 232 216 160
2.107008e+000 -1.834852e-002 -9.049432e+000 227 214 160
-4.802035e-001 -4.398076e-001 -9.380300e+000 141 127 100
-3.361770e+000 -6.147436e-001 -8.031396e+000 141 105 58
-2.662774e+000 -1.318428e+000 -8.334067e+000 126 73 58
3.735721e-001 -1.646480e+000 -1.030498e+001 146 126 107
3.347523e+000 -1.784294e+000 -8.967836e+000 156 101 66
3.290612e+000 -1.884650e+000 -9.033809e+000 186 109 77
-2.659881e+000 -1.550861e+000 -8.560221e+000 46 21 16
1.980166e+000 -1.860097e+000 -9.939883e+000 181 84 82
3.128262e+000 -1.970254e+000 -9.386031e+000 196 137 104
3.150703e+000 -1.994111e+000 -9.417294e+000 231 181 127
-1.155283e+000 -1.811643e+000 -9.215360e+000 184 88 67
2.002962e+000 -2.226202e+000 -9.871363e+000 182 160 106
3.076860e+000 -2.364212e+000 -9.248515e+000 255 243 220
3.264587e+000 -2.407736e+000 -9.511747e+000 248 228 204
3.285928e+000 -2.320991e+000 -9.337076e+000 248 228 203
8.549413e-001 -2.706900e+000 -1.206084e+001 195 172 167
8.549413e-001 -2.706900e+000 -1.206084e+001 195 172 167
8.893678e-001 -2.735479e+000 -1.202038e+001 207 191 180
9.917829e-001 -2.749972e+000 -1.182318e+001 214 175 173
3.000186e+000 -2.422118e+000 -9.265424e+000 250 228 207
8.834071e-001 -2.810192e+000 -1.201783e+001 216 158 92
1.009845e+000 -2.768913e+000 -1.172160e+001 140 94 91
1.012984e+000 -2.802328e+000 -1.167802e+001 208 187 183
1.493976e+000 -3.070465e+000 -1.092810e+001 206 135 89
1.499514e+000 -3.160850e+000 -1.124678e+001 185 117 86
1.576618e+000 -3.133699e+000 -1.107619e+001 226 163 98
2.685515e+000 1.086602e+000 -8.295073e+000 189 175 131
1.209025e+000 1.459088e+000 -9.904498e+000 185 183 171
2.488597e+000 8.587978e-001 -8.419078e+000 215 197 136
2.451640e+000 6.460204e-001 -8.516350e+000 201 184 127
3.007021e+000 5.767980e-001 -8.063747e+000 94 80 54
3.067592e+000 6.400656e-001 -8.084709e+000 99 83 57
1.646035e-002 4.600117e-001 -9.839094e+000 170 163 153
2.383078e+000 1.730188e-002 -8.706236e+000 220 204 142
-6.903481e-001 2.948929e-001 -9.706375e+000 207 200 194
-7.531941e-001 -7.489609e-002 -9.409451e+000 105 82 73
-7.531941e-001 -7.489609e-002 -9.409451e+000 105 82 73
1.658735e+000 -1.529207e-001 -9.238927e+000 169 157 123
-9.164573e-001 -1.740197e-001 -8.778403e+000 133 78 63
-2.929231e+000 -5.176189e-001 -7.951473e+000 136 100 74
-2.453282e+000 -1.007076e+000 -8.268617e+000 132 96 75
-1.939944e+000 -1.548461e+000 -9.280796e+000 185 78 37
-1.935385e-001 -1.773733e+000 -1.057535e+001 204 200 196
1.070858e+000 -1.862361e+000 -1.103394e+001 171 108 82
3.423256e+000 -2.142849e+000 -9.020401e+000 194 123 67
2.228659e+000 -2.343648e+000 -9.814378e+000 84 53 32
2.484609e+000 -2.424126e+000 -1.025272e+001 110 55 29
3.386823e+000 -2.202796e+000 -9.081112e+000 196 128 71
-2.553238e-001 -2.588744e+000 -1.300762e+001 220 157 108
-2.903922e-001 -2.704673e+000 -1.318520e+001 216 137 82
3.189066e+000 -2.432829e+000 -9.521895e+000 253 215 185
1.383938e+000 -3.130251e+000 -1.143049e+001 193 112 67
3.929802e+000 9.504757e-001 -7.169000e+000 150 44 50
2.010741e-001 6.854348e-001 -1.020831e+001 222 218 207
-1.034692e+000 3.058351e-001 -1.007221e+001 232 228 217
1.888879e+000 9.858395e-002 -9.392535e+000 159 149 132
-2.366729e+000 -6.382745e-001 -8.119241e+000 142 74 54
-6.201198e-001 -6.150229e-001 -9.341550e+000 65 54 35
-3.009598e+000 -7.607880e-001 -7.936398e+000 103 54 49
-1.428393e+000 -8.517407e-001 -8.358194e+000 148 101 79
2.128465e-001 -1.055339e+000 -9.278113e+000 176 169 161
-2.795663e+000 -1.072537e+000 -8.050963e+000 212 120 75
-2.842028e+000 -1.144753e+000 -8.092831e+000 174 88 62
4.651067e-001 -1.713835e+000 -1.043693e+001 166 124 89
-2.402329e+000 -1.656537e+000 -9.506991e+000 194 69 32
2.005048e+000 -1.917669e+000 -1.005576e+001 203 77 78
2.494960e+000 -2.071578e+000 -1.011643e+001 146 86 50
3.122035e+000 -1.925584e+000 -9.173312e+000 220 177 128
-1.068317e+000 -1.848518e+000 -9.334382e+000 190 57 54
3.170443e+000 -2.523365e+000 -9.644000e+000 162 94 57
2.906898e+000 -2.795225e+000 -9.660736e+000 163 100 63
1.586379e+000 -3.192635e+000 -1.115835e+001 209 126 65
1.620249e+000 1.835236e+000 -9.713531e+000 180 173 155
-8.465638e-001 2.499823e-001 -9.738588e+000 203 196 188
2.051997e+000 2.357043e-002 -8.864445e+000 191 176 125
-9.420252e-001 2.436171e-001 -9.849522e+000 113 65 54
-1.115515e+000 -3.163966e-001 -8.901222e+000 110 43 32
-2.916625e+000 -5.795417e-001 -8.100263e+000 80 28 28
-2.361659e+000 -6.876949e-001 -8.119634e+000 74 32 30
-2.122836e+000 -7.180530e-001 -8.610109e+000 102 28 17
-1.477751e+000 -6.976962e-001 -8.513605e+000 193 71 55
-1.530448e+000 -7.865743e-001 -8.418392e+000 158 113 89
-1.445616e+000 -7.714903e-001 -8.479271e+000 213 74 67
-3.909928e-001 -7.743069e-001 -9.063530e+000 72 59 40
-2.299866e+000 -7.686649e-001 -8.352397e+000 98 39 25
5.388195e-002 -1.151945e+000 -9.412325e+000 181 176 167
-1.430475e+000 -1.166621e+000 -8.436546e+000 200 148 108
-2.966536e+000 -1.215021e+000 -8.107064e+000 176 68 38
-1.229574e+000 -1.644574e+000 -8.762632e+000 247 211 161
4.108946e-001 -1.846034e+000 -1.088836e+001 223 200 192
3.395756e+000 -2.101775e+000 -9.013614e+000 249 198 161
-2.504831e+000 -1.761278e+000 -9.754425e+000 220 132 76
-1.138660e+000 -1.767165e+000 -9.069445e+000 230 191 149
-1.138660e+000 -1.767165e+000 -9.069445e+000 230 191 149
7.410173e-001 -2.554077e+000 -1.196661e+001 190 72 74
3.641862e+000 6.828880e-001 -7.772991e+000 209 189 175
-1.215099e-001 6.979343e-001 -1.015424e+001 232 229 220
3.324305e+000 -1.003976e+000 -8.636048e+000 146 54 55
-6.850164e-001 -6.929196e-001 -9.240835e+000 36 28 25
-3.468258e+000 -7.544393e-001 -8.158039e+000 119 31 37
-1.972610e+000 -8.870467e-001 -8.791079e+000 157 102 74
-2.166192e+000 -1.139317e+000 -8.979306e+000 139 80 48
-2.992155e-002 -1.329129e+000 -9.843765e+000 157 153 150
-3.035062e+000 -1.133493e+000 -8.136762e+000 226 117 73
-1.797823e+000 -1.318676e+000 -8.989478e+000 216 149 113
2.528693e-002 -1.431362e+000 -1.009637e+001 108 95 84
2.133601e-001 -1.557720e+000 -1.029090e+001 151 122 107
1.192866e+000 -1.784423e+000 -1.091127e+001 160 113 80
1.881738e+000 -1.866127e+000 -9.809142e+000 81 41 38
-1.133361e+000 -1.899002e+000 -9.378850e+000 172 152 141
5.537695e-001 -2.137089e+000 -1.153393e+001 248 210 158
6.942589e-001 -2.293989e+000 -1.153514e+001 243 207 156
-3.944720e-001 -2.578833e+000 -1.340128e+001 240 168 115
9.035419e-001 -2.528374e+000 -1.140525e+001 222 177 136
1.358055e+000 -2.813382e+000 -1.139001e+001 227 184 117
1.346728e+000 -2.807814e+000 -1.132408e+001 227 184 117
1.515161e+000 -3.068117e+000 -1.134672e+001 225 186 111
1.422040e+000 -3.122572e+000 -1.121785e+001 231 186 117
2.364258e+000 1.808016e+000 -8.831119e+000 161 153 142
2.364258e+000 1.808016e+000 -8.831119e+000 161 153 142
1.225510e+000 1.579715e+000 -1.013505e+001 182 179 164
3.645621e-001 1.189625e+000 -1.027786e+001 196 189 179
1.772631e+000 -5.906789e-001 -9.098659e+000 171 162 152
2.018177e+000 -3.935934e-001 -9.143196e+000 149 136 91
-2.681222e+000 -8.310484e-001 -8.004357e+000 141 61 36
-1.600109e+000 -8.177084e-001 -8.385979e+000 191 152 110
-1.346680e+000 -1.249751e+000 -8.653828e+000 215 158 114
8.594328e-001 -1.774469e+000 -1.097739e+001 140 48 42
-1.920765e+000 -1.639880e+000 -9.532617e+000 159 66 43
5.149385e-003 -1.703755e+000 -1.047803e+001 174 166 154
4.890515e-001 -2.006979e+000 -1.131649e+001 148 49 47
3.243410e+000 -2.083763e+000 -8.988338e+000 253 250 247
3.243410e+000 -2.083763e+000 -8.988338e+000 253 250 247
-1.159257e+000 -1.750624e+000 -9.061816e+000 233 197 150
9.852761e-001 -2.613471e+000 -1.143302e+001 214 71 69
1.083351e+000 -3.056187e+000 -1.187574e+001 178 87 85
1.941003e+000 1.809339e+000 -9.258913e+000 232 226 215
1.270455e+000 1.390242e+000 -9.810791e+000 239 236 228
1.597093e-001 9.400229e-001 -1.045220e+001 177 168 159
1.597093e-001 9.400229e-001 -1.045220e+001 177 168 159
1.796358e+000 4.022758e-002 -9.414466e+000 142 132 113
3.998779e+000 -9.179849e-001 -8.129211e+000 172 58 60
-3.044620e+000 -5.456739e-001 -7.982615e+000 198 168 112
-2.392766e+000 -6.251036e-001 -8.074155e+000 74 31 27
-2.171642e+000 -1.283507e+000 -9.110331e+000 111 31 19
-2.128143e+000 -1.302432e+000 -8.521981e+000 172 125 84
3.594079e-001 -1.576322e+000 -1.005126e+001 196 188 183
1.011374e+000 -1.784762e+000 -1.072979e+001 212 169 127
-2.232697e+000 -1.440035e+000 -8.661562e+000 149 53 22
-2.106297e+000 -1.633826e+000 -9.525350e+000 143 43 21
-1.506840e+000 -1.487341e+000 -8.927595e+000 222 169 123
2.122122e+000 -2.089972e+000 -9.863807e+000 220 86 84
9.482271e-001 -2.797993e+000 -1.197439e+001 216 198 154
2.054763e+000 1.908052e+000 -9.275417e+000 188 177 167
3.825826e+000 9.491693e-001 -7.831694e+000 190 71 73
1.173549e+000 1.837569e+000 -1.044652e+001 243 241 232
3.666463e+000 5.651229e-001 -7.687281e+000 233 222 210
1.052476e+000 1.219995e+000 -9.817249e+000 239 236 227
2.480070e+000 7.199071e-001 -8.348030e+000 254 248 188
2.384217e+000 7.086860e-001 -9.028838e+000 233 231 216
-7.341808e-001 1.608109e-001 -9.515994e+000 138 79 62
-1.610588e+000 -6.975818e-001 -8.606620e+000 61 20 21
-3.439211e-001 -8.540425e-001 -9.079366e+000 154 145 136
-2.713635e+000 -1.512961e+000 -8.477385e+000 170 89 63
-1.920219e+000 -1.564109e+000 -9.122448e+000 215 113 69
-1.341962e+000 -1.480814e+000 -8.681945e+000 245 204 154
3.888970e+000 1.356995e+000 -7.796353e+000 207 74 77
3.847300e+000 9.587261e-001 -7.860425e+000 183 64 66
2.455649e+000 6.845355e-001 -8.260540e+000 254 246 183
3.224258e+000 -7.175842e-001 -8.505104e+000 109 44 49
-2.323462e+000 -7.173461e-001 -8.260287e+000 87 34 26
3.460120e+000 -1.100130e+000 -8.871963e+000 90 47 39
-3.527495e+000 -8.629783e-001 -8.250965e+000 244 215 143
-1.889950e+000 -1.092935e+000 -8.706964e+000 128 53 34
-1.857194e+000 -1.464408e+000 -9.337737e+000 90 24 21
-9.141687e-001 -1.807753e+000 -8.916915e+000 185 178 168
3.242042e+000 1.283588e+000 -8.120927e+000 169 152 103
1.131628e+000 1.581965e+000 -1.024442e+001 191 183 170
1.131628e+000 1.581965e+000 -1.024442e+001 191 183 170
2.786651e+000 6.532977e-001 -8.332796e+000 187 172 117
-5.221686e-001 1.404806e-001 -9.482553e+000 206 202 199
3.525199e+000 -1.867186e+000 -8.992922e+000 253 255 252
3.525199e+000 -1.867186e+000 -8.992922e+000 253 255 252
-1.978303e+000 -1.674492e+000 -9.488951e+000 207 99 50
2.464256e+000 1.143572e+000 -8.445774e+000 240 233 224
2.373014e+000 4.780546e-001 -8.897190e+000 156 142 99
-3.535325e-001 -6.738618e-001 -9.132831e+000 69 57 39
2.669351e+000 -2.157223e+000 -9.761837e+000 223 198 144
1.351504e+000 2.021810e+000 -1.058125e+001 242 239 230
9.852709e-001 -9.205325e-001 -8.951046e+000 231 231 223
2.998364e+000 -1.664545e+000 -8.799220e+000 222 217 209
2.785901e+000 -2.211646e+000 -9.680210e+000 226 201 147
2.789439e+000 -2.559128e+000 -9.861487e+000 119 60 42
1.638437e+000 2.138539e+000 -9.645667e+000 242 235 225
3.155693e+000 5.770969e-001 -8.370292e+000 103 84 70
2.801637e+000 5.317605e-001 -8.869072e+000 255 255 199
1.681078e+000 -3.346983e-001 -9.115307e+000 97 87 61
1.677661e+000 -3.318620e-001 -9.120887e+000 97 87 61
1.858382e+000 -2.800052e+000 -9.776523e+000 101 78 46
-6.746422e-001 7.602275e-001 -1.033800e+001 224 221 214
3.656331e+000 1.624560e-001 -7.878880e+000 242 231 223
2.302283e+000 -1.264417e+000 -8.677438e+000 240 236 227
-8.076834e-001 1.629306e+000 -1.258976e+001 225 220 214
2.547815e+000 2.234648e+000 -9.143718e+000 208 201 193
1.073948e+000 2.674224e-001 -9.626712e+000 177 173 162
-3.236199e+000 -6.196055e-001 -8.072639e+000 173 144 94
-3.117842e+000 -6.066687e-001 -8.081505e+000 136 107 71
-2.955731e+000 -5.000410e-001 -8.066977e+000 118 61 35
2.115227e+000 1.931821e-001 -8.866319e+000 155 140 97
-3.265021e+000 -7.648222e-001 -8.124717e+000 199 172 119
-3.098697e+000 -7.989569e-001 -8.001580e+000 125 74 70
-2.422913e+000 -6.504266e-001 -7.996662e+000 104 49 46
-2.761899e-001 -6.253595e-001 -9.365538e+000 90 78 62
-2.401155e-001 -6.418780e-001 -9.317653e+000 136 127 118
9.707355e-001 -4.287648e-001 -9.367271e+000 179 169 133
-8.028586e-002 -1.079005e+000 -9.184760e+000 164 159 153
1.688512e+000 -3.401315e+000 -1.109136e+001 222 163 132
1.767944e+000 -2.664346e+000 -9.882068e+000 129 108 76
-5.525310e-001 4.388206e-001 -9.871546e+000 191 186 178
-3.455955e+000 -5.468605e-001 -8.104071e+000 229 200 130
-1.970451e+000 -7.202952e-001 -8.711068e+000 136 50 24
-2.363499e+000 -1.019746e+000 -8.319771e+000 54 42 45
-2.295026e+000 -1.055916e+000 -8.339809e+000 186 151 122
-6.483745e-001 4.488692e-001 -1.001117e+001 199 195 186
-2.414420e+000 -8.803519e-001 -8.241052e+000 128 91 66
-6.205596e-001 1.625413e+000 -1.233321e+001 213 210 205
-7.570839e-001 -9.118062e-002 -9.387372e+000 100 76 72
-1.259008e+000 -8.772007e-001 -8.251164e+000 146 137 122
-1.351893e+000 3.259958e-001 -1.037727e+001 184 97 76
-2.746495e+000 -1.377636e+000 -8.266216e+000 112 45 28
3.582035e+000 -1.209927e+000 -8.731636e+000 173 104 63
2.997483e+000 -2.499977e+000 -9.450076e+000 136 77 47
-1.314042e+000 1.555278e+000 -1.321471e+001 245 240 235
8.191124e-001 -9.348118e-001 -9.155684e+000 194 190 181
-2.095805e+000 -3.357158e-001 -9.020972e+000 140 53 32
2.414086e+000 6.574902e-001 -8.563352e+000 158 144 98
1.519203e+000 1.758222e+000 -9.982504e+000 195 191 182
2.717201e+000 2.040812e+000 -8.807193e+000 203 199 192
9.059926e-002 7.218115e-001 -1.036760e+001 184 178 173
-9.215401e-001 2.178014e-001 -9.831403e+000 119 76 64
-6.865208e-001 1.648244e-001 -9.583795e+000 136 103 94
-3.351704e+000 -6.593876e-001 -8.131842e+000 202 172 121
3.227524e+000 1.071571e+000 -7.783017e+000 215 196 138
2.206449e+000 4.184128e-001 -8.713465e+000 206 190 140
-2.286199e+000 -9.177405e-001 -8.295005e+000 75 62 62
-5.056444e-001 -7.318189e-001 -9.401291e+000 57 45 32
1.755787e+000 -1.604086e-001 -9.181471e+000 164 156 119
1.986351e+000 -1.345361e-001 -8.953495e+000 195 181 133
2.796357e+000 4.774691e-001 -8.026364e+000 209 194 134
2.954981e+000 5.599629e-001 -7.998589e+000 167 155 134
2.938704e+000 5.304482e-001 -7.995038e+000 127 115 91
-3.200499e+000 -1.314911e+000 -8.300592e+000 71 27 17
-1.898762e+000 -1.203677e+000 -8.944535e+000 188 126 90
1.826094e+000 -3.500393e-001 -9.111690e+000 164 152 114
2.055502e+000 -4.493130e-001 -8.988672e+000 219 215 205
2.164379e+000 -4.077094e-001 -8.880094e+000 174 165 143
1.146949e+000 -3.497219e+000 -1.189368e+001 221 162 126
3.520862e+000 -1.016540e+000 -8.635035e+000 156 86 70
1.288833e+000 -3.288057e+000 -1.124785e+001 222 161 126
5.917597e-002 7.573292e-001 -1.039974e+001 214 211 204
1.019986e-001 8.623621e-001 -1.042420e+001 186 179 169
3.093986e+000 1.798665e+000 -7.979608e+000 207 190 137
3.282169e+000 1.461587e+000 -7.658367e+000 249 242 205
-1.067155e+000 -1.127967e-001 -9.219674e+000 100 40 32
3.674000e+000 1.284616e+000 -7.798494e+000 176 106 98
-2.321968e+000 -7.754581e-001 -8.283769e+000 99 46 33
-6.727141e-001 -7.128174e-001 -9.099533e+000 119 108 102
1.406472e+000 -2.405463e-001 -9.267878e+000 203 193 157
2.410989e+000 -5.412112e-002 -8.496857e+000 164 152 102
2.524372e+000 -2.237259e-002 -8.524227e+000 169 154 111
-2.625454e+000 -1.376554e+000 -8.353173e+000 105 43 26
-1.903465e+000 -1.468453e+000 -8.959277e+000 164 74 41
2.369449e+000 -1.854936e-001 -8.638289e+000 99 91 67
2.295947e+000 -4.262246e-001 -8.564179e+000 171 161 148
1.137787e+000 -3.413856e+000 -1.181203e+001 252 198 164
1.682060e+000 -3.305984e+000 -1.103669e+001 214 147 105
3.587112e+000 -1.233031e+000 -8.563215e+000 197 119 69
2.607578e+000 -2.684863e+000 -1.009648e+001 150 114 66
-5.842172e-001 1.835027e+000 -1.235715e+001 206 200 194
1.019865e+000 1.879669e+000 -1.133110e+001 216 210 196
3.336148e+000 1.702084e+000 -7.721831e+000 244 223 168
-3.280418e+000 -3.549936e-001 -8.097126e+000 130 105 65
-9.256532e-001 -9.433746e-002 -9.057307e+000 125 68 53
-1.296125e+000 -1.885843e-001 -8.507124e+000 206 106 58
2.390784e+000 6.766703e-001 -8.505059e+000 147 134 91
-9.667236e-001 -3.781364e-001 -8.917392e+000 44 22 22
-9.675449e-001 -5.523867e-001 -9.308171e+000 91 73 65
1.607549e+000 -1.522700e-001 -9.131320e+000 114 103 74
2.753548e+000 3.640947e-001 -8.189202e+000 163 151 102
2.884740e+000 5.524523e-001 -7.999436e+000 163 148 124
-1.389223e+000 -9.830641e-001 -8.323116e+000 68 43 43
-1.389223e+000 -9.830641e-001 -8.323116e+000 68 43 43
1.093908e+000 -7.515090e-001 -8.927371e+000 165 152 143
-5.601120e-001 -1.253920e+000 -8.777456e+000 180 170 160
3.992176e+000 -2.054853e-001 -7.556623e+000 192 177 170
1.975721e+000 -2.165760e+000 -9.771677e+000 158 140 97
2.749312e+000 -2.975387e+000 -9.975083e+000 249 205 179
3.329959e+000 -2.396755e+000 -9.211713e+000 201 123 66
5.629228e-001 1.676544e+000 -1.155869e+001 203 200 193
2.317493e+000 8.157382e-001 -9.135819e+000 202 197 186
2.181504e+000 4.303710e-001 -9.323472e+000 191 174 154
2.397313e+000 6.438551e-001 -8.476632e+000 187 173 122
-3.271605e+000 -9.429383e-001 -8.102155e+000 161 110 106
1.740513e+000 -2.096424e-001 -9.261018e+000 159 151 115
1.975748e+000 -7.607588e-002 -9.090070e+000 238 225 174
-3.045690e+000 -1.146890e+000 -8.131073e+000 223 119 72
-2.545887e+000 -1.454464e+000 -8.429012e+000 154 81 50
-5.641796e-002 -1.156227e+000 -9.225186e+000 181 178 175
1.519168e+000 -2.722584e+000 -1.103640e+001 224 93 89
-1.347147e+000 3.014293e-001 -1.042418e+001 176 97 73
-1.347147e+000 3.014293e-001 -1.042418e+001 176 97 73
-4.491206e-001 6.015215e-001 -1.105797e+001 202 196 185
-3.487310e-001 4.625295e-001 -1.010121e+001 140 132 121
2.244945e-001 4.502532e-001 -9.884539e+000 171 168 163
3.071887e+000 1.345161e+000 -7.989520e+000 219 200 142
-1.072114e+000 -8.639820e-002 -9.007211e+000 144 78 53
-6.751025e-001 -1.237661e-001 -9.513929e+000 113 95 85
-2.040151e+000 -5.422150e-001 -8.747150e+000 126 50 27
1.872078e+000 -1.209463e-002 -9.471282e+000 175 169 160
-2.314726e+000 -8.209879e-001 -8.318378e+000 137 96 71
-1.578782e-001 -7.319823e-001 -9.433070e+000 35 27 25
1.474056e+000 -4.878053e-001 -9.282815e+000 85 78 52
-1.362698e+000 -1.722320e+000 -8.995662e+000 59 49 48
3.653106e+000 -1.188838e+000 -8.539331e+000 197 73 77
3.147620e+000 1.965762e+000 -8.009558e+000 132 118 92
-7.121419e-001 -4.475370e-002 -9.387025e+000 111 75 58
1.759408e+000 -1.451121e-001 -9.252787e+000 117 108 77
-1.360550e+000 -1.150767e+000 -8.456555e+000 205 155 120
-1.317749e+000 -1.645437e+000 -8.718691e+000 241 148 93
2.465860e-001 -2.806954e+000 -1.202493e+001 181 134 112
-7.594005e-001 4.831516e-001 -1.038549e+001 169 162 146
3.146951e+000 1.962390e+000 -8.007803e+000 134 122 94
3.018274e+000 1.555326e+000 -8.135187e+000 245 226 169
2.242602e+000 7.298220e-001 -9.211394e+000 219 215 207
1.411681e+000 -2.648566e-001 -9.524133e+000 119 111 96
-1.472468e+000 -1.064760e+000 -8.322015e+000 222 191 155
5.125694e-001 -1.510305e+000 -9.998705e+000 177 170 167
6.985160e-001 -3.293009e+000 -1.221731e+001 247 197 165
3.607505e+000 -1.118215e+000 -8.675894e+000 170 97 64
-1.962903e+000 -4.531446e-001 -8.776372e+000 150 70 46
-1.962903e+000 -4.531446e-001 -8.776372e+000 150 70 46
2.047579e+000 4.015129e-001 -9.383860e+000 221 217 207
-1.834169e+000 -1.175554e+000 -8.702274e+000 131 55 37
-5.013893e-001 -9.584020e-001 -8.988823e+000 163 154 148
3.505956e+000 -1.101785e+000 -8.681171e+000 168 121 101
1.821279e+000 -3.194906e+000 -1.117309e+001 126 110 69
2.526183e+000 -2.851368e+000 -9.541423e+000 95 68 69
5.062000e-001 1.597738e+000 -1.069676e+001 160 156 147
-6.887726e-001 9.680341e-001 -1.242448e+001 240 237 233
3.147578e+000 1.626041e+000 -8.229953e+000 255 248 197
2.389170e+000 6.928689e-001 -8.819875e+000 224 218 205
-2.076524e+000 -8.082949e-001 -8.761057e+000 78 23 13
1.991720e+000 -2.266414e+000 -9.727733e+000 247 233 178
3.498117e+000 -1.145997e+000 -8.432162e+000 189 113 65
1.710142e+000 -3.037424e+000 -9.940678e+000 112 96 63
-1.120359e+000 3.336664e-001 -1.013167e+001 238 236 223
2.593550e+000 8.003419e-001 -8.548763e+000 255 250 195
2.593550e+000 8.003419e-001 -8.548763e+000 255 250 195
2.100380e+000 -8.267392e-002 -9.152011e+000 255 250 202
-1.755604e+000 -1.016769e+000 -8.627898e+000 234 195 146
2.952839e+000 -2.544590e+000 -9.623257e+000 126 71 40
1.158184e+000 1.351985e+000 -1.000282e+001 169 162 156
1.158184e+000 1.351985e+000 -1.000282e+001 169 162 156
4.552897e-001 -2.263686e+000 -1.133632e+001 134 94 82
9.876759e-001 -2.264821e+000 -1.119046e+001 172 53 56
3.905271e+000 -2.686639e-001 -7.484615e+000 192 67 71
-2.968294e+000 -6.617113e-001 -8.085597e+000 75 32 31
2.773818e+000 2.118616e-001 -8.421745e+000 149 137 95
-6.453342e-001 -1.239886e+000 -8.817555e+000 185 179 174
2.476676e+000 6.719726e-001 -7.833558e+000 253 252 198
-4.682250e-001 -6.174208e-001 -9.171419e+000 62 50 38
-4.682250e-001 -6.174208e-001 -9.171419e+000 62 50 38
3.195915e+000 5.537364e-001 -8.310475e+000 151 138 105
-7.514352e-001 -3.285874e-001 -8.883663e+000 51 33 30
3.313434e+000 1.465068e+000 -7.926618e+000 254 250 202
-1.401568e+000 -1.097914e+000 -8.361143e+000 192 156 123
-1.771817e+000 -1.933232e+000 -9.831523e+000 60 22 11
-6.367318e-002 -1.595289e-001 -9.334422e+000 157 154 145
-3.482465e+000 -5.267216e-001 -8.175968e+000 123 95 51
3.481765e+000 -1.165196e+000 -8.752879e+000 131 78 57
3.627200e+000 -1.232968e+000 -8.572170e+000 230 184 167
3.564593e+000 -1.188745e+000 -8.697303e+000 179 106 62
3.548335e+000 -1.227924e+000 -8.732040e+000 177 105 56
-1.906983e+000 3.550548e+000 -1.399527e+001 238 230 228
-1.100696e-001 -2.878870e-001 -9.286586e+000 147 138 130
-2.894928e+000 -1.056388e+000 -8.041035e+000 204 103 57
7.908992e-001 -1.764961e+000 -1.099264e+001 163 98 60
-7.263597e-001 -1.710317e-002 -9.375344e+000 109 63 54
1.896729e+000 -2.848161e+000 -8.723480e+000 122 105 62
1.022512e+000 -2.142689e+000 -1.114821e+001 144 40 37
-4.833934e-001 2.270359e+000 -1.266357e+001 177 171 159
-4.066416e-001 4.078684e+000 -1.261991e+001 236 226 216
8.408257e-001 -8.535175e-001 -8.951154e+000 231 228 219
-3.283105e+000 -1.140268e+000 -8.261115e+000 135 70 64
-2.568265e-001 3.887053e+000 -1.247209e+001 214 206 195
-7.504439e-001 2.347278e+000 -1.277455e+001 184 177 166
-4.135687e-001 2.075153e+000 -1.255431e+001 229 223 215
-4.058772e-002 3.334821e+000 -1.217142e+001 205 196 187
-3.634631e-002 3.325651e+000 -1.215601e+001 205 196 187
-6.432023e-002 1.664605e+000 -1.136105e+001 187 180 170
-6.810641e-001 2.621239e+000 -1.285456e+001 222 218 213
3.475437e+000 2.357321e-002 -7.906354e+000 213 201 187
3.578503e+000 -9.994442e-001 -8.669995e+000 142 77 53
-2.511452e+000 -1.241510e+000 -8.342446e+000 92 62 53
-2.498433e+000 -1.415198e+000 -8.432687e+000 164 105 71
2.012913e+000 -2.199195e+000 -9.857377e+000 162 140 94
-7.086384e-001 -1.684622e-002 -9.476233e+000 138 121 112
3.517132e+000 -1.082470e+000 -8.594671e+000 166 137 131
-5.667494e-001 -5.297204e-001 -9.353572e+000 92 83 64
-3.478368e+000 -5.493963e-001 -8.219887e+000 133 103 52
-3.231510e+000 -8.498834e-001 -8.096458e+000 140 80 75
1.958191e+000 -2.143691e+000 -9.853214e+000 133 116 68
7.163443e-001 -2.610004e+000 -1.222614e+001 137 100 91
2.145157e+000 3.841077e-001 -9.278422e+000 218 208 188
-5.272077e-001 -5.655881e-001 -9.360273e+000 100 89 69
-2.320521e+000 -9.193441e-001 -8.347883e+000 47 27 29
-2.517574e+000 -1.278618e+000 -8.410338e+000 77 56 56
2.943608e+000 -2.357483e+000 -9.445646e+000 177 93 60
8.564710e-001 -2.527723e+000 -1.153074e+001 209 101 83
8.497828e-001 -2.749206e+000 -1.204336e+001 186 105 71
6.962813e-001 1.001912e+000 -9.859168e+000 237 232 226
-6.154021e-001 -5.189498e-001 -9.446927e+000 55 42 27
-4.448730e-001 -4.981149e-001 -9.414728e+000 62 51 32
-3.246825e+000 -6.905186e-001 -8.104848e+000 128 97 51
-1.312929e+000 -1.043364e+000 -8.188362e+000 201 77 77
-1.199345e+000 -1.628604e+000 -8.870635e+000 221 163 120
1.554310e+000 -2.733143e+000 -1.129067e+001 204 108 72
1.563719e+000 -3.193028e+000 -1.136576e+001 253 251 241
2.450021e+000 3.307446e-001 -8.404413e+000 243 227 165
-4.733021e-001 -1.956714e-001 -9.358592e+000 170 163 155
2.401710e-001 -2.529630e-001 -9.429826e+000 155 148 138
1.928052e+000 -3.870922e-001 -9.069418e+000 200 187 135
-3.395528e+000 -7.747850e-001 -8.148722e+000 249 225 164
-1.225349e-001 -1.092856e+000 -9.190468e+000 128 120 109
