ply
format ascii 1.0
element face 0
property list uchar int vertex_indices
element vertex 865
property float x
property float y
property float z
property uchar diffuse_red
property uchar diffuse_green
property uchar diffuse_blue
end_header
3.383136e+000 -2.418082e+000 -9.352628e+000 244 216 182
8.331196e-001 -2.671024e+000 -1.198140e+001 184 137 135
8.331196e-001 -2.671024e+000 -1.198140e+001 184 137 135
2.484714e+000 2.123270e+000 -9.112293e+000 219 211 200
3.948075e+000 1.045144e+000 -7.798531e+000 199 148 137
2.905383e+000 1.275378e+000 -8.242454e+000 193 176 130
3.125200e+000 1.062311e+000 -8.012488e+000 183 165 116
3.091172e+000 6.585281e-001 -7.950860e+000 148 135 118
2.278880e+000 3.823486e-001 -8.953035e+000 174 162 113
2.746807e+000 2.115475e-001 -8.432506e+000 182 166 107
2.307732e+000 3.264797e-001 -8.869946e+000 232 216 160
2.194319e+000 4.044491e-002 -9.049888e+000 227 214 160
-5.173311e-001 -4.006590e-001 -9.384655e+000 141 127 100
-3.547845e+000 -5.808686e-001 -7.988625e+000 141 105 58
-2.816208e+000 -1.321403e+000 -8.311060e+000 126 73 58
3.732021e-001 -1.660260e+000 -1.033707e+001 146 126 107
3.491459e+000 -1.810360e+000 -8.968117e+000 156 101 66
3.432334e+000 -1.914993e+000 -9.040239e+000 186 109 77
-2.808936e+000 -1.564977e+000 -8.541332e+000 46 21 16
2.052395e+000 -1.885474e+000 -9.969232e+000 181 84 82
3.256516e+000 -2.002662e+000 -9.400016e+000 196 137 104
3.279251e+000 -2.027343e+000 -9.431860e+000 231 181 127
-1.227081e+000 -1.837934e+000 -9.222687e+000 184 88 67
2.076548e+000 -2.268272e+000 -9.898832e+000 182 160 106
3.204652e+000 -2.415601e+000 -9.259884e+000 255 243 220
3.394390e+000 -2.458023e+000 -9.526390e+000 248 228 204
3.420015e+000 -2.368899e+000 -9.348164e+000 248 228 203
8.627695e-001 -2.748169e+000 -1.208596e+001 195 172 167
8.636804e-001 -2.748938e+000 -1.208379e+001 195 172 167
9.000304e-001 -2.779509e+000 -1.204327e+001 207 191 180
1.007532e+000 -2.794134e+000 -1.186604e+001 214 175 173
3.124491e+000 -2.476236e+000 -9.277684e+000 250 228 207
8.941574e-001 -2.854237e+000 -1.206178e+001 216 158 92
1.026868e+000 -2.814863e+000 -1.176484e+001 140 94 91
1.030376e+000 -2.849919e+000 -1.172135e+001 208 187 183
1.534653e+000 -3.136554e+000 -1.096963e+001 206 135 89
1.536643e+000 -3.225491e+000 -1.128633e+001 185 117 86
1.618832e+000 -3.199992e+000 -1.111764e+001 226 163 98
2.807423e+000 1.201834e+000 -8.267566e+000 189 175 131
1.246995e+000 1.579128e+000 -9.923475e+000 185 183 171
2.600302e+000 9.626551e-001 -8.396717e+000 215 197 136
2.560726e+000 7.389076e-001 -8.497688e+000 201 184 127
3.148796e+000 6.679893e-001 -8.029253e+000 94 80 54
3.211526e+000 7.340470e-001 -8.050625e+000 99 83 57
2.434163e-003 5.387786e-001 -9.857345e+000 170 163 153
2.487626e+000 7.874732e-002 -8.696068e+000 220 204 142
-7.356110e-001 3.663399e-001 -9.715519e+000 207 200 194
-8.031913e-001 -1.800400e-002 -9.417445e+000 105 82 73
-8.031913e-001 -1.800400e-002 -9.417445e+000 105 82 73
1.722278e+000 -1.016620e-001 -9.239099e+000 169 157 123
-9.766653e-001 -1.198827e-001 -8.768581e+000 133 78 63
-3.097543e+000 -4.787523e-001 -7.908236e+000 136 100 74
-2.595716e+000 -9.943892e-001 -8.239733e+000 132 96 75
-2.047862e+000 -1.560626e+000 -9.286107e+000 185 78 37
-2.181201e-001 -1.791088e+000 -1.060845e+001 204 200 196
1.095250e+000 -1.881065e+000 -1.107475e+001 171 108 82
3.568725e+000 -2.184640e+000 -9.022895e+000 194 123 67
2.312879e+000 -2.391292e+000 -9.842241e+000 84 53 32
2.572863e+000 -2.470775e+000 -1.028582e+001 110 55 29
3.529612e+000 -2.247004e+000 -9.085320e+000 196 128 71
-2.818988e-001 -2.614855e+000 -1.303699e+001 220 157 108
-3.178604e-001 -2.731999e+000 -1.321112e+001 216 137 82
3.315867e+000 -2.484401e+000 -9.537422e+000 253 215 185
1.415833e+000 -3.192514e+000 -1.147857e+001 193 112 67
4.120987e+000 1.061191e+000 -7.097537e+000 150 44 50
1.946321e-001 7.698430e-001 -1.022700e+001 222 218 207
-1.094425e+000 3.770411e-001 -1.009329e+001 232 228 217
1.962007e+000 1.616253e-001 -9.401242e+000 159 149 132
-2.506118e+000 -6.062559e-001 -8.084661e+000 142 74 54
-6.640968e-001 -5.839341e-001 -9.345685e+000 65 54 35
-3.183324e+000 -7.345510e-001 -7.894739e+000 103 54 49
-1.517051e+000 -8.321332e-001 -8.330792e+000 148 101 79
2.082482e-001 -1.045897e+000 -9.281693e+000 176 169 161
-2.958925e+000 -1.062929e+000 -8.016618e+000 212 120 75
-3.010289e+000 -1.137787e+000 -8.066107e+000 174 88 62
4.681735e-001 -1.729838e+000 -1.047120e+001 166 124 89
-2.528118e+000 -1.671909e+000 -9.514795e+000 194 69 32
2.076506e+000 -1.944743e+000 -1.008501e+001 203 77 78
2.586049e+000 -2.104527e+000 -1.014737e+001 146 86 50
3.254428e+000 -1.957381e+000 -9.184133e+000 220 177 128
-1.135344e+000 -1.875967e+000 -9.344956e+000 190 57 54
3.294064e+000 -2.577751e+000 -9.661792e+000 162 94 57
3.019407e+000 -2.861871e+000 -9.680226e+000 163 100 63
1.628000e+000 -3.259857e+000 -1.119951e+001 209 126 65
1.676965e+000 1.972212e+000 -9.727215e+000 180 173 155
-8.994465e-001 3.204155e-001 -9.753659e+000 203 196 188
2.137546e+000 8.390429e-002 -8.852885e+000 191 176 125
-9.987452e-001 3.132460e-001 -9.866710e+000 113 65 54
-1.184432e+000 -2.702197e-001 -8.890587e+000 110 43 32
-3.083037e+000 -5.439463e-001 -8.063990e+000 80 28 28
-2.500522e+000 -6.584216e-001 -8.084155e+000 74 32 30
-2.244694e+000 -6.905884e-001 -8.592486e+000 102 28 17
-1.567737e+000 -6.699258e-001 -8.491824e+000 193 71 55
-1.624636e+000 -7.630877e-001 -8.396482e+000 158 113 89
-1.534979e+000 -7.472676e-001 -8.459505e+000 213 74 67
-4.249615e-001 -7.506902e-001 -9.064525e+000 72 59 40
-2.433181e+000 -7.437519e-001 -8.325692e+000 98 39 25
4.118997e-002 -1.146435e+000 -9.424574e+000 181 176 167
-1.520089e+000 -1.163123e+000 -8.417322e+000 200 148 108
-3.140195e+000 -1.211976e+000 -8.080158e+000 176 68 38
-1.307571e+000 -1.664947e+000 -8.757053e+000 247 211 161
4.102978e-001 -1.864796e+000 -1.092668e+001 223 200 192
3.540329e+000 -2.141814e+000 -9.015860e+000 249 198 161
-2.633177e+000 -1.780170e+000 -9.773826e+000 220 132 76
-1.210472e+000 -1.792162e+000 -9.073199e+000 230 191 149
-1.210472e+000 -1.792162e+000 -9.073199e+000 230 191 149
7.475740e-001 -2.590160e+000 -1.200884e+001 190 72 74
3.817113e+000 7.804317e-001 -7.731336e+000 209 189 175
-1.416515e-001 7.850006e-001 -1.017831e+001 232 229 220
3.469063e+000 -9.952998e-001 -8.614132e+000 146 54 55
-7.324242e-001 -6.654405e-001 -9.242695e+000 36 28 25
-3.662541e+000 -7.262498e-001 -8.131028e+000 119 31 37
-2.085382e+000 -8.682442e-001 -8.779601e+000 157 102 74
-2.287012e+000 -1.132391e+000 -8.974197e+000 139 80 48
-4.511608e-002 -1.330726e+000 -9.864893e+000 157 153 150
-3.208625e+000 -1.126553e+000 -8.105485e+000 226 117 73
-1.901496e+000 -1.320982e+000 -8.986818e+000 216 149 113
1.030359e-002 -1.436515e+000 -1.012372e+001 108 95 84
2.061786e-001 -1.567661e+000 -1.032211e+001 151 122 107
1.222276e+000 -1.800892e+000 -1.094784e+001 160 113 80
1.951123e+000 -1.892624e+000 -9.835794e+000 81 41 38
-1.203318e+000 -1.928525e+000 -9.390694e+000 172 152 141
5.560573e-001 -2.162581e+000 -1.157347e+001 248 210 158
7.013997e-001 -2.325083e+000 -1.157630e+001 243 207 156
-4.239756e-001 -2.599926e+000 -1.341541e+001 240 168 115
9.186468e-001 -2.568920e+000 -1.144594e+001 222 177 136
1.393352e+000 -2.861695e+000 -1.147378e+001 227 184 117
1.378275e+000 -2.859228e+000 -1.136532e+001 227 184 117
1.552047e+000 -3.128195e+000 -1.138655e+001 225 186 111
1.457262e+000 -3.186772e+000 -1.126005e+001 231 186 117
2.462485e+000 1.951800e+000 -8.819486e+000 161 153 142
2.462485e+000 1.951800e+000 -8.819486e+000 161 153 142
1.262461e+000 1.702123e+000 -1.015822e+001 182 179 164
3.648509e-001 1.293565e+000 -1.029626e+001 196 189 179
1.842479e+000 -5.603780e-001 -9.092952e+000 171 162 152
2.099523e+000 -3.536215e-001 -9.141903e+000 149 136 91
-2.838458e+000 -8.088672e-001 -7.966264e+000 141 61 36
-1.697396e+000 -7.961591e-001 -8.359470e+000 191 152 110
-1.430606e+000 -1.250099e+000 -8.642041e+000 215 158 114
8.759095e-001 -1.790008e+000 -1.101616e+001 140 48 42
-2.025412e+000 -1.655185e+000 -9.543827e+000 159 66 43
-1.959038e-002 -1.707472e+000 -1.051677e+001 174 166 154
4.899031e-001 -2.029179e+000 -1.135913e+001 148 49 47
3.383088e+000 -2.123734e+000 -8.992225e+000 253 250 247
3.383088e+000 -2.123734e+000 -8.992225e+000 253 250 247
-1.232092e+000 -1.774815e+000 -9.065169e+000 233 197 150
1.003436e+000 -2.657120e+000 -1.147675e+001 214 71 69
1.100950e+000 -3.109139e+000 -1.191339e+001 178 87 85
2.015996e+000 1.949869e+000 -9.261007e+000 232 226 215
1.311774e+000 1.508283e+000 -9.827883e+000 239 236 228
1.511349e-001 1.034553e+000 -1.048104e+001 177 168 159
1.511349e-001 1.034553e+000 -1.048104e+001 177 168 159
1.865131e+000 1.006136e-001 -9.423994e+000 142 132 113
4.183145e+000 -9.032533e-001 -8.098502e+000 172 58 60
-3.217791e+000 -5.082779e-001 -7.940017e+000 198 168 112
-2.533726e+000 -5.924170e-001 -8.037171e+000 74 31 27
-2.291677e+000 -1.283235e+000 -9.109796e+000 111 31 19
-2.252437e+000 -1.304958e+000 -8.504206e+000 172 125 84
3.592822e-001 -1.588277e+000 -1.007692e+001 196 188 183
1.035449e+000 -1.802198e+000 -1.076728e+001 212 169 127
-2.361000e+000 -1.448959e+000 -8.649212e+000 149 53 22
-2.219486e+000 -1.648652e+000 -9.537565e+000 143 43 21
-1.597201e+000 -1.498624e+000 -8.924838e+000 222 169 123
2.201060e+000 -2.125952e+000 -9.890946e+000 220 86 84
9.614018e-001 -2.842141e+000 -1.201872e+001 216 198 154
2.132546e+000 2.049219e+000 -9.269917e+000 188 177 167
4.003615e+000 1.056484e+000 -7.786282e+000 190 71 73
1.206110e+000 1.966581e+000 -1.047464e+001 243 241 232
3.844963e+000 6.573647e-001 -7.643106e+000 233 222 210
1.084389e+000 1.331112e+000 -9.834978e+000 239 236 227
2.590445e+000 8.153438e-001 -8.316078e+000 254 248 188
2.481611e+000 7.994176e-001 -9.019466e+000 233 231 216
-7.827652e-001 2.282411e-001 -9.526462e+000 138 79 62
-1.707274e+000 -6.694054e-001 -8.590603e+000 61 20 21
-3.752802e-001 -8.346481e-001 -9.077674e+000 154 145 136
-2.866476e+000 -1.525379e+000 -8.456199e+000 170 89 63
-2.028843e+000 -1.577775e+000 -9.124136e+000 215 113 69
-1.425882e+000 -1.492988e+000 -8.672528e+000 245 204 154
4.066581e+000 1.482642e+000 -7.748104e+000 207 74 77
4.025368e+000 1.066184e+000 -7.816048e+000 183 64 66
2.565879e+000 7.786476e-001 -8.224804e+000 254 246 183
3.371788e+000 -6.927267e-001 -8.490746e+000 109 44 49
-2.458893e+000 -6.896831e-001 -8.230110e+000 87 34 26
3.611494e+000 -1.093557e+000 -8.869798e+000 90 47 39
-3.721248e+000 -8.408991e-001 -8.223321e+000 244 215 143
-2.000005e+000 -1.084586e+000 -8.694953e+000 128 53 34
-1.960781e+000 -1.472439e+000 -9.344885e+000 90 24 21
-9.756754e-001 -1.835966e+000 -8.917514e+000 185 178 168
3.390029e+000 1.407108e+000 -8.085285e+000 169 152 103
1.163961e+000 1.703406e+000 -1.026964e+001 191 183 170
1.163961e+000 1.703406e+000 -1.026964e+001 191 183 170
2.913637e+000 7.467993e-001 -8.306867e+000 187 172 117
-5.610305e-001 2.070085e-001 -9.492519e+000 206 202 199
3.676268e+000 -1.896243e+000 -8.995317e+000 253 255 252
3.676268e+000 -1.896243e+000 -8.995317e+000 253 255 252
-2.086142e+000 -1.691549e+000 -9.499739e+000 207 99 50
2.573680e+000 1.260802e+000 -8.423345e+000 240 233 224
2.473969e+000 5.608696e-001 -8.892019e+000 156 142 99
-3.849816e-001 -6.459441e-001 -9.129831e+000 69 57 39
2.772485e+000 -2.196261e+000 -9.785618e+000 223 198 144
1.389864e+000 2.155461e+000 -1.061007e+001 242 239 230
1.019375e+000 -9.056499e-001 -8.943380e+000 231 231 223
3.131577e+000 -1.686094e+000 -8.797673e+000 222 217 209
2.895257e+000 -2.253513e+000 -9.702649e+000 226 201 147
2.895025e+000 -2.614287e+000 -9.886098e+000 119 60 42
1.694663e+000 2.285320e+000 -9.648680e+000 242 235 225
3.299147e+000 6.659330e-001 -8.346281e+000 103 84 70
2.921839e+000 6.161985e-001 -8.861400e+000 255 255 199
1.746069e+000 -2.924440e-001 -9.107992e+000 97 87 61
1.744228e+000 -2.894516e-001 -9.113901e+000 97 87 61
1.926538e+000 -2.868903e+000 -9.805305e+000 101 78 46
-7.178571e-001 8.488206e-001 -1.036432e+001 224 221 214
3.831911e+000 2.328876e-001 -7.841074e+000 242 231 223
2.404665e+000 -1.267013e+000 -8.669675e+000 240 236 227
-8.510886e-001 1.733607e+000 -1.267084e+001 225 220 214
2.660146e+000 2.400739e+000 -9.172041e+000 208 201 193
1.109584e+000 3.379079e-001 -9.651137e+000 177 173 162
-3.418960e+000 -5.859202e-001 -8.037319e+000 173 144 94
-3.294870e+000 -5.723964e-001 -8.046199e+000 136 107 71
-3.125669e+000 -4.606591e-001 -8.032239e+000 118 61 35
2.205632e+000 2.628201e-001 -8.864603e+000 155 140 97
-3.447732e+000 -7.383076e-001 -8.089915e+000 199 172 119
-3.274947e+000 -7.743744e-001 -7.960996e+000 125 74 70
-2.566106e+000 -6.190428e-001 -7.956029e+000 104 49 46
-3.041923e-001 -5.946792e-001 -9.374047e+000 90 78 62
-2.664215e-001 -6.119486e-001 -9.324476e+000 136 127 118
1.001728e+000 -3.895413e-001 -9.376939e+000 179 169 133
-9.921421e-002 -1.069339e+000 -9.182961e+000 164 159 153
1.730818e+000 -3.470863e+000 -1.111257e+001 222 163 132
1.825454e+000 -2.719268e+000 -9.887452e+000 129 108 76
-5.925379e-001 5.169791e-001 -9.907392e+000 191 186 178
-3.648681e+000 -5.092146e-001 -8.071177e+000 229 200 130
-2.084093e+000 -6.930794e-001 -8.697878e+000 136 50 24
-2.499376e+000 -1.006865e+000 -8.288619e+000 54 42 45
-2.427156e+000 -1.044793e+000 -8.308865e+000 186 151 122
-6.925392e-001 5.267867e-001 -1.005086e+001 199 195 186
-2.554097e+000 -8.606893e-001 -8.208437e+000 128 91 66
-6.581934e-001 1.732189e+000 -1.241499e+001 213 210 205
-8.079258e-001 -3.547578e-002 -9.402968e+000 100 76 72
-1.338977e+000 -8.580520e-001 -8.217348e+000 146 137 122
-1.426227e+000 3.970257e-001 -1.042453e+001 184 97 76
-2.900320e+000 -1.381597e+000 -8.229953e+000 112 45 28
3.734935e+000 -1.206985e+000 -8.714978e+000 173 104 63
3.110145e+000 -2.549925e+000 -9.445362e+000 136 77 47
-1.370862e+000 1.650985e+000 -1.329000e+001 245 240 235
8.431685e-001 -9.188384e-001 -9.154049e+000 194 190 181
-2.213853e+000 -2.903155e-001 -9.023694e+000 140 53 32
2.523426e+000 7.515957e-001 -8.554575e+000 158 144 98
1.576057e+000 1.893969e+000 -1.003438e+001 195 191 182
2.840894e+000 2.201272e+000 -8.820701e+000 203 199 192
8.007179e-002 8.090380e-001 -1.041873e+001 184 178 173
-9.788117e-001 2.861353e-001 -9.864357e+000 119 76 64
-7.334387e-001 2.316977e-001 -9.608651e+000 136 103 94
-3.539497e+000 -6.282997e-001 -8.100369e+000 202 172 121
3.386598e+000 1.191313e+000 -7.745786e+000 215 196 138
2.303023e+000 5.001269e-001 -8.707201e+000 206 190 140
-2.418600e+000 -8.996752e-001 -8.263251e+000 75 62 62
-5.444948e-001 -7.055692e-001 -9.409067e+000 57 45 32
1.824788e+000 -1.082034e-001 -9.185922e+000 164 156 119
2.068245e+000 -8.051709e-002 -8.950333e+000 195 181 133
2.929803e+000 5.653026e-001 -7.993677e+000 209 194 134
3.096498e+000 6.520676e-001 -7.965316e+000 167 155 134
3.079340e+000 6.210962e-001 -7.961231e+000 127 115 91
-3.375126e+000 -1.314691e+000 -8.266611e+000 71 27 17
-2.005830e+000 -1.198668e+000 -8.933411e+000 188 126 90
1.898537e+000 -3.066644e-001 -9.112310e+000 164 152 114
2.139319e+000 -4.103385e-001 -8.983856e+000 219 215 205
2.254514e+000 -3.666457e-001 -8.871987e+000 174 165 143
1.165058e+000 -3.560499e+000 -1.192108e+001 221 162 126
3.673294e+000 -1.004837e+000 -8.616212e+000 156 86 70
1.316110e+000 -3.352157e+000 -1.127153e+001 222 161 126
4.724845e-002 8.459491e-001 -1.045187e+001 214 211 204
9.203626e-002 9.553681e-001 -1.047812e+001 186 179 169
3.245774e+000 1.955112e+000 -7.957966e+000 207 190 137
3.446375e+000 1.602845e+000 -7.619399e+000 249 242 205
-1.133614e+000 -5.752894e-002 -9.230202e+000 100 40 32
3.853617e+000 1.413504e+000 -7.765665e+000 176 106 98
-2.456848e+000 -7.505729e-001 -8.253662e+000 99 46 33
-7.201062e-001 -6.855015e-001 -9.097832e+000 119 108 102
1.458435e+000 -1.921642e-001 -9.274686e+000 203 193 157
2.518302e+000 4.874093e-003 -8.478291e+000 164 152 102
2.636636e+000 3.815149e-002 -8.506555e+000 169 154 111
-2.772050e+000 -1.379586e+000 -8.318512e+000 105 43 26
-2.009948e+000 -1.475112e+000 -8.945227e+000 164 74 41
2.472425e+000 -1.331536e-001 -8.623165e+000 99 91 67
2.395547e+000 -3.854366e-001 -8.544347e+000 171 161 148
1.156217e+000 -3.475605e+000 -1.183964e+001 252 198 164
1.724785e+000 -3.373010e+000 -1.105795e+001 214 147 105
3.742517e+000 -1.231400e+000 -8.540602e+000 197 119 69
2.696032e+000 -2.738129e+000 -1.010648e+001 150 114 66
-6.202774e-001 1.948800e+000 -1.244237e+001 206 200 194
1.046069e+000 2.005361e+000 -1.141023e+001 216 210 196
3.502601e+000 1.855027e+000 -7.688761e+000 244 223 168
-3.467271e+000 -3.090682e-001 -8.068632e+000 130 105 65
-9.857314e-001 -3.771622e-002 -9.062302e+000 125 68 53
-1.377436e+000 -1.348973e-001 -8.490994e+000 206 106 58
2.499309e+000 7.724077e-001 -8.493262e+000 147 134 91
-1.029221e+000 -3.346896e-001 -8.913602e+000 44 22 22
-1.028607e+000 -5.177343e-001 -9.315585e+000 91 73 65
1.670057e+000 -9.936939e-002 -9.134064e+000 114 103 74
2.882074e+000 4.454191e-001 -8.161535e+000 163 151 102
3.022939e+000 6.442563e-001 -7.966170e+000 163 148 124
-1.475332e+000 -9.685413e-001 -8.290244e+000 68 43 43
-1.475332e+000 -9.685413e-001 -8.290244e+000 68 43 43
1.132151e+000 -7.262640e-001 -8.917700e+000 165 152 143
-6.025991e-001 -1.251974e+000 -8.758414e+000 180 170 160
4.185263e+000 -1.532340e-001 -7.503869e+000 192 177 170
2.043770e+000 -2.200907e+000 -9.777130e+000 158 140 97
2.843663e+000 -3.040430e+000 -9.980376e+000 249 205 179
3.459425e+000 -2.443466e+000 -9.201101e+000 201 123 66
5.698357e-001 1.792301e+000 -1.163800e+001 203 200 193
2.415818e+000 9.139031e-001 -9.148559e+000 202 197 186
2.270378e+000 5.091808e-001 -9.338429e+000 191 174 154
2.506099e+000 7.382610e-001 -8.462740e+000 187 173 122
-3.454243e+000 -9.255098e-001 -8.065287e+000 161 110 106
1.808061e+000 -1.600497e-001 -9.267869e+000 159 151 115
2.056082e+000 -1.982377e-002 -9.092431e+000 238 225 174
-3.216225e+000 -1.139481e+000 -8.092234e+000 223 119 72
-2.687512e+000 -1.460879e+000 -8.396014e+000 154 81 50
-7.437561e-002 -1.149277e+000 -9.222329e+000 181 178 175
1.557263e+000 -2.769822e+000 -1.106220e+001 224 93 89
-1.420966e+000 3.710567e-001 -1.047266e+001 176 97 73
-1.420966e+000 3.710567e-001 -1.047266e+001 176 97 73
-4.827807e-001 6.797175e-001 -1.112066e+001 202 196 185
-3.790390e-001 5.402669e-001 -1.014338e+001 140 132 121
2.204762e-001 5.282843e-001 -9.920002e+000 171 168 163
3.221544e+000 1.477978e+000 -7.963598e+000 219 200 142
-1.139713e+000 -2.922570e-002 -9.010895e+000 144 78 53
-7.216716e-001 -6.997135e-002 -9.532877e+000 113 95 85
-2.157250e+000 -5.061948e-001 -8.736986e+000 126 50 27
1.944267e+000 4.578354e-002 -9.486676e+000 175 169 160
-2.448802e+000 -7.984159e-001 -8.289289e+000 137 96 71
-1.803764e-001 -7.058340e-001 -9.441426e+000 35 27 25
1.528346e+000 -4.508158e-001 -9.287369e+000 85 78 52
-1.442893e+000 -1.740574e+000 -8.979884e+000 59 49 48
3.812055e+000 -1.185324e+000 -8.516647e+000 197 73 77
3.302000e+000 2.130179e+000 -7.991615e+000 132 118 92
-7.607771e-001 1.312162e-002 -9.403123e+000 111 75 58
1.828063e+000 -9.249755e-002 -9.259963e+000 117 108 77
-1.444211e+000 -1.144080e+000 -8.426878e+000 205 155 120
-1.397272e+000 -1.661238e+000 -8.693885e+000 241 148 93
2.357267e-001 -2.847661e+000 -1.205838e+001 181 134 112
-8.075965e-001 5.604592e-001 -1.043510e+001 169 162 146
3.301315e+000 2.126658e+000 -7.989738e+000 134 122 94
3.163970e+000 1.697815e+000 -8.117557e+000 245 226 169
2.336430e+000 8.234136e-001 -9.225912e+000 219 215 207
1.462022e+000 -2.183645e-001 -9.538937e+000 119 111 96
-1.562719e+000 -1.054102e+000 -8.288140e+000 222 191 155
5.183704e-001 -1.517124e+000 -1.001441e+001 177 170 167
7.010462e-001 -3.346388e+000 -1.224742e+001 247 197 165
3.762458e+000 -1.111110e+000 -8.657827e+000 170 97 64
-2.076186e+000 -4.130433e-001 -8.768696e+000 150 70 46
-2.076186e+000 -4.130433e-001 -8.768696e+000 150 70 46
2.129690e+000 4.787789e-001 -9.400548e+000 221 217 207
-1.939941e+000 -1.169606e+000 -8.682571e+000 131 55 37
-5.406597e-001 -9.425438e-001 -8.980444e+000 163 154 148
3.656513e+000 -1.093857e+000 -8.663020e+000 168 121 101
1.868074e+000 -3.256969e+000 -1.119731e+001 126 110 69
2.617285e+000 -2.915452e+000 -9.536730e+000 95 68 69
5.141329e-001 1.719808e+000 -1.076518e+001 160 156 147
-7.288581e-001 1.050978e+000 -1.250108e+001 240 237 233
3.297418e+000 1.770752e+000 -8.215919e+000 255 248 197
2.494293e+000 7.870965e-001 -8.820816e+000 224 218 205
-2.194660e+000 -7.849922e-001 -8.748254e+000 78 23 13
2.060547e+000 -2.305845e+000 -9.731219e+000 247 233 178
3.652130e+000 -1.140511e+000 -8.405319e+000 189 113 65
1.763548e+000 -3.105711e+000 -9.943797e+000 112 96 63
-1.185597e+000 4.059050e-001 -1.017411e+001 238 236 223
2.711608e+000 9.016679e-001 -8.539885e+000 255 250 195
2.711608e+000 9.016679e-001 -8.539885e+000 255 250 195
2.186106e+000 -2.730615e-002 -9.157209e+000 255 250 202
-1.858310e+000 -1.003343e+000 -8.606777e+000 234 195 146
3.061298e+000 -2.595542e+000 -9.623220e+000 126 71 40
1.197770e+000 1.469443e+000 -1.005091e+001 169 162 156
1.197770e+000 1.469443e+000 -1.005091e+001 169 162 156
4.538451e-001 -2.292479e+000 -1.136942e+001 134 94 82
1.006199e+000 -2.294850e+000 -1.122191e+001 172 53 56
4.095587e+000 -2.194162e-001 -7.428057e+000 192 67 71
-3.137914e+000 -6.304845e-001 -8.049721e+000 75 32 31
2.900248e+000 2.839855e-001 -8.403060e+000 149 137 95
-6.919368e-001 -1.237192e+000 -8.800160e+000 185 179 174
2.597362e+000 7.718779e-001 -7.793727e+000 253 252 198
-5.055697e-001 -5.857755e-001 -9.172992e+000 62 50 38
-5.055697e-001 -5.857755e-001 -9.172992e+000 62 50 38
3.344917e+000 6.428301e-001 -8.291461e+000 151 138 105
-8.032606e-001 -2.827575e-001 -8.879006e+000 51 33 30
3.474821e+000 1.603884e+000 -7.898710e+000 254 250 202
-1.489463e+000 -1.091217e+000 -8.336068e+000 192 156 123
-1.867263e+000 -1.960580e+000 -9.849843e+000 60 22 11
-8.104621e-002 -1.071742e-001 -9.337717e+000 157 154 145
-3.674342e+000 -4.876187e-001 -8.144131e+000 123 95 51
3.635984e+000 -1.162045e+000 -8.747209e+000 131 78 57
3.790217e+000 -1.233308e+000 -8.560673e+000 230 184 167
3.721975e+000 -1.186754e+000 -8.688057e+000 179 106 62
3.700074e+000 -1.228857e+000 -8.715907e+000 177 105 56
-1.965804e+000 3.675495e+000 -1.401489e+001 238 230 228
-1.296963e-001 -2.414372e-001 -9.288948e+000 147 138 130
-3.062728e+000 -1.045929e+000 -8.005213e+000 204 103 57
8.047741e-001 -1.780013e+000 -1.103275e+001 163 98 60
-7.738125e-001 4.111150e-002 -9.374306e+000 109 63 54
1.981610e+000 -2.932526e+000 -8.733506e+000 122 105 62
1.043940e+000 -2.171264e+000 -1.118877e+001 144 40 37
-5.137183e-001 2.383694e+000 -1.269416e+001 177 171 159
-4.319555e-001 4.230474e+000 -1.262999e+001 236 226 216
8.681425e-001 -8.348143e-001 -8.946853e+000 231 228 219
-3.466181e+000 -1.133051e+000 -8.234113e+000 135 70 64
-2.735701e-001 4.023155e+000 -1.245945e+001 214 206 195
-7.863173e-001 2.457430e+000 -1.279337e+001 184 177 166
-4.421633e-001 2.184522e+000 -1.258583e+001 229 223 215
-5.505812e-002 3.466074e+000 -1.216374e+001 205 196 187
-5.093508e-002 3.461459e+000 -1.215685e+001 205 196 187
-8.208892e-002 1.775521e+000 -1.139199e+001 187 180 170
-7.159892e-001 2.740447e+000 -1.288139e+001 222 218 213
3.642177e+000 8.659694e-002 -7.867266e+000 213 201 187
3.735972e+000 -9.886967e-001 -8.657366e+000 142 77 53
-2.657632e+000 -1.240567e+000 -8.320634e+000 92 62 53
-2.643752e+000 -1.422945e+000 -8.416504e+000 164 105 71
2.086968e+000 -2.240165e+000 -9.883593e+000 162 140 94
-7.553865e-001 4.109545e-002 -9.478808e+000 138 121 112
3.676120e+000 -1.075409e+000 -8.584710e+000 166 137 131
-6.078651e-001 -4.950223e-001 -9.355943e+000 92 83 64
-3.670273e+000 -5.110436e-001 -8.191455e+000 133 103 52
-3.414745e+000 -8.275195e-001 -8.063795e+000 140 80 75
2.029941e+000 -2.182261e+000 -9.879083e+000 133 116 68
7.205680e-001 -2.646842e+000 -1.224976e+001 137 100 91
2.228854e+000 4.582714e-001 -9.274590e+000 218 208 188
-5.664991e-001 -5.325874e-001 -9.363060e+000 100 89 69
-2.455643e+000 -9.020442e-001 -8.322654e+000 47 27 29
-2.663202e+000 -1.279415e+000 -8.390830e+000 77 56 56
3.064441e+000 -2.407639e+000 -9.468084e+000 177 93 60
8.690205e-001 -2.566941e+000 -1.157008e+001 209 101 83
8.599330e-001 -2.789936e+000 -1.208283e+001 186 105 71
7.117167e-001 1.100061e+000 -9.865899e+000 237 232 226
-6.585750e-001 -4.837914e-001 -9.451639e+000 55 42 27
-4.801555e-001 -4.621044e-001 -9.418523e+000 62 51 32
-3.430910e+000 -6.595389e-001 -8.073446e+000 128 97 51
-1.397113e+000 -1.034232e+000 -8.156374e+000 201 77 77
-1.274715e+000 -1.647699e+000 -8.866500e+000 221 163 120
1.593564e+000 -2.782095e+000 -1.133127e+001 204 108 72
1.601825e+000 -3.257112e+000 -1.140561e+001 253 251 241
2.558293e+000 4.059932e-001 -8.372552e+000 243 227 165
-5.096490e-001 -1.457000e-001 -9.359001e+000 170 163 155
2.367934e-001 -2.067759e-001 -9.430301e+000 155 148 138
2.005697e+000 -3.471432e-001 -9.063896e+000 200 187 135
-3.587065e+000 -7.473676e-001 -8.121950e+000 249 225 164
-1.431580e-001 -1.085253e+000 -9.192104e+000 128 120 109
-1.475195e+000 -1.176622e+000 -8.569860e+000 185 117 82
3.324174e+000 -1.876260e+000 -9.040993e+000 183 143 116
-4.620692e-001 -1.535289e+000 -1.015857e+001 127 114 101
-3.207783e+000 -1.509517e+000 -8.574183e+000 144 50 32
-7.319525e-001 -1.886691e+000 -1.416701e+001 251 207 57
1.591227e+000 -2.949163e+000 -1.142807e+001 227 186 106
3.783758e-001 4.395256e+000 -1.188377e+001 237 223 207
2.377977e+000 6.363203e-001 -8.962842e+000 203 195 184
-8.533393e-001 4.789161e-002 -9.341682e+000 141 80 64
2.049802e+000 -4.465192e-001 -9.032082e+000 228 228 216
2.225256e+000 -4.317513e-001 -8.860897e+000 244 237 227
-1.556415e+000 -1.024103e+000 -8.304512e+000 205 175 136
-1.556415e+000 -1.024103e+000 -8.304512e+000 205 175 136
-3.610410e+000 -9.970863e-001 -8.250736e+000 187 147 98
-4.501953e-001 -1.452505e+000 -1.019641e+001 135 124 113
-2.390663e+000 -1.238359e+000 -8.283382e+000 179 123 78
7.787564e-001 -1.653030e+000 -1.056806e+001 210 171 134
-8.242332e-001 -1.897495e+000 -1.406324e+001 223 137 59
-9.142423e-001 -2.010521e+000 -1.451338e+001 244 174 119
2.809117e+000 1.153788e+000 -8.483963e+000 203 187 135
2.291533e+000 3.119543e-001 -8.949049e+000 213 197 138
4.978916e-001 3.906771e-001 -9.704473e+000 157 153 142
4.124104e+000 -9.876706e-001 -8.084747e+000 146 123 106
3.015337e-001 -3.572962e-001 -9.463090e+000 161 156 146
-1.424221e+000 -7.973943e-001 -8.367907e+000 123 42 44
-2.976394e+000 -8.945042e-001 -7.960316e+000 223 127 74
3.232503e+000 -2.055400e+000 -9.290434e+000 226 182 116
-2.521537e+000 -1.743331e+000 -9.786734e+000 45 23 15
-2.521537e+000 -1.743331e+000 -9.786734e+000 45 23 15
2.436216e-001 4.254962e+000 -1.180342e+001 243 234 224
-4.078714e-001 4.338790e+000 -1.252216e+001 214 80 81
1.846045e+000 1.829401e+000 -9.406945e+000 200 193 184
2.164484e+000 3.003902e-001 -9.204831e+000 205 200 187
1.670475e-001 3.558460e-001 -9.568047e+000 153 145 135
-1.086035e+000 -2.917491e-001 -8.891128e+000 158 82 53
-6.864212e-001 -2.038778e-001 -9.426653e+000 136 126 117
-1.852162e-001 4.240687e+000 -1.231294e+001 242 234 227
2.243908e-001 8.249703e-001 -1.022140e+001 234 233 223
3.298253e+000 -6.792986e-001 -8.296649e+000 106 40 41
1.017555e+000 -2.457460e+000 -1.137853e+001 168 45 49
1.518122e+000 1.482639e+000 -9.385026e+000 238 233 227
4.056512e-001 6.679637e-001 -9.808398e+000 171 164 148
-2.332298e+000 -1.230589e+000 -8.388625e+000 167 113 81
-2.334890e+000 -1.290374e+000 -9.283437e+000 118 35 19
7.192087e-001 -3.007878e+000 -1.225143e+001 213 167 142
1.063939e+000 3.416481e+000 -1.089071e+001 250 244 232
2.899003e+000 2.135142e-001 -8.480249e+000 100 87 68
1.812112e+000 -2.245748e+000 -1.006711e+001 111 88 57
-4.548754e-001 3.594305e+000 -1.211181e+001 243 239 230
-2.675466e-001 2.952381e-001 -9.545693e+000 166 159 151
3.609761e+000 -1.661600e+000 -9.189726e+000 93 48 45
-3.177852e-001 -1.368266e+000 -9.985859e+000 98 85 76
-1.525574e+000 -1.726022e+000 -9.257390e+000 237 197 145
-6.415915e-001 -3.359163e-001 -9.473707e+000 124 110 83
-3.416338e+000 -1.410166e+000 -8.445719e+000 117 68 70
-1.988571e+000 -1.679052e+000 -9.182093e+000 202 86 40
2.613863e+000 -2.022153e+000 -9.883676e+000 175 68 59
3.620516e+000 -1.256488e+000 -8.789380e+000 166 127 112
2.238166e+000 -2.092411e+000 -9.861891e+000 221 84 85
9.004453e-001 -2.730189e+000 -1.210999e+001 124 91 87
2.366287e+000 -2.699100e+000 -8.538926e+000 108 88 55
1.214434e+000 -3.130460e+000 -1.180470e+001 198 103 74
1.417215e+000 -2.981540e+000 -1.150018e+001 198 99 78
-1.172675e-001 -1.407240e-001 -9.292002e+000 165 158 150
2.010590e+000 -9.816153e-001 -9.145207e+000 228 221 211
-3.580795e+000 -7.792131e-001 -8.150350e+000 155 128 72
3.265012e+000 -2.148393e+000 -9.268911e+000 221 136 103
9.060655e-001 -3.029264e+000 -1.212457e+001 204 134 85
-3.469904e+000 -6.025062e-001 -8.060384e+000 138 109 63
-2.647242e+000 -1.390133e+000 -8.421013e+000 198 158 120
6.219212e-001 -2.209458e+000 -1.146958e+001 217 176 126
3.416374e-001 -1.141523e+000 -9.372487e+000 175 172 165
-2.954654e+000 -1.328770e+000 -8.199209e+000 155 75 54
-2.724029e+000 -1.353306e+000 -8.446568e+000 57 38 38
-3.067736e+000 -1.345271e+000 -8.191577e+000 189 82 49
4.153929e+000 -1.602622e-001 -7.434715e+000 135 103 91
1.106740e+000 3.896043e-001 -9.756162e+000 144 137 127
-2.508942e+000 -1.038983e+000 -8.332207e+000 172 146 131
1.839082e+000 -5.633314e-001 -9.136243e+000 164 156 143
3.861720e+000 -9.305854e-001 -8.527544e+000 185 134 117
3.854088e+000 -9.341787e-001 -8.511536e+000 185 134 117
3.803238e+000 -1.185969e+000 -8.611322e+000 197 117 73
-2.450923e+000 -8.524474e-001 -8.294338e+000 76 46 32
1.055693e+000 -2.201157e+000 -4.689947e+000 141 55 50
-2.725416e+000 -1.239401e+000 -8.301498e+000 71 39 28
-2.653449e+000 -1.222091e+000 -8.312482e+000 169 129 96
-3.133340e+000 -1.466816e+000 -8.350804e+000 195 88 46
-2.274922e+000 -1.506084e+000 -9.148986e+000 179 84 46
2.015957e+000 -2.143073e+000 -9.965349e+000 108 89 52
-2.927326e+000 -1.600358e+000 -8.779055e+000 133 60 46
7.023986e-001 -2.612776e+000 -1.219525e+001 110 53 50
8.531428e-001 -2.713498e+000 -1.209278e+001 141 107 113
1.453694e+000 -3.159545e+000 -1.137748e+001 214 161 90
1.754394e+000 -4.031917e-002 -9.270984e+000 113 102 76
3.701805e+000 -1.033033e+000 -8.757164e+000 150 107 96
3.836721e+000 -9.932674e-001 -8.563503e+000 206 160 142
3.835572e+000 -1.071737e+000 -8.570938e+000 172 109 74
-4.145775e-001 -4.442582e-001 -9.324153e+000 61 52 38
-1.935596e+000 -5.552848e-001 -8.712250e+000 146 71 48
-3.195285e+000 -1.416959e+000 -8.246925e+000 208 101 49
-2.433830e+000 -1.438059e+000 -8.545636e+000 157 110 74
4.466839e-001 -1.822401e+000 -1.093384e+001 163 125 100
2.104593e+000 -2.304251e+000 -9.872315e+000 186 170 111
1.691830e+000 -2.834940e+000 -1.120946e+001 187 112 69
1.041226e+000 -2.876609e+000 -1.188759e+001 194 180 169
1.107094e+000 -2.954735e+000 -1.177675e+001 213 163 115
3.957811e+000 -1.030489e+000 -8.331155e+000 221 180 163
-6.983959e-001 -3.108643e-001 -9.511799e+000 87 74 54
-6.983959e-001 -3.108643e-001 -9.511799e+000 87 74 54
3.609074e+000 -1.235720e+000 -8.824239e+000 138 97 85
-4.376985e-001 -4.521165e-001 -9.367399e+000 87 76 58
3.358649e+000 -1.382787e+000 -8.896771e+000 111 72 62
3.443413e+000 -1.723737e+000 -8.967408e+000 129 87 72
-3.315722e+000 -7.913254e-001 -7.975418e+000 103 58 52
-3.306319e+000 -7.479336e-001 -7.987308e+000 129 79 72
3.414718e+000 -1.882368e+000 -9.015086e+000 196 142 87
-2.955279e+000 -1.105952e+000 -7.984283e+000 142 60 37
-3.651850e-002 -1.385665e+000 -9.792760e+000 138 133 127
-3.129930e+000 -1.438911e+000 -8.318902e+000 215 109 69
1.558301e+000 -2.826994e+000 -1.131926e+001 182 93 59
2.709791e+000 -2.987706e+000 -1.013937e+001 253 211 191
8.259569e-001 -2.722439e+000 -1.212094e+001 191 161 160
1.000454e+000 -2.794485e+000 -1.176568e+001 206 172 170
1.669365e+000 -3.088964e+000 -1.122170e+001 203 132 80
3.918137e+000 -1.006677e+000 -8.342785e+000 208 174 164
3.849233e+000 -1.048009e+000 -8.518793e+000 208 176 162
3.815918e+000 -1.129549e+000 -8.589763e+000 182 108 69
3.761783e+000 -1.142412e+000 -8.621510e+000 180 102 55
1.612690e-001 -3.905482e-001 -9.373570e+000 137 128 119
-3.175077e-001 -5.752578e-001 -9.411055e+000 59 47 37
-3.483945e+000 -6.664347e-001 -8.086650e+000 211 185 128
-2.971095e+000 -1.009959e+000 -7.958134e+000 212 116 70
2.052831e+000 -1.869978e+000 -9.871036e+000 198 59 62
1.077496e+000 -1.879876e+000 -1.098897e+001 151 89 63
-3.058924e+000 -1.434375e+000 -8.228931e+000 184 75 45
2.057656e+000 -2.242954e+000 -9.950869e+000 168 143 89
1.624872e+000 -2.625912e+000 -1.074092e+001 220 81 81
1.574998e+000 -2.773139e+000 -1.130388e+001 191 110 57
1.686460e+000 -2.680353e+000 -1.096396e+001 118 40 31
1.686460e+000 -2.680353e+000 -1.096396e+001 118 40 31
9.647025e-001 7.655786e-001 -9.884321e+000 156 152 139
3.868380e+000 -1.162434e+000 -8.427989e+000 209 185 174
-7.944672e-001 -1.230274e-001 -9.543220e+000 74 54 51
1.326561e-001 -4.467674e-001 -9.381740e+000 132 123 114
3.755383e+000 -1.239645e+000 -8.595738e+000 190 118 64
-3.319301e+000 -5.703643e-001 -8.017649e+000 189 164 107
9.045315e-001 -1.132316e+000 -9.177759e+000 221 217 208
-6.396992e-001 -1.310582e+000 -8.868197e+000 107 93 80
1.086166e-001 -1.484557e+000 -1.043610e+001 141 127 115
-1.163545e+000 -1.813355e+000 -9.101336e+000 215 164 124
-1.160997e+000 -1.811886e+000 -9.114523e+000 215 164 124
-6.103651e-001 -1.856048e+000 -1.348545e+001 248 204 74
2.891877e+000 -3.702810e-001 -8.341636e+000 181 169 153
9.484971e-001 1.792771e-002 -9.740145e+000 144 140 131
3.940274e+000 -9.245749e-001 -8.090418e+000 151 44 48
3.866111e+000 -1.098184e+000 -8.531466e+000 187 112 66
4.402377e+000 -1.024814e+000 -8.766961e+000 136 111 97
-1.139157e-001 -3.886468e-001 -9.345871e+000 111 104 96
-7.127159e-001 -9.173346e-001 -8.670017e+000 134 121 112
3.223501e+000 -1.976548e+000 -9.329649e+000 198 126 101
1.305272e+000 -3.002940e+000 -1.152318e+001 223 177 103
2.575377e+000 -3.140526e+000 -1.032243e+001 205 123 63
-4.236678e-001 4.239376e+000 -1.266884e+001 239 229 220
2.479222e+000 8.223370e-002 -8.685018e+000 201 185 126
-2.522703e+000 -8.281858e-001 -8.241623e+000 105 63 47
-2.515328e+000 -8.363387e-001 -8.226443e+000 105 63 47
-2.328301e+000 -1.296549e+000 -8.707846e+000 150 105 74
-3.332800e+000 -1.426891e+000 -8.439510e+000 66 18 14
1.393098e+000 1.681166e+000 -9.747627e+000 218 214 203
-1.698023e+000 3.964663e+000 -1.378653e+001 231 228 225
3.676623e+000 -1.134305e+000 -8.709373e+000 139 79 50
3.748909e+000 -1.109456e+000 -8.641765e+000 161 93 49
2.640247e-001 -1.752905e+000 -1.056323e+001 175 165 153
1.481567e+000 -3.167709e+000 -1.138819e+001 230 185 114
2.237097e+000 5.356982e-001 -9.093411e+000 226 219 203
2.510436e+000 2.686910e-003 -8.762479e+000 255 254 198
-2.985089e-001 -1.011182e-001 -9.356368e+000 175 170 164
-2.484881e-001 -4.593307e-001 -9.629220e+000 118 109 100
1.323708e+000 -1.736127e+000 -1.007895e+001 104 77 56
2.046079e+000 -2.074005e+000 -1.005655e+001 61 22 24
1.464989e+000 -2.993116e+000 -1.141591e+001 183 81 70
-1.468128e+000 4.161502e+000 -1.362557e+001 226 222 219
6.564354e-001 1.005548e+000 -9.860493e+000 177 170 159
2.425851e+000 6.706231e-002 -9.201826e+000 160 147 95
3.568480e-001 8.727011e-002 -9.588571e+000 148 142 129
7.103431e-001 -7.170448e-001 -9.128171e+000 215 215 208
5.680309e-001 -8.352903e-001 -9.176535e+000 175 171 162
-1.281453e+000 -1.719830e+000 -8.915514e+000 240 203 158
3.877764e+000 -8.365320e-001 -8.278364e+000 127 37 43
1.721432e-001 -1.075418e+000 -9.191407e+000 131 122 113
1.998850e+000 -2.331940e+000 -9.935243e+000 253 245 186
3.134740e+000 2.380025e-001 -8.330318e+000 240 231 222
1.626843e+000 1.168336e+000 -9.342390e+000 243 238 232
1.059847e+000 -5.362394e-001 -8.972270e+000 144 131 97
3.202482e+000 -2.218986e-001 -8.195473e+000 246 237 228
3.228185e+000 -1.055853e+000 -8.281935e+000 115 41 45
2.682199e+000 4.654022e-001 -8.293644e+000 196 183 125
2.684208e+000 7.678431e-002 -8.383330e+000 106 93 58
2.553618e+000 -6.221460e-002 -8.495287e+000 110 96 71
3.946834e+000 -8.746182e-001 -8.356416e+000 153 95 67
2.314806e+000 -1.941971e-001 -8.803788e+000 198 182 123
3.064833e+000 -6.789264e-001 -8.431814e+000 133 110 96
3.917012e+000 -9.884490e-001 -8.335150e+000 227 168 131
3.674897e+000 -9.555164e-001 -8.628695e+000 82 36 35
3.704802e+000 -1.067620e+000 -8.829556e+000 142 101 81
3.784276e+000 -1.093450e+000 -8.897818e+000 174 148 129
3.758622e+000 -1.108862e+000 -8.850578e+000 174 148 129
2.107064e+000 -3.567052e-001 -9.126035e+000 191 182 147
3.873280e+000 -1.605622e+000 -8.577319e+000 234 191 146
-1.627530e+000 -8.028607e-001 -8.355178e+000 83 65 54
-8.059888e-001 -7.428110e-001 -8.817550e+000 48 37 30
-4.598590e-001 -5.306657e-001 -9.358861e+000 61 52 32
3.239186e+000 -2.010700e+000 -9.354880e+000 227 172 98
3.575825e+000 -2.105173e+000 -9.092134e+000 233 173 127
3.482627e+000 -2.214006e+000 -9.148263e+000 224 168 116
-3.142825e+000 -4.829275e-001 -7.970973e+000 114 91 85
-2.404502e+000 -5.409582e-001 -8.596762e+000 165 104 86
-3.414490e+000 -6.125938e-001 -7.996692e+000 137 113 75
-3.326677e+000 -7.197419e-001 -7.985489e+000 100 56 49
-2.558801e+000 -9.127746e-001 -8.236445e+000 52 28 25
-2.526954e+000 -9.205268e-001 -8.215293e+000 68 48 45
-2.512368e+000 -8.832512e-001 -8.245465e+000 70 48 44
-2.563708e+000 -9.953828e-001 -8.087378e+000 68 38 30
-2.535194e+000 -1.042867e+000 -8.231981e+000 93 64 55
-2.513294e+000 -1.030156e+000 -8.286291e+000 120 104 105
-2.034907e+000 -8.177714e-001 -8.770607e+000 95 37 26
-4.649742e-001 -1.226524e+000 -9.505137e+000 43 33 23
-3.062540e+000 -1.045299e+000 -7.989814e+000 188 91 50
-2.708804e+000 -1.197309e+000 -8.258831e+000 95 60 30
-2.334628e+000 -1.304286e+000 -8.359833e+000 148 95 86
-2.062446e+000 -1.126564e+000 -8.916326e+000 113 56 34
-1.272981e+000 -1.462885e+000 -8.531141e+000 148 48 33
-1.423999e+000 -1.453696e+000 -8.858250e+000 232 180 130
7.039164e-002 -1.376452e+000 -1.013682e+001 72 60 54
2.089162e+000 -2.120925e+000 -1.014917e+001 109 88 48
-3.411020e+000 -1.057824e+000 -8.127165e+000 148 104 100
-2.758934e+000 -1.258838e+000 -8.271530e+000 77 47 38
-2.690902e+000 -1.250377e+000 -8.289061e+000 72 48 44
-2.602807e+000 -1.321620e+000 -8.264741e+000 52 37 33
4.967515e-001 -1.626038e+000 -1.084971e+001 104 63 42
8.396763e-001 -1.759802e+000 -1.071274e+001 147 92 60
3.084747e+000 -2.774634e+000 -9.587363e+000 140 87 56
2.975206e+000 -2.900537e+000 -9.753814e+000 131 77 48
-3.287703e+000 -1.311701e+000 -8.303634e+000 214 112 64
-2.845480e+000 -1.545783e+000 -8.556502e+000 139 73 52
-2.856707e+000 -1.556032e+000 -8.582066e+000 80 18 7
-2.055968e+000 -1.558549e+000 -9.459258e+000 172 68 26
-2.026335e+000 -1.565588e+000 -9.446851e+000 143 61 33
1.142162e+000 -2.169281e+000 -1.101906e+001 149 86 66
-3.358796e+000 -1.455017e+000 -8.477283e+000 70 24 24
1.459353e-001 -2.879897e+000 -8.799526e+000 155 117 97
1.036042e+000 -2.446172e+000 -1.144864e+001 155 40 40
1.073415e+000 -2.404531e+000 -1.179782e+001 155 40 40
1.708347e+000 -2.788184e+000 -1.114169e+001 177 79 49
1.695546e+000 -2.822877e+000 -1.119751e+001 176 88 48
1.820223e+000 -3.106478e+000 -1.088557e+001 224 157 83
2.365710e+000 -3.180892e+000 -1.047791e+001 255 229 196
2.289683e+000 -3.287159e+000 -1.042028e+001 199 134 93
2.418968e+000 -3.228335e+000 -1.075028e+001 198 134 89
8.380811e-001 -2.678557e+000 -1.206057e+001 172 129 130
8.185380e-001 -2.679336e+000 -1.218226e+001 122 95 94
1.345845e+000 -2.861335e+000 -1.160947e+001 192 131 67
2.226007e+000 -3.372065e+000 -1.047907e+001 208 137 89
1.661275e+000 -3.465680e+000 -1.126595e+001 245 216 186
1.734362e+000 -3.422245e+000 -1.111786e+001 241 197 158
1.734362e+000 -3.422245e+000 -1.111786e+001 241 197 158
1.749232e+000 -3.428403e+000 -1.129960e+001 206 139 90
1.492109e+000 -3.471248e+000 -1.154476e+001 234 166 113
2.907016e+000 4.087421e-001 -8.035173e+000 197 182 119
2.153116e+000 2.151071e-001 -8.824543e+000 151 139 101
2.804689e+000 -4.045841e-001 -8.219797e+000 199 191 178
2.873664e+000 -3.860464e-001 -8.285430e+000 190 179 167
2.928716e+000 -4.001066e-001 -8.329997e+000 181 171 158
2.168556e+000 1.059608e-001 -8.927996e+000 173 162 116
3.907833e+000 -8.790364e-001 -8.476182e+000 187 141 118
3.860765e+000 -9.196060e-001 -8.487860e+000 224 171 146
3.933726e+000 -1.002920e+000 -8.386342e+000 230 185 167
3.920395e+000 -1.033815e+000 -8.377419e+000 195 115 67
3.815580e+000 -9.884751e-001 -8.509068e+000 180 107 60
3.859768e+000 -9.900153e-001 -8.545717e+000 182 102 61
3.937030e+000 -1.038481e+000 -8.356208e+000 188 112 73
3.937030e+000 -1.038481e+000 -8.356208e+000 188 112 73
3.917567e+000 -1.187361e+000 -8.398429e+000 243 197 175
3.722907e+000 -9.712904e-001 -8.743585e+000 153 111 94
3.764078e+000 -9.519506e-001 -8.684382e+000 176 141 116
3.794559e+000 -1.068427e+000 -8.544091e+000 211 173 144
3.802105e+000 -1.217899e+000 -8.586092e+000 238 192 155
3.818216e+000 -1.203907e+000 -8.616993e+000 238 192 155
1.491661e+000 -1.925710e-001 -9.240157e+000 111 101 76
3.932994e+000 -1.546899e+000 -8.436782e+000 120 90 76
-4.403058e-001 -4.480656e-001 -9.375333e+000 103 95 76
-4.391773e-001 -5.528158e-001 -9.216512e+000 63 55 32
3.446807e+000 -1.906190e+000 -9.083381e+000 178 89 52
-2.503872e+000 -5.928164e-001 -7.918034e+000 215 207 204
-2.598652e+000 -6.376163e-001 -7.957575e+000 129 81 77
-1.681979e+000 -8.043214e-001 -8.348155e+000 150 127 104
-1.475644e+000 -8.657374e-001 -8.303684e+000 76 24 23
-1.475644e+000 -8.657374e-001 -8.303684e+000 76 24 23
3.242338e+000 -2.003695e+000 -9.261139e+000 195 108 67
4.353079e+000 -1.938683e+000 -9.995783e+000 130 112 93
-3.336600e+000 -4.179860e-001 -7.938245e+000 136 115 86
-3.232475e+000 -5.810905e-001 -7.927873e+000 102 73 45
-3.079266e+000 -6.625513e-001 -7.920383e+000 95 54 53
-2.544635e+000 -6.692843e-001 -7.975732e+000 79 37 37
3.409080e+000 -2.316568e+000 -9.332072e+000 254 247 224
-3.594031e+000 -6.763331e-001 -8.099258e+000 198 170 106
-3.430358e+000 -6.273271e-001 -8.039641e+000 216 194 142
-3.429479e+000 -6.274977e-001 -8.038402e+000 216 194 142
-3.277763e+000 -7.745838e-001 -7.924523e+000 119 76 66
-3.412568e+000 -7.865151e-001 -8.017459e+000 126 80 71
-3.365125e+000 -8.512995e-001 -7.965067e+000 157 107 103
-2.516504e+000 -9.044374e-001 -8.263875e+000 33 22 25
-1.309563e+000 -1.323198e+000 -8.386311e+000 202 82 76
1.461243e+000 -1.697899e+000 -1.010618e+001 140 123 82
-3.544739e+000 -8.609361e-001 -8.124210e+000 179 148 101
-3.064571e+000 -1.157499e+000 -7.901985e+000 197 107 62
-2.987916e+000 -1.057752e+000 -7.954705e+000 189 96 55
-2.987916e+000 -1.057752e+000 -7.954705e+000 189 96 55
-2.720696e+000 -1.219356e+000 -8.284896e+000 105 72 56
-1.311094e+000 -1.435820e+000 -8.641567e+000 169 82 56
-3.348810e+000 -1.194453e+000 -8.316358e+000 239 143 85
-2.705902e+000 -1.352581e+000 -8.325815e+000 86 66 62
7.867187e-001 -1.693852e+000 -1.087967e+001 153 99 63
-3.330768e+000 -1.456100e+000 -8.349313e+000 56 16 9
-3.196647e+000 -1.526448e+000 -8.327635e+000 213 121 72
-2.773237e+000 -1.546338e+000 -8.602895e+000 122 53 33
-2.654549e+000 -1.526676e+000 -8.696449e+000 176 135 107
-2.547243e+000 -1.458461e+000 -8.955250e+000 148 69 39
-1.336909e+000 -1.720575e+000 -9.199049e+000 228 190 145
-1.096477e+000 -1.904820e+000 -9.211004e+000 129 94 85
2.013521e-001 -1.969979e+000 -1.096902e+001 237 224 213
1.843385e+000 -2.749677e+000 -9.769517e+000 103 86 60
-3.341077e+000 -1.519171e+000 -8.436636e+000 138 87 85
-3.341077e+000 -1.519171e+000 -8.436636e+000 138 87 85
2.367502e+000 -2.964453e+000 -1.054278e+001 166 85 53
-2.307921e+000 -1.766743e+000 -9.980659e+000 175 63 24
7.733593e-001 -2.602783e+000 -1.150432e+001 197 79 74
1.875682e+000 -3.077951e+000 -1.087817e+001 224 151 94
2.471834e+000 -3.167409e+000 -1.050353e+001 208 154 109
2.351353e+000 -3.247102e+000 -1.088783e+001 210 137 82
7.522880e-001 -2.634102e+000 -1.223344e+001 80 54 51
1.312773e+000 -3.116254e+000 -1.157084e+001 211 133 73
1.382960e+000 -3.146797e+000 -1.144423e+001 203 128 66
1.592662e+000 -3.127456e+000 -1.140938e+001 217 157 83
1.642067e+000 -3.170832e+000 -1.120154e+001 202 111 69
1.545078e+000 -3.181600e+000 -1.133189e+001 210 138 80
1.818590e+000 -3.309721e+000 -1.095641e+001 225 142 82
1.930180e+000 -3.343781e+000 -1.101825e+001 231 160 108
1.938094e+000 -3.387690e+000 -1.107316e+001 253 235 213
2.109691e+000 -3.264349e+000 -1.078030e+001 202 126 74
1.701941e+000 -3.416299e+000 -1.120698e+001 254 243 225
4.751457e-001 -3.221288e+000 -1.279700e+001 247 207 180
4.726268e-001 -3.229009e+000 -1.266702e+001 247 207 180
2.754060e+000 1.226545e+000 -8.654841e+000 191 176 125
1.867115e+000 1.276752e+000 -9.195799e+000 206 203 194
3.990446e+000 -8.799152e-001 -8.294744e+000 123 66 45
3.713695e+000 -8.994496e-001 -8.486683e+000 151 60 58
3.866589e+000 -9.700121e-001 -8.527056e+000 218 190 173
3.859447e+000 -1.040485e+000 -8.536920e+000 222 191 175
3.859447e+000 -1.040485e+000 -8.536920e+000 222 191 175
3.884916e+000 -1.161431e+000 -8.381651e+000 196 115 64
1.939346e+000 1.915869e-001 -9.391401e+000 194 185 176
1.972637e+000 -3.972794e-002 -9.161248e+000 176 163 117
2.156465e+000 -2.950053e-001 -9.088500e+000 254 247 193
3.960094e+000 -1.615108e+000 -8.530417e+000 102 74 62
-6.608720e-001 -1.163163e-001 -9.459271e+000 138 124 115
3.646139e+000 -2.034973e+000 -8.914433e+000 185 109 45
4.324581e+000 -1.927331e+000 -9.900182e+000 162 142 118
-2.516242e+000 -6.698835e-001 -7.969163e+000 139 91 91
-1.570235e+000 -8.060139e-001 -8.351695e+000 69 40 43
-5.410907e-001 -5.393636e-001 -9.296923e+000 59 52 33
3.364711e+000 -1.994704e+000 -9.190056e+000 225 161 95
3.359117e+000 -2.034978e+000 -9.177759e+000 179 78 56
3.578420e+000 -2.189482e+000 -9.149458e+000 188 108 53
-3.076423e+000 -6.448485e-001 -7.895198e+000 58 24 25
-1.638776e+000 -9.395298e-001 -8.248564e+000 51 51 59
-1.478683e+000 -9.063437e-001 -8.297359e+000 137 92 76
-3.546470e+000 -6.242020e-001 -8.032668e+000 130 107 67
-3.516420e+000 -7.147721e-001 -8.093571e+000 239 216 165
-3.445863e+000 -7.485931e-001 -8.015701e+000 116 90 51
-3.319703e+000 -7.948297e-001 -7.924502e+000 78 34 30
-2.562483e+000 -8.974471e-001 -8.205190e+000 92 56 45
-2.600617e+000 -9.872636e-001 -8.254166e+000 100 66 51
2.640914e+000 -2.090145e+000 -1.011225e+001 130 69 33
3.305812e+000 -2.457691e+000 -9.395598e+000 253 250 233
-3.534848e+000 -8.064569e-001 -8.125205e+000 251 227 171
-1.305297e+000 -1.393966e+000 -8.636297e+000 141 43 32
-4.913111e-001 -1.215405e+000 -9.869773e+000 62 49 34
-4.509543e-001 -1.209941e+000 -9.933271e+000 74 62 42
2.906308e-001 -1.577054e+000 -1.039612e+001 99 58 44
1.290863e+000 -1.651311e+000 -1.086596e+001 83 51 30
2.071361e+000 -2.268206e+000 -9.904978e+000 175 154 99
-2.769366e+000 -1.349917e+000 -8.197853e+000 90 50 42
-2.736607e+000 -1.347265e+000 -8.302390e+000 27 17 18
-2.706876e+000 -1.370889e+000 -8.380620e+000 32 20 22
2.637275e-001 -1.601030e+000 -1.041097e+001 140 121 107
-3.097560e+000 -1.477584e+000 -8.353545e+000 158 57 24
-3.082094e+000 -1.509835e+000 -8.438705e+000 179 96 62
-2.962168e+000 -1.558181e+000 -8.511991e+000 119 44 22
-2.253945e+000 -1.531166e+000 -9.202201e+000 120 34 14
-2.243234e+000 -1.486838e+000 -9.481456e+000 124 38 18
-1.153760e+000 -1.801957e+000 -9.322171e+000 112 43 28
-1.122184e+000 -1.853555e+000 -9.240999e+000 171 58 54
1.754930e+000 -2.852541e+000 -9.670489e+000 121 104 78
1.631968e+000 -2.800255e+000 -1.117144e+001 158 53 39
1.631735e+000 -2.886654e+000 -1.122077e+001 221 164 85
1.749667e+000 -2.828646e+000 -1.110686e+001 189 110 51
2.432928e-001 -2.546273e+000 -1.128545e+001 157 127 109
6.757731e-001 -2.727178e+000 -1.219121e+001 148 86 45
9.403115e-001 -2.761401e+000 -1.203248e+001 133 111 113
1.670828e+000 -3.082578e+000 -1.119126e+001 189 108 62
1.664635e+000 -3.211449e+000 -1.117095e+001 188 99 48
1.973863e-001 -2.736983e+000 -1.181755e+001 147 118 99
1.256448e+000 -3.104250e+000 -1.164579e+001 215 148 78
1.891865e+000 -3.493893e+000 -1.102503e+001 208 143 101
2.503263e+000 7.315890e-001 -8.289175e+000 200 185 131
2.627823e+000 2.297261e-002 -8.485159e+000 104 91 60
2.141654e+000 1.399845e-001 -8.961663e+000 142 128 85
3.772327e+000 -9.522305e-001 -8.564382e+000 152 83 42
