ply
format ascii 1.0
element face 0
property list uchar int vertex_indices
element vertex 866
property float x
property float y
property float z
property uchar diffuse_red
property uchar diffuse_green
property uchar diffuse_blue
end_header
2.183685e-001 -2.904490e+000 -1.212280e+001 181 134 112
-8.639051e-001 6.533697e-001 -1.045396e+001 169 162 146
3.426477e+000 2.294128e+000 -7.913815e+000 134 122 94
3.282537e+000 1.846219e+000 -8.044918e+000 245 226 169
2.416080e+000 9.292541e-001 -9.195832e+000 219 215 207
1.501906e+000 -1.574908e-001 -9.516114e+000 119 111 96
-1.654385e+000 -1.018677e+000 -8.205600e+000 222 191 155
5.155590e-001 -1.511928e+000 -1.000395e+001 177 170 167
7.019782e-001 -3.424893e+000 -1.231715e+001 247 197 165
3.901767e+000 -1.089261e+000 -8.597591e+000 170 97 64
-2.189062e+000 -3.515165e-001 -8.710350e+000 150 70 46
-2.189062e+000 -3.515165e-001 -8.710350e+000 150 70 46
2.199596e+000 5.691895e-001 -9.375943e+000 221 217 207
-2.047697e+000 -1.140227e+000 -8.616280e+000 131 55 37
-5.877629e-001 -9.069464e-001 -8.928810e+000 163 154 148
3.791272e+000 -1.071080e+000 -8.602866e+000 168 121 101
1.918439e+000 -3.331148e+000 -1.122841e+001 126 110 69
2.702555e+000 -2.972213e+000 -9.504002e+000 95 68 69
5.159442e-001 1.858382e+000 -1.080511e+001 160 156 147
-7.806718e-001 1.153319e+000 -1.260724e+001 240 237 233
3.421587e+000 1.921489e+000 -8.148001e+000 255 248 197
2.581338e+000 8.932152e-001 -8.773457e+000 224 218 205
-2.312968e+000 -7.390985e-001 -8.686835e+000 78 23 13
2.122556e+000 -2.336000e+000 -9.707756e+000 247 233 178
3.787284e+000 -1.118798e+000 -8.334213e+000 189 113 65
1.811440e+000 -3.169997e+000 -9.925516e+000 112 96 63
-1.258357e+000 4.941628e-001 -1.018092e+001 238 236 223
2.808695e+000 1.013879e+000 -8.481185e+000 255 250 195
2.808695e+000 1.013879e+000 -8.481185e+000 255 250 195
2.257969e+000 4.235473e-002 -9.119992e+000 255 250 202
-1.962469e+000 -9.666816e-001 -8.538193e+000 234 195 146
3.165882e+000 -2.639720e+000 -9.595950e+000 126 71 40
1.228794e+000 1.600382e+000 -1.005915e+001 169 162 156
1.228794e+000 1.600382e+000 -1.005915e+001 169 162 156
4.465525e-001 -2.324571e+000 -1.140976e+001 134 94 82
1.021993e+000 -2.327502e+000 -1.125701e+001 172 53 56
4.253509e+000 -1.540037e-001 -7.319838e+000 192 67 71
-3.297282e+000 -5.733767e-001 -7.958941e+000 75 32 31
3.004844e+000 3.695341e-001 -8.336027e+000 149 137 95
-7.459691e-001 -1.213217e+000 -8.739275e+000 185 179 174
2.690570e+000 8.824934e-001 -7.701960e+000 253 252 198
-5.506669e-001 -5.358634e-001 -9.131565e+000 62 50 38
-5.506669e-001 -5.358634e-001 -9.131565e+000 62 50 38
3.469586e+000 7.437750e-001 -8.221930e+000 151 138 105
-8.608736e-001 -2.180448e-001 -8.826578e+000 51 33 30
3.607019e+000 1.748703e+000 -7.816595e+000 254 250 202
-1.578237e+000 -1.058006e+000 -8.255587e+000 192 156 123
-1.972565e+000 -1.970238e+000 -9.830902e+000 60 22 11
-1.069582e-001 -3.829699e-002 -9.305796e+000 157 154 145
-3.855064e+000 -4.235462e-001 -8.057285e+000 123 95 51
3.768787e+000 -1.141717e+000 -8.687735e+000 131 78 57
3.929760e+000 -1.215452e+000 -8.492966e+000 230 184 167
3.858396e+000 -1.167345e+000 -8.625989e+000 179 106 62
3.835380e+000 -1.211210e+000 -8.655199e+000 177 105 56
-2.062177e+000 3.878271e+000 -1.419493e+001 238 230 228
-1.579183e-001 -1.780204e-001 -9.254269e+000 147 138 130
-3.219267e+000 -1.006444e+000 -7.909890e+000 204 103 57
8.131219e-001 -1.791151e+000 -1.106491e+001 163 98 60
-8.289251e-001 1.172915e-001 -9.344450e+000 109 63 54
2.041631e+000 -2.986983e+000 -8.666631e+000 122 105 62
1.061579e+000 -2.199817e+000 -1.122607e+001 144 40 37
-5.537190e-001 2.539897e+000 -1.281513e+001 177 171 159
-4.652086e-001 4.463693e+000 -1.276187e+001 236 226 216
8.822614e-001 -7.970725e-001 -8.895313e+000 231 228 219
-3.639485e+000 -1.097541e+000 -8.148389e+000 135 70 64
-2.994801e-001 4.248224e+000 -1.258289e+001 214 206 195
-8.369662e-001 2.616142e+000 -1.291773e+001 184 177 166
-4.795604e-001 2.333000e+000 -1.270116e+001 229 223 215
-7.342998e-002 3.670178e+000 -1.227226e+001 205 196 187
-6.937611e-002 3.665481e+000 -1.226510e+001 205 196 187
-1.051896e-001 1.913524e+000 -1.145719e+001 187 180 170
-7.636092e-001 2.910838e+000 -1.301278e+001 222 218 213
3.779477e+000 1.654591e-001 -7.776706e+000 213 201 187
3.873373e+000 -9.606164e-001 -8.594978e+000 142 77 53
-2.797060e+000 -1.211609e+000 -8.238563e+000 92 62 53
-2.782956e+000 -1.402295e+000 -8.337986e+000 164 105 71
2.150130e+000 -2.268576e+000 -9.866619e+000 162 140 94
-8.098309e-001 1.166158e-001 -9.452870e+000 138 121 112
3.811072e+000 -1.050745e+000 -8.518418e+000 166 137 131
-6.569810e-001 -4.421343e-001 -9.322300e+000 92 83 64
-3.851039e+000 -4.480668e-001 -8.107120e+000 133 103 52
-3.585698e+000 -7.780983e-001 -7.972313e+000 140 80 75
2.090783e+000 -2.208104e+000 -9.862146e+000 133 116 68
7.229501e-001 -2.698295e+000 -1.232672e+001 137 100 91
2.303174e+000 5.480793e-001 -9.244631e+000 218 208 188
-6.139068e-001 -4.814129e-001 -9.329578e+000 100 89 69
-2.585658e+000 -8.588224e-001 -8.242035e+000 47 27 29
-2.802921e+000 -1.252396e+000 -8.312009e+000 77 56 56
3.169833e+000 -2.443032e+000 -9.433977e+000 177 93 60
8.783423e-001 -2.613070e+000 -1.162115e+001 209 101 83
8.680137e-001 -2.846974e+000 -1.215328e+001 186 105 71
7.215957e-001 1.216630e+000 -9.863475e+000 237 232 226
-7.098347e-001 -4.307625e-001 -9.422202e+000 55 42 27
-5.237296e-001 -4.083002e-001 -9.387799e+000 62 51 32
-3.602272e+000 -6.028319e-001 -7.983421e+000 128 97 51
-1.481811e+000 -9.980056e-001 -8.067769e+000 201 77 77
-1.354968e+000 -1.641242e+000 -8.807365e+000 221 163 120
1.633036e+000 -2.837537e+000 -1.137187e+001 204 108 72
1.640720e+000 -3.332592e+000 -1.144725e+001 253 251 241
2.648081e+000 4.976169e-001 -8.303389e+000 243 227 165
-5.539243e-001 -7.802021e-002 -9.327064e+000 170 163 155
2.244789e-001 -1.432203e-001 -9.401865e+000 155 148 138
2.069430e+000 -2.907924e-001 -9.019838e+000 200 187 135
-3.765116e+000 -6.943518e-001 -8.033771e+000 249 225 164
-1.733219e-001 -1.057818e+000 -9.149161e+000 128 120 109
-1.563332e+000 -1.148174e+000 -8.499139e+000 185 117 82
3.442142e+000 -1.887600e+000 -8.990531e+000 183 143 116
-5.067522e-001 -1.530520e+000 -1.015542e+001 127 114 101
-3.370892e+000 -1.492066e+000 -8.502649e+000 144 50 32
-7.877170e-001 -1.911298e+000 -1.432010e+001 251 207 57
1.630191e+000 -3.011871e+000 -1.147187e+001 227 186 106
3.787743e-001 4.641493e+000 -1.199135e+001 237 223 207
2.459445e+000 7.352137e-001 -8.920681e+000 203 195 184
-9.119891e-001 1.245209e-001 -9.309803e+000 141 80 64
2.115278e+000 -3.944163e-001 -8.985988e+000 228 228 216
2.298533e+000 -3.784944e-001 -8.807587e+000 244 237 227
-1.647648e+000 -9.879668e-001 -8.221819e+000 205 175 136
-1.647648e+000 -9.879668e-001 -8.221819e+000 205 175 136
-3.789913e+000 -9.553377e-001 -8.167155e+000 187 147 98
-4.942178e-001 -1.444382e+000 -1.019509e+001 135 124 113
-2.518659e+000 -1.210031e+000 -8.198403e+000 179 123 78
7.865594e-001 -1.656959e+000 -1.058213e+001 210 171 134
-8.837364e-001 -1.921990e+000 -1.421226e+001 223 137 59
-9.773656e-001 -2.041020e+000 -1.467814e+001 244 174 119
2.911079e+000 1.277528e+000 -8.425972e+000 203 187 135
2.368717e+000 3.969058e-001 -8.903918e+000 213 197 138
4.976953e-001 4.782099e-001 -9.691482e+000 157 153 142
4.279242e+000 -9.573698e-001 -7.998600e+000 146 123 106
2.916719e-001 -3.005268e-001 -9.434974e+000 161 156 146
-1.509389e+000 -7.517901e-001 -8.289292e+000 123 42 44
-3.129200e+000 -8.483972e-001 -7.863544e+000 223 127 74
3.345477e+000 -2.075219e+000 -9.249312e+000 226 182 116
-2.654320e+000 -1.742136e+000 -9.766200e+000 45 23 15
-2.654320e+000 -1.742136e+000 -9.766200e+000 45 23 15
2.383303e-001 4.494928e+000 -1.190462e+001 243 234 224
-4.388517e-001 4.577404e+000 -1.265145e+001 214 80 81
1.906140e+000 1.978852e+000 -9.392289e+000 200 193 184
2.235850e+000 3.837790e-001 -9.170655e+000 205 200 187
1.525805e-001 4.428977e-001 -9.547994e+000 153 145 135
-1.155436e+000 -2.271977e-001 -8.837939e+000 158 82 53
-7.382093e-001 -1.386686e-001 -9.397650e+000 136 126 117
-2.080951e-001 4.475945e+000 -1.243212e+001 242 234 227
2.129383e-001 9.286688e-001 -1.023207e+001 234 233 223
3.418324e+000 -6.356249e-001 -8.219378e+000 106 40 41
1.033556e+000 -2.498627e+000 -1.142284e+001 168 45 49
1.563563e+000 1.617320e+000 -9.365846e+000 238 233 227
4.022930e-001 7.669198e-001 -9.801548e+000 171 164 148
-2.457688e+000 -1.202367e+000 -8.308603e+000 167 113 81
-2.459491e+000 -1.268175e+000 -9.243251e+000 118 35 19
7.210385e-001 -3.074201e+000 -1.232824e+001 213 167 142
1.092077e+000 3.626605e+000 -1.095022e+001 250 244 232
3.002982e+000 2.958830e-001 -8.415710e+000 100 87 68
1.863417e+000 -2.274671e+000 -1.005800e+001 111 88 57
-4.895373e-001 3.804966e+000 -1.221959e+001 243 239 230
-3.002435e-001 3.807031e-001 -9.525176e+000 166 159 151
3.739726e+000 -1.664584e+000 -9.146989e+000 93 48 45
-3.560142e-001 -1.355933e+000 -9.976036e+000 98 85 76
-1.616538e+000 -1.723993e+000 -9.214858e+000 237 197 145
-6.918082e-001 -2.766525e-001 -9.445965e+000 124 110 83
-3.588114e+000 -1.387577e+000 -8.368602e+000 117 68 70
-2.099273e+000 -1.673827e+000 -9.135876e+000 202 86 40
2.699889e+000 -2.041960e+000 -9.868392e+000 175 68 59
3.752375e+000 -1.240432e+000 -8.731138e+000 166 127 112
2.308167e+000 -2.114679e+000 -9.844911e+000 221 84 85
9.103982e-001 -2.784906e+000 -1.218198e+001 124 91 87
2.443254e+000 -2.743183e+000 -8.463050e+000 108 88 55
1.237062e+000 -3.201374e+000 -1.186346e+001 198 103 74
1.448985e+000 -3.045691e+000 -1.154785e+001 198 99 78
-1.445711e-001 -7.307444e-002 -9.257871e+000 165 158 150
2.073482e+000 -9.530009e-001 -9.101745e+000 228 221 211
-3.758519e+000 -7.277463e-001 -8.063119e+000 155 128 72
3.379706e+000 -2.172240e+000 -9.227137e+000 221 136 103
9.157406e-001 -3.096426e+000 -1.219610e+001 204 134 85
-3.642682e+000 -5.432420e-001 -7.969947e+000 138 109 63
-2.786536e+000 -1.368064e+000 -8.342818e+000 198 158 120
6.205062e-001 -2.239274e+000 -1.151518e+001 217 176 126
3.322590e-001 -1.118113e+000 -9.336925e+000 175 172 165
-3.107224e+000 -1.302493e+000 -8.111748e+000 155 75 54
-2.866415e+000 -1.329595e+000 -8.369741e+000 57 38 38
-3.225217e+000 -1.319434e+000 -8.103752e+000 189 82 49
4.313737e+000 -9.045291e-002 -7.325969e+000 135 103 91
1.132433e+000 4.758038e-001 -9.745604e+000 144 137 127
-2.641487e+000 -1.001643e+000 -8.251338e+000 172 146 131
1.895240e+000 -5.163529e-001 -9.094315e+000 164 156 143
4.004696e+000 -8.995197e-001 -8.460136e+000 185 134 117
3.996848e+000 -9.031876e-001 -8.443414e+000 185 134 117
3.943258e+000 -1.166203e+000 -8.546326e+000 197 117 73
-2.580620e+000 -8.069688e-001 -8.212608e+000 76 46 32
1.079570e+000 -2.208208e+000 -4.433212e+000 141 55 50
-2.867957e+000 -1.210236e+000 -8.218213e+000 71 39 28
-2.792720e+000 -1.192310e+000 -8.230063e+000 169 129 96
-3.293721e+000 -1.446740e+000 -8.269690e+000 195 88 46
-2.397469e+000 -1.492775e+000 -9.101737e+000 179 84 46
2.076524e+000 -2.167569e+000 -9.952746e+000 108 89 52
-3.078530e+000 -1.588237e+000 -8.715856e+000 133 60 46
7.042393e-001 -2.662572e+000 -1.227087e+001 110 53 50
8.611443e-001 -2.767375e+000 -1.216425e+001 141 107 113
1.486882e+000 -3.230807e+000 -1.142016e+001 214 161 90
1.807654e+000 2.877728e-002 -9.237676e+000 113 102 76
3.837497e+000 -1.007111e+000 -8.699252e+000 150 107 96
3.978575e+000 -9.649107e-001 -8.497659e+000 206 160 142
3.977245e+000 -1.046836e+000 -8.504970e+000 172 109 74
-4.551470e-001 -3.893129e-001 -9.289802e+000 61 52 38
-2.041994e+000 -4.997533e-001 -8.650261e+000 146 71 48
-3.358398e+000 -1.394144e+000 -8.161579e+000 208 101 49
-2.563830e+000 -1.419048e+000 -8.472535e+000 157 110 74
4.399339e-001 -1.834418e+000 -1.096117e+001 163 125 100
2.168708e+000 -2.335418e+000 -9.855230e+000 186 170 111
1.735662e+000 -2.892404e+000 -1.124602e+001 187 112 69
1.056953e+000 -2.936977e+000 -1.195036e+001 194 180 169
1.125602e+000 -3.018068e+000 -1.183544e+001 213 163 115
4.105150e+000 -1.002889e+000 -8.255169e+000 221 180 163
-7.508191e-001 -2.506062e-001 -9.485988e+000 87 74 54
-7.508191e-001 -2.506062e-001 -9.485988e+000 87 74 54
3.740342e+000 -1.218665e+000 -8.768128e+000 138 97 85
-4.793059e-001 -3.977931e-001 -9.334323e+000 87 76 58
3.479099e+000 -1.372262e+000 -8.842420e+000 111 72 62
3.566821e+000 -1.728322e+000 -8.914641e+000 129 87 72
-3.482745e+000 -7.400564e-001 -7.880503e+000 103 58 52
-3.472839e+000 -6.948529e-001 -7.893142e+000 129 79 72
3.536628e+000 -1.893895e+000 -8.963928e+000 196 142 87
-3.107672e+000 -1.069126e+000 -7.888034e+000 142 60 37
-6.262175e-002 -1.373893e+000 -9.773924e+000 138 133 127
-3.290130e+000 -1.417514e+000 -8.236440e+000 215 109 69
1.596501e+000 -2.884280e+000 -1.136045e+001 182 93 59
2.798199e+000 -3.049638e+000 -1.013231e+001 253 211 191
8.326756e-001 -2.776793e+000 -1.219281e+001 191 161 160
1.014767e+000 -2.850941e+000 -1.182421e+001 206 172 170
1.711883e+000 -3.157105e+000 -1.125823e+001 203 132 80
4.063702e+000 -9.778547e-001 -8.267690e+000 208 174 164
3.991581e+000 -1.022003e+000 -8.450335e+000 208 176 162
3.956634e+000 -1.107225e+000 -8.524232e+000 182 108 69
3.900131e+000 -1.120823e+000 -8.556943e+000 180 102 55
1.455101e-001 -3.344488e-001 -9.341972e+000 137 128 119
-3.541787e-001 -5.266401e-001 -9.379253e+000 59 47 37
-3.657456e+000 -6.099994e-001 -7.997126e+000 211 185 128
-3.123978e+000 -9.688181e-001 -7.861088e+000 212 116 70
2.115260e+000 -1.882495e+000 -9.855110e+000 198 59 62
1.097189e+000 -1.895526e+000 -1.101886e+001 151 89 63
-3.216237e+000 -1.412609e+000 -8.142181e+000 184 75 45
2.119824e+000 -2.271697e+000 -9.937464e+000 168 143 89
1.666936e+000 -2.672996e+000 -1.075911e+001 220 81 81
1.613988e+000 -2.828315e+000 -1.134384e+001 191 110 57
1.730749e+000 -2.730530e+000 -1.099128e+001 118 40 31
1.730749e+000 -2.730530e+000 -1.099128e+001 118 40 31
9.849347e-001 8.675754e-001 -9.881583e+000 156 152 139
4.011501e+000 -1.140790e+000 -8.355510e+000 209 185 174
-8.507252e-001 -5.477011e-002 -9.519368e+000 74 54 51
1.155438e-001 -3.931365e-001 -9.349961e+000 132 123 114
3.893281e+000 -1.221996e+000 -8.529849e+000 190 118 64
-3.485733e+000 -5.097815e-001 -7.925434e+000 189 164 107
9.198357e-001 -1.108690e+000 -9.134263e+000 221 217 208
-6.916207e-001 -1.290737e+000 -8.809770e+000 107 93 80
8.838072e-002 -1.479809e+000 -1.044403e+001 141 127 115
-1.239062e+000 -1.815241e+000 -9.051054e+000 215 164 124
-1.236427e+000 -1.813707e+000 -9.065168e+000 215 164 124
-6.609752e-001 -1.878076e+000 -1.360645e+001 248 204 74
2.994931e+000 -3.127760e-001 -8.267341e+000 181 169 153
9.668899e-001 8.851019e-002 -9.726612e+000 144 140 131
4.087541e+000 -8.913491e-001 -8.004298e+000 151 44 48
4.009006e+000 -1.074422e+000 -8.463329e+000 187 112 66
4.567002e+000 -9.994768e-001 -8.710461e+000 136 111 97
-1.412306e-001 -3.319307e-001 -9.312934e+000 111 104 96
-7.671074e-001 -8.794975e-001 -8.604444e+000 134 121 112
3.336547e+000 -1.993118e+000 -9.291385e+000 198 126 101
1.332292e+000 -3.067838e+000 -1.157193e+001 223 177 103
2.657568e+000 -3.209361e+000 -1.032266e+001 205 123 63
-4.549750e-001 4.471052e+000 -1.280064e+001 239 229 220
2.564657e+000 1.585422e-001 -8.628135e+000 201 185 126
-2.655169e+000 -7.816777e-001 -8.156863e+000 105 63 47
-2.647685e+000 -7.899514e-001 -8.141316e+000 105 63 47
-2.453212e+000 -1.272300e+000 -8.642316e+000 150 105 74
-3.501514e+000 -1.405036e+000 -8.362320e+000 66 18 14
1.433264e+000 1.822830e+000 -9.745825e+000 218 214 203
-1.781195e+000 4.178131e+000 -1.395591e+001 231 228 225
3.811173e+000 -1.112465e+000 -8.648885e+000 139 79 50
3.886689e+000 -1.086120e+000 -8.578992e+000 161 93 49
2.500560e-001 -1.760663e+000 -1.057492e+001 175 165 153
1.516232e+000 -3.239355e+000 -1.143143e+001 230 185 114
2.312224e+000 6.299414e-001 -9.056572e+000 226 219 203
2.596934e+000 7.497855e-002 -8.708220e+000 255 254 198
-3.333872e-001 -3.171044e-002 -9.325334e+000 175 170 164
-2.819993e-001 -4.067726e-001 -9.607727e+000 118 109 100
1.355036e+000 -1.742622e+000 -1.007197e+001 104 77 56
2.107799e+000 -2.095880e+000 -1.004814e+001 61 22 24
1.498923e+000 -3.057536e+000 -1.146044e+001 183 81 70
-1.542014e+000 4.383993e+000 -1.379088e+001 226 222 219
6.641088e-001 1.118900e+000 -9.859038e+000 177 170 159
2.508105e+000 1.401817e-001 -9.167046e+000 160 147 95
3.501993e-001 1.625947e-001 -9.568815e+000 148 142 129
7.177420e-001 -6.749506e-001 -9.084024e+000 215 215 208
5.691220e-001 -7.981783e-001 -9.134316e+000 175 171 162
-1.361916e+000 -1.716783e+000 -8.857084e+000 240 203 158
4.022256e+000 -8.003080e-001 -8.200675e+000 127 37 43
1.557403e-001 -1.048113e+000 -9.148442e+000 131 122 113
2.058683e+000 -2.364476e+000 -9.920618e+000 253 245 186
3.249142e+000 3.219830e-001 -8.260002e+000 240 231 222
1.676569e+000 1.289861e+000 -9.320222e+000 243 238 232
1.082743e+000 -4.861619e-001 -8.922554e+000 144 131 97
3.319325e+000 -1.575617e-001 -8.116363e+000 246 237 228
3.344886e+000 -1.028365e+000 -8.202139e+000 115 41 45
2.777761e+000 5.606582e-001 -8.223157e+000 196 183 125
2.779275e+000 1.546470e-001 -8.314541e+000 106 93 58
2.642700e+000 9.209261e-003 -8.430433e+000 110 96 71
4.093778e+000 -8.403295e-001 -8.282314e+000 153 95 67
2.392829e+000 -1.298044e-001 -8.751159e+000 198 182 123
3.175282e+000 -6.348623e-001 -8.361548e+000 133 110 96
4.062726e+000 -9.589079e-001 -8.259626e+000 227 168 131
3.809929e+000 -9.255974e-001 -8.565579e+000 82 36 35
3.840409e+000 -1.043540e+000 -8.774448e+000 142 101 81
3.922701e+000 -1.071106e+000 -8.845029e+000 174 148 129
3.896421e+000 -1.086620e+000 -8.796542e+000 174 148 129
2.175331e+000 -3.007375e-001 -9.086003e+000 191 182 147
4.016006e+000 -1.603769e+000 -8.509463e+000 234 191 146
-1.721529e+000 -7.568442e-001 -8.276714e+000 83 65 54
-8.640360e-001 -6.974654e-001 -8.760375e+000 48 37 30
-5.024569e-001 -4.792212e-001 -9.326247e+000 61 52 32
3.353628e+000 -2.028478e+000 -9.319211e+000 227 172 98
3.704682e+000 -2.126492e+000 -9.044671e+000 233 173 127
3.607500e+000 -2.240056e+000 -9.103094e+000 224 168 116
-3.301286e+000 -4.190242e-001 -7.876375e+000 114 91 85
-2.530824e+000 -4.837367e-001 -8.529200e+000 165 104 86
-3.584694e+000 -5.539244e-001 -7.902694e+000 137 113 75
-3.493397e+000 -6.659349e-001 -7.890167e+000 100 56 49
-2.693233e+000 -8.696938e-001 -8.151380e+000 52 28 25
-2.660104e+000 -8.776386e-001 -8.129497e+000 68 48 45
-2.644715e+000 -8.389306e-001 -8.161126e+000 70 48 44
-2.698706e+000 -9.552311e-001 -7.995345e+000 68 38 30
-2.669060e+000 -1.005214e+000 -8.146668e+000 93 64 55
-2.646102e+000 -9.922977e-001 -8.203218e+000 120 104 105
-2.146032e+000 -7.736549e-001 -8.709939e+000 95 37 26
-5.090920e-001 -1.205756e+000 -9.475363e+000 43 33 23
-3.219042e+000 -1.006046e+000 -7.893130e+000 188 91 50
-2.850359e+000 -1.166305e+000 -8.173674e+000 95 60 30
-2.460369e+000 -1.278899e+000 -8.279073e+000 148 95 86
-2.175265e+000 -1.096438e+000 -8.860390e+000 113 56 34
-1.352965e+000 -1.446865e+000 -8.458003e+000 148 48 33
-1.510267e+000 -1.438379e+000 -8.799309e+000 232 180 130
4.884399e-002 -1.365735e+000 -1.013307e+001 72 60 54
2.152896e+000 -2.144923e+000 -1.014584e+001 109 88 48
-3.582250e+000 -1.018800e+000 -8.037130e+000 148 104 100
-2.902758e+000 -1.230480e+000 -8.186620e+000 77 47 38
-2.831978e+000 -1.221687e+000 -8.205346e+000 72 48 44
-2.740236e+000 -1.296091e+000 -8.179679e+000 52 37 33
4.924867e-001 -1.629603e+000 -1.087416e+001 104 63 42
8.497836e-001 -1.768974e+000 -1.073159e+001 147 92 60
3.191176e+000 -2.825990e+000 -9.558870e+000 140 87 56
3.076320e+000 -2.957785e+000 -9.731571e+000 131 77 48
-3.453880e+000 -1.284882e+000 -8.219581e+000 214 112 64
-2.993431e+000 -1.530714e+000 -8.483310e+000 139 73 52
-3.005078e+000 -1.541528e+000 -8.509827e+000 80 18 7
-2.168980e+000 -1.549109e+000 -9.425341e+000 172 68 26
-2.138119e+000 -1.556449e+000 -9.412401e+000 143 61 33
1.164154e+000 -2.197283e+000 -1.104954e+001 149 86 66
-3.528006e+000 -1.434963e+000 -8.400174e+000 70 24 24
1.255792e-001 -2.929336e+000 -8.735679e+000 155 117 97
1.052781e+000 -2.487125e+000 -1.149571e+001 155 40 40
1.091285e+000 -2.445027e+000 -1.185821e+001 155 40 40
1.753161e+000 -2.843964e+000 -1.117472e+001 177 79 49
1.739694e+000 -2.879894e+000 -1.123349e+001 176 88 48
1.869922e+000 -3.174560e+000 -1.090945e+001 224 157 83
2.439203e+000 -3.251631e+000 -1.048525e+001 255 229 196
2.359969e+000 -3.362169e+000 -1.042508e+001 199 134 93
2.493843e+000 -3.301989e+000 -1.076788e+001 198 134 89
8.455624e-001 -2.730828e+000 -1.213112e+001 172 129 130
8.250332e-001 -2.732084e+000 -1.225662e+001 122 95 94
1.374683e+000 -2.920660e+000 -1.166183e+001 192 131 67
2.293328e+000 -3.450793e+000 -1.048596e+001 208 137 89
1.702994e+000 -3.549808e+000 -1.130356e+001 245 216 186
1.779523e+000 -3.504238e+000 -1.114996e+001 241 197 158
1.779523e+000 -3.504238e+000 -1.114996e+001 241 197 158
1.794618e+000 -3.511176e+000 -1.133851e+001 206 139 90
1.526227e+000 -3.556116e+000 -1.159301e+001 234 166 113
3.012749e+000 5.027256e-001 -7.953653e+000 197 182 119
2.224724e+000 2.974931e-001 -8.775055e+000 151 139 101
2.904687e+000 -3.471696e-001 -8.141260e+000 199 191 178
2.976540e+000 -3.282111e-001 -8.210026e+000 190 179 167
3.033829e+000 -3.430577e-001 -8.256711e+000 181 171 158
2.240501e+000 1.830275e-001 -8.882331e+000 173 162 116
4.053202e+000 -8.450870e-001 -8.407897e+000 187 141 118
4.003935e+000 -8.874081e-001 -8.419696e+000 224 171 146
4.080094e+000 -9.741127e-001 -8.313277e+000 230 185 167
4.066198e+000 -1.006298e+000 -8.303773e+000 195 115 67
3.956753e+000 -9.595714e-001 -8.440959e+000 180 107 60
4.002732e+000 -9.613601e-001 -8.479347e+000 182 102 61
4.083500e+000 -1.011202e+000 -8.281446e+000 188 112 73
4.083500e+000 -1.011202e+000 -8.281446e+000 188 112 73
4.062836e+000 -1.166771e+000 -8.324544e+000 243 197 175
3.859845e+000 -9.423372e-001 -8.686057e+000 153 111 94
3.902976e+000 -9.218733e-001 -8.624607e+000 176 141 116
3.934658e+000 -1.042940e+000 -8.477324e+000 211 173 144
3.942200e+000 -1.198907e+000 -8.520660e+000 238 192 155
3.959017e+000 -1.184734e+000 -8.552650e+000 238 192 155
1.533640e+000 -1.289631e-001 -9.205689e+000 111 101 76
4.078419e+000 -1.542061e+000 -8.362934e+000 120 90 76
-4.817998e-001 -3.935138e-001 -9.343119e+000 103 95 76
-4.809422e-001 -5.016591e-001 -9.177776e+000 63 55 32
3.569972e+000 -1.919109e+000 -9.034883e+000 178 89 52
-2.635483e+000 -5.345457e-001 -7.820381e+000 215 207 204
-2.734417e+000 -5.812667e-001 -7.861543e+000 129 81 77
-1.778346e+000 -7.582474e-001 -8.269352e+000 150 127 104
-1.563253e+000 -8.224469e-001 -8.222787e+000 76 24 23
-1.563253e+000 -8.224469e-001 -8.222787e+000 76 24 23
3.356594e+000 -2.021130e+000 -9.220293e+000 195 108 67
4.508675e+000 -1.958345e+000 -9.982360e+000 130 112 93
-3.503432e+000 -3.504470e-001 -7.843260e+000 136 115 86
-3.394986e+000 -5.211566e-001 -7.830755e+000 102 73 45
-3.235604e+000 -6.063075e-001 -7.822610e+000 95 54 53
-2.678140e+000 -6.144875e-001 -7.880341e+000 79 37 37
3.530336e+000 -2.347624e+000 -9.294441e+000 254 247 224
-3.771971e+000 -6.203412e-001 -8.009951e+000 198 170 106
-3.601462e+000 -5.692078e-001 -7.947963e+000 216 194 142
-3.600520e+000 -5.693873e-001 -7.946625e+000 216 194 142
-3.442754e+000 -7.228847e-001 -7.826388e+000 119 76 66
-3.583120e+000 -7.354727e-001 -7.923471e+000 126 80 71
-3.533945e+000 -8.029248e-001 -7.868411e+000 157 107 103
-2.649095e+000 -8.610552e-001 -8.180370e+000 33 22 25
-1.390926e+000 -1.300436e+000 -8.307286e+000 202 82 76
1.498647e+000 -1.702837e+000 -1.010149e+001 140 123 82
-3.720627e+000 -8.135301e-001 -8.034171e+000 179 148 101
-3.221749e+000 -1.122592e+000 -7.801235e+000 197 107 62
-3.141459e+000 -1.018900e+000 -7.856686e+000 189 96 55
-3.141459e+000 -1.018900e+000 -7.856686e+000 189 96 55
-2.862847e+000 -1.189952e+000 -8.199716e+000 105 72 56
-1.392458e+000 -1.419342e+000 -8.572410e+000 169 82 56
-3.517407e+000 -1.162302e+000 -8.233888e+000 239 143 85
-2.847659e+000 -1.328574e+000 -8.243003e+000 86 66 62
7.947847e-001 -1.700436e+000 -1.090713e+001 153 99 63
-3.499270e+000 -1.435382e+000 -8.267260e+000 56 16 9
-3.359796e+000 -1.508904e+000 -8.244503e+000 213 121 72
-2.918036e+000 -1.531620e+000 -8.531739e+000 122 53 33
-2.794020e+000 -1.511777e+000 -8.629280e+000 176 135 107
-2.681569e+000 -1.441861e+000 -8.899629e+000 148 69 39
-1.419766e+000 -1.718263e+000 -9.154160e+000 228 190 145
-1.169284e+000 -1.911068e+000 -9.165697e+000 129 94 85
1.841744e-001 -1.987719e+000 -1.099841e+001 237 224 213
1.896748e+000 -2.798939e+000 -9.749321e+000 103 86 60
-3.510054e+000 -1.501497e+000 -8.358212e+000 138 87 85
-3.510054e+000 -1.501497e+000 -8.358212e+000 138 87 85
2.441179e+000 -3.026190e+000 -1.055320e+001 166 85 53
-2.431416e+000 -1.767766e+000 -9.967874e+000 175 63 24
7.787378e-001 -2.650034e+000 -1.155296e+001 197 79 74
1.927766e+000 -3.144883e+000 -1.090177e+001 224 151 94
2.549681e+000 -3.237794e+000 -1.051167e+001 208 154 109
2.423005e+000 -3.321881e+000 -1.091067e+001 210 137 82
7.560297e-001 -2.685035e+000 -1.231009e+001 80 54 51
1.339906e+000 -3.186061e+000 -1.162109e+001 211 133 73
1.413198e+000 -3.217609e+000 -1.148966e+001 203 128 66
1.631748e+000 -3.197676e+000 -1.145338e+001 217 157 83
1.683756e+000 -3.242437e+000 -1.123718e+001 202 111 69
1.582273e+000 -3.253854e+000 -1.137250e+001 210 138 80
1.867829e+000 -3.386607e+000 -1.098273e+001 225 142 82
1.983881e+000 -3.422448e+000 -1.104660e+001 231 160 108
1.991934e+000 -3.468376e+000 -1.110346e+001 253 235 213
2.171572e+000 -3.339210e+000 -1.079947e+001 202 126 74
1.745572e+000 -3.498239e+000 -1.124254e+001 254 243 225
4.661260e-001 -3.297591e+000 -1.289278e+001 247 207 180
4.636136e-001 -3.305193e+000 -1.275911e+001 247 207 180
2.853007e+000 1.352758e+000 -8.604869e+000 191 176 125
1.927492e+000 1.403598e+000 -9.168585e+000 206 203 194
4.139522e+000 -8.453844e-001 -8.218522e+000 123 66 45
3.850712e+000 -8.665198e-001 -8.417737e+000 151 60 58
4.010009e+000 -9.402194e-001 -8.460372e+000 218 190 173
4.002385e+000 -1.013864e+000 -8.470126e+000 222 191 175
4.002385e+000 -1.013864e+000 -8.470126e+000 222 191 175
4.028802e+000 -1.139546e+000 -8.307175e+000 196 115 64
2.000763e+000 2.700684e-001 -9.365387e+000 194 185 176
2.035576e+000 3.009372e-002 -9.124533e+000 176 163 117
2.227006e+000 -2.362425e-001 -9.047263e+000 254 247 193
4.106251e+000 -1.613680e+000 -8.460229e+000 102 74 62
-7.110650e-001 -4.758745e-002 -9.432304e+000 138 124 115
3.778304e+000 -2.052722e+000 -8.859381e+000 185 109 45
4.479517e+000 -1.946037e+000 -9.883218e+000 162 142 118
-2.648729e+000 -6.148675e-001 -7.873976e+000 139 91 91
-1.661800e+000 -7.601706e-001 -8.273181e+000 69 40 43
-5.872014e-001 -4.878630e-001 -9.261589e+000 59 52 33
3.484662e+000 -2.011412e+000 -9.147060e+000 225 161 95
3.478341e+000 -2.053605e+000 -9.132983e+000 179 78 56
3.706862e+000 -2.214788e+000 -9.103561e+000 188 108 53
-3.232606e+000 -5.877598e-001 -7.796338e+000 58 24 25
-1.733687e+000 -8.989335e-001 -8.164839e+000 51 51 59
-1.566278e+000 -8.653750e-001 -8.214661e+000 137 92 76
-3.722140e+000 -5.659752e-001 -7.940226e+000 130 107 67
-3.691256e+000 -6.606217e-001 -8.003709e+000 239 216 165
-3.617651e+000 -6.959001e-001 -7.921719e+000 116 90 51
-3.486480e+000 -7.439660e-001 -7.826210e+000 78 34 30
-2.697061e+000 -8.534877e-001 -8.118981e+000 92 56 45
-2.736973e+000 -9.473650e-001 -8.169654e+000 100 66 51
2.727709e+000 -2.113781e+000 -1.010628e+001 130 69 33
3.422382e+000 -2.494970e+000 -9.360049e+000 253 250 233
-3.710637e+000 -7.563840e-001 -8.036218e+000 251 227 171
-1.386311e+000 -1.375680e+000 -8.567024e+000 141 43 32
-5.364900e-001 -1.195717e+000 -9.855299e+000 62 49 34
-4.943929e-001 -1.190373e+000 -9.921459e+000 74 62 42
2.780019e-001 -1.576306e+000 -1.040243e+001 99 58 44
1.319981e+000 -1.657245e+000 -1.089163e+001 83 51 30
2.134629e+000 -2.297607e+000 -9.891029e+000 175 154 99
-2.914058e+000 -1.325069e+000 -8.109597e+000 90 50 42
-2.879775e+000 -1.322753e+000 -8.218876e+000 27 17 18
-2.848906e+000 -1.348164e+000 -8.299331e+000 32 20 22
2.499085e-001 -1.601318e+000 -1.041778e+001 140 121 107
-3.256213e+000 -1.458400e+000 -8.271282e+000 158 57 24
-3.240085e+000 -1.492371e+000 -8.360184e+000 179 96 62
-3.115169e+000 -1.543258e+000 -8.436734e+000 119 44 22
-2.375655e+000 -1.519169e+000 -9.157257e+000 120 34 14
-2.363896e+000 -1.474215e+000 -9.448195e+000 124 38 18
-1.228801e+000 -1.803991e+000 -9.282274e+000 112 43 28
-1.195980e+000 -1.857654e+000 -9.197171e+000 171 58 54
1.804568e+000 -2.905800e+000 -9.646055e+000 121 104 78
1.673607e+000 -2.856013e+000 -1.120721e+001 158 53 39
1.673243e+000 -2.946431e+000 -1.125734e+001 221 164 85
1.796239e+000 -2.885689e+000 -1.113926e+001 189 110 51
2.266466e-001 -2.589555e+000 -1.132527e+001 157 127 109
6.763603e-001 -2.781578e+000 -1.226697e+001 148 86 45
9.518814e-001 -2.817247e+000 -1.210113e+001 133 111 113
1.713745e+000 -3.150452e+000 -1.122657e+001 189 108 62
1.707347e+000 -3.284702e+000 -1.120539e+001 188 99 48
1.782595e-001 -2.789898e+000 -1.187768e+001 147 118 99
1.281203e+000 -3.173722e+000 -1.169889e+001 215 148 78
1.943700e+000 -3.578874e+000 -1.105317e+001 208 143 101
2.591616e+000 8.390443e-001 -8.220304e+000 200 185 131
2.720157e+000 9.796735e-002 -8.420281e+000 104 91 60
2.212436e+000 2.183992e-001 -8.917624e+000 142 128 85
3.911552e+000 -9.216707e-001 -8.499230e+000 152 83 42
4.007196e+000 -1.106847e+000 -8.323311e+000 191 111 54
4.011539e+000 -1.105106e+000 -8.325730e+000 191 111 54
4.068123e+000 -1.069128e+000 -8.302701e+000 200 110 47
1.353555e+000 -1.095214e-001 -9.399819e+000 198 199 186
1.620490e+000 -1.490880e-001 -9.168534e+000 144 134 99
1.582805e+000 -9.353378e-002 -9.375954e+000 145 134 100
1.205896e+000 -6.914889e-001 -8.814214e+000 117 108 77
-5.580427e-001 -9.154482e-002 -9.266263e+000 167 160 155
-1.674994e+000 -8.176115e-001 -8.195217e+000 152 123 103
-3.163281e-001 -6.984657e-001 -9.148725e+000 57 48 33
3.340828e+000 -1.957758e+000 -9.433857e+000 203 134 81
3.478964e+000 -2.008752e+000 -9.151559e+000 223 165 94
-1.732134e+000 -8.961299e-001 -8.170627e+000 50 51 58
-3.712509e+000 -5.080864e-001 -7.973427e+000 44 30 24
-2.394033e+000 -7.983099e-001 -8.750135e+000 73 15 14
-6.046312e-001 -1.249079e+000 -8.908294e+000 122 106 90
-2.625481e+000 -1.110557e+000 -8.183402e+000 167 123 84
2.206228e+000 -2.082295e+000 -1.007224e+001 190 58 59
2.448807e+000 -2.784032e+000 -8.599194e+000 84 57 38
3.258240e+000 -2.806298e+000 -9.419413e+000 99 51 34
-3.571648e+000 -1.135020e+000 -8.030234e+000 176 124 119
2.746406e-001 -1.662234e+000 -1.013357e+001 102 59 43
3.248811e+000 -2.845353e+000 -9.589162e+000 99 60 38
-3.072740e+000 -1.517199e+000 -8.300860e+000 120 46 24
-2.878118e+000 -1.490951e+000 -8.359572e+000 137 70 51
2.842839e+000 -2.987132e+000 -1.016675e+001 175 105 56
-3.402914e+000 -1.577062e+000 -8.519857e+000 198 120 58
2.473542e+000 -3.146847e+000 -1.042522e+001 211 140 87
2.544483e+000 -3.164757e+000 -1.051589e+001 206 130 78
2.690442e+000 -3.062160e+000 -1.024695e+001 199 123 65
-9.880206e-001 -1.371061e+000 -1.382875e+001 233 84 96
7.033524e-001 -2.462311e+000 -1.173056e+001 140 52 41
7.715364e-001 -2.737037e+000 -1.226097e+001 164 143 145
1.594985e+000 -3.285655e+000 -1.140139e+001 161 68 48
2.089880e+000 -3.493663e+000 -1.089384e+001 206 135 75
-5.636179e-001 -2.459348e+000 -1.378107e+001 208 130 64
1.364201e+000 -3.233282e+000 -1.159083e+001 212 131 71
1.518613e+000 -3.336131e+000 -1.154051e+001 202 113 50
1.656074e+000 -3.572147e+000 -1.128204e+001 210 123 69
1.788369e+000 -3.520244e+000 -1.096373e+001 212 132 73
1.974394e+000 -3.510917e+000 -1.107451e+001 208 133 66
1.974394e+000 -3.510917e+000 -1.107451e+001 208 133 66
2.010777e+000 -3.556345e+000 -1.106682e+001 215 144 92
1.734200e+000 2.071572e+000 -9.602596e+000 249 243 231
2.273812e+000 2.726359e-001 -8.707973e+000 190 177 127
2.167122e+000 1.669139e-001 -9.221172e+000 210 199 151
2.325757e+000 -3.353871e-001 -8.947477e+000 244 241 231
3.794825e+000 -9.476991e-001 -8.571689e+000 72 31 26
-8.597310e-001 3.317940e+000 -1.337028e+001 222 220 208
-9.685352e-001 3.358424e+000 -1.346134e+001 224 220 209
-9.685352e-001 3.358424e+000 -1.346134e+001 224 220 209
2.045346e+000 -2.918137e-001 -9.162737e+000 148 134 96
2.157172e+000 -2.746884e-001 -9.147362e+000 181 167 113
4.137633e+000 -1.549315e+000 -8.637337e+000 112 63 36
4.230542e+000 -1.557797e+000 -8.606119e+000 125 107 87
-7.466619e-001 3.935228e-001 -9.620829e+000 166 153 147
-7.025155e-001 2.920054e-001 -9.541690e+000 199 196 191
4.381154e+000 -1.795621e+000 -9.300387e+000 122 99 68
-1.326918e+000 -1.759304e-001 -8.732344e+000 97 37 30
3.566846e+000 -1.924609e+000 -9.126792e+000 224 174 99
-2.647955e+000 -5.475864e-001 -7.870300e+000 71 40 43
-2.634473e+000 -5.639489e-001 -7.839279e+000 71 40 43
-1.775634e+000 -4.051449e-001 -8.557123e+000 161 86 55
-9.127725e-001 -8.931010e-001 -8.537329e+000 118 110 99
-8.896217e-002 -8.821217e-001 -9.128670e+000 113 102 94
3.436231e+000 -2.019530e+000 -9.189896e+000 179 83 63
3.500815e+000 -1.997493e+000 -9.080813e+000 180 75 62
3.750914e+000 -2.101980e+000 -9.048544e+000 250 243 224
-2.581961e+000 -7.475048e-001 -8.225714e+000 114 77 64
-1.846224e+000 -9.022334e-001 -8.119588e+000 212 179 126
-7.005260e-001 -1.212621e+000 -8.682572e+000 112 102 92
-1.639696e-001 -1.055888e+000 -9.142724e+000 104 95 88
2.144304e-001 -1.079247e+000 -9.279343e+000 114 105 96
3.267594e+000 -2.084111e+000 -9.343754e+000 202 130 76
3.352448e+000 -2.223789e+000 -9.287091e+000 194 85 69
3.312314e+000 -2.264731e+000 -9.326846e+000 234 176 94
-3.887453e+000 -5.321861e-001 -8.026554e+000 197 170 103
-3.885183e+000 -5.366986e-001 -8.017640e+000 197 170 103
-3.062187e+000 -7.854762e-001 -7.837545e+000 151 63 38
-3.001178e+000 -8.302454e-001 -7.836182e+000 158 80 52
-3.001178e+000 -8.302454e-001 -7.836182e+000 158 80 52
-1.493472e+000 -1.106347e+000 -8.491137e+000 190 116 95
-1.423216e+000 -1.260751e+000 -8.545057e+000 198 85 73
2.668756e+000 -2.101083e+000 -1.014876e+001 122 71 40
-3.744760e+000 -8.584239e-001 -8.041627e+000 84 52 27
-2.559671e+000 -1.131267e+000 -8.164001e+000 167 123 88
-1.336195e+000 -1.473576e+000 -8.580871e+000 180 82 63
-1.357774e+000 -1.425326e+000 -8.720484e+000 180 82 63
2.334362e+000 -2.317574e+000 -9.880042e+000 71 35 21
-2.756708e+000 -1.380213e+000 -8.300312e+000 171 137 99
-1.325167e+000 -1.594810e+000 -8.627171e+000 165 92 64
-1.227472e-001 -1.713566e+000 -1.044096e+001 167 160 150
1.086307e+000 -1.805417e+000 -1.084200e+001 193 151 111
1.086307e+000 -1.805417e+000 -1.084200e+001 193 151 111
-2.959258e+000 -1.518008e+000 -8.327115e+000 94 31 14
-2.993291e+000 -1.546296e+000 -8.543739e+000 82 19 18
-2.606901e+000 -1.502011e+000 -8.896689e+000 141 45 19
-2.397904e+000 -1.592589e+000 -9.087248e+000 160 74 40
-1.926453e-001 -1.734729e+000 -1.050284e+001 186 182 173
-1.299563e-001 -1.782216e+000 -1.045923e+001 153 143 134
-1.753716e+000 -1.901355e+000 -9.616146e+000 155 59 42
2.596830e+000 -3.184727e+000 -1.042301e+001 249 240 230
-2.755295e+000 -1.792710e+000 -9.691274e+000 204 121 64
-2.173517e+000 -1.819125e+000 -9.900718e+000 108 36 21
1.816327e+000 -3.083207e+000 -1.111078e+001 227 184 99
1.842653e+000 -3.138891e+000 -1.105508e+001 198 97 74
7.228818e-001 -2.846738e+000 -1.224960e+001 176 117 47
1.406566e+000 -3.045714e+000 -1.153641e+001 182 83 54
1.643477e+000 -3.285296e+000 -1.125991e+001 227 175 96
1.726088e+000 -3.617455e+000 -1.130478e+001 218 144 100
2.064443e+000 -3.550302e+000 -1.091575e+001 209 138 86
2.557987e+000 1.211098e+000 -9.280864e+000 240 234 222
1.242690e+000 1.714596e+000 -9.823302e+000 251 247 236
2.340992e+000 6.299837e-001 -9.086328e+000 232 223 217
4.098042e+000 -1.122317e+000 -8.120155e+000 195 116 56
2.121748e+000 -3.863988e-001 -9.050853e+000 230 231 215
3.988367e+000 -1.600081e+000 -8.295548e+000 103 70 55
-8.682966e-001 3.445524e-001 -9.532908e+000 143 82 62
-6.471180e-001 -4.195762e-002 -9.367467e+000 118 102 89
2.821351e-001 -2.886114e-001 -9.469458e+000 156 157 143
-1.261366e+000 -1.791244e-001 -8.900849e+000 102 36 28
2.639351e-001 -4.614608e-001 -9.416524e+000 104 96 83
-1.930875e+000 -4.662430e-001 -8.607320e+000 150 76 49
-1.599537e+000 -6.669768e-001 -8.266268e+000 207 71 65
-9.215391e-001 -7.556451e-001 -8.644297e+000 158 153 140
-1.728685e+000 -8.449490e-001 -8.211638e+000 58 50 61
-1.722701e+000 -8.558204e-001 -8.188101e+000 58 50 61
8.081941e-002 -1.164067e+000 -9.225003e+000 114 105 96
2.225197e+000 -1.890218e+000 -1.009174e+001 207 81 79
3.218635e+000 -2.375331e+000 -9.423175e+000 190 87 70
1.450381e-001 -1.521124e+000 -1.012832e+001 66 39 32
1.479047e+000 -1.735756e+000 -1.108738e+001 93 69 44
2.208791e+000 -2.319194e+000 -9.903895e+000 199 182 128
-3.337919e+000 -1.124472e+000 -7.930163e+000 204 96 60
-3.443674e+000 -1.382569e+000 -8.357256e+000 208 117 68
-2.991344e+000 -1.407217e+000 -8.280411e+000 89 27 17
-3.119000e+000 -1.562381e+000 -8.310533e+000 149 72 47
4.826105e-001 -1.845697e+000 -1.101828e+001 154 117 92
-2.045001e+000 -1.865784e+000 -1.010228e+001 178 98 61
9.134992e-001 -2.620778e+000 -1.134857e+001 215 171 132
1.786983e+000 -2.815958e+000 -1.109370e+001 206 138 68
-7.844039e-001 -1.876888e+000 -1.390794e+001 253 254 228
1.265134e+000 -3.152526e+000 -1.169510e+001 218 161 79
2.246896e+000 -3.502612e+000 -1.080845e+001 196 125 81
2.491172e-001 -2.972188e+000 -1.245548e+001 152 108 86
1.499499e+000 -3.288434e+000 -1.138786e+001 221 179 99
1.855877e+000 1.823294e+000 -9.364651e+000 236 232 223
2.667260e+000 1.198960e+000 -8.770930e+000 244 237 231
1.210479e+000 1.286088e+000 -9.577066e+000 245 241 232
3.094983e+000 -2.316682e-001 -8.334486e+000 237 230 218
1.389602e+000 -5.612412e-002 -9.406385e+000 201 202 195
2.072367e+000 -4.815658e-001 -9.090558e+000 188 182 170
-7.780549e-001 1.767352e-002 -9.447688e+000 95 71 62
1.722763e+000 -9.537593e-001 -9.085987e+000 147 139 130
4.503798e+000 -1.809709e+000 -9.707006e+000 129 99 73
-5.636357e-001 -9.139300e-001 -8.776046e+000 117 107 97
3.441369e+000 -1.966746e+000 -9.080427e+000 219 173 96
3.408886e+000 -2.107205e+000 -9.174758e+000 226 171 84
3.409281e+000 -2.106323e+000 -9.179393e+000 226 171 84
-2.196258e+000 -5.624664e-001 -8.604649e+000 149 76 52
1.761030e-001 -1.176120e+000 -9.293382e+000 152 150 146
1.098148e+000 -1.358846e+000 -9.551372e+000 180 176 167
3.272675e+000 -2.278635e+000 -9.390620e+000 184 78 65
-3.934565e+000 -5.705408e-001 -8.060777e+000 224 189 123
-3.847338e+000 -6.791343e-001 -8.034322e+000 35 28 22
-1.888774e+000 -1.306315e+000 -8.734259e+000 177 138 99
2.256156e+000 -2.245752e+000 -9.880808e+000 84 34 32
-2.045283e+000 -1.326064e+000 -9.098113e+000 180 134 101
-1.272434e+000 -1.702196e+000 -8.764654e+000 227 181 139
1.184235e+000 -1.874616e+000 -1.104084e+001 91 25 27
-3.317628e+000 -1.501283e+000 -8.396919e+000 98 26 13
-2.650147e+000 -1.670875e+000 -9.585173e+000 137 38 20
-2.650147e+000 -1.670875e+000 -9.585173e+000 137 38 20
-1.968872e+000 -1.830607e+000 -9.802997e+000 222 128 74
7.813556e-001 -2.558159e+000 -1.158366e+001 237 192 143
1.134455e+000 -2.725687e+000 -1.159577e+001 217 81 85
1.089698e+000 -2.893021e+000 -1.185143e+001 113 95 96
1.746785e+000 -3.218045e+000 -1.117774e+001 224 171 88
1.870880e+000 -3.206403e+000 -1.106446e+001 177 77 64
1.852699e+000 -3.217277e+000 -1.100924e+001 177 77 64
8.633063e-001 -3.035521e+000 -1.211943e+001 186 87 53
1.387676e+000 1.570999e+000 -9.700878e+000 246 242 235
1.247002e+000 1.492638e+000 -9.664502e+000 200 196 187
1.247002e+000 1.492638e+000 -9.664502e+000 200 196 187
2.532097e+000 -1.335390e-002 -8.548570e+000 254 254 206
3.694779e+000 -9.081269e-001 -7.898344e+000 228 106 103
2.282201e+000 5.094876e-001 -9.444676e+000 210 205 189
3.166612e+000 -6.198068e-001 -8.374045e+000 141 118 104
3.997916e+000 -9.168753e-001 -8.429027e+000 211 155 129
3.927219e+000 -1.131218e+000 -8.475818e+000 180 106 52
-1.166093e+000 -1.927821e-001 -8.932281e+000 148 79 53
3.736449e+000 -1.848448e+000 -9.065954e+000 227 144 78
-1.425126e+000 -6.986951e-001 -8.324695e+000 155 138 126
-1.094385e+000 -6.726007e-001 -8.679792e+000 153 147 135
-2.429741e-001 -1.219272e+000 -9.635830e+000 131 115 116
-3.709170e-002 -1.746450e+000 -1.045066e+001 142 127 118
3.582385e-001 -1.666049e+000 -1.032408e+001 106 70 50
9.087186e-001 -1.797674e+000 -1.107298e+001 104 38 24
-4.525064e-001 -2.490173e+000 -1.305215e+001 216 129 58
2.841156e-001 -3.072282e+000 -1.277906e+001 191 118 64
4.467206e-001 -3.329699e+000 -1.283779e+001 224 154 111
3.417802e+000 5.129145e-001 -8.047631e+000 229 221 210
1.744149e+000 1.829645e+000 -9.444024e+000 168 161 151
1.991110e+000 2.813136e-001 -9.245339e+000 231 227 216
3.794644e+000 -9.412449e-001 -8.128733e+000 77 32 30
-9.958208e-001 2.556821e-001 -9.403324e+000 242 239 232
-1.042248e+000 4.701115e-001 -9.815699e+000 242 239 232
7.252922e-001 -6.517616e-001 -9.126223e+000 214 212 203
-2.957307e-001 -4.799370e-001 -9.152826e+000 126 119 111
2.894563e-001 -1.562081e+000 -1.014419e+001 178 178 168
2.580694e+000 -2.531592e+000 -9.239110e+000 122 91 52
-1.735553e+000 -1.499414e+000 -9.095089e+000 181 130 91
6.550379e-001 -1.653014e+000 -1.084248e+001 91 27 30
1.034532e+000 -1.803627e+000 -1.080657e+001 202 157 115
1.010305e+000 -1.834334e+000 -1.065528e+001 202 157 115
-2.107530e+000 -1.465463e+000 -9.663136e+000 69 15 13
-3.246715e+000 -1.561409e+000 -8.400684e+000 85 15 25
-2.036512e+000 -1.629267e+000 -9.822966e+000 109 31 26
9.046086e-001 -3.335443e+000 -1.209509e+001 189 109 49
2.906156e+000 7.641487e-001 -8.227009e+000 179 163 111
1.485232e+000 2.192353e+000 -9.881224e+000 247 243 232
2.357108e+000 -5.336470e-002 -9.095869e+000 253 249 195
4.025571e-001 7.770442e-001 -9.814048e+000 179 169 157
2.194286e+000 -3.951618e-001 -9.135313e+000 237 232 222
4.201649e+000 -1.461528e+000 -8.479510e+000 97 58 41
-1.912693e+000 -2.919578e-001 -8.650920e+000 148 66 42
4.722028e-001 -1.006407e+000 -9.171349e+000 191 190 186
1.350210e-001 -1.273691e+000 -9.501851e+000 117 108 103
-5.272871e-003 -1.430072e+000 -1.011823e+001 62 42 35
1.058597e+000 -1.613881e+000 -1.026923e+001 67 43 30
1.927632e+000 -2.250185e+000 -1.016524e+001 96 79 52
-2.309910e+000 -1.685096e+000 -9.270467e+000 90 20 13
1.249595e+000 -2.942169e+000 -1.183319e+001 217 205 208
2.492135e+000 9.555675e-001 -8.819866e+000 240 234 222
3.473669e+000 -3.359466e-001 -8.441542e+000 241 233 222
2.213671e+000 8.874347e-002 -8.869711e+000 156 144 103
4.096326e+000 -1.767342e+000 -8.728703e+000 106 56 34
2.823821e+000 -1.976664e+000 -9.484966e+000 104 54 36
-3.447821e+000 -7.824258e-001 -7.914831e+000 63 24 24
-2.449575e+000 -9.625430e-001 -8.283050e+000 149 113 81
-2.460268e+000 -9.729040e-001 -8.252273e+000 149 113 81
-1.578896e+000 -1.453400e+000 -8.718636e+000 229 186 136
-6.810801e-001 -1.287241e+000 -9.552500e+000 116 100 87
8.549394e-001 -1.685691e+000 -1.055074e+001 192 155 113
-1.386611e+000 -1.691293e+000 -8.922431e+000 233 195 150
5.114973e-001 -4.041308e-001 -9.162420e+000 122 115 99
3.771077e+000 -1.586935e+000 -9.186019e+000 78 34 31
-1.861112e+000 -1.000660e+000 -8.382867e+000 227 193 147
-1.868185e+000 -9.923126e-001 -8.402953e+000 227 193 147
-1.054891e+000 -1.228235e+000 -8.460516e+000 118 104 95
1.585425e+000 -1.919305e+000 -1.060877e+001 171 149 100
-3.494232e+000 -1.130702e+000 -8.315038e+000 245 150 97
8.670683e-001 5.987528e-001 -9.669146e+000 151 147 138
-3.879101e+000 -5.695004e-001 -8.202762e+000 220 193 138
-2.567396e+000 -1.289447e+000 -8.079471e+000 211 177 132
1.200599e+000 -1.805884e+000 -9.973539e+000 103 64 38
1.940752e+000 -2.040258e+000 -9.766888e+000 76 46 33
5.348923e-001 -1.675663e+000 -1.081921e+001 120 68 43
3.799628e+000 -5.242022e-001 -7.890663e+000 100 33 37
3.247918e+000 -1.684758e+000 -8.805410e+000 230 223 215
-2.670731e+000 8.361444e-002 -9.179202e+000 230 226 226
4.964766e-001 -2.558558e+000 -1.213078e+001 105 31 32
4.050661e+000 -1.132401e+000 -8.606919e+000 199 115 49
-2.661770e+000 -8.276510e-001 -7.882134e+000 76 28 24
-2.259529e+000 -1.322092e+000 -8.784218e+000 72 18 15
-3.529063e-001 -1.486562e+000 -9.612315e+000 62 47 40
1.280596e+000 -1.909930e+000 -1.099119e+001 77 23 23
7.477873e-001 3.615083e-003 -9.189278e+000 131 128 119
-2.071684e-001 -2.146860e+000 -1.236921e+001 244 237 230
2.694210e+000 -1.217758e+000 -9.047863e+000 244 239 233
2.694210e+000 -1.217758e+000 -9.047863e+000 244 239 233
-1.100299e+000 4.222454e-001 -9.871750e+000 222 207 197
-2.540252e+000 -8.602136e-001 -8.221481e+000 109 88 87
3.192824e+000 -2.669895e+000 -8.899879e+000 138 87 52
-1.127478e+000 -1.844534e+000 -8.457282e+000 188 95 82
2.369363e+000 -3.336085e+000 -1.022011e+001 241 198 159
1.164068e+000 -3.136993e+000 -1.166393e+001 194 130 61
-1.053395e+000 1.550564e-001 -9.470642e+000 127 75 61
-3.579982e+000 -3.994320e-001 -8.050928e+000 125 104 70
-3.468941e+000 -4.856071e-001 -7.973312e+000 109 77 51
-1.383241e+000 -1.334053e+000 -8.537507e+000 188 70 66
-2.487192e+000 -1.294441e+000 -8.264959e+000 147 97 77
5.602466e-001 -1.596074e+000 -1.087339e+001 125 78 61
-3.508430e+000 -1.350346e+000 -7.964419e+000 105 26 23
-1.238654e+000 -1.916646e+000 -9.326816e+000 135 107 97
6.695132e-001 -2.633751e+000 -1.236045e+001 74 43 35
2.522277e+000 -3.238438e+000 -1.002642e+001 234 171 130
1.362344e+000 -3.559036e+000 -1.155771e+001 243 211 175
2.563251e+000 1.130313e+000 -9.302762e+000 205 198 184
1.998887e+000 2.757207e-001 -9.497831e+000 209 202 192
3.977953e+000 -1.563260e+000 -8.433410e+000 230 153 95
4.014610e+000 -1.643940e+000 -8.355249e+000 137 107 96
-1.535230e+000 -1.320126e-001 -8.454597e+000 200 116 74
-3.508100e+000 -4.408596e-001 -7.955664e+000 77 60 44
-3.697621e+000 -6.369918e-001 -7.970020e+000 116 88 49
3.300769e+000 -2.559110e+000 -9.220874e+000 255 251 241
-1.632858e+000 -1.449155e-001 -8.536154e+000 200 118 73
-9.035481e-001 1.673044e-001 -9.423022e+000 129 76 58
-2.044517e+000 -9.675834e-001 -8.411524e+000 138 85 56
2.218028e+000 -3.421617e+000 -1.046667e+001 204 129 80
1.022860e+000 1.257903e+000 -9.774541e+000 240 236 227
1.014495e+000 1.240383e+000 -9.739813e+000 240 236 227
6.327812e-001 3.920159e-001 -9.435059e+000 163 152 134
3.852271e+000 -9.087605e-001 -8.503978e+000 81 37 29
-8.270947e-001 5.456632e-001 -9.847073e+000 243 249 241
-7.853097e-001 1.596672e-001 -9.530032e+000 146 129 122
-3.208516e+000 -5.697089e-001 -7.859576e+000 103 53 52
3.764899e-001 -1.201945e+000 -9.244883e+000 171 166 161
4.768160e-001 -1.643326e+000 -1.057811e+001 179 153 145
1.380244e+000 -1.750817e+000 -1.100312e+001 99 75 47
-1.331415e+000 -1.650444e+000 -8.690065e+000 193 136 99
4.388802e-001 -1.676603e+000 -1.067848e+001 113 47 35
7.740627e-002 -3.124787e+000 -1.244820e+001 201 128 64
1.063532e+000 1.377683e+000 -9.862590e+000 213 206 198
2.397624e+000 4.734409e-001 -9.089687e+000 199 183 131
4.282088e+000 -1.201016e+000 -8.264254e+000 123 100 86
6.759171e-001 -4.696838e-002 -9.588475e+000 119 111 100
4.723159e+000 -1.491456e+000 -9.423846e+000 150 130 112
-5.483016e-001 -1.897431e-001 -9.474139e+000 150 141 136
-5.576114e-001 -1.263613e+000 -8.795634e+000 103 87 74
-3.769643e-002 -1.194957e+000 -9.057417e+000 111 99 90
-3.233153e+000 -1.006118e+000 -7.855520e+000 207 111 69
-3.233153e+000 -1.006118e+000 -7.855520e+000 207 111 69
3.247894e+000 -2.510612e+000 -9.045609e+000 188 117 65
-5.036493e-001 -1.563936e+000 -1.001168e+001 88 76 62
-1.860737e+000 -1.974902e+000 -9.558501e+000 126 48 25
1.685635e-002 -3.142466e+000 -1.286644e+001 218 143 89
2.281669e+000 1.397172e-001 -9.346955e+000 188 169 119
4.021092e+000 -1.024642e+000 -8.383060e+000 192 105 51
3.296681e+000 -2.098807e+000 -9.164569e+000 220 175 96
-1.874773e+000 -1.319692e+000 -8.694123e+000 180 140 104
1.187773e+000 -3.241497e+000 -1.161043e+001 179 76 63
4.329200e+000 -8.406355e-001 -7.972438e+000 162 51 49
-1.203493e-001 5.082667e-001 -9.670928e+000 160 151 142
-4.438223e-001 -8.063413e-001 -8.996461e+000 147 138 130
2.096794e+000 -1.993521e+000 -9.910795e+000 207 79 78
7.094418e-001 -1.650946e+000 -1.045600e+001 192 154 117
2.901983e+000 1.114139e+000 -8.814329e+000 192 178 117
2.592568e+000 7.739666e-001 -8.600092e+000 147 132 89
2.347841e+000 -6.023879e-002 -9.079557e+000 255 253 200
1.985251e+000 -1.874760e+000 -1.003023e+001 73 25 25
-3.892705e+000 -7.980423e-001 -8.114348e+000 249 227 169
