ply
format ascii 1.0
element face 0
property list uchar int vertex_indices
element vertex 864
property float x
property float y
property float z
property uchar diffuse_red
property uchar diffuse_green
property uchar diffuse_blue
end_header
2.876717e+000 -3.082009e+000 -1.012328e+001 103 46 36
3.564952e+000 2.270005e+000 -8.125626e+000 227 214 199
-1.525802e+000 3.155537e+000 -1.418577e+001 216 206 196
4.477065e-001 1.749748e+000 -1.101870e+001 237 233 225
-1.140365e+000 1.988510e+000 -1.318061e+001 234 230 220
-1.002582e+000 1.886623e+000 -1.299765e+001 211 208 199
-8.738190e-001 1.901347e+000 -1.290470e+001 217 214 207
2.752471e+000 1.063791e+000 -8.492492e+000 230 227 213
2.556746e+000 5.023555e-001 -8.692492e+000 214 198 139
6.399563e-001 -5.051360e-001 -9.531618e+000 144 141 130
-1.766519e+000 -8.431414e-001 -8.320097e+000 40 29 35
-3.507987e+000 -1.167950e+000 -7.902367e+000 255 169 119
2.886168e+000 -2.695912e+000 -1.017103e+001 121 56 40
1.357351e+000 -3.082720e+000 -1.153807e+001 214 74 74
2.810994e+000 -2.828498e+000 -1.026381e+001 120 47 43
1.142587e+000 6.634821e-001 -9.866601e+000 163 157 145
-1.962049e+000 1.243826e+000 -1.471641e+001 220 211 202
1.919372e+000 -8.339885e-001 -9.078141e+000 197 188 179
-1.693947e-001 -1.949420e+000 -1.067374e+001 197 190 182
1.624389e+000 -3.065837e+000 -1.127528e+001 226 173 102
1.624389e+000 -3.065837e+000 -1.127528e+001 226 173 102
1.285420e+000 -3.445526e+000 -1.194806e+001 191 87 74
-1.174902e+000 2.048233e+000 -1.311795e+001 235 231 220
-1.744288e+000 -3.236355e-001 -8.567195e+000 148 61 37
6.099793e-001 -2.334731e+000 -1.168196e+001 243 208 162
2.276625e+000 3.496635e-001 -9.383413e+000 169 158 140
1.504005e+000 1.245954e-002 -9.672009e+000 206 201 195
1.505142e+000 1.251327e-002 -9.677641e+000 206 201 195
1.556343e+000 -1.164481e-001 -9.352071e+000 138 131 111
-2.500705e+000 -1.386605e+000 -8.927263e+000 115 34 20
1.024570e+000 -3.044800e+000 -1.195231e+001 219 194 141
1.995334e+000 1.978567e+000 -9.363698e+000 195 188 180
-8.675441e-001 2.731056e+000 -1.308798e+001 178 170 159
1.384306e+000 1.667779e+000 -9.801132e+000 239 236 231
2.648259e+000 8.513430e-001 -8.740896e+000 233 227 215
3.861956e-001 9.384877e-001 -1.002454e+001 189 182 172
-1.196490e+000 3.336774e-001 -1.003213e+001 106 53 46
-9.022713e-001 2.958031e-001 -9.691921e+000 138 79 58
-9.022713e-001 2.958031e-001 -9.691921e+000 138 79 58
-5.410872e-001 -3.136887e-002 -9.291363e+000 159 152 146
-2.347025e+000 -4.621698e-001 -8.757902e+000 153 78 50
-5.614380e-001 -5.050791e-001 -9.395573e+000 73 63 41
-1.964495e+000 -7.113270e-001 -8.757616e+000 51 12 17
-4.610731e-001 -8.992641e-001 -9.113429e+000 157 145 137
-1.093937e+000 -9.884304e-001 -8.382985e+000 170 160 148
-1.094840e+000 -9.898822e-001 -8.396247e+000 170 160 148
2.917211e+000 -2.856662e+000 -1.011677e+001 153 115 60
2.361563e+000 2.357618e+000 -9.473250e+000 185 178 164
2.401262e+000 2.113077e+000 -8.925745e+000 241 234 226
1.324842e+000 2.333744e+000 -1.108506e+001 243 239 227
4.276469e+000 1.322502e+000 -7.710551e+000 221 199 186
1.485210e-002 1.247450e+000 -1.077728e+001 191 183 171
-3.469432e-001 1.833765e-001 -9.406763e+000 156 149 143
3.019763e+000 -5.008323e-001 -8.236348e+000 218 211 201
-1.637143e+000 -7.297240e-001 -8.600683e+000 161 138 122
-4.120890e+000 -9.161520e-001 -8.105572e+000 223 191 120
-2.271564e+000 -1.143716e+000 -8.621513e+000 126 51 30
7.826758e-001 3.532325e-001 -9.687486e+000 132 125 115
-6.464888e-001 2.651414e-001 -9.532987e+000 215 210 205
1.484984e+000 -2.719601e-001 -9.690861e+000 181 172 132
1.241464e+000 1.894878e+000 -1.033856e+001 188 180 169
2.997971e+000 9.169781e-001 -8.538667e+000 254 251 202
-2.172077e+000 2.142407e+000 -1.471925e+001 226 91 94
-1.762363e+000 -1.751689e+000 -9.005046e+000 233 189 142
3.212157e+000 -2.474231e+000 -9.487523e+000 229 197 140
1.403106e+000 3.042533e+000 -1.054275e+001 220 212 201
1.411539e+000 3.058110e+000 -1.059806e+001 220 212 201
1.604839e+000 1.659828e+000 -9.900417e+000 241 237 228
-5.230040e-001 -1.605246e-001 -9.706357e+000 161 154 149
1.900532e+000 2.754560e+000 -1.017272e+001 243 237 225
-1.196822e+000 -8.824259e-001 -8.609880e+000 162 148 135
-3.981033e-003 -2.442172e+000 -1.130429e+001 245 238 230
1.818305e+000 8.795128e-001 -1.010681e+001 224 220 209
3.501586e+000 2.076511e+000 -7.926319e+000 175 160 106
-3.061437e-001 8.890598e-001 -1.056330e+001 234 231 221
-4.658365e-001 6.264209e-001 -1.016580e+001 168 161 151
2.493932e+000 5.543597e-001 -9.352609e+000 230 219 201
2.520338e+000 5.344066e-001 -8.672578e+000 170 152 104
2.428551e+000 4.024482e-001 -8.822223e+000 201 185 133
-6.054442e-001 -4.034273e-001 -9.505100e+000 79 66 49
-4.021475e+000 -7.991575e-001 -8.052561e+000 236 209 142
-1.758234e+000 -8.809809e-001 -8.341210e+000 128 87 75
-2.703868e+000 -9.940716e-001 -8.254293e+000 130 111 105
-2.807850e+000 -1.105409e+000 -8.187947e+000 144 128 131
-3.755211e+000 -1.327410e+000 -7.974688e+000 113 42 41
4.002365e+000 -1.307664e+000 -8.758251e+000 165 127 104
4.002365e+000 -1.307664e+000 -8.758251e+000 165 127 104
-3.828308e+000 -1.553186e+000 -8.408334e+000 112 70 63
-3.828308e+000 -1.553186e+000 -8.408334e+000 112 70 63
-2.077005e+000 -1.939982e+000 -9.233132e+000 145 96 67
-2.077005e+000 -1.939982e+000 -9.233132e+000 145 96 67
1.116905e+000 -3.095394e+000 -1.215223e+001 157 92 82
3.384373e+000 -2.525461e+000 -9.456879e+000 197 100 84
1.677192e+000 -3.480685e+000 -1.152215e+001 217 160 87
1.454564e+000 3.064318e+000 -1.074768e+001 213 205 192
4.094925e+000 2.153802e+000 -7.155465e+000 167 149 101
-6.786481e-001 3.418237e+000 -1.330648e+001 223 217 205
-6.786481e-001 3.418237e+000 -1.330648e+001 223 217 205
-5.319545e-001 3.476034e+000 -1.319513e+001 227 223 211
4.129252e+000 9.849828e-001 -7.736467e+000 214 196 182
8.874122e-001 1.122767e+000 -9.951739e+000 176 170 157
2.755360e+000 8.584712e-001 -8.394008e+000 200 182 120
2.467700e+000 5.801832e-001 -9.393921e+000 187 169 149
-1.095207e+000 3.472233e-001 -9.991482e+000 149 129 115
1.651953e+000 -1.694494e-001 -9.300896e+000 202 188 147
-4.034377e+000 -6.186830e-001 -7.994497e+000 248 220 155
-3.571875e+000 -4.818601e-001 -7.882543e+000 101 76 50
-4.117090e-001 -5.766493e-001 -9.360984e+000 78 67 49
4.335429e-001 -6.477363e-001 -9.440351e+000 104 95 74
-3.966810e+000 -7.440559e-001 -7.989865e+000 237 208 150
-3.976288e+000 -8.634929e-001 -8.038819e+000 147 117 65
-3.957763e+000 -8.681509e-001 -8.052977e+000 241 212 156
-4.896160e-001 -1.001610e+000 -9.023707e+000 136 125 114
-2.915828e+000 -9.812920e-001 -8.012258e+000 100 47 29
-2.877354e+000 -1.063098e+000 -8.168634e+000 68 34 20
-3.960519e+000 -1.182976e+000 -8.084848e+000 123 65 62
-3.843818e+000 -1.169056e+000 -8.055225e+000 93 35 34
4.155251e+000 -1.338643e+000 -8.520939e+000 230 178 152
4.146352e+000 -1.336045e+000 -8.504051e+000 230 178 152
-2.272843e+000 -1.700466e+000 -9.176135e+000 177 72 31
9.633610e-001 -3.022628e+000 -1.232060e+001 204 185 181
1.820387e+000 -3.537034e+000 -1.143428e+001 202 117 66
-8.445161e-001 4.165218e-001 -9.727991e+000 207 199 189
-2.371442e-001 6.237501e-001 -9.985675e+000 192 184 174
-7.036499e-001 -1.167261e-001 -9.528083e+000 147 138 128
-3.624212e+000 -6.042007e-001 -7.908549e+000 82 42 22
-3.934107e+000 -7.309886e-001 -7.982057e+000 152 121 74
-2.895679e+000 -6.861847e-001 -7.845346e+000 131 75 66
-2.607665e+000 -7.883196e-001 -8.302402e+000 124 57 41
-2.867933e+000 -1.003345e+000 -8.070481e+000 129 91 72
-3.864864e+000 -1.290497e+000 -8.141226e+000 91 22 22
-3.431823e+000 -1.307762e+000 -7.989491e+000 171 82 61
-3.428024e+000 -1.474003e+000 -8.098526e+000 186 88 56
-2.255327e-001 -1.997530e+000 -1.072599e+001 241 236 230
3.841176e+000 -1.982060e+000 -8.989809e+000 158 103 64
3.371479e+000 -2.334639e+000 -9.225561e+000 205 121 83
1.822304e+000 -3.345013e+000 -1.140762e+001 237 191 114
3.822362e+000 1.779252e+000 -7.531966e+000 204 186 148
-3.170116e-001 2.471908e+000 -1.255245e+001 229 223 211
2.472888e+000 5.739713e-001 -9.388588e+000 193 180 157
-2.130951e+000 -6.071640e-001 -8.669177e+000 137 56 27
-2.065486e+000 -6.033067e-001 -8.629053e+000 175 91 56
-3.790515e+000 -7.462726e-001 -7.987443e+000 192 164 102
-2.817452e+000 -7.340917e-001 -7.878019e+000 112 61 54
-3.785540e+000 -9.422176e-001 -7.924567e+000 131 73 68
-2.963272e+000 -8.874328e-001 -7.981864e+000 85 25 15
2.481574e+000 -2.605791e+000 -9.759531e+000 83 52 25
1.682834e+000 -3.531949e+000 -1.153094e+001 171 86 70
1.896176e+000 -3.305215e+000 -1.126677e+001 237 197 116
2.156740e+000 2.447899e+000 -1.006564e+001 243 237 225
1.856385e+000 2.117063e+000 -9.614965e+000 166 157 145
-1.529339e-001 1.624869e+000 -1.119302e+001 213 209 200
-9.435448e-001 3.547033e-001 -9.712074e+000 146 75 55
-1.517587e+000 -1.726673e-001 -8.447949e+000 202 107 59
-1.261166e+000 -7.080517e-002 -8.547793e+000 119 52 36
1.583750e+000 -2.093546e-001 -9.358209e+000 203 190 147
-1.981858e-001 -5.730012e-001 -9.447589e+000 133 125 116
2.773288e-001 -6.080917e-001 -9.531012e+000 107 99 88
9.217378e-001 -9.071969e-001 -9.077500e+000 232 229 220
-3.987796e+000 -9.729464e-001 -8.059676e+000 74 20 22
-3.439252e+000 -9.491526e-001 -7.897090e+000 229 130 74
-3.439252e+000 -9.491526e-001 -7.897090e+000 229 130 74
-2.825076e+000 -1.015731e+000 -8.193768e+000 30 23 25
-3.576316e+000 -1.232191e+000 -7.987155e+000 229 118 74
-7.683483e-001 -1.426245e+000 -8.856397e+000 137 127 115
1.456295e+000 -3.717977e+000 -1.198585e+001 225 149 91
3.450717e+000 1.991048e+000 -7.845389e+000 216 199 141
-9.374413e-001 1.795943e+000 -1.293773e+001 251 247 244
4.604892e-001 1.494708e+000 -1.035056e+001 237 234 228
4.650868e-001 1.497185e+000 -1.036402e+001 237 234 228
2.613367e+000 1.098997e+000 -9.123318e+000 237 230 220
2.482360e+000 4.889771e-001 -9.212509e+000 237 231 217
-3.962123e+000 -4.104532e-001 -7.929312e+000 245 218 146
-3.423381e+000 -5.900293e-001 -7.921258e+000 80 32 23
-2.676617e+000 -1.336625e+000 -8.182014e+000 182 126 79
2.492113e+000 -1.325710e+000 -8.995639e+000 208 201 185
2.492113e+000 -1.325710e+000 -8.995639e+000 208 201 185
-3.724295e+000 -1.544356e+000 -8.339491e+000 69 24 21
2.389591e+000 2.547738e+000 -9.653019e+000 244 239 226
1.740209e-001 1.778384e+000 -1.148045e+001 224 219 213
1.740209e-001 1.778384e+000 -1.148045e+001 224 219 213
-2.299000e+000 -2.097768e-001 -9.044062e+000 156 61 33
2.064195e+000 -3.272970e-001 -9.413792e+000 172 159 120
-3.575261e+000 -7.203233e-001 -7.845518e+000 65 17 17
-2.835154e+000 -6.863402e-001 -8.001989e+000 68 24 29
-2.339561e+000 -9.382470e-001 -8.763258e+000 156 100 70
-1.584083e+000 -8.831827e-001 -8.139260e+000 120 36 40
-9.782260e-001 -1.390316e+000 -8.593579e+000 177 167 157
4.037091e+000 -1.334380e+000 -8.661336e+000 174 104 55
4.066858e+000 -1.207560e+000 -8.552159e+000 171 103 64
3.580771e+000 2.612838e+000 -8.325846e+000 209 197 187
2.773710e+000 9.767145e-001 -8.498404e+000 155 140 101
2.770966e+000 9.759480e-001 -8.496056e+000 155 140 101
2.426955e+000 7.058926e-001 -9.244737e+000 227 222 210
-1.262258e-001 -3.973811e-002 -9.340473e+000 184 177 169
2.399120e+000 -3.589942e-001 -9.026913e+000 107 94 62
2.839610e+000 -2.822675e-001 -8.865560e+000 190 182 167
-4.082789e+000 -4.544432e-001 -8.026452e+000 73 18 23
-2.174180e+000 -7.226421e-001 -8.756160e+000 154 64 32
4.147671e+000 -1.319517e+000 -8.327734e+000 204 136 96
1.869103e+000 -3.424634e+000 -1.130537e+001 231 178 108
2.724694e+000 2.713055e+000 -9.361048e+000 221 213 202
-1.657225e+000 2.773716e+000 -1.382635e+001 191 185 173
-1.993539e+000 2.485718e+000 -1.407380e+001 239 234 228
-2.698446e+001 1.669132e+000 -5.826122e+001 27 15 19
-1.234427e+000 -3.055426e-001 -8.863879e+000 162 81 51
3.895484e+000 -1.191129e+000 -8.676436e+000 100 48 38
-1.680768e+000 -1.288659e+000 -8.477728e+000 202 145 108
2.158338e+000 2.179262e+000 -9.440209e+000 234 227 218
3.405151e+000 1.885382e+000 -8.132407e+000 152 135 97
2.126900e+000 3.747627e-001 -9.500851e+000 230 228 216
-1.586070e+000 -1.488871e+000 -8.700182e+000 180 60 42
-1.485692e+000 -1.637478e+000 -8.702307e+000 199 83 60
4.000171e+000 2.041613e+000 -7.185325e+000 254 238 171
4.142324e+000 1.708972e+000 -7.479533e+000 115 41 46
-1.588891e-001 1.992597e+000 -1.194810e+001 175 167 157
-5.672383e-001 1.933074e+000 -1.275488e+001 242 242 234
2.707100e+000 1.920441e+000 -8.733281e+000 242 235 229
3.428300e+000 -1.853007e+000 -8.786920e+000 232 225 217
3.547202e+000 -4.896704e-001 -8.002732e+000 242 233 224
6.216443e-002 2.905579e+000 -1.203255e+001 250 243 233
-1.096210e+000 -3.121436e-001 -9.526154e+000 40 25 25
3.770410e+000 1.284365e+000 -7.718968e+000 187 171 110
3.280763e+000 6.843882e-001 -8.053522e+000 237 215 155
-1.144257e+000 3.582207e-001 -9.904053e+000 129 78 60
-1.144257e+000 3.582207e-001 -9.904053e+000 129 78 60
2.428113e+000 3.471768e-001 -8.839932e+000 236 220 162
2.553987e+000 5.295895e-001 -8.692376e+000 202 187 135
2.169569e+000 9.541521e-002 -9.200812e+000 195 181 140
2.002053e+000 7.994984e-003 -9.262385e+000 160 148 109
2.084582e+000 4.819880e-002 -9.220446e+000 177 162 120
-6.389615e-001 -4.018984e-001 -9.486574e+000 156 143 107
-6.059215e-001 -4.205083e-001 -9.408656e+000 142 128 96
2.076302e+000 -4.431358e-001 -9.192424e+000 171 163 154
2.182871e+000 -3.605541e-001 -9.195276e+000 164 151 106
-2.870793e+000 -6.236550e-001 -7.861589e+000 107 49 36
2.475896e-002 -5.590016e-001 -9.425511e+000 148 139 130
6.313882e-001 -5.449409e-001 -9.417805e+000 89 80 59
3.221742e+000 -8.985614e-001 -8.075485e+000 136 85 81
-3.771525e+000 -9.116779e-001 -7.876377e+000 143 85 79
3.931591e+000 -1.190899e+000 -8.618943e+000 130 75 58
4.021412e+000 -1.163043e+000 -8.632963e+000 137 88 71
4.021412e+000 -1.163043e+000 -8.632963e+000 137 88 71
-3.042652e+000 -1.354114e+000 -8.219307e+000 74 46 29
-2.926287e+000 -1.396193e+000 -8.273429e+000 194 161 142
3.999951e+000 -1.356377e+000 -8.726624e+000 165 93 49
-3.709337e+000 -1.664537e+000 -8.434636e+000 98 52 49
2.167092e+000 -2.333161e+000 -9.950175e+000 126 105 64
2.400017e+000 -2.287669e+000 -9.852671e+000 222 88 89
2.369088e+000 -2.522487e+000 -1.001470e+001 163 146 97
1.757495e+000 -3.188342e+000 -1.148442e+001 202 143 76
3.017671e+000 -2.833442e+000 -1.012188e+001 120 58 43
1.162032e+000 -3.797359e+000 -1.214719e+001 244 168 113
3.528911e+000 2.061906e+000 -7.972480e+000 213 195 141
-4.017198e-001 2.962212e+000 -1.306758e+001 219 213 199
3.195431e+000 1.970122e+000 -8.499418e+000 213 204 194
3.757638e+000 1.771523e+000 -7.462922e+000 237 216 164
3.779648e+000 1.521819e+000 -7.616561e+000 215 198 168
-1.413400e+000 1.465967e+000 -1.333879e+001 242 238 227
-2.330431e-001 8.924147e-001 -1.052673e+001 229 220 212
-7.834559e-001 5.594643e-001 -9.943066e+000 182 175 166
-8.876045e-001 6.156158e-002 -9.382990e+000 113 66 54
2.886027e+000 1.071847e-001 -8.472086e+000 178 160 110
1.874870e+000 -3.132454e-002 -9.253414e+000 127 114 89
1.718416e+000 -1.146157e-001 -9.329158e+000 141 131 105
2.170811e+000 -1.106116e-002 -9.158322e+000 229 216 164
-1.596705e+000 -2.304855e-001 -8.455566e+000 175 82 45
2.040419e+000 -3.828884e-001 -9.289278e+000 109 98 65
-3.387087e+000 -5.752189e-001 -7.728965e+000 98 50 45
-7.866307e-001 -5.755311e-001 -9.381299e+000 76 67 50
-6.362544e-001 -7.124460e-001 -9.246436e+000 59 46 29
-6.096831e-001 -6.906718e-001 -9.140313e+000 81 68 51
2.684103e-001 -7.069003e-001 -9.471642e+000 109 100 70
-3.683252e+000 -6.553616e-001 -7.871710e+000 172 139 90
-2.842175e+000 -6.409898e-001 -7.821611e+000 115 62 58
1.217029e+000 -7.928307e-001 -8.964403e+000 173 163 151
1.300776e+000 -7.964161e-001 -8.874755e+000 181 175 164
-2.797562e+000 -9.206357e-001 -8.145319e+000 68 34 25
-2.722598e+000 -9.190272e-001 -8.218354e+000 99 66 50
1.181459e+000 -1.200730e+000 -9.021235e+000 204 200 193
4.074592e+000 -1.081875e+000 -8.673445e+000 173 128 111
4.019746e+000 -1.127352e+000 -8.665793e+000 164 115 99
4.099511e+000 -1.205231e+000 -8.820402e+000 171 133 114
4.099511e+000 -1.205231e+000 -8.820402e+000 171 133 114
-2.958882e+000 -1.370928e+000 -8.260480e+000 183 153 144
-7.317577e-001 -1.401106e+000 -8.732608e+000 138 129 117
4.267012e+000 -1.307300e+000 -8.483266e+000 201 145 116
-3.305348e+000 -1.455724e+000 -8.073586e+000 157 73 52
-3.305348e+000 -1.455724e+000 -8.073586e+000 157 73 52
-3.085499e+000 -1.430579e+000 -8.216132e+000 87 57 49
-2.769354e+000 -1.636513e+000 -8.485063e+000 162 77 45
-1.525120e+000 -1.510039e+000 -8.553588e+000 184 65 42
-1.514876e+000 -1.496540e+000 -8.492184e+000 184 65 42
-3.580890e+000 -1.712084e+000 -8.480663e+000 190 103 67
-2.128629e+000 -1.963958e+000 -9.227846e+000 162 90 53
-3.042359e-001 -2.915837e+000 -1.339523e+001 215 166 122
4.232625e+000 -1.779831e+000 -8.436869e+000 199 127 80
9.191222e-001 -2.965736e+000 -1.224650e+001 197 166 160
9.216508e-001 -3.037974e+000 -1.235300e+001 184 111 80
9.699310e-001 -3.051893e+000 -1.243430e+001 204 185 181
2.419591e+000 -2.323206e+000 -9.842319e+000 201 82 80
3.772546e+000 -2.108756e+000 -9.088132e+000 179 100 76
1.346028e+000 -3.284108e+000 -1.192665e+001 192 133 78
1.431508e+000 -3.346044e+000 -1.178201e+001 206 144 71
2.903339e+000 -2.939072e+000 -1.026760e+001 152 116 61
3.794314e+000 -2.629649e+000 -9.348956e+000 251 193 146
3.779201e+000 -2.489532e+000 -8.979617e+000 196 121 64
7.353741e+000 -3.415698e+000 -1.302729e+001 202 190 190
1.442493e+000 -3.427296e+000 -1.169000e+001 214 137 81
1.795255e+000 -3.421976e+000 -1.144871e+001 232 168 105
3.376428e-003 3.958396e+000 -1.243509e+001 237 229 215
3.529981e+000 2.339096e+000 -7.742239e+000 130 115 90
4.806090e-001 1.884749e+000 -1.130905e+001 187 183 174
2.250000e-002 1.617894e+000 -1.089015e+001 210 207 196
2.845614e+000 1.125414e+000 -8.311287e+000 225 207 143
2.725951e+000 8.035984e-001 -8.447307e+000 202 186 127
2.758901e+000 8.980480e-001 -8.398530e+000 212 196 135
-8.954823e-001 3.885756e-001 -9.696398e+000 206 197 186
-7.782336e-001 4.011712e-001 -9.608306e+000 218 213 207
-1.046478e+000 2.535411e-001 -9.714244e+000 145 118 109
-1.047303e+000 1.976270e-001 -9.613963e+000 127 67 53
-1.478709e+000 -1.217980e-001 -8.467795e+000 189 91 46
-1.604101e-001 -5.130542e-002 -9.335030e+000 188 181 175
1.965551e+000 -1.439133e-002 -9.244249e+000 163 150 115
1.479284e+000 -2.180183e-001 -9.366897e+000 122 108 82
-6.485022e-001 -7.579851e-001 -9.324128e+000 81 69 49
-3.342583e-001 -6.910306e-001 -9.310131e+000 54 45 30
-3.948841e+000 -7.314903e-001 -8.014645e+000 152 121 74
-3.659100e+000 -7.321960e-001 -7.860343e+000 158 101 94
-3.671511e+000 -8.034930e-001 -7.816975e+000 128 78 69
-2.878049e+000 -6.821402e-001 -7.788076e+000 131 75 66
-2.547794e+000 -8.539036e-001 -8.338983e+000 131 64 47
-2.450907e+000 -7.613524e-001 -8.369179e+000 100 31 15
-1.679046e+000 -9.469134e-001 -8.202863e+000 74 32 38
4.061073e+000 -1.116077e+000 -8.649211e+000 137 82 52
4.079360e+000 -1.095678e+000 -8.616731e+000 188 138 127
4.121973e+000 -1.167510e+000 -8.752834e+000 177 143 128
-3.453290e+000 -1.319097e+000 -8.045619e+000 171 82 61
-3.343883e+000 -1.242918e+000 -7.945229e+000 173 90 64
3.947359e+000 -1.343926e+000 -8.799375e+000 159 115 101
-3.409038e+000 -1.499970e+000 -8.042083e+000 218 116 77
-2.613125e+000 -1.745951e+000 -9.182704e+000 179 68 31
4.347017e+000 -1.506701e+000 -8.407340e+000 190 117 68
-3.352820e-001 -2.818618e+000 -1.334511e+001 216 147 87
-3.616907e-001 -2.924827e+000 -1.347165e+001 215 138 76
2.827701e+000 -2.569974e+000 -1.021594e+001 113 66 40
3.344259e+000 -2.117557e+000 -9.110950e+000 192 135 91
3.554476e+000 -2.353619e+000 -9.272711e+000 224 134 99
3.547450e+000 -2.346939e+000 -9.253047e+000 224 134 99
4.887750e-001 -3.287837e+000 -1.268418e+001 204 130 75
1.813846e+000 -3.032199e+000 -1.135324e+001 178 74 66
2.660748e+000 -2.821015e+000 -1.004196e+001 85 55 29
1.780542e+000 -3.451290e+000 -1.132562e+001 202 132 76
2.826554e-001 3.781447e+000 -1.228220e+001 238 230 219
3.406980e+000 1.881079e+000 -7.962983e+000 182 165 112
4.078937e+000 1.649393e+000 -7.583418e+000 126 85 75
-3.221756e-001 2.460237e+000 -1.249689e+001 229 223 211
3.746276e+000 1.479513e+000 -7.732966e+000 242 223 157
4.395827e+000 1.586549e+000 -7.885287e+000 177 62 61
9.275627e-002 1.351354e+000 -1.092766e+001 230 227 218
-1.155084e+000 -7.101267e-002 -8.650326e+000 105 46 36
-1.311764e-001 -1.537705e-001 -9.369827e+000 139 132 122
1.530038e+000 -1.930416e-001 -9.331756e+000 116 105 81
-2.241481e+000 -2.687107e-001 -8.850183e+000 178 95 62
-2.129908e+000 -6.053179e-001 -8.668204e+000 137 56 27
-1.861678e+000 -7.074908e-001 -8.732916e+000 157 44 45
-1.844751e+000 -7.007587e-001 -8.639384e+000 157 44 45
-6.960181e-001 -7.027974e-001 -9.170233e+000 84 72 51
-1.015749e-001 -6.533600e-001 -9.477711e+000 88 78 66
3.047777e-001 -6.506792e-001 -9.506340e+000 74 64 51
-3.728528e+000 -9.252995e-001 -7.806606e+000 131 73 68
-2.929315e+000 -1.018705e+000 -8.057570e+000 137 93 69
-2.840571e+000 -9.265610e-001 -8.122548e+000 125 80 59
-2.836255e+000 -1.084850e+000 -8.213072e+000 40 29 31
-3.086000e+000 -1.517836e+000 -8.258570e+000 118 51 33
-2.190129e+000 -1.755981e+000 -9.715473e+000 175 79 42
-2.205001e+000 -2.016398e+000 -1.032638e+001 208 110 74
1.563959e-001 -2.148559e+000 -1.101514e+001 199 195 186
3.149702e-001 -1.917125e+000 -1.062052e+001 184 176 159
-2.050386e+000 -2.033029e+000 -9.888538e+000 219 93 69
3.857840e+000 -2.023130e+000 -9.134579e+000 134 80 54
9.094346e-001 -2.972712e+000 -1.245472e+001 221 180 157
7.788165e-001 -3.033419e+000 -1.249912e+001 199 136 70
1.529973e+000 -3.471545e+000 -1.161903e+001 189 108 66
1.582784e+000 -3.563636e+000 -1.156028e+001 209 128 74
3.290676e+000 -3.047501e+000 -9.655693e+000 149 87 46
3.557459e+000 -2.818937e+000 -9.432694e+000 159 94 53
3.634220e+000 2.417816e+000 -7.861562e+000 131 117 91
6.657445e-001 3.336289e+000 -1.184226e+001 241 235 221
3.464971e+000 2.026899e+000 -8.261721e+000 230 216 203
1.983096e+000 2.404544e+000 -1.036907e+001 237 230 220
3.343750e+000 1.861634e+000 -8.236886e+000 225 214 203
4.257166e+000 1.190196e+000 -7.677567e+000 187 159 146
2.786021e+000 1.114785e+000 -8.306241e+000 169 151 109
-1.314452e+000 1.458314e+000 -1.313746e+001 220 216 206
6.432119e-001 3.693674e-001 -9.357989e+000 164 154 136
2.351834e+000 1.350982e-001 -9.059723e+000 226 210 156
-8.796909e-002 -2.185767e-001 -9.398171e+000 181 174 164
-8.796909e-002 -2.185767e-001 -9.398171e+000 181 174 164
-3.896746e+000 -4.171281e-001 -7.880289e+000 235 203 140
3.814226e-001 -5.419268e-001 -9.504766e+000 126 116 104
-2.719044e+000 -7.978801e-001 -7.968296e+000 69 31 23
1.203131e+000 -8.119823e-001 -8.895285e+000 183 175 164
1.894286e+000 -7.705375e-001 -9.099769e+000 166 158 147
-1.857977e+000 -1.041519e+000 -8.207477e+000 204 184 154
-1.857977e+000 -1.041519e+000 -8.207477e+000 204 184 154
-1.649236e+000 -9.966320e-001 -8.214568e+000 207 98 93
-1.649236e+000 -9.966320e-001 -8.214568e+000 207 98 93
7.112130e-002 -1.281855e+000 -9.371658e+000 156 145 132
9.497122e-001 -1.110853e+000 -9.174769e+000 232 229 224
-2.951695e+000 -1.149233e+000 -8.021055e+000 105 46 27
-3.128171e+000 -1.378471e+000 -8.236435e+000 86 44 33
-2.798467e+000 -1.242736e+000 -8.197586e+000 195 147 99
4.204369e+000 -1.380785e+000 -8.740216e+000 195 124 88
6.721977e-001 -2.896128e+000 -1.268657e+001 119 62 39
9.892198e-001 -2.811878e+000 -1.169258e+001 222 174 134
2.739932e+000 -2.452857e+000 -1.021640e+001 122 68 44
3.601823e+000 -2.189976e+000 -9.162770e+000 186 109 89
3.672280e+000 -2.152967e+000 -9.057324e+000 182 87 78
2.698521e+000 -2.675755e+000 -1.039708e+001 111 46 41
2.856689e+000 -2.745454e+000 -1.013511e+001 149 111 56
1.272101e+000 -3.811005e+000 -1.220745e+001 201 122 57
2.370511e+000 3.263981e-001 -8.869768e+000 148 136 93
-9.588040e-002 -4.275535e-001 -9.233921e+000 168 161 151
1.621937e+000 -2.874322e-001 -9.439488e+000 115 105 72
-3.352341e+000 -5.928295e-001 -7.920464e+000 158 90 59
8.346769e-001 -5.393588e-001 -9.472994e+000 170 161 122
-4.088374e+000 -7.854997e-001 -8.061029e+000 73 28 23
-2.298151e+000 -7.848903e-001 -8.726690e+000 165 75 44
1.350418e+000 -7.996384e-001 -8.916375e+000 178 172 161
-3.998413e+000 -1.099617e+000 -8.128472e+000 177 138 92
-1.263141e+000 -1.127923e+000 -8.430793e+000 170 162 151
1.963821e-001 -1.205161e+000 -9.361402e+000 156 147 137
4.549380e+000 -1.105264e+000 -8.097383e+000 161 147 136
-1.620587e+000 -1.185871e+000 -8.247529e+000 202 151 117
-2.776904e+000 -1.921087e+000 -9.678082e+000 37 26 24
2.263348e+000 -2.207794e+000 -9.861437e+000 186 61 60
3.372046e-001 -3.470569e+000 -1.285518e+001 222 143 91
3.622733e+000 2.444403e+000 -8.075280e+000 241 229 216
3.755728e+000 1.799192e+000 -7.531095e+000 236 216 155
-9.347853e-001 2.381226e+000 -1.305709e+001 196 190 178
-2.241085e+000 2.471710e+000 -1.458346e+001 221 96 99
-2.241085e+000 2.471710e+000 -1.458346e+001 221 96 99
3.043781e+000 1.323821e+000 -8.192881e+000 210 195 145
-7.943058e-001 1.033592e+000 -1.250023e+001 220 217 208
2.321785e+000 5.326335e-001 -9.452129e+000 223 217 207
2.585942e+000 -1.736620e-001 -8.647653e+000 165 152 108
-2.181898e+000 -4.792022e-001 -8.661165e+000 133 45 26
-7.997592e-001 -7.144866e-001 -9.078385e+000 49 39 33
9.728795e-001 -5.143717e-001 -9.579461e+000 151 138 103
-2.756311e+000 -8.665293e-001 -8.207255e+000 139 98 69
5.071359e-001 -2.202040e+000 -1.151163e+001 144 47 49
1.005575e+000 -2.364805e+000 -1.150048e+001 169 48 49
4.514007e+000 -1.785007e+000 -8.639993e+000 199 185 176
2.106160e+000 -2.563711e+000 -1.013798e+001 175 159 107
1.805929e+000 -3.543931e+000 -1.122960e+001 203 126 67
2.414641e+000 1.650724e+000 -8.981137e+000 215 208 198
2.414641e+000 1.650724e+000 -8.981137e+000 215 208 198
2.338193e+000 7.221177e-001 -9.425870e+000 204 197 179
-4.635806e-001 -1.710842e-001 -9.322742e+000 158 151 145
-3.740592e+000 -5.308620e-001 -7.933132e+000 78 29 26
-2.781701e+000 -7.715783e-001 -8.166119e+000 85 40 35
-3.865738e+000 -9.159742e-001 -7.953824e+000 189 168 107
-2.489753e+000 -1.411922e+000 -8.304001e+000 170 126 87
3.114701e-001 -2.263670e+000 -1.129799e+001 221 207 196
2.373504e+000 -2.322264e+000 -9.911031e+000 222 82 83
1.542464e-001 -3.242819e+000 -1.188586e+001 78 58 49
1.592714e+000 -3.250750e+000 -1.145889e+001 184 81 67
2.945980e+000 -2.974553e+000 -1.005780e+001 147 111 56
2.965021e+000 -2.995389e+000 -1.012812e+001 147 111 56
1.996916e-001 3.689062e+000 -1.220563e+001 199 191 179
-5.255469e-001 2.524993e+000 -1.320062e+001 235 226 217
4.853394e-001 2.152901e+000 -1.168856e+001 239 236 228
2.574991e+000 1.741119e+000 -8.897205e+000 218 211 199
2.574991e+000 1.741119e+000 -8.897205e+000 218 211 199
3.394244e-001 1.640799e+000 -1.114057e+001 204 200 188
2.059116e-001 9.259573e-001 -1.028432e+001 233 233 223
2.280456e+000 1.641036e-001 -9.213338e+000 139 125 98
-5.364725e-001 -2.524410e-002 -9.302215e+000 159 152 146
1.569348e+000 -9.768302e-002 -9.362123e+000 140 134 114
-3.600535e+000 -2.907194e-001 -7.512906e+000 69 15 16
1.160010e+000 -4.619566e-001 -9.550608e+000 165 152 117
-3.118165e+000 -1.272585e+000 -8.105596e+000 196 152 112
3.754912e+000 -2.245761e+000 -9.293736e+000 183 90 75
2.232915e+000 -2.728524e+000 -9.872138e+000 120 98 60
2.708152e+000 -2.907873e+000 -9.770441e+000 104 59 39
3.329077e+000 -2.967180e+000 -9.409277e+000 219 164 129
3.126160e+000 2.356450e+000 -8.621049e+000 239 230 221
-2.185387e+000 3.816149e+000 -1.492798e+001 234 230 227
-1.548159e+000 3.697962e+000 -1.417897e+001 248 241 233
2.338301e+000 2.341672e+000 -9.414528e+000 185 178 164
2.450302e+000 2.159173e+000 -9.095831e+000 241 234 226
-8.733371e-001 2.721401e+000 -1.304889e+001 179 171 160
6.646445e-001 1.148550e+000 -9.957109e+000 177 170 156
6.678143e-001 1.169264e+000 -1.006149e+001 177 170 156
4.140589e-001 7.089724e-001 -9.677274e+000 183 175 164
5.866901e-001 8.186308e-001 -9.879111e+000 242 238 231
2.522822e+000 3.407879e-001 -8.810200e+000 254 239 182
1.200633e+000 -2.584511e-001 -9.477624e+000 101 94 77
-4.169551e+000 -6.038192e-001 -8.080701e+000 255 235 168
-4.492353e-001 -9.026021e-001 -9.048796e+000 154 145 136
9.643451e-001 -8.120953e-001 -9.030974e+000 227 227 219
3.809775e+000 -8.257648e-001 -7.977597e+000 211 86 84
-4.101571e+000 -9.127844e-001 -8.058229e+000 223 191 120
-1.822545e+000 -1.198519e+000 -8.338481e+000 231 196 151
-1.147004e+000 -2.001292e+000 -8.958046e+000 192 185 171
1.844324e+000 -3.277204e+000 -1.151639e+001 237 189 112
-3.757279e-002 3.625712e+000 -1.186402e+001 203 194 185
-3.757279e-002 3.625712e+000 -1.186402e+001 203 194 185
-8.290775e-004 1.527182e+000 -1.101638e+001 243 241 232
1.803725e+000 5.365859e-002 -9.379363e+000 213 211 199
-2.780650e+000 -7.241904e-001 -8.027133e+000 81 29 25
-6.744241e-001 -8.797747e-001 -8.875374e+000 156 144 135
-3.148344e-001 -1.485774e+000 -9.744394e+000 121 111 99
-3.486576e+000 -1.536721e+000 -8.197898e+000 221 120 78
3.192680e+000 -2.206166e+000 -9.380356e+000 209 161 94
3.309760e+000 -2.777764e+000 -9.527515e+000 130 71 34
-7.166957e-002 2.866641e+000 -1.284235e+001 249 243 229
2.834565e+000 1.431444e+000 -8.409138e+000 238 233 226
-2.120111e+000 2.096065e+000 -1.439175e+001 226 91 94
-1.711185e+000 1.731423e+000 -1.406033e+001 243 240 230
2.819224e+000 6.972768e-002 -9.004737e+000 254 253 198
2.376404e+000 -1.040835e-001 -9.280875e+000 253 247 196
1.327477e+000 -2.076364e+000 -1.086209e+001 115 36 37
2.158547e+000 -2.532828e+000 -9.820905e+000 226 208 149
3.674647e+000 -2.489541e+000 -9.051454e+000 216 139 84
9.638920e-001 8.491385e-001 -1.047839e+001 166 158 147
-2.455933e+000 -9.281580e-001 -8.728250e+000 121 50 29
3.117990e+000 -2.844882e+000 -9.793749e+000 121 64 45
4.077266e+000 1.053444e+000 -7.569082e+000 233 217 202
1.766191e+000 -1.802721e+000 -9.838874e+000 213 206 198
9.507980e-001 -1.149848e+000 -9.295674e+000 234 231 226
2.811521e+000 -1.419118e+000 -9.235655e+000 246 242 234
3.481537e+000 2.210322e+000 -7.788048e+000 169 152 111
3.429933e+000 2.011798e+000 -7.855847e+000 201 184 127
-6.121051e-001 8.223390e-001 -1.112654e+001 247 244 233
-4.722170e-001 6.902779e-001 -1.053478e+001 171 165 157
3.628122e+000 1.177837e+000 -7.681347e+000 206 185 130
-1.192948e+000 3.861250e-001 -1.001507e+001 143 108 90
-7.472759e-001 5.920355e-001 -1.007215e+001 201 195 185
-7.472759e-001 5.920355e-001 -1.007215e+001 201 195 185
-7.543789e-001 5.605412e-001 -1.017157e+001 178 171 161
2.632487e+000 9.438501e-001 -9.108444e+000 206 200 186
4.041971e+000 9.673074e-001 -7.796367e+000 206 190 174
1.706246e+000 5.975582e-001 -9.722169e+000 217 214 202
2.435492e+000 5.252208e-001 -9.404380e+000 203 194 179
2.419728e+000 4.392130e-001 -8.796219e+000 214 199 149
1.553205e+000 -1.871674e-001 -9.343174e+000 118 106 83
1.744902e+000 -9.274984e-002 -9.277245e+000 124 113 85
2.009521e+000 7.607090e-002 -9.051463e+000 131 121 94
-3.704790e+000 -6.571456e-001 -7.923267e+000 162 131 83
-3.602953e+000 -5.699903e-001 -7.907044e+000 147 112 73
-3.487540e+000 -5.002409e-001 -7.934048e+000 125 74 41
-2.784405e+000 -5.601642e-001 -8.328544e+000 138 57 28
2.216353e+000 -1.336989e-001 -9.126079e+000 254 248 193
2.444449e+000 -1.584863e-001 -8.975988e+000 211 194 140
3.947687e-001 -6.270506e-001 -9.435084e+000 78 70 51
4.729773e-001 -6.550390e-001 -9.405060e+000 79 66 44
2.297873e+000 -4.216239e-001 -8.905071e+000 224 218 204
2.591973e+000 -4.109971e-001 -8.410549e+000 175 167 150
3.351594e+000 -3.557617e-001 -8.583734e+000 178 163 147
-2.810253e+000 -1.034717e+000 -8.216473e+000 44 30 34
-2.382300e+000 -1.310278e+000 -8.857912e+000 150 74 53
-3.562651e+000 -1.480078e+000 -8.229465e+000 210 116 73
-2.044204e+000 -1.943148e+000 -9.738897e+000 230 97 76
4.020394e+000 -1.127333e+000 -8.667414e+000 160 117 99
4.074714e+000 -1.156756e+000 -8.738301e+000 162 124 111
4.074714e+000 -1.156756e+000 -8.738301e+000 162 124 111
4.028836e+000 -1.284641e+000 -8.809887e+000 146 91 71
3.982119e+000 -1.370206e+000 -8.816557e+000 173 124 109
4.014037e+000 -1.343277e+000 -8.779775e+000 180 132 110
4.023884e+000 -1.348892e+000 -8.799967e+000 180 132 110
4.106644e+000 -1.319858e+000 -8.582889e+000 179 113 78
9.645772e-001 -3.298501e+000 -1.228901e+001 196 133 79
3.789104e+000 1.776717e+000 -7.517933e+000 241 229 187
3.840803e+000 1.794008e+000 -7.529771e+000 254 244 178
-8.152312e-001 5.988958e-001 -1.017270e+001 209 202 192
4.743071e-001 7.880640e-001 -9.737095e+000 201 196 184
3.190639e+000 6.732273e-001 -7.838287e+000 250 234 177
4.262697e+000 9.525912e-001 -7.553134e+000 203 154 142
-1.120998e+000 -7.768351e-002 -8.880150e+000 107 49 37
2.323034e+000 2.281356e-001 -9.049631e+000 135 123 96
2.495836e+000 2.766443e-001 -8.670788e+000 254 244 189
3.079718e+000 4.855281e-001 -8.147648e+000 220 203 147
2.987346e+000 3.512683e-001 -7.971533e+000 159 145 99
1.752732e+000 -1.518855e-001 -9.242189e+000 130 120 87
2.065656e+000 5.209059e-002 -9.135995e+000 171 159 115
2.229774e+000 1.096249e-001 -8.985141e+000 171 157 112
-3.731612e+000 -6.227021e-001 -7.943954e+000 216 191 129
-1.090805e+000 -6.101924e-001 -8.759316e+000 139 123 110
-4.618272e-001 -5.613885e-001 -9.594490e+000 83 71 52
1.226293e+000 -3.822019e-001 -9.277032e+000 132 119 86
1.355650e+000 -3.408591e-001 -9.329211e+000 132 119 84
-3.956162e+000 -8.892357e-001 -8.024610e+000 159 128 79
-3.695308e+000 -8.620408e-001 -7.866456e+000 143 92 91
-9.378051e-002 -7.836258e-001 -9.436689e+000 126 117 86
3.561734e-001 -6.714763e-001 -9.435299e+000 105 97 76
5.196510e-001 -6.228122e-001 -9.443542e+000 116 106 81
-2.705758e+000 -9.864770e-001 -8.246949e+000 139 121 117
-1.653645e+000 -9.047496e-001 -8.159558e+000 209 89 90
-1.653645e+000 -9.047496e-001 -8.159558e+000 209 89 90
1.149919e+000 -7.932673e-001 -8.803850e+000 192 188 177
1.286787e+000 -8.469167e-001 -8.787979e+000 200 197 182
-3.125461e+000 -1.469766e+000 -8.275045e+000 71 26 14
-2.351928e+000 -1.843904e+000 -9.784195e+000 128 50 25
-2.268666e+000 -1.923115e+000 -9.400556e+000 194 87 39
4.093865e+000 -1.290429e+000 -8.571529e+000 223 184 165
4.112722e+000 -1.268516e+000 -8.532825e+000 187 115 71
4.082065e+000 -1.222244e+000 -7.934139e+000 236 195 178
1.380293e+000 -3.859150e+000 -1.207912e+001 253 200 159
1.443040e+000 -3.872734e+000 -1.205698e+001 251 199 156
3.615431e+000 -2.359677e+000 -9.289424e+000 188 119 64
4.059868e+000 -2.358392e+000 -8.961980e+000 171 100 54
7.984869e+000 -3.505525e+000 -1.240649e+001 201 191 188
1.435737e+000 -3.938390e+000 -1.198322e+001 210 146 104
4.004663e+000 2.808391e+000 -7.928117e+000 132 89 64
-2.149388e-001 2.491312e+000 -1.254547e+001 230 222 212
-9.581786e-001 2.293629e+000 -1.278630e+001 225 222 212
1.370787e+000 1.786197e+000 -1.011805e+001 177 168 161
1.515139e+000 2.044482e+000 -1.030132e+001 164 160 150
1.668948e+000 2.091592e+000 -1.031564e+001 204 200 191
4.313364e+000 1.542738e+000 -7.723750e+000 184 69 67
-7.808526e-001 5.693551e-001 -9.935999e+000 178 171 161
-9.908190e-001 3.404181e-001 -9.654241e+000 193 180 172
2.472911e+000 5.469965e-001 -8.733723e+000 144 128 96
-2.967123e+000 -4.619844e-001 -9.184984e+000 130 73 60
-1.728811e-001 -1.400075e-001 -9.364979e+000 168 163 157
-1.728811e-001 -1.400075e-001 -9.364979e+000 168 163 157
1.902802e+000 -3.217132e-002 -9.180834e+000 167 159 123
2.086095e+000 2.481536e-003 -9.085560e+000 214 200 150
2.207370e+000 1.181485e-001 -9.100254e+000 192 179 134
-4.136264e+000 -5.820978e-001 -8.062885e+000 227 197 125
-3.857942e+000 -6.588773e-001 -7.951059e+000 153 123 71
-2.905680e+000 -6.344641e-001 -7.965936e+000 101 43 31
-2.863475e+000 -6.460831e-001 -7.884621e+000 115 64 62
-2.726866e+000 -6.520765e-001 -8.529472e+000 116 40 17
-2.565118e+000 -6.807155e-001 -8.502761e+000 116 39 19
7.213237e-001 -5.215117e-001 -9.476586e+000 86 79 54
5.862311e-001 -5.961230e-001 -9.435103e+000 137 126 95
6.497799e-001 -5.838737e-001 -9.436934e+000 154 148 117
-4.222149e+000 -8.539799e-001 -8.113530e+000 122 51 41
-3.885886e+000 -8.513979e-001 -8.000611e+000 171 145 90
-2.985817e+000 -6.727931e-001 -7.896146e+000 105 53 49
-2.894642e+000 -6.853568e-001 -7.847053e+000 137 78 74
-2.791761e+000 -1.217030e+000 -9.669555e+000 136 68 49
-6.481478e-001 -7.630980e-001 -9.348344e+000 82 69 52
-3.547116e+000 -1.134057e+000 -7.974230e+000 233 132 81
-2.858140e+000 -9.920277e-001 -8.021708e+000 134 93 71
-5.100367e-001 -9.518803e-001 -8.981157e+000 138 129 118
-3.414221e+000 -1.422202e+000 -8.034681e+000 199 109 76
-1.593780e+000 -1.527794e+000 -8.545241e+000 204 107 72
7.743716e-001 -2.936190e+000 -1.248935e+001 154 83 66
4.118577e+000 -1.361690e+000 -8.532488e+000 191 115 67
3.958321e-001 -3.256055e+000 -1.293961e+001 199 133 77
2.784647e+000 -2.702596e+000 -1.032154e+001 110 59 36
1.369152e+000 -3.922895e+000 -1.202794e+001 208 149 114
1.461746e+000 -3.906560e+000 -1.200406e+001 206 136 85
1.797471e+000 -3.434812e+000 -1.144457e+001 230 173 107
2.934989e+000 -3.104874e+000 -1.041602e+001 124 78 51
7.805780e+000 -3.542531e+000 -1.291755e+001 194 188 185
7.901664e+000 -3.482896e+000 -1.268726e+001 236 226 224
7.918231e+000 -3.465331e+000 -1.258712e+001 236 228 225
3.797048e+000 -2.675542e+000 -9.253961e+000 200 121 65
3.525668e+000 2.132118e+000 -7.778503e+000 230 211 154
4.023595e+000 2.145783e+000 -7.277125e+000 183 164 112
3.090614e+000 1.523860e+000 -8.267482e+000 207 198 182
-2.407322e-001 9.093247e-001 -1.079069e+001 225 223 211
2.793101e+000 1.112066e+000 -8.343584e+000 175 158 117
2.799122e+000 1.111167e+000 -8.362413e+000 175 158 117
2.836758e+000 1.115123e+000 -8.288264e+000 249 233 164
-1.149912e+000 4.358959e-001 -1.015456e+001 194 184 174
-9.086618e-001 3.937768e-001 -9.751294e+000 208 200 190
-4.197849e-001 5.976143e-001 -9.977449e+000 187 178 169
-3.565102e-001 6.927843e-001 -1.054675e+001 163 158 152
2.714943e+000 8.268369e-001 -8.362060e+000 204 187 132
-1.115032e+000 -1.206255e-001 -8.949197e+000 128 73 54
-8.971102e-001 -6.708977e-002 -9.509415e+000 120 98 90
-8.316660e-001 -9.587724e-002 -9.507504e+000 146 129 121
1.467860e-001 9.224385e-002 -9.413818e+000 149 145 135
-3.901892e+000 -3.257958e-001 -7.890227e+000 225 205 129
-4.112366e+000 -5.233187e-001 -8.011774e+000 253 226 150
-1.665500e+000 -2.228947e-001 -8.581208e+000 230 136 79
-1.140804e+000 -2.568278e-001 -9.297614e+000 97 52 43
2.862677e+000 2.144432e-001 -8.186293e+000 183 167 112
-2.448600e+000 -5.185443e-001 -8.852862e+000 163 84 53
-7.501373e-001 -7.109127e-001 -9.470798e+000 87 75 53
-7.433601e-001 -6.938130e-001 -9.383639e+000 87 75 53
5.792298e-001 -5.506387e-001 -9.559407e+000 136 128 116
1.453867e+000 -2.654323e-001 -9.344334e+000 199 188 146
1.453867e+000 -2.654323e-001 -9.344334e+000 199 188 146
1.664796e+000 -2.139509e-001 -9.310069e+000 124 113 81
1.827710e+000 -3.430849e-001 -9.069539e+000 132 121 89
-3.451763e+000 -7.120005e-001 -7.835924e+000 118 63 56
-2.252581e+000 -9.580872e-001 -8.670388e+000 175 119 86
-2.167328e+000 -7.666777e-001 -8.793704e+000 150 66 32
-3.100757e-001 -8.131994e-001 -9.279087e+000 63 51 39
1.810570e-001 -7.241482e-001 -9.430094e+000 146 139 121
-2.868466e+000 -9.622101e-001 -7.964114e+000 104 49 33
-1.896517e+000 -8.711638e-001 -8.244877e+000 182 147 104
1.487463e-001 -1.332042e+000 -9.662445e+000 173 164 156
-3.676386e+000 -1.607829e+000 -8.385492e+000 74 24 19
2.119291e+000 -1.622680e+000 -9.421772e+000 189 182 170
2.876458e+000 -2.330783e+000 -1.003247e+001 191 162 115
2.463693e+000 -2.576629e+000 -9.896858e+000 84 53 30
2.556185e+000 -2.602131e+000 -1.009282e+001 135 105 67
3.513620e+000 -2.106602e+000 -8.948879e+000 187 99 85
1.113930e+000 -3.847710e+000 -1.256163e+001 199 119 59
3.729780e+000 -2.704487e+000 -9.256388e+000 200 118 62
3.530827e-001 1.846633e+000 -1.140612e+001 221 216 210
1.411165e+000 1.917377e+000 -1.029996e+001 172 168 156
-1.326346e+000 1.451070e+000 -1.312941e+001 215 211 200
-2.052424e-001 6.661559e-001 -1.022795e+001 162 155 145
1.649014e-001 2.261698e-001 -9.472263e+000 144 136 125
-1.111600e+000 -6.015833e-002 -9.340029e+000 85 37 27
7.214535e-001 -2.264340e-001 -9.616792e+000 160 155 144
2.219485e+000 5.234127e-002 -9.100655e+000 183 170 121
-3.652951e+000 -7.058957e-001 -7.890318e+000 164 103 99
-2.570206e+000 -5.421109e-001 -8.729495e+000 119 42 24
1.146307e+000 -3.970720e-001 -9.415194e+000 184 172 129
-2.297211e+000 -7.859653e-001 -8.727499e+000 168 84 47
-1.924212e+000 -9.304941e-001 -8.231093e+000 58 56 64
-4.671622e-001 -9.429673e-001 -9.003770e+000 170 163 157
-1.898000e-001 -1.107742e+000 -9.167896e+000 165 158 150
1.258504e+000 -7.725097e-001 -8.857125e+000 61 51 41
1.745060e+000 -9.824623e-001 -9.128294e+000 154 146 135
2.148353e+000 -9.328048e-001 -9.111457e+000 203 199 188
-2.038854e+000 -2.168501e+000 -9.937194e+000 67 44 40
3.535900e-001 -3.536558e+000 -1.306254e+001 218 146 98
1.715292e+000 -3.087778e+000 -1.136370e+001 196 97 76
2.212204e+000 -2.575794e+000 -1.004110e+001 201 179 126
2.612651e+000 -2.691540e+000 -1.035466e+001 136 106 68
3.593141e+000 -2.086274e+000 -8.882847e+000 175 84 82
1.025030e+000 -3.888235e+000 -1.255550e+001 222 153 109
3.380623e+000 1.990596e+000 -8.232123e+000 189 178 160
3.116297e+000 1.384567e+000 -8.243927e+000 209 193 142
4.225741e+000 1.193600e+000 -7.645228e+000 187 158 144
-9.489988e-001 -1.203341e-001 -9.567684e+000 81 56 51
-4.233069e+000 -4.931808e-001 -8.174393e+000 104 26 32
-1.232927e+000 -1.950330e-001 -8.696112e+000 105 49 40
-3.756818e+000 -6.826122e-001 -7.952821e+000 198 171 116
-1.174728e+000 -6.155414e-001 -9.203883e+000 96 66 58
-2.633495e-001 -5.230305e-001 -9.422020e+000 168 164 155
3.791919e-001 -6.139297e-001 -9.495819e+000 85 74 60
9.614403e-001 -5.047960e-001 -9.520689e+000 156 146 110
-3.760862e+000 -8.500023e-001 -7.924662e+000 74 31 22
-3.262603e+000 -8.943198e-001 -7.838677e+000 187 90 52
-3.060390e+000 -7.187205e-001 -7.933899e+000 101 39 28
1.961512e+000 -4.750609e-001 -9.148788e+000 172 167 155
2.167009e+000 -5.525906e-001 -9.085140e+000 200 193 181
-3.817959e+000 -1.220309e+000 -8.066504e+000 142 83 79
-2.952957e+000 -1.141164e+000 -8.023573e+000 106 45 34
2.014405e+000 -7.139049e-001 -9.105031e+000 206 199 191
-1.678432e+000 -1.139922e+000 -8.237696e+000 42 42 44
-1.308682e-001 -1.255670e+000 -9.297667e+000 181 179 173
2.579764e+000 -1.295819e+000 -9.123197e+000 208 201 189
2.579764e+000 -1.295819e+000 -9.123197e+000 208 201 189
1.205529e+000 -2.786331e+000 -1.159047e+001 219 86 89
1.070073e+000 -3.338520e+000 -1.219752e+001 165 74 74
3.896101e+000 2.815151e+000 -8.030816e+000 200 80 78
-4.821963e-001 2.156364e+000 -1.237620e+001 233 227 221
1.707261e+000 2.161127e+000 -1.033475e+001 234 230 219
2.124987e+000 2.331375e+000 -9.942019e+000 186 180 168
2.124987e+000 2.331375e+000 -9.942019e+000 186 180 168
-2.208153e-002 2.022501e+000 -1.203131e+001 200 195 189
-1.960292e+000 1.244015e+000 -1.474185e+001 216 206 196
1.042047e+000 1.216523e+000 -9.734357e+000 235 235 227
-2.368330e-001 9.461463e-001 -1.087328e+001 228 224 215
-1.979533e+000 8.091128e-002 -9.810584e+000 59 40 38
-2.514967e-001 2.902242e-001 -9.379897e+000 183 176 168
-2.514967e-001 2.902242e-001 -9.379897e+000 183 176 168
5.235966e-001 3.924968e-001 -9.952472e+000 160 156 145
2.532901e+000 5.200793e-001 -8.888226e+000 173 158 113
-9.894389e-001 8.036038e-002 -9.398921e+000 146 84 63
-7.361963e-001 3.537582e-002 -9.290762e+000 161 152 143
-3.909289e+000 -5.831873e-001 -7.848735e+000 155 119 67
-3.419918e+000 -6.162524e-001 -8.125749e+000 159 87 57
-9.376889e-001 -6.441416e-001 -9.344811e+000 31 21 19
-4.588587e-001 -4.271977e-001 -9.343183e+000 161 152 143
2.637475e+000 -9.785254e-002 -8.631061e+000 187 177 127
2.602864e+000 -1.849404e-001 -8.784849e+000 154 145 109
-3.771405e+000 -1.012824e+000 -7.850554e+000 69 24 26
-3.500693e+000 -1.087944e+000 -7.907202e+000 236 135 86
-3.500693e+000 -1.087944e+000 -7.907202e+000 236 135 86
-3.210438e+000 -1.046229e+000 -7.860953e+000 170 72 43
-3.221934e+000 -1.048110e+000 -7.863170e+000 170 72 43
-2.434899e+000 -1.493366e+000 -8.932935e+000 176 74 36
1.177062e+000 -2.330444e+000 -1.132230e+001 193 146 106
1.177062e+000 -2.330444e+000 -1.132230e+001 193 146 106
4.679880e+000 -1.008605e+000 -7.715872e+000 204 72 78
1.624487e+000 -3.292073e+000 -1.155157e+001 178 81 69
1.632928e+000 -3.489184e+000 -1.164222e+001 223 183 113
3.792305e+000 2.549540e+000 -7.883966e+000 122 107 78
3.477850e+000 2.100487e+000 -7.977058e+000 153 138 97
4.045121e+000 2.190480e+000 -7.292686e+000 161 143 97
-1.733473e+000 9.749134e-001 -1.438129e+001 225 220 204
2.704482e+000 1.484610e+000 -8.792400e+000 220 213 203
2.704482e+000 1.484610e+000 -8.792400e+000 220 213 203
-1.456200e+000 3.649534e-001 -1.068636e+001 250 243 239
-1.003887e+000 4.072104e-001 -9.850882e+000 205 198 190
2.502379e+000 7.329762e-001 -9.004134e+000 189 180 164
2.313375e+000 1.632941e-001 -9.323654e+000 138 124 100
-4.083160e+000 -4.551161e-001 -8.033133e+000 100 24 27
-2.848620e-001 -6.416605e-001 -9.435437e+000 152 142 132
2.845335e+000 -2.809275e-001 -8.865151e+000 190 181 164
1.164401e+000 -7.697217e-001 -9.079628e+000 69 58 42
-2.580378e+000 -1.339166e+000 -8.298388e+000 163 105 86
-1.788867e+000 -1.179883e+000 -8.276796e+000 227 194 149
-1.791324e+000 -1.180454e+000 -8.275919e+000 227 194 149
2.642927e-001 -1.845473e+000 -1.046847e+001 194 187 175
1.364437e+000 -3.247480e+000 -1.170134e+001 226 179 105
1.365552e+000 -3.241472e+000 -1.168738e+001 226 179 105
3.140917e+000 2.369676e+000 -8.685013e+000 238 230 219
-2.816904e+000 1.254154e+000 -1.547116e+001 236 98 98
3.295156e+000 6.238945e-001 -8.201812e+000 255 246 187
2.284563e+000 3.479391e-001 -9.398906e+000 167 154 136
3.620024e+000 5.189491e-001 -8.084966e+000 222 215 205
-1.278135e+000 -1.633949e-001 -8.719631e+000 113 52 36
3.887886e+000 -8.432684e-001 -8.162085e+000 209 90 88
1.914412e+000 2.443650e+000 -1.029558e+001 239 233 221
2.814757e+000 2.348351e+000 -8.866286e+000 229 225 213
1.809067e-001 1.417751e+000 -1.087145e+001 237 233 222
1.880818e-001 1.421360e+000 -1.090955e+001 237 233 222
4.351344e+000 1.172986e+000 -7.585660e+000 184 68 69
-1.577603e+000 1.269533e-002 -9.948072e+000 126 62 44
-2.458180e+000 -8.730552e-001 -8.865975e+000 88 25 16
-2.458180e+000 -8.730552e-001 -8.865975e+000 88 25 16
8.270821e-001 -6.374668e-001 -9.237483e+000 76 64 48
2.095600e+000 -8.459561e-001 -9.118049e+000 200 196 184
-1.141579e+000 -1.551154e+000 -8.491419e+000 155 143 129
-1.413741e+000 -2.173488e+000 -9.338692e+000 69 50 46
-1.184103e+000 -1.997003e+000 -8.970947e+000 197 189 178
3.818220e+000 -9.108112e-001 -7.482701e+000 129 42 46
2.499426e+000 -1.952256e+000 -9.487410e+000 231 224 214
1.805403e+000 -3.224949e+000 -1.134657e+001 227 180 108
3.764921e+000 -2.542713e+000 -9.210414e+000 211 135 80
2.691920e+000 2.248633e+000 -9.008818e+000 178 170 157
2.828746e+000 1.401027e+000 -8.293118e+000 236 227 218
-5.666027e-001 6.193544e-001 -1.043283e+001 158 151 141
1.475608e+000 6.362767e-001 -9.824568e+000 184 178 164
2.710044e+000 8.592212e-001 -8.422956e+000 161 149 99
4.295056e+000 8.642250e-001 -7.480182e+000 207 74 74
2.546054e+000 3.362005e-001 -8.763227e+000 253 250 195
-6.720990e-001 -8.820741e-001 -8.928940e+000 156 143 134
-6.979927e-002 3.465026e+000 -1.268165e+001 248 245 236
-1.749129e+000 1.712098e+000 -1.409783e+001 239 235 224
-6.469926e-001 -2.196035e-001 -9.372602e+000 165 156 147
3.211199e+000 -1.126550e-001 -8.516487e+000 236 228 213
-1.739703e+000 -9.923857e-001 -8.445482e+000 55 31 23
-1.734621e+000 -9.843224e-001 -8.413569e+000 55 31 23
1.705535e-001 -1.471156e+000 -1.002178e+001 162 157 151
1.507880e+000 -1.103565e+000 -9.006348e+000 162 154 143
2.975871e+000 -2.676392e+000 -9.510969e+000 125 70 50
4.115816e+000 1.069454e+000 -7.617951e+000 231 217 203
-1.552421e+000 -5.008143e-001 -8.861449e+000 84 36 29
3.627992e-001 -6.138625e-001 -9.275838e+000 78 69 51
3.170513e+000 6.868402e-001 -8.658195e+000 255 254 215
3.559783e+000 7.172954e-001 -8.096351e+000 122 106 90
-1.819241e+000 -1.942923e-001 -8.458036e+000 234 139 87
2.823118e+000 2.335759e-001 -8.938218e+000 254 253 199
9.958895e-001 -1.122877e+000 -9.277113e+000 231 228 221
3.889231e+000 1.791653e+000 -7.829229e+000 255 241 182
-1.574671e+000 6.968681e-001 -1.170136e+001 248 243 237
2.735335e+000 -1.321176e+000 -8.859554e+000 244 239 232
2.656651e+000 7.849931e-001 -8.643492e+000 167 153 118
