ply
format ascii 1.0
element face 0
property list uchar int vertex_indices
element vertex 864
property float x
property float y
property float z
property uchar diffuse_red
property uchar diffuse_green
property uchar diffuse_blue
end_header
-2.314820e+000 -6.703203e-001 -8.049409e+000 102 44 33
3.360965e-001 -5.716384e-001 -9.479460e+000 107 98 89
-2.385307e+000 -8.148855e-001 -8.149103e+000 87 40 28
-2.277676e+000 -8.961876e-001 -8.317637e+000 148 127 126
2.063719e-001 -7.014294e-001 -9.396651e+000 136 130 112
-2.819295e+000 -1.051899e+000 -8.008394e+000 201 103 61
-2.819295e+000 -1.051899e+000 -8.008394e+000 201 103 61
-2.796727e+000 -1.001318e+000 -7.975347e+000 219 123 80
-2.796727e+000 -1.001318e+000 -7.975347e+000 219 123 80
-2.371842e+000 -1.002825e+000 -8.290599e+000 53 42 45
2.094460e+000 -2.339473e+000 -9.769437e+000 134 115 74
2.469901e+000 -2.720747e+000 -9.993888e+000 121 78 51
3.412473e+000 1.725751e+000 -7.921312e+000 181 163 113
-2.625659e-001 5.288968e-001 -1.023864e+001 158 153 147
2.698985e+000 1.067341e+000 -8.430618e+000 186 172 125
2.459038e+000 7.249292e-001 -8.489049e+000 225 209 150
-9.982500e-001 -6.990021e-002 -8.889386e+000 104 45 37
-9.339303e-001 -1.322734e-001 -8.714872e+000 108 50 32
-2.981197e+000 -5.512253e-001 -8.005539e+000 79 47 27
-1.920816e+000 -4.769410e-001 -8.801293e+000 159 80 50
-3.354100e+000 -7.116844e-001 -8.090045e+000 220 192 129
-3.033831e+000 -5.884305e-001 -8.009872e+000 82 40 32
-1.895848e+000 -5.504814e-001 -8.537173e+000 135 60 35
1.509974e+000 -4.392096e-001 -9.309883e+000 128 119 88
-2.271700e+000 -7.979180e-001 -8.250760e+000 131 95 64
-7.958527e-001 -9.211093e-001 -8.545080e+000 111 100 86
5.793786e-002 -1.173254e+000 -9.326702e+000 179 174 168
8.541977e-001 -9.561964e-001 -9.086232e+000 228 226 222
-2.832756e+000 -1.185608e+000 -7.994416e+000 143 52 31
7.881432e-001 -2.735214e+000 -1.216260e+001 158 83 68
1.205107e+000 -2.839303e+000 -1.146985e+001 212 69 79
1.468055e+000 -2.737890e+000 -1.102947e+001 211 164 94
3.151752e+000 2.006943e+000 -8.078592e+000 230 218 204
2.669268e+000 1.112720e+000 -8.405642e+000 135 125 96
-1.211394e+000 1.738121e-001 -1.042034e+001 135 78 61
-9.441676e-001 -6.885455e-002 -9.284647e+000 126 68 54
-2.828396e+000 -5.825734e-001 -8.100092e+000 146 78 56
-2.297877e+000 -7.492419e-001 -8.301482e+000 92 33 25
-1.701638e+000 -7.648809e-001 -8.679993e+000 142 84 57
8.283960e-001 -5.803555e-001 -9.413069e+000 77 69 48
1.589173e+000 -3.051186e-001 -9.270957e+000 161 151 116
-3.077665e+000 -8.475983e-001 -7.966034e+000 71 27 28
-2.382635e+000 -8.765999e-001 -8.247492e+000 115 78 62
-5.285350e-001 -7.010410e-001 -9.020646e+000 44 36 32
-2.090265e+000 -1.402402e+000 -8.844805e+000 130 46 22
-1.305268e+000 -1.628131e+000 -8.685946e+000 235 145 94
-1.200303e+000 -1.641758e+000 -8.846174e+000 222 181 134
3.498372e+000 -9.912309e-001 -8.024250e+000 124 39 42
1.962049e-001 5.620051e-001 -1.010225e+001 148 143 137
2.445292e+000 8.583400e-001 -8.854704e+000 210 205 195
-1.526072e+000 -4.740008e-001 -8.641062e+000 182 95 51
-9.881805e-001 -3.224592e-001 -8.826920e+000 157 81 50
1.886560e+000 -1.358745e-003 -9.304796e+000 113 105 84
-3.540586e+000 -7.506286e-001 -8.231926e+000 47 37 36
-3.302479e+000 -8.635848e-001 -8.167656e+000 212 183 130
-3.012059e-001 -6.502087e-001 -9.362952e+000 64 55 40
-2.098477e+000 -1.267468e+000 -8.940421e+000 126 35 24
-1.984815e+000 -1.267110e+000 -8.685992e+000 172 74 37
2.628553e-001 -3.016251e+000 -1.210695e+001 80 65 56
1.237869e+000 -3.097706e+000 -1.159846e+001 182 81 66
5.000675e-001 1.589056e+000 -1.077310e+001 161 157 148
1.893291e+000 1.934497e+000 -9.766847e+000 173 166 157
1.893291e+000 1.934497e+000 -9.766847e+000 173 166 157
-1.016983e+000 -8.711257e-002 -8.701561e+000 166 100 65
-1.016983e+000 -8.711257e-002 -8.701561e+000 166 100 65
-9.236617e-001 -8.954959e-002 -8.775201e+000 142 84 58
-1.908639e+000 -8.616094e-001 -8.713479e+000 151 94 64
-2.167716e+000 -1.238166e+000 -8.419828e+000 162 101 85
-2.107154e+000 -1.300628e+000 -8.472319e+000 167 126 90
-5.319147e-001 -1.309721e+000 -8.911309e+000 135 124 112
1.410630e-001 -1.318265e+000 -9.579835e+000 147 139 135
3.968757e+000 -2.683765e-001 -7.604391e+000 146 54 53
1.602289e+000 2.175285e+000 -1.049656e+001 221 216 206
-6.591355e-001 8.544394e-001 -1.213642e+001 199 196 189
-6.591355e-001 8.544394e-001 -1.213642e+001 199 196 189
-3.512645e+000 -5.925686e-001 -8.168428e+000 236 211 137
1.714963e+000 -3.329881e+000 -1.100502e+001 238 184 150
3.238753e+000 2.212698e+000 -8.010402e+000 221 208 199
3.033951e+000 1.534939e+000 -8.388370e+000 145 131 97
-2.176168e+000 -1.025517e+000 -8.268638e+000 190 149 108
-1.310740e+000 -9.826756e-001 -8.289773e+000 126 38 42
-1.373095e+000 -1.442384e+000 -8.660441e+000 235 194 151
1.780418e+000 -1.327040e+000 -9.284532e+000 169 159 148
1.363720e+000 1.715221e+000 -1.030186e+001 156 152 141
-6.224477e-001 6.159201e-001 -1.127701e+001 235 232 225
1.796304e+000 -4.799839e-002 -9.351796e+000 128 116 100
-1.581331e+000 -6.444109e-001 -8.677139e+000 46 17 18
-1.581331e+000 -6.444109e-001 -8.677139e+000 46 17 18
-1.161355e+000 -1.798604e+000 -8.861516e+000 64 48 40
-4.655875e-001 1.617730e+000 -1.219006e+001 234 231 226
-1.304992e+000 -6.975423e-001 -8.577936e+000 157 134 118
1.279903e+000 1.998525e+000 -1.056997e+001 242 239 234
1.659760e+000 1.709699e+000 -9.714638e+000 158 146 137
-2.048638e+000 -9.002457e-001 -8.675051e+000 112 44 28
2.448048e+000 1.375468e-001 -8.844659e+000 255 254 206
2.114743e+000 -6.794279e-001 -9.034128e+000 220 216 207
7.860573e-001 -2.915523e+000 -1.173646e+001 202 160 136
1.499651e+000 -3.127033e+000 -1.112365e+001 196 124 75
3.530426e+000 -1.352160e+000 -8.421205e+000 194 119 64
3.368858e+000 2.469407e+000 -8.734749e+000 236 227 219
3.665294e+000 -7.809525e-001 -8.211001e+000 128 43 46
2.806184e+000 1.038153e+000 -8.225499e+000 165 151 105
3.700746e+000 3.503041e-002 -7.888201e+000 237 228 220
-9.733391e-001 -1.095443e+000 -8.358966e+000 165 155 145
2.530672e+000 2.222207e+000 -9.116264e+000 208 201 193
-6.122802e-001 4.617726e-001 -1.000890e+001 172 165 157
2.899774e+000 1.434420e+000 -8.116442e+000 202 187 135
-6.246715e-001 -2.902793e-001 -9.352081e+000 151 138 130
2.166801e+000 4.098281e-001 -9.389200e+000 202 187 169
2.240644e+000 4.251591e-001 -8.714675e+000 184 171 119
-1.271189e+000 -2.866271e-001 -8.545912e+000 161 83 54
-5.748182e-001 -5.243312e-001 -9.408908e+000 82 70 56
2.128323e+000 2.711198e-001 -8.885762e+000 211 197 148
2.135704e+000 2.655052e-001 -8.789245e+000 248 235 180
-2.565842e+000 -1.357310e+000 -8.371506e+000 141 115 115
1.016593e+000 -7.793221e-001 -9.052512e+000 149 145 134
2.303465e+000 -4.310551e-001 -8.655487e+000 159 146 133
-7.010574e-001 -1.733384e+000 -8.891175e+000 71 57 48
2.012221e+000 -2.188120e+000 -9.891343e+000 103 85 56
3.276319e+000 2.191551e+000 -7.920724e+000 205 142 136
3.054866e+000 1.822473e+000 -7.984719e+000 178 162 117
-1.232187e+000 1.631344e-001 -1.010326e+001 154 91 74
9.605942e-001 6.990755e-001 -9.780987e+000 155 151 142
2.137871e+000 2.592613e-001 -8.861155e+000 203 187 137
2.244837e+000 3.676979e-001 -8.744346e+000 249 238 184
-3.251007e+000 -7.566155e-001 -8.089896e+000 151 124 77
-1.884351e+000 -6.924751e-001 -8.701497e+000 155 61 32
1.885640e+000 -1.081933e-001 -9.155358e+000 192 180 130
2.683906e+000 3.411097e-001 -8.236135e+000 193 177 123
-2.428963e+000 -9.350813e-001 -8.111980e+000 123 78 63
3.550129e-001 -6.501412e-001 -9.381114e+000 107 96 73
2.096083e+000 -4.520543e-001 -9.177402e+000 169 162 144
1.303259e+000 -3.463492e+000 -1.165166e+001 212 150 109
3.072977e+000 -1.927485e+000 -9.066467e+000 204 161 116
3.021481e+000 -2.737960e+000 -9.548417e+000 149 99 65
-2.086361e-001 9.733399e-001 -1.089035e+001 231 228 221
-6.458524e-001 4.463662e-001 -1.000569e+001 199 195 186
2.407042e+000 5.887799e-001 -8.494279e+000 185 168 115
-1.606286e+000 -4.869243e-001 -8.664779e+000 154 68 41
-1.380932e+000 -6.922806e-001 -8.478893e+000 154 131 117
-9.908504e-001 -6.181247e-001 -8.908103e+000 146 124 113
-2.849681e+000 -1.017956e+000 -8.003887e+000 232 134 87
1.883780e+000 -3.818980e-001 -9.203353e+000 161 149 108
-2.886530e+000 -1.267670e+000 -8.112025e+000 205 111 78
2.756238e-001 -1.109734e+000 -9.330480e+000 183 178 172
4.292659e+000 -4.420655e-002 -7.724307e+000 180 83 77
1.756865e+000 -3.266995e+000 -1.097925e+001 234 191 155
6.868202e+000 -3.099106e+000 -1.222279e+001 195 187 188
3.146693e+000 -2.548890e+000 -9.499037e+000 155 91 50
3.146693e+000 -2.548890e+000 -9.499037e+000 155 91 50
-2.005771e-001 2.210773e+000 -1.234563e+001 201 194 184
4.956310e-001 1.360284e+000 -1.057095e+001 174 171 164
-5.113756e-001 7.307166e-001 -1.155817e+001 222 218 215
2.930969e+000 1.602262e+000 -8.161642e+000 220 209 193
-1.357000e+000 1.850011e-001 -1.034726e+001 230 228 218
-3.406178e+000 -7.539206e-001 -8.130986e+000 105 80 47
-3.406178e+000 -7.539206e-001 -8.130986e+000 105 80 47
-2.513237e+000 -5.092414e-001 -8.402829e+000 151 69 39
2.228508e+000 4.095765e-001 -8.696997e+000 193 180 128
-5.925406e-001 -6.927827e-001 -9.400949e+000 82 68 53
3.828435e-001 -5.415497e-001 -9.470603e+000 118 109 99
1.162086e+000 -7.857965e-001 -9.036511e+000 71 61 51
2.968911e+000 -6.816862e-001 -8.582276e+000 151 131 117
8.880328e-001 -2.318845e+000 -1.100646e+001 190 77 64
2.108193e+000 1.612073e+000 -8.887013e+000 216 211 203
-9.288489e-001 2.570499e-001 -9.872040e+000 99 58 46
-1.275186e+000 -3.997210e-002 -8.935334e+000 151 81 56
-1.910013e+000 -3.530994e-001 -8.774986e+000 134 53 31
-1.910013e+000 -3.530994e-001 -8.774986e+000 134 53 31
-2.940817e+000 -5.339990e-001 -8.016356e+000 60 31 18
-1.782587e+000 -6.024676e-001 -8.704990e+000 132 50 27
-3.172168e+000 -7.685093e-001 -8.087236e+000 82 38 31
-2.826753e+000 -7.103896e-001 -8.051157e+000 121 59 43
-2.336850e+000 -6.489378e-001 -7.974628e+000 68 27 27
-6.434502e-001 -6.239212e-001 -9.255553e+000 74 62 48
5.590377e-001 -4.192473e-001 -9.529574e+000 153 149 142
3.279525e-001 -2.769907e+000 -1.221087e+001 199 125 71
6.975926e-001 -2.574276e+000 -1.202946e+001 157 99 86
3.090131e+000 1.832670e+000 -7.950818e+000 200 180 130
-4.065415e-001 6.510460e-001 -1.093263e+001 206 200 186
2.577036e-001 9.759366e-001 -1.034296e+001 222 218 211
2.860239e+000 1.408788e+000 -8.055768e+000 199 180 128
-3.147832e+000 -5.722998e-001 -8.049567e+000 64 41 27
-3.086371e+000 -5.710657e-001 -8.028082e+000 186 160 101
-3.349874e+000 -9.643097e-001 -8.212755e+000 184 160 104
-3.522554e-002 -4.364883e-001 -9.300943e+000 162 157 151
2.026424e+000 -2.007531e-001 -9.096670e+000 205 192 141
3.076591e+000 4.528158e-001 -8.169714e+000 175 163 154
-3.141072e+000 -9.508342e-001 -8.063517e+000 139 83 81
-2.950078e+000 -1.005614e+000 -8.029248e+000 233 131 84
2.151715e+000 1.943444e+000 -9.202981e+000 206 197 188
1.289993e+000 -2.109625e-001 -9.521349e+000 178 177 170
-4.990816e-001 -9.070624e-001 -8.868773e+000 159 151 144
2.642821e+000 -2.821435e+000 -9.984303e+000 130 77 43
3.070340e+000 -2.668128e+000 -9.570530e+000 221 171 148
2.938349e+000 1.529293e+000 -8.202840e+000 140 126 94
-3.051719e+000 -8.724814e-001 -8.024534e+000 79 31 29
-1.321788e+000 -1.385028e+000 -8.807376e+000 197 83 66
8.539121e-001 1.134927e+000 -9.714925e+000 183 179 168
8.539121e-001 1.134927e+000 -9.714925e+000 183 179 168
2.822845e-003 6.799606e-001 -1.029451e+001 160 156 147
7.180130e-001 -2.134061e+000 -1.104889e+001 236 203 159
4.538361e+000 -1.015647e+000 -7.779831e+000 200 81 83
-7.671875e-001 4.269645e-001 -1.038462e+001 192 189 179
2.366956e+000 -2.584722e+000 -9.746323e+000 122 82 53
2.804936e+000 -1.675153e-001 -8.564760e+000 233 226 216
3.655983e+000 1.316471e+000 -7.848649e+000 137 45 50
1.469215e+000 -3.078225e+000 -1.138495e+001 211 158 82
1.541860e+000 -2.956172e+000 -1.128670e+001 207 144 80
3.507498e+000 -1.045942e+000 -8.715252e+000 164 115 99
3.498358e+000 -1.183292e+000 -8.769001e+000 148 91 58
-2.316056e+000 -1.049017e+000 -8.289767e+000 178 153 141
3.521995e+000 -1.090042e+000 -8.659774e+000 157 88 52
3.534207e+000 -1.063963e+000 -8.665495e+000 177 143 128
2.988698e+000 -2.194255e+000 -9.390240e+000 205 106 89
-3.236067e+000 -7.534570e-001 -8.056764e+000 166 136 81
-2.634059e+000 -7.523508e-001 -7.979214e+000 182 93 59
-2.135941e+000 -1.813992e+000 -9.897243e+000 113 53 36
-3.225588e+000 -3.825462e-001 -8.052184e+000 131 100 64
-3.115483e+000 -1.477277e+000 -8.464363e+000 76 28 26
-2.351080e+000 -1.635912e+000 -9.347393e+000 182 72 19
2.538524e+000 1.010402e+000 -8.360894e+000 146 131 102
3.080197e+000 4.074985e-001 -8.282632e+000 140 126 113
-3.284000e+000 -4.005272e-001 -8.018244e+000 236 208 145
3.222542e+000 -1.621304e+000 -8.815330e+000 137 94 80
3.069126e-001 -2.680886e+000 -1.233138e+001 155 120 103
2.826805e-001 -1.099007e+000 -9.326821e+000 183 179 171
1.144394e+000 -2.158533e+000 -1.111304e+001 204 137 121
1.145082e+000 -2.157352e+000 -1.111076e+001 204 137 121
-3.550651e+000 -8.026131e-001 -8.250337e+000 219 191 106
8.008261e-001 -2.984427e+000 -1.220478e+001 209 158 137
1.815953e+000 -7.776980e-001 -9.093857e+000 177 169 158
8.061195e-001 -2.397522e+000 -1.151455e+001 230 179 138
8.061195e-001 -2.397522e+000 -1.151455e+001 230 179 138
-8.812287e-001 1.713156e-001 -9.784883e+000 139 117 107
3.535282e+000 -1.104308e+000 -8.733482e+000 169 129 110
3.535282e+000 -1.104308e+000 -8.733482e+000 169 129 110
3.610637e+000 -1.144231e+000 -8.612399e+000 196 140 124
3.611809e+000 -1.168707e+000 -8.558909e+000 212 159 145
3.623263e+000 -1.224860e+000 -8.591870e+000 213 161 126
-8.497793e-002 -1.408441e-001 -9.356267e+000 176 169 163
-6.577726e-001 -6.369467e-001 -9.259716e+000 78 67 49
3.439864e+000 1.847293e-001 -8.083215e+000 201 191 181
-1.441191e+000 -8.238800e-001 -8.371577e+000 111 82 70
2.675032e+000 -1.859127e+000 -9.261097e+000 215 210 206
3.106847e+000 -2.142412e+000 -9.353730e+000 203 116 89
-2.927759e-001 4.944544e-001 -1.011850e+001 176 171 165
-8.327035e-001 1.497404e-001 -9.489029e+000 145 124 116
4.061246e+000 1.168447e-001 -7.478554e+000 177 57 65
2.909098e+000 -5.957685e-001 -8.486588e+000 149 132 120
3.098757e+000 -6.376365e-001 -8.068300e+000 136 56 59
1.764592e+000 1.098279e+000 -9.109970e+000 194 191 185
1.133804e+000 -3.735900e-001 -9.348517e+000 186 176 138
4.048781e-001 1.679847e+000 -1.144242e+001 214 211 206
-6.878421e-001 -1.028653e-002 -9.483998e+000 145 130 124
1.562005e+000 2.039227e-001 -9.682330e+000 180 175 163
2.483842e+000 -2.521737e+000 -1.014497e+001 120 61 50
2.525827e+000 -2.444828e+000 -1.003543e+001 146 108 70
3.746423e+000 1.184573e+000 -7.840430e+000 184 70 70
-2.263261e+000 -6.750331e-001 -8.502767e+000 140 68 44
1.714853e+000 -1.021044e+000 -9.147878e+000 197 194 186
-9.449740e-001 -9.788222e-001 -8.393587e+000 142 133 121
1.945439e+000 -2.422716e+000 -9.721005e+000 116 97 64
3.661700e+000 8.061924e-001 -7.818864e+000 221 211 199
2.953361e+000 1.569599e+000 -8.297527e+000 172 160 139
3.676619e+000 1.342465e+000 -7.921877e+000 141 82 77
1.871250e+000 1.315113e+000 -9.166993e+000 190 183 175
3.144917e+000 6.976797e-001 -8.177407e+000 109 93 74
2.436024e+000 6.951625e-001 -8.517925e+000 223 209 148
2.404515e+000 3.789998e-001 -8.632694e+000 217 201 142
2.334464e+000 2.127268e-002 -8.774919e+000 221 205 146
2.534760e+000 9.067074e-002 -8.589241e+000 240 222 159
2.546434e+000 5.532792e-002 -8.520806e+000 163 145 96
-7.250363e-001 2.524899e-001 -9.640577e+000 208 197 185
1.844626e+000 -2.205206e-003 -9.281019e+000 133 123 94
1.844626e+000 -2.205206e-003 -9.281019e+000 133 123 94
2.165081e+000 -4.773150e-002 -9.053254e+000 173 157 105
1.916341e+000 -4.373714e-001 -9.231098e+000 189 181 170
3.994584e+000 -9.702051e-001 -8.507065e+000 183 117 92
3.508615e+000 -1.194612e+000 -8.963496e+000 144 98 82
3.589782e+000 -1.190338e+000 -8.749148e+000 199 124 85
7.111829e-001 -1.622452e+000 -1.044481e+001 212 171 133
4.576189e-001 -1.751779e+000 -1.073928e+001 170 128 95
2.205928e-001 -1.983289e+000 -1.101962e+001 237 228 213
2.053676e+000 -2.081822e+000 -9.923436e+000 201 64 62
3.137778e+000 -2.086665e+000 -9.196447e+000 201 120 75
-1.275403e+000 -1.860688e+000 -9.386137e+000 200 82 65
-1.202144e+000 -1.853058e+000 -9.346927e+000 212 73 72
3.237175e+000 -2.357466e+000 -9.326825e+000 244 216 182
8.304567e-001 -2.646701e+000 -1.199839e+001 184 137 135
8.304567e-001 -2.646701e+000 -1.199839e+001 184 137 135
2.375824e+000 1.965731e+000 -9.103374e+000 219 211 200
3.741901e+000 9.309888e-001 -7.832855e+000 199 148 137
2.755006e+000 1.146406e+000 -8.258519e+000 193 176 130
2.957921e+000 9.430468e-001 -8.036969e+000 183 165 116
2.924132e+000 5.621789e-001 -7.982202e+000 148 135 118
2.172021e+000 3.050076e-001 -8.945120e+000 174 162 113
2.604500e+000 1.406645e-001 -8.438122e+000 182 166 107
2.197333e+000 2.512073e-001 -8.862709e+000 232 216 160
2.092489e+000 -1.934557e-002 -9.036258e+000 227 214 160
-4.787143e-001 -4.390592e-001 -9.375468e+000 141 127 100
-3.333058e+000 -6.148609e-001 -8.020348e+000 141 105 58
-2.637202e+000 -1.311859e+000 -8.316389e+000 126 73 58
3.731380e-001 -1.643800e+000 -1.030582e+001 146 126 107
3.335476e+000 -1.773302e+000 -8.969369e+000 156 101 66
3.271924e+000 -1.873979e+000 -9.017444e+000 186 109 77
-2.638483e+000 -1.543247e+000 -8.547074e+000 46 21 16
1.974273e+000 -1.854116e+000 -9.931817e+000 181 84 82
3.114853e+000 -1.961213e+000 -9.373184e+000 196 137 104
3.137826e+000 -1.985242e+000 -9.404965e+000 231 181 127
-1.147160e+000 -1.803027e+000 -9.201145e+000 184 88 67
1.997695e+000 -2.219027e+000 -9.866167e+000 182 160 106
3.061207e+000 -2.352172e+000 -9.230405e+000 255 243 220
3.254170e+000 -2.398705e+000 -9.500623e+000 248 228 204
3.272348e+000 -2.310643e+000 -9.322699e+000 248 228 203
8.611382e-001 -2.723948e+000 -1.213443e+001 195 172 167
8.611382e-001 -2.723948e+000 -1.213443e+001 195 172 167
8.967521e-001 -2.752594e+000 -1.209385e+001 207 191 180
9.994708e-001 -2.764285e+000 -1.187833e+001 214 175 173
2.984858e+000 -2.409766e+000 -9.247010e+000 250 228 207
8.924124e-001 -2.828559e+000 -1.208933e+001 216 158 92
1.017127e+000 -2.782110e+000 -1.177219e+001 140 94 91
1.020092e+000 -2.815246e+000 -1.172684e+001 208 187 183
1.498658e+000 -3.075067e+000 -1.094793e+001 206 135 89
1.508266e+000 -3.171621e+000 -1.128461e+001 185 117 86
1.583106e+000 -3.140931e+000 -1.110255e+001 226 163 98
2.661964e+000 1.076445e+000 -8.282396e+000 189 175 131
1.203552e+000 1.453351e+000 -9.894252e+000 185 183 171
2.466826e+000 8.503000e-001 -8.405737e+000 215 197 136
2.430954e+000 6.396027e-001 -8.503457e+000 201 184 127
2.978247e+000 5.700897e-001 -8.050713e+000 94 80 54
3.039166e+000 6.332297e-001 -8.072253e+000 99 83 57
1.522640e-002 4.566741e-001 -9.831305e+000 170 163 153
2.363841e+000 1.578936e-002 -8.692048e+000 220 204 142
-6.897378e-001 2.931303e-001 -9.706359e+000 207 200 194
-7.498051e-001 -7.730912e-002 -9.398008e+000 105 82 73
-7.498051e-001 -7.730912e-002 -9.398008e+000 105 82 73
1.649151e+000 -1.522218e-001 -9.232933e+000 169 157 123
-9.093239e-001 -1.767640e-001 -8.762583e+000 133 78 63
-2.899233e+000 -5.186309e-001 -7.936843e+000 136 100 74
-2.429300e+000 -1.002899e+000 -8.253289e+000 132 96 75
-1.929036e+000 -1.543060e+000 -9.270914e+000 185 78 37
-1.937480e-001 -1.773253e+000 -1.059002e+001 204 200 196
1.073559e+000 -1.864116e+000 -1.105506e+001 171 108 82
3.404292e+000 -2.131024e+000 -9.002123e+000 194 123 67
2.221403e+000 -2.335324e+000 -9.803409e+000 84 53 32
2.483459e+000 -2.420454e+000 -1.025459e+001 110 55 29
3.368948e+000 -2.191065e+000 -9.063423e+000 196 128 71
-2.590057e-001 -2.616098e+000 -1.312441e+001 220 157 108
-2.949509e-001 -2.736192e+000 -1.331512e+001 216 137 82
3.178628e+000 -2.423599e+000 -9.510451e+000 253 215 185
1.393539e+000 -3.142616e+000 -1.146907e+001 193 112 67
3.892237e+000 9.412099e-001 -7.158950e+000 150 44 50
1.992358e-001 6.854148e-001 -1.021495e+001 222 218 207
-1.033349e+000 3.032004e-001 -1.006836e+001 232 228 217
1.878673e+000 9.764350e-002 -9.383263e+000 159 149 132
-2.341621e+000 -6.377275e-001 -8.102610e+000 142 74 54
-6.176366e-001 -6.134987e-001 -9.335720e+000 65 54 35
-2.978936e+000 -7.592102e-001 -7.922260e+000 103 54 49
-1.415230e+000 -8.477373e-001 -8.346912e+000 148 101 79
2.110986e-001 -1.050518e+000 -9.271017e+000 176 169 161
-2.765974e+000 -1.067838e+000 -8.033548e+000 212 120 75
-2.815734e+000 -1.138242e+000 -8.083307e+000 174 88 62
4.648630e-001 -1.711802e+000 -1.044082e+001 166 124 89
-2.393865e+000 -1.652777e+000 -9.505024e+000 194 69 32
2.001594e+000 -1.912682e+000 -1.005552e+001 203 77 78
2.491602e+000 -2.066894e+000 -1.011541e+001 146 86 50
3.105377e+000 -1.915306e+000 -9.157631e+000 220 177 128
-1.061413e+000 -1.840357e+000 -9.321701e+000 190 57 54
3.162157e+000 -2.515100e+000 -9.634762e+000 162 94 57
2.898650e+000 -2.785822e+000 -9.649313e+000 163 100 63
1.593831e+000 -3.201533e+000 -1.118860e+001 209 126 65
1.612487e+000 1.827331e+000 -9.700468e+000 180 173 155
-8.442485e-001 2.466009e-001 -9.730160e+000 203 196 188
2.037345e+000 2.291902e-002 -8.855864e+000 191 176 125
-9.398343e-001 2.405292e-001 -9.842502e+000 113 65 54
-1.108706e+000 -3.169537e-001 -8.893065e+000 110 43 32
-2.889211e+000 -5.797491e-001 -8.086933e+000 80 28 28
-2.337485e+000 -6.863248e-001 -8.105583e+000 74 32 30
-2.105484e+000 -7.166575e-001 -8.597073e+000 102 28 17
-1.465173e+000 -6.954903e-001 -8.502436e+000 193 71 55
-1.515328e+000 -7.839182e-001 -8.402122e+000 158 113 89
-1.431765e+000 -7.689744e-001 -8.463336e+000 213 74 67
-3.882723e-001 -7.718869e-001 -9.048238e+000 72 59 40
-2.279702e+000 -7.663349e-001 -8.340359e+000 98 39 25
5.356689e-002 -1.147422e+000 -9.399273e+000 181 176 167
-1.415559e+000 -1.160100e+000 -8.417933e+000 200 148 108
-2.940158e+000 -1.208095e+000 -8.099195e+000 176 68 38
-1.217847e+000 -1.634544e+000 -8.742685e+000 247 211 161
4.117610e-001 -1.847313e+000 -1.091129e+001 223 200 192
3.376877e+000 -2.090081e+000 -8.996030e+000 249 198 161
-2.499953e+000 -1.758564e+000 -9.754517e+000 220 132 76
-1.129595e+000 -1.757851e+000 -9.052542e+000 230 191 149
-1.129595e+000 -1.757851e+000 -9.052542e+000 230 191 149
7.471408e-001 -2.568339e+000 -1.202662e+001 190 72 74
3.606817e+000 6.749624e-001 -7.757374e+000 209 189 175
-1.225916e-001 6.948447e-001 -1.014919e+001 232 229 220
3.282500e+000 -1.005421e+000 -8.579605e+000 146 54 55
-6.817638e-001 -6.909317e-001 -9.233716e+000 36 28 25
-3.443202e+000 -7.520152e-001 -8.150777e+000 119 31 37
-1.959084e+000 -8.840300e-001 -8.781383e+000 157 102 74
-2.151871e+000 -1.135538e+000 -8.968095e+000 139 80 48
-3.558651e-002 -1.340653e+000 -9.718052e+000 157 153 150
-3.005304e+000 -1.128802e+000 -8.119532e+000 226 117 73
-1.784883e+000 -1.313215e+000 -8.975996e+000 216 149 113
2.527749e-002 -1.428317e+000 -1.009347e+001 108 95 84
2.131100e-001 -1.555225e+000 -1.029173e+001 151 122 107
1.197202e+000 -1.785725e+000 -1.093353e+001 160 113 80
1.874915e+000 -1.859237e+000 -9.799059e+000 81 41 38
-1.126280e+000 -1.890917e+000 -9.366411e+000 172 152 141
5.580214e-001 -2.144504e+000 -1.159838e+001 248 210 158
6.953955e-001 -2.301697e+000 -1.158657e+001 243 207 156
-4.016375e-001 -2.611886e+000 -1.355421e+001 240 168 115
9.089271e-001 -2.536895e+000 -1.144726e+001 222 177 136
1.360870e+000 -2.820686e+000 -1.138664e+001 227 184 117
1.354408e+000 -2.817004e+000 -1.136256e+001 227 184 117
1.524702e+000 -3.079662e+000 -1.138839e+001 225 186 111
1.428981e+000 -3.131694e+000 -1.124952e+001 231 186 117
2.348353e+000 1.796561e+000 -8.818475e+000 161 153 142
2.348353e+000 1.796561e+000 -8.818475e+000 161 153 142
1.221044e+000 1.575281e+000 -1.012670e+001 182 179 164
3.624289e-001 1.189525e+000 -1.028405e+001 196 189 179
1.761780e+000 -5.872422e-001 -9.092574e+000 171 162 152
2.006241e+000 -3.913285e-001 -9.136425e+000 149 136 91
-2.652786e+000 -8.285319e-001 -7.989087e+000 141 61 36
-1.585668e+000 -8.141790e-001 -8.375156e+000 191 152 110
-1.334114e+000 -1.243038e+000 -8.636630e+000 215 158 114
8.619178e-001 -1.776043e+000 -1.100249e+001 140 48 42
-1.912608e+000 -1.635378e+000 -9.527114e+000 159 66 43
1.168060e-002 -1.704359e+000 -1.049865e+001 174 166 154
4.914327e-001 -2.012085e+000 -1.135633e+001 148 49 47
3.223281e+000 -2.071424e+000 -8.968218e+000 253 250 247
3.223281e+000 -2.071424e+000 -8.968218e+000 253 250 247
-1.150050e+000 -1.741423e+000 -9.045092e+000 233 197 150
9.906030e-001 -2.622050e+000 -1.147026e+001 214 71 69
1.093546e+000 -3.075149e+000 -1.194140e+001 178 87 85
1.929215e+000 1.798726e+000 -9.243901e+000 232 226 215
1.264388e+000 1.384211e+000 -9.800016e+000 239 236 228
1.580208e-001 9.381288e-001 -1.045083e+001 177 168 159
1.580208e-001 9.381288e-001 -1.045083e+001 177 168 159
1.786622e+000 3.946794e-002 -9.404965e+000 142 132 113
3.966795e+000 -9.113923e-001 -8.111745e+000 172 58 60
-3.014814e+000 -5.464109e-001 -7.968770e+000 198 168 112
-2.367536e+000 -6.245183e-001 -8.059073e+000 74 31 27
-2.158195e+000 -1.279277e+000 -9.098982e+000 111 31 19
-2.108374e+000 -1.295764e+000 -8.505267e+000 172 125 84
3.585563e-001 -1.572472e+000 -1.005326e+001 196 188 183
1.013169e+000 -1.784600e+000 -1.074930e+001 212 169 127
-2.213089e+000 -1.432898e+000 -8.643824e+000 149 53 22
-2.097745e+000 -1.629566e+000 -9.519103e+000 143 43 21
-1.494794e+000 -1.479937e+000 -8.911865e+000 222 169 123
2.116548e+000 -2.083149e+000 -9.858398e+000 220 86 84
9.576018e-001 -2.815629e+000 -1.204337e+001 216 198 154
2.044166e+000 1.899514e+000 -9.265603e+000 188 177 167
3.795813e+000 9.424201e-001 -7.821845e+000 190 71 73
1.170355e+000 1.834602e+000 -1.043978e+001 243 241 232
3.629529e+000 5.577118e-001 -7.671100e+000 233 222 210
1.047148e+000 1.214284e+000 -9.806675e+000 239 236 227
2.459052e+000 7.136672e-001 -8.339750e+000 254 248 188
2.370229e+000 7.051113e-001 -9.021731e+000 233 231 216
-7.314167e-001 1.572508e-001 -9.504927e+000 138 79 62
-1.596420e+000 -6.960595e-001 -8.591403e+000 61 20 21
-3.421388e-001 -8.505525e-001 -9.070100e+000 154 145 136
-2.690342e+000 -1.505362e+000 -8.462306e+000 170 89 63
-1.907578e+000 -1.557749e+000 -9.109727e+000 215 113 69
-1.329097e+000 -1.472054e+000 -8.662989e+000 245 204 154
3.862490e+000 1.349696e+000 -7.789498e+000 207 74 77
3.817756e+000 9.521468e-001 -7.850558e+000 183 64 66
2.434247e+000 6.785544e-001 -8.253508e+000 254 246 183
3.197982e+000 -7.128880e-001 -8.488831e+000 109 44 49
-2.301114e+000 -7.157632e-001 -8.246446e+000 87 34 26
3.438475e+000 -1.093491e+000 -8.856561e+000 90 47 39
-3.498292e+000 -8.620273e-001 -8.233823e+000 244 215 143
-1.875487e+000 -1.088237e+000 -8.693965e+000 128 53 34
-1.846930e+000 -1.459617e+000 -9.327376e+000 90 24 21
-9.057165e-001 -1.796780e+000 -8.896896e+000 185 178 168
3.216920e+000 1.274518e+000 -8.112585e+000 169 152 103
1.127786e+000 1.578134e+000 -1.023705e+001 191 183 170
1.127786e+000 1.578134e+000 -1.023705e+001 191 183 170
2.763121e+000 6.473636e-001 -8.322233e+000 187 172 117
-5.203681e-001 1.371226e-001 -9.471333e+000 206 202 199
3.504923e+000 -1.856717e+000 -8.974143e+000 253 255 252
3.504923e+000 -1.856717e+000 -8.974143e+000 253 255 252
-1.969138e+000 -1.669644e+000 -9.481323e+000 207 99 50
2.443524e+000 1.133453e+000 -8.433286e+000 240 233 224
2.355753e+000 4.736042e-001 -8.883060e+000 156 142 99
-3.522602e-001 -6.713657e-001 -9.126677e+000 69 57 39
2.662596e+000 -2.149961e+000 -9.756818e+000 223 198 144
1.349021e+000 2.020564e+000 -1.057707e+001 242 239 230
9.775859e-001 -9.152647e-001 -8.942106e+000 231 231 223
2.976800e+000 -1.653431e+000 -8.782164e+000 222 217 209
2.776806e+000 -2.203429e+000 -9.670113e+000 226 201 147
2.783865e+000 -2.552073e+000 -9.855652e+000 119 60 42
1.631535e+000 2.131797e+000 -9.637818e+000 242 235 225
3.130669e+000 5.722985e-001 -8.358672e+000 103 84 70
2.783557e+000 5.284618e-001 -8.858717e+000 255 255 199
1.670781e+000 -3.329403e-001 -9.109556e+000 97 87 61
1.670781e+000 -3.329403e-001 -9.109556e+000 97 87 61
1.851777e+000 -2.789345e+000 -9.761742e+000 101 78 46
-6.750901e-001 7.574076e-001 -1.033518e+001 224 221 214
3.621320e+000 1.594338e-001 -7.863040e+000 242 231 223
2.282437e+000 -1.255570e+000 -8.660522e+000 240 236 227
-8.171183e-001 1.649408e+000 -1.265012e+001 225 220 214
2.527549e+000 2.221122e+000 -9.113646e+000 208 201 193
1.067485e+000 2.665010e-001 -9.616327e+000 177 173 162
-3.204597e+000 -6.197963e-001 -8.054482e+000 173 144 94
-3.086942e+000 -6.068864e-001 -8.063772e+000 136 107 71
-2.924993e+000 -5.008351e-001 -8.048357e+000 118 61 35
2.098472e+000 1.908218e-001 -8.851625e+000 155 140 97
-3.234743e+000 -7.640400e-001 -8.107970e+000 199 172 119
-3.067719e+000 -7.975631e-001 -7.985552e+000 125 74 70
-2.396088e+000 -6.494306e-001 -7.981112e+000 104 49 46
-2.749301e-001 -6.234346e-001 -9.358511e+000 90 78 62
-2.389959e-001 -6.398535e-001 -9.310379e+000 136 127 118
9.648964e-001 -4.271424e-001 -9.360209e+000 179 169 133
-7.977227e-002 -1.074865e+000 -9.180344e+000 164 159 153
1.699956e+000 -3.418103e+000 -1.114372e+001 222 163 132
1.768506e+000 -2.662957e+000 -9.899374e+000 129 108 76
-5.512751e-001 4.370917e-001 -9.859013e+000 191 186 178
-3.423700e+000 -5.479591e-001 -8.084738e+000 229 200 130
-1.954344e+000 -7.186100e-001 -8.697822e+000 136 50 24
-2.341720e+000 -1.016123e+000 -8.307645e+000 54 42 45
-2.274083e+000 -1.052053e+000 -8.328278e+000 186 151 122
-6.471205e-001 4.476655e-001 -1.000053e+001 199 195 186
-2.390945e+000 -8.775786e-001 -8.227320e+000 128 91 66
-6.274897e-001 1.642934e+000 -1.238137e+001 213 210 205
-7.530479e-001 -9.205216e-002 -9.374417e+000 100 76 72
-1.246008e+000 -8.735095e-001 -8.239833e+000 146 137 122
-1.350412e+000 3.262202e-001 -1.037391e+001 184 97 76
-2.723165e+000 -1.372365e+000 -8.256227e+000 112 45 28
3.564255e+000 -1.203949e+000 -8.725016e+000 173 104 63
2.994847e+000 -2.496111e+000 -9.459991e+000 136 77 47
-1.332623e+000 1.580737e+000 -1.330937e+001 245 240 235
8.141581e-001 -9.308705e-001 -9.150674e+000 194 190 181
-2.080826e+000 -3.363493e-001 -9.005065e+000 140 53 32
2.391499e+000 6.504217e-001 -8.544079e+000 158 144 98
1.509971e+000 1.753935e+000 -9.961592e+000 195 191 182
2.692907e+000 2.025213e+000 -8.777467e+000 203 199 192
8.861352e-002 7.223981e-001 -1.036036e+001 184 178 173
-9.183745e-001 2.168716e-001 -9.819101e+000 119 76 64
-6.836275e-001 1.633831e-001 -9.569515e+000 136 103 94
-3.319908e+000 -6.586825e-001 -8.112024e+000 202 172 121
3.190321e+000 1.057319e+000 -7.760462e+000 215 196 138
2.187404e+000 4.136912e-001 -8.696887e+000 206 190 140
-2.264486e+000 -9.147977e-001 -8.282320e+000 75 62 62
-5.031674e-001 -7.297716e-001 -9.395751e+000 57 45 32
1.744754e+000 -1.602407e-001 -9.172392e+000 164 156 119
1.972338e+000 -1.348535e-001 -8.942796e+000 195 181 133
2.766162e+000 4.699618e-001 -8.008132e+000 209 194 134
2.923393e+000 5.517032e-001 -7.979912e+000 167 155 134
2.907311e+000 5.224171e-001 -7.976692e+000 127 115 91
-3.175641e+000 -1.311131e+000 -8.289312e+000 71 27 17
-1.886383e+000 -1.200068e+000 -8.937774e+000 188 126 90
1.814616e+000 -3.488551e-001 -9.103368e+000 164 152 114
2.042349e+000 -4.476959e-001 -8.980644e+000 219 215 205
2.149595e+000 -4.063300e-001 -8.870967e+000 174 165 143
1.159821e+000 -3.527752e+000 -1.197826e+001 221 162 126
3.500232e+000 -1.010496e+000 -8.625364e+000 156 86 70
1.298628e+000 -3.306490e+000 -1.130581e+001 222 161 126
5.725429e-002 7.579691e-001 -1.039287e+001 214 211 204
9.987437e-002 8.629562e-001 -1.041677e+001 186 179 169
3.058468e+000 1.777916e+000 -7.950820e+000 207 190 137
3.242478e+000 1.442272e+000 -7.633250e+000 249 242 205
-1.060303e+000 -1.138605e-001 -9.204319e+000 100 40 32
3.634797e+000 1.270011e+000 -7.772903e+000 176 106 98
-2.299267e+000 -7.733429e-001 -8.269166e+000 99 46 33
-6.683639e-001 -7.108155e-001 -9.091071e+000 119 108 102
1.397828e+000 -2.400055e-001 -9.259731e+000 203 193 157
2.389936e+000 -5.554744e-002 -8.483003e+000 164 152 102
2.503045e+000 -2.398862e-002 -8.510605e+000 169 154 111
-2.604165e+000 -1.372001e+000 -8.344906e+000 105 43 26
-1.891949e+000 -1.464305e+000 -8.955667e+000 164 74 41
2.350748e+000 -1.858584e-001 -8.626554e+000 99 91 67
2.277627e+000 -4.250038e-001 -8.553756e+000 171 161 148
1.149920e+000 -3.441920e+000 -1.189233e+001 252 198 164
1.693121e+000 -3.321823e+000 -1.108797e+001 214 147 105
3.566261e+000 -1.225788e+000 -8.553978e+000 197 119 69
2.611855e+000 -2.685788e+000 -1.011792e+001 150 114 66
-5.911530e-001 1.854435e+000 -1.240374e+001 206 200 194
1.019118e+000 1.889404e+000 -1.133927e+001 216 210 196
3.296393e+000 1.681035e+000 -7.693922e+000 244 223 168
-3.246482e+000 -3.562355e-001 -8.073415e+000 130 105 65
-9.190870e-001 -9.583285e-002 -9.040979e+000 125 68 53
-1.283423e+000 -1.906012e-001 -8.489120e+000 206 106 58
2.367888e+000 6.689647e-001 -8.485899e+000 147 134 91
-9.593622e-001 -3.781668e-001 -8.903770e+000 44 22 22
-9.620534e-001 -5.512223e-001 -9.299068e+000 91 73 65
1.596913e+000 -1.524282e-001 -9.121861e+000 114 103 74
2.726162e+000 3.582007e-001 -8.172399e+000 163 151 102
2.853545e+000 5.441612e-001 -7.980787e+000 163 148 124
-1.375665e+000 -9.791185e-001 -8.313217e+000 68 43 43
-1.375665e+000 -9.791185e-001 -8.313217e+000 68 43 43
1.086402e+000 -7.488074e-001 -8.921033e+000 165 152 143
-5.557216e-001 -1.248919e+000 -8.772614e+000 180 170 160
3.952354e+000 -2.053633e-001 -7.538567e+000 192 177 170
1.974127e+000 -2.162442e+000 -9.783862e+000 158 140 97
2.753760e+000 -2.976578e+000 -9.995764e+000 249 205 179
3.323645e+000 -2.390373e+000 -9.215878e+000 201 123 66
5.620981e-001 1.687523e+000 -1.157571e+001 203 200 193
2.300837e+000 8.107001e-001 -9.118126e+000 202 197 186
2.168239e+000 4.284188e-001 -9.310617e+000 191 174 154
2.374460e+000 6.361614e-001 -8.458328e+000 187 173 122
-3.241578e+000 -9.405155e-001 -8.086100e+000 161 110 106
1.730184e+000 -2.089894e-001 -9.252724e+000 159 151 115
1.962670e+000 -7.633470e-002 -9.079519e+000 238 225 174
-3.018206e+000 -1.143050e+000 -8.117974e+000 223 119 72
-2.526237e+000 -1.449832e+000 -8.422129e+000 154 81 50
-5.596887e-002 -1.152409e+000 -9.222964e+000 181 178 175
1.527736e+000 -2.732964e+000 -1.108266e+001 224 93 89
-1.345943e+000 3.021227e-001 -1.042088e+001 176 97 73
-1.345943e+000 3.021227e-001 -1.042088e+001 176 97 73
-4.512026e-001 6.055454e-001 -1.106747e+001 202 196 185
-3.489180e-001 4.621001e-001 -1.009136e+001 140 132 121
2.220739e-001 4.492103e-001 -9.872851e+000 171 168 163
3.037398e+000 1.329044e+000 -7.964568e+000 219 200 142
-1.064124e+000 -8.807438e-002 -8.990070e+000 144 78 53
-6.720292e-001 -1.240611e-001 -9.502364e+000 113 95 85
-2.023471e+000 -5.417188e-001 -8.732141e+000 126 50 27
1.862327e+000 -1.170275e-002 -9.463339e+000 175 169 160
-2.292547e+000 -8.185056e-001 -8.304123e+000 137 96 71
-1.572960e-001 -7.298384e-001 -9.428488e+000 35 27 25
1.465858e+000 -4.861524e-001 -9.277268e+000 85 78 52
-1.354658e+000 -1.717072e+000 -8.995233e+000 59 49 48
3.631492e+000 -1.181624e+000 -8.529290e+000 197 73 77
3.111711e+000 1.943967e+000 -7.978629e+000 132 118 92
-7.084105e-001 -4.572771e-002 -9.373203e+000 111 75 58
1.748775e+000 -1.447888e-001 -9.243919e+000 117 108 77
-1.348368e+000 -1.146104e+000 -8.448697e+000 205 155 120
-1.308226e+000 -1.639216e+000 -8.716024e+000 241 148 93
2.498294e-001 -2.829623e+000 -1.210679e+001 181 134 112
-7.591335e-001 4.837582e-001 -1.037978e+001 169 162 146
3.111033e+000 1.940605e+000 -7.976919e+000 134 122 94
2.985360e+000 1.538161e+000 -8.108278e+000 245 226 169
2.227179e+000 7.256789e-001 -9.194860e+000 219 215 207
1.404541e+000 -2.636708e-001 -9.518417e+000 119 111 96
-1.458311e+000 -1.060395e+000 -8.312879e+000 222 191 155
5.120632e-001 -1.508153e+000 -1.000987e+001 177 170 167
7.076001e-001 -3.325231e+000 -1.231334e+001 247 197 165
3.587841e+000 -1.111792e+000 -8.666959e+000 170 97 64
-1.946750e+000 -4.530002e-001 -8.760222e+000 150 70 46
-1.946750e+000 -4.530002e-001 -8.760222e+000 150 70 46
2.035408e+000 3.998201e-001 -9.371662e+000 221 217 207
-1.820151e+000 -1.171504e+000 -8.694194e+000 131 55 37
-4.979207e-001 -9.551047e-001 -8.982392e+000 163 154 148
3.486489e+000 -1.095534e+000 -8.672561e+000 168 121 101
1.834075e+000 -3.211304e+000 -1.122771e+001 126 110 69
2.524724e+000 -2.847449e+000 -9.553253e+000 95 68 69
5.028127e-001 1.599687e+000 -1.068785e+001 160 156 147
-6.961249e-001 9.815340e-001 -1.248015e+001 240 237 233
3.115771e+000 1.609527e+000 -8.203449e+000 255 248 197
2.369123e+000 6.869856e-001 -8.800896e+000 224 218 205
-2.060418e+000 -8.062814e-001 -8.748878e+000 78 23 13
1.990071e+000 -2.262978e+000 -9.739928e+000 247 233 178
3.475188e+000 -1.138902e+000 -8.421896e+000 189 113 65
1.712088e+000 -3.037911e+000 -9.961392e+000 112 96 63
-1.117878e+000 3.333632e-001 -1.012236e+001 238 236 223
2.569559e+000 7.922065e-001 -8.528676e+000 255 250 195
2.569559e+000 7.922065e-001 -8.528676e+000 255 250 195
2.087010e+000 -8.238230e-002 -9.141198e+000 255 250 202
-1.741224e+000 -1.013440e+000 -8.618439e+000 234 195 146
2.951694e+000 -2.540994e+000 -9.634390e+000 126 71 40
1.150991e+000 1.348930e+000 -9.985498e+000 169 162 156
1.150991e+000 1.348930e+000 -9.985498e+000 169 162 156
4.583998e-001 -2.273234e+000 -1.138706e+001 134 94 82
9.932512e-001 -2.272981e+000 -1.123702e+001 172 53 56
3.864730e+000 -2.681018e-001 -7.467241e+000 192 67 71
-2.938378e+000 -6.611383e-001 -8.068456e+000 75 32 31
2.748949e+000 2.085442e-001 -8.405315e+000 149 137 95
-6.404369e-001 -1.235083e+000 -8.812653e+000 185 179 174
2.446318e+000 6.606862e-001 -7.814899e+000 253 252 198
-4.654379e-001 -6.158105e-001 -9.162868e+000 62 50 38
-4.654379e-001 -6.158105e-001 -9.162868e+000 62 50 38
3.166342e+000 5.478898e-001 -8.290385e+000 151 138 105
-7.456794e-001 -3.288942e-001 -8.869755e+000 51 33 30
3.277398e+000 1.448050e+000 -7.901363e+000 254 250 202
-1.387596e+000 -1.091609e+000 -8.347256e+000 192 156 123
-1.767173e+000 -1.929271e+000 -9.831836e+000 60 22 11
-6.440551e-002 -1.599680e-001 -9.329587e+000 157 154 145
-3.453107e+000 -5.285538e-001 -8.159664e+000 123 95 51
3.458824e+000 -1.157768e+000 -8.737458e+000 131 78 57
3.601001e+000 -1.224640e+000 -8.554723e+000 230 184 167
3.540922e+000 -1.180992e+000 -8.681976e+000 179 106 62
3.511994e+000 -1.223215e+000 -8.693624e+000 177 105 56
-1.945132e+000 3.618111e+000 -1.412884e+001 238 230 228
-1.104346e-001 -2.877267e-001 -9.281097e+000 147 138 130
-2.865084e+000 -1.051860e+000 -8.024804e+000 204 103 57
7.933375e-001 -1.766630e+000 -1.102014e+001 163 98 60
-7.255056e-001 -1.836051e-002 -9.372030e+000 109 63 54
1.876247e+000 -2.823668e+000 -8.688254e+000 122 105 62
1.026726e+000 -2.146675e+000 -1.117886e+001 144 40 37
-4.913420e-001 2.295602e+000 -1.272856e+001 177 171 159
-4.173109e-001 4.120991e+000 -1.267435e+001 236 226 216
8.340670e-001 -8.490963e-001 -8.940268e+000 231 228 219
-3.254250e+000 -1.136297e+000 -8.243955e+000 135 70 64
-2.614822e-001 3.908776e+000 -1.249416e+001 214 206 195
-7.648526e-001 2.378239e+000 -1.285347e+001 184 177 166
-4.204925e-001 2.097777e+000 -1.261709e+001 229 223 215
-3.458191e-002 3.311670e+000 -1.212124e+001 205 196 187
-3.458191e-002 3.311670e+000 -1.212124e+001 205 196 187
-6.706319e-002 1.673261e+000 -1.138834e+001 187 180 170
-6.920485e-001 2.650797e+000 -1.292166e+001 222 218 213
3.442233e+000 2.240109e-002 -7.893708e+000 213 201 187
3.555110e+000 -9.927671e-001 -8.656215e+000 142 77 53
-2.487582e+000 -1.235331e+000 -8.326012e+000 92 62 53
-2.474804e+000 -1.407819e+000 -8.414279e+000 164 105 71
2.007919e+000 -2.192012e+000 -9.854032e+000 162 140 94
-7.073467e-001 -1.740527e-002 -9.475883e+000 138 121 112
3.492061e+000 -1.075063e+000 -8.579555e+000 166 137 131
-5.650374e-001 -5.281376e-001 -9.350443e+000 92 83 64
-3.449559e+000 -5.510932e-001 -8.203395e+000 133 103 52
-3.200964e+000 -8.482800e-001 -8.079867e+000 140 80 75
1.953177e+000 -2.136586e+000 -9.849885e+000 133 116 68
7.217584e-001 -2.627922e+000 -1.231254e+001 137 100 91
2.134685e+000 3.832644e-001 -9.274693e+000 218 208 188
-5.256557e-001 -5.638093e-001 -9.357087e+000 100 89 69
-2.299150e+000 -9.158643e-001 -8.334146e+000 47 27 29
-2.493981e+000 -1.272469e+000 -8.393044e+000 77 56 56
2.930136e+000 -2.346894e+000 -9.427700e+000 177 93 60
8.623828e-001 -2.537707e+000 -1.157912e+001 209 101 83
8.557829e-001 -2.766481e+000 -1.212384e+001 186 105 71
6.931539e-001 1.000961e+000 -9.863091e+000 237 232 226
-6.137523e-001 -5.175270e-001 -9.444655e+000 55 42 27
-4.438886e-001 -4.966317e-001 -9.412197e+000 62 51 32
-3.216766e+000 -6.905315e-001 -8.087966e+000 128 97 51
-1.299187e+000 -1.036786e+000 -8.176172e+000 201 77 77
-1.189810e+000 -1.619254e+000 -8.856717e+000 221 163 120
1.563198e+000 -2.741632e+000 -1.132904e+001 204 108 72
1.574182e+000 -3.205807e+000 -1.140815e+001 253 251 241
2.430005e+000 3.284269e-001 -8.398436e+000 243 227 165
-4.724110e-001 -1.954864e-001 -9.356715e+000 170 163 155
2.378252e-001 -2.520447e-001 -9.427879e+000 155 148 138
1.916040e+000 -3.846358e-001 -9.063171e+000 200 187 135
-3.371678e+000 -7.708344e-001 -8.144433e+000 249 225 164
-1.223116e-001 -1.087605e+000 -9.183246e+000 128 120 109
-1.377173e+000 -1.173049e+000 -8.573548e+000 185 117 82
3.168278e+000 -1.836346e+000 -9.019445e+000 183 143 116
-4.272790e-001 -1.523509e+000 -1.013876e+001 127 114 101
-3.013972e+000 -1.493072e+000 -8.566410e+000 144 50 32
-7.138129e-001 -1.914380e+000 -1.437119e+001 251 207 57
1.563233e+000 -2.906410e+000 -1.143022e+001 227 186 106
3.799486e-001 4.239069e+000 -1.187242e+001 237 223 207
2.271613e+000 5.512527e-001 -8.972272e+000 203 195 184
-7.998366e-001 -1.162292e-002 -9.341370e+000 141 80 64
1.957694e+000 -4.785717e-001 -9.033348e+000 228 228 216
2.121207e+000 -4.644144e-001 -8.866431e+000 244 237 227
-1.445673e+000 -1.032351e+000 -8.304179e+000 205 175 136
-1.445673e+000 -1.032351e+000 -8.304179e+000 205 175 136
-3.396859e+000 -1.006759e+000 -8.266868e+000 187 147 98
-4.162038e-001 -1.444613e+000 -1.017776e+001 135 124 113
-2.240719e+000 -1.226528e+000 -8.313222e+000 179 123 78
7.637855e-001 -1.639098e+000 -1.054631e+001 210 171 134
-8.055094e-001 -1.923877e+000 -1.425893e+001 223 137 59
-9.003255e-001 -2.044220e+000 -1.476488e+001 244 174 119
2.672531e+000 1.037889e+000 -8.502799e+000 203 187 135
2.188395e+000 2.426929e-001 -8.958769e+000 213 197 138
4.876529e-001 3.204938e-001 -9.703931e+000 157 153 142
3.907797e+000 -9.915456e-001 -8.093041e+000 146 123 106
2.998315e-001 -3.955885e-001 -9.457472e+000 161 156 146
-1.328737e+000 -8.143462e-001 -8.385497e+000 123 42 44
-2.765387e+000 -9.159251e-001 -7.955615e+000 223 127 74
3.088884e+000 -2.009870e+000 -9.264743e+000 226 182 116
-2.393141e+000 -1.723404e+000 -9.769245e+000 45 23 15
-2.393141e+000 -1.723404e+000 -9.769245e+000 45 23 15
2.475551e-001 4.116153e+000 -1.182212e+001 243 234 224
-3.931952e-001 4.196649e+000 -1.251533e+001 214 80 81
1.777150e+000 1.697673e+000 -9.416569e+000 200 193 184
2.071895e+000 2.326061e-001 -9.207189e+000 205 200 187
1.713984e-001 2.848588e-001 -9.565940e+000 153 145 135
-1.016352e+000 -3.361971e-001 -8.897646e+000 158 82 53
-6.422413e-001 -2.504879e-001 -9.423989e+000 136 126 117
-1.748327e-001 4.123177e+000 -1.235081e+001 242 234 227
2.276701e-001 7.399120e-001 -1.021434e+001 234 233 223
3.127826e+000 -6.975957e-001 -8.315674e+000 106 40 41
1.021432e+000 -2.423511e+000 -1.154723e+001 168 45 49
1.459639e+000 1.361586e+000 -9.387724e+000 238 233 227
3.986092e-001 5.796403e-001 -9.790057e+000 171 164 148
-2.203816e+000 -1.210027e+000 -8.449060e+000 167 113 81
-2.203792e+000 -1.287238e+000 -9.269954e+000 118 35 19
7.205679e-001 -2.984797e+000 -1.237093e+001 213 167 142
1.040557e+000 3.255131e+000 -1.087445e+001 250 244 232
2.758376e+000 1.485390e-001 -8.505119e+000 100 87 68
1.747967e+000 -2.199910e+000 -1.003397e+001 111 88 57
-4.694509e-001 3.726190e+000 -1.261085e+001 243 239 230
-2.487882e-001 2.587259e-001 -9.632590e+000 166 159 151
3.444624e+000 -1.635588e+000 -9.160478e+000 93 48 45
-2.890462e-001 -1.362214e+000 -9.966554e+000 98 85 76
-1.432504e+000 -1.698038e+000 -9.241256e+000 237 197 145
-5.982190e-001 -3.771872e-001 -9.466901e+000 124 110 83
-3.210602e+000 -1.398369e+000 -8.443930e+000 117 68 70
-1.871409e+000 -1.653847e+000 -9.161127e+000 202 86 40
2.511925e+000 -1.984552e+000 -9.850996e+000 175 68 59
3.446667e+000 -1.247429e+000 -8.781437e+000 166 127 112
2.151535e+000 -2.050588e+000 -9.829266e+000 221 84 85
8.987605e-001 -2.708138e+000 -1.213932e+001 124 91 87
2.238759e+000 -2.602308e+000 -8.513408e+000 108 88 55
1.202433e+000 -3.091464e+000 -1.181565e+001 198 103 74
1.396584e+000 -2.938457e+000 -1.150473e+001 198 99 78
-9.994369e-002 -1.899608e-001 -9.292936e+000 165 158 150
1.922044e+000 -9.869393e-001 -9.139777e+000 228 221 211
-3.361191e+000 -8.039027e-001 -8.160106e+000 155 128 72
3.110371e+000 -2.097979e+000 -9.220480e+000 221 136 103
9.051066e-001 -3.001287e+000 -1.215531e+001 204 134 85
-3.254960e+000 -6.365457e-001 -8.077157e+000 138 109 63
-2.478579e+000 -1.376849e+000 -8.419529e+000 198 158 120
6.100324e-001 -2.181984e+000 -1.144176e+001 217 176 126
3.381817e-001 -1.141285e+000 -9.361222e+000 175 172 165
-2.764416e+000 -1.318814e+000 -8.205626e+000 155 75 54
-2.552942e+000 -1.342517e+000 -8.446752e+000 57 38 38
-2.870027e+000 -1.335022e+000 -8.195205e+000 189 82 49
3.917466e+000 -2.132038e-001 -7.466514e+000 135 103 91
1.070911e+000 3.205420e-001 -9.754827e+000 144 137 127
-2.349204e+000 -1.044900e+000 -8.342201e+000 172 146 131
1.759966e+000 -5.895858e-001 -9.136815e+000 164 156 143
3.673438e+000 -9.368078e-001 -8.531450e+000 185 134 117
3.665977e+000 -9.398700e-001 -8.517172e+000 185 134 117
3.611358e+000 -1.183421e+000 -8.594329e+000 197 117 73
-2.294695e+000 -8.691716e-001 -8.307224e+000 76 46 32
9.671289e-001 -2.073100e+000 -4.974038e+000 141 55 50
-2.550078e+000 -1.235707e+000 -8.302646e+000 71 39 28
-2.482670e+000 -1.218457e+000 -8.316217e+000 169 129 96
-2.936698e+000 -1.450692e+000 -8.348372e+000 195 88 46
-2.143887e+000 -1.490662e+000 -9.131309e+000 179 84 46
1.936757e+000 -2.100621e+000 -9.922998e+000 108 89 52
-2.752315e+000 -1.579518e+000 -8.761905e+000 133 60 46
7.058492e-001 -2.595645e+000 -1.222460e+001 110 53 50
8.526965e-001 -2.691802e+000 -1.211395e+001 141 107 113
1.427301e+000 -3.107819e+000 -1.135197e+001 214 161 90
1.682869e+000 -9.039873e-002 -9.277012e+000 113 102 76
3.523983e+000 -1.036591e+000 -8.747287e+000 150 107 96
3.643493e+000 -9.996840e-001 -8.553497e+000 206 160 142
3.647435e+000 -1.071488e+000 -8.569296e+000 172 109 74
-3.827766e-001 -4.791649e-001 -9.320783e+000 61 52 38
-1.818783e+000 -5.877441e-001 -8.717603e+000 146 71 48
-2.991626e+000 -1.403706e+000 -8.245819e+000 208 101 49
-2.280246e+000 -1.422203e+000 -8.541246e+000 157 110 74
4.466658e-001 -1.806539e+000 -1.091959e+001 163 125 100
2.022667e+000 -2.252981e+000 -9.832734e+000 186 170 111
1.655002e+000 -2.789470e+000 -1.118604e+001 187 112 69
1.032845e+000 -2.844882e+000 -1.190762e+001 194 180 169
1.097413e+000 -2.919613e+000 -1.177927e+001 213 163 115
3.755919e+000 -1.032611e+000 -8.333098e+000 221 180 163
-6.544603e-001 -3.523399e-001 -9.506282e+000 87 74 54
-6.544603e-001 -3.523399e-001 -9.506282e+000 87 74 54
3.446961e+000 -1.222269e+000 -8.834542e+000 138 97 85
-4.041929e-001 -4.862294e-001 -9.365216e+000 87 76 58
3.197606e+000 -1.367372e+000 -8.883139e+000 111 72 62
3.331085e+000 -1.676907e+000 -9.059239e+000 129 87 72
-3.102711e+000 -8.145957e-001 -7.991781e+000 103 58 52
-3.094585e+000 -7.736605e-001 -8.003771e+000 129 79 72
3.252183e+000 -1.842867e+000 -8.988173e+000 196 142 87
-2.760371e+000 -1.108356e+000 -8.001222e+000 142 60 37
-2.118758e-002 -1.376873e+000 -9.772531e+000 138 133 127
-2.933007e+000 -1.424032e+000 -8.318597e+000 215 109 69
1.529736e+000 -2.783882e+000 -1.131331e+001 182 93 59
2.608671e+000 -2.913253e+000 -1.008371e+001 253 211 191
8.240352e-001 -2.698509e+000 -1.214924e+001 191 161 160
9.929099e-001 -2.763179e+000 -1.176989e+001 206 172 170
1.633523e+000 -3.035673e+000 -1.119423e+001 203 132 80
3.732559e+000 -1.004349e+000 -8.366151e+000 208 174 164
3.659690e+000 -1.048228e+000 -8.520462e+000 208 176 162
3.627189e+000 -1.127066e+000 -8.584040e+000 182 108 69
3.577885e+000 -1.138162e+000 -8.618594e+000 180 102 55
1.651880e-001 -4.269317e-001 -9.371071e+000 137 128 119
-2.897125e-001 -6.031466e-001 -9.407512e+000 59 47 37
