ply
format ascii 1.0
element face 0
property list uchar int vertex_indices
element vertex 864
property float x
property float y
property float z
property uchar diffuse_red
property uchar diffuse_green
property uchar diffuse_blue
end_header
3.016298e+000 -1.676217e+000 -8.839408e+000 232 225 217
3.117226e+000 -4.979384e-001 -8.155261e+000 242 233 224
9.474989e-002 2.484739e+000 -1.175948e+001 250 243 233
-9.010528e-001 -3.432815e-001 -9.476418e+000 40 25 25
3.296911e+000 1.027757e+000 -7.885024e+000 187 171 110
2.879017e+000 5.137320e-001 -8.178689e+000 237 215 155
-9.463075e-001 2.392129e-001 -9.813473e+000 129 78 60
-9.683368e-001 2.488642e-001 -9.978703e+000 129 78 60
2.150813e+000 2.258824e-001 -8.872292e+000 236 220 162
2.259324e+000 3.832453e-001 -8.744821e+000 202 187 135
1.929531e+000 8.983236e-003 -9.193197e+000 195 181 140
1.784954e+000 -6.657707e-002 -9.247976e+000 160 148 109
1.856150e+000 -3.183655e-002 -9.210672e+000 177 162 120
-5.042308e-001 -4.213592e-001 -9.441963e+000 156 143 107
-4.751045e-001 -4.374404e-001 -9.375218e+000 142 128 96
1.849229e+000 -4.572039e-001 -9.188172e+000 171 163 154
1.941360e+000 -3.857105e-001 -9.190531e+000 164 151 106
-2.415547e+000 -6.107535e-001 -8.000976e+000 107 49 36
7.183865e-002 -5.576878e-001 -9.389738e+000 148 139 130
5.983094e-001 -5.458719e-001 -9.391380e+000 89 80 59
2.829478e+000 -8.482896e-001 -8.202114e+000 136 85 81
-3.193354e+000 -8.590332e-001 -8.011936e+000 143 85 79
3.447670e+000 -1.102413e+000 -8.685690e+000 130 75 58
3.529015e+000 -1.079992e+000 -8.710914e+000 137 88 71
3.525559e+000 -1.078485e+000 -8.698606e+000 137 88 71
-2.567853e+000 -1.240878e+000 -8.311281e+000 74 46 29
-2.468392e+000 -1.277414e+000 -8.359548e+000 194 161 142
3.509030e+000 -1.245352e+000 -8.785151e+000 165 93 49
-3.149649e+000 -1.510709e+000 -8.502935e+000 98 52 49
1.936912e+000 -2.104402e+000 -9.890375e+000 126 105 64
2.133130e+000 -2.059723e+000 -9.781305e+000 222 88 89
2.109272e+000 -2.267818e+000 -9.938034e+000 163 146 97
1.578444e+000 -2.855514e+000 -1.123444e+001 202 143 76
2.650624e+000 -2.512227e+000 -9.948006e+000 120 58 43
1.056345e+000 -3.400819e+000 -1.184299e+001 244 168 113
3.093206e+000 1.698732e+000 -8.108631e+000 213 195 141
-3.208676e-001 2.536627e+000 -1.266140e+001 219 213 199
2.806754e+000 1.619380e+000 -8.557252e+000 213 204 194
3.287311e+000 1.445989e+000 -7.665378e+000 237 216 164
3.309393e+000 1.233811e+000 -7.807244e+000 215 198 168
-1.218321e+000 1.228989e+000 -1.296108e+001 242 238 227
-1.573459e-001 7.059345e-001 -1.037254e+001 229 220 212
-6.324542e-001 4.141720e-001 -9.847350e+000 182 175 166
-7.189765e-001 -1.936775e-002 -9.348028e+000 113 66 54
2.544501e+000 1.814713e-002 -8.552530e+000 178 160 110
1.675220e+000 -1.005777e-001 -9.241135e+000 127 114 89
1.537084e+000 -1.739511e-001 -9.285964e+000 141 131 105
1.930481e+000 -8.320747e-002 -9.155875e+000 229 216 164
-1.323995e+000 -2.724112e-001 -8.524879e+000 175 82 45
1.818546e+000 -4.050984e-001 -9.274014e+000 109 98 65
-2.857188e+000 -5.688112e-001 -7.880401e+000 98 50 45
-6.364487e-001 -5.721553e-001 -9.356376e+000 76 67 50
-5.004409e-001 -6.904402e-001 -9.232618e+000 59 46 29
-4.764824e-001 -6.712223e-001 -9.133906e+000 81 68 51
2.832167e-001 -6.865295e-001 -9.439399e+000 109 100 70
-3.115124e+000 -6.380097e-001 -8.004253e+000 172 139 90
-2.390233e+000 -6.256189e-001 -7.965859e+000 115 62 58
1.106341e+000 -7.602679e-001 -8.992895e+000 173 163 151
1.181055e+000 -7.635738e-001 -8.919954e+000 181 175 164
-2.355709e+000 -8.671129e-001 -8.248142e+000 68 34 25
-2.291979e+000 -8.658684e-001 -8.312324e+000 99 66 50
1.073584e+000 -1.110708e+000 -9.030067e+000 204 200 193
3.573119e+000 -1.008954e+000 -8.737254e+000 173 128 111
3.531296e+000 -1.050129e+000 -8.741173e+000 164 115 99
3.595425e+000 -1.115699e+000 -8.865224e+000 171 133 114
3.595425e+000 -1.115699e+000 -8.865224e+000 171 133 114
-2.499862e+000 -1.255841e+000 -8.352587e+000 183 153 144
-5.793539e-001 -1.284563e+000 -8.773229e+000 138 129 117
3.738444e+000 -1.203447e+000 -8.571936e+000 201 145 116
-2.790536e+000 -1.329746e+000 -8.196190e+000 157 73 52
-2.791930e+000 -1.327788e+000 -8.181587e+000 157 73 52
-2.615050e+000 -1.309612e+000 -8.333130e+000 87 57 49
-2.336952e+000 -1.486187e+000 -8.548432e+000 162 77 45
-1.264396e+000 -1.379068e+000 -8.621384e+000 184 65 42
-1.254288e+000 -1.366105e+000 -8.562440e+000 184 65 42
-3.039134e+000 -1.551894e+000 -8.543615e+000 190 103 67
-1.795998e+000 -1.776308e+000 -9.219893e+000 162 90 53
-2.374066e-001 -2.649976e+000 -1.301972e+001 215 166 122
3.707701e+000 -1.610694e+000 -8.528901e+000 199 127 80
8.463898e-001 -2.680930e+000 -1.196524e+001 197 166 160
8.485239e-001 -2.744443e+000 -1.205738e+001 184 111 80
8.886367e-001 -2.752738e+000 -1.211280e+001 204 185 181
2.151927e+000 -2.092567e+000 -9.781822e+000 201 82 80
3.318477e+000 -1.899808e+000 -9.109159e+000 179 100 76
1.222139e+000 -2.954749e+000 -1.167004e+001 192 133 78
1.300841e+000 -3.013137e+000 -1.155497e+001 206 144 71
2.571644e+000 -2.629286e+000 -1.015368e+001 152 116 61
3.338137e+000 -2.352415e+000 -9.337349e+000 251 193 146
3.324507e+000 -2.229477e+000 -9.015711e+000 196 121 64
6.591262e+000 -3.114720e+000 -1.280042e+001 202 190 190
1.312489e+000 -3.089157e+000 -1.149446e+001 214 137 81
1.615436e+000 -3.072321e+000 -1.124237e+001 232 168 105
4.041210e-002 3.410117e+000 -1.210772e+001 237 229 215
3.095872e+000 1.937115e+000 -7.911225e+000 130 115 90
4.635477e-001 1.579338e+000 -1.109411e+001 187 183 174
6.410862e-002 1.341602e+000 -1.070539e+001 210 207 196
2.506999e+000 8.948067e-001 -8.404797e+000 225 207 143
2.405923e+000 6.186773e-001 -8.527879e+000 202 186 127
2.432911e+000 6.993827e-001 -8.481527e+000 212 196 135
-7.282985e-001 2.649869e-001 -9.627795e+000 206 197 186
-6.256861e-001 2.756695e-001 -9.549386e+000 218 213 207
-8.598683e-001 1.478155e-001 -9.644020e+000 145 118 109
-8.588521e-001 9.916410e-002 -9.550879e+000 127 67 53
-1.222584e+000 -1.789559e-001 -8.535883e+000 189 91 46
-8.817676e-002 -1.174346e-001 -9.306726e+000 188 181 175
1.753310e+000 -8.596827e-002 -9.231814e+000 163 150 115
1.332960e+000 -2.622033e-001 -9.341097e+000 122 108 82
-5.114493e-001 -7.299386e-001 -9.297908e+000 81 69 49
-2.390150e-001 -6.720519e-001 -9.290318e+000 54 45 30
-3.347689e+000 -7.038369e-001 -8.130162e+000 152 121 74
-3.094303e+000 -7.040847e-001 -7.995474e+000 158 101 94
-3.105871e+000 -7.656491e-001 -7.960191e+000 128 78 69
-2.420566e+000 -6.609834e-001 -7.936174e+000 131 75 66
-2.143114e+000 -8.100697e-001 -8.419075e+000 131 64 47
-2.061055e+000 -7.308007e-001 -8.450531e+000 100 31 15
-1.394861e+000 -8.907826e-001 -8.314795e+000 74 32 38
3.555318e+000 -1.036958e+000 -8.701300e+000 137 82 52
3.576423e+000 -1.019540e+000 -8.687396e+000 188 138 127
3.615630e+000 -1.083444e+000 -8.809022e+000 177 143 128
-2.909251e+000 -1.205789e+000 -8.132590e+000 171 82 61
-2.823318e+000 -1.144008e+000 -8.068970e+000 173 90 64
3.470907e+000 -1.238280e+000 -8.861621e+000 159 115 101
-2.882305e+000 -1.366300e+000 -8.156454e+000 218 116 77
-2.212746e+000 -1.585123e+000 -9.168475e+000 179 68 31
3.805426e+000 -1.374642e+000 -8.501649e+000 190 117 68
-2.645602e-001 -2.563281e+000 -1.297249e+001 216 147 87
-2.888592e-001 -2.657077e+000 -1.308099e+001 215 138 76
2.509082e+000 -2.310381e+000 -1.011832e+001 113 66 40
2.947649e+000 -1.907421e+000 -9.128122e+000 192 135 91
3.131913e+000 -2.114009e+000 -9.275038e+000 224 134 99
3.127245e+000 -2.109318e+000 -9.264325e+000 224 134 99
4.648323e-001 -2.962477e+000 -1.233764e+001 204 130 75
1.627758e+000 -2.723406e+000 -1.113004e+001 178 74 66
2.363696e+000 -2.528418e+000 -9.965869e+000 85 55 29
1.600021e+000 -3.092986e+000 -1.111758e+001 202 132 76
2.869588e-001 3.255083e+000 -1.197752e+001 238 230 219
2.988347e+000 1.543027e+000 -8.097874e+000 182 165 112
3.532911e+000 1.327462e+000 -7.717428e+000 126 85 75
-2.469622e-001 2.100629e+000 -1.219514e+001 229 223 211
3.276655e+000 1.195609e+000 -7.897492e+000 242 223 157
3.752405e+000 1.253404e+000 -7.874733e+000 177 62 61
1.249529e-001 1.108317e+000 -1.073466e+001 230 227 218
-9.440181e-001 -1.346802e-001 -8.697100e+000 105 46 36
-6.674893e-002 -2.063956e-001 -9.345541e+000 139 132 122
1.376696e+000 -2.406014e-001 -9.312949e+000 116 105 81
-1.885765e+000 -3.053442e-001 -8.872458e+000 178 95 62
-1.787143e+000 -5.962299e-001 -8.711675e+000 137 56 27
-1.556170e+000 -6.847479e-001 -8.770063e+000 157 44 45
-1.540377e+000 -6.787406e-001 -8.687080e+000 157 44 45
-5.516738e-001 -6.819040e-001 -9.164432e+000 84 72 51
-3.818248e-002 -6.398626e-001 -9.441446e+000 88 78 66
3.144339e-001 -6.373958e-001 -9.463391e+000 74 64 51
-3.152832e+000 -8.702825e-001 -7.946342e+000 131 73 68
-2.466360e+000 -9.509673e-001 -8.167565e+000 137 93 69
-2.382205e+000 -8.703621e-001 -8.202249e+000 125 80 59
-2.389246e+000 -1.009551e+000 -8.307299e+000 40 29 31
-2.606772e+000 -1.382579e+000 -8.347526e+000 118 51 33
-1.853983e+000 -1.596312e+000 -9.642512e+000 175 79 42
-1.875102e+000 -1.828277e+000 -1.019517e+001 208 110 74
1.777411e-001 -1.954559e+000 -1.086186e+001 199 195 186
3.150767e-001 -1.747041e+000 -1.048459e+001 184 176 159
-1.734528e+000 -1.839357e+000 -9.801642e+000 219 93 69
3.390617e+000 -1.825130e+000 -9.146080e+000 134 80 54
8.355355e-001 -2.683608e+000 -1.213209e+001 221 180 157
7.210136e-001 -2.743450e+000 -1.219551e+001 199 136 70
1.381236e+000 -3.114817e+000 -1.138395e+001 189 108 66
1.427354e+000 -3.194641e+000 -1.133044e+001 209 128 74
2.906180e+000 -2.718472e+000 -9.611880e+000 149 87 46
3.138393e+000 -2.520454e+000 -9.423014e+000 159 94 53
3.187424e+000 2.006479e+000 -8.017113e+000 131 117 91
6.242151e-001 2.855202e+000 -1.157062e+001 241 235 221
3.044660e+000 1.673146e+000 -8.370112e+000 230 216 203
1.772421e+000 2.019748e+000 -1.023442e+001 237 230 220
2.935849e+000 1.528451e+000 -8.340917e+000 225 214 203
3.724531e+000 9.500292e-001 -7.866601e+000 187 159 146
2.457787e+000 8.864817e-001 -8.405761e+000 169 151 109
-1.127002e+000 1.218666e+000 -1.275370e+001 220 216 206
6.081927e-001 2.469201e-001 -9.328955e+000 164 154 136
2.086327e+000 4.305919e-002 -9.067978e+000 226 210 156
-2.536090e-002 -2.647137e-001 -9.292833e+000 181 174 164
-2.577996e-002 -2.624346e-001 -9.364572e+000 181 174 164
-3.345864e+000 -4.348993e-001 -8.105466e+000 235 203 140
3.810058e-001 -5.431078e-001 -9.465613e+000 126 116 104
-2.285433e+000 -7.609841e-001 -8.093118e+000 69 31 23
1.092594e+000 -7.752232e-001 -8.913222e+000 183 175 164
1.696258e+000 -7.417563e-001 -9.134147e+000 166 158 147
-1.552572e+000 -9.717614e-001 -8.311965e+000 204 184 154
-1.550461e+000 -9.718937e-001 -8.315016e+000 204 184 154
-1.366571e+000 -9.333721e-001 -8.324420e+000 207 98 93
-1.364787e+000 -9.318959e-001 -8.304017e+000 207 98 93
1.098181e-001 -1.179849e+000 -9.277212e+000 156 145 132
8.653508e-001 -1.032114e+000 -9.126272e+000 232 229 224
-2.485940e+000 -1.063509e+000 -8.136493e+000 105 46 27
-2.638867e+000 -1.259724e+000 -8.316999e+000 86 44 33
-2.356969e+000 -1.144181e+000 -8.294494e+000 195 147 99
3.685782e+000 -1.267270e+000 -8.795647e+000 195 124 88
6.287315e-001 -2.617289e+000 -1.233251e+001 119 62 39
9.082022e-001 -2.539081e+000 -1.145669e+001 222 174 134
2.439817e+000 -2.212125e+000 -1.013765e+001 122 68 44
3.170867e+000 -1.970963e+000 -9.177701e+000 186 109 89
3.246082e+000 -1.944386e+000 -9.116833e+000 182 87 78
2.398971e+000 -2.405540e+000 -1.028531e+001 111 46 41
2.532317e+000 -2.460649e+000 -1.003837e+001 149 111 56
1.152778e+000 -3.413234e+000 -1.189708e+001 201 122 57
2.102786e+000 2.082529e-001 -8.904975e+000 148 136 93
-3.184153e-002 -4.434998e-001 -9.218067e+000 168 161 151
1.456571e+000 -3.224026e-001 -9.406286e+000 115 105 72
-2.832242e+000 -5.842914e-001 -8.052492e+000 158 90 59
7.742121e-001 -5.410356e-001 -9.444156e+000 170 161 122
-3.472412e+000 -7.512976e-001 -8.173411e+000 73 28 23
-1.927897e+000 -7.508739e-001 -8.746608e+000 165 75 44
1.220753e+000 -7.652929e-001 -8.942135e+000 178 172 161
-3.386882e+000 -1.019910e+000 -8.215035e+000 177 138 92
-1.035734e+000 -1.047113e+000 -8.503497e+000 170 162 151
2.220790e-001 -1.115756e+000 -9.311210e+000 156 147 137
3.974593e+000 -1.027051e+000 -8.224908e+000 161 147 136
-1.340309e+000 -1.095593e+000 -8.336817e+000 202 151 117
-2.362924e+000 -1.740505e+000 -9.611367e+000 37 26 24
2.016062e+000 -1.993021e+000 -9.801753e+000 186 61 60
3.321044e-001 -3.134197e+000 -1.252619e+001 222 143 91
3.179637e+000 2.031626e+000 -8.205362e+000 241 229 216
3.286608e+000 1.470390e+000 -7.725524e+000 236 216 155
-7.911262e-001 2.034397e+000 -1.268897e+001 196 190 178
-1.974649e+000 2.140085e+000 -1.415608e+001 221 96 99
-1.974649e+000 2.140085e+000 -1.415608e+001 221 96 99
2.676702e+000 1.064888e+000 -8.300935e+000 210 195 145
-6.628669e-001 8.407746e-001 -1.217878e+001 220 217 208
2.063101e+000 3.880217e-001 -9.422304e+000 223 217 207
2.286498e+000 -2.241178e-001 -8.705813e+000 165 152 108
-1.832310e+000 -4.872612e-001 -8.706713e+000 133 45 26
-6.406394e-001 -6.916822e-001 -9.078257e+000 49 39 33
8.944730e-001 -5.196043e-001 -9.536900e+000 151 138 103
-2.321107e+000 -8.201617e-001 -8.297952e+000 139 98 69
4.885853e-001 -2.006174e+000 -1.131665e+001 144 47 49
9.225254e-001 -2.144492e+000 -1.127836e+001 169 48 49
3.955271e+000 -1.617166e+000 -8.712095e+000 199 185 176
1.881131e+000 -2.305049e+000 -1.004845e+001 175 159 107
1.624175e+000 -3.176376e+000 -1.104367e+001 203 126 67
2.142459e+000 1.355130e+000 -9.007631e+000 215 208 198
2.142459e+000 1.355130e+000 -9.007631e+000 215 208 198
2.069949e+000 5.439090e-001 -9.349970e+000 204 197 179
-3.518074e-001 -2.219790e-001 -9.304113e+000 158 151 145
-3.167123e+000 -5.314856e-001 -8.061019e+000 78 29 26
-2.342441e+000 -7.386409e-001 -8.266740e+000 85 40 35
-3.263905e+000 -8.613048e-001 -8.058086e+000 189 168 107
-2.093109e+000 -1.291700e+000 -8.391040e+000 170 126 87
3.144745e-001 -2.053731e+000 -1.108941e+001 221 207 196
2.113990e+000 -2.099995e+000 -9.866665e+000 222 82 83
1.743215e-001 -2.919842e+000 -1.163113e+001 78 58 49
1.433942e+000 -2.915173e+000 -1.122526e+001 184 81 67
2.612068e+000 -2.663142e+000 -9.982549e+000 147 111 56
2.624245e+000 -2.676739e+000 -1.002877e+001 147 111 56
2.221608e-001 3.167205e+000 -1.188802e+001 199 191 179
-4.298541e-001 2.157918e+000 -1.280294e+001 235 226 217
4.670798e-001 1.819062e+000 -1.144581e+001 239 236 228
2.278585e+000 1.429032e+000 -8.910937e+000 218 211 199
2.277737e+000 1.428541e+000 -8.910285e+000 218 211 199
3.397948e-001 1.362274e+000 -1.092636e+001 204 200 188
2.271934e-001 7.385678e-001 -1.019149e+001 233 233 223
2.028748e+000 6.793777e-002 -9.203229e+000 139 125 98
-4.106254e-001 -8.680612e-002 -9.314842e+000 159 152 146
1.410724e+000 -1.579467e-001 -9.336079e+000 140 134 114
-3.039761e+000 -3.238157e-001 -7.695040e+000 69 15 16
1.055557e+000 -4.740839e-001 -9.517425e+000 165 152 117
-2.639394e+000 -1.171685e+000 -8.225070e+000 196 152 112
3.304543e+000 -2.019769e+000 -9.290209e+000 183 90 75
1.976312e+000 -2.442239e+000 -9.780806e+000 120 98 60
2.403117e+000 -2.601036e+000 -9.722453e+000 104 59 39
2.936791e+000 -2.645661e+000 -9.390540e+000 219 164 129
2.757091e+000 1.962237e+000 -8.690662e+000 239 230 221
-1.848891e+000 3.231284e+000 -1.407404e+001 234 230 227
-1.334298e+000 3.193214e+000 -1.365562e+001 248 241 233
2.067157e+000 1.942005e+000 -9.342129e+000 185 178 164
2.174665e+000 1.797007e+000 -9.112375e+000 241 234 226
-7.360196e-001 2.332435e+000 -1.267570e+001 179 171 160
6.321550e-001 9.355426e-001 -9.928942e+000 177 170 156
6.321445e-001 9.467716e-001 -9.977980e+000 177 170 156
4.087553e-001 5.424721e-001 -9.609341e+000 183 175 164
5.612518e-001 6.368270e-001 -9.777563e+000 242 238 231
2.232396e+000 2.202668e-001 -8.846307e+000 254 239 182
1.095345e+000 -2.952298e-001 -9.425463e+000 101 94 77
-3.532125e+000 -5.944580e-001 -8.179353e+000 255 235 168
-3.369934e-001 -8.545712e-001 -9.053680e+000 154 145 136
8.848976e-001 -7.725745e-001 -9.025072e+000 227 227 219
3.360310e+000 -7.886401e-001 -8.173323e+000 211 86 84
-3.512271e+000 -8.671228e-001 -8.224751e+000 223 191 120
-1.518102e+000 -1.107972e+000 -8.424956e+000 231 196 151
-9.405300e-001 -1.804994e+000 -8.973540e+000 192 185 171
1.650494e+000 -2.922542e+000 -1.121156e+001 237 189 112
7.270583e-003 3.112215e+000 -1.159606e+001 203 194 185
7.270583e-003 3.112215e+000 -1.159606e+001 203 194 185
4.285197e-002 1.262492e+000 -1.081460e+001 243 241 232
1.605481e+000 -2.931795e-002 -9.294539e+000 213 211 199
-2.339270e+000 -6.975508e-001 -8.144140e+000 81 29 25
-5.333706e-001 -8.346424e-001 -8.902671e+000 156 144 135
-2.248130e-001 -1.363409e+000 -9.678112e+000 121 111 99
-2.950851e+000 -1.398253e+000 -8.290206e+000 221 120 78
2.809341e+000 -1.982513e+000 -9.347788e+000 209 161 94
2.925618e+000 -2.483642e+000 -9.500944e+000 130 71 34
-4.137359e-002 2.458932e+000 -1.248723e+001 249 243 229
2.499416e+000 1.159791e+000 -8.493931e+000 238 233 226
-1.859334e+000 1.798363e+000 -1.394386e+001 226 91 94
-1.488237e+000 1.467990e+000 -1.361459e+001 243 240 230
2.475100e+000 -1.589615e-002 -8.980062e+000 254 253 198
2.115099e+000 -1.630724e-001 -9.277584e+000 253 247 196
1.206805e+000 -1.891052e+000 -1.075124e+001 115 36 37
1.927777e+000 -2.276754e+000 -9.772722e+000 226 208 149
3.235344e+000 -2.231661e+000 -9.083220e+000 216 139 84
8.860742e-001 6.679411e-001 -1.033622e+001 166 158 147
-2.069650e+000 -8.752757e-001 -8.763824e+000 121 50 29
2.757405e+000 -2.544903e+000 -9.737766e+000 121 64 45
3.558701e+000 8.285556e-001 -7.753381e+000 233 217 202
1.566724e+000 -1.644446e+000 -9.787059e+000 213 206 198
8.772638e-001 -1.072765e+000 -9.315154e+000 234 231 226
2.486556e+000 -1.302785e+000 -9.234002e+000 246 242 234
3.049858e+000 1.824749e+000 -7.939850e+000 169 152 111
3.007361e+000 1.654949e+000 -8.003448e+000 201 184 127
-4.919874e-001 6.476302e-001 -1.091710e+001 247 244 233
-3.654571e-001 5.300230e-001 -1.037069e+001 171 165 157
3.173971e+000 9.367383e-001 -7.850187e+000 206 185 130
-9.888486e-001 2.637923e-001 -9.908135e+000 143 108 90
-6.024165e-001 4.424403e-001 -9.960770e+000 201 195 185
-6.024165e-001 4.424403e-001 -9.960770e+000 201 195 185
-6.087635e-001 4.158128e-001 -1.004924e+001 178 171 161
2.329014e+000 7.428793e-001 -9.110262e+000 206 200 186
3.557181e+000 7.548862e-001 -8.001040e+000 206 190 174
1.529621e+000 4.457057e-001 -9.655824e+000 217 214 202
2.161057e+000 3.816282e-001 -9.376984e+000 203 194 179
2.142840e+000 3.054389e-001 -8.834446e+000 214 199 149
1.396600e+000 -2.360260e-001 -9.325164e+000 118 106 83
1.561916e+000 -1.537333e-001 -9.263282e+000 124 113 85
1.790189e+000 -7.727340e-003 -9.061397e+000 131 121 94
-3.135943e+000 -6.407576e-001 -8.052290e+000 162 131 83
-3.047285e+000 -5.654927e-001 -8.037615e+000 147 112 73
-2.954356e+000 -5.093160e-001 -8.076791e+000 125 74 41
-2.346843e+000 -5.566079e-001 -8.408602e+000 138 57 28
1.969790e+000 -1.897193e-001 -9.132233e+000 254 248 193
2.166473e+000 -2.112961e-001 -9.000014e+000 211 194 140
3.923819e-001 -6.172236e-001 -9.405356e+000 78 70 51
4.602878e-001 -6.421126e-001 -9.381754e+000 79 66 44
2.039039e+000 -4.385722e-001 -8.936558e+000 224 218 204
2.288218e+000 -4.280463e-001 -8.492526e+000 175 167 150
2.946854e+000 -3.816163e-001 -8.653773e+000 178 163 147
-2.368741e+000 -9.663313e-001 -8.313874e+000 44 30 34
-2.009022e+000 -1.207161e+000 -8.884969e+000 150 74 53
-3.018867e+000 -1.350562e+000 -8.321956e+000 210 116 73
-1.726845e+000 -1.759486e+000 -9.666543e+000 230 97 76
3.525504e+000 -1.047649e+000 -8.730093e+000 160 117 99
3.572589e+000 -1.073252e+000 -8.791938e+000 162 124 111
3.572589e+000 -1.073252e+000 -8.791938e+000 162 124 111
3.533996e+000 -1.184121e+000 -8.855981e+000 146 91 71
3.497618e+000 -1.260472e+000 -8.870414e+000 173 124 109
3.521207e+000 -1.234898e+000 -8.830213e+000 180 132 110
3.533514e+000 -1.241923e+000 -8.855562e+000 180 132 110
3.598905e+000 -1.213800e+000 -8.655836e+000 179 113 78
8.886963e-001 -2.981151e+000 -1.202484e+001 196 133 79
3.309230e+000 1.449620e+000 -7.701829e+000 241 229 187
3.353646e+000 1.464236e+000 -7.712992e+000 254 244 178
-6.618176e-001 4.491693e-001 -1.004920e+001 209 202 192
4.604773e-001 6.113923e-001 -9.662223e+000 201 196 184
2.799820e+000 5.039163e-001 -7.989547e+000 250 234 177
3.711090e+000 7.426169e-001 -7.728896e+000 203 154 142
-9.164780e-001 -1.403603e-001 -8.901072e+000 107 49 37
2.060161e+000 1.239652e-001 -9.056032e+000 135 123 96
2.208248e+000 1.646214e-001 -8.725660e+000 254 244 189
2.707247e+000 3.434074e-001 -8.263031e+000 220 203 147
2.625768e+000 2.275968e-001 -8.106106e+000 159 145 99
1.568514e+000 -2.047126e-001 -9.230036e+000 130 120 87
1.838177e+000 -2.808830e-002 -9.132865e+000 171 159 115
1.979513e+000 2.136993e-002 -8.999973e+000 171 157 112
-3.157852e+000 -6.101984e-001 -8.066341e+000 216 191 129
-8.890374e-001 -5.999962e-001 -8.791254e+000 139 123 110
-3.494886e-001 -5.441768e-001 -9.446910e+000 83 71 52
1.112583e+000 -4.038502e-001 -9.258392e+000 132 119 86
1.225004e+000 -3.687057e-001 -9.310215e+000 132 119 84
-3.353539e+000 -8.399043e-001 -8.136850e+000 159 128 79
-3.127481e+000 -8.172280e-001 -8.003375e+000 143 92 91
-3.117600e-002 -7.518971e-001 -9.399250e+000 126 117 86
3.587654e-001 -6.561560e-001 -9.406995e+000 105 97 76
5.005570e-001 -6.134857e-001 -9.412789e+000 116 106 81
-2.278955e+000 -9.249281e-001 -8.341302e+000 139 121 117
-1.371538e+000 -8.567105e-001 -8.277243e+000 209 89 90
-1.371538e+000 -8.567105e-001 -8.277243e+000 209 89 90
1.046198e+000 -7.586943e-001 -8.839467e+000 192 188 177
1.167956e+000 -8.104900e-001 -8.851127e+000 200 197 182
-2.642175e+000 -1.341975e+000 -8.364978e+000 71 26 14
-1.995389e+000 -1.674304e+000 -9.708433e+000 128 50 25
-1.891998e+000 -1.698099e+000 -9.246100e+000 194 87 39
3.590678e+000 -1.189953e+000 -8.651907e+000 223 184 165
3.618284e+000 -1.177802e+000 -8.640414e+000 187 115 71
3.565667e+000 -1.125061e+000 -8.075325e+000 236 195 178
1.248148e+000 -3.455887e+000 -1.179161e+001 253 200 159
1.304742e+000 -3.471283e+000 -1.178158e+001 251 199 156
3.181743e+000 -2.117347e+000 -9.283736e+000 188 119 64
3.562517e+000 -2.113252e+000 -8.992236e+000 171 100 54
7.050827e+000 -3.146015e+000 -1.208381e+001 201 191 188
1.299298e+000 -3.531930e+000 -1.172410e+001 210 146 104
3.508762e+000 2.344304e+000 -8.073731e+000 132 89 64
-1.506844e-001 2.124454e+000 -1.221237e+001 230 222 212
-8.082914e-001 1.953417e+000 -1.243366e+001 225 222 212
1.239661e+000 1.480530e+000 -1.000658e+001 177 168 161
1.365301e+000 1.706551e+000 -1.016916e+001 164 160 150
1.499207e+000 1.747672e+000 -1.018279e+001 204 200 191
3.766205e+000 1.251015e+000 -7.889500e+000 184 69 67
-6.292595e-001 4.220221e-001 -9.863866e+000 178 171 161
-8.100445e-001 2.231749e-001 -9.585424e+000 193 180 172
2.188692e+000 3.982858e-001 -8.779656e+000 144 128 96
-2.519355e+000 -4.728860e-001 -9.168274e+000 130 73 60
-1.000689e-001 -1.904722e-001 -9.312015e+000 168 163 157
-1.000689e-001 -1.904722e-001 -9.312015e+000 168 163 157
1.697399e+000 -1.008527e-001 -9.171937e+000 167 159 123
1.855605e+000 -7.104349e-002 -9.088206e+000 214 200 150
1.961476e+000 2.862018e-002 -9.105994e+000 192 179 134
-3.509653e+000 -5.752981e-001 -8.168719e+000 227 197 125
-3.267489e+000 -6.415958e-001 -8.073062e+000 153 123 71
-2.445566e+000 -6.201594e-001 -8.088995e+000 101 43 31
-2.408030e+000 -6.301457e-001 -8.017976e+000 115 64 62
-2.300655e+000 -6.358969e-001 -8.582171e+000 116 40 17
-2.160637e+000 -6.611623e-001 -8.564931e+000 116 39 19
6.755152e-001 -5.255287e-001 -9.441566e+000 86 79 54
5.579392e-001 -5.901952e-001 -9.404006e+000 137 126 95
6.146528e-001 -5.795937e-001 -9.408884e+000 154 148 117
-3.597425e+000 -8.165658e-001 -8.239983e+000 122 51 41
-3.294841e+000 -8.086751e-001 -8.121263e+000 171 145 90
-2.514882e+000 -6.536173e-001 -8.030712e+000 105 53 49
-2.429878e+000 -6.605363e-001 -7.972707e+000 137 78 74
-2.375631e+000 -1.129135e+000 -9.603208e+000 136 68 49
-5.116277e-001 -7.349802e-001 -9.325613e+000 82 69 52
-3.000163e+000 -1.050975e+000 -8.096267e+000 233 132 81
-2.406824e+000 -9.289699e-001 -8.141996e+000 134 93 71
-3.898892e-001 -8.986608e-001 -9.004060e+000 138 129 118
-2.888539e+000 -1.300618e+000 -8.154413e+000 199 109 76
-1.323915e+000 -1.394824e+000 -8.615237e+000 204 107 72
7.180861e-001 -2.656969e+000 -1.218295e+001 154 83 66
3.611753e+000 -1.251440e+000 -8.617898e+000 191 115 67
3.831247e-001 -2.945321e+000 -1.259987e+001 199 133 77
2.472052e+000 -2.427354e+000 -1.021308e+001 110 59 36
1.242008e+000 -3.523113e+000 -1.177363e+001 208 149 114
1.322967e+000 -3.506662e+000 -1.174774e+001 206 136 85
1.616524e+000 -3.084372e+000 -1.123815e+001 230 173 107
2.601477e+000 -2.776588e+000 -1.029340e+001 124 78 51
6.899015e+000 -3.180356e+000 -1.254136e+001 194 188 185
6.980081e+000 -3.126683e+000 -1.233393e+001 236 226 224
7.016955e+000 -3.125304e+000 -1.228171e+001 236 228 225
3.339146e+000 -2.391099e+000 -9.253735e+000 200 121 65
3.089448e+000 1.757856e+000 -7.935967e+000 230 211 154
3.507443e+000 1.764113e+000 -7.488432e+000 183 164 112
2.719440e+000 1.238560e+000 -8.368965e+000 207 198 182
-1.652758e-001 7.219618e-001 -1.060461e+001 225 223 211
2.460665e+000 8.839270e-001 -8.429096e+000 175 158 117
2.466037e+000 8.832363e-001 -8.445896e+000 175 158 117
2.500052e+000 8.863876e-001 -8.386002e+000 249 233 164
-9.539322e-001 3.055060e-001 -1.005533e+001 194 184 174
-7.395260e-001 2.697178e-001 -9.672014e+000 208 200 190
-3.164371e-001 4.473012e-001 -9.874955e+000 187 178 169
-2.648750e-001 5.322092e-001 -1.038554e+001 163 158 152
2.394997e+000 6.383272e-001 -8.449897e+000 204 187 132
-9.118778e-001 -1.773848e-001 -8.961708e+000 128 73 54
-7.280969e-001 -1.307679e-001 -9.460414e+000 120 98 90
-6.711725e-001 -1.556280e-001 -9.458652e+000 146 129 121
1.773458e-001 6.960451e-003 -9.378522e+000 149 145 135
-3.301051e+000 -3.535136e-001 -8.012212e+000 225 205 129
-3.486548e+000 -5.240844e-001 -8.120779e+000 253 226 150
-1.384379e+000 -2.660503e-001 -8.636742e+000 230 136 79
-9.371969e-001 -2.949772e-001 -9.269590e+000 97 52 43
2.520369e+000 1.103252e-001 -8.295587e+000 183 167 112
-2.065001e+000 -5.215491e-001 -8.875013e+000 163 84 53
-6.010816e-001 -6.901228e-001 -9.434614e+000 87 75 53
-5.955878e-001 -6.764122e-001 -9.360536e+000 87 75 53
5.521465e-001 -5.515919e-001 -9.518574e+000 136 128 116
1.310632e+000 -3.039739e-001 -9.326997e+000 199 188 146
1.310632e+000 -3.039739e-001 -9.326997e+000 199 188 146
1.492936e+000 -2.591314e-001 -9.294984e+000 124 113 81
1.632064e+000 -3.697648e-001 -9.073836e+000 132 121 89
-2.916148e+000 -6.879384e-001 -7.977565e+000 118 63 56
-1.887211e+000 -8.952779e-001 -8.692209e+000 175 119 86
-1.821585e+000 -7.366878e-001 -8.826683e+000 150 66 32
-2.181215e-001 -7.782390e-001 -9.264944e+000 63 51 39
2.069527e-001 -7.015800e-001 -9.401498e+000 146 139 121
-2.415312e+000 -9.033190e-001 -8.092531e+000 104 49 33
-1.580887e+000 -8.258718e-001 -8.344477e+000 182 147 104
1.781585e-001 -1.229603e+000 -9.608823e+000 173 164 156
-3.123727e+000 -1.463924e+000 -8.467063e+000 74 24 19
1.888582e+000 -1.482333e+000 -9.406432e+000 189 182 170
2.549897e+000 -2.101456e+000 -9.954362e+000 191 162 115
2.190749e+000 -2.315403e+000 -9.835999e+000 84 53 30
2.271742e+000 -2.337693e+000 -1.000722e+001 135 105 67
3.092551e+000 -1.897580e+000 -8.986256e+000 187 99 85
1.016025e+000 -3.457514e+000 -1.224445e+001 199 119 59
3.280739e+000 -2.416053e+000 -9.255553e+000 200 118 62
3.515181e-001 1.544994e+000 -1.116307e+001 221 216 210
1.274990e+000 1.596143e+000 -1.016909e+001 172 168 156
-1.138531e+000 1.212128e+000 -1.275053e+001 215 211 200
-1.321581e-001 5.073697e-001 -1.010211e+001 162 155 145
1.931661e-001 1.234692e-001 -9.426889e+000 144 136 125
-9.124329e-001 -1.247808e-001 -9.308577e+000 85 37 27
6.752730e-001 -2.697158e-001 -9.565580e+000 160 155 144
1.971124e+000 -2.797676e-002 -9.102380e+000 183 170 121
-3.088125e+000 -6.812805e-001 -8.017903e+000 164 103 99
-2.167512e+000 -5.413116e-001 -8.762186e+000 119 42 24
1.042107e+000 -4.175264e-001 -9.383884e+000 184 172 129
-1.932534e+000 -7.527114e-001 -8.765472e+000 168 84 47
-1.602633e+000 -8.758423e-001 -8.328587e+000 58 56 64
-3.527493e-001 -8.894654e-001 -9.017903e+000 170 163 157
-1.138718e-001 -1.044702e+000 -9.207689e+000 165 158 150
1.140924e+000 -7.423018e-001 -8.894901e+000 61 51 41
1.562750e+000 -9.257810e-001 -9.141339e+000 154 146 135
1.909567e+000 -8.800052e-001 -9.114502e+000 203 199 188
-1.727860e+000 -1.960767e+000 -9.857933e+000 67 44 40
3.454557e-001 -3.196745e+000 -1.271929e+001 218 146 98
1.544359e+000 -2.778980e+000 -1.116316e+001 196 97 76
1.970764e+000 -2.312870e+000 -9.956412e+000 201 179 126
2.323733e+000 -2.420626e+000 -1.024954e+001 136 106 68
3.161341e+000 -1.880052e+000 -8.929187e+000 175 84 82
9.364091e-001 -3.487568e+000 -1.222668e+001 222 153 109
2.962153e+000 1.638226e+000 -8.321178e+000 189 178 160
2.740465e+000 1.117120e+000 -8.351635e+000 209 193 142
3.687279e+000 9.503176e-001 -7.818385e+000 187 158 144
-7.729654e-001 -1.763468e-001 -9.507123e+000 81 56 51
-3.592420e+000 -4.976574e-001 -8.259608e+000 104 26 32
-1.012034e+000 -2.422353e-001 -8.741592e+000 105 49 40
-3.176605e+000 -6.595021e-001 -8.064870e+000 198 171 116
-9.687030e-001 -6.116134e-001 -9.215958e+000 96 66 58
-1.782974e-001 -5.265743e-001 -9.389351e+000 168 164 155
3.785972e-001 -6.062741e-001 -9.460583e+000 85 74 60
8.836940e-001 -5.116159e-001 -9.483745e+000 156 146 110
-3.187990e+000 -8.087426e-001 -8.062227e+000 74 31 22
-2.753513e+000 -8.451869e-001 -7.982065e+000 187 90 52
-2.578852e+000 -6.927811e-001 -8.061064e+000 101 39 28
1.744957e+000 -4.825735e-001 -9.137071e+000 172 167 155
1.929271e+000 -5.522352e-001 -9.104313e+000 200 193 181
-3.236173e+000 -1.125877e+000 -8.176823e+000 142 83 79
-2.490497e+000 -1.059035e+000 -8.148754e+000 106 45 34
1.795723e+000 -6.926410e-001 -9.118632e+000 206 199 191
-1.393165e+000 -1.058252e+000 -8.341000e+000 42 42 44
-6.306321e-002 -1.162733e+000 -9.287026e+000 181 179 173
2.285362e+000 -1.196705e+000 -9.137901e+000 208 201 189
2.285362e+000 -1.196705e+000 -9.137901e+000 208 201 189
1.094397e+000 -2.510975e+000 -1.134803e+001 219 86 89
9.789364e-001 -3.012864e+000 -1.193317e+001 165 74 74
3.415802e+000 2.351043e+000 -8.163530e+000 200 80 78
-3.862290e-001 1.827459e+000 -1.205887e+001 233 227 221
1.533018e+000 1.809445e+000 -1.017247e+001 234 230 219
1.895245e+000 1.952753e+000 -9.852728e+000 186 180 168
1.895245e+000 1.952753e+000 -9.852728e+000 186 180 168
2.114737e-002 1.704972e+000 -1.171213e+001 200 195 189
-1.716401e+000 1.041761e+000 -1.423955e+001 216 206 196
9.542245e-001 9.825814e-001 -9.666303e+000 235 235 227
-1.624344e-001 7.544679e-001 -1.068719e+001 228 224 215
-1.670332e+000 -1.639315e-003 -9.723695e+000 59 40 38
-1.674304e-001 1.786361e-001 -9.345287e+000 183 176 168
-1.674304e-001 1.786361e-001 -9.345287e+000 183 176 168
5.029701e-001 2.685331e-001 -9.860466e+000 160 156 145
2.240775e+000 3.757729e-001 -8.914259e+000 173 158 113
-8.065332e-001 -2.966270e-003 -9.358877e+000 146 84 63
-5.929322e-001 -5.849862e-002 -9.366836e+000 161 152 143
-3.328744e+000 -5.871230e-001 -8.023844e+000 155 119 67
-2.892331e+000 -6.047864e-001 -8.228100e+000 159 87 57
-7.633996e-001 -6.332061e-001 -9.325972e+000 31 21 19
-3.471834e-001 -4.432219e-001 -9.316814e+000 161 152 143
2.329000e+000 -1.581048e-001 -8.686821e+000 187 177 127
2.302153e+000 -2.343526e-001 -8.831182e+000 154 145 109
-3.203432e+000 -9.528716e-001 -8.016244e+000 69 24 26
-2.961222e+000 -1.012748e+000 -8.043321e+000 236 135 86
-2.961222e+000 -1.012748e+000 -8.043321e+000 236 135 86
-2.709071e+000 -9.759117e-001 -8.002130e+000 170 72 43
-2.714497e+000 -9.745843e-001 -7.989567e+000 170 72 43
-2.056578e+000 -1.366766e+000 -8.954372e+000 176 74 36
1.072298e+000 -2.112593e+000 -1.111500e+001 193 146 106
1.072298e+000 -2.112593e+000 -1.111500e+001 193 146 106
4.086895e+000 -9.451881e-001 -7.899578e+000 204 72 78
1.458916e+000 -2.943881e+000 -1.129440e+001 178 81 69
1.472112e+000 -3.132975e+000 -1.141363e+001 223 183 113
3.313310e+000 2.115532e+000 -8.012374e+000 122 107 78
3.046681e+000 1.731594e+000 -8.102030e+000 153 138 97
3.528320e+000 1.803153e+000 -7.505136e+000 161 143 97
-1.516066e+000 7.984380e-001 -1.395062e+001 225 220 204
2.393095e+000 1.207804e+000 -8.832845e+000 220 213 203
2.393095e+000 1.207804e+000 -8.832845e+000 220 213 203
-1.223341e+000 2.476062e-001 -1.049956e+001 250 243 239
-8.202884e-001 2.835343e-001 -9.745416e+000 205 198 190
2.215118e+000 5.601602e-001 -9.015805e+000 189 180 164
2.050108e+000 7.120892e-002 -9.285847e+000 138 124 100
-3.467150e+000 -4.675915e-001 -8.154428e+000 100 24 27
-1.972124e-001 -6.302223e-001 -9.405207e+000 152 142 132
2.505665e+000 -3.126866e-001 -8.879575e+000 190 181 164
1.058663e+000 -7.387416e-001 -9.082678e+000 69 58 42
-2.172848e+000 -1.230432e+000 -8.391531e+000 163 105 86
-1.489029e+000 -1.092992e+000 -8.375570e+000 227 194 149
-1.490783e+000 -1.092960e+000 -8.373354e+000 227 194 149
2.757009e-001 -1.683739e+000 -1.034440e+001 194 187 175
1.239154e+000 -2.941389e+000 -1.151389e+001 226 179 105
1.238386e+000 -2.918478e+000 -1.145912e+001 226 179 105
2.763396e+000 1.970328e+000 -8.725702e+000 238 230 219
-2.501022e+000 1.056111e+000 -1.497146e+001 236 98 98
2.893744e+000 4.627280e-001 -8.311404e+000 255 246 187
2.031103e+000 2.278892e-001 -9.375072e+000 167 154 136
3.167376e+000 3.721653e-001 -8.197106e+000 222 215 205
-1.050647e+000 -2.143584e-001 -8.756879e+000 113 52 36
3.405249e+000 -8.016297e-001 -8.284103e+000 209 90 88
1.717772e+000 2.056294e+000 -1.018068e+001 239 233 221
2.482561e+000 1.954040e+000 -8.881023e+000 229 225 213
2.024827e-001 1.165886e+000 -1.067783e+001 237 233 222
2.083450e-001 1.169036e+000 -1.071101e+001 237 233 222
3.795295e+000 9.321269e-001 -7.768020e+000 184 68 69
-1.321982e+000 -6.041180e-002 -9.843698e+000 126 62 44
-2.074251e+000 -8.286117e-001 -8.889640e+000 88 25 16
-2.074251e+000 -8.286117e-001 -8.889640e+000 88 25 16
7.680315e-001 -6.254476e-001 -9.229817e+000 76 64 48
1.858746e+000 -8.024189e-001 -9.108171e+000 200 196 184
-9.324522e-001 -1.414309e+000 -8.568105e+000 155 143 129
-1.177509e+000 -1.961432e+000 -9.328562e+000 69 50 46
-9.731994e-001 -1.794703e+000 -8.966642e+000 197 189 178
3.332548e+000 -8.555657e-001 -7.676700e+000 129 42 46
2.216396e+000 -1.766041e+000 -9.456974e+000 231 224 214
1.614526e+000 -2.871454e+000 -1.108464e+001 227 180 108
3.310805e+000 -2.275607e+000 -9.214775e+000 211 135 80
2.373373e+000 1.867143e+000 -9.002259e+000 178 170 157
2.491105e+000 1.132492e+000 -8.383643e+000 236 227 218
-4.471847e-001 4.679475e-001 -1.028389e+001 158 151 141
1.323161e+000 4.826429e-001 -9.710569e+000 184 178 164
2.390328e+000 6.664169e-001 -8.501745e+000 161 149 99
3.742487e+000 6.684636e-001 -7.672303e+000 207 74 74
2.250851e+000 2.166763e-001 -8.801703e+000 253 250 195
-5.289379e-001 -8.360494e-001 -8.947518e+000 156 143 134
-2.441685e-002 2.979821e+000 -1.231932e+001 248 245 236
-1.524513e+000 1.452984e+000 -1.366994e+001 239 235 224
-5.032820e-001 -2.680550e-001 -9.373548e+000 165 156 147
2.823072e+000 -1.697134e-001 -8.584907e+000 236 228 213
-1.448211e+000 -9.313630e-001 -8.522984e+000 55 31 23
-1.443692e+000 -9.246787e-001 -8.496306e+000 55 31 23
1.955750e-001 -1.353683e+000 -9.937316e+000 162 157 151
1.357131e+000 -1.031061e+000 -9.035520e+000 162 154 143
2.679794e+000 -2.460274e+000 -9.634197e+000 125 70 50
3.595778e+000 8.445783e-001 -7.797321e+000 231 217 203
-1.289377e+000 -5.059904e-001 -8.883019e+000 84 36 29
3.651657e-001 -6.054387e-001 -9.262755e+000 78 69 51
2.789327e+000 5.187663e-001 -8.710766e+000 255 254 215
3.120239e+000 5.426297e-001 -8.218098e+000 122 106 90
-1.515420e+000 -2.411867e-001 -8.525835e+000 234 139 87
2.491145e+000 1.284153e-001 -8.957478e+000 254 253 199
9.137411e-001 -1.044676e+000 -9.261940e+000 231 228 221
3.403564e+000 1.465825e+000 -7.983734e+000 255 241 182
-1.340268e+000 5.407690e-001 -1.143514e+001 248 243 237
2.421245e+000 -1.215963e+000 -8.904454e+000 244 239 232
2.347485e+000 6.035576e-001 -8.701348e+000 167 153 118
2.202547e+000 3.965905e-001 -9.366779e+000 198 185 167
2.154491e+000 2.609138e-001 -8.902238e+000 197 184 131
-3.206019e+000 -3.644399e-001 -7.943620e+000 126 100 56
-2.427611e+000 -1.033759e+000 -8.300772e+000 121 80 52
-2.577676e+000 -1.259599e+000 -8.321020e+000 77 53 46
1.762356e+000 -2.647971e+000 -9.855328e+000 130 109 78
-3.270019e-001 2.646014e+000 -1.261213e+001 230 221 213
-3.275130e-001 2.645650e+000 -1.260355e+001 230 221 213
-8.979673e-001 1.647153e-001 -9.729301e+000 122 82 68
-3.226376e+000 -3.297113e-001 -7.970587e+000 109 91 62
-3.176417e+000 -3.686157e-001 -7.956300e+000 118 97 78
-3.486863e+000 -5.655284e-001 -8.279310e+000 128 95 53
-3.025536e+000 -5.615746e-001 -7.986448e+000 167 135 90
2.942813e+000 -7.697559e-001 -8.540768e+000 144 107 97
-3.246043e+000 -6.260344e-001 -8.083829e+000 165 138 84
-3.283361e+000 -7.669436e-001 -8.114722e+000 161 131 80
-3.345586e+000 -8.213035e-001 -8.145034e+000 248 219 163
-1.391457e+000 -1.026717e+000 -8.316312e+000 113 93 90
-2.570752e+000 -1.331926e+000 -8.381512e+000 82 65 65
-1.751071e+000 -1.776394e+000 -9.189070e+000 44 23 14
-3.103007e+000 -6.599605e-001 -7.999544e+000 120 74 60
-2.425763e+000 -9.891973e-001 -8.271780e+000 59 32 23
-2.365106e+000 -9.891821e-001 -8.312743e+000 121 107 107
-2.360336e+000 -1.042566e+000 -8.298670e+000 163 146 147
6.822023e-001 -2.690771e+000 -1.223078e+001 169 111 60
6.840401e-001 -2.704606e+000 -1.228731e+001 169 111 60
-2.432169e+000 -1.010287e+000 -8.227784e+000 137 97 72
-2.432169e+000 -1.010287e+000 -8.227784e+000 137 97 72
1.733416e-001 -1.024807e+000 -9.226484e+000 177 170 160
-2.884292e+000 -1.175516e+000 -8.126737e+000 121 42 30
3.131572e+000 -2.155132e+000 -8.940551e+000 251 254 248
3.131572e+000 -2.155132e+000 -8.940551e+000 251 254 248
6.080115e-001 -3.072203e+000 -1.236625e+001 201 119 60
2.255364e+000 5.140055e-001 -8.791852e+000 204 195 183
-6.082631e-001 -1.301476e+000 -8.870153e+000 134 122 108
-2.903417e+000 -1.244863e+000 -8.131128e+000 154 54 38
-3.905231e-001 1.860492e+000 -1.223926e+001 231 228 221
3.682990e+000 7.041446e-001 -7.864656e+000 208 190 174
-1.343050e+000 -1.096187e+000 -8.344934e+000 203 146 111
2.207084e+000 7.611929e-001 -9.152483e+000 216 212 203
-2.167963e+000 -1.030023e+000 -8.316952e+000 178 136 95
-2.167963e+000 -1.030023e+000 -8.316952e+000 178 136 95
3.036356e+000 -1.686667e+000 -8.954480e+000 227 223 213
1.800849e+000 -2.735351e+000 -9.787845e+000 103 80 48
-2.029237e+000 -1.955026e+000 -9.127038e+000 31 21 20
3.519840e+000 9.613474e-002 -7.661886e+000 241 231 222
9.681245e-001 -7.244045e-001 -8.980081e+000 151 141 128
-2.048376e+000 -4.477084e-001 -8.838836e+000 160 82 59
3.550062e+000 1.335593e+000 -7.718713e+000 134 92 80
4.357511e-001 -5.616210e-001 -9.480156e+000 93 83 73
-1.192997e+000 -1.294064e+000 -8.527553e+000 199 186 174
-2.991089e+000 -1.030339e+000 -8.088392e+000 235 135 88
-1.020537e+000 -1.043909e+000 -8.422082e+000 169 160 150
-3.236106e-001 2.371555e+000 -1.269104e+001 235 229 214
-1.027303e-002 2.218981e+000 -1.218303e+001 238 235 220
1.938901e+000 5.391305e-001 -9.315443e+000 222 216 202
-1.248790e+000 -8.882782e-001 -8.286417e+000 150 137 121
-2.968316e+000 -1.208560e+000 -8.139677e+000 191 86 57
2.607279e+000 -2.776506e+000 -9.923182e+000 127 71 39
3.290954e-001 1.333863e+000 -1.075945e+001 166 159 149
2.493314e+000 1.191210e+000 -8.542876e+000 237 230 220
-2.957945e+000 -1.038838e+000 -8.105420e+000 233 132 88
2.118885e+000 1.960662e-001 -8.875893e+000 170 154 103
1.798966e+000 -5.469284e-002 -9.188172e+000 164 153 114
-3.016729e+000 -5.010534e-001 -8.052065e+000 107 82 52
1.104815e+000 -1.085694e+000 -8.995349e+000 194 190 182
-3.158070e+000 -1.466949e+000 -8.490022e+000 104 55 53
-2.470393e+000 -1.283549e+000 -8.321313e+000 81 60 61
-2.494594e+000 -1.722837e+000 -9.618811e+000 122 69 48
2.444556e-001 -1.938148e+000 -1.083329e+001 172 120 109
1.649549e+000 -2.774508e+000 -1.112471e+001 186 111 70
3.727925e+000 1.274299e+000 -7.884065e+000 163 97 89
2.414896e+000 5.699642e-001 -8.521122e+000 196 180 121
-3.395060e+000 -8.401177e-001 -8.164659e+000 227 196 140
-3.394928e+000 -1.050802e+000 -8.183759e+000 101 40 34
7.185935e-001 -2.660796e+000 -1.222020e+001 147 79 54
2.564701e+000 -2.493728e+000 -9.981138e+000 159 122 67
3.571020e+000 -1.020476e+000 -8.674514e+000 188 138 127
3.459403e+000 -1.171543e+000 -8.842829e+000 111 57 46
-2.466422e+000 -1.312159e+000 -8.369851e+000 79 59 50
8.239544e-001 -2.783200e+000 -1.208300e+001 208 148 87
-2.434511e+000 -1.326354e+000 -8.378358e+000 218 181 141
-3.567959e+000 -4.891831e-001 -8.184355e+000 69 22 21
-3.139236e+000 -6.027874e-001 -8.059840e+000 190 161 104
-2.923281e+000 -9.482736e-001 -8.034799e+000 251 157 106
2.586642e-001 -7.415074e-002 -9.468988e+000 154 146 135
-6.128162e-002 -1.147144e+000 -9.199448e+000 187 183 176
-8.325858e-001 -1.015487e+000 -8.493574e+000 170 161 152
-1.412760e-001 -1.098131e+000 -9.096015e+000 145 135 125
1.723587e+000 -1.028299e+000 -9.193396e+000 199 195 184
-1.939808e+000 2.559328e+000 -1.424384e+001 194 77 78
-2.654830e+000 1.100363e+000 -1.574853e+001 236 98 102
1.496321e+000 7.497544e-002 -9.478646e+000 170 161 144
-2.037796e-001 -5.955725e-001 -9.472583e+000 155 151 141
2.223365e+000 -1.499848e+000 -9.286449e+000 242 235 227
-1.791816e+000 -9.492462e-001 -8.704576e+000 230 187 142
8.483441e-001 8.778269e-001 -9.665479e+000 239 236 226
-3.464006e+000 -4.931534e-001 -8.091987e+000 107 81 43
-3.040265e+000 -5.389396e-001 -8.025976e+000 141 111 65
-4.799634e-001 -7.123925e-001 -9.263793e+000 59 47 30
2.076397e+000 -4.350957e-001 -8.983629e+000 185 178 161
-2.399394e+000 -9.950013e-001 -8.249876e+000 104 77 66
1.086947e+000 -7.937825e-001 -8.923373e+000 209 205 193
2.942915e+000 -6.079099e-001 -8.560082e+000 157 138 123
-2.639451e+000 -1.280446e+000 -8.304677e+000 117 70 55
-2.572452e+000 -1.333494e+000 -8.390847e+000 89 72 75
-3.661246e-002 -1.118227e+000 -9.188295e+000 148 139 131
-1.896921e+000 -1.654449e+000 -9.225066e+000 194 82 39
-1.148838e+000 -1.381105e+000 -8.495027e+000 184 94 82
8.993287e-001 -2.944976e+000 -1.202366e+001 208 146 89
2.648808e+000 -2.606782e+000 -1.000186e+001 134 84 53
3.305067e+000 -2.235591e+000 -8.965301e+000 190 115 57
-3.301599e-001 5.688077e-001 -1.031137e+001 179 175 166
-1.279476e+000 2.174315e-001 -1.049916e+001 252 249 240
-1.279476e+000 2.174315e-001 -1.049916e+001 252 249 240
2.421507e+000 7.367949e-001 -8.478979e+000 163 147 96
-7.820385e-001 2.476203e-001 -9.626080e+000 138 77 63
-3.230598e+000 -4.023915e-001 -8.047996e+000 136 104 52
-1.496665e+000 -7.769989e-001 -8.456466e+000 153 100 76
-2.363987e+000 -9.876949e-001 -8.308824e+000 139 124 128
-2.500775e+000 -1.390705e+000 -8.426197e+000 194 157 127
3.494450e+000 -1.190416e+000 -8.851747e+000 158 120 114
4.130558e+000 -9.792256e-001 -7.818797e+000 183 81 87
-6.963880e-001 -3.498034e-003 -9.471284e+000 145 131 122
-6.280386e-001 -1.115495e-001 -9.345907e+000 127 111 102
-2.024530e+000 -4.683860e-001 -8.787129e+000 141 65 42
-2.084359e+000 -5.076665e-001 -8.774999e+000 162 83 53
-5.115877e-001 -7.362771e-001 -9.330032e+000 82 69 52
3.067726e-001 -6.646125e-001 -9.371721e+000 104 96 73
-3.233646e+000 -1.166564e+000 -8.197544e+000 127 78 64
-3.233115e+000 -1.166382e+000 -8.197442e+000 127 78 64
-2.493629e+000 -1.353000e+000 -8.372485e+000 63 31 23
-1.689298e+000 -1.889734e+000 -9.785717e+000 201 77 63
4.822282e-002 7.704933e-001 -1.038005e+001 225 220 212
-4.186133e-001 -8.871509e-001 -9.065119e+000 132 122 112
-5.584386e-001 -1.253970e+000 -8.771486e+000 182 172 160
1.875392e+000 -1.534566e+000 -9.400232e+000 192 182 175
1.090605e+000 -3.142318e+000 -1.178318e+001 209 154 115
2.508624e+000 -2.584458e+000 -1.010381e+001 148 115 64
1.035404e-001 2.154628e+000 -1.202989e+001 210 203 193
2.311892e+000 8.793852e-001 -9.124404e+000 235 231 219
2.847461e-001 -4.368710e-001 -9.402320e+000 169 163 154
-2.597982e+000 -8.422633e-001 -8.019646e+000 123 46 30
-2.597982e+000 -8.422633e-001 -8.019646e+000 123 46 30
3.640858e+000 5.474791e-001 -7.678719e+000 237 221 209
7.114197e-001 1.491301e+000 -1.025069e+001 239 235 224
-6.470064e-001 -1.143964e+000 -8.518526e+000 189 186 177
2.805610e+000 -1.137295e+000 -8.555057e+000 224 220 209
7.001972e-002 7.413775e-001 -1.046786e+001 182 178 169
7.350736e-002 7.025691e-001 -1.051392e+001 155 151 142
1.593483e+000 1.328447e-001 -9.658781e+000 187 181 167
1.809975e+000 -2.766366e-002 -9.203490e+000 140 126 101
1.704882e+000 -8.416228e-002 -9.190870e+000 124 113 87
1.978418e+000 -3.530745e-001 -9.079190e+000 187 174 121
2.049720e+000 -4.053884e-001 -9.084330e+000 105 90 60
-2.283919e+000 -9.249839e-001 -8.409088e+000 119 88 68
-2.396668e+000 -1.034612e+000 -8.320028e+000 103 77 70
3.390152e+000 -1.461175e+000 -8.712724e+000 164 101 60
-2.478572e+000 -1.455963e+000 -8.530674e+000 145 61 31
2.395261e-001 -1.912284e+000 -1.078911e+001 182 171 168
2.112314e+000 -2.092398e+000 -9.719554e+000 215 81 81
9.001249e-001 -2.942166e+000 -1.201423e+001 210 147 94
2.648984e+000 -2.510930e+000 -1.001755e+001 140 91 52
2.866503e+000 -2.767589e+000 -9.718982e+000 191 133 93
2.156187e+000 3.382878e-001 -8.864113e+000 150 140 101
2.388137e+000 3.890603e-001 -8.537560e+000 216 200 141
-7.204248e-001 1.628422e-001 -9.630098e+000 150 112 100
1.453843e+000 -2.102932e-001 -9.322032e+000 132 121 97
-4.803906e-001 -4.370552e-001 -9.390169e+000 147 133 104
-4.107042e-001 -4.861768e-001 -9.363789e+000 95 83 60
1.778987e+000 -4.676722e-001 -9.094445e+000 172 161 155
-3.493061e+000 -5.151490e-001 -8.247992e+000 117 84 51
-2.279201e+000 -6.272097e-001 -8.596322e+000 115 38 15
-4.777693e-001 -5.226280e-001 -9.378052e+000 84 73 53
5.772858e-001 -5.616073e-001 -9.401574e+000 92 81 58
-3.290108e+000 -6.458711e-001 -8.164052e+000 229 202 149
3.576985e+000 -9.794679e-001 -8.641135e+000 185 129 118
-2.399939e+000 -8.970523e-001 -8.352879e+000 75 53 49
-2.408320e+000 -9.170524e-001 -8.316232e+000 82 57 47
-2.430459e+000 -9.552103e-001 -8.161645e+000 98 62 43
-2.410135e+000 -9.661513e-001 -8.273587e+000 78 54 45
-1.365253e+000 -8.814151e-001 -8.292511e+000 188 75 70
-1.364395e+000 -8.815573e-001 -8.293878e+000 188 75 70
-2.563650e+000 -1.197010e+000 -8.292162e+000 140 96 67
-2.344536e+000 -1.052287e+000 -8.344917e+000 170 148 138
1.660411e+000 -2.690698e+000 -1.112455e+001 193 116 86
8.247922e-001 9.105693e-001 -9.906229e+000 172 167 155
-7.067836e-001 -3.436639e-003 -9.543657e+000 144 131 121
-9.981149e-002 -1.922744e-001 -9.302457e+000 167 160 152
1.333792e+000 -2.628345e-001 -9.341344e+000 122 113 86
-2.699116e+000 -5.682960e-001 -8.131037e+000 149 75 47
-2.308587e+000 -5.974401e-001 -8.552850e+000 134 54 35
-3.273165e+000 -7.054274e-001 -8.114759e+000 201 175 118
-3.371013e+000 -7.339812e-001 -8.212957e+000 239 213 154
-2.452534e+000 -6.631999e-001 -8.017147e+000 126 73 67
-2.407538e+000 -6.934033e-001 -8.018244e+000 83 34 25
-3.131545e+000 -8.121632e-001 -8.015155e+000 124 70 64
3.596989e-001 -2.353023e+000 -1.196882e+001 184 149 133
3.112151e+000 -1.979303e+000 -9.146651e+000 224 171 112
3.199698e+000 -1.962563e+000 -9.109124e+000 217 158 105
6.226024e+000 -3.027450e+000 -1.326344e+001 224 214 213
1.638823e+000 -3.201020e+000 -1.085425e+001 254 239 215
1.638823e+000 -3.201020e+000 -1.085425e+001 254 239 215
-6.312011e-001 -1.221292e-001 -9.511716e+000 126 108 99
-4.769198e-001 -1.985799e-001 -9.411248e+000 176 170 163
-2.309560e+000 -7.888812e-001 -8.444359e+000 105 48 29
-3.500301e+000 -7.932097e-001 -8.240972e+000 243 219 148
-1.193707e+000 -1.440006e+000 -8.568627e+000 210 91 77
3.186941e+000 -1.994592e+000 -9.067878e+000 180 91 80
1.089884e+000 -2.984072e+000 -1.182534e+001 214 158 84
3.268031e+000 1.196309e+000 -7.696042e+000 212 193 161
-7.784675e-001 2.439547e-001 -9.688880e+000 141 75 61
2.448480e-001 -3.575038e-001 -9.419855e+000 143 136 125
-3.330147e+000 -6.538290e-001 -8.113142e+000 222 194 131
-3.427945e+000 -7.673755e-001 -8.218703e+000 243 216 147
-2.502933e+000 -6.855164e-001 -8.059556e+000 89 32 21
-2.514137e+000 -6.852895e-001 -8.084765e+000 89 32 21
-1.487721e+000 -8.026104e-001 -8.469736e+000 39 25 33
