ply
format ascii 1.0
element face 0
property list uchar int vertex_indices
element vertex 864
property float x
property float y
property float z
property uchar diffuse_red
property uchar diffuse_green
property uchar diffuse_blue
end_header
-3.131103e+000 -1.483876e+000 -8.471494e+000 76 28 26
-2.356425e+000 -1.641473e+000 -9.346836e+000 182 72 19
2.555100e+000 1.017196e+000 -8.374023e+000 146 131 102
3.100188e+000 4.109906e-001 -8.295726e+000 140 126 113
-3.303885e+000 -4.004385e-001 -8.026063e+000 236 208 145
3.238467e+000 -1.628396e+000 -8.827521e+000 137 94 80
3.027627e-001 -2.666437e+000 -1.225713e+001 155 120 103
2.847485e-001 -1.103908e+000 -9.329608e+000 183 179 171
1.138965e+000 -2.156599e+000 -1.108397e+001 204 137 121
1.139753e+000 -2.155498e+000 -1.108187e+001 204 137 121
-3.568673e+000 -8.049926e-001 -8.257896e+000 219 191 106
7.916417e-001 -2.966667e+000 -1.212836e+001 209 158 137
1.824450e+000 -7.815050e-001 -9.100655e+000 177 169 158
8.007223e-001 -2.391625e+000 -1.147057e+001 230 179 138
8.007223e-001 -2.391625e+000 -1.147057e+001 230 179 138
-8.827419e-001 1.689290e-001 -9.789881e+000 139 117 107
3.547341e+000 -1.107148e+000 -8.738048e+000 169 129 110
3.547341e+000 -1.107148e+000 -8.738048e+000 169 129 110
3.624007e+000 -1.147141e+000 -8.617674e+000 196 140 124
3.625793e+000 -1.171720e+000 -8.564439e+000 212 159 145
3.636826e+000 -1.228067e+000 -8.597105e+000 213 161 126
-8.420988e-002 -1.428856e-001 -9.362960e+000 176 169 163
-6.594748e-001 -6.411488e-001 -9.266191e+000 78 67 49
3.463467e+000 1.878367e-001 -8.098911e+000 201 191 181
-1.449370e+000 -8.279032e-001 -8.378694e+000 111 82 70
2.679912e+000 -1.862767e+000 -9.256388e+000 215 210 206
3.109332e+000 -2.144715e+000 -9.346201e+000 203 116 89
-2.926221e-001 4.912013e-001 -1.012192e+001 176 171 165
-8.347616e-001 1.482430e-001 -9.497414e+000 145 124 116
4.092384e+000 1.212704e-001 -7.496131e+000 177 57 65
2.925272e+000 -5.976345e-001 -8.495602e+000 149 132 120
3.120042e+000 -6.393187e-001 -8.078958e+000 136 56 59
1.774959e+000 1.102014e+000 -9.128619e+000 194 191 185
1.138536e+000 -3.761431e-001 -9.352701e+000 186 176 138
4.033771e-001 1.666457e+000 -1.142932e+001 214 211 206
-6.892922e-001 -1.225421e-002 -9.490848e+000 145 130 124
1.566402e+000 2.017637e-001 -9.687411e+000 180 175 163
2.478956e+000 -2.520013e+000 -1.012349e+001 120 61 50
2.521941e+000 -2.443883e+000 -1.001617e+001 146 108 70
3.775045e+000 1.194843e+000 -7.863904e+000 184 70 70
-2.275874e+000 -6.779601e-001 -8.510554e+000 140 68 44
1.721451e+000 -1.024899e+000 -9.149295e+000 197 194 186
-9.495416e-001 -9.837851e-001 -8.399594e+000 142 133 121
1.945767e+000 -2.424571e+000 -9.707228e+000 116 97 64
3.690063e+000 8.142495e-001 -7.839484e+000 221 211 199
2.969507e+000 1.577454e+000 -8.309421e+000 172 160 139
3.696045e+000 1.348928e+000 -7.932332e+000 141 82 77
1.878905e+000 1.319440e+000 -9.179596e+000 190 183 175
3.163806e+000 7.017316e-001 -8.186443e+000 109 93 74
2.451080e+000 6.997168e-001 -8.530377e+000 223 209 148
2.418740e+000 3.815425e-001 -8.644600e+000 217 201 142
2.347559e+000 2.175533e-002 -8.786503e+000 221 205 146
2.550160e+000 9.181788e-002 -8.601082e+000 240 222 159
2.562758e+000 5.656481e-002 -8.533283e+000 163 145 96
-7.258721e-001 2.522321e-001 -9.646325e+000 208 197 185
1.851765e+000 -3.034862e-003 -9.289012e+000 133 123 94
1.851765e+000 -3.034862e-003 -9.289012e+000 133 123 94
2.174978e+000 -4.828328e-002 -9.062757e+000 173 157 105
1.924758e+000 -4.393411e-001 -9.241398e+000 189 181 170
4.013168e+000 -9.739012e-001 -8.520510e+000 183 117 92
3.522264e+000 -1.199190e+000 -8.974514e+000 144 98 82
3.605793e+000 -1.195215e+000 -8.760642e+000 199 124 85
7.109612e-001 -1.625155e+000 -1.043913e+001 212 171 133
4.566995e-001 -1.753224e+000 -1.072696e+001 170 128 95
2.195672e-001 -1.982923e+000 -1.099997e+001 237 228 213
2.056172e+000 -2.086468e+000 -9.924148e+000 201 64 62
3.149443e+000 -2.093975e+000 -9.207920e+000 201 120 75
-1.279142e+000 -1.867810e+000 -9.392402e+000 200 82 65
-1.205665e+000 -1.860330e+000 -9.352902e+000 212 73 72
3.246906e+000 -2.364461e+000 -9.338052e+000 244 216 182
8.230903e-001 -2.636007e+000 -1.194498e+001 184 137 135
8.230903e-001 -2.636007e+000 -1.194498e+001 184 137 135
2.384476e+000 1.971776e+000 -9.118526e+000 219 211 200
3.764228e+000 9.367087e-001 -7.843948e+000 199 148 137
2.772631e+000 1.153832e+000 -8.271091e+000 193 176 130
2.978462e+000 9.500750e-001 -8.048558e+000 183 165 116
2.945476e+000 5.669551e-001 -7.991854e+000 148 135 118
2.182447e+000 3.060073e-001 -8.954761e+000 174 162 113
2.621360e+000 1.423014e-001 -8.449532e+000 182 166 107
2.208853e+000 2.524623e-001 -8.873642e+000 232 216 160
2.102633e+000 -1.948021e-002 -9.047211e+000 227 214 160
-4.786323e-001 -4.416621e-001 -9.376931e+000 141 127 100
-3.351086e+000 -6.168536e-001 -8.023794e+000 141 105 58
-2.653145e+000 -1.318504e+000 -8.325167e+000 126 73 58
3.733972e-001 -1.647027e+000 -1.030242e+001 146 126 107
3.341524e+000 -1.780773e+000 -8.962048e+000 156 101 66
3.285213e+000 -1.881060e+000 -9.028911e+000 186 109 77
-2.651145e+000 -1.550730e+000 -8.551801e+000 46 21 16
1.977829e+000 -1.858790e+000 -9.937051e+000 181 84 82
3.123970e+000 -1.967307e+000 -9.382475e+000 196 137 104
3.146483e+000 -1.991196e+000 -9.413851e+000 231 181 127
-1.151043e+000 -1.810766e+000 -9.208557e+000 184 88 67
2.000729e+000 -2.224148e+000 -9.867111e+000 182 160 106
3.073018e+000 -2.360380e+000 -9.244597e+000 255 243 220
3.261190e+000 -2.404554e+000 -9.508893e+000 248 228 204
3.282112e+000 -2.317483e+000 -9.333870e+000 248 228 203
8.540538e-001 -2.710793e+000 -1.206954e+001 195 172 167
8.540538e-001 -2.710793e+000 -1.206954e+001 195 172 167
8.889337e-001 -2.739310e+000 -1.202934e+001 207 191 180
9.913425e-001 -2.753555e+000 -1.182829e+001 214 175 173
2.996492e+000 -2.418233e+000 -9.261347e+000 250 228 207
8.828437e-001 -2.814206e+000 -1.202199e+001 216 158 92
1.009437e+000 -2.772189e+000 -1.172599e+001 140 94 91
1.012608e+000 -2.805485e+000 -1.168208e+001 208 187 183
1.493681e+000 -3.071112e+000 -1.092787e+001 206 135 89
1.499201e+000 -3.162267e+000 -1.124645e+001 185 117 86
1.576412e+000 -3.134827e+000 -1.107686e+001 226 163 98
2.679201e+000 1.083546e+000 -8.294786e+000 189 175 131
1.205940e+000 1.454691e+000 -9.905376e+000 185 183 171
2.482713e+000 8.560188e-001 -8.418096e+000 215 197 136
2.445872e+000 6.436530e-001 -8.514811e+000 201 184 127
2.999810e+000 5.752382e-001 -8.062813e+000 94 80 54
3.060302e+000 6.383994e-001 -8.083911e+000 99 83 57
1.595758e-002 4.561734e-001 -9.836707e+000 170 163 153
2.377795e+000 1.641921e-002 -8.703807e+000 220 204 142
-6.894695e-001 2.914248e-001 -9.705154e+000 207 200 194
-7.511684e-001 -7.796656e-002 -9.404766e+000 105 82 73
-7.511684e-001 -7.796656e-002 -9.404766e+000 105 82 73
1.655677e+000 -1.539555e-001 -9.237604e+000 169 157 123
-9.128016e-001 -1.765795e-001 -8.772486e+000 133 78 63
-2.918720e+000 -5.196350e-001 -7.944146e+000 136 100 74
-2.444190e+000 -1.007712e+000 -8.260793e+000 132 96 75
-1.934518e+000 -1.548946e+000 -9.273827e+000 185 78 37
-1.931947e-001 -1.775056e+000 -1.057339e+001 204 200 196
1.069803e+000 -1.863829e+000 -1.103488e+001 171 108 82
3.418676e+000 -2.138894e+000 -9.017052e+000 194 123 67
2.226257e+000 -2.341271e+000 -9.810504e+000 84 53 32
2.482494e+000 -2.422756e+000 -1.025057e+001 110 55 29
3.382432e+000 -2.198879e+000 -9.077743e+000 196 128 71
-2.577169e-001 -2.596577e+000 -1.302311e+001 220 157 108
-2.930287e-001 -2.713315e+000 -1.320274e+001 216 137 82
3.185710e+000 -2.429622e+000 -9.518837e+000 253 215 185
1.383729e+000 -3.132172e+000 -1.142994e+001 193 112 67
3.921218e+000 9.495843e-001 -7.170485e+000 150 44 50
1.997354e-001 6.820584e-001 -1.021056e+001 222 218 207
-1.033712e+000 3.016864e-001 -1.006984e+001 232 228 217
1.885040e+000 9.683444e-002 -9.390569e+000 159 149 132
-2.357592e+000 -6.397452e-001 -8.111945e+000 142 74 54
-6.180690e-001 -6.165630e-001 -9.337649e+000 65 54 35
-2.998325e+000 -7.622365e-001 -7.927787e+000 103 54 49
-1.422173e+000 -8.521447e-001 -8.351754e+000 148 101 79
2.134519e-001 -1.055306e+000 -9.273875e+000 176 169 161
-2.784980e+000 -1.073013e+000 -8.042204e+000 212 120 75
-2.831119e+000 -1.145114e+000 -8.083491e+000 174 88 62
4.647650e-001 -1.714514e+000 -1.043498e+001 166 124 89
-2.396961e+000 -1.657699e+000 -9.500282e+000 194 69 32
2.002732e+000 -1.916504e+000 -1.005277e+001 203 77 78
2.492303e+000 -2.070211e+000 -1.011405e+001 146 86 50
3.117125e+000 -1.922217e+000 -9.168550e+000 220 177 128
-1.064493e+000 -1.847749e+000 -9.327882e+000 190 57 54
3.167445e+000 -2.520388e+000 -9.641275e+000 162 94 57
2.904452e+000 -2.792031e+000 -9.657585e+000 163 100 63
1.586265e+000 -3.194061e+000 -1.115949e+001 209 126 65
1.616549e+000 1.830865e+000 -9.715606e+000 180 173 155
-8.451834e-001 2.460726e-001 -9.735100e+000 203 196 188
2.047885e+000 2.261486e-002 -8.863215e+000 191 176 125
-9.406899e-001 2.396493e-001 -9.846323e+000 113 65 54
-1.111757e+000 -3.185502e-001 -8.896642e+000 110 43 32
-2.906294e+000 -5.815980e-001 -8.092204e+000 80 28 28
-2.352486e+000 -6.890174e-001 -8.112241e+000 74 32 30
-2.115611e+000 -7.196553e-001 -8.603059e+000 102 28 17
-1.471926e+000 -6.987390e-001 -8.507585e+000 193 71 55
-1.524017e+000 -7.873540e-001 -8.411428e+000 158 113 89
-1.439565e+000 -7.723269e-001 -8.472416e+000 213 74 67
-3.888272e-001 -7.751239e-001 -9.057848e+000 72 59 40
-2.291502e+000 -7.699628e-001 -8.345019e+000 98 39 25
5.476611e-002 -1.152009e+000 -9.407414e+000 181 176 167
-1.424132e+000 -1.166206e+000 -8.429246e+000 200 148 108
-2.954962e+000 -1.215469e+000 -8.096530e+000 176 68 38
-1.224240e+000 -1.643227e+000 -8.755160e+000 247 211 161
4.103960e-001 -1.847565e+000 -1.088760e+001 223 200 192
3.391048e+000 -2.097850e+000 -9.010072e+000 249 198 161
-2.499827e+000 -1.762836e+000 -9.747116e+000 220 132 76
-1.134153e+000 -1.766063e+000 -9.062369e+000 230 191 149
-1.134153e+000 -1.766063e+000 -9.062369e+000 230 191 149
7.403334e-001 -2.558107e+000 -1.197280e+001 190 72 74
3.633260e+000 6.816145e-001 -7.772255e+000 209 189 175
-1.222851e-001 6.936250e-001 -1.015295e+001 232 229 220
3.315068e+000 -1.002906e+000 -8.627465e+000 146 54 55
-6.825992e-001 -6.942280e-001 -9.236518e+000 36 28 25
-3.456733e+000 -7.566876e-001 -8.147966e+000 119 31 37
-1.966218e+000 -8.882817e-001 -8.784443e+000 157 102 74
-2.159732e+000 -1.140378e+000 -8.972171e+000 139 80 48
-3.116306e-002 -1.331898e+000 -9.824945e+000 157 153 150
-3.024157e+000 -1.134151e+000 -8.127488e+000 226 117 73
-1.791958e+000 -1.319027e+000 -8.982335e+000 216 149 113
2.568730e-002 -1.432043e+000 -1.009299e+001 108 95 84
2.133656e-001 -1.558457e+000 -1.028825e+001 151 122 107
1.191718e+000 -1.785618e+000 -1.091129e+001 160 113 80
1.879416e+000 -1.864556e+000 -9.805604e+000 81 41 38
-1.129468e+000 -1.898281e+000 -9.372286e+000 172 152 141
5.530117e-001 -2.139877e+000 -1.153652e+001 248 210 158
6.935944e-001 -2.296671e+000 -1.153730e+001 243 207 156
-3.975197e-001 -2.587560e+000 -1.341708e+001 240 168 115
9.029415e-001 -2.530588e+000 -1.140656e+001 222 177 136
1.357687e+000 -2.815227e+000 -1.138867e+001 227 184 117
1.346192e+000 -2.809544e+000 -1.132472e+001 227 184 117
1.514786e+000 -3.069844e+000 -1.134710e+001 225 186 111
1.421896e+000 -3.124215e+000 -1.121916e+001 231 186 117
2.359032e+000 1.803638e+000 -8.832178e+000 161 153 142
2.359032e+000 1.803638e+000 -8.832178e+000 161 153 142
1.222376e+000 1.575473e+000 -1.013713e+001 182 179 164
3.626906e-001 1.186140e+000 -1.028211e+001 196 189 179
1.769523e+000 -5.905596e-001 -9.096509e+000 171 162 152
2.014420e+000 -3.938671e-001 -9.141310e+000 149 136 91
-2.670832e+000 -8.320731e-001 -7.996235e+000 141 61 36
-1.593578e+000 -8.183408e-001 -8.379637e+000 191 152 110
-1.341030e+000 -1.249367e+000 -8.646692e+000 215 158 114
8.584955e-001 -1.775980e+000 -1.097758e+001 140 48 42
-1.916046e+000 -1.640656e+000 -9.526184e+000 159 66 43
6.672467e-003 -1.705073e+000 -1.047642e+001 174 166 154
4.882985e-001 -2.009323e+000 -1.131777e+001 148 49 47
3.238674e+000 -2.079783e+000 -8.984411e+000 253 250 247
3.238674e+000 -2.079783e+000 -8.984411e+000 253 250 247
-1.154698e+000 -1.749561e+000 -9.054741e+000 233 197 150
9.847742e-001 -2.615830e+000 -1.143545e+001 214 71 69
1.083047e+000 -3.059840e+000 -1.187926e+001 178 87 85
1.936761e+000 1.805013e+000 -9.260570e+000 232 226 215
1.267316e+000 1.385931e+000 -9.811415e+000 239 236 228
1.580635e-001 9.356785e-001 -1.045270e+001 177 168 159
1.580635e-001 9.356785e-001 -1.045270e+001 177 168 159
1.792739e+000 3.853635e-002 -9.412409e+000 142 132 113
3.991509e+000 -9.149422e-001 -8.127746e+000 172 58 60
-3.034056e+000 -5.477130e-001 -7.975201e+000 198 168 112
-2.383439e+000 -6.265872e-001 -8.066843e+000 74 31 27
-2.165480e+000 -1.284455e+000 -9.103205e+000 111 31 19
-2.120295e+000 -1.302347e+000 -8.514089e+000 172 125 84
3.594049e-001 -1.576493e+000 -1.004804e+001 196 188 183
1.010320e+000 -1.785663e+000 -1.072882e+001 212 169 127
-2.224984e+000 -1.439924e+000 -8.653516e+000 149 53 22
-2.101241e+000 -1.634762e+000 -9.518484e+000 143 43 21
-1.501334e+000 -1.486935e+000 -8.920363e+000 222 169 123
2.119516e+000 -2.088048e+000 -9.859293e+000 220 86 84
9.476764e-001 -2.801831e+000 -1.197829e+001 216 198 154
2.051028e+000 1.905007e+000 -9.280474e+000 188 177 167
3.817723e+000 9.478566e-001 -7.832434e+000 190 71 73
1.170401e+000 1.833564e+000 -1.045060e+001 243 241 232
3.657669e+000 5.641775e-001 -7.686347e+000 233 222 210
1.049739e+000 1.215716e+000 -9.817293e+000 239 236 227
2.474476e+000 7.177330e-001 -8.347797e+000 254 248 188
2.379538e+000 7.066310e-001 -9.029702e+000 233 231 216
-7.325387e-001 1.571776e-001 -9.511780e+000 138 79 62
-1.604480e+000 -6.988902e-001 -8.599824e+000 61 20 21
-3.419272e-001 -8.545573e-001 -9.074831e+000 154 145 136
-2.704563e+000 -1.512830e+000 -8.468908e+000 170 89 63
-1.914366e+000 -1.564249e+000 -9.115130e+000 215 113 69
-1.336257e+000 -1.479842e+000 -8.674530e+000 245 204 154
3.880926e+000 1.354933e+000 -7.797490e+000 207 74 77
3.839258e+000 9.574382e-001 -7.861240e+000 183 64 66
2.449957e+000 6.823447e-001 -8.259963e+000 254 246 183
3.217437e+000 -7.159034e-001 -8.502010e+000 109 44 49
-2.314781e+000 -7.187065e-001 -8.252909e+000 87 34 26
3.453954e+000 -1.097884e+000 -8.869125e+000 90 47 39
-3.516525e+000 -8.649813e-001 -8.241421e+000 244 215 143
-1.883236e+000 -1.093508e+000 -8.699537e+000 128 53 34
-1.852089e+000 -1.465091e+000 -9.330999e+000 90 24 21
-9.098544e-001 -1.806049e+000 -8.909704e+000 185 178 168
3.234619e+000 1.280635e+000 -8.121142e+000 169 152 103
1.128600e+000 1.577754e+000 -1.024683e+001 191 183 170
1.128600e+000 1.577754e+000 -1.024683e+001 191 183 170
2.779921e+000 6.511306e-001 -8.331190e+000 187 172 117
-5.209002e-001 1.370149e-001 -9.478350e+000 206 202 199
3.520178e+000 -1.863632e+000 -8.989951e+000 253 255 252
3.520178e+000 -1.863632e+000 -8.989951e+000 253 255 252
-1.973345e+000 -1.675173e+000 -9.482258e+000 207 99 50
2.458401e+000 1.140100e+000 -8.445127e+000 240 233 224
2.367960e+000 4.761443e-001 -8.896258e+000 156 142 99
-3.517358e-001 -6.748376e-001 -9.129002e+000 69 57 39
2.665992e+000 -2.154828e+000 -9.757610e+000 223 198 144
1.348109e+000 2.017908e+000 -1.058604e+001 242 239 230
9.841402e-001 -9.199262e-001 -8.947194e+000 231 231 223
2.992889e+000 -1.661013e+000 -8.794373e+000 222 217 209
2.782582e+000 -2.209028e+000 -9.676656e+000 226 201 147
2.786811e+000 -2.556586e+000 -9.858302e+000 119 60 42
1.635336e+000 2.135692e+000 -9.652483e+000 242 235 225
3.148619e+000 5.756264e-001 -8.369493e+000 103 84 70
2.795686e+000 5.299817e-001 -8.868158e+000 255 255 199
1.678124e+000 -3.351354e-001 -9.114033e+000 97 87 61
1.675216e+000 -3.335316e-001 -9.116932e+000 97 87 61
1.856927e+000 -2.797101e+000 -9.771814e+000 101 78 46
-6.749578e-001 7.556184e-001 -1.033729e+001 224 221 214
3.647834e+000 1.625371e-001 -7.877405e+000 242 231 223
2.297960e+000 -1.261870e+000 -8.673393e+000 240 236 227
-8.121416e-001 1.625702e+000 -1.259893e+001 225 220 214
2.541215e+000 2.229055e+000 -9.140389e+000 208 201 193
1.071454e+000 2.648240e-001 -9.623040e+000 177 173 162
-3.225368e+000 -6.217059e-001 -8.064405e+000 173 144 94
-3.107220e+000 -6.087363e-001 -8.073488e+000 136 107 71
-2.945227e+000 -5.022022e-001 -8.059032e+000 118 61 35
2.110398e+000 1.916102e-001 -8.863657e+000 155 140 97
-3.254443e+000 -7.666847e-001 -8.116565e+000 199 172 119
-3.087932e+000 -8.004681e-001 -7.993817e+000 125 74 70
-2.413342e+000 -6.517680e-001 -7.989826e+000 104 49 46
-2.748784e-001 -6.266732e-001 -9.360720e+000 90 78 62
-2.388228e-001 -6.430907e-001 -9.312867e+000 136 127 118
9.690245e-001 -4.298000e-001 -9.363738e+000 179 169 133
-7.899213e-002 -1.079079e+000 -9.180422e+000 164 159 153
1.689184e+000 -3.403984e+000 -1.109499e+001 222 163 132
1.767271e+000 -2.663190e+000 -9.881265e+000 129 108 76
-5.518620e-001 4.348684e-001 -9.865972e+000 191 186 178
-3.444950e+000 -5.493417e-001 -8.095435e+000 229 200 130
-1.963889e+000 -7.218362e-001 -8.704277e+000 136 50 24
-2.355129e+000 -1.020507e+000 -8.312998e+000 54 42 45
-2.286869e+000 -1.056579e+000 -8.333174e+000 186 151 122
-6.477373e-001 4.448301e-001 -1.000576e+001 199 195 186
-2.405656e+000 -8.813545e-001 -8.234111e+000 128 91 66
-6.244202e-001 1.621629e+000 -1.234006e+001 213 210 205
-7.549235e-001 -9.395225e-002 -9.381509e+000 100 76 72
-1.253186e+000 -8.773924e-001 -8.245855e+000 146 137 122
-1.350789e+000 3.217097e-001 -1.037231e+001 184 97 76
-2.737471e+000 -1.377966e+000 -8.259203e+000 112 45 28
3.576725e+000 -1.207628e+000 -8.730366e+000 173 104 63
2.995508e+000 -2.497785e+000 -9.449570e+000 136 77 47
-1.320534e+000 1.551969e+000 -1.323020e+001 245 240 235
8.181966e-001 -9.346480e-001 -9.152200e+000 194 190 181
-2.089805e+000 -3.384498e-001 -9.013541e+000 140 53 32
2.408026e+000 6.549351e-001 -8.560922e+000 158 144 98
1.514950e+000 1.753323e+000 -9.978788e+000 195 191 182
2.710134e+000 2.035365e+000 -8.804354e+000 203 199 192
8.931259e-002 7.177472e-001 -1.036369e+001 184 178 173
-9.199558e-001 2.140855e-001 -9.825615e+000 119 76 64
-6.849746e-001 1.614097e-001 -9.578031e+000 136 103 94
-3.340828e+000 -6.613926e-001 -8.123074e+000 202 172 121
3.218779e+000 1.068436e+000 -7.781855e+000 215 196 138
2.201217e+000 4.162850e-001 -8.711067e+000 206 190 140
-2.277923e+000 -9.187042e-001 -8.288414e+000 75 62 62
-5.038038e-001 -7.332557e-001 -9.396753e+000 57 45 32
1.752311e+000 -1.615982e-001 -9.179001e+000 164 156 119
1.982276e+000 -1.355268e-001 -8.951207e+000 195 181 133
2.789157e+000 4.757201e-001 -8.024866e+000 209 194 134
2.947422e+000 5.580985e-001 -7.997248e+000 167 155 134
2.931209e+000 5.286492e-001 -7.993729e+000 127 115 91
-3.191067e+000 -1.315955e+000 -8.293026e+000 71 27 17
-1.893074e+000 -1.204646e+000 -8.938587e+000 188 126 90
1.822600e+000 -3.507014e-001 -9.109288e+000 164 152 114
2.051627e+000 -4.495625e-001 -8.986580e+000 219 215 205
2.160173e+000 -4.079003e-001 -8.878043e+000 174 165 143
1.147678e+000 -3.503137e+000 -1.190161e+001 221 162 126
3.514992e+000 -1.014302e+000 -8.633347e+000 156 86 70
1.289386e+000 -3.291388e+000 -1.125206e+001 222 161 126
5.789300e-002 7.531878e-001 -1.039591e+001 214 211 204
1.005585e-001 8.580954e-001 -1.042041e+001 186 179 169
3.085304e+000 1.793401e+000 -7.977731e+000 207 190 137
3.272941e+000 1.457279e+000 -7.657299e+000 249 242 205
-1.063953e+000 -1.156313e-001 -9.213475e+000 100 40 32
3.664503e+000 1.281499e+000 -7.797221e+000 176 106 98
-2.313499e+000 -7.766989e-001 -8.276860e+000 99 46 33
-6.700467e-001 -7.140896e-001 -9.094675e+000 119 108 102
1.403786e+000 -2.418169e-001 -9.265105e+000 203 193 157
2.405573e+000 -5.477112e-002 -8.494864e+000 164 152 102
2.518784e+000 -2.307088e-002 -8.522393e+000 169 154 111
-2.617024e+000 -1.377122e+000 -8.346703e+000 105 43 26
-1.897884e+000 -1.469121e+000 -8.953728e+000 164 74 41
2.364454e+000 -1.859584e-001 -8.636421e+000 99 91 67
2.291265e+000 -4.260783e-001 -8.562335e+000 171 161 148
1.138426e+000 -3.419328e+000 -1.181933e+001 252 198 164
1.682672e+000 -3.308512e+000 -1.104027e+001 214 147 105
3.581323e+000 -1.230241e+000 -8.561452e+000 197 119 69
2.606648e+000 -2.684053e+000 -1.009696e+001 150 114 66
-5.882488e-001 1.831482e+000 -1.236419e+001 206 200 194
1.016535e+000 1.875887e+000 -1.133187e+001 216 210 196
3.326735e+000 1.697226e+000 -7.720420e+000 244 223 168
-3.269182e+000 -3.575142e-001 -8.087862e+000 130 105 65
-9.225064e-001 -9.706142e-002 -9.051260e+000 125 68 53
-1.290837e+000 -1.909405e-001 -8.500919e+000 206 106 58
2.384775e+000 6.739877e-001 -8.502817e+000 147 134 91
-9.631222e-001 -3.801483e-001 -8.911769e+000 44 22 22
-9.646038e-001 -5.543404e-001 -9.302809e+000 91 73 65
1.604355e+000 -1.535652e-001 -9.128745e+000 114 103 74
2.746820e+000 3.625855e-001 -8.187707e+000 163 151 102
2.877298e+000 5.505491e-001 -7.998036e+000 163 148 124
-1.383225e+000 -9.833371e-001 -8.317982e+000 68 43 43
-1.383225e+000 -9.833371e-001 -8.317982e+000 68 43 43
1.092364e+000 -7.515906e-001 -8.924628e+000 165 152 143
-5.570432e-001 -1.253685e+000 -8.773330e+000 180 170 160
3.982824e+000 -2.038651e-001 -7.555280e+000 192 177 170
1.974272e+000 -2.164558e+000 -9.770755e+000 158 140 97
2.748624e+000 -2.974267e+000 -9.975402e+000 249 205 179
3.327194e+000 -2.393804e+000 -9.210605e+000 201 123 66
5.598953e-001 1.672698e+000 -1.156050e+001 203 200 193
2.312107e+000 8.128031e-001 -9.133246e+000 202 197 186
2.176822e+000 4.281890e-001 -9.321072e+000 191 174 154
2.391362e+000 6.412289e-001 -8.474599e+000 187 173 122
-3.261022e+000 -9.443463e-001 -8.094038e+000 161 110 106
1.737126e+000 -2.107535e-001 -9.258515e+000 159 151 115
1.971702e+000 -7.724795e-002 -9.087678e+000 238 225 174
-3.035684e+000 -1.147776e+000 -8.123567e+000 223 119 72
-2.537873e+000 -1.454990e+000 -8.422773e+000 154 81 50
-5.514415e-002 -1.156451e+000 -9.221509e+000 181 178 175
1.519132e+000 -2.724603e+000 -1.103932e+001 224 93 89
-1.346165e+000 2.971646e-001 -1.041940e+001 176 97 73
-1.346165e+000 2.971646e-001 -1.041940e+001 176 97 73
-4.504274e-001 5.973339e-001 -1.105621e+001 202 196 185
-3.487983e-001 4.586142e-001 -1.009640e+001 140 132 121
2.235383e-001 4.467011e-001 -9.880041e+000 171 168 163
3.063501e+000 1.341136e+000 -7.987881e+000 219 200 142
-1.068492e+000 -8.917870e-002 -9.000916e+000 144 78 53
-6.733313e-001 -1.265521e-001 -9.508505e+000 113 95 85
-2.033553e+000 -5.442854e-001 -8.740191e+000 126 50 27
1.868383e+000 -1.361564e-002 -9.468896e+000 175 169 160
-2.306381e+000 -8.221433e-001 -8.311467e+000 137 96 71
-1.568393e-001 -7.332547e-001 -9.428974e+000 35 27 25
1.471479e+000 -4.885485e-001 -9.280340e+000 85 78 52
-1.358177e+000 -1.722259e+000 -8.990978e+000 59 49 48
3.647101e+000 -1.186023e+000 -8.537476e+000 197 73 77
3.138744e+000 1.960181e+000 -8.007413e+000 132 118 92
-7.101168e-001 -4.765737e-002 -9.381344e+000 111 75 58
1.755924e+000 -1.463478e-001 -9.250270e+000 117 108 77
-1.354915e+000 -1.150855e+000 -8.451564e+000 205 155 120
-1.312754e+000 -1.644990e+000 -8.714009e+000 241 148 93
2.460799e-001 -2.812615e+000 -1.203203e+001 181 134 112
-7.592215e-001 4.789608e-001 -1.038092e+001 169 162 146
3.138076e+000 1.956814e+000 -8.005665e+000 134 122 94
3.010043e+000 1.550755e+000 -8.133209e+000 245 226 169
2.237466e+000 7.270351e-001 -9.208794e+000 219 215 207
1.409040e+000 -2.661981e-001 -9.521457e+000 119 111 96
-1.466254e+000 -1.064923e+000 -8.316882e+000 222 191 155
5.124013e-001 -1.510842e+000 -9.996704e+000 177 170 167
6.986118e-001 -3.299865e+000 -1.222667e+001 247 197 165
3.601771e+000 -1.115799e+000 -8.674245e+000 170 97 64
-1.956519e+000 -4.553503e-001 -8.769284e+000 150 70 46
-1.956519e+000 -4.553503e-001 -8.769284e+000 150 70 46
2.043185e+000 3.992828e-001 -9.381374e+000 221 217 207
-1.828001e+000 -1.176212e+000 -8.696432e+000 131 55 37
-4.988787e-001 -9.589643e-001 -8.984437e+000 163 154 148
3.500329e+000 -1.099484e+000 -8.679569e+000 168 121 101
1.821851e+000 -3.197632e+000 -1.117726e+001 126 110 69
2.524949e+000 -2.849126e+000 -9.540512e+000 95 68 69
5.035168e-001 1.592983e+000 -1.069376e+001 160 156 147
-6.923830e-001 9.638502e-001 -1.243148e+001 240 237 233
3.139428e+000 1.621534e+000 -8.228217e+000 255 248 197
2.383388e+000 6.902403e-001 -8.817288e+000 224 218 205
-2.069937e+000 -8.098544e-001 -8.754387e+000 78 23 13
1.990358e+000 -2.265069e+000 -9.726810e+000 247 233 178
3.492079e+000 -1.143244e+000 -8.430375e+000 189 113 65
1.710001e+000 -3.036497e+000 -9.940226e+000 112 96 63
-1.119063e+000 3.295642e-001 -1.012615e+001 238 236 223
2.587098e+000 7.975338e-001 -8.546576e+000 255 250 195
2.587098e+000 7.975338e-001 -8.546576e+000 255 250 195
2.096079e+000 -8.370706e-002 -9.149526e+000 255 250 202
-1.749408e+000 -1.017605e+000 -8.622100e+000 234 195 146
2.951010e+000 -2.542538e+000 -9.622687e+000 126 71 40
1.154786e+000 1.347443e+000 -9.998975e+000 169 162 156
1.154786e+000 1.347443e+000 -9.998975e+000 169 162 156
4.549334e-001 -2.266768e+000 -1.133921e+001 134 94 82
9.872866e-001 -2.267230e+000 -1.119314e+001 172 53 56
3.895933e+000 -2.668738e-001 -7.483349e+000 192 67 71
-2.957923e+000 -6.635069e-001 -8.077800e+000 75 32 31
2.767353e+000 2.108245e-001 -8.419863e+000 149 137 95
-6.421178e-001 -1.239784e+000 -8.813301e+000 185 179 174
2.469800e+000 6.692784e-001 -7.832182e+000 253 252 198
-4.661988e-001 -6.188434e-001 -9.166726e+000 62 50 38
-4.661988e-001 -6.188434e-001 -9.166726e+000 62 50 38
3.188246e+000 5.522215e-001 -8.308615e+000 151 138 105
-7.483662e-001 -3.305785e-001 -8.878277e+000 51 33 30
3.304682e+000 1.460976e+000 -7.925351e+000 254 250 202
-1.395327e+000 -1.097524e+000 -8.354631e+000 192 156 123
-1.767933e+000 -1.933997e+000 -9.825439e+000 60 22 11
-6.310421e-002 -1.617557e-001 -9.331599e+000 157 154 145
-3.471610e+000 -5.294149e-001 -8.167130e+000 123 95 51
3.475267e+000 -1.162655e+000 -8.749337e+000 131 78 57
3.620157e+000 -1.229968e+000 -8.567954e+000 230 184 167
3.557862e+000 -1.186067e+000 -8.693266e+000 179 106 62
3.537457e+000 -1.226953e+000 -8.719706e+000 177 105 56
-1.920529e+000 3.557415e+000 -1.403617e+001 238 230 228
-1.092586e-001 -2.898216e-001 -9.283444e+000 147 138 130
-2.884027e+000 -1.056979e+000 -8.032150e+000 204 103 57
7.899611e-001 -1.766553e+000 -1.099291e+001 163 98 60
-7.247346e-001 -1.982400e-002 -9.373327e+000 109 63 54
1.894039e+000 -2.841466e+000 -8.713240e+000 122 105 62
1.021644e+000 -2.144288e+000 -1.114893e+001 144 40 37
-4.890369e-001 2.270318e+000 -1.268659e+001 177 171 159
-4.140324e-001 4.087730e+000 -1.265561e+001 236 226 216
8.399573e-001 -8.531849e-001 -8.947228e+000 231 228 219
-3.272286e+000 -1.141310e+000 -8.251545e+000 135 70 64
-2.628253e-001 3.899774e+000 -1.251478e+001 214 206 195
-7.571160e-001 2.348292e+000 -1.280092e+001 184 177 166
-4.187721e-001 2.074439e+000 -1.257551e+001 229 223 215
-4.742278e-002 3.342224e+000 -1.220449e+001 205 196 187
-4.253876e-002 3.332005e+000 -1.218731e+001 205 196 187
-6.736681e-002 1.661942e+000 -1.137219e+001 187 180 170
-6.877369e-001 2.622510e+000 -1.288071e+001 222 218 213
3.467044e+000 2.374587e-002 -7.904167e+000 213 201 187
3.571595e+000 -9.972124e-001 -8.666362e+000 142 77 53
-2.501971e+000 -1.241728e+000 -8.333267e+000 92 62 53
-2.489026e+000 -1.415088e+000 -8.422956e+000 164 105 71
2.010646e+000 -2.197145e+000 -9.853077e+000 162 140 94
-7.071853e-001 -1.951366e-002 -9.474566e+000 138 121 112
3.510086e+000 -1.079949e+000 -8.590664e+000 166 137 131
-5.649598e-001 -5.312821e-001 -9.350592e+000 92 83 64
-3.467313e+000 -5.522407e-001 -8.210393e+000 133 103 52
-3.220112e+000 -8.515527e-001 -8.086863e+000 140 80 75
1.955977e+000 -2.141738e+000 -9.849049e+000 133 116 68
7.148589e-001 -2.614025e+000 -1.223856e+001 137 100 91
2.141327e+000 3.826816e-001 -9.279748e+000 218 208 188
-5.254812e-001 -5.670604e-001 -9.357264e+000 100 89 69
-2.312024e+000 -9.202101e-001 -8.340360e+000 47 27 29
-2.508500e+000 -1.278790e+000 -8.401718e+000 77 56 56
2.939283e+000 -2.353929e+000 -9.438739e+000 177 93 60
8.558500e-001 -2.530314e+000 -1.153278e+001 209 101 83
8.494281e-001 -2.753120e+000 -1.205096e+001 186 105 71
6.944473e-001 9.989855e-001 -9.862847e+000 237 232 226
-6.136811e-001 -5.206478e-001 -9.444161e+000 55 42 27
-4.434466e-001 -4.997080e-001 -9.412107e+000 62 51 32
-3.235623e+000 -6.926356e-001 -8.095633e+000 128 97 51
-1.306608e+000 -1.042802e+000 -8.182134e+000 201 77 77
-1.194412e+000 -1.627475e+000 -8.863791e+000 221 163 120
1.553603e+000 -2.734666e+000 -1.129104e+001 204 108 72
1.563401e+000 -3.194768e+000 -1.136558e+001 253 251 241
2.444739e+000 3.296194e-001 -8.403923e+000 243 227 165
-4.719594e-001 -1.978057e-001 -9.356484e+000 170 163 155
2.400579e-001 -2.545745e-001 -9.428475e+000 155 148 138
1.924631e+000 -3.871952e-001 -9.068174e+000 200 187 135
-3.383943e+000 -7.769921e-001 -8.138559e+000 249 225 164
-1.210601e-001 -1.092749e+000 -9.186334e+000 128 120 109
-1.383533e+000 -1.179297e+000 -8.579823e+000 185 117 82
3.181634e+000 -1.843863e+000 -9.029728e+000 183 143 116
-4.265121e-001 -1.527186e+000 -1.013074e+001 127 114 101
-3.029148e+000 -1.499663e+000 -8.575637e+000 144 50 32
-7.030252e-001 -1.897225e+000 -1.419706e+001 251 207 57
1.552656e+000 -2.897399e+000 -1.138822e+001 227 186 106
3.768891e-001 4.224329e+000 -1.188653e+001 237 223 207
2.280631e+000 5.517626e-001 -8.977833e+000 203 195 184
-8.000903e-001 -1.345159e-002 -9.340823e+000 141 80 64
1.966358e+000 -4.817678e-001 -9.036965e+000 228 228 216
2.131721e+000 -4.675041e-001 -8.870783e+000 244 237 227
-1.455716e+000 -1.036779e+000 -8.315792e+000 205 175 136
-1.455716e+000 -1.036779e+000 -8.315792e+000 205 175 136
-3.406765e+000 -1.014360e+000 -8.259224e+000 187 147 98
-4.153649e-001 -1.448174e+000 -1.016859e+001 135 124 113
-2.248698e+000 -1.236472e+000 -8.303422e+000 179 123 78
7.628460e-001 -1.641276e+000 -1.053364e+001 210 171 134
-7.931409e-001 -1.907072e+000 -1.408970e+001 223 137 59
-8.842552e-001 -2.022373e+000 -1.456166e+001 244 174 119
2.686928e+000 1.042900e+000 -8.513279e+000 203 187 135
2.197364e+000 2.419130e-001 -8.962603e+000 213 197 138
4.897628e-001 3.185623e-001 -9.703528e+000 157 153 142
3.932057e+000 -9.960438e-001 -8.106161e+000 146 123 106
3.019822e-001 -3.986466e-001 -9.457030e+000 161 156 146
-1.334800e+000 -8.188307e-001 -8.389240e+000 123 42 44
-2.798920e+000 -9.143890e-001 -7.985620e+000 223 127 74
3.098082e+000 -2.016555e+000 -9.271581e+000 226 182 116
-2.393920e+000 -1.727584e+000 -9.763527e+000 45 23 15
-2.393920e+000 -1.727584e+000 -9.763527e+000 45 23 15
2.458843e-001 4.092579e+000 -1.181860e+001 243 234 224
-3.961678e-001 4.215632e+000 -1.258373e+001 214 80 81
1.781249e+000 1.701484e+000 -9.428273e+000 200 193 184
2.078833e+000 2.314869e-001 -9.211022e+000 205 200 187
1.730727e-001 2.830391e-001 -9.565147e+000 153 145 135
-1.018567e+000 -3.383363e-001 -8.899482e+000 158 82 53
-6.412030e-001 -2.530219e-001 -9.423819e+000 136 126 117
-1.728522e-001 4.096592e+000 -1.234469e+001 242 234 227
2.282146e-001 7.363027e-001 -1.020946e+001 234 233 223
3.147479e+000 -7.016140e-001 -8.323017e+000 106 40 41
9.982021e-001 -2.421950e+000 -1.133585e+001 168 45 49
1.464030e+000 1.363513e+000 -9.395122e+000 238 233 227
4.013327e-001 5.881414e-001 -9.816150e+000 171 164 148
-2.200074e+000 -1.224608e+000 -8.416843e+000 167 113 81
-2.208975e+000 -1.292112e+000 -9.271608e+000 118 35 19
7.155488e-001 -2.966595e+000 -1.221875e+001 213 167 142
1.038232e+000 3.250347e+000 -1.088901e+001 250 244 232
2.772862e+000 1.486620e-001 -8.511328e+000 100 87 68
1.749222e+000 -2.204163e+000 -1.003126e+001 111 88 57
-4.386447e-001 3.462297e+000 -1.214315e+001 243 239 230
-2.438536e-001 2.283371e-001 -9.553196e+000 166 159 151
3.456747e+000 -1.640977e+000 -9.172997e+000 93 48 45
-2.883188e-001 -1.366314e+000 -9.961436e+000 98 85 76
-1.436223e+000 -1.705037e+000 -9.244544e+000 237 197 145
-5.977901e-001 -3.798757e-001 -9.466157e+000 124 110 83
-3.226284e+000 -1.404812e+000 -8.451374e+000 117 68 70
-1.876299e+000 -1.660674e+000 -9.166495e+000 202 86 40
2.514836e+000 -1.988990e+000 -9.852872e+000 175 68 59
3.461954e+000 -1.252800e+000 -8.791107e+000 166 127 112
2.154724e+000 -2.055710e+000 -9.830638e+000 221 84 85
8.889231e-001 -2.694536e+000 -1.206993e+001 124 91 87
2.258211e+000 -2.618821e+000 -8.531239e+000 108 88 55
1.191437e+000 -3.077386e+000 -1.175915e+001 198 103 74
1.385657e+000 -2.928963e+000 -1.145334e+001 198 99 78
-9.791265e-002 -1.921958e-001 -9.293825e+000 165 158 150
1.930069e+000 -9.917755e-001 -9.143740e+000 228 221 211
-3.379565e+000 -8.065728e-001 -8.168195e+000 155 128 72
3.128094e+000 -2.104990e+000 -9.247932e+000 221 136 103
8.949300e-001 -2.984543e+000 -1.208383e+001 204 134 85
-3.273352e+000 -6.384114e-001 -8.084188e+000 138 109 63
-2.492660e+000 -1.383898e+000 -8.427997e+000 198 158 120
6.111713e-001 -2.174900e+000 -1.144419e+001 217 176 126
3.407154e-001 -1.146408e+000 -9.362351e+000 175 172 165
-2.781811e+000 -1.325644e+000 -8.214011e+000 155 75 54
-2.566645e+000 -1.349257e+000 -8.454060e+000 57 38 38
-2.888508e+000 -1.341717e+000 -8.204697e+000 189 82 49
3.948346e+000 -2.122789e-001 -7.479408e+000 135 103 91
1.072772e+000 3.183316e-001 -9.754109e+000 144 137 127
-2.362123e+000 -1.050183e+000 -8.348018e+000 172 146 131
1.767069e+000 -5.930855e-001 -9.139879e+000 164 156 143
3.691226e+000 -9.411794e-001 -8.541834e+000 185 134 117
3.683178e+000 -9.446260e-001 -8.525956e+000 185 134 117
3.637402e+000 -1.183848e+000 -8.623483e+000 197 117 73
-2.307134e+000 -8.732731e-001 -8.312925e+000 76 46 32
9.945089e-001 -2.109086e+000 -4.918368e+000 141 55 50
-2.563896e+000 -1.242215e+000 -8.308916e+000 71 39 28
-2.497379e+000 -1.224558e+000 -8.324294e+000 169 129 96
-2.953135e+000 -1.458039e+000 -8.356668e+000 195 88 46
-2.149090e+000 -1.496941e+000 -9.134773e+000 179 84 46
1.942921e+000 -2.105240e+000 -9.930260e+000 108 89 52
-2.763815e+000 -1.586494e+000 -8.770126e+000 133 60 46
6.973682e-001 -2.582456e+000 -1.215539e+001 110 53 50
8.431721e-001 -2.678702e+000 -1.205094e+001 141 107 113
1.418618e+000 -3.098865e+000 -1.132220e+001 214 161 90
1.688396e+000 -9.288827e-002 -9.278150e+000 113 102 76
3.543420e+000 -1.038401e+000 -8.768027e+000 150 107 96
3.669532e+000 -1.000142e+000 -8.579311e+000 206 160 142
3.668238e+000 -1.075036e+000 -8.585735e+000 172 109 74
-3.812163e-001 -4.820927e-001 -9.322158e+000 61 52 38
-1.824597e+000 -5.903791e-001 -8.722119e+000 146 71 48
-3.010074e+000 -1.410645e+000 -8.255740e+000 208 101 49
-2.291743e+000 -1.429577e+000 -8.548649e+000 157 110 74
4.450395e-001 -1.807077e+000 -1.089193e+001 163 125 100
2.026500e+000 -2.258303e+000 -9.836663e+000 186 170 111
1.645794e+000 -2.783445e+000 -1.115630e+001 187 112 69
1.025966e+000 -2.832392e+000 -1.185620e+001 194 180 169
1.087460e+000 -2.907528e+000 -1.172965e+001 213 163 115
3.781165e+000 -1.035472e+000 -8.351935e+000 221 180 163
-6.529903e-001 -3.550300e-001 -9.506238e+000 87 74 54
-6.529903e-001 -3.550300e-001 -9.506238e+000 87 74 54
3.457769e+000 -1.230320e+000 -8.836323e+000 138 97 85
-4.030974e-001 -4.896844e-001 -9.364046e+000 87 76 58
3.212902e+000 -1.372997e+000 -8.894999e+000 111 72 62
3.295677e+000 -1.697869e+000 -8.962169e+000 129 87 72
-3.123062e+000 -8.174015e-001 -8.000088e+000 103 58 52
-3.114654e+000 -7.762352e-001 -8.011991e+000 129 79 72
3.267436e+000 -1.849852e+000 -9.002856e+000 196 142 87
-2.779361e+000 -1.114114e+000 -8.008349e+000 142 60 37
-1.961758e-002 -1.381676e+000 -9.770157e+000 138 133 127
-2.949567e+000 -1.431364e+000 -8.326455e+000 215 109 69
1.519647e+000 -2.777539e+000 -1.127042e+001 182 93 59
2.610060e+000 -2.916192e+000 -1.008958e+001 253 211 191
8.188621e-001 -2.684247e+000 -1.210608e+001 191 161 160
9.840451e-001 -2.752355e+000 -1.172045e+001 206 172 170
1.624470e+000 -3.028300e+000 -1.116552e+001 203 132 80
3.744744e+000 -1.012950e+000 -8.365270e+000 208 174 164
3.678478e+000 -1.052977e+000 -8.532070e+000 208 176 162
3.649291e+000 -1.130126e+000 -8.602983e+000 182 108 69
3.595876e+000 -1.143148e+000 -8.630511e+000 180 102 55
1.679767e-001 -4.298889e-001 -9.372139e+000 137 128 119
-2.883835e-001 -6.070446e-001 -9.405715e+000 59 47 37
-3.286712e+000 -6.991728e-001 -8.108622e+000 211 185 128
-2.794291e+000 -1.023264e+000 -7.984274e+000 212 116 70
1.977334e+000 -1.843329e+000 -9.841864e+000 198 59 62
1.052542e+000 -1.861974e+000 -1.095009e+001 151 89 63
-2.879789e+000 -1.426598e+000 -8.238816e+000 184 75 45
1.982697e+000 -2.200497e+000 -9.915012e+000 168 143 89
1.576817e+000 -2.576184e+000 -1.069235e+001 220 81 81
1.536683e+000 -2.727585e+000 -1.123815e+001 191 110 57
1.638450e+000 -2.631432e+000 -1.091396e+001 118 40 31
1.638450e+000 -2.631432e+000 -1.091396e+001 118 40 31
9.376566e-001 6.807026e-001 -9.885228e+000 156 152 139
3.698138e+000 -1.160913e+000 -8.446964e+000 209 185 174
-7.447903e-001 -1.758842e-001 -9.537576e+000 74 54 51
1.408276e-001 -4.836967e-001 -9.379190e+000 132 123 114
3.594397e+000 -1.233336e+000 -8.614587e+000 190 118 64
-3.129468e+000 -6.073884e-001 -8.044729e+000 189 164 107
8.761181e-001 -1.135105e+000 -9.176987e+000 221 217 208
-5.921561e-001 -1.306591e+000 -8.867448e+000 107 93 80
1.192918e-001 -1.479521e+000 -1.040380e+001 141 127 115
-1.089886e+000 -1.786618e+000 -9.085972e+000 215 164 124
-1.087501e+000 -1.785687e+000 -9.096013e+000 215 164 124
-5.886217e-001 -1.874630e+000 -1.342336e+001 248 204 74
2.761874e+000 -4.072801e-001 -8.372115e+000 181 169 153
9.211195e-001 -3.756850e-002 -9.735786e+000 144 140 131
3.758583e+000 -9.346158e-001 -8.117897e+000 151 44 48
3.694967e+000 -1.100742e+000 -8.543703e+000 187 112 66
4.216763e+000 -1.032679e+000 -8.769261e+000 136 111 97
-9.553254e-002 -4.263402e-001 -9.349934e+000 111 104 96
-6.614340e-001 -9.322243e-001 -8.680986e+000 134 121 112
3.089834e+000 -1.941707e+000 -9.308962e+000 198 126 101
1.276879e+000 -2.950209e+000 -1.147300e+001 223 177 103
2.483908e+000 -3.065059e+000 -1.026821e+001 205 123 63
-4.115111e-001 4.121545e+000 -1.273057e+001 239 229 220
2.375048e+000 2.438944e-002 -8.711104e+000 201 185 126
-2.368131e+000 -8.579611e-001 -8.246042e+000 105 63 47
-2.368131e+000 -8.579611e-001 -8.246042e+000 105 63 47
-2.194384e+000 -1.295780e+000 -8.708142e+000 150 105 74
-3.142287e+000 -1.422505e+000 -8.435942e+000 66 18 14
1.348823e+000 1.561929e+000 -9.761000e+000 218 214 203
-1.667457e+000 3.863816e+000 -1.385599e+001 231 228 225
3.520764e+000 -1.133169e+000 -8.725610e+000 139 79 50
3.588476e+000 -1.109411e+000 -8.659361e+000 161 93 49
2.717617e-001 -1.749939e+000 -1.048793e+001 175 165 153
1.448096e+000 -3.103149e+000 -1.134558e+001 230 185 114
2.149309e+000 4.584589e-001 -9.111140e+000 226 219 203
2.405011e+000 -5.168109e-002 -8.784218e+000 255 254 198
-2.714574e-001 -1.530658e-001 -9.360151e+000 175 170 164
-2.231493e-001 -4.963041e-001 -9.620183e+000 118 109 100
1.281957e+000 -1.717180e+000 -1.004799e+001 104 77 56
1.973086e+000 -2.040029e+000 -1.002135e+001 61 22 24
1.430683e+000 -2.939345e+000 -1.136287e+001 183 81 70
-1.439736e+000 4.055012e+000 -1.369222e+001 226 222 219
6.424005e-001 9.132990e-001 -9.869409e+000 177 170 159
2.330280e+000 1.078930e-002 -9.212617e+000 160 147 95
3.547618e-001 2.758755e-002 -9.587350e+000 148 142 129
6.910087e-001 -7.403692e-001 -9.130747e+000 215 215 208
5.556370e-001 -8.535585e-001 -9.175390e+000 175 171 162
-1.200887e+000 -1.696422e+000 -8.908778e+000 240 203 158
3.700978e+000 -8.514955e-001 -8.299295e+000 127 37 43
1.788025e-001 -1.082996e+000 -9.186043e+000 131 122 113
1.926627e+000 -2.283359e+000 -9.905080e+000 253 245 186
2.997099e+000 1.729757e-001 -8.367769e+000 240 231 222
1.569777e+000 1.066107e+000 -9.361457e+000 243 238 232
1.023167e+000 -5.673277e-001 -8.981996e+000 144 131 97
3.057563e+000 -2.654159e-001 -8.232920e+000 246 237 228
3.078977e+000 -1.059223e+000 -8.305199e+000 115 41 45
2.565113e+000 3.884328e-001 -8.334985e+000 196 183 125
2.565590e+000 1.695221e-002 -8.415730e+000 106 93 58
2.441926e+000 -1.154968e-001 -8.522538e+000 110 96 71
3.770994e+000 -8.873244e-001 -8.376787e+000 153 95 67
2.218335e+000 -2.402411e-001 -8.821773e+000 198 182 123
2.925612e+000 -7.026181e-001 -8.452176e+000 133 110 96
3.740751e+000 -9.960366e-001 -8.354030e+000 227 168 131
3.515313e+000 -9.638018e-001 -8.643541e+000 82 36 35
3.548455e+000 -1.070591e+000 -8.839077e+000 142 101 81
3.626137e+000 -1.095579e+000 -8.905024e+000 174 148 129
3.601752e+000 -1.109431e+000 -8.861064e+000 174 148 129
2.024119e+000 -3.943756e-001 -9.135110e+000 191 182 147
3.700904e+000 -1.584458e+000 -8.580758e+000 234 191 146
-1.527367e+000 -8.244202e-001 -8.375715e+000 83 65 54
-7.511631e-001 -7.677046e-001 -8.823181e+000 48 37 30
-4.244661e-001 -5.648169e-001 -9.354484e+000 61 52 32
3.105530e+000 -1.974491e+000 -9.333409e+000 227 172 98
3.424074e+000 -2.063003e+000 -9.075874e+000 233 173 127
3.334458e+000 -2.167421e+000 -9.127224e+000 224 168 116
-2.964759e+000 -5.200236e-001 -8.009730e+000 114 91 85
-2.271207e+000 -5.746416e-001 -8.615121e+000 165 104 86
-3.222562e+000 -6.444686e-001 -8.029977e+000 137 113 75
-3.138184e+000 -7.456183e-001 -8.019374e+000 100 56 49
-2.407840e+000 -9.314938e-001 -8.253479e+000 52 28 25
-2.376610e+000 -9.390229e-001 -8.232881e+000 68 48 45
-2.365473e+000 -9.013214e-001 -8.267894e+000 70 48 44
-2.411301e+000 -1.007113e+000 -8.114765e+000 68 38 30
-2.384918e+000 -1.054089e+000 -8.249723e+000 93 64 55
-2.364114e+000 -1.043229e+000 -8.299254e+000 120 104 105
-1.919014e+000 -8.399335e-001 -8.776151e+000 95 37 26
-4.284827e-001 -1.230207e+000 -9.485803e+000 43 33 23
-2.883225e+000 -1.055092e+000 -8.018459e+000 188 91 50
-2.549507e+000 -1.200626e+000 -8.273661e+000 95 60 30
-2.194556e+000 -1.302598e+000 -8.368284e+000 148 95 86
-1.945420e+000 -1.134532e+000 -8.912473e+000 113 56 34
-1.189498e+000 -1.452655e+000 -8.531327e+000 148 48 33
-1.335672e+000 -1.445757e+000 -8.848057e+000 232 180 130
8.226508e-002 -1.374646e+000 -1.010834e+001 72 60 54
2.015690e+000 -2.085877e+000 -1.011182e+001 109 88 48
-3.215826e+000 -1.069885e+000 -8.144811e+000 148 104 100
-2.596893e+000 -1.259179e+000 -8.284730e+000 77 47 38
-2.530108e+000 -1.253493e+000 -8.295660e+000 72 48 44
-2.447565e+000 -1.318951e+000 -8.276154e+000 52 37 33
4.932628e-001 -1.616226e+000 -1.081880e+001 104 63 42
8.226552e-001 -1.743683e+000 -1.068028e+001 147 92 60
2.961393e+000 -2.705604e+000 -9.551098e+000 140 87 56
2.860641e+000 -2.827412e+000 -9.716207e+000 131 77 48
-3.100693e+000 -1.310364e+000 -8.313920e+000 214 112 64
-2.680802e+000 -1.534366e+000 -8.551201e+000 139 73 52
-2.692125e+000 -1.544042e+000 -8.576405e+000 80 18 7
-1.943732e+000 -1.549094e+000 -9.433327e+000 172 68 26
-1.914979e+000 -1.556494e+000 -9.418508e+000 143 61 33
1.115912e+000 -2.139789e+000 -1.098122e+001 149 86 66
-3.170664e+000 -1.447718e+000 -8.478583e+000 70 24 24
1.543142e-001 -2.794095e+000 -8.764291e+000 155 117 97
1.016906e+000 -2.411784e+000 -1.140747e+001 155 40 40
1.055751e+000 -2.374601e+000 -1.176701e+001 155 40 40
1.666697e+000 -2.734089e+000 -1.110322e+001 177 79 49
1.650988e+000 -2.772454e+000 -1.114452e+001 176 88 48
1.767740e+000 -3.039724e+000 -1.083454e+001 224 157 83
2.287060e+000 -3.105473e+000 -1.042724e+001 255 229 196
2.212637e+000 -3.206447e+000 -1.036677e+001 199 134 93
2.344840e+000 -3.155266e+000 -1.070503e+001 198 134 89
8.299438e-001 -2.643725e+000 -1.202911e+001 172 129 130
8.114091e-001 -2.645651e+000 -1.215617e+001 122 95 94
1.318366e+000 -2.815089e+000 -1.156283e+001 192 131 67
2.152550e+000 -3.288794e+000 -1.042455e+001 208 137 89
1.620424e+000 -3.392092e+000 -1.121653e+001 245 216 186
1.688702e+000 -3.347595e+000 -1.106585e+001 241 197 158
1.688702e+000 -3.347595e+000 -1.106585e+001 241 197 158
1.706126e+000 -3.356763e+000 -1.125270e+001 206 139 90
1.460436e+000 -3.402504e+000 -1.150033e+001 234 166 113
2.774728e+000 3.321295e-001 -8.081816e+000 197 182 119
2.065674e+000 1.504679e-001 -8.846812e+000 151 139 101
2.675560e+000 -4.416670e-001 -8.251703e+000 199 191 178
2.742236e+000 -4.241448e-001 -8.314696e+000 190 179 167
2.803046e+000 -4.286407e-001 -8.375010e+000 181 171 158
2.081293e+000 4.652236e-002 -8.946072e+000 173 162 116
3.739590e+000 -8.892799e-001 -8.499203e+000 187 141 118
3.698463e+000 -9.249367e-001 -8.517244e+000 224 171 146
3.761582e+000 -1.007696e+000 -8.409241e+000 230 185 167
3.748258e+000 -1.037176e+000 -8.400099e+000 195 115 67
3.647036e+000 -9.959066e-001 -8.524283e+000 180 107 60
3.689843e+000 -9.978308e-001 -8.558828e+000 182 102 61
3.759867e+000 -1.043985e+000 -8.373102e+000 188 112 73
3.759867e+000 -1.043985e+000 -8.373102e+000 188 112 73
3.745354e+000 -1.183362e+000 -8.418771e+000 243 197 175
3.567019e+000 -9.768592e-001 -8.760723e+000 153 111 94
3.605061e+000 -9.587559e-001 -8.702202e+000 176 141 116
3.634125e+000 -1.067661e+000 -8.569041e+000 211 173 144
3.643910e+000 -1.207935e+000 -8.612038e+000 238 192 155
3.653946e+000 -1.199516e+000 -8.631768e+000 238 192 155
1.437344e+000 -2.391275e-001 -9.245882e+000 111 101 76
3.756125e+000 -1.527852e+000 -8.445382e+000 120 90 76
-4.066951e-001 -4.838204e-001 -9.376095e+000 103 95 76
-4.042446e-001 -5.860852e-001 -9.214952e+000 63 55 32
3.301324e+000 -1.872042e+000 -9.073411e+000 178 89 52
-2.355714e+000 -6.231990e-001 -7.960778e+000 215 207 204
-2.445617e+000 -6.664350e-001 -7.996783e+000 129 81 77
-1.578917e+000 -8.258803e-001 -8.368790e+000 150 127 104
-1.382499e+000 -8.840789e-001 -8.324925e+000 76 24 23
-1.382499e+000 -8.840789e-001 -8.324925e+000 76 24 23
3.106708e+000 -1.967041e+000 -9.241817e+000 195 108 67
4.217110e+000 -1.905202e+000 -1.000236e+001 130 112 93
-3.147095e+000 -4.612029e-001 -7.973032e+000 136 115 86
-3.048771e+000 -6.132876e-001 -7.966904e+000 102 73 45
-2.901521e+000 -6.910218e-001 -7.958267e+000 95 54 53
-2.394341e+000 -6.965097e-001 -8.013874e+000 79 37 37
3.267577e+000 -2.266691e+000 -9.305862e+000 254 247 224
-3.393373e+000 -7.075285e-001 -8.122815e+000 198 170 106
-3.236396e+000 -6.605841e-001 -8.066962e+000 216 194 142
-3.235689e+000 -6.607074e-001 -8.066043e+000 216 194 142
-3.089455e+000 -7.980543e-001 -7.959188e+000 119 76 66
-3.219217e+000 -8.102285e-001 -8.046806e+000 126 80 71
-3.172434e+000 -8.715634e-001 -7.995800e+000 157 107 103
-2.369256e+000 -9.218707e-001 -8.284448e+000 33 22 25
-1.223570e+000 -1.319287e+000 -8.394745e+000 202 82 76
1.413926e+000 -1.680903e+000 -1.007487e+001 140 123 82
-3.347737e+000 -8.806484e-001 -8.149642e+000 179 148 101
-2.881660e+000 -1.162207e+000 -7.930077e+000 197 107 62
-2.810856e+000 -1.067357e+000 -7.983223e+000 189 96 55
-2.810856e+000 -1.067357e+000 -7.983223e+000 189 96 55
-2.559188e+000 -1.222804e+000 -8.294272e+000 105 72 56
-1.227272e+000 -1.426506e+000 -8.641442e+000 169 82 56
-3.159287e+000 -1.199977e+000 -8.325847e+000 239 143 85
-2.546450e+000 -1.348581e+000 -8.334818e+000 86 66 62
7.725905e-001 -1.681120e+000 -1.084913e+001 153 99 63
-3.140327e+000 -1.448857e+000 -8.352694e+000 56 16 9
-3.011223e+000 -1.515358e+000 -8.330303e+000 213 121 72
-2.612955e+000 -1.534948e+000 -8.596346e+000 122 53 33
-2.502286e+000 -1.516086e+000 -8.688874e+000 176 135 107
-2.404929e+000 -1.452378e+000 -8.941396e+000 148 69 39
-1.255751e+000 -1.700875e+000 -9.175962e+000 228 190 145
-1.026308e+000 -1.875279e+000 -9.187294e+000 129 94 85
2.089550e-001 -1.948632e+000 -1.093079e+001 237 224 213
1.772761e+000 -2.683182e+000 -9.719377e+000 103 86 60
-3.151249e+000 -1.509340e+000 -8.435549e+000 138 87 85
-3.151249e+000 -1.509340e+000 -8.435549e+000 138 87 85
2.290201e+000 -2.898500e+000 -1.049654e+001 166 85 53
-2.190765e+000 -1.752673e+000 -9.938460e+000 175 63 24
7.632097e-001 -2.563363e+000 -1.146229e+001 197 79 74
1.821226e+000 -3.012161e+000 -1.082833e+001 224 151 94
2.390458e+000 -3.092989e+000 -1.045575e+001 208 154 109
2.282464e+000 -3.175370e+000 -1.084463e+001 210 137 82
7.481319e-001 -2.602682e+000 -1.221035e+001 80 54 51
1.286336e+000 -3.059681e+000 -1.152840e+001 211 133 73
1.352759e+000 -3.087233e+000 -1.139838e+001 203 128 66
1.555596e+000 -3.067882e+000 -1.136640e+001 217 157 83
1.605253e+000 -3.107646e+000 -1.115195e+001 202 111 69
1.506776e+000 -3.120339e+000 -1.127133e+001 210 138 80
1.767119e+000 -3.236534e+000 -1.090221e+001 225 142 82
1.876447e+000 -3.270382e+000 -1.096783e+001 231 160 108
1.885159e+000 -3.313659e+000 -1.102359e+001 253 235 213
