ply
format ascii 1.0
element face 0
property list uchar int vertex_indices
element vertex 864
property float x
property float y
property float z
property uchar diffuse_red
property uchar diffuse_green
property uchar diffuse_blue
end_header
-2.858104e+000 -1.070117e+000 -8.173447e+000 107 82 74
4.294782e+000 1.536242e+000 -7.744992e+000 174 133 117
-5.373332e-001 -4.391808e-001 -9.374842e+000 71 60 42
-3.946723e+000 -7.513315e-001 -8.051610e+000 241 215 148
2.433425e+000 -2.626284e+000 -9.836466e+000 134 112 77
2.899544e+000 -2.842299e+000 -1.019245e+001 127 87 36
9.001784e-001 -8.349424e-002 -9.653760e+000 173 170 161
-8.324119e-001 -9.602009e-002 -9.539169e+000 146 130 123
-3.429595e+000 -1.136894e+000 -7.927990e+000 211 108 66
2.764281e+000 -2.590446e+000 -1.032864e+001 101 43 31
1.801091e+000 -3.154892e+000 -1.140929e+001 227 168 98
-8.573113e-001 2.223044e+000 -1.291022e+001 231 227 219
1.636631e-001 1.276141e+000 -1.066627e+001 234 230 221
-1.445876e-001 -6.031739e-001 -9.428625e+000 143 136 125
-1.519823e+000 -9.235325e-001 -8.148900e+000 149 138 121
-3.997666e+000 -9.654452e-001 -8.069119e+000 74 20 22
-3.406862e+000 -1.087604e+000 -7.888770e+000 233 137 90
-7.590664e-001 -1.293518e+000 -8.752452e+000 148 138 128
3.718359e+000 -2.123272e+000 -9.043450e+000 220 170 108
-2.101473e-001 -1.885164e+000 -1.061100e+001 211 206 195
3.816279e+000 5.720475e-001 -7.994684e+000 230 218 204
1.824837e+000 -8.519494e-001 -9.077135e+000 163 155 144
-1.835980e+000 -9.686105e-001 -8.215031e+000 52 49 52
3.478426e+000 -2.311871e+000 -9.375780e+000 225 186 107
3.610410e+000 -2.286037e+000 -9.219064e+000 222 173 97
3.610410e+000 -2.286037e+000 -9.219064e+000 222 173 97
4.195971e+000 1.588418e+000 -7.705249e+000 152 110 100
-8.428136e-001 -3.420815e-002 -9.510294e+000 110 90 79
-1.974447e+000 -4.256016e-001 -8.609654e+000 165 70 39
-2.365298e+000 -5.622536e-001 -8.664732e+000 138 58 34
-1.623289e+000 -1.356275e+000 -8.570281e+000 220 161 116
-8.670029e-001 -1.402688e+000 -8.651439e+000 141 131 119
1.926534e+000 1.046971e+000 -9.306901e+000 211 205 194
2.067908e+000 9.272399e-001 -9.284283e+000 203 195 182
-1.257532e+000 1.922226e+000 -1.316552e+001 194 186 175
-1.257532e+000 1.922226e+000 -1.316552e+001 194 186 175
1.091551e-001 8.197617e-001 -1.039642e+001 162 158 147
7.646269e-002 -5.210336e-001 -9.471622e+000 153 143 137
-2.894914e-001 -6.154434e-001 -9.405165e+000 144 140 128
-3.531984e+000 -4.854309e-001 -8.326349e+000 181 98 57
9.506011e-002 -1.167351e+000 -9.295394e+000 157 147 137
-2.697662e+000 -1.291377e+000 -8.236914e+000 180 126 83
-2.491080e+000 -1.144872e+000 -8.678911e+000 121 55 31
1.354965e+000 -3.471667e+000 -1.186481e+001 189 89 66
1.633320e+000 -3.482253e+000 -1.159337e+001 231 188 111
2.793131e+000 2.344526e+000 -8.830016e+000 235 227 216
4.151124e+000 1.295258e+000 -7.769037e+000 156 124 113
2.275416e+000 -4.844028e-001 -9.103718e+000 236 232 221
-3.119430e+000 -8.830198e-001 -7.855290e+000 146 64 42
3.818829e+000 1.456049e+000 -7.761594e+000 249 228 167
2.625805e+000 -2.867674e-001 -8.823783e+000 97 82 63
2.916527e+000 2.076666e+000 -8.511055e+000 162 148 136
2.707805e+000 1.934932e+000 -8.732680e+000 242 234 227
3.177269e+000 1.852631e+000 -8.311331e+000 227 219 208
2.387099e+000 -1.012790e-001 -9.369231e+000 253 247 196
2.164535e+000 -2.190048e+000 -9.919946e+000 65 28 32
-2.410106e+000 -9.018547e-001 -8.508073e+000 121 50 29
-2.962213e+000 -8.939227e-001 -8.226131e+000 94 42 29
-2.813269e+000 -1.381686e+000 -8.346801e+000 238 202 157
3.687553e+000 -1.128047e+000 -8.640295e+000 128 47 48
2.751211e+000 9.518014e-001 -8.352675e+000 229 211 148
1.650227e+000 -1.671118e-001 -9.305873e+000 202 188 147
1.714305e+000 -3.299717e+000 -1.149617e+001 207 144 80
1.436024e+000 -3.432192e+000 -1.187489e+001 212 138 84
-3.763633e+000 -3.656275e-001 -7.897200e+000 130 93 60
-7.571979e-001 -3.441093e-001 -9.496956e+000 138 123 92
-1.902263e+000 -9.585568e-001 -8.232325e+000 134 127 118
-3.966728e+000 -9.132329e-001 -8.053512e+000 208 177 128
-3.056985e+000 -1.327257e+000 -8.249828e+000 146 110 83
-3.815926e+000 -7.043726e-001 -7.958335e+000 127 95 56
-2.953553e+000 -1.124162e+000 -8.137138e+000 161 112 78
-2.943653e+000 -1.096229e+000 -8.182588e+000 98 56 35
-2.788255e+000 -1.087112e+000 -8.222247e+000 51 34 33
2.885892e+000 -2.827571e+000 -1.013549e+001 127 87 36
2.361460e+000 3.165189e-001 -9.117810e+000 224 219 204
2.107634e+000 1.062876e-001 -9.250509e+000 134 123 102
-2.061889e+000 -5.903096e-001 -8.601829e+000 175 91 56
-3.601600e+000 -7.891594e-001 -7.839588e+000 117 62 61
-8.313454e-001 -9.227862e-001 -8.658397e+000 164 154 144
3.861870e+000 -1.709538e+000 -9.014476e+000 114 68 45
3.680895e+000 -2.249559e+000 -9.187768e+000 173 81 69
8.208027e-001 -2.941422e+000 -1.251412e+001 185 147 150
2.873589e+000 -2.954086e+000 -1.010520e+001 112 50 36
1.845408e+000 -9.393470e-001 -9.137203e+000 188 179 172
-3.529715e+000 -7.439060e-001 -7.832817e+000 105 53 51
2.532816e+000 -2.636800e+000 -1.025640e+001 84 47 21
1.138061e+000 -3.489781e+000 -1.213269e+001 213 161 127
2.433063e-001 1.194432e+000 -1.057010e+001 230 227 218
2.170537e+000 1.913123e-001 -9.279873e+000 212 209 195
-1.851715e+000 -3.497372e-001 -8.596843e+000 180 76 39
-8.514936e-001 -9.826598e-001 -8.617525e+000 136 124 111
-3.071058e+000 -9.959420e-001 -7.887742e+000 193 113 70
1.399770e-001 -1.271724e+000 -9.414490e+000 174 168 162
-8.821838e-001 -2.956076e-001 -9.491063e+000 49 34 30
-2.198669e+000 -4.728045e-001 -8.703568e+000 133 45 26
-1.857380e-001 -4.097392e-001 -9.332622e+000 134 127 119
-1.857380e-001 -4.097392e-001 -9.332622e+000 134 127 119
2.705706e+000 2.703983e+000 -9.319112e+000 221 213 202
-3.821502e-001 -9.083763e-002 -9.322328e+000 197 195 187
2.464509e+000 -4.629936e-001 -8.884260e+000 240 236 227
-2.347556e+000 -4.534099e-001 -8.754209e+000 153 78 50
2.296853e+000 -2.413190e+000 -1.004578e+001 91 37 32
-1.122150e+000 1.682589e+000 -1.293533e+001 248 243 236
-8.247704e-001 -1.882052e-001 -9.504487e+000 142 127 120
-1.966081e+000 -7.023778e-001 -8.752631e+000 51 12 17
3.378431e+000 -2.169887e+000 -9.214351e+000 198 138 86
2.119291e+000 3.767825e-001 -9.481549e+000 230 228 216
3.387696e+000 9.106518e-001 -7.921286e+000 186 170 119
3.379424e+000 5.737111e-001 -8.065937e+000 120 104 88
3.379424e+000 5.737111e-001 -8.065937e+000 120 104 88
2.429744e+000 2.100691e-001 -9.032449e+000 140 126 86
1.230520e+000 -6.792362e-001 -9.196362e+000 81 70 50
-3.687100e+000 -8.863687e-001 -7.951662e+000 73 25 23
2.916527e+000 2.076666e+000 -8.511055e+000 162 148 136
3.985726e+000 1.372864e+000 -7.715130e+000 120 86 74
-3.489646e+000 -1.096632e+000 -7.907893e+000 235 131 85
-6.714315e-002 4.393879e-001 -9.963708e+000 159 151 140
8.780684e-001 -3.243983e+000 -1.194887e+001 209 164 142
4.387635e-002 1.360768e+000 -1.088692e+001 214 210 202
-3.483549e+000 -5.427598e-001 -7.802463e+000 105 58 47
-3.947748e-001 2.929259e+000 -1.299038e+001 219 213 199
1.699211e+000 -1.483403e-001 -9.312127e+000 190 177 133
-6.348653e-001 -4.252188e-001 -9.395015e+000 92 78 49
4.139698e+000 -1.300826e+000 -8.512131e+000 191 131 101
1.818230e+000 -3.385504e+000 -1.135525e+001 199 131 70
4.279003e+000 1.169798e+000 -7.612311e+000 199 152 144
-1.554727e+000 -2.408273e-001 -8.491567e+000 166 84 54
-2.545671e+000 -7.364437e-001 -8.502157e+000 142 77 57
-2.538942e+000 -7.223884e-001 -8.588456e+000 101 28 13
-3.042466e+000 -1.549638e+000 -8.357319e+000 122 44 21
2.222887e+000 -2.410105e+000 -1.002420e+001 128 107 63
9.703488e-001 -3.130923e+000 -1.232133e+001 210 148 87
1.134361e+000 -3.148056e+000 -1.210528e+001 218 177 163
1.548918e+000 -3.519529e+000 -1.172380e+001 187 104 63
3.839753e+000 1.797724e+000 -7.582486e+000 204 186 148
1.351697e+000 -3.166077e-001 -9.438658e+000 181 166 126
-4.328063e-001 -1.006273e+000 -9.008200e+000 164 157 148
4.156596e+000 -1.364787e+000 -8.627335e+000 195 124 88
2.486784e+000 -2.613465e+000 -9.769062e+000 83 52 25
1.754635e+000 -3.530930e+000 -1.146100e+001 233 178 110
2.896059e+000 -3.105996e+000 -1.016718e+001 103 46 36
3.561264e+000 2.278915e+000 -8.133513e+000 227 214 199
-1.504639e+000 3.118681e+000 -1.410915e+001 216 206 196
4.497919e-001 1.742979e+000 -1.101643e+001 237 233 225
-1.127032e+000 1.962758e+000 -1.310974e+001 234 230 220
-9.907613e-001 1.866986e+000 -1.296250e+001 211 208 199
-8.629916e-001 1.879460e+000 -1.285226e+001 217 214 207
2.741069e+000 1.068270e+000 -8.487997e+000 230 227 213
2.554531e+000 5.081116e-001 -8.702710e+000 214 198 139
6.369434e-001 -5.024586e-001 -9.531071e+000 144 141 130
-1.771235e+000 -8.328837e-001 -8.323610e+000 40 29 35
-3.508836e+000 -1.152756e+000 -7.894640e+000 255 169 119
2.900453e+000 -2.713142e+000 -1.020175e+001 121 56 40
1.364796e+000 -3.103411e+000 -1.156068e+001 214 74 74
2.830381e+000 -2.852651e+000 -1.031314e+001 120 47 43
1.138559e+000 6.622047e-001 -9.856076e+000 163 157 145
-1.945124e+000 1.215452e+000 -1.464861e+001 220 211 202
1.915092e+000 -8.302189e-001 -9.075709e+000 197 188 179
-1.690866e-001 -1.952534e+000 -1.066973e+001 197 190 182
1.632629e+000 -3.086291e+000 -1.129995e+001 226 173 102
1.632629e+000 -3.086291e+000 -1.129995e+001 226 173 102
1.295846e+000 -3.473612e+000 -1.198216e+001 191 87 74
-1.162229e+000 2.027786e+000 -1.308356e+001 235 231 220
-1.742539e+000 -3.136826e-001 -8.566363e+000 148 61 37
6.139505e-001 -2.347563e+000 -1.168955e+001 243 208 162
2.266119e+000 3.510326e-001 -9.360255e+000 169 158 140
1.501260e+000 1.357542e-002 -9.671185e+000 206 201 195
1.501260e+000 1.357542e-002 -9.671185e+000 206 201 195
1.554040e+000 -1.127179e-001 -9.342803e+000 138 131 111
-2.501596e+000 -1.377437e+000 -8.919978e+000 115 34 20
1.061937e+000 -3.158332e+000 -1.234475e+001 219 194 141
1.991928e+000 1.979643e+000 -9.364369e+000 195 188 180
-8.553797e-001 2.706790e+000 -1.304602e+001 178 170 159
1.378154e+000 1.662763e+000 -9.772294e+000 239 236 231
2.646997e+000 8.572787e-001 -8.753635e+000 233 227 215
3.848606e-001 9.376766e-001 -1.003487e+001 189 182 172
-1.199506e+000 3.337331e-001 -1.005412e+001 106 53 46
-9.024388e-001 2.977759e-001 -9.689793e+000 138 79 58
-9.024388e-001 2.977759e-001 -9.689793e+000 138 79 58
-5.404746e-001 -2.579291e-002 -9.256046e+000 159 152 146
-2.347556e+000 -4.534099e-001 -8.754209e+000 153 78 50
-5.561756e-001 -4.969952e-001 -9.364479e+000 73 63 41
-1.966081e+000 -7.023778e-001 -8.752631e+000 51 12 17
-4.644582e-001 -8.927666e-001 -9.106947e+000 157 145 137
-1.098177e+000 -9.775577e-001 -8.377411e+000 170 160 148
-1.099373e+000 -9.793446e-001 -8.393257e+000 170 160 148
2.935516e+000 -2.879622e+000 -1.016285e+001 153 115 60
2.340355e+000 2.345469e+000 -9.422760e+000 185 178 164
2.393194e+000 2.113374e+000 -8.912550e+000 241 234 226
1.326130e+000 2.325440e+000 -1.107914e+001 243 239 227
4.270512e+000 1.332253e+000 -7.707435e+000 221 199 186
1.821679e-002 1.243103e+000 -1.077845e+001 191 183 171
-3.485503e-001 1.864792e-001 -9.378488e+000 156 149 143
3.017291e+000 -4.941741e-001 -8.242099e+000 218 211 201
-1.639812e+000 -7.201990e-001 -8.596751e+000 161 138 122
-4.126039e+000 -9.038497e-001 -8.107097e+000 223 191 120
-2.296962e+000 -1.148759e+000 -8.738531e+000 126 51 30
7.799176e-001 3.543964e-001 -9.672259e+000 132 125 115
-6.487335e-001 2.674467e-001 -9.530788e+000 215 210 205
1.482940e+000 -2.709065e-001 -9.693346e+000 181 172 132
1.226256e+000 1.882386e+000 -1.029977e+001 188 180 169
2.994332e+000 9.231595e-001 -8.543993e+000 254 251 202
-2.138627e+000 2.102039e+000 -1.458190e+001 226 91 94
-1.764623e+000 -1.742772e+000 -8.994666e+000 233 189 142
3.228560e+000 -2.495113e+000 -9.539450e+000 229 197 140
1.400501e+000 3.031866e+000 -1.052455e+001 220 212 201
1.400501e+000 3.031866e+000 -1.052455e+001 220 212 201
1.611063e+000 1.662654e+000 -9.921714e+000 241 237 228
-5.305477e-001 -1.596449e-001 -9.685343e+000 161 154 149
1.898329e+000 2.749737e+000 -1.016674e+001 243 237 225
-1.200261e+000 -8.728790e-001 -8.604560e+000 162 148 135
-2.886998e-003 -2.437563e+000 -1.124557e+001 245 238 230
1.851368e+000 8.885201e-001 -1.027281e+001 224 220 209
3.497005e+000 2.086963e+000 -7.934647e+000 175 160 106
-3.050393e-001 8.858230e-001 -1.056345e+001 234 231 221
-4.683911e-001 6.241807e-001 -1.013778e+001 168 161 151
2.492284e+000 5.568422e-001 -9.358571e+000 230 219 201
2.515976e+000 5.401686e-001 -8.676995e+000 170 152 104
2.422777e+000 4.073708e-001 -8.820433e+000 201 185 133
-6.073437e-001 -3.997078e-001 -9.502558e+000 79 66 49
-4.022180e+000 -7.857929e-001 -8.049912e+000 236 209 142
-1.761386e+000 -8.697507e-001 -8.336620e+000 128 87 75
-2.705779e+000 -9.818391e-001 -8.249812e+000 130 111 105
-2.813038e+000 -1.095112e+000 -8.193748e+000 144 128 131
-3.755911e+000 -1.312472e+000 -7.967338e+000 113 42 41
4.007419e+000 -1.306985e+000 -8.764019e+000 165 127 104
4.007419e+000 -1.306985e+000 -8.764019e+000 165 127 104
-3.828626e+000 -1.540434e+000 -8.400288e+000 112 70 63
-3.828626e+000 -1.540434e+000 -8.400288e+000 112 70 63
-2.086682e+000 -1.942780e+000 -9.261771e+000 145 96 67
-2.086682e+000 -1.942780e+000 -9.261771e+000 145 96 67
1.125372e+000 -3.118553e+000 -1.217553e+001 157 92 82
3.393095e+000 -2.534102e+000 -9.468830e+000 197 100 84
1.687552e+000 -3.506430e+000 -1.155160e+001 217 160 87
1.440981e+000 3.037872e+000 -1.066384e+001 213 205 192
4.090267e+000 2.168435e+000 -7.163154e+000 167 149 101
-6.662359e-001 3.385201e+000 -1.324418e+001 223 217 205
-6.662359e-001 3.385201e+000 -1.324418e+001 223 217 205
-5.208331e-001 3.443131e+000 -1.313263e+001 227 223 211
4.127367e+000 9.957568e-001 -7.742769e+000 214 196 182
8.845679e-001 1.120959e+000 -9.939040e+000 176 170 157
2.750581e+000 8.656522e-001 -8.399557e+000 200 182 120
2.465277e+000 5.823810e-001 -9.397216e+000 187 169 149
-1.102907e+000 3.467376e-001 -1.005515e+001 149 129 115
1.647269e+000 -1.659109e-001 -9.295743e+000 202 188 147
-4.035434e+000 -6.054062e-001 -7.993623e+000 248 220 155
-3.573893e+000 -4.684907e-001 -7.883288e+000 101 76 50
-4.139835e-001 -5.718650e-001 -9.355405e+000 78 67 49
4.410864e-001 -6.415228e-001 -9.437802e+000 104 95 74
-3.962935e+000 -7.290929e-001 -7.976736e+000 237 208 150
-3.984562e+000 -8.526571e-001 -8.049351e+000 147 117 65
-3.961001e+000 -8.554537e-001 -8.053759e+000 241 212 156
-4.931851e-001 -9.945275e-001 -9.017520e+000 136 125 114
-2.917837e+000 -9.676581e-001 -8.007812e+000 100 47 29
-2.879924e+000 -1.050974e+000 -8.167766e+000 68 34 20
-3.972568e+000 -1.174057e+000 -8.101874e+000 123 65 62
-3.841136e+000 -1.153290e+000 -8.040009e+000 93 35 34
4.170974e+000 -1.341528e+000 -8.547597e+000 230 178 152
4.151010e+000 -1.334192e+000 -8.508399e+000 230 178 152
-2.273965e+000 -1.692582e+000 -9.167828e+000 177 72 31
9.716211e-001 -3.045569e+000 -1.234260e+001 204 185 181
1.830715e+000 -3.562480e+000 -1.146162e+001 202 117 66
-8.447254e-001 4.181792e-001 -9.725372e+000 207 199 189
-2.378606e-001 6.236725e-001 -9.988057e+000 192 184 174
-7.052889e-001 -1.134892e-001 -9.527533e+000 147 138 128
-3.625793e+000 -5.906801e-001 -7.907571e+000 82 42 22
-3.942958e+000 -7.199069e-001 -7.996576e+000 152 121 74
-2.898288e+000 -6.724146e-001 -7.843689e+000 131 75 66
-2.609863e+000 -7.769766e-001 -8.301176e+000 124 57 41
-2.869993e+000 -9.900911e-001 -8.066046e+000 129 91 72
-3.864949e+000 -1.276284e+000 -8.131159e+000 91 22 22
-3.435125e+000 -1.293740e+000 -7.982611e+000 171 82 61
-3.429008e+000 -1.459633e+000 -8.090148e+000 186 88 56
-2.251045e-001 -2.001185e+000 -1.072311e+001 241 236 230
3.845992e+000 -1.984753e+000 -8.993835e+000 158 103 64
3.378373e+000 -2.340349e+000 -9.234974e+000 205 121 83
1.840032e+000 -3.382397e+000 -1.147461e+001 237 191 114
3.818999e+000 1.792159e+000 -7.542019e+000 204 186 148
-3.154377e-001 2.453480e+000 -1.253739e+001 229 223 211
2.467206e+000 5.762659e-001 -9.379760e+000 193 180 157
-2.132295e+000 -5.980115e-001 -8.666266e+000 137 56 27
-2.067510e+000 -5.940945e-001 -8.626865e+000 175 91 56
-3.786103e+000 -7.310087e-001 -7.972712e+000 192 164 102
-2.826533e+000 -7.235915e-001 -7.894602e+000 112 61 54
-3.786805e+000 -9.280755e-001 -7.921133e+000 131 73 68
-2.965492e+000 -8.739273e-001 -7.978788e+000 85 25 15
2.486199e+000 -2.613651e+000 -9.769210e+000 83 52 25
1.698152e+000 -3.571133e+000 -1.159613e+001 171 86 70
1.910240e+000 -3.338404e+000 -1.132279e+001 237 197 116
2.143856e+000 2.432830e+000 -9.991830e+000 243 237 225
1.843761e+000 2.109792e+000 -9.571215e+000 166 157 145
-1.449340e-001 1.617717e+000 -1.118168e+001 213 209 200
-9.415442e-001 3.573867e-001 -9.678374e+000 146 75 55
-1.521068e+000 -1.636295e-001 -8.449944e+000 202 107 59
-1.264798e+000 -6.257329e-002 -8.550570e+000 119 52 36
1.582308e+000 -2.070724e-001 -9.367322e+000 203 190 147
-2.024721e-001 -5.599913e-001 -9.345154e+000 133 125 116
2.770137e-001 -6.056596e-001 -9.537975e+000 107 99 88
9.169249e-001 -9.019081e-001 -9.073177e+000 232 229 220
-3.997079e+000 -9.631149e-001 -8.075967e+000 74 20 22
-3.449832e+000 -9.391380e-001 -7.914986e+000 229 130 74
-3.449832e+000 -9.391380e-001 -7.914986e+000 229 130 74
-2.823775e+000 -1.000797e+000 -8.176295e+000 30 23 25
-3.557861e+000 -1.208538e+000 -7.938111e+000 229 118 74
-7.717735e-001 -1.417328e+000 -8.847445e+000 137 127 115
1.467773e+000 -3.749095e+000 -1.202152e+001 225 149 91
3.441800e+000 2.000158e+000 -7.845133e+000 216 199 141
-9.391377e-001 1.783487e+000 -1.298614e+001 251 247 244
4.603167e-001 1.491794e+000 -1.035356e+001 237 234 228
4.604360e-001 1.490946e+000 -1.034415e+001 237 234 228
2.600140e+000 1.100517e+000 -9.089612e+000 237 230 220
2.477641e+000 4.920748e-001 -9.210193e+000 237 231 217
-3.966793e+000 -3.979523e-001 -7.936321e+000 245 218 146
-3.425422e+000 -5.767123e-001 -7.921113e+000 80 32 23
-2.678646e+000 -1.323276e+000 -8.174652e+000 182 126 79
2.489465e+000 -1.322694e+000 -8.994510e+000 208 201 185
2.489465e+000 -1.322694e+000 -8.994510e+000 208 201 185
-3.724848e+000 -1.531371e+000 -8.331766e+000 69 24 21
2.384429e+000 2.546029e+000 -9.647921e+000 244 239 226
1.801510e-001 1.762405e+000 -1.139587e+001 224 219 213
1.801510e-001 1.762405e+000 -1.139587e+001 224 219 213
-2.295511e+000 -2.018379e-001 -9.025070e+000 156 61 33
2.055854e+000 -3.244454e-001 -9.400720e+000 172 159 120
-3.580758e+000 -7.078583e-001 -7.852826e+000 65 17 17
-2.827403e+000 -6.664360e-001 -7.949911e+000 68 24 29
-2.340746e+000 -9.289272e-001 -8.758111e+000 156 100 70
-1.591879e+000 -8.749657e-001 -8.157687e+000 120 36 40
-9.857218e-001 -1.387588e+000 -8.619286e+000 177 167 157
4.042941e+000 -1.333750e+000 -8.670397e+000 174 104 55
4.070716e+000 -1.205090e+000 -8.556074e+000 171 103 64
3.545510e+000 2.603643e+000 -8.255458e+000 209 197 187
2.765332e+000 9.822716e-001 -8.502439e+000 155 140 101
2.768350e+000 9.824764e-001 -8.520383e+000 155 140 101
2.419290e+000 7.089844e-001 -9.228846e+000 227 222 210
-1.288501e-001 -3.582945e-002 -9.337296e+000 184 177 169
2.391915e+000 -3.523760e-001 -9.007252e+000 107 94 62
2.837718e+000 -2.780146e-001 -8.870233e+000 190 182 167
-4.080930e+000 -4.410419e-001 -8.015600e+000 73 18 23
-2.175694e+000 -7.137798e-001 -8.752849e+000 154 64 32
4.151218e+000 -1.316263e+000 -8.330565e+000 204 136 96
1.874253e+000 -3.438698e+000 -1.130282e+001 231 178 108
2.705706e+000 2.703983e+000 -9.319112e+000 221 213 202
-1.637717e+000 2.742886e+000 -1.376387e+001 191 185 173
-1.971624e+000 2.455706e+000 -1.401146e+001 239 234 228
-2.683811e+001 1.432632e+000 -5.822101e+001 27 15 19
-1.237189e+000 -2.984685e-001 -8.863712e+000 162 81 51
3.903475e+000 -1.195279e+000 -8.704051e+000 100 48 38
-1.683679e+000 -1.277250e+000 -8.469389e+000 202 145 108
2.144527e+000 2.171946e+000 -9.387186e+000 234 227 218
3.389616e+000 1.890058e+000 -8.109582e+000 152 135 97
2.124545e+000 3.766423e-001 -9.504340e+000 230 228 216
-1.591353e+000 -1.482910e+000 -8.711116e+000 180 60 42
-1.488533e+000 -1.627260e+000 -8.693748e+000 199 83 60
3.996831e+000 2.056802e+000 -7.196689e+000 254 238 171
4.128300e+000 1.718982e+000 -7.473526e+000 115 41 46
-1.537891e-001 1.978308e+000 -1.192387e+001 175 167 157
-5.586780e-001 1.915806e+000 -1.273323e+001 242 242 234
2.701927e+000 1.925670e+000 -8.737483e+000 242 235 229
3.431280e+000 -1.853285e+000 -8.791396e+000 232 225 217
3.526131e+000 -4.780558e-001 -7.972777e+000 242 233 224
6.661694e-002 2.885541e+000 -1.199700e+001 250 243 233
-1.083096e+000 -2.976864e-001 -9.411559e+000 40 25 25
3.776571e+000 1.298572e+000 -7.744944e+000 187 171 110
3.283962e+000 6.947173e-001 -8.075977e+000 237 215 155
-1.143246e+000 3.590000e-001 -9.898659e+000 129 78 60
-1.143246e+000 3.590000e-001 -9.898659e+000 129 78 60
2.428014e+000 3.526252e-001 -8.856750e+000 236 220 162
2.553157e+000 5.357570e-001 -8.707292e+000 202 187 135
2.169138e+000 9.873621e-002 -9.214390e+000 195 181 140
2.001022e+000 1.097076e-002 -9.274387e+000 160 148 109
2.083791e+000 5.139244e-002 -9.233227e+000 177 162 120
-6.409536e-001 -3.980980e-001 -9.484429e+000 156 143 107
-6.081722e-001 -4.163090e-001 -9.406948e+000 142 128 96
2.074924e+000 -4.403902e-001 -9.202262e+000 171 163 154
2.182083e+000 -3.578370e-001 -9.206408e+000 164 151 106
-2.871444e+000 -6.096865e-001 -7.854229e+000 107 49 36
2.159100e-002 -5.552439e-001 -9.424254e+000 148 139 130
6.280019e-001 -5.416568e-001 -9.418131e+000 89 80 59
3.223008e+000 -8.928489e-001 -8.089142e+000 136 85 81
-3.769316e+000 -8.963563e-001 -7.864794e+000 143 85 79
3.942269e+000 -1.190731e+000 -8.637790e+000 130 75 58
4.033116e+000 -1.163027e+000 -8.652607e+000 137 88 71
4.033116e+000 -1.163027e+000 -8.652607e+000 137 88 71
-3.029992e+000 -1.333894e+000 -8.174295e+000 74 46 29
-2.918437e+000 -1.377978e+000 -8.237824e+000 194 161 142
4.008706e+000 -1.359308e+000 -8.742549e+000 165 93 49
-3.708067e+000 -1.650669e+000 -8.418713e+000 98 52 49
2.182260e+000 -2.350275e+000 -1.000737e+001 126 105 64
2.412376e+000 -2.299434e+000 -9.886347e+000 222 88 89
2.375668e+000 -2.533061e+000 -1.003228e+001 163 146 97
1.777624e+000 -3.230833e+000 -1.157360e+001 202 143 76
3.030063e+000 -2.848910e+000 -1.014330e+001 120 58 43
1.172622e+000 -3.829236e+000 -1.218275e+001 244 168 113
3.534326e+000 2.076953e+000 -7.999205e+000 213 195 141
-3.906319e-001 2.913458e+000 -1.292447e+001 219 213 199
3.237243e+000 2.008720e+000 -8.635049e+000 213 204 194
3.758734e+000 1.786712e+000 -7.482948e+000 237 216 164
3.838266e+000 1.560910e+000 -7.752735e+000 215 198 168
-1.401259e+000 1.447864e+000 -1.331990e+001 242 238 227
-2.315229e-001 8.893555e-001 -1.052593e+001 229 220 212
-7.838088e-001 5.598993e-001 -9.947342e+000 182 175 166
-8.890602e-001 6.535582e-002 -9.381956e+000 113 66 54
2.885627e+000 1.136569e-001 -8.485435e+000 178 160 110
1.878189e+000 -2.789513e-002 -9.296936e+000 127 114 89
1.722831e+000 -1.117519e-001 -9.372991e+000 141 131 105
2.170133e+000 -7.678978e-003 -9.171362e+000 229 216 164
-1.599529e+000 -2.212120e-001 -8.454998e+000 175 82 45
2.039304e+000 -3.805201e-001 -9.299265e+000 109 98 65
-3.387320e+000 -5.603794e-001 -7.723198e+000 98 50 45
-7.887722e-001 -5.708366e-001 -9.377569e+000 76 67 50
-6.390726e-001 -7.070058e-001 -9.243123e+000 59 46 29
-6.128981e-001 -6.847343e-001 -9.137100e+000 81 68 51
2.652887e-001 -7.035209e-001 -9.470800e+000 109 100 70
-3.682399e+000 -6.408605e-001 -7.864458e+000 172 139 90
-2.843206e+000 -6.268205e-001 -7.814979e+000 115 62 58
1.212402e+000 -7.878041e-001 -8.965831e+000 173 163 151
1.301146e+000 -7.973364e-001 -8.924639e+000 181 175 164
-2.799056e+000 -9.076592e-001 -8.138748e+000 68 34 25
-2.716704e+000 -9.028493e-001 -8.184427e+000 99 66 50
1.180744e+000 -1.201522e+000 -9.041477e+000 204 200 193
4.083877e+000 -1.081196e+000 -8.687967e+000 173 128 111
4.095816e+000 -1.146527e+000 -8.823720e+000 164 115 99
4.113128e+000 -1.206641e+000 -8.841402e+000 171 133 114
4.113128e+000 -1.206641e+000 -8.841402e+000 171 133 114
-2.955072e+000 -1.355475e+000 -8.239817e+000 183 153 144
-7.365522e-001 -1.392016e+000 -8.726317e+000 138 129 117
4.275997e+000 -1.306393e+000 -8.494262e+000 201 145 116
-3.300016e+000 -1.438827e+000 -8.053022e+000 157 73 52
-3.300016e+000 -1.438827e+000 -8.053022e+000 157 73 52
-3.066576e+000 -1.408835e+000 -8.152164e+000 87 57 49
-2.771457e+000 -1.624270e+000 -8.474294e+000 162 77 45
-1.528465e+000 -1.498859e+000 -8.544230e+000 184 65 42
-1.518600e+000 -1.485191e+000 -8.483451e+000 184 65 42
-3.580168e+000 -1.698570e+000 -8.464966e+000 190 103 67
-2.136531e+000 -1.962241e+000 -9.244878e+000 162 90 53
-2.979159e-001 -2.940307e+000 -1.340804e+001 215 166 122
4.240584e+000 -1.780437e+000 -8.444677e+000 199 127 80
9.263032e-001 -2.987589e+000 -1.226539e+001 197 166 160
9.198852e-001 -3.023277e+000 -1.220951e+001 184 111 80
9.787347e-001 -3.075298e+000 -1.245545e+001 204 185 181
2.425167e+000 -2.331438e+000 -9.857951e+000 201 82 80
3.785363e+000 -2.115782e+000 -9.107081e+000 179 100 76
1.348141e+000 -3.290587e+000 -1.188152e+001 192 133 78
1.424891e+000 -3.331141e+000 -1.165939e+001 206 144 71
2.915588e+000 -2.955673e+000 -1.028913e+001 152 116 61
3.807726e+000 -2.640408e+000 -9.364720e+000 251 193 146
3.790053e+000 -2.497062e+000 -8.992740e+000 196 121 64
7.347535e+000 -3.430725e+000 -1.293566e+001 202 190 190
1.451722e+000 -3.453325e+000 -1.171937e+001 214 137 81
1.806271e+000 -3.448232e+000 -1.148025e+001 232 168 105
7.787247e-003 3.908272e+000 -1.232102e+001 237 229 215
3.530435e+000 2.353738e+000 -7.763125e+000 130 115 90
4.835032e-001 1.876830e+000 -1.130919e+001 187 183 174
2.448612e-002 1.612121e+000 -1.089003e+001 210 207 196
2.846908e+000 1.135289e+000 -8.333263e+000 225 207 143
2.725370e+000 8.114516e-001 -8.464088e+000 202 186 127
2.759778e+000 9.069052e-001 -8.419517e+000 212 196 135
-8.957651e-001 3.903337e-001 -9.695094e+000 206 197 186
-7.792719e-001 4.034558e-001 -9.610370e+000 218 213 207
-1.023386e+000 2.472190e-001 -9.511545e+000 145 118 109
-1.051293e+000 1.988936e-001 -9.643595e+000 127 67 53
-1.483083e+000 -1.132486e-001 -8.466183e+000 189 91 46
-1.632903e-001 -4.749522e-002 -9.337764e+000 188 181 175
1.964292e+000 -1.133399e-002 -9.255940e+000 163 150 115
1.482585e+000 -2.156220e-001 -9.411855e+000 122 108 82
-6.511876e-001 -7.528631e-001 -9.319937e+000 81 69 49
-3.373181e-001 -6.861962e-001 -9.307426e+000 54 45 30
-3.892022e+000 -7.095572e-001 -7.889942e+000 152 121 74
-3.641814e+000 -7.147221e-001 -7.811104e+000 158 101 94
-3.669407e+000 -7.882012e-001 -7.805808e+000 128 78 69
-2.879087e+000 -6.676753e-001 -7.781253e+000 131 75 66
-2.513323e+000 -8.325394e-001 -8.211354e+000 131 64 47
-2.452662e+000 -7.501847e-001 -8.364834e+000 100 31 15
-1.687087e+000 -9.363502e-001 -8.213978e+000 74 32 38
4.107266e+000 -1.127379e+000 -8.742709e+000 137 82 52
4.121788e+000 -1.105308e+000 -8.701505e+000 188 138 127
4.130750e+000 -1.167223e+000 -8.764783e+000 177 143 128
-3.454262e+000 -1.304553e+000 -8.037006e+000 171 82 61
-3.344929e+000 -1.228073e+000 -7.937605e+000 173 90 64
4.018687e+000 -1.368958e+000 -8.947726e+000 159 115 101
-3.409104e+000 -1.484570e+000 -8.029059e+000 218 116 77
-2.614566e+000 -1.737711e+000 -9.171180e+000 179 68 31
4.356182e+000 -1.506462e+000 -8.417469e+000 190 117 68
-3.290670e-001 -2.841962e+000 -1.335619e+001 216 147 87
-3.550601e-001 -2.951215e+000 -1.349282e+001 215 138 76
2.853402e+000 -2.597019e+000 -1.028534e+001 113 66 40
3.353699e+000 -2.123619e+000 -9.129044e+000 192 135 91
3.590434e+000 -2.376739e+000 -9.351116e+000 224 134 99
3.590434e+000 -2.376739e+000 -9.351116e+000 224 134 99
4.967345e-001 -3.313749e+000 -1.270773e+001 204 130 75
1.822662e+000 -3.052892e+000 -1.137675e+001 178 74 66
2.670986e+000 -2.835752e+000 -1.006494e+001 85 55 29
1.791403e+000 -3.477449e+000 -1.135805e+001 202 132 76
2.902450e-001 3.755718e+000 -1.223931e+001 238 230 219
3.382739e+000 1.882788e+000 -7.923136e+000 182 165 112
4.128575e+000 1.683348e+000 -7.686421e+000 126 85 75
-3.144634e-001 2.442896e+000 -1.247670e+001 229 223 211
3.752549e+000 1.494359e+000 -7.759801e+000 242 223 157
4.408121e+000 1.601849e+000 -7.915272e+000 177 62 61
9.533288e-002 1.338936e+000 -1.087537e+001 230 227 218
-1.158448e+000 -6.323832e-002 -8.652547e+000 105 46 36
-1.338992e-001 -1.491198e-001 -9.360516e+000 139 132 122
1.526062e+000 -1.901583e-001 -9.329843e+000 116 105 81
-2.241655e+000 -2.608314e-001 -8.844877e+000 178 95 62
-2.120485e+000 -5.936767e-001 -8.614439e+000 137 56 27
-1.863566e+000 -6.985235e-001 -8.727645e+000 157 44 45
-1.846874e+000 -6.913337e-001 -8.634402e+000 157 44 45
-6.989225e-001 -6.969025e-001 -9.166654e+000 84 72 51
-1.040817e-001 -6.491824e-001 -9.471096e+000 88 78 66
3.015634e-001 -6.475230e-001 -9.505290e+000 74 64 51
-3.727965e+000 -9.098260e-001 -7.798422e+000 131 73 68
-2.923039e+000 -1.001993e+000 -8.030556e+000 137 93 69
-2.831096e+000 -9.102973e-001 -8.080597e+000 125 80 59
-2.832512e+000 -1.069424e+000 -8.189411e+000 40 29 31
-3.086744e+000 -1.503898e+000 -8.245680e+000 118 51 33
-2.166382e+000 -1.732032e+000 -9.585761e+000 175 79 42
-2.205476e+000 -2.015189e+000 -1.031554e+001 208 110 74
1.570462e-001 -2.154831e+000 -1.101279e+001 199 195 186
3.204309e-001 -1.917496e+000 -1.059863e+001 184 176 159
-2.052010e+000 -2.029501e+000 -9.878480e+000 219 93 69
3.869684e+000 -2.029318e+000 -9.150393e+000 134 80 54
9.178857e-001 -2.995165e+000 -1.247385e+001 221 180 157
7.870100e-001 -3.055656e+000 -1.251581e+001 199 136 70
1.540223e+000 -3.498869e+000 -1.165231e+001 189 108 66
1.593490e+000 -3.592092e+000 -1.159521e+001 209 128 74
3.335319e+000 -3.090499e+000 -9.769786e+000 149 87 46
3.571128e+000 -2.831969e+000 -9.451766e+000 159 94 53
3.635384e+000 2.432082e+000 -7.882294e+000 131 117 91
6.709852e-001 3.317745e+000 -1.181387e+001 241 235 221
3.466430e+000 2.038170e+000 -8.281154e+000 230 216 203
1.985343e+000 2.402206e+000 -1.037331e+001 237 230 220
3.348193e+000 1.874228e+000 -8.261103e+000 225 214 203
4.335029e+000 1.226434e+000 -7.831800e+000 187 159 146
2.784009e+000 1.123547e+000 -8.321425e+000 169 151 109
-1.299908e+000 1.436397e+000 -1.306603e+001 220 216 206
6.451407e-001 3.583571e-001 -9.431866e+000 164 154 136
2.351855e+000 1.391153e-001 -9.074750e+000 226 210 156
-9.005053e-002 -2.148011e-001 -9.376680e+000 181 174 164
-9.005053e-002 -2.148011e-001 -9.376680e+000 181 174 164
-3.892268e+000 -4.030519e-001 -7.868027e+000 235 203 140
3.783674e-001 -5.389034e-001 -9.504778e+000 126 116 104
-2.721325e+000 -7.844726e-001 -7.964570e+000 69 31 23
1.200819e+000 -8.087808e-001 -8.915679e+000 183 175 164
1.907889e+000 -7.722781e-001 -9.181528e+000 166 158 147
-1.853522e+000 -1.025703e+000 -8.168167e+000 204 184 154
-1.853522e+000 -1.025703e+000 -8.168167e+000 204 184 154
-1.652744e+000 -9.841265e-001 -8.206204e+000 207 98 93
-1.652744e+000 -9.841265e-001 -8.206204e+000 207 98 93
6.811149e-002 -1.288166e+000 -9.459912e+000 156 145 132
9.450211e-001 -1.106574e+000 -9.173498e+000 232 229 224
-2.922966e+000 -1.126044e+000 -7.937362e+000 105 46 27
-3.132334e+000 -1.367702e+000 -8.238574e+000 86 44 33
-2.802683e+000 -1.230349e+000 -8.195809e+000 195 147 99
4.217770e+000 -1.382615e+000 -8.758876e+000 195 124 88
6.799049e-001 -2.912123e+000 -1.267170e+001 119 62 39
9.946161e-001 -2.829215e+000 -1.170748e+001 222 174 134
2.743483e+000 -2.460290e+000 -1.021319e+001 122 68 44
3.646527e+000 -2.215546e+000 -9.265071e+000 186 109 89
3.705504e+000 -2.171016e+000 -9.128027e+000 182 87 78
2.710517e+000 -2.691877e+000 -1.042273e+001 111 46 41
2.891269e+000 -2.778503e+000 -1.023007e+001 149 111 56
1.283413e+000 -3.843230e+000 -1.224245e+001 201 122 57
2.368633e+000 3.314127e-001 -8.881242e+000 148 136 93
-9.940627e-002 -4.228928e-001 -9.234575e+000 168 161 151
1.619905e+000 -2.853204e-001 -9.446898e+000 115 105 72
-3.350253e+000 -5.788063e-001 -7.908795e+000 158 90 59
8.339385e-001 -5.378740e-001 -9.505840e+000 170 161 122
-4.060828e+000 -7.650204e-001 -7.999209e+000 73 28 23
-2.269808e+000 -7.678480e-001 -8.609477e+000 165 75 44
1.345467e+000 -7.946903e-001 -8.919283e+000 178 172 161
-3.957099e+000 -1.076511e+000 -8.039089e+000 177 138 92
-1.264577e+000 -1.114512e+000 -8.402329e+000 170 162 151
1.958657e-001 -1.215135e+000 -9.489544e+000 156 147 137
4.555404e+000 -1.101513e+000 -8.103609e+000 161 147 136
-1.634682e+000 -1.182260e+000 -8.292817e+000 202 151 117
-2.778028e+000 -1.915748e+000 -9.666654e+000 37 26 24
2.306171e+000 -2.246777e+000 -1.004567e+001 186 61 60
3.439047e-001 -3.499460e+000 -1.288066e+001 222 143 91
3.625066e+000 2.457986e+000 -8.097279e+000 241 229 216
3.756850e+000 1.814045e+000 -7.550865e+000 236 216 155
-9.180627e-001 2.351322e+000 -1.296916e+001 196 190 178
-2.220161e+000 2.442713e+000 -1.454148e+001 221 96 99
-2.220161e+000 2.442713e+000 -1.454148e+001 221 96 99
3.046039e+000 1.334947e+000 -8.215896e+000 210 195 145
-7.865253e-001 1.020705e+000 -1.249077e+001 220 217 208
2.363277e+000 5.374153e-001 -9.624488e+000 223 217 207
2.614754e+000 -1.685792e-001 -8.776409e+000 165 152 108
-2.182633e+000 -4.700507e-001 -8.654539e+000 133 45 26
-8.028101e-001 -7.080258e-001 -9.074466e+000 49 39 33
9.701680e-001 -5.122981e-001 -9.581459e+000 151 138 103
-2.743395e+000 -8.493490e-001 -8.165542e+000 139 98 69
5.070770e-001 -2.204695e+000 -1.146935e+001 144 47 49
1.009802e+000 -2.377575e+000 -1.150856e+001 169 48 49
4.524403e+000 -1.787128e+000 -8.647631e+000 199 185 176
2.111388e+000 -2.574128e+000 -1.015377e+001 175 159 107
1.816437e+000 -3.570180e+000 -1.126085e+001 203 126 67
2.397979e+000 1.646538e+000 -8.944987e+000 215 208 198
2.397979e+000 1.646538e+000 -8.944987e+000 215 208 198
2.369576e+000 7.374873e-001 -9.576928e+000 204 197 179
-4.642712e-001 -1.696351e-001 -9.322833e+000 158 151 145
-3.729492e+000 -5.128474e-001 -7.905769e+000 78 29 26
-2.782481e+000 -7.581984e-001 -8.147139e+000 85 40 35
-3.853612e+000 -8.989510e-001 -7.919269e+000 189 168 107
-2.491944e+000 -1.399183e+000 -8.295855e+000 170 126 87
3.131734e-001 -2.272485e+000 -1.129815e+001 221 207 196
2.383857e+000 -2.329190e+000 -9.926700e+000 222 82 83
1.571144e-001 -3.262129e+000 -1.190000e+001 78 58 49
1.601814e+000 -3.272726e+000 -1.148276e+001 184 81 67
2.963823e+000 -2.995842e+000 -1.009626e+001 147 111 56
2.977382e+000 -3.011864e+000 -1.014942e+001 147 111 56
2.001698e-001 3.687008e+000 -1.223886e+001 199 191 179
-5.075945e-001 2.447560e+000 -1.289000e+001 235 226 217
4.891936e-001 2.142150e+000 -1.168324e+001 239 236 228
2.573723e+000 1.748597e+000 -8.910302e+000 218 211 199
2.573723e+000 1.748597e+000 -8.910302e+000 218 211 199
3.427681e-001 1.633563e+000 -1.113656e+001 204 200 188
2.032178e-001 9.083934e-001 -1.013435e+001 233 233 223
2.286614e+000 1.669435e-001 -9.260595e+000 139 125 98
-5.426412e-001 -2.042686e-002 -9.351883e+000 159 152 146
1.567186e+000 -9.504617e-002 -9.371154e+000 140 134 114
-3.597865e+000 -2.754168e-001 -7.503969e+000 69 15 16
1.164778e+000 -4.611206e-001 -9.593659e+000 165 152 117
-3.116955e+000 -1.258257e+000 -8.097445e+000 196 152 112
3.768616e+000 -2.254852e+000 -9.313353e+000 183 90 75
2.217602e+000 -2.710843e+000 -9.778592e+000 120 98 60
2.717448e+000 -2.921469e+000 -9.791173e+000 104 59 39
3.381611e+000 -3.016191e+000 -9.549754e+000 219 164 129
3.125859e+000 2.365288e+000 -8.637362e+000 239 230 221
-2.160154e+000 3.777793e+000 -1.486527e+001 234 230 227
-1.560550e+000 3.738351e+000 -1.440397e+001 248 241 233
2.352194e+000 2.361952e+000 -9.490025e+000 185 178 164
2.442829e+000 2.163051e+000 -9.103321e+000 241 234 226
-8.601967e-001 2.697539e+000 -1.300754e+001 179 171 160
6.597340e-001 1.141783e+000 -9.913124e+000 177 170 156
6.716019e-001 1.176162e+000 -1.015177e+001 177 170 156
4.081704e-001 7.070476e-001 -9.604100e+000 183 175 164
5.815020e-001 8.183517e-001 -9.848476e+000 242 238 231
2.523173e+000 3.463832e-001 -8.827604e+000 254 239 182
1.199048e+000 -2.569314e-001 -9.489722e+000 101 94 77
-4.132017e+000 -5.832060e-001 -8.001484e+000 255 235 168
-4.531468e-001 -8.960493e-001 -9.044950e+000 154 145 136
9.740607e-001 -8.160001e-001 -9.147495e+000 227 227 219
3.807797e+000 -8.187582e-001 -7.975008e+000 211 86 84
-4.099082e+000 -8.982926e-001 -8.048088e+000 223 191 120
-1.825627e+000 -1.186515e+000 -8.330746e+000 231 196 151
-1.151658e+000 -1.993256e+000 -8.950779e+000 192 185 171
1.811236e+000 -3.235556e+000 -1.129619e+001 237 189 112
-3.020924e-002 3.601294e+000 -1.182050e+001 203 194 185
-3.020924e-002 3.601294e+000 -1.182050e+001 203 194 185
6.227832e-003 1.503364e+000 -1.089579e+001 243 241 232
1.812775e+000 5.470654e-002 -9.459978e+000 213 211 199
-2.782316e+000 -7.110215e-001 -8.022108e+000 81 29 25
-6.745013e-001 -8.717987e-001 -8.868485e+000 156 144 135
-3.174531e-001 -1.482742e+000 -9.737743e+000 121 111 99
-3.487181e+000 -1.522699e+000 -8.188421e+000 221 120 78
3.198172e+000 -2.211785e+000 -9.388809e+000 209 161 94
3.339818e+000 -2.808085e+000 -9.603525e+000 130 71 34
-6.092253e-002 2.804759e+000 -1.263574e+001 249 243 229
2.834980e+000 1.440797e+000 -8.428778e+000 238 233 226
-2.098090e+000 2.067302e+000 -1.433218e+001 226 91 94
-1.694107e+000 1.707912e+000 -1.402138e+001 243 240 230
2.900261e+000 8.015125e-002 -9.275421e+000 254 253 198
2.388047e+000 -1.014038e-001 -9.366462e+000 253 247 196
1.340886e+000 -2.104461e+000 -1.098089e+001 115 36 37
2.170189e+000 -2.546178e+000 -9.856545e+000 226 208 149
3.716600e+000 -2.518969e+000 -9.139856e+000 216 139 84
9.640830e-001 8.463832e-001 -1.048201e+001 166 158 147
-2.446835e+000 -9.141943e-001 -8.669860e+000 121 50 29
3.130600e+000 -2.859701e+000 -9.816192e+000 121 64 45
4.084572e+000 1.067571e+000 -7.594191e+000 233 217 202
1.782424e+000 -1.813987e+000 -9.898220e+000 213 206 198
9.556349e-001 -1.147703e+000 -9.310862e+000 234 231 226
2.815623e+000 -1.420582e+000 -9.250200e+000 246 242 234
3.468437e+000 2.218796e+000 -7.780144e+000 169 152 111
3.417044e+000 2.020118e+000 -7.847417e+000 201 184 127
-6.082435e-001 8.166953e-001 -1.110800e+001 247 244 233
-4.710624e-001 6.875220e-001 -1.053151e+001 171 165 157
3.615421e+000 1.188550e+000 -7.671301e+000 206 185 130
-1.192931e+000 3.865868e-001 -9.987566e+000 143 108 90
-7.438392e-001 5.950881e-001 -1.001198e+001 201 195 185
-7.438392e-001 5.950881e-001 -1.001198e+001 201 195 185
-7.537849e-001 5.598745e-001 -1.016918e+001 178 171 161
2.625413e+000 9.475606e-001 -9.100714e+000 206 200 186
4.029650e+000 9.777491e-001 -7.784432e+000 206 190 174
1.698516e+000 5.999138e-001 -9.695779e+000 217 214 202
2.427783e+000 5.281394e-001 -9.391077e+000 203 194 179
2.404847e+000 4.477807e-001 -8.760397e+000 214 199 149
1.547562e+000 -1.826776e-001 -9.331394e+000 118 106 83
1.737946e+000 -8.751931e-002 -9.259849e+000 124 113 85
2.002635e+000 8.138054e-002 -9.041060e+000 131 121 94
-3.696447e+000 -6.380671e-001 -7.897585e+000 162 131 83
-3.609142e+000 -5.592869e-001 -7.917439e+000 147 112 73
-3.475781e+000 -4.808712e-001 -7.900221e+000 125 74 41
-2.786218e+000 -5.492969e-001 -8.327855e+000 138 57 28
2.210040e+000 -1.278293e-001 -9.112413e+000 254 248 193
2.436894e+000 -1.526567e-001 -8.964523e+000 211 194 140
3.861272e-001 -6.156738e-001 -9.377682e+000 78 70 51
4.695169e-001 -6.499524e-001 -9.394461e+000 79 66 44
2.291009e+000 -4.150389e-001 -8.893378e+000 224 218 204
2.584272e+000 -4.025653e-001 -8.402153e+000 175 167 150
3.343675e+000 -3.486221e-001 -8.573316e+000 178 163 147
-2.824950e+000 -1.031614e+000 -8.256633e+000 44 30 34
-2.383563e+000 -1.301696e+000 -8.854439e+000 150 74 53
-3.564607e+000 -1.467460e+000 -8.224980e+000 210 116 73
-2.044095e+000 -1.938290e+000 -9.729289e+000 230 97 76
4.070079e+000 -1.142209e+000 -8.768588e+000 160 117 99
4.071797e+000 -1.152753e+000 -8.731320e+000 162 124 111
4.071797e+000 -1.152753e+000 -8.731320e+000 162 124 111
4.026503e+000 -1.281322e+000 -8.803474e+000 146 91 71
3.969204e+000 -1.358219e+000 -8.782884e+000 173 124 109
4.011559e+000 -1.339781e+000 -8.772912e+000 180 132 110
4.011559e+000 -1.339781e+000 -8.772912e+000 180 132 110
4.103771e+000 -1.314871e+000 -8.573988e+000 179 113 78
9.730178e-001 -3.316288e+000 -1.228551e+001 196 133 79
3.736022e+000 1.781889e+000 -7.433275e+000 241 229 187
3.762000e+000 1.797032e+000 -7.392141e+000 254 244 178
-8.135943e-001 5.985944e-001 -1.016188e+001 209 202 192
4.714319e-001 7.892282e-001 -9.726050e+000 201 196 184
3.181715e+000 6.836296e-001 -7.834495e+000 250 234 177
4.219652e+000 9.644531e-001 -7.487538e+000 203 154 142
-1.123638e+000 -7.093716e-002 -8.880225e+000 107 49 37
2.317112e+000 2.328687e-001 -9.043850e+000 135 123 96
2.486884e+000 2.836231e-001 -8.659590e+000 254 244 189
3.068917e+000 4.947381e-001 -8.137001e+000 220 203 147
2.978365e+000 3.612577e-001 -7.965923e+000 159 145 99
1.746943e+000 -1.472750e-001 -9.232325e+000 130 120 87
2.059945e+000 5.665368e-002 -9.129324e+000 171 159 115
2.223351e+000 1.149178e-001 -8.977797e+000 171 157 112
-3.739759e+000 -6.126204e-001 -7.957849e+000 216 191 129
-1.093819e+000 -6.019066e-001 -8.755617e+000 139 123 110
-4.614626e-001 -5.577198e-001 -9.593609e+000 83 71 52
1.221480e+000 -3.775212e-001 -9.268974e+000 132 119 86
1.349342e+000 -3.368500e-001 -9.319958e+000 132 119 84
-3.955232e+000 -8.748096e-001 -8.016998e+000 159 128 79
-3.709427e+000 -8.545132e-001 -7.894264e+000 143 92 91
-9.647992e-002 -7.788702e-001 -9.429377e+000 126 117 86
3.538397e-001 -6.674173e-001 -9.429571e+000 105 97 76
5.163012e-001 -6.188108e-001 -9.437542e+000 116 106 81
-2.707477e+000 -9.745732e-001 -8.244230e+000 139 121 117
-1.662199e+000 -9.001147e-001 -8.184812e+000 209 89 90
-1.662199e+000 -9.001147e-001 -8.184812e+000 209 89 90
1.143659e+000 -7.854173e-001 -8.793518e+000 192 188 177
1.280535e+000 -8.388871e-001 -8.776810e+000 200 197 182
-3.127174e+000 -1.457081e+000 -8.268885e+000 71 26 14
-2.351549e+000 -1.839587e+000 -9.776481e+000 128 50 25
-2.306148e+000 -1.972217e+000 -9.562723e+000 194 87 39
4.099276e+000 -1.287034e+000 -8.574586e+000 223 184 165
4.130472e+000 -1.274173e+000 -8.564418e+000 187 115 71
4.076747e+000 -1.213055e+000 -7.922666e+000 236 195 178
1.407078e+000 -3.933627e+000 -1.222132e+001 253 200 159
1.452319e+000 -3.900454e+000 -1.208147e+001 251 199 156
3.618889e+000 -2.363923e+000 -9.291427e+000 188 119 64
4.063858e+000 -2.361422e+000 -8.961808e+000 171 100 54
8.054212e+000 -3.557578e+000 -1.246207e+001 201 191 188
1.448696e+000 -3.969497e+000 -1.201757e+001 210 146 104
3.996723e+000 2.817722e+000 -7.929160e+000 132 89 64
-2.105549e-001 2.464045e+000 -1.244747e+001 230 222 212
-9.473268e-001 2.256517e+000 -1.259754e+001 225 222 212
1.367295e+000 1.783128e+000 -1.010996e+001 177 168 161
1.511729e+000 2.039862e+000 -1.029214e+001 164 160 150
1.665130e+000 2.086712e+000 -1.030532e+001 204 200 191
4.300954e+000 1.553067e+000 -7.712402e+000 184 69 67
-7.799895e-001 5.702999e-001 -9.926294e+000 178 171 161
-9.908190e-001 3.431801e-001 -9.642217e+000 193 180 172
2.463670e+000 5.533239e-001 -8.722109e+000 144 128 96
-2.966716e+000 -4.557049e-001 -9.184525e+000 130 73 60
-1.773824e-001 -1.303402e-001 -9.319429e+000 168 163 157
-1.773824e-001 -1.303402e-001 -9.319429e+000 168 163 157
1.897430e+000 -2.775553e-002 -9.174590e+000 167 159 123
2.080252e+000 7.338560e-003 -9.078784e+000 214 200 150
2.200254e+000 1.230875e-001 -9.089371e+000 192 179 134
-4.143533e+000 -5.701295e-001 -8.072620e+000 227 197 125
-3.865149e+000 -6.481722e-001 -7.961603e+000 153 123 71
-2.912046e+000 -6.238023e-001 -7.977494e+000 101 43 31
-2.865530e+000 -6.324012e-001 -7.882601e+000 115 64 62
-2.725095e+000 -6.418445e-001 -8.532470e+000 116 40 17
-2.566875e+000 -6.706769e-001 -8.501297e+000 116 39 19
7.072401e-001 -5.065863e-001 -9.383862e+000 86 79 54
5.837654e-001 -5.898258e-001 -9.418606e+000 137 126 95
6.465622e-001 -5.808512e-001 -9.434971e+000 154 148 117
-4.196969e+000 -8.264839e-001 -8.053865e+000 122 51 41
-3.905669e+000 -8.491330e-001 -8.042137e+000 171 145 90
-2.988765e+000 -6.595979e-001 -7.896198e+000 105 53 49
-2.900961e+000 -6.743242e-001 -7.857180e+000 137 78 74
-2.791038e+000 -1.212686e+000 -9.666076e+000 136 68 49
-6.483476e-001 -7.518821e-001 -9.305523e+000 82 69 52
-3.548804e+000 -1.120070e+000 -7.969944e+000 233 132 81
-2.857630e+000 -9.770501e-001 -8.013908e+000 134 93 71
-5.129103e-001 -9.440697e-001 -8.972805e+000 138 129 118
-3.428569e+000 -1.416529e+000 -8.059243e+000 199 109 76
-1.587030e+000 -1.502360e+000 -8.487073e+000 204 107 72
7.820305e-001 -2.960236e+000 -1.251428e+001 154 83 66
4.116224e+000 -1.356754e+000 -8.524323e+000 191 115 67
4.037402e-001 -3.284581e+000 -1.296811e+001 199 133 77
2.796040e+000 -2.718686e+000 -1.034561e+001 110 59 36
1.385655e+000 -3.973866e+000 -1.210950e+001 208 149 114
1.472739e+000 -3.938632e+000 -1.203828e+001 206 136 85
1.854612e+000 -3.561950e+000 -1.172558e+001 230 173 107
2.942759e+000 -3.119804e+000 -1.042837e+001 124 78 51
7.873446e+000 -3.596931e+000 -1.297855e+001 194 188 185
7.970006e+000 -3.535806e+000 -1.274582e+001 236 226 224
7.965876e+000 -3.503261e+000 -1.260674e+001 236 228 225
3.802172e+000 -2.681580e+000 -9.256355e+000 200 121 65
3.512735e+000 2.140764e+000 -7.770623e+000 230 211 154
3.967781e+000 2.148481e+000 -7.194154e+000 183 164 112
3.080852e+000 1.531115e+000 -8.261706e+000 207 198 182
-2.392011e-001 9.048795e-001 -1.078457e+001 225 223 211
2.773686e+000 1.119936e+000 -8.306789e+000 175 158 117
2.773686e+000 1.119936e+000 -8.306789e+000 175 158 117
2.827787e+000 1.122813e+000 -8.283440e+000 249 233 164
-1.145002e+000 4.402571e-001 -1.007219e+001 194 184 174
-9.107563e-001 3.933253e-001 -9.788521e+000 208 200 190
-4.202046e-001 5.951779e-001 -1.011950e+001 187 178 169
-3.554907e-001 6.899540e-001 -1.054218e+001 163 158 152
2.706660e+000 8.344724e-001 -8.357647e+000 204 187 132
-1.117498e+000 -1.141631e-001 -8.948855e+000 128 73 54
-9.091994e-001 -7.854468e-002 -9.608178e+000 120 98 90
-8.342918e-001 -9.123188e-002 -9.485440e+000 146 129 121
1.439270e-001 9.645577e-002 -9.404319e+000 149 145 135
-3.903242e+000 -3.122317e-001 -7.889625e+000 225 205 129
-4.112768e+000 -5.096695e-001 -8.008346e+000 253 226 150
-1.668257e+000 -2.142931e-001 -8.581989e+000 230 136 79
-1.142324e+000 -2.519216e-001 -9.295898e+000 97 52 43
2.853596e+000 2.236023e-001 -8.178324e+000 183 167 112
-2.449655e+000 -5.106342e-001 -8.852111e+000 163 84 53
-7.512047e-001 -7.058686e-001 -9.463081e+000 87 75 53
-7.512047e-001 -7.058686e-001 -9.463081e+000 87 75 53
5.759866e-001 -5.465334e-001 -9.548718e+000 136 128 116
1.448390e+000 -2.607752e-001 -9.332382e+000 199 188 146
1.448390e+000 -2.607752e-001 -9.332382e+000 199 188 146
1.660299e+000 -2.079628e-001 -9.296770e+000 124 113 81
1.822057e+000 -3.377671e-001 -9.062155e+000 132 121 89
-3.470379e+000 -7.084485e-001 -7.877332e+000 118 63 56
-2.253653e+000 -9.485399e-001 -8.666996e+000 175 119 86
-2.167841e+000 -7.577664e-001 -8.789733e+000 150 66 32
-3.126315e-001 -8.071066e-001 -9.270045e+000 63 51 39
1.775571e-001 -7.183885e-001 -9.415860e+000 146 139 121
-2.871274e+000 -9.488591e-001 -7.961782e+000 104 49 33
-1.905416e+000 -8.659262e-001 -8.270097e+000 182 147 104
1.462374e-001 -1.327921e+000 -9.651924e+000 173 164 156
-3.697094e+000 -1.612058e+000 -8.437285e+000 74 24 19
2.115956e+000 -1.620265e+000 -9.414586e+000 189 182 170
2.879613e+000 -2.336879e+000 -1.003451e+001 191 162 115
2.487443e+000 -2.610192e+000 -9.979480e+000 84 53 30
2.563800e+000 -2.614133e+000 -1.011004e+001 135 105 67
3.540022e+000 -2.128573e+000 -9.012251e+000 187 99 85
1.123185e+000 -3.876312e+000 -1.258519e+001 199 119 59
3.735003e+000 -2.710829e+000 -9.259478e+000 200 118 62
3.495950e-001 1.836001e+000 -1.141612e+001 221 216 210
1.407911e+000 1.913002e+000 -1.029042e+001 172 168 156
-1.311038e+000 1.430994e+000 -1.302902e+001 215 211 200
-2.046048e-001 6.660447e-001 -1.018017e+001 162 155 145
1.621468e-001 2.292223e-001 -9.469909e+000 144 136 125
-1.107726e+000 -4.958103e-002 -9.278701e+000 85 37 27
7.101917e-001 -2.145911e-001 -9.543740e+000 160 155 144
2.213460e+000 5.709209e-002 -9.093175e+000 183 170 121
-3.655259e+000 -6.924175e-001 -7.889961e+000 164 103 99
-2.571254e+000 -5.333939e-001 -8.728198e+000 119 42 24
1.142509e+000 -3.901197e-001 -9.394833e+000 184 172 129
-2.297988e+000 -7.769422e-001 -8.724926e+000 168 84 47
-1.922310e+000 -9.133413e-001 -8.208453e+000 58 56 64
-4.693002e-001 -9.283056e-001 -8.963711e+000 170 163 157
-1.913418e-001 -1.123947e+000 -9.249409e+000 165 158 150
1.246686e+000 -7.586827e-001 -8.810483e+000 61 51 41
