ply
format ascii 1.0
element face 0
property list uchar int vertex_indices
element vertex 875
property float x
property float y
property float z
property uchar diffuse_red
property uchar diffuse_green
property uchar diffuse_blue
end_header
1.085387e+000 -8.511707e-001 -1.014558e+001 145 114 60
1.085387e+000 -8.511707e-001 -1.014558e+001 145 114 60
-1.420648e+000 -1.149198e+000 -9.567817e+000 185 92 89
-4.708448e-001 -1.240122e+000 -9.362440e+000 124 103 48
-3.970300e-001 -1.220898e+000 -9.361753e+000 53 55 52
2.713818e+000 1.390108e+000 -1.007042e+001 78 78 77
2.712049e+000 1.336152e+000 -1.019752e+001 221 214 204
-1.811744e+000 1.026011e+000 -9.548843e+000 163 38 41
-1.811744e+000 1.026011e+000 -9.548843e+000 163 38 41
-1.745356e+000 7.550883e-001 -9.300764e+000 132 29 37
1.530581e+000 1.128185e+000 -1.077745e+001 224 219 208
1.654225e+000 1.098875e+000 -1.095112e+001 78 42 39
1.755576e+000 5.215538e-001 -1.115285e+001 57 47 55
1.327556e+000 -3.766101e-001 -1.085561e+001 43 43 44
-2.966357e+000 1.915321e-002 -1.075017e+001 212 90 90
-1.804576e+000 -8.084590e-001 -9.556078e+000 221 108 105
-2.195526e+000 -7.691644e-001 -1.004144e+001 158 28 40
-2.195526e+000 -7.691644e-001 -1.004144e+001 158 28 40
-1.830448e+000 -1.075694e+000 -9.614317e+000 208 100 98
-1.830448e+000 -1.075694e+000 -9.614317e+000 208 100 98
-1.517855e+000 -1.120962e+000 -9.564758e+000 86 36 37
1.648563e+000 2.178562e+000 -1.004084e+001 194 81 83
1.534746e+000 2.132974e+000 -1.068168e+001 156 83 52
1.877989e+000 1.805216e+000 -1.001584e+001 92 44 47
2.329612e+000 1.634005e+000 -1.008486e+001 92 111 117
2.409091e+000 1.571829e+000 -1.006942e+001 73 82 89
-1.641481e+000 1.576868e+000 -9.550074e+000 205 97 94
2.395542e+000 1.352302e+000 -1.034195e+001 65 50 45
-1.029191e+000 6.367865e-001 -9.063081e+000 229 188 90
-2.913298e+000 4.348726e-001 -1.065389e+001 219 93 97
-2.804068e+000 1.510156e-001 -1.036971e+001 216 81 80
-2.804068e+000 1.510156e-001 -1.036971e+001 216 81 80
-2.219666e+000 -1.406253e-001 -9.576086e+000 213 91 90
-2.452625e+000 -7.133041e-001 -1.044434e+001 159 30 42
-1.348197e+000 -1.113888e+000 -9.237123e+000 118 35 38
-1.078510e+000 -1.197227e+000 -9.060171e+000 225 204 85
2.361625e+000 -1.035782e+000 -1.283672e+001 100 69 43
2.240674e+000 2.233664e+000 -1.017392e+001 117 65 68
1.324121e+000 2.125137e+000 -1.118356e+001 157 96 49
1.453566e+000 2.217967e+000 -1.107458e+001 228 187 80
-1.758554e+000 1.422568e+000 -9.788726e+000 140 35 41
-1.758554e+000 1.422568e+000 -9.788726e+000 140 35 41
-1.936652e+000 8.932999e-001 -9.462290e+000 216 99 96
-1.682294e+000 9.361381e-001 -9.365959e+000 216 88 87
-1.552351e+000 8.206070e-001 -9.219301e+000 126 33 41
-4.845020e-002 5.941185e-001 -9.375506e+000 54 52 42
-2.122873e+000 4.007090e-001 -9.407693e+000 138 31 39
-2.609707e+000 4.605408e-001 -1.006968e+001 152 28 39
-2.675234e+000 3.702253e-001 -1.024476e+001 217 91 87
-2.272152e+000 4.920401e-002 -9.555212e+000 225 102 102
-2.146637e+000 1.174125e-001 -9.585167e+000 130 30 34
-2.146637e+000 1.174125e-001 -9.585167e+000 130 30 34
-2.394408e+000 -6.009740e-002 -9.650978e+000 145 29 39
-2.655217e+000 1.959921e-002 -1.015526e+001 149 28 38
-2.156594e+000 -3.808899e-002 -9.471425e+000 126 29 35
-1.769453e+000 -2.204337e-001 -9.296916e+000 104 25 33
-2.030441e+000 -6.084015e-001 -9.798053e+000 102 29 36
-1.262722e+000 -7.343054e-001 -9.123143e+000 106 39 33
3.694434e-001 -8.259426e-001 -1.036118e+001 91 42 38
-2.182721e+000 -9.481782e-001 -1.002663e+001 131 36 46
-1.207648e+000 -1.173026e+000 -9.230178e+000 242 205 90
-2.050547e+000 -1.277276e+000 -1.027537e+001 206 97 95
-1.454672e+000 -1.213586e+000 -9.819483e+000 70 35 41
-1.454672e+000 -1.213586e+000 -9.819483e+000 70 35 41
6.978685e-001 -1.841390e+000 -1.215666e+001 141 65 67
1.573228e+000 2.388439e+000 -1.070763e+001 221 216 203
1.080251e+000 2.470841e+000 -1.166918e+001 129 63 57
-1.111221e+000 1.306848e+000 -8.962287e+000 254 216 95
-9.486531e-001 1.307262e+000 -9.046966e+000 146 89 42
1.125853e+000 2.031035e+000 -1.143428e+001 98 42 38
-2.073852e+000 1.096577e+000 -9.750692e+000 126 29 36
-1.545688e+000 8.155271e-001 -9.178313e+000 123 34 40
-1.851084e+000 5.576846e-001 -9.194766e+000 121 28 37
-1.727314e+000 4.141120e-001 -9.220980e+000 224 70 75
1.670104e+000 1.045326e+000 -1.172890e+001 96 47 47
-2.069536e+000 2.127699e-001 -9.364645e+000 210 95 92
-1.588624e+000 -4.705558e-002 -9.231828e+000 114 29 34
-1.779572e+000 -5.150688e-001 -9.118946e+000 213 64 64
-1.010925e+000 -4.003589e-001 -8.959213e+000 247 214 96
-1.072218e+000 -5.777557e-001 -9.002117e+000 144 87 28
-1.852990e+000 -7.132546e-001 -9.624367e+000 210 94 89
-1.855428e+000 -7.082016e-001 -9.636363e+000 210 94 89
-1.273496e+000 -9.857977e-001 -9.082104e+000 255 222 84
-1.533196e+000 -9.400197e-001 -9.472202e+000 209 90 86
-1.508252e+000 -1.360141e+000 -1.008478e+001 196 86 86
4.452421e-001 -1.356996e+000 -1.236312e+001 76 44 45
-1.218836e+000 2.280475e+000 -1.026757e+001 224 227 214
-1.690027e+000 1.061183e+000 -9.417164e+000 214 81 82
-1.710165e+000 1.154850e+000 -9.662224e+000 214 81 82
1.363809e+000 -4.529893e-001 -1.074842e+001 56 49 47
2.676401e+000 -8.451324e-001 -1.294348e+001 104 73 42
-1.170723e-001 -1.525194e+000 -1.097303e+001 109 57 58
2.749510e-001 1.232644e+000 -9.891622e+000 132 99 54
-1.884888e+000 -2.024702e-001 -9.373078e+000 110 29 31
-2.180034e-001 -4.346528e-001 -9.443633e+000 53 52 47
-1.447845e-001 -1.497737e+000 -1.098184e+001 106 56 57
2.455178e-001 -1.207612e+000 -1.181863e+001 229 225 214
2.818854e-001 -1.541628e+000 -1.245875e+001 231 224 214
5.511797e-001 -1.845376e+000 -1.263028e+001 114 51 55
5.511797e-001 -1.845376e+000 -1.263028e+001 114 51 55
-1.383341e+000 8.342021e-001 -9.022402e+000 126 45 41
-1.960110e+000 4.610884e-001 -9.309363e+000 120 29 36
-2.289509e-001 -8.087652e-001 -9.574170e+000 70 60 50
3.278228e+000 -1.136592e+000 -1.324469e+001 77 38 43
-1.003459e+000 1.070088e+000 -9.223958e+000 236 186 86
3.625193e+000 1.681389e+000 -1.271403e+001 222 213 204
-2.689018e+000 -1.207340e+000 -1.127169e+001 231 224 214
-2.695729e+000 7.085320e-001 -1.120213e+001 219 94 92
1.042427e+000 -1.511575e+000 -1.280729e+001 89 40 42
2.287515e+000 2.000237e+000 -1.093288e+001 77 48 50
2.289994e+000 2.001058e+000 -1.093429e+001 77 48 50
-2.172883e+001 -1.067632e+001 -4.838756e+001 61 60 59
-2.185830e+001 -1.394995e+001 -4.680856e+001 105 102 105
-2.519985e+001 -1.861193e+001 -5.081774e+001 64 85 114
-2.446542e+001 -1.756773e+001 -4.969496e+001 48 60 84
-2.036932e+001 -1.560078e+001 -4.459194e+001 67 65 68
-2.267786e+001 -1.889727e+001 -4.699141e+001 44 62 93
-2.279972e+001 -1.410953e+001 -4.822329e+001 58 61 76
-2.622323e+001 -1.764686e+001 -5.212992e+001 47 47 52
-2.287480e+001 -1.711394e+001 -4.757303e+001 81 95 116
-2.038069e+001 -1.577958e+001 -4.403922e+001 138 130 126
-2.456131e+001 -1.695644e+001 -4.988832e+001 134 132 143
-2.456131e+001 -1.695644e+001 -4.988832e+001 134 132 143
-2.594760e+001 -1.966558e+001 -5.169321e+001 38 47 87
-2.104252e+001 -1.876720e+001 -4.449654e+001 61 60 65
-2.107743e+001 -1.816546e+001 -4.484174e+001 169 160 161
-2.373808e+001 -1.859677e+001 -4.872444e+001 38 52 87
-2.295638e+001 -1.454002e+001 -4.955149e+001 94 91 91
-2.150661e+001 -1.310304e+001 -4.613994e+001 99 96 97
-2.303403e+001 -1.309071e+001 -4.940126e+001 56 56 58
-1.913878e+001 -1.779396e+001 -4.122746e+001 60 59 64
-1.810138e+001 -8.807299e+000 -5.259550e+001 35 33 36
-1.774851e+001 -1.837825e+001 -4.126801e+001 123 114 115
-1.776229e+000 3.358172e-001 -9.235851e+000 216 80 82
-1.763372e+000 2.969439e-001 -9.270891e+000 107 19 18
-1.240424e+001 7.372852e+000 -2.872697e+001 235 228 227
-1.234250e+001 7.284285e+000 -2.866485e+001 244 232 232
-1.293529e+001 7.086297e+000 -2.923078e+001 253 240 240
-1.249179e+001 6.724159e+000 -2.868443e+001 246 236 235
6.168773e+000 -1.878940e+000 -1.048551e+001 190 180 173
-1.503034e+000 -1.220910e+000 -1.000734e+001 69 30 31
-1.300433e+001 2.659119e+000 -2.975219e+001 223 213 212
-1.310229e+001 2.540619e+000 -2.983848e+001 230 218 218
-1.245849e+001 2.373561e+000 -2.957302e+001 191 184 180
-9.383444e-001 1.007455e+000 -8.906214e+000 224 181 79
-1.255077e+001 7.364429e+000 -2.925483e+001 226 217 215
1.899013e+000 4.527790e-001 -1.143221e+001 73 87 87
-1.239373e+001 5.765145e+000 -2.848410e+001 221 211 208
-1.192323e+001 5.024560e+000 -2.852220e+001 249 239 238
-1.003798e+000 -1.154769e+000 -8.902846e+000 154 109 44
-6.610509e+000 2.500287e+000 -2.787362e+001 79 80 84
-1.231043e+001 2.242818e+000 -2.966897e+001 121 113 110
-1.242922e+001 2.095144e+000 -2.976392e+001 126 116 114
-1.279294e+001 1.875902e+000 -3.027996e+001 122 114 111
-1.292978e+001 1.768747e+000 -3.040347e+001 118 110 107
-1.260767e+001 1.978297e+000 -3.002431e+001 123 116 110
4.792626e-001 -1.991515e+000 -1.275791e+001 162 85 80
2.384673e+000 1.678138e+000 -9.941017e+000 63 73 81
-1.726060e+000 1.514435e+000 -9.440234e+000 198 99 95
-1.520625e+000 -1.844209e-001 -9.172408e+000 194 86 79
-1.519946e+000 -1.839133e-001 -9.174762e+000 194 86 79
-1.232837e+001 4.922982e+000 -2.860775e+001 220 207 203
-1.179812e+001 4.932544e+000 -2.841832e+001 230 220 214
-1.250015e+001 2.490398e+000 -2.962372e+001 209 202 197
-1.475588e+000 -1.558141e+000 -1.060969e+001 176 159 151
-7.194235e+000 7.758246e-001 -2.849348e+001 72 76 79
-7.047303e+000 7.959373e-001 -2.886295e+001 66 66 71
2.293196e+000 1.011391e+000 -1.069056e+001 129 95 51
-1.324298e-001 1.208320e-002 -9.401976e+000 107 77 36
-2.331904e+000 -5.577538e-001 -9.802510e+000 212 95 97
5.085588e-001 -1.103549e+000 -1.244895e+001 94 44 46
-1.051372e+001 1.807467e+000 -2.796595e+001 217 195 163
1.718474e+000 1.926011e+000 -9.972731e+000 120 44 50
1.820767e+000 1.774128e+000 -9.962175e+000 98 44 49
2.522555e+000 1.407907e+000 -9.951888e+000 65 70 73
-9.034294e-001 8.627531e-001 -8.721566e+000 232 198 90
-1.853380e+000 1.238337e+000 -9.640302e+000 208 88 89
-1.846268e+000 1.229717e+000 -9.622391e+000 208 88 89
2.437168e+000 9.951962e-001 -1.048764e+001 155 125 71
-2.133068e+000 7.496522e-001 -9.482092e+000 129 28 38
-1.003381e+000 -7.013674e-001 -9.016439e+000 242 208 92
-1.003381e+000 -7.013674e-001 -9.016439e+000 242 208 92
-1.564732e+001 5.344278e+000 -3.317596e+001 191 179 168
-1.016174e+001 3.315500e+000 -2.677900e+001 244 226 200
-2.534608e+000 -9.268509e-001 -1.068703e+001 212 95 94
-1.524620e+001 3.999840e+000 -3.290128e+001 195 179 166
-1.524620e+001 3.999840e+000 -3.290128e+001 195 179 166
-1.382780e+001 3.335970e+000 -3.154310e+001 198 184 175
-1.388956e+001 3.385513e+000 -3.174142e+001 198 184 175
-1.461173e+000 1.004362e+000 -9.055694e+000 189 87 79
-1.064117e+000 1.110964e+000 -9.040323e+000 254 212 94
-8.917628e-001 1.055408e+000 -8.802542e+000 244 206 96
-9.177552e-001 6.213304e-001 -8.858151e+000 237 201 92
-2.361422e-001 6.044441e-001 -9.288907e+000 50 45 51
-1.423071e+001 7.323844e+000 -3.129891e+001 198 180 169
-1.428576e+001 7.375145e+000 -3.147061e+001 198 180 169
-1.888981e-001 -5.543017e-001 -9.542782e+000 78 81 56
-6.892032e+000 2.867906e+000 -2.771778e+001 48 47 52
-1.800340e+000 -1.199430e+000 -1.020086e+001 177 93 93
-1.293329e+001 2.787797e+000 -2.967153e+001 223 213 211
-1.004676e+001 1.925960e+000 -2.771876e+001 249 234 205
-6.832331e+000 2.259804e+000 -2.778689e+001 102 103 106
-6.690840e+000 1.784813e+000 -2.830920e+001 91 95 98
-1.523947e+000 -1.541201e+000 -1.021946e+001 92 43 46
-1.481925e+001 2.113904e+000 -3.174981e+001 125 122 124
2.121932e+000 2.345900e+000 -1.015860e+001 219 216 206
-2.125329e+000 4.152422e-001 -9.446246e+000 138 31 39
2.822627e+000 9.463503e-001 -1.232781e+001 97 37 42
-1.885858e+000 -5.707866e-001 -9.502568e+000 140 32 41
-1.744095e+000 -6.665729e-001 -9.393533e+000 206 86 81
-1.287165e+001 3.086676e+000 -2.958889e+001 188 176 178
-1.460582e+001 2.341458e+000 -3.169288e+001 199 188 186
-1.741317e+000 1.334946e+000 -9.494541e+000 136 36 42
-1.741317e+000 1.334946e+000 -9.494541e+000 136 36 42
-1.205296e+000 1.137245e+000 -9.079461e+000 134 41 41
2.215590e+000 1.212950e+000 -1.054581e+001 166 132 67
-1.546345e+000 8.123424e-001 -9.172699e+000 123 34 40
-9.994184e-001 3.604872e-001 -8.956260e+000 115 30 37
-2.073705e+000 2.171559e-001 -9.379597e+000 210 95 92
-2.125604e+000 3.901842e-002 -9.453721e+000 120 29 38
-1.788956e+000 -4.717045e-001 -9.258569e+000 213 64 64
-1.577404e+000 -3.231507e-001 -9.166937e+000 208 88 85
-1.905261e+000 -9.115740e-001 -9.665264e+000 124 33 40
-1.902939e+000 -1.392390e+000 -1.026679e+001 115 42 47
-1.513344e+001 3.542034e+000 -3.277217e+001 219 205 191
-1.380934e+001 1.152586e+000 -3.310204e+001 82 76 78
-9.203894e-001 9.828860e-001 -8.827815e+000 226 183 81
-1.487344e+001 8.544388e+000 -3.107443e+001 199 189 190
-1.384447e+001 4.157401e+000 -3.027557e+001 233 215 201
1.585248e+000 -1.593596e+000 -1.187803e+001 116 87 49
-2.162766e-001 -4.365063e-001 -9.445039e+000 53 52 47
-6.655956e+000 2.085462e+000 -2.751903e+001 98 99 103
-6.646975e+000 2.075395e+000 -2.747742e+001 98 99 103
-1.480860e+000 1.759642e+000 -9.670033e+000 119 43 51
-1.143210e+001 2.045762e+000 -2.810195e+001 80 75 79
-1.143210e+001 2.045762e+000 -2.810195e+001 80 75 79
-1.288447e+001 7.775932e+000 -3.007071e+001 242 235 232
-1.812269e+001 1.085766e+001 -3.642052e+001 36 33 40
-1.181288e+001 1.818159e+000 -2.948198e+001 63 59 67
-1.181288e+001 1.818159e+000 -2.948198e+001 63 59 67
4.144039e+000 1.143815e+000 -1.369536e+001 56 34 37
-1.314066e+001 4.698917e+000 -3.057060e+001 222 208 197
1.639054e+000 2.304153e+000 -1.050082e+001 216 180 172
1.851696e+000 1.901761e+000 -9.916627e+000 126 69 72
-1.288703e+001 2.771790e+000 -2.958547e+001 224 214 213
-1.300586e+001 2.660435e+000 -2.975277e+001 220 211 210
-1.419623e+001 1.593737e+000 -3.173300e+001 147 141 141
-1.824018e+000 -1.405387e+000 -1.021872e+001 128 55 62
2.482475e+000 1.687008e+000 -9.821979e+000 70 73 80
-3.532986e-001 -8.658377e-001 -9.599757e+000 52 51 47
-1.142581e+001 6.095805e+000 -2.844535e+001 103 95 93
-1.014434e+001 1.777319e+000 -2.814285e+001 188 164 128
-1.077797e+001 1.466263e+000 -2.856717e+001 93 88 85
-7.213322e+000 1.795264e+000 -2.791855e+001 45 44 48
-1.988565e+001 1.074179e+001 -3.801951e+001 67 62 68
-1.762998e+001 7.508162e+000 -3.647253e+001 166 149 142
-1.612647e+000 -1.266777e-001 -9.200392e+000 128 28 36
-1.086569e+001 9.521588e-001 -2.994700e+001 66 64 67
-1.254603e+001 1.017125e+000 -3.120876e+001 90 85 89
-1.254603e+001 1.017125e+000 -3.120876e+001 90 85 89
-2.983369e+001 3.374064e+001 -6.928110e+001 22 21 29
-1.506072e+000 6.176391e-001 -9.153070e+000 210 92 87
-1.336605e+001 7.897396e+000 -2.945108e+001 139 134 141
-1.660046e-001 1.560952e+000 -9.648405e+000 94 96 74
1.440682e+000 2.080782e+000 -1.155626e+001 182 126 45
1.440682e+000 2.080782e+000 -1.155626e+001 182 126 45
-2.977020e-001 -5.676888e-003 -9.306448e+000 114 80 38
-1.511446e+000 -9.529520e-001 -9.332032e+000 201 89 80
-1.605373e+000 -1.523371e+000 -9.938410e+000 125 51 51
1.549404e+000 -1.275348e+000 -1.223148e+001 104 62 51
5.970561e+000 -3.574005e+000 -1.007662e+001 254 251 246
5.751044e+000 -3.755668e+000 -1.027572e+001 254 251 244
5.768159e+000 -3.831913e+000 -1.036680e+001 253 249 243
4.701072e+000 -3.759213e+000 -1.229180e+001 214 204 195
4.942643e+000 -4.122963e+000 -1.153001e+001 226 215 211
5.157547e+000 -4.162869e+000 -1.124279e+001 247 240 236
5.290242e+000 -4.120705e+000 -1.089869e+001 237 226 220
5.133736e+000 -4.963611e+000 -1.093727e+001 243 230 226
2.766403e+000 1.772484e+000 -1.017867e+001 152 169 167
-1.798945e+000 1.346370e+000 -9.808452e+000 217 103 103
5.840058e+000 -2.408178e+000 -1.046692e+001 198 186 180
-2.717712e+000 -4.438815e-001 -1.091980e+001 229 108 107
-2.001761e+000 -1.001271e+000 -9.760470e+000 159 48 54
-1.373146e+000 -1.239288e+000 -1.000521e+001 125 63 63
2.452531e+000 -2.201494e+000 -1.300586e+001 162 117 114
4.743559e+000 -2.759154e+000 -1.209979e+001 177 166 160
4.770871e+000 -3.459546e+000 -1.207049e+001 223 213 204
4.562577e+000 -5.320348e+000 -1.189219e+001 237 222 215
7.213725e+000 3.165049e-002 -8.608123e+000 236 222 211
-1.226179e-001 1.446209e+000 -9.418644e+000 107 137 128
-1.397192e+000 1.374271e+000 -9.504077e+000 209 104 98
1.609189e+000 1.888088e+000 -1.119272e+001 125 77 39
-1.361570e+000 -9.376933e-001 -9.293688e+000 155 65 40
-1.908103e+000 -1.188875e+000 -1.019450e+001 156 76 77
-2.713884e+000 -9.157820e-001 -1.096068e+001 211 100 103
2.515808e+000 -1.321884e+000 -1.292022e+001 111 46 47
-2.205287e+000 -1.451626e+000 -1.070644e+001 204 102 102
4.636121e-001 -1.569071e+000 -1.250620e+001 126 65 67
-5.039570e-002 1.412096e+000 -9.434265e+000 106 144 125
2.210043e+000 1.580321e+000 -1.002638e+001 73 90 90
-2.025744e+000 2.067705e+000 -1.043755e+001 205 81 84
6.356483e+000 -9.971159e-001 -9.875657e+000 225 212 204
3.978596e+000 1.416322e+000 -1.339445e+001 84 44 45
-1.423274e+000 -1.145090e+000 -9.583882e+000 186 96 88
1.819127e+000 -9.355176e-001 -1.303617e+001 213 193 176
-1.399043e+000 -1.528422e+000 -1.023007e+001 182 99 93
4.527629e-001 -9.135348e-001 -1.251204e+001 82 44 46
3.080397e+000 -1.356424e+000 -1.315905e+001 130 90 89
3.716759e-001 -1.547962e+000 -1.234929e+001 229 230 221
5.858997e-001 -1.905933e+000 -1.204316e+001 151 66 70
3.690498e-001 -1.985054e+000 -1.249936e+001 237 228 218
1.875141e+000 1.823281e+000 -1.005967e+001 94 44 47
-1.122277e+000 1.891406e+000 -9.788846e+000 127 51 46
-1.721163e-001 1.429703e+000 -9.250628e+000 65 74 67
2.298380e+000 1.392114e+000 -1.052938e+001 67 53 52
2.795452e+000 1.514030e+000 -1.074635e+001 135 71 71
2.753822e+000 1.445810e+000 -1.016076e+001 77 91 88
-9.162701e-001 6.257850e-001 -8.864034e+000 239 207 94
-2.220495e+000 1.201849e+000 -9.825176e+000 195 93 91
1.668805e+000 1.360573e+000 -1.134658e+001 225 224 210
-2.628633e+000 8.472283e-001 -1.026416e+001 216 101 96
-2.625021e+000 8.275361e-001 -1.022560e+001 216 101 96
4.381558e-001 -7.988665e-001 -9.871988e+000 149 114 58
-2.693991e+000 -7.099015e-001 -1.073495e+001 180 40 47
-2.693991e+000 -7.099015e-001 -1.073495e+001 180 40 47
-1.827641e+000 -1.057482e+000 -9.655575e+000 224 110 107
-1.830866e+000 -1.087717e+000 -9.577416e+000 224 110 107
-1.744877e-001 1.245200e+000 -9.338454e+000 73 77 60
1.537785e+000 2.182928e+000 -1.143205e+001 213 171 76
2.540078e+000 1.336122e+000 -1.051796e+001 146 115 70
-1.089805e-001 7.365849e-001 -9.363392e+000 82 85 63
-2.253948e+000 1.720818e+000 -1.029972e+001 234 227 221
-1.032584e+000 6.230142e-001 -9.035385e+000 233 191 90
-2.024721e+000 6.908026e-001 -9.460093e+000 192 84 82
-1.080837e+000 -1.222922e+000 -8.986598e+000 241 210 87
-1.259628e+000 -1.240572e+000 -9.996723e+000 141 67 68
2.390011e+000 -1.006394e+000 -1.299768e+001 108 74 46
-2.528959e+000 -9.401868e-001 -1.065069e+001 221 99 97
-1.999664e+000 -1.443973e+000 -1.050391e+001 209 96 94
-1.355043e+000 -1.494191e+000 -1.002834e+001 113 39 47
-1.067943e+000 1.517510e+000 -9.332661e+000 254 224 102
-1.499513e+000 1.366820e+000 -9.496500e+000 110 40 46
-1.359824e+000 1.345220e+000 -9.349591e+000 202 90 88
-2.396015e+000 8.149498e-001 -9.882344e+000 209 91 88
-1.725284e+000 2.331807e-001 -9.273407e+000 98 32 37
-1.659383e+000 -5.672457e-001 -9.300157e+000 135 36 45
-2.047078e+000 -6.482184e-001 -9.673101e+000 105 29 38
-1.215983e+000 -1.165090e+000 -9.247508e+000 250 215 95
-1.172755e+000 -1.230856e+000 -9.459070e+000 107 42 38
-4.650456e-001 -1.191016e+000 -9.822788e+000 62 52 49
3.112307e+000 -1.285613e+000 -1.387740e+001 147 106 101
1.401384e+000 2.294374e+000 -1.150199e+001 162 102 47
1.382208e+000 2.011934e+000 -1.151908e+001 205 148 74
-1.772574e+000 8.368762e-001 -9.432900e+000 137 34 45
-1.548082e+000 4.313351e-001 -9.214673e+000 121 34 40
-9.974632e-001 8.738102e-002 -8.944489e+000 207 93 89
-1.042481e+000 -1.394860e-001 -9.067029e+000 124 35 41
-2.354520e+000 4.031047e-001 -9.635909e+000 146 34 46
-2.374716e+000 -2.087146e-001 -9.767838e+000 219 102 102
-1.626218e+000 -5.275583e-001 -9.219583e+000 123 35 41
1.385784e+000 -4.136925e-001 -1.080692e+001 50 52 53
-2.414213e+000 -4.003451e-001 -9.816242e+000 138 34 43
-2.062942e+000 -8.319559e-001 -9.767646e+000 218 76 80
-2.419447e+000 -9.599124e-001 -1.022302e+001 136 41 49
-2.164864e+000 -9.780247e-001 -9.900417e+000 138 36 41
-1.904897e+000 -1.402529e+000 -1.024029e+001 124 41 48
3.722666e-001 -1.081494e+000 -1.248431e+001 239 230 223
4.284949e-001 -1.369192e+000 -1.237646e+001 88 46 55
3.568729e-001 -1.546798e+000 -1.256381e+001 236 229 220
1.512921e+000 1.980404e+000 -1.118027e+001 189 136 51
-2.266264e+000 7.274049e-001 -9.775976e+000 218 77 79
-1.828793e+000 2.357667e-001 -9.290085e+000 104 32 40
-1.844894e+000 -2.531535e-001 -9.239669e+000 113 29 36
-1.957097e+000 -2.971996e-001 -9.410735e+000 112 30 36
2.601218e+000 -2.283201e+000 -1.368479e+001 236 229 219
2.682966e+000 1.073453e+000 -1.254461e+001 91 41 38
2.923156e+000 -7.363093e-001 -1.340110e+001 113 77 44
2.171592e+000 -1.556845e+000 -1.261467e+001 101 46 46
-1.218065e+000 -1.101822e+000 -8.989287e+000 206 162 36
-1.218065e+000 -1.101822e+000 -8.989287e+000 206 162 36
-1.162123e+000 -1.030716e+000 -9.006088e+000 169 111 42
-1.162123e+000 -1.030716e+000 -9.006088e+000 169 111 42
8.616557e-001 -1.779784e+000 -1.074915e+001 95 46 46
-2.436371e+001 -1.497431e+001 -4.905654e+001 83 79 81
-2.378460e+001 -2.083397e+001 -4.840716e+001 42 51 90
-2.378460e+001 -2.083397e+001 -4.840716e+001 42 51 90
-2.437568e+001 -2.215409e+001 -4.830684e+001 49 50 55
-1.852477e+001 9.274088e+000 -3.697901e+001 78 73 79
-2.836284e+001 3.021996e+001 -6.252457e+001 38 45 69
-2.401770e+001 3.925076e+001 -6.491012e+001 73 73 81
-2.035508e-001 1.325084e+000 -9.257669e+000 67 87 81
1.076393e+000 -4.409814e-001 -1.006574e+001 140 90 57
1.183869e+000 -3.829752e-001 -1.037618e+001 134 87 52
-2.540785e+000 -6.591845e-001 -9.955466e+000 182 46 56
-1.492027e+000 -1.651615e+000 -1.019029e+001 140 101 100
5.600585e+000 -3.046859e+000 -1.128873e+001 203 192 186
5.600585e+000 -3.046859e+000 -1.128873e+001 203 192 186
5.720517e+000 5.875795e+000 -1.219505e+001 201 192 183
6.736012e+000 -2.782460e-001 -9.905474e+000 226 213 205
1.734099e+000 1.566991e+000 -1.159166e+001 107 75 56
-2.587136e+000 7.972021e-001 -1.011911e+001 214 95 91
-2.350277e+000 -8.909364e-002 -9.381135e+000 213 72 77
6.471558e+000 -1.614535e+000 -9.991319e+000 255 251 242
6.471558e+000 -1.614535e+000 -9.991319e+000 255 251 242
-2.477615e+000 -6.568725e-001 -9.903267e+000 175 43 51
1.287337e+000 -2.089002e+000 -1.235650e+001 162 120 117
5.961888e+000 -3.782448e+000 -1.058511e+001 241 232 227
-1.150938e+001 4.795110e+000 -2.799880e+001 229 218 215
5.137287e+000 -4.943941e+000 -1.198665e+001 254 245 238
6.954578e+000 8.940590e-001 -9.806925e+000 247 237 228
1.461017e+000 1.439287e+000 -1.005336e+001 145 73 72
1.461017e+000 1.439287e+000 -1.005336e+001 145 73 72
1.538280e+000 1.454889e+000 -1.017697e+001 109 44 44
6.241167e+000 1.082350e-001 -1.084879e+001 148 137 133
6.241167e+000 1.082350e-001 -1.084879e+001 148 137 133
6.334834e+000 7.823507e-002 -1.068536e+001 165 154 149
6.311838e+000 -1.612995e+000 -1.047004e+001 231 218 210
-3.038159e+000 4.278812e-001 -1.030606e+001 232 81 87
6.081535e+000 -1.739247e+000 -1.052652e+001 186 173 167
-2.936973e+000 -3.623306e-001 -1.137986e+001 214 100 100
2.329733e+000 -2.133125e+000 -1.306079e+001 158 114 111
5.097430e+000 -3.920845e+000 -1.204312e+001 216 210 198
5.003664e+000 -4.427890e+000 -1.231610e+001 251 242 235
5.003664e+000 -4.427890e+000 -1.231610e+001 251 242 235
2.474469e+000 1.518030e+000 -1.002049e+001 104 149 144
2.762385e+000 1.451865e+000 -1.040832e+001 226 223 214
1.626233e+000 1.864121e+000 -1.104791e+001 200 153 74
-2.061366e+000 -1.797906e-001 -9.342762e+000 225 103 104
-2.950841e+000 1.855847e-002 -1.072099e+001 215 95 94
-1.350077e+000 -8.928246e-001 -9.401899e+000 142 40 36
-1.421100e+000 -1.135823e+000 -9.598371e+000 186 96 88
-1.317561e+000 -1.188300e+000 -9.365628e+000 204 92 91
-1.314996e+000 -1.186425e+000 -9.371640e+000 204 92 91
-6.680519e-001 -1.210386e+000 -9.655967e+000 116 92 48
-3.219834e-001 -1.220090e+000 -9.625535e+000 84 86 71
-1.968982e+000 -1.135110e+000 -1.025722e+001 115 42 45
-2.752671e+000 -9.261552e-001 -1.109176e+001 216 89 90
-2.254869e+000 -1.320033e+000 -1.125188e+001 217 92 96
-2.161411e+000 -1.380281e+000 -1.155651e+001 213 98 99
-9.932181e-001 -1.449573e+000 -1.222807e+001 166 123 117
1.422871e+000 1.510235e+000 -1.000762e+001 114 50 49
2.383565e+000 1.533647e+000 -1.002521e+001 73 81 88
-2.894811e+000 3.848841e-001 -1.058345e+001 232 110 106
-1.569652e+000 -6.836318e-001 -9.190966e+000 210 97 96
-8.630816e-001 -1.211164e+000 -9.479123e+000 126 95 48
2.482763e+000 -9.036049e-001 -1.294525e+001 87 51 39
-2.823820e+000 -9.116471e-001 -1.089892e+001 232 230 222
-2.168021e+000 -1.228649e+000 -1.058196e+001 155 41 49
-8.260572e-001 -1.584595e+000 -1.028052e+001 106 53 52
-1.369456e+001 7.819280e+000 -3.077307e+001 218 205 197
-1.500757e+001 7.122008e+000 -3.232583e+001 218 199 185
-1.767157e-001 1.223735e+000 -9.306151e+000 73 77 60
1.549406e+000 2.102438e+000 -1.105531e+001 150 80 48
1.414652e-002 9.418825e-001 -9.462113e+000 67 63 50
-8.619570e-001 5.131566e-001 -8.853374e+000 138 53 46
-5.700352e-002 5.529413e-001 -9.327752e+000 60 60 58
-2.415045e+000 7.360838e-001 -9.736619e+000 209 91 89
3.009488e+000 7.028367e-001 -1.258423e+001 107 73 46
-1.247286e-001 -9.249284e-001 -9.565267e+000 69 66 51
1.034257e+000 -7.441984e-001 -1.088172e+001 76 35 37
-1.458486e-001 -1.215680e+000 -1.022787e+001 97 43 43
-1.992865e+000 -1.438966e+000 -1.051757e+001 209 96 94
-5.688754e-001 -1.626940e+000 -1.056978e+001 141 106 102
9.151605e-001 -2.125766e+000 -1.203882e+001 160 114 111
-1.319128e+001 3.879437e+000 -2.967876e+001 199 182 172
-1.946114e+000 8.365843e-001 -9.386523e+000 219 101 100
-1.564404e+000 7.677884e-001 -9.140074e+000 133 34 41
2.110526e+000 3.868762e-001 -1.144915e+001 83 77 72
3.534198e+000 1.463172e+000 -1.341399e+001 100 51 51
-2.512846e+000 5.716424e-001 -9.815789e+000 217 82 84
-2.525277e+000 -5.370931e-001 -1.002835e+001 215 104 99
-1.065607e-001 -1.278145e+000 -9.789197e+000 160 137 92
-2.780923e+000 -5.106309e-001 -1.035406e+001 220 99 94
-2.639933e+000 -4.253846e-001 -1.073221e+001 154 39 45
-2.017995e+000 -1.048955e+000 -9.861992e+000 211 89 84
2.559095e-001 -9.068862e-001 -1.170774e+001 140 92 92
2.853650e+000 -1.457762e+000 -1.374230e+001 227 220 210
4.010532e-001 -1.799805e+000 -1.251616e+001 153 77 79
8.377720e-001 -1.968507e+000 -1.212121e+001 104 48 51
1.662797e+000 -2.085740e+000 -1.272808e+001 177 154 122
-9.565351e-001 1.245088e+000 -8.870477e+000 145 88 50
-2.023158e+000 1.936871e+000 -1.036374e+001 211 95 96
-1.690492e+000 9.515507e-001 -9.249552e+000 213 84 87
-1.182517e+000 3.700639e-001 -9.014577e+000 206 80 79
1.411272e+000 7.022140e-001 -1.045616e+001 230 224 212
-1.002081e+000 7.880530e-002 -8.933108e+000 207 93 89
-1.213648e+000 -7.851383e-002 -9.040486e+000 219 79 79
-2.354883e+000 3.954924e-001 -9.623463e+000 146 34 46
-1.756994e+000 -2.888827e-002 -9.237591e+000 219 73 76
-1.587914e+000 -6.122221e-002 -9.203710e+000 120 35 40
-1.578235e+000 -3.448609e-001 -9.138201e+000 208 91 86
-1.237450e+000 -5.345475e-001 -9.042601e+000 255 228 89
-2.574958e+000 2.396987e-001 -1.004801e+001 228 83 84
-2.567067e+000 1.654345e-001 -9.916834e+000 228 83 84
-2.639622e+000 -6.287803e-003 -1.005805e+001 153 36 45
-2.640102e+000 -2.838338e-002 -1.001520e+001 153 36 45
-2.389017e+000 -2.557719e-002 -9.712287e+000 151 32 41
-2.678829e+000 -4.734855e-001 -1.005033e+001 146 37 46
4.558377e-001 -8.268583e-001 -1.046965e+001 107 46 44
7.355883e-001 -7.646141e-001 -1.074910e+001 124 90 46
2.387326e+000 -3.727599e-001 -1.236448e+001 66 32 37
-2.582984e+000 -6.973212e-001 -1.054802e+001 224 91 93
-2.184931e+000 -1.024449e+000 -1.061164e+001 123 45 48
-2.184931e+000 -1.024449e+000 -1.061164e+001 123 45 48
-1.417054e+001 7.438545e+000 -2.985784e+001 180 165 158
-6.600957e+000 2.838921e+000 -2.772649e+001 100 101 107
2.813661e+000 1.549325e+000 -9.981466e+000 225 221 210
-1.441577e+000 2.048429e+000 -1.013815e+001 121 51 55
1.704143e+000 1.573543e+000 -1.057428e+001 94 42 44
-2.148957e-001 -4.315130e-001 -9.448774e+000 62 54 52
-2.114574e+000 -6.067287e-001 -9.760617e+000 113 30 40
-1.445158e+001 7.070859e+000 -3.075536e+001 232 216 201
2.185108e+000 1.179950e+000 -1.183766e+001 226 227 216
-1.047359e+000 -1.422380e+000 -1.190543e+001 145 110 108
-1.141749e+001 4.314651e+000 -2.752820e+001 254 254 254
-6.960329e-001 1.352225e+000 -8.979583e+000 138 100 63
2.116171e+000 1.175962e+000 -1.108977e+001 94 44 47
5.757815e-001 -1.842952e+000 -1.260052e+001 117 54 60
2.144317e+000 -8.979798e-001 -1.267404e+001 72 36 40
-3.087316e+000 -4.916610e-001 -1.175374e+001 238 231 221
3.534446e+000 -1.620778e+000 -1.423720e+001 198 185 179
4.411731e+000 -2.651267e+000 -1.366694e+001 175 168 162
-8.718817e-002 1.247660e+000 -9.575859e+000 78 79 65
3.248915e+000 1.421927e+000 -1.234131e+001 234 226 215
1.398107e+000 -2.152163e+000 -1.392231e+001 235 227 219
2.473536e+000 -2.768735e+000 -1.369735e+001 237 228 219
-1.498842e+001 5.268831e+000 -3.218579e+001 155 145 141
-6.603410e-002 -5.828913e-001 -9.267193e+000 124 96 48
-1.869339e-001 5.114588e-001 -9.348450e+000 117 94 46
-2.266575e-001 6.338263e-001 -9.327867e+000 54 55 50
-1.771820e+000 8.373805e-001 -9.433659e+000 136 30 40
9.370253e+000 -1.076260e+001 -1.062084e+002 222 214 203
-2.438887e+001 -1.434074e+001 -5.042903e+001 56 56 58
-2.456260e+001 -1.554317e+001 -5.014113e+001 48 52 78
-2.500795e+001 -1.628858e+001 -5.055740e+001 100 98 99
-2.432314e+001 -2.167038e+001 -4.894997e+001 132 133 138
-3.136684e+001 4.450504e+001 -7.692712e+001 22 21 29
2.350036e-001 -8.448022e-001 -9.888225e+000 144 108 55
-1.065813e-001 -1.233356e+000 -9.529122e+000 134 106 54
5.572442e+000 2.074682e+000 -1.201304e+001 176 169 163
-9.350757e-001 2.276165e-001 -8.893335e+000 171 71 71
3.771929e-001 -7.974722e-001 -1.036623e+001 91 41 25
-2.322193e+000 -5.009637e-001 -9.805772e+000 181 69 74
6.316120e+000 -2.822787e+000 -1.006228e+001 254 252 247
6.001941e+000 -3.474772e+000 -1.060706e+001 238 225 222
5.614174e+000 -5.205674e+000 -1.119999e+001 242 229 226
2.008699e+000 1.718252e+000 -1.014865e+001 101 64 66
1.867470e+000 1.698555e+000 -1.003782e+001 112 67 69
-8.432117e-001 6.571967e-001 -8.821374e+000 148 103 52
-9.346828e-001 4.101072e-001 -8.818032e+000 183 75 73
-1.032820e+000 -1.123626e+000 -9.017866e+000 228 199 83
2.450003e+000 -1.153416e+000 -1.295030e+001 97 53 42
-1.428858e+001 7.932831e+000 -3.167400e+001 239 223 210
2.811468e+000 1.392326e+000 -1.067652e+001 225 218 213
-1.085876e+000 -1.281209e+000 -9.047415e+000 134 93 40
-2.251170e+001 3.790127e+001 -6.215649e+001 70 70 78
5.384014e+000 -3.442303e+000 -1.148715e+001 219 208 202
5.966341e+000 -3.485711e+000 -1.062938e+001 254 247 242
-1.258060e+001 7.782018e+000 -2.954914e+001 225 219 214
-2.329771e+000 -9.605790e-001 -1.044751e+001 218 105 103
1.600947e+000 1.798438e+000 -1.096090e+001 194 146 76
-1.789699e+000 -1.382065e+000 -1.043337e+001 190 89 90
-3.687038e-001 -1.189226e+000 -9.467291e+000 62 65 59
-3.191380e-001 -1.212768e+000 -9.636343e+000 92 95 78
2.965357e+000 -4.013934e-001 -1.283987e+001 149 130 127
-2.913807e+000 -1.440723e-001 -1.118915e+001 180 39 44
5.484428e-001 -1.896676e+000 -1.297643e+001 178 89 87
2.822106e+000 1.327962e+000 -1.063193e+001 232 224 214
-1.254663e+000 -1.225645e+000 -1.002182e+001 137 64 63
-9.099726e-001 1.470247e+000 -8.870364e+000 231 213 176
-1.614007e+000 -1.241662e-001 -9.204644e+000 127 35 40
1.635636e+000 -2.435848e-001 -1.097427e+001 64 87 89
-2.802074e+000 2.228209e-001 -1.032733e+001 224 89 89
-2.247403e+000 -9.944911e-001 -1.025613e+001 218 97 89
-1.309629e+001 8.617882e+000 -2.974182e+001 103 102 108
2.596520e+000 9.683479e-001 -1.067627e+001 137 105 64
-2.447485e+000 -5.513938e-001 -1.034582e+001 138 35 48
-2.447485e+000 -5.513938e-001 -1.034582e+001 138 35 48
-2.311722e+000 -8.054752e-001 -1.007550e+001 223 95 95
-5.898890e-002 -1.177843e+000 -9.993278e+000 164 134 91
-1.948837e+000 -1.065472e+000 -1.019021e+001 121 42 47
-2.047609e+000 -1.266055e+000 -1.029679e+001 217 106 102
2.141305e+000 -2.096573e+000 -1.355480e+001 151 108 104
-2.005518e+000 1.570915e+000 -1.003845e+001 162 45 54
-8.220020e-001 -8.278858e-001 -9.269094e+000 152 106 50
-5.342070e-001 -9.770411e-001 -9.800254e+000 146 116 64
-2.010071e+000 -1.270258e+000 -1.165359e+001 188 99 97
-5.982802e+000 1.246835e+001 -2.630630e+001 218 214 205
-1.119372e+000 -9.415484e-001 -9.057911e+000 178 114 47
2.290788e+000 1.763089e+000 -9.928956e+000 84 86 87
1.207479e+000 5.005331e-001 -1.024051e+001 115 75 50
-2.244339e+001 -1.777733e+001 -4.729901e+001 79 86 106
-1.902434e+000 1.129505e+000 -9.620565e+000 127 24 35
5.857524e+000 6.013997e+000 -1.048290e+001 251 239 234
5.846436e+000 5.900292e+000 -1.040137e+001 251 243 238
5.993723e+000 6.029484e+000 -1.022517e+001 228 215 209
6.017905e+000 5.980016e+000 -1.017169e+001 231 219 213
6.017905e+000 5.980016e+000 -1.017169e+001 231 219 213
5.947354e+000 5.750593e+000 -1.041950e+001 235 221 215
5.947354e+000 5.750593e+000 -1.041950e+001 235 221 215
6.096100e+000 5.429805e+000 -1.014200e+001 255 250 244
6.096100e+000 5.429805e+000 -1.014200e+001 255 250 244
6.229946e+000 5.455512e+000 -1.008945e+001 235 221 215
6.060480e+000 5.110030e+000 -1.023453e+001 250 241 232
6.174256e+000 5.185524e+000 -1.011298e+001 249 240 233
5.955021e+000 4.795906e+000 -1.041845e+001 238 225 219
6.268386e+000 5.068008e+000 -9.918211e+000 239 226 218
6.340179e+000 5.026206e+000 -9.848625e+000 244 227 222
6.338490e+000 4.927145e+000 -9.863138e+000 239 225 220
6.371848e+000 4.963306e+000 -9.832471e+000 253 246 241
6.321996e+000 4.883200e+000 -9.875937e+000 254 249 244
5.950662e+000 4.347382e+000 -1.059033e+001 253 245 238
5.804696e+000 4.115883e+000 -1.080437e+001 234 223 218
6.461545e+000 4.229728e+000 -9.662828e+000 255 247 243
-1.212104e+000 2.009510e+000 -9.560794e+000 177 75 76
-1.919260e-001 2.045261e+000 -1.020927e+001 162 116 111
-2.989950e-001 5.521380e-001 -9.427774e+000 92 77 43
5.894999e+000 5.867494e+000 -1.043337e+001 228 214 210
5.333267e+000 5.648787e+000 -1.139646e+001 238 226 220
5.510377e+000 5.518308e+000 -1.113667e+001 231 218 212
6.044489e+000 5.549334e+000 -1.045647e+001 251 241 239
6.218825e+000 5.592047e+000 -1.003633e+001 250 238 232
5.997360e+000 5.279948e+000 -1.042168e+001 235 222 216
5.997360e+000 5.279948e+000 -1.042168e+001 235 222 216
6.079816e+000 5.217378e+000 -1.028850e+001 233 220 214
6.172919e+000 5.146478e+000 -1.010437e+001 235 220 214
6.356016e+000 4.856017e+000 -9.889334e+000 239 226 220
6.466775e+000 4.104819e+000 -9.866205e+000 254 245 241
6.466775e+000 4.104819e+000 -9.866205e+000 254 245 241
6.400242e+000 4.056806e+000 -9.772465e+000 240 227 224
6.133196e+000 3.703391e+000 -1.048141e+001 253 247 244
-1.276093e+000 2.126457e+000 -9.902593e+000 166 123 116
-2.027561e+000 1.629631e+000 -9.798319e+000 229 99 99
-2.277681e+000 1.348200e+000 -1.023953e+001 219 101 101
6.180615e-001 1.631885e+000 -1.204043e+001 208 193 186
1.451349e+000 2.017413e+000 -1.121236e+001 197 143 59
1.492021e+000 2.062013e+000 -1.085457e+001 205 152 74
2.192708e+000 2.370417e+000 -1.047248e+001 153 106 102
1.409008e+000 1.433190e+000 -9.783146e+000 128 54 54
-1.612256e+000 2.904968e-001 -9.220105e+000 133 33 36
1.265706e+000 5.209358e-001 -1.047954e+001 124 95 50
-2.554252e+000 -8.828361e-001 -1.055485e+001 206 82 83
5.893009e+000 5.539718e+000 -1.041418e+001 229 218 212
5.893009e+000 5.539718e+000 -1.041418e+001 229 218 212
5.715026e+000 4.596562e+000 -1.098114e+001 230 218 212
5.937320e+000 4.651820e+000 -1.064814e+001 232 220 214
-1.803625e+000 2.146243e+000 -1.005925e+001 213 98 98
-1.679700e+000 1.745171e+000 -9.947089e+000 199 98 94
1.925546e+000 2.323024e+000 -1.006996e+001 177 108 103
-2.005157e+000 1.318245e+000 -9.716756e+000 208 90 86
-1.934353e+000 1.444507e+000 -9.449603e+000 226 78 78
-9.832148e-001 1.611798e+000 -9.598651e+000 106 29 32
1.719924e+000 1.917317e+000 -9.983745e+000 171 83 81
6.173440e+000 2.477173e+000 -1.041012e+001 250 236 233
-2.952763e+000 7.030625e-001 -1.048940e+001 227 84 86
1.576447e+000 1.438981e+000 -9.817377e+000 110 58 59
2.446255e+000 1.732128e+000 -9.719861e+000 64 64 72
2.614886e+000 1.678400e+000 -9.889422e+000 103 107 110
2.653529e+000 1.784316e+000 -9.931635e+000 125 132 133
2.657479e+000 1.727709e+000 -9.945040e+000 64 68 77
6.403562e+000 2.125899e+000 -1.020851e+001 228 217 209
6.326732e+000 1.897537e+000 -1.041343e+001 218 207 201
-3.841992e-001 -1.175485e+000 -9.668014e+000 58 67 62
-3.841992e-001 -1.175485e+000 -9.668014e+000 58 67 62
6.261479e+000 5.476286e+000 -1.000327e+001 233 220 212
-2.039137e+000 2.119099e+000 -1.045807e+001 239 229 217
-1.869507e+000 2.253310e+000 -1.088594e+001 219 91 95
-1.122313e+000 2.024113e+000 -9.796486e+000 196 95 89
1.689137e+000 2.411018e+000 -1.054859e+001 197 87 86
5.824102e+000 3.449795e+000 -1.107970e+001 233 223 213
-2.129963e+000 1.638027e+000 -1.015472e+001 223 104 98
1.872422e+000 2.283375e+000 -9.808693e+000 144 70 68
5.734242e+000 2.863539e+000 -1.122036e+001 244 233 227
-1.467650e+000 1.318510e+000 -9.444770e+000 116 31 34
-1.654992e-001 1.490116e+000 -9.237507e+000 79 79 68
2.156564e+000 1.603487e+000 -9.840346e+000 67 82 81
-2.845753e+000 -2.297056e-001 -1.024310e+001 222 71 75
-1.025324e+000 6.287281e-001 -9.039587e+000 231 181 87
-2.508058e+000 -6.811598e-001 -1.024584e+001 202 99 95
-2.303442e+000 -2.405556e-001 -9.688334e+000 199 76 78
-2.368650e+000 -6.235541e-001 -1.002576e+001 174 68 64
-1.817753e+000 -4.004546e-001 -9.547314e+000 123 29 33
-1.216142e+000 -9.290544e-001 -9.463099e+000 251 208 95
-3.296117e-001 -1.222677e+000 -9.702393e+000 89 106 99
-1.735933e+000 2.082689e+000 -1.000660e+001 207 93 85
-1.735933e+000 2.082689e+000 -1.000660e+001 207 93 85
-1.939921e+000 1.884349e+000 -1.021478e+001 167 34 42
-8.287096e-001 2.071824e+000 -9.735827e+000 165 122 116
1.750677e+000 2.505550e+000 -1.186515e+001 160 76 73
-2.517436e+000 1.500344e+000 -1.045568e+001 185 34 40
1.285251e+000 1.993983e+000 -1.139841e+001 206 152 67
-2.976073e+000 8.230574e-001 -1.062792e+001 222 218 211
-2.020256e+000 1.383655e+000 -9.749377e+000 172 29 36
-2.020256e+000 1.383655e+000 -9.749377e+000 172 29 36
1.627542e+000 1.907005e+000 -9.935711e+000 121 39 47
1.568534e+000 1.800046e+000 -9.805653e+000 123 40 42
-1.231683e+000 1.261508e+000 -9.130293e+000 160 44 36
-2.018420e-001 1.415650e+000 -9.214575e+000 51 54 49
4.064719e-002 1.435254e+000 -9.316868e+000 59 61 60
2.120432e+000 1.425745e+000 -1.014082e+001 55 44 47
2.427134e+000 1.232594e+000 -1.029863e+001 131 105 51
-1.596496e+000 -7.403803e-001 -9.396190e+000 174 87 83
-2.490269e-001 -1.176193e+000 -9.649716e+000 88 108 98
-2.304660e+000 1.708234e+000 -1.024373e+001 216 94 91
1.297491e+000 2.477117e+000 -1.129007e+001 229 195 94
1.669397e+000 2.358679e+000 -1.089851e+001 230 188 92
-2.269029e+000 1.445502e+000 -1.012089e+001 175 30 40
-2.269029e+000 1.445502e+000 -1.012089e+001 175 30 40
-1.033738e+000 1.677357e+000 -9.677116e+000 182 86 82
1.298303e+000 2.196145e+000 -1.109945e+001 171 100 50
1.317022e+000 1.859146e+000 -1.108859e+001 145 87 43
1.768039e+000 2.288626e+000 -9.862652e+000 199 97 96
1.768318e+000 2.182256e+000 -9.916757e+000 126 49 53
1.768318e+000 2.182256e+000 -9.916757e+000 126 49 53
-2.214321e+000 1.152524e+000 -9.653127e+000 205 89 82
-1.637202e+000 1.530986e+000 -9.443127e+000 222 104 100
-1.204183e+000 1.528506e+000 -9.292827e+000 200 95 89
1.649670e+000 1.882809e+000 -1.103631e+001 201 156 67
1.446271e+000 1.693150e+000 -9.837208e+000 125 44 48
1.446271e+000 1.693150e+000 -9.837208e+000 125 44 48
-2.754629e+000 6.311111e-001 -1.024726e+001 219 85 86
-1.445980e+000 1.035583e+000 -9.065781e+000 203 84 78
-1.445980e+000 1.035583e+000 -9.065781e+000 203 84 78
-9.233010e-002 1.360556e+000 -9.226990e+000 80 86 60
2.406583e+000 1.579352e+000 -1.010611e+001 72 74 78
-2.781983e+000 1.881045e-001 -1.021142e+001 213 77 79
-2.480069e+000 6.081182e-001 -9.687532e+000 226 86 87
-2.128968e+000 5.533353e-001 -9.474650e+000 145 33 41
-2.008815e+000 6.372751e-001 -9.316029e+000 205 83 82
-2.008815e+000 6.372751e-001 -9.316029e+000 205 83 82
2.412282e+000 9.851206e-001 -1.042110e+001 145 118 52
1.461526e+000 5.811976e-001 -1.106847e+001 45 41 45
-2.474613e+000 -8.512943e-001 -1.040961e+001 163 45 50
-2.483806e+000 -1.003972e+000 -1.051871e+001 220 209 203
-1.942278e+000 -7.101316e-001 -9.822204e+000 212 98 93
-3.014467e-001 -4.797007e-001 -9.633127e+000 47 49 41
-8.995378e-001 -5.697433e-001 -9.239564e+000 129 88 44
-1.410720e+000 -1.396780e+000 -9.991289e+000 159 57 52
-3.626926e-001 -1.276938e+000 -9.638552e+000 58 61 62
7.787314e-001 2.411692e+000 -1.139237e+001 129 53 59
1.140078e+000 2.472739e+000 -1.134234e+001 127 58 50
-2.204154e+000 1.612338e+000 -9.949273e+000 149 32 42
-2.204154e+000 1.612338e+000 -9.949273e+000 149 32 42
-1.954700e+000 1.566702e+000 -9.529701e+000 151 35 44
1.166749e+000 2.035387e+000 -1.142346e+001 91 45 47
1.727025e+000 2.351821e+000 -1.006795e+001 146 59 65
2.152527e+000 2.221011e+000 -1.015325e+001 104 46 49
-2.457817e+000 1.238498e+000 -1.041905e+001 153 33 43
-2.377383e+000 1.187309e+000 -9.839998e+000 226 101 95
-2.245101e+000 1.203865e+000 -1.012125e+001 147 34 41
-2.245101e+000 1.203865e+000 -1.012125e+001 147 34 41
-1.165020e+000 1.439969e+000 -9.001758e+000 143 40 39
1.399481e+000 1.808391e+000 -1.085644e+001 169 124 57
1.464211e+000 1.838920e+000 -1.034247e+001 132 63 46
-3.047120e+000 3.785656e-001 -1.076747e+001 224 218 212
-2.632835e+000 8.229496e-001 -1.014776e+001 224 101 96
-2.577935e+000 7.083498e-001 -9.904814e+000 150 34 40
-1.542609e+000 9.519235e-001 -9.094147e+000 134 33 37
-1.542609e+000 9.519235e-001 -9.094147e+000 134 33 37
-2.669710e+000 3.649018e-001 -1.021240e+001 228 97 98
-2.434568e+000 2.820286e-001 -9.891753e+000 217 97 94
-2.479401e+000 -1.823488e-001 -9.981297e+000 218 105 101
-2.479401e+000 -1.823488e-001 -9.981297e+000 218 105 101
-2.163601e+000 9.067711e-002 -9.493805e+000 141 32 39
-2.036618e+000 -3.974286e-001 -9.664332e+000 215 99 99
-1.663940e+000 -4.575602e-001 -9.386207e+000 140 31 42
2.554752e+000 -1.156523e+000 -1.315988e+001 89 58 42
-1.693540e+000 -9.873841e-001 -9.802982e+000 102 35 44
-1.546681e+000 -9.720619e-001 -9.622854e+000 208 105 100
4.538432e-001 -8.164938e-001 -1.002845e+001 122 98 55
-3.420602e-001 -1.072699e+000 -9.696091e+000 63 66 57
-1.806991e+000 1.879448e+000 -9.936207e+000 219 83 83
-1.250521e+000 2.052055e+000 -9.828302e+000 101 40 44
-1.091035e+000 1.852383e+000 -9.653263e+000 120 37 43
1.407596e+000 2.235520e+000 -1.085396e+001 239 197 79
1.589384e+000 1.952573e+000 -1.082750e+001 207 155 77
-1.887225e+000 1.399379e+000 -9.412431e+000 225 78 81
-1.358945e+000 1.363243e+000 -9.204859e+000 218 94 91
-1.015315e+000 1.464742e+000 -9.019346e+000 255 217 93
1.597662e+000 1.874555e+000 -9.816922e+000 129 46 46
1.825825e+000 2.088334e+000 -9.992329e+000 108 41 49
2.400030e+000 1.842989e+000 -1.007988e+001 75 53 55
-2.321551e+000 7.871752e-001 -9.674877e+000 219 107 103
-1.755887e+000 1.032859e+000 -9.297249e+000 144 30 37
-7.420468e-001 1.392498e+000 -8.746949e+000 134 90 45
1.547747e+000 1.548695e+000 -9.996865e+000 93 33 37
-2.610604e+000 2.382902e-001 -9.997267e+000 157 32 46
-2.334340e+000 6.318573e-001 -9.607845e+000 151 31 41
-1.697379e+000 8.443684e-001 -9.200846e+000 216 83 78
-1.515898e+000 6.370941e-001 -9.142074e+000 205 92 88
-2.365646e+000 1.761289e-001 -9.633010e+000 148 30 41
-1.554778e+000 4.024198e-001 -9.154193e+000 112 25 34
-1.547438e+000 1.701761e-001 -9.214106e+000 194 86 84
-9.369615e-001 6.188464e-001 -8.920507e+000 236 200 87
-1.907104e+000 -1.417360e-001 -9.344984e+000 109 27 34
-1.010193e+000 1.155780e-001 -9.039292e+000 197 86 84
3.042071e+000 -5.704050e-001 -1.308346e+001 86 62 36
-1.866262e+000 -3.550942e-001 -9.443069e+000 136 27 46
-1.866262e+000 -3.550942e-001 -9.443069e+000 136 27 46
-1.348417e+000 -8.815461e-001 -9.449434e+000 125 39 41
2.022638e+000 -1.627470e+000 -1.285060e+001 89 50 53
-1.292757e+000 -1.151798e+000 -9.624791e+000 254 223 93
1.268345e-001 -1.306423e+000 -1.008715e+001 125 99 62
3.617191e-001 -1.355702e+000 -1.054665e+001 225 218 208
1.516137e+000 2.373016e+000 -1.129915e+001 240 201 84
4.526743e-001 1.605104e+000 -1.188809e+001 233 227 218
-2.306168e+000 9.828508e-001 -9.656279e+000 135 29 41
-1.119875e+000 1.260963e+000 -8.889557e+000 255 220 88
5.244622e-001 1.127604e+000 -1.011661e+001 87 35 37
1.309557e+000 1.599798e+000 -9.828805e+000 192 59 58
1.163060e+000 8.951514e-001 -1.014724e+001 119 93 47
2.182384e+000 1.187144e+000 -1.045978e+001 172 133 64
2.260909e+000 1.412237e+000 -9.920621e+000 56 67 68
-2.080729e+000 2.730206e-001 -9.304545e+000 210 90 91
-1.870677e+000 -6.380535e-001 -9.654379e+000 204 59 60
-1.870677e+000 -6.380535e-001 -9.654379e+000 204 59 60
-1.060363e+000 -7.925005e-001 -9.090021e+000 250 211 89
-1.730884e+000 -1.470110e+000 -1.038683e+001 106 44 46
4.399336e-001 1.925088e+000 -1.185750e+001 92 39 47
-4.769182e-001 1.464501e+000 -9.185273e+000 143 113 58
-1.523107e-001 6.446709e-001 -9.352438e+000 52 51 47
-2.713637e+000 -2.735677e-001 -1.007847e+001 176 34 48
2.666166e+000 1.534117e+000 -1.039650e+001 94 80 80
2.165758e-001 1.125787e+000 -9.213684e+000 127 95 48
-1.974907e+000 -1.052981e-002 -9.373071e+000 112 27 33
-8.706915e-001 -1.176938e+000 -9.375163e+000 117 86 51
1.518678e+000 1.941586e+000 -1.169281e+001 209 155 67
-1.028905e+000 1.389529e+000 -8.872296e+000 185 127 56
-1.028905e+000 1.389529e+000 -8.872296e+000 185 127 56
-9.541711e-002 1.043085e+000 -9.479076e+000 65 56 48
-9.541711e-002 1.043085e+000 -9.479076e+000 65 56 48
4.239257e+000 -2.220657e+000 -1.489316e+001 64 54 55
8.463314e-001 2.138538e+000 -1.208021e+001 119 42 48
-3.680968e-001 -1.077392e+000 -9.962619e+000 52 55 50
4.606449e+000 1.389556e-001 -1.203676e+001 62 50 50
-2.246188e+000 1.935728e-002 -9.467174e+000 214 115 119
-2.206762e+001 4.932357e+001 -6.636496e+001 33 34 39
-1.090590e+000 -1.267739e+000 -9.108727e+000 162 110 50
-9.054538e-001 -4.723762e-001 -8.990960e+000 156 109 55
-1.531865e+000 -2.392642e-001 -9.117416e+000 202 85 79
1.118705e+000 -7.880618e-001 -1.035355e+001 158 127 63
2.296854e+000 2.320820e+000 -1.018692e+001 221 213 204
2.254606e+000 2.313646e+000 -1.020452e+001 120 77 73
2.614386e+000 1.688131e+000 -9.968963e+000 114 134 132
-1.175183e-001 1.313619e+000 -9.336292e+000 74 97 84
-1.364407e+000 1.743303e+000 -9.651937e+000 235 199 190
-1.283218e+000 -1.096475e+000 -9.416416e+000 210 102 97
-2.342276e+000 -7.378722e-001 -1.007599e+001 233 109 113
-1.804985e+000 -8.910359e-001 -9.581543e+000 168 63 67
-2.769331e+000 -4.936047e-001 -1.046279e+001 219 102 99
-2.322120e+000 -9.312937e-001 -1.041478e+001 204 89 93
-1.782551e+000 -1.178652e+000 -1.019736e+001 170 74 72
-1.247380e+000 -1.334483e+000 -9.992868e+000 128 59 61
2.555144e+000 -1.271714e+000 -1.301448e+001 128 74 52
2.103914e+000 -1.977999e+000 -1.267360e+001 128 88 59
4.640394e+000 -4.698995e+000 -1.244762e+001 254 247 240
2.743351e+000 1.381030e+000 -9.994883e+000 223 222 215
-3.191981e-003 5.772297e-001 -9.427393e+000 70 63 46
-1.519949e+000 -1.807224e-001 -9.151549e+000 188 80 79
-2.628023e+000 -5.228098e-001 -1.024108e+001 203 95 96
-2.564941e+000 -6.530755e-001 -1.004523e+001 173 47 51
1.744670e+000 2.182484e+000 -9.936269e+000 229 216 210
2.606128e+000 1.365743e+000 -1.006552e+001 132 155 145
-1.082963e+000 1.193432e+000 -9.092253e+000 253 219 95
-1.025961e+000 8.681709e-001 -8.868255e+000 167 111 40
-1.485881e+000 2.431313e-001 -9.100512e+000 199 85 85
-2.728794e-001 -3.034382e-001 -9.378187e+000 128 102 55
-2.124391e+000 -1.735008e-001 -9.440320e+000 185 84 82
-2.858698e-001 -1.225153e+000 -9.926856e+000 129 99 53
-2.858698e-001 -1.225153e+000 -9.926856e+000 129 99 53
-1.335813e+000 -1.244855e+000 -1.002026e+001 130 64 66
-2.008568e+000 -1.436756e+000 -1.122767e+001 193 96 94
2.718126e+000 1.395776e+000 -1.007442e+001 81 95 100
2.718126e+000 1.395776e+000 -1.007442e+001 81 95 100
-1.724778e+000 1.677546e+000 -9.582283e+000 225 224 215
