ply
format ascii 1.0
element face 0
property list uchar int vertex_indices
element vertex 874
property float x
property float y
property float z
property uchar diffuse_red
property uchar diffuse_green
property uchar diffuse_blue
end_header
2.561645e+000 -1.281035e+000 -1.296379e+001 104 53 55
2.537908e+000 1.414138e+000 -9.893356e+000 108 102 102
-1.169788e+001 4.936483e+000 -2.842804e+001 221 211 206
-6.681479e+000 2.608159e+000 -2.791771e+001 64 62 65
2.136585e+000 -1.771097e+000 -1.277184e+001 119 90 57
-9.243895e-001 6.035888e-001 -8.981537e+000 236 199 89
-1.377379e+001 5.401165e+000 -3.140597e+001 236 223 210
-1.728340e+000 -2.267090e-002 -9.317680e+000 216 67 65
2.728303e+000 -1.616426e+000 -1.330797e+001 230 222 211
-9.106571e-001 1.016703e+000 -8.940600e+000 233 189 84
-1.482281e+000 6.170631e-001 -9.206857e+000 215 96 93
-1.188157e+000 -7.885811e-002 -9.125948e+000 217 76 76
-1.005580e+000 -1.391605e-001 -9.030285e+000 113 31 35
4.321583e+000 -1.813252e+000 -1.363944e+001 68 58 60
4.298365e+000 -1.745659e+000 -1.338274e+001 66 56 57
-1.260779e+001 6.849693e+000 -2.872279e+001 235 223 224
5.224327e+000 3.235550e+000 -1.198641e+001 245 234 227
1.310729e+000 2.414713e+000 -1.135748e+001 222 189 92
-1.144367e+001 4.888000e+000 -2.817459e+001 202 195 189
-1.320760e+000 1.912434e+000 -9.985767e+000 135 53 58
2.668496e+000 1.494124e+000 -9.897096e+000 139 153 147
-2.141470e+000 1.019064e+000 -9.689401e+000 142 26 35
-1.368600e+001 2.351218e+000 -3.040917e+001 223 211 211
-1.385021e+001 2.297243e+000 -3.058560e+001 214 202 202
-1.310770e+001 2.344953e+000 -3.026568e+001 228 217 215
-1.170025e+001 2.058569e+000 -2.695120e+001 216 207 201
-1.342657e+001 1.670460e+000 -3.088991e+001 158 147 148
-1.733227e+000 2.713766e-001 -9.226574e+000 128 33 35
-1.480292e+000 -9.294014e-001 -9.505783e+000 212 91 90
-1.228350e+001 7.174234e+000 -2.840384e+001 224 213 214
-1.254818e+001 7.133234e+000 -2.873620e+001 228 216 216
5.802046e+000 3.174785e+000 -1.110009e+001 247 234 228
1.590083e+000 2.357279e+000 -1.094322e+001 226 189 94
-1.175083e+001 5.290149e+000 -2.845551e+001 244 234 233
1.872194e+000 1.922809e+000 -9.975447e+000 130 70 72
5.751461e+000 2.139262e+000 -1.118660e+001 181 171 163
-1.293793e+001 2.728467e+000 -2.981194e+001 240 230 228
-1.295781e+001 2.561386e+000 -2.993731e+001 219 209 205
-1.278018e+001 2.588012e+000 -2.979781e+001 233 223 222
-1.267567e+001 2.467982e+000 -2.995573e+001 223 213 209
-1.256046e+001 2.176840e+000 -2.988315e+001 186 177 172
-1.275965e+001 2.051191e+000 -3.018757e+001 185 176 171
4.940127e-001 -3.819677e-001 -6.528048e+000 129 90 47
5.550667e-001 -8.367936e-001 -9.929425e+000 69 34 27
6.318033e+000 -1.026845e+000 -9.965520e+000 201 188 182
-2.107572e+000 3.086285e-001 -9.535149e+000 215 95 96
6.363570e+000 -2.349512e-001 -1.001359e+001 234 221 215
1.184132e+000 2.456404e+000 -1.151958e+001 135 69 65
1.299222e+000 2.077746e+000 -1.144958e+001 200 154 75
-1.390766e+001 4.857875e+000 -3.087612e+001 200 186 177
-1.437185e+000 1.330036e+000 -9.411101e+000 113 34 38
-1.805170e-001 1.404334e+000 -9.253325e+000 57 53 52
2.466678e+000 1.573091e+000 -9.865411e+000 112 163 160
-1.017035e+000 5.310640e-001 -9.078474e+000 203 99 92
-3.705939e-001 -1.108122e+000 -9.422726e+000 62 68 56
-1.142128e+001 6.099318e+000 -2.833440e+001 108 100 100
-9.114325e-001 1.549830e+000 -9.184081e+000 122 52 56
-1.552803e+001 5.315292e+000 -3.319977e+001 180 166 161
1.350349e+000 1.834952e+000 -1.131474e+001 150 92 46
2.389673e+000 1.556009e+000 -9.883195e+000 79 87 89
-1.041392e+001 3.458599e+000 -2.741467e+001 244 227 199
-1.106172e+000 1.000719e+000 -9.065746e+000 144 53 41
-8.641974e-001 8.832655e-001 -8.865878e+000 231 195 83
-8.641974e-001 8.832655e-001 -8.865878e+000 231 195 83
-1.001583e+000 6.250297e-001 -9.037805e+000 234 191 88
-8.945936e-001 4.607928e-001 -8.940473e+000 205 90 90
-8.956011e-001 4.608426e-001 -8.948313e+000 205 90 90
-1.573422e+001 2.309490e+000 -3.331944e+001 114 108 112
-1.426691e+001 7.359602e+000 -3.123589e+001 206 186 176
1.345881e+000 2.315093e+000 -1.125654e+001 178 118 56
1.776568e+000 1.970724e+000 -1.004865e+001 121 52 56
1.774250e+000 1.867808e+000 -1.003152e+001 165 80 83
-1.041296e+001 3.701962e+000 -2.754413e+001 193 169 129
-1.035504e+001 3.688121e+000 -2.741442e+001 193 169 129
-9.749566e-001 1.450117e+000 -9.037327e+000 243 209 85
-1.212104e+000 1.215436e+000 -9.214166e+000 155 39 49
-6.610112e-002 1.345270e+000 -9.348717e+000 88 98 72
2.383136e+000 1.064258e+000 -1.054528e+001 112 72 39
2.383136e+000 1.064258e+000 -1.054528e+001 112 72 39
2.404527e+000 9.708744e-001 -1.035067e+001 153 120 60
-6.658679e+000 1.793309e+000 -2.822932e+001 94 95 97
-1.870984e+000 -9.869047e-001 -9.806028e+000 125 35 45
-2.118951e+001 -1.415453e+001 -4.584052e+001 64 62 68
8.592943e-001 2.070914e+000 -1.151676e+001 146 66 62
1.331062e+000 2.148012e+000 -1.119970e+001 165 102 46
-1.358384e+001 3.602441e+000 -3.070046e+001 239 219 205
-1.640916e+000 8.593902e-001 -9.095177e+000 217 85 82
-2.077231e+000 5.361407e-001 -9.436577e+000 137 29 39
-2.059960e-001 6.040701e-001 -9.327689e+000 52 47 41
-2.059960e-001 6.040701e-001 -9.327689e+000 52 47 41
-2.850142e+000 4.025142e-001 -1.061404e+001 227 107 101
-2.364895e+000 4.413874e-001 -9.749060e+000 170 33 41
-1.541185e+000 4.668478e-001 -9.267135e+000 135 29 37
-2.120605e+000 8.845179e-002 -9.476207e+000 142 31 39
-1.619174e+000 -4.291795e-001 -9.292267e+000 143 33 40
-1.745105e-001 -5.567030e-001 -9.534463e+000 82 82 59
-2.290944e+000 -8.005941e-001 -1.023266e+001 218 97 93
-2.026427e+000 -8.589732e-001 -9.791739e+000 237 104 110
-1.887325e+000 -8.276837e-001 -9.711709e+000 143 34 40
2.560693e+000 -8.483754e-001 -1.244389e+001 105 74 43
2.711268e+000 -6.961088e-001 -1.243699e+001 89 35 40
-1.483441e+000 -1.342110e+000 -1.007960e+001 193 90 91
-2.520982e+001 -1.467066e+001 -5.089122e+001 121 113 109
-2.505980e+001 -1.458054e+001 -5.056726e+001 121 113 109
-2.108070e+001 -1.419445e+001 -4.489431e+001 133 126 120
-2.127635e+001 -1.432715e+001 -4.533344e+001 133 126 120
1.087530e+000 2.428648e+000 -1.153416e+001 131 66 57
-1.237119e+000 1.805917e+000 -9.868782e+000 206 95 88
1.178617e+000 2.026007e+000 -1.143742e+001 97 44 43
1.439340e+000 2.199998e+000 -1.094735e+001 233 190 82
-1.346714e+000 1.326419e+000 -9.427535e+000 219 95 90
-1.084526e+000 1.254074e+000 -8.888603e+000 254 218 88
-9.301944e-001 1.228125e+000 -8.874412e+000 148 86 42
-1.280052e+001 3.123944e+000 -2.946573e+001 178 170 168
-6.604806e+000 2.867562e+000 -2.773711e+001 98 99 101
-2.038083e+000 1.097658e+000 -9.852702e+000 131 27 37
-1.905031e+000 9.246990e-001 -9.614521e+000 214 92 90
-1.464960e+000 1.186678e+000 -9.302802e+000 114 30 37
-2.285212e+000 7.480133e-001 -9.787366e+000 216 98 94
-2.034970e+000 7.964564e-001 -9.582490e+000 114 27 35
-3.574863e-002 6.065191e-001 -9.429154e+000 50 47 42
-2.073059e+000 4.199437e-001 -9.489260e+000 128 27 35
-1.692849e+000 4.146924e-001 -9.259723e+000 223 72 72
-2.162359e+000 -5.288850e-001 -9.888876e+000 116 31 38
-1.045344e+000 -5.794104e-001 -9.082039e+000 148 86 36
-2.390235e+001 -1.481507e+001 -4.923636e+001 135 129 130
-1.366437e+000 2.004994e+000 -1.009894e+001 119 46 48
1.603837e+000 2.184601e+000 -1.084111e+001 151 73 49
-2.276578e+000 9.529689e-001 -9.722942e+000 135 28 36
-1.680535e+000 1.141144e+000 -9.551634e+000 217 100 93
-1.494730e+000 8.372210e-001 -9.182588e+000 121 31 35
-1.496836e+000 8.382779e-001 -9.230340e+000 121 31 35
-1.483871e+000 6.176418e-001 -9.223775e+000 215 96 93
-2.049835e+000 2.268542e-001 -9.424067e+000 210 91 88
-1.600459e+000 -5.110284e-001 -9.300941e+000 124 32 35
-1.600459e+000 -5.110284e-001 -9.300941e+000 124 32 35
3.289253e+000 -1.106647e+000 -1.344943e+001 81 41 43
-1.868473e-001 -4.295444e-001 -9.455560e+000 53 48 45
-1.868473e-001 -4.295444e-001 -9.455560e+000 53 48 45
3.258586e+000 -1.069372e+000 -1.324282e+001 77 40 41
4.053045e+000 -2.342629e+000 -1.369532e+001 145 140 135
1.150794e+000 8.150781e-001 -1.044475e+001 131 99 50
1.150794e+000 8.150781e-001 -1.044475e+001 131 99 50
-2.174823e-001 -1.458503e+000 -1.059869e+001 96 54 55
2.584988e+000 -1.961237e+000 -1.323119e+001 103 51 57
-1.866251e+001 -7.348783e+000 -4.947272e+001 36 35 40
-1.197226e+001 4.559838e+000 -2.868626e+001 255 255 255
-1.194528e+001 1.880943e+000 -2.974609e+001 60 58 63
-1.983875e+000 -5.859387e-002 -9.588404e+000 124 29 32
-1.537784e+001 -7.444219e+000 -4.343133e+001 35 34 38
-2.274591e+001 -1.011322e+001 -4.981680e+001 95 91 92
1.015038e+000 -1.551517e+000 -1.177989e+001 95 49 49
-1.412345e+000 1.244771e+000 -9.357870e+000 143 53 51
-1.364329e+001 2.299360e+000 -3.047531e+001 208 199 198
-1.980185e+000 1.017088e+000 -9.681224e+000 138 41 44
-1.438762e+001 5.848451e+000 -3.158690e+001 231 213 201
-7.572288e-001 1.351507e+000 -8.892851e+000 149 101 49
-1.528221e+001 4.056316e+000 -3.295289e+001 202 186 173
-8.374219e-002 7.483064e-001 -9.475322e+000 76 82 54
-8.374219e-002 7.483064e-001 -9.475322e+000 76 82 54
-1.750532e-001 1.226210e+000 -9.318333e+000 64 64 52
5.718603e+000 4.441682e+000 -1.130649e+001 233 224 214
5.718603e+000 4.441682e+000 -1.130649e+001 233 224 214
6.597338e+000 3.913675e+000 -9.698646e+000 231 221 214
6.597338e+000 3.913675e+000 -9.698646e+000 231 221 214
6.699405e+000 3.823219e+000 -9.553860e+000 237 225 219
6.692195e+000 3.812614e+000 -9.471319e+000 252 241 235
6.397960e+000 3.559349e+000 -1.014852e+001 247 234 228
6.575445e+000 3.779197e+000 -9.834708e+000 235 221 218
6.644452e+000 3.536033e+000 -9.610273e+000 239 225 219
6.723189e+000 3.645076e+000 -9.531572e+000 250 241 236
5.806280e+000 3.255356e+000 -1.081331e+001 227 214 208
6.337434e+000 3.357693e+000 -1.024138e+001 241 226 221
6.337434e+000 3.357693e+000 -1.024138e+001 241 226 221
6.323004e+000 3.313421e+000 -1.020559e+001 253 240 234
6.323004e+000 3.313421e+000 -1.020559e+001 253 240 234
6.524107e+000 3.201186e+000 -9.832521e+000 237 227 219
5.475936e+000 3.034253e+000 -1.150772e+001 221 211 204
5.803624e+000 3.181162e+000 -1.111870e+001 246 237 228
6.175495e+000 2.920930e+000 -1.063919e+001 231 218 210
6.430105e+000 2.976425e+000 -1.000021e+001 242 228 220
6.430105e+000 2.976425e+000 -1.000021e+001 242 228 220
6.345427e+000 2.840806e+000 -1.020873e+001 235 222 216
6.726883e+000 3.096801e+000 -9.563293e+000 242 230 222
6.817517e+000 2.928387e+000 -9.285584e+000 247 236 227
5.549160e+000 2.838878e+000 -1.154311e+001 219 209 200
5.545978e+000 2.781985e+000 -1.156631e+001 233 223 214
5.545978e+000 2.781985e+000 -1.156631e+001 233 223 214
6.402610e+000 2.754796e+000 -1.011251e+001 235 221 218
6.535992e+000 2.692114e+000 -9.801968e+000 248 239 235
6.533445e+000 2.639759e+000 -9.790113e+000 248 237 231
6.588204e+000 2.553459e+000 -9.725234e+000 236 224 219
6.606845e+000 2.469580e+000 -9.739540e+000 251 241 238
6.782675e+000 2.682759e+000 -9.303022e+000 243 229 224
6.837555e+000 2.706571e+000 -9.255186e+000 252 243 235
6.837555e+000 2.706571e+000 -9.255186e+000 252 243 235
6.731962e+000 2.445408e+000 -9.414517e+000 251 244 238
1.418038e+000 2.014473e+000 -1.144970e+001 136 83 34
6.432843e+000 2.135471e+000 -1.002504e+001 226 212 207
6.505244e+000 2.174304e+000 -1.006214e+001 236 225 221
6.481651e+000 2.088697e+000 -1.001544e+001 246 233 227
6.635961e+000 2.271679e+000 -9.602899e+000 242 228 226
-1.837986e+000 1.414004e+000 -9.396450e+000 219 87 84
6.219618e+000 2.047231e+000 -1.045675e+001 220 207 201
6.159924e+000 1.954054e+000 -1.039900e+001 237 225 219
6.283638e+000 1.686900e+000 -1.030739e+001 212 198 193
6.716587e+000 2.004446e+000 -9.508946e+000 254 247 242
6.615656e+000 1.664606e+000 -9.696037e+000 230 217 212
6.643856e+000 1.611292e+000 -9.630170e+000 252 245 240
6.690694e+000 1.421324e+000 -9.584515e+000 239 225 222
-2.233731e+000 5.391706e-001 -9.448077e+000 224 115 111
-2.193867e+000 5.761310e-001 -9.364025e+000 234 124 120
-9.927096e-001 5.766846e-001 -8.991279e+000 210 123 79
6.330356e+000 1.091684e+000 -1.019121e+001 199 186 178
6.535359e+000 1.038100e+000 -9.785766e+000 246 235 231
6.575081e+000 9.290978e-001 -9.870280e+000 217 202 197
6.681605e+000 1.054732e+000 -9.493373e+000 232 225 219
6.860133e+000 9.668817e-001 -9.349416e+000 254 251 246
9.603960e-001 5.363958e-001 -1.005898e+001 104 67 22
3.032584e+000 6.304820e-001 -1.287075e+001 205 173 156
6.592631e+000 8.186929e-001 -9.700221e+000 218 205 199
6.501567e+000 5.842597e-001 -9.854003e+000 208 194 190
6.564934e+000 6.241033e-001 -9.746541e+000 222 209 203
6.750887e+000 8.116382e-001 -9.450090e+000 236 224 218
6.850269e+000 7.241002e-001 -9.355914e+000 243 232 226
-1.705590e+000 -1.212123e-003 -9.229547e+000 219 68 67
-7.504398e-002 2.278213e-003 -9.426313e+000 111 78 34
3.069476e-001 8.837802e-002 -9.677234e+000 114 82 34
6.469970e+000 2.099320e-001 -9.957004e+000 204 191 183
6.550655e+000 2.788682e-001 -9.808823e+000 221 208 202
6.725459e+000 4.151777e-001 -9.557195e+000 233 222 218
6.814149e+000 5.395174e-001 -9.429517e+000 240 232 229
6.640922e+000 3.787121e-001 -9.660691e+000 255 251 245
6.576522e+000 -2.046236e-002 -9.749789e+000 241 228 222
6.624542e+000 -1.077881e-002 -9.685261e+000 228 217 211
6.744623e+000 4.662816e-003 -9.505835e+000 252 246 240
6.976965e+000 2.228688e-001 -9.169618e+000 253 250 246
8.372298e-001 -8.234854e-001 -1.019281e+001 137 109 61
1.737814e+000 -1.133484e+000 -1.303494e+001 161 139 132
6.969588e+000 -1.277732e-001 -9.041841e+000 241 232 227
-1.720150e+000 -1.219366e+000 -9.991544e+000 153 70 72
-1.542414e+000 -1.407807e+000 -1.033431e+001 203 106 100
-3.818252e-001 -1.247745e+000 -9.558431e+000 56 53 52
1.758396e+000 -1.259372e+000 -1.272456e+001 110 83 57
1.988165e+000 -1.547334e+000 -1.294655e+001 85 44 41
6.554121e+000 -9.245748e-001 -9.776453e+000 224 214 205
2.614021e+000 -1.730036e+000 -1.322733e+001 165 127 118
6.198440e+000 -1.333504e+000 -1.042614e+001 172 161 156
6.972600e+000 -8.919304e-001 -9.143717e+000 254 249 241
6.907286e+000 -1.508431e+000 -9.176285e+000 232 216 209
6.907286e+000 -1.508431e+000 -9.176285e+000 232 216 209
6.966028e+000 -1.521632e+000 -9.227919e+000 230 212 205
6.620885e+000 -1.816176e+000 -9.666378e+000 230 217 212
6.859330e+000 -1.748170e+000 -9.397286e+000 232 219 213
6.854508e+000 -1.684616e+000 -9.304371e+000 235 221 214
6.938756e+000 -1.807534e+000 -9.240374e+000 232 219 213
6.657641e+000 3.490061e+000 -9.610576e+000 255 248 242
5.999020e+000 3.556265e+000 -1.080300e+001 230 217 209
5.999020e+000 3.556265e+000 -1.080300e+001 230 217 209
6.047266e+000 3.495965e+000 -1.091587e+001 228 215 207
5.892196e+000 3.010495e+000 -1.098960e+001 224 211 202
6.820526e+000 3.051488e+000 -9.294751e+000 253 248 242
6.774722e+000 2.992556e+000 -9.215543e+000 235 222 216
-1.103576e+000 1.993018e+000 -9.946259e+000 191 97 95
8.780153e-001 2.482619e+000 -1.140197e+001 173 83 85
5.606370e+000 2.815395e+000 -1.145787e+001 212 202 194
5.606370e+000 2.815395e+000 -1.145787e+001 212 202 194
5.825933e+000 2.648182e+000 -1.099792e+001 236 223 214
5.947460e+000 2.537021e+000 -1.092381e+001 210 200 191
6.322340e+000 2.663629e+000 -1.000299e+001 233 220 214
6.499625e+000 2.683886e+000 -9.885262e+000 253 246 237
6.430982e+000 2.588217e+000 -1.002386e+001 231 218 213
6.704758e+000 2.405373e+000 -9.616271e+000 254 248 242
6.804811e+000 2.663143e+000 -9.273564e+000 255 252 247
1.581238e+000 2.002498e+000 -1.100244e+001 187 138 71
6.129156e+000 2.092921e+000 -1.044472e+001 213 200 194
6.248221e+000 2.171815e+000 -1.025504e+001 220 209 203
6.332135e+000 2.173557e+000 -1.024390e+001 224 210 205
6.484828e+000 2.327950e+000 -1.017977e+001 252 239 233
6.388868e+000 2.206999e+000 -1.009193e+001 225 212 206
6.473800e+000 2.102806e+000 -1.006980e+001 227 213 210
6.382854e+000 2.044542e+000 -9.982256e+000 232 219 213
6.841103e+000 2.202410e+000 -9.359204e+000 255 249 242
-1.634908e+000 1.291653e+000 -9.418606e+000 135 39 41
-1.415671e+000 1.322449e+000 -9.309671e+000 136 45 45
6.374021e+000 1.944750e+000 -1.014834e+001 222 209 203
6.417186e+000 1.847154e+000 -1.011915e+001 219 206 200
6.746993e+000 1.862145e+000 -9.400546e+000 254 243 240
6.292611e+000 1.598170e+000 -1.022276e+001 209 196 190
6.446023e+000 1.399848e+000 -1.007830e+001 213 200 194
6.578080e+000 1.500535e+000 -9.704840e+000 225 212 206
6.856964e+000 1.514731e+000 -9.232385e+000 236 222 219
6.856964e+000 1.514731e+000 -9.232385e+000 236 222 219
-2.125416e+000 6.912504e-001 -9.582521e+000 223 96 95
-9.265039e-001 5.566213e-001 -8.942200e+000 204 104 74
4.977893e-002 5.831080e-001 -9.262095e+000 119 89 47
2.188994e+000 1.016673e+000 -1.050871e+001 104 65 36
6.356880e+000 1.114522e+000 -1.025861e+001 200 187 179
6.686713e+000 1.061519e+000 -9.617135e+000 254 249 244
6.748718e+000 1.035345e+000 -9.455717e+000 235 220 214
-2.203274e+000 3.973543e-001 -9.464299e+000 227 186 185
9.871420e-001 5.675133e-001 -9.982567e+000 134 100 54
1.253599e+000 5.675054e-001 -1.027838e+001 113 81 48
6.662728e+000 8.684214e-001 -9.604811e+000 230 218 212
6.705223e+000 8.307698e-001 -9.477910e+000 228 215 209
6.754111e+000 8.472115e-001 -9.321152e+000 241 229 222
6.647531e+000 7.335796e-001 -9.658130e+000 227 214 208
6.862357e+000 8.444266e-001 -9.361279e+000 254 251 246
6.863209e+000 7.343144e-001 -9.302952e+000 254 252 245
6.863209e+000 7.343144e-001 -9.302952e+000 254 252 245
1.840937e+000 -1.783791e-001 -1.141612e+001 71 91 89
-1.076426e+000 -2.624586e-001 -9.187226e+000 178 86 72
6.573430e+000 2.180460e-002 -9.746328e+000 224 212 204
7.087630e-001 -8.200393e-001 -1.010999e+001 131 106 59
6.360660e+000 -2.127930e+000 -1.013181e+001 217 204 196
6.771745e+000 3.530959e+000 -9.444805e+000 253 244 234
6.625383e+000 3.394681e+000 -9.735870e+000 234 223 214
6.715861e+000 3.364436e+000 -9.528481e+000 237 223 220
6.407625e+000 2.917508e+000 -1.010670e+001 235 222 216
5.532481e+000 2.756090e+000 -1.139897e+001 214 204 195
5.979822e+000 2.673092e+000 -1.066703e+001 218 205 197
-7.329958e-001 1.465914e+000 -8.919385e+000 147 106 59
2.129913e+000 1.631212e+000 -9.906273e+000 80 97 97
6.088157e+000 1.789834e+000 -1.067702e+001 196 184 178
-1.395797e+000 9.513109e-001 -9.023535e+000 195 83 77
6.714062e+000 1.391378e+000 -9.492062e+000 233 219 216
6.714062e+000 1.391378e+000 -9.492062e+000 233 219 216
6.875509e+000 1.549855e+000 -9.192967e+000 254 250 247
9.266674e-001 9.656389e-001 -9.945702e+000 131 97 52
6.279874e+000 1.256341e+000 -1.026447e+001 197 184 178
-2.577887e+000 5.633712e-002 -1.005286e+001 224 75 74
-2.660339e-001 -3.330170e-001 -9.444921e+000 108 90 42
-2.166054e+000 -6.848571e-001 -1.015031e+001 183 87 83
2.987244e-001 -8.096232e-001 -9.876677e+000 132 99 55
5.969134e-001 -8.094845e-001 -1.001128e+001 130 100 54
1.982417e+000 -1.233804e+000 -1.352810e+001 149 124 116
6.425204e+000 -2.486556e-001 -1.013111e+001 227 214 208
6.605358e+000 -6.754228e-001 -9.758331e+000 219 209 202
6.605358e+000 -6.754228e-001 -9.758331e+000 219 209 202
6.407240e+000 -1.334347e+000 -1.011859e+001 206 195 188
6.407240e+000 -1.334347e+000 -1.011859e+001 206 195 188
6.449434e+000 -1.566490e+000 -9.984484e+000 219 206 197
6.449434e+000 -1.566490e+000 -9.984484e+000 219 206 197
6.969394e+000 -1.517751e+000 -9.117027e+000 231 215 211
5.716565e+000 -3.165153e+000 -1.120667e+001 186 177 172
6.616896e+000 3.456726e+000 -9.754080e+000 250 242 235
2.851499e+000 2.283768e+000 -1.073836e+001 154 72 81
-9.766083e-001 1.903650e+000 -9.737105e+000 193 92 91
8.997054e-001 2.147857e+000 -1.156255e+001 161 76 75
8.997054e-001 2.147857e+000 -1.156255e+001 161 76 75
1.403134e+000 2.042399e+000 -1.111314e+001 210 165 76
1.351611e+000 1.412606e+000 -9.987659e+000 102 43 42
2.124353e+000 1.469822e+000 -9.848809e+000 74 109 105
2.470902e+000 1.580741e+000 -9.913234e+000 122 167 168
6.783439e+000 1.892050e+000 -9.374371e+000 238 224 220
3.371518e+000 6.845195e-001 -1.339908e+001 80 40 37
6.714433e+000 7.377895e-001 -9.582659e+000 225 214 208
-1.595924e+000 -2.202836e-001 -9.250778e+000 193 91 87
-1.656448e+000 -6.906813e-001 -9.453318e+000 196 90 88
1.704777e+000 -1.197842e+000 -1.268291e+001 160 138 125
1.196705e+000 1.864066e+000 -1.141992e+001 155 114 60
-1.596976e+000 1.497744e+000 -9.401024e+000 240 125 125
-1.273778e+000 1.490205e+000 -9.379776e+000 108 32 36
3.365211e+000 5.050490e-001 -1.270269e+001 69 47 49
-2.178214e+000 -2.360545e-001 -9.663549e+000 148 29 35
-2.308736e+000 -5.767480e-001 -9.882421e+000 191 78 77
2.419288e+000 -9.983451e-001 -1.298402e+001 95 67 46
-2.243651e+000 1.388683e+000 -1.014353e+001 171 30 38
-1.992166e+000 1.334144e+000 -9.737152e+000 168 29 40
-1.992166e+000 1.334144e+000 -9.737152e+000 168 29 40
1.465351e+000 1.663641e+000 -9.787462e+000 122 43 48
-2.584154e+000 1.115353e+000 -1.021892e+001 166 32 39
-2.732818e+000 6.213820e-001 -1.029937e+001 210 76 72
-2.615104e+000 4.866317e-001 -1.007535e+001 169 27 37
-2.096562e+000 6.540520e-001 -9.539569e+000 218 104 98
-2.034748e+000 -1.664826e-001 -9.404856e+000 186 70 70
-2.827218e-001 -4.001341e-001 -9.387979e+000 48 47 42
3.262701e+000 -2.274606e-001 -1.295543e+001 101 70 70
-1.033442e+000 -1.201618e+000 -9.180012e+000 230 204 96
-1.856068e+000 1.395211e+000 -9.571289e+000 222 91 88
-2.426126e+000 9.869498e-001 -9.751183e+000 215 70 72
-1.776111e+000 1.005816e+000 -9.653158e+000 158 30 36
-1.421852e+000 1.022277e+000 -9.086915e+000 202 92 81
-2.356962e+000 6.037553e-001 -9.892779e+000 159 32 37
-2.192954e+000 4.801445e-001 -9.433696e+000 230 154 162
-3.019498e+000 2.090758e-001 -1.071211e+001 222 63 71
-2.380718e+000 1.477023e-001 -9.907420e+000 164 28 40
-2.000772e+000 -3.981556e-001 -9.716752e+000 218 102 98
-8.850180e-002 -4.116109e-001 -9.529824e+000 47 49 43
-1.886948e+000 -8.300039e-001 -9.720288e+000 144 34 43
-1.501424e+000 -9.150461e-001 -9.532782e+000 212 101 94
-3.312842e-001 -1.036677e+000 -9.755188e+000 66 63 55
-7.501313e-001 1.006915e+000 -8.896069e+000 143 94 41
2.120475e+000 1.380151e+000 -1.005474e+001 56 49 45
-9.209286e-001 6.071020e-001 -8.945165e+000 236 198 84
-1.145434e+000 1.265943e-001 -9.072732e+000 89 26 32
-2.083874e+000 -2.946705e-001 -9.433139e+000 116 27 33
-1.616293e+000 -8.376724e-001 -9.459551e+000 109 31 39
1.402991e+000 -8.200151e-001 -1.136577e+001 92 44 44
2.003806e+000 -1.555880e+000 -1.257690e+001 88 45 47
2.023906e+000 -1.579981e+000 -1.271968e+001 88 45 47
-1.701700e+000 1.360497e+000 -9.465382e+000 136 33 40
-1.701700e+000 1.360497e+000 -9.465382e+000 136 33 40
2.177112e+000 1.182650e+000 -1.036844e+001 169 132 61
-1.155385e+000 3.611754e-001 -9.048713e+000 217 82 78
-9.788094e-001 3.424089e-001 -8.995029e+000 114 30 35
-9.773421e-001 3.439599e-001 -8.965890e+000 114 30 35
-2.103299e+000 1.800583e-002 -9.436192e+000 127 26 37
-1.886188e+000 -1.954594e-001 -9.514968e+000 113 28 32
-1.563538e+000 -2.906102e-001 -9.280669e+000 203 83 79
-1.477626e+000 -1.678268e+000 -1.048704e+001 226 222 213
5.044039e-001 2.387826e+000 -1.179826e+001 157 56 59
4.970243e-001 1.872196e+000 -1.174895e+001 79 35 38
-1.403726e+000 -9.197905e-002 -9.172623e+000 115 27 30
-8.300544e-001 -6.508897e-001 -9.024291e+000 131 91 42
1.180571e-001 -9.017252e-001 -1.021504e+001 128 96 49
5.498729e-001 -1.837547e+000 -1.255344e+001 114 44 49
-2.152868e+000 9.635755e-001 -9.747037e+000 133 29 36
-1.254099e-001 6.387228e-001 -9.363334e+000 54 51 43
1.469481e+000 1.920071e+000 -1.121034e+001 201 153 69
2.706549e+000 2.151198e+000 -1.093798e+001 121 62 65
-1.032860e+000 1.333463e+000 -9.008558e+000 214 167 63
3.116691e+000 -1.550678e+000 -1.341344e+001 218 211 202
3.116691e+000 -1.550678e+000 -1.341344e+001 218 211 202
2.253468e+000 1.971363e+000 -1.040988e+001 91 46 51
8.770779e-001 5.360849e-001 -1.083260e+001 130 98 47
3.366600e+000 -3.138465e+000 -1.511983e+001 222 219 210
-1.274962e+001 7.056472e+000 -2.895031e+001 231 220 221
-1.324497e+000 1.784902e+000 -9.902530e+000 129 48 49
-1.992728e-001 2.010115e+000 -1.025558e+001 104 65 65
-1.602201e+000 1.448561e+000 -9.640405e+000 175 75 77
2.742722e+000 1.650198e+000 -1.001238e+001 150 171 168
9.734385e-001 7.864298e-001 -9.996375e+000 121 89 42
-2.019344e+000 -8.582867e-001 -9.677929e+000 224 88 95
-1.461333e+001 8.415200e+000 -3.058895e+001 186 174 174
-1.229623e+001 7.400494e+000 -2.888321e+001 215 205 202
2.829174e+000 2.291840e+000 -1.054161e+001 152 102 98
-1.607176e+000 1.270279e+000 -9.452773e+000 188 79 80
2.761201e+000 1.369905e+000 -1.002312e+001 227 215 208
-3.348435e+000 -2.197272e+000 -4.102063e+001 155 68 69
-1.841343e-001 1.330987e+000 -9.289100e+000 58 64 55
2.127251e+000 1.474010e+000 -9.920789e+000 78 112 109
-2.949911e+000 3.597390e-001 -1.059842e+001 72 31 34
-1.152975e+001 6.370232e+000 -2.850811e+001 102 97 95
6.596021e+000 -8.173741e-001 -9.882049e+000 229 218 212
6.202777e-001 9.658282e-001 -9.776785e+000 133 101 41
-6.367908e+000 2.824342e+000 -2.785036e+001 89 85 90
-1.520471e+001 1.946379e+000 -3.258959e+001 115 113 116
-6.646466e+000 1.574164e+000 -2.837514e+001 79 77 80
-6.455186e+000 1.709120e+000 -2.841903e+001 48 42 46
-6.597226e+000 1.354075e+000 -2.857949e+001 42 38 39
-6.823116e+000 1.186599e+000 -2.886401e+001 73 71 74
-1.873303e+001 9.991735e+000 -3.685356e+001 84 77 84
-1.415989e+001 7.990486e+000 -3.016054e+001 192 175 158
-1.911219e+001 9.530643e+000 -3.707579e+001 80 76 82
-1.341930e+001 7.118114e+000 -3.034207e+001 217 200 191
-1.490782e+001 6.396821e+000 -3.251282e+001 210 190 179
-1.335264e+001 4.206179e+000 -2.981668e+001 197 181 168
-6.257740e+000 2.297163e+000 -2.810489e+001 43 41 42
-6.944876e+000 9.745207e-001 -2.865825e+001 85 84 89
-6.705293e+000 9.335374e-001 -2.880853e+001 44 38 41
-2.038412e+001 1.066020e+001 -3.950801e+001 38 33 39
-1.512953e+001 4.397457e+000 -3.268919e+001 210 192 180
-7.208505e+000 2.588815e+000 -2.848032e+001 48 44 45
-6.409023e+000 1.975901e+000 -2.823701e+001 47 38 41
-1.434049e+001 8.518983e+000 -3.055967e+001 116 110 122
-1.996920e+000 -4.035691e-001 -9.704355e+000 214 94 90
-1.619294e+000 -8.076423e-001 -9.485869e+000 109 34 38
-1.079061e+000 -1.030495e+000 -9.091511e+000 145 87 41
-2.232575e+001 -1.300748e+001 -4.703874e+001 133 125 122
-1.369659e+001 8.953731e+000 -3.025825e+001 109 106 117
-1.477811e+001 4.721706e+000 -3.249834e+001 229 211 199
-1.147846e+000 3.628132e-001 -9.049028e+000 215 82 79
-1.177879e-001 6.254275e-001 -9.328181e+000 54 51 45
-7.179670e+000 8.661567e-001 -2.876846e+001 81 82 86
1.340516e-001 -9.304520e-001 -1.002312e+001 132 100 53
-2.250289e+000 1.866243e+000 -1.037808e+001 231 224 210
-1.196234e+001 4.536619e+000 -2.850265e+001 255 255 255
-1.513246e+000 1.924074e+000 -9.936707e+000 170 67 69
-1.513246e+000 1.924074e+000 -9.936707e+000 170 67 69
2.147985e+000 1.177062e+000 -1.073296e+001 150 115 53
-1.194768e+001 5.050130e+000 -2.852707e+001 251 241 238
-1.284679e+001 2.716297e+000 -2.957078e+001 244 233 232
-1.286695e+001 2.183664e+000 -3.028227e+001 186 177 170
-1.945925e-001 1.330246e+000 -9.307583e+000 56 58 55
-8.944692e+000 3.598722e+000 -2.633149e+001 125 114 109
-6.210187e+000 2.642833e+000 -2.803514e+001 43 37 39
-7.097133e+000 1.641093e+000 -2.822719e+001 91 90 95
-1.510835e+001 3.662433e+000 -3.268700e+001 218 199 184
-1.195748e+001 2.937388e+000 -2.881714e+001 185 177 174
-7.346435e+000 1.489941e+000 -2.831373e+001 41 36 38
-1.292370e-001 4.932204e-001 -9.319690e+000 117 94 44
-1.335102e+001 1.092159e+000 -3.213211e+001 94 88 90
-1.156840e+000 1.336997e-001 -9.016371e+000 89 26 32
-1.892146e+001 -1.710307e+001 -4.156278e+001 65 64 67
-1.892146e+001 -1.710307e+001 -4.156278e+001 65 64 67
-1.347465e+001 1.269502e+000 -3.106404e+001 46 44 48
-1.095879e+001 4.520035e+000 -2.815424e+001 78 74 78
-1.348361e+001 2.306861e+000 -3.030594e+001 219 207 207
-1.244552e+001 2.567829e+000 -2.949891e+001 191 181 180
-8.937966e+000 3.907812e+000 -2.598223e+001 84 82 86
-6.564515e+000 2.523675e+000 -2.771326e+001 83 79 83
4.716392e-001 2.575070e+000 -1.214353e+001 186 96 97
4.118651e-001 2.524466e+000 -1.201706e+001 227 208 194
-1.323964e+001 2.593788e+000 -2.988142e+001 243 231 232
-1.522126e+000 1.991393e+000 -9.961391e+000 219 103 104
2.329686e+000 1.664352e+000 -1.000084e+001 59 69 73
2.329686e+000 1.664352e+000 -1.000084e+001 59 69 73
1.338154e+000 2.322758e+000 -1.121823e+001 174 119 52
2.484789e+000 1.353633e+000 -9.902876e+000 53 56 57
1.165781e+000 4.394365e-001 -1.013767e+001 116 94 45
-1.555626e+000 1.051983e+000 -9.256495e+000 216 99 92
-1.660523e+000 5.968793e-001 -9.314806e+000 117 22 33
-2.800108e-001 -4.122046e-001 -9.434642e+000 42 42 39
1.617585e+000 2.163284e+000 -1.105101e+001 152 73 47
-1.687195e+000 1.142753e+000 -9.549425e+000 216 103 97
-1.484316e+000 6.203975e-001 -9.177764e+000 212 96 91
-1.557611e+000 -7.591549e-002 -9.226951e+000 113 25 31
-1.489806e+000 8.466471e-001 -9.125390e+000 116 26 34
5.191838e-001 2.404977e+000 -1.201087e+001 155 55 63
9.175176e-001 2.748744e+000 -1.264170e+001 229 222 213
-6.992543e-001 1.151197e+000 -9.126066e+000 127 85 37
4.816481e+000 -1.824582e+000 -1.200962e+001 119 114 111
6.658882e+000 3.236307e+000 -9.727544e+000 226 213 205
6.490924e+000 2.609650e+000 -1.011527e+001 219 211 200
6.849441e+000 2.325489e+000 -9.357866e+000 222 209 201
7.111082e+000 1.673088e+000 -8.822172e+000 230 216 207
6.274098e+000 2.576757e+000 -1.050349e+001 209 199 190
6.312131e+000 2.454004e+000 -1.022768e+001 217 207 199
6.617773e+000 1.776482e+000 -9.653747e+000 209 199 189
6.989829e+000 1.792351e+000 -9.031656e+000 226 212 204
6.980870e+000 1.640801e+000 -9.062724e+000 224 211 205
1.722782e+000 2.241646e+000 -1.002580e+001 215 200 187
5.660314e+000 2.543815e+000 -1.125817e+001 202 193 184
-1.188742e+000 1.504776e+000 -9.415571e+000 190 99 90
1.477517e+000 2.503570e+000 -1.147239e+001 218 194 97
1.196489e+000 2.500450e+000 -1.165967e+001 146 99 68
2.289638e+000 1.730105e+000 -9.923783e+000 93 95 97
2.397897e+000 1.632597e+000 -9.964244e+000 83 112 115
2.697402e+000 1.607278e+000 -9.991549e+000 153 171 168
2.434690e+000 1.410196e+000 -9.835505e+000 111 141 139
2.773024e+000 1.511899e+000 -1.014410e+001 149 169 165
2.674830e+000 1.420888e+000 -9.972838e+000 147 158 155
1.316453e+000 1.972823e+000 -1.152486e+001 191 144 74
-1.470607e+000 6.774776e-001 -9.201489e+000 199 95 93
1.022734e+000 9.423097e-001 -9.998745e+000 129 96 56
6.083728e+000 4.752199e-001 -1.055936e+001 149 141 135
6.615947e+000 4.936613e-002 -9.493606e+000 225 212 206
-2.362495e+000 6.708643e-001 -9.777137e+000 221 96 93
6.475278e+000 -3.930435e-001 -9.675336e+000 246 239 236
6.475278e+000 -3.930435e-001 -9.675336e+000 246 239 236
-2.740330e-001 -1.967057e-002 -9.286528e+000 105 74 28
-2.024507e-001 -1.453173e-002 -9.358506e+000 103 71 32
-1.031264e+000 -3.011903e-001 -9.135160e+000 209 114 91
-9.631053e-001 -3.212329e-001 -8.998756e+000 199 89 63
6.122964e+000 -7.517496e-001 -1.023921e+001 154 143 139
6.170018e+000 -1.220659e+000 -9.957643e+000 195 182 174
6.133060e+000 -1.320873e+000 -9.957749e+000 193 180 172
-2.181458e+000 -6.751180e-001 -1.013120e+001 168 81 80
-1.469750e+000 -9.284934e-001 -9.442289e+000 206 88 87
-1.468783e+000 -1.083008e+000 -9.546372e+000 177 55 59
6.322713e+000 -1.819520e+000 -9.754806e+000 229 219 213
6.333225e+000 -2.087012e+000 -9.632722e+000 251 246 240
-1.553196e+000 -1.287805e+000 -1.017421e+001 120 52 55
4.787439e-001 -1.172660e+000 -1.240357e+001 191 167 161
6.103354e+000 -2.615310e+000 -1.000140e+001 252 244 239
6.170191e+000 -2.942214e+000 -9.746871e+000 254 249 245
6.452086e+000 -3.102924e+000 -9.407572e+000 242 231 228
5.664691e+000 -3.346908e+000 -1.063286e+001 216 205 200
5.802245e+000 -3.508943e+000 -1.067819e+001 222 213 206
6.060221e+000 -3.238499e+000 -1.003843e+001 252 243 235
5.671409e+000 -3.754408e+000 -1.061275e+001 245 233 227
6.721366e+000 2.865444e+000 -9.625490e+000 226 213 205
6.572180e+000 2.513190e+000 -9.906582e+000 218 205 197
6.594143e+000 2.464237e+000 -9.795404e+000 218 205 198
6.564091e+000 2.313362e+000 -9.865248e+000 215 202 196
6.953445e+000 1.882230e+000 -9.096832e+000 225 211 205
6.283906e+000 2.100529e+000 -1.037270e+001 209 199 191
6.920011e+000 1.389334e+000 -9.102025e+000 218 205 197
-2.099840e-001 1.394924e+000 -9.341469e+000 94 98 77
2.489458e+000 1.550440e+000 -9.916251e+000 108 146 152
2.463768e+000 1.433739e+000 -9.747301e+000 103 99 103
6.202866e+000 1.561787e+000 -1.042291e+001 192 181 175
6.789897e+000 6.576420e-001 -9.224874e+000 227 217 210
-9.228257e-001 5.458328e-001 -8.959352e+000 194 89 73
-2.367861e+000 3.798316e-001 -9.931434e+000 218 94 96
6.324221e+000 -6.074189e-001 -9.938067e+000 193 180 172
-1.086451e+000 -2.607503e-001 -9.160104e+000 185 92 86
6.296804e+000 -1.056286e+000 -9.939491e+000 207 195 187
-1.928550e+000 -1.055220e+000 -9.762980e+000 195 85 85
-9.601239e-001 -1.083956e+000 -9.002358e+000 152 102 42
6.077451e+000 -1.727011e+000 -1.017372e+001 191 180 174
6.513803e+000 -3.075054e+000 -9.161558e+000 244 235 231
4.721294e+000 -4.330766e+000 -1.233278e+001 213 204 199
6.802663e+000 2.155608e+000 -9.432675e+000 220 208 204
6.052241e+000 1.926333e+000 -1.080218e+001 216 207 200
6.102109e+000 1.603674e+000 -1.049941e+001 185 176 169
2.358561e+000 1.311181e+000 -1.048404e+001 119 91 57
6.782512e+000 5.084311e-001 -9.251024e+000 232 219 215
-1.754166e+000 1.102266e+000 -9.611222e+000 207 94 91
-2.265139e+000 4.020852e-001 -9.463489e+000 214 81 80
-2.460551e+000 -5.091359e-001 -9.908635e+000 141 39 40
-1.351918e+000 -8.068877e-001 -9.479729e+000 153 73 67
6.376157e+000 1.940596e+000 -1.016739e+001 227 217 208
6.545668e+000 1.386464e+000 -9.665794e+000 206 196 187
1.767909e+000 1.898203e+000 -1.014230e+001 168 83 86
1.767909e+000 1.898203e+000 -1.014230e+001 168 83 86
2.148908e+000 1.704331e+000 -1.014978e+001 68 48 53
-9.709413e-001 1.001210e+000 -9.054254e+000 238 189 78
1.314592e+000 2.098254e+000 -1.155800e+001 203 154 76
1.437329e+000 1.571503e+000 -1.112931e+001 120 80 54
-1.952936e-001 5.293518e-001 -9.356843e+000 116 95 48
1.106206e+000 -8.442108e-001 -1.015856e+001 145 114 60
1.106206e+000 -8.442108e-001 -1.015856e+001 145 114 60
-1.383852e+000 -1.148021e+000 -9.592551e+000 185 92 89
-4.400160e-001 -1.236056e+000 -9.386775e+000 124 103 48
-3.667608e-001 -1.216785e+000 -9.385715e+000 53 55 52
2.697164e+000 1.362651e+000 -1.000980e+001 78 78 77
2.715240e+000 1.333253e+000 -1.019647e+001 221 214 204
-1.779267e+000 1.008883e+000 -9.558328e+000 163 38 41
-1.779267e+000 1.008883e+000 -9.558328e+000 163 38 41
-1.712435e+000 7.396028e-001 -9.313928e+000 132 29 37
1.544976e+000 1.127646e+000 -1.078221e+001 224 219 208
1.652209e+000 1.079924e+000 -1.089509e+001 78 42 39
1.764802e+000 5.178722e-001 -1.112806e+001 57 47 55
1.348180e+000 -3.692756e-001 -1.086716e+001 43 43 44
-2.924750e+000 1.124346e-002 -1.076640e+001 212 90 90
-1.766412e+000 -8.106174e-001 -9.580469e+000 221 108 105
-2.155253e+000 -7.717114e-001 -1.006346e+001 158 28 40
-2.155253e+000 -7.717114e-001 -1.006346e+001 158 28 40
-1.791260e+000 -1.075924e+000 -9.640048e+000 208 100 98
-1.791260e+000 -1.075924e+000 -9.640048e+000 208 100 98
-1.477375e+000 -1.119055e+000 -9.600933e+000 86 36 37
1.642814e+000 2.162646e+000 -1.002135e+001 194 81 83
1.543327e+000 2.122541e+000 -1.067326e+001 156 83 52
1.880903e+000 1.791260e+000 -1.000285e+001 92 44 47
2.318290e+000 1.609479e+000 -1.003593e+001 92 111 117
2.420637e+000 1.571346e+000 -1.007651e+001 73 82 89
-1.611896e+000 1.554201e+000 -9.552087e+000 205 97 94
2.401025e+000 1.348753e+000 -1.033971e+001 65 50 45
-1.001517e+000 6.260716e-001 -9.084681e+000 229 188 90
-2.873970e+000 4.256238e-001 -1.067281e+001 219 93 97
-2.763287e+000 1.415712e-001 -1.038631e+001 216 81 80
-2.763287e+000 1.415712e-001 -1.038631e+001 216 81 80
-2.178236e+000 -1.450233e-001 -9.614678e+000 213 91 90
-2.411285e+000 -7.161584e-001 -1.046415e+001 159 30 42
-1.310849e+000 -1.116823e+000 -9.254026e+000 118 35 38
-1.043884e+000 -1.195440e+000 -9.088826e+000 225 204 85
2.382218e+000 -1.020542e+000 -1.282994e+001 100 69 43
2.236033e+000 2.204119e+000 -1.012794e+001 117 65 68
1.337258e+000 2.120310e+000 -1.118272e+001 157 96 49
1.457793e+000 2.205789e+000 -1.105249e+001 228 187 80
-1.727750e+000 1.402974e+000 -9.793100e+000 140 35 41
-1.727750e+000 1.402974e+000 -9.793100e+000 140 35 41
-1.901632e+000 9.028477e-001 -9.539925e+000 216 99 96
-1.650404e+000 9.193180e-001 -9.376657e+000 216 88 87
-1.519839e+000 8.247418e-001 -9.285049e+000 126 33 41
-2.647863e-002 5.871835e-001 -9.392093e+000 54 52 42
-2.087161e+000 3.913126e-001 -9.436129e+000 138 31 39
-2.570631e+000 4.482897e-001 -1.008444e+001 152 28 39
-2.635722e+000 3.591549e-001 -1.025989e+001 217 91 87
-2.233583e+000 3.943770e-002 -9.575113e+000 225 102 102
-2.109151e+000 1.075280e-001 -9.603974e+000 130 30 34
-2.109151e+000 1.075280e-001 -9.603974e+000 130 30 34
-2.357461e+000 -6.217085e-002 -9.693873e+000 145 29 39
-2.614679e+000 1.078832e-002 -1.017318e+001 149 28 38
-2.113570e+000 -6.680656e-002 -9.440725e+000 126 29 35
-1.727495e+000 -2.203713e-001 -9.352618e+000 104 25 33
-1.991570e+000 -6.121059e-001 -9.820122e+000 102 29 36
-1.221708e+000 -7.389916e-001 -9.153266e+000 106 39 33
3.951632e-001 -8.203258e-001 -1.037654e+001 91 42 38
-2.141948e+000 -9.494869e-001 -1.004997e+001 131 36 46
-1.172201e+000 -1.171566e+000 -9.257353e+000 242 205 90
-2.009297e+000 -1.280864e+000 -1.027654e+001 206 97 95
-1.417454e+000 -1.211761e+000 -9.842398e+000 70 35 41
-1.417454e+000 -1.211761e+000 -9.842398e+000 70 35 41
7.179950e-001 -1.832524e+000 -1.211981e+001 141 65 67
1.576830e+000 2.369773e+000 -1.068147e+001 221 216 203
1.094915e+000 2.466796e+000 -1.166787e+001 129 63 57
-1.084947e+000 1.285132e+000 -8.968020e+000 254 216 95
-9.236023e-001 1.286762e+000 -9.052676e+000 146 89 42
1.141330e+000 2.028281e+000 -1.143586e+001 98 42 38
-2.039844e+000 1.078967e+000 -9.759209e+000 126 29 36
-1.514241e+000 8.061323e-001 -9.209853e+000 123 34 40
-1.817483e+000 5.472017e-001 -9.222806e+000 121 28 37
-1.691803e+000 4.064634e-001 -9.255442e+000 224 70 75
1.688415e+000 1.051368e+000 -1.173781e+001 96 47 47
-2.038692e+000 2.182924e-001 -9.426639e+000 210 95 92
-1.554593e+000 -5.264020e-002 -9.261990e+000 114 29 34
-1.742374e+000 -5.202458e-001 -9.144473e+000 213 64 64
-9.835865e-001 -3.946196e-001 -9.009039e+000 247 214 96
-1.041998e+000 -5.760051e-001 -9.041010e+000 144 87 28
-1.820030e+000 -7.055777e-001 -9.679176e+000 210 94 89
-1.820030e+000 -7.055777e-001 -9.679176e+000 210 94 89
-1.237731e+000 -9.873637e-001 -9.110344e+000 255 222 84
-1.497524e+000 -9.305176e-001 -9.534904e+000 209 90 86
-1.470480e+000 -1.353873e+000 -1.012283e+001 196 86 86
4.737038e-001 -1.346948e+000 -1.235924e+001 76 44 45
-1.194521e+000 2.256934e+000 -1.026077e+001 224 227 214
-1.662510e+000 1.061509e+000 -9.470284e+000 214 81 82
-1.678857e+000 1.137512e+000 -9.670197e+000 214 81 82
1.383871e+000 -4.457313e-001 -1.075908e+001 56 49 47
2.697076e+000 -8.286658e-001 -1.294126e+001 104 73 42
-8.642451e-002 -1.516923e+000 -1.098219e+001 109 57 58
2.934221e-001 1.223084e+000 -9.898560e+000 132 99 54
-1.848069e+000 -2.097004e-001 -9.395069e+000 110 29 31
-1.929305e-001 -4.349743e-001 -9.462109e+000 53 52 47
-1.140442e-001 -1.489677e+000 -1.099107e+001 106 56 57
2.742094e-001 -1.199094e+000 -1.182090e+001 229 225 214
3.113928e-001 -1.531410e+000 -1.245187e+001 231 224 214
5.806085e-001 -1.833113e+000 -1.261929e+001 114 51 55
5.806085e-001 -1.833113e+000 -1.261929e+001 114 51 55
-1.353602e+000 8.224791e-001 -9.048846e+000 126 45 41
-1.924753e+000 4.477598e-001 -9.325877e+000 120 29 36
-2.014906e-001 -8.032558e-001 -9.605839e+000 70 60 50
3.298067e+000 -1.116886e+000 -1.324041e+001 77 38 43
-9.770181e-001 1.053218e+000 -9.232449e+000 236 186 86
3.635222e+000 1.691521e+000 -1.270674e+001 222 213 204
-2.645382e+000 -1.206807e+000 -1.128852e+001 231 224 214
-2.658340e+000 6.985376e-001 -1.121158e+001 219 94 92
1.056677e+000 -1.530906e+000 -1.265341e+001 89 40 42
2.311775e+000 2.033459e+000 -1.099577e+001 77 48 50
2.314998e+000 2.034720e+000 -1.100093e+001 77 48 50
-2.208328e+001 -1.090321e+001 -4.909797e+001 61 60 59
-2.255588e+001 -1.449267e+001 -4.833772e+001 105 102 105
-2.515493e+001 -1.863008e+001 -5.056350e+001 64 85 114
-2.454798e+001 -1.768354e+001 -4.972579e+001 48 60 84
-2.043386e+001 -1.570785e+001 -4.465336e+001 67 65 68
-2.217959e+001 -1.851265e+001 -4.577954e+001 44 62 93
-2.287288e+001 -1.419988e+001 -4.826315e+001 58 61 76
-2.559910e+001 -1.723733e+001 -5.064411e+001 47 47 52
-2.247355e+001 -1.684190e+001 -4.656959e+001 81 95 116
-2.024601e+001 -1.572146e+001 -4.365028e+001 138 130 126
-2.433191e+001 -1.683169e+001 -4.924424e+001 134 132 143
-2.433191e+001 -1.683169e+001 -4.924424e+001 134 132 143
-2.573053e+001 -1.954286e+001 -5.105443e+001 38 47 87
-2.075238e+001 -1.856145e+001 -4.377114e+001 61 60 65
-2.064280e+001 -1.783614e+001 -4.381019e+001 169 160 161
-2.366470e+001 -1.858382e+001 -4.838683e+001 38 52 87
-2.317379e+001 -1.472852e+001 -4.990153e+001 94 91 91
-2.157435e+001 -1.318393e+001 -4.617744e+001 99 96 97
-2.315103e+001 -1.319375e+001 -4.951732e+001 56 56 58
-1.865021e+001 -1.736834e+001 -4.008264e+001 60 59 64
-1.822802e+001 -8.879946e+000 -5.284069e+001 35 33 36
-1.726004e+001 -1.789796e+001 -4.001967e+001 123 114 115
-1.742435e+000 3.277654e-001 -9.264038e+000 216 80 82
-1.729501e+000 2.891142e-001 -9.298600e+000 107 19 18
-1.242633e+001 7.378738e+000 -2.869967e+001 235 228 227
-1.238797e+001 7.319338e+000 -2.871546e+001 244 232 232
-1.301922e+001 7.149274e+000 -2.936985e+001 253 240 240
-1.251391e+001 6.731058e+000 -2.866843e+001 246 236 235
6.140946e+000 -1.853246e+000 -1.046447e+001 190 180 173
-1.464717e+000 -1.219993e+000 -1.002561e+001 69 30 31
-1.302626e+001 2.664998e+000 -2.979499e+001 223 213 212
-1.312146e+001 2.544308e+000 -2.987613e+001 230 218 218
-1.247881e+001 2.380286e+000 -2.961926e+001 191 184 180
-9.128287e-001 9.946571e-001 -8.927062e+000 224 181 79
-1.265656e+001 7.455689e+000 -2.945989e+001 226 217 215
1.902819e+000 4.441511e-001 -1.138810e+001 73 87 87
-1.241461e+001 5.772896e+000 -2.848239e+001 221 211 208
-1.194375e+001 5.034511e+000 -2.853169e+001 249 239 238
-9.687533e-001 -1.144538e+000 -8.963831e+000 154 109 44
-6.608162e+000 2.520723e+000 -2.789910e+001 79 80 84
-1.233020e+001 2.249500e+000 -2.971558e+001 121 113 110
-1.244858e+001 2.100912e+000 -2.981523e+001 126 116 114
-1.281263e+001 1.879951e+000 -3.032808e+001 122 114 111
-1.294895e+001 1.771841e+000 -3.045081e+001 118 110 107
-1.262620e+001 1.982488e+000 -3.006763e+001 123 116 110
5.088244e-001 -1.979426e+000 -1.274199e+001 162 85 80
2.375492e+000 1.654692e+000 -9.903650e+000 63 73 81
-1.696890e+000 1.502887e+000 -9.468249e+000 198 99 95
-1.486541e+000 -1.892091e-001 -9.202152e+000 194 86 79
-1.485742e+000 -1.858142e-001 -9.212759e+000 194 86 79
-1.235749e+001 4.940839e+000 -2.865123e+001 220 207 203
-1.181684e+001 4.941517e+000 -2.842497e+001 230 220 214
-1.252490e+001 2.499711e+000 -2.968412e+001 209 202 197
-1.436880e+000 -1.552939e+000 -1.063052e+001 176 159 151
-7.183777e+000 7.847495e-001 -2.850176e+001 72 76 79
-7.041296e+000 8.087468e-001 -2.889704e+001 66 66 71
2.289897e+000 9.965869e-001 -1.064957e+001 129 95 51
-1.088152e-001 6.839986e-003 -9.413986e+000 107 77 36
-2.292198e+000 -5.593319e-001 -9.837142e+000 212 95 97
5.319889e-001 -1.100282e+000 -1.241425e+001 94 44 46
-1.052044e+001 1.814360e+000 -2.800564e+001 217 195 163
1.720921e+000 1.908565e+000 -9.956273e+000 120 44 50
1.823352e+000 1.758742e+000 -9.947610e+000 98 44 49
2.495480e+000 1.364913e+000 -9.867259e+000 65 70 73
-8.762416e-001 8.566259e-001 -8.759946e+000 232 198 90
-1.818375e+000 1.238115e+000 -9.688503e+000 208 88 89
-1.815505e+000 1.219295e+000 -9.649071e+000 208 88 89
2.429844e+000 9.803107e-001 -1.044510e+001 155 125 71
-2.099091e+000 7.419342e-001 -9.515840e+000 129 28 38
-9.738328e-001 -7.097978e-001 -9.021383e+000 242 208 92
-9.738328e-001 -7.097978e-001 -9.021383e+000 242 208 92
-1.573677e+001 5.383501e+000 -3.331605e+001 191 179 168
-1.017841e+001 3.333405e+000 -2.683658e+001 244 226 200
-2.492762e+000 -9.270538e-001 -1.071173e+001 212 95 94
-1.531026e+001 4.020779e+000 -3.300461e+001 195 179 166
-1.531026e+001 4.020779e+000 -3.300461e+001 195 179 166
-1.388064e+001 3.357370e+000 -3.164983e+001 198 184 175
-1.393920e+001 3.403546e+000 -3.183319e+001 198 184 175
-1.431485e+000 9.964274e-001 -9.091104e+000 189 87 79
-1.038333e+000 1.097383e+000 -9.060481e+000 254 212 94
-8.653633e-001 1.048005e+000 -8.838376e+000 244 206 96
-8.902894e-001 6.156899e-001 -8.890458e+000 237 201 92
-2.142989e-001 5.946019e-001 -9.300742e+000 50 45 51
-1.430005e+001 7.366587e+000 -3.138218e+001 198 180 169
-1.439189e+001 7.447893e+000 -3.163709e+001 198 180 169
-1.712065e-001 -5.654828e-001 -9.519399e+000 78 81 56
-6.884283e+000 2.886520e+000 -2.774567e+001 48 47 52
-1.759151e+000 -1.206787e+000 -1.020055e+001 177 93 93
-1.296216e+001 2.798209e+000 -2.973595e+001 223 213 211
-1.005292e+001 1.934743e+000 -2.775863e+001 249 234 205
-6.833692e+000 2.282680e+000 -2.783794e+001 102 103 106
-6.686755e+000 1.802529e+000 -2.833889e+001 91 95 98
-1.480603e+000 -1.533550e+000 -1.026130e+001 92 43 46
-1.483586e+001 2.109073e+000 -3.176764e+001 125 122 124
2.037132e+000 2.201157e+000 -9.888794e+000 219 216 206
-2.088459e+000 4.142110e-001 -9.494715e+000 138 31 39
2.818145e+000 9.353096e-001 -1.226326e+001 97 37 42
-1.849286e+000 -5.847153e-001 -9.505265e+000 140 32 41
-1.706653e+000 -6.704675e-001 -9.422205e+000 206 86 81
-1.289715e+001 3.095939e+000 -2.963660e+001 188 176 178
-1.462804e+001 2.340131e+000 -3.172215e+001 199 188 186
-1.711446e+000 1.324203e+000 -9.522286e+000 136 36 42
-1.711446e+000 1.324203e+000 -9.522286e+000 136 36 42
-1.178271e+000 1.117252e+000 -9.087938e+000 134 41 41
2.216248e+000 1.201491e+000 -1.051639e+001 166 132 67
-1.514525e+000 8.067607e-001 -9.210783e+000 123 34 40
-9.741693e-001 3.500171e-001 -8.974040e+000 115 30 37
-2.037925e+000 2.097158e-001 -9.409619e+000 210 95 92
-2.090097e+000 4.912383e-002 -9.522094e+000 120 29 38
-1.750658e+000 -4.782895e-001 -9.284190e+000 213 64 64
-1.546552e+000 -3.060162e-001 -9.243535e+000 208 88 85
-1.865958e+000 -9.088507e-001 -9.706162e+000 124 33 40
-1.860894e+000 -1.388556e+000 -1.029735e+001 115 42 47
-1.517658e+001 3.550886e+000 -3.283092e+001 219 205 191
-1.383494e+001 1.151876e+000 -3.315052e+001 82 76 78
-9.065103e-001 9.533060e-001 -8.809789e+000 226 183 81
-1.492379e+001 8.550470e+000 -3.104572e+001 199 189 190
-1.390445e+001 4.187328e+000 -3.039335e+001 233 215 201
1.601111e+000 -1.585298e+000 -1.184395e+001 116 87 49
-1.880579e-001 -4.247151e-001 -9.499021e+000 53 52 47
-6.637908e+000 2.087789e+000 -2.748048e+001 98 99 103
-6.637908e+000 2.087789e+000 -2.748048e+001 98 99 103
-1.453980e+000 1.745879e+000 -9.689735e+000 119 43 51
-1.144395e+001 2.052609e+000 -2.815001e+001 80 75 79
-1.144395e+001 2.052609e+000 -2.815001e+001 80 75 79
-1.297054e+001 7.845898e+000 -3.020706e+001 242 235 232
-1.837775e+001 1.104510e+001 -3.684352e+001 36 33 40
-1.182831e+001 1.823796e+000 -2.952654e+001 63 59 67
-1.182831e+001 1.823796e+000 -2.952654e+001 63 59 67
4.119549e+000 1.127383e+000 -1.358070e+001 56 34 37
-1.317490e+001 4.712890e+000 -3.060587e+001 222 208 197
1.642331e+000 2.286411e+000 -1.047806e+001 216 180 172
1.853968e+000 1.886714e+000 -9.904068e+000 126 69 72
-1.290970e+001 2.778874e+000 -2.962975e+001 224 214 213
-1.302807e+001 2.666468e+000 -2.979581e+001 220 211 210
-1.421194e+001 1.589211e+000 -3.175638e+001 147 141 141
-1.782735e+000 -1.403441e+000 -1.023819e+001 128 55 62
2.480143e+000 1.674690e+000 -9.809500e+000 70 73 80
-3.244428e-001 -8.643617e-001 -9.616111e+000 52 51 47
-1.141783e+001 6.083337e+000 -2.834910e+001 103 95 93
-1.015050e+001 1.785378e+000 -2.818338e+001 188 164 128
-1.078167e+001 1.469900e+000 -2.860250e+001 93 88 85
-7.264977e+000 1.863488e+000 -2.825424e+001 45 44 48
-2.013292e+001 1.088851e+001 -3.835509e+001 67 62 68
-1.791795e+001 7.672601e+000 -3.700872e+001 166 149 142
-1.576380e+000 -1.479341e-001 -9.179966e+000 128 28 36
-1.087623e+001 9.566735e-001 -2.999365e+001 66 64 67
-1.256169e+001 1.017115e+000 -3.125071e+001 90 85 89
-1.256169e+001 1.017115e+000 -3.125071e+001 90 85 89
-3.091910e+001 3.496136e+001 -7.111446e+001 22 21 29
-1.476690e+000 6.101044e-001 -9.185940e+000 210 92 87
