ply
format ascii 1.0
element face 0
property list uchar int vertex_indices
element vertex 875
property float x
property float y
property float z
property uchar diffuse_red
property uchar diffuse_green
property uchar diffuse_blue
end_header
7.169197e+000 2.286847e+000 -9.270904e+000 255 249 242
-1.794574e+000 1.335058e+000 -9.394177e+000 135 39 41
-1.563616e+000 1.367624e+000 -9.279329e+000 136 45 45
6.674564e+000 2.013046e+000 -1.010443e+001 222 209 203
6.720616e+000 1.910019e+000 -1.007455e+001 219 206 200
7.071643e+000 1.927363e+000 -9.318992e+000 254 243 240
6.589185e+000 1.646955e+000 -1.018525e+001 209 196 190
6.751326e+000 1.437508e+000 -1.003284e+001 213 200 194
6.892863e+000 1.544567e+000 -9.641597e+000 225 212 206
7.188669e+000 1.560178e+000 -9.142676e+000 236 222 219
7.188669e+000 1.560178e+000 -9.142676e+000 236 222 219
-2.311754e+000 7.002527e-001 -9.563216e+000 223 96 95
-1.049696e+000 5.566430e-001 -8.888043e+000 204 104 74
-1.350987e-002 5.831929e-001 -9.219635e+000 119 89 47
2.254594e+000 1.037696e+000 -1.050843e+001 104 65 36
6.655604e+000 1.135851e+000 -1.022103e+001 200 187 179
7.007765e+000 1.080355e+000 -9.549543e+000 254 249 244
7.074444e+000 1.052819e+000 -9.380714e+000 235 220 214
-2.395268e+000 3.897299e-001 -9.437050e+000 227 186 185
9.822975e-001 5.650989e-001 -9.967497e+000 134 100 54
1.265200e+000 5.646135e-001 -1.027405e+001 113 81 48
6.982763e+000 8.761804e-001 -9.537721e+000 230 218 212
7.028706e+000 8.364212e-001 -9.405297e+000 228 215 209
7.081136e+000 8.539242e-001 -9.240580e+000 241 229 222
6.966681e+000 7.335197e-001 -9.594401e+000 227 214 208
7.194388e+000 8.508214e-001 -9.280370e+000 254 251 246
7.195903e+000 7.343581e-001 -9.219983e+000 254 252 245
7.195903e+000 7.343581e-001 -9.219983e+000 254 252 245
1.888322e+000 -2.231603e-001 -1.145416e+001 71 91 89
-1.206961e+000 -3.098752e-001 -9.141375e+000 178 86 72
6.887368e+000 -1.916571e-002 -9.687941e+000 224 212 204
6.868541e-001 -9.009825e-001 -1.010048e+001 131 106 59
6.658797e+000 -2.290945e+000 -1.009511e+001 217 204 196
7.087419e+000 3.687846e+000 -9.344889e+000 253 244 234
6.935618e+000 3.543960e+000 -9.657456e+000 234 223 214
7.030860e+000 3.512629e+000 -9.437873e+000 237 223 220
6.708668e+000 3.040054e+000 -1.005569e+001 235 222 216
5.780762e+000 2.865102e+000 -1.140830e+001 214 204 195
6.256166e+000 2.780524e+000 -1.064625e+001 218 205 197
-8.434946e-001 1.519366e+000 -8.861086e+000 147 106 59
2.192700e+000 1.688753e+000 -9.887123e+000 80 97 97
6.370172e+000 1.848309e+000 -1.065768e+001 196 184 178
-1.545518e+000 9.751067e-001 -8.976960e+000 195 83 77
7.037186e+000 1.429386e+000 -9.417446e+000 233 219 216
7.037186e+000 1.429386e+000 -9.417446e+000 233 219 216
7.207774e+000 1.597357e+000 -9.100002e+000 254 250 247
9.189776e-001 9.861562e-001 -9.932561e+000 131 97 52
6.574879e+000 1.285759e+000 -1.022842e+001 197 184 178
-2.784333e+000 3.002536e-002 -1.005151e+001 224 75 74
-3.475103e-001 -3.855682e-001 -9.408911e+000 108 90 42
-2.348853e+000 -7.527862e-001 -1.014827e+001 183 87 83
2.520382e-001 -8.897896e-001 -9.858229e+000 132 99 55
5.680863e-001 -8.898475e-001 -9.997766e+000 130 100 54
2.042760e+000 -1.330413e+000 -1.364243e+001 149 124 116
6.728226e+000 -3.045848e-001 -1.009074e+001 227 214 208
6.920138e+000 -7.564776e-001 -9.700554e+000 219 209 202
6.920138e+000 -7.564776e-001 -9.700554e+000 219 209 202
6.708227e+000 -1.451999e+000 -1.007885e+001 206 195 188
6.708227e+000 -1.451999e+000 -1.007885e+001 206 195 188
6.753558e+000 -1.697974e+000 -9.939337e+000 219 206 197
6.753558e+000 -1.697974e+000 -9.939337e+000 219 206 197
7.307071e+000 -1.649493e+000 -9.026680e+000 231 215 211
5.971498e+000 -3.378639e+000 -1.121709e+001 186 177 172
6.926317e+000 3.609270e+000 -9.675976e+000 250 242 235
2.956165e+000 2.374236e+000 -1.074432e+001 154 72 81
-1.094633e+000 1.981274e+000 -9.727811e+000 193 92 91
8.996415e-001 2.230342e+000 -1.161374e+001 161 76 75
8.996415e-001 2.230342e+000 -1.161374e+001 161 76 75
1.428358e+000 2.120032e+000 -1.114312e+001 210 165 76
1.368851e+000 1.458156e+000 -9.972072e+000 102 43 42
2.185625e+000 1.517981e+000 -9.822567e+000 74 109 105
2.552207e+000 1.634647e+000 -9.887040e+000 122 167 168
7.110038e+000 1.958982e+000 -9.290859e+000 238 224 220
3.501271e+000 6.833678e-001 -1.348842e+001 80 40 37
7.037798e+000 7.379493e-001 -9.515008e+000 225 214 208
-1.756170e+000 -2.647084e-001 -9.212998e+000 193 91 87
-1.817891e+000 -7.609459e-001 -9.417758e+000 196 90 88
1.748197e+000 -1.294585e+000 -1.277059e+001 160 138 125
1.212665e+000 1.931835e+000 -1.147489e+001 155 114 60
-1.754502e+000 1.553218e+000 -9.376881e+000 240 125 125
-1.412853e+000 1.544934e+000 -9.354005e+000 108 32 36
3.495356e+000 4.950669e-001 -1.277415e+001 69 47 49
-2.366680e+000 -2.795131e-001 -9.641124e+000 148 29 35
-2.502067e+000 -6.386565e-001 -9.867720e+000 191 78 77
2.500392e+000 -1.084641e+000 -1.307582e+001 95 67 46
-2.430584e+000 1.436899e+000 -1.015583e+001 171 30 38
-2.169161e+000 1.379790e+000 -9.729383e+000 168 29 40
-2.169161e+000 1.379790e+000 -9.729383e+000 168 29 40
1.488694e+000 1.724007e+000 -9.762651e+000 122 43 48
-2.789257e+000 1.148279e+000 -1.023321e+001 166 32 39
-2.945152e+000 6.266639e-001 -1.031404e+001 210 76 72
-2.823461e+000 4.843692e-001 -1.007843e+001 169 27 37
-2.282503e+000 6.607575e-001 -9.522812e+000 218 104 98
-2.217862e+000 -2.064517e-001 -9.370413e+000 186 70 70
-3.657578e-001 -4.566540e-001 -9.349567e+000 48 47 42
3.386584e+000 -2.747650e-001 -1.303514e+001 101 70 70
-1.162234e+000 -1.302494e+000 -9.127222e+000 230 204 96
-2.026951e+000 1.444596e+000 -9.555683e+000 222 91 88
-2.627654e+000 1.013088e+000 -9.742638e+000 215 70 72
-1.941730e+000 1.032388e+000 -9.638679e+000 158 30 36
-1.572462e+000 1.050194e+000 -9.044036e+000 202 92 81
-2.552997e+000 6.078443e-001 -9.887793e+000 159 32 37
-2.384687e+000 4.772553e-001 -9.405548e+000 230 154 162
-3.242362e+000 1.919001e-001 -1.074220e+001 222 63 71
-2.577871e+000 1.261592e-001 -9.899646e+000 164 28 40
-2.178858e+000 -4.510338e-001 -9.696116e+000 218 102 98
-1.592702e-001 -4.689804e-001 -9.497849e+000 47 49 43
-2.058705e+000 -9.071091e-001 -9.696523e+000 144 34 43
-1.653476e+000 -9.981154e-001 -9.499703e+000 212 101 94
-4.151554e-001 -1.128712e+000 -9.731460e+000 66 63 55
-8.624961e-001 1.033613e+000 -8.837881e+000 143 94 41
2.181659e+000 1.422671e+000 -1.003618e+001 56 49 45
-1.043722e+000 6.100861e-001 -8.891398e+000 236 198 84
-1.280675e+000 1.017495e-001 -9.023425e+000 89 26 32
-2.269428e+000 -3.417303e-001 -9.398828e+000 116 27 33
-1.775465e+000 -9.162516e-001 -9.423260e+000 109 31 39
1.425752e+000 -8.993548e-001 -1.140562e+001 92 44 44
2.061932e+000 -1.671886e+000 -1.265863e+001 88 45 47
2.084032e+000 -1.697360e+000 -1.280984e+001 88 45 47
-1.864746e+000 1.407908e+000 -9.443929e+000 136 33 40
-1.864746e+000 1.407908e+000 -9.443929e+000 136 33 40
2.241924e+000 1.213259e+000 -1.036241e+001 169 132 61
-1.291337e+000 3.499395e-001 -9.000849e+000 217 82 78
-1.104845e+000 3.298670e-001 -8.943330e+000 114 30 35
-1.103508e+000 3.315554e-001 -8.911966e+000 114 30 35
-2.289950e+000 -1.137727e-002 -9.404706e+000 127 26 37
-2.060640e+000 -2.379218e-001 -9.492122e+000 113 28 32
-1.721658e+000 -3.391139e-001 -9.243900e+000 203 83 79
-1.619876e+000 -1.800987e+000 -1.049422e+001 226 222 213
4.846391e-001 2.482971e+000 -1.186220e+001 157 56 59
4.759116e-001 1.939687e+000 -1.181004e+001 79 35 38
-1.553432e+000 -1.292802e-001 -9.130401e+000 115 27 30
-9.480124e-001 -7.212734e-001 -8.967629e+000 131 91 42
6.310928e-002 -9.859912e-001 -1.021154e+001 128 96 49
5.318219e-001 -1.966806e+000 -1.264468e+001 114 44 49
-2.338983e+000 9.880472e-001 -9.737556e+000 133 29 36
-1.981700e-001 6.422286e-001 -9.326638e+000 54 51 43
1.498566e+000 1.990566e+000 -1.124363e+001 201 153 69
2.803305e+000 2.233752e+000 -1.095309e+001 121 62 65
-1.161057e+000 1.379456e+000 -8.961986e+000 214 167 63
3.234992e+000 -1.666094e+000 -1.352390e+001 218 211 202
3.234992e+000 -1.666094e+000 -1.352390e+001 218 211 202
2.323869e+000 2.046344e+000 -1.040641e+001 91 46 51
8.702438e-001 5.315608e-001 -1.085523e+001 130 98 47
3.495300e+000 -3.323111e+000 -1.527443e+001 222 219 210
-1.295156e+001 7.196134e+000 -2.920225e+001 231 220 221
-1.461231e+000 1.855649e+000 -9.901967e+000 129 48 49
-2.683537e-001 2.089050e+000 -1.025076e+001 104 65 65
-1.756285e+000 1.499175e+000 -9.619115e+000 175 75 77
2.839777e+000 1.708315e+000 -9.986515e+000 150 171 168
9.670336e-001 7.960681e-001 -9.973337e+000 121 89 42
-2.200503e+000 -9.383075e-001 -9.667677e+000 224 88 95
-1.480327e+001 8.563111e+000 -3.081050e+001 186 174 174
-1.249068e+001 7.548717e+000 -2.913846e+001 215 205 202
2.928250e+000 2.380626e+000 -1.052359e+001 152 102 98
-1.763653e+000 1.311161e+000 -9.423223e+000 188 79 80
2.857024e+000 1.410590e+000 -9.992557e+000 227 215 208
-3.227798e+000 -2.223353e+000 -4.082782e+001 155 68 69
-2.603626e-001 1.374099e+000 -9.241601e+000 58 64 55
2.186692e+000 1.521164e+000 -9.886966e+000 78 112 109
-3.170070e+000 3.498885e-001 -1.063230e+001 72 31 34
-1.172156e+001 6.501125e+000 -2.877528e+001 102 97 95
6.908679e+000 -9.049133e-001 -9.827375e+000 229 218 212
5.930790e-001 9.865460e-001 -9.747906e+000 133 101 41
-6.470811e+000 2.878782e+000 -2.814247e+001 89 85 90
-1.537174e+001 1.972780e+000 -3.281788e+001 115 113 116
-6.750437e+000 1.594970e+000 -2.866421e+001 79 77 80
-6.553286e+000 1.732910e+000 -2.870630e+001 48 42 46
-6.696442e+000 1.368953e+000 -2.886570e+001 42 38 39
-6.924365e+000 1.198559e+000 -2.915760e+001 73 71 74
-1.876895e+001 1.007326e+001 -3.686910e+001 84 77 84
-1.434658e+001 8.133735e+000 -3.039031e+001 192 175 158
-1.903548e+001 9.529916e+000 -3.683095e+001 80 76 82
-1.360477e+001 7.255855e+000 -3.061541e+001 217 200 191
-1.504117e+001 6.485045e+000 -3.267490e+001 210 190 179
-1.355643e+001 4.283238e+000 -3.008029e+001 197 181 168
-6.353972e+000 2.335909e+000 -2.838732e+001 43 41 42
-7.052962e+000 9.817298e-001 -2.895351e+001 85 84 89
-6.804511e+000 9.381654e-001 -2.909326e+001 44 38 41
-2.033571e+001 1.070766e+001 -3.941088e+001 38 33 39
-1.528435e+001 4.462161e+000 -3.289390e+001 210 192 180
-7.321889e+000 2.635700e+000 -2.877066e+001 48 44 45
-6.504869e+000 2.005516e+000 -2.851036e+001 47 38 41
-1.464393e+001 8.761215e+000 -3.106367e+001 116 110 122
-2.174687e+000 -4.589547e-001 -9.686033e+000 214 94 90
-1.780069e+000 -8.851950e-001 -9.464508e+000 109 34 38
-1.211930e+000 -1.123610e+000 -9.041394e+000 145 87 41
-2.198428e+001 -1.289633e+001 -4.647906e+001 133 125 122
-1.390242e+001 9.143238e+000 -3.056342e+001 109 106 117
-1.492902e+001 4.791792e+000 -3.270295e+001 229 211 199
-1.282734e+000 3.508962e-001 -8.996384e+000 215 82 79
-1.907686e-001 6.278736e-001 -9.283200e+000 54 51 45
-7.291495e+000 8.708524e-001 -2.906325e+001 81 82 86
7.848603e-002 -1.016669e+000 -1.001497e+001 132 100 53
-2.432315e+000 1.938873e+000 -1.039323e+001 231 224 210
-1.217312e+001 4.629501e+000 -2.878949e+001 255 255 255
-1.660762e+000 2.002864e+000 -9.940992e+000 170 67 69
-1.660762e+000 2.002864e+000 -9.940992e+000 170 67 69
2.213286e+000 1.207083e+000 -1.074969e+001 150 115 53
-1.215801e+001 5.155660e+000 -2.881451e+001 251 241 238
-1.306039e+001 2.765472e+000 -2.986633e+001 244 233 232
-1.305742e+001 2.217937e+000 -3.055227e+001 186 177 170
-2.711312e-001 1.374525e+000 -9.270910e+000 56 58 55
-9.141777e+000 3.681972e+000 -2.665200e+001 125 114 109
-6.305266e+000 2.690050e+000 -2.831521e+001 43 37 39
-7.212948e+000 1.663841e+000 -2.851682e+001 91 90 95
-1.527558e+001 3.717273e+000 -3.292520e+001 218 199 184
-1.217082e+001 2.993955e+000 -2.912002e+001 185 177 174
-7.467032e+000 1.509137e+000 -2.860359e+001 41 36 38
-2.028162e-001 4.884220e-001 -9.279742e+000 117 94 44
-1.350042e+001 1.102166e+000 -3.235740e+001 94 88 90
-1.294415e+000 1.096531e-001 -8.964030e+000 89 26 32
-1.878119e+001 -1.708508e+001 -4.128819e+001 65 64 67
-1.878119e+001 -1.708508e+001 -4.128819e+001 65 64 67
-1.365753e+001 1.284689e+000 -3.132181e+001 46 44 48
-1.118701e+001 4.630490e+000 -2.852941e+001 78 74 78
-1.368970e+001 2.345009e+000 -3.058807e+001 219 207 207
-1.264818e+001 2.613699e+000 -2.978177e+001 191 181 180
-9.140910e+000 4.001786e+000 -2.630229e+001 84 82 86
-6.677141e+000 2.569282e+000 -2.801966e+001 83 79 83
4.526593e-001 2.679877e+000 -1.224021e+001 186 96 97
3.888160e-001 2.627114e+000 -1.210843e+001 227 208 194
-1.345051e+001 2.639576e+000 -3.016621e+001 243 231 232
-1.670036e+000 2.074084e+000 -9.966924e+000 219 103 104
2.404945e+000 1.723019e+000 -9.987970e+000 59 69 73
2.404945e+000 1.723019e+000 -9.987970e+000 59 69 73
1.362140e+000 2.416291e+000 -1.127053e+001 174 119 52
2.568205e+000 1.394327e+000 -9.882912e+000 53 56 57
1.172288e+000 4.290144e-001 -1.013184e+001 116 94 45
-1.712824e+000 1.081511e+000 -9.224669e+000 216 99 92
-1.823604e+000 5.997789e-001 -9.284875e+000 117 22 33
-3.622445e-001 -4.696002e-001 -9.398782e+000 42 42 39
1.656410e+000 2.248096e+000 -1.109393e+001 152 73 47
-1.849221e+000 1.177280e+000 -9.533196e+000 216 103 97
-1.638346e+000 6.245442e-001 -9.140114e+000 212 96 91
-1.715913e+000 -1.123945e-001 -9.189661e+000 113 25 31
-1.644501e+000 8.641755e-001 -9.085883e+000 116 26 34
5.018575e-001 2.500970e+000 -1.210151e+001 155 55 63
9.255316e-001 2.860207e+000 -1.275698e+001 229 222 213
-8.069834e-001 1.185649e+000 -9.083741e+000 127 85 37
5.022211e+000 -1.960050e+000 -1.205416e+001 119 114 111
6.942355e+000 3.351166e+000 -9.597252e+000 226 213 205
6.768980e+000 2.695222e+000 -1.001650e+001 219 211 200
7.149837e+000 2.397705e+000 -9.220418e+000 222 209 201
7.429956e+000 1.711450e+000 -8.658058e+000 230 216 207
6.539606e+000 2.659814e+000 -1.042404e+001 209 199 190
6.581297e+000 2.532223e+000 -1.013809e+001 217 207 199
6.904696e+000 1.820017e+000 -9.537690e+000 209 199 189
7.300975e+000 1.837386e+000 -8.880547e+000 226 212 204
7.290613e+000 1.677267e+000 -8.913323e+000 224 211 205
1.756654e+000 2.324890e+000 -9.981231e+000 215 200 187
5.892183e+000 2.623169e+000 -1.121303e+001 202 193 184
-1.320447e+000 1.559561e+000 -9.383648e+000 190 99 90
1.501682e+000 2.589490e+000 -1.147051e+001 218 194 97
1.206638e+000 2.584703e+000 -1.166351e+001 146 99 68
2.353968e+000 1.785688e+000 -9.873972e+000 93 95 97
2.467680e+000 1.681989e+000 -9.914129e+000 83 112 115
2.783866e+000 1.655199e+000 -9.941791e+000 153 171 168
2.510968e+000 1.453188e+000 -9.795374e+000 111 141 139
2.863329e+000 1.553538e+000 -1.009879e+001 149 169 165
2.769705e+000 1.468919e+000 -9.950486e+000 147 158 155
1.332421e+000 2.032643e+000 -1.152943e+001 191 144 74
-1.622118e+000 6.857529e-001 -9.164443e+000 199 95 93
1.017692e+000 9.575573e-001 -9.966110e+000 129 96 56
6.339880e+000 4.513253e-001 -1.049536e+001 149 141 135
6.908302e+000 3.273546e-003 -9.385529e+000 225 212 206
-2.558772e+000 6.787765e-001 -9.772183e+000 221 96 93
6.757716e+000 -4.631056e-001 -9.577071e+000 246 239 236
6.757716e+000 -4.631056e-001 -9.577071e+000 246 239 236
-3.573385e-001 -5.450595e-002 -9.241410e+000 105 74 28
-2.812686e-001 -5.142865e-002 -9.309333e+000 103 71 32
-1.159906e+000 -3.508313e-001 -9.091880e+000 209 114 91
-1.089000e+000 -3.721779e-001 -8.948769e+000 199 89 63
6.383245e+000 -8.397423e-001 -1.016908e+001 154 143 139
6.434230e+000 -1.334314e+000 -9.877653e+000 195 182 174
6.395281e+000 -1.439854e+000 -9.878542e+000 193 180 172
-2.366350e+000 -7.439944e-001 -1.014129e+001 168 81 80
-1.621972e+000 -1.013751e+000 -9.417387e+000 206 88 87
-1.620219e+000 -1.176935e+000 -9.526779e+000 177 55 59
6.598049e+000 -1.966344e+000 -9.669311e+000 229 219 213
6.610296e+000 -2.249087e+000 -9.543151e+000 251 246 240
-1.703709e+000 -1.392021e+000 -1.018281e+001 120 52 55
4.560071e-001 -1.268749e+000 -1.248220e+001 191 167 161
6.365686e+000 -2.804230e+000 -9.931748e+000 252 244 239
6.440216e+000 -3.150827e+000 -9.670209e+000 254 249 245
6.748291e+000 -3.323758e+000 -9.323296e+000 242 231 228
5.900061e+000 -3.571062e+000 -1.059511e+001 216 205 200
6.076036e+000 -3.743267e+000 -1.069570e+001 222 213 206
6.322038e+000 -3.461560e+000 -9.975448e+000 252 243 235
5.908558e+000 -4.000923e+000 -1.057769e+001 245 233 227
7.009759e+000 2.962495e+000 -9.493796e+000 226 213 205
6.856188e+000 2.594923e+000 -9.799355e+000 218 205 197
6.879874e+000 2.543804e+000 -9.683247e+000 218 205 198
6.848571e+000 2.385395e+000 -9.758540e+000 215 202 196
7.262457e+000 1.932221e+000 -8.949498e+000 225 211 205
6.550323e+000 2.159720e+000 -1.029013e+001 209 199 191
7.228627e+000 1.413806e+000 -8.960500e+000 218 205 197
-2.857905e-001 1.441051e+000 -9.296112e+000 94 98 77
2.569383e+000 1.601248e+000 -9.879525e+000 108 146 152
2.537645e+000 1.474263e+000 -9.692267e+000 103 99 103
6.466540e+000 1.594435e+000 -1.034862e+001 192 181 175
7.091283e+000 6.431631e-001 -9.096135e+000 227 217 210
-1.044773e+000 5.427227e-001 -8.897353e+000 194 89 73
-2.563297e+000 3.708012e-001 -9.932672e+000 218 94 96
6.596589e+000 -6.885540e-001 -9.852799e+000 193 180 172
-1.218122e+000 -3.099143e-001 -9.110643e+000 185 92 86
6.567939e+000 -1.161390e+000 -9.856746e+000 207 195 187
-2.103836e+000 -1.146558e+000 -9.756068e+000 195 85 85
-1.087203e+000 -1.179794e+000 -8.953384e+000 152 102 42
6.335391e+000 -1.867159e+000 -1.010508e+001 191 180 174
6.818753e+000 -3.296193e+000 -9.069056e+000 244 235 231
4.903245e+000 -4.592935e+000 -1.236934e+001 213 204 199
7.100061e+000 2.218768e+000 -9.300587e+000 220 208 204
6.305547e+000 1.976018e+000 -1.074032e+001 216 207 200
6.359594e+000 1.638039e+000 -1.042779e+001 185 176 169
2.426280e+000 1.340574e+000 -1.045211e+001 119 91 57
7.086172e+000 4.871654e-001 -9.128333e+000 232 219 215
-1.917020e+000 1.134157e+000 -9.592822e+000 207 94 91
-2.459959e+000 3.950572e-001 -9.445097e+000 214 81 80
-2.663078e+000 -5.684745e-001 -9.911047e+000 141 39 40
-1.496836e+000 -8.852053e-001 -9.455452e+000 153 73 67
6.649357e+000 1.992768e+000 -1.007800e+001 227 217 208
6.830523e+000 1.410712e+000 -9.556064e+000 206 196 187
1.803724e+000 1.961467e+000 -1.010062e+001 168 83 86
1.803724e+000 1.961467e+000 -1.010062e+001 168 83 86
2.206070e+000 1.757781e+000 -1.010949e+001 68 48 53
-1.094221e+000 1.028005e+000 -9.006205e+000 238 189 78
1.338713e+000 2.178799e+000 -1.160227e+001 203 154 76
1.458130e+000 1.613106e+000 -1.112385e+001 120 80 54
-2.718526e-001 5.266573e-001 -9.315700e+000 116 95 48
1.104884e+000 -9.276921e-001 -1.014128e+001 145 114 60
1.104884e+000 -9.276921e-001 -1.014128e+001 145 114 60
-1.530123e+000 -1.245775e+000 -9.574200e+000 185 92 89
-5.341341e-001 -1.340782e+000 -9.351232e+000 124 103 48
-4.566320e-001 -1.320492e+000 -9.349536e+000 53 55 52
2.804595e+000 1.422528e+000 -1.002548e+001 78 78 77
2.802037e+000 1.364799e+000 -1.015307e+001 221 214 204
-1.944268e+000 1.035707e+000 -9.538325e+000 163 38 41
-1.944268e+000 1.035707e+000 -9.538325e+000 163 38 41
-1.876622e+000 7.516158e-001 -9.283891e+000 132 29 37
1.570715e+000 1.148441e+000 -1.076982e+001 224 219 208
1.703023e+000 1.121204e+000 -1.095690e+001 78 42 39
1.812228e+000 5.169581e-001 -1.117007e+001 57 47 55
1.362845e+000 -4.275258e-001 -1.086894e+001 43 43 44
-3.141614e+000 -1.841696e-002 -1.080575e+001 212 90 90
-1.933985e+000 -8.884166e-001 -9.564026e+000 221 108 105
-2.339580e+000 -8.461668e-001 -1.007063e+001 158 28 40
-2.339580e+000 -8.461668e-001 -1.007063e+001 158 28 40
-1.960087e+000 -1.168877e+000 -9.626691e+000 208 100 98
-1.960087e+000 -1.168877e+000 -9.626691e+000 208 100 98
-1.632476e+000 -1.216696e+000 -9.569876e+000 86 36 37
1.676291e+000 2.247733e+000 -9.991641e+000 194 81 83
1.569801e+000 2.196778e+000 -1.065466e+001 156 83 52
1.927455e+000 1.856117e+000 -9.973122e+000 92 44 47
2.401361e+000 1.677347e+000 -1.004129e+001 92 111 117
2.507494e+000 1.638665e+000 -1.008375e+001 73 82 89
-1.766301e+000 1.612092e+000 -9.530069e+000 205 97 94
2.471953e+000 1.381976e+000 -1.030601e+001 65 50 45
-1.126722e+000 6.276047e-001 -9.029082e+000 229 188 90
-3.087642e+000 4.168461e-001 -1.070051e+001 219 93 97
-2.975733e+000 1.191619e-001 -1.040942e+001 216 81 80
-2.975733e+000 1.191619e-001 -1.040942e+001 216 81 80
-2.368962e+000 -1.880493e-001 -9.584266e+000 213 91 90
-2.605238e+000 -7.866723e-001 -1.048974e+001 159 30 42
-1.456720e+000 -1.212544e+000 -9.221973e+000 118 35 38
-1.175266e+000 -1.297497e+000 -9.044837e+000 225 204 85
2.457958e+000 -1.111179e+000 -1.290105e+001 100 69 43
2.316591e+000 2.313982e+000 -1.014900e+001 117 65 68
1.353229e+000 2.189477e+000 -1.117612e+001 157 96 49
1.489571e+000 2.289996e+000 -1.107015e+001 228 187 80
-1.886668e+000 1.451059e+000 -9.780810e+000 140 35 41
-1.886668e+000 1.451059e+000 -9.780810e+000 140 35 41
-2.073729e+000 9.146541e-001 -9.494839e+000 216 99 96
-1.810054e+000 9.414283e-001 -9.348365e+000 216 88 87
-1.673866e+000 8.248897e-001 -9.207266e+000 126 33 41
-9.376449e-002 5.861144e-001 -9.346270e+000 54 52 42
-2.271414e+000 3.795565e-001 -9.402121e+000 138 31 39
-2.775441e+000 4.432166e-001 -1.009367e+001 152 28 39
-2.842243e+000 3.488162e-001 -1.027644e+001 217 91 87
-2.426104e+000 1.124685e-002 -9.561196e+000 225 102 102
-2.294202e+000 8.306214e-002 -9.590111e+000 130 30 34
-2.294202e+000 8.306214e-002 -9.590111e+000 130 30 34
-2.553688e+000 -1.030983e-001 -9.662273e+000 145 29 39
-2.821768e+000 -1.888557e-002 -1.018719e+001 149 28 38
-2.302062e+000 -9.899310e-002 -9.424445e+000 126 29 35
-1.894925e+000 -2.722962e-001 -9.295343e+000 104 25 33
-2.169059e+000 -6.779476e-001 -9.815537e+000 102 29 36
-1.364171e+000 -8.166658e-001 -9.099310e+000 106 39 33
3.553503e-001 -9.015562e-001 -1.037231e+001 91 42 38
-2.325963e+000 -1.034075e+000 -1.005655e+001 131 36 46
-1.309459e+000 -1.271665e+000 -9.222266e+000 242 205 90
-2.184831e+000 -1.383856e+000 -1.029071e+001 206 97 95
-1.563387e+000 -1.312598e+000 -9.835470e+000 70 35 41
-1.563387e+000 -1.312598e+000 -9.835470e+000 70 35 41
7.074060e-001 -1.961801e+000 -1.221053e+001 141 65 67
1.610627e+000 2.465625e+000 -1.068328e+001 221 216 203
1.100150e+000 2.549977e+000 -1.167404e+001 129 63 57
-1.214923e+000 1.329585e+000 -8.918702e+000 254 216 95
-1.043537e+000 1.330400e+000 -9.004614e+000 146 89 42
1.148084e+000 2.091787e+000 -1.143916e+001 98 42 38
-2.217335e+000 1.109503e+000 -9.749518e+000 126 29 36
-1.668075e+000 8.139026e-001 -9.151144e+000 123 34 40
-1.988403e+000 5.441331e-001 -9.176780e+000 121 28 37
-1.856479e+000 3.931615e-001 -9.203724e+000 224 70 75
1.723676e+000 1.063606e+000 -1.175179e+001 96 47 47
-2.220550e+000 1.967805e-001 -9.392682e+000 210 95 92
-1.711614e+000 -8.960720e-002 -9.218957e+000 114 29 34
-1.912432e+000 -5.815453e-001 -9.108473e+000 213 64 64
-1.109634e+000 -4.544253e-001 -8.945098e+000 247 214 96
-1.172239e+000 -6.436136e-001 -8.986805e+000 144 87 28
-1.988443e+000 -7.826209e-001 -9.645478e+000 210 94 89
-1.988443e+000 -7.826209e-001 -9.645478e+000 210 94 89
-1.381081e+000 -1.080290e+000 -9.052405e+000 255 222 84
-1.650677e+000 -1.021708e+000 -9.488332e+000 209 90 86
-1.617848e+000 -1.465463e+000 -1.011021e+001 196 86 86
4.503455e-001 -1.452054e+000 -1.243836e+001 76 44 45
-1.317749e+000 2.347889e+000 -1.025634e+001 224 227 214
-1.817649e+000 1.071402e+000 -9.397344e+000 214 81 82
-1.836795e+000 1.171002e+000 -9.653131e+000 214 81 82
1.400238e+000 -5.078728e-001 -1.075831e+001 56 49 47
2.787341e+000 -9.108157e-001 -1.300631e+001 104 73 42
-1.492627e-001 -1.633972e+000 -1.101352e+001 109 57 58
2.477243e-001 1.255294e+000 -9.866841e+000 132 99 54
-2.021079e+000 -2.527658e-001 -9.370354e+000 110 29 31
-2.691878e-001 -4.922756e-001 -9.432215e+000 53 52 47
-1.782957e-001 -1.605181e+000 -1.102281e+001 106 56 57
2.369238e-001 -1.297592e+000 -1.187966e+001 229 225 214
2.801773e-001 -1.645377e+000 -1.253900e+001 231 224 214
5.645134e-001 -1.961181e+000 -1.272363e+001 114 51 55
5.645134e-001 -1.961181e+000 -1.272363e+001 114 51 55
-1.499324e+000 8.344394e-001 -8.990019e+000 126 45 41
-2.101570e+000 4.431411e-001 -9.298606e+000 120 29 36
-2.794553e-001 -8.861673e-001 -9.566500e+000 70 60 50
3.417194e+000 -1.213816e+000 -1.330918e+001 77 38 43
-1.099070e+000 1.082392e+000 -9.191633e+000 236 186 86
3.768784e+000 1.729058e+000 -1.273221e+001 222 213 204
-2.843359e+000 -1.302512e+000 -1.134966e+001 231 224 214
-2.854259e+000 7.049641e-001 -1.126223e+001 219 94 92
1.062985e+000 -1.638635e+000 -1.277332e+001 89 40 42
2.392660e+000 2.117547e+000 -1.102762e+001 77 48 50
2.394755e+000 2.117567e+000 -1.103012e+001 77 48 50
-2.164755e+001 -1.076719e+001 -4.834532e+001 61 60 59
-2.215016e+001 -1.433392e+001 -4.766054e+001 105 102 105
-2.458696e+001 -1.832765e+001 -4.963580e+001 64 85 114
-2.403563e+001 -1.742792e+001 -4.888868e+001 48 60 84
-2.018472e+001 -1.562310e+001 -4.421716e+001 67 65 68
-2.185264e+001 -1.835484e+001 -4.521946e+001 44 62 93
-2.246705e+001 -1.404576e+001 -4.759459e+001 58 61 76
-2.502883e+001 -1.696119e+001 -4.973235e+001 47 47 52
-2.212372e+001 -1.668789e+001 -4.598264e+001 81 95 116
-2.003414e+001 -1.566028e+001 -4.327629e+001 138 130 126
-2.384746e+001 -1.660436e+001 -4.845594e+001 134 132 143
-2.384746e+001 -1.660436e+001 -4.845594e+001 134 132 143
-2.512226e+001 -1.920189e+001 -5.006221e+001 38 47 87
-2.051339e+001 -1.846239e+001 -4.334008e+001 61 60 65
-2.041063e+001 -1.774804e+001 -4.339528e+001 169 160 161
-2.320991e+001 -1.834422e+001 -4.762620e+001 38 52 87
-2.269075e+001 -1.452599e+001 -4.908670e+001 94 91 91
-2.125365e+001 -1.307601e+001 -4.563203e+001 99 96 97
-2.266751e+001 -1.300767e+001 -4.869679e+001 56 56 58
-1.855452e+001 -1.738066e+001 -3.986834e+001 60 59 64
-1.770457e+001 -8.716604e+000 -5.172961e+001 35 33 36
-1.716694e+001 -1.791566e+001 -3.980327e+001 123 114 115
-1.908971e+000 3.103645e-001 -9.217505e+000 216 80 82
-1.895080e+000 2.697587e-001 -9.254239e+000 107 19 18
-1.264674e+001 7.553231e+000 -2.901829e+001 235 228 227
-1.258799e+001 7.468020e+000 -2.897185e+001 244 232 232
-1.319442e+001 7.269568e+000 -2.956610e+001 253 240 240
-1.273750e+001 6.888414e+000 -2.898525e+001 246 236 235
6.446487e+000 -1.988162e+000 -1.048077e+001 190 180 173
-1.612385e+000 -1.319702e+000 -1.003040e+001 69 30 31
-1.323661e+001 2.714054e+000 -3.008787e+001 223 213 212
-1.333181e+001 2.590041e+000 -3.016584e+001 230 218 218
-1.268085e+001 2.422142e+000 -2.990850e+001 191 184 180
-1.033601e+000 1.014644e+000 -8.858521e+000 224 181 79
-1.279387e+001 7.549252e+000 -2.956624e+001 226 217 215
1.965010e+000 4.472670e-001 -1.146110e+001 73 87 87
-1.264074e+001 5.905728e+000 -2.879644e+001 221 211 208
-1.215718e+001 5.146482e+000 -2.883837e+001 249 239 238
-1.098671e+000 -1.253610e+000 -8.879051e+000 154 109 44
-6.714648e+000 2.565413e+000 -2.818388e+001 79 80 84
-1.252688e+001 2.288073e+000 -3.000289e+001 121 113 110
-1.264968e+001 2.138136e+000 -3.010969e+001 126 116 114
-1.300421e+001 1.908532e+000 -3.060391e+001 122 114 111
-1.314105e+001 1.798234e+000 -3.072672e+001 118 110 107
-1.282274e+001 2.015597e+000 -3.035649e+001 123 116 110
4.912204e-001 -2.112010e+000 -1.286503e+001 162 85 80
2.456699e+000 1.721238e+000 -9.887174e+000 63 73 81
-1.856327e+000 1.546328e+000 -9.417487e+000 198 99 95
-1.640487e+000 -2.348476e-001 -9.155260e+000 194 86 79
-1.639800e+000 -2.332299e-001 -9.160583e+000 194 86 79
-1.257787e+001 5.047761e+000 -2.895104e+001 220 207 203
-1.203128e+001 5.053015e+000 -2.873642e+001 230 220 214
-1.272660e+001 2.544262e+000 -2.997051e+001 209 202 197
-1.577359e+000 -1.670175e+000 -1.066134e+001 176 159 151
-7.301126e+000 7.883759e-001 -2.881209e+001 72 76 79
-7.143048e+000 8.082311e-001 -2.916804e+001 66 66 71
2.370630e+000 1.029146e+000 -1.067980e+001 129 95 51
-1.806299e-001 -2.479182e-002 -9.379374e+000 107 77 36
-2.485620e+000 -6.249546e-001 -9.823710e+000 212 95 97
5.169735e-001 -1.183522e+000 -1.253570e+001 94 44 46
-1.072041e+001 1.846215e+000 -2.831373e+001 217 195 163
1.760515e+000 1.983721e+000 -9.931468e+000 120 44 50
1.868332e+000 1.825184e+000 -9.921789e+000 98 44 49
2.603942e+000 1.441309e+000 -9.905412e+000 65 70 73
-9.980387e-001 8.647134e-001 -8.672955e+000 232 198 90
-1.984325e+000 1.270411e+000 -9.656085e+000 208 88 89
-1.980321e+000 1.248678e+000 -9.611344e+000 208 88 89
2.528580e+000 1.025323e+000 -1.049651e+001 155 125 71
-2.281958e+000 7.450934e-001 -9.474590e+000 129 28 38
-1.101382e+000 -7.847211e-001 -8.968625e+000 242 208 92
-1.101382e+000 -7.847211e-001 -8.968625e+000 242 208 92
-1.587278e+001 5.455378e+000 -3.348362e+001 191 179 168
-1.038510e+001 3.401950e+000 -2.712540e+001 244 226 200
-2.688636e+000 -1.009377e+000 -1.074555e+001 212 95 94
-1.546556e+001 4.080694e+000 -3.321511e+001 195 179 166
-1.546556e+001 4.080694e+000 -3.321511e+001 195 179 166
-1.404753e+001 3.407869e+000 -3.187668e+001 198 184 175
-1.410553e+001 3.457416e+000 -3.206938e+001 198 184 175
-1.581114e+000 1.012467e+000 -9.022942e+000 189 87 79
-1.164709e+000 1.123106e+000 -8.998035e+000 254 212 94
-9.854641e-001 1.066719e+000 -8.754495e+000 244 206 96
-1.010215e+000 6.200162e-001 -8.832761e+000 237 201 92
-2.918834e-001 5.956214e-001 -9.256070e+000 50 45 51
-1.446575e+001 7.489155e+000 -3.159401e+001 198 180 169
-1.452729e+001 7.548269e+000 -3.178514e+001 198 180 169
-2.381180e-001 -6.186253e-001 -9.531993e+000 78 81 56
-7.004791e+000 2.941977e+000 -2.802536e+001 48 47 52
-1.923543e+000 -1.309958e+000 -1.019366e+001 177 93 93
-1.317024e+001 2.848965e+000 -3.002000e+001 223 213 211
-1.024594e+001 1.969015e+000 -2.806385e+001 249 234 205
-6.946441e+000 2.320547e+000 -2.811801e+001 102 103 106
-6.788758e+000 1.827353e+000 -2.861774e+001 91 95 98
-1.632402e+000 -1.655927e+000 -1.024904e+001 92 43 46
-1.504410e+001 2.148372e+000 -3.206591e+001 125 122 124
2.181972e+000 2.430268e+000 -1.012433e+001 219 216 206
-2.272770e+000 3.934211e-001 -9.438848e+000 138 31 39
2.937455e+000 9.674726e-001 -1.237331e+001 97 37 42
-2.022059e+000 -6.546535e-001 -9.468150e+000 140 32 41
-1.872615e+000 -7.480519e-001 -9.373011e+000 206 86 81
-1.310574e+001 3.153838e+000 -2.992468e+001 188 176 178
-1.482846e+001 2.382176e+000 -3.200910e+001 199 188 186
-1.871566e+000 1.358748e+000 -9.476447e+000 136 36 42
-1.871566e+000 1.358748e+000 -9.476447e+000 136 36 42
-1.312282e+000 1.150821e+000 -9.040669e+000 134 41 41
2.298396e+000 1.254536e+000 -1.055929e+001 166 132 67
-1.668872e+000 8.099053e-001 -9.144295e+000 123 34 40
-1.098252e+000 3.376010e-001 -8.919115e+000 115 30 37
-2.219774e+000 1.857532e-001 -9.371026e+000 210 95 92
-2.273354e+000 1.649271e-002 -9.490740e+000 120 29 38
-1.920759e+000 -5.409259e-001 -9.239966e+000 213 64 64
-1.703541e+000 -3.643396e-001 -9.183325e+000 208 88 85
-2.038909e+000 -9.973920e-001 -9.675924e+000 124 33 40
-2.029546e+000 -1.500478e+000 -1.029978e+001 115 42 47
-1.533879e+001 3.604228e+000 -3.305205e+001 219 205 191
-1.397905e+001 1.166624e+000 -3.339142e+001 82 76 78
-1.021616e+000 9.856780e-001 -8.767320e+000 226 183 81
-1.507187e+001 8.669635e+000 -3.119582e+001 199 189 190
-1.409494e+001 4.253243e+000 -3.062057e+001 233 215 201
1.642336e+000 -1.696415e+000 -1.194294e+001 116 87 49
-2.704187e-001 -4.953828e-001 -9.426249e+000 53 52 47
-6.762874e+000 2.135674e+000 -2.782664e+001 98 99 103
-6.756109e+000 2.126870e+000 -2.779029e+001 98 99 103
-1.597326e+000 1.803826e+000 -9.650290e+000 119 43 51
-1.166238e+001 2.091195e+000 -2.846020e+001 80 75 79
-1.166238e+001 2.091195e+000 -2.846020e+001 80 75 79
-1.312232e+001 7.970132e+000 -3.038575e+001 242 235 232
-1.832627e+001 1.105835e+001 -3.664565e+001 36 33 40
-1.201985e+001 1.852800e+000 -2.981551e+001 63 59 67
-1.201985e+001 1.852800e+000 -2.981551e+001 63 59 67
4.324524e+000 1.178658e+000 -1.376705e+001 56 34 37
-1.336029e+001 4.802238e+000 -3.087642e+001 222 208 197
1.678388e+000 2.377183e+000 -1.046983e+001 216 180 172
1.898679e+000 1.956367e+000 -9.868852e+000 126 69 72
-1.312062e+001 2.830483e+000 -2.992237e+001 224 214 213
-1.323829e+001 2.715620e+000 -3.008875e+001 220 211 210
-1.440678e+001 1.617363e+000 -3.204853e+001 147 141 141
-1.946916e+000 -1.512949e+000 -1.025383e+001 128 55 62
2.559424e+000 1.731949e+000 -9.766806e+000 70 73 80
-4.095010e-001 -9.463991e-001 -9.594357e+000 52 51 47
-1.165300e+001 6.253122e+000 -2.876390e+001 103 95 93
-1.033775e+001 1.815540e+000 -2.848567e+001 188 164 128
-1.097920e+001 1.494343e+000 -2.891334e+001 93 88 85
-7.329620e+000 1.837055e+000 -2.823338e+001 45 44 48
-2.007223e+001 1.091784e+001 -3.821065e+001 67 62 68
-1.782709e+001 7.651934e+000 -3.674075e+001 166 149 142
-1.736159e+000 -1.815343e-001 -9.162960e+000 128 28 36
-1.103796e+001 9.647686e-001 -3.026910e+001 66 64 67
-1.273077e+001 1.029424e+000 -3.152396e+001 90 85 89
-1.273077e+001 1.029424e+000 -3.152396e+001 90 85 89
-2.903431e+001 3.325900e+001 -6.757467e+001 22 21 29
-1.626331e+000 6.066906e-001 -9.127123e+000 210 92 87
-1.362601e+001 8.094048e+000 -2.976456e+001 139 134 141
-2.187194e-001 1.594411e+000 -9.610444e+000 94 96 74
1.480259e+000 2.148716e+000 -1.157196e+001 182 126 45
1.480259e+000 2.148716e+000 -1.157196e+001 182 126 45
-3.553703e-001 -4.431278e-002 -9.281688e+000 114 80 38
-1.628668e+000 -1.043450e+000 -9.322435e+000 201 89 80
-1.720902e+000 -1.640474e+000 -9.954550e+000 125 51 51
1.605327e+000 -1.361850e+000 -1.230405e+001 104 62 51
6.218700e+000 -3.775488e+000 -1.003797e+001 254 251 246
5.990738e+000 -3.964396e+000 -1.024975e+001 254 251 244
6.009567e+000 -4.043441e+000 -1.034542e+001 253 249 243
4.903234e+000 -3.955277e+000 -1.235208e+001 214 204 195
5.152596e+000 -4.340657e+000 -1.156460e+001 226 215 211
5.376120e+000 -4.384127e+000 -1.126525e+001 247 240 236
5.512946e+000 -4.342416e+000 -1.090614e+001 237 226 220
5.351775e+000 -5.224591e+000 -1.095753e+001 243 230 226
2.859325e+000 1.822628e+000 -1.013230e+001 152 169 167
-1.929280e+000 1.367853e+000 -9.795999e+000 217 103 103
6.079145e+000 -2.553575e+000 -1.042940e+001 198 186 180
-2.878620e+000 -5.060005e-001 -1.097401e+001 229 108 107
-2.132910e+000 -1.106027e+000 -9.747822e+000 159 48 54
-1.476945e+000 -1.341042e+000 -1.002131e+001 125 63 63
2.554826e+000 -2.326883e+000 -1.309807e+001 162 117 114
4.945644e+000 -2.910720e+000 -1.214365e+001 177 166 160
4.974709e+000 -3.643345e+000 -1.211943e+001 223 213 204
4.758863e+000 -5.590990e+000 -1.195565e+001 237 222 215
7.499986e+000 -1.090662e-002 -8.454149e+000 236 222 211
-1.751075e-001 1.473094e+000 -9.371754e+000 107 137 128
-1.510956e+000 1.396389e+000 -9.474813e+000 209 104 98
1.654056e+000 1.945448e+000 -1.119408e+001 125 77 39
-1.471680e+000 -1.027118e+000 -9.281569e+000 155 65 40
-2.036345e+000 -1.288701e+000 -1.022096e+001 156 76 77
-2.872955e+000 -1.004172e+000 -1.100968e+001 211 100 103
2.621562e+000 -1.405386e+000 -1.300746e+001 111 46 47
-2.342475e+000 -1.563250e+000 -1.075358e+001 204 102 102
4.694215e-001 -1.671746e+000 -1.259520e+001 126 65 67
-9.741232e-002 1.442169e+000 -9.395690e+000 106 144 125
2.321015e+000 1.687711e+000 -1.009381e+001 73 90 90
-2.162001e+000 2.123195e+000 -1.044159e+001 205 81 84
6.606168e+000 -1.083849e+000 -9.785813e+000 225 212 204
4.157290e+000 1.473384e+000 -1.347828e+001 84 44 45
-1.538260e+000 -1.265918e+000 -9.531743e+000 186 96 88
1.893297e+000 -1.001238e+000 -1.313238e+001 213 193 176
-1.508074e+000 -1.666073e+000 -1.019295e+001 182 99 93
4.581963e-001 -9.840122e-001 -1.260048e+001 82 44 46
3.213951e+000 -1.439053e+000 -1.324985e+001 130 90 89
3.719198e-001 -1.650606e+000 -1.243368e+001 229 230 221
5.941944e-001 -2.026693e+000 -1.211755e+001 151 66 70
3.685344e-001 -2.108735e+000 -1.258555e+001 237 228 218
1.933058e+000 1.890882e+000 -1.004327e+001 94 44 47
-1.221058e+000 1.938183e+000 -9.760672e+000 127 51 46
-2.084804e-001 1.523314e+000 -9.304545e+000 65 74 67
2.370644e+000 1.422480e+000 -1.049975e+001 67 53 52
2.895792e+000 1.556367e+000 -1.072791e+001 135 71 71
2.841953e+000 1.473894e+000 -1.010512e+001 77 91 88
-9.992863e-001 6.613054e-001 -8.898963e+000 239 207 94
-2.370911e+000 1.215593e+000 -9.818831e+000 195 93 91
1.720115e+000 1.396172e+000 -1.136278e+001 225 224 210
-2.793836e+000 8.454372e-001 -1.028329e+001 216 101 96
-2.789734e+000 8.229728e-001 -1.024039e+001 216 101 96
4.230381e-001 -8.705319e-001 -9.875121e+000 149 114 58
-2.855282e+000 -7.857203e-001 -1.078402e+001 180 40 47
-2.855282e+000 -7.857203e-001 -1.078402e+001 180 40 47
-1.960188e+000 -1.173014e+000 -9.611554e+000 224 110 107
-1.961405e+000 -1.184808e+000 -9.580315e+000 224 110 107
-2.280201e-001 1.267153e+000 -9.299726e+000 73 77 60
1.580130e+000 2.254051e+000 -1.143891e+001 213 171 76
2.673697e+000 1.433791e+000 -1.061113e+001 146 115 70
-1.519364e-001 7.541979e-001 -9.365245e+000 82 85 63
-2.403839e+000 1.791239e+000 -1.035563e+001 234 227 221
-1.124494e+000 6.409300e-001 -9.049346e+000 233 191 90
-2.168472e+000 6.798852e-001 -9.444031e+000 192 84 82
-1.179665e+000 -1.327447e+000 -8.962069e+000 241 210 87
-1.368420e+000 -1.375070e+000 -9.925104e+000 141 67 68
2.453600e+000 -1.113098e+000 -1.297268e+001 108 74 46
-2.682596e+000 -1.030121e+000 -1.068904e+001 221 99 97
-2.132446e+000 -1.564683e+000 -1.051391e+001 209 96 94
-1.458099e+000 -1.609869e+000 -1.004230e+001 113 39 47
-1.167611e+000 1.545549e+000 -9.290481e+000 254 224 102
-1.618347e+000 1.388259e+000 -9.467851e+000 110 40 46
-1.472334e+000 1.367979e+000 -9.318701e+000 202 90 88
-2.553829e+000 8.106392e-001 -9.884788e+000 209 91 88
-1.855393e+000 2.005626e-001 -9.252783e+000 98 32 37
-1.787340e+000 -6.723167e-001 -9.219850e+000 135 36 45
-2.186920e+000 -7.357202e-001 -9.652045e+000 105 29 38
-1.321543e+000 -1.283246e+000 -9.194907e+000 250 215 95
-1.278881e+000 -1.357765e+000 -9.394965e+000 107 42 38
-5.368273e-001 -1.306571e+000 -9.775467e+000 62 52 49
3.251538e+000 -1.361321e+000 -1.399110e+001 147 106 101
1.437616e+000 2.370739e+000 -1.151175e+001 162 102 47
1.418987e+000 2.076691e+000 -1.153509e+001 205 148 74
-1.909225e+000 8.141123e-001 -9.379524e+000 137 34 45
-1.668339e+000 4.285140e-001 -9.223514e+000 121 34 40
-1.090993e+000 7.363318e-002 -8.950670e+000 207 93 89
-1.139525e+000 -1.879716e-001 -9.039327e+000 124 35 41
-2.511733e+000 3.777280e-001 -9.631854e+000 146 34 46
-2.530861e+000 -2.641236e-001 -9.772834e+000 219 102 102
-1.749257e+000 -5.866377e-001 -9.226572e+000 123 35 41
1.423626e+000 -4.630136e-001 -1.082841e+001 50 52 53
-2.571936e+000 -4.741581e-001 -9.804693e+000 138 34 43
-2.203327e+000 -9.175181e-001 -9.774092e+000 218 76 80
-2.572250e+000 -1.051765e+000 -1.024705e+001 136 41 49
-2.312130e+000 -1.103984e+000 -9.834149e+000 138 36 41
-2.032566e+000 -1.514739e+000 -1.026354e+001 124 41 48
3.282042e-001 -1.229884e+000 -1.236001e+001 239 230 223
4.301756e-001 -1.463486e+000 -1.245781e+001 88 46 55
3.384450e-001 -1.697621e+000 -1.251166e+001 236 229 220
1.552724e+000 2.041509e+000 -1.118051e+001 189 136 51
-2.418726e+000 7.189582e-001 -9.774262e+000 218 77 79
-1.959902e+000 1.997728e-001 -9.269444e+000 104 32 40
-1.980521e+000 -3.098742e-001 -9.223745e+000 113 29 36
-2.103637e+000 -3.719578e-001 -9.363703e+000 112 30 36
2.656739e+000 -2.446828e+000 -1.363032e+001 236 229 219
2.792319e+000 1.103427e+000 -1.260181e+001 91 41 38
3.050704e+000 -7.889623e-001 -1.349742e+001 113 77 44
2.268761e+000 -1.653775e+000 -1.270501e+001 101 46 46
-1.323863e+000 -1.200736e+000 -8.964714e+000 206 162 36
-1.323863e+000 -1.200736e+000 -8.964714e+000 206 162 36
-1.264933e+000 -1.125388e+000 -8.982218e+000 169 111 42
-1.264933e+000 -1.125388e+000 -8.982218e+000 169 111 42
8.740561e-001 -1.899761e+000 -1.077760e+001 95 46 46
-2.399471e+001 -1.488466e+001 -4.835707e+001 83 79 81
-2.289515e+001 -2.019997e+001 -4.651972e+001 42 51 90
-2.289515e+001 -2.019997e+001 -4.651972e+001 42 51 90
-2.322233e+001 -2.124101e+001 -4.591909e+001 49 50 55
-1.872972e+001 9.446986e+000 -3.722861e+001 78 73 79
-2.780390e+001 2.996326e+001 -6.133283e+001 38 45 69
-2.387506e+001 3.978599e+001 -6.488701e+001 73 73 81
-1.906884e-001 1.574235e+000 -9.538654e+000 67 87 81
1.095150e+000 -4.919585e-001 -1.006850e+001 140 90 57
1.209274e+000 -4.309312e-001 -1.038666e+001 134 87 52
-2.702308e+000 -7.407248e-001 -9.963324e+000 182 46 56
-1.601441e+000 -1.779273e+000 -1.020018e+001 140 101 100
5.873503e+000 -3.200596e+000 -1.135679e+001 203 192 186
5.873503e+000 -3.200596e+000 -1.135679e+001 203 192 186
6.144986e+000 6.395467e+000 -1.246763e+001 201 192 183
7.047562e+000 -3.034664e-001 -9.863227e+000 226 213 205
1.793444e+000 1.620358e+000 -1.162649e+001 107 75 56
-2.750679e+000 7.908460e-001 -1.013010e+001 214 95 91
-2.508945e+000 -1.401332e-001 -9.370650e+000 213 72 77
6.778897e+000 -1.703689e+000 -9.977595e+000 255 251 242
6.778897e+000 -1.703689e+000 -9.977595e+000 255 251 242
-2.636690e+000 -7.380431e-001 -9.909391e+000 175 43 51
1.327833e+000 -2.215288e+000 -1.243370e+001 162 120 117
6.262484e+000 -3.975213e+000 -1.064299e+001 241 232 227
-1.175206e+001 4.923760e+000 -2.834939e+001 229 218 215
5.403829e+000 -5.186937e+000 -1.212628e+001 254 245 238
7.265710e+000 9.208644e-001 -9.735176e+000 247 237 228
1.497692e+000 1.484124e+000 -1.003763e+001 145 73 72
1.497692e+000 1.484124e+000 -1.003763e+001 145 73 72
1.580147e+000 1.501884e+000 -1.016659e+001 109 44 44
6.531194e+000 1.066698e-001 -1.084740e+001 148 137 133
6.531194e+000 1.066698e-001 -1.084740e+001 148 137 133
6.626624e+000 7.284023e-002 -1.067342e+001 165 154 149
6.613722e+000 -1.698866e+000 -1.047960e+001 231 218 210
-3.220578e+000 4.000219e-001 -1.032505e+001 232 81 87
6.371097e+000 -1.832020e+000 -1.054080e+001 186 173 167
-3.100275e+000 -4.963892e-001 -1.128318e+001 214 100 100
2.424916e+000 -2.253594e+000 -1.315865e+001 158 114 111
5.424023e+000 -4.093282e+000 -1.227785e+001 216 210 198
5.257454e+000 -4.643315e+000 -1.245357e+001 251 242 235
5.257454e+000 -4.643315e+000 -1.245357e+001 251 242 235
2.584605e+000 1.593437e+000 -1.003549e+001 104 149 144
2.867356e+000 1.502462e+000 -1.039693e+001 226 223 214
1.716472e+000 2.029041e+000 -1.121110e+001 200 153 74
-2.206249e+000 -2.340938e-001 -9.330302e+000 225 103 104
-3.124251e+000 -2.943253e-002 -1.075266e+001 215 95 94
-1.459287e+000 -9.816026e-001 -9.389047e+000 142 40 36
-1.536229e+000 -1.255380e+000 -9.553456e+000 186 96 88
-1.421043e+000 -1.268934e+000 -9.401319e+000 204 92 91
-1.421043e+000 -1.268934e+000 -9.401319e+000 204 92 91
-7.417237e-001 -1.312543e+000 -9.648459e+000 116 92 48
-3.882495e-001 -1.348225e+000 -9.558449e+000 84 86 71
-2.102849e+000 -1.235538e+000 -1.026936e+001 115 42 45
-2.911983e+000 -1.020427e+000 -1.113239e+001 216 89 90
-2.389748e+000 -1.431158e+000 -1.129523e+001 217 92 96
-2.289050e+000 -1.492875e+000 -1.160843e+001 213 98 99
-1.061773e+000 -1.557758e+000 -1.229773e+001 166 123 117
1.457881e+000 1.559655e+000 -9.991680e+000 114 50 49
2.557572e+000 1.726087e+000 -1.021426e+001 73 81 88
-3.067553e+000 3.556422e-001 -1.061033e+001 232 110 106
-1.691945e+000 -7.600105e-001 -9.176091e+000 210 97 96
-9.474628e-001 -1.313777e+000 -9.468420e+000 126 95 48
2.424129e+000 -1.139472e+000 -1.256995e+001 87 51 39
-2.988368e+000 -1.005621e+000 -1.093506e+001 232 230 222
-2.305493e+000 -1.336413e+000 -1.060671e+001 155 41 49
-9.027265e-001 -1.705077e+000 -1.029304e+001 106 53 52
-1.394290e+001 8.015625e+000 -3.110138e+001 218 205 197
-1.526014e+001 7.298695e+000 -3.267815e+001 218 199 185
-1.851313e-001 1.391867e+000 -9.481119e+000 73 77 60
1.595820e+000 2.180923e+000 -1.106832e+001 150 80 48
-2.580045e-002 9.570096e-001 -9.440543e+000 67 63 50
-9.510440e-001 5.022670e-001 -8.818285e+000 138 53 46
-1.013874e-001 5.474154e-001 -9.304201e+000 60 60 58
-2.574090e+000 7.279054e-001 -9.735573e+000 209 91 89
3.139051e+000 7.223567e-001 -1.265518e+001 107 73 46
-1.762030e-001 -1.017450e+000 -9.536128e+000 69 66 51
1.055820e+000 -8.087198e-001 -1.091404e+001 76 35 37
-1.887740e-001 -1.312874e+000 -1.024041e+001 97 43 43
-2.118623e+000 -1.521468e+000 -1.062423e+001 209 96 94
-6.309441e-001 -1.747583e+000 -1.059037e+001 141 106 102
9.423033e-001 -2.258524e+000 -1.210881e+001 160 114 111
-1.345292e+001 3.984674e+000 -3.007153e+001 199 182 172
-2.085596e+000 8.398000e-001 -9.377131e+000 219 101 100
-1.700700e+000 6.876169e-001 -8.992273e+000 133 34 41
2.274388e+000 5.063629e-001 -1.172785e+001 83 77 72
3.795310e+000 1.651739e+000 -1.375370e+001 100 51 51
-2.679176e+000 5.668785e-001 -9.836767e+000 217 82 84
-2.687831e+000 -6.515232e-001 -9.959000e+000 215 104 99
-1.516189e-001 -1.381383e+000 -9.783352e+000 160 137 92
-2.949707e+000 -5.850608e-001 -1.037472e+001 220 99 94
-2.795093e+000 -5.696698e-001 -1.060812e+001 154 39 45
-2.159358e+000 -1.177316e+000 -9.803620e+000 211 89 84
2.422676e-001 -9.844569e-001 -1.176030e+001 140 92 92
2.981955e+000 -1.537875e+000 -1.386698e+001 227 220 210
3.997622e-001 -1.916454e+000 -1.259535e+001 153 77 79
8.548785e-001 -2.092434e+000 -1.219032e+001 104 48 51
1.723666e+000 -2.208536e+000 -1.281601e+001 177 154 122
-1.036722e+000 1.338984e+000 -8.926986e+000 145 88 50
-2.158298e+000 1.991276e+000 -1.037465e+001 211 95 96
-1.818690e+000 9.584994e-001 -9.228268e+000 213 84 87
-1.293939e+000 3.097484e-001 -8.924821e+000 206 80 79
1.450462e+000 7.137814e-001 -1.046715e+001 230 224 212
-1.102157e+000 3.711681e-002 -8.889936e+000 207 93 89
-1.323002e+000 -1.415082e-001 -8.983679e+000 219 79 79
-2.514082e+000 3.601553e-001 -9.601815e+000 146 34 46
-1.891775e+000 -9.584520e-002 -9.181719e+000 219 73 76
-1.710607e+000 -1.025231e-001 -9.192510e+000 120 35 40
-1.708360e+000 -4.012144e-001 -9.118088e+000 208 91 86
-1.330763e+000 -5.517889e-001 -9.116096e+000 255 228 89
-2.738079e+000 2.043173e-001 -1.005758e+001 228 83 84
-2.738079e+000 2.043173e-001 -1.005758e+001 228 83 84
-2.806350e+000 -7.765953e-002 -1.002498e+001 153 36 45
-2.806350e+000 -7.765953e-002 -1.002498e+001 153 36 45
-2.551350e+000 -1.218942e-001 -9.626080e+000 151 32 41
-2.846056e+000 -5.459732e-001 -1.006149e+001 146 37 46
4.441603e-001 -9.018584e-001 -1.048491e+001 107 46 44
7.399847e-001 -8.340112e-001 -1.077338e+001 124 90 46
2.498276e+000 -3.914307e-001 -1.247843e+001 66 32 37
-2.740418e+000 -7.801448e-001 -1.057348e+001 224 91 93
-2.327324e+000 -1.193422e+000 -1.047449e+001 123 45 48
-2.327324e+000 -1.193422e+000 -1.047449e+001 123 45 48
-1.473185e+001 7.946142e+000 -3.093153e+001 180 165 158
-6.705454e+000 2.914222e+000 -2.803797e+001 100 101 107
2.918354e+000 1.595053e+000 -9.941125e+000 225 221 210
-1.521481e+000 2.281331e+000 -1.038465e+001 121 51 55
1.756278e+000 1.626712e+000 -1.057492e+001 94 42 44
-2.502847e-001 -4.520785e-001 -9.506535e+000 62 54 52
-2.256146e+000 -7.181877e-001 -9.695672e+000 113 30 40
-1.472148e+001 7.250383e+000 -3.110673e+001 232 216 201
2.267165e+000 1.214376e+000 -1.187759e+001 226 227 216
-1.120830e+000 -1.529810e+000 -1.196832e+001 145 110 108
-1.166576e+001 4.430411e+000 -2.788288e+001 254 254 254
-7.763318e-001 1.385411e+000 -8.941789e+000 138 100 63
2.191059e+000 1.209454e+000 -1.110585e+001 94 44 47
5.682968e-001 -1.982848e+000 -1.261321e+001 117 54 60
2.196072e+000 -1.012605e+000 -1.263208e+001 72 36 40
-3.255077e+000 -5.646158e-001 -1.181402e+001 238 231 221
3.769798e+000 -1.624402e+000 -1.459910e+001 198 185 179
4.711784e+000 -2.676546e+000 -1.411683e+001 175 168 162
-1.322678e-001 1.276497e+000 -9.554293e+000 78 79 65
3.493204e+000 1.554888e+000 -1.256236e+001 234 226 215
1.429860e+000 -2.353901e+000 -1.382347e+001 235 227 219
2.437704e+000 -3.041941e+000 -1.333417e+001 237 228 219
-1.525070e+001 5.408541e+000 -3.258124e+001 155 145 141
-1.117941e-001 -6.497236e-001 -9.244637e+000 124 96 48
-2.394190e-001 4.990705e-001 -9.320261e+000 117 94 46
-2.815630e-001 6.270191e-001 -9.297566e+000 54 55 50
-1.908982e+000 8.136093e-001 -9.378651e+000 136 30 40
-1.420566e+000 -5.647549e-001 3.855072e+000 0 255 0
-1.417599e+000 -5.640356e-001 3.805166e+000 255 255 0
-7.257330e-001 7.229127e-001 3.465274e+000 255 0 0
-7.231758e-001 7.190867e-001 3.415487e+000 255 255 0
-1.383303e-001 1.557841e+000 3.625948e+000 0 255 0
-1.356505e-001 1.552934e+000 3.576261e+000 255 255 0
-1.954623e+000 -4.252820e+000 3.647859e+000 255 0 0
-1.949543e+000 -4.240000e+000 3.599798e+000 255 255 0
-1.654935e+000 -3.005721e+000 3.319662e+000 0 255 0
-1.649954e+000 -2.996895e+000 3.270700e+000 255 255 0
-9.705936e-001 3.610768e+000 3.245269e+000 255 0 0
-9.673159e-001 3.600762e+000 3.196391e+000 255 255 0
-3.008988e+000 -6.696680e+000 3.168322e+000 0 255 0
-3.002381e+000 -6.675121e+000 3.123695e+000 255 255 0
