ply
format ascii 1.0
element face 0
property list uchar int vertex_indices
element vertex 875
property float x
property float y
property float z
property uchar diffuse_red
property uchar diffuse_green
property uchar diffuse_blue
end_header
2.332888e-001 1.158543e+000 -1.001303e+001 132 99 54
-1.670838e+000 -1.028166e-001 -9.560616e+000 110 29 31
-2.006305e-001 -3.104084e-001 -9.622673e+000 53 52 47
-1.425592e-001 -1.253658e+000 -1.097522e+001 106 56 57
2.001786e-001 -1.000169e+000 -1.171809e+001 229 225 214
2.303577e-001 -1.297992e+000 -1.228648e+001 231 224 214
4.688124e-001 -1.568287e+000 -1.243897e+001 114 51 55
4.688124e-001 -1.568287e+000 -1.243897e+001 114 51 55
-1.226476e+000 8.108005e-001 -9.249867e+000 126 45 41
-1.736952e+000 4.834894e-001 -9.505951e+000 120 29 36
-2.107961e-001 -6.405326e-001 -9.737818e+000 70 60 50
2.885936e+000 -9.468246e-001 -1.298332e+001 77 38 43
-8.919634e-001 1.018511e+000 -9.428438e+000 236 186 86
3.195966e+000 1.552082e+000 -1.250973e+001 222 213 204
-2.394539e+000 -9.948047e-001 -1.123311e+001 231 224 214
-2.400547e+000 7.033436e-001 -1.118072e+001 219 94 92
9.063958e-001 -1.267533e+000 -1.261951e+001 89 40 42
1.979743e+000 1.778184e+000 -1.083004e+001 77 48 50
1.982278e+000 1.772748e+000 -1.082408e+001 77 48 50
-2.139757e+001 -1.036458e+001 -4.774614e+001 61 60 59
-2.120580e+001 -1.334305e+001 -4.548767e+001 105 102 105
-2.470371e+001 -1.801251e+001 -4.971793e+001 64 85 114
-2.430600e+001 -1.725629e+001 -4.933467e+001 48 60 84
-1.974238e+001 -1.492239e+001 -4.336198e+001 67 65 68
-2.182326e+001 -1.793274e+001 -4.521836e+001 44 62 93
-2.219677e+001 -1.354477e+001 -4.698015e+001 58 61 76
-2.547440e+001 -1.689863e+001 -5.049571e+001 47 47 52
-2.219053e+001 -1.637798e+001 -4.616305e+001 81 95 116
-1.959032e+001 -1.495154e+001 -4.246399e+001 138 130 126
-2.408736e+001 -1.641576e+001 -4.887481e+001 134 132 143
-2.408736e+001 -1.641576e+001 -4.887481e+001 134 132 143
-2.570930e+001 -1.925154e+001 -5.105064e+001 38 47 87
-2.060920e+001 -1.816394e+001 -4.367060e+001 61 60 65
-2.038837e+001 -1.733348e+001 -4.342511e+001 169 160 161
-2.292182e+001 -1.771131e+001 -4.701893e+001 38 52 87
-2.244511e+001 -1.402140e+001 -4.844476e+001 94 91 91
-2.087484e+001 -1.253490e+001 -4.489489e+001 99 96 97
-2.252951e+001 -1.262009e+001 -4.833250e+001 56 56 58
-1.855189e+001 -1.704105e+001 -4.016858e+001 60 59 64
-1.774400e+001 -8.478108e+000 -5.150035e+001 35 33 36
-1.680717e+001 -1.714166e+001 -3.926696e+001 123 114 115
-1.574573e+000 3.722607e-001 -9.439663e+000 216 80 82
-1.563388e+000 3.379016e-001 -9.470574e+000 107 19 18
-1.154596e+001 6.907357e+000 -2.747612e+001 235 228 227
-1.148561e+001 6.823583e+000 -2.741509e+001 244 232 232
-1.206066e+001 6.655296e+000 -2.797654e+001 253 240 240
-1.162220e+001 6.303487e+000 -2.742695e+001 246 236 235
5.436937e+000 -1.606343e+000 -1.050799e+001 190 180 173
-1.336874e+000 -1.004163e+000 -1.011697e+001 69 30 31
-1.211251e+001 2.541725e+000 -2.842554e+001 223 213 212
-1.220156e+001 2.429382e+000 -2.849597e+001 230 218 218
-1.159391e+001 2.274142e+000 -2.824120e+001 191 184 180
-8.342273e-001 9.625564e-001 -9.146554e+000 224 181 79
-1.169854e+001 6.908167e+000 -2.798664e+001 226 217 215
1.666693e+000 4.683573e-001 -1.138103e+001 73 87 87
-1.151929e+001 5.409662e+000 -2.722162e+001 221 211 208
-1.107621e+001 4.720953e+000 -2.724597e+001 249 239 238
-8.886775e-001 -9.313511e-001 -9.176959e+000 154 109 44
-6.120409e+000 2.361777e+000 -2.652421e+001 79 80 84
-1.145736e+001 2.153081e+000 -2.833143e+001 121 113 110
-1.157220e+001 2.017575e+000 -2.842921e+001 126 116 114
-1.192130e+001 1.813998e+000 -2.891481e+001 122 114 111
-1.205247e+001 1.715020e+000 -2.903413e+001 118 110 107
-1.174479e+001 1.910010e+000 -2.867662e+001 123 116 110
4.054317e-001 -1.698199e+000 -1.255310e+001 162 85 80
2.095413e+000 1.547263e+000 -1.004982e+001 63 73 81
-1.532094e+000 1.411930e+000 -9.616235e+000 198 99 95
-1.348254e+000 -8.717401e-002 -9.383753e+000 194 86 79
-1.347607e+000 -8.719046e-002 -9.384585e+000 194 86 79
-1.145961e+001 4.631578e+000 -2.733900e+001 220 207 203
-1.095604e+001 4.633920e+000 -2.714310e+001 230 220 214
-1.163709e+001 2.384125e+000 -2.830021e+001 209 202 197
-1.315754e+000 -1.304081e+000 -1.064792e+001 176 159 151
-6.665877e+000 7.813284e-001 -2.710399e+001 72 76 79
-6.537538e+000 8.008663e-001 -2.746462e+001 66 66 71
2.015411e+000 9.609195e-001 -1.071951e+001 129 95 51
-1.250826e-001 8.359763e-002 -9.585813e+000 107 77 36
-2.067929e+000 -4.169312e-001 -9.937793e+000 212 95 97
4.326100e-001 -9.098423e-001 -1.228167e+001 94 44 46
-9.737881e+000 1.739826e+000 -2.666974e+001 217 195 163
1.505853e+000 1.765716e+000 -1.007499e+001 120 44 50
1.595976e+000 1.631277e+000 -1.006558e+001 98 44 49
2.218822e+000 1.310222e+000 -1.006397e+001 65 70 73
-8.025343e-001 8.334007e-001 -8.981075e+000 232 198 90
-1.646520e+000 1.170735e+000 -9.797468e+000 208 88 89
-1.639067e+000 1.161422e+000 -9.779036e+000 208 88 89
2.144424e+000 9.481224e-001 -1.054383e+001 155 125 71
-1.891257e+000 7.378583e-001 -9.655673e+000 129 28 38
-8.912580e-001 -5.436838e-001 -9.245872e+000 242 208 92
-8.912580e-001 -5.436838e-001 -9.245872e+000 242 208 92
-1.472461e+001 5.084267e+000 -3.183013e+001 191 179 168
-9.389145e+000 3.122116e+000 -2.554480e+001 244 226 200
-2.252897e+000 -7.449558e-001 -1.071877e+001 212 95 94
-1.432747e+001 3.819186e+000 -3.154035e+001 195 179 166
-1.432747e+001 3.819186e+000 -3.154035e+001 195 179 166
-1.294022e+001 3.183834e+000 -3.018424e+001 198 184 175
-1.300503e+001 3.231923e+000 -3.038013e+001 198 184 175
-1.295837e+000 9.603468e-001 -9.277126e+000 189 87 79
-9.458182e-001 1.054287e+000 -9.264575e+000 254 212 94
-7.926870e-001 1.003144e+000 -9.051775e+000 244 206 96
-8.158459e-001 6.260419e-001 -9.111544e+000 237 201 92
-2.162313e-001 6.060957e-001 -9.484826e+000 50 45 51
-1.333372e+001 6.908091e+000 -2.998941e+001 198 180 169
-1.339672e+001 6.963230e+000 -3.016977e+001 198 180 169
-1.751948e-001 -4.156317e-001 -9.711454e+000 78 81 56
-6.374456e+000 2.694795e+000 -2.636016e+001 48 47 52
-1.599681e+000 -9.887195e-001 -1.028193e+001 177 93 93
-1.204603e+001 2.661599e+000 -2.835495e+001 223 213 211
-9.298265e+000 1.846660e+000 -2.642690e+001 249 234 205
-6.319860e+000 2.138336e+000 -2.642429e+001 102 103 106
-6.200272e+000 1.706885e+000 -2.693550e+001 91 95 98
-1.356020e+000 -1.287625e+000 -1.030402e+001 92 43 46
-1.388074e+001 2.048327e+000 -3.038742e+001 125 122 124
1.865692e+000 2.142236e+000 -1.024832e+001 219 216 206
-1.884518e+000 4.437159e-001 -9.626720e+000 138 31 39
2.485138e+000 9.035675e-001 -1.217437e+001 97 37 42
-1.669526e+000 -4.032346e-001 -9.728097e+000 140 32 41
-1.547183e+000 -4.997963e-001 -9.602612e+000 206 86 81
-1.198447e+001 2.936802e+000 -2.826851e+001 188 176 178
-1.367805e+001 2.260123e+000 -3.033225e+001 199 188 186
-1.545711e+000 1.253724e+000 -9.665161e+000 136 36 42
-1.545711e+000 1.253724e+000 -9.665161e+000 136 36 42
-1.070757e+000 1.078723e+000 -9.300786e+000 134 41 41
1.965836e+000 1.177478e+000 -1.065574e+001 166 132 67
-1.371897e+000 7.930237e-001 -9.384499e+000 123 34 40
-8.849049e-001 3.925560e-001 -9.195991e+000 115 30 37
-1.837902e+000 2.679869e-001 -9.566457e+000 210 95 92
-1.884236e+000 1.113457e-001 -9.633298e+000 120 29 38
-1.585247e+000 -3.391718e-001 -9.462037e+000 213 64 64
-1.395438e+000 -2.233304e-001 -9.356609e+000 208 88 85
-1.687478e+000 -7.355653e-001 -9.808116e+000 124 33 40
-1.691021e+000 -1.156002e+000 -1.034606e+001 115 42 47
-1.420492e+001 3.383247e+000 -3.138027e+001 219 205 191
-1.296163e+001 1.152998e+000 -3.168734e+001 82 76 78
-8.152103e-001 9.519186e-001 -9.096388e+000 226 183 81
-1.397265e+001 8.081323e+000 -2.986286e+001 199 189 190
-1.292616e+001 3.942254e+000 -2.896623e+001 233 215 201
1.387408e+000 -1.343573e+000 -1.177436e+001 116 87 49
-1.978890e-001 -3.130193e-001 -9.623805e+000 53 52 47
-6.153147e+000 1.976568e+000 -2.616722e+001 98 99 103
-6.145998e+000 1.968913e+000 -2.613464e+001 98 99 103
-1.316859e+000 1.628450e+000 -9.818975e+000 119 43 51
-1.059894e+001 1.963749e+000 -2.681996e+001 80 75 79
-1.059894e+001 1.963749e+000 -2.681996e+001 80 75 79
-1.203573e+001 7.306377e+000 -2.878935e+001 242 235 232
-1.725842e+001 1.037490e+001 -3.517719e+001 36 33 40
-1.098546e+001 1.757819e+000 -2.814097e+001 63 59 67
-1.098546e+001 1.757819e+000 -2.814097e+001 63 59 67
3.664753e+000 1.078847e+000 -1.339945e+001 56 34 37
-1.226712e+001 4.440807e+000 -2.922934e+001 222 208 197
1.436598e+000 2.102439e+000 -1.054451e+001 216 180 172
1.624078e+000 1.744735e+000 -1.002642e+001 126 69 72
-1.199836e+001 2.645308e+000 -2.826416e+001 224 214 213
-1.211416e+001 2.543278e+000 -2.842664e+001 220 211 210
-1.329006e+001 1.562725e+000 -3.036078e+001 147 141 141
-1.621842e+000 -1.167692e+000 -1.030160e+001 128 55 62
2.180424e+000 1.553580e+000 -9.940785e+000 70 73 80
-3.208325e-001 -6.910853e-001 -9.759152e+000 52 51 47
-1.061312e+001 5.708028e+000 -2.717041e+001 103 95 93
-9.397615e+000 1.711271e+000 -2.683250e+001 188 164 128
-9.997876e+000 1.428056e+000 -2.725099e+001 93 88 85
-6.673082e+000 1.714512e+000 -2.655856e+001 45 44 48
-1.902702e+001 1.031610e+001 -3.681896e+001 67 62 68
-1.675268e+001 7.182581e+000 -3.517130e+001 166 149 142
-1.431209e+000 -4.196713e-002 -9.395143e+000 128 28 36
-1.010834e+001 9.552940e-001 -2.856757e+001 66 64 67
-1.171700e+001 1.021520e+000 -2.981985e+001 90 85 89
-1.171700e+001 1.021520e+000 -2.981985e+001 90 85 89
-3.118992e+001 3.513851e+001 -7.176656e+001 22 21 29
-1.335901e+000 6.209505e-001 -9.367350e+000 210 92 87
-1.247744e+001 7.418094e+000 -2.820365e+001 139 134 141
-1.558276e-001 1.451359e+000 -9.801256e+000 94 96 74
1.260552e+000 1.909732e+000 -1.148745e+001 182 126 45
1.260552e+000 1.909732e+000 -1.148745e+001 182 126 45
-2.697660e-001 7.051968e-002 -9.506089e+000 114 80 38
-1.340272e+000 -7.648187e-001 -9.525146e+000 201 89 80
-1.426158e+000 -1.270778e+000 -1.005594e+001 125 51 51
1.356955e+000 -1.061657e+000 -1.209336e+001 104 62 51
5.321131e+000 -3.089244e+000 -1.023919e+001 254 251 246
5.122293e+000 -3.252128e+000 -1.041147e+001 254 251 244
5.137843e+000 -3.320694e+000 -1.049218e+001 253 249 243
4.177356e+000 -3.267736e+000 -1.218489e+001 214 204 195
4.394451e+000 -3.586572e+000 -1.151147e+001 226 215 211
4.587529e+000 -3.620513e+000 -1.125909e+001 247 240 236
4.706834e+000 -3.580683e+000 -1.095609e+001 237 226 220
4.565574e+000 -4.331004e+000 -1.098504e+001 243 230 226
2.437957e+000 1.636131e+000 -1.026933e+001 152 169 167
-1.599167e+000 1.265557e+000 -9.944560e+000 217 103 103
5.196558e+000 -2.056415e+000 -1.057355e+001 198 186 180
-2.416553e+000 -3.191552e-001 -1.092323e+001 229 108 107
-1.775238e+000 -8.095116e-001 -9.898934e+000 159 48 54
-1.221703e+000 -1.020362e+000 -1.011605e+001 125 63 63
2.161373e+000 -1.885515e+000 -1.279133e+001 162 117 114
4.211685e+000 -2.377180e+000 -1.201003e+001 177 166 160
4.238853e+000 -2.999647e+000 -1.198796e+001 223 213 204
4.052866e+000 -4.655011e+000 -1.182288e+001 237 222 215
6.458610e+000 1.365284e-001 -8.959787e+000 236 222 211
-1.166514e-001 1.349901e+000 -9.598824e+000 107 137 128
-1.242502e+000 1.289304e+000 -9.675680e+000 209 104 98
1.410510e+000 1.738842e+000 -1.116572e+001 125 77 39
-1.207874e+000 -7.512717e-001 -9.491883e+000 155 65 40
-1.695131e+000 -9.763221e-001 -1.028174e+001 156 76 77
-2.412718e+000 -7.358619e-001 -1.096133e+001 211 100 103
2.215986e+000 -1.105518e+000 -1.271150e+001 111 46 47
-1.960673e+000 -1.210482e+000 -1.073143e+001 204 102 102
3.928723e-001 -1.322925e+000 -1.233071e+001 126 65 67
-5.290027e-002 1.320186e+000 -9.613535e+000 106 144 125
1.949241e+000 1.475265e+000 -1.014901e+001 73 90 90
-1.804540e+000 1.904670e+000 -1.049923e+001 205 81 84
5.658181e+000 -8.005199e-001 -1.004799e+001 225 212 204
3.563267e+000 1.388514e+000 -1.325343e+001 84 44 45
-1.263688e+000 -9.362279e-001 -9.744541e+000 186 96 88
1.595132e+000 -7.638214e-001 -1.280822e+001 213 193 176
-1.245175e+000 -1.280302e+000 -1.030649e+001 182 99 93
3.828178e-001 -7.426952e-001 -1.233528e+001 82 44 46
2.719426e+000 -1.137100e+000 -1.292825e+001 130 90 89
3.117994e-001 -1.303543e+000 -1.219112e+001 229 230 221
5.028871e-001 -1.618827e+000 -1.192158e+001 151 66 70
3.096493e-001 -1.691171e+000 -1.232468e+001 237 228 218
1.648649e+000 1.682933e+000 -1.016621e+001 94 44 47
-1.001556e+000 1.745595e+000 -9.925078e+000 127 51 46
-1.575952e-001 1.345674e+000 -9.465436e+000 65 74 67
2.021992e+000 1.299750e+000 -1.058014e+001 67 53 52
2.463660e+000 1.407957e+000 -1.077345e+001 135 71 71
2.425591e+000 1.346634e+000 -1.025309e+001 77 91 88
-8.126710e-001 6.417781e-001 -9.132085e+000 239 207 94
-1.971873e+000 1.138956e+000 -9.960044e+000 195 93 91
1.463241e+000 1.272300e+000 -1.130415e+001 225 224 210
-2.335297e+000 8.258181e-001 -1.034809e+001 216 101 96
-2.332007e+000 8.094623e-001 -1.031608e+001 216 101 96
3.774851e-001 -6.330571e-001 -1.000110e+001 149 114 58
-2.393915e+000 -5.539655e-001 -1.075944e+001 180 40 47
-2.393915e+000 -5.539655e-001 -1.075944e+001 180 40 47
-1.621155e+000 -8.633566e-001 -9.798114e+000 224 110 107
-1.623369e+000 -8.844955e-001 -9.739753e+000 224 110 107
-1.619799e-001 1.173334e+000 -9.530090e+000 73 77 60
1.346798e+000 1.999917e+000 -1.137679e+001 213 171 76
2.242432e+000 1.260100e+000 -1.058732e+001 146 115 70
-1.045242e-001 7.234524e-001 -9.551737e+000 82 85 63
-2.006013e+000 1.601990e+000 -1.038440e+001 234 227 221
-9.182110e-001 6.249421e-001 -9.263008e+000 233 191 90
-1.795816e+000 6.870027e-001 -9.638607e+000 192 84 82
-9.584589e-001 -1.000809e+000 -9.224988e+000 241 210 87
-1.121481e+000 -1.029667e+000 -1.009415e+001 141 67 68
2.106787e+000 -8.221949e-001 -1.278959e+001 108 74 46
-2.246903e+000 -7.565503e-001 -1.068755e+001 221 99 97
-1.777096e+000 -1.201823e+000 -1.055732e+001 209 96 94
-1.205463e+000 -1.244696e+000 -1.013833e+001 113 39 47
-9.510148e-001 1.414994e+000 -9.523724e+000 254 224 102
-1.332857e+000 1.282979e+000 -9.669093e+000 110 40 46
-1.208858e+000 1.264404e+000 -9.540795e+000 202 90 88
-2.126869e+000 7.970435e-001 -1.001079e+001 209 91 88
-1.529701e+000 2.824887e-001 -9.474481e+000 98 32 37
-1.473250e+000 -4.179795e-001 -9.505623e+000 135 36 45
-1.815099e+000 -4.959620e-001 -9.826492e+000 105 29 38
-1.079310e+000 -9.531673e-001 -9.448216e+000 250 215 95
-1.036633e+000 -9.993506e-001 -9.664596e+000 107 42 38
-4.246722e-001 -9.925903e-001 -9.924425e+000 62 52 49
2.747883e+000 -1.077217e+000 -1.356798e+001 147 106 101
1.225769e+000 2.098777e+000 -1.143848e+001 162 102 47
1.208776e+000 1.848772e+000 -1.145461e+001 205 148 74
-1.571952e+000 8.320558e-001 -9.640479e+000 137 34 45
-1.373150e+000 4.504121e-001 -9.413357e+000 121 34 40
-8.846050e-001 1.569055e-001 -9.191113e+000 207 93 89
-9.257212e-001 -4.580614e-002 -9.295780e+000 124 35 41
-2.088106e+000 4.343559e-001 -9.796053e+000 146 34 46
-2.105796e+000 -1.067938e-001 -9.911850e+000 219 102 102
-1.439238e+000 -3.794025e-001 -9.445683e+000 123 35 41
1.214059e+000 -2.949953e-001 -1.083084e+001 50 52 53
-2.140718e+000 -2.764198e-001 -9.953839e+000 138 34 43
-1.829499e+000 -6.580637e-001 -9.910388e+000 218 76 80
-2.147210e+000 -7.724688e-001 -1.031065e+001 136 41 49
-1.916725e+000 -7.492321e-001 -1.010656e+001 138 36 41
-1.692188e+000 -1.164326e+000 -1.032438e+001 124 41 48
3.127325e-001 -8.900827e-001 -1.231467e+001 239 230 223
3.624363e-001 -1.145269e+000 -1.221634e+001 88 46 55
2.996404e-001 -1.300963e+000 -1.238947e+001 236 229 220
1.325182e+000 1.820513e+000 -1.115421e+001 189 136 51
-2.011296e+000 7.194399e-001 -9.916958e+000 218 77 79
-1.622282e+000 3.021678e-001 -9.513982e+000 104 32 40
-1.634549e+000 -1.465109e-001 -9.444829e+000 113 29 36
-1.732976e+000 -2.030325e-001 -9.567628e+000 112 30 36
2.293220e+000 -1.961437e+000 -1.339562e+001 236 229 219
2.362675e+000 1.016460e+000 -1.236882e+001 91 41 38
2.578103e+000 -5.880917e-001 -1.313999e+001 113 77 44
1.908527e+000 -1.314213e+000 -1.243235e+001 101 46 46
-1.079541e+000 -8.940583e-001 -9.227050e+000 206 162 36
-1.079541e+000 -8.940583e-001 -9.227050e+000 206 162 36
-1.030309e+000 -8.313344e-001 -9.242273e+000 169 111 42
-1.030309e+000 -8.313344e-001 -9.242273e+000 169 111 42
7.505866e-001 -1.501019e+000 -1.077979e+001 95 46 46
-2.385816e+001 -1.446616e+001 -4.803751e+001 83 79 81
-2.322209e+001 -2.008113e+001 -4.719832e+001 42 51 90
-2.278486e+001 -1.965925e+001 -4.630072e+001 42 51 90
-2.346639e+001 -2.101784e+001 -4.638460e+001 49 50 55
-1.764953e+001 8.876209e+000 -3.571560e+001 78 73 79
-2.911762e+001 3.092464e+001 -6.376306e+001 38 45 69
-2.502701e+001 4.072813e+001 -6.707321e+001 73 73 81
-1.870711e-001 1.248668e+000 -9.464470e+000 67 87 81
9.426858e-001 -3.154641e-001 -1.017920e+001 140 90 57
1.036654e+000 -2.659499e-001 -1.045152e+001 134 87 52
-2.253041e+000 -5.029273e-001 -1.008125e+001 182 46 56
-1.326788e+000 -1.383108e+000 -1.028335e+001 140 101 100
4.964859e+000 -2.636424e+000 -1.126985e+001 203 192 186
4.964859e+000 -2.636424e+000 -1.126985e+001 203 192 186
5.112943e+000 5.340968e+000 -1.210935e+001 201 192 183
5.981604e+000 -1.754422e-001 -1.004718e+001 226 213 205
1.521216e+000 1.454635e+000 -1.152068e+001 107 75 56
-2.297874e+000 7.849227e-001 -1.022571e+001 214 95 91
-2.081929e+000 2.341328e-003 -9.575974e+000 213 72 77
5.744615e+000 -1.359954e+000 -1.012679e+001 255 251 242
5.744615e+000 -1.359954e+000 -1.012679e+001 255 251 242
-2.196840e+000 -5.008080e-001 -1.003524e+001 175 43 51
1.124172e+000 -1.783813e+000 -1.219984e+001 162 120 117
5.287342e+000 -3.285080e+000 -1.065020e+001 241 232 227
-1.067976e+001 4.505097e+000 -2.674547e+001 229 218 215
4.545261e+000 -4.325578e+000 -1.187215e+001 254 245 238
6.174759e+000 8.617713e-001 -9.951562e+000 247 237 228
1.281884e+000 1.342589e+000 -1.016012e+001 145 73 72
1.281884e+000 1.342589e+000 -1.016012e+001 145 73 72
1.350390e+000 1.356868e+000 -1.027023e+001 109 44 44
5.542398e+000 1.665617e-001 -1.088386e+001 148 137 133
5.542398e+000 1.665617e-001 -1.088386e+001 148 137 133
5.624240e+000 1.390356e-001 -1.073669e+001 165 154 149
5.603847e+000 -1.359791e+000 -1.055175e+001 231 218 210
-2.697981e+000 4.592403e-001 -1.039226e+001 232 81 87
5.396950e+000 -1.471971e+000 -1.060033e+001 186 173 167
-2.614011e+000 -2.457039e-001 -1.133651e+001 214 100 100
2.048120e+000 -1.829146e+000 -1.282484e+001 158 114 111
4.500804e+000 -3.420463e+000 -1.190784e+001 216 210 198
4.428870e+000 -3.869314e+000 -1.216826e+001 251 242 235
4.428870e+000 -3.869314e+000 -1.216826e+001 251 242 235
2.186566e+000 1.424324e+000 -1.014932e+001 104 149 144
2.435721e+000 1.353901e+000 -1.047613e+001 226 223 214
1.429967e+000 1.726169e+000 -1.105104e+001 200 153 74
-1.826254e+000 -7.830477e-002 -9.541955e+000 225 103 104
-2.622585e+000 9.562246e-002 -1.075848e+001 215 95 94
-1.197807e+000 -7.093218e-001 -9.593153e+000 142 40 36
-1.262082e+000 -9.309565e-001 -9.752604e+000 186 96 88
-1.169286e+000 -9.734681e-001 -9.553280e+000 204 92 91
-1.167289e+000 -9.728188e-001 -9.556526e+000 204 92 91
-5.971714e-001 -9.918399e-001 -9.815403e+000 116 92 48
-2.925978e-001 -1.003186e+000 -9.783121e+000 84 86 71
-1.748878e+000 -9.292120e-001 -1.033774e+001 115 42 45
-2.447839e+000 -7.430538e-001 -1.108301e+001 216 89 90
-2.007535e+000 -1.093329e+000 -1.122219e+001 217 92 96
-1.926631e+000 -1.147995e+000 -1.149151e+001 213 98 99
-8.956424e-001 -1.213079e+000 -1.208682e+001 166 123 117
1.248581e+000 1.406042e+000 -1.012058e+001 114 50 49
2.099901e+000 1.427461e+000 -1.013800e+001 73 81 88
-2.572715e+000 4.201725e-001 -1.063692e+001 232 110 106
-1.390860e+000 -5.287659e-001 -9.398622e+000 210 97 96
-7.682458e-001 -9.909569e-001 -9.661251e+000 126 95 48
2.185727e+000 -7.359403e-001 -1.272972e+001 87 51 39
-2.509555e+000 -7.292974e-001 -1.091299e+001 232 230 222
-1.926594e+000 -1.009635e+000 -1.063129e+001 155 41 49
-7.392122e-001 -1.324754e+000 -1.036401e+001 106 53 52
-1.282572e+001 7.370146e+000 -2.949718e+001 218 205 197
-1.411402e+001 6.751754e+000 -3.103902e+001 218 199 185
-1.511620e-001 1.176650e+000 -9.535702e+000 73 77 60
1.358182e+000 1.928482e+000 -1.104333e+001 150 80 48
4.675715e-003 9.066368e-001 -9.642063e+000 67 63 50
-7.658553e-001 5.315158e-001 -9.109127e+000 138 53 46
-5.741215e-002 5.639141e-001 -9.525240e+000 60 60 58
-2.142987e+000 7.309642e-001 -9.888142e+000 209 91 89
2.655125e+000 6.894032e-001 -1.240950e+001 107 73 46
-1.188567e-001 -7.439250e-001 -9.728501e+000 69 66 51
9.040321e-001 -5.851706e-001 -1.090076e+001 76 35 37
-1.380166e-001 -9.985983e-001 -1.032103e+001 97 43 43
-1.771806e+000 -1.198572e+000 -1.056557e+001 209 96 94
-5.133687e-001 -1.363908e+000 -1.061858e+001 141 106 102
7.938026e-001 -1.815699e+000 -1.191261e+001 160 114 111
-1.229830e+001 3.681500e+000 -2.839386e+001 199 182 172
-1.727034e+000 8.163439e-001 -9.574254e+000 219 101 100
-1.388708e+000 7.548381e-001 -9.356614e+000 133 34 41
1.856868e+000 4.129823e-001 -1.140302e+001 83 77 72
3.129192e+000 1.372869e+000 -1.316646e+001 100 51 51
-2.230022e+000 5.846762e-001 -9.956316e+000 217 82 84
-2.242838e+000 -3.919779e-001 -1.014712e+001 215 104 99
-1.024329e-001 -1.053402e+000 -9.931620e+000 160 137 92
-2.468474e+000 -3.723221e-001 -1.043330e+001 220 99 94
-2.346227e+000 -2.986482e-001 -1.076641e+001 154 39 45
-1.793409e+000 -8.465101e-001 -9.994745e+000 211 89 84
2.119330e-001 -7.324610e-001 -1.162635e+001 140 92 92
2.518285e+000 -1.230013e+000 -1.344554e+001 227 220 210
3.385041e-001 -1.526567e+000 -1.234201e+001 153 77 79
7.262479e-001 -1.675029e+000 -1.199118e+001 104 48 51
1.456593e+000 -1.783641e+000 -1.252968e+001 177 154 122
-8.518037e-001 1.172700e+000 -9.114438e+000 145 88 50
-1.802133e+000 1.791184e+000 -1.043760e+001 211 95 96
-1.499974e+000 9.193586e-001 -9.456509e+000 213 84 87
-1.049757e+000 4.100068e-001 -9.255831e+000 206 80 79
1.238554e+000 6.936964e-001 -1.052273e+001 230 224 212
-8.908923e-001 1.432015e-001 -9.170965e+000 207 93 89
-1.077373e+000 2.461079e-002 -9.290640e+000 219 79 79
-2.088736e+000 4.278504e-001 -9.785020e+000 146 34 46
-1.558456e+000 6.218067e-002 -9.456351e+000 219 73 76
-1.404693e+000 3.478017e-002 -9.433005e+000 120 35 40
-1.395753e+000 -2.363794e-001 -9.345865e+000 208 91 86
-1.099082e+000 -3.953892e-001 -9.268940e+000 255 228 89
-2.285499e+000 2.916606e-001 -1.016316e+001 228 83 84
-2.277683e+000 2.254277e-001 -1.004577e+001 228 83 84
-2.342416e+000 7.324227e-002 -1.017016e+001 153 36 45
-2.342431e+000 5.499314e-002 -1.013474e+001 153 36 45
-2.116711e+000 8.106485e-002 -9.904058e+000 151 32 41
-2.376113e+000 -3.387305e-001 -1.016534e+001 146 37 46
3.923241e-001 -6.578093e-001 -1.053260e+001 107 46 44
6.391265e-001 -6.038234e-001 -1.078007e+001 124 90 46
2.101664e+000 -2.626408e-001 -1.221512e+001 66 32 37
-2.294224e+000 -5.386026e-001 -1.060363e+001 224 91 93
-1.941775e+000 -8.299770e-001 -1.065623e+001 123 45 48
-1.941775e+000 -8.299770e-001 -1.065623e+001 123 45 48
-1.327608e+001 7.037449e+000 -2.869167e+001 180 165 158
-6.102105e+000 2.658338e+000 -2.633468e+001 100 101 107
2.488315e+000 1.452489e+000 -1.011556e+001 225 221 210
-1.286299e+000 1.892289e+000 -1.024276e+001 121 51 55
1.496394e+000 1.461016e+000 -1.062032e+001 94 42 44
-1.982213e-001 -3.083918e-001 -9.626029e+000 62 54 52
-1.875254e+000 -4.592360e-001 -9.904115e+000 113 30 40
-1.354140e+001 6.680898e+000 -2.949912e+001 232 216 201
1.920510e+000 1.110455e+000 -1.173830e+001 226 227 216
-9.419704e-001 -1.187146e+000 -1.180214e+001 145 110 108
-1.058265e+001 4.058708e+000 -2.629627e+001 254 254 254
-6.209822e-001 1.270593e+000 -9.216032e+000 138 100 63
1.860270e+000 1.107767e+000 -1.107606e+001 94 44 47
4.928229e-001 -1.566166e+000 -1.241485e+001 117 54 60
1.889812e+000 -7.227880e-001 -1.250436e+001 72 36 40
-2.750111e+000 -3.592687e-001 -1.167155e+001 238 231 221
3.125923e+000 -1.390452e+000 -1.386838e+001 198 185 179
3.906101e+000 -2.321344e+000 -1.334372e+001 175 168 162
-8.581430e-002 1.175495e+000 -9.739570e+000 78 79 65
2.843310e+000 1.300158e+000 -1.214456e+001 234 226 215
1.222830e+000 -1.843890e+000 -1.360640e+001 235 227 219
2.178475e+000 -2.393857e+000 -1.340157e+001 237 228 219
-1.407843e+001 5.010552e+000 -3.088110e+001 155 145 141
-6.487361e-002 -4.383788e-001 -9.473030e+000 124 96 48
-1.724065e-001 5.263641e-001 -9.542001e+000 117 94 46
-2.075206e-001 6.342389e-001 -9.523271e+000 54 55 50
-1.571877e+000 8.214553e-001 -9.624285e+000 136 30 40
9.667535e+000 -1.154609e+001 -1.133759e+002 222 214 203
-2.356001e+001 -1.362676e+001 -4.866488e+001 56 56 58
-2.404210e+001 -1.500754e+001 -4.904149e+001 48 52 78
-2.465355e+001 -1.585260e+001 -4.978066e+001 100 98 99
-2.302700e+001 -2.017730e+001 -4.621758e+001 132 133 138
-3.394522e+001 4.797899e+001 -8.224836e+001 22 21 29
1.979354e-001 -6.738704e-001 -1.001448e+001 144 108 55
-1.023223e-001 -1.015548e+000 -9.696629e+000 134 106 54
4.947132e+000 1.915297e+000 -1.191687e+001 176 169 163
-8.317406e-001 2.746157e-001 -9.135777e+000 171 71 71
3.225450e-001 -6.327202e-001 -1.043814e+001 91 41 25
-2.059056e+000 -3.649517e-001 -9.945165e+000 181 69 74
5.585967e+000 -2.438303e+000 -1.016405e+001 254 252 247
5.306899e+000 -3.017493e+000 -1.064462e+001 238 225 222
4.963559e+000 -4.553197e+000 -1.116688e+001 242 229 226
1.767411e+000 1.591658e+000 -1.024751e+001 101 64 66
1.642046e+000 1.573628e+000 -1.014852e+001 112 67 69
-7.501954e-001 6.684213e-001 -9.090877e+000 148 103 52
-8.313790e-001 4.353487e-001 -9.068801e+000 183 75 73
-9.167029e-001 -9.160322e-001 -9.246568e+000 228 199 83
2.155392e+000 -9.582306e-001 -1.273173e+001 97 53 42
-1.344896e+001 7.536017e+000 -3.048741e+001 239 223 210
2.482493e+000 1.310113e+000 -1.072867e+001 225 218 213
-9.631221e-001 -1.054401e+000 -9.273263e+000 134 93 40
-2.334058e+001 3.915527e+001 -6.400875e+001 70 70 78
4.747626e+000 -2.996971e+000 -1.140663e+001 219 208 202
5.261835e+000 -3.033154e+000 -1.064679e+001 254 247 242
-1.178472e+001 7.370106e+000 -2.842557e+001 225 219 214
-2.071268e+000 -7.926892e-001 -1.047493e+001 218 105 103
1.410359e+000 1.673875e+000 -1.098185e+001 194 146 76
-1.590879e+000 -1.147336e+000 -1.049503e+001 190 89 90
-3.345202e-001 -9.791459e-001 -9.637039e+000 62 65 59
-2.891887e-001 -9.862009e-001 -9.807445e+000 92 95 78
2.616806e+000 -2.885544e-001 -1.264187e+001 149 130 127
-2.592593e+000 -4.771960e-002 -1.117623e+001 180 39 44
4.678305e-001 -1.615834e+000 -1.274809e+001 178 89 87
2.491893e+000 1.250466e+000 -1.068352e+001 232 224 214
-1.121490e+000 -1.031836e+000 -1.009250e+001 137 64 63
-8.023670e-001 1.375770e+000 -9.125165e+000 231 213 176
-1.431730e+000 -3.511206e-002 -9.410619e+000 127 35 40
1.434073e+000 -1.470267e-001 -1.097571e+001 64 87 89
-2.488646e+000 2.771065e-001 -1.041052e+001 224 89 89
-1.998310e+000 -8.031168e-001 -1.033646e+001 218 97 89
-1.229258e+001 8.173655e+000 -2.865528e+001 103 102 108
2.332787e+000 1.009172e+000 -1.082455e+001 137 105 64
-2.178546e+000 -4.593265e-001 -1.034205e+001 138 35 48
-2.178546e+000 -4.593265e-001 -1.034205e+001 138 35 48
-2.053526e+000 -6.512453e-001 -1.015434e+001 223 95 95
-6.139628e-002 -9.664659e-001 -1.010941e+001 164 134 91
-1.739555e+000 -9.052128e-001 -1.021228e+001 121 42 47
-1.820594e+000 -1.062407e+000 -1.034313e+001 217 106 102
1.879324e+000 -1.799807e+000 -1.326078e+001 151 108 104
-1.784629e+000 1.471554e+000 -1.015671e+001 162 45 54
-7.333416e-001 -6.593328e-001 -9.463286e+000 152 106 50
-4.814183e-001 -7.920622e-001 -9.931942e+000 146 116 64
-1.792429e+000 -1.049913e+000 -1.158109e+001 188 99 97
-5.602075e+000 1.177367e+001 -2.546467e+001 218 214 205
-9.829316e-001 -7.141221e-001 -9.348086e+000 178 114 47
2.014482e+000 1.624236e+000 -1.005549e+001 84 86 87
1.051204e+000 5.167784e-001 -1.028718e+001 115 75 50
-2.122921e+001 -1.653107e+001 -4.472369e+001 79 86 106
-1.685856e+000 1.071365e+000 -9.773663e+000 127 24 35
5.229743e+000 5.403477e+000 -1.061855e+001 251 239 234
5.220410e+000 5.301663e+000 -1.054860e+001 251 243 238
5.351735e+000 5.415684e+000 -1.039204e+001 228 215 209
5.374045e+000 5.371443e+000 -1.034649e+001 231 219 213
5.374045e+000 5.371443e+000 -1.034649e+001 231 219 213
5.310320e+000 5.168253e+000 -1.056468e+001 235 221 215
5.310320e+000 5.168253e+000 -1.056468e+001 235 221 215
5.443590e+000 4.880448e+000 -1.032251e+001 255 250 244
5.443590e+000 4.880448e+000 -1.032251e+001 255 250 244
5.563715e+000 4.903274e+000 -1.027663e+001 235 221 215
5.410705e+000 4.595467e+000 -1.040398e+001 250 241 232
5.512721e+000 4.662238e+000 -1.029678e+001 249 240 233
5.314607e+000 4.315854e+000 -1.056483e+001 238 225 219
5.596504e+000 4.556198e+000 -1.012515e+001 239 226 218
5.660626e+000 4.518532e+000 -1.006385e+001 244 227 222
5.659167e+000 4.430267e+000 -1.007717e+001 239 225 220
5.689283e+000 4.462413e+000 -1.005042e+001 253 246 241
5.643984e+000 4.391059e+000 -1.008795e+001 254 249 244
5.309202e+000 3.916395e+000 -1.071623e+001 253 245 238
5.176379e+000 3.710653e+000 -1.090239e+001 234 223 218
5.766072e+000 3.806793e+000 -9.898646e+000 255 247 243
-1.082433e+000 1.807407e+000 -9.991992e+000 177 75 76
-1.759561e-001 1.874081e+000 -1.031451e+001 162 116 111
-2.714817e-001 5.564227e-001 -9.619162e+000 92 77 43
5.263599e+000 5.272606e+000 -1.057645e+001 228 214 210
4.759995e+000 5.082834e+000 -1.142498e+001 238 226 220
4.918297e+000 4.964832e+000 -1.119639e+001 231 218 212
5.398362e+000 4.989346e+000 -1.060038e+001 251 241 239
5.553972e+000 5.024756e+000 -1.022961e+001 250 238 232
5.354973e+000 4.748354e+000 -1.056920e+001 235 222 216
5.354973e+000 4.748354e+000 -1.056920e+001 235 222 216
5.427695e+000 4.691547e+000 -1.045028e+001 233 220 214
5.511483e+000 4.627339e+000 -1.028934e+001 235 220 214
5.674965e+000 4.367012e+000 -1.010071e+001 239 226 220
5.770689e+000 3.696514e+000 -1.007798e+001 254 245 241
5.770689e+000 3.696514e+000 -1.007798e+001 254 245 241
5.710920e+000 3.653098e+000 -9.995501e+000 240 227 224
5.469089e+000 3.341248e+000 -1.061714e+001 253 247 244
-1.132171e+000 1.947381e+000 -1.003825e+001 166 123 116
-1.796057e+000 1.511011e+000 -9.940162e+000 229 99 99
-2.020162e+000 1.264504e+000 -1.032655e+001 219 101 101
5.349009e-001 1.513011e+000 -1.193075e+001 208 193 186
1.275971e+000 1.849774e+000 -1.120660e+001 197 143 59
1.312677e+000 1.887829e+000 -1.089217e+001 205 152 74
1.935356e+000 2.158121e+000 -1.056140e+001 153 106 102
1.238333e+000 1.329574e+000 -9.943869e+000 128 54 54
-1.429806e+000 3.277676e-001 -9.433795e+000 133 33 36
1.107198e+000 5.280179e-001 -1.054467e+001 124 95 50
-2.272392e+000 -7.038766e-001 -1.059584e+001 206 82 83
5.261675e+000 4.980001e+000 -1.056129e+001 229 218 212
5.261675e+000 4.980001e+000 -1.056129e+001 229 218 212
5.098921e+000 4.140797e+000 -1.106067e+001 230 218 212
5.298365e+000 4.188539e+000 -1.076736e+001 232 220 214
-1.598632e+000 1.967078e+000 -1.017085e+001 213 98 98
-1.491518e+000 1.602742e+000 -1.014295e+001 199 98 94
1.698633e+000 2.114946e+000 -1.020593e+001 177 108 103
-1.776585e+000 1.235955e+000 -9.869007e+000 208 90 86
-1.712371e+000 1.346373e+000 -9.635312e+000 226 78 78
-8.733657e-001 1.491695e+000 -9.772041e+000 106 29 32
1.497508e+000 1.772351e+000 -1.002539e+001 171 83 81
5.494369e+000 2.248745e+000 -1.054051e+001 250 236 233
-2.620171e+000 6.973880e-001 -1.054132e+001 227 84 86
1.386345e+000 1.334515e+000 -9.974342e+000 110 58 59
2.157982e+000 1.591151e+000 -9.895677e+000 64 64 72
2.280549e+000 1.559362e+000 -9.950248e+000 103 107 110
2.342215e+000 1.637450e+000 -1.008398e+001 125 132 133
2.345987e+000 1.587208e+000 -1.009705e+001 64 68 77
5.697987e+000 1.935525e+000 -1.035984e+001 228 217 209
5.627018e+000 1.733506e+000 -1.053705e+001 218 207 201
-3.519571e-001 -9.628441e-001 -9.814189e+000 58 67 62
-3.519571e-001 -9.628441e-001 -9.814189e+000 58 67 62
5.591203e+000 4.921094e+000 -1.019946e+001 233 220 212
-1.809006e+000 1.945059e+000 -1.052126e+001 239 229 217
-1.661041e+000 2.064840e+000 -1.089797e+001 219 91 95
-9.961294e-001 1.856346e+000 -9.945539e+000 196 95 89
1.488744e+000 2.195045e+000 -1.062535e+001 197 87 86
5.190400e+000 3.117757e+000 -1.114255e+001 233 223 213
-1.888486e+000 1.519708e+000 -1.025289e+001 223 104 98
1.651151e+000 2.079230e+000 -9.973644e+000 144 70 68
5.104971e+000 2.595905e+000 -1.125985e+001 244 233 227
-1.300811e+000 1.233887e+000 -9.634198e+000 116 31 34
-1.387587e-001 1.356374e+000 -9.588676e+000 79 79 68
1.881844e+000 1.488397e+000 -9.933474e+000 67 82 81
-2.526702e+000 -1.271357e-001 -1.032413e+001 222 71 75
-9.103948e-001 6.242179e-001 -9.278924e+000 231 181 87
-2.229266e+000 -5.262945e-001 -1.032608e+001 202 99 95
-2.043992e+000 -1.383566e-001 -9.839385e+000 199 76 78
-2.104543e+000 -4.757255e-001 -1.013328e+001 174 68 64
-1.614598e+000 -2.802057e-001 -9.716249e+000 123 29 33
-1.084448e+000 -7.462498e-001 -9.638919e+000 251 208 95
-3.045899e-001 -9.520478e-001 -9.713458e+000 89 106 99
-1.538711e+000 1.910601e+000 -1.012506e+001 207 93 85
-1.538711e+000 1.910601e+000 -1.012506e+001 207 93 85
-1.720357e+000 1.736858e+000 -1.030642e+001 167 34 42
-7.366026e-001 1.897388e+000 -9.894775e+000 165 122 116
1.540205e+000 2.277418e+000 -1.182186e+001 160 76 73
-2.232891e+000 1.400290e+000 -1.051419e+001 185 34 40
1.128286e+000 1.830086e+000 -1.136887e+001 206 152 67
-2.641432e+000 8.036300e-001 -1.066353e+001 222 218 211
-1.789912e+000 1.293841e+000 -9.897276e+000 172 29 36
-1.789912e+000 1.293841e+000 -9.897276e+000 172 29 36
1.433122e+000 1.747592e+000 -1.008260e+001 121 39 47
1.393179e+000 1.641105e+000 -1.003900e+001 123 40 42
-1.091318e+000 1.182282e+000 -9.359492e+000 160 44 36
-1.829808e-001 1.315877e+000 -9.438466e+000 51 54 49
3.072401e-002 1.332817e+000 -9.529625e+000 59 61 60
1.867349e+000 1.322901e+000 -1.025976e+001 55 44 47
2.138746e+000 1.151995e+000 -1.039978e+001 131 105 51
-1.419407e+000 -5.800123e-001 -9.581917e+000 174 87 83
-2.351338e-001 -9.169977e-001 -9.686077e+000 88 108 98
-2.043170e+000 1.582501e+000 -1.032979e+001 216 94 91
1.141033e+000 2.256997e+000 -1.127796e+001 229 195 94
1.470889e+000 2.150069e+000 -1.093403e+001 230 188 92
-2.011530e+000 1.350186e+000 -1.022166e+001 175 30 40
-2.011530e+000 1.350186e+000 -1.022166e+001 175 30 40
-9.163751e-001 1.541784e+000 -9.905809e+000 182 86 82
1.140973e+000 2.007744e+000 -1.110703e+001 171 100 50
1.156501e+000 1.709719e+000 -1.109515e+001 145 87 43
1.559043e+000 2.084018e+000 -1.002225e+001 199 97 96
1.558901e+000 1.990244e+000 -1.006926e+001 126 49 53
1.569498e+000 1.977728e+000 -1.014926e+001 126 49 53
-1.966531e+000 1.079903e+000 -9.862321e+000 205 89 82
-1.452083e+000 1.415253e+000 -9.668296e+000 222 104 100
-1.068151e+000 1.410439e+000 -9.562522e+000 200 95 89
1.451335e+000 1.729952e+000 -1.105047e+001 201 156 67
1.272091e+000 1.558898e+000 -9.993590e+000 125 44 48
1.272091e+000 1.558898e+000 -9.993590e+000 125 44 48
-2.443592e+000 6.328567e-001 -1.032955e+001 219 85 86
-1.280701e+000 9.809901e-001 -9.313845e+000 203 84 78
-1.280564e+000 9.835307e-001 -9.301770e+000 203 84 78
-8.647138e-002 1.266946e+000 -9.450493e+000 80 86 60
2.101044e+000 1.469128e+000 -1.015983e+001 72 74 78
-2.468835e+000 2.416702e-001 -1.029741e+001 213 77 79
-2.197658e+000 6.107537e-001 -9.839884e+000 226 86 87
-1.887613e+000 5.582523e-001 -9.666242e+000 145 33 41
-1.779393e+000 6.345007e-001 -9.517019e+000 205 83 82
-1.779393e+000 6.345007e-001 -9.517019e+000 205 83 82
2.103349e+000 9.506145e-001 -1.042434e+001 145 118 52
1.278945e+000 5.828211e-001 -1.105942e+001 45 41 45
-2.200982e+000 -6.761298e-001 -1.046837e+001 163 45 50
-2.210175e+000 -8.108628e-001 -1.056346e+001 220 209 203
-1.726737e+000 -5.524460e-001 -9.954281e+000 212 98 93
-2.867582e-001 -2.821116e-001 -9.589504e+000 47 49 41
-8.116761e-001 -3.561355e-001 -9.231423e+000 129 88 44
-1.259743e+000 -1.157248e+000 -1.009651e+001 159 57 52
-3.331840e-001 -1.051933e+000 -9.786993e+000 58 61 62
6.907092e-001 2.191636e+000 -1.145603e+001 129 53 59
9.895751e-001 2.231551e+000 -1.140305e+001 127 58 50
-1.952899e+000 1.496683e+000 -1.007173e+001 149 32 42
-1.952899e+000 1.496683e+000 -1.007173e+001 149 32 42
-1.730497e+000 1.454367e+000 -9.705723e+000 151 35 44
1.011943e+000 1.867240e+000 -1.136637e+001 91 45 47
1.522906e+000 2.140610e+000 -1.020374e+001 146 59 65
1.899646e+000 2.024690e+000 -1.028052e+001 104 46 49
-2.180678e+000 1.168647e+000 -1.048307e+001 153 33 43
-2.106304e+000 1.121830e+000 -9.974707e+000 226 101 95
-1.991045e+000 1.136692e+000 -1.022279e+001 147 34 41
-1.991045e+000 1.136692e+000 -1.022279e+001 147 34 41
-1.035474e+000 1.329134e+000 -9.291453e+000 143 40 39
1.255620e+000 1.641889e+000 -1.103293e+001 169 124 57
1.287912e+000 1.689036e+000 -1.043945e+001 132 63 46
-2.706472e+000 4.112751e-001 -1.078567e+001 224 218 212
-2.334806e+000 8.016610e-001 -1.024320e+001 224 101 96
-2.285152e+000 6.998405e-001 -1.003022e+001 150 34 40
-1.369013e+000 8.963597e-001 -9.385589e+000 134 33 37
-1.369013e+000 8.963597e-001 -9.385589e+000 134 33 37
-2.369056e+000 3.974735e-001 -1.029926e+001 228 97 98
-2.159523e+000 3.232704e-001 -1.001870e+001 217 97 94
-2.200963e+000 -8.627756e-002 -1.009572e+001 218 105 101
-2.200963e+000 -8.627756e-002 -1.009572e+001 218 105 101
-1.914813e+000 1.608823e-001 -9.646880e+000 141 32 39
-1.808504e+000 -2.770777e-001 -9.818222e+000 215 99 99
-1.478122e+000 -3.307118e-001 -9.574592e+000 140 31 42
2.237747e+000 -9.480329e-001 -1.288092e+001 89 58 42
-1.507672e+000 -7.972028e-001 -9.936331e+000 102 35 44
-1.377075e+000 -7.838506e-001 -9.778531e+000 208 105 100
3.871286e-001 -6.478889e-001 -1.013350e+001 122 98 55
-3.146379e-001 -8.722381e-001 -9.839188e+000 63 66 57
-1.601540e+000 1.731138e+000 -1.006321e+001 219 83 83
-1.109404e+000 1.881395e+000 -9.973095e+000 101 40 44
-9.663477e-001 1.687450e+000 -9.968160e+000 120 37 43
1.244176e+000 2.036819e+000 -1.093100e+001 239 197 79
1.398381e+000 1.791002e+000 -1.086676e+001 207 155 77
-1.670729e+000 1.306250e+000 -9.603479e+000 225 78 81
-1.209109e+000 1.259170e+000 -9.490878e+000 218 94 91
-9.043562e-001 1.353724e+000 -9.294621e+000 255 217 93
1.406514e+000 1.718741e+000 -9.976984e+000 129 46 46
1.609286e+000 1.907568e+000 -1.013463e+001 108 41 49
2.117654e+000 1.690071e+000 -1.021410e+001 75 53 55
-2.056903e+000 7.614928e-001 -9.868213e+000 219 107 103
-1.560241e+000 9.482590e-001 -9.627486e+000 144 30 37
-6.520528e-001 1.278712e+000 -9.122203e+000 134 90 45
1.361055e+000 1.431888e+000 -1.013248e+001 93 33 37
-2.315891e+000 2.851918e-001 -1.011054e+001 157 32 46
-2.068411e+000 6.311573e-001 -9.770873e+000 151 31 41
-1.501555e+000 8.168114e-001 -9.420071e+000 216 83 78
-1.340561e+000 6.389194e-001 -9.347160e+000 205 92 88
-2.097481e+000 2.292334e-001 -9.792011e+000 148 30 41
-1.378470e+000 4.262604e-001 -9.376327e+000 112 25 34
-1.372855e+000 2.217896e-001 -9.427716e+000 194 86 84
-8.263247e-001 6.268812e-001 -9.137380e+000 236 200 87
-1.696900e+000 -7.431295e-002 -9.609777e+000 109 27 34
-8.954579e-001 1.975121e-001 -9.198007e+000 197 86 84
2.673468e+000 -4.333576e-001 -1.282632e+001 86 62 36
-1.654083e+000 -2.297457e-001 -9.594171e+000 136 27 46
-1.656803e+000 -2.402658e-001 -9.625042e+000 136 27 46
-1.201008e+000 -7.043223e-001 -9.627246e+000 125 39 41
1.764792e+000 -1.361813e+000 -1.260069e+001 89 50 53
-1.153350e+000 -9.420125e-001 -9.778189e+000 254 223 93
9.698334e-002 -1.077759e+000 -1.017843e+001 125 99 62
3.025674e-001 -1.120435e+000 -1.057862e+001 225 218 208
1.334226e+000 2.164755e+000 -1.128456e+001 240 201 84
3.882403e-001 1.489804e+000 -1.179110e+001 233 227 218
-2.042878e+000 9.407963e-001 -9.813911e+000 135 29 41
-9.904004e-001 1.186017e+000 -9.158447e+000 255 220 88
4.545817e-001 1.063552e+000 -1.022751e+001 87 35 37
1.150812e+000 1.476845e+000 -9.984589e+000 192 59 58
1.018281e+000 8.571519e-001 -1.025634e+001 119 93 47
1.921102e+000 1.113130e+000 -1.053825e+001 172 133 64
1.991794e+000 1.310171e+000 -1.006642e+001 56 67 68
-1.835218e+000 3.238952e-001 -9.479943e+000 210 90 91
-1.662459e+000 -4.891730e-001 -9.807853e+000 204 59 60
-1.662459e+000 -4.891730e-001 -9.807853e+000 204 59 60
-9.371870e-001 -5.940805e-001 -9.234301e+000 250 211 89
-1.544708e+000 -1.222144e+000 -1.044401e+001 106 44 46
3.780834e-001 1.772411e+000 -1.176835e+001 92 39 47
-4.326443e-001 1.339177e+000 -9.492586e+000 143 113 58
-1.416145e-001 6.373791e-001 -9.554402e+000 52 51 47
-2.408968e+000 -1.662939e-001 -1.017998e+001 176 34 48
2.351544e+000 1.418317e+000 -1.048811e+001 94 80 80
1.853958e-001 1.059810e+000 -9.437233e+000 127 95 48
-1.751439e+000 6.358201e-002 -9.564797e+000 112 27 33
-7.799475e-001 -9.649234e-001 -9.560401e+000 117 86 51
1.334527e+000 1.784475e+000 -1.162855e+001 209 155 67
-9.111201e-001 1.293657e+000 -9.135931e+000 185 127 56
-9.111201e-001 1.293657e+000 -9.135931e+000 185 127 56
-9.086205e-002 9.883617e-001 -9.667834e+000 65 56 48
-9.086205e-002 9.883617e-001 -9.667834e+000 65 56 48
3.526822e+000 -1.673066e+000 -1.375053e+001 64 54 55
7.382736e-001 1.961400e+000 -1.196799e+001 119 42 48
-3.384400e-001 -8.769105e-001 -1.007440e+001 52 55 50
4.069206e+000 1.866190e-001 -1.192185e+001 62 50 50
-1.991006e+000 9.354568e-002 -9.643370e+000 214 115 119
-2.438246e+001 5.465122e+001 -7.272139e+001 33 34 39
-9.689495e-001 -1.045475e+000 -9.322811e+000 162 110 50
-8.058134e-001 -3.432199e-001 -9.222310e+000 156 109 55
-1.358787e+000 -1.371295e-001 -9.333195e+000 202 85 79
9.797235e-001 -6.212678e-001 -1.043582e+001 158 127 63
2.039157e+000 2.158170e+000 -1.031779e+001 221 213 204
2.001436e+000 2.151661e+000 -1.033328e+001 120 77 73
2.333166e+000 1.627292e+000 -1.015454e+001 114 134 132
-1.088775e-001 1.248084e+000 -9.543681e+000 74 97 84
-1.215770e+000 1.626885e+000 -9.817988e+000 235 199 190
-1.147542e+000 -9.219542e-001 -9.554417e+000 210 102 97
-2.078599e+000 -5.814043e-001 -1.017289e+001 233 109 113
-1.600980e+000 -7.141728e-001 -9.739221e+000 168 63 67
-2.459132e+000 -3.668320e-001 -1.051385e+001 219 102 99
-2.062486e+000 -7.532198e-001 -1.047150e+001 204 89 93
-1.589167e+000 -9.856814e-001 -1.025478e+001 170 74 72
-1.110187e+000 -1.105384e+000 -1.010422e+001 128 59 61
2.265100e+000 -1.043100e+000 -1.283300e+001 128 74 52
1.859084e+000 -1.674011e+000 -1.251494e+001 128 88 59
4.124075e+000 -4.100280e+000 -1.231513e+001 254 247 240
2.435048e+000 1.320232e+000 -1.014577e+001 223 222 215
-7.794452e-003 5.943764e-001 -9.622960e+000 70 63 46
-1.348094e+000 -8.351597e-002 -9.365644e+000 188 80 79
-2.332642e+000 -3.919630e-001 -1.031840e+001 203 95 96
-2.275303e+000 -5.072287e-001 -1.014429e+001 173 47 51
1.546252e+000 2.031212e+000 -1.009045e+001 229 216 210
2.312656e+000 1.306378e+000 -1.020810e+001 132 155 145
-9.549773e-001 1.192587e+000 -9.374992e+000 253 219 95
-9.056033e-001 8.613617e-001 -9.138662e+000 167 111 40
-1.318390e+000 2.921856e-001 -9.322526e+000 199 85 85
-2.465312e-001 -1.877274e-001 -9.574218e+000 128 102 55
-1.883524e+000 -7.954044e-002 -9.616440e+000 185 84 82
-2.603040e-001 -1.015632e+000 -1.004191e+001 129 99 53
-2.599448e-001 -1.004939e+000 -1.005463e+001 129 99 53
-1.188460e+000 -1.026294e+000 -1.012855e+001 130 64 66
-1.796075e+000 -1.225182e+000 -1.115051e+001 193 96 94
2.412696e+000 1.333585e+000 -1.021674e+001 81 95 100
2.442692e+000 1.387626e+000 -1.027676e+001 81 95 100
-1.534668e+000 1.567154e+000 -9.753950e+000 225 224 215
-2.668131e+000 -1.792341e+000 -7.437598e+000 180 43 52
-2.741976e+000 1.945612e-001 -1.069041e+001 220 73 79
-1.604608e+000 -1.224198e+000 -1.035459e+001 201 92 93
2.539843e+000 1.358007e+000 -1.080518e+001 232 225 215
-6.750926e-001 1.331797e+000 -9.102901e+000 145 105 65
-2.686819e-001 -2.826442e-001 -9.556608e+000 60 59 55
1.621460e+000 -9.026990e-001 -1.241291e+001 78 39 40
-1.325881e+000 6.002507e-001 -9.332576e+000 205 96 89
-2.086965e+000 -1.297265e-001 -9.895556e+000 216 104 100
-1.082519e+000 -9.373997e-001 -9.464856e+000 253 211 97
-1.838371e+000 -7.252073e-001 -9.823126e+000 255 206 203
-1.838371e+000 -7.252073e-001 -9.823126e+000 255 206 203
-1.209749e+000 -1.223154e+000 -1.017154e+001 112 39 46
-1.208755e+000 -1.224592e+000 -1.016951e+001 112 39 46
-2.020646e+000 -9.540947e-001 -1.078804e+001 209 100 98
-1.705916e+000 -1.179862e+000 -1.034568e+001 125 43 50
1.810005e+000 -1.536376e+000 -1.249335e+001 133 101 59
1.786401e+000 -1.794576e+000 -1.261853e+001 168 142 89
-2.076998e+000 5.230039e-001 -9.916935e+000 138 37 46
-1.384108e+000 -1.273407e+000 -1.030401e+001 93 37 43
-1.053446e+000 1.186618e+000 -9.409110e+000 143 52 49
-6.837570e-001 -1.320892e-001 -9.255909e+000 110 50 45
-2.317467e+000 6.508156e-001 -1.035585e+001 148 39 50
1.542181e+000 -1.096798e+000 -1.236226e+001 128 93 51
-2.322760e+000 1.099966e+000 -1.036280e+001 168 41 55
-2.576126e+000 7.434783e-001 -1.074381e+001 177 42 56
2.391341e+000 -1.171386e+000 -1.282718e+001 168 133 91
1.953235e+000 -1.224273e+000 -1.261289e+001 101 46 49
3.647740e+000 -1.565382e+000 -1.399928e+001 87 75 75
-9.716313e-001 -6.811584e-001 -9.384435e+000 173 110 46
-4.709023e+000 1.758169e+001 -2.822746e+001 215 211 202
-2.571174e+001 -1.789721e+001 -5.103741e+001 97 96 107
-2.417944e+001 -1.449233e+001 -4.867203e+001 87 77 78
-1.372048e+000 1.670935e+000 -1.009276e+001 151 57 64
-2.159952e+001 -2.064971e+001 -4.544192e+001 59 57 64
-1.949213e+000 1.027283e+000 -9.788003e+000 188 71 75
-1.949623e+000 1.024585e+000 -9.799793e+000 188 71 75
-1.100043e+000 7.486063e-001 -9.300760e+000 127 62 38
-2.452934e+001 -1.571722e+001 -4.949049e+001 98 95 99
-1.983175e+001 -1.639699e+001 -4.261445e+001 67 73 96
-2.067323e+000 9.918076e-001 -9.955145e+000 137 32 38
-2.543185e+001 -1.467614e+001 -5.150849e+001 110 105 102
-2.264881e+001 -2.299271e+001 -4.474048e+001 54 52 59
-1.063307e+001 -1.527773e+001 -3.362404e+001 52 53 57
-1.063307e+001 -1.527773e+001 -3.362404e+001 52 53 57
-2.235174e+001 -2.242895e+001 -4.507177e+001 129 126 133
-1.111287e+000 5.888121e-001 -9.298199e+000 100 28 36
-7.751434e-001 -4.898214e-001 -9.223854e+000 120 85 47
-2.050655e+001 -1.743633e+001 -4.360275e+001 151 149 150
-4.268479e+001 7.283786e+001 -1.044751e+002 91 99 136
-4.263050e+001 7.271670e+001 -1.043168e+002 91 99 136
2.413332e+000 1.767087e+000 -1.016965e+001 229 220 215
-1.865310e+001 9.808986e+001 -8.668749e+001 81 66 87
-1.810556e+001 7.832215e+001 -7.326414e+001 68 75 83
-1.711929e-001 1.075420e+000 -9.553886e+000 60 70 61
1.979812e+000 8.972362e-001 -1.110239e+001 148 118 78
-9.283147e-001 1.344602e+000 -9.131135e+000 210 187 119
-9.283147e-001 1.344602e+000 -9.131135e+000 210 187 119
2.577306e+000 1.794741e+000 -1.079446e+001 136 137 131
-1.907831e-001 5.993672e-001 -9.556327e+000 113 100 72
2.429441e-001 1.729453e-001 -9.833114e+000 125 94 48
-8.157528e-001 1.338739e+000 -9.144613e+000 224 190 85
-2.589945e+000 3.577808e-002 -1.067239e+001 202 96 94
1.560153e+000 2.148745e+000 -1.024847e+001 173 67 71
1.967641e+000 2.219728e+000 -1.038673e+001 214 204 197
1.963860e+000 2.228181e+000 -1.038161e+001 210 204 197
-9.315853e-001 4.776296e-001 -9.103049e+000 237 184 97
1.715550e+000 1.220503e-001 -1.143309e+001 64 71 71
-2.616556e+000 1.109448e-001 -1.079490e+001 205 87 87
-2.044004e+000 -7.810801e-001 -1.061580e+001 136 39 47
-2.270238e+000 -2.377113e-001 -1.232064e+001 231 227 217
1.420589e+000 -1.698926e+000 -1.327028e+001 168 138 87
-1.634128e+000 1.401706e+000 -9.644779e+000 188 59 62
-1.988780e+000 6.645152e-001 -9.639688e+000 208 74 78
-2.286965e-001 -9.199515e-001 -9.658790e+000 93 97 69
-8.869118e-001 -9.771418e-001 -9.632458e+000 136 105 58
-1.128101e+000 -1.288709e+000 -1.015023e+001 208 99 96
-1.959731e+000 -1.099640e+000 -1.097195e+001 200 93 95
-1.546744e+000 9.803482e-001 -9.605813e+000 207 95 93
-1.529410e+000 1.039957e+000 -9.663979e+000 207 95 93
2.124955e+000 1.325080e+000 -1.168839e+001 129 90 53
3.396448e-001 -1.494566e+000 -1.244669e+001 161 75 78
7.224420e-001 -1.663027e+000 -1.200711e+001 106 44 49
1.705416e+000 2.046564e+000 -1.025261e+001 98 48 50
-8.238194e-001 1.246238e+000 -9.189164e+000 139 87 40
-1.378739e+000 1.491362e+000 -9.714072e+000 130 52 56
-1.322239e+000 6.104946e-001 -9.339956e+000 196 86 85
-1.360700e+000 1.699309e-001 -9.331494e+000 192 91 81
-2.088680e+000 -1.446619e-001 -9.880836e+000 197 89 89
-1.972244e+000 -1.081330e-002 -9.779475e+000 200 86 85
-1.638120e+000 -6.033442e-001 -9.722793e+000 207 93 89
-2.501339e+000 -1.427398e-001 -1.039634e+001 205 71 73
