ply
format ascii 1.0
element face 0
property list uchar int vertex_indices
element vertex 874
property float x
property float y
property float z
property uchar diffuse_red
property uchar diffuse_green
property uchar diffuse_blue
end_header
-8.064453e-001 1.337984e+000 -8.857100e+000 149 101 49
-1.535541e+001 4.090486e+000 -3.310896e+001 202 186 173
-1.206843e-001 7.265606e-001 -9.451708e+000 76 82 54
-1.206843e-001 7.265606e-001 -9.451708e+000 76 82 54
-2.147773e-001 1.211993e+000 -9.288177e+000 64 64 52
5.776718e+000 4.489781e+000 -1.129321e+001 233 224 214
5.776718e+000 4.489781e+000 -1.129321e+001 233 224 214
6.668525e+000 3.951332e+000 -9.657603e+000 231 221 214
6.668525e+000 3.951332e+000 -9.657603e+000 231 221 214
6.772341e+000 3.859251e+000 -9.510797e+000 237 225 219
6.764738e+000 3.848242e+000 -9.426478e+000 252 241 235
6.466323e+000 3.591753e+000 -1.011463e+001 247 234 228
6.646654e+000 3.814936e+000 -9.796206e+000 235 221 218
6.716494e+000 3.567338e+000 -9.567506e+000 239 225 219
6.796462e+000 3.678101e+000 -9.487812e+000 250 241 236
5.864897e+000 3.283034e+000 -1.078970e+001 227 214 208
6.404967e+000 3.386888e+000 -1.020912e+001 241 226 221
6.404967e+000 3.386888e+000 -1.020912e+001 241 226 221
6.390221e+000 3.341796e+000 -1.017258e+001 253 240 234
6.390221e+000 3.341796e+000 -1.017258e+001 253 240 234
6.594475e+000 3.227275e+000 -9.793312e+000 237 227 219
5.529803e+000 3.059042e+000 -1.149664e+001 221 211 204
5.862844e+000 3.208229e+000 -1.110140e+001 246 237 228
6.240921e+000 2.943499e+000 -1.061436e+001 231 218 210
6.499150e+000 2.999035e+000 -9.963935e+000 242 228 220
6.499150e+000 2.999035e+000 -9.963935e+000 242 228 220
6.413237e+000 2.861463e+000 -1.017609e+001 235 222 216
6.800581e+000 3.120877e+000 -9.519988e+000 242 230 222
6.892443e+000 2.949192e+000 -9.237462e+000 247 236 227
5.604446e+000 2.860718e+000 -1.153314e+001 219 209 200
5.601324e+000 2.802970e+000 -1.155699e+001 233 223 214
5.601324e+000 2.802970e+000 -1.155699e+001 233 223 214
6.471140e+000 2.773881e+000 -1.007789e+001 235 221 218
6.606540e+000 2.709735e+000 -9.762031e+000 248 239 235
6.604055e+000 2.656519e+000 -9.750163e+000 248 237 231
6.659576e+000 2.568698e+000 -9.684009e+000 236 224 219
6.678686e+000 2.483509e+000 -9.698851e+000 251 241 238
6.857157e+000 2.699528e+000 -9.255132e+000 243 229 224
6.912859e+000 2.723665e+000 -9.206528e+000 252 243 235
6.912859e+000 2.723665e+000 -9.206528e+000 252 243 235
6.805392e+000 2.458367e+000 -9.367861e+000 251 244 238
1.407951e+000 2.018069e+000 -1.144238e+001 136 83 34
6.502192e+000 2.144332e+000 -9.989680e+000 226 212 207
6.576238e+000 2.184004e+000 -1.002826e+001 236 225 221
6.551805e+000 2.096817e+000 -9.979954e+000 246 233 227
6.708139e+000 2.282104e+000 -9.559740e+000 242 228 226
-1.904606e+000 1.401429e+000 -9.371436e+000 219 87 84
6.285689e+000 2.055253e+000 -1.042900e+001 220 207 201
6.224701e+000 1.960359e+000 -1.036972e+001 237 225 219
6.351070e+000 1.688894e+000 -1.027795e+001 212 198 193
6.790339e+000 2.010397e+000 -9.464790e+000 254 247 242
6.688090e+000 1.665300e+000 -9.655607e+000 230 217 212
6.716538e+000 1.610987e+000 -9.588302e+000 252 245 240
6.764390e+000 1.417874e+000 -9.542447e+000 239 225 222
-2.306318e+000 5.115166e-001 -9.430481e+000 224 115 111
-2.266081e+000 5.489585e-001 -9.344577e+000 234 124 120
-1.045991e+000 5.497656e-001 -8.963393e+000 210 123 79
6.398707e+000 1.083857e+000 -1.016052e+001 199 186 178
6.606654e+000 1.028714e+000 -9.747519e+000 246 235 231
6.647461e+000 9.181619e-001 -9.834333e+000 217 202 197
6.755038e+000 1.045096e+000 -9.449814e+000 232 225 219
6.936872e+000 9.556280e-001 -9.304320e+000 254 251 246
9.429669e-001 5.131213e-001 -1.005025e+001 104 67 22
3.051501e+000 6.177419e-001 -1.289183e+001 205 173 156
6.665097e+000 8.056055e-001 -9.661147e+000 218 205 199
6.572588e+000 5.676600e-001 -9.817793e+000 208 194 190
6.637282e+000 6.079312e-001 -9.709017e+000 222 209 203
6.825722e+000 7.980019e-001 -9.406505e+000 236 224 218
6.926826e+000 7.088947e-001 -9.311077e+000 243 232 226
-1.769334e+000 -3.810994e-002 -9.209393e+000 219 68 67
-1.104991e-001 -3.205358e-002 -9.402981e+000 111 78 34
2.769698e-001 5.624020e-002 -9.643864e+000 114 82 34
6.541207e+000 1.874659e-001 -9.924249e+000 204 191 183
6.623045e+000 2.572353e-001 -9.773181e+000 221 208 202
6.800539e+000 3.952971e-001 -9.516903e+000 233 222 218
6.890477e+000 5.214347e-001 -9.386661e+000 240 232 229
6.714549e+000 3.584293e-001 -9.622029e+000 255 251 245
6.649635e+000 -4.707887e-002 -9.714012e+000 241 228 222
6.698177e+000 -3.732387e-002 -9.647913e+000 228 217 211
6.820046e+000 -2.196972e-002 -9.465184e+000 252 246 240
7.056098e+000 1.991042e-001 -9.123159e+000 253 250 246
8.193885e-001 -8.683076e-001 -1.018295e+001 137 109 61
1.740093e+000 -1.174113e+000 -1.307120e+001 161 139 132
7.048479e+000 -1.575576e-001 -8.993496e+000 241 232 227
-1.780239e+000 -1.274544e+000 -9.987527e+000 153 70 72
-1.598265e+000 -1.464892e+000 -1.033670e+001 203 106 100
-4.207146e-001 -1.303365e+000 -9.544755e+000 56 53 52
1.760079e+000 -1.302268e+000 -1.275268e+001 110 83 57
1.994333e+000 -1.594022e+000 -1.298071e+001 85 44 41
6.627562e+000 -9.657519e-001 -9.743490e+000 224 214 205
2.629958e+000 -1.777669e+000 -1.326325e+001 165 127 118
6.267257e+000 -1.379887e+000 -1.040694e+001 172 161 156
7.052298e+000 -9.339319e-001 -9.099440e+000 254 249 241
6.986473e+000 -1.560442e+000 -9.134502e+000 232 216 209
6.986473e+000 -1.560442e+000 -9.134502e+000 232 216 209
7.046117e+000 -1.573626e+000 -9.186994e+000 230 212 205
6.696113e+000 -1.872010e+000 -9.634213e+000 230 217 212
6.938144e+000 -1.803485e+000 -9.360215e+000 232 219 213
6.932952e+000 -1.739112e+000 -9.265159e+000 235 221 214
7.018376e+000 -1.864049e+000 -9.200166e+000 232 219 213
6.730122e+000 3.520688e+000 -9.568175e+000 255 248 242
6.061084e+000 3.589177e+000 -1.077990e+001 230 217 209
6.061084e+000 3.589177e+000 -1.077990e+001 230 217 209
6.110718e+000 3.528294e+000 -1.089584e+001 228 215 207
5.952800e+000 3.034679e+000 -1.097008e+001 224 211 202
6.895603e+000 3.074383e+000 -9.247077e+000 253 248 242
6.848851e+000 3.014262e+000 -9.166125e+000 235 222 216
-1.156673e+000 1.991540e+000 -9.924156e+000 191 97 95
8.592271e-001 2.492878e+000 -1.139469e+001 173 83 85
5.662563e+000 2.836801e+000 -1.144650e+001 212 202 194
5.662563e+000 2.836801e+000 -1.144650e+001 212 202 194
5.885446e+000 2.666410e+000 -1.097862e+001 236 223 214
6.008993e+000 2.553472e+000 -1.090339e+001 210 200 191
6.389235e+000 2.680896e+000 -9.965929e+000 233 220 214
6.569697e+000 2.701507e+000 -9.846879e+000 253 246 237
6.499909e+000 2.604428e+000 -9.987669e+000 231 218 213
6.778421e+000 2.418143e+000 -9.574041e+000 254 248 242
6.879628e+000 2.679542e+000 -9.225189e+000 255 252 247
1.572715e+000 2.005285e+000 -1.098688e+001 187 138 71
6.193382e+000 2.101521e+000 -1.041603e+001 213 200 194
6.314209e+000 2.181451e+000 -1.022281e+001 220 209 203
6.399867e+000 2.183342e+000 -1.021221e+001 224 210 205
6.555314e+000 2.340331e+000 -1.014747e+001 252 239 233
6.457428e+000 2.217099e+000 -1.005752e+001 225 212 206
6.543825e+000 2.111248e+000 -1.003521e+001 227 213 210
6.450921e+000 2.051725e+000 -9.945332e+000 232 219 213
6.916613e+000 2.211385e+000 -9.312273e+000 255 249 242
-1.697882e+000 1.277258e+000 -9.393920e+000 135 39 41
-1.475266e+000 1.308554e+000 -9.281789e+000 136 45 45
6.442554e+000 1.950685e+000 -1.011537e+001 222 209 203
6.486211e+000 1.851457e+000 -1.008534e+001 219 206 200
6.820985e+000 1.865537e+000 -9.354218e+000 254 243 240
6.359422e+000 1.598504e+000 -1.019046e+001 209 196 190
6.515895e+000 1.396865e+000 -1.004477e+001 213 200 194
6.649747e+000 1.498523e+000 -9.664350e+000 225 212 206
6.932847e+000 1.512167e+000 -9.183694e+000 236 222 219
6.932847e+000 1.512167e+000 -9.183694e+000 236 222 219
-2.195773e+000 6.666049e-001 -9.566083e+000 223 96 95
-9.781775e-001 5.295146e-001 -8.910649e+000 204 104 74
1.528493e-002 5.583007e-001 -9.231188e+000 119 89 47
2.189931e+000 1.003922e+000 -1.048645e+001 104 65 36
6.426024e+000 1.107235e+000 -1.022971e+001 200 187 179
6.760682e+000 1.052271e+000 -9.576437e+000 254 249 244
6.823298e+000 1.025364e+000 -9.411673e+000 235 220 214
-2.275154e+000 3.673492e-001 -9.447589e+000 227 186 185
9.693447e-001 5.451557e-001 -9.960053e+000 134 100 54
1.240633e+000 5.461028e-001 -1.026028e+001 113 81 48
6.736361e+000 8.559828e-001 -9.564146e+000 230 218 212
6.779206e+000 8.174751e-001 -9.434565e+000 228 215 209
6.828724e+000 8.338681e-001 -9.274920e+000 241 229 222
6.720887e+000 7.190634e-001 -9.618420e+000 227 214 208
6.939086e+000 8.312040e-001 -9.316399e+000 254 251 246
6.939832e+000 7.191671e-001 -9.256993e+000 254 252 245
6.939832e+000 7.191671e-001 -9.256993e+000 254 252 245
1.840326e+000 -2.082376e-001 -1.141961e+001 71 91 89
-1.129176e+000 -3.031989e-001 -9.165271e+000 178 86 72
6.646569e+000 -4.154939e-003 -9.710584e+000 224 212 204
6.886791e-001 -8.652256e-001 -1.009929e+001 131 106 59
6.431884e+000 -2.187416e+000 -1.010821e+001 217 204 196
6.845845e+000 3.561990e+000 -9.399693e+000 253 244 234
6.697461e+000 3.423926e+000 -9.695505e+000 234 223 214
6.789098e+000 3.392814e+000 -9.484397e+000 237 223 220
6.476243e+000 2.939270e+000 -1.007202e+001 235 222 216
5.587189e+000 2.776293e+000 -1.138606e+001 214 204 195
6.041459e+000 2.691297e+000 -1.064150e+001 218 205 197
-7.821567e-001 1.454297e+000 -8.884321e+000 147 106 59
2.130590e+000 1.627462e+000 -9.892819e+000 80 97 97
6.152133e+000 1.793967e+000 -1.065318e+001 196 184 178
-1.455627e+000 9.306078e-001 -8.992867e+000 195 83 77
6.788014e+000 1.387256e+000 -9.448266e+000 233 219 216
6.788014e+000 1.387256e+000 -9.448266e+000 233 219 216
6.951948e+000 1.547815e+000 -9.144063e+000 254 250 247
9.077362e-001 9.492451e-001 -9.934143e+000 131 97 52
6.347211e+000 1.251274e+000 -1.023453e+001 197 184 178
-2.653720e+000 2.161527e-002 -1.004860e+001 224 75 74
-3.044680e-001 -3.739774e-001 -9.431503e+000 108 90 42
-2.233725e+000 -7.312264e-001 -1.014886e+001 183 87 83
2.714553e-001 -8.559052e-001 -9.863872e+000 132 99 55
5.748003e-001 -8.549475e-001 -9.999405e+000 130 100 54
1.988983e+000 -1.273869e+000 -1.356900e+001 149 124 116
6.496434e+000 -2.781688e-001 -1.010314e+001 227 214 208
6.679918e+000 -7.127052e-001 -9.725244e+000 219 209 202
6.679918e+000 -7.127052e-001 -9.725244e+000 219 209 202
6.479272e+000 -1.381438e+000 -1.009377e+001 206 195 188
6.479272e+000 -1.381438e+000 -1.009377e+001 206 195 188
6.522065e+000 -1.617590e+000 -9.957560e+000 219 206 197
6.522065e+000 -1.617590e+000 -9.957560e+000 219 206 197
7.049432e+000 -1.569993e+000 -9.074129e+000 231 215 211
5.778845e+000 -3.237808e+000 -1.120483e+001 186 177 172
6.688797e+000 3.487012e+000 -9.713988e+000 250 242 235
2.861117e+000 2.291620e+000 -1.071157e+001 154 72 81
-1.028132e+000 1.900465e+000 -9.711234e+000 193 92 91
8.820333e-001 2.153297e+000 -1.155988e+001 161 76 75
8.820333e-001 2.153297e+000 -1.155988e+001 161 76 75
1.392134e+000 2.045842e+000 -1.110028e+001 210 165 76
1.338105e+000 1.404080e+000 -9.956753e+000 102 43 42
2.122145e+000 1.462689e+000 -9.810980e+000 74 109 105
2.474123e+000 1.575854e+000 -9.875618e+000 122 167 168
6.857932e+000 1.895897e+000 -9.327490e+000 238 224 220
3.396144e+000 6.741215e-001 -1.342744e+001 80 40 37
6.788729e+000 7.232293e-001 -9.541432e+000 225 214 208
-1.657113e+000 -2.607695e-001 -9.232768e+000 193 91 87
-1.717914e+000 -7.387104e-001 -9.439482e+000 196 90 88
1.705759e+000 -1.240267e+000 -1.271221e+001 160 138 125
1.184544e+000 1.865891e+000 -1.142725e+001 155 114 60
-1.659529e+000 1.486785e+000 -9.374527e+000 240 125 125
-1.331157e+000 1.479002e+000 -9.347017e+000 108 32 36
3.388230e+000 4.905290e-001 -1.271728e+001 69 47 49
-2.248314e+000 -2.762895e-001 -9.652574e+000 148 29 35
-2.379942e+000 -6.222821e-001 -9.876706e+000 191 78 77
2.431106e+000 -1.035942e+000 -1.301432e+001 95 67 46
-2.314662e+000 1.376759e+000 -1.013352e+001 171 30 38
-2.060240e+000 1.320757e+000 -9.719374e+000 168 29 40
-2.060240e+000 1.320757e+000 -9.719374e+000 168 29 40
1.452851e+000 1.658779e+000 -9.751167e+000 122 43 48
-2.660392e+000 1.098729e+000 -1.021250e+001 166 32 39
-2.810844e+000 5.965683e-001 -1.029708e+001 210 76 72
-2.691870e+000 4.591640e-001 -1.006966e+001 169 27 37
-2.164821e+000 6.290216e-001 -9.514084e+000 218 104 98
-2.103455e+000 -2.061371e-001 -9.389454e+000 186 70 70
-3.212915e-001 -4.417033e-001 -9.367453e+000 48 47 42
3.286261e+000 -2.526663e-001 -1.298072e+001 101 70 70
-1.084556e+000 -1.258542e+000 -9.161754e+000 230 204 96
-1.922423e+000 1.382645e+000 -9.549703e+000 222 91 88
-2.501303e+000 9.673638e-001 -9.737109e+000 215 70 72
-1.840504e+000 9.869782e-001 -9.634983e+000 158 30 36
-1.482003e+000 1.002883e+000 -9.057147e+000 202 92 81
-2.430078e+000 5.781041e-001 -9.882605e+000 159 32 37
-2.264832e+000 4.514929e-001 -9.415998e+000 230 154 162
-3.100263e+000 1.781422e-001 -1.071855e+001 222 63 71
-2.453750e+000 1.143886e-001 -9.899457e+000 164 28 40
-2.067539e+000 -4.408375e-001 -9.707230e+000 218 102 98
-1.234557e-001 -4.526730e-001 -9.510551e+000 47 49 43
-1.951307e+000 -8.798524e-001 -9.711928e+000 144 34 43
-1.559754e+000 -9.664948e-001 -9.520784e+000 212 101 94
-3.690296e-001 -1.088162e+000 -9.744704e+000 66 63 55
-7.996420e-001 9.872945e-001 -8.862428e+000 143 94 41
2.118988e+000 1.372063e+000 -1.002255e+001 56 49 45
-9.725413e-001 5.808732e-001 -8.913234e+000 236 198 84
-1.200066e+000 9.218638e-002 -9.046780e+000 89 26 32
-2.153115e+000 -3.364329e-001 -9.418215e+000 116 27 33
-1.676871e+000 -8.881034e-001 -9.445946e+000 109 31 39
1.396447e+000 -8.607296e-001 -1.137353e+001 92 44 44
2.009517e+000 -1.603741e+000 -1.260480e+001 88 45 47
2.030799e+000 -1.625553e+000 -1.273943e+001 88 45 47
-1.765730e+000 1.347285e+000 -9.441455e+000 136 33 40
-1.765730e+000 1.347285e+000 -9.441455e+000 136 33 40
2.177383e+000 1.172177e+000 -1.034289e+001 169 132 61
-1.210838e+000 3.305605e-001 -9.023288e+000 217 82 78
-1.031560e+000 3.114342e-001 -8.969564e+000 114 30 35
-1.029628e+000 3.131981e-001 -8.936476e+000 114 30 35
-2.173239e+000 -1.846647e-002 -9.420630e+000 127 26 37
-1.950884e+000 -2.347689e-001 -9.498954e+000 113 28 32
-1.624036e+000 -3.322449e-001 -9.263870e+000 203 83 79
-1.531667e+000 -1.739310e+000 -1.049297e+001 226 222 213
4.810095e-001 2.396997e+000 -1.180015e+001 157 56 59
4.740778e-001 1.873440e+000 -1.175372e+001 79 35 38
-1.462253e+000 -1.303468e-001 -9.152790e+000 115 27 30
-8.786654e-001 -6.984832e-001 -9.000369e+000 131 91 42
8.880158e-002 -9.490608e-001 -1.021093e+001 128 96 49
5.338333e-001 -1.891580e+000 -1.258649e+001 114 44 49
-2.223340e+000 9.438560e-001 -9.732034e+000 133 29 36
-1.632893e-001 6.144518e-001 -9.342414e+000 54 51 43
1.459756e+000 1.921835e+000 -1.119888e+001 201 153 69
2.714221e+000 2.157120e+000 -1.091454e+001 121 62 65
-1.086845e+000 1.319502e+000 -8.973007e+000 214 167 63
3.140925e+000 -1.592131e+000 -1.343968e+001 218 211 202
3.140925e+000 -1.592131e+000 -1.343968e+001 218 211 202
2.253757e+000 1.973195e+000 -1.038009e+001 91 46 51
8.593951e-001 5.150309e-001 -1.082510e+001 130 98 47
3.396833e+000 -3.198542e+000 -1.518185e+001 222 219 210
-1.285053e+001 7.114705e+000 -2.912607e+001 231 220 221
-1.381940e+000 1.778778e+000 -9.874478e+000 129 48 49
-2.359085e-001 2.012981e+000 -1.025090e+001 104 65 65
-1.664077e+000 1.438659e+000 -9.625648e+000 175 75 77
2.762272e+000 1.654550e+000 -1.001593e+001 150 171 168
9.570777e-001 7.679967e-001 -9.982584e+000 121 89 42
-2.085704e+000 -9.092526e-001 -9.664709e+000 224 88 95
-1.471749e+001 8.479172e+000 -3.076224e+001 186 174 174
-1.239612e+001 7.463211e+000 -2.906496e+001 215 205 202
2.846044e+000 2.305143e+000 -1.054070e+001 152 102 98
-1.669434e+000 1.256730e+000 -9.434179e+000 188 79 80
2.777114e+000 1.365255e+000 -1.001264e+001 227 215 208
-3.308812e+000 -2.147167e+000 -4.110426e+001 155 68 69
-2.216899e-001 1.319904e+000 -9.266016e+000 58 64 55
2.124805e+000 1.471215e+000 -9.905873e+000 78 112 109
-3.029896e+000 3.309564e-001 -1.060154e+001 72 31 34
-1.162462e+001 6.425422e+000 -2.868961e+001 102 97 95
6.681130e+000 -8.570730e-001 -9.862100e+000 229 218 212
5.976349e-001 9.498082e-001 -9.760605e+000 133 101 41
-6.421607e+000 2.857023e+000 -2.803735e+001 89 85 90
-1.531538e+001 1.975969e+000 -3.284506e+001 115 113 116
-6.700266e+000 1.597770e+000 -2.857377e+001 79 77 80
-6.507392e+000 1.734640e+000 -2.862028e+001 48 42 46
-6.649115e+000 1.376093e+000 -2.877857e+001 42 38 39
-6.878029e+000 1.209403e+000 -2.907913e+001 73 71 74
-1.880530e+001 1.004954e+001 -3.700498e+001 84 77 84
-1.428132e+001 8.074965e+000 -3.040835e+001 192 175 158
-1.906398e+001 9.504871e+000 -3.695517e+001 80 76 82
-1.351943e+001 7.183851e+000 -3.055693e+001 217 200 191
-1.498353e+001 6.440215e+000 -3.266484e+001 210 190 179
-1.345494e+001 4.244821e+000 -3.001157e+001 197 181 168
-6.311384e+000 2.328608e+000 -2.831433e+001 43 41 42
-7.001170e+000 9.946407e-001 -2.886664e+001 85 84 89
-6.756591e+000 9.519258e-001 -2.900611e+001 44 38 41
-2.044550e+001 1.071958e+001 -3.966319e+001 38 33 39
-1.522527e+001 4.438797e+000 -3.289073e+001 210 192 180
-7.266574e+000 2.619638e+000 -2.867147e+001 48 44 45
-6.458546e+000 2.002565e+000 -2.842262e+001 47 38 41
-1.456308e+001 8.676696e+000 -3.101808e+001 116 110 122
-2.061405e+000 -4.487269e-001 -9.678820e+000 214 94 90
-1.680738e+000 -8.545294e-001 -9.481750e+000 109 34 38
-1.130221e+000 -1.087718e+000 -9.048569e+000 145 87 41
-2.187378e+001 -1.272250e+001 -4.625213e+001 133 125 122
-1.387608e+001 9.102238e+000 -3.065329e+001 109 106 117
-1.487465e+001 4.766912e+000 -3.271039e+001 229 211 199
-1.201716e+000 3.315961e-001 -9.017499e+000 215 82 79
-1.537628e-001 6.013606e-001 -9.303655e+000 54 51 45
-7.237588e+000 8.854666e-001 -2.897840e+001 81 82 86
1.051957e-001 -9.789477e-001 -1.001423e+001 132 100 53
-2.321942e+000 1.864741e+000 -1.037913e+001 231 224 210
-1.206525e+001 4.579453e+000 -2.869943e+001 255 255 255
-1.572960e+000 1.920057e+000 -9.905243e+000 170 67 69
-1.572960e+000 1.920057e+000 -9.905243e+000 170 67 69
2.151177e+000 1.167701e+000 -1.073244e+001 150 115 53
-1.205287e+001 5.098805e+000 -2.872526e+001 251 241 238
-1.289972e+001 2.736969e+000 -2.965058e+001 244 233 232
-1.296264e+001 2.207707e+000 -3.048823e+001 186 177 170
-2.355268e-001 1.317606e+000 -9.277685e+000 56 58 55
-9.021598e+000 3.631262e+000 -2.648122e+001 125 114 109
-6.262820e+000 2.677411e+000 -2.823823e+001 43 37 39
-7.153552e+000 1.662174e+000 -2.841387e+001 91 90 95
-1.515201e+001 3.689160e+000 -3.277195e+001 218 199 184
-1.201766e+001 2.960168e+000 -2.891134e+001 185 177 174
-7.404701e+000 1.510268e+000 -2.850365e+001 41 36 38
-1.673866e-001 4.666341e-001 -9.297122e+000 117 94 44
-1.338664e+001 1.109232e+000 -3.221227e+001 94 88 90
-1.214416e+000 1.007093e-001 -8.987984e+000 89 26 32
-1.850076e+001 -1.672400e+001 -4.077334e+001 65 64 67
-1.850076e+001 -1.672400e+001 -4.077334e+001 65 64 67
-1.351441e+001 1.284838e+000 -3.113651e+001 46 44 48
-1.108311e+001 4.578358e+000 -2.842658e+001 78 74 78
-1.353083e+001 2.325503e+000 -3.038007e+001 219 207 207
-1.248768e+001 2.588980e+000 -2.955452e+001 191 181 180
-9.006190e+000 3.941195e+000 -2.609268e+001 84 82 86
-6.628679e+000 2.554581e+000 -2.795008e+001 83 79 83
4.487144e-001 2.588308e+000 -1.216324e+001 186 96 97
3.877612e-001 2.536571e+000 -1.203665e+001 227 208 194
-1.327351e+001 2.613961e+000 -2.991657e+001 243 231 232
-1.581613e+000 1.988633e+000 -9.930242e+000 219 103 104
2.335191e+000 1.660485e+000 -1.000009e+001 59 69 73
2.335191e+000 1.660485e+000 -1.000009e+001 59 69 73
1.327165e+000 2.331470e+000 -1.122550e+001 174 119 52
2.493762e+000 1.344155e+000 -9.903002e+000 53 56 57
1.152446e+000 4.138731e-001 -1.013648e+001 116 94 45
-1.617200e+000 1.033312e+000 -9.224561e+000 216 99 92
-1.722918e+000 5.708840e-001 -9.287555e+000 117 22 33
-3.188293e-001 -4.551503e-001 -9.423893e+000 42 42 39
1.610990e+000 2.169476e+000 -1.105552e+001 152 73 47
-1.749587e+000 1.126120e+000 -9.519535e+000 216 103 97
-1.544725e+000 5.944433e-001 -9.149801e+000 212 96 91
-1.618124e+000 -1.135650e-001 -9.205921e+000 113 25 31
-1.550732e+000 8.243328e-001 -9.094369e+000 116 26 34
4.968563e-001 2.415348e+000 -1.202817e+001 155 55 63
9.032788e-001 2.766431e+000 -1.267105e+001 229 222 213
-7.486685e-001 1.134127e+000 -9.098331e+000 127 85 37
4.876410e+000 -1.880898e+000 -1.204928e+001 119 114 111
6.730870e+000 3.260929e+000 -9.684552e+000 226 213 205
6.563833e+000 2.627247e+000 -1.008820e+001 219 211 200
6.926685e+000 2.335192e+000 -9.309568e+000 222 209 201
7.191631e+000 1.669209e+000 -8.758151e+000 230 216 207
6.343412e+000 2.594523e+000 -1.048544e+001 209 199 190
6.382497e+000 2.469385e+000 -1.020460e+001 217 207 199
6.691187e+000 1.777574e+000 -9.614180e+000 209 199 189
7.069287e+000 1.791804e+000 -8.974985e+000 226 212 204
7.059474e+000 1.637339e+000 -9.006083e+000 224 211 205
1.718077e+000 2.249447e+000 -1.001178e+001 215 200 187
5.718115e+000 2.560726e+000 -1.125353e+001 202 193 184
-1.243318e+000 1.496827e+000 -9.398737e+000 190 99 90
1.467562e+000 2.511547e+000 -1.146851e+001 218 194 97
1.181869e+000 2.506761e+000 -1.165521e+001 146 99 68
2.294607e+000 1.729456e+000 -9.907117e+000 93 95 97
2.404282e+000 1.629818e+000 -9.946542e+000 83 112 115
2.709368e+000 1.605133e+000 -9.975672e+000 153 171 168
2.445619e+000 1.407913e+000 -9.827846e+000 111 141 139
2.785801e+000 1.507735e+000 -1.012888e+001 149 169 165
2.701275e+000 1.432080e+000 -9.999078e+000 147 158 155
1.304044e+000 1.971467e+000 -1.151956e+001 191 144 74
-1.530030e+000 6.530915e-001 -9.178715e+000 199 95 93
1.006307e+000 9.252571e-001 -9.980862e+000 129 96 56
6.146680e+000 4.557021e-001 -1.053738e+001 149 141 135
6.691777e+000 2.160850e-002 -9.454460e+000 225 212 206
-2.435171e+000 6.457599e-001 -9.763810e+000 221 96 93
6.547329e+000 -4.283481e-001 -9.638438e+000 246 239 236
6.547329e+000 -4.283481e-001 -9.638438e+000 246 239 236
-3.124463e-001 -5.574199e-002 -9.260118e+000 105 74 28
-2.394974e-001 -5.284340e-002 -9.325557e+000 103 71 32
-1.082615e+000 -3.432347e-001 -9.108020e+000 209 114 91
-1.013628e+000 -3.638617e-001 -8.969198e+000 199 89 63
6.187806e+000 -7.918253e-001 -1.021251e+001 154 143 139
6.236617e+000 -1.269161e+000 -9.926494e+000 195 182 174
6.199129e+000 -1.371045e+000 -9.926769e+000 193 180 172
-2.248658e+000 -7.227685e-001 -1.012103e+001 168 81 80
-1.527143e+000 -9.813556e-001 -9.420192e+000 206 88 87
-1.525727e+000 -1.138147e+000 -9.526448e+000 177 55 59
6.394641e+000 -1.878217e+000 -9.722535e+000 229 219 213
6.406388e+000 -2.150641e+000 -9.599005e+000 251 246 240
-1.609538e+000 -1.344637e+000 -1.016509e+001 120 52 55
4.602516e-001 -1.218038e+000 -1.243020e+001 191 167 161
6.172775e+000 -2.686518e+000 -9.975712e+000 252 244 239
6.244244e+000 -3.020004e+000 -9.720397e+000 254 249 245
6.539409e+000 -3.185042e+000 -9.383770e+000 242 231 228
5.727131e+000 -3.427911e+000 -1.062034e+001 216 205 200
5.885154e+000 -3.593340e+000 -1.069621e+001 222 213 206
6.132079e+000 -3.320216e+000 -1.001745e+001 252 243 235
5.736332e+000 -3.842490e+000 -1.060312e+001 245 233 227
6.794512e+000 2.883653e+000 -9.580577e+000 226 213 205
6.646843e+000 2.528947e+000 -9.875293e+000 218 205 197
6.669084e+000 2.478812e+000 -9.761453e+000 218 205 198
6.638832e+000 2.325699e+000 -9.833602e+000 215 202 196
7.032749e+000 1.883720e+000 -9.042553e+000 225 211 205
6.352219e+000 2.109045e+000 -1.035020e+001 209 199 191
6.999675e+000 1.382860e+000 -9.049899e+000 218 205 197
-2.467788e-001 1.385487e+000 -9.321297e+000 94 98 77
2.501847e+000 1.551550e+000 -9.911599e+000 108 146 152
2.472108e+000 1.428367e+000 -9.728728e+000 103 99 103
6.270058e+000 1.561382e+000 -1.040214e+001 192 181 175
6.867449e+000 6.389616e-001 -9.176977e+000 227 217 210
-9.729793e-001 5.164449e-001 -8.923241e+000 194 89 73
-2.439765e+000 3.495761e-001 -9.919216e+000 218 94 96
6.392851e+000 -6.458253e-001 -9.905642e+000 193 180 172
-1.138756e+000 -3.041857e-001 -9.125302e+000 185 92 86
6.365482e+000 -1.102045e+000 -9.907614e+000 207 195 187
-1.992453e+000 -1.109959e+000 -9.746509e+000 195 85 85
-1.010008e+000 -1.140128e+000 -8.972024e+000 152 102 42
6.142589e+000 -1.783161e+000 -1.014664e+001 191 180 174
6.605782e+000 -3.157774e+000 -9.136469e+000 244 235 231
4.770425e+000 -4.420847e+000 -1.235402e+001 213 204 199
6.878994e+000 2.162514e+000 -9.386459e+000 220 208 204
6.116066e+000 1.932203e+000 -1.078758e+001 216 207 200
6.166978e+000 1.603639e+000 -1.047930e+001 185 176 169
2.363251e+000 1.301632e+000 -1.046919e+001 119 91 57
6.862282e+000 4.883448e-001 -9.207130e+000 232 219 215
-1.817588e+000 1.085742e+000 -9.595905e+000 207 94 91
-2.336995e+000 3.718456e-001 -9.444800e+000 214 81 80
-2.533126e+000 -5.550158e-001 -9.894710e+000 141 39 40
-1.407342e+000 -8.573580e-001 -9.458393e+000 153 73 67
6.446832e+000 1.946530e+000 -1.014179e+001 227 217 208
6.618903e+000 1.381504e+000 -9.628623e+000 206 196 187
1.763183e+000 1.898422e+000 -1.012570e+001 168 83 86
1.763183e+000 1.898422e+000 -1.012570e+001 168 83 86
2.151313e+000 1.702780e+000 -1.013553e+001 68 48 53
-1.022300e+000 9.836157e-001 -9.029958e+000 238 189 78
1.308820e+000 2.111473e+000 -1.158711e+001 203 154 76
1.426913e+000 1.564220e+000 -1.112019e+001 120 80 54
-2.317792e-001 5.038283e-001 -9.334535e+000 116 95 48
1.093011e+000 -8.905081e-001 -1.014525e+001 145 114 60
1.093011e+000 -8.905081e-001 -1.014525e+001 145 114 60
-1.439197e+000 -1.204060e+000 -9.573176e+000 185 92 89
-4.800243e-001 -1.293043e+000 -9.362845e+000 124 103 48
-4.055459e-001 -1.273340e+000 -9.361759e+000 53 55 52
2.728246e+000 1.379588e+000 -1.005320e+001 78 78 77
2.726528e+000 1.325301e+000 -1.018012e+001 221 214 204
-1.843194e+000 9.905674e-001 -9.542062e+000 163 38 41
-1.843194e+000 9.905674e-001 -9.542062e+000 163 38 41
-1.775729e+000 7.161958e-001 -9.293383e+000 132 29 37
1.536886e+000 1.114085e+000 -1.077140e+001 224 219 208
1.663068e+000 1.086408e+000 -1.094837e+001 78 42 39
1.768674e+000 5.045811e-001 -1.115524e+001 57 47 55
1.338470e+000 -4.067004e-001 -1.085949e+001 43 43 44
-3.002145e+000 -2.468568e-002 -1.076599e+001 212 90 90
-1.828433e+000 -8.614487e-001 -9.561046e+000 221 108 105
-2.222153e+000 -8.211450e-001 -1.005207e+001 158 28 40
-2.222153e+000 -8.211450e-001 -1.005207e+001 158 28 40
-1.853267e+000 -1.131189e+000 -9.621410e+000 208 100 98
-1.853267e+000 -1.131189e+000 -9.621410e+000 208 100 98
-1.537524e+000 -1.176429e+000 -9.567886e+000 86 36 37
1.650478e+000 2.182290e+000 -1.004137e+001 194 81 83
1.535700e+000 2.127368e+000 -1.066655e+001 156 83 52
1.882377e+000 1.795923e+000 -9.999878e+000 92 44 47
2.339209e+000 1.624282e+000 -1.006704e+001 92 111 117
2.432249e+000 1.576547e+000 -1.008407e+001 73 82 89
-1.673458e+000 1.546854e+000 -9.538396e+000 205 97 94
2.407499e+000 1.341140e+000 -1.032669e+001 65 50 45
-1.052691e+000 5.983343e-001 -9.051217e+000 229 188 90
-2.950529e+000 3.948710e-001 -1.066568e+001 219 93 97
-2.839689e+000 1.073461e-001 -1.038050e+001 216 81 80
-2.839689e+000 1.073461e-001 -1.038050e+001 216 81 80
-2.250156e+000 -1.895538e-001 -9.575651e+000 213 91 90
-2.481015e+000 -7.639496e-001 -1.045930e+001 159 30 42
-1.366461e+000 -1.172358e+000 -9.230308e+000 118 35 38
-1.094866e+000 -1.253387e+000 -9.060184e+000 225 204 85
2.392716e+000 -1.060389e+000 -1.285721e+001 100 69 43
2.252963e+000 2.235153e+000 -1.016592e+001 117 65 68
1.325153e+000 2.121948e+000 -1.117527e+001 157 96 49
1.455611e+000 2.216053e+000 -1.106580e+001 228 187 80
-1.790433e+000 1.392130e+000 -9.781067e+000 140 35 41
-1.790433e+000 1.392130e+000 -9.781067e+000 140 35 41
-1.967538e+000 8.641371e-001 -9.475918e+000 216 99 96
-1.712607e+000 8.994493e-001 -9.357578e+000 216 88 87
-1.581220e+000 7.824647e-001 -9.209559e+000 126 33 41
-6.081615e-002 5.615982e-001 -9.365498e+000 54 52 42
-2.155254e+000 3.576151e-001 -9.405437e+000 138 31 39
-2.645379e+000 4.192114e-001 -1.007487e+001 152 28 39
-2.710775e+000 3.286171e-001 -1.025246e+001 217 91 87
-2.304151e+000 2.794981e-003 -9.556939e+000 225 102 102
-2.177624e+000 7.231498e-002 -9.586244e+000 130 30 34
-2.177624e+000 7.231498e-002 -9.586244e+000 130 30 34
-2.426687e+000 -1.087190e-001 -9.651065e+000 145 29 39
-2.689361e+000 -2.578615e-002 -1.016424e+001 149 28 38
-2.185729e+000 -9.274019e-002 -9.453856e+000 126 29 35
-1.792735e+000 -2.717530e-001 -9.291424e+000 104 25 33
-2.056742e+000 -6.592103e-001 -9.804911e+000 102 29 36
-1.280150e+000 -7.911008e-001 -9.111540e+000 106 39 33
3.703982e-001 -8.669051e-001 -1.036562e+001 91 42 38
-2.208495e+000 -1.001967e+000 -1.003810e+001 131 36 46
-1.224912e+000 -1.228733e+000 -9.231959e+000 242 205 90
-2.073583e+000 -1.334888e+000 -1.027978e+001 206 97 95
-1.472592e+000 -1.268162e+000 -9.827454e+000 70 35 41
-1.472592e+000 -1.268162e+000 -9.827454e+000 70 35 41
7.075168e-001 -1.885647e+000 -1.216807e+001 141 65 67
1.574478e+000 2.387323e+000 -1.069544e+001 221 216 203
1.078931e+000 2.472699e+000 -1.166419e+001 129 63 57
-1.138636e+000 1.273559e+000 -8.945324e+000 254 216 95
-9.742574e-001 1.275157e+000 -9.030275e+000 146 89 42
1.126259e+000 2.027712e+000 -1.143017e+001 98 42 38
-2.107600e+000 1.061722e+000 -9.746271e+000 126 29 36
-1.574672e+000 7.771812e-001 -9.168196e+000 123 34 40
-1.881997e+000 5.162074e-001 -9.188798e+000 121 28 37
-1.755503e+000 3.705966e-001 -9.213110e+000 224 70 75
1.682086e+000 1.036091e+000 -1.173342e+001 96 47 47
-2.102970e+000 1.740365e-001 -9.376226e+000 210 95 92
-1.614385e+000 -9.317492e-002 -9.228551e+000 114 29 34
-1.805575e+000 -5.670197e-001 -9.118267e+000 213 64 64
-1.031327e+000 -4.452791e-001 -8.960782e+000 247 214 96
-1.092538e+000 -6.270065e-001 -8.999060e+000 144 87 28
-1.879961e+000 -7.608848e-001 -9.638246e+000 210 94 89
-1.879961e+000 -7.608848e-001 -9.638246e+000 210 94 89
-1.293046e+000 -1.043370e+000 -9.072475e+000 255 222 84
-1.554549e+000 -9.909638e-001 -9.482635e+000 209 90 86
-1.526149e+000 -1.415353e+000 -1.009337e+001 196 86 86
4.553972e-001 -1.395005e+000 -1.238690e+001 76 44 45
-1.247601e+000 2.262221e+000 -1.025575e+001 224 227 214
-1.720789e+000 1.025688e+000 -9.408057e+000 214 81 82
-1.740848e+000 1.121637e+000 -9.655330e+000 214 81 82
1.374961e+000 -4.842781e-001 -1.075128e+001 56 49 47
2.710766e+000 -8.657501e-001 -1.296409e+001 104 73 42
-1.165609e-001 -1.572951e+000 -1.098706e+001 109 57 58
2.646131e-001 1.209794e+000 -9.880044e+000 132 99 54
-1.912554e+000 -2.506136e-001 -9.373213e+000 110 29 31
-2.277418e-001 -4.779273e-001 -9.439961e+000 53 52 47
-1.446430e-001 -1.545281e+000 -1.099597e+001 106 56 57
2.512668e-001 -1.247030e+000 -1.183790e+001 229 225 214
2.912317e-001 -1.581950e+000 -1.248412e+001 231 224 214
5.652936e-001 -1.886908e+000 -1.265929e+001 114 51 55
5.652936e-001 -1.886908e+000 -1.265929e+001 114 51 55
-1.411247e+000 7.965417e-001 -9.011919e+000 126 45 41
-1.991363e+000 4.186447e-001 -9.304893e+000 120 29 36
-2.368906e-001 -8.555626e-001 -9.572796e+000 70 60 50
3.320824e+000 -1.156658e+000 -1.326664e+001 77 38 43
-1.028092e+000 1.036673e+000 -9.210823e+000 236 186 86
3.658389e+000 1.690916e+000 -1.271678e+001 222 213 204
-2.715529e+000 -1.260429e+000 -1.129736e+001 231 224 214
-2.730608e+000 6.748920e-001 -1.121702e+001 219 94 92
1.053790e+000 -1.559599e+000 -1.278254e+001 89 40 42
2.316786e+000 2.033804e+000 -1.099041e+001 77 48 50
2.318565e+000 2.033769e+000 -1.099103e+001 77 48 50
-2.166152e+001 -1.066573e+001 -4.835103e+001 61 60 59
-2.204194e+001 -1.414456e+001 -4.742099e+001 105 102 105
-2.442914e+001 -1.808082e+001 -4.932250e+001 64 85 114
-2.387009e+001 -1.718194e+001 -4.855919e+001 48 60 84
-1.998211e+001 -1.535348e+001 -4.382544e+001 67 65 68
-2.159621e+001 -1.802201e+001 -4.475042e+001 44 62 93
-2.235976e+001 -1.386257e+001 -4.736287e+001 58 61 76
-2.489887e+001 -1.674983e+001 -4.947284e+001 47 47 52
-2.192044e+001 -1.641848e+001 -4.560105e+001 81 95 116
-1.980851e+001 -1.537584e+001 -4.285626e+001 138 130 126
-2.369615e+001 -1.637777e+001 -4.815838e+001 134 132 143
-2.369615e+001 -1.637777e+001 -4.815838e+001 134 132 143
-2.493314e+001 -1.892287e+001 -4.968466e+001 38 47 87
-2.022538e+001 -1.809010e+001 -4.281703e+001 61 60 65
-2.013024e+001 -1.739082e+001 -4.287664e+001 169 160 161
-2.302141e+001 -1.807194e+001 -4.727220e+001 38 52 87
-2.262178e+001 -1.435884e+001 -4.891805e+001 94 91 91
-2.113756e+001 -1.289930e+001 -4.540610e+001 99 96 97
-2.264927e+001 -1.288497e+001 -4.863938e+001 56 56 58
-1.822538e+001 -1.697430e+001 -3.929106e+001 60 59 64
-1.794899e+001 -8.715636e+000 -5.230346e+001 35 33 36
-1.685769e+001 -1.748786e+001 -3.921436e+001 123 114 115
-1.805382e+000 2.918712e-001 -9.228802e+000 216 80 82
-1.792142e+000 2.528672e-001 -9.264385e+000 107 19 18
-1.254831e+001 7.468330e+000 -2.894918e+001 235 228 227
-1.248775e+001 7.381592e+000 -2.889485e+001 244 232 232
-1.309002e+001 7.184233e+000 -2.947971e+001 253 240 240
-1.263369e+001 6.810104e+000 -2.890847e+001 246 236 235
6.233610e+000 -1.904021e+000 -1.048510e+001 190 180 173
-1.520763e+000 -1.275422e+000 -1.001525e+001 69 30 31
-1.313033e+001 2.693680e+000 -3.000569e+001 223 213 212
-1.322815e+001 2.573191e+000 -3.009192e+001 230 218 218
-1.257625e+001 2.405538e+000 -2.982238e+001 191 184 180
-9.630173e-001 9.714964e-001 -8.889131e+000 224 181 79
-1.269525e+001 7.460648e+000 -2.948157e+001 226 217 215
1.915116e+000 4.373667e-001 -1.143819e+001 73 87 87
-1.252959e+001 5.837221e+000 -2.870778e+001 221 211 208
-1.204931e+001 5.088559e+000 -2.874654e+001 249 239 238
-1.020196e+000 -1.211453e+000 -8.898706e+000 154 109 44
-6.662968e+000 2.551281e+000 -2.809081e+001 79 80 84
-1.242541e+001 2.273988e+000 -2.991890e+001 121 113 110
-1.254447e+001 2.124197e+000 -3.001540e+001 126 116 114
-1.291053e+001 1.902776e+000 -3.053901e+001 122 114 111
-1.304844e+001 1.794311e+000 -3.066529e+001 118 110 107
-1.272426e+001 2.006332e+000 -3.028014e+001 123 116 110
4.936998e-001 -2.034037e+000 -1.279049e+001 162 85 80
2.393813e+000 1.668201e+000 -9.921391e+000 63 73 81
-1.759018e+000 1.484617e+000 -9.432063e+000 198 99 95
-1.545272e+000 -2.326020e-001 -9.167191e+000 194 86 79
-1.544600e+000 -2.313866e-001 -9.171458e+000 194 86 79
-1.245850e+001 4.984559e+000 -2.883518e+001 220 207 203
-1.192244e+001 4.995403e+000 -2.864149e+001 230 220 214
-1.261893e+001 2.523973e+000 -2.987371e+001 209 202 197
-1.490033e+000 -1.612953e+000 -1.062647e+001 176 159 151
-7.243644e+000 8.029709e-001 -2.872094e+001 72 76 79
-7.093213e+000 8.247588e-001 -2.908950e+001 66 66 71
2.307956e+000 9.993647e-001 -1.068399e+001 129 95 51
-1.431433e-001 -2.707722e-002 -9.393912e+000 107 77 36
-2.361427e+000 -6.093877e-001 -9.809587e+000 212 95 97
5.186971e-001 -1.137668e+000 -1.247471e+001 94 44 46
-1.060604e+001 1.831573e+000 -2.818555e+001 217 195 163
1.721418e+000 1.918596e+000 -9.959091e+000 120 44 50
1.825363e+000 1.765476e+000 -9.948851e+000 98 44 49
2.534556e+000 1.396088e+000 -9.933860e+000 65 70 73
-9.274053e-001 8.265796e-001 -8.708228e+000 232 198 90
-1.885780e+000 1.204527e+000 -9.631992e+000 208 88 89
-1.878809e+000 1.197346e+000 -9.617327e+000 208 88 89
2.453722e+000 9.838686e-001 -1.048171e+001 155 125 71
-2.166863e+000 7.104813e-001 -9.478993e+000 129 28 38
-1.021235e+000 -7.528253e-001 -9.011742e+000 242 208 92
-1.021235e+000 -7.528253e-001 -9.011742e+000 242 208 92
-1.582477e+001 5.425914e+000 -3.349524e+001 191 179 168
-1.026364e+001 3.358380e+000 -2.699204e+001 244 226 200
-2.562351e+000 -9.790567e-001 -1.070489e+001 212 95 94
-1.540955e+001 4.061332e+000 -3.321457e+001 195 179 166
-1.540955e+001 4.061332e+000 -3.321457e+001 195 179 166
-1.396765e+001 3.385937e+000 -3.182742e+001 198 184 175
-1.403021e+001 3.436803e+000 -3.202843e+001 198 184 175
-1.490427e+000 9.687012e-001 -9.045890e+000 189 87 79
-1.090098e+000 1.076160e+000 -9.024630e+000 254 212 94
-9.161733e-001 1.021644e+000 -8.789012e+000 244 206 96
-9.401153e-001 5.848053e-001 -8.849401e+000 237 201 92
-2.508570e-001 5.700000e-001 -9.276665e+000 50 45 51
-1.439836e+001 7.428274e+000 -3.157321e+001 198 180 169
-1.445149e+001 7.477623e+000 -3.173792e+001 198 180 169
-1.975412e-001 -5.984715e-001 -9.539817e+000 78 81 56
-6.947250e+000 2.919016e+000 -2.792257e+001 48 47 52
-1.821636e+000 -1.260208e+000 -1.019244e+001 177 93 93
-1.305971e+001 2.824284e+000 -2.992500e+001 223 213 211
-1.013482e+001 1.952419e+000 -2.793400e+001 249 234 205
-6.888422e+000 2.308000e+000 -2.801414e+001 102 103 106
-6.739411e+000 1.826916e+000 -2.853099e+001 91 95 98
-1.540247e+000 -1.598717e+000 -1.022820e+001 92 43 46
-1.496366e+001 2.143340e+000 -3.203914e+001 125 122 124
2.127533e+000 2.343551e+000 -1.014015e+001 219 216 206
-2.157558e+000 3.711319e-001 -9.441006e+000 138 31 39
2.849960e+000 9.443336e-001 -1.233732e+001 97 37 42
-1.912958e+000 -6.354205e-001 -9.471911e+000 140 32 41
-1.768478e+000 -7.245587e-001 -9.381117e+000 206 86 81
-1.299883e+001 3.126935e+000 -2.983964e+001 188 176 178
-1.474853e+001 2.374476e+000 -3.197961e+001 199 188 186
-1.773562e+000 1.303501e+000 -9.487649e+000 136 36 42
-1.773562e+000 1.303501e+000 -9.487649e+000 136 36 42
-1.232559e+000 1.102735e+000 -9.065343e+000 134 41 41
2.233421e+000 1.208512e+000 -1.055074e+001 166 132 67
-1.575373e+000 7.737314e-001 -9.162202e+000 123 34 40
-1.022809e+000 3.190252e-001 -8.944282e+000 115 30 37
-2.104941e+000 1.715634e-001 -9.375799e+000 210 95 92
-2.156296e+000 -8.787828e-003 -9.450306e+000 120 29 38
-1.814870e+000 -5.260621e-001 -9.250362e+000 213 64 64
-1.604018e+000 -3.631791e-001 -9.181282e+000 208 88 85
-1.930079e+000 -9.689946e-001 -9.661173e+000 124 33 40
-1.923410e+000 -1.449868e+000 -1.027608e+001 115 42 47
-1.528869e+001 3.594514e+000 -3.307334e+001 219 205 191
-1.393207e+001 1.178396e+000 -3.340334e+001 82 76 78
-9.462149e-001 9.503496e-001 -8.816183e+000 226 183 81
-1.504192e+001 8.645521e+000 -3.130032e+001 199 189 190
-1.399138e+001 4.213208e+000 -3.054266e+001 233 215 201
1.606825e+000 -1.630785e+000 -1.189698e+001 116 87 49
-2.253384e-001 -4.757776e-001 -9.450322e+000 53 52 47
-6.704037e+000 2.125020e+000 -2.771765e+001 98 99 103
-6.696744e+000 2.116276e+000 -2.768141e+001 98 99 103
-1.511733e+000 1.734584e+000 -9.661989e+000 119 43 51
-1.153614e+001 2.069748e+000 -2.832530e+001 80 75 79
-1.153614e+001 2.069748e+000 -2.832530e+001 80 75 79
-1.304101e+001 7.888890e+000 -3.033008e+001 242 235 232
-1.836591e+001 1.103235e+001 -3.678709e+001 36 33 40
-1.191943e+001 1.844615e+000 -2.972763e+001 63 59 67
-1.191943e+001 1.844615e+000 -2.972763e+001 63 59 67
4.191555e+000 1.157581e+000 -1.371860e+001 56 34 37
-1.327779e+001 4.763851e+000 -3.082809e+001 222 208 197
1.640549e+000 2.301225e+000 -1.048703e+001 216 180 172
1.854901e+000 1.892577e+000 -9.899158e+000 126 69 72
-1.301248e+001 2.807655e+000 -2.983641e+001 224 214 213
-1.313191e+001 2.695069e+000 -3.000640e+001 220 211 210
-1.432883e+001 1.618173e+000 -3.201851e+001 147 141 141
-1.843589e+000 -1.461834e+000 -1.023114e+001 128 55 62
2.492499e+000 1.677690e+000 -9.803059e+000 70 73 80
-3.620338e-001 -9.136497e-001 -9.599185e+000 52 51 47
-1.155063e+001 6.176254e+000 -2.866341e+001 103 95 93
-1.023187e+001 1.803324e+000 -2.836374e+001 188 164 128
-1.086981e+001 1.487269e+000 -2.879358e+001 93 88 85
-7.266001e+000 1.831627e+000 -2.812673e+001 45 44 48
-2.016738e+001 1.092637e+001 -3.844652e+001 67 62 68
-1.784829e+001 7.633141e+000 -3.684969e+001 166 149 142
-1.637808e+000 -1.736864e-001 -9.198021e+000 128 28 36
-1.095497e+001 9.726363e-001 -3.019503e+001 66 64 67
-1.265410e+001 1.037480e+000 -3.147875e+001 90 85 89
-1.265410e+001 1.037480e+000 -3.147875e+001 90 85 89
-3.049745e+001 3.465315e+001 -7.053053e+001 22 21 29
-1.533901e+000 5.774944e-001 -9.143834e+000 210 92 87
-1.352547e+001 8.001700e+000 -2.968838e+001 139 134 141
-1.840800e-001 1.534192e+000 -9.627788e+000 94 96 74
1.444844e+000 2.080277e+000 -1.155377e+001 182 126 45
1.444844e+000 2.080277e+000 -1.155377e+001 182 126 45
-3.103377e-001 -4.587033e-002 -9.298966e+000 114 80 38
-1.532500e+000 -1.009045e+000 -9.329698e+000 201 89 80
-1.623325e+000 -1.582909e+000 -9.943967e+000 125 51 51
1.571138e+000 -1.307048e+000 -1.225505e+001 104 62 51
6.030840e+000 -3.620431e+000 -1.006919e+001 254 251 246
5.810811e+000 -3.803581e+000 -1.027198e+001 254 251 244
5.829021e+000 -3.880019e+000 -1.036455e+001 253 249 243
4.759344e+000 -3.802833e+000 -1.231003e+001 214 204 195
5.000991e+000 -4.172004e+000 -1.154161e+001 226 215 211
5.217150e+000 -4.212550e+000 -1.125178e+001 247 240 236
5.349476e+000 -4.170943e+000 -1.090382e+001 237 226 220
5.195513e+000 -5.022045e+000 -1.094796e+001 243 230 226
2.778687e+000 1.763888e+000 -1.015610e+001 152 169 167
-1.831328e+000 1.312463e+000 -9.796955e+000 217 103 103
5.896909e+000 -2.442350e+000 -1.045913e+001 198 186 180
-2.748685e+000 -4.919265e-001 -1.093486e+001 229 108 107
-2.020153e+000 -1.069726e+000 -9.741328e+000 159 48 54
-1.389733e+000 -1.294362e+000 -1.001055e+001 125 63 63
2.488305e+000 -2.236710e+000 -1.303428e+001 162 117 114
4.799749e+000 -2.793544e+000 -1.211473e+001 177 166 160
4.828300e+000 -3.500899e+000 -1.208592e+001 223 213 204
4.622954e+000 -5.380369e+000 -1.191304e+001 237 222 215
7.267091e+000 1.545304e-002 -8.564062e+000 236 222 211
-1.406607e-001 1.416850e+000 -9.395701e+000 107 137 128
-1.426742e+000 1.339895e+000 -9.487033e+000 209 104 98
1.614244e+000 1.883549e+000 -1.118575e+001 125 77 39
-1.381318e+000 -9.931429e-001 -9.290609e+000 155 65 40
-1.929712e+000 -1.244901e+000 -1.020262e+001 156 76 77
-2.742324e+000 -9.715410e-001 -1.096951e+001 211 100 103
2.550823e+000 -1.346499e+000 -1.294968e+001 111 46 47
-2.227361e+000 -1.509550e+000 -1.072026e+001 204 102 102
4.750883e-001 -1.608139e+000 -1.253416e+001 126 65 67
-6.645514e-002 1.385935e+000 -9.416897e+000 106 144 125
2.236220e+000 1.594239e+000 -1.005061e+001 73 90 90
-2.061712e+000 2.043020e+000 -1.042860e+001 205 81 84
6.409167e+000 -1.019805e+000 -9.851769e+000 225 212 204
4.022254e+000 1.431462e+000 -1.341387e+001 84 44 45
-1.443767e+000 -1.209146e+000 -9.566787e+000 186 96 88
1.846167e+000 -9.578241e-001 -1.306907e+001 213 193 176
-1.416657e+000 -1.591113e+000 -1.022213e+001 182 99 93
4.623301e-001 -9.444572e-001 -1.254094e+001 82 44 46
3.122789e+000 -1.377605e+000 -1.319061e+001 130 90 89
3.815670e-001 -1.587931e+000 -1.237566e+001 229 230 221
5.980958e-001 -1.950474e+000 -1.206568e+001 151 66 70
3.793259e-001 -2.030665e+000 -1.252151e+001 237 228 218
1.880728e+000 1.815501e+000 -1.004566e+001 94 44 47
-1.150658e+000 1.863987e+000 -9.769824e+000 127 51 46
-1.850976e-001 1.419438e+000 -9.257948e+000 65 74 67
2.309160e+000 1.380429e+000 -1.051419e+001 67 53 52
2.812339e+000 1.507411e+000 -1.073273e+001 135 71 71
2.766045e+000 1.432756e+000 -1.013750e+001 77 91 88
-9.367398e-001 5.966498e-001 -8.866793e+000 239 207 94
-2.256279e+000 1.165049e+000 -9.816293e+000 195 93 91
1.678140e+000 1.353169e+000 -1.134679e+001 225 224 210
-2.665808e+000 8.087558e-001 -1.026482e+001 216 101 96
-2.661933e+000 7.877139e-001 -1.022416e+001 216 101 96
4.382057e-001 -8.403681e-001 -9.873848e+000 149 114 58
-2.724006e+000 -7.616816e-001 -1.074874e+001 180 40 47
-2.724006e+000 -7.616816e-001 -1.074874e+001 180 40 47
-1.851302e+000 -1.116796e+000 -9.651369e+000 224 110 107
-1.853802e+000 -1.145341e+000 -9.578869e+000 224 110 107
-1.912406e-001 1.216913e+000 -9.322304e+000 73 77 60
1.541690e+000 2.182397e+000 -1.142603e+001 213 171 76
2.562106e+000 1.336560e+000 -1.052336e+001 146 115 70
-1.221095e-001 7.059957e-001 -9.354023e+000 82 85 63
-2.290531e+000 1.691491e+000 -1.029309e+001 234 227 221
-1.055907e+000 5.846819e-001 -9.024430e+000 233 191 90
-2.057416e+000 6.482327e-001 -9.450255e+000 192 84 82
-1.097784e+000 -1.281265e+000 -8.981497e+000 241 210 87
-1.278315e+000 -1.301531e+000 -9.984321e+000 141 67 68
2.413569e+000 -1.037247e+000 -1.299929e+001 108 74 46
-2.556411e+000 -9.964620e-001 -1.065736e+001 221 99 97
-2.020699e+000 -1.503374e+000 -1.051022e+001 209 96 94
-1.370871e+000 -1.552898e+000 -1.003092e+001 113 39 47
-1.095597e+000 1.484038e+000 -9.310873e+000 254 224 102
-1.530032e+000 1.331868e+000 -9.479698e+000 110 40 46
-1.388891e+000 1.312136e+000 -9.335174e+000 202 90 88
-2.431718e+000 7.746500e-001 -9.877814e+000 209 91 88
-1.753643e+000 1.868998e-001 -9.263991e+000 98 32 37
-1.684397e+000 -6.339139e-001 -9.269790e+000 135 36 45
-2.073798e+000 -7.025646e-001 -9.672401e+000 105 29 38
-1.234023e+000 -1.227005e+000 -9.235156e+000 250 215 95
-1.190802e+000 -1.293538e+000 -9.444528e+000 107 42 38
-4.726259e-001 -1.236230e+000 -9.837088e+000 62 52 49
3.158083e+000 -1.302278e+000 -1.391803e+001 147 106 101
1.403643e+000 2.294846e+000 -1.149652e+001 162 102 47
1.385925e+000 2.010305e+000 -1.151681e+001 205 148 74
-1.807396e+000 7.687729e-001 -9.374464e+000 137 34 45
-1.575555e+000 3.923891e-001 -9.211646e+000 121 34 40
-1.017916e+000 5.340053e-002 -8.951615e+000 207 93 89
-1.062865e+000 -1.855770e-001 -9.059625e+000 124 35 41
-2.388568e+000 3.578698e-001 -9.631461e+000 146 34 46
-2.406078e+000 -2.597843e-001 -9.766742e+000 219 102 102
-1.651246e+000 -5.819665e-001 -9.211147e+000 123 35 41
1.397272e+000 -4.435663e-001 -1.081186e+001 50 52 53
-2.444988e+000 -4.537055e-001 -9.815535e+000 138 34 43
-2.088796e+000 -8.880626e-001 -9.767892e+000 218 76 80
-2.446909e+000 -1.017486e+000 -1.022672e+001 136 41 49
-2.192642e+000 -1.054081e+000 -9.859131e+000 138 36 41
-1.925744e+000 -1.462260e+000 -1.024423e+001 124 41 48
3.794750e-001 -1.116789e+000 -1.250635e+001 239 230 223
4.375141e-001 -1.407842e+000 -1.239862e+001 88 46 55
3.574565e-001 -1.610167e+000 -1.252311e+001 236 229 220
1.516385e+000 1.976055e+000 -1.117242e+001 189 136 51
-2.300614e+000 6.862448e-001 -9.770469e+000 218 77 79
-1.856779e+000 1.806031e-001 -9.268065e+000 104 32 40
-1.872417e+000 -3.044663e-001 -9.233505e+000 113 29 36
-1.987377e+000 -3.471588e-001 -9.407130e+000 112 30 36
2.640455e+000 -2.316117e+000 -1.371883e+001 236 229 219
2.708994e+000 1.072923e+000 -1.255560e+001 91 41 38
2.963496e+000 -7.494923e-001 -1.343551e+001 113 77 44
2.201428e+000 -1.586725e+000 -1.264179e+001 101 46 46
-1.236853e+000 -1.159772e+000 -8.983551e+000 206 162 36
-1.236853e+000 -1.159772e+000 -8.983551e+000 206 162 36
-1.180475e+000 -1.087151e+000 -9.001182e+000 169 111 42
-1.180475e+000 -1.087151e+000 -9.001182e+000 169 111 42
8.720533e-001 -1.827424e+000 -1.075802e+001 95 46 46
-2.389103e+001 -1.470737e+001 -4.815283e+001 83 79 81
-2.262293e+001 -1.983743e+001 -4.602816e+001 42 51 90
-2.262293e+001 -1.983743e+001 -4.602816e+001 42 51 90
-2.289864e+001 -2.082577e+001 -4.535904e+001 49 50 55
-1.876301e+001 9.423157e+000 -3.735406e+001 78 73 79
-2.891026e+001 3.091684e+001 -6.344344e+001 38 45 69
-2.445643e+001 4.004783e+001 -6.564407e+001 73 73 81
-2.144798e-001 1.323638e+000 -9.276664e+000 67 87 81
1.083115e+000 -4.741629e-001 -1.006787e+001 140 90 57
1.191564e+000 -4.152902e-001 -1.037745e+001 134 87 52
-2.571342e+000 -7.177480e-001 -9.951745e+000 182 46 56
-1.509264e+000 -1.716192e+000 -1.018379e+001 140 101 100
5.668967e+000 -3.080583e+000 -1.130703e+001 203 192 186
5.668967e+000 -3.080583e+000 -1.130703e+001 203 192 186
5.760373e+000 5.936648e+000 -1.216641e+001 201 192 183
6.807513e+000 -2.817960e-001 -9.899449e+000 226 213 205
1.743567e+000 1.561308e+000 -1.158976e+001 107 75 56
-2.623768e+000 7.570944e-001 -1.011744e+001 214 95 91
-2.382808e+000 -1.400533e-001 -9.377383e+000 213 72 77
6.543561e+000 -1.633851e+000 -9.992507e+000 255 251 242
6.543561e+000 -1.633851e+000 -9.992507e+000 255 251 242
-2.507759e+000 -7.151216e-001 -9.899506e+000 175 43 51
1.305294e+000 -2.133242e+000 -1.237215e+001 162 120 117
6.033641e+000 -3.825528e+000 -1.059828e+001 241 232 227
-1.162460e+001 4.849038e+000 -2.819881e+001 229 218 215
5.202762e+000 -4.997382e+000 -1.200902e+001 254 245 238
7.022100e+000 9.020382e-001 -9.789902e+000 247 237 228
1.463679e+000 1.425529e+000 -1.004137e+001 145 73 72
1.463679e+000 1.425529e+000 -1.004137e+001 145 73 72
1.542687e+000 1.443273e+000 -1.016747e+001 109 44 44
6.307797e+000 1.099180e-001 -1.084921e+001 148 137 133
6.307797e+000 1.099180e-001 -1.084921e+001 148 137 133
6.399076e+000 7.713830e-002 -1.067998e+001 165 154 149
6.384604e+000 -1.630391e+000 -1.047753e+001 231 218 210
-3.076907e+000 3.807446e-001 -1.030489e+001 232 81 87
