ply
format ascii 1.0
element face 0
property list uchar int vertex_indices
element vertex 882
property float x
property float y
property float z
property uchar diffuse_red
property uchar diffuse_green
property uchar diffuse_blue
end_header
4.111618e-001 2.340252e+000 -1.208070e+001 188 93 94
3.224402e-001 2.296798e+000 -1.197875e+001 225 222 212
1.551939e+000 1.753149e+000 -1.008782e+001 157 71 72
7.971865e-001 2.184239e+000 -1.150941e+001 176 71 69
-2.611632e+000 1.171544e+000 -1.113015e+001 219 77 80
-8.763729e-001 -9.421414e-001 -9.221838e+000 130 98 57
1.553868e+000 2.115751e+000 -1.035567e+001 130 45 52
-1.967394e+000 1.070947e+000 -9.884584e+000 195 79 78
-1.449869e+000 1.423537e+000 -9.627565e+000 199 79 76
-8.550522e-001 -9.461887e-001 -9.260704e+000 129 97 58
-6.323065e+000 8.068295e-001 -2.813197e+001 48 46 49
-1.602602e+000 1.452710e+000 -9.840278e+000 206 91 84
-1.394224e+000 1.606472e+000 -1.005333e+001 178 82 81
-9.751015e-001 1.707752e+000 -1.009836e+001 116 36 42
-1.691979e+000 1.071898e+000 -9.759418e+000 106 27 33
-1.508888e+000 6.143052e-001 -9.458734e+000 101 26 38
-9.665650e-001 -2.249509e-001 -9.319598e+000 237 198 95
-3.104408e-001 -8.286521e-001 -9.715703e+000 62 67 60
2.545827e+000 -1.685079e+000 -1.296640e+001 223 216 209
-1.899757e+000 1.311371e+000 -1.013004e+001 217 76 79
-1.115229e+000 1.700298e+000 -9.945663e+000 203 84 84
1.017066e+000 2.086174e+000 -1.127346e+001 234 192 79
-1.519660e+000 1.296264e+000 -9.659966e+000 126 32 39
1.438619e+000 1.903543e+000 -1.004060e+001 200 77 80
-1.837660e+000 4.603986e-001 -9.576471e+000 111 27 37
-1.055812e+000 3.972447e-001 -9.274623e+000 197 72 69
-9.564311e-001 -4.327405e-001 -9.281281e+000 131 79 35
1.307665e+000 2.183069e+000 -1.114081e+001 232 195 90
-1.016122e+000 7.910400e-001 -9.187926e+000 251 213 84
-6.771163e+000 7.960029e-001 -2.794970e+001 88 87 92
-1.374213e+001 -1.963515e+001 -3.340445e+001 254 246 249
-1.558742e+001 -1.798057e+001 -3.475757e+001 60 60 71
-1.297192e+000 -1.450909e+000 -1.012909e+001 218 213 207
-4.953490e+001 1.241051e+002 -1.271353e+002 21 21 31
-1.427825e+001 4.670359e+001 -5.422202e+001 137 136 141
7.318773e-002 1.828848e-001 -9.738080e+000 125 93 45
1.920507e+000 2.170555e+000 -1.032651e+001 220 215 211
-9.208194e-001 4.692394e-001 -9.162023e+000 141 45 42
-7.222458e-001 -2.174653e-001 -9.268813e+000 137 92 61
-8.500970e-001 -9.835424e-001 -9.720479e+000 90 44 27
1.413149e+000 -1.219995e+000 -1.233427e+001 104 54 44
1.916053e+000 -1.391503e+000 -1.260356e+001 98 46 47
2.473619e+000 1.386135e+000 -1.036703e+001 220 218 210
-2.425420e+000 -1.474846e-001 -1.195458e+001 216 88 89
-2.538621e+000 -1.642587e-001 -1.198636e+001 233 229 218
2.073869e+000 1.624380e+000 -1.013748e+001 80 101 107
2.441219e+000 1.472700e+000 -1.037378e+001 137 162 159
5.685212e-001 -6.210498e-001 -1.016342e+001 135 99 49
1.983194e+000 5.816142e-001 -1.159185e+001 137 135 129
-1.996628e+000 -4.323468e-002 -9.827638e+000 195 70 71
-3.043216e-001 -1.003858e+000 -1.000977e+001 78 68 48
-1.828135e+000 -1.196326e+000 -1.057933e+001 193 89 90
4.482570e+000 -3.366490e+000 -1.206250e+001 217 205 199
1.875945e+000 -1.794902e+000 -1.274724e+001 124 77 69
-4.821929e-001 1.443786e+000 -9.279489e+000 132 106 76
1.651652e+000 2.172583e+000 -1.024831e+001 210 196 186
-7.900009e-001 5.967428e-001 -9.147739e+000 165 71 51
-1.963359e-001 6.664429e-001 -9.546890e+000 68 71 67
-2.114471e+000 -8.193115e-001 -1.050745e+001 187 84 85
1.593224e+000 -1.763125e+000 -1.246965e+001 160 129 82
1.546260e+000 1.663063e+000 -1.014133e+001 134 83 85
2.435903e+000 1.725092e+000 -1.068909e+001 106 104 100
-1.071381e+000 -5.134704e-001 -9.271944e+000 194 129 32
-1.463762e-001 -9.222537e-001 -9.676102e+000 91 81 58
-2.559670e+000 -2.962100e-001 -1.034531e+001 200 83 83
-2.073422e+000 -6.019879e-001 -1.039597e+001 175 69 68
-2.071405e+000 -8.209132e-001 -1.152706e+001 189 86 87
2.484500e+000 1.465070e+000 -1.034143e+001 82 100 99
-8.499079e-001 -8.984521e-001 -9.209630e+000 150 108 60
2.863157e-001 -6.109506e-001 -9.984954e+000 131 95 44
2.863157e-001 -6.109506e-001 -9.984954e+000 131 95 44
-2.515755e-001 -1.008490e+000 -1.005156e+001 132 103 55
-2.086212e+000 -8.321634e-001 -1.043559e+001 200 94 96
-2.301994e+000 -2.410769e-001 -1.205054e+001 193 94 96
1.532642e+000 2.112072e+000 -1.024549e+001 184 64 65
2.446644e+000 1.405204e+000 -1.018048e+001 222 218 208
-3.404957e-001 -9.931135e-001 -9.631229e+000 57 68 62
-1.833013e+000 -8.358242e-001 -1.010606e+001 206 89 88
-1.245195e+000 -1.290400e+000 -1.029743e+001 176 89 84
1.987226e-001 -9.860368e-001 -1.196712e+001 80 41 44
2.218496e+000 1.238844e+000 -1.072991e+001 112 78 43
2.544071e+000 1.194902e+000 -1.085789e+001 228 218 212
-6.014190e-001 8.158283e+000 -1.717423e+001 201 105 101
-6.014190e-001 8.158283e+000 -1.717423e+001 201 105 101
-1.255742e+000 -1.058581e+000 -1.003602e+001 87 30 36
1.881322e+000 -1.442399e+000 -1.263934e+001 124 95 56
-7.791874e-001 1.034098e+000 -9.160834e+000 236 202 91
-1.444585e+000 1.056104e+000 -9.546495e+000 197 73 73
-1.104091e+000 -1.009094e-001 -9.384948e+000 85 34 30
-9.347182e-001 -4.236371e-001 -9.252900e+000 148 86 36
-2.222584e+000 5.702880e-001 -9.918727e+000 202 71 76
-1.927564e+000 5.936345e-002 -9.671983e+000 122 31 40
-2.467423e+000 -3.642096e-001 -1.045597e+001 193 85 81
2.865651e+000 -8.291280e-001 -1.322996e+001 86 41 44
-2.253978e+000 -7.844924e-001 -1.067085e+001 202 94 91
-1.784423e+000 -1.222892e+000 -1.053058e+001 195 86 81
-6.635597e-001 -1.293641e+000 -1.193712e+001 228 225 216
2.338931e+000 1.861369e+000 -1.028545e+001 87 117 120
-1.046224e+000 1.185189e+000 -9.412993e+000 123 42 40
-1.075610e+000 7.378243e-001 -9.369545e+000 98 38 37
-1.016349e+000 -2.589881e-001 -9.117479e+000 124 40 32
-2.078998e+000 5.128355e-001 -9.909430e+000 124 32 39
-2.321451e+000 5.061683e-001 -1.021801e+001 138 32 44
-2.131855e+000 -2.401987e-001 -1.000936e+001 117 33 43
-1.848057e+000 -7.262624e-001 -9.792690e+000 221 95 99
-2.502253e+000 -1.304199e-001 -1.040533e+001 201 67 68
-2.511972e+000 -2.665319e-001 -1.072773e+001 210 85 85
-2.511972e+000 -2.665319e-001 -1.072773e+001 210 85 85
-2.377281e+000 -3.105940e-001 -1.078469e+001 147 32 44
-2.288693e+000 -6.491070e-001 -1.042969e+001 216 88 89
6.651888e-002 -1.249050e+000 -1.120475e+001 60 34 37
-2.038945e+000 -1.027060e+000 -1.069542e+001 198 82 85
-1.893141e+000 -1.105897e+000 -1.066789e+001 123 37 45
-1.614604e+000 3.387415e-001 -9.540336e+000 96 27 37
2.598527e+000 -9.772046e-001 -1.316998e+001 147 113 69
-3.308088e-001 -1.032065e+000 -1.217516e+001 129 75 75
-2.078481e+000 9.989143e-001 -9.920901e+000 137 35 42
-2.833346e-001 -8.053196e-001 -9.508085e+000 86 85 67
2.583807e+000 1.414710e+000 -1.065966e+001 226 218 209
2.389070e+000 -7.056886e-001 -1.281893e+001 109 74 44
1.681279e+000 -1.631430e+000 -1.275326e+001 154 124 74
-1.505064e+000 -8.423405e-001 -1.022767e+001 93 33 39
2.758177e+000 -1.745695e+000 -1.374991e+001 209 199 190
-9.902842e+000 1.620722e+001 -3.163723e+001 176 175 171
-9.715972e-001 1.206207e+000 -9.239436e+000 229 195 86
-7.157520e-001 8.376668e-001 -9.171228e+000 144 110 74
-6.559424e-001 -1.549829e-001 -9.304973e+000 109 70 58
-1.106067e+000 1.140636e-001 -9.317184e+000 195 78 78
-1.347514e+000 -6.572227e-001 -9.551911e+000 123 42 45
-1.345212e+000 -7.091841e-001 -9.542376e+000 198 92 88
-2.318992e+000 1.081384e+000 -1.014599e+001 218 180 183
-2.217574e-001 -9.981671e-001 -1.014158e+001 93 48 26
-1.675442e-001 -9.761929e-001 -1.015797e+001 135 99 56
-2.268974e+000 -3.156667e-001 -1.010610e+001 199 87 87
-2.157820e+000 -6.091452e-001 -1.038098e+001 137 59 61
-2.496679e+000 -6.391796e-001 -1.100555e+001 210 98 97
3.071410e+000 -4.623692e+000 -1.409812e+001 250 243 238
5.366912e+000 5.802749e+000 -1.246988e+001 201 194 184
2.166426e+000 2.072510e+000 -1.054189e+001 119 105 104
-9.562368e-001 1.291063e+000 -9.398729e+000 246 200 90
-9.809151e-001 -9.573175e-001 -9.646473e+000 97 45 28
-9.739471e-001 -1.017284e+000 -9.588009e+000 131 94 50
1.550083e+000 -9.963871e-002 -1.127045e+001 112 121 115
-1.849426e+000 -7.701926e-001 -9.890765e+000 180 43 48
-2.327009e+000 -3.705792e-001 -1.032707e+001 187 88 86
-2.327009e+000 -3.705792e-001 -1.032707e+001 187 88 86
-2.308609e+000 -5.851233e-001 -1.043191e+001 211 85 88
-1.856319e+000 -1.203537e+000 -1.038197e+001 172 45 48
2.356653e+000 -1.186018e+000 -1.302255e+001 102 55 39
3.570419e+000 -3.104858e+000 -1.364899e+001 218 207 201
-6.497219e-001 1.403752e+000 -9.169042e+000 138 106 86
-1.052148e+000 8.381823e-001 -9.363959e+000 103 43 29
-2.655111e-001 -2.749467e-001 -9.562707e+000 93 82 67
-1.606555e+000 -5.079421e-001 -9.697764e+000 203 92 88
1.702848e+000 -1.010896e-002 -1.192416e+001 67 47 47
1.702848e+000 -1.010896e-002 -1.192416e+001 67 47 47
-2.115055e+000 -6.530667e-001 -1.018337e+001 221 91 95
-2.075228e+000 -8.061002e-001 -1.046120e+001 210 101 100
-1.885550e+000 -1.198090e+000 -1.131215e+001 179 83 85
2.124289e+000 1.712953e+000 -1.027270e+001 85 119 120
2.222368e+000 1.626785e+000 -1.034336e+001 105 141 138
-1.094107e+000 -9.996921e-001 -9.563489e+000 120 43 32
-2.015532e+000 -6.224488e-003 -9.730708e+000 200 84 82
-1.603784e+000 -8.281821e-001 -9.824047e+000 225 112 110
-2.027978e+000 -7.416576e-001 -1.031453e+001 209 91 91
-1.964484e+000 -1.102667e+000 -1.138592e+001 205 98 96
-1.516792e+000 1.068492e+000 -9.685608e+000 192 91 86
-1.616266e+000 1.361565e+000 -9.854246e+000 159 37 43
6.219291e-001 -5.126601e-001 -1.016633e+001 158 133 93
5.361033e-001 -5.474379e-001 -1.056179e+001 142 101 57
-1.850912e+000 -8.806836e-001 -1.006874e+001 215 97 96
-2.021696e+000 -1.014371e+000 -1.101832e+001 98 33 41
-5.865564e-001 1.306005e+000 -9.217975e+000 141 112 80
1.505925e+000 1.643122e+000 -1.052919e+001 94 36 37
-2.067181e+000 5.725832e-001 -9.782004e+000 199 91 89
-1.510390e+000 -4.344723e-001 -9.511070e+000 138 33 41
-1.510390e+000 -4.344723e-001 -9.511070e+000 138 33 41
-2.271718e+000 6.641337e-001 -1.015104e+001 189 107 98
-2.634269e+000 1.342091e-001 -1.082009e+001 211 95 97
8.188210e-001 -1.712088e+000 -1.201292e+001 149 68 68
2.708415e+000 2.105111e+000 -1.084052e+001 152 172 163
1.409302e+000 8.945606e-001 -1.064721e+001 75 37 40
-1.610943e+000 7.328233e-001 -9.619017e+000 116 29 38
4.103824e-001 -7.113684e-001 -1.010348e+001 140 100 57
-2.262035e+000 1.518409e-001 -9.924844e+000 203 62 66
-2.317962e+000 5.123391e-001 -1.022389e+001 132 31 42
-2.498471e+000 1.417021e-001 -1.022547e+001 205 72 75
-2.180540e+000 -3.096594e-001 -1.001953e+001 124 37 44
-1.752765e+000 -8.103688e-001 -9.853256e+000 132 37 45
-2.588295e+000 1.311248e-001 -1.057220e+001 130 35 44
-2.498027e+000 -1.117939e-001 -1.042135e+001 197 66 70
-2.576025e+000 -2.511588e-001 -1.054415e+001 122 32 41
-2.119075e+000 -7.699688e-001 -1.147661e+001 130 42 52
-2.343584e+000 1.170550e-001 -1.025271e+001 133 33 41
-2.343584e+000 1.170550e-001 -1.025271e+001 133 33 41
2.040026e+000 -6.557041e-001 -1.275002e+001 75 36 37
-2.400916e+000 -3.842360e-001 -1.072129e+001 139 33 45
-2.048330e+000 -1.049600e+000 -1.067426e+001 199 75 78
-1.783263e+000 -1.218147e+000 -1.053450e+001 202 85 83
-1.890454e+000 -1.100859e+000 -1.067290e+001 117 31 39
1.331828e+000 1.863668e+000 -1.113583e+001 147 124 89
-1.552063e+000 1.336923e+000 -9.704746e+000 134 42 43
-7.016707e-002 -9.325775e-001 -1.012648e+001 142 109 56
-7.016707e-002 -9.325775e-001 -1.012648e+001 142 109 56
3.254203e+000 1.375892e+000 -1.302834e+001 206 193 185
5.998169e-001 -1.550691e+000 -1.202411e+001 146 53 57
1.050421e-001 1.200213e+000 -9.757653e+000 97 95 88
-1.707047e+000 -1.649246e-001 -9.574483e+000 101 28 35
3.687311e+000 1.320167e+000 -1.327753e+001 74 40 41
-1.909419e+000 -3.893861e-001 -1.003376e+001 101 29 32
-1.920342e+000 1.404307e+000 -9.791620e+000 217 207 198
-8.070678e-001 -1.257828e+000 -9.924816e+000 88 39 41
4.202213e+000 -1.533760e-001 -1.295793e+001 74 59 56
-9.371265e-001 -9.267887e-001 -9.251804e+000 207 183 88
-2.184473e+001 -1.250629e+001 -4.617594e+001 118 113 110
-1.392734e+001 -1.842848e+001 -3.318012e+001 33 30 38
-2.349383e+001 -1.445051e+001 -4.847188e+001 93 90 100
-1.773008e+000 1.573252e+000 -1.002131e+001 201 73 73
-1.209612e+000 1.766302e+000 -9.899199e+000 116 46 48
2.382338e-002 1.913001e+000 -1.083156e+001 104 52 49
-1.860943e+000 2.486105e-001 -9.612217e+000 197 84 83
-9.514599e-001 1.312631e+000 -9.257845e+000 252 202 86
-9.319251e-001 -9.506449e-001 -9.280263e+000 207 183 87
1.897362e+000 1.302309e+000 -1.030427e+001 52 42 52
-1.012166e+000 -9.680098e-001 -9.350364e+000 210 194 143
-2.886521e-001 -9.597365e-001 -9.727158e+000 94 121 116
-1.889787e+000 1.525656e+000 -1.030256e+001 195 83 82
-1.376132e+000 1.870435e+000 -1.007087e+001 180 68 67
-1.372263e+000 1.875960e+000 -1.006294e+001 180 68 67
-3.300706e-001 -1.016493e+000 -9.677915e+000 62 61 61
-1.256994e+001 -2.254497e+001 -3.105206e+001 112 106 112
1.141669e+000 2.245249e+000 -1.136420e+001 227 192 90
-1.069289e+000 1.404721e+000 -9.580047e+000 185 82 73
1.570488e+000 1.971664e+000 -1.016331e+001 119 41 44
2.199294e+000 1.610327e+000 -1.015366e+001 81 66 71
2.175505e+000 1.514763e+000 -1.010944e+001 89 121 125
-2.099925e-001 5.977919e-001 -9.515397e+000 45 46 42
-1.810628e+000 1.523497e+000 -1.011198e+001 202 82 81
-2.113863e+000 1.123983e+000 -1.000347e+001 206 92 87
1.157639e+000 1.703067e+000 -1.111025e+001 122 72 38
-1.693491e+000 1.080418e+000 -9.742011e+000 95 25 36
-8.703505e-001 1.431654e+000 -9.477862e+000 109 36 34
1.421295e+000 1.791048e+000 -1.089865e+001 200 152 68
-9.660144e-001 -1.032747e+000 -9.375565e+000 214 202 159
-7.870421e+000 -1.995048e+001 -2.881585e+001 53 51 56
-7.870421e+000 -1.995048e+001 -2.881585e+001 53 51 56
-2.225732e+000 1.166227e+000 -1.055934e+001 149 35 40
-1.603347e+000 1.750085e+000 -1.009946e+001 201 74 75
-1.144641e+000 1.859229e+000 -1.005426e+001 85 28 34
-1.741097e+000 1.403813e+000 -9.904647e+000 134 30 38
-1.529721e+000 1.291013e+000 -9.658557e+000 114 29 38
-1.343045e+000 8.488326e-001 -9.345398e+000 107 30 34
-1.360050e+000 2.450192e-001 -9.367324e+000 185 78 76
-9.864555e-001 -8.545392e-001 -9.350243e+000 127 78 38
-1.736634e-001 1.896106e+000 -1.167976e+001 142 97 93
2.098218e+000 1.686084e+000 -1.020447e+001 69 45 51
-1.631933e+000 1.978065e-001 -9.570479e+000 87 25 30
-2.439387e+000 -3.185987e-001 -1.051628e+001 160 34 42
-6.377647e-001 4.756006e-001 -9.244423e+000 92 42 44
4.603810e-001 2.212156e+000 -1.189308e+001 140 55 62
-1.270033e+001 -2.206485e+001 -3.187023e+001 254 252 254
-6.053647e-002 1.024648e+000 -9.658501e+000 58 58 47
-6.053647e-002 1.024648e+000 -9.658501e+000 58 58 47
4.376801e+000 -1.883152e+000 -1.232034e+001 129 121 118
4.544972e+000 7.781948e-002 -1.257605e+001 58 46 49
-1.245951e+000 1.191991e+000 -9.500852e+000 204 93 88
1.438599e+000 1.681463e+000 -1.087743e+001 166 111 58
1.438599e+000 1.681463e+000 -1.087743e+001 166 111 58
-7.373844e-001 5.467489e-001 -9.148720e+000 106 40 42
-1.551454e+000 9.183250e-001 -9.672034e+000 126 30 33
-1.212591e+000 -7.078817e-001 -9.532833e+000 124 49 44
-1.212591e+000 -7.078817e-001 -9.532833e+000 124 49 44
-5.453020e-001 1.479896e+000 -9.825821e+000 105 42 43
-5.453020e-001 1.479896e+000 -9.825821e+000 105 42 43
2.357730e+000 1.583175e+000 -1.014059e+001 113 148 143
2.025129e+000 1.614076e+000 -1.007294e+001 75 86 87
-1.252080e+000 -9.558855e-001 -9.705552e+000 205 196 188
-1.850676e+000 6.451522e-001 -9.657064e+000 194 84 85
2.930473e-001 1.739334e+000 -1.199962e+001 89 43 46
2.938330e+000 1.439542e+000 -1.354461e+001 163 135 82
1.869779e+000 2.044397e+000 -1.016943e+001 90 34 37
-1.396265e+000 1.617732e+000 -1.004541e+001 160 70 69
-9.886753e-001 1.869469e+000 -1.001564e+001 182 77 77
1.456493e+000 2.164559e+000 -1.085844e+001 219 185 84
-9.136045e-001 1.567982e+000 -9.868698e+000 165 75 69
1.251000e+000 1.564116e+000 -1.002278e+001 123 31 40
-1.779529e+000 6.197538e-001 -9.545847e+000 183 69 69
-1.003107e+000 1.250414e+000 -9.403106e+000 126 35 36
-7.111402e-001 1.411666e+000 -9.419248e+000 154 118 56
-1.897221e+000 5.164746e-001 -9.677487e+000 127 31 34
-1.824838e+000 2.855152e-001 -9.567397e+000 195 90 87
-1.088439e+000 -2.821226e-002 -9.368118e+000 178 64 64
-1.088439e+000 -2.821226e-002 -9.368118e+000 178 64 64
-8.967820e-001 1.767424e-001 -9.249171e+000 175 72 69
-1.148237e+000 -8.398646e-001 -9.444982e+000 255 215 92
-3.824217e-001 2.016945e+000 -1.173861e+001 221 218 207
1.050264e+000 2.320284e+000 -1.181710e+001 160 131 88
-1.957781e+000 1.429063e+000 -1.031210e+001 129 30 38
-1.601986e+000 1.751135e+000 -1.009821e+001 194 65 68
5.718503e-001 2.079680e+000 -1.154820e+001 179 61 63
-1.890888e+000 1.363411e+000 -9.987992e+000 203 60 65
-1.245806e+000 1.604480e+000 -1.004020e+001 79 29 32
1.410057e+000 2.018179e+000 -1.087268e+001 134 66 37
-1.676462e+000 1.307239e+000 -9.689772e+000 200 61 64
1.559078e+000 2.103344e+000 -1.038321e+001 111 33 39
-9.134957e-001 1.366183e+000 -9.262936e+000 247 205 82
-1.549872e+000 1.567457e+000 -9.984358e+000 113 28 35
-1.632948e+000 1.817934e-001 -9.588114e+000 95 26 34
-7.029459e-001 1.938361e+000 -1.175147e+001 128 75 74
-2.635331e+000 1.128648e-001 -1.087589e+001 172 35 46
3.595834e+000 1.677042e+000 -1.364208e+001 213 204 195
-9.005823e+000 -1.841137e+001 -3.861155e+001 173 166 160
-8.949638e-001 1.310281e+000 -9.197114e+000 213 162 48
-1.218928e+000 1.574816e+000 -9.561097e+000 108 35 39
-1.355177e+000 -1.169800e+000 -9.591712e+000 201 194 190
-1.860210e+000 1.518174e+000 -1.019028e+001 160 46 46
-1.800575e+000 9.283734e-001 -9.773485e+000 86 24 29
1.452870e+000 1.874904e+000 -1.086917e+001 163 123 53
1.446426e+000 1.882194e+000 -1.085993e+001 163 123 53
5.048387e-001 -7.026958e-001 -1.022725e+001 107 91 68
2.850766e+000 1.476523e+000 -1.340439e+001 138 112 65
-1.012204e+000 1.464975e+000 -9.387935e+000 191 87 82
-1.012204e+000 1.464975e+000 -9.387935e+000 191 87 82
1.014024e+000 1.741595e+000 -1.134327e+001 136 99 50
1.110245e+000 1.957160e+000 -1.111823e+001 177 134 55
-1.782467e+000 6.310782e-001 -9.536450e+000 165 59 57
6.951899e-001 2.184895e+000 -1.146811e+001 106 34 38
8.550917e-001 2.325936e+000 -1.157323e+001 114 58 59
7.399417e-001 1.959841e+000 -1.136877e+001 112 47 45
-1.902714e+000 5.712320e-001 -9.626251e+000 121 25 33
-8.954845e-001 1.456127e+000 -9.384448e+000 110 38 37
-2.047141e+000 1.565434e+000 -1.053036e+001 170 61 63
-1.528034e+000 1.892883e+000 -1.030075e+001 165 61 58
-1.809186e+000 1.499567e+000 -1.016032e+001 177 61 62
9.918896e-001 1.828465e+000 -1.147018e+001 67 31 28
-2.248919e+000 1.045325e+000 -1.014303e+001 107 21 31
-2.116327e+000 1.086588e+000 -1.006657e+001 176 67 64
-1.724851e+000 1.356077e+000 -9.980960e+000 113 20 30
1.151148e+000 1.663205e+000 -1.118081e+001 91 47 28
-1.715026e+000 9.042854e-001 -9.724938e+000 184 64 66
-1.332951e+000 6.817442e-001 -9.284668e+000 158 56 54
-1.378120e+000 4.522407e-001 -9.379118e+000 93 21 29
-8.086194e-001 1.006460e+000 -9.065968e+000 222 184 74
-2.129724e+000 1.472865e+000 -1.024004e+001 182 53 55
-2.041139e+000 1.264331e+000 -1.014532e+001 104 22 31
-1.846318e+000 8.129374e-001 -9.780133e+000 86 16 26
-1.359417e+000 1.600430e+000 -9.909463e+000 79 18 25
-9.380024e-001 1.589930e+000 -1.169708e+001 100 49 50
-3.711496e+000 1.694681e+000 -1.142687e+001 194 185 179
-4.503539e-001 -1.452177e-001 -1.214906e+001 89 25 29
-9.299883e-001 1.904712e+000 -9.885399e+000 176 74 75
2.598294e-001 1.315484e+000 -9.951921e+000 85 48 30
-2.247313e+000 1.233516e+000 -1.047851e+001 137 31 42
-2.247313e+000 1.233516e+000 -1.047851e+001 137 31 42
-2.327034e+000 1.164522e+000 -1.031458e+001 179 71 73
-2.278814e+000 8.350566e-001 -1.021156e+001 164 68 66
-2.278814e+000 8.350566e-001 -1.021156e+001 164 68 66
1.498771e+000 2.142745e+000 -1.080205e+001 147 59 38
3.869771e+000 -1.111767e+001 -2.139872e+001 104 36 43
1.508724e+000 1.859821e+000 -1.086880e+001 131 48 34
-1.406970e+000 9.920258e-001 -9.643416e+000 135 22 23
-1.248339e+000 1.311713e+000 -9.588541e+000 73 18 17
1.437788e-001 1.351799e+000 -1.003796e+001 122 85 49
3.124000e-001 1.323460e+000 -9.745346e+000 123 92 47
-6.481994e-001 1.391865e+000 -9.055054e+000 102 77 36
1.648404e-002 1.191952e+000 -9.518438e+000 89 84 66
2.037864e+000 1.513756e+000 -1.006670e+001 66 86 86
-7.979660e-001 5.196733e-001 -9.140166e+000 146 59 53
-1.725706e+000 2.175675e+000 -1.101395e+001 176 65 70
-2.377103e+000 1.115193e+000 -1.033612e+001 191 87 86
-2.381683e+000 1.131347e+000 -1.032141e+001 191 87 86
-1.885149e+000 1.529132e+000 -1.022665e+001 164 59 61
-1.962188e+000 4.819861e-001 -9.797660e+000 175 62 64
-7.008979e-001 1.414319e+000 -9.462969e+000 124 91 46
1.371421e+000 1.890572e+000 -1.016316e+001 165 44 46
-9.659661e-001 1.287458e+000 -9.304643e+000 234 175 74
-8.361328e-002 1.280670e+000 -9.442484e+000 100 102 97
-2.309285e+000 1.206963e+000 -1.181458e+001 174 53 58
-1.722549e+000 1.929405e+000 -1.113334e+001 167 63 66
-1.828060e+000 1.588783e+000 -1.014456e+001 200 76 81
2.560282e-001 1.610349e+000 -1.104451e+001 42 21 25
2.515318e-001 1.867129e+000 -1.107413e+001 97 38 41
1.217459e+000 1.962781e+000 -1.117330e+001 190 145 60
-1.959381e+000 1.070954e+000 -9.746550e+000 138 47 50
-1.959381e+000 1.070954e+000 -9.746550e+000 138 47 50
1.508465e+000 1.771988e+000 -1.087128e+001 131 41 39
-1.427248e+000 1.021114e+000 -9.554677e+000 184 65 65
1.616630e+000 2.023358e+000 -1.011693e+001 144 58 56
-1.029606e+000 1.120825e+000 -9.414921e+000 148 61 55
-9.853947e-001 1.232523e+000 -9.284262e+000 233 182 69
-7.649764e-001 1.858613e-001 -9.212825e+000 125 81 81
-6.962576e-001 7.722403e-001 -9.158994e+000 129 104 73
-1.088909e+000 1.570620e+000 -1.235802e+001 197 192 189
-2.609096e+000 9.033759e-001 -1.169269e+001 188 180 176
-1.593898e+000 2.052912e+000 -1.095347e+001 171 74 72
-2.427701e+000 8.709121e-001 -1.113546e+001 172 68 66
-1.764216e+000 1.890396e+000 -1.062755e+001 171 61 59
-1.974988e+000 1.615612e+000 -1.037274e+001 181 72 70
-1.550965e+000 1.836901e+000 -1.028566e+001 172 65 63
-1.550965e+000 1.836901e+000 -1.028566e+001 172 65 63
-1.910094e+000 1.254371e+000 -1.029319e+001 156 62 64
-1.838329e+000 1.469771e+000 -1.014013e+001 191 78 76
-9.861051e-001 1.508895e+000 -9.922104e+000 83 21 26
-1.851279e+000 6.613581e-001 -9.631915e+000 180 76 77
-1.509582e+000 7.424553e-001 -9.660006e+000 154 61 61
-4.260529e-001 1.386521e+000 -9.636764e+000 114 92 43
1.340344e+000 4.202333e-001 -1.057995e+001 81 31 32
-1.807034e+000 1.698011e+000 -1.124318e+001 169 70 69
-1.543174e+000 2.042800e+000 -1.084984e+001 165 62 62
-1.532747e+000 2.014011e+000 -1.088105e+001 165 62 62
-2.593217e+000 7.739846e-001 -1.098880e+001 175 58 60
-1.890433e+000 1.553742e+000 -1.029563e+001 191 78 79
1.680334e+000 2.187679e+000 -1.100361e+001 121 95 48
-1.961440e+000 1.121894e+000 -9.800606e+000 181 73 73
-1.961440e+000 1.121894e+000 -9.800606e+000 181 73 73
-9.093521e-001 1.561166e+000 -9.874867e+000 132 51 47
1.595067e+000 2.116210e+000 -1.071174e+001 142 52 51
1.615204e+000 1.961277e+000 -1.028881e+001 207 106 106
1.598757e+000 1.986631e+000 -1.026708e+001 207 106 106
-1.472197e-001 1.264599e+000 -9.482790e+000 43 48 48
-1.472197e-001 1.264599e+000 -9.482790e+000 43 48 48
1.957235e-002 1.312200e+000 -9.555475e+000 45 46 47
5.049223e-001 1.019238e+000 -9.893652e+000 97 68 35
-1.611407e+000 -7.054236e-001 -9.972895e+000 157 59 57
-8.860966e-001 1.698975e-001 -9.226463e+000 155 56 56
-2.535400e+000 9.302845e-001 -1.163018e+001 133 38 39
-1.924847e+000 1.661837e+000 -1.152712e+001 166 60 60
-1.924847e+000 1.661837e+000 -1.152712e+001 166 60 60
-2.561767e+000 7.370199e-001 -1.082188e+001 176 66 67
-2.089166e+000 1.316815e+000 -1.034084e+001 180 54 57
1.220792e+000 2.039901e+000 -1.123461e+001 122 67 25
1.474264e+000 2.143023e+000 -1.087750e+001 208 172 73
1.611534e+000 2.165929e+000 -1.085476e+001 118 50 48
-2.007042e+000 7.787399e-001 -9.823396e+000 164 66 67
1.707679e+000 2.106769e+000 -1.055689e+001 139 50 48
-2.039798e+000 3.591324e-001 -9.886183e+000 169 69 68
-2.029392e+000 2.964504e-001 -9.936763e+000 169 69 68
1.494624e+000 1.719846e+000 -1.044223e+001 77 21 30
-1.821413e+000 2.856105e-001 -9.557140e+000 159 61 63
-1.283436e+000 1.015951e+000 -9.260478e+000 158 55 58
-1.367734e+000 -2.691189e-001 -9.490903e+000 147 57 56
-1.116498e+000 -4.517576e-001 -9.570387e+000 78 29 24
-1.906137e+000 1.647936e+000 -1.127600e+001 119 24 36
-1.770220e+000 1.860252e+000 -1.128606e+001 103 38 39
-1.655172e+000 1.975223e+000 -1.117240e+001 169 59 61
5.250556e-001 2.382960e+000 -1.199390e+001 121 55 57
-2.236194e+000 1.601051e+000 -1.085061e+001 170 64 61
-2.236194e+000 1.601051e+000 -1.085061e+001 170 64 61
-1.718096e+000 1.951237e+000 -1.061370e+001 167 57 56
-1.653468e+000 2.015825e+000 -1.085421e+001 107 22 29
4.824069e-001 2.218537e+000 -1.170796e+001 97 29 36
-2.420349e+000 1.037721e+000 -1.053205e+001 110 19 28
-2.253322e+000 1.223565e+000 -1.061228e+001 124 18 32
-2.156612e+000 1.352740e+000 -1.057273e+001 180 65 65
-2.311615e+000 1.113193e+000 -1.039425e+001 176 62 62
1.512584e-001 1.815251e+000 -1.057213e+001 95 39 40
1.264794e+000 1.625354e+000 -1.103137e+001 144 110 40
-2.304923e+000 1.382814e-001 -1.034123e+001 113 21 30
1.652707e+000 1.972446e+000 -1.051857e+001 83 24 27
1.663255e+000 1.961207e+000 -1.053066e+001 83 24 27
-1.546337e+000 4.508683e-001 -9.455380e+000 176 51 60
-1.385640e+000 4.802118e-001 -9.360958e+000 96 20 29
-1.396641e+000 -2.216622e-002 -9.474478e+000 93 22 28
-1.332385e+000 1.695186e-001 -9.408695e+000 144 57 50
-1.320924e+000 6.505250e-001 -9.306012e+000 158 56 55
-9.954795e-001 8.022337e-001 -9.407896e+000 81 32 28
-1.085949e+000 5.643558e-001 -9.317928e+000 69 22 28
-8.216980e-001 1.175349e+000 -9.097555e+000 108 62 26
-8.495896e-001 7.709380e-001 -9.165604e+000 114 65 29
-6.969015e-001 1.407990e+000 -9.034402e+000 122 91 40
-1.061538e+000 3.644735e-001 -9.296783e+000 168 59 57
-8.481607e-001 -1.934302e-001 -9.329318e+000 85 29 35
-2.380127e+000 9.387057e-001 -1.184994e+001 117 38 43
-2.020794e+000 1.544793e+000 -1.130080e+001 175 61 65
-2.427578e+000 1.159153e+000 -1.101481e+001 110 21 28
-2.427963e+000 1.163357e+000 -1.101090e+001 110 21 28
-1.842619e+000 1.784070e+000 -1.078890e+001 91 21 28
-1.604177e+000 2.098231e+000 -1.052939e+001 103 34 37
-2.374585e+000 1.118536e+000 -1.064115e+001 180 62 67
-2.174256e+000 1.492211e+000 -1.063791e+001 110 19 26
-1.822861e+000 1.854611e+000 -1.038848e+001 173 53 55
5.416457e-001 2.136333e+000 -1.144069e+001 153 45 49
-2.514794e+000 6.852398e-001 -1.058426e+001 108 17 27
3.135320e-001 1.653402e+000 -1.102709e+001 45 19 24
1.305623e+000 2.164060e+000 -1.113126e+001 212 175 61
-2.292004e+000 6.162529e-001 -1.023868e+001 107 20 29
-2.051842e+000 1.013586e+000 -9.828954e+000 102 19 25
-1.673680e+000 1.307413e+000 -9.684579e+000 182 48 56
-1.712656e+000 8.874347e-001 -9.736090e+000 181 63 64
-1.221369e+000 1.379010e+000 -9.611525e+000 69 16 21
-1.497012e+000 8.210245e-001 -9.399035e+000 174 49 53
-9.588764e-001 1.450584e+000 -9.181612e+000 232 188 66
-1.577989e+000 2.575603e-003 -9.724066e+000 72 22 28
-1.126009e+000 9.466854e-002 -9.446050e+000 70 22 28
-9.271903e-001 5.559334e-001 -9.104129e+000 94 24 31
-1.073301e+000 -6.135310e-001 -9.500436e+000 237 195 74
-2.046396e+000 1.288584e+000 -1.012950e+001 100 17 26
-1.758786e+000 1.689689e+000 -1.024724e+001 96 16 19
-1.758786e+000 1.689689e+000 -1.024724e+001 96 16 19
-2.458875e-001 1.351998e+000 -9.756383e+000 44 37 34
-1.095808e-001 1.340759e+000 -9.484092e+000 45 49 45
-2.375376e+000 1.114212e+000 -1.203225e+001 193 184 177
-2.017747e+000 1.398356e+000 -1.192814e+001 103 41 44
-1.903993e+000 1.727905e+000 -1.081595e+001 90 26 31
3.163908e+000 1.456877e+000 -1.374831e+001 105 56 59
1.199287e-001 1.268916e+000 -9.934020e+000 125 93 47
1.859041e+000 8.235510e-003 -1.126087e+001 157 150 144
-1.790278e+000 1.948713e+000 -1.142064e+001 114 42 43
9.820924e-001 2.345739e+000 -1.215977e+001 104 49 54
-2.216197e+000 4.073846e-001 -1.223297e+001 128 36 44
-6.073142e-001 1.436198e+000 -1.233240e+001 97 46 45
6.075235e-001 1.232503e+000 -1.246863e+001 66 25 30
1.351315e+000 1.957912e+000 -1.119890e+001 193 147 53
-9.081209e-001 2.730144e-001 -9.112122e+000 149 50 49
-1.057353e+000 1.356806e+000 -9.825479e+000 87 23 24
3.433990e+000 3.501269e+000 -1.365145e+001 239 232 225
3.283416e-001 1.807184e+000 -1.196494e+001 122 65 67
-1.656081e+000 1.696166e+000 -1.007973e+001 140 39 42
-1.863759e+000 1.373828e+000 -1.003830e+001 227 136 130
1.515442e+000 2.182351e+000 -1.081492e+001 152 73 41
1.756393e+000 2.193417e+000 -1.097659e+001 102 43 39
-9.430119e-001 1.323378e+000 -9.297516e+000 214 165 55
1.836185e+000 2.077066e+000 -9.828665e+000 74 85 87
2.186581e+000 1.495660e+000 -1.006618e+001 62 94 96
-1.144062e+000 1.600999e+000 -9.911483e+000 120 35 39
1.740755e+000 2.098859e+000 -1.036176e+001 126 40 41
-9.522556e-001 1.320729e+000 -9.330355e+000 240 180 79
-1.923238e+000 1.523356e+000 -1.155278e+001 147 39 43
-1.653966e+000 1.935026e+000 -1.115897e+001 197 79 80
4.460601e-001 2.335619e+000 -1.205049e+001 167 75 75
-1.648075e+000 1.671764e+000 -1.042560e+001 160 68 69
1.091052e+000 2.281504e+000 -1.145116e+001 170 137 68
-1.119454e+000 1.665873e+000 -9.839782e+000 181 76 71
-6.846630e-001 1.371991e+000 -9.495673e+000 140 102 49
1.431266e+000 1.909574e+000 -1.025691e+001 159 55 56
2.115764e+000 1.523132e+000 -1.013112e+001 81 115 118
-2.622229e+000 7.092238e-001 -1.078462e+001 204 77 81
-1.569296e+000 1.873965e+000 -1.034963e+001 184 74 71
-2.409958e+000 9.248146e-001 -1.047328e+001 165 29 37
-1.618325e+000 1.642466e+000 -1.015696e+001 203 68 71
-8.603971e-001 1.841230e+000 -9.913805e+000 143 30 32
-1.017069e-001 1.336820e+000 -9.846692e+000 52 46 41
-1.883168e-001 1.251695e+000 -9.527454e+000 44 52 47
1.517210e+000 3.756506e-001 -1.115205e+001 90 97 99
1.173417e+000 1.448983e+000 -1.016061e+001 142 51 50
1.490693e+000 1.611291e+000 -1.025609e+001 113 30 32
1.263468e+000 1.399469e+000 -9.867098e+000 163 155 147
-5.822841e-001 1.910708e+000 -1.200131e+001 154 67 68
4.067172e-001 2.468517e+000 -1.196402e+001 214 214 204
4.426512e-001 2.429249e+000 -1.168457e+001 201 105 106
-2.101388e+000 1.461674e+000 -1.043360e+001 182 37 46
-2.325862e+000 1.082539e+000 -1.032735e+001 157 31 36
-1.718903e+000 1.272440e+000 -9.911773e+000 174 74 71
1.749556e+000 2.096321e+000 -1.043706e+001 170 66 63
1.762242e+000 2.078979e+000 -1.045182e+001 170 66 63
-1.860852e+000 -3.971850e-002 -9.590603e+000 145 55 57
1.485034e+000 1.809125e-001 -1.115717e+001 96 108 104
2.447750e+000 2.040680e+000 -1.053920e+001 127 49 52
-2.534762e+000 8.258646e-001 -1.084685e+001 162 30 41
-2.328344e+000 1.127560e+000 -1.081974e+001 170 34 45
-2.176914e+000 5.746634e-001 -1.003072e+001 168 29 37
-1.448453e+000 4.888374e-001 -9.444038e+000 138 23 30
-1.511877e+000 -5.422417e-001 -9.744093e+000 162 30 38
-1.549167e+000 -3.627381e-001 -9.630980e+000 162 30 38
-8.832908e-001 1.702643e-001 -9.228542e+000 164 66 64
-8.031242e-001 5.837015e-001 -9.157800e+000 218 179 78
-8.079055e-001 5.918240e-001 -9.151805e+000 218 179 78
-2.259437e+000 1.220020e+000 -1.163497e+001 200 76 78
-2.249676e+000 1.175632e+000 -1.168265e+001 200 76 78
-1.179528e+000 1.372314e+000 -1.253991e+001 143 61 61
2.518107e+000 1.537472e+000 -1.345274e+001 160 129 72
-2.494385e+000 5.028017e-001 -1.055435e+001 186 73 72
-2.494385e+000 5.028017e-001 -1.055435e+001 186 73 72
2.857353e+000 1.461635e+000 -1.342093e+001 151 124 71
2.858117e+000 1.408762e+000 -1.327285e+001 113 61 61
2.838733e+000 1.428518e+000 -1.324637e+001 113 61 61
-1.503177e+000 1.655625e+000 -9.992577e+000 103 18 25
-2.170086e+000 9.666242e-001 -9.777985e+000 186 48 50
1.316066e+000 1.752552e+000 -1.094854e+001 150 92 33
-1.827220e+000 3.153599e-001 -9.538614e+000 178 75 71
1.005943e-001 1.272260e+000 -9.728978e+000 135 103 51
1.281460e+000 1.510175e+000 -1.005377e+001 115 32 33
1.281460e+000 1.510175e+000 -1.005377e+001 115 32 33
1.369929e+000 1.409122e+000 -9.944538e+000 81 32 35
-1.384918e+000 -2.032483e-001 -9.449928e+000 169 68 67
-1.094383e+000 -2.579140e-002 -9.361762e+000 173 69 64
2.072684e+000 1.434161e+000 -9.951809e+000 42 66 68
-9.020562e-001 -5.936406e-001 -9.402358e+000 112 64 28
-9.168296e-001 -2.410877e-001 -9.253369e+000 236 200 84
-2.432427e+000 1.152926e+000 -1.081448e+001 200 78 80
-2.157821e+000 1.367600e+000 -1.056272e+001 204 78 79
-2.226056e+000 1.070550e+000 -1.010743e+001 111 18 29
2.237478e+000 1.438004e+000 -1.245898e+001 90 48 32
-2.089945e+000 1.571503e-001 -9.939071e+000 118 20 32
-2.027288e+000 4.736111e-001 -9.935989e+000 115 18 29
-2.027288e+000 4.736111e-001 -9.935989e+000 115 18 29
-1.498275e+000 1.129285e+000 -9.594985e+000 188 75 71
-1.846087e+000 5.357145e-001 -9.538052e+000 102 18 28
-1.811220e+000 3.528005e-001 -9.665923e+000 102 18 28
-1.695931e+000 -6.104324e-002 -9.644785e+000 105 27 35
-8.098696e-002 1.215248e+000 -9.716556e+000 79 89 55
-1.428015e+000 1.240766e-001 -9.379331e+000 99 23 31
-8.326482e-001 7.198824e-001 -9.201946e+000 122 73 32
-7.493508e-001 1.252677e+000 -9.119557e+000 227 194 78
-7.963646e-001 9.670440e-001 -9.090558e+000 232 192 78
-2.035469e+000 1.616569e+000 -1.122571e+001 199 76 78
-2.323205e+000 1.454316e+000 -1.073381e+001 188 46 53
-1.709625e+000 1.921994e+000 -1.063993e+001 189 66 68
-1.658133e+000 1.869916e+000 -1.038076e+001 114 21 31
6.738192e-001 2.189813e+000 -1.175913e+001 171 71 68
6.738192e-001 2.189813e+000 -1.175913e+001 171 71 68
-2.105065e+000 1.386120e+000 -1.029227e+001 208 55 59
-2.242949e+000 1.012743e+000 -1.018867e+001 119 19 31
-1.480077e+000 1.881481e+000 -1.003029e+001 111 19 28
-1.479383e+000 1.877237e+000 -1.003335e+001 111 19 28
-1.234909e+000 1.633664e+000 -1.005922e+001 76 16 24
-2.333195e+000 3.753561e-001 -1.016089e+001 126 20 29
9.820535e-001 1.570802e+000 -1.134568e+001 68 29 29
-1.527861e+000 1.335785e+000 -9.632584e+000 111 20 25
1.555012e+000 1.903594e+000 -1.063837e+001 172 48 48
-1.552434e+000 9.189621e-001 -9.675327e+000 119 18 25
1.427394e+000 1.008384e+000 -1.108654e+001 78 69 70
-8.395088e-001 1.387679e+000 -9.488647e+000 112 36 36
-1.644877e+000 2.818900e-001 -9.542026e+000 85 21 29
1.497051e+000 1.804288e+000 -1.016585e+001 181 47 48
-2.752809e+000 4.306554e-001 -1.137689e+001 200 189 186
2.644567e+000 1.380134e+000 -1.288221e+001 142 115 60
-1.618358e+000 6.903181e-001 -9.533529e+000 100 21 25
-2.451720e-001 1.352470e+000 -9.756063e+000 43 43 43
1.235426e-001 1.262508e+000 -9.939785e+000 136 101 45
1.327083e+000 1.337533e+000 -1.006601e+001 158 46 48
-1.445613e+000 2.053399e+000 -1.054576e+001 108 39 41
-2.558430e+000 2.930848e-002 -1.102731e+001 187 49 54
-2.600684e+000 8.058092e-001 -1.123106e+001 199 70 74
-1.725416e+000 1.912178e+000 -1.116330e+001 200 76 80
1.511687e+000 2.038735e+000 -1.084215e+001 150 68 39
1.042129e-001 1.281156e+000 -9.567600e+000 140 128 108
-8.039219e-001 4.526889e-001 -9.117024e+000 141 107 103
-1.981141e+000 4.547613e-001 -9.788126e+000 196 74 73
-1.606276e+000 8.545165e-001 -9.601408e+000 115 24 30
-2.377855e+000 1.356812e+000 -1.081360e+001 200 55 62
-1.951051e+000 8.243688e-001 -9.818437e+000 149 52 57
-1.424185e+000 9.994307e-001 -9.578131e+000 197 63 65
2.212574e+000 1.431433e+000 -1.007903e+001 73 106 107
-2.236146e+000 8.373888e-001 -1.020052e+001 206 116 108
-1.954682e+000 1.397739e+000 -1.001756e+001 209 50 55
1.165155e+000 1.360281e+000 -1.019742e+001 171 161 156
2.045501e+000 1.387069e+000 -9.896897e+000 59 110 108
-2.080801e+000 1.416821e+000 -1.160320e+001 196 77 78
-1.969669e+000 1.569177e+000 -1.155452e+001 186 68 70
-2.230174e+000 1.623908e+000 -1.101119e+001 103 30 37
-2.615047e+000 1.102890e+000 -1.091181e+001 169 33 41
-2.445728e+000 1.010776e+000 -1.099837e+001 204 81 83
-1.907549e+000 1.254169e+000 -1.028304e+001 177 77 75
-2.242699e+000 2.428805e-001 -1.003983e+001 174 32 38
-2.030889e+000 2.744123e-001 -9.652973e+000 170 29 38
-1.035249e+000 1.080764e+000 -9.301437e+000 93 34 23
1.302121e+000 1.249219e+000 -1.041126e+001 146 151 142
1.475496e+000 1.885497e+000 -1.030026e+001 166 56 53
7.577815e-001 1.065406e+000 -1.003888e+001 95 65 35
2.052568e+000 1.406753e+000 -1.018250e+001 45 54 58
1.936906e+000 1.353687e+000 -9.938694e+000 50 74 78
-2.445357e+000 8.188798e-001 -1.054505e+001 200 77 79
-1.474813e+000 1.428543e+000 -9.679099e+000 191 73 75
-1.474813e+000 1.428543e+000 -9.679099e+000 191 73 75
4.266237e-001 9.539527e-001 -1.033212e+001 66 26 22
1.890688e+000 2.012311e+000 -1.017659e+001 79 31 31
2.095848e+000 1.409564e+000 -1.010960e+001 67 102 104
-6.887156e-001 -7.862119e-001 -9.456038e+000 135 118 101
-1.626222e+000 1.862164e+000 -1.110947e+001 140 36 45
-1.797909e+000 1.907444e+000 -1.071038e+001 100 24 31
-1.623399e+000 1.798231e+000 -1.027233e+001 176 62 62
-2.193148e+000 9.211405e-001 -1.021593e+001 110 19 27
-2.003413e+000 7.663931e-001 -9.831144e+000 187 84 82
-1.962140e+000 1.122271e+000 -9.788665e+000 183 64 65
-1.962140e+000 1.122271e+000 -9.788665e+000 183 64 65
-9.782447e-001 1.854118e+000 -1.002846e+001 193 78 78
-2.034227e+000 3.383971e-001 -9.898842e+000 184 77 73
-1.781655e+000 6.480991e-001 -9.508941e+000 170 53 54
-1.413536e+000 9.170064e-001 -9.427380e+000 143 27 33
-1.334916e+000 1.867018e-001 -9.393242e+000 160 65 62
-2.186736e+000 1.130932e+000 -1.195922e+001 150 43 46
-1.926014e+000 1.647800e+000 -1.155078e+001 194 76 77
-2.344717e+000 1.504406e+000 -1.094673e+001 125 40 47
-2.344717e+000 1.504406e+000 -1.094673e+001 125 40 47
-1.667986e+000 2.013455e+000 -1.113569e+001 205 83 80
-2.646938e+000 4.995330e-001 -1.112264e+001 183 41 50
-2.074654e+000 1.351747e+000 -1.110605e+001 127 37 45
-2.454780e+000 6.701067e-001 -1.021944e+001 186 53 57
-2.299288e+000 1.250027e-001 -1.018423e+001 187 78 78
-2.295623e+000 9.643358e-002 -1.020173e+001 187 78 78
-2.333758e+000 3.856304e-001 -1.015507e+001 124 21 34
-1.887475e+000 4.571697e-001 -9.714370e+000 136 22 32
-1.541376e+000 1.743090e+000 -9.385871e+000 180 59 59
-1.509328e+000 8.581617e-001 -9.381618e+000 187 52 55
-8.606972e-001 1.382767e+000 -9.451103e+000 117 37 37
-1.529829e+000 3.887604e-001 -9.497470e+000 196 59 66
-6.916587e-001 1.733288e+000 -1.226338e+001 136 60 62
-2.495192e+000 8.164965e-001 -1.103509e+001 143 21 37
-1.569444e+000 -7.996547e-002 -9.584968e+000 187 57 59
-1.111446e+000 6.189511e-001 -9.313710e+000 66 24 25
2.180326e+000 1.401854e+000 -1.015143e+001 64 94 96
-2.224299e+000 1.684642e+000 -1.103816e+001 111 37 40
-1.854206e+000 1.812668e+000 -1.076332e+001 101 24 30
-1.607007e+000 1.426899e+000 -9.843760e+000 199 69 66
-1.784050e+000 1.114387e+000 -9.830209e+000 97 17 24
-9.227083e-002 1.290408e+000 -9.533549e+000 57 62 58
1.627444e+000 1.751382e+000 -9.983226e+000 63 43 46
-1.627882e+000 1.255406e+000 -1.243279e+001 123 59 57
-1.961362e+000 1.515775e+000 -1.130012e+001 204 71 74
-9.187855e-001 1.982680e+000 -1.176845e+001 139 63 62
-2.115511e+000 1.557811e+000 -1.064636e+001 187 76 75
-2.356270e+000 1.026319e+000 -1.040884e+001 232 136 129
-2.465994e+000 3.750928e-001 -1.061889e+001 200 86 86
-1.906226e+000 1.525530e+000 -1.028850e+001 179 65 67
-1.860232e+000 1.474799e+000 -1.020895e+001 154 28 29
-1.623520e+000 1.344771e+000 -9.792883e+000 169 35 40
-1.934120e+000 6.705234e-001 -9.799648e+000 196 68 69
-1.898921e+000 6.117904e-001 -9.713325e+000 191 73 73
-1.453295e+000 9.571293e-001 -9.594617e+000 156 36 32
-1.588192e+000 4.005712e-001 -9.485772e+000 183 69 73
-1.023324e+000 1.392713e+000 -9.269828e+000 160 79 40
-9.456305e-001 1.317078e+000 -9.406219e+000 194 74 67
-9.729964e-001 1.030885e+000 -9.375983e+000 225 170 100
-2.468937e+000 7.485516e-001 -1.204348e+001 165 57 60
-2.190387e+000 1.353853e+000 -1.186100e+001 180 70 67
-1.898899e+000 1.252364e+000 -1.226889e+001 117 53 57
-2.498588e+000 7.897766e-001 -1.195353e+001 187 56 60
-1.948322e+000 1.583744e+000 -1.163235e+001 190 66 71
-1.960494e+000 1.552557e+000 -1.161458e+001 191 73 76
-2.619517e+000 3.310764e-001 -1.140473e+001 190 60 65
-2.566910e+000 6.056008e-001 -1.106850e+001 193 76 76
-2.395225e+000 1.186365e+000 -1.076755e+001 167 44 46
-2.362242e+000 8.654081e-001 -1.080301e+001 206 87 87
-2.379218e+000 9.206688e-001 -1.045280e+001 205 81 85
-2.061732e+000 1.358821e+000 -1.022854e+001 182 40 45
-1.348662e+000 1.663342e+000 -1.005617e+001 121 40 46
-1.161643e+000 1.746442e+000 -1.004209e+001 69 19 26
-1.588453e+000 7.961619e-001 -9.638481e+000 116 23 22
-1.441388e+000 1.363608e+000 -9.548072e+000 151 51 53
-1.412059e+000 1.008780e+000 -9.619768e+000 135 16 21
-1.240741e+000 1.164347e+000 -9.520154e+000 193 87 84
-6.549340e-001 1.369587e+000 -9.541669e+000 68 23 19
-1.098315e+000 3.152289e-001 -9.291453e+000 168 67 69
-9.599930e-001 9.419837e-001 -9.199307e+000 192 136 37
-7.585135e-001 6.685051e-001 -9.103476e+000 116 91 81
-2.201066e+000 1.247715e+000 -1.202976e+001 185 65 70
-2.520109e+000 1.146272e+000 -1.133581e+001 201 71 73
-2.281341e+000 1.376125e+000 -1.095110e+001 199 72 71
-2.032356e+000 1.401587e+000 -1.138415e+001 201 89 92
-1.791639e+000 1.781366e+000 -1.104060e+001 196 74 74
-2.114931e+000 1.475948e+000 -1.042303e+001 179 33 37
-2.412911e+000 5.983512e-001 -1.046217e+001 192 79 75
-1.893331e+000 1.205684e+000 -1.029269e+001 191 88 89
-1.652553e+000 1.730203e+000 -1.025403e+001 113 21 23
-2.229452e+000 8.099100e-001 -1.022065e+001 219 138 130
-1.424495e+000 9.953065e-001 -9.430025e+000 151 35 37
-7.099017e-001 1.274731e+000 -9.042965e+000 153 127 73
-9.147990e-001 7.177514e-001 -9.088694e+000 156 75 47
-1.866753e+000 1.523683e+000 -1.153048e+001 137 32 35
-2.207675e+000 1.376982e+000 -1.064941e+001 147 20 33
-1.768620e+000 1.783895e+000 -1.068159e+001 187 68 67
-2.504376e+000 8.809767e-001 -1.059712e+001 225 101 104
-1.052379e+000 5.997279e-001 -9.293713e+000 96 35 25
-1.976485e+000 1.230257e+000 -1.030356e+001 118 21 32
-2.148911e+000 8.970776e-001 -1.004189e+001 168 27 34
-1.866069e+000 8.888889e-001 -9.863324e+000 100 15 23
-1.758975e+000 1.216491e+000 -9.927609e+000 113 21 29
-1.729680e+000 1.298633e+000 -9.897269e+000 174 72 69
-1.690448e+000 1.174631e+000 -9.782879e+000 207 53 56
-1.854158e+000 6.497700e-001 -9.645229e+000 192 78 78
-1.854158e+000 6.497700e-001 -9.645229e+000 192 78 78
-1.493452e+000 6.176627e-001 -9.632494e+000 99 20 25
-1.507356e+000 7.412568e-001 -9.658850e+000 172 74 71
-1.037651e+000 1.468863e+000 -9.429883e+000 190 78 73
-2.589420e+000 6.580110e-001 -1.179947e+001 196 58 56
-2.630815e+000 2.787786e-001 -1.180946e+001 196 60 64
-1.717697e+000 1.683498e+000 -1.091699e+001 103 22 29
-2.341383e+000 7.784909e-001 -1.028279e+001 183 44 48
-2.261643e+000 3.732204e-001 -1.027058e+001 204 96 96
-2.261643e+000 3.732204e-001 -1.027058e+001 204 96 96
-1.762530e+000 1.563546e+000 -1.003930e+001 214 89 89
-1.673507e+000 1.489009e+000 -9.970951e+000 213 89 89
-1.673507e+000 1.489009e+000 -9.970951e+000 213 89 89
-1.771058e+000 1.840545e+000 -1.122681e+001 123 42 48
-1.771058e+000 1.840545e+000 -1.122681e+001 123 42 48
-6.035564e-001 1.960871e+000 -1.187771e+001 142 63 69
-1.658344e+000 1.213685e+000 -9.915264e+000 190 77 74
-1.002900e+000 1.912413e+000 -9.981397e+000 190 71 71
-1.326159e+000 1.529997e-001 -9.410059e+000 152 60 57
-2.233962e+000 1.100750e+000 -1.175107e+001 204 81 84
-2.306712e+000 1.066021e+000 -1.042951e+001 197 67 69
-1.392876e+000 1.961762e+000 -9.985274e+000 191 65 66
-1.404603e+000 1.996414e+000 -9.959054e+000 191 65 66
-1.574106e+000 1.322592e+000 -9.765553e+000 144 27 33
-2.101632e+000 2.486040e-001 -9.874708e+000 113 19 32
-1.483980e+000 1.556414e+000 -9.507172e+000 186 60 63
-8.808400e-001 8.558437e-001 -9.115323e+000 117 71 28
-7.707363e-001 8.963973e-001 -9.129102e+000 231 193 85
-7.005155e-001 1.409638e+000 -9.056166e+000 131 97 46
-2.179083e+000 1.526392e+000 -1.061088e+001 125 20 34
-2.553653e+000 9.336419e-001 -1.039338e+001 129 20 32
-1.966954e+000 1.465351e+000 -1.028645e+001 124 20 29
-1.636892e+000 2.723298e-001 -9.549598e+000 74 18 26
-8.542240e-001 -1.459324e-001 -9.291420e+000 82 26 35
-1.609975e+000 2.193822e+000 -1.045088e+001 117 36 40
-9.089221e-001 1.224792e+000 -9.288266e+000 235 181 59
-1.325645e+000 1.170514e+000 -1.240019e+001 134 49 51
4.108514e+000 5.814517e+000 -1.253813e+001 209 196 192
4.151366e+000 5.917042e+000 -1.235510e+001 208 198 194
4.137096e+000 5.658905e+000 -1.238801e+001 244 235 230
4.203952e+000 5.817234e+000 -1.212550e+001 238 226 222
4.071351e+000 4.909567e+000 -1.255632e+001 227 220 214
4.092224e+000 5.035196e+000 -1.249056e+001 206 199 193
4.089904e+000 5.067030e+000 -1.243885e+001 202 193 188
4.258177e+000 5.697990e+000 -1.219903e+001 208 197 193
4.051151e+000 4.648401e+000 -1.260919e+001 206 199 191
4.292945e+000 5.021955e+000 -1.220871e+001 197 188 181
4.296635e+000 5.211598e+000 -1.221011e+001 205 196 191
4.389463e+000 5.465328e+000 -1.190444e+001 195 184 180
4.443742e+000 5.541490e+000 -1.172646e+001 207 196 192
4.466939e+000 4.880003e+000 -1.183672e+001 244 235 228
4.569141e+000 5.342455e+000 -1.153400e+001 205 194 190
4.480206e+000 4.853783e+000 -1.165841e+001 218 209 202
4.501765e+000 4.825347e+000 -1.164994e+001 198 189 184
4.700606e+000 4.998064e+000 -1.145208e+001 100 92 86
4.669727e+000 4.828824e+000 -1.157508e+001 241 232 224
4.608911e+000 4.855711e+000 -1.151701e+001 241 232 224
4.698081e+000 5.202189e+000 -1.127002e+001 196 186 179
4.731959e+000 5.251124e+000 -1.111098e+001 192 181 175
5.058962e+000 4.810201e+000 -1.081190e+001 193 182 178
2.202398e+000 1.526175e+000 -1.005249e+001 70 91 96
4.232718e+000 5.644486e+000 -1.225837e+001 210 201 196
4.050051e+000 4.720610e+000 -1.250942e+001 199 192 186
4.424009e+000 5.477485e+000 -1.171429e+001 203 189 186
4.322741e+000 4.809550e+000 -1.188247e+001 199 192 186
4.461878e+000 4.906429e+000 -1.185359e+001 198 190 183
4.508870e+000 5.395349e+000 -1.161093e+001 200 189 185
4.688714e+000 5.105888e+000 -1.145805e+001 198 189 183
4.680483e+000 4.262722e+000 -1.130710e+001 194 185 178
4.758643e+000 4.323852e+000 -1.133569e+001 185 176 169
4.864263e+000 4.527330e+000 -1.115544e+001 190 181 174
4.988066e+000 4.540037e+000 -1.096836e+001 189 179 170
5.154503e+000 4.564014e+000 -1.044114e+001 186 176 167
1.238763e+000 5.857419e-001 -1.086949e+001 33 49 54
1.525407e+000 7.501627e-001 -1.097184e+001 69 63 63
1.404131e+000 1.997324e+000 -1.013805e+001 139 40 41
2.058491e+000 1.545379e+000 -1.014459e+001 66 85 87
2.058491e+000 1.545379e+000 -1.014459e+001 66 85 87
2.267482e+000 1.587295e+000 -1.005199e+001 73 84 86
4.185250e+000 5.623447e+000 -1.239376e+001 213 206 198
4.259868e+000 5.384340e+000 -1.219560e+001 205 196 191
4.232016e+000 4.925523e+000 -1.228923e+001 200 191 183
4.235571e+000 4.745911e+000 -1.218326e+001 198 189 180
4.456317e+000 5.048320e+000 -1.193764e+001 197 188 181
4.569126e+000 4.281235e+000 -1.175469e+001 189 180 173
4.692964e+000 4.885473e+000 -1.127190e+001 191 182 175
4.881695e+000 4.905522e+000 -1.083074e+001 190 181 174
-1.184228e+000 -1.151518e+000 -9.815092e+000 189 173 168
-9.439193e-001 -1.063884e+000 -9.402470e+000 207 180 81
1.863289e+000 2.043314e+000 -1.015547e+001 73 21 23
1.977917e+000 1.513616e+000 -1.009799e+001 36 45 43
-6.364650e-001 1.672636e+000 -1.239058e+001 128 59 57
-1.843315e+000 -9.548066e-001 -1.005606e+001 175 49 55
4.343503e+000 5.350165e+000 -1.190855e+001 214 202 200
1.948625e+000 1.719314e+000 -1.020664e+001 59 38 40
-8.878690e-001 -8.061938e-001 -9.413475e+000 229 190 84
-9.042825e-001 -7.353257e-001 -9.368242e+000 229 190 84
-9.667106e-001 -9.125628e-001 -9.406752e+000 120 74 39
1.490043e+000 1.817067e+000 -1.015659e+001 164 42 41
-1.685007e+000 -9.056669e-001 -9.997725e+000 106 29 37
-2.630574e-001 2.361589e+000 -1.167669e+001 204 199 193
3.469823e+000 5.828237e+000 -1.371966e+001 251 240 236
3.499600e+000 5.875996e+000 -1.378482e+001 237 226 220
3.504091e+000 5.850894e+000 -1.363842e+001 240 229 226
3.502781e+000 5.442890e+000 -1.359572e+001 238 230 225
3.610032e+000 5.535196e+000 -1.336040e+001 243 235 232
3.610032e+000 5.535196e+000 -1.336040e+001 243 235 232
3.746330e+000 5.601672e+000 -1.314524e+001 253 249 245
4.002426e+000 5.415908e+000 -1.274061e+001 254 246 242
4.010089e+000 5.685884e+000 -1.259470e+001 254 247 247
4.016688e+000 5.662295e+000 -1.240597e+001 254 248 245
