ply
format ascii 1.0
element face 0
property list uchar int vertex_indices
element vertex 515
property float x
property float y
property float z
property uchar diffuse_red
property uchar diffuse_green
property uchar diffuse_blue
end_header
-4.586544e-001 -7.221577e-001 -9.198252e+000 153 113 47
-4.309382e-001 8.298513e-001 -9.164722e+000 141 80 34
-8.826739e-001 3.427634e-001 -9.409804e+000 199 89 87
-6.632492e-001 3.299302e-001 -9.252631e+000 94 28 29
-1.359040e+000 -1.888125e-002 -9.628249e+000 113 27 34
-5.037618e-001 -4.097209e-001 -9.303254e+000 250 211 91
-5.570171e-001 8.490775e-001 -9.204380e+000 252 212 88
4.348488e+000 -1.481987e+000 -1.224944e+001 134 125 122
2.430434e+000 1.561308e+000 -9.943274e+000 81 81 90
3.148119e-002 4.852411e-001 -9.401603e+000 127 95 46
2.315750e+000 -1.397405e+000 -1.258912e+001 103 51 57
1.701033e-001 -2.291021e-001 -9.641715e+000 82 82 59
-6.139684e-001 -4.007963e-002 -9.280982e+000 93 36 28
-5.580953e-001 6.782207e-001 -9.251422e+000 98 31 31
-9.301570e+000 5.695193e+000 -2.666458e+001 83 81 84
-2.554635e-001 5.087499e-001 -9.219933e+000 106 41 37
1.519835e-001 2.042562e-001 -9.504209e+000 97 68 28
2.268718e-001 2.182549e-001 -9.558887e+000 100 68 30
2.268718e-001 2.182549e-001 -9.558887e+000 100 68 30
-6.123528e+000 2.486998e+000 -2.624548e+001 95 94 96
-5.904417e+000 2.454835e+000 -2.645096e+001 53 51 54
-5.799589e+000 2.326829e+000 -2.656834e+001 81 79 84
1.232562e+000 1.994392e+000 -1.115877e+001 229 187 79
1.080608e-001 -6.902126e-001 -9.673705e+000 85 96 72
-1.472205e+001 6.945927e+000 -3.198199e+001 211 193 177
-5.827435e+000 2.824318e+000 -2.625080e+001 42 37 41
-1.498625e+001 6.329098e+000 -3.209948e+001 201 179 168
-1.287082e+001 4.360150e+000 -3.050844e+001 217 201 193
-1.463410e+001 5.145091e+000 -3.129953e+001 146 133 127
-6.336387e+000 1.758587e+000 -2.675540e+001 106 105 110
-5.965227e+000 2.642106e+000 -2.619506e+001 98 99 101
-6.475590e+000 1.978582e+000 -2.642864e+001 45 43 48
-1.390116e+001 5.091735e+000 -3.081106e+001 118 109 110
-2.985336e-001 8.078376e-002 -9.225586e+000 102 38 37
-7.318761e+000 5.032121e+000 -2.503155e+001 146 135 133
-1.281358e+001 4.040692e+000 -3.002771e+001 230 216 203
-6.051601e+000 2.776247e+000 -2.621533e+001 92 91 96
-1.545725e+001 5.023156e+000 -3.340593e+001 175 158 150
-6.599510e+000 1.195110e+000 -2.703157e+001 89 88 93
-6.449472e+000 1.143012e+000 -2.719352e+001 44 43 46
-6.447012e+000 1.142167e+000 -2.718698e+001 44 43 46
-6.287997e+000 1.530235e+000 -2.687153e+001 44 44 46
-1.423626e+001 3.501242e+000 -3.193841e+001 204 187 174
-6.721026e+000 1.401613e+000 -2.699730e+001 45 40 46
1.970273e+000 -1.247691e+000 -1.228885e+001 119 90 57
-1.485609e+001 5.571962e+000 -3.197347e+001 217 199 187
-1.615157e+001 5.151427e+000 -3.395518e+001 210 194 181
-1.601656e+001 5.106218e+000 -3.369044e+001 210 194 181
-6.463142e+000 1.352761e+000 -2.697004e+001 97 96 101
-6.284108e+000 1.322368e+000 -2.710312e+001 93 94 96
-7.067365e+000 1.043766e+000 -2.786541e+001 39 38 41
-1.654437e+001 5.824356e+000 -3.294290e+001 192 180 180
-9.399345e+000 4.731690e+000 -2.627458e+001 45 43 48
-9.062837e+000 2.425491e+000 -2.630809e+001 252 231 202
-9.062837e+000 2.425491e+000 -2.630809e+001 252 231 202
-3.909644e-001 1.001766e+000 -9.141764e+000 230 187 82
-1.072214e+001 4.745267e+000 -2.734254e+001 227 218 213
-5.897357e+000 2.282730e+000 -2.641972e+001 68 69 71
2.481816e+000 -1.297806e+000 -1.268329e+001 114 58 58
-4.453191e-001 3.053968e-001 -9.240181e+000 206 85 86
-6.374255e-001 -2.048468e-001 -9.320333e+000 255 221 88
-1.251519e+001 3.616935e+000 -2.954768e+001 195 181 175
-1.090729e+000 3.678018e-001 -9.422433e+000 105 28 33
1.711292e+000 -1.045917e+000 -1.233519e+001 118 90 51
2.417482e+000 1.514527e+000 -9.949260e+000 157 168 163
9.997357e-002 2.074750e-001 -9.473382e+000 101 71 29
-1.082809e+001 4.715104e+000 -2.719840e+001 242 231 233
-1.044115e+001 4.580958e+000 -2.700761e+001 159 147 145
-6.204870e+000 2.661268e+000 -2.623637e+001 48 46 49
9.257687e-001 1.967817e+000 -1.127253e+001 116 45 47
-6.814555e+000 4.586678e-001 -2.812003e+001 40 35 39
2.481816e+000 -1.297806e+000 -1.268329e+001 114 58 58
-4.764731e-001 -7.845930e-002 -9.282144e+000 247 210 89
2.184756e-001 7.146272e-001 -9.558033e+000 54 51 45
-1.090729e+000 3.678018e-001 -9.422433e+000 105 28 33
-6.632492e-001 3.299302e-001 -9.252631e+000 94 28 29
-1.263255e-002 8.763945e-002 -9.497812e+000 123 92 45
1.672653e+000 2.105640e+000 -1.098464e+001 220 180 97
-1.176969e+001 6.826225e+000 -2.782690e+001 252 238 237
-1.206012e+001 6.620891e+000 -2.794260e+001 247 236 236
-1.114871e+001 4.609292e+000 -2.716633e+001 233 225 222
-1.096092e+001 4.609712e+000 -2.714570e+001 231 222 219
2.330087e+000 -8.719678e-001 -1.256711e+001 104 53 55
2.299635e+000 1.316933e+000 -9.915018e+000 108 102 102
-1.079808e+001 4.610430e+000 -2.717084e+001 221 211 206
-6.024745e+000 2.407333e+000 -2.630187e+001 64 62 65
1.970273e+000 -1.247691e+000 -1.228885e+001 119 90 57
-4.059459e-001 6.957399e-001 -9.187535e+000 236 199 89
-1.293150e+001 5.087826e+000 -3.003243e+001 236 223 210
-1.055699e+000 1.990665e-001 -9.476140e+000 216 67 65
2.450801e+000 -1.138075e+000 -1.277373e+001 230 222 211
-3.961413e-001 1.019034e+000 -9.186040e+000 233 189 84
-8.553760e-001 7.044910e-001 -9.397865e+000 215 96 93
-6.257673e-001 1.520135e-001 -9.354056e+000 217 76 76
-4.769167e-001 1.063920e-001 -9.260935e+000 113 31 35
3.665867e+000 -1.270444e+000 -1.281208e+001 68 58 60
3.630275e+000 -1.203323e+000 -1.251836e+001 66 56 57
-1.178009e+001 6.447964e+000 -2.771747e+001 235 223 224
4.465587e+000 2.775639e+000 -1.168637e+001 245 234 227
1.330983e+000 2.121285e+000 -1.114918e+001 222 189 92
-1.055259e+001 4.563764e+000 -2.695267e+001 202 195 189
-7.411343e-001 1.728332e+000 -1.001865e+001 135 53 58
2.415464e+000 1.383207e+000 -9.961422e+000 139 153 147
-1.388152e+000 1.022878e+000 -9.769584e+000 142 26 35
-1.300967e+001 2.269543e+000 -2.954025e+001 223 211 211
-1.319479e+001 2.221486e+000 -2.975131e+001 214 202 202
-1.241926e+001 2.256405e+000 -2.934846e+001 228 217 215
-1.070796e+001 1.963330e+000 -2.572088e+001 216 207 201
-1.280863e+001 1.624249e+000 -3.005476e+001 158 147 148
-1.053569e+000 4.315811e-001 -9.394736e+000 128 33 35
-8.628605e-001 -5.210875e-001 -9.605179e+000 212 91 90
-1.143536e+001 6.732699e+000 -2.736784e+001 224 213 214
-1.172633e+001 6.713207e+000 -2.773601e+001 228 216 216
4.917478e+000 2.719478e+000 -1.094963e+001 247 234 228
1.556940e+000 2.072742e+000 -1.080929e+001 226 189 94
-1.087204e+001 4.946091e+000 -2.726147e+001 244 234 233
1.786657e+000 1.724151e+000 -1.002180e+001 130 70 72
4.877413e+000 1.893395e+000 -1.102569e+001 181 171 163
-1.220117e+001 2.612202e+000 -2.884467e+001 240 230 228
-1.223494e+001 2.456472e+000 -2.898188e+001 219 209 205
-1.204446e+001 2.478358e+000 -2.881802e+001 233 223 222
-1.195890e+001 2.365455e+000 -2.898268e+001 223 213 209
-1.181936e+001 2.086955e+000 -2.885084e+001 186 177 172
-1.206748e+001 1.975919e+000 -2.923815e+001 185 176 171
7.397448e-001 -6.249812e-002 -7.286277e+000 129 90 47
7.401955e-001 -4.569586e-001 -9.964926e+000 69 34 27
5.302835e+000 -6.192087e-001 -9.998802e+000 201 188 182
-1.358545e+000 4.601255e-001 -9.639689e+000 215 95 96
5.339937e+000 7.823039e-003 -1.004359e+001 234 221 215
1.229435e+000 2.155777e+000 -1.128486e+001 135 69 65
1.320171e+000 1.852299e+000 -1.122498e+001 200 154 75
-1.323284e+001 4.637073e+000 -2.998301e+001 200 186 177
-8.212738e-001 1.267075e+000 -9.552778e+000 113 34 38
1.750562e-001 1.321040e+000 -9.433498e+000 57 53 52
2.256250e+000 1.446086e+000 -9.935183e+000 112 163 160
-4.833597e-001 6.354060e-001 -9.284766e+000 203 99 92
1.598085e-002 -6.631021e-001 -9.546558e+000 62 68 56
-1.058697e+001 5.705986e+000 -2.722770e+001 108 100 100
-3.999071e-001 1.438809e+000 -9.374855e+000 122 52 56
-1.515294e+001 5.162770e+000 -3.270197e+001 180 166 161
1.362594e+000 1.657894e+000 -1.111637e+001 150 92 46
2.195531e+000 1.432544e+000 -9.949047e+000 79 87 89
-9.513437e+000 3.227090e+000 -2.612137e+001 244 227 199
-5.503012e-001 1.006953e+000 -9.287853e+000 144 53 41
-3.573546e-001 9.134067e-001 -9.117883e+000 231 195 83
-3.573546e-001 9.134067e-001 -9.117883e+000 231 195 83
-4.734630e-001 7.100127e-001 -9.276280e+000 234 191 88
-3.840643e-001 5.804465e-001 -9.175149e+000 205 90 90
-3.840643e-001 5.804465e-001 -9.175149e+000 205 90 90
-1.546336e+001 2.269000e+000 -3.300137e+001 114 108 112
-1.371121e+001 7.070476e+000 -3.058343e+001 206 186 176
1.359747e+000 2.041166e+000 -1.106612e+001 178 118 56
1.710691e+000 1.762471e+000 -1.008076e+001 121 52 56
1.709356e+000 1.680816e+000 -1.006766e+001 165 80 83
-9.457159e+000 3.435713e+000 -2.611893e+001 193 169 129
-9.457159e+000 3.435713e+000 -2.611893e+001 193 169 129
-4.466519e-001 1.359932e+000 -9.255091e+000 243 209 85
-6.384160e-001 1.175504e+000 -9.394258e+000 155 39 49
2.635192e-001 1.273910e+000 -9.510427e+000 88 98 72
2.182139e+000 1.041053e+000 -1.047378e+001 112 72 39
2.182139e+000 1.041053e+000 -1.047378e+001 112 72 39
2.204420e+000 9.684673e-001 -1.032799e+001 153 120 60
-6.080239e+000 1.680573e+000 -2.681537e+001 94 95 97
-1.180456e+000 -5.699199e-001 -9.841843e+000 125 35 45
-2.501337e+001 -1.646963e+001 -5.198361e+001 64 62 68
9.626003e-001 1.838487e+000 -1.119888e+001 146 66 62
1.349019e+000 1.907613e+000 -1.102144e+001 165 102 46
-1.290117e+001 3.444059e+000 -2.978319e+001 239 219 205
-9.756284e-001 8.963715e-001 -9.294397e+000 217 85 82
-1.331089e+000 6.407851e-001 -9.562198e+000 137 29 39
1.519101e-001 6.893176e-001 -9.490506e+000 52 47 41
1.519101e-001 6.893176e-001 -9.490506e+000 52 47 41
-1.982675e+000 5.301408e-001 -1.050772e+001 227 107 101
-1.568778e+000 5.648340e-001 -9.810539e+000 170 33 41
-9.021125e-001 5.852561e-001 -9.430803e+000 135 29 37
-1.367930e+000 2.862396e-001 -9.590303e+000 142 31 39
-9.670877e-001 -1.227430e-001 -9.442489e+000 143 33 40
1.702618e-001 -2.292832e-001 -9.645407e+000 82 82 59
-1.526103e+000 -4.267895e-001 -1.018594e+001 218 97 93
-1.303333e+000 -4.680536e-001 -9.830760e+000 237 104 110
-1.191670e+000 -4.424327e-001 -9.772740e+000 143 34 40
2.317674e+000 -5.025124e-001 -1.204026e+001 105 74 43
2.439132e+000 -3.802722e-001 -1.203688e+001 89 35 40
-8.801837e-001 -8.561382e-001 -1.006109e+001 193 90 91
-3.169628e+001 -1.822112e+001 -6.088761e+001 121 113 109
-3.169628e+001 -1.822112e+001 -6.088761e+001 121 113 109
-2.466285e+001 -1.636996e+001 -5.054507e+001 133 126 120
-2.466285e+001 -1.636996e+001 -5.054507e+001 133 126 120
1.152051e+000 2.133975e+000 -1.129653e+001 131 66 57
-6.714729e-001 1.642429e+000 -9.921696e+000 206 95 88
1.224833e+000 1.811325e+000 -1.121707e+001 97 44 43
1.437591e+000 1.947871e+000 -1.081411e+001 233 190 82
-7.494749e-001 1.263337e+000 -9.564668e+000 219 95 90
-5.303882e-001 1.206088e+000 -9.135220e+000 254 218 88
-4.089547e-001 1.185096e+000 -9.125202e+000 148 86 42
-1.230547e+001 3.029631e+000 -2.907051e+001 178 170 168
-5.965227e+000 2.642106e+000 -2.619506e+001 98 99 101
-1.309613e+000 1.084006e+000 -9.900995e+000 131 27 37
-1.202537e+000 9.480442e-001 -9.732068e+000 214 92 90
-8.417962e-001 1.153777e+000 -9.467279e+000 114 30 37
-1.505826e+000 8.078570e-001 -9.845123e+000 216 98 94
-1.299140e+000 8.456418e-001 -9.669897e+000 114 27 35
2.845272e-001 6.902514e-001 -9.572974e+000 50 47 42
-1.329551e+000 5.484735e-001 -9.603849e+000 128 27 35
-1.023129e+000 5.445497e-001 -9.429866e+000 223 72 72
-1.413416e+000 -2.071025e-001 -9.912950e+000 116 31 38
-5.090133e-001 -2.402556e-001 -9.277873e+000 148 86 36
-2.935234e+001 -1.795146e+001 -5.768610e+001 135 129 130
-7.799174e-001 1.802333e+000 -1.011036e+001 119 46 48
1.569197e+000 1.934738e+000 -1.072746e+001 151 73 49
-1.496226e+000 9.705199e-001 -9.793266e+000 135 28 36
-1.013292e+000 1.116667e+000 -9.641195e+000 217 100 93
-8.660874e-001 8.791072e-001 -9.393815e+000 121 31 35
-8.652916e-001 8.788766e-001 -9.404658e+000 121 31 35
-8.553760e-001 7.044910e-001 -9.397865e+000 215 96 93
-1.309922e+000 3.959881e-001 -9.550208e+000 210 91 88
-9.527264e-001 -1.875512e-001 -9.448726e+000 124 32 35
-9.527264e-001 -1.875512e-001 -9.448726e+000 124 32 35
2.867391e+000 -7.113048e-001 -1.273146e+001 81 41 43
1.622071e-001 -1.279475e-001 -9.583559e+000 53 48 45
1.622071e-001 -1.279475e-001 -9.583559e+000 53 48 45
2.877382e+000 -6.930645e-001 -1.270608e+001 77 40 41
3.519157e+000 -1.734194e+000 -1.307639e+001 145 140 135
1.209987e+000 8.474668e-001 -1.040036e+001 131 99 50
1.209987e+000 8.474668e-001 -1.040036e+001 131 99 50
1.151859e-001 -9.585594e-001 -1.049220e+001 96 54 55
2.315750e+000 -1.397405e+000 -1.258912e+001 103 51 57
-2.235975e+001 -8.758225e+000 -5.679301e+001 36 35 40
-1.110912e+001 4.279937e+000 -2.751635e+001 255 255 255
-1.114579e+001 1.797947e+000 -2.852407e+001 60 58 63
-1.262808e+000 1.685101e-001 -9.680694e+000 124 29 32
-1.676346e+001 -8.011300e+000 -4.594668e+001 35 34 38
-2.793683e+001 -1.232353e+001 -5.853974e+001 95 91 92
1.080990e+000 -1.054270e+000 -1.147371e+001 95 49 49
-8.001852e-001 1.199154e+000 -9.508049e+000 143 53 51
-1.294309e+001 2.213640e+000 -2.954544e+001 208 199 198
-1.259263e+000 1.020316e+000 -9.762616e+000 138 41 44
-1.388273e+001 5.635285e+000 -3.099807e+001 231 213 201
-2.732759e-001 1.282831e+000 -9.183554e+000 149 101 49
-1.487482e+001 3.935415e+000 -3.240434e+001 202 186 173
2.453456e-001 8.029122e-001 -9.627090e+000 76 82 54
2.453456e-001 8.029122e-001 -9.627090e+000 76 82 54
1.779478e-001 1.174506e+000 -9.420065e+000 64 64 52
4.853950e+000 3.731317e+000 -1.110551e+001 233 224 214
4.853950e+000 3.731317e+000 -1.110551e+001 233 224 214
5.510264e+000 3.285164e+000 -9.754593e+000 231 221 214
5.510264e+000 3.285164e+000 -9.754593e+000 231 221 214
5.586378e+000 3.211818e+000 -9.633702e+000 237 225 219
5.577726e+000 3.202057e+000 -9.564457e+000 252 241 235
5.364320e+000 3.011308e+000 -1.013493e+001 247 234 228
5.497042e+000 3.181189e+000 -9.870367e+000 235 221 218
5.544175e+000 2.986232e+000 -9.684260e+000 239 225 219
5.603916e+000 3.071116e+000 -9.616335e+000 250 241 236
4.909059e+000 2.777542e+000 -1.069483e+001 227 214 208
5.318347e+000 2.852731e+000 -1.021429e+001 241 226 221
5.318347e+000 2.852731e+000 -1.021429e+001 241 226 221
5.305887e+000 2.817261e+000 -1.018483e+001 253 240 234
5.305887e+000 2.817261e+000 -1.018483e+001 253 240 234
5.455100e+000 2.724690e+000 -9.873477e+000 237 227 219
4.658232e+000 2.608051e+000 -1.127858e+001 221 211 204
4.913141e+000 2.721601e+000 -1.095100e+001 246 237 228
5.198374e+000 2.510111e+000 -1.054911e+001 231 218 210
5.384918e+000 2.548743e+000 -1.001522e+001 242 228 220
5.384918e+000 2.548743e+000 -1.001522e+001 242 228 220
5.322745e+000 2.443126e+000 -1.018956e+001 235 222 216
5.607433e+000 2.639849e+000 -9.648361e+000 242 230 222
5.670234e+000 2.504891e+000 -9.418083e+000 247 236 227
4.716821e+000 2.452023e+000 -1.130827e+001 219 209 200
4.714583e+000 2.406707e+000 -1.132796e+001 233 223 214
4.714583e+000 2.406707e+000 -1.132796e+001 233 223 214
5.365146e+000 2.374272e+000 -1.010886e+001 235 221 218
5.462593e+000 2.322641e+000 -9.850476e+000 248 239 235
5.460391e+000 2.281305e+000 -9.841291e+000 248 237 231
5.501473e+000 2.212793e+000 -9.786820e+000 236 224 219
5.516588e+000 2.146766e+000 -9.799015e+000 251 241 238
5.643485e+000 2.312094e+000 -9.435382e+000 243 229 224
5.684998e+000 2.330452e+000 -9.394455e+000 252 243 235
5.684998e+000 2.330452e+000 -9.394455e+000 252 243 235
5.605902e+000 2.126011e+000 -9.528395e+000 251 244 238
1.416839e+000 1.801196e+000 -1.123153e+001 136 83 34
5.386031e+000 1.884226e+000 -1.003818e+001 226 212 207
5.444725e+000 1.915096e+000 -1.006890e+001 236 225 221
5.424152e+000 1.847199e+000 -1.002950e+001 246 233 227
5.535581e+000 1.990169e+000 -9.686377e+000 242 228 226
-1.136311e+000 1.334213e+000 -9.531184e+000 219 87 84
5.226886e+000 1.815624e+000 -1.039749e+001 220 207 201
5.177859e+000 1.741633e+000 -1.034963e+001 237 225 219
5.273844e+000 1.529868e+000 -1.027352e+001 212 198 193
5.596597e+000 1.779529e+000 -9.609150e+000 254 247 242
5.521607e+000 1.512051e+000 -9.765141e+000 230 217 212
5.541790e+000 1.470020e+000 -9.710028e+000 252 245 240
5.577553e+000 1.320429e+000 -9.672245e+000 239 225 222
-1.455490e+000 6.436415e-001 -9.569295e+000 224 115 111
-1.421318e+000 6.732118e-001 -9.502111e+000 234 124 120
-4.641413e-001 6.704484e-001 -9.250419e+000 210 123 79
5.306815e+000 1.058834e+000 -1.017516e+001 199 186 178
5.459215e+000 1.017869e+000 -9.838438e+000 246 235 231
5.492618e+000 9.314826e-001 -9.907513e+000 217 202 197
5.567411e+000 1.032046e+000 -9.596569e+000 232 225 219
5.704710e+000 9.634894e-001 -9.476748e+000 254 251 246
1.063472e+000 6.287849e-001 -1.008623e+001 104 67 22
2.702602e+000 6.832235e-001 -1.242204e+001 205 173 156
5.502231e+000 8.452114e-001 -9.767085e+000 218 205 199
5.433223e+000 6.594709e-001 -9.892738e+000 208 194 190
5.481421e+000 6.915128e-001 -9.805035e+000 222 209 203
5.620744e+000 8.409200e-001 -9.559725e+000 236 224 218
5.696603e+000 7.725627e-001 -9.481071e+000 243 232 226
-1.033200e+000 2.160930e-001 -9.397604e+000 219 68 67
2.518079e-001 2.131423e-001 -9.568317e+000 111 78 34
5.500966e-001 2.785303e-001 -9.768815e+000 114 82 34
5.410338e+000 3.631276e-001 -9.976205e+000 204 191 183
5.470887e+000 4.187523e-001 -9.854136e+000 221 208 202
5.603251e+000 5.281016e-001 -9.646786e+000 233 222 218
5.670121e+000 6.268852e-001 -9.541597e+000 240 232 229
5.538777e+000 4.986384e-001 -9.732057e+000 255 251 245
5.489627e+000 1.831332e-001 -9.803597e+000 241 228 222
5.525752e+000 1.914411e-001 -9.749675e+000 228 217 211
5.616251e+000 2.053401e-001 -9.601380e+000 252 246 240
5.791787e+000 3.799287e-001 -9.325814e+000 253 250 246
9.599321e-001 -4.505615e-001 -1.018591e+001 137 109 61
1.651987e+000 -7.407617e-001 -1.254160e+001 161 139 132
5.782421e+000 1.059086e-001 -9.219421e+000 241 232 227
-1.069617e+000 -7.588759e-001 -1.000613e+001 153 70 72
-9.373375e-001 -9.145132e-001 -1.028512e+001 203 106 100
2.762115e-003 -7.762178e-001 -9.663229e+000 56 53 52
1.670344e+000 -8.374021e-001 -1.227717e+001 110 83 57
1.853443e+000 -1.074137e+000 -1.246231e+001 85 44 41
5.470846e+000 -5.302902e-001 -9.816772e+000 224 214 205
2.357076e+000 -1.227730e+000 -1.269761e+001 165 127 118
5.201887e+000 -8.638244e-001 -1.034894e+001 172 161 156
5.786888e+000 -4.954986e-001 -9.295951e+000 254 249 241
5.735960e+000 -9.805269e-001 -9.316434e+000 232 216 209
5.735960e+000 -9.805269e-001 -9.316434e+000 232 216 209
5.783078e+000 -9.917922e-001 -9.356961e+000 230 212 205
5.519962e+000 -1.231672e+000 -9.714561e+000 230 217 212
5.702568e+000 -1.173120e+000 -9.493272e+000 232 219 213
5.696724e+000 -1.121277e+000 -9.418435e+000 235 221 214
5.761345e+000 -1.216702e+000 -9.363034e+000 232 219 213
5.554910e+000 2.950164e+000 -9.685457e+000 255 248 242
5.063136e+000 3.016847e+000 -1.068413e+001 230 217 209
5.063136e+000 3.016847e+000 -1.068413e+001 230 217 209
5.104329e+000 2.970385e+000 -1.077956e+001 228 215 207
4.980542e+000 2.584316e+000 -1.084271e+001 224 211 202
5.673190e+000 2.601751e+000 -9.424936e+000 253 248 242
5.634698e+000 2.554690e+000 -9.360578e+000 235 222 216
-5.654360e-001 1.789514e+000 -9.980867e+000 191 97 95
9.873473e-001 2.176859e+000 -1.118768e+001 173 83 85
4.760959e+000 2.432563e+000 -1.123651e+001 212 202 194
4.760959e+000 2.432563e+000 -1.123651e+001 212 202 194
4.926918e+000 2.295824e+000 -1.085053e+001 236 223 214
5.021746e+000 2.206766e+000 -1.078776e+001 210 200 191
5.298749e+000 2.301446e+000 -1.001913e+001 233 220 214
5.436131e+000 2.316722e+000 -9.920067e+000 253 246 237
5.384999e+000 2.241971e+000 -1.003554e+001 231 218 213
5.590813e+000 2.095639e+000 -9.696851e+000 254 248 242
5.659950e+000 2.296485e+000 -9.410746e+000 255 252 247
1.550513e+000 1.790039e+000 -1.086246e+001 187 138 71
5.154778e+000 1.851836e+000 -1.038784e+001 213 200 194
5.244936e+000 1.913681e+000 -1.022933e+001 220 209 203
5.311466e+000 1.915047e+000 -1.021997e+001 224 210 205
5.431358e+000 2.037007e+000 -1.016554e+001 252 239 233
5.352903e+000 1.940984e+000 -1.009369e+001 225 212 206
5.419196e+000 1.858488e+000 -1.007433e+001 227 213 210
5.344796e+000 1.812196e+000 -1.000245e+001 232 219 213
5.690252e+000 1.934801e+000 -9.482674e+000 255 249 242
-9.765834e-001 1.236673e+000 -9.551587e+000 135 39 41
-8.003382e-001 1.260285e+000 -9.466296e+000 136 45 45
5.342050e+000 1.733737e+000 -1.014080e+001 222 209 203
5.374868e+000 1.656430e+000 -1.011536e+001 219 206 200
5.617124e+000 1.667356e+000 -9.519222e+000 254 243 240
5.277860e+000 1.459540e+000 -1.020135e+001 209 196 190
5.396074e+000 1.302769e+000 -1.008118e+001 213 200 194
5.491658e+000 1.382699e+000 -9.772261e+000 225 212 206
5.698876e+000 1.394341e+000 -9.380136e+000 236 222 219
5.698876e+000 1.394341e+000 -9.380136e+000 236 222 219
-1.372509e+000 7.630049e-001 -9.678938e+000 223 96 95
-4.087912e-001 6.559622e-001 -9.176329e+000 204 104 74
3.548013e-001 6.722970e-001 -9.439772e+000 119 89 47
2.033689e+000 1.004581e+000 -1.045775e+001 104 65 36
5.329658e+000 1.076665e+000 -1.023121e+001 200 187 179
5.574911e+000 1.036913e+000 -9.698762e+000 254 249 244
5.619265e+000 1.016921e+000 -9.564703e+000 235 220 214
-1.432424e+000 5.311520e-001 -9.582565e+000 227 186 185
1.085052e+000 6.536272e-001 -1.002539e+001 134 100 54
1.292936e+000 6.513260e-001 -1.026672e+001 113 81 48
5.555433e+000 8.848486e-001 -9.688368e+000 230 218 212
5.585389e+000 8.558470e-001 -9.583009e+000 228 215 209
5.620035e+000 8.695750e-001 -9.454120e+000 241 229 222
5.544251e+000 7.783396e-001 -9.731277e+000 227 214 208
5.706398e+000 8.671486e-001 -9.485710e+000 254 251 246
5.705324e+000 7.809092e-001 -9.437377e+000 254 252 245
5.705324e+000 7.809092e-001 -9.437377e+000 254 252 245
1.748794e+000 4.734367e-002 -1.119702e+001 71 91 89
-5.354673e-001 8.566678e-003 -9.367755e+000 178 86 72
5.487359e+000 2.164742e-001 -9.801436e+000 224 212 204
8.591481e-001 -4.465448e-001 -1.011823e+001 131 106 59
5.322394e+000 -1.486879e+000 -1.009236e+001 217 204 196
5.639405e+000 2.980210e+000 -9.544737e+000 253 244 234
5.532880e+000 2.876429e+000 -9.790789e+000 234 223 214
5.597740e+000 2.850119e+000 -9.616806e+000 237 223 220
5.369388e+000 2.502954e+000 -1.010349e+001 235 222 216
4.700594e+000 2.384774e+000 -1.118714e+001 214 204 195
5.042406e+000 2.313366e+000 -1.057322e+001 218 205 197
-2.685230e-001 1.377382e+000 -9.360196e+000 147 106 59
1.986315e+000 1.490932e+000 -9.920254e+000 80 97 97
5.126470e+000 1.611790e+000 -1.058064e+001 196 184 178
-7.792975e-001 9.681305e-001 -9.237458e+000 195 83 77
5.593520e+000 1.297001e+000 -9.595875e+000 233 219 216
5.593520e+000 1.297001e+000 -9.595875e+000 233 219 216
5.712991e+000 1.422000e+000 -9.348444e+000 254 250 247
1.032189e+000 9.708971e-001 -9.858031e+000 131 97 52
5.268676e+000 1.188968e+000 -1.023643e+001 197 184 178
-1.749663e+000 2.573093e-001 -1.005462e+001 224 75 74
9.426176e-002 -6.683888e-002 -9.703319e+000 108 90 42
-1.427211e+000 -3.348408e-001 -1.013524e+001 183 87 83
5.376184e-001 -4.346155e-001 -9.927592e+000 132 99 55
7.718532e-001 -4.367197e-001 -1.003784e+001 130 100 54
1.846151e+000 -8.300324e-001 -1.295846e+001 149 124 116
5.377905e+000 -1.027979e-003 -1.011626e+001 227 214 208
5.511962e+000 -3.337094e-001 -9.805193e+000 219 209 202
5.511962e+000 -3.337094e-001 -9.805193e+000 219 209 202
5.361316e+000 -8.594266e-001 -1.009417e+001 206 195 188
5.361316e+000 -8.594266e-001 -1.009417e+001 206 195 188
5.391414e+000 -1.040513e+000 -9.980314e+000 219 206 197
5.391414e+000 -1.040513e+000 -9.980314e+000 219 206 197
5.783429e+000 -9.867924e-001 -9.267083e+000 231 215 211
4.827275e+000 -2.335694e+000 -1.096630e+001 186 177 172
5.526745e+000 2.925566e+000 -9.805413e+000 250 242 235
2.561240e+000 2.009523e+000 -1.064596e+001 154 72 81
-4.605291e-001 1.717810e+000 -9.813062e+000 193 92 91
1.001915e+000 1.909815e+000 -1.132206e+001 161 76 75
1.001915e+000 1.909815e+000 -1.132206e+001 161 76 75
1.407923e+000 1.822656e+000 -1.095298e+001 210 165 76
1.375328e+000 1.321570e+000 -1.003215e+001 102 43 42
1.986380e+000 1.364896e+000 -9.920365e+000 74 109 105
2.259767e+000 1.451697e+000 -9.972763e+000 122 167 168
5.644901e+000 1.690817e+000 -9.496745e+000 238 224 220
2.977212e+000 7.233328e-001 -1.287112e+001 80 40 37
5.594945e+000 7.820757e-001 -9.668154e+000 225 214 208
-9.564045e-001 3.552282e-002 -9.477103e+000 193 91 87
-1.002878e+000 -3.318794e-001 -9.574540e+000 196 90 88
1.627705e+000 -7.871264e-001 -1.224335e+001 160 138 125
1.234758e+000 1.677778e+000 -1.114331e+001 155 114 60
-9.452702e-001 1.399357e+000 -9.537293e+000 240 125 125
-6.825489e-001 1.391938e+000 -9.499228e+000 108 32 36
2.969540e+000 5.824351e-001 -1.227758e+001 69 47 49
-1.421081e+000 2.735774e-002 -9.742072e+000 148 29 35
-1.532978e+000 -2.453590e-001 -9.916850e+000 191 78 77
2.202684e+000 -6.317719e-001 -1.250034e+001 95 67 46
-1.479150e+000 1.315165e+000 -1.013083e+001 171 30 38
-1.268007e+000 1.271301e+000 -9.804417e+000 168 29 40
-1.268007e+000 1.271301e+000 -9.804417e+000 168 29 40
1.467432e+000 1.519763e+000 -9.869879e+000 122 43 48
-1.754373e+000 1.099163e+000 -1.018925e+001 166 32 39
-1.878166e+000 7.061390e-001 -1.025389e+001 210 76 72
-1.777864e+000 5.996731e-001 -1.007282e+001 169 27 37
-1.325384e+000 7.380137e-001 -9.549985e+000 218 104 98
-1.299569e+000 8.462512e-002 -9.534884e+000 186 70 70
8.714200e-002 -1.038882e-001 -9.533658e+000 48 47 42
2.885520e+000 -1.046706e-002 -1.248590e+001 101 70 70
-5.049998e-001 -7.333827e-001 -9.355308e+000 230 204 96
-1.155295e+000 1.319265e+000 -9.671795e+000 222 91 88
-1.615012e+000 9.978565e-001 -9.811526e+000 215 70 72
-1.095680e+000 1.010576e+000 -9.739550e+000 158 30 36
-8.010864e-001 1.023972e+000 -9.287855e+000 202 92 81
-1.565950e+000 6.928763e-001 -9.927466e+000 159 32 37
-1.422984e+000 5.968547e-001 -9.558116e+000 230 154 162
-2.123510e+000 3.753549e-001 -1.058891e+001 222 63 71
-1.587524e+000 3.305440e-001 -9.938693e+000 164 28 40
-1.282087e+000 -1.022319e-001 -9.785999e+000 218 102 98
2.380944e-001 -1.148441e-001 -9.648800e+000 47 49 43
-1.193607e+000 -4.453578e-001 -9.787555e+000 144 34 43
-8.827746e-001 -5.109252e-001 -9.638329e+000 212 101 94
3.991719e-002 -6.119756e-001 -9.824403e+000 66 63 55
-2.615713e-001 1.009135e+000 -9.054495e+000 143 94 41
1.982298e+000 1.293835e+000 -1.008809e+001 56 49 45
-4.042767e-001 6.956865e-001 -9.178877e+000 236 198 84
-5.859592e-001 3.167804e-001 -9.277417e+000 89 26 32
-1.339959e+000 -1.707658e-002 -9.556713e+000 116 27 33
-9.718069e-001 -4.484783e-001 -9.578904e+000 109 31 39
1.397690e+000 -4.641736e-001 -1.114865e+001 92 44 44
1.868197e+000 -1.074489e+000 -1.215071e+001 88 45 47
1.868197e+000 -1.074489e+000 -1.215071e+001 88 45 47
-1.030364e+000 1.291289e+000 -9.588284e+000 136 33 40
-1.030364e+000 1.291289e+000 -9.588284e+000 136 33 40
2.025277e+000 1.136702e+000 -1.034355e+001 169 132 61
-5.851937e-001 5.063077e-001 -9.187084e+000 217 82 78
-4.501553e-001 4.884452e-001 -9.194185e+000 114 30 35
-4.501553e-001 4.884452e-001 -9.194185e+000 114 30 35
-1.354007e+000 2.306356e-001 -9.560099e+000 127 26 37
-1.188430e+000 5.839605e-002 -9.639879e+000 113 28 32
-9.226566e-001 -1.262132e-002 -9.429852e+000 203 83 79
-8.905908e-001 -1.133066e+000 -1.040845e+001 226 222 213
6.832221e-001 2.104273e+000 -1.151478e+001 157 56 59
6.765212e-001 1.690865e+000 -1.147445e+001 79 35 38
-7.886299e-001 1.475650e-001 -9.320869e+000 115 27 30
-3.388715e-001 -2.967206e-001 -9.236394e+000 131 91 42
3.888874e-001 -5.118894e-001 -1.020078e+001 128 96 49
6.963560e-001 -1.299754e+000 -1.212570e+001 114 44 49
-1.397658e+000 9.782523e-001 -9.811409e+000 133 29 36
2.165828e-001 7.145700e-001 -9.577203e+000 54 51 43
1.459654e+000 1.725105e+000 -1.103370e+001 201 153 69
2.445749e+000 1.905161e+000 -1.081048e+001 121 62 65
-4.912217e-001 1.267897e+000 -9.228823e+000 214 167 63
2.744251e+000 -1.070306e+000 -1.276272e+001 218 211 202
2.744251e+000 -1.070306e+000 -1.276272e+001 218 211 202
2.087268e+000 1.762015e+000 -1.037710e+001 91 46 51
9.879156e-001 6.241459e-001 -1.071767e+001 130 98 47
2.964376e+000 -2.419496e+000 -1.430309e+001 222 219 210
-3.586943e-001 -4.893776e-002 -3.437826e-001 0 255 0
-3.573557e-001 -4.890207e-002 -3.937647e-001 255 255 0
1.056372e-001 8.208747e-001 -6.233256e-001 255 0 0
1.067826e-001 8.165173e-001 -6.731222e-001 255 255 0
5.052429e-001 1.381889e+000 -5.620990e-001 0 255 0
5.067611e-001 1.376691e+000 -6.118048e-001 255 255 0
