ply
format ascii 1.0
element face 0
property list uchar int vertex_indices
element vertex 874
property float x
property float y
property float z
property uchar diffuse_red
property uchar diffuse_green
property uchar diffuse_blue
end_header
5.902837e+000 7.669307e-001 -9.803491e+000 218 205 199
5.821584e+000 5.559283e-001 -9.945178e+000 208 194 190
5.878135e+000 5.918496e-001 -9.846551e+000 222 209 203
6.043847e+000 7.607157e-001 -9.573883e+000 236 224 218
6.132452e+000 6.820757e-001 -9.486859e+000 243 232 226
-1.557232e+000 3.205935e-002 -9.421260e+000 219 68 67
-9.094906e-002 3.281493e-002 -9.612065e+000 111 78 34
2.503187e-001 1.098019e-001 -9.825515e+000 114 82 34
5.793475e+000 2.190397e-001 -1.003996e+001 204 191 183
5.865618e+000 2.811983e-001 -9.904324e+000 221 208 202
6.021699e+000 4.040730e-001 -9.672970e+000 233 222 218
6.100590e+000 5.160323e-001 -9.555088e+000 240 232 229
5.946240e+000 3.711597e-001 -9.768385e+000 255 251 245
5.888747e+000 1.193483e-002 -9.850996e+000 241 228 222
5.931755e+000 2.071927e-002 -9.791853e+000 228 217 211
6.038909e+000 3.485265e-002 -9.627093e+000 252 246 240
6.244969e+000 2.316324e-001 -9.316413e+000 253 250 246
7.274460e-001 -7.117109e-001 -1.030626e+001 137 109 61
1.535210e+000 -9.963247e-001 -1.288980e+001 161 139 132
6.237797e+000 -8.344162e-002 -9.200982e+000 241 232 227
-1.574156e+000 -1.063627e+000 -1.010281e+001 153 70 72
-1.415989e+000 -1.234541e+000 -1.041701e+001 203 106 100
-3.686952e-001 -1.090964e+000 -9.724941e+000 56 53 52
1.554118e+000 -1.109598e+000 -1.260775e+001 110 83 57
1.760951e+000 -1.369968e+000 -1.280818e+001 85 44 41
5.868886e+000 -8.016558e-001 -9.876101e+000 224 214 205
2.325193e+000 -1.535391e+000 -1.305920e+001 165 127 118
5.550400e+000 -1.170922e+000 -1.046975e+001 172 161 156
6.241214e+000 -7.706009e-001 -9.293837e+000 254 249 241
6.182602e+000 -1.324985e+000 -9.323255e+000 232 216 209
6.182602e+000 -1.324985e+000 -9.323255e+000 232 216 209
6.235513e+000 -1.336930e+000 -9.369263e+000 230 212 205
5.928161e+000 -1.603562e+000 -9.773038e+000 230 217 212
6.140783e+000 -1.541304e+000 -9.524595e+000 232 219 213
6.136061e+000 -1.483897e+000 -9.440397e+000 235 221 214
6.211007e+000 -1.594048e+000 -9.380187e+000 232 219 213
5.955345e+000 3.167707e+000 -9.696646e+000 255 248 242
5.373843e+000 3.232271e+000 -1.079752e+001 230 217 209
5.373843e+000 3.232271e+000 -1.079752e+001 230 217 209
5.417596e+000 3.178222e+000 -1.090021e+001 228 215 207
5.277296e+000 2.740666e+000 -1.097125e+001 224 211 202
6.098887e+000 2.772643e+000 -9.409693e+000 253 248 242
6.057816e+000 2.719653e+000 -9.339411e+000 235 222 216
-1.016787e+000 1.826239e+000 -1.007306e+001 191 97 95
7.637928e-001 2.265713e+000 -1.138103e+001 173 83 85
5.019955e+000 2.565170e+000 -1.139908e+001 212 202 194
5.019955e+000 2.565170e+000 -1.139908e+001 212 202 194
5.216833e+000 2.414071e+000 -1.098075e+001 236 223 214
5.326115e+000 2.313936e+000 -1.091316e+001 210 200 191
5.660834e+000 2.426857e+000 -1.007189e+001 233 220 214
5.819256e+000 2.444837e+000 -9.961847e+000 253 246 237
5.758497e+000 2.359053e+000 -1.008998e+001 231 218 213
6.001550e+000 2.193811e+000 -9.715379e+000 254 248 242
6.086948e+000 2.424367e+000 -9.396814e+000 255 252 247
1.396255e+000 1.831858e+000 -1.101656e+001 187 138 71
5.488190e+000 1.913618e+000 -1.047874e+001 213 200 194
5.594984e+000 1.984545e+000 -1.030503e+001 220 209 203
5.670471e+000 1.986146e+000 -1.029400e+001 224 210 205
5.807592e+000 2.125094e+000 -1.023296e+001 252 239 233
5.720963e+000 2.016105e+000 -1.015502e+001 225 212 206
5.797238e+000 1.922353e+000 -1.013452e+001 227 213 210
5.715144e+000 1.869804e+000 -1.005641e+001 232 219 213
6.121804e+000 2.010874e+000 -9.479844e+000 255 249 242
-1.493837e+000 1.195027e+000 -9.595597e+000 135 39 41
-1.295955e+000 1.222331e+000 -9.498234e+000 136 45 45
5.707739e+000 1.780141e+000 -1.020794e+001 222 209 203
5.746492e+000 1.692311e+000 -1.018153e+001 219 206 200
6.038920e+000 1.705226e+000 -9.522665e+000 254 243 240
5.634589e+000 1.468226e+000 -1.027816e+001 209 196 190
5.772216e+000 1.289767e+000 -1.014626e+001 213 200 194
5.889540e+000 1.380270e+000 -9.804779e+000 225 212 206
6.136627e+000 1.392828e+000 -9.369787e+000 236 222 219
6.136627e+000 1.392828e+000 -9.369787e+000 236 222 219
-1.936438e+000 6.554206e-001 -9.739081e+000 223 96 95
-8.549376e-001 5.325431e-001 -9.169988e+000 204 104 74
2.222848e-002 5.552812e-001 -9.461607e+000 119 89 47
1.942378e+000 9.442200e-001 -1.057232e+001 104 65 36
5.692340e+000 1.032974e+000 -1.031191e+001 200 187 179
5.986869e+000 9.854077e-001 -9.725621e+000 254 249 244
6.041777e+000 9.618934e-001 -9.578059e+000 235 220 214
-2.005931e+000 3.911963e-001 -9.629311e+000 227 186 185
8.633894e-001 5.405594e-001 -1.010989e+001 134 100 54
1.102415e+000 5.403943e-001 -1.037590e+001 113 81 48
5.965385e+000 8.117138e-001 -9.715603e+000 230 218 212
6.003030e+000 7.778931e-001 -9.599848e+000 228 215 209
6.046060e+000 7.927378e-001 -9.456405e+000 241 229 222
5.952056e+000 6.903987e-001 -9.764863e+000 227 214 208
6.143185e+000 7.902772e-001 -9.490992e+000 254 251 246
6.143737e+000 6.912862e-001 -9.438399e+000 254 252 245
6.143737e+000 6.912862e-001 -9.438399e+000 254 252 245
1.629309e+000 -1.320787e-001 -1.140891e+001 71 91 89
-9.913390e-001 -2.038125e-001 -9.388980e+000 178 86 72
5.885910e+000 4.997160e-002 -9.847754e+000 224 212 204
6.119894e-001 -7.084382e-001 -1.023143e+001 131 106 59
5.695882e+000 -1.885611e+000 -1.019888e+001 217 204 196
6.054013e+000 3.202971e+000 -9.539884e+000 253 244 234
5.928514e+000 3.082846e+000 -9.814118e+000 234 223 214
6.006893e+000 3.054522e+000 -9.621934e+000 237 223 220
5.737776e+000 2.655478e+000 -1.016306e+001 235 222 216
4.953009e+000 2.511538e+000 -1.134612e+001 214 204 195
5.354880e+000 2.436222e+000 -1.067907e+001 218 205 197
-6.801826e-001 1.350270e+000 -9.153377e+000 147 106 59
1.888213e+000 1.496166e+000 -1.001804e+001 80 97 97
5.451491e+000 1.640863e+000 -1.069125e+001 196 184 178
-1.277178e+000 8.882079e-001 -9.239911e+000 195 83 77
6.010565e+000 1.282050e+000 -9.609755e+000 233 219 216
6.010565e+000 1.282050e+000 -9.609755e+000 233 219 216
6.152746e+000 1.424359e+000 -9.333069e+000 254 250 247
8.081798e-001 8.986895e-001 -1.006726e+001 131 97 52
5.623037e+000 1.160578e+000 -1.031747e+001 197 184 178
-2.346117e+000 8.475244e-002 -1.015711e+001 224 75 74
-2.665238e-001 -2.673026e-001 -9.609861e+000 108 90 42
-1.975936e+000 -5.827590e-001 -1.024641e+001 183 87 83
2.434593e-001 -6.984808e-001 -1.002000e+001 132 99 55
5.115258e-001 -6.987300e-001 -1.014201e+001 130 100 54
1.755611e+000 -1.087987e+000 -1.333949e+001 149 124 116
5.753726e+000 -1.938384e-001 -1.019932e+001 227 214 208
5.914716e+000 -5.773646e-001 -9.858764e+000 219 209 202
5.914716e+000 -5.773646e-001 -9.858764e+000 219 209 202
5.737664e+000 -1.171095e+000 -1.018806e+001 206 195 188
5.737664e+000 -1.171095e+000 -1.018806e+001 206 195 188
5.775266e+000 -1.379777e+000 -1.006531e+001 219 206 197
5.775266e+000 -1.379777e+000 -1.006531e+001 219 206 197
6.237756e+000 -1.333057e+000 -9.268078e+000 231 215 211
5.118094e+000 -2.823040e+000 -1.117859e+001 186 177 172
5.920837e+000 3.138616e+000 -9.830026e+000 250 242 235
2.537434e+000 2.083825e+000 -1.076364e+001 154 72 81
-9.017449e-001 1.745268e+000 -9.884291e+000 193 92 91
7.828744e-001 1.964262e+000 -1.152976e+001 161 76 75
7.828744e-001 1.964262e+000 -1.152976e+001 161 76 75
1.236114e+000 1.868090e+000 -1.111825e+001 210 165 76
1.190961e+000 1.300511e+000 -1.010440e+001 102 43 42
1.884609e+000 1.351425e+000 -9.971076e+000 74 109 105
2.195501e+000 1.451023e+000 -1.002503e+001 122 167 168
6.071268e+000 1.732069e+000 -9.497865e+000 238 224 220
3.005927e+000 6.448736e-001 -1.319055e+001 80 40 37
6.011844e+000 6.942381e-001 -9.695349e+000 225 214 208
-1.462432e+000 -1.681059e-001 -9.464988e+000 193 91 87
-1.514252e+000 -5.877667e-001 -9.619578e+000 196 90 88
1.505739e+000 -1.053857e+000 -1.256935e+001 160 138 125
1.048443e+000 1.706999e+000 -1.137158e+001 155 114 60
-1.459511e+000 1.380517e+000 -9.579359e+000 240 125 125
-1.181979e+000 1.367350e+000 -9.597930e+000 108 32 36
3.000102e+000 4.832002e-001 -1.255833e+001 69 47 49
-1.984296e+000 -1.784768e-001 -9.806284e+000 148 29 35
-2.102786e+000 -4.846579e-001 -1.000024e+001 191 78 77
2.149523e+000 -8.738906e-001 -1.283637e+001 95 67 46
-2.045583e+000 1.283910e+000 -1.024828e+001 171 30 38
-1.817030e+000 1.234080e+000 -9.881543e+000 168 29 40
-1.817030e+000 1.234080e+000 -9.881543e+000 168 29 40
1.293322e+000 1.525989e+000 -9.919676e+000 122 43 48
-2.352823e+000 1.038236e+000 -1.031224e+001 166 32 39
-2.487157e+000 5.935101e-001 -1.038227e+001 210 76 72
-2.379851e+000 4.720300e-001 -1.017944e+001 169 27 37
-1.923297e+000 6.168700e-001 -9.729748e+000 218 104 98
-1.854074e+000 -1.159826e-001 -9.574382e+000 186 70 70
-2.780948e-001 -3.289095e-001 -9.576350e+000 48 47 42
2.908418e+000 -1.775458e-001 -1.279505e+001 101 70 70
-9.533829e-001 -1.047131e+000 -9.373798e+000 230 204 96
-1.693669e+000 1.288749e+000 -9.732198e+000 222 91 88
-2.208074e+000 9.221664e-001 -9.889114e+000 215 70 72
-1.622129e+000 9.379882e-001 -9.807665e+000 158 30 36
-1.300840e+000 9.521080e-001 -9.297150e+000 202 92 81
-2.146399e+000 5.770393e-001 -1.001736e+001 159 32 37
-1.996494e+000 4.656574e-001 -9.602015e+000 230 154 162
-2.747593e+000 2.225830e-001 -1.075142e+001 222 63 71
-2.167781e+000 1.667126e-001 -1.002783e+001 164 28 40
-1.825071e+000 -3.247029e-001 -9.856897e+000 218 102 98
-1.037393e-001 -3.396035e-001 -9.705677e+000 47 49 43
-1.722762e+000 -7.128857e-001 -9.857427e+000 144 34 43
-1.375328e+000 -7.897915e-001 -9.692037e+000 212 101 94
-3.235140e-001 -9.018522e-001 -9.906259e+000 66 63 55
-6.982264e-001 9.334887e-001 -9.111308e+000 143 94 41
1.881004e+000 1.270934e+000 -1.015824e+001 56 49 45
-8.498887e-001 5.779324e-001 -9.172635e+000 236 198 84
-1.052675e+000 1.461327e-001 -9.285948e+000 89 26 32
-1.898265e+000 -2.309899e-001 -9.597395e+000 116 27 33
-1.478212e+000 -7.198230e-001 -9.624107e+000 109 31 39
1.235143e+000 -7.105360e-001 -1.136980e+001 92 44 44
1.775220e+000 -1.376796e+000 -1.247041e+001 88 45 47
1.792938e+000 -1.399580e+000 -1.260221e+001 88 45 47
-1.554169e+000 1.257156e+000 -9.637434e+000 136 33 40
-1.554169e+000 1.257156e+000 -9.637434e+000 136 33 40
1.931728e+000 1.093467e+000 -1.044373e+001 169 132 61
-1.061450e+000 3.569132e-001 -9.268315e+000 217 82 78
-9.012417e-001 3.383648e-001 -9.243635e+000 114 30 35
-9.009297e-001 3.413744e-001 -9.191120e+000 114 30 35
-1.915869e+000 4.992684e-002 -9.603154e+000 127 26 37
-1.716191e+000 -1.386195e-001 -9.657307e+000 113 28 32
-1.428643e+000 -2.284675e-001 -9.476638e+000 203 83 79
-1.358509e+000 -1.478188e+000 -1.055401e+001 226 222 213
4.267821e-001 2.181519e+000 -1.174496e+001 157 56 59
4.199746e-001 1.716628e+000 -1.170506e+001 79 35 38
-1.286961e+000 -5.226194e-002 -9.397227e+000 115 27 30
-7.695425e-001 -5.529247e-001 -9.240754e+000 131 91 42
7.998976e-002 -7.818379e-001 -1.032687e+001 128 96 49
4.635412e-001 -1.631596e+000 -1.245755e+001 114 44 49
-1.961904e+000 9.006201e-001 -9.888694e+000 133 29 36
-1.354255e-001 6.048956e-001 -9.557292e+000 54 51 43
1.295600e+000 1.757997e+000 -1.120708e+001 201 153 69
2.407192e+000 1.964840e+000 -1.094699e+001 121 62 65
-9.502470e-001 1.231472e+000 -9.227243e+000 214 167 63
2.740004e+000 -1.338112e+000 -1.305811e+001 218 211 202
2.740004e+000 -1.338112e+000 -1.305811e+001 218 211 202
2.000312e+000 1.802693e+000 -1.047345e+001 91 46 51
7.631054e-001 5.121122e-001 -1.088203e+001 130 98 47
3.005851e+000 -2.815781e+000 -1.478779e+001 222 219 210
-1.188820e+001 6.573676e+000 -2.773566e+001 231 220 221
-1.214011e+000 1.638418e+000 -1.003046e+001 129 48 49
-2.024406e-001 1.844510e+000 -1.037423e+001 104 65 65
-1.465067e+000 1.338302e+000 -9.808896e+000 175 75 77
2.453191e+000 1.519609e+000 -1.016102e+001 150 171 168
8.525334e-001 7.385422e-001 -1.013376e+001 121 89 42
-1.841642e+000 -7.398804e-001 -9.829210e+000 224 88 95
-1.368676e+001 7.872823e+000 -2.935017e+001 186 174 174
-1.146499e+001 6.890723e+000 -2.767610e+001 215 205 202
2.531308e+000 2.099702e+000 -1.063820e+001 152 102 98
-1.468782e+000 1.177375e+000 -9.638464e+000 188 79 80
2.470722e+000 1.267118e+000 -1.017525e+001 227 215 208
-3.224514e+000 -2.013908e+000 -3.899591e+001 155 68 69
-1.869882e-001 1.230563e+000 -9.494756e+000 58 64 55
1.886021e+000 1.357024e+000 -1.005802e+001 78 112 109
-2.684188e+000 3.575002e-001 -1.066493e+001 72 31 34
-1.073398e+001 5.923383e+000 -2.729525e+001 102 97 95
5.957053e+000 -7.127700e-001 -1.004837e+001 229 218 212
5.360873e-001 9.011324e-001 -9.939782e+000 133 101 41
-5.916568e+000 2.616902e+000 -2.656830e+001 89 85 90
-1.426702e+001 1.850657e+000 -3.125726e+001 115 113 116
-6.196839e+000 1.485103e+000 -2.715521e+001 79 77 80
-6.010035e+000 1.600716e+000 -2.714271e+001 48 42 46
-6.138886e+000 1.269686e+000 -2.726624e+001 42 38 39
-6.353713e+000 1.119122e+000 -2.756229e+001 73 71 74
-1.773089e+001 9.441425e+000 -3.546002e+001 84 77 84
-1.327949e+001 7.502512e+000 -2.903849e+001 192 175 158
-1.797601e+001 8.932337e+000 -3.541339e+001 80 76 82
-1.254666e+001 6.654398e+000 -2.911015e+001 217 200 191
-1.396326e+001 5.987665e+000 -3.113054e+001 210 190 179
-1.245959e+001 3.933393e+000 -2.854673e+001 197 181 168
-5.829189e+000 2.141637e+000 -2.687073e+001 43 41 42
-6.464139e+000 9.242123e-001 -2.736510e+001 85 84 89
-6.242627e+000 8.859551e-001 -2.750092e+001 44 38 41
-1.939462e+001 1.012411e+001 -3.811348e+001 38 33 39
-1.419066e+001 4.133121e+000 -3.133153e+001 210 192 180
-6.702522e+000 2.406867e+000 -2.718813e+001 48 44 45
-5.951755e+000 1.835024e+000 -2.691224e+001 47 38 41
-1.354886e+001 8.057400e+000 -2.959718e+001 116 110 122
-1.818865e+000 -3.360587e-001 -9.837359e+000 214 94 90
-1.482161e+000 -6.849804e-001 -9.695659e+000 109 34 38
-9.923454e-001 -8.964906e-001 -9.292380e+000 145 87 41
-2.181042e+001 -1.259541e+001 -4.635918e+001 133 125 122
-1.291083e+001 8.455657e+000 -2.928023e+001 109 106 117
-1.384803e+001 4.430674e+000 -3.113420e+001 229 211 199
-1.053847e+000 3.583375e-001 -9.268078e+000 215 82 79
-1.282068e-001 5.943440e-001 -9.527131e+000 54 51 45
-6.683363e+000 8.253443e-001 -2.747474e+001 81 82 86
9.478446e-002 -8.067814e-001 -1.015141e+001 132 100 53
-2.053065e+000 1.717133e+000 -1.047639e+001 231 224 210
-1.113565e+001 4.227645e+000 -2.728390e+001 255 255 255
-1.383482e+000 1.764337e+000 -1.005551e+001 170 67 69
-1.383482e+000 1.764337e+000 -1.005551e+001 170 67 69
1.902846e+000 1.088273e+000 -1.076675e+001 150 115 53
-1.112919e+001 4.706947e+000 -2.731941e+001 251 241 238
-1.201015e+001 2.554728e+000 -2.838896e+001 244 233 232
-1.201461e+001 2.058061e+000 -2.899590e+001 186 177 170
-1.971082e-001 1.227473e+000 -9.491597e+000 56 58 55
-8.321789e+000 3.350684e+000 -2.528899e+001 125 114 109
-5.780310e+000 2.458775e+000 -2.678810e+001 43 37 39
-6.602139e+000 1.538496e+000 -2.696671e+001 91 90 95
-1.418240e+001 3.451345e+000 -3.137762e+001 218 199 184
-1.116595e+001 2.755456e+000 -2.766541e+001 185 177 174
-6.837630e+000 1.402934e+000 -2.706406e+001 41 36 38
-1.395391e-001 4.747560e-001 -9.509546e+000 117 94 44
-1.236001e+001 1.048786e+000 -3.041641e+001 94 88 90
-1.065707e+000 1.534716e-001 -9.240182e+000 89 26 32
-1.825605e+001 -1.635994e+001 -4.056011e+001 65 64 67
-1.876786e+001 -1.687760e+001 -4.175829e+001 65 64 67
-1.241809e+001 1.211072e+000 -2.930111e+001 46 44 48
-1.022413e+001 4.222398e+000 -2.702723e+001 78 74 78
-1.262261e+001 2.177416e+000 -2.910365e+001 219 207 207
-1.163850e+001 2.415312e+000 -2.833217e+001 191 181 180
-8.310075e+000 3.634163e+000 -2.494935e+001 84 82 86
-6.126687e+000 2.349963e+000 -2.658784e+001 83 79 83
3.969236e-001 2.349285e+000 -1.203895e+001 186 96 97
3.433693e-001 2.303619e+000 -1.192506e+001 227 208 194
-1.238427e+001 2.442703e+000 -2.869061e+001 243 231 232
-1.390392e+000 1.825432e+000 -1.006914e+001 219 103 104
2.055155e+000 1.525816e+000 -1.006754e+001 59 69 73
2.065181e+000 1.524856e+000 -1.010086e+001 59 69 73
1.164034e+000 2.123342e+000 -1.108998e+001 174 119 52
2.206769e+000 1.246327e+000 -1.001763e+001 53 56 57
1.022103e+000 4.251447e-001 -1.024401e+001 116 94 45
-1.426921e+000 9.722059e-001 -9.494072e+000 216 99 92
-1.516431e+000 5.699819e-001 -9.504848e+000 117 22 33
-2.781740e-001 -3.485399e-001 -9.660485e+000 42 42 39
1.427727e+000 1.975679e+000 -1.104997e+001 152 73 47
-1.537483e+000 1.062783e+000 -9.689957e+000 216 103 97
-1.356857e+000 5.911213e-001 -9.379044e+000 212 96 91
-1.425541e+000 -4.321302e-002 -9.465587e+000 113 25 31
-1.361326e+000 7.945827e-001 -9.331847e+000 116 26 34
4.418316e-001 2.196220e+000 -1.187590e+001 155 55 63
7.971456e-001 2.506106e+000 -1.249916e+001 229 222 213
-6.389387e-001 1.083773e+000 -9.190838e+000 127 85 37
4.366343e+000 -1.663209e+000 -1.210513e+001 119 114 111
5.990880e+000 2.940814e+000 -9.861367e+000 226 213 205
5.837619e+000 2.375857e+000 -1.021974e+001 219 211 200
6.162822e+000 2.118665e+000 -9.528329e+000 222 209 201
6.397769e+000 1.528104e+000 -9.037241e+000 230 216 207
5.639159e+000 2.345283e+000 -1.057172e+001 209 199 190
5.674229e+000 2.234929e+000 -1.032252e+001 217 207 199
5.948367e+000 1.621735e+000 -9.797441e+000 209 199 189
6.288570e+000 1.636559e+000 -9.230430e+000 226 212 204
6.278733e+000 1.499017e+000 -9.257434e+000 224 211 205
1.525307e+000 2.042248e+000 -1.014526e+001 215 200 187
5.077819e+000 2.312243e+000 -1.125105e+001 202 193 184
-1.091460e+000 1.388930e+000 -9.608844e+000 190 99 90
1.298925e+000 2.271959e+000 -1.143465e+001 218 194 97
1.045145e+000 2.268071e+000 -1.160002e+001 146 99 68
2.034587e+000 1.580958e+000 -1.005260e+001 93 95 97
2.131235e+000 1.492372e+000 -1.008717e+001 83 112 115
2.401398e+000 1.470060e+000 -1.011342e+001 153 171 168
2.165459e+000 1.293583e+000 -9.974811e+000 111 141 139
2.468395e+000 1.383251e+000 -1.024871e+001 149 169 165
2.393727e+000 1.316599e+000 -1.013285e+001 147 158 155
1.152764e+000 1.793469e+000 -1.147916e+001 191 144 74
-1.344665e+000 6.436292e-001 -9.412641e+000 199 95 93
8.933974e-001 8.727922e-001 -1.011808e+001 129 96 56
5.454638e+000 4.449828e-001 -1.061232e+001 149 141 135
5.942894e+000 6.321932e-002 -9.652040e+000 225 212 206
-2.150197e+000 6.385901e-001 -9.929435e+000 221 96 93
5.811542e+000 -3.366983e-001 -9.812780e+000 246 239 236
5.811542e+000 -3.366983e-001 -9.812780e+000 246 239 236
-2.699822e-001 1.235050e-002 -9.481428e+000 105 74 28
-2.058294e-001 1.522595e-002 -9.541739e+000 103 71 32
-9.498997e-001 -2.388276e-001 -9.346351e+000 209 114 91
-8.881968e-001 -2.566765e-001 -9.223940e+000 199 89 63
5.488606e+000 -6.606738e-001 -1.032023e+001 154 143 139
5.531095e+000 -1.083096e+000 -1.006406e+001 195 182 174
5.497343e+000 -1.173359e+000 -1.006374e+001 193 180 172
-1.988383e+000 -5.761171e-001 -1.023660e+001 168 81 80
-1.345578e+000 -8.033371e-001 -9.617300e+000 206 88 87
-1.345218e+000 -9.425360e-001 -9.709873e+000 177 55 59
5.670678e+000 -1.623188e+000 -9.879180e+000 229 219 213
5.680088e+000 -1.864429e+000 -9.767060e+000 251 246 240
-1.423648e+000 -1.128214e+000 -1.027230e+001 120 52 55
3.972929e-001 -1.031820e+000 -1.228431e+001 191 167 161
5.470156e+000 -2.340918e+000 -1.009736e+001 252 244 239
5.532739e+000 -2.635855e+000 -9.867250e+000 254 249 245
5.795919e+000 -2.782024e+000 -9.566772e+000 242 231 228
5.071346e+000 -3.000707e+000 -1.066381e+001 216 205 200
5.205832e+000 -3.148695e+000 -1.071735e+001 222 213 206
5.431753e+000 -2.903520e+000 -1.012779e+001 252 243 235
5.078297e+000 -3.368879e+000 -1.064369e+001 245 233 227
6.046112e+000 2.605343e+000 -9.768760e+000 226 213 205
5.912097e+000 2.289239e+000 -1.003097e+001 218 205 197
5.932009e+000 2.245005e+000 -9.929875e+000 218 205 198
5.904081e+000 2.108625e+000 -9.993761e+000 215 202 196
6.256266e+000 1.718130e+000 -9.290756e+000 225 211 205
5.644912e+000 1.913879e+000 -1.045057e+001 209 199 191
6.224364e+000 1.273013e+000 -9.296530e+000 218 205 197
-2.106622e-001 1.286224e+000 -9.537824e+000 94 98 77
2.215257e+000 1.420200e+000 -1.004874e+001 108 146 152
2.191631e+000 1.314858e+000 -9.895261e+000 103 99 103
5.569259e+000 1.427205e+000 -1.049579e+001 192 181 175
6.102374e+000 6.118413e-001 -9.407252e+000 227 217 210
-8.513207e-001 5.217023e-001 -9.186256e+000 194 89 73
-2.155474e+000 3.753888e-001 -1.006494e+001 218 94 96
5.672404e+000 -5.304259e-001 -1.004862e+001 193 180 172
-9.995541e-001 -2.043097e-001 -9.361378e+000 185 92 86
5.646646e+000 -9.351838e-001 -1.004809e+001 207 195 187
-1.759446e+000 -9.177449e-001 -9.903135e+000 195 85 85
-8.862481e-001 -9.427084e-001 -9.221974e+000 152 102 42
5.445589e+000 -1.539914e+000 -1.025605e+001 191 180 174
5.855444e+000 -2.756762e+000 -9.347842e+000 244 235 231
4.219112e+000 -3.890726e+000 -1.219946e+001 213 204 199
6.118970e+000 1.964769e+000 -9.596207e+000 220 208 204
5.431988e+000 1.755219e+000 -1.083764e+001 216 207 200
5.476860e+000 1.464368e+000 -1.056376e+001 185 176 169
2.092503e+000 1.200478e+000 -1.054869e+001 119 91 57
6.097840e+000 4.783325e-001 -9.434572e+000 232 219 215
-1.601432e+000 1.026623e+000 -9.782556e+000 207 94 91
-2.061125e+000 3.965410e-001 -9.646164e+000 214 81 80
-2.238720e+000 -4.258857e-001 -1.003718e+001 141 39 40
-1.239710e+000 -6.941136e-001 -9.652091e+000 153 73 67
5.729559e+000 1.770302e+000 -1.026596e+001 227 217 208
5.882180e+000 1.269965e+000 -9.809859e+000 206 196 187
1.563854e+000 1.730854e+000 -1.024529e+001 168 83 86
1.563854e+000 1.730854e+000 -1.024529e+001 168 83 86
1.907005e+000 1.557073e+000 -1.025456e+001 68 48 53
-8.944360e-001 9.346255e-001 -9.281887e+000 238 189 78
1.157344e+000 1.918592e+000 -1.154225e+001 203 154 76
1.262147e+000 1.433349e+000 -1.112489e+001 120 80 54
-1.984299e-001 5.069173e-001 -9.549793e+000 116 95 48
9.663647e-001 -7.329056e-001 -1.026024e+001 145 114 60
9.663647e-001 -7.329056e-001 -1.026024e+001 145 114 60
-1.269101e+000 -1.001238e+000 -9.750825e+000 185 92 89
-4.206068e-001 -1.080968e+000 -9.566318e+000 124 103 48
-3.547924e-001 -1.063719e+000 -9.565613e+000 53 55 52
2.417872e+000 1.269943e+000 -1.018111e+001 78 78 77
2.415218e+000 1.221680e+000 -1.029363e+001 221 214 204
-1.623845e+000 9.425724e-001 -9.734736e+000 163 38 41
-1.623845e+000 9.425724e-001 -9.734736e+000 163 38 41
-1.562757e+000 7.000774e-001 -9.514218e+000 132 29 37
1.359934e+000 1.035799e+000 -1.081632e+001 224 219 208
1.471869e+000 1.011666e+000 -1.097650e+001 78 42 39
1.563709e+000 4.955816e-001 -1.115872e+001 57 47 55
1.181489e+000 -3.091093e-001 -1.089203e+001 43 43 44
-2.660920e+000 4.194119e-002 -1.081112e+001 212 90 90
-1.612771e+000 -6.972662e-001 -9.741809e+000 221 108 105
-1.964542e+000 -6.629802e-001 -1.017502e+001 158 28 40
-1.964542e+000 -6.629802e-001 -1.017502e+001 158 28 40
-1.635495e+000 -9.361872e-001 -9.792920e+000 208 100 98
-1.635495e+000 -9.361872e-001 -9.792920e+000 208 100 98
-1.355417e+000 -9.757173e-001 -9.751608e+000 86 36 37
1.465356e+000 1.979475e+000 -1.016569e+001 194 81 83
1.361489e+000 1.933357e+000 -1.072504e+001 156 83 52
1.667985e+000 1.638117e+000 -1.012864e+001 92 44 47
2.073691e+000 1.487284e+000 -1.019394e+001 92 111 117
2.147893e+000 1.437167e+000 -1.019071e+001 73 82 89
-1.473085e+000 1.434981e+000 -9.733210e+000 205 97 94
2.132442e+000 1.236058e+000 -1.042359e+001 65 50 45
-9.223982e-001 5.939941e-001 -9.299406e+000 229 188 90
-2.614127e+000 4.145758e-001 -1.072548e+001 219 93 97
-2.513732e+000 1.601279e-001 -1.047102e+001 216 81 80
-2.513732e+000 1.601279e-001 -1.047102e+001 216 81 80
-1.985751e+000 -1.002236e-001 -9.762936e+000 213 91 90
-2.196747e+000 -6.135992e-001 -1.053511e+001 159 30 42
-1.198685e+000 -9.502034e-001 -9.515780e+000 118 35 38
-9.618847e-001 -1.043045e+000 -9.298701e+000 225 204 85
2.109398e+000 -8.993199e-001 -1.266552e+001 100 69 43
1.995795e+000 2.029723e+000 -1.028172e+001 117 65 68
1.173038e+000 1.927555e+000 -1.117438e+001 157 96 49
1.289207e+000 2.012330e+000 -1.108057e+001 228 187 80
-1.578315e+000 1.297569e+000 -9.947147e+000 140 35 41
-1.578315e+000 1.297569e+000 -9.947147e+000 140 35 41
-1.736295e+000 8.247992e-001 -9.659002e+000 216 99 96
-1.507123e+000 8.618921e-001 -9.571423e+000 216 88 87
-1.391257e+000 7.587526e-001 -9.440168e+000 126 33 41
-4.765410e-002 5.562298e-001 -9.573846e+000 54 52 42
-1.899866e+000 3.830625e-001 -9.609961e+000 138 31 39
-2.338938e+000 4.373168e-001 -1.020299e+001 152 28 39
-2.398260e+000 3.564678e-001 -1.035922e+001 217 91 87
-2.033021e+000 6.904937e-002 -9.743066e+000 225 102 102
-1.921077e+000 1.301740e-001 -9.769637e+000 130 30 34
-1.921077e+000 1.301740e-001 -9.769637e+000 130 30 34
-2.142705e+000 -2.824170e-002 -9.830164e+000 145 29 39
-2.378842e+000 4.253741e-002 -1.027931e+001 149 28 38
-1.929321e+000 -8.682371e-003 -9.668816e+000 126 29 35
-1.581938e+000 -1.714053e-001 -9.512727e+000 104 25 33
-1.816190e+000 -5.188685e-001 -9.958068e+000 102 29 36
-1.133281e+000 -6.097150e-001 -9.394154e+000 106 39 33
3.267413e-001 -7.112462e-001 -1.045411e+001 91 42 38
-1.952567e+000 -8.230454e-001 -1.016143e+001 131 36 46
-1.077716e+000 -1.021823e+000 -9.450069e+000 242 205 90
-1.833438e+000 -1.117563e+000 -1.038498e+001 206 97 95
-1.300284e+000 -1.059126e+000 -9.974797e+000 70 35 41
-1.300284e+000 -1.059126e+000 -9.974797e+000 70 35 41
6.226083e-001 -1.620798e+000 -1.206814e+001 141 65 67
1.395138e+000 2.162026e+000 -1.074695e+001 221 216 203
9.539236e-001 2.238264e+000 -1.160827e+001 129 63 57
-9.964905e-001 1.192084e+000 -9.208230e+000 254 216 95
-8.516252e-001 1.192484e+000 -9.282798e+000 146 89 42
9.958404e-001 1.844093e+000 -1.140027e+001 98 42 38
-1.859406e+000 1.006109e+000 -9.915576e+000 126 29 36
-1.384818e+000 7.540793e-001 -9.403735e+000 123 34 40
-1.656458e+000 5.231391e-001 -9.418960e+000 121 28 37
-1.546344e+000 3.958087e-001 -9.443994e+000 224 70 75
1.484877e+000 9.632612e-001 -1.166711e+001 96 47 47
-1.849497e+000 2.041398e-001 -9.549811e+000 210 95 92
-1.420397e+000 -1.678790e-002 -9.452897e+000 114 29 34
-1.589341e+000 -4.348579e-001 -9.353247e+000 213 64 64
-9.008573e-001 -3.362922e-001 -9.202910e+000 247 214 96
-9.535041e-001 -4.891771e-001 -9.255708e+000 144 87 28
-1.653053e+000 -6.229360e-001 -9.781336e+000 210 94 89
-1.658377e+000 -6.072953e-001 -9.816376e+000 210 94 89
-1.136187e+000 -8.521400e-001 -9.326033e+000 255 222 84
-1.369127e+000 -8.173330e-001 -9.660708e+000 209 90 86
-1.347465e+000 -1.191265e+000 -1.021291e+001 196 86 86
3.929150e-001 -1.188450e+000 -1.224539e+001 76 44 45
-1.099471e+000 2.065577e+000 -1.036807e+001 224 227 214
-1.515533e+000 9.739367e-001 -9.616038e+000 214 81 82
-1.533797e+000 1.057942e+000 -9.835139e+000 214 81 82
1.214093e+000 -3.772824e-001 -1.079653e+001 56 49 47
2.391225e+000 -7.283479e-001 -1.275962e+001 104 73 42
-1.077737e-001 -1.337627e+000 -1.100099e+001 109 57 58
2.388405e-001 1.127013e+000 -1.002990e+001 132 99 54
-1.685274e+000 -1.556697e-001 -9.580018e+000 110 29 31
-1.963289e-001 -3.611596e-001 -9.641029e+000 53 52 47
-1.326096e-001 -1.313113e+000 -1.100900e+001 106 56 57
2.145589e-001 -1.054153e+000 -1.175759e+001 229 225 214
2.468027e-001 -1.354239e+000 -1.233157e+001 231 224 214
4.890922e-001 -1.626505e+000 -1.248651e+001 114 51 55
4.890922e-001 -1.626505e+000 -1.248651e+001 114 51 55
-1.238785e+000 7.696496e-001 -9.262475e+000 126 45 41
-1.753988e+000 4.373285e-001 -9.523156e+000 120 29 36
-2.054231e-001 -6.950888e-001 -9.758431e+000 70 60 50
2.932141e+000 -9.896179e-001 -1.302878e+001 77 38 43
-9.005046e-001 9.810438e-001 -9.441570e+000 236 186 86
3.237077e+000 1.537043e+000 -1.254339e+001 222 213 204
-2.411482e+000 -1.057304e+000 -1.127305e+001 231 224 214
-2.422592e+000 6.604268e-001 -1.121530e+001 219 94 92
9.314993e-001 -1.319927e+000 -1.267047e+001 89 40 42
2.004976e+000 1.760263e+000 -1.085058e+001 77 48 50
2.007538e+000 1.754789e+000 -1.084461e+001 77 48 50
-2.131119e+001 -1.041408e+001 -4.775788e+001 61 60 59
-2.116763e+001 -1.343244e+001 -4.561730e+001 105 102 105
-2.465270e+001 -1.811780e+001 -4.987274e+001 64 85 114
-2.425458e+001 -1.735727e+001 -4.948213e+001 48 60 84
-1.971928e+001 -1.503143e+001 -4.352950e+001 67 65 68
-2.180022e+001 -1.806030e+001 -4.541079e+001 44 62 93
-2.214943e+001 -1.362972e+001 -4.709851e+001 58 61 76
-2.541862e+001 -1.699592e+001 -5.063527e+001 47 47 52
-2.215722e+001 -1.648743e+001 -4.632791e+001 81 95 116
-1.957403e+001 -1.506635e+001 -4.263984e+001 138 130 126
-2.403812e+001 -1.651426e+001 -4.901821e+001 134 132 143
-2.403812e+001 -1.651426e+001 -4.901821e+001 134 132 143
-2.565568e+001 -1.936211e+001 -5.121490e+001 38 47 87
-2.059320e+001 -1.830042e+001 -4.387508e+001 61 60 65
-2.037132e+001 -1.746327e+001 -4.362057e+001 169 160 161
-2.288764e+001 -1.782783e+001 -4.719451e+001 38 52 87
-2.238536e+001 -1.409988e+001 -4.854984e+001 94 91 91
-2.083205e+001 -1.261662e+001 -4.500444e+001 99 96 97
-2.246150e+001 -1.268789e+001 -4.840603e+001 56 56 58
-1.855515e+001 -1.719117e+001 -4.039155e+001 60 59 64
-1.766125e+001 -8.513038e+000 -5.151032e+001 35 33 36
-1.681072e+001 -1.729822e+001 -3.950115e+001 123 114 115
-1.589482e+000 3.253299e-001 -9.456647e+000 216 80 82
-1.578001e+000 2.906521e-001 -9.487984e+000 107 19 18
-1.160770e+001 6.900372e+000 -2.757925e+001 235 228 227
-1.154699e+001 6.816288e+000 -2.751858e+001 244 232 232
-1.212234e+001 6.645040e+000 -2.808076e+001 253 240 240
-1.168313e+001 6.292616e+000 -2.753220e+001 246 236 235
5.513128e+000 -1.653177e+000 -1.053100e+001 190 180 173
-1.343518e+000 -1.065617e+000 -1.014511e+001 69 30 31
-1.216013e+001 2.505735e+000 -2.853801e+001 223 213 212
-1.224922e+001 2.392661e+000 -2.860948e+001 230 218 218
-1.163888e+001 2.237918e+000 -2.835401e+001 191 184 180
-8.423879e-001 9.242098e-001 -9.156883e+000 224 181 79
-1.175999e+001 6.901813e+000 -2.809297e+001 226 217 215
1.693280e+000 4.354088e-001 -1.141139e+001 73 87 87
-1.157826e+001 5.393511e+000 -2.732942e+001 221 211 208
-1.113050e+001 4.701661e+000 -2.735464e+001 249 239 238
-8.917877e-001 -9.926791e-001 -9.193363e+000 154 109 44
-6.140259e+000 2.341778e+000 -2.663449e+001 79 80 84
-1.150075e+001 2.116574e+000 -2.844408e+001 121 113 110
-1.161562e+001 1.980120e+000 -2.854296e+001 126 116 114
-1.196322e+001 1.774602e+000 -2.902772e+001 122 114 111
-1.209417e+001 1.674768e+000 -2.914716e+001 118 110 107
-1.178719e+001 1.871423e+000 -2.878922e+001 123 116 110
4.255877e-001 -1.757711e+000 -1.260281e+001 162 85 80
2.121424e+000 1.525128e+000 -1.006161e+001 63 73 81
-1.549158e+000 1.377459e+000 -9.631525e+000 198 99 95
-1.359149e+000 -1.390193e-001 -9.401132e+000 194 86 79
-1.358498e+000 -1.391231e-001 -9.401708e+000 194 86 79
-1.151636e+001 4.611281e+000 -2.745108e+001 220 207 203
-1.100994e+001 4.614482e+000 -2.725212e+001 230 220 214
-1.168260e+001 2.348648e+000 -2.841350e+001 209 202 197
-1.320248e+000 -1.368039e+000 -1.068214e+001 176 159 151
-6.682519e+000 7.489838e-001 -2.721766e+001 72 76 79
-6.551893e+000 7.693205e-001 -2.757627e+001 66 66 71
2.043489e+000 9.333164e-001 -1.074067e+001 129 95 51
-1.211124e-001 3.776428e-002 -9.602470e+000 107 77 36
-2.085562e+000 -4.738525e-001 -9.963477e+000 212 95 97
4.503567e-001 -9.606576e-001 -1.232727e+001 94 44 46
-9.778403e+000 1.704494e+000 -2.678498e+001 217 195 163
1.524529e+000 1.744751e+000 -1.008811e+001 120 44 50
1.616135e+000 1.609028e+000 -1.007884e+001 98 44 49
2.247150e+000 1.285856e+000 -1.007657e+001 65 70 73
-8.102056e-001 7.933557e-001 -8.989953e+000 232 198 90
-1.663945e+000 1.133643e+000 -9.816034e+000 208 88 89
-1.656380e+000 1.124008e+000 -9.797024e+000 208 88 89
2.173912e+000 9.205748e-001 -1.056330e+001 155 125 71
-1.910634e+000 6.945948e-001 -9.674256e+000 129 28 38
-8.953923e-001 -6.000347e-001 -9.262141e+000 242 208 92
-8.953923e-001 -6.000347e-001 -9.262141e+000 242 208 92
-1.477341e+001 5.055799e+000 -3.193030e+001 191 179 168
-9.435868e+000 3.096303e+000 -2.565506e+001 244 226 200
-2.270174e+000 -8.048194e-001 -1.075393e+001 212 95 94
-1.437248e+001 3.785434e+000 -3.164367e+001 195 179 166
-1.437248e+001 3.785434e+000 -3.164367e+001 195 179 166
-1.298509e+001 3.150541e+000 -3.029318e+001 198 184 175
-1.304917e+001 3.198709e+000 -3.048799e+001 198 184 175
-1.309375e+000 9.208201e-001 -9.289769e+000 189 87 79
-9.554072e-001 1.016874e+000 -9.276101e+000 254 212 94
-8.006243e-001 9.652424e-001 -9.060888e+000 244 206 96
-8.228279e-001 5.838021e-001 -9.122631e+000 237 201 92
-2.151685e-001 5.659937e-001 -9.498834e+000 50 45 51
-1.339195e+001 6.894163e+000 -3.009033e+001 198 180 169
-1.345574e+001 6.950504e+000 -3.027339e+001 198 180 169
-1.700796e-001 -4.673497e-001 -9.731198e+000 78 81 56
-6.398399e+000 2.677481e+000 -2.647527e+001 48 47 52
-1.609231e+000 -1.050187e+000 -1.031298e+001 177 93 93
-1.209428e+001 2.626636e+000 -2.846793e+001 223 213 211
-9.337495e+000 1.813185e+000 -2.654173e+001 249 234 205
-6.341108e+000 2.116402e+000 -2.653754e+001 102 103 106
-6.217225e+000 1.682228e+000 -2.704654e+001 91 95 98
-1.361704e+000 -1.352117e+000 -1.033520e+001 92 43 46
-1.392469e+001 2.005638e+000 -3.049698e+001 125 122 124
1.887365e+000 2.126526e+000 -1.026098e+001 219 216 206
-1.903063e+000 3.971087e-001 -9.646227e+000 138 31 39
2.520300e+000 8.789739e-001 -1.220861e+001 97 37 42
-1.682760e+000 -4.590711e-001 -9.751137e+000 140 32 41
-1.558883e+000 -5.567452e-001 -9.624191e+000 206 86 81
-1.203351e+001 2.903608e+000 -2.838062e+001 188 176 178
-1.372203e+001 2.219158e+000 -3.044137e+001 199 188 186
-1.562389e+000 1.217471e+000 -9.681481e+000 136 36 42
-1.562389e+000 1.217471e+000 -9.681481e+000 136 36 42
-1.081876e+000 1.041280e+000 -9.312858e+000 134 41 41
1.992708e+000 1.152511e+000 -1.067644e+001 166 132 67
-1.385679e+000 7.515379e-001 -9.399063e+000 123 34 40
-8.918968e-001 3.474698e-001 -9.208839e+000 115 30 37
-1.855483e+000 2.192744e-001 -9.585665e+000 210 95 92
-1.901804e+000 6.081163e-002 -9.653953e+000 120 29 38
-1.598164e+000 -3.945847e-001 -9.481596e+000 213 64 64
-1.406568e+000 -2.770187e-001 -9.374187e+000 208 88 85
-1.699798e+000 -7.953193e-001 -9.833096e+000 124 33 40
-1.701103e+000 -1.219790e+000 -1.037796e+001 115 42 47
-1.424913e+001 3.347647e+000 -3.148538e+001 219 205 191
-1.299120e+001 1.109564e+000 -3.179190e+001 82 76 78
-8.231988e-001 9.135565e-001 -9.106371e+000 226 183 81
-1.404454e+001 8.078805e+000 -2.997932e+001 199 189 190
-1.297964e+001 3.912757e+000 -2.907630e+001 233 215 201
1.416915e+000 -1.397545e+000 -1.181459e+001 116 87 49
-1.935579e-001 -3.637613e-001 -9.642173e+000 53 52 47
-6.173956e+000 1.954278e+000 -2.628303e+001 98 99 103
-6.166273e+000 1.945742e+000 -2.624667e+001 98 99 103
-1.331594e+000 1.597381e+000 -9.835233e+000 119 43 51
-1.064477e+001 1.927617e+000 -2.693597e+001 80 75 79
-1.064477e+001 1.927617e+000 -2.693597e+001 80 75 79
-1.209483e+001 7.299615e+000 -2.889044e+001 242 235 232
-1.730974e+001 1.035839e+001 -3.525042e+001 36 33 40
-1.102594e+001 1.720032e+000 -2.825402e+001 63 59 67
-1.102594e+001 1.720032e+000 -2.825402e+001 63 59 67
3.713318e+000 1.061579e+000 -1.344192e+001 56 34 37
-1.231726e+001 4.416357e+000 -2.933680e+001 222 208 197
1.453894e+000 2.085659e+000 -1.056129e+001 216 180 172
1.644102e+000 1.723809e+000 -1.003892e+001 126 69 72
-1.204652e+001 2.610165e+000 -2.837662e+001 224 214 213
-1.216176e+001 2.507252e+000 -2.853905e+001 220 211 210
-1.332976e+001 1.519007e+000 -3.047023e+001 147 141 141
-1.631137e+000 -1.231715e+000 -1.033238e+001 128 55 62
2.207454e+000 1.531949e+000 -9.952041e+000 70 73 80
-3.166564e-001 -7.465863e-001 -9.780254e+000 52 51 47
-1.066898e+001 5.697810e+000 -2.727998e+001 103 95 93
-9.435242e+000 1.676911e+000 -2.694726e+001 188 164 128
-1.003631e+001 1.390326e+000 -2.736619e+001 93 88 85
-6.695221e+000 1.688850e+000 -2.667466e+001 45 44 48
-1.906894e+001 1.028892e+001 -3.687733e+001 67 62 68
-1.679437e+001 7.156200e+000 -3.525325e+001 166 149 142
-1.443247e+000 -9.350779e-002 -9.412676e+000 128 28 36
-1.013945e+001 9.154847e-001 -2.868004e+001 66 64 67
-1.175036e+001 9.788031e-001 -2.993013e+001 90 85 89
-1.175036e+001 9.788031e-001 -2.993013e+001 90 85 89
-3.095185e+001 3.482984e+001 -7.116386e+001 22 21 29
-1.348779e+000 5.774769e-001 -9.382140e+000 210 92 87
-1.254246e+001 7.411132e+000 -2.830676e+001 139 134 141
-1.561736e-001 1.421707e+000 -9.815700e+000 94 96 74
1.277886e+000 1.892020e+000 -1.151496e+001 182 126 45
1.277886e+000 1.892020e+000 -1.151496e+001 182 126 45
-2.675801e-001 2.413909e-002 -9.522535e+000 114 80 38
-1.348772e+000 -8.244104e-001 -9.546571e+000 201 89 80
-1.433220e+000 -1.335729e+000 -1.008473e+001 125 51 51
1.385879e+000 -1.111421e+000 -1.213698e+001 104 62 51
5.397499e+000 -3.155450e+000 -1.025849e+001 254 251 246
5.197289e+000 -3.320315e+000 -1.043373e+001 254 251 244
5.213312e+000 -3.389391e+000 -1.051549e+001 253 249 243
4.243897e+000 -3.334175e+000 -1.222792e+001 214 204 195
4.463772e+000 -3.657760e+000 -1.154828e+001 226 215 211
4.658813e+000 -3.692183e+000 -1.129293e+001 247 240 236
4.779004e+000 -3.652380e+000 -1.098633e+001 237 226 220
4.638827e+000 -4.411645e+000 -1.101860e+001 243 230 226
2.467689e+000 1.615992e+000 -1.028198e+001 152 169 167
-1.616021e+000 1.229927e+000 -9.964208e+000 217 103 103
5.268266e+000 -2.110442e+000 -1.059322e+001 198 186 180
-2.436653e+000 -3.738129e-001 -1.096012e+001 229 108 107
-1.788247e+000 -8.702012e-001 -9.925341e+000 159 48 54
-1.226870e+000 -1.081493e+000 -1.014444e+001 125 63 63
2.202569e+000 -1.940947e+000 -1.284162e+001 162 117 114
4.275714e+000 -2.433986e+000 -1.204856e+001 177 166 160
4.305058e+000 -3.063418e+000 -1.202807e+001 223 213 204
4.122251e+000 -4.738491e+000 -1.186736e+001 237 222 215
6.535029e+000 1.069838e-001 -8.953015e+000 236 222 211
-1.165513e-001 1.318829e+000 -9.611300e+000 107 137 128
-1.255644e+000 1.254490e+000 -9.691566e+000 209 104 98
1.429635e+000 1.719045e+000 -1.119011e+001 125 77 39
-1.214830e+000 -8.103682e-001 -9.512658e+000 155 65 40
-1.705923e+000 -1.037996e+000 -1.031260e+001 156 76 77
-2.431497e+000 -7.953132e-001 -1.100006e+001 211 100 103
2.255484e+000 -1.151976e+000 -1.275907e+001 111 46 47
-1.973103e+000 -1.274856e+000 -1.076808e+001 204 102 102
4.116582e-001 -1.378129e+000 -1.237925e+001 126 65 67
-5.188164e-002 1.289068e+000 -9.626292e+000 106 144 125
1.974237e+000 1.452580e+000 -1.016318e+001 73 90 90
-1.824607e+000 1.876418e+000 -1.052275e+001 205 81 84
5.729423e+000 -8.407116e-001 -1.005634e+001 225 212 204
3.611030e+000 1.375850e+000 -1.329764e+001 84 44 45
-1.270338e+000 -9.973808e-001 -9.768397e+000 186 96 88
1.626780e+000 -8.079092e-001 -1.285739e+001 213 193 176
-1.249477e+000 -1.344216e+000 -1.033788e+001 182 99 93
3.998063e-001 -7.910702e-001 -1.238251e+001 82 44 46
2.764795e+000 -1.181993e+000 -1.297665e+001 130 90 89
3.293765e-001 -1.359065e+000 -1.223843e+001 229 230 221
5.232405e-001 -1.678098e+000 -1.196669e+001 151 66 70
3.285776e-001 -1.750837e+000 -1.237472e+001 237 228 218
1.669426e+000 1.661644e+000 -1.018029e+001 94 44 47
-1.012727e+000 1.716956e+000 -9.941424e+000 127 51 46
-1.581083e-001 1.314627e+000 -9.477185e+000 65 74 67
2.048637e+000 1.275453e+000 -1.059822e+001 67 53 52
2.495307e+000 1.386576e+000 -1.079257e+001 135 71 71
2.455964e+000 1.322965e+000 -1.026605e+001 77 91 88
-8.196428e-001 5.997856e-001 -9.143341e+000 239 207 94
-1.992812e+000 1.100778e+000 -9.980995e+000 195 93 91
1.484840e+000 1.247941e+000 -1.133187e+001 225 224 210
-2.358904e+000 7.836802e-001 -1.037502e+001 216 101 96
-2.355604e+000 7.671140e-001 -1.034277e+001 216 101 96
3.905218e-001 -6.850797e-001 -1.002373e+001 149 114 58
-2.413418e+000 -6.116840e-001 -1.079527e+001 180 40 47
-2.413418e+000 -6.116840e-001 -1.079527e+001 180 40 47
-1.632311e+000 -9.245055e-001 -9.823179e+000 224 110 107
-1.634615e+000 -9.459650e-001 -9.764391e+000 224 110 107
-1.619466e-001 1.140084e+000 -9.542663e+000 73 77 60
1.364594e+000 1.983113e+000 -1.140247e+001 213 171 76
2.272154e+000 1.236652e+000 -1.060635e+001 146 115 70
-1.023115e-001 6.852941e-001 -9.566098e+000 82 85 63
-2.027831e+000 1.570118e+000 -1.040907e+001 234 227 221
-9.261558e-001 5.826630e-001 -9.275987e+000 233 191 90
-1.813968e+000 6.436099e-001 -9.657363e+000 192 84 82
-9.620529e-001 -1.062853e+000 -9.242929e+000 241 210 87
-1.125430e+000 -1.090683e+000 -1.012208e+001 141 67 68
2.144793e+000 -8.649720e-001 -1.283918e+001 108 74 46
-2.264211e+000 -8.163227e-001 -1.072319e+001 221 99 97
-1.787659e+000 -1.265719e+000 -1.059241e+001 209 96 94
-1.209719e+000 -1.308447e+000 -1.016766e+001 113 39 47
-9.613072e-001 1.382116e+000 -9.536810e+000 254 224 102
-1.347085e+000 1.247809e+000 -9.685099e+000 110 40 46
-1.221773e+000 1.229149e+000 -9.555200e+000 202 90 88
-2.148596e+000 7.546050e-001 -1.003384e+001 209 91 88
-1.543735e+000 2.348723e-001 -9.492361e+000 98 32 37
-1.484474e+000 -4.739268e-001 -9.525680e+000 135 36 45
-1.829669e+000 -5.531099e-001 -9.851223e+000 105 29 38
-1.084203e+000 -1.014711e+000 -9.468250e+000 250 215 95
-1.040460e+000 -1.060830e+000 -9.687176e+000 107 42 38
-4.205520e-001 -1.051573e+000 -9.948691e+000 62 52 49
2.794018e+000 -1.119951e+000 -1.362205e+001 147 106 101
1.241952e+000 2.082830e+000 -1.146471e+001 162 102 47
1.225693e+000 1.830236e+000 -1.148219e+001 205 148 74
-1.587761e+000 7.913137e-001 -9.658821e+000 137 34 45
-1.385867e+000 4.051289e-001 -9.429675e+000 121 34 40
-8.909050e-001 1.089513e-001 -9.204562e+000 207 93 89
-9.316544e-001 -9.595920e-002 -9.311457e+000 124 35 41
-2.108772e+000 3.873929e-001 -9.817884e+000 146 34 46
-2.124887e+000 -1.599683e-001 -9.936809e+000 219 102 102
-1.450273e+000 -4.349215e-001 -9.464847e+000 123 35 41
1.237356e+000 -3.386986e-001 -1.085994e+001 50 52 53
-2.159657e+000 -3.315877e-001 -9.979996e+000 138 34 43
-1.843608e+000 -7.170322e-001 -9.936593e+000 218 76 80
-2.164055e+000 -8.329301e-001 -1.034214e+001 136 41 49
-1.931193e+000 -8.090431e-001 -1.013565e+001 138 36 41
-1.702302e+000 -1.228139e+000 -1.035638e+001 124 41 48
3.294410e-001 -9.401057e-001 -1.236324e+001 239 230 223
3.802267e-001 -1.198585e+000 -1.226384e+001 88 46 55
3.176609e-001 -1.355526e+000 -1.244053e+001 236 229 220
1.343032e+000 1.801344e+000 -1.117836e+001 189 136 51
-2.031598e+000 6.762922e-001 -9.939060e+000 218 77 79
-1.637413e+000 2.546063e-001 -9.532452e+000 104 32 40
-1.648675e+000 -1.996329e-001 -9.463972e+000 113 29 36
-1.747892e+000 -2.569405e-001 -9.588392e+000 112 30 36
2.337663e+000 -2.015195e+000 -1.345453e+001 236 229 219
2.396860e+000 9.939737e-001 -1.240675e+001 91 41 38
2.620492e+000 -6.267161e-001 -1.318921e+001 113 77 44
1.945194e+000 -1.364222e+000 -1.247982e+001 101 46 46
-1.084963e+000 -9.551290e-001 -9.244946e+000 206 162 36
-1.084963e+000 -9.551290e-001 -9.244946e+000 206 162 36
-1.035279e+000 -8.914704e-001 -9.260017e+000 169 111 42
-1.035279e+000 -8.914704e-001 -9.260017e+000 169 111 42
7.719478e-001 -1.560690e+000 -1.081264e+001 95 46 46
-2.379477e+001 -1.454579e+001 -4.813126e+001 83 79 81
-2.317006e+001 -2.019433e+001 -4.735192e+001 42 51 90
-2.276709e+001 -1.980322e+001 -4.651888e+001 42 51 90
-2.345960e+001 -2.118118e+001 -4.662886e+001 49 50 55
-1.769532e+001 8.853142e+000 -3.579219e+001 78 73 79
-2.896586e+001 3.071646e+001 -6.337425e+001 38 45 69
-2.492195e+001 4.049536e+001 -6.665041e+001 73 73 81
-1.876007e-001 1.216479e+000 -9.476647e+000 67 87 81
9.618650e-001 -3.615841e-001 -1.020184e+001 140 90 57
1.057245e+000 -3.105494e-001 -1.047696e+001 134 87 52
-2.272432e+000 -5.609348e-001 -1.010962e+001 182 46 56
-1.331819e+000 -1.448443e+000 -1.031525e+001 140 101 100
5.039173e+000 -2.694963e+000 -1.130325e+001 203 192 186
5.039173e+000 -2.694963e+000 -1.130325e+001 203 192 186
5.160752e+000 5.370346e+000 -1.212377e+001 201 192 183
6.057159e+000 -2.059351e-001 -1.005688e+001 226 213 205
1.543529e+000 1.433539e+000 -1.155108e+001 107 75 56
-2.321188e+000 7.422469e-001 -1.025147e+001 214 95 91
-2.101737e+000 -5.023498e-002 -9.596628e+000 213 72 77
5.822111e+000 -1.404336e+000 -1.014192e+001 255 251 242
5.822111e+000 -1.404336e+000 -1.014192e+001 255 251 242
-2.215648e+000 -5.587242e-001 -1.006298e+001 175 43 51
1.152962e+000 -1.842043e+000 -1.224836e+001 162 120 117
5.366753e+000 -3.351887e+000 -1.067809e+001 241 232 227
-1.073600e+001 4.488209e+000 -2.686263e+001 229 218 215
4.620769e+000 -4.403326e+000 -1.191807e+001 254 245 238
6.248389e+000 8.431345e-001 -9.956413e+000 247 237 228
1.299734e+000 1.316820e+000 -1.017657e+001 145 73 72
1.299734e+000 1.316820e+000 -1.017657e+001 145 73 72
1.369137e+000 1.331622e+000 -1.028762e+001 109 44 44
5.612583e+000 1.404061e-001 -1.090209e+001 148 137 133
5.612583e+000 1.404061e-001 -1.090209e+001 148 137 133
5.695412e+000 1.125873e-001 -1.075348e+001 165 154 149
5.680038e+000 -1.403611e+000 -1.057163e+001 231 218 210
-2.724817e+000 4.118845e-001 -1.042165e+001 232 81 87
5.471391e+000 -1.517543e+000 -1.062164e+001 186 173 167
-2.635790e+000 -2.983387e-001 -1.137991e+001 214 100 100
2.088604e+000 -1.883486e+000 -1.287808e+001 158 114 111
4.572814e+000 -3.487891e+000 -1.195098e+001 216 210 198
4.501834e+000 -3.941305e+000 -1.221599e+001 251 242 235
4.501834e+000 -3.941305e+000 -1.221599e+001 251 242 235
2.214600e+000 1.401924e+000 -1.016339e+001 104 149 144
2.467327e+000 1.331955e+000 -1.049341e+001 226 223 214
1.449734e+000 1.707215e+000 -1.107609e+001 200 153 74
-1.842759e+000 -1.311441e-001 -9.562020e+000 225 103 104
-2.646697e+000 4.501514e-002 -1.079295e+001 215 95 94
-1.204581e+000 -7.677491e-001 -9.614723e+000 142 40 36
-1.268721e+000 -9.920229e-001 -9.776535e+000 186 96 88
-1.175021e+000 -1.035258e+000 -9.574869e+000 204 92 91
-1.173025e+000 -1.034682e+000 -9.577945e+000 204 92 91
-5.952391e-001 -1.051371e+000 -9.839343e+000 116 92 48
-2.870886e-001 -1.062364e+000 -9.805364e+000 84 86 71
-1.760313e+000 -9.901976e-001 -1.036959e+001 115 42 45
-2.466755e+000 -8.022791e-001 -1.112347e+001 216 89 90
-2.019851e+000 -1.155077e+000 -1.126448e+001 217 92 96
-1.937263e+000 -1.209551e+000 -1.153662e+001 213 98 99
-8.926539e-001 -1.271033e+000 -1.213621e+001 166 123 117
1.265728e+000 1.380749e+000 -1.013633e+001 114 50 49
2.126894e+000 1.404743e+000 -1.015202e+001 73 81 88
-2.597414e+000 3.732540e-001 -1.066891e+001 232 110 106
-1.400963e+000 -5.861364e-001 -9.417490e+000 210 97 96
-7.687281e-001 -1.051393e+000 -9.683644e+000 126 95 48
2.224303e+000 -7.775108e-001 -1.277841e+001 87 51 39
-2.529620e+000 -7.889263e-001 -1.095168e+001 232 230 222
-1.939391e+000 -1.071494e+000 -1.066680e+001 155 41 49
-7.370521e-001 -1.387474e+000 -1.039542e+001 106 53 52
-1.288751e+001 7.363001e+000 -2.960316e+001 218 205 197
-1.417190e+001 6.736131e+000 -3.114396e+001 218 199 185
-1.509922e-001 1.143768e+000 -9.548682e+000 73 77 60
1.376321e+000 1.911277e+000 -1.106732e+001 150 80 48
7.798761e-003 8.711067e-001 -9.656620e+000 67 63 50
-7.719452e-001 4.881608e-001 -9.120194e+000 138 53 46
-5.416405e-002 5.239476e-001 -9.539714e+000 60 60 58
-2.164983e+000 6.874376e-001 -9.910023e+000 209 91 89
2.693920e+000 6.644888e-001 -1.244887e+001 107 73 46
-1.120368e-001 -7.994647e-001 -9.749220e+000 69 66 51
9.246251e-001 -6.330729e-001 -1.093212e+001 76 35 37
-1.295909e-001 -1.055768e+000 -1.034958e+001 97 43 43
-1.782244e+000 -1.262296e+000 -1.060098e+001 209 96 94
-5.078744e-001 -1.425822e+000 -1.065250e+001 141 106 102
8.185088e-001 -1.875890e+000 -1.195937e+001 160 114 111
-1.235334e+001 3.654289e+000 -2.851251e+001 199 182 172
-1.744844e+000 7.746570e-001 -9.591897e+000 219 101 100
-1.402606e+000 7.131096e-001 -9.371490e+000 133 34 41
1.886259e+000 3.807319e-001 -1.143487e+001 83 77 72
3.172151e+000 1.358803e+000 -1.321092e+001 100 51 51
-2.252509e+000 5.396239e-001 -9.980136e+000 217 82 84
-2.262217e+000 -4.482114e-001 -1.017646e+001 215 104 99
-9.398642e-002 -1.111895e+000 -9.956219e+000 160 137 92
-2.490106e+000 -4.286575e-001 -1.046551e+001 220 99 94
-2.365885e+000 -3.527174e-001 -1.080247e+001 154 39 45
-1.806307e+000 -9.074243e-001 -1.002254e+001 211 89 84
2.259034e-001 -7.824293e-001 -1.166756e+001 140 92 92
2.562603e+000 -1.274931e+000 -1.350095e+001 227 220 210
3.574512e-001 -1.583888e+000 -1.239258e+001 153 77 79
7.497267e-001 -1.733710e+000 -1.203801e+001 104 48 51
1.489702e+000 -1.840040e+000 -1.258089e+001 177 154 122
-8.608647e-001 1.136765e+000 -9.123848e+000 145 88 50
-1.821968e+000 1.761935e+000 -1.046141e+001 211 95 96
