ply
format ascii 1.0
element face 0
property list uchar int vertex_indices
element vertex 876
property float x
property float y
property float z
property uchar diffuse_red
property uchar diffuse_green
property uchar diffuse_blue
end_header
-8.914934e-001 1.326199e+000 -9.430521e+000 240 180 79
-1.817661e+000 1.522731e+000 -1.152716e+001 147 39 43
-1.561973e+000 1.913056e+000 -1.114629e+001 197 79 80
4.196429e-001 2.282025e+000 -1.202118e+001 167 75 75
-1.552682e+000 1.665091e+000 -1.045202e+001 160 68 69
1.038348e+000 2.218706e+000 -1.146734e+001 170 137 68
-1.051796e+000 1.654536e+000 -9.904943e+000 181 76 71
-6.372940e-001 1.366555e+000 -9.594180e+000 140 102 49
1.360988e+000 1.863018e+000 -1.033652e+001 159 55 56
2.016415e+000 1.487654e+000 -1.023469e+001 81 115 118
-2.472052e+000 7.547164e-001 -1.080005e+001 204 77 81
-1.478232e+000 1.855375e+000 -1.037804e+001 184 74 71
-2.269865e+000 9.599032e-001 -1.050185e+001 165 29 37
-1.522638e+000 1.634758e+000 -1.020029e+001 203 68 71
-8.090574e-001 1.820059e+000 -9.974313e+000 143 30 32
-8.482600e-002 1.322951e+000 -9.940517e+000 52 46 41
-1.610070e-001 1.231999e+000 -9.644297e+000 44 52 47
1.456443e+000 3.921827e-001 -1.122663e+001 90 97 99
1.118819e+000 1.426596e+000 -1.024914e+001 142 51 50
1.420027e+000 1.577812e+000 -1.034266e+001 113 30 32
1.233731e+000 1.341009e+000 -1.000299e+001 163 155 147
-5.508901e-001 1.878581e+000 -1.197379e+001 154 67 68
3.819949e-001 2.408159e+000 -1.193568e+001 214 214 204
4.165997e-001 2.370014e+000 -1.166960e+001 201 105 106
-1.979336e+000 1.469725e+000 -1.045650e+001 182 37 46
-2.189609e+000 1.109327e+000 -1.036146e+001 157 31 36
-1.617033e+000 1.290043e+000 -9.968503e+000 174 74 71
1.661381e+000 2.039961e+000 -1.050802e+001 170 66 63
1.677294e+000 2.018308e+000 -1.052718e+001 170 66 63
-1.746518e+000 3.800040e-002 -9.689018e+000 145 55 57
1.426775e+000 2.063980e-001 -1.123431e+001 96 108 104
2.330621e+000 1.977801e+000 -1.062081e+001 127 49 52
-2.390090e+000 8.675050e-001 -1.085622e+001 162 30 41
-2.194747e+000 1.148337e+000 -1.083156e+001 170 34 45
-2.047422e+000 6.258523e-001 -1.009114e+001 168 29 37
-1.357465e+000 5.387292e-001 -9.546251e+000 138 23 30
-1.416616e+000 -4.493596e-001 -9.850601e+000 162 30 38
-1.452046e+000 -2.734512e-001 -9.737281e+000 162 30 38
-8.218213e-001 2.269530e-001 -9.356713e+000 164 66 64
-7.475307e-001 6.227408e-001 -9.282505e+000 218 179 78
-7.520383e-001 6.305523e-001 -9.276643e+000 218 179 78
-2.135368e+000 1.235841e+000 -1.160769e+001 200 76 78
-2.126459e+000 1.193074e+000 -1.165438e+001 200 76 78
-1.119068e+000 1.372865e+000 -1.248776e+001 143 61 61
2.407012e+000 1.502202e+000 -1.343107e+001 160 129 72
-2.350003e+000 5.580787e-001 -1.058633e+001 186 73 72
-2.350003e+000 5.580787e-001 -1.058633e+001 186 73 72
2.759101e+000 1.394562e+000 -1.344688e+001 151 124 71
2.747384e+000 1.361420e+000 -1.328534e+001 113 61 61
2.718434e+000 1.391776e+000 -1.324476e+001 113 61 61
-1.414683e+000 1.650726e+000 -1.004194e+001 103 18 25
-2.039847e+000 1.001744e+000 -9.842245e+000 186 48 50
1.253662e+000 1.713677e+000 -1.099901e+001 150 92 33
-1.714902e+000 3.773412e-001 -9.633370e+000 178 75 71
1.029617e-001 1.267495e+000 -9.826375e+000 135 103 51
1.219869e+000 1.485478e+000 -1.014627e+001 115 32 33
1.219869e+000 1.485478e+000 -1.014627e+001 115 32 33
1.327829e+000 1.357194e+000 -1.007151e+001 81 32 35
-1.296268e+000 -1.221846e-001 -9.564777e+000 169 68 67
-1.021665e+000 4.405294e-002 -9.482329e+000 173 69 64
1.982284e+000 1.394483e+000 -1.007142e+001 42 66 68
-8.372125e-001 -5.069616e-001 -9.536526e+000 112 64 28
-8.527132e-001 -1.636738e-001 -9.385762e+000 236 200 84
-2.293229e+000 1.175735e+000 -1.082226e+001 200 78 80
-2.033578e+000 1.381309e+000 -1.057974e+001 204 78 79
-2.094291e+000 1.097931e+000 -1.015394e+001 111 18 29
2.136056e+000 1.408635e+000 -1.246834e+001 90 48 32
-1.964863e+000 2.282861e-001 -1.001239e+001 118 20 32
-1.905861e+000 5.288911e-001 -1.000492e+001 115 18 29
-1.905861e+000 5.288911e-001 -1.000492e+001 115 18 29
-1.406185e+000 1.147997e+000 -9.677538e+000 188 75 71
-1.731744e+000 5.823586e-001 -9.632166e+000 102 18 28
-1.700629e+000 4.126249e-001 -9.753607e+000 102 18 28
-1.591236e+000 1.678481e-002 -9.742644e+000 105 27 35
-6.299614e-002 1.202622e+000 -9.821704e+000 79 89 55
-1.337332e+000 1.913564e-001 -9.491243e+000 99 23 31
-7.761133e-001 7.523169e-001 -9.321660e+000 122 73 32
-6.994194e-001 1.259551e+000 -9.234841e+000 227 194 78
-7.421942e-001 9.877064e-001 -9.212366e+000 232 192 78
-1.921792e+000 1.613302e+000 -1.121063e+001 199 76 78
-2.189778e+000 1.461756e+000 -1.074094e+001 188 46 53
-1.611640e+000 1.900761e+000 -1.065199e+001 189 66 68
-1.561974e+000 1.852031e+000 -1.040651e+001 114 21 31
6.373569e-001 2.140487e+000 -1.175005e+001 171 71 68
6.373569e-001 2.140487e+000 -1.175005e+001 171 71 68
-1.981930e+000 1.398419e+000 -1.032349e+001 208 55 59
-2.110798e+000 1.043655e+000 -1.023137e+001 119 19 31
-1.393128e+000 1.863426e+000 -1.007472e+001 111 19 28
-1.393451e+000 1.862272e+000 -1.007529e+001 111 19 28
-1.161479e+000 1.625003e+000 -1.011180e+001 76 16 24
-2.195468e+000 4.368878e-001 -1.021639e+001 126 20 29
9.382138e-001 1.541479e+000 -1.137896e+001 68 29 29
-1.435178e+000 1.346331e+000 -9.707360e+000 111 20 25
1.477878e+000 1.858187e+000 -1.070083e+001 172 48 48
-1.457337e+000 9.485367e-001 -9.756582e+000 119 18 25
1.364090e+000 1.003130e+000 -1.114642e+001 78 69 70
-7.862920e-001 1.389001e+000 -9.580305e+000 112 36 36
-1.543075e+000 3.441156e-001 -9.639489e+000 85 21 29
1.424959e+000 1.760861e+000 -1.025355e+001 181 47 48
-2.599821e+000 4.870858e-001 -1.137010e+001 200 189 186
2.568772e+000 1.296767e+000 -1.294472e+001 142 115 60
-1.516777e+000 7.255695e-001 -9.629694e+000 100 21 25
-2.252063e-001 1.348553e+000 -9.844442e+000 43 43 43
1.251904e-001 1.256417e+000 -1.002850e+001 136 101 45
1.269916e+000 1.312501e+000 -1.016853e+001 158 46 48
-1.366728e+000 2.039662e+000 -1.054953e+001 108 39 41
-2.414023e+000 1.063155e-001 -1.104497e+001 187 49 54
-2.455775e+000 8.513643e-001 -1.121870e+001 199 70 74
-1.630081e+000 1.893520e+000 -1.114793e+001 200 76 80
1.434844e+000 1.988804e+000 -1.089066e+001 150 68 39
1.077981e-001 1.273950e+000 -9.674471e+000 140 128 108
-7.473234e-001 4.971457e-001 -9.246563e+000 141 107 103
-1.861086e+000 5.094195e-001 -9.866513e+000 196 74 73
-1.507544e+000 8.880915e-001 -9.686758e+000 115 24 30
-2.241825e+000 1.368768e+000 -1.081837e+001 200 55 62
-1.833394e+000 8.617803e-001 -9.888406e+000 149 52 57
-1.336012e+000 1.023913e+000 -9.664948e+000 197 63 65
2.112009e+000 1.396000e+000 -1.019060e+001 73 106 107
-2.104010e+000 8.743172e-001 -1.024789e+001 206 116 108
-1.838452e+000 1.406205e+000 -1.006674e+001 209 50 55
1.111111e+000 1.342719e+000 -1.028515e+001 171 161 156
1.950873e+000 1.357462e+000 -1.001330e+001 59 110 108
-1.968628e+000 1.430689e+000 -1.156661e+001 196 77 78
-1.863485e+000 1.574053e+000 -1.151939e+001 186 68 70
-2.104288e+000 1.622183e+000 -1.100247e+001 103 30 37
-2.466184e+000 1.129802e+000 -1.091266e+001 169 33 41
-2.306901e+000 1.038480e+000 -1.100152e+001 204 81 83
-1.795483e+000 1.269169e+000 -1.032214e+001 177 77 75
-2.108856e+000 3.074915e-001 -1.010686e+001 174 32 38
-1.907221e+000 3.391187e-001 -9.740283e+000 170 29 38
-9.671838e-001 1.094036e+000 -9.409407e+000 93 34 23
1.242626e+000 1.234951e+000 -1.049389e+001 146 151 142
1.401724e+000 1.841682e+000 -1.037693e+001 166 56 53
7.276254e-001 1.062841e+000 -1.013557e+001 95 65 35
1.958409e+000 1.375628e+000 -1.028618e+001 45 54 58
1.878571e+000 1.285379e+000 -1.008252e+001 50 74 78
-2.303373e+000 8.568225e-001 -1.057345e+001 200 77 79
-1.384954e+000 1.431658e+000 -9.752349e+000 191 73 75
-1.384954e+000 1.431658e+000 -9.752349e+000 191 73 75
4.118866e-001 9.624819e-001 -1.040982e+001 66 26 22
1.799179e+000 1.954751e+000 -1.026675e+001 79 31 31
2.008668e+000 1.366125e+000 -1.022632e+001 67 102 104
-6.353524e-001 -6.893475e-001 -9.591547e+000 135 118 101
-1.535981e+000 1.844743e+000 -1.109980e+001 140 36 45
-1.695698e+000 1.889169e+000 -1.071628e+001 100 24 31
-1.530174e+000 1.788792e+000 -1.030112e+001 176 62 62
-2.063754e+000 9.542742e-001 -1.026109e+001 110 19 27
-1.882575e+000 8.063086e-001 -9.901288e+000 187 84 82
-1.843821e+000 1.144700e+000 -9.854859e+000 183 64 65
-1.843821e+000 1.144700e+000 -9.854859e+000 183 64 65
-9.260232e-001 1.846822e+000 -1.007028e+001 193 78 78
-1.911698e+000 3.986324e-001 -9.973078e+000 184 77 73
-1.670428e+000 6.874013e-001 -9.604279e+000 170 53 54
-1.325591e+000 9.472484e-001 -9.522648e+000 143 27 33
-1.249551e+000 2.502891e-001 -9.504675e+000 160 65 62
-2.064421e+000 1.132291e+000 -1.193942e+001 150 43 46
-1.821115e+000 1.643052e+000 -1.152051e+001 194 76 77
-2.211512e+000 1.508329e+000 -1.094292e+001 125 40 47
-2.211512e+000 1.508329e+000 -1.094292e+001 125 40 47
-1.575862e+000 1.988998e+000 -1.112068e+001 205 83 80
-2.497689e+000 5.509132e-001 -1.112874e+001 183 41 50
-1.956470e+000 1.355099e+000 -1.110741e+001 127 37 45
-2.310007e+000 7.161134e-001 -1.026639e+001 186 53 57
-2.163265e+000 1.955948e-001 -1.024523e+001 187 78 78
-2.157646e+000 1.551785e-001 -1.027154e+001 187 78 78
-2.195437e+000 4.436910e-001 -1.021271e+001 124 21 34
-1.770481e+000 5.030496e-001 -9.803128e+000 136 22 32
-1.444190e+000 1.721877e+000 -9.474658e+000 180 59 59
-1.415173e+000 8.911772e-001 -9.479674e+000 187 52 55
-8.060055e-001 1.384733e+000 -9.544717e+000 117 37 37
-1.434090e+000 4.437790e-001 -9.597780e+000 196 59 66
-6.587794e-001 1.719012e+000 -1.221640e+001 136 60 62
-2.353752e+000 8.530057e-001 -1.104035e+001 143 21 37
-1.470425e+000 -6.083272e-003 -9.690274e+000 187 57 59
-1.036330e+000 6.511617e-001 -9.430568e+000 66 24 25
2.080331e+000 1.369758e+000 -1.025852e+001 64 94 96
-2.098800e+000 1.678979e+000 -1.102779e+001 111 37 40
-1.748457e+000 1.797910e+000 -1.076934e+001 101 24 30
-1.508023e+000 1.419106e+000 -9.913894e+000 199 69 66
-1.677914e+000 1.140553e+000 -9.893489e+000 97 17 24
-7.960050e-002 1.287837e+000 -9.636879e+000 57 62 58
1.549880e+000 1.708708e+000 -1.008287e+001 63 43 46
-1.533869e+000 1.233747e+000 -1.241301e+001 123 59 57
-1.850551e+000 1.509681e+000 -1.129134e+001 204 71 74
-8.674056e-001 1.946070e+000 -1.174633e+001 139 63 62
-1.994821e+000 1.562517e+000 -1.065521e+001 187 76 75
-2.219049e+000 1.056492e+000 -1.043903e+001 232 136 129
-2.321455e+000 4.221932e-001 -1.066067e+001 200 86 86
-1.796731e+000 1.534569e+000 -1.031593e+001 179 65 67
-1.752909e+000 1.486014e+000 -1.024227e+001 154 28 29
-1.529007e+000 1.364919e+000 -9.851227e+000 169 35 40
-1.814386e+000 7.038691e-001 -9.881161e+000 196 68 69
-1.784288e+000 6.623601e-001 -9.791290e+000 191 73 73
-1.362382e+000 9.808325e-001 -9.683088e+000 156 36 32
-1.489677e+000 4.578234e-001 -9.584358e+000 183 69 73
-9.648450e-001 1.411576e+000 -9.360389e+000 160 79 40
-8.908143e-001 1.335975e+000 -9.493742e+000 194 74 67
-9.137388e-001 1.060068e+000 -9.472824e+000 225 170 100
-2.331213e+000 7.570786e-001 -1.203350e+001 165 57 60
-2.068219e+000 1.346300e+000 -1.183783e+001 180 70 67
-1.791737e+000 1.236841e+000 -1.224671e+001 117 53 57
-2.359104e+000 7.992804e-001 -1.194348e+001 187 56 60
-1.839332e+000 1.570334e+000 -1.161135e+001 190 66 71
-1.850620e+000 1.540411e+000 -1.159512e+001 191 73 76
-2.470173e+000 3.640714e-001 -1.142271e+001 190 60 65
-2.419437e+000 6.382295e-001 -1.108689e+001 193 76 76
-2.257602e+000 1.205249e+000 -1.077904e+001 167 44 46
-2.225444e+000 8.930442e-001 -1.082487e+001 206 87 87
-2.240478e+000 9.536590e-001 -1.048440e+001 205 81 85
-1.942185e+000 1.376538e+000 -1.026091e+001 182 40 45
-1.272889e+000 1.665596e+000 -1.009763e+001 121 40 46
-1.097672e+000 1.744153e+000 -1.008441e+001 69 19 26
-1.492269e+000 8.372455e-001 -9.720073e+000 116 23 22
-1.357732e+000 1.384678e+000 -9.619696e+000 151 51 53
-1.327392e+000 1.040705e+000 -9.699104e+000 135 16 21
-1.167191e+000 1.190283e+000 -9.602267e+000 193 87 84
-6.120406e-001 1.369920e+000 -9.634113e+000 68 23 19
-1.026214e+000 3.713080e-001 -9.408952e+000 168 67 69
-9.010690e-001 9.770704e-001 -9.306573e+000 192 136 37
-7.083916e-001 7.112208e-001 -9.225771e+000 116 91 81
-2.078448e+000 1.240451e+000 -1.200630e+001 185 65 70
-2.377835e+000 1.157972e+000 -1.132801e+001 201 71 73
-2.151449e+000 1.384340e+000 -1.095199e+001 199 72 71
-1.917355e+000 1.398648e+000 -1.137548e+001 201 89 92
-1.691296e+000 1.768677e+000 -1.103381e+001 196 74 74
-1.993300e+000 1.486987e+000 -1.044310e+001 179 33 37
-2.271280e+000 6.413730e-001 -1.050321e+001 192 79 75
-1.782780e+000 1.225467e+000 -1.033052e+001 191 88 89
-1.559313e+000 1.730031e+000 -1.028027e+001 113 21 23
-2.098007e+000 8.487512e-001 -1.026710e+001 219 138 130
-1.339198e+000 1.031382e+000 -9.517541e+000 151 35 37
-6.690882e-001 1.297244e+000 -9.152511e+000 153 127 73
-8.567384e-001 7.620217e-001 -9.207408e+000 156 75 47
-1.761529e+000 1.512790e+000 -1.151624e+001 137 32 35
-2.081005e+000 1.389346e+000 -1.066217e+001 147 20 33
-1.669188e+000 1.776235e+000 -1.068780e+001 187 68 67
-2.359090e+000 9.143934e-001 -1.062233e+001 225 101 104
-9.850252e-001 6.457893e-001 -9.404537e+000 96 35 25
-1.861384e+000 1.250193e+000 -1.033858e+001 118 21 32
-2.021956e+000 9.355025e-001 -1.009391e+001 168 27 34
-1.754875e+000 9.268841e-001 -9.927920e+000 100 15 23
-1.655805e+000 1.240570e+000 -9.981858e+000 113 21 29
-1.628654e+000 1.319086e+000 -9.951479e+000 174 72 69
-1.590777e+000 1.201353e+000 -9.845881e+000 207 53 56
-1.739002e+000 6.876945e-001 -9.733557e+000 192 78 78
-1.739002e+000 6.876945e-001 -9.733557e+000 192 78 78
-1.401593e+000 6.638468e-001 -9.720710e+000 99 20 25
-1.415340e+000 7.824973e-001 -9.742678e+000 172 74 71
-9.790366e-001 1.483431e+000 -9.510188e+000 190 78 73
-2.444343e+000 6.749956e-001 -1.179603e+001 196 58 56
-2.482830e+000 3.048290e-001 -1.181917e+001 196 60 64
-1.620956e+000 1.675961e+000 -1.091856e+001 103 22 29
-2.203705e+000 8.186321e-001 -1.032586e+001 183 44 48
-2.126977e+000 4.248698e-001 -1.032801e+001 204 96 96
-2.126977e+000 4.248698e-001 -1.032801e+001 204 96 96
-1.661390e+000 1.573462e+000 -1.007817e+001 214 89 89
-1.577096e+000 1.501712e+000 -1.001652e+001 213 89 89
-1.577096e+000 1.501712e+000 -1.001652e+001 213 89 89
-1.672622e+000 1.823362e+000 -1.121163e+001 123 42 48
-1.672622e+000 1.823362e+000 -1.121163e+001 123 42 48
-5.680286e-001 1.921151e+000 -1.185875e+001 142 63 69
-1.560977e+000 1.236841e+000 -9.971852e+000 190 77 74
-9.504703e-001 1.904309e+000 -1.002269e+001 190 71 71
-1.240365e+000 2.151902e-001 -9.523047e+000 152 60 57
-2.107695e+000 1.112225e+000 -1.173359e+001 204 81 84
-2.172472e+000 1.093664e+000 -1.045875e+001 197 67 69
-1.314571e+000 1.947824e+000 -1.002478e+001 191 65 66
-1.328355e+000 1.988159e+000 -9.993029e+000 191 65 66
-1.480589e+000 1.332785e+000 -9.832381e+000 144 27 33
-1.974336e+000 3.101976e-001 -9.953035e+000 113 19 32
-1.399362e+000 1.571781e+000 -9.574081e+000 186 60 63
-8.257784e-001 8.941571e-001 -9.229982e+000 117 71 28
-7.221256e-001 9.312843e-001 -9.244034e+000 231 193 85
-6.616154e-001 1.426760e+000 -9.161666e+000 131 97 46
-2.051088e+000 1.527331e+000 -1.062745e+001 125 20 34
-2.404923e+000 9.701344e-001 -1.042307e+001 129 20 32
-1.853575e+000 1.477218e+000 -1.031486e+001 124 20 29
-1.534923e+000 3.329842e-001 -9.648248e+000 74 18 26
-7.822462e-001 -1.053962e-001 -9.439064e+000 82 26 35
-1.522464e+000 2.172272e+000 -1.045500e+001 117 36 40
-8.554756e-001 1.248043e+000 -9.384514e+000 235 181 59
-1.245218e+000 1.148445e+000 -1.239024e+001 134 49 51
3.881795e+000 5.580212e+000 -1.247293e+001 209 196 192
3.920157e+000 5.675863e+000 -1.229533e+001 208 198 194
3.909864e+000 5.431024e+000 -1.233292e+001 244 235 230
3.968444e+000 5.579470e+000 -1.207665e+001 238 226 222
3.856885e+000 4.719797e+000 -1.251141e+001 227 220 214
3.875274e+000 4.838691e+000 -1.244595e+001 206 199 193
3.873308e+000 4.868172e+000 -1.239655e+001 202 193 188
4.023551e+000 5.466541e+000 -1.215225e+001 208 197 193
3.841766e+000 4.470936e+000 -1.256923e+001 206 199 191
4.065662e+000 4.823759e+000 -1.217865e+001 197 188 181
4.067257e+000 5.004035e+000 -1.217599e+001 205 196 191
4.148232e+000 5.243545e+000 -1.187564e+001 195 184 180
4.200742e+000 5.313244e+000 -1.170685e+001 207 196 192
4.231690e+000 4.685504e+000 -1.182799e+001 244 235 228
4.318443e+000 5.123892e+000 -1.152595e+001 205 194 190
4.240836e+000 4.660391e+000 -1.165521e+001 218 209 202
4.261334e+000 4.633448e+000 -1.164764e+001 198 189 184
4.451804e+000 4.794418e+000 -1.146079e+001 100 92 86
4.425304e+000 4.634333e+000 -1.158200e+001 241 232 224
4.363399e+000 4.660883e+000 -1.152201e+001 241 232 224
4.441180e+000 4.988702e+000 -1.127801e+001 196 186 179
4.475032e+000 5.032493e+000 -1.112812e+001 192 181 175
4.796381e+000 4.609148e+000 -1.086035e+001 193 182 178
2.083933e+000 1.507721e+000 -1.014418e+001 70 91 96
3.999547e+000 5.416511e+000 -1.220926e+001 210 201 196
3.839447e+000 4.538942e+000 -1.247176e+001 199 192 186
4.179413e+000 5.253575e+000 -1.169341e+001 203 189 186
4.092452e+000 4.620035e+000 -1.186882e+001 199 192 186
4.225108e+000 4.711450e+000 -1.184193e+001 198 190 183
4.260863e+000 5.174704e+000 -1.159765e+001 200 189 185
4.439295e+000 4.896890e+000 -1.146415e+001 198 189 183
4.437674e+000 4.095214e+000 -1.133477e+001 194 185 178
4.513728e+000 4.152572e+000 -1.136360e+001 185 176 169
4.613235e+000 4.343927e+000 -1.119000e+001 190 181 174
4.731102e+000 4.354225e+000 -1.101303e+001 189 179 170
4.886578e+000 4.373119e+000 -1.051057e+001 186 176 167
1.180396e+000 6.112886e-001 -1.093376e+001 33 49 54
1.450436e+000 7.685087e-001 -1.103014e+001 69 63 63
1.322160e+000 1.962572e+000 -1.020514e+001 139 40 41
1.947052e+000 1.527311e+000 -1.022940e+001 66 85 87
1.947052e+000 1.527311e+000 -1.022940e+001 66 85 87
2.144480e+000 1.566341e+000 -1.014257e+001 73 84 86
3.958077e+000 5.396789e+000 -1.234197e+001 213 206 198
4.029248e+000 5.168405e+000 -1.215673e+001 205 196 191
4.008863e+000 4.732732e+000 -1.225708e+001 200 191 183
4.013336e+000 4.561053e+000 -1.215920e+001 198 189 180
4.219826e+000 4.846559e+000 -1.192052e+001 197 188 181
4.335597e+000 4.114942e+000 -1.176352e+001 189 180 173
4.441676e+000 4.687324e+000 -1.128789e+001 191 182 175
4.621474e+000 4.701701e+000 -1.087041e+001 190 181 174
-1.103223e+000 -1.048666e+000 -9.940358e+000 189 173 168
-8.696498e-001 -9.767508e-001 -9.555333e+000 207 180 81
1.757193e+000 2.002893e+000 -1.022735e+001 73 21 23
1.870159e+000 1.498313e+000 -1.018389e+001 36 45 43
-6.024275e-001 1.651586e+000 -1.235256e+001 128 59 57
-1.729408e+000 -8.551832e-001 -1.015877e+001 175 49 55
4.105665e+000 5.134235e+000 -1.188147e+001 214 202 200
1.839047e+000 1.696512e+000 -1.028091e+001 59 38 40
-8.235456e-001 -7.103774e-001 -9.550224e+000 229 190 84
-8.383131e-001 -6.427036e-001 -9.506502e+000 229 190 84
-8.971102e-001 -8.126412e-001 -9.545466e+000 120 74 39
1.405012e+000 1.790597e+000 -1.022743e+001 164 42 41
-1.579498e+000 -8.071819e-001 -1.010292e+001 106 29 37
-2.513925e-001 2.309943e+000 -1.165299e+001 204 199 193
3.280112e+000 5.603871e+000 -1.360136e+001 251 240 236
3.316427e+000 5.647419e+000 -1.367493e+001 237 226 220
3.312036e+000 5.624684e+000 -1.352283e+001 240 229 226
3.321079e+000 5.233533e+000 -1.350068e+001 238 230 225
3.419370e+000 5.320140e+000 -1.327030e+001 243 235 232
3.419370e+000 5.320140e+000 -1.327030e+001 243 235 232
3.545711e+000 5.382215e+000 -1.306087e+001 253 249 245
3.786440e+000 5.203260e+000 -1.267556e+001 254 246 242
3.788846e+000 5.458870e+000 -1.252800e+001 254 247 247
3.793038e+000 5.435137e+000 -1.234617e+001 254 248 245
3.906962e+000 5.460086e+000 -1.243589e+001 254 246 244
3.888346e+000 5.650807e+000 -1.236846e+001 254 249 247
3.945212e+000 5.610332e+000 -1.225355e+001 254 245 240
3.958424e+000 5.351877e+000 -1.212613e+001 226 214 211
4.019660e+000 5.285386e+000 -1.219134e+001 227 215 215
4.043214e+000 5.536660e+000 -1.200841e+001 226 209 207
3.897025e+000 4.800690e+000 -1.245940e+001 252 238 235
3.885177e+000 4.668980e+000 -1.230405e+001 244 235 230
3.928711e+000 4.959345e+000 -1.230393e+001 224 212 208
3.928711e+000 4.959345e+000 -1.230393e+001 224 212 208
3.959325e+000 5.095232e+000 -1.224302e+001 253 244 242
4.025335e+000 5.079658e+000 -1.219928e+001 255 247 246
4.066115e+000 4.894575e+000 -1.218055e+001 225 211 209
3.999432e+000 5.024068e+000 -1.219581e+001 234 223 221
3.985300e+000 5.010889e+000 -1.209345e+001 253 246 244
4.104196e+000 5.225857e+000 -1.208678e+001 251 247 242
4.067563e+000 5.348893e+000 -1.196419e+001 224 209 206
4.140982e+000 5.290850e+000 -1.185918e+001 226 213 207
4.142068e+000 5.383932e+000 -1.180272e+001 225 213 207
4.174797e+000 5.397822e+000 -1.179141e+001 254 250 245
3.999447e+000 4.702297e+000 -1.222233e+001 253 245 239
3.970760e+000 4.768127e+000 -1.211049e+001 249 241 235
3.970760e+000 4.768127e+000 -1.211049e+001 249 241 235
4.004446e+000 4.572306e+000 -1.220576e+001 244 233 227
4.004446e+000 4.572306e+000 -1.220576e+001 244 233 227
4.061377e+000 4.838479e+000 -1.219810e+001 252 239 236
4.075473e+000 4.872207e+000 -1.216650e+001 248 237 234
4.089630e+000 4.840489e+000 -1.218202e+001 232 218 215
3.992901e+000 4.872988e+000 -1.204353e+001 250 245 241
4.127547e+000 4.979773e+000 -1.210224e+001 252 244 244
4.188176e+000 4.825277e+000 -1.198057e+001 221 210 206
4.115320e+000 5.032099e+000 -1.195708e+001 249 239 235
4.180076e+000 4.985646e+000 -1.192787e+001 230 220 215
4.251138e+000 5.141373e+000 -1.187431e+001 225 214 209
4.202701e+000 5.201963e+000 -1.165321e+001 221 209 203
4.233957e+000 5.208018e+000 -1.163340e+001 220 207 201
4.227567e+000 5.276891e+000 -1.168537e+001 225 212 206
4.267007e+000 5.211518e+000 -1.168304e+001 253 241 237
4.267007e+000 5.211518e+000 -1.168304e+001 253 241 237
4.071889e+000 4.200626e+000 -1.227572e+001 240 231 224
4.238546e+000 4.467743e+000 -1.191026e+001 247 236 232
4.220476e+000 4.698651e+000 -1.189002e+001 249 239 235
4.220476e+000 4.698651e+000 -1.189002e+001 249 239 235
4.248608e+000 4.686669e+000 -1.188268e+001 220 210 202
4.219279e+000 4.667140e+000 -1.171936e+001 219 208 204
4.230200e+000 4.734082e+000 -1.171222e+001 237 226 221
4.286786e+000 5.015276e+000 -1.178563e+001 221 210 206
4.320795e+000 4.811266e+000 -1.174277e+001 221 210 206
4.239595e+000 4.845784e+000 -1.166253e+001 221 210 206
4.316992e+000 4.886910e+000 -1.160242e+001 247 236 232
4.325413e+000 5.028530e+000 -1.157341e+001 219 208 202
4.295081e+000 5.070385e+000 -1.150146e+001 241 230 224
4.332187e+000 5.118463e+000 -1.153858e+001 222 212 203
4.088514e+000 3.594380e+000 -1.220970e+001 241 230 226
4.136581e+000 3.960382e+000 -1.215342e+001 238 229 223
4.142397e+000 4.381474e+000 -1.181693e+001 231 220 214
4.259953e+000 4.194737e+000 -1.178944e+001 252 245 236
4.392696e+000 4.632645e+000 -1.166878e+001 224 213 207
4.291084e+000 4.566115e+000 -1.152530e+001 219 208 202
4.415131e+000 4.842501e+000 -1.161843e+001 218 207 202
4.360724e+000 4.713534e+000 -1.147337e+001 219 208 204
4.483476e+000 4.813482e+000 -1.148829e+001 251 240 234
4.449553e+000 4.774497e+000 -1.136627e+001 224 213 207
4.509249e+000 4.774462e+000 -1.139598e+001 254 248 239
4.333614e+000 4.951322e+000 -1.146952e+001 221 210 204
4.376861e+000 5.003308e+000 -1.146111e+001 218 206 200
4.365779e+000 5.026774e+000 -1.146255e+001 255 251 244
4.360342e+000 5.006655e+000 -1.141811e+001 240 229 223
4.442216e+000 4.965922e+000 -1.139086e+001 214 203 198
4.451650e+000 4.852736e+000 -1.133554e+001 252 246 241
4.349684e+000 4.147549e+000 -1.164042e+001 240 231 224
4.457474e+000 4.104130e+000 -1.160181e+001 238 229 222
4.424673e+000 4.394805e+000 -1.160553e+001 216 205 199
4.574476e+000 4.902055e+000 -1.118007e+001 209 199 190
4.547266e+000 4.018623e+000 -1.140936e+001 246 237 230
4.619788e+000 4.105686e+000 -1.121900e+001 242 233 226
4.655041e+000 4.580447e+000 -1.121490e+001 216 205 199
4.705162e+000 4.338983e+000 -1.114918e+001 248 239 230
4.656764e+000 4.106251e+000 -1.120783e+001 213 204 197
4.653299e+000 4.099063e+000 -1.117926e+001 238 229 223
4.745496e+000 4.122807e+000 -1.112577e+001 212 203 196
4.813258e+000 4.517921e+000 -1.093789e+001 216 205 199
4.920069e+000 4.134662e+000 -1.089298e+001 207 196 190
4.906622e+000 4.291097e+000 -1.079083e+001 233 222 216
4.906622e+000 4.291097e+000 -1.079083e+001 233 222 216
4.899311e+000 4.285699e+000 -1.075609e+001 210 200 191
4.959501e+000 3.449460e+000 -1.085085e+001 233 222 216
4.935950e+000 3.749936e+000 -1.075943e+001 206 197 190
4.973358e+000 3.989421e+000 -1.073817e+001 231 224 218
3.337211e+000 5.416482e+000 -1.356794e+001 254 250 244
3.444248e+000 5.793170e+000 -1.341891e+001 255 250 248
3.472462e+000 5.206378e+000 -1.340721e+001 235 228 222
3.558022e+000 5.265826e+000 -1.318375e+001 254 251 243
3.516672e+000 5.495374e+000 -1.287577e+001 251 246 239
3.797594e+000 5.211666e+000 -1.263504e+001 254 248 245
3.834783e+000 5.612796e+000 -1.244629e+001 254 247 245
3.609775e+000 4.323145e+000 -1.331088e+001 252 243 238
3.981846e+000 5.444487e+000 -1.222836e+001 252 247 243
4.005929e+000 5.269568e+000 -1.223109e+001 254 251 250
3.952190e+000 5.596534e+000 -1.222861e+001 231 216 209
4.028370e+000 5.607415e+000 -1.208189e+001 226 213 207
4.038307e+000 5.314779e+000 -1.215627e+001 226 215 211
4.136297e+000 5.127013e+000 -1.202292e+001 253 248 245
3.891059e+000 4.255159e+000 -1.256539e+001 252 244 239
4.005737e+000 4.467595e+000 -1.226380e+001 229 218 214
4.045512e+000 4.763766e+000 -1.220506e+001 226 217 212
3.986712e+000 4.555713e+000 -1.207359e+001 253 246 238
3.986712e+000 4.555713e+000 -1.207359e+001 253 246 238
4.150856e+000 5.118114e+000 -1.200054e+001 215 204 198
4.096303e+000 5.219042e+000 -1.181716e+001 221 211 207
4.226485e+000 5.140568e+000 -1.190214e+001 231 217 214
4.043106e+000 4.332031e+000 -1.212774e+001 218 209 202
4.280628e+000 4.775633e+000 -1.176806e+001 219 208 204
4.271462e+000 4.984318e+000 -1.163227e+001 215 204 198
4.388845e+000 4.990697e+000 -1.171991e+001 216 205 199
4.368267e+000 5.053113e+000 -1.147938e+001 220 211 201
4.362989e+000 4.311505e+000 -1.167179e+001 215 204 198
4.305935e+000 4.665224e+000 -1.170507e+001 217 206 200
4.336199e+000 4.744756e+000 -1.163265e+001 224 213 209
4.464655e+000 4.790146e+000 -1.146944e+001 128 117 111
4.485786e+000 4.863426e+000 -1.147758e+001 251 245 240
4.483461e+000 4.463985e+000 -1.152058e+001 212 203 197
4.581283e+000 4.568514e+000 -1.137839e+001 214 203 199
4.749361e+000 4.305767e+000 -1.116137e+001 211 204 194
4.742720e+000 4.626073e+000 -1.109389e+001 210 199 193
4.832151e+000 4.516046e+000 -1.088844e+001 210 200 191
4.754346e+000 4.654397e+000 -1.086633e+001 210 200 191
4.740767e+000 3.468678e+000 -1.110132e+001 235 226 219
5.027412e+000 3.500924e+000 -1.063873e+001 233 222 216
5.180713e+000 3.241107e+000 -1.051963e+001 228 217 211
3.556092e+000 5.687561e+000 -1.313132e+001 243 233 231
3.539824e+000 5.363956e+000 -1.289740e+001 255 251 247
4.022873e+000 5.273622e+000 -1.215444e+001 255 247 242
3.891923e+000 4.274774e+000 -1.260105e+001 220 211 206
4.246033e+000 4.914815e+000 -1.177380e+001 226 215 211
4.404539e+000 4.603391e+000 -1.158973e+001 216 205 201
4.484183e+000 4.926630e+000 -1.127785e+001 216 206 199
4.484183e+000 4.926630e+000 -1.127785e+001 216 206 199
4.546757e+000 4.631190e+000 -1.123627e+001 214 203 199
4.550110e+000 4.788212e+000 -1.137873e+001 215 205 196
4.506749e+000 4.896503e+000 -1.118527e+001 212 199 191
4.672395e+000 4.740689e+000 -1.113175e+001 218 207 201
4.997745e+000 4.348026e+000 -1.068807e+001 213 200 192
4.333997e+000 4.594328e+000 -1.179415e+001 217 206 200
-1.489561e+000 -7.793514e-001 -9.920688e+000 183 170 166
-2.198175e+000 -2.273124e-001 -1.019596e+001 196 53 58
-2.127333e+000 -1.632861e-001 -9.989292e+000 175 44 50
-1.676491e+000 -6.754376e-001 -9.953368e+000 176 42 45
-2.573870e+000 2.105107e-001 -1.081576e+001 203 53 62
-2.345210e+000 -1.040724e-001 -1.031072e+001 190 48 55
-1.387823e+000 -3.949983e-001 -9.548458e+000 183 177 172
-2.536807e+000 4.083788e-001 -1.136175e+001 200 190 191
-1.961913e+000 5.021013e-002 -1.001368e+001 180 73 74
-2.243506e+000 -2.375412e-001 -1.030730e+001 188 175 177
-2.291309e+000 -8.798457e-002 -1.040153e+001 165 26 39
-2.056928e+000 -2.196576e-001 -1.012309e+001 135 25 32
-1.917400e+000 -6.075518e-001 -1.010912e+001 183 173 171
3.430005e+000 4.841452e+000 -1.327162e+001 248 238 233
3.703906e+000 5.335720e+000 -1.299978e+001 255 252 247
3.660160e+000 5.397390e+000 -1.292942e+001 255 244 238
3.655334e+000 5.313045e+000 -1.295870e+001 255 246 244
3.407074e+000 4.084846e+000 -1.371362e+001 237 230 224
3.658176e+000 4.678679e+000 -1.305237e+001 238 229 224
3.701322e+000 5.087142e+000 -1.294022e+001 232 221 217
3.746061e+000 5.165757e+000 -1.288624e+001 249 238 235
3.746071e+000 4.929672e+000 -1.287036e+001 249 238 234
3.771416e+000 5.364785e+000 -1.284894e+001 255 248 247
3.804191e+000 5.197908e+000 -1.269315e+001 248 237 233
3.855186e+000 5.280635e+000 -1.270752e+001 250 238 234
3.746742e+000 4.389734e+000 -1.301510e+001 253 245 238
3.885866e+000 5.304479e+000 -1.257199e+001 245 235 233
3.860631e+000 5.176197e+000 -1.247564e+001 247 234 231
3.956227e+000 5.161126e+000 -1.242581e+001 223 212 208
3.917908e+000 5.386945e+000 -1.251297e+001 227 216 212
3.917908e+000 5.386945e+000 -1.251297e+001 227 216 212
3.907761e+000 5.369362e+000 -1.244950e+001 234 221 218
4.010255e+000 5.433256e+000 -1.248671e+001 254 249 243
3.957552e+000 5.263109e+000 -1.243903e+001 227 216 212
4.049787e+000 5.291781e+000 -1.239018e+001 250 239 236
3.998952e+000 5.372836e+000 -1.243472e+001 228 217 211
3.804021e+000 4.169500e+000 -1.287832e+001 239 230 223
3.857051e+000 4.898865e+000 -1.248580e+001 242 234 228
3.990812e+000 4.706853e+000 -1.248162e+001 238 227 223
3.990812e+000 4.706853e+000 -1.248162e+001 238 227 223
4.022573e+000 4.932160e+000 -1.242779e+001 249 238 234
4.029641e+000 5.003438e+000 -1.239470e+001 251 240 236
3.992856e+000 5.120830e+000 -1.241464e+001 225 214 212
4.060930e+000 5.126216e+000 -1.239854e+001 223 212 210
3.962690e+000 5.071753e+000 -1.226811e+001 230 220 216
3.986163e+000 4.921271e+000 -1.239149e+001 222 208 205
3.978378e+000 5.009134e+000 -1.231287e+001 221 213 205
4.044969e+000 4.846131e+000 -1.230510e+001 242 229 226
4.044969e+000 4.846131e+000 -1.230510e+001 242 229 226
4.066568e+000 4.931899e+000 -1.234581e+001 240 228 224
4.183482e+000 5.310929e+000 -1.229444e+001 241 230 226
4.111203e+000 5.101041e+000 -1.233335e+001 224 215 210
4.130403e+000 5.119856e+000 -1.234314e+001 220 210 205
4.195855e+000 5.190396e+000 -1.217499e+001 248 235 232
8.506887e-001 2.235430e+000 -1.188503e+001 111 47 47
4.036015e+000 4.684239e+000 -1.232846e+001 242 231 227
4.085729e+000 4.577201e+000 -1.228655e+001 218 207 203
4.155998e+000 4.530335e+000 -1.232914e+001 241 230 226
4.155998e+000 4.530335e+000 -1.232914e+001 241 230 226
4.065830e+000 4.865914e+000 -1.228555e+001 245 234 232
4.156285e+000 4.855449e+000 -1.226799e+001 219 208 204
4.189765e+000 4.892615e+000 -1.222447e+001 228 217 215
4.176192e+000 4.885522e+000 -1.218250e+001 241 231 226
4.177112e+000 4.958934e+000 -1.214883e+001 248 239 235
4.119816e+000 4.965727e+000 -1.207969e+001 221 213 207
4.184689e+000 4.860510e+000 -1.218087e+001 222 212 204
4.267173e+000 4.798232e+000 -1.211446e+001 216 207 202
4.177230e+000 4.896982e+000 -1.201817e+001 244 233 229
4.163449e+000 5.173602e+000 -1.202990e+001 251 240 236
4.241548e+000 5.197801e+000 -1.203050e+001 220 209 203
4.283196e+000 5.160954e+000 -1.203064e+001 237 227 220
4.220152e+000 4.960734e+000 -1.199357e+001 240 226 223
4.230907e+000 4.986135e+000 -1.195004e+001 252 243 238
4.267363e+000 5.103202e+000 -1.205637e+001 217 207 200
4.407714e+000 4.992634e+000 -1.208857e+001 246 235 229
4.067072e+000 4.299565e+000 -1.221972e+001 233 224 216
4.067072e+000 4.299565e+000 -1.221972e+001 233 224 216
4.169076e+000 4.363725e+000 -1.220622e+001 236 227 220
4.210585e+000 4.590080e+000 -1.218021e+001 224 211 207
4.387968e+000 4.925634e+000 -1.187088e+001 215 204 198
4.284891e+000 4.217477e+000 -1.192017e+001 236 227 220
4.360002e+000 4.405571e+000 -1.193120e+001 219 210 203
4.356996e+000 4.395555e+000 -1.189851e+001 239 226 220
4.368997e+000 4.528877e+000 -1.182468e+001 243 234 227
4.408955e+000 4.511557e+000 -1.186072e+001 243 234 227
4.438726e+000 4.626245e+000 -1.188399e+001 220 211 206
4.386272e+000 4.731037e+000 -1.171377e+001 237 226 219
4.456208e+000 4.458758e+000 -1.177169e+001 215 206 199
4.489093e+000 4.508252e+000 -1.169605e+001 245 236 230
4.425900e+000 4.607703e+000 -1.164336e+001 239 230 224
4.394250e+000 4.854085e+000 -1.167351e+001 244 234 225
4.470197e+000 4.868934e+000 -1.174023e+001 215 204 200
4.528726e+000 4.877104e+000 -1.167710e+001 237 227 219
4.492768e+000 4.868602e+000 -1.156553e+001 217 206 201
4.541450e+000 4.902732e+000 -1.153051e+001 212 201 195
4.500697e+000 3.940922e+000 -1.177382e+001 230 221 214
4.529552e+000 4.067601e+000 -1.166339e+001 229 220 213
4.555479e+000 4.156296e+000 -1.159264e+001 224 215 208
4.567268e+000 4.718837e+000 -1.157866e+001 198 189 185
4.592935e+000 4.660822e+000 -1.142044e+001 235 224 218
4.600088e+000 3.966456e+000 -1.170062e+001 231 222 215
4.511113e+000 4.132329e+000 -1.152656e+001 211 202 195
4.637897e+000 4.117667e+000 -1.161579e+001 209 202 192
4.743991e+000 4.160699e+000 -1.133972e+001 228 218 211
4.743991e+000 4.160699e+000 -1.133972e+001 228 218 211
4.688168e+000 4.463581e+000 -1.141066e+001 206 195 189
4.833255e+000 4.094227e+000 -1.128750e+001 224 219 211
4.815526e+000 4.056045e+000 -1.118761e+001 230 221 214
4.783330e+000 4.456657e+000 -1.116185e+001 245 236 229
4.783330e+000 4.456657e+000 -1.116185e+001 245 236 229
4.762758e+000 4.414988e+000 -1.111060e+001 233 222 216
4.825066e+000 4.192462e+000 -1.097814e+001 248 237 231
4.968331e+000 4.160046e+000 -1.086314e+001 205 196 191
5.051156e+000 4.136431e+000 -1.085891e+001 245 234 231
5.030625e+000 4.172012e+000 -1.085020e+001 207 196 192
5.177303e+000 4.281002e+000 -1.060789e+001 233 220 216
5.213021e+000 3.535174e+000 -1.073368e+001 215 204 198
2.810353e+000 4.348054e+000 -1.438746e+001 241 236 230
3.196106e+000 5.445947e+000 -1.361138e+001 233 222 218
3.466190e+000 4.770042e+000 -1.327905e+001 253 246 240
3.607452e+000 5.115870e+000 -1.303215e+001 254 249 247
3.593831e+000 4.456652e+000 -1.334543e+001 244 235 230
3.775680e+000 4.999084e+000 -1.293364e+001 223 212 208
3.633619e+000 5.276608e+000 -1.273130e+001 254 243 241
3.594670e+000 3.999868e+000 -1.332504e+001 242 235 229
3.940849e+000 5.130208e+000 -1.240840e+001 254 248 245
3.935321e+000 5.182228e+000 -1.243281e+001 252 244 239
3.935321e+000 5.182228e+000 -1.243281e+001 252 244 239
3.921579e+000 5.319842e+000 -1.253086e+001 254 243 239
-1.637710e+000 1.796592e+000 -1.086527e+001 179 69 72
3.849176e+000 4.708609e+000 -1.259550e+001 245 232 230
3.965525e+000 4.437222e+000 -1.269642e+001 242 233 228
4.007030e+000 4.901842e+000 -1.245356e+001 245 234 230
4.033035e+000 4.894380e+000 -1.239863e+001 241 228 225
4.044428e+000 4.953053e+000 -1.227469e+001 222 209 209
4.045789e+000 5.201178e+000 -1.234513e+001 224 213 209
4.161296e+000 5.315911e+000 -1.231961e+001 221 210 206
4.010936e+000 4.490486e+000 -1.230083e+001 248 239 234
4.071615e+000 4.487975e+000 -1.237651e+001 215 205 203
4.093495e+000 4.751559e+000 -1.228836e+001 255 247 242
4.093495e+000 4.751559e+000 -1.228836e+001 255 247 242
5.491756e-001 2.114889e+000 -1.147464e+001 221 106 107
4.363858e+000 4.343851e+000 -1.181139e+001 230 221 214
4.464380e+000 4.464735e+000 -1.180913e+001 243 234 227
4.475529e+000 4.788250e+000 -1.178382e+001 217 206 200
4.469561e+000 4.777569e+000 -1.168131e+001 214 203 199
4.627695e+000 4.834236e+000 -1.156402e+001 215 204 198
4.527739e+000 4.419213e+000 -1.153672e+001 239 230 225
4.634596e+000 4.821367e+000 -1.147127e+001 207 197 188
4.634596e+000 4.821367e+000 -1.147127e+001 207 197 188
4.873118e+000 4.118860e+000 -1.111943e+001 204 193 187
5.017951e+000 4.314412e+000 -1.096577e+001 209 198 194
5.053501e+000 4.103329e+000 -1.086946e+001 211 202 196
3.497394e+000 4.795859e+000 -1.330176e+001 229 219 215
3.613074e+000 5.260047e+000 -1.313363e+001 252 251 246
3.714740e+000 4.874706e+000 -1.300950e+001 227 216 212
3.877034e+000 5.526117e+000 -1.261889e+001 235 223 219
3.738271e+000 4.226763e+000 -1.305355e+001 238 229 224
3.911941e+000 5.441270e+000 -1.251273e+001 220 210 206
3.879111e+000 4.235574e+000 -1.268387e+001 241 232 227
4.079562e+000 5.071376e+000 -1.228908e+001 221 209 207
4.074369e+000 5.074943e+000 -1.228476e+001 221 209 207
4.059968e+000 4.626508e+000 -1.240853e+001 224 213 209
4.205999e+000 4.875568e+000 -1.199972e+001 217 206 200
4.308200e+000 4.984502e+000 -1.205416e+001 217 206 202
4.575915e+000 4.214465e+000 -1.166887e+001 212 203 196
3.773541e+000 5.245319e+000 -1.278596e+001 255 245 243
-2.356616e+000 -1.223051e-002 -1.046293e+001 176 34 44
-1.259467e+000 1.540917e+000 -1.009005e+001 80 14 21
1.478475e+000 1.974931e+000 -1.077038e+001 136 40 39
1.479998e+000 1.977473e+000 -1.077068e+001 136 40 39
-1.184877e+000 -6.493674e-001 -9.673568e+000 185 173 169
-2.059794e+000 2.845806e-001 -1.005853e+001 157 20 32
-1.960279e+000 3.956943e-002 -1.002003e+001 174 74 73
-2.030555e+000 -2.974779e-001 -1.003893e+001 177 167 162
-9.388603e-001 1.384434e+000 -9.573263e+000 179 65 62
-1.540944e+000 -3.948646e-001 -9.897984e+000 171 69 67
-1.532065e+000 -4.381397e-001 -9.926787e+000 171 69 67
2.130735e+000 1.439651e+000 -1.312564e+001 159 125 71
2.319748e-001 1.787562e+000 -1.114098e+001 109 42 43
5.573913e-001 1.741811e+000 -1.213614e+001 169 55 55
2.963175e+000 1.459167e+000 -1.401106e+001 228 218 207
-1.587001e+000 -5.233101e-001 -9.889136e+000 94 29 30
-1.032374e+000 -8.449719e-001 -9.599057e+000 251 211 79
-2.265314e+000 1.069814e+000 -1.173019e+001 136 44 52
-2.059155e+000 1.218147e+000 -1.042101e+001 130 21 28
1.378999e+000 1.549833e+000 -1.071137e+001 122 38 38
-7.260552e-001 1.819310e+000 -1.204491e+001 128 57 60
1.954977e+000 1.510903e+000 -1.266053e+001 121 57 55
1.954977e+000 1.510903e+000 -1.266053e+001 121 57 55
-1.599081e+000 -5.259723e-001 -9.720113e+000 181 171 169
1.785729e+000 1.806957e+000 -1.305147e+001 216 209 199
-2.492197e+000 5.530281e-001 -1.051527e+001 161 24 36
1.275752e+000 1.565503e+000 -1.086132e+001 81 48 33
1.501686e+000 9.925888e-001 -1.093498e+001 76 31 34
-1.660968e+000 -4.661474e-001 -9.957410e+000 141 37 41
1.651326e+000 2.518097e-001 -1.117432e+001 183 180 173
-2.655055e+000 4.812474e-001 -1.135343e+001 197 187 185
-1.491748e-001 1.752199e+000 -1.214619e+001 216 213 208
3.508752e+000 1.593345e+000 -1.372225e+001 213 203 193
2.189433e+000 1.604937e+000 -1.360446e+001 219 212 203
5.792015e+000 1.846808e+000 -1.328524e+001 213 204 195
-6.440075e-001 7.527011e-001 -1.116655e+001 85 20 26
3.584811e+000 4.501238e+000 -1.298362e+001 245 236 231
-7.977749e-001 1.655402e+000 -1.226758e+001 131 64 63
-1.912675e+000 -5.203934e-002 -1.003626e+001 178 67 70
1.580893e+000 2.110710e+000 -1.099961e+001 144 108 53
2.083604e+000 1.422993e+000 -1.016461e+001 76 109 111
2.244667e+000 1.438359e+000 -1.024668e+001 74 91 90
-7.032047e-001 2.068120e+000 -1.179580e+001 150 80 75
5.158338e-001 2.015923e+000 -1.169967e+001 153 67 70
1.254732e+000 3.670491e-001 -1.141639e+001 30 35 41
7.621398e-001 2.167493e+000 -1.142841e+001 184 76 74
1.440156e+000 1.892554e+000 -1.066415e+001 170 47 46
1.951788e+000 1.264606e+000 -1.016164e+001 54 89 91
-2.100018e+000 1.725575e+000 -1.087037e+001 166 53 60
3.294180e-001 2.183881e+000 -1.178683e+001 228 105 107
3.294180e-001 2.183881e+000 -1.178683e+001 228 105 107
-2.189976e+000 1.156737e+000 -1.037311e+001 211 91 90
5.356100e-001 2.134796e+000 -1.145793e+001 228 112 111
-1.789950e+000 7.073703e-001 -9.831874e+000 195 61 64
-9.206596e-001 8.501936e-001 -9.369327e+000 205 149 48
1.128742e+000 1.433986e+000 -1.014511e+001 194 77 78
1.115224e+000 1.458978e+000 -1.012971e+001 194 77 78
-1.782274e+000 1.357147e+000 -1.027717e+001 171 67 69
6.033942e-001 1.098422e+000 -1.201844e+001 105 46 51
-1.092212e+000 1.638019e+000 -1.005426e+001 192 75 73
8.651218e-002 1.296677e+000 -9.716340e+000 125 106 51
1.187389e+000 1.580943e+000 -1.019054e+001 200 99 95
1.753850e+000 1.378409e+000 -9.987829e+000 106 107 108
-1.522240e+000 1.856510e+000 -1.019339e+001 178 39 42
-2.086550e+000 7.275631e-001 -1.018469e+001 215 146 130
-6.458266e-001 2.040828e+000 -1.184984e+001 218 218 208
1.028017e+000 2.294963e+000 -1.192260e+001 157 124 73
-2.132605e+000 1.196655e+000 -1.031625e+001 209 82 81
-2.132605e+000 1.196655e+000 -1.031625e+001 209 82 81
-2.745652e+000 2.099058e+000 -8.885462e+000 199 53 54
-9.256119e-001 1.843733e+000 -1.007106e+001 192 74 75
-9.987132e-001 1.392889e+000 -9.655582e+000 186 84 77
-1.032616e-001 1.315944e+000 -9.657995e+000 75 83 60
1.823582e-001 1.868783e+000 -1.106327e+001 108 47 46
9.817975e-001 1.683616e+000 -1.139687e+001 166 124 60
1.362575e+000 1.544636e+000 -1.103227e+001 108 53 35
-6.871067e-001 1.227127e+000 -9.257186e+000 231 197 74
-6.924673e-001 1.237724e+000 -9.251165e+000 231 197 74
-8.729133e-001 -8.456462e-001 -9.562949e+000 131 82 42
-1.645813e+000 1.840227e+000 -1.092582e+001 194 70 71
-1.475597e+000 1.026181e+000 -9.701326e+000 123 22 31
-9.037706e-001 1.741488e+000 -9.951896e+000 104 22 28
-1.711180e+000 1.810944e+000 -1.042978e+001 197 63 64
-1.796564e+000 1.728242e+000 -1.081259e+001 107 29 35
1.442911e+000 1.489884e+000 -1.104227e+001 106 61 39
3.225696e+000 6.409139e+000 -1.383038e+001 212 202 200
1.337735e+000 1.235650e+000 -1.153001e+001 76 39 25
1.713152e+000 1.941541e-001 -1.171015e+001 62 73 74
1.248442e+000 1.693766e+000 -1.087475e+001 101 43 29
3.199913e+000 6.204598e+000 -1.357679e+001 242 234 230
3.240027e+000 6.060968e+000 -1.353234e+001 253 249 245
3.229965e+000 6.023996e+000 -1.344536e+001 244 233 229
3.259058e+000 6.088023e+000 -1.339413e+001 241 231 226
3.303782e+000 5.729089e+000 -1.344378e+001 244 235 228
3.347751e+000 5.625582e+000 -1.343070e+001 245 237 232
3.401662e+000 5.847275e+000 -1.321233e+001 240 232 228
3.543574e+000 5.763359e+000 -1.316944e+001 255 251 249
3.533438e+000 5.791297e+000 -1.303581e+001 255 249 247
3.605943e+000 5.779026e+000 -1.305862e+001 255 251 248
3.621199e+000 5.753030e+000 -1.302079e+001 254 247 242
3.608284e+000 5.792032e+000 -1.299056e+001 241 230 227
3.567405e+000 5.262850e+000 -1.319205e+001 252 249 244
3.568225e+000 5.189623e+000 -1.302755e+001 239 229 227
3.607435e+000 5.285742e+000 -1.304506e+001 253 247 244
3.647391e+000 5.254986e+000 -1.291129e+001 235 226 220
3.658410e+000 5.664003e+000 -1.285300e+001 237 223 222
3.630914e+000 4.737157e+000 -1.292594e+001 226 217 212
3.630914e+000 4.737157e+000 -1.292594e+001 226 217 212
3.750698e+000 5.123164e+000 -1.298998e+001 248 237 233
3.781595e+000 5.330642e+000 -1.274621e+001 253 242 237
3.781595e+000 5.330642e+000 -1.274621e+001 253 242 237
3.772496e+000 5.326045e+000 -1.269972e+001 235 224 221
3.865353e+000 5.273176e+000 -1.278459e+001 251 243 241
3.866836e+000 5.398848e+000 -1.265007e+001 252 242 237
3.767936e+000 4.787294e+000 -1.280348e+001 223 214 209
3.756298e+000 4.854278e+000 -1.283512e+001 244 236 231
3.872659e+000 4.896713e+000 -1.286058e+001 242 232 227
3.865767e+000 5.014130e+000 -1.262760e+001 249 237 234
3.887190e+000 4.993022e+000 -1.258984e+001 247 233 230
3.893082e+000 4.977190e+000 -1.256642e+001 229 218 214
3.893082e+000 4.977190e+000 -1.256642e+001 229 218 214
3.871526e+000 5.118193e+000 -1.258647e+001 230 219 215
3.900717e+000 5.132104e+000 -1.259701e+001 253 243 239
3.929801e+000 5.336032e+000 -1.262463e+001 253 242 240
3.925445e+000 4.562979e+000 -1.268097e+001 234 225 220
3.931740e+000 4.606729e+000 -1.263046e+001 241 232 227
3.884161e+000 4.456134e+000 -1.256029e+001 219 210 205
3.989549e+000 4.641243e+000 -1.243360e+001 226 215 211
4.231264e+000 4.564851e+000 -1.223855e+001 239 228 224
4.232982e+000 4.486150e+000 -1.227759e+001 217 207 201
4.274378e+000 4.134514e+000 -1.209334e+001 232 223 216
4.306703e+000 4.200935e+000 -1.206124e+001 237 228 221
4.446661e+000 4.097365e+000 -1.196608e+001 241 232 225
3.178065e+000 6.130355e+000 -1.350815e+001 254 248 245
3.312840e+000 5.952614e+000 -1.347683e+001 255 252 247
3.274133e+000 5.966718e+000 -1.337814e+001 230 221 216
3.274133e+000 5.966718e+000 -1.337814e+001 230 221 216
3.520051e+000 5.423277e+000 -1.320062e+001 254 252 249
3.520051e+000 5.423277e+000 -1.320062e+001 254 252 249
3.534080e+000 5.307067e+000 -1.313033e+001 235 224 221
3.624963e+000 5.496184e+000 -1.303785e+001 254 249 244
3.738370e+000 5.480716e+000 -1.285698e+001 255 251 248
3.710323e+000 5.639412e+000 -1.274377e+001 248 238 236
3.649937e+000 4.858505e+000 -1.298599e+001 250 241 237
3.632319e+000 5.032791e+000 -1.302281e+001 229 220 215
3.759820e+000 4.963187e+000 -1.282319e+001 254 245 238
3.715397e+000 5.069501e+000 -1.285675e+001 255 250 247
3.711979e+000 5.095814e+000 -1.288104e+001 234 222 216
3.744485e+000 5.364212e+000 -1.278571e+001 237 223 220
3.810853e+000 5.517379e+000 -1.274008e+001 255 252 251
3.853515e+000 5.409262e+000 -1.277544e+001 228 217 215
3.705216e+000 4.701499e+000 -1.283069e+001 243 234 229
3.849665e+000 4.834213e+000 -1.263340e+001 226 217 212
3.975022e+000 5.030010e+000 -1.253061e+001 226 215 213
3.975022e+000 5.030010e+000 -1.253061e+001 226 215 213
4.054704e+000 5.389256e+000 -1.253951e+001 233 223 221
4.054704e+000 5.389256e+000 -1.253951e+001 233 223 221
3.750810e+000 4.387175e+000 -1.279385e+001 244 235 230
4.187724e+000 4.502222e+000 -1.232734e+001 219 208 203
4.241616e+000 4.079530e+000 -1.221647e+001 232 223 216
4.175061e+000 3.915985e+000 -1.211206e+001 237 228 221
4.516811e+000 4.433874e+000 -1.195651e+001 215 206 199
3.844534e+000 5.527477e+000 -1.266353e+001 227 216 212
3.844534e+000 5.527477e+000 -1.266353e+001 227 216 212
3.930107e+000 5.317036e+000 -1.258749e+001 229 218 215
3.847707e+000 4.660102e+000 -1.258835e+001 221 212 207
3.847707e+000 4.660102e+000 -1.258835e+001 221 212 207
4.286454e+000 5.043612e+000 -1.232132e+001 240 229 225
-1.592731e+000 1.366347e+000 -9.994398e+000 118 16 27
-2.221300e+000 1.075970e+000 -1.041451e+001 223 112 105
-1.802320e+000 6.740461e-001 -9.895822e+000 195 61 68
-1.552653e+000 1.274219e+000 -9.942764e+000 201 79 78
1.885357e+000 1.812751e+000 -1.027540e+001 93 106 108
-1.787429e+000 1.251216e+000 -1.030926e+001 186 86 86
8.402878e-001 2.295898e+000 -1.180408e+001 153 119 68
-1.829776e+000 8.476373e-001 -9.890655e+000 148 54 60
1.724188e+000 2.158533e+000 -1.151205e+001 133 66 64
-1.155955e+000 1.161533e+000 -9.616044e+000 197 88 83
-1.920918e+000 1.221503e+000 -1.032621e+001 133 29 37
-5.355520e-001 1.310570e+000 -9.660352e+000 137 106 54
-1.985004e+000 1.489702e+000 -1.043887e+001 185 41 45
-1.665860e+000 1.295822e+000 -9.940845e+000 123 28 31
1.148641e+000 1.951063e+000 -1.119135e+001 216 169 64
-2.020311e+000 1.313487e+000 -1.183135e+001 201 83 85
-2.083591e+000 1.204164e+000 -1.021638e+001 190 64 64
-1.579343e+000 1.938048e+000 -1.055781e+001 193 63 63
-1.646433e+000 1.505818e+000 -1.012729e+001 207 72 76
-1.554795e+000 1.235708e+000 -9.700391e+000 206 56 59
-1.339055e+000 4.911099e-001 -9.569371e+000 151 30 38
1.393014e+000 1.805103e+000 -1.037557e+001 168 60 59
1.876677e+000 1.852288e+000 -1.032062e+001 89 36 41
-2.352996e+000 1.183357e+000 -1.117028e+001 158 40 46
-2.171567e+000 1.404066e+000 -1.064775e+001 202 61 66
-1.801810e+000 1.611055e+000 -1.025932e+001 196 65 66
-1.801810e+000 1.611055e+000 -1.025932e+001 196 65 66
3.918330e-001 2.224825e+000 -1.183780e+001 151 50 52
-1.548199e+000 1.047750e+000 -9.768726e+000 157 27 34
-1.156548e+000 9.092662e-001 -9.431106e+000 176 65 60
3.713210e-002 1.282879e+000 -9.672789e+000 52 61 59
-1.671809e+000 1.362786e+000 -1.015585e+001 161 33 39
-1.394029e+000 1.753186e+000 -1.026693e+001 154 36 40
4.841496e-001 2.156761e+000 -1.171814e+001 118 35 43
-7.805330e-001 3.684718e-001 -9.343989e+000 98 36 42
-7.732340e-001 7.758499e-001 -9.282608e+000 128 77 43
-7.415254e-001 1.157382e+000 -9.221238e+000 126 78 39
-7.415254e-001 1.157382e+000 -9.221238e+000 126 78 39
-4.224748e-001 1.297731e+000 -9.375521e+000 136 106 55
-1.200448e-001 1.260518e+000 -9.581457e+000 54 58 59
1.529093e+000 1.281131e+000 -1.010686e+001 152 147 145
