ply
format ascii 1.0
element face 0
property list uchar int vertex_indices
element vertex 881
property float x
property float y
property float z
property uchar diffuse_red
property uchar diffuse_green
property uchar diffuse_blue
end_header
1.859549e+000 -1.672363e+000 -1.251217e+001 128 88 59
4.137264e+000 -4.104657e+000 -1.231086e+001 254 247 240
2.433766e+000 1.337454e+000 -1.013200e+001 223 222 215
-2.063743e-002 6.011004e-001 -9.603177e+000 70 63 46
-1.366825e+000 -8.392511e-002 -9.342793e+000 188 80 79
-2.355429e+000 -3.947585e-001 -1.030110e+001 203 95 96
-2.297709e+000 -5.107926e-001 -1.012581e+001 173 47 51
1.539468e+000 2.050510e+000 -1.007639e+001 229 216 210
2.310744e+000 1.323220e+000 -1.019450e+001 132 155 145
-9.733716e-001 1.200827e+000 -9.354191e+000 253 219 95
-9.233576e-001 8.676156e-001 -9.116183e+000 167 111 40
-1.337520e+000 2.939765e-001 -9.299814e+000 199 85 85
-2.594999e-001 -1.861767e-001 -9.553131e+000 128 102 55
-1.904841e+000 -8.072598e-002 -9.594924e+000 185 84 82
-2.720191e-001 -1.018325e+000 -1.002292e+001 129 99 53
-2.716515e-001 -1.007523e+000 -1.003578e+001 129 99 53
-1.204727e+000 -1.030720e+000 -1.010987e+001 130 64 66
-1.814698e+000 -1.230617e+000 -1.113782e+001 193 96 94
2.411273e+000 1.350863e+000 -1.020335e+001 81 95 100
2.441416e+000 1.405544e+000 -1.026399e+001 81 95 100
-1.556549e+000 1.576289e+000 -9.735060e+000 225 224 215
-2.691645e+000 -1.807414e+000 -7.400761e+000 180 43 52
-2.767460e+000 1.947157e-001 -1.067576e+001 220 73 79
-1.622527e+000 -1.230102e+000 -1.033730e+001 201 92 93
2.538953e+000 1.376194e+000 -1.079520e+001 232 225 215
-6.924257e-001 1.341109e+000 -9.080639e+000 145 105 65
-2.815524e-001 -2.814847e-001 -9.535583e+000 60 59 55
1.619502e+000 -8.977814e-001 -1.240956e+001 78 39 40
-1.345378e+000 6.040801e-001 -9.310559e+000 205 96 89
-2.109119e+000 -1.312264e-001 -9.875700e+000 216 104 100
-1.098615e+000 -9.419304e-001 -9.442115e+000 253 211 97
-1.858432e+000 -7.296162e-001 -9.802503e+000 255 206 203
-1.858432e+000 -7.296162e-001 -9.802503e+000 255 206 203
-1.225854e+000 -1.228815e+000 -1.015275e+001 112 39 46
-1.224850e+000 -1.230262e+000 -1.015069e+001 112 39 46
-2.040846e+000 -9.586169e-001 -1.077372e+001 209 100 98
-1.724495e+000 -1.186000e+000 -1.032787e+001 125 43 50
1.809996e+000 -1.534181e+000 -1.249043e+001 133 101 59
1.786516e+000 -1.793985e+000 -1.261555e+001 168 142 89
-2.100041e+000 5.251632e-001 -9.897695e+000 138 37 46
-1.400956e+000 -1.279514e+000 -1.028597e+001 93 37 43
-1.072333e+000 1.194596e+000 -9.388408e+000 143 52 49
-6.989876e-001 -1.311738e-001 -9.233078e+000 110 50 45
-2.341697e+000 6.537598e-001 -1.033938e+001 148 39 50
1.539957e+000 -1.093538e+000 -1.235783e+001 128 93 51
-2.347671e+000 1.105314e+000 -1.034663e+001 168 41 55
-2.601678e+000 7.467137e-001 -1.072944e+001 177 42 56
2.393554e+000 -1.165641e+000 -1.282659e+001 168 133 91
1.953269e+000 -1.220276e+000 -1.261035e+001 101 46 49
3.656006e+000 -1.557857e+000 -1.400482e+001 87 75 75
-9.875821e-001 -6.841260e-001 -9.361422e+000 173 110 46
-4.759797e+000 1.767567e+001 -2.831333e+001 215 211 202
-2.561252e+001 -1.784946e+001 -5.100447e+001 97 96 107
-2.410441e+001 -1.446117e+001 -4.865594e+001 87 77 78
-1.394544e+000 1.680363e+000 -1.007490e+001 151 57 64
-2.153346e+001 -2.062066e+001 -4.546972e+001 59 57 64
-1.973517e+000 1.031994e+000 -9.768181e+000 188 71 75
-1.973819e+000 1.029241e+000 -9.780418e+000 188 71 75
-1.119297e+000 7.531085e-001 -9.277472e+000 127 62 38
-2.444954e+001 -1.568311e+001 -4.947561e+001 98 95 99
-1.978681e+001 -1.638079e+001 -4.264695e+001 67 73 96
-2.092020e+000 9.961817e-001 -9.937004e+000 137 32 38
-2.534293e+001 -1.463830e+001 -5.147470e+001 110 105 102
-2.257941e+001 -2.296751e+001 -4.478105e+001 54 52 59
-1.063268e+001 -1.530697e+001 -3.373505e+001 52 53 57
-1.063268e+001 -1.530697e+001 -3.373505e+001 52 53 57
-2.228201e+001 -2.240083e+001 -4.510659e+001 129 126 133
-1.130217e+000 5.923462e-001 -9.275496e+000 100 28 36
-7.902151e-001 -4.916343e-001 -9.202669e+000 120 85 47
-2.045585e+001 -1.741743e+001 -4.363448e+001 151 149 150
-4.252595e+001 7.248153e+001 -1.040555e+002 91 99 136
-4.240983e+001 7.223377e+001 -1.037348e+002 91 99 136
2.411267e+000 1.786834e+000 -1.015649e+001 229 220 215
-1.873009e+001 9.788640e+001 -8.658263e+001 81 66 87
-1.817625e+001 7.822046e+001 -7.322068e+001 68 75 83
-1.855155e-001 1.084648e+000 -9.534248e+000 60 70 61
1.976692e+000 9.114264e-001 -1.109285e+001 148 118 78
-9.468500e-001 1.353535e+000 -9.109026e+000 210 187 119
-9.468500e-001 1.353535e+000 -9.109026e+000 210 187 119
2.576102e+000 1.815676e+000 -1.078505e+001 136 137 131
-2.045067e-001 6.058129e-001 -9.536208e+000 113 100 72
2.320509e-001 1.780765e-001 -9.814417e+000 125 94 48
-8.335059e-001 1.348373e+000 -9.123084e+000 224 190 85
-2.614528e+000 3.526912e-002 -1.065744e+001 202 96 94
1.553340e+000 2.169011e+000 -1.023557e+001 173 67 71
1.962859e+000 2.241642e+000 -1.037517e+001 214 204 197
1.958943e+000 2.249971e+000 -1.036988e+001 210 204 197
-9.488264e-001 4.817447e-001 -9.080082e+000 237 184 97
1.712191e+000 1.314378e-001 -1.142437e+001 64 71 71
-2.641331e+000 1.109518e-001 -1.078076e+001 205 87 87
-2.064726e+000 -7.851550e-001 -1.060010e+001 136 39 47
-2.292187e+000 -2.369037e-001 -1.231609e+001 231 227 217
1.418957e+000 -1.698116e+000 -1.327077e+001 168 138 87
-1.656237e+000 1.409588e+000 -9.625077e+000 188 59 62
-2.011644e+000 6.674307e-001 -9.619027e+000 208 74 78
-2.404598e-001 -9.223452e-001 -9.637700e+000 93 97 69
-9.019085e-001 -9.812976e-001 -9.610806e+000 136 105 58
-1.143745e+000 -1.294663e+000 -1.013123e+001 208 99 96
-1.979400e+000 -1.104781e+000 -1.095845e+001 200 93 95
-1.567855e+000 9.859615e-001 -9.585475e+000 207 95 93
-1.550443e+000 1.046144e+000 -9.644203e+000 207 95 93
2.121912e+000 1.342374e+000 -1.168253e+001 129 90 53
3.323135e-001 -1.495882e+000 -1.244214e+001 161 75 78
7.170639e-001 -1.665086e+000 -1.199982e+001 106 44 49
1.699554e+000 2.066774e+000 -1.023989e+001 98 48 50
-8.415043e-001 1.255280e+000 -9.167723e+000 139 87 40
-1.399684e+000 1.500371e+000 -9.695001e+000 130 52 56
-1.341671e+000 6.145158e-001 -9.318089e+000 196 86 85
-1.379743e+000 1.712444e-001 -9.309036e+000 192 91 81
-2.110859e+000 -1.463352e-001 -9.860782e+000 197 89 89
-1.994065e+000 -1.159951e-002 -9.758976e+000 200 86 85
-1.657446e+000 -6.068849e-001 -9.701570e+000 207 93 89
-2.525334e+000 -1.444095e-001 -1.037956e+001 205 71 73
-1.401654e+000 -8.541424e-001 -9.780501e+000 93 30 39
-2.404959e+000 -3.542249e-001 -1.072566e+001 153 35 47
-2.518023e+000 -5.036561e-001 -1.094310e+001 220 84 86
-2.258078e+000 -7.393981e-001 -1.071933e+001 208 94 93
-1.028679e+000 1.176176e+000 -9.114164e+000 255 219 104
-9.485293e-001 -6.760730e-001 -9.174422e+000 253 218 92
-9.946867e-001 -8.469747e-001 -9.235709e+000 152 90 39
-2.376414e+000 -2.210434e-001 -1.030816e+001 128 38 46
-1.869118e+000 -4.127809e-001 -9.924066e+000 93 28 38
-2.304329e+000 -6.342258e-001 -1.043157e+001 218 92 93
-2.158184e+000 -6.787245e-001 -1.046714e+001 129 39 48
-1.922959e+000 -7.081648e-001 -1.013325e+001 127 34 40
-2.099236e-001 -3.208890e-001 -9.594881e+000 68 69 59
2.870103e-001 -8.061351e-001 -1.038968e+001 108 42 45
-1.983506e+000 -5.352970e-001 -9.956486e+000 111 32 37
-1.977304e+000 -9.134624e-001 -1.049360e+001 112 32 43
1.657318e+000 -1.665720e+000 -1.270974e+001 161 132 84
1.920390e+000 -1.727284e+000 -1.339023e+001 135 83 82
3.019700e+000 -1.506301e+000 -1.363024e+001 184 171 163
7.082250e-001 1.347760e+000 -9.960931e+000 219 215 206
3.783969e+000 -4.015409e-001 -1.253749e+001 75 59 60
4.873069e+000 5.107442e+000 -1.161190e+001 186 175 169
4.873069e+000 5.107442e+000 -1.161190e+001 186 175 169
-1.004699e+000 1.797184e+000 -1.008552e+001 141 54 51
-8.827135e-001 1.367307e+000 -9.398492e+000 179 129 46
2.258519e+000 1.655553e+000 -9.925760e+000 110 120 129
-8.474802e-001 9.823252e-001 -9.057590e+000 228 187 76
-2.294726e+000 -7.033493e-001 -1.044438e+001 188 73 75
-1.644029e+000 -1.837634e-001 -9.674936e+000 127 44 45
-5.262203e-001 1.968229e+000 -1.109406e+001 139 98 94
-1.145087e+000 1.443874e+000 -9.673821e+000 139 51 53
2.361339e+000 1.592602e+000 -9.957129e+000 73 83 86
-2.883793e-001 8.938346e-002 -9.457542e+000 91 68 32
3.975030e-001 2.360260e+000 -1.207025e+001 188 93 94
3.975030e-001 2.360260e+000 -1.207025e+001 188 93 94
3.083907e-001 2.316333e+000 -1.196790e+001 225 222 212
1.547026e+000 1.768937e+000 -1.007225e+001 157 71 72
7.856962e-001 2.203761e+000 -1.149512e+001 176 71 69
-2.640547e+000 1.177422e+000 -1.112140e+001 219 77 80
-8.916120e-001 -9.470094e-001 -9.201821e+000 130 98 57
1.546229e+000 2.135422e+000 -1.033348e+001 130 45 52
-1.992699e+000 1.076679e+000 -9.866396e+000 195 79 78
-1.473013e+000 1.432196e+000 -9.606686e+000 199 79 76
-8.701450e-001 -9.510178e-001 -9.240989e+000 129 97 58
-6.345117e+000 8.225350e-001 -2.816087e+001 48 46 49
-1.627264e+000 1.461679e+000 -9.818767e+000 206 91 84
-1.418388e+000 1.614505e+000 -1.003685e+001 178 82 81
-9.956738e-001 1.719690e+000 -1.007920e+001 116 36 42
-1.715843e+000 1.078146e+000 -9.739823e+000 106 27 33
-1.530809e+000 6.179975e-001 -9.437307e+000 101 26 38
-9.835635e-001 -2.259266e-001 -9.299671e+000 237 198 95
-3.214041e-001 -8.352527e-001 -9.706897e+000 62 67 60
2.553591e+000 -1.688017e+000 -1.298217e+001 223 216 209
-1.925000e+000 1.318904e+000 -1.011316e+001 217 76 79
-1.137161e+000 1.711014e+000 -9.925785e+000 203 84 84
1.011809e+000 2.103250e+000 -1.127474e+001 234 192 79
-1.543859e+000 1.304656e+000 -9.636400e+000 126 32 39
1.430801e+000 1.921602e+000 -1.001686e+001 200 77 80
-1.861173e+000 4.626005e-001 -9.556401e+000 111 27 37
-1.074489e+000 4.008637e-001 -9.251091e+000 197 72 69
-9.729396e-001 -4.351190e-001 -9.261768e+000 131 79 35
1.298658e+000 2.203292e+000 -1.112341e+001 232 195 90
-1.034725e+000 7.965142e-001 -9.164561e+000 251 213 84
-6.794015e+000 8.106020e-001 -2.797839e+001 88 87 92
-1.374120e+001 -1.969178e+001 -3.353256e+001 254 246 249
-1.557707e+001 -1.800838e+001 -3.484537e+001 60 60 71
-1.313543e+000 -1.458454e+000 -1.011635e+001 218 213 207
-4.927062e+001 1.231985e+002 -1.263488e+002 21 21 31
-1.435556e+001 4.679893e+001 -5.431410e+001 137 136 141
6.140026e-002 1.878896e-001 -9.718522e+000 125 93 45
1.916291e+000 2.192667e+000 -1.031337e+001 220 215 211
-9.385928e-001 4.736419e-001 -9.138970e+000 141 45 42
-7.379628e-001 -2.169367e-001 -9.245819e+000 137 92 61
-8.652893e-001 -9.876902e-001 -9.699591e+000 90 44 27
1.411380e+000 -1.218103e+000 -1.233003e+001 104 54 44
1.917226e+000 -1.389194e+000 -1.260102e+001 98 46 47
2.473510e+000 1.404786e+000 -1.035383e+001 220 218 210
-2.449290e+000 -1.469101e-001 -1.194838e+001 216 88 89
-2.563106e+000 -1.640226e-001 -1.198020e+001 233 229 218
2.071421e+000 1.643773e+000 -1.012315e+001 80 101 107
2.440754e+000 1.491838e+000 -1.036065e+001 137 162 159
5.607117e-001 -6.195280e-001 -1.014605e+001 135 99 49
1.981423e+000 5.944799e-001 -1.158423e+001 137 135 129
-2.019445e+000 -4.391328e-002 -9.807686e+000 195 70 71
-3.163663e-001 -1.006696e+000 -9.990872e+000 78 68 48
-1.848068e+000 -1.202903e+000 -1.056344e+001 193 89 90
4.498732e+000 -3.368875e+000 -1.205726e+001 217 205 199
1.877608e+000 -1.794865e+000 -1.274538e+001 124 77 69
-4.985789e-001 1.455915e+000 -9.258645e+000 132 106 76
1.645893e+000 2.194028e+000 -1.023449e+001 210 196 186
-8.070663e-001 6.025737e-001 -9.125027e+000 165 71 51
-2.101665e-001 6.741037e-001 -9.526753e+000 68 71 67
-2.136552e+000 -8.242691e-001 -1.049123e+001 187 84 85
1.593310e+000 -1.763845e+000 -1.246607e+001 160 129 82
1.540808e+000 1.681339e+000 -1.012660e+001 134 83 85
2.435122e+000 1.745897e+000 -1.067796e+001 106 104 100
-1.088593e+000 -5.154806e-001 -9.248622e+000 194 129 32
-1.577893e-001 -9.245383e-001 -9.655263e+000 91 81 58
-2.585012e+000 -2.990756e-001 -1.032826e+001 200 83 83
-2.095648e+000 -6.057020e-001 -1.037914e+001 175 69 68
-2.092709e+000 -8.244893e-001 -1.151753e+001 189 86 87
2.484296e+000 1.484284e+000 -1.032817e+001 82 100 99
-8.653018e-001 -9.023155e-001 -9.185836e+000 150 108 60
2.769125e-001 -6.101241e-001 -9.966394e+000 131 95 44
2.769125e-001 -6.101241e-001 -9.966394e+000 131 95 44
-2.633731e-001 -1.011300e+000 -1.003282e+001 132 103 55
-2.108156e+000 -8.372293e-001 -1.041891e+001 200 94 96
-2.325122e+000 -2.410171e-001 -1.204459e+001 193 94 96
1.526481e+000 2.133112e+000 -1.023172e+001 184 64 65
2.446593e+000 1.424237e+000 -1.016655e+001 222 218 208
-3.529009e-001 -9.963155e-001 -9.609964e+000 57 68 62
-1.853718e+000 -8.407688e-001 -1.008733e+001 206 89 88
-1.261913e+000 -1.296720e+000 -1.027979e+001 176 89 84
1.900793e-001 -9.858153e-001 -1.196041e+001 80 41 44
2.217018e+000 1.255900e+000 -1.071820e+001 112 78 43
2.544382e+000 1.212507e+000 -1.084706e+001 228 218 212
-6.260611e-001 8.211189e+000 -1.720044e+001 201 105 101
-6.260611e-001 8.211189e+000 -1.720044e+001 201 105 101
-1.272967e+000 -1.063778e+000 -1.001687e+001 87 30 36
1.882426e+000 -1.440436e+000 -1.263700e+001 124 95 56
-7.967422e-001 1.042782e+000 -9.138669e+000 236 202 91
-1.465874e+000 1.063405e+000 -9.526128e+000 197 73 73
-1.121982e+000 -1.002454e-001 -9.362709e+000 85 34 30
-9.512327e-001 -4.246644e-001 -9.229719e+000 148 86 36
-2.247434e+000 5.729559e-001 -9.899720e+000 202 71 76
-1.950189e+000 5.935251e-002 -9.651201e+000 122 31 40
-2.492119e+000 -3.671866e-001 -1.043959e+001 193 85 81
2.870850e+000 -8.210508e-001 -1.323142e+001 86 41 44
-2.276808e+000 -7.893193e-001 -1.065567e+001 202 94 91
-1.804100e+000 -1.229602e+000 -1.051437e+001 195 86 81
-6.763160e-001 -1.296841e+000 -1.193015e+001 228 225 216
2.337406e+000 1.882679e+000 -1.027214e+001 87 117 120
-1.065485e+000 1.194157e+000 -9.392175e+000 123 42 40
-1.094457e+000 7.438707e-001 -9.348022e+000 98 38 37
-1.033554e+000 -2.591825e-001 -9.093643e+000 124 40 32
-2.102992e+000 5.154479e-001 -9.890364e+000 124 32 39
-2.346628e+000 5.085149e-001 -1.020077e+001 138 32 44
-2.155079e+000 -2.422135e-001 -9.990333e+000 117 33 43
-1.869120e+000 -7.308523e-001 -9.772089e+000 221 95 99
-2.527460e+000 -1.320955e-001 -1.038879e+001 201 67 68
-2.536924e+000 -2.687160e-001 -1.071311e+001 210 85 85
-2.536924e+000 -2.687160e-001 -1.071311e+001 210 85 85
-2.401415e+000 -3.127286e-001 -1.077042e+001 147 32 44
-2.312023e+000 -6.534705e-001 -1.041303e+001 216 88 89
5.722191e-002 -1.251498e+000 -1.119310e+001 60 34 37
-2.060229e+000 -1.032891e+000 -1.068032e+001 198 82 85
-1.913523e+000 -1.111954e+000 -1.065259e+001 123 37 45
-1.635901e+000 3.410925e-001 -9.519151e+000 96 27 37
2.602633e+000 -9.705935e-001 -1.317099e+001 147 113 69
-3.420893e-001 -1.032832e+000 -1.216977e+001 129 75 75
-2.103090e+000 1.004604e+000 -9.902377e+000 137 35 42
-2.956945e-001 -8.072681e-001 -9.486295e+000 86 85 67
2.584263e+000 1.433970e+000 -1.064821e+001 226 218 209
2.391604e+000 -6.983731e-001 -1.281791e+001 109 74 44
1.681714e+000 -1.630892e+000 -1.275147e+001 154 124 74
-1.523907e+000 -8.465602e-001 -1.020976e+001 93 33 39
2.764461e+000 -1.742291e+000 -1.375421e+001 209 199 190
-9.964420e+000 1.627946e+001 -3.172120e+001 176 175 171
-9.905022e-001 1.215363e+000 -9.217675e+000 229 195 86
-7.327003e-001 8.452005e-001 -9.148932e+000 144 110 74
-6.711594e-001 -1.534610e-001 -9.282602e+000 109 70 58
-1.124215e+000 1.161692e-001 -9.294828e+000 195 78 78
-1.365913e+000 -6.603810e-001 -9.530171e+000 123 42 45
-1.363520e+000 -7.126511e-001 -9.520554e+000 198 92 88
-2.345027e+000 1.086902e+000 -1.012855e+001 218 180 183
-2.332474e-001 -1.000566e+000 -1.012360e+001 93 48 26
-1.787574e-001 -9.783150e-001 -1.014014e+001 135 99 56
-2.292819e+000 -3.183250e-001 -1.008758e+001 199 87 87
-2.180534e+000 -6.130907e-001 -1.036402e+001 137 59 61
-2.520925e+000 -6.432643e-001 -1.099249e+001 210 98 97
3.081390e+000 -4.634849e+000 -1.410096e+001 250 243 238
5.372403e+000 5.850871e+000 -1.247080e+001 201 194 184
2.163190e+000 2.094060e+000 -1.052953e+001 119 105 104
-9.751870e-001 1.300735e+000 -9.377887e+000 246 200 90
-9.967925e-001 -9.614381e-001 -9.625266e+000 97 45 28
-9.897217e-001 -1.021816e+000 -9.566401e+000 131 94 50
1.546955e+000 -9.204285e-002 -1.126032e+001 112 121 115
-1.870381e+000 -7.749120e-001 -9.870780e+000 180 43 48
-2.351015e+000 -3.734912e-001 -1.030986e+001 187 88 86
-2.351015e+000 -3.734912e-001 -1.030986e+001 187 88 86
-2.332162e+000 -5.891612e-001 -1.041526e+001 211 85 88
-1.876489e+000 -1.210423e+000 -1.036482e+001 172 45 48
2.359775e+000 -1.181393e+000 -1.302244e+001 102 55 39
3.581561e+000 -3.107472e+000 -1.365123e+001 218 207 201
-6.670787e-001 1.414948e+000 -9.147297e+000 138 106 86
-1.071004e+000 8.448690e-001 -9.342489e+000 103 43 29
-2.783697e-001 -2.732387e-001 -9.541884e+000 93 82 67
-1.626582e+000 -5.106674e-001 -9.676883e+000 203 92 88
1.700496e+000 -1.222274e-003 -1.191787e+001 67 47 47
1.700496e+000 -1.222274e-003 -1.191787e+001 67 47 47
-2.137544e+000 -6.573662e-001 -1.016517e+001 221 91 95
-2.097165e+000 -8.109673e-001 -1.044468e+001 210 101 100
-1.905446e+000 -1.203922e+000 -1.130097e+001 179 83 85
2.121492e+000 1.732412e+000 -1.025873e+001 85 119 120
2.220209e+000 1.645960e+000 -1.032976e+001 105 141 138
-1.110580e+000 -1.004380e+000 -9.541706e+000 120 43 32
-2.038535e+000 -6.782968e-003 -9.710200e+000 200 84 82
-1.623305e+000 -8.327810e-001 -9.803709e+000 225 112 110
-2.049810e+000 -7.461963e-001 -1.029713e+001 209 91 91
-1.984924e+000 -1.107998e+000 -1.137524e+001 205 98 96
-1.538528e+000 1.075519e+000 -9.665855e+000 192 91 86
-1.638945e+000 1.370107e+000 -9.835580e+000 159 37 43
6.143678e-001 -5.101525e-001 -1.014925e+001 158 133 93
5.281598e-001 -5.451641e-001 -1.054689e+001 142 101 57
-1.871650e+000 -8.859160e-001 -1.004979e+001 215 97 96
-2.042766e+000 -1.019727e+000 -1.100529e+001 98 33 41
-6.034450e-001 1.316705e+000 -9.196412e+000 141 112 80
1.499834e+000 1.660588e+000 -1.051601e+001 94 36 37
-2.091240e+000 5.754605e-001 -9.762213e+000 199 91 89
-1.530026e+000 -4.366394e-001 -9.489181e+000 138 33 41
-1.530026e+000 -4.366394e-001 -9.489181e+000 138 33 41
-2.296925e+000 6.673206e-001 -1.013339e+001 189 107 98
-2.660462e+000 1.341379e-001 -1.080611e+001 211 95 97
8.146539e-001 -1.714768e+000 -1.200636e+001 149 68 68
2.707902e+000 2.128094e+000 -1.083007e+001 152 172 163
1.403854e+000 9.074342e-001 -1.063412e+001 75 37 40
-1.632739e+000 7.376139e-001 -9.598597e+000 116 29 38
4.019589e-001 -7.105768e-001 -1.008581e+001 140 100 57
-2.286556e+000 1.518381e-001 -9.905514e+000 203 62 66
-2.343190e+000 5.145805e-001 -1.020655e+001 132 31 42
-2.524172e+000 1.413763e-001 -1.020787e+001 205 72 75
-2.203941e+000 -3.121823e-001 -1.000051e+001 124 37 44
-1.773133e+000 -8.151504e-001 -9.833057e+000 132 37 45
-2.614337e+000 1.308784e-001 -1.055670e+001 130 35 44
-2.523293e+000 -1.134144e-001 -1.040483e+001 197 66 70
-2.601465e+000 -2.536121e-001 -1.052833e+001 122 32 41
-2.140829e+000 -7.735448e-001 -1.146658e+001 130 42 52
-2.368396e+000 1.169296e-001 -1.023530e+001 133 33 41
-2.368396e+000 1.169296e-001 -1.023530e+001 133 33 41
2.040662e+000 -6.490439e-001 -1.274844e+001 75 36 37
-2.425143e+000 -3.869745e-001 -1.070652e+001 139 33 45
-2.069662e+000 -1.055630e+000 -1.065899e+001 199 75 78
-1.802939e+000 -1.224813e+000 -1.051833e+001 202 85 83
-1.910838e+000 -1.106888e+000 -1.065763e+001 117 31 39
1.324414e+000 1.882043e+000 -1.112587e+001 147 124 89
-1.574362e+000 1.345471e+000 -9.685292e+000 134 42 43
-8.092006e-002 -9.342451e-001 -1.010853e+001 142 109 56
-8.092006e-002 -9.342451e-001 -1.010853e+001 142 109 56
3.257540e+000 1.396589e+000 -1.302930e+001 206 193 185
5.942508e-001 -1.552882e+000 -1.201764e+001 146 53 57
9.210744e-002 1.211851e+000 -9.739269e+000 97 95 88
-1.728141e+000 -1.658258e-001 -9.553089e+000 101 28 35
3.692847e+000 1.341626e+000 -1.327995e+001 74 40 41
-1.931198e+000 -3.917934e-001 -1.001486e+001 101 29 32
-1.944702e+000 1.412540e+000 -9.772613e+000 217 207 198
-8.214751e-001 -1.263256e+000 -9.905137e+000 88 39 41
4.212438e+000 -1.390358e-001 -1.295820e+001 74 59 56
-9.523338e-001 -9.324284e-001 -9.234003e+000 207 183 88
-2.178140e+001 -1.247935e+001 -4.614348e+001 118 113 110
-1.392515e+001 -1.847490e+001 -3.329398e+001 33 30 38
-2.339559e+001 -1.439754e+001 -4.838582e+001 93 90 100
-1.798382e+000 1.582287e+000 -1.000377e+001 201 73 73
-1.231872e+000 1.777237e+000 -9.881119e+000 116 46 48
9.721492e-003 1.926404e+000 -1.082416e+001 104 52 49
-1.884186e+000 2.495334e-001 -9.592779e+000 197 84 83
-9.713754e-001 1.321159e+000 -9.234371e+000 252 202 86
-9.469430e-001 -9.580110e-001 -9.264714e+000 207 183 87
1.897388e+000 1.313213e+000 -1.029723e+001 52 42 52
-1.027638e+000 -9.755981e-001 -9.335428e+000 210 194 143
-2.994181e-001 -9.668727e-001 -9.716839e+000 94 121 116
-1.915874e+000 1.534951e+000 -1.028532e+001 195 83 82
-1.399598e+000 1.881738e+000 -1.005426e+001 180 68 67
-1.395865e+000 1.888659e+000 -1.004228e+001 180 68 67
-3.409849e-001 -1.024118e+000 -9.667377e+000 62 61 61
-1.258763e+001 -2.267672e+001 -3.125335e+001 112 106 112
1.135823e+000 2.264607e+000 -1.136325e+001 227 192 90
-1.090067e+000 1.413687e+000 -9.559281e+000 185 82 73
1.566921e+000 1.987043e+000 -1.015258e+001 119 41 44
2.200902e+000 1.623544e+000 -1.014553e+001 81 66 71
2.177129e+000 1.527262e+000 -1.010108e+001 89 121 125
-2.236539e-001 6.023792e-001 -9.497044e+000 45 46 42
-1.836112e+000 1.532250e+000 -1.009510e+001 202 82 81
-2.140338e+000 1.130028e+000 -9.985505e+000 206 92 87
1.151731e+000 1.716454e+000 -1.110756e+001 122 72 38
-1.717465e+000 1.086750e+000 -9.722125e+000 95 25 36
-8.899074e-001 1.440939e+000 -9.456579e+000 109 36 34
1.419313e+000 1.803609e+000 -1.090072e+001 200 152 68
-9.803167e-001 -1.042553e+000 -9.364363e+000 214 202 159
-7.884804e+000 -2.010995e+001 -2.904922e+001 53 51 56
-7.884804e+000 -2.010995e+001 -2.904922e+001 53 51 56
-2.252821e+000 1.172507e+000 -1.054593e+001 149 35 40
-1.629434e+000 1.761258e+000 -1.007869e+001 201 74 75
-1.166244e+000 1.874682e+000 -1.003062e+001 85 28 34
-1.766045e+000 1.413431e+000 -9.882215e+000 134 30 38
-1.553138e+000 1.298734e+000 -9.638030e+000 114 29 38
-1.364814e+000 8.465346e-001 -9.329628e+000 107 30 34
-1.380347e+000 2.462181e-001 -9.346695e+000 185 78 76
-1.002035e+000 -8.611286e-001 -9.334649e+000 127 78 38
-1.884789e-001 1.907377e+000 -1.168562e+001 142 97 93
2.098852e+000 1.699909e+000 -1.019601e+001 69 45 51
-1.653604e+000 1.995660e-001 -9.549534e+000 87 25 30
-2.464820e+000 -3.234456e-001 -1.050856e+001 160 34 42
-6.540335e-001 4.789882e-001 -9.223156e+000 92 42 44
4.489693e-001 2.228157e+000 -1.189600e+001 140 55 62
-1.271682e+001 -2.218849e+001 -3.206966e+001 254 252 254
-7.393243e-002 1.032107e+000 -9.641044e+000 58 58 47
-7.393243e-002 1.032107e+000 -9.641044e+000 58 58 47
4.403914e+000 -1.896944e+000 -1.235317e+001 129 121 118
4.630008e+000 3.294061e-003 -1.272982e+001 58 46 49
-1.267792e+000 1.199797e+000 -9.477157e+000 204 93 88
1.435823e+000 1.693301e+000 -1.087820e+001 166 111 58
1.435823e+000 1.693301e+000 -1.087820e+001 166 111 58
-7.527605e-001 5.465040e-001 -9.132811e+000 106 40 42
-1.574014e+000 9.221616e-001 -9.654204e+000 126 30 33
-1.229367e+000 -7.143602e-001 -9.519919e+000 124 49 44
-1.229367e+000 -7.143602e-001 -9.519919e+000 124 49 44
-5.636389e-001 1.493147e+000 -9.802108e+000 105 42 43
-5.636389e-001 1.493147e+000 -9.802108e+000 105 42 43
2.364407e+000 1.591000e+000 -1.014413e+001 113 148 143
2.026901e+000 1.625226e+000 -1.006732e+001 75 86 87
-1.267854e+000 -9.674084e-001 -9.698804e+000 205 196 188
-1.874840e+000 6.518372e-001 -9.631821e+000 194 84 85
2.834994e-001 1.745545e+000 -1.201908e+001 89 43 46
2.960994e+000 1.433953e+000 -1.361625e+001 163 135 82
1.868246e+000 2.060439e+000 -1.015966e+001 90 34 37
-1.420674e+000 1.629359e+000 -1.002404e+001 160 70 69
-1.010631e+000 1.885031e+000 -9.991127e+000 182 77 77
1.445300e+000 2.192803e+000 -1.084069e+001 219 185 84
-9.346179e-001 1.580182e+000 -9.846111e+000 165 75 69
1.246045e+000 1.576211e+000 -1.001119e+001 123 31 40
-1.801369e+000 6.201877e-001 -9.529593e+000 183 69 69
-1.028578e+000 1.271345e+000 -9.365694e+000 126 35 36
-7.307664e-001 1.426266e+000 -9.388394e+000 154 118 56
-1.920228e+000 5.242654e-001 -9.656748e+000 127 31 34
-1.847902e+000 2.894360e-001 -9.543549e+000 195 90 87
-1.106165e+000 -2.730437e-002 -9.347368e+000 178 64 64
-1.106165e+000 -2.730437e-002 -9.347368e+000 178 64 64
-9.139655e-001 1.801695e-001 -9.225593e+000 175 72 69
-1.163700e+000 -8.487805e-001 -9.433505e+000 255 215 92
-3.986255e-001 2.026781e+000 -1.174822e+001 221 218 207
1.046295e+000 2.337072e+000 -1.182661e+001 160 131 88
-1.983583e+000 1.420237e+000 -1.031356e+001 129 30 38
-1.628652e+000 1.762494e+000 -1.007714e+001 194 65 68
5.627603e-001 2.091470e+000 -1.155678e+001 179 61 63
-1.918990e+000 1.379046e+000 -9.959880e+000 203 60 65
-1.268691e+000 1.617484e+000 -1.001715e+001 79 29 32
1.399887e+000 2.039302e+000 -1.086129e+001 134 66 37
-1.701296e+000 1.319304e+000 -9.661123e+000 200 61 64
1.555191e+000 2.119674e+000 -1.037439e+001 111 33 39
-9.343382e-001 1.381142e+000 -9.229062e+000 247 205 82
-1.575418e+000 1.578365e+000 -9.962211e+000 113 28 35
-1.654634e+000 1.845131e-001 -9.566205e+000 95 26 34
-7.214219e-001 1.947075e+000 -1.176099e+001 128 75 74
-2.663263e+000 1.078920e-001 -1.087362e+001 172 35 46
3.606883e+000 1.680675e+000 -1.369205e+001 213 204 195
-9.190024e+000 -1.915561e+001 -3.984641e+001 173 166 160
-9.155830e-001 1.325035e+000 -9.162719e+000 213 162 48
-1.241882e+000 1.590010e+000 -9.529692e+000 108 35 39
-1.370990e+000 -1.183055e+000 -9.584789e+000 201 194 190
-1.886894e+000 1.522556e+000 -1.017702e+001 160 46 46
-1.823739e+000 9.285192e-001 -9.758961e+000 86 24 29
1.446443e+000 1.894729e+000 -1.086303e+001 163 123 53
1.444694e+000 1.895160e+000 -1.086219e+001 163 123 53
5.214657e-001 -7.509291e-001 -1.027524e+001 107 91 68
2.856663e+000 1.485710e+000 -1.344585e+001 138 112 65
-1.033835e+000 1.475807e+000 -9.360312e+000 191 87 82
-1.033835e+000 1.475807e+000 -9.360312e+000 191 87 82
1.011446e+000 1.751512e+000 -1.135270e+001 136 99 50
1.106608e+000 1.969003e+000 -1.112359e+001 177 134 55
-1.802982e+000 6.271327e-001 -9.523855e+000 165 59 57
6.863401e-001 2.199273e+000 -1.147302e+001 106 34 38
8.443191e-001 2.348769e+000 -1.156863e+001 114 58 59
7.329235e-001 1.973011e+000 -1.137296e+001 112 47 45
-1.923332e+000 5.655283e-001 -9.616250e+000 121 25 33
-9.148732e-001 1.465909e+000 -9.358623e+000 110 38 37
-2.063660e+000 1.536806e+000 -1.056088e+001 170 61 63
-1.553196e+000 1.917246e+000 -1.027386e+001 165 61 58
-1.835335e+000 1.511512e+000 -1.014033e+001 177 61 62
9.902143e-001 1.838125e+000 -1.148228e+001 67 31 28
-2.275941e+000 1.046856e+000 -1.013036e+001 107 21 31
-2.144073e+000 1.104921e+000 -1.004020e+001 176 67 64
-1.750085e+000 1.361566e+000 -9.963732e+000 113 20 30
1.149805e+000 1.672373e+000 -1.118966e+001 91 47 28
-1.737305e+000 9.034636e-001 -9.711029e+000 184 64 66
-1.351000e+000 6.802968e-001 -9.268059e+000 158 56 54
-1.394740e+000 4.440829e-001 -9.370217e+000 93 21 29
-8.274243e-001 1.013602e+000 -9.039496e+000 222 184 74
-2.158113e+000 1.476137e+000 -1.022781e+001 182 53 55
-2.061003e+000 1.226991e+000 -1.016824e+001 104 22 31
-1.857807e+000 7.608499e-001 -9.809874e+000 86 16 26
-1.365671e+000 1.556833e+000 -9.938679e+000 79 18 25
-9.541591e-001 1.591025e+000 -1.171195e+001 100 49 50
-3.746347e+000 1.709257e+000 -1.141064e+001 194 185 179
-4.652982e-001 -1.402141e-001 -1.215651e+001 89 25 29
-9.534688e-001 1.919924e+000 -9.860704e+000 176 74 75
2.495007e-001 1.326089e+000 -9.939138e+000 85 48 30
-2.271026e+000 1.216930e+000 -1.048796e+001 137 31 42
-2.271026e+000 1.216930e+000 -1.048796e+001 137 31 42
-2.352389e+000 1.153347e+000 -1.031605e+001 179 71 73
-2.302521e+000 8.292394e-001 -1.020730e+001 164 68 66
-2.302521e+000 8.292394e-001 -1.020730e+001 164 68 66
1.479563e+000 2.179880e+000 -1.077665e+001 147 59 38
4.965070e+000 -1.370763e+001 -2.399901e+001 104 36 43
1.497182e+000 1.886051e+000 -1.085687e+001 131 48 34
-1.428595e+000 9.954264e-001 -9.625640e+000 135 22 23
-1.271578e+000 1.320992e+000 -9.564272e+000 73 18 17
1.348090e-001 1.358080e+000 -1.002950e+001 122 85 49
2.966224e-001 1.344770e+000 -9.720834e+000 123 92 47
-6.778499e-001 1.428594e+000 -9.004354e+000 102 77 36
-1.109643e-003 1.210930e+000 -9.492170e+000 89 84 66
2.026532e+000 1.539879e+000 -1.005229e+001 66 86 86
-8.232385e-001 5.529514e-001 -9.100599e+000 146 59 53
-1.746535e+000 2.171780e+000 -1.102417e+001 176 65 70
-2.402424e+000 1.103230e+000 -1.033862e+001 191 87 86
-2.408326e+000 1.124490e+000 -1.031925e+001 191 87 86
-1.912904e+000 1.537313e+000 -1.020958e+001 164 59 61
-1.984988e+000 4.913115e-001 -9.778433e+000 175 62 64
-7.236464e-001 1.433821e+000 -9.430503e+000 124 91 46
1.354491e+000 1.923623e+000 -1.013710e+001 165 44 46
-9.914939e-001 1.309450e+000 -9.267524e+000 234 175 74
-1.044216e-001 1.306481e+000 -9.408591e+000 100 102 97
-2.316813e+000 1.130954e+000 -1.191301e+001 174 53 58
-1.743213e+000 1.924387e+000 -1.114590e+001 167 63 66
-1.853751e+000 1.590870e+000 -1.013180e+001 200 76 81
2.512131e-001 1.612614e+000 -1.105478e+001 42 21 25
2.442232e-001 1.875745e+000 -1.107891e+001 97 38 41
1.212496e+000 1.980145e+000 -1.117361e+001 190 145 60
-1.985734e+000 1.076329e+000 -9.726234e+000 138 47 50
-1.985734e+000 1.076329e+000 -9.726234e+000 138 47 50
1.498533e+000 1.795844e+000 -1.086197e+001 131 41 39
-1.450816e+000 1.030731e+000 -9.530254e+000 184 65 65
1.588927e+000 2.069177e+000 -1.007693e+001 144 58 56
-1.051358e+000 1.131675e+000 -9.388896e+000 148 61 55
-1.010896e+000 1.254566e+000 -9.247113e+000 233 182 69
-7.890685e-001 2.216556e-001 -9.176297e+000 125 81 81
-7.208746e-001 8.015238e-001 -9.120202e+000 129 104 73
-1.074513e+000 1.497955e+000 -1.247330e+001 197 192 189
-2.624961e+000 8.466617e-001 -1.176290e+001 188 180 176
-1.610515e+000 2.031409e+000 -1.098418e+001 171 74 72
-2.445209e+000 8.333679e-001 -1.117502e+001 172 68 66
-1.789823e+000 1.896613e+000 -1.061915e+001 171 61 59
-1.999648e+000 1.610611e+000 -1.037017e+001 181 72 70
-1.573170e+000 1.831500e+000 -1.028513e+001 172 65 63
-1.573170e+000 1.831500e+000 -1.028513e+001 172 65 63
-1.931570e+000 1.239780e+000 -1.029873e+001 156 62 64
-1.862069e+000 1.461956e+000 -1.013730e+001 191 78 76
-1.006576e+000 1.517889e+000 -9.903282e+000 83 21 26
-1.876004e+000 6.745929e-001 -9.606640e+000 180 76 77
-1.529100e+000 7.392474e-001 -9.648866e+000 154 61 61
-4.450774e-001 1.402143e+000 -9.611229e+000 114 92 43
1.365969e+000 3.821614e-001 -1.062785e+001 81 31 32
-1.823875e+000 1.677706e+000 -1.127263e+001 169 70 69
-1.554773e+000 2.017830e+000 -1.088063e+001 165 62 62
-1.554773e+000 2.017830e+000 -1.088063e+001 165 62 62
-2.614106e+000 7.434349e-001 -1.101874e+001 175 58 60
-1.914361e+000 1.549309e+000 -1.029147e+001 191 78 79
1.676985e+000 2.206957e+000 -1.100258e+001 121 95 48
-1.987735e+000 1.125761e+000 -9.782083e+000 181 73 73
-1.987735e+000 1.125761e+000 -9.782083e+000 181 73 73
-9.322963e-001 1.578028e+000 -9.848473e+000 132 51 47
1.592818e+000 2.135135e+000 -1.070651e+001 142 52 51
1.578502e+000 2.023975e+000 -1.023756e+001 207 106 106
1.578502e+000 2.023975e+000 -1.023756e+001 207 106 106
-1.669027e-001 1.287242e+000 -9.451685e+000 43 48 48
-1.669027e-001 1.287242e+000 -9.451685e+000 43 48 48
1.650648e-003 1.331457e+000 -9.528652e+000 45 46 47
4.963051e-001 1.026909e+000 -9.884649e+000 97 68 35
-1.627291e+000 -6.766207e-001 -9.954778e+000 157 59 57
-8.994742e-001 1.652776e-001 -9.218274e+000 155 56 56
-2.549941e+000 8.698485e-001 -1.170301e+001 133 38 39
-1.937028e+000 1.615476e+000 -1.159196e+001 166 60 60
-1.937028e+000 1.615476e+000 -1.159196e+001 166 60 60
-2.583275e+000 7.113190e-001 -1.084465e+001 176 66 67
-2.114674e+000 1.314142e+000 -1.033514e+001 180 54 57
1.217414e+000 2.052195e+000 -1.124065e+001 122 67 25
1.460154e+000 2.175314e+000 -1.085916e+001 208 172 73
1.595494e+000 2.199985e+000 -1.083422e+001 118 50 48
-2.030455e+000 7.760377e-001 -9.812430e+000 164 66 67
1.688298e+000 2.144246e+000 -1.053016e+001 139 50 48
-2.059262e+000 3.470187e-001 -9.886169e+000 169 69 68
-2.050413e+000 3.039950e-001 -9.921791e+000 169 69 68
1.481403e+000 1.746993e+000 -1.042511e+001 77 21 30
-1.841275e+000 2.836075e-001 -9.546864e+000 159 61 63
-1.307421e+000 1.028462e+000 -9.231309e+000 158 55 58
-1.385283e+000 -2.566485e-001 -9.477228e+000 147 57 56
-1.124210e+000 -4.725364e-001 -9.582483e+000 78 29 24
-1.930245e+000 1.652908e+000 -1.127903e+001 119 24 36
-1.787494e+000 1.843373e+000 -1.131377e+001 103 38 39
-1.673962e+000 1.967027e+000 -1.118956e+001 169 59 61
5.371265e-001 2.373842e+000 -1.203744e+001 121 55 57
-2.261523e+000 1.592771e+000 -1.085849e+001 170 64 61
-2.261523e+000 1.592771e+000 -1.085849e+001 170 64 61
-1.744749e+000 1.962015e+000 -1.060076e+001 167 57 56
-1.675606e+000 2.016553e+000 -1.085640e+001 107 22 29
4.855120e-001 2.219375e+000 -1.173364e+001 97 29 36
-2.444547e+000 1.022770e+000 -1.054006e+001 110 19 28
-2.277133e+000 1.210451e+000 -1.062021e+001 124 18 32
-2.180980e+000 1.343842e+000 -1.057631e+001 180 65 65
-2.337563e+000 1.108704e+000 -1.039102e+001 176 62 62
1.377778e-001 1.832687e+000 -1.055945e+001 95 39 40
1.262755e+000 1.636475e+000 -1.103673e+001 144 110 40
-2.323635e+000 1.386424e-001 -1.033701e+001 113 21 30
1.634759e+000 2.007444e+000 -1.049432e+001 83 24 27
1.634759e+000 2.007444e+000 -1.049432e+001 83 24 27
-1.570299e+000 4.722150e-001 -9.424938e+000 176 51 60
-1.398361e+000 4.572476e-001 -9.361752e+000 96 20 29
-1.419024e+000 8.707369e-003 -9.443340e+000 93 22 28
-1.351717e+000 1.786146e-001 -9.391191e+000 144 57 50
-1.340267e+000 6.536840e-001 -9.287672e+000 158 56 55
-1.021861e+000 8.219003e-001 -9.375766e+000 81 32 28
-1.108907e+000 5.864377e-001 -9.286163e+000 69 22 28
-8.447563e-001 1.192674e+000 -9.063392e+000 108 62 26
-8.680260e-001 7.773580e-001 -9.143345e+000 114 65 29
-7.271497e-001 1.445333e+000 -8.982629e+000 122 91 40
-1.077239e+000 3.616962e-001 -9.285412e+000 168 59 57
-8.641953e-001 -1.811159e-001 -9.315285e+000 85 29 35
-2.389921e+000 8.652758e-001 -1.194069e+001 117 38 43
-2.061748e+000 1.616233e+000 -1.123475e+001 175 61 65
-2.448647e+000 1.129189e+000 -1.104575e+001 110 21 28
-2.449844e+000 1.137608e+000 -1.103737e+001 110 21 28
-1.865635e+000 1.779826e+000 -1.079340e+001 91 21 28
-1.629277e+000 2.108261e+000 -1.051615e+001 103 34 37
-2.405856e+000 1.145928e+000 -1.061301e+001 180 62 67
-2.199733e+000 1.486341e+000 -1.063976e+001 110 19 26
-1.846986e+000 1.845324e+000 -1.039281e+001 173 53 55
5.478674e-001 2.128228e+000 -1.147013e+001 153 45 49
-2.536497e+000 6.630988e-001 -1.060032e+001 108 17 27
3.095183e-001 1.656846e+000 -1.103615e+001 45 19 24
1.298333e+000 2.187622e+000 -1.112534e+001 212 175 61
-2.314144e+000 6.044009e-001 -1.024199e+001 107 20 29
-2.077778e+000 1.016148e+000 -9.812371e+000 102 19 25
-1.700047e+000 1.316744e+000 -9.659855e+000 182 48 56
-1.735721e+000 8.889745e-001 -9.720759e+000 181 63 64
-1.249915e+000 1.407845e+000 -9.572206e+000 69 16 21
-1.522467e+000 8.392478e-001 -9.367112e+000 174 49 53
-9.894103e-001 1.482284e+000 -9.133999e+000 232 188 66
-1.594682e+000 6.375342e-004 -9.719647e+000 72 22 28
-1.138333e+000 8.252540e-002 -9.445116e+000 70 22 28
-9.447708e-001 5.597427e-001 -9.084776e+000 94 24 31
-1.095774e+000 -5.639871e-001 -9.466552e+000 237 195 74
-2.064201e+000 1.247042e+000 -1.015242e+001 100 17 26
-1.778387e+000 1.671018e+000 -1.025486e+001 96 16 19
-1.778387e+000 1.671018e+000 -1.025486e+001 96 16 19
-2.633329e-001 1.367261e+000 -9.733683e+000 44 37 34
-1.301373e-001 1.365594e+000 -9.450988e+000 45 49 45
-2.402381e+000 1.122035e+000 -1.203730e+001 193 184 177
-2.024230e+000 1.334383e+000 -1.201664e+001 103 41 44
-1.929925e+000 1.728372e+000 -1.081439e+001 90 26 31
3.240504e+000 1.394093e+000 -1.389388e+001 105 56 59
1.069223e-001 1.280830e+000 -9.918736e+000 125 93 47
1.886066e+000 -2.923458e-002 -1.132059e+001 157 150 144
-1.804997e+000 1.915898e+000 -1.147151e+001 114 42 43
9.949852e-001 2.341632e+000 -1.220170e+001 104 49 54
-2.201113e+000 2.533386e-001 -1.241713e+001 128 36 44
-5.850841e-001 1.364895e+000 -1.244524e+001 97 46 45
6.482072e-001 1.164968e+000 -1.258226e+001 66 25 30
1.346922e+000 1.975466e+000 -1.119987e+001 193 147 53
-9.349277e-001 3.143137e-001 -9.069459e+000 149 50 49
-1.076661e+000 1.360094e+000 -9.810513e+000 87 23 24
3.373882e+000 3.571816e+000 -1.358002e+001 239 232 225
3.366314e-001 1.792514e+000 -1.201182e+001 122 65 67
-1.686758e+000 1.719728e+000 -1.004726e+001 140 39 42
-1.891420e+000 1.384745e+000 -1.001681e+001 227 136 130
1.502070e+000 2.213066e+000 -1.079817e+001 152 73 41
1.749034e+000 2.218118e+000 -1.096760e+001 102 43 39
-9.679162e-001 1.344456e+000 -9.261623e+000 214 165 55
1.821447e+000 2.106478e+000 -9.801315e+000 74 85 87
2.185969e+000 1.507837e+000 -1.006401e+001 62 94 96
-1.171920e+000 1.626404e+000 -9.877530e+000 120 35 39
1.726240e+000 2.130734e+000 -1.033985e+001 126 40 41
-9.814508e-001 1.353378e+000 -9.286788e+000 240 180 79
-1.939537e+000 1.494144e+000 -1.159601e+001 147 39 43
-1.676596e+000 1.935899e+000 -1.116595e+001 197 79 80
4.496823e-001 2.335219e+000 -1.208510e+001 167 75 75
-1.677420e+000 1.698173e+000 -1.039531e+001 160 68 69
1.071829e+000 2.319226e+000 -1.143019e+001 170 137 68
-1.147162e+000 1.691003e+000 -9.805103e+000 181 76 71
-7.229603e-001 1.427778e+000 -9.437562e+000 140 102 49
1.416382e+000 1.939719e+000 -1.023462e+001 159 55 56
2.109705e+000 1.540587e+000 -1.012272e+001 81 115 118
-2.643744e+000 6.787647e-001 -1.081061e+001 204 77 81
-1.596247e+000 1.890176e+000 -1.032775e+001 184 74 71
-2.433355e+000 9.082132e-001 -1.048144e+001 165 29 37
-1.647385e+000 1.662098e+000 -1.012938e+001 203 68 71
-8.970538e-001 1.893033e+000 -9.855743e+000 143 30 32
-1.246572e-001 1.367350e+000 -9.815026e+000 52 46 41
-2.101856e-001 1.277674e+000 -9.495411e+000 44 52 47
1.551426e+000 3.280148e-001 -1.121986e+001 90 97 99
1.158367e+000 1.474701e+000 -1.014131e+001 142 51 50
1.481036e+000 1.633032e+000 -1.024307e+001 113 30 32
1.236683e+000 1.430758e+000 -9.836003e+000 163 155 147
-6.000834e-001 1.938350e+000 -1.199297e+001 154 67 68
4.077151e-001 2.475186e+000 -1.198710e+001 214 214 204
4.381366e-001 2.443176e+000 -1.169658e+001 201 105 106
-2.128396e+000 1.466859e+000 -1.042236e+001 182 37 46
-2.351248e+000 1.075170e+000 -1.032553e+001 157 31 36
-1.725636e+000 1.211629e+000 -9.945709e+000 174 74 71
1.734899e+000 2.127602e+000 -1.041482e+001 170 66 63
1.734899e+000 2.127602e+000 -1.041482e+001 170 66 63
-1.870171e+000 -9.293848e-002 -9.617018e+000 145 55 57
1.497299e+000 1.628647e-001 -1.119694e+001 96 108 104
2.432463e+000 2.073696e+000 -1.051998e+001 127 49 52
-2.550668e+000 7.601032e-001 -1.090726e+001 162 30 41
-2.347034e+000 1.084922e+000 -1.085715e+001 170 34 45
-2.196490e+000 5.540084e-001 -1.003676e+001 168 29 37
-1.465104e+000 4.769704e-001 -9.437712e+000 138 23 30
-1.505454e+000 -6.345913e-001 -9.803948e+000 162 30 38
-1.553877e+000 -4.133121e-001 -9.659360e+000 162 30 38
-8.889361e-001 1.392591e-001 -9.236345e+000 164 66 64
-8.173528e-001 5.785088e-001 -9.144736e+000 218 179 78
-8.193837e-001 5.810192e-001 -9.142273e+000 218 179 78
-2.269909e+000 1.161777e+000 -1.171023e+001 200 76 78
-2.265646e+000 1.130303e+000 -1.174168e+001 200 76 78
-1.163824e+000 1.291262e+000 -1.266669e+001 143 61 61
2.575215e+000 1.489954e+000 -1.357377e+001 160 129 72
-2.514146e+000 4.713858e-001 -1.057773e+001 186 73 72
-2.514146e+000 4.713858e-001 -1.057773e+001 186 73 72
2.878186e+000 1.455214e+000 -1.348636e+001 151 124 71
2.904887e+000 1.374538e+000 -1.337036e+001 113 61 61
2.892821e+000 1.388601e+000 -1.335167e+001 113 61 61
-1.515937e+000 1.620260e+000 -1.000756e+001 103 18 25
-2.195464e+000 9.574865e-001 -9.769182e+000 186 48 50
1.319227e+000 1.758429e+000 -1.095848e+001 150 92 33
-1.844483e+000 2.973820e-001 -9.538169e+000 178 75 71
8.158826e-002 1.294753e+000 -9.702896e+000 135 103 51
1.256414e+000 1.550843e+000 -1.001967e+001 115 32 33
1.256414e+000 1.550843e+000 -1.001967e+001 115 32 33
1.374677e+000 1.397812e+000 -9.950221e+000 81 32 35
-1.391539e+000 -2.425839e-001 -9.467605e+000 169 68 67
-1.100549e+000 -5.932339e-002 -9.373795e+000 173 69 64
2.055262e+000 1.463351e+000 -9.931351e+000 42 66 68
-8.926499e-001 -6.673036e-001 -9.446041e+000 112 64 28
-9.190108e-001 -2.810134e-001 -9.270400e+000 236 200 84
-2.456385e+000 1.136546e+000 -1.082863e+001 200 78 80
-2.189158e+000 1.386301e+000 -1.054035e+001 204 78 79
-2.252322e+000 1.069725e+000 -1.009699e+001 111 18 29
2.273984e+000 1.410439e+000 -1.253341e+001 90 48 32
-2.099958e+000 9.322252e-002 -9.978523e+000 118 20 32
-2.045086e+000 4.512762e-001 -9.942642e+000 115 18 29
-2.045086e+000 4.512762e-001 -9.942642e+000 115 18 29
-1.522623e+000 1.144610e+000 -9.568428e+000 188 75 71
-1.875296e+000 5.635828e-001 -9.504251e+000 102 18 28
-1.823999e+000 3.123186e-001 -9.683023e+000 102 18 28
-1.706968e+000 -9.514509e-002 -9.660013e+000 105 27 35
-1.425017e-001 1.325075e+000 -9.623933e+000 79 89 55
-1.439759e+000 9.872227e-002 -9.384108e+000 99 23 31
-8.483093e-001 7.164896e-001 -9.186777e+000 122 73 32
-7.766532e-001 1.278661e+000 -9.078287e+000 227 194 78
-8.168105e-001 9.774846e-001 -9.062950e+000 232 192 78
-2.056522e+000 1.610754e+000 -1.123930e+001 199 76 78
-2.349835e+000 1.447390e+000 -1.073754e+001 188 46 53
-1.736361e+000 1.935817e+000 -1.062433e+001 189 66 68
-1.685413e+000 1.885059e+000 -1.036007e+001 114 21 31
6.744914e-001 2.196865e+000 -1.178028e+001 171 71 68
6.744914e-001 2.196865e+000 -1.178028e+001 171 71 68
-2.131797e+000 1.388356e+000 -1.028153e+001 208 55 59
-2.267738e+000 1.005080e+000 -1.018528e+001 119 19 31
-1.516987e+000 1.928549e+000 -9.974880e+000 111 19 28
-1.508491e+000 1.899729e+000 -1.000102e+001 111 19 28
-1.259563e+000 1.649691e+000 -1.003487e+001 76 16 24
-2.352097e+000 3.474647e-001 -1.017560e+001 126 20 29
1.069521e+000 1.435978e+000 -1.150057e+001 68 29 29
-1.556173e+000 1.354265e+000 -9.600097e+000 111 20 25
1.542262e+000 1.932086e+000 -1.062269e+001 172 48 48
-1.574945e+000 9.223146e-001 -9.658079e+000 119 18 25
1.431105e+000 1.007602e+000 -1.110617e+001 78 69 70
-8.663973e-001 1.413798e+000 -9.450815e+000 112 36 36
-1.658719e+000 2.560935e-001 -9.547452e+000 85 21 29
1.449624e+000 1.875791e+000 -1.010505e+001 181 47 48
-2.767718e+000 3.591044e-001 -1.145038e+001 200 189 186
2.674604e+000 1.369066e+000 -1.294870e+001 142 115 60
-1.653511e+000 7.283478e-001 -9.489435e+000 100 21 25
-2.648074e-001 1.371878e+000 -9.730295e+000 43 43 43
9.819993e-002 1.297151e+000 -9.906435e+000 136 101 45
1.310330e+000 1.366934e+000 -1.004464e+001 158 46 48
-1.439152e+000 1.964085e+000 -1.062667e+001 108 39 41
-2.562928e+000 -9.220607e-002 -1.113782e+001 187 49 54
-2.620398e+000 7.645940e-001 -1.127632e+001 199 70 74
-1.730093e+000 1.860442e+000 -1.122313e+001 200 76 80
1.525952e+000 2.034093e+000 -1.085847e+001 150 68 39
8.620236e-002 1.300267e+000 -9.541754e+000 140 128 108
-8.320729e-001 4.851729e-001 -9.082703e+000 141 107 103
-2.008993e+000 4.743226e-001 -9.765041e+000 196 74 73
-1.630921e+000 8.633045e-001 -9.579915e+000 115 24 30
-2.398886e+000 1.324034e+000 -1.084265e+001 200 55 62
-1.977436e+000 8.330997e-001 -9.799352e+000 149 52 57
-1.449044e+000 1.011750e+000 -9.553130e+000 197 63 65
2.226962e+000 1.421980e+000 -1.009071e+001 73 106 107
-2.262340e+000 8.391697e-001 -1.019134e+001 206 116 108
-1.984980e+000 1.417170e+000 -9.988846e+000 209 50 55
1.144426e+000 1.393185e+000 -1.017279e+001 171 161 156
2.064145e+000 1.370724e+000 -9.911737e+000 59 110 108
-2.079004e+000 1.312960e+000 -1.172342e+001 196 77 78
-1.964103e+000 1.461573e+000 -1.167944e+001 186 68 70
-2.242250e+000 1.559997e+000 -1.107557e+001 103 30 37
-2.639752e+000 1.080973e+000 -1.093286e+001 169 33 41
-2.467528e+000 9.847395e-001 -1.102484e+001 204 81 83
-1.930055e+000 1.247274e+000 -1.028045e+001 177 77 75
-2.265783e+000 2.396437e-001 -1.003695e+001 174 32 38
-2.055614e+000 2.828106e-001 -9.637591e+000 170 29 38
-1.065513e+000 1.113943e+000 -9.259327e+000 93 34 23
1.296579e+000 1.261049e+000 -1.040845e+001 146 151 142
1.465276e+000 1.907929e+000 -1.028282e+001 166 56 53
7.292189e-001 1.109063e+000 -1.000597e+001 95 65 35
2.059879e+000 1.406079e+000 -1.018914e+001 45 54 58
1.925913e+000 1.372121e+000 -9.925678e+000 50 74 78
-2.471206e+000 8.145539e-001 -1.054579e+001 200 77 79
-1.503323e+000 1.450177e+000 -9.645021e+000 191 73 75
-1.503323e+000 1.450177e+000 -9.645021e+000 191 73 75
3.998176e-001 9.932940e-001 -1.030485e+001 66 26 22
1.916663e+000 1.993898e+000 -1.019516e+001 79 31 31
2.121820e+000 1.386606e+000 -1.013356e+001 67 102 104
-6.872170e-001 -8.328004e-001 -9.486343e+000 135 118 101
-1.628588e+000 1.807878e+000 -1.117026e+001 140 36 45
-1.810583e+000 1.874481e+000 -1.073984e+001 100 24 31
-1.635742e+000 1.766966e+000 -1.028937e+001 176 62 62
-2.218852e+000 9.207148e-001 -1.020817e+001 110 19 27
-2.031239e+000 7.808211e-001 -9.808692e+000 187 84 82
-1.993142e+000 1.145990e+000 -9.755776e+000 183 64 65
-1.993142e+000 1.145990e+000 -9.755776e+000 183 64 65
-1.016439e+000 1.912045e+000 -9.970065e+000 193 78 78
-2.058579e+000 3.435930e-001 -9.887822e+000 184 77 73
-1.812235e+000 6.807438e-001 -9.473163e+000 170 53 54
-1.441663e+000 9.399340e-001 -9.394241e+000 143 27 33
-1.356196e+000 1.936684e-001 -9.378498e+000 160 65 62
-2.187497e+000 1.029373e+000 -1.208167e+001 150 43 46
-1.928646e+000 1.576480e+000 -1.163819e+001 194 76 77
-2.367015e+000 1.481777e+000 -1.096932e+001 125 40 47
-2.367015e+000 1.481777e+000 -1.096932e+001 125 40 47
-1.672579e+000 1.965677e+000 -1.119185e+001 205 83 80
-2.667240e+000 4.637845e-001 -1.116028e+001 183 41 50
-2.092536e+000 1.324811e+000 -1.113676e+001 127 37 45
-2.487346e+000 7.067000e-001 -1.018548e+001 186 53 57
-2.323671e+000 1.301853e-001 -1.017864e+001 187 78 78
-2.323671e+000 1.301853e-001 -1.017864e+001 187 78 78
-2.359308e+000 3.903295e-001 -1.014676e+001 124 21 34
-1.920188e+000 4.970879e-001 -9.676757e+000 136 22 32
-1.579954e+000 1.791125e+000 -9.324663e+000 180 59 59
-1.537811e+000 8.812584e-001 -9.348200e+000 187 52 55
-9.023264e-001 1.441553e+000 -9.389087e+000 117 37 37
-1.552309e+000 3.949394e-001 -9.481437e+000 196 59 66
-6.453344e-001 1.613523e+000 -1.243212e+001 136 60 62
-2.515225e+000 7.808741e-001 -1.107062e+001 143 21 37
-1.586383e+000 -9.020656e-002 -9.585353e+000 187 57 59
-1.140589e+000 6.431075e-001 -9.280755e+000 66 24 25
2.189688e+000 1.399079e+000 -1.015998e+001 64 94 96
-2.245547e+000 1.663788e+000 -1.106180e+001 111 37 40
-1.860082e+000 1.750997e+000 -1.082104e+001 101 24 30
-1.632845e+000 1.451669e+000 -9.813436e+000 199 69 66
-1.841150e+000 1.216451e+000 -9.737024e+000 97 17 24
-1.163143e-001 1.318906e+000 -9.499496e+000 57 62 58
1.645396e+000 1.736821e+000 -9.994092e+000 63 43 46
-1.637279e+000 1.212976e+000 -1.250947e+001 123 59 57
-1.987268e+000 1.516898e+000 -1.130837e+001 204 71 74
-9.281697e-001 1.974044e+000 -1.180178e+001 139 63 62
-2.147933e+000 1.579923e+000 -1.062388e+001 187 76 75
-2.385714e+000 1.037484e+000 -1.039395e+001 232 136 129
-2.485400e+000 3.413207e-001 -1.064466e+001 200 86 86
-1.935423e+000 1.540339e+000 -1.026717e+001 179 65 67
-1.885787e+000 1.478298e+000 -1.019564e+001 154 28 29
-1.646952e+000 1.348388e+000 -9.773876e+000 169 35 40
-1.984730e+000 7.742348e-001 -9.718758e+000 196 68 69
-1.912649e+000 5.765908e-001 -9.723744e+000 191 73 73
-1.456535e+000 9.016244e-001 -9.614571e+000 156 36 32
-1.588517e+000 3.308163e-001 -9.515664e+000 183 69 73
-1.027876e+000 1.362763e+000 -9.266550e+000 160 79 40
-9.543947e-001 1.298684e+000 -9.398378e+000 194 74 67
-9.769311e-001 9.974121e-001 -9.378960e+000 225 170 100
-2.492643e+000 7.275789e-001 -1.208443e+001 165 57 60
-2.218019e+000 1.356786e+000 -1.187686e+001 180 70 67
-1.916381e+000 1.225888e+000 -1.232379e+001 117 53 57
-2.523135e+000 7.721786e-001 -1.198951e+001 187 56 60
-1.974907e+000 1.588612e+000 -1.164330e+001 190 66 71
-1.986571e+000 1.555103e+000 -1.162742e+001 191 73 76
-2.638661e+000 2.848137e-001 -1.145502e+001 190 60 65
-2.590288e+000 5.835828e-001 -1.109211e+001 193 76 76
-2.426486e+000 1.201947e+000 -1.075338e+001 167 44 46
-2.386837e+000 8.524905e-001 -1.081410e+001 206 87 87
