ply
format ascii 1.0
element face 0
property list uchar int vertex_indices
element vertex 875
property float x
property float y
property float z
property uchar diffuse_red
property uchar diffuse_green
property uchar diffuse_blue
end_header
6.084196e+000 4.801001e-001 -9.438721e+000 232 219 215
-1.597273e+000 1.031792e+000 -9.779274e+000 207 94 91
-2.056199e+000 4.036429e-001 -9.642179e+000 214 81 80
-2.234212e+000 -4.167834e-001 -1.003186e+001 141 39 40
-1.237664e+000 -6.848108e-001 -9.648087e+000 153 73 67
5.718313e+000 1.769410e+000 -1.027030e+001 227 217 208
5.870002e+000 1.270107e+000 -9.814285e+000 206 196 187
1.560950e+000 1.732442e+000 -1.024541e+001 168 83 86
1.560950e+000 1.732442e+000 -1.024541e+001 168 83 86
1.903175e+000 1.558789e+000 -1.025470e+001 68 48 53
-8.918360e-001 9.397754e-001 -9.279962e+000 238 189 78
1.154910e+000 1.919345e+000 -1.154011e+001 203 154 76
1.259265e+000 1.435305e+000 -1.112303e+001 120 80 54
-1.979377e-001 5.127813e-001 -9.548478e+000 116 95 48
9.627230e-001 -7.254041e-001 -1.025711e+001 145 114 60
9.627230e-001 -7.254041e-001 -1.025711e+001 145 114 60
-1.267270e+000 -9.911941e-001 -9.746447e+000 185 92 89
-4.208434e-001 -1.071211e+000 -9.562917e+000 124 103 48
-3.551789e-001 -1.054053e+000 -9.562274e+000 53 55 52
2.412817e+000 1.272111e+000 -1.018180e+001 78 78 77
2.410012e+000 1.223818e+000 -1.029389e+001 221 214 204
-1.619664e+000 9.479825e-001 -9.731439e+000 163 38 41
-1.619664e+000 9.479825e-001 -9.731439e+000 163 38 41
-1.558781e+000 7.061452e-001 -9.511128e+000 132 29 37
1.356599e+000 1.038665e+000 -1.081445e+001 224 219 208
1.468265e+000 1.014494e+000 -1.097466e+001 78 42 39
1.559377e+000 4.993679e-001 -1.115607e+001 57 47 55
1.177442e+000 -3.030944e-001 -1.088861e+001 43 43 44
-2.655509e+000 4.974944e-002 -1.080451e+001 212 90 90
-1.609848e+000 -6.877464e-001 -9.737338e+000 221 108 105
-1.960977e+000 -6.535496e-001 -1.016957e+001 158 28 40
-1.960977e+000 -6.535496e-001 -1.016957e+001 158 28 40
-1.632728e+000 -9.260754e-001 -9.788207e+000 208 100 98
-1.632728e+000 -9.260754e-001 -9.788207e+000 208 100 98
-1.353389e+000 -9.655364e-001 -9.747945e+000 86 36 37
1.463053e+000 1.980823e+000 -1.016656e+001 194 81 83
1.358972e+000 1.934359e+000 -1.072435e+001 156 83 52
1.664814e+000 1.639869e+000 -1.012887e+001 92 44 47
2.069566e+000 1.489204e+000 -1.019458e+001 92 111 117
2.143604e+000 1.439190e+000 -1.019145e+001 73 82 89
-1.468918e+000 1.439108e+000 -9.730502e+000 205 97 94
2.127765e+000 1.238230e+000 -1.042329e+001 65 50 45
-9.199655e-001 6.003001e-001 -9.298062e+000 229 188 90
-2.608603e+000 4.217094e-001 -1.072015e+001 219 93 97
-2.508374e+000 1.677199e-001 -1.046515e+001 216 81 80
-2.508374e+000 1.677199e-001 -1.046515e+001 216 81 80
-1.981566e+000 -9.168841e-002 -9.759547e+000 213 91 90
-2.192794e+000 -6.043371e-001 -1.052891e+001 159 30 42
-1.196889e+000 -9.400739e-001 -9.512594e+000 118 35 38
-9.606051e-001 -1.032840e+000 -9.295328e+000 225 204 85
2.102190e+000 -8.936524e-001 -1.265997e+001 100 69 43
1.992344e+000 2.030598e+000 -1.028293e+001 117 65 68
1.170769e+000 1.928536e+000 -1.117302e+001 157 96 49
1.286836e+000 2.013146e+000 -1.107963e+001 228 187 80
-1.574110e+000 1.302004e+000 -9.943886e+000 140 35 41
-1.574110e+000 1.302004e+000 -9.943886e+000 140 35 41
-1.731941e+000 8.310510e-001 -9.656882e+000 216 99 96
-1.503200e+000 8.674924e-001 -9.568413e+000 216 88 87
-1.387645e+000 7.650181e-001 -9.438607e+000 126 33 41
-4.752320e-002 5.617789e-001 -9.572399e+000 54 52 42
-1.895391e+000 3.903440e-001 -9.606971e+000 138 31 39
-2.333634e+000 4.442361e-001 -1.019790e+001 152 28 39
-2.392967e+000 3.635503e-001 -1.035378e+001 217 91 87
-2.028468e+000 7.691261e-002 -9.738720e+000 225 102 102
-1.916774e+000 1.377942e-001 -9.765396e+000 130 30 34
-1.916774e+000 1.377942e-001 -9.765396e+000 130 30 34
-2.138134e+000 -1.980432e-002 -9.826604e+000 145 29 39
-2.373783e+000 5.042987e-002 -1.027379e+001 149 28 38
-1.925152e+000 -3.461262e-004 -9.665723e+000 126 29 35
-1.578629e+000 -1.628417e-001 -9.510024e+000 104 25 33
-1.812751e+000 -5.097832e-001 -9.953168e+000 102 29 36
-1.131311e+000 -6.003590e-001 -9.391593e+000 106 39 33
3.245517e-001 -7.034431e-001 -1.045022e+001 91 42 38
-1.949148e+000 -8.132104e-001 -1.015593e+001 131 36 46
-1.076212e+000 -1.011682e+000 -9.446346e+000 242 205 90
-1.830776e+000 -1.107103e+000 -1.037969e+001 206 97 95
-1.298545e+000 -1.049050e+000 -9.969987e+000 70 35 41
-1.298545e+000 -1.049050e+000 -9.969987e+000 70 35 41
6.183366e-001 -1.612122e+000 -1.206130e+001 141 65 67
1.392760e+000 2.162542e+000 -1.074657e+001 221 216 203
9.522244e-001 2.238584e+000 -1.160656e+001 129 63 57
-9.934038e-001 1.196700e+000 -9.206549e+000 254 216 95
-8.489391e-001 1.196978e+000 -9.281139e+000 146 89 42
9.937811e-001 1.845233e+000 -1.139829e+001 98 42 38
-1.854698e+000 1.011440e+000 -9.911832e+000 126 29 36
-1.381205e+000 7.603387e-001 -9.402161e+000 123 34 40
-1.652358e+000 5.299970e-001 -9.416569e+000 121 28 37
-1.542644e+000 4.030461e-001 -9.441987e+000 224 70 75
1.480907e+000 9.658490e-001 -1.166426e+001 96 47 47
-1.845301e+000 2.120093e-001 -9.547228e+000 210 95 92
-1.417297e+000 -8.789136e-003 -9.450222e+000 114 29 34
-1.586052e+000 -4.258090e-001 -9.349596e+000 213 64 64
-8.991170e-001 -3.276212e-001 -9.201184e+000 247 214 96
-9.517860e-001 -4.801457e-001 -9.253681e+000 144 87 28
-1.650090e+000 -6.134159e-001 -9.777634e+000 210 94 89
-1.655390e+000 -5.978198e-001 -9.812678e+000 210 94 89
-1.134357e+000 -8.421619e-001 -9.323364e+000 255 222 84
-1.366915e+000 -8.074895e-001 -9.657242e+000 209 90 86
-1.345914e+000 -1.180929e+000 -1.020802e+001 196 86 86
3.893911e-001 -1.180650e+000 -1.223853e+001 76 44 45
-1.096096e+000 2.067816e+000 -1.036550e+001 224 227 214
-1.511561e+000 9.796641e-001 -9.614207e+000 214 81 82
-1.529813e+000 1.062975e+000 -9.831885e+000 214 81 82
1.209949e+000 -3.710869e-001 -1.079317e+001 56 49 47
2.383571e+000 -7.232872e-001 -1.275452e+001 104 73 42
-1.096647e-001 -1.328345e+000 -1.099540e+001 109 57 58
2.384684e-001 1.130693e+000 -1.002813e+001 132 99 54
-1.681665e+000 -1.473872e-001 -9.576103e+000 110 29 31
-1.965421e-001 -3.532485e-001 -9.638874e+000 53 52 47
-1.344274e-001 -1.303877e+000 -1.100339e+001 106 56 57
2.117697e-001 -1.046235e+000 -1.175138e+001 229 225 214
2.434401e-001 -1.346014e+000 -1.232430e+001 231 224 214
4.849611e-001 -1.617905e+000 -1.247941e+001 114 51 55
4.849611e-001 -1.617905e+000 -1.247941e+001 114 51 55
-1.235433e+000 7.756901e-001 -9.260865e+000 126 45 41
-1.749730e+000 4.441789e-001 -9.519676e+000 120 29 36
-2.059344e-001 -6.864488e-001 -9.755745e+000 70 60 50
2.923131e+000 -9.845378e-001 -1.302371e+001 77 38 43
-8.979389e-001 9.860072e-001 -9.439406e+000 236 186 86
3.229798e+000 1.537018e+000 -1.254195e+001 222 213 204
-2.407817e+000 -1.047239e+000 -1.126525e+001 231 224 214
-2.417553e+000 6.663667e-001 -1.120877e+001 219 94 92
9.264416e-001 -1.312616e+000 -1.266295e+001 89 40 42
2.000968e+000 1.761298e+000 -1.085039e+001 77 48 50
2.003517e+000 1.755829e+000 -1.084442e+001 77 48 50
-2.131419e+001 -1.039999e+001 -4.771813e+001 61 60 59
-2.116211e+001 -1.340694e+001 -4.555782e+001 105 102 105
-2.464468e+001 -1.808173e+001 -4.979670e+001 64 85 114
-2.424790e+001 -1.732384e+001 -4.941034e+001 48 60 84
-1.971525e+001 -1.500236e+001 -4.347010e+001 67 65 68
-2.179400e+001 -1.802351e+001 -4.534128e+001 44 62 93
-2.214388e+001 -1.360429e+001 -4.703744e+001 58 61 76
-2.540986e+001 -1.696237e+001 -5.055991e+001 47 47 52
-2.215155e+001 -1.645529e+001 -4.626171e+001 81 95 116
-1.965302e+001 -1.511252e+001 -4.277509e+001 138 130 126
-2.403129e+001 -1.648244e+001 -4.894814e+001 134 132 143
-2.403129e+001 -1.648244e+001 -4.894814e+001 134 132 143
-2.564602e+001 -1.932232e+001 -5.113235e+001 38 47 87
-2.058867e+001 -1.826360e+001 -4.380913e+001 61 60 65
-2.036752e+001 -1.742909e+001 -4.355803e+001 169 160 161
-2.287990e+001 -1.779117e+001 -4.712101e+001 38 52 87
-2.238099e+001 -1.407458e+001 -4.848736e+001 94 91 91
-2.082479e+001 -1.259171e+001 -4.494344e+001 99 96 97
-2.245491e+001 -1.266445e+001 -4.834311e+001 56 56 58
-1.855388e+001 -1.715894e+001 -4.033770e+001 60 59 64
-1.765979e+001 -8.501264e+000 -5.144992e+001 35 33 36
-1.675669e+001 -1.719361e+001 -3.929897e+001 123 114 115
-1.585708e+000 3.328765e-001 -9.454731e+000 216 80 82
-1.574298e+000 2.982529e-001 -9.485988e+000 107 19 18
-1.159387e+001 6.894624e+000 -2.755846e+001 235 228 227
-1.153342e+001 6.810784e+000 -2.749802e+001 244 232 232
-1.210837e+001 6.639897e+000 -2.805933e+001 253 240 240
-1.166955e+001 6.287838e+000 -2.751073e+001 246 236 235
5.498502e+000 -1.647056e+000 -1.053020e+001 190 180 173
-1.341787e+000 -1.055380e+000 -1.014099e+001 69 30 31
-1.214937e+001 2.506529e+000 -2.851194e+001 223 213 212
-1.223876e+001 2.393848e+000 -2.858406e+001 230 218 218
-1.162906e+001 2.238852e+000 -2.832824e+001 191 184 180
-8.397568e-001 9.299849e-001 -9.156595e+000 224 181 79
-1.174625e+001 6.895831e+000 -2.807153e+001 226 217 215
1.688515e+000 4.391025e-001 -1.140840e+001 73 87 87
-1.156527e+001 5.390078e+000 -2.730715e+001 221 211 208
-1.111880e+001 4.698952e+000 -2.733201e+001 249 239 238
-8.905582e-001 -9.824176e-001 -9.191057e+000 154 109 44
-6.137914e+000 2.339808e+000 -2.661521e+001 79 80 84
-1.149135e+001 2.117547e+000 -2.841830e+001 121 113 110
-1.160613e+001 1.981288e+000 -2.851667e+001 126 116 114
-1.195416e+001 1.776295e+000 -2.900195e+001 122 114 111
-1.208512e+001 1.676659e+000 -2.912127e+001 118 110 107
-1.177784e+001 1.872803e+000 -2.876296e+001 123 116 110
4.214611e-001 -1.748817e+000 -1.259556e+001 162 85 80
2.117341e+000 1.527070e+000 -1.006263e+001 63 73 81
-1.544777e+000 1.382398e+000 -9.630189e+000 198 99 95
-1.356253e+000 -1.305222e-001 -9.399033e+000 194 86 79
-1.355593e+000 -1.306301e-001 -9.399614e+000 194 86 79
-1.150401e+001 4.608823e+000 -2.742756e+001 220 207 203
-1.099842e+001 4.611873e+000 -2.722955e+001 230 220 214
-1.167259e+001 2.349359e+000 -2.838750e+001 209 202 197
-1.319108e+000 -1.357439e+000 -1.067700e+001 176 159 151
-6.681092e+000 7.495424e-001 -2.719697e+001 72 76 79
-6.550896e+000 7.695241e-001 -2.755525e+001 66 66 71
2.038694e+000 9.360973e-001 -1.073964e+001 129 95 51
-1.211367e-001 4.477052e-002 -9.600937e+000 107 77 36
-2.081525e+000 -4.643401e-001 -9.959688e+000 212 95 97
4.468958e-001 -9.534158e-001 -1.232086e+001 94 44 46
-9.770646e+000 1.705777e+000 -2.676088e+001 217 195 163
1.521835e+000 1.746425e+000 -1.008850e+001 120 44 50
1.613124e+000 1.610940e+000 -1.007917e+001 98 44 49
2.242583e+000 1.288233e+000 -1.007744e+001 65 70 73
-8.076741e-001 7.994226e-001 -8.989669e+000 232 198 90
-1.659595e+000 1.139190e+000 -9.814214e+000 208 88 89
-1.652034e+000 1.129513e+000 -9.795084e+000 208 88 89
2.168938e+000 9.234467e-001 -1.056278e+001 155 125 71
-1.905943e+000 7.013714e-001 -9.672009e+000 129 28 38
-8.938881e-001 -5.907216e-001 -9.260131e+000 242 208 92
-8.938881e-001 -5.907216e-001 -9.260131e+000 242 208 92
-1.476024e+001 5.053276e+000 -3.190445e+001 191 179 168
-9.426706e+000 3.095748e+000 -2.563314e+001 244 226 200
-2.266447e+000 -7.948773e-001 -1.074844e+001 212 95 94
-1.436031e+001 3.784387e+000 -3.161632e+001 195 179 166
-1.436031e+001 3.784387e+000 -3.161632e+001 195 179 166
-1.297431e+001 3.150083e+000 -3.026666e+001 198 184 175
-1.303846e+001 3.198132e+000 -3.046144e+001 198 184 175
-1.305715e+000 9.268085e-001 -9.288757e+000 189 87 79
-9.525054e-001 1.022459e+000 -9.275603e+000 254 212 94
-7.980216e-001 9.708596e-001 -9.060635e+000 244 206 96
-8.204871e-001 5.903941e-001 -9.122129e+000 237 201 92
-2.145014e-001 5.719051e-001 -9.497928e+000 50 45 51
-1.337801e+001 6.889008e+000 -3.006809e+001 198 180 169
-1.344132e+001 6.944775e+000 -3.024990e+001 198 180 169
-1.704494e-001 -4.591924e-001 -9.728940e+000 78 81 56
-6.395219e+000 2.675106e+000 -2.645536e+001 48 47 52
-1.607034e+000 -1.040068e+000 -1.030782e+001 177 93 93
-1.208338e+001 2.627178e+000 -2.844176e+001 223 213 211
-9.330197e+000 1.814128e+000 -2.651827e+001 249 234 205
-6.338651e+000 2.115074e+000 -2.651862e+001 102 103 106
-6.215599e+000 1.681114e+000 -2.702661e+001 91 95 98
-1.360279e+000 -1.341334e+000 -1.033042e+001 92 43 46
-1.391339e+001 2.007522e+000 -3.046898e+001 125 122 124
1.884289e+000 2.127357e+000 -1.026234e+001 219 216 206
-1.898622e+000 4.045977e-001 -9.643772e+000 138 31 39
2.513711e+000 8.806104e-001 -1.220530e+001 97 37 42
-1.679592e+000 -4.498839e-001 -9.747629e+000 140 32 41
-1.556005e+000 -5.473349e-001 -9.620928e+000 206 86 81
-1.202255e+001 2.903790e+000 -2.835510e+001 188 176 178
-1.371086e+001 2.220584e+000 -3.041364e+001 199 188 186
-1.558127e+000 1.222755e+000 -9.679892e+000 136 36 42
-1.558127e+000 1.222755e+000 -9.679892e+000 136 36 42
-1.078674e+000 1.046913e+000 -9.312294e+000 134 41 41
1.988300e+000 1.154951e+000 -1.067586e+001 166 132 67
-1.382037e+000 7.579917e-001 -9.397814e+000 123 34 40
-8.896250e-001 3.546059e-001 -9.207887e+000 115 30 37
-1.851243e+000 2.271988e-001 -9.583243e+000 210 95 92
-1.897631e+000 6.907115e-002 -9.651146e+000 120 29 38
-1.594978e+000 -3.854181e-001 -9.478770e+000 213 64 64
-1.403679e+000 -2.681964e-001 -9.371832e+000 208 88 85
-1.696901e+000 -7.853925e-001 -9.829071e+000 124 33 40
-1.698811e+000 -1.209091e+000 -1.037298e+001 115 42 47
-1.423817e+001 3.347721e+000 -3.146002e+001 219 205 191
-1.298371e+001 1.111357e+000 -3.176415e+001 82 76 78
-8.205773e-001 9.194341e-001 -9.106289e+000 226 183 81
-1.402619e+001 8.070111e+000 -2.995198e+001 199 189 190
-1.296700e+001 3.911737e+000 -2.905071e+001 233 215 201
1.411195e+000 -1.389750e+000 -1.180920e+001 116 87 49
-1.937380e-001 -3.557912e-001 -9.640135e+000 53 52 47
-6.171566e+000 1.953005e+000 -2.626285e+001 98 99 103
-6.163883e+000 1.944541e+000 -2.622675e+001 98 99 103
-1.327674e+000 1.601539e+000 -9.833880e+000 119 43 51
-1.063545e+001 1.929057e+000 -2.691108e+001 80 75 79
-1.063545e+001 1.929057e+000 -2.691108e+001 80 75 79
-1.208145e+001 7.293398e+000 -2.886983e+001 242 235 232
-1.729290e+001 1.034987e+001 -3.522874e+001 36 33 40
-1.101745e+001 1.721372e+000 -2.822836e+001 63 59 67
-1.101745e+001 1.721372e+000 -2.822836e+001 63 59 67
3.703967e+000 1.061365e+000 -1.343811e+001 56 34 37
-1.230597e+001 4.414206e+000 -2.931297e+001 222 208 197
1.451397e+000 2.086398e+000 -1.056118e+001 216 180 172
1.641086e+000 1.725438e+000 -1.003938e+001 126 69 72
-1.203571e+001 2.610788e+000 -2.835076e+001 224 214 213
-1.215100e+001 2.508034e+000 -2.851296e+001 220 211 210
-1.331978e+001 1.521129e+000 -3.044211e+001 147 141 141
-1.628980e+000 -1.221107e+000 -1.032731e+001 128 55 62
2.203090e+000 1.533713e+000 -9.952969e+000 70 73 80
-3.169716e-001 -7.377809e-001 -9.777357e+000 52 51 47
-1.065732e+001 5.693363e+000 -2.725877e+001 103 95 93
-9.428265e+000 1.677932e+000 -2.692352e+001 188 164 128
-1.002885e+001 1.391948e+000 -2.734132e+001 93 88 85
-6.692518e+000 1.688176e+000 -2.665383e+001 45 44 48
-1.905177e+001 1.028160e+001 -3.685561e+001 67 62 68
-1.677991e+001 7.150784e+000 -3.522700e+001 166 149 142
-1.440166e+000 -8.517740e-002 -9.410340e+000 128 28 36
-1.013354e+001 9.172308e-001 -2.865480e+001 66 64 67
-1.174293e+001 9.808733e-001 -2.990311e+001 90 85 89
-1.174293e+001 9.808733e-001 -2.990311e+001 90 85 89
-3.096978e+001 3.483952e+001 -7.123724e+001 22 21 29
-1.345393e+000 5.840832e-001 -9.380376e+000 210 92 87
-1.252737e+001 7.405009e+000 -2.828543e+001 139 134 141
-1.550529e-001 1.425726e+000 -9.815579e+000 94 96 74
1.275379e+000 1.893132e+000 -1.151365e+001 182 126 45
1.275379e+000 1.893132e+000 -1.151365e+001 182 126 45
-2.672287e-001 3.135871e-002 -9.521073e+000 114 80 38
-1.346539e+000 -8.144166e-001 -9.543524e+000 201 89 80
-1.431487e+000 -1.324789e+000 -1.008030e+001 125 51 51
1.380262e+000 -1.104525e+000 -1.213109e+001 104 62 51
5.381446e+000 -3.145630e+000 -1.025612e+001 254 251 246
5.181582e+000 -3.310102e+000 -1.043078e+001 254 251 244
5.197476e+000 -3.379089e+000 -1.051233e+001 253 249 243
4.230159e+000 -3.324623e+000 -1.222166e+001 214 204 195
4.449370e+000 -3.647120e+000 -1.154277e+001 226 215 211
4.643951e+000 -3.681402e+000 -1.128787e+001 247 240 236
4.763935e+000 -3.641533e+000 -1.098186e+001 237 226 220
4.623196e+000 -4.398908e+000 -1.101293e+001 243 230 226
2.462965e+000 1.617602e+000 -1.028334e+001 152 169 167
-1.611793e+000 1.235280e+000 -9.962492e+000 217 103 103
5.253653e+000 -2.103188e+000 -1.059150e+001 198 186 180
-2.432374e+000 -3.648844e-001 -1.095443e+001 229 108 107
-1.785255e+000 -8.600904e-001 -9.921050e+000 159 48 54
-1.225462e+000 -1.071362e+000 -1.014020e+001 125 63 63
2.194240e+000 -1.933308e+000 -1.283453e+001 162 117 114
4.262750e+000 -2.426309e+000 -1.204355e+001 177 166 160
4.291478e+000 -3.054363e+000 -1.202244e+001 223 213 204
4.107403e+000 -4.725341e+000 -1.185969e+001 237 222 215
6.517863e+000 1.084266e-001 -8.955793e+000 236 222 211
-1.154976e-001 1.323157e+000 -9.611453e+000 107 137 128
-1.252071e+000 1.259698e+000 -9.690639e+000 209 104 98
1.426807e+000 1.720589e+000 -1.118924e+001 125 77 39
-1.212886e+000 -8.004936e-001 -9.509757e+000 155 65 40
-1.703455e+000 -1.027695e+000 -1.030786e+001 156 76 77
-2.427587e+000 -7.855048e-001 -1.099376e+001 211 100 103
2.247664e+000 -1.146053e+000 -1.275281e+001 111 46 47
-1.970470e+000 -1.264068e+000 -1.076228e+001 204 102 102
4.079111e-001 -1.370030e+000 -1.237219e+001 126 65 67
-5.101712e-002 1.293377e+000 -9.626381e+000 106 144 125
1.970425e+000 1.454806e+000 -1.016398e+001 73 90 90
-1.819724e+000 1.880281e+000 -1.052074e+001 205 81 84
5.714927e+000 -8.363175e-001 -1.005714e+001 225 212 204
3.601947e+000 1.374875e+000 -1.329370e+001 84 44 45
-1.268576e+000 -9.872439e-001 -9.764670e+000 186 96 88
1.620548e+000 -8.023284e-001 -1.285086e+001 213 193 176
-1.248382e+000 -1.333734e+000 -1.033263e+001 182 99 93
3.965204e-001 -7.842935e-001 -1.237588e+001 82 44 46
2.755777e+000 -1.176523e+000 -1.297044e+001 130 90 89
3.258958e-001 -1.350854e+000 -1.223154e+001 229 230 221
5.192202e-001 -1.669135e+000 -1.196009e+001 151 66 70
3.247305e-001 -1.741862e+000 -1.236722e+001 237 228 218
1.666474e+000 1.663669e+000 -1.018113e+001 94 44 47
-1.009478e+000 1.720906e+000 -9.940834e+000 127 51 46
-1.569084e-001 1.318948e+000 -9.477361e+000 65 74 67
2.044358e+000 1.277828e+000 -1.059828e+001 67 53 52
2.490040e+000 1.388259e+000 -1.079268e+001 135 71 71
2.451026e+000 1.325204e+000 -1.026712e+001 77 91 88
-8.172962e-001 6.063655e-001 -9.142872e+000 239 207 94
-1.987823e+000 1.106673e+000 -9.978831e+000 195 93 91
1.481375e+000 1.250255e+000 -1.133010e+001 225 224 210
-2.353552e+000 7.902840e-001 -1.037151e+001 216 101 96
-2.350252e+000 7.737251e-001 -1.033921e+001 216 101 96
3.885030e-001 -6.770525e-001 -1.002106e+001 149 114 58
-2.409275e+000 -6.021230e-001 -1.078967e+001 180 40 47
-2.409275e+000 -6.021230e-001 -1.078967e+001 180 40 47
-1.629680e+000 -9.143291e-001 -9.819109e+000 224 110 107
-1.631923e+000 -9.355934e-001 -9.760693e+000 224 110 107
-1.609114e-001 1.144830e+000 -9.542636e+000 73 77 60
1.362050e+000 1.984078e+000 -1.140157e+001 213 171 76
2.267268e+000 1.238823e+000 -1.060629e+001 146 115 70
-1.018190e-001 6.909117e-001 -9.565447e+000 82 85 63
-2.022656e+000 1.574611e+000 -1.040637e+001 234 227 221
-9.236634e-001 5.892749e-001 -9.275162e+000 233 191 90
-1.809558e+000 6.505470e-001 -9.655356e+000 192 84 82
-9.607659e-001 -1.052421e+000 -9.240389e+000 241 210 87
-1.124301e+000 -1.080744e+000 -1.011756e+001 141 67 68
2.137289e+000 -8.597853e-001 -1.283257e+001 108 74 46
-2.260532e+000 -8.064199e-001 -1.071744e+001 221 99 97
-1.785371e+000 -1.255113e+000 -1.058660e+001 209 96 94
-1.208551e+000 -1.297846e+000 -1.016309e+001 113 39 47
-9.582211e-001 1.386950e+000 -9.536555e+000 254 224 102
-1.343302e+000 1.253104e+000 -9.684115e+000 110 40 46
-1.218221e+000 1.234447e+000 -9.554480e+000 202 90 88
-2.143545e+000 7.613270e-001 -1.003106e+001 209 91 88
-1.540182e+000 2.426059e-001 -9.490361e+000 98 32 37
-1.481661e+000 -4.647151e-001 -9.522734e+000 135 36 45
-1.826283e+000 -5.436400e-001 -9.847412e+000 105 29 38
-1.082718e+000 -1.004461e+000 -9.465225e+000 250 215 95
-1.039243e+000 -1.050675e+000 -9.683678e+000 107 42 38
-4.209285e-001 -1.042115e+000 -9.945098e+000 62 52 49
2.784739e+000 -1.115056e+000 -1.361500e+001 147 106 101
1.239730e+000 2.083651e+000 -1.146375e+001 162 102 47
1.223256e+000 1.831514e+000 -1.148080e+001 205 148 74
-1.583785e+000 7.976152e-001 -9.656880e+000 137 34 45
-1.382532e+000 4.123300e-001 -9.427945e+000 121 34 40
-8.888255e-001 1.166357e-001 -9.203362e+000 207 93 89
-9.297145e-001 -8.784104e-002 -9.309803e+000 124 35 41
-2.103968e+000 3.949877e-001 -9.815028e+000 146 34 46
-2.120542e+000 -1.512015e-001 -9.933131e+000 219 102 102
-1.447471e+000 -4.257741e-001 -9.462106e+000 123 35 41
1.233259e+000 -3.326224e-001 -1.085674e+001 50 52 53
-2.155399e+000 -3.224741e-001 -9.975928e+000 138 34 43
-1.840358e+000 -7.071875e-001 -9.932554e+000 218 76 80
-2.160388e+000 -8.228234e-001 -1.033709e+001 136 41 49
-1.927977e+000 -7.991700e-001 -1.013078e+001 138 36 41
-1.700028e+000 -1.217469e+000 -1.035126e+001 124 41 48
3.261614e-001 -9.330264e-001 -1.235616e+001 239 230 223
3.767258e-001 -1.190828e+000 -1.225695e+001 88 46 55
3.140089e-001 -1.347619e+000 -1.243275e+001 236 229 220
1.340474e+000 1.802798e+000 -1.117756e+001 189 136 51
-2.026822e+000 6.831504e-001 -9.936433e+000 218 77 79
-1.633674e+000 2.622514e-001 -9.530147e+000 104 32 40
-1.645197e+000 -1.908178e-001 -9.461484e+000 113 29 36
-1.744329e+000 -2.480826e-001 -9.585347e+000 112 30 36
2.328559e+000 -2.008084e+000 -1.344592e+001 236 229 219
2.390645e+000 9.954250e-001 -1.240340e+001 91 41 38
2.612125e+000 -6.224773e-001 -1.318310e+001 113 77 44
1.937944e+000 -1.357496e+000 -1.247331e+001 101 46 46
-1.083300e+000 -9.448628e-001 -9.242418e+000 206 162 36
-1.083300e+000 -9.448628e-001 -9.242418e+000 206 162 36
-1.033694e+000 -8.814007e-001 -9.257559e+000 169 111 42
-1.033694e+000 -8.814007e-001 -9.257559e+000 169 111 42
7.679848e-001 -1.551436e+000 -1.080808e+001 95 46 46
-2.378606e+001 -1.451715e+001 -4.806285e+001 83 79 81
-2.316190e+001 -2.015193e+001 -4.727326e+001 42 51 90
-2.276299e+001 -1.976533e+001 -4.645026e+001 42 51 90
-2.345577e+001 -2.114081e+001 -4.655899e+001 49 50 55
-1.767847e+001 8.845711e+000 -3.576624e+001 78 73 79
-2.896607e+001 3.070906e+001 -6.340509e+001 38 45 69
-2.491943e+001 4.048492e+001 -6.669774e+001 73 73 81
-1.864298e-001 1.220994e+000 -9.476642e+000 67 87 81
9.586946e-001 -3.548383e-001 -1.019957e+001 140 90 57
1.053754e+000 -3.041831e-001 -1.047428e+001 134 87 52
-2.268171e+000 -5.513223e-001 -1.010496e+001 182 46 56
-1.330586e+000 -1.437612e+000 -1.030998e+001 140 101 100
5.024208e+000 -2.686816e+000 -1.129925e+001 203 192 186
5.024208e+000 -2.686816e+000 -1.129925e+001 203 192 186
5.153156e+000 5.361964e+000 -1.212875e+001 201 192 183
6.042586e+000 -2.031198e-001 -1.005878e+001 226 213 205
1.539868e+000 1.435075e+000 -1.154881e+001 107 75 56
-2.315882e+000 7.488673e-001 -1.024794e+001 214 95 91
-2.097165e+000 -4.157051e-002 -9.593613e+000 213 72 77
5.806834e+000 -1.398792e+000 -1.014204e+001 255 251 242
5.806834e+000 -1.398792e+000 -1.014204e+001 255 251 242
-2.211490e+000 -5.491274e-001 -1.005845e+001 175 43 51
1.147215e+000 -1.833507e+000 -1.224123e+001 162 120 117
5.350470e+000 -3.341921e+000 -1.067469e+001 241 232 227
-1.072433e+001 4.485460e+000 -2.683939e+001 229 218 215
4.604884e+000 -4.391379e+000 -1.191071e+001 254 245 238
6.234440e+000 8.436387e-001 -9.959886e+000 247 237 228
1.297242e+000 1.319717e+000 -1.017657e+001 145 73 72
1.297242e+000 1.319717e+000 -1.017657e+001 145 73 72
1.366450e+000 1.334373e+000 -1.028750e+001 109 44 44
5.599249e+000 1.422968e-001 -1.090267e+001 148 137 133
5.599249e+000 1.422968e-001 -1.090267e+001 148 137 133
5.681871e+000 1.145487e-001 -1.075430e+001 165 154 149
5.665042e+000 -1.398264e+000 -1.057090e+001 231 218 210
-2.718933e+000 4.194213e-001 -1.041713e+001 232 81 87
5.456765e+000 -1.511832e+000 -1.062054e+001 186 173 167
-2.631302e+000 -2.900076e-001 -1.137268e+001 214 100 100
2.080462e+000 -1.876031e+000 -1.287051e+001 158 114 111
4.558111e+000 -3.478067e+000 -1.194487e+001 216 210 198
4.486651e+000 -3.930631e+000 -1.220864e+001 251 242 235
4.486651e+000 -3.930631e+000 -1.220864e+001 251 242 235
2.210201e+000 1.404069e+000 -1.016430e+001 104 149 144
2.462129e+000 1.333846e+000 -1.049378e+001 226 223 214
1.446751e+000 1.708524e+000 -1.107489e+001 200 153 74
-1.838842e+000 -1.224626e-001 -9.559165e+000 225 103 104
-2.641513e+000 5.307659e-002 -1.078742e+001 215 95 94
-1.202710e+000 -7.581125e-001 -9.611532e+000 142 40 36
-1.266984e+000 -9.819760e-001 -9.772675e+000 186 96 88
-1.173409e+000 -1.024984e+000 -9.571521e+000 204 92 91
-1.171418e+000 -1.024410e+000 -9.574600e+000 204 92 91
-5.951597e-001 -1.041683e+000 -9.835859e+000 116 92 48
-2.877049e-001 -1.052830e+000 -9.802218e+000 84 86 71
-1.757771e+000 -9.801727e-001 -1.036429e+001 115 42 45
-2.462858e+000 -7.926344e-001 -1.111662e+001 216 89 90
-2.017347e+000 -1.145042e+000 -1.125738e+001 217 92 96
-1.935155e+000 -1.199629e+000 -1.152909e+001 213 98 99
-8.933088e-001 -1.262132e+000 -1.212842e+001 166 123 117
1.263398e+000 1.383580e+000 -1.013649e+001 114 50 49
2.122700e+000 1.406973e+000 -1.015291e+001 73 81 88
-2.592011e+000 3.806218e-001 -1.066398e+001 232 110 106
-1.398375e+000 -5.766515e-001 -9.414709e+000 210 97 96
-7.681506e-001 -1.041464e+000 -9.680346e+000 126 95 48
2.216735e+000 -7.725412e-001 -1.277206e+001 87 51 39
-2.525459e+000 -7.791543e-001 -1.094510e+001 232 230 222
-1.936648e+000 -1.061316e+000 -1.066087e+001 155 41 49
-7.372069e-001 -1.377277e+000 -1.039050e+001 106 53 52
-1.287287e+001 7.356334e+000 -2.958031e+001 218 205 197
-1.415683e+001 6.730357e+000 -3.111813e+001 218 199 185
-1.499754e-001 1.148419e+000 -9.548554e+000 73 77 60
1.373705e+000 1.912282e+000 -1.106642e+001 150 80 48
8.139192e-003 8.761877e-001 -9.656104e+000 67 63 50
-7.698011e-001 4.949977e-001 -9.119715e+000 138 53 46
-5.390736e-002 5.299008e-001 -9.538960e+000 60 60 58
-2.159876e+000 6.942936e-001 -9.907200e+000 209 91 89
2.686691e+000 6.662851e-001 -1.244509e+001 107 73 46
-1.128298e-001 -7.906223e-001 -9.746577e+000 69 66 51
9.209626e-001 -6.261717e-001 -1.092823e+001 76 35 37
-1.308730e-001 -1.046746e+000 -1.034552e+001 97 43 43
-1.780017e+000 -1.251804e+000 -1.059492e+001 209 96 94
-5.087325e-001 -1.415883e+000 -1.064725e+001 141 106 102
8.135741e-001 -1.866878e+000 -1.195226e+001 160 114 111
-1.234052e+001 3.652764e+000 -2.848486e+001 199 182 172
-1.740468e+000 7.811590e-001 -9.589982e+000 219 101 100
-1.398957e+000 7.196233e-001 -9.370151e+000 133 34 41
1.881014e+000 3.843467e-001 -1.143186e+001 83 77 72
3.164102e+000 1.358251e+000 -1.320688e+001 100 51 51
-2.247361e+000 5.467416e-001 -9.976799e+000 217 82 84
-2.257991e+000 -4.389830e-001 -1.017160e+001 215 104 99
-9.519912e-002 -1.102526e+000 -9.952794e+000 160 137 92
-2.485451e+000 -4.194225e-001 -1.046018e+001 220 99 94
-2.361681e+000 -3.440306e-001 -1.079655e+001 154 39 45
-1.803404e+000 -8.973604e-001 -1.001785e+001 211 89 84
2.233344e-001 -7.751757e-001 -1.166171e+001 140 92 92
2.553692e+000 -1.269539e+000 -1.349350e+001 227 220 210
3.536172e-001 -1.575403e+000 -1.238496e+001 153 77 79
7.450652e-001 -1.724959e+000 -1.203105e+001 104 48 51
1.483056e+000 -1.832001e+000 -1.257346e+001 177 154 122
-8.579881e-001 1.142207e+000 -9.124005e+000 145 88 50
-1.817146e+000 1.765873e+000 -1.045906e+001 211 95 96
-1.511566e+000 8.853918e-001 -9.470471e+000 213 84 87
-1.056062e+000 3.719805e-001 -9.268523e+000 206 80 79
1.255324e+000 6.649941e-001 -1.054364e+001 230 224 212
-8.951622e-001 1.026733e-001 -9.182971e+000 207 93 89
-1.083100e+000 -1.725535e-002 -9.304318e+000 219 79 79
-2.104618e+000 3.884448e-001 -9.803975e+000 146 34 46
-1.568797e+000 1.993277e-002 -9.472264e+000 219 73 76
-1.413488e+000 -7.455811e-003 -9.448513e+000 120 35 40
-1.404009e+000 -2.814337e-001 -9.360960e+000 208 91 86
-1.104163e+000 -4.415280e-001 -9.283124e+000 255 228 89
-2.302469e+000 2.509159e-001 -1.018592e+001 228 83 84
-2.294620e+000 1.840822e-001 -1.006790e+001 228 83 84
-2.359489e+000 3.047684e-002 -1.019386e+001 153 36 45
-2.359510e+000 1.181297e-002 -1.015779e+001 153 36 45
-2.131959e+000 3.856407e-002 -9.925123e+000 151 32 41
-2.392664e+000 -3.857004e-001 -1.018959e+001 146 37 46
4.041671e-001 -7.010761e-001 -1.055781e+001 107 46 44
6.534885e-001 -6.456670e-001 -1.080706e+001 124 90 46
2.130379e+000 -2.958365e-001 -1.225218e+001 66 32 37
-2.308904e+000 -5.866367e-001 -1.063227e+001 224 91 93
-1.952323e+000 -8.798096e-001 -1.068591e+001 123 45 48
-1.952323e+000 -8.798096e-001 -1.068591e+001 123 45 48
-1.333293e+001 7.027783e+000 -2.879205e+001 180 165 158
-6.122339e+000 2.641087e+000 -2.643658e+001 100 101 107
2.514639e+000 1.433034e+000 -1.012973e+001 225 221 210
-1.296790e+000 1.869278e+000 -1.026229e+001 121 51 55
1.513937e+000 1.440279e+000 -1.064042e+001 94 42 44
-1.940695e-001 -3.511431e-001 -9.642397e+000 62 54 52
-1.887012e+000 -5.066181e-001 -9.925678e+000 113 30 40
-1.358890e+001 6.661627e+000 -2.958185e+001 232 216 201
1.943952e+000 1.088956e+000 -1.176869e+001 226 227 216
-9.405028e-001 -1.236542e+000 -1.184121e+001 145 110 108
-1.062726e+001 4.036712e+000 -2.639035e+001 254 254 254
-6.250025e-001 1.241597e+000 -9.225984e+000 138 100 63
1.882570e+000 1.085230e+000 -1.110069e+001 94 44 47
5.096869e-001 -1.614724e+000 -1.245890e+001 117 54 60
1.917903e+000 -7.602846e-001 -1.254519e+001 72 36 40
-2.767900e+000 -4.050466e-001 -1.170972e+001 238 231 221
3.168049e+000 -1.428986e+000 -1.392065e+001 198 185 179
3.956911e+000 -2.367583e+000 -1.339212e+001 175 168 162
-8.371450e-002 1.147592e+000 -9.754188e+000 78 79 65
2.875006e+000 1.282852e+000 -1.217674e+001 234 226 215
1.248518e+000 -1.891203e+000 -1.366065e+001 235 227 219
2.213948e+000 -2.444551e+000 -1.345352e+001 237 228 219
-1.411771e+001 4.982063e+000 -3.096210e+001 155 145 141
-5.918368e-002 -4.821151e-001 -9.488473e+000 124 96 48
-1.699151e-001 4.918144e-001 -9.556170e+000 117 94 46
-2.056433e-001 6.006168e-001 -9.537079e+000 54 55 50
-1.583707e+000 7.868934e-001 -9.640554e+000 136 30 40
9.610911e+000 -1.125709e+001 -1.114752e+002 222 214 203
-2.350020e+001 -1.368440e+001 -4.871509e+001 56 56 58
-2.398499e+001 -1.507071e+001 -4.910623e+001 48 52 78
-2.459453e+001 -1.591734e+001 -4.984907e+001 100 98 99
-2.301014e+001 -2.029038e+001 -4.637750e+001 132 133 138
-3.365904e+001 4.751089e+001 -8.149913e+001 22 21 29
2.072616e-001 -7.186966e-001 -1.003478e+001 144 108 55
-9.555565e-002 -1.064923e+000 -9.714919e+000 134 106 54
4.995283e+000 1.907094e+000 -1.194224e+001 176 169 163
-8.357571e-001 2.354532e-001 -9.147122e+000 171 71 71
3.334852e-001 -6.761495e-001 -1.046226e+001 91 41 25
-2.072767e+000 -4.117294e-001 -9.967202e+000 181 69 74
5.649028e+000 -2.487610e+000 -1.018145e+001 254 252 247
5.369211e+000 -3.071939e+000 -1.066791e+001 238 225 222
5.025723e+000 -4.621586e+000 -1.119727e+001 242 229 226
1.786823e+000 1.572241e+000 -1.026365e+001 101 64 66
1.660219e+000 1.553641e+000 -1.016393e+001 112 67 69
-7.543059e-001 6.333590e-001 -9.101158e+000 148 103 52
-8.358284e-001 3.976549e-001 -9.079195e+000 183 75 73
-9.188269e-001 -9.669585e-001 -9.261335e+000 228 199 83
2.186668e+000 -9.969476e-001 -1.277465e+001 97 53 42
-1.350652e+001 7.535021e+000 -3.060294e+001 239 223 210
2.509449e+000 1.289870e+000 -1.074837e+001 225 218 213
-9.653235e-001 -1.106608e+000 -9.288865e+000 134 93 40
-2.328270e+001 3.899841e+001 -6.376454e+001 70 70 78
4.805756e+000 -3.051140e+000 -1.143775e+001 219 208 202
5.323647e+000 -3.087961e+000 -1.066994e+001 254 247 242
-1.184655e+001 7.379891e+000 -2.855434e+001 225 219 214
-2.083412e+000 -8.427062e-001 -1.050308e+001 218 105 103
1.427055e+000 1.655739e+000 -1.100537e+001 194 146 76
-1.597530e+000 -1.199769e+000 -1.052341e+001 190 89 90
-3.302556e-001 -1.028898e+000 -9.654775e+000 62 65 59
-2.842990e-001 -1.035658e+000 -9.826691e+000 92 95 78
2.650658e+000 -3.201446e-001 -1.268202e+001 149 130 127
-2.610351e+000 -9.032633e-002 -1.121041e+001 180 39 44
4.849708e-001 -1.664201e+000 -1.279550e+001 178 89 87
2.519293e+000 1.229959e+000 -1.070333e+001 232 224 214
-1.124327e+000 -1.082980e+000 -1.011585e+001 137 64 63
-8.084358e-001 1.347681e+000 -9.134800e+000 231 213 176
-1.440672e+000 -7.815216e-002 -9.426038e+000 127 35 40
1.455086e+000 -1.825955e-001 -1.100221e+001 64 87 89
-2.507213e+000 2.365347e-001 -1.043654e+001 224 89 89
-2.009918e+000 -8.533434e-001 -1.036316e+001 218 97 89
-1.235706e+001 8.185878e+000 -2.878088e+001 103 102 108
2.359241e+000 9.861966e-001 -1.084610e+001 137 105 64
-2.192635e+000 -5.065160e-001 -1.036846e+001 138 35 48
-2.192635e+000 -5.065160e-001 -1.036846e+001 138 35 48
-2.066265e+000 -7.004088e-001 -1.017906e+001 223 95 95
-5.394606e-002 -1.014743e+000 -1.013118e+001 164 134 91
-1.748582e+000 -9.561528e-001 -1.023754e+001 121 42 47
-1.829896e+000 -1.114826e+000 -1.037009e+001 217 106 102
1.910591e+000 -1.845816e+000 -1.331098e+001 151 108 104
-1.799156e+000 1.443566e+000 -1.017711e+001 162 45 54
-7.339489e-001 -7.070630e-001 -9.479279e+000 152 106 50
-4.786574e-001 -8.397639e-001 -9.952401e+000 146 116 64
-1.799720e+000 -1.099779e+000 -1.162005e+001 188 99 97
-5.642750e+000 1.182925e+001 -2.557417e+001 218 214 205
-9.860712e-001 -7.631064e-001 -9.363385e+000 178 114 47
2.038189e+000 1.607696e+000 -1.007030e+001 84 86 87
1.066730e+000 4.878537e-001 -1.029903e+001 115 75 50
-2.131920e+001 -1.673022e+001 -4.511443e+001 79 86 106
-1.699426e+000 1.040806e+000 -9.790979e+000 127 24 35
5.277172e+000 5.432874e+000 -1.062967e+001 251 239 234
5.267552e+000 5.329813e+000 -1.055859e+001 251 243 238
5.401018e+000 5.446099e+000 -1.040070e+001 228 215 209
5.423525e+000 5.401428e+000 -1.035445e+001 231 219 213
5.423525e+000 5.401428e+000 -1.035445e+001 231 219 213
5.358143e+000 5.195020e+000 -1.057425e+001 235 221 215
5.358143e+000 5.195020e+000 -1.057425e+001 235 221 215
5.492718e+000 4.904516e+000 -1.032865e+001 255 250 244
5.492718e+000 4.904516e+000 -1.032865e+001 255 250 244
5.614360e+000 4.928118e+000 -1.028221e+001 235 221 215
5.458964e+000 4.616046e+000 -1.041043e+001 250 241 232
5.562371e+000 4.684032e+000 -1.030220e+001 249 240 233
5.361512e+000 4.332994e+000 -1.057256e+001 238 225 219
5.647289e+000 4.577276e+000 -1.012863e+001 239 226 218
5.712242e+000 4.539483e+000 -1.006663e+001 244 227 222
5.710627e+000 4.450189e+000 -1.007997e+001 239 225 220
5.741179e+000 4.482837e+000 -1.005295e+001 253 246 241
5.695224e+000 4.410477e+000 -1.009086e+001 254 249 244
5.355971e+000 3.929398e+000 -1.072500e+001 253 245 238
5.221948e+000 3.721288e+000 -1.091299e+001 234 223 218
5.818914e+000 3.820479e+000 -9.899539e+000 255 247 243
-1.091768e+000 1.785654e+000 -1.001340e+001 177 75 76
-1.752461e-001 1.856605e+000 -1.032918e+001 162 116 111
-2.693848e-001 5.244739e-001 -9.629951e+000 92 77 43
5.311121e+000 5.300500e+000 -1.058657e+001 228 214 210
4.800899e+000 5.105952e+000 -1.144292e+001 238 226 220
4.960879e+000 4.987285e+000 -1.121174e+001 231 218 212
5.446709e+000 5.014182e+000 -1.060958e+001 251 241 239
5.604851e+000 5.051136e+000 -1.023499e+001 250 238 232
5.402543e+000 4.770291e+000 -1.057758e+001 235 222 216
5.402543e+000 4.770291e+000 -1.057758e+001 235 222 216
5.476217e+000 4.713219e+000 -1.045740e+001 233 220 214
5.561084e+000 4.648737e+000 -1.029463e+001 235 220 214
5.726497e+000 4.386250e+000 -1.010366e+001 239 226 220
5.823278e+000 3.708940e+000 -1.008060e+001 254 245 241
5.823278e+000 3.708940e+000 -1.008060e+001 254 245 241
5.762939e+000 3.664952e+000 -9.997295e+000 240 227 224
5.518099e+000 3.349150e+000 -1.062497e+001 253 247 244
-1.141444e+000 1.928472e+000 -1.005089e+001 166 123 116
-1.811156e+000 1.486122e+000 -9.953203e+000 229 99 99
-2.036507e+000 1.236795e+000 -1.034399e+001 219 101 101
5.445921e-001 1.494056e+000 -1.196112e+001 208 193 186
1.291619e+000 1.835373e+000 -1.122877e+001 197 143 59
1.328430e+000 1.873762e+000 -1.091119e+001 205 152 74
1.956194e+000 2.147854e+000 -1.057588e+001 153 106 102
1.254296e+000 1.309213e+000 -9.955081e+000 128 54 54
-1.439308e+000 2.909648e-001 -9.443507e+000 133 33 36
1.124157e+000 4.992012e-001 -1.056433e+001 124 95 50
-2.286654e+000 -7.520649e-001 -1.061942e+001 206 82 83
5.308575e+000 5.004320e+000 -1.057028e+001 229 218 212
5.308575e+000 5.004320e+000 -1.057028e+001 229 218 212
5.143266e+000 4.155319e+000 -1.107295e+001 230 218 212
5.344899e+000 4.204196e+000 -1.077686e+001 232 220 214
-1.612432e+000 1.947363e+000 -1.018527e+001 213 98 98
-1.504012e+000 1.578431e+000 -1.016485e+001 199 98 94
1.717196e+000 2.103676e+000 -1.021729e+001 177 108 103
-1.791012e+000 1.208242e+000 -9.881758e+000 208 90 86
-1.726656e+000 1.319814e+000 -9.645515e+000 226 78 78
-8.793517e-001 1.468549e+000 -9.782641e+000 106 29 32
1.513031e+000 1.758700e+000 -1.002566e+001 171 83 81
5.545814e+000 2.246493e+000 -1.054910e+001 250 236 233
-2.640869e+000 6.627388e-001 -1.056226e+001 227 84 86
1.403778e+000 1.314529e+000 -9.985706e+000 110 58 59
2.182124e+000 1.575413e+000 -9.904559e+000 64 64 72
2.301906e+000 1.545912e+000 -9.945199e+000 103 107 110
2.368008e+000 1.622648e+000 -1.009434e+001 125 132 133
2.371922e+000 1.571929e+000 -1.010755e+001 64 68 77
5.752340e+000 1.930718e+000 -1.036742e+001 228 217 209
5.681007e+000 1.726709e+000 -1.054660e+001 218 207 201
-3.471653e-001 -1.011019e+000 -9.830041e+000 58 67 62
-3.471653e-001 -1.011019e+000 -9.830041e+000 58 67 62
5.642385e+000 4.946383e+000 -1.020429e+001 233 220 212
-1.824423e+000 1.924771e+000 -1.053935e+001 239 229 217
-1.674804e+000 2.046241e+000 -1.091904e+001 219 91 95
-1.003947e+000 1.836776e+000 -9.957288e+000 196 95 89
1.505292e+000 2.184285e+000 -1.064090e+001 197 87 86
5.236807e+000 3.122898e+000 -1.115542e+001 233 223 213
-1.904145e+000 1.494851e+000 -1.026907e+001 223 104 98
1.669282e+000 2.067418e+000 -9.982966e+000 144 70 68
5.151720e+000 2.596151e+000 -1.127451e+001 244 233 227
-1.310727e+000 1.207054e+000 -9.644214e+000 116 31 34
-1.431051e-001 1.347886e+000 -9.529368e+000 79 79 68
1.900453e+000 1.473359e+000 -9.929959e+000 67 82 81
-2.545014e+000 -1.701349e-001 -1.034417e+001 222 71 75
-9.153726e-001 5.915126e-001 -9.286201e+000 231 181 87
-2.243836e+000 -5.728524e-001 -1.034676e+001 202 99 95
-2.058167e+000 -1.809300e-001 -9.854342e+000 199 76 78
-2.118225e+000 -5.216658e-001 -1.015181e+001 174 68 64
-1.624329e+000 -3.235668e-001 -9.730058e+000 123 29 33
-1.087838e+000 -7.935938e-001 -9.652592e+000 251 208 95
-3.025342e-001 -9.794021e-001 -9.682594e+000 89 106 99
-1.551857e+000 1.890438e+000 -1.013903e+001 207 93 85
-1.551857e+000 1.890438e+000 -1.013903e+001 207 93 85
-1.734736e+000 1.714612e+000 -1.032256e+001 167 34 42
-7.419418e-001 1.878786e+000 -9.905718e+000 165 122 116
1.555106e+000 2.269148e+000 -1.183443e+001 160 76 73
-2.251333e+000 1.373591e+000 -1.053337e+001 185 34 40
1.142646e+000 1.815250e+000 -1.139278e+001 206 152 67
-2.662417e+000 7.700517e-001 -1.068566e+001 222 218 211
-1.804556e+000 1.266717e+000 -9.910204e+000 172 29 36
-1.804556e+000 1.266717e+000 -9.910204e+000 172 29 36
1.450022e+000 1.732029e+000 -1.009396e+001 121 39 47
1.407982e+000 1.626111e+000 -1.003936e+001 123 40 42
-1.099273e+000 1.155207e+000 -9.366620e+000 160 44 36
-1.817979e-001 1.292163e+000 -9.445595e+000 51 54 49
3.414563e-002 1.309775e+000 -9.537523e+000 59 61 60
1.889624e+000 1.303940e+000 -1.027351e+001 55 44 47
2.164067e+000 1.131944e+000 -1.041488e+001 131 105 51
-1.426630e+000 -6.262413e-001 -9.594729e+000 174 87 83
-2.305519e-001 -9.612186e-001 -9.691156e+000 88 108 98
-2.060377e+000 1.557961e+000 -1.034682e+001 216 94 91
1.154385e+000 2.246366e+000 -1.129977e+001 229 195 94
1.487505e+000 2.138934e+000 -1.095260e+001 230 188 92
-2.028084e+000 1.323324e+000 -1.023787e+001 175 30 40
-2.028084e+000 1.323324e+000 -1.023787e+001 175 30 40
-9.253478e-001 1.512828e+000 -9.941092e+000 182 86 82
1.154877e+000 1.994603e+000 -1.112797e+001 171 100 50
1.171299e+000 1.693624e+000 -1.111679e+001 145 87 43
1.576273e+000 2.072101e+000 -1.003205e+001 199 97 96
1.576388e+000 1.977400e+000 -1.007973e+001 126 49 53
1.587575e+000 1.969857e+000 -1.013794e+001 126 49 53
-1.983612e+000 1.048402e+000 -9.883375e+000 205 89 82
-1.464271e+000 1.388915e+000 -9.684428e+000 222 104 100
-1.077511e+000 1.377721e+000 -9.597459e+000 200 95 89
1.468914e+000 1.714634e+000 -1.107136e+001 201 156 67
1.287843e+000 1.541022e+000 -1.000470e+001 125 44 48
1.287843e+000 1.541022e+000 -1.000470e+001 125 44 48
-2.462731e+000 5.977959e-001 -1.034835e+001 219 85 86
-1.290507e+000 9.506312e-001 -9.323838e+000 203 84 78
-1.290091e+000 9.539160e-001 -9.308803e+000 203 84 78
-8.417376e-002 1.242921e+000 -9.457780e+000 80 86 60
2.121253e+000 1.454613e+000 -1.015701e+001 72 74 78
-2.487425e+000 2.025377e-001 -1.031654e+001 213 77 79
-2.214969e+000 5.756517e-001 -9.853694e+000 226 86 87
-1.902908e+000 5.215226e-001 -9.683591e+000 145 33 41
-1.792988e+000 6.002983e-001 -9.527217e+000 205 83 82
-1.792988e+000 6.002983e-001 -9.527217e+000 205 83 82
2.124356e+000 9.319011e-001 -1.042322e+001 145 118 52
1.297795e+000 5.552355e-001 -1.108413e+001 45 41 45
-2.214759e+000 -7.239947e-001 -1.049056e+001 163 45 50
-2.223630e+000 -8.600483e-001 -1.058686e+001 220 209 203
-1.736715e+000 -5.986207e-001 -9.970937e+000 212 98 93
-2.839032e-001 -3.205436e-001 -9.593458e+000 47 49 41
-8.046419e-001 -4.737523e-001 -9.456235e+000 129 88 44
-1.263536e+000 -1.208749e+000 -1.011560e+001 159 57 52
-3.280240e-001 -1.101012e+000 -9.802668e+000 58 61 62
6.994839e-001 2.180203e+000 -1.147373e+001 129 53 59
1.021595e+000 2.234853e+000 -1.142107e+001 127 58 50
-1.969364e+000 1.471352e+000 -1.008629e+001 149 32 42
-1.969364e+000 1.471352e+000 -1.008629e+001 149 32 42
-1.745107e+000 1.428914e+000 -9.716522e+000 151 35 44
1.029225e+000 1.854065e+000 -1.138719e+001 91 45 47
1.539715e+000 2.129252e+000 -1.021520e+001 146 59 65
1.920366e+000 2.012950e+000 -1.029253e+001 104 46 49
-2.198195e+000 1.139698e+000 -1.050231e+001 153 33 43
-2.123630e+000 1.092269e+000 -9.989031e+000 226 101 95
-2.006970e+000 1.107682e+000 -1.023941e+001 147 34 41
-2.006970e+000 1.107682e+000 -1.023941e+001 147 34 41
-1.043288e+000 1.303216e+000 -9.300127e+000 143 40 39
1.259162e+000 1.636742e+000 -1.098885e+001 169 124 57
1.303711e+000 1.672727e+000 -1.045463e+001 132 63 46
-2.727097e+000 3.736772e-001 -1.080964e+001 224 218 212
-2.353364e+000 7.684865e-001 -1.026086e+001 224 101 96
-2.303281e+000 6.655848e-001 -1.004592e+001 150 34 40
-1.379550e+000 8.648533e-001 -9.396817e+000 134 33 37
-1.379550e+000 8.648533e-001 -9.396817e+000 134 33 37
-2.387023e+000 3.601274e-001 -1.031813e+001 228 97 98
-2.175632e+000 2.853928e-001 -1.003475e+001 217 97 94
-2.216493e+000 -1.284081e-001 -1.011324e+001 218 105 101
-2.216493e+000 -1.284081e-001 -1.011324e+001 218 105 101
-1.929567e+000 1.199686e-001 -9.663666e+000 141 32 39
-1.820066e+000 -3.206736e-001 -9.833111e+000 215 99 99
-1.486507e+000 -3.744356e-001 -9.586900e+000 140 31 42
2.270459e+000 -9.881272e-001 -1.292639e+001 89 58 42
-1.514937e+000 -8.455810e-001 -9.953273e+000 102 35 44
-1.383213e+000 -8.319791e-001 -9.793756e+000 208 105 100
3.991461e-001 -6.910913e-001 -1.015205e+001 122 98 55
-3.096390e-001 -9.193811e-001 -9.855159e+000 63 66 57
-1.615018e+000 1.708988e+000 -1.007693e+001 219 83 83
-1.118381e+000 1.861841e+000 -9.985183e+000 101 40 44
-9.773757e-001 1.652646e+000 -1.003983e+001 120 37 43
1.257461e+000 2.025277e+000 -1.094026e+001 239 197 79
1.415209e+000 1.776117e+000 -1.088579e+001 207 155 77
-1.684553e+000 1.279343e+000 -9.613414e+000 225 78 81
-1.215454e+000 1.230809e+000 -9.511093e+000 218 94 91
-9.087581e-001 1.324356e+000 -9.323218e+000 255 217 93
1.423186e+000 1.702777e+000 -9.987428e+000 129 46 46
1.627508e+000 1.894008e+000 -1.014593e+001 108 41 49
2.141273e+000 1.675390e+000 -1.022595e+001 75 53 55
-2.074339e+000 7.262882e-001 -9.889535e+000 219 107 103
-1.570509e+000 9.436351e-001 -9.550131e+000 144 30 37
-6.570943e-001 1.247612e+000 -9.148718e+000 134 90 45
1.378078e+000 1.412935e+000 -1.014525e+001 93 33 37
-2.333337e+000 2.466597e-001 -1.012772e+001 157 32 46
-2.084577e+000 5.964904e-001 -9.783858e+000 151 31 41
-1.514627e+000 7.809932e-001 -9.442680e+000 216 83 78
-1.350316e+000 6.048891e-001 -9.357285e+000 205 92 88
-2.113045e+000 1.903393e-001 -9.805905e+000 148 30 41
-1.387722e+000 3.905775e-001 -9.385194e+000 112 25 34
-1.381552e+000 1.839807e-001 -9.437494e+000 194 86 84
-8.334131e-001 5.971969e-001 -9.130554e+000 236 200 87
-1.708783e+000 -1.167261e-001 -9.624293e+000 109 27 34
-8.997775e-001 1.608120e-001 -9.202643e+000 197 86 84
2.708891e+000 -4.670984e-001 -1.286905e+001 86 62 36
-1.665180e+000 -2.735217e-001 -9.608038e+000 136 27 46
-1.667139e+000 -2.833432e-001 -9.637810e+000 136 27 46
-1.205691e+000 -7.514325e-001 -9.640716e+000 125 39 41
1.793802e+000 -1.407529e+000 -1.264500e+001 89 50 53
-1.156865e+000 -9.913861e-001 -9.793622e+000 254 223 93
1.069721e-001 -1.126023e+000 -1.019832e+001 125 99 62
3.150799e-001 -1.168452e+000 -1.060281e+001 225 218 208
1.349680e+000 2.153596e+000 -1.130662e+001 240 201 84
3.964855e-001 1.470226e+000 -1.182051e+001 233 227 218
-2.059396e+000 9.094157e-001 -9.826839e+000 135 29 41
-9.993975e-001 1.140210e+000 -9.220432e+000 255 220 88
4.634724e-001 1.038868e+000 -1.024307e+001 87 35 37
1.165565e+000 1.457858e+000 -9.995947e+000 192 59 58
1.033386e+000 8.314808e-001 -1.027226e+001 119 93 47
1.944554e+000 1.092252e+000 -1.055527e+001 172 133 64
2.015203e+000 1.291254e+000 -1.007807e+001 56 67 68
-1.849637e+000 2.847559e-001 -9.494814e+000 210 90 91
-1.672094e+000 -5.346928e-001 -9.822876e+000 204 59 60
-1.672094e+000 -5.346928e-001 -9.822876e+000 204 59 60
-9.426507e-001 -6.281062e-001 -9.212748e+000 250 211 89
-1.550859e+000 -1.274531e+000 -1.046690e+001 106 44 46
3.855395e-001 1.755646e+000 -1.179661e+001 92 39 47
-4.282629e-001 1.322749e+000 -9.478392e+000 143 113 58
-1.383991e-001 6.065263e-001 -9.564272e+000 52 51 47
-2.426236e+000 -2.095775e-001 -1.019858e+001 176 34 48
2.378204e+000 1.401466e+000 -1.050319e+001 94 80 80
1.909697e-001 1.034116e+000 -9.444725e+000 127 95 48
-1.763458e+000 2.348484e-002 -9.576403e+000 112 27 33
-7.797921e-001 -1.014077e+000 -9.573573e+000 117 86 51
1.351116e+000 1.769697e+000 -1.165487e+001 209 155 67
-9.176791e-001 1.268024e+000 -9.140416e+000 185 127 56
-9.176791e-001 1.268024e+000 -9.140416e+000 185 127 56
-8.781524e-002 9.614573e-001 -9.678059e+000 65 56 48
-8.781524e-002 9.614573e-001 -9.678059e+000 65 56 48
3.558742e+000 -1.702233e+000 -1.376008e+001 64 54 55
7.488805e-001 1.947301e+000 -1.199731e+001 119 42 48
-3.334790e-001 -9.239975e-001 -1.009296e+001 52 55 50
4.114543e+000 1.621550e-001 -1.195081e+001 62 50 50
-2.005429e+000 5.096396e-002 -9.661633e+000 214 115 119
-2.436935e+001 5.455333e+001 -7.254786e+001 33 34 39
-9.712915e-001 -1.097865e+000 -9.338289e+000 162 110 50
-8.081575e-001 -3.883612e-001 -9.235459e+000 156 109 55
-1.366904e+000 -1.811727e-001 -9.347904e+000 202 85 79
9.968594e-001 -6.633680e-001 -1.045860e+001 158 127 63
2.059899e+000 2.144970e+000 -1.033347e+001 221 213 204
2.021860e+000 2.138350e+000 -1.034917e+001 120 77 73
2.357658e+000 1.609389e+000 -1.016910e+001 114 134 132
-1.073394e-001 1.220849e+000 -9.556672e+000 74 97 84
-1.225459e+000 1.601575e+000 -9.834682e+000 235 199 190
-1.151604e+000 -9.729888e-001 -9.572353e+000 210 102 97
-2.091716e+000 -6.299051e-001 -1.019767e+001 233 109 113
-1.609731e+000 -7.638282e-001 -9.759189e+000 168 63 67
-2.475921e+000 -4.133282e-001 -1.054225e+001 219 102 99
-2.074650e+000 -8.028661e-001 -1.049948e+001 204 89 93
-1.596485e+000 -1.037051e+000 -1.028034e+001 170 74 72
-1.112768e+000 -1.157319e+000 -1.012764e+001 128 59 61
2.297596e+000 -1.082324e+000 -1.287660e+001 128 74 52
1.888997e+000 -1.720642e+000 -1.255756e+001 128 88 59
4.179559e+000 -4.164425e+000 -1.235697e+001 254 247 240
2.461262e+000 1.299616e+000 -1.016067e+001 223 222 215
-3.783871e-003 5.609561e-001 -9.637508e+000 70 63 46
-1.356157e+000 -1.268888e-001 -9.380638e+000 188 80 79
-2.348433e+000 -4.388136e-001 -1.034471e+001 203 95 96
-2.290555e+000 -5.554319e-001 -1.016899e+001 173 47 51
