ply
format ascii 1.0
element face 0
property list uchar int vertex_indices
element vertex 870
property float x
property float y
property float z
property uchar diffuse_red
property uchar diffuse_green
property uchar diffuse_blue
end_header
-4.493099e+000 -1.580001e+000 -1.625950e+001 212 64 91
-4.111127e+000 -1.742965e+000 -1.593426e+001 208 62 90
-6.007642e-001 -1.735651e+000 -1.275190e+001 216 65 87
-3.137632e+001 -3.583446e+000 -7.150458e+001 151 154 133
-2.788024e+000 -2.013838e+000 -1.456944e+001 163 10 40
-3.386567e-001 -1.940063e+000 -1.277007e+001 207 64 86
-4.379370e+001 -4.453435e+000 -7.552555e+001 167 164 149
-3.605773e+001 -5.732529e+000 -7.584003e+001 187 185 173
-3.409205e+001 -5.481253e+000 -7.232033e+001 131 110 86
-2.677356e+001 -5.103263e+000 -6.405808e+001 167 164 155
-5.528758e-001 -2.297535e+000 -1.277715e+001 166 69 63
-3.316151e+001 -6.532703e+000 -7.096009e+001 181 171 163
-2.891602e+001 -7.092579e+000 -6.933880e+001 152 156 158
-3.140326e+001 -7.865104e+000 -7.269007e+001 131 135 136
-8.048591e-001 -2.713021e+000 -1.326796e+001 210 56 82
-2.821004e+001 -8.739362e+000 -6.523131e+001 133 147 147
-2.262763e+001 -7.680077e+000 -5.834485e+001 172 148 161
-1.677784e+000 -3.071023e+000 -1.415552e+001 227 73 97
-2.360830e+001 -8.790513e+000 -5.733803e+001 148 158 159
3.219682e-001 -3.351718e+000 -1.284602e+001 212 66 87
-3.276362e+001 -1.124955e+001 -6.791230e+001 207 220 217
-3.959846e-002 -3.443338e+000 -1.299082e+001 189 50 73
2.401629e-002 -3.561517e+000 -1.296830e+001 158 21 41
-3.645987e+001 -1.284755e+001 -7.200310e+001 103 108 106
-3.645987e+001 -1.284755e+001 -7.200310e+001 103 108 106
-2.901744e+001 -1.209729e+001 -6.525456e+001 62 64 59
-2.696629e-001 -3.801643e+000 -1.306566e+001 157 20 43
-3.750376e+001 -1.523002e+001 -7.408468e+001 135 150 155
-3.750376e+001 -1.523002e+001 -7.408468e+001 135 150 155
-3.562639e+001 -1.508471e+001 -7.174410e+001 104 115 112
-4.335797e+000 4.678732e+000 -1.567878e+001 194 181 147
-3.508384e+000 4.597850e+000 -1.560358e+001 127 104 73
-3.508384e+000 4.597850e+000 -1.560358e+001 127 104 73
-3.121544e+000 4.660632e+000 -1.552164e+001 193 168 138
-1.226990e+000 3.488404e+000 -1.352717e+001 171 158 155
-4.645418e+000 4.074445e+000 -1.570084e+001 213 202 168
-4.054547e+000 4.109369e+000 -1.566089e+001 108 74 47
-3.925441e+000 4.114931e+000 -1.559655e+001 185 157 133
-3.091388e+000 4.105258e+000 -1.581336e+001 135 101 79
4.070090e+000 1.993870e+000 -1.078798e+001 202 186 101
4.575712e+000 1.565695e+000 -9.869358e+000 233 216 136
-3.656765e+000 3.790081e+000 -1.563189e+001 210 194 165
-9.453737e-001 2.773985e+000 -1.331835e+001 130 19 35
-5.151876e-001 2.882332e+000 -1.318073e+001 140 23 41
-5.352898e-001 2.714486e+000 -1.324993e+001 127 16 29
-3.513939e-001 2.842271e+000 -1.317517e+001 128 30 47
-1.958401e-001 2.723380e+000 -1.313849e+001 214 66 86
1.179846e-001 2.897818e+000 -1.317963e+001 187 65 80
2.026231e-001 2.848601e+000 -1.326235e+001 131 18 30
-3.601287e+000 3.459767e+000 -1.585566e+001 189 174 143
-3.252657e+000 3.453050e+000 -1.581348e+001 218 189 165
-3.154547e+000 3.445188e+000 -1.597866e+001 81 56 46
-3.154547e+000 3.445188e+000 -1.597866e+001 81 56 46
-1.304162e+000 2.779228e+000 -1.335074e+001 164 27 54
-5.947218e-001 2.536873e+000 -1.298209e+001 203 64 83
-4.415815e-001 2.542394e+000 -1.310301e+001 201 64 82
-3.636757e+000 3.153541e+000 -1.595203e+001 181 157 131
5.671417e-001 1.941819e+000 -1.263068e+001 211 65 82
1.183469e+000 1.860972e+000 -1.227081e+001 198 61 77
1.340375e+000 1.779652e+000 -1.215824e+001 202 70 84
-5.203846e+000 2.974051e+000 -1.612384e+001 184 160 130
-5.158251e+000 3.006432e+000 -1.625111e+001 205 198 162
-4.217158e+000 2.877902e+000 -1.604480e+001 193 163 139
-2.013146e+000 2.260113e+000 -1.367904e+001 220 70 97
3.304906e+000 1.475909e+000 -1.154679e+001 227 215 129
-1.280279e+000 1.953221e+000 -1.333919e+001 220 71 93
-1.347863e+000 1.921747e+000 -1.343553e+001 173 28 51
-1.347863e+000 1.921747e+000 -1.343553e+001 173 28 51
-6.815745e-001 1.896627e+000 -1.322133e+001 107 18 34
-3.938449e-001 1.781302e+000 -1.308061e+001 212 69 87
-4.831819e-002 1.620361e+000 -1.316791e+001 195 55 76
-1.187457e+000 1.316025e+000 -1.404287e+001 186 50 72
1.220521e+000 7.337866e-001 -1.151486e+001 132 26 40
1.220521e+000 7.337866e-001 -1.151486e+001 132 26 40
2.184136e+000 7.150077e-001 -1.126282e+001 189 56 73
-2.125985e+000 1.241760e+000 -1.396418e+001 224 74 106
-1.107523e+000 1.228981e+000 -1.401672e+001 76 10 32
-3.015086e+001 1.228754e+001 -7.730854e+001 80 73 76
-2.327397e+000 8.731179e-001 -1.404308e+001 178 31 60
5.358178e-001 3.221557e-001 -1.203550e+001 114 21 39
1.941320e+000 1.134689e-001 -1.082637e+001 103 16 33
2.089894e+000 8.412797e-002 -1.088535e+001 172 43 59
-5.340179e+000 1.306797e+000 -1.945502e+001 189 207 222
-1.651541e+000 3.854455e-001 -1.327672e+001 108 6 30
-1.075091e+000 3.747292e-001 -1.350051e+001 148 29 57
9.054051e-001 4.707958e-002 -1.152255e+001 214 57 82
-3.263398e+001 8.127471e+000 -7.530950e+001 116 108 121
-4.829843e+000 8.526009e-001 -1.871964e+001 112 120 132
-1.176993e+000 -1.191254e-001 -1.325428e+001 122 18 37
-1.645174e-001 -2.381229e-001 -1.237758e+001 176 26 53
-1.645174e-001 -2.381229e-001 -1.237758e+001 176 26 53
9.042258e-001 -3.828181e-001 -1.121005e+001 231 72 95
1.626488e+000 -3.218296e-001 -1.089249e+001 155 31 49
1.626608e+000 -4.589503e-001 -1.083213e+001 164 21 41
-3.756202e+001 6.923417e+000 -7.936863e+001 157 156 161
-2.623250e+001 5.696316e+000 -7.553025e+001 85 58 77
-9.662505e-001 -3.552391e-001 -1.307351e+001 116 17 31
1.935065e+000 -5.906394e-001 -1.070258e+001 135 23 37
-3.438356e+001 3.863850e+000 -6.854671e+001 100 97 106
-2.631655e+001 3.627790e+000 -6.594954e+001 177 154 162
-1.335566e+000 -5.589313e-001 -1.310005e+001 235 77 102
7.443095e-001 -8.427781e-001 -1.133706e+001 209 47 74
1.102081e+000 -7.635586e-001 -1.124046e+001 176 22 48
-3.531922e+001 3.301613e+000 -7.342663e+001 167 150 142
-2.299778e+001 1.938605e+000 -6.190810e+001 106 85 97
-2.298755e+001 1.771085e+000 -6.282236e+001 92 67 89
-5.112569e+000 -3.743787e-001 -1.666154e+001 165 32 63
-4.566835e+000 -5.205107e-001 -1.610497e+001 157 28 53
-1.012488e+000 -8.639753e-001 -1.290818e+001 168 26 45
-7.069882e-001 -8.238259e-001 -1.275052e+001 200 52 78
-7.069882e-001 -8.238259e-001 -1.275052e+001 200 52 78
-5.150247e-001 -7.133635e-001 -1.290949e+001 157 24 49
-5.150247e-001 -7.133635e-001 -1.290949e+001 157 24 49
9.229983e-001 -1.020335e+000 -1.120724e+001 182 33 53
1.792139e+000 -9.843206e-001 -1.067660e+001 197 58 77
1.995721e+000 -1.283674e+000 -1.082252e+001 127 14 30
2.165359e+000 -1.312510e+000 -1.085747e+001 173 46 65
-3.796488e+001 -2.475960e-001 -8.165671e+001 107 96 102
-1.357306e+000 -1.335893e+000 -1.316503e+001 171 30 48
-1.274516e+000 -1.313440e+000 -1.309574e+001 233 71 95
-1.156461e+000 -1.162636e+000 -1.317335e+001 206 58 82
-1.009045e+000 -1.311322e+000 -1.303978e+001 231 70 95
-2.790139e+001 -1.155372e+000 -6.652888e+001 197 198 182
-2.430730e+001 -1.230754e+000 -6.041414e+001 155 156 136
-2.430730e+001 -1.230754e+000 -6.041414e+001 155 156 136
-1.628360e+000 -1.581243e+000 -1.344595e+001 167 29 51
-1.288879e+000 -1.564804e+000 -1.309885e+001 185 30 54
-1.207185e+000 -1.508654e+000 -1.291563e+001 216 60 84
-1.278078e+000 -1.643652e+000 -1.307640e+001 232 72 98
-8.251662e-001 -1.515023e+000 -1.289705e+001 220 69 91
-2.308815e-001 -1.664181e+000 -1.254645e+001 233 74 102
-1.569436e+000 -1.751277e+000 -1.348301e+001 216 64 87
-1.681339e-001 -1.898038e+000 -1.266834e+001 214 58 82
1.857157e+000 -1.778245e+000 -1.105715e+001 119 19 32
-3.395452e+001 -3.764582e+000 -7.296119e+001 183 182 164
-2.698845e+001 -4.386285e+000 -6.514450e+001 176 175 147
-2.622056e+001 -4.467121e+000 -6.437074e+001 212 212 200
-4.166722e+000 -1.937565e+000 -1.613036e+001 199 53 80
-4.020089e+000 -2.045652e+000 -1.629079e+001 199 62 90
-6.860891e-001 -1.931137e+000 -1.278177e+001 222 70 95
-3.136924e+001 -4.617203e+000 -6.922236e+001 115 112 95
-4.023219e+001 -6.930977e+000 -8.194232e+001 175 177 170
-3.514515e+001 -7.344307e+000 -7.548863e+001 126 115 94
-2.741506e+001 -6.416717e+000 -6.651474e+001 143 117 118
-2.338671e+001 -6.100890e+000 -5.977624e+001 208 209 201
-6.423618e-001 -2.653994e+000 -1.318043e+001 219 60 91
-4.234283e-001 -2.636041e+000 -1.299746e+001 226 76 96
-2.349477e+001 -6.694639e+000 -5.981646e+001 204 204 194
-7.722914e-001 -2.779787e+000 -1.322457e+001 179 28 53
-6.967078e-001 -2.871555e+000 -1.312170e+001 177 31 54
-1.002637e-001 -2.956425e+000 -1.305227e+001 205 58 78
-3.151080e+001 -9.049226e+000 -7.314824e+001 157 162 165
-3.058878e+001 -9.694614e+000 -7.298758e+001 140 155 155
-2.294771e+001 -8.535051e+000 -6.198008e+001 149 113 125
-1.928338e+000 -3.054659e+000 -1.421643e+001 188 34 62
1.270433e-001 -2.976346e+000 -1.279995e+001 214 61 82
1.883276e-001 -3.042510e+000 -1.281993e+001 167 23 47
-2.674605e+001 -1.009988e+001 -6.569286e+001 84 96 84
-2.674605e+001 -1.009988e+001 -6.569286e+001 84 96 84
-7.627331e-001 -3.212157e+000 -1.336322e+001 217 62 87
-6.275464e-001 -3.331773e+000 -1.320371e+001 228 69 99
7.221716e-002 -3.409360e+000 -1.300078e+001 207 57 84
3.284277e-001 -3.262118e+000 -1.286579e+001 167 31 56
2.517716e-001 -3.362395e+000 -1.286932e+001 152 15 36
2.517716e-001 -3.362395e+000 -1.286932e+001 152 15 36
6.430722e-001 -3.182682e+000 -1.251659e+001 138 46 34
-2.273704e+001 -1.267265e+001 -6.837967e+001 157 117 124
-2.440885e+001 -1.184944e+001 -6.296898e+001 160 121 82
-2.397811e+001 -1.234705e+001 -6.313886e+001 157 122 129
-2.021976e+001 -1.268255e+001 -6.660510e+001 160 133 126
-2.723068e-001 -3.712142e+000 -1.301289e+001 214 71 94
-3.229088e+001 -1.297686e+001 -6.658481e+001 89 99 96
-3.261270e+001 -1.361180e+001 -6.726037e+001 177 191 185
-1.297414e+000 3.415752e+000 -1.364950e+001 187 52 76
-1.085758e+000 3.437217e+000 -1.346634e+001 164 149 146
4.363407e+000 2.102759e+000 -1.039825e+001 237 222 137
4.384785e+000 2.026367e+000 -1.030384e+001 212 194 112
-2.851730e+000 4.015914e+000 -1.575021e+001 133 91 73
-2.851730e+000 4.015914e+000 -1.575021e+001 133 91 73
-2.289720e-001 2.932885e+000 -1.314897e+001 195 61 80
-3.821843e+000 3.679182e+000 -1.575009e+001 191 169 141
-1.370759e+000 3.026488e+000 -1.332704e+001 220 70 93
-1.030680e+000 2.776200e+000 -1.325810e+001 196 57 78
2.904328e-001 2.858339e+000 -1.322290e+001 182 58 69
-3.701049e+000 3.564429e+000 -1.588931e+001 187 161 134
-3.139082e+000 3.567547e+000 -1.582984e+001 184 163 136
-5.193764e-001 2.605925e+000 -1.317297e+001 144 29 44
-5.027127e+000 3.269558e+000 -1.605638e+001 201 190 159
-4.194728e+000 3.221669e+000 -1.600206e+001 126 87 68
-3.196109e+000 3.060947e+000 -1.581288e+001 130 136 134
-3.196109e+000 3.060947e+000 -1.581288e+001 130 136 134
-4.326087e+000 3.055935e+000 -1.606899e+001 128 89 73
-4.085441e+000 3.098671e+000 -1.614474e+001 157 119 101
-4.103280e+000 2.983081e+000 -1.606901e+001 183 158 133
-4.103280e+000 2.983081e+000 -1.606901e+001 183 158 133
-3.729702e+000 2.964499e+000 -1.598293e+001 77 58 63
-3.620039e+000 3.054318e+000 -1.605213e+001 85 75 69
1.039136e+000 1.646682e+000 -1.237259e+001 204 58 75
1.367583e+000 1.702423e+000 -1.222277e+001 149 28 47
-4.355047e+000 2.691865e+000 -1.645637e+001 73 59 64
9.985505e-001 1.476916e+000 -1.267460e+001 116 16 28
3.308183e+000 1.286325e+000 -1.207553e+001 228 211 129
2.052237e+000 9.456167e-001 -1.144735e+001 207 69 86
1.410382e+000 7.082937e-001 -1.139428e+001 200 61 84
1.556693e+000 7.345145e-001 -1.138628e+001 211 73 91
2.295782e+000 5.956482e-001 -1.126932e+001 183 56 68
-2.522482e+000 1.309432e+000 -1.426068e+001 208 55 91
-9.936369e-001 1.264006e+000 -1.392370e+001 196 51 80
8.580598e-001 6.212386e-001 -1.176174e+001 173 29 54
1.573711e+000 5.331363e-001 -1.125062e+001 112 10 26
-3.827690e+001 1.320427e+001 -8.326777e+001 52 51 64
-1.846305e+000 7.160918e-001 -1.327944e+001 154 30 50
-5.457983e-001 9.076858e-001 -1.370873e+001 88 15 30
1.648641e+000 3.073560e-001 -1.104063e+001 113 15 27
-1.132677e+000 4.730195e-001 -1.361149e+001 191 54 74
1.445557e+000 4.574009e-002 -1.104613e+001 166 19 45
-4.612686e+001 9.941863e+000 -8.174727e+001 123 112 111
-2.668854e+001 7.732079e+000 -7.253318e+001 89 73 74
-2.166208e+000 2.590072e-001 -1.369210e+001 179 25 60
-2.166208e+000 2.590072e-001 -1.369210e+001 179 25 60
8.813056e-001 -8.254860e-002 -1.156495e+001 117 27 47
1.032903e+000 -1.031548e-001 -1.138763e+001 160 23 48
1.823530e+000 -2.204411e-001 -1.073058e+001 211 61 81
-1.419317e+000 1.425091e-001 -1.324941e+001 98 16 33
4.672288e-001 -2.212616e-001 -1.168515e+001 209 65 88
1.413303e+000 -3.859028e-001 -1.091833e+001 168 31 52
2.095933e+000 -4.089664e-001 -1.062333e+001 145 29 42
-3.295310e+001 5.624202e+000 -7.036376e+001 92 88 85
-2.614587e+001 5.544867e+000 -6.751908e+001 69 51 67
9.515872e-001 -5.123181e-001 -1.137921e+001 167 28 50
1.281398e+000 -4.913793e-001 -1.083892e+001 162 27 48
1.365337e+000 -5.351516e-001 -1.096266e+001 213 70 90
-3.591974e+001 4.649026e+000 -6.422224e+001 173 170 164
-3.051922e+001 4.305769e+000 -6.816236e+001 155 147 142
-1.964704e+000 -4.216783e-001 -1.366889e+001 198 45 70
-7.497017e-001 -5.747004e-001 -1.304418e+001 117 23 43
9.795007e-001 -6.761733e-001 -1.116553e+001 227 65 94
1.590254e+000 -7.920438e-001 -1.077785e+001 211 65 84
-3.940065e+001 3.781891e+000 -7.954053e+001 99 95 101
-3.468081e+001 3.018036e+000 -7.063715e+001 157 133 135
-2.624704e+001 2.484151e+000 -6.498040e+001 83 60 74
-2.578758e+001 2.343678e+000 -6.518464e+001 174 154 169
-2.356586e+001 2.742791e+000 -6.696945e+001 90 57 81
-4.884760e+000 -4.648516e-001 -1.620393e+001 227 80 109
-3.767381e+000 -4.754246e-001 -1.549040e+001 212 59 90
-2.394361e+000 -6.687476e-001 -1.400455e+001 182 29 58
-2.394361e+000 -6.687476e-001 -1.400455e+001 182 29 58
-7.360794e-001 -7.960045e-001 -1.300420e+001 186 42 63
-5.178567e-001 -9.014328e-001 -1.275069e+001 206 53 80
1.369005e+000 -9.452558e-001 -1.069498e+001 206 60 78
1.973901e+000 -1.012017e+000 -1.076218e+001 158 34 49
-4.393514e+000 -8.755795e-001 -1.609057e+001 200 55 78
-2.731406e-001 -1.154788e+000 -1.263632e+001 143 24 44
4.516662e-001 -1.106806e+000 -1.164110e+001 158 12 43
1.907637e+000 -1.278996e+000 -1.081561e+001 186 48 71
-2.284488e+000 -1.141235e+000 -1.383470e+001 166 32 55
-7.920117e-001 -1.296884e+000 -1.260145e+001 172 28 53
-5.439383e-001 -1.261091e+000 -1.266835e+001 149 23 42
1.625896e+000 -1.369993e+000 -1.094125e+001 181 45 68
2.117548e+000 -1.441883e+000 -1.100239e+001 166 43 63
-3.832556e+001 -1.411711e+000 -7.780832e+001 105 121 110
-2.510271e+001 -1.595015e+000 -6.177494e+001 199 200 183
-2.461132e+001 -1.182447e+000 -6.413856e+001 157 143 159
-1.093325e+000 -1.538802e+000 -1.299858e+001 194 33 63
-3.989194e-001 -1.668220e+000 -1.271612e+001 205 46 71
1.104142e+000 -1.530496e+000 -1.098529e+001 206 51 75
1.888147e+000 -1.693238e+000 -1.094844e+001 168 46 61
-2.874411e+001 -2.411101e+000 -6.644911e+001 193 195 181
-4.724422e-001 -1.800886e+000 -1.271150e+001 206 56 81
-3.816073e-001 -1.814819e+000 -1.274819e+001 142 24 43
-2.809425e-001 -1.827575e+000 -1.266088e+001 241 87 113
-3.226445e+001 -4.642920e+000 -7.513160e+001 194 193 178
-4.079535e+000 -1.983035e+000 -1.618156e+001 136 13 38
-1.004816e+000 -1.939236e+000 -1.307372e+001 211 52 80
-1.615275e-001 -1.992089e+000 -1.258835e+001 134 24 35
-1.136128e-001 -2.141089e+000 -1.270735e+001 224 78 102
-2.202275e+001 -4.842537e+000 -5.735178e+001 77 53 68
-2.729375e+001 -7.015502e+000 -6.602878e+001 147 89 87
-5.808055e-001 -2.684451e+000 -1.302255e+001 129 26 40
-2.279604e-001 -2.858834e+000 -1.292022e+001 210 58 81
2.003073e-001 -2.725325e+000 -1.266300e+001 220 66 91
5.916110e-001 -2.682423e+000 -1.249033e+001 216 62 85
3.121139e-001 -3.082667e+000 -1.271646e+001 167 40 51
-3.609570e+001 -1.075689e+001 -7.451273e+001 157 170 163
1.145392e+000 -3.409002e+000 -1.283768e+001 89 11 21
-3.316531e+001 -1.167272e+001 -6.814202e+001 70 83 76
-3.075411e+001 -1.156088e+001 -7.035223e+001 122 126 122
-8.257334e+001 -2.452810e+001 -1.486601e+002 98 91 99
-3.376682e+001 -1.248792e+001 -6.963188e+001 196 207 211
-3.376682e+001 -1.248792e+001 -6.963188e+001 196 207 211
-3.106992e+001 -1.281527e+001 -7.062379e+001 92 94 91
-3.631597e-002 -3.684612e+000 -1.295866e+001 137 20 39
-9.241829e+001 -2.923529e+001 -1.619998e+002 141 130 134
-3.149478e+001 -1.293338e+001 -6.591322e+001 183 197 197
-3.015472e+001 -1.476849e+001 -7.056524e+001 55 59 58
-3.167158e+001 -1.423513e+001 -6.594657e+001 57 62 58
-3.403811e+000 4.459883e+000 -1.562648e+001 150 126 98
-3.798601e+000 3.802818e+000 -1.571690e+001 195 169 147
-1.718856e+000 2.974307e+000 -1.378209e+001 177 48 67
-1.143996e+000 2.774955e+000 -1.318125e+001 149 27 46
-6.260713e-001 2.876606e+000 -1.323468e+001 211 75 92
-3.303036e-001 2.903837e+000 -1.298967e+001 111 7 27
-2.212220e-001 2.824921e+000 -1.300157e+001 198 65 84
2.448713e-002 2.856336e+000 -1.315588e+001 114 28 39
-4.774135e+000 3.671194e+000 -1.593333e+001 213 197 166
-4.774135e+000 3.671194e+000 -1.593333e+001 213 197 166
-6.726720e-002 2.602742e+000 -1.304559e+001 127 20 35
-4.314729e+000 3.291401e+000 -1.593678e+001 205 184 153
-4.314729e+000 3.291401e+000 -1.593678e+001 205 184 153
-4.784036e+000 3.095240e+000 -1.596714e+001 206 192 163
-3.987663e+000 2.892406e+000 -1.618517e+001 85 65 74
1.427379e+000 1.310137e+000 -1.198791e+001 128 31 43
4.985471e-002 1.564169e+000 -1.314271e+001 135 21 38
2.164043e+000 6.191012e-001 -1.127604e+001 90 23 32
-3.411809e+001 1.359635e+001 -7.900058e+001 135 116 130
-3.411809e+001 1.359635e+001 -7.900058e+001 135 116 130
-4.144753e+000 1.911090e+000 -1.699283e+001 135 147 161
-8.264342e-001 1.078596e+000 -1.390643e+001 74 13 26
1.729534e-001 6.928976e-001 -1.265006e+001 164 26 51
2.588858e+000 2.314275e-001 -1.097782e+001 145 41 48
2.517354e+000 1.735668e-001 -1.102408e+001 89 25 27
-4.043489e+001 1.345572e+001 -9.090307e+001 55 52 67
-3.530679e+001 1.086069e+001 -8.056180e+001 117 103 122
-3.133477e+001 1.084790e+001 -7.552640e+001 66 48 62
-1.990481e+000 7.090746e-001 -1.352262e+001 227 74 108
3.958935e-001 1.723185e-001 -1.195505e+001 224 68 92
1.841650e+000 7.082574e-002 -1.071215e+001 108 16 29
-3.658016e+001 9.275129e+000 -7.831079e+001 161 167 168
-3.658016e+001 9.275129e+000 -7.831079e+001 161 167 168
-4.493962e+001 9.161991e+000 -7.961674e+001 117 106 104
-3.618096e+001 5.466967e+000 -6.614146e+001 127 116 115
-3.618096e+001 5.466967e+000 -6.614146e+001 127 116 115
-3.637819e+001 5.758085e+000 -7.586843e+001 165 165 169
-3.056805e+001 5.003166e+000 -6.642767e+001 173 178 172
-2.656990e+000 6.067962e-002 -1.437548e+001 202 197 204
6.200138e-001 -4.513237e-001 -1.154503e+001 195 51 73
-3.730683e+001 4.177483e+000 -6.536787e+001 188 184 175
-3.719273e+001 4.077780e+000 -6.795467e+001 142 131 125
-3.719273e+001 4.077780e+000 -6.795467e+001 142 131 125
-1.754870e+000 -5.282118e-001 -1.342510e+001 135 12 39
-5.906922e-001 -6.788687e-001 -1.283665e+001 217 69 91
-2.530970e+001 2.241766e+000 -6.545618e+001 85 67 86
-5.387833e-001 -8.217270e-001 -1.287304e+001 107 16 34
1.206788e+000 -1.233245e+000 -1.093897e+001 123 15 28
1.206788e+000 -1.233245e+000 -1.093897e+001 123 15 28
2.384507e+000 -1.336293e+000 -1.105755e+001 178 49 64
-4.387232e-002 -1.314000e+000 -1.247611e+001 117 26 39
1.396105e+000 -1.484875e+000 -1.095071e+001 114 24 33
1.396105e+000 -1.484875e+000 -1.095071e+001 114 24 33
-4.348716e+001 -1.065364e+000 -8.633640e+001 133 133 141
-4.024536e+001 -7.469969e-001 -8.332068e+001 110 110 110
-2.433943e+001 -1.090714e+000 -6.132237e+001 189 190 176
-6.183741e-001 -1.484411e+000 -1.277412e+001 224 67 96
-4.390193e+001 -1.901481e+000 -8.710003e+001 45 46 50
1.483207e+000 -1.785295e+000 -1.093903e+001 213 69 92
-3.746339e+001 -3.802654e+000 -7.925629e+001 112 94 83
-3.283307e+001 -5.165433e+000 -6.999100e+001 151 131 107
-2.881750e+001 -4.921478e+000 -6.561162e+001 155 156 142
-1.090958e+000 -2.335200e+000 -1.323313e+001 157 23 47
-4.372090e+001 -7.806375e+000 -8.279495e+001 189 184 181
-3.875269e+001 -8.107966e+000 -8.013314e+001 143 147 138
-2.420318e+001 -9.375089e+000 -6.049560e+001 159 157 162
-2.523205e+001 -1.193383e+001 -6.383511e+001 130 70 68
-2.835579e+001 -1.441261e+001 -6.765436e+001 157 160 161
-2.648418e+001 -1.416676e+001 -6.529207e+001 142 119 105
-3.089431e+001 -1.602774e+001 -7.167533e+001 100 99 97
-3.332160e+000 4.619055e+000 -1.563830e+001 192 175 144
-5.113179e+000 4.116289e+000 -1.583368e+001 209 200 167
-1.051828e+000 3.122739e+000 -1.324038e+001 141 39 52
-3.161264e+000 3.826150e+000 -1.575162e+001 203 178 150
-5.324246e+000 3.476988e+000 -1.619152e+001 217 204 174
-3.932550e+000 3.247565e+000 -1.593606e+001 133 92 73
1.008536e+000 2.051922e+000 -1.262645e+001 181 56 65
-4.459327e+000 2.973144e+000 -1.600611e+001 195 176 144
-3.891188e+000 3.102163e+000 -1.611753e+001 193 163 143
-1.652863e+000 9.969070e-001 -1.345426e+001 203 65 90
-6.836165e-001 1.124221e+000 -1.389812e+001 212 69 91
-4.090778e-001 9.558515e-001 -1.360653e+001 195 43 66
1.959971e+000 3.493315e-001 -1.109270e+001 199 64 79
-8.834339e-001 5.759905e-001 -1.352484e+001 132 34 54
-3.539589e+001 9.358420e+000 -7.445307e+001 56 53 62
-3.332207e+001 9.738162e+000 -7.722212e+001 44 36 47
-1.853614e+000 2.667183e-001 -1.331020e+001 143 30 49
1.683452e+000 -1.113168e-001 -1.090462e+001 209 54 75
1.027525e+000 -2.764195e-001 -1.158875e+001 129 41 58
1.886712e+000 -3.332546e-001 -1.069483e+001 212 62 81
-4.114180e+001 6.990416e+000 -7.354830e+001 99 77 84
-2.420200e+001 4.962140e+000 -6.753386e+001 108 82 93
-3.408227e+001 3.753570e+000 -7.028579e+001 137 132 132
-3.001918e+001 4.694897e+000 -7.166527e+001 55 49 55
-2.604906e+001 3.509727e+000 -6.699311e+001 88 61 66
-1.909190e+000 -5.464321e-001 -1.355656e+001 211 53 83
-9.704217e-001 -5.330555e-001 -1.308717e+001 98 26 40
-3.896097e+001 3.457849e+000 -6.893472e+001 93 73 85
-3.299260e+001 2.931282e+000 -7.202106e+001 49 45 46
-1.858402e+000 -7.427999e-001 -1.355552e+001 155 37 64
-3.651085e-001 -1.007527e+000 -1.273713e+001 107 19 39
1.846877e+000 -1.246393e+000 -1.100162e+001 88 21 30
-3.920240e+001 6.043018e-001 -6.882065e+001 113 76 90
-3.563692e+001 7.869933e-001 -7.297963e+001 87 58 78
-2.399256e+001 -6.110875e-002 -6.005266e+001 195 196 182
-3.182623e+001 -1.423947e+000 -7.266836e+001 180 188 174
-2.364835e+001 -1.894055e+000 -5.963275e+001 195 196 178
-4.051889e+001 -2.347273e+000 -7.039989e+001 106 64 68
-3.059258e+001 -3.981173e+000 -6.966421e+001 67 69 60
-2.552371e+001 -3.524255e+000 -6.491404e+001 193 196 180
-2.746546e+001 -4.608437e+000 -6.526093e+001 192 192 176
-4.303197e+001 -7.929731e+000 -8.413356e+001 227 209 192
-4.038613e+001 -6.807761e+000 -8.073749e+001 54 50 55
-4.038613e+001 -6.807761e+000 -8.073749e+001 54 50 55
-4.714002e+001 -9.458031e+000 -9.002823e+001 155 117 90
-3.826006e+001 -9.543028e+000 -8.204624e+001 146 153 143
7.308702e-001 -2.760983e+000 -1.230228e+001 199 52 71
-3.658834e+001 -9.804877e+000 -7.265133e+001 151 160 157
-3.526119e+001 -1.062728e+001 -6.978306e+001 198 210 208
-2.499466e+001 -1.083886e+001 -6.345115e+001 116 80 108
-3.133933e+001 -1.325477e+001 -6.811429e+001 62 68 61
-2.904540e+001 -1.242882e+001 -6.469131e+001 146 152 148
-2.904540e+001 -1.242882e+001 -6.469131e+001 146 152 148
-2.424955e+001 -1.238576e+001 -6.526076e+001 147 112 118
-2.235032e+001 -1.174557e+001 -6.167944e+001 117 73 96
-7.436365e-001 -3.733867e+000 -1.324527e+001 155 21 45
-7.436365e-001 -3.733867e+000 -1.324527e+001 155 21 45
-6.031792e+001 -2.059325e+001 -1.122360e+002 184 185 179
-2.890691e+001 -1.326497e+001 -6.549929e+001 58 60 57
-2.890691e+001 -1.326497e+001 -6.549929e+001 58 60 57
-3.009582e+001 -1.482601e+001 -6.892112e+001 168 178 170
-3.554157e+000 3.906972e+000 -1.558860e+001 204 188 158
-2.790688e+000 3.848592e+000 -1.590484e+001 171 150 124
-2.964131e+001 1.375387e+001 -6.372445e+001 75 71 72
-4.007403e+000 2.441277e+000 -1.661588e+001 126 136 146
1.802081e+000 1.004748e+000 -1.163946e+001 112 26 39
-3.229961e+001 1.007593e+001 -7.672314e+001 129 109 123
-2.769774e+000 8.480307e-001 -1.485152e+001 193 188 192
2.752033e+000 -5.201396e-002 -1.121255e+001 93 22 27
-2.952613e+001 9.074396e+000 -7.257678e+001 64 45 64
5.580038e-001 2.244731e-002 -1.187454e+001 219 60 88
5.580038e-001 2.244731e-002 -1.187454e+001 219 60 88
-1.633085e+000 1.108041e-001 -1.320470e+001 113 18 33
-2.132110e+000 -1.386624e-001 -1.383319e+001 196 47 76
-1.177447e+000 -3.091725e-001 -1.310058e+001 83 22 36
8.625448e-001 -3.870269e-001 -1.126866e+001 195 36 63
8.625448e-001 -3.870269e-001 -1.126866e+001 195 36 63
-3.248364e+001 4.472892e+000 -6.912643e+001 50 47 54
-2.288234e+001 3.887584e+000 -6.323271e+001 77 52 71
-2.808037e+001 2.249472e+000 -6.763510e+001 185 184 166
-7.585255e-001 -6.673172e-001 -1.292361e+001 112 25 42
-1.562400e+000 -8.848946e-001 -1.326521e+001 147 28 49
-3.503487e+001 -1.375478e+000 -7.411377e+001 81 81 81
-3.335726e+001 -9.924674e-001 -7.438782e+001 71 70 67
-1.645670e+000 -1.431132e+000 -1.331730e+001 214 167 113
-4.727235e+001 -1.492753e+000 -8.633749e+001 52 49 60
-7.190256e-001 -1.723664e+000 -1.285035e+001 118 22 41
-3.795678e+001 -3.923228e+000 -7.838286e+001 155 149 137
-4.184727e+001 -6.005173e+000 -8.329804e+001 183 182 181
-4.184727e+001 -6.005173e+000 -8.329804e+001 183 182 181
-3.473325e+001 -9.784791e+000 -8.156981e+001 164 175 177
-3.178070e+001 -9.703433e+000 -7.039360e+001 137 148 144
-3.178070e+001 -9.703433e+000 -7.039360e+001 137 148 144
7.824004e-001 -2.986373e+000 -1.252342e+001 126 29 43
-3.218170e+001 -1.039838e+001 -7.338904e+001 65 70 68
-2.206813e+001 -8.499275e+000 -5.697006e+001 106 72 103
-1.515201e+000 -3.636446e+000 -1.394196e+001 182 40 64
-2.787193e+001 -1.325378e+001 -6.699102e+001 148 148 148
-1.466978e+000 3.342295e+000 -1.354273e+001 166 41 63
-1.106079e+000 3.239593e+000 -1.351025e+001 138 27 43
-4.646900e+000 3.445059e+000 -1.567452e+001 156 141 109
-2.946458e+000 3.603120e+000 -1.594728e+001 100 62 62
-3.540142e+000 3.321227e+000 -1.596464e+001 181 152 123
-3.268416e+000 2.761265e+000 -1.631248e+001 121 121 127
-6.261948e-001 3.327291e-001 -1.328087e+001 114 17 33
1.023941e+000 -6.350156e-001 -1.111564e+001 210 49 76
-3.795099e+001 4.620346e+000 -6.682899e+001 177 169 161
1.290986e+000 -6.741592e-001 -1.099606e+001 118 40 56
-3.694598e+001 3.351390e+000 -6.679293e+001 157 149 138
-3.727716e+001 1.596175e+000 -7.774039e+001 164 157 147
-3.727716e+001 1.596175e+000 -7.774039e+001 164 157 147
-1.342428e+000 -1.087666e+000 -1.319742e+001 142 32 55
1.276987e+000 -1.215823e+000 -1.087555e+001 125 28 45
-9.036776e-001 -1.216178e+000 -1.287986e+001 194 36 61
1.532844e+000 -1.466692e+000 -1.092366e+001 79 17 28
1.532844e+000 -1.466692e+000 -1.092366e+001 79 17 28
-3.337896e+001 -4.221758e+000 -7.256712e+001 185 189 166
-3.205120e+000 -1.905569e+000 -1.492765e+001 234 84 115
-1.548526e+000 -1.896667e+000 -1.336203e+001 173 25 53
-7.388031e-003 -2.034828e+000 -1.256723e+001 230 72 99
-3.350226e+001 -1.087991e+001 -7.005232e+001 175 185 180
-2.537435e+001 -8.697349e+000 -6.026646e+001 123 135 135
-3.900323e+001 1.256289e+001 -8.625550e+001 69 63 75
-1.447062e+000 5.465560e-001 -1.346898e+001 135 27 42
-3.082045e+001 -1.532164e-001 -6.980987e+001 97 95 98
-3.880215e+001 -3.330824e+000 -7.045904e+001 73 57 68
1.457202e+000 -2.129132e+000 -1.122216e+001 136 28 43
-3.086504e+001 -1.194718e+001 -6.488405e+001 174 186 182
-3.076617e+001 -1.347236e+001 -7.112143e+001 58 56 57
-2.495973e+001 -1.436042e+001 -6.687028e+001 153 117 117
-2.009685e+000 2.546861e+000 -1.402095e+001 159 36 57
-4.275689e+000 2.713557e+000 -1.666839e+001 90 80 89
-3.933762e+001 1.229101e+001 -8.265304e+001 137 143 146
-3.161467e+001 4.396815e+000 -7.367871e+001 96 94 99
-3.161467e+001 4.396815e+000 -7.367871e+001 96 94 99
-1.414256e+000 -5.774432e-001 -1.318098e+001 190 33 63
-4.320277e+001 -3.552576e+000 -7.550039e+001 198 192 180
-3.566842e+001 -8.183272e+000 -8.068867e+001 48 45 49
-1.223414e+000 -2.716722e+000 -1.349167e+001 215 55 83
-2.650220e+001 -1.138448e+001 -6.459845e+001 149 158 158
-3.452887e+001 2.569127e+000 -7.118211e+001 156 126 124
-6.286099e-001 -2.227564e+000 -1.284926e+001 207 145 94
6.386209e-001 -3.211470e+000 -1.260626e+001 141 50 41
3.614923e+000 -1.248119e+000 -1.133685e+001 203 168 87
-3.038584e+001 -1.168410e+001 -6.850179e+001 60 66 66
-1.459297e+000 7.079113e-001 -1.460800e+001 185 49 73
-1.179385e+000 4.065484e+000 -1.353039e+001 100 88 78
-5.393020e+000 4.484181e+000 -1.608848e+001 222 217 188
-4.666365e+000 4.562097e+000 -1.585647e+001 204 192 160
-4.449618e+000 4.313072e+000 -1.566981e+001 146 121 91
-4.495363e+000 4.249402e+000 -1.564375e+001 142 122 90
-2.990106e+000 4.528248e+000 -1.569589e+001 110 80 58
-2.990106e+000 4.528248e+000 -1.569589e+001 110 80 58
-2.968924e+000 4.258204e+000 -1.554577e+001 194 162 138
-6.715733e-001 3.893463e+000 -1.349251e+001 165 147 133
4.167772e+000 2.975436e+000 -1.071958e+001 206 184 101
-4.450939e+000 4.136981e+000 -1.558008e+001 138 115 85
-4.260609e+000 4.030001e+000 -1.567887e+001 133 103 77
-4.115638e+000 4.240394e+000 -1.563601e+001 125 98 71
-1.540207e+000 3.561622e+000 -1.370048e+001 173 157 154
-5.556426e+000 3.965311e+000 -1.627195e+001 172 165 136
-5.226411e+000 4.021311e+000 -1.599332e+001 227 215 183
-4.627872e+000 3.914308e+000 -1.567939e+001 217 200 170
-4.603203e+000 3.774320e+000 -1.566347e+001 206 189 159
-4.268747e+000 3.916090e+000 -1.572158e+001 127 101 76
-4.172765e+000 3.766280e+000 -1.571599e+001 112 84 60
-4.172765e+000 3.766280e+000 -1.571599e+001 112 84 60
-3.365891e+000 3.954167e+000 -1.569427e+001 222 194 172
-3.365891e+000 3.954167e+000 -1.569427e+001 222 194 172
-2.897298e+000 3.806929e+000 -1.579774e+001 123 81 65
-4.419621e-001 3.417627e+000 -1.356041e+001 132 107 100
-5.407317e+000 3.533607e+000 -1.618915e+001 218 207 175
-4.689030e+000 3.598364e+000 -1.588148e+001 211 201 166
-4.233169e+000 3.585572e+000 -1.571629e+001 111 87 62
-3.670895e+000 3.691413e+000 -1.584821e+001 192 168 142
-3.670895e+000 3.691413e+000 -1.584821e+001 192 168 142
-3.862459e+000 3.496124e+000 -1.559983e+001 130 97 74
-5.280872e+000 3.275382e+000 -1.610443e+001 208 192 159
-4.808484e+000 3.210352e+000 -1.591054e+001 209 195 166
-3.210849e+000 3.275079e+000 -1.596857e+001 152 152 147
-3.193679e+000 3.202978e+000 -1.606899e+001 142 145 141
-2.756814e+000 3.257175e+000 -1.606658e+001 77 58 58
-1.324583e+000 2.727675e+000 -1.340717e+001 225 78 104
-8.725110e-001 2.854860e+000 -1.327848e+001 144 17 38
-8.725110e-001 2.854860e+000 -1.327848e+001 144 17 38
-4.865793e+000 3.123562e+000 -1.601878e+001 224 211 182
-3.718293e+000 3.080967e+000 -1.600946e+001 196 180 154
-2.136445e+000 2.490237e+000 -1.391927e+001 185 57 79
-1.198661e+000 2.549648e+000 -1.342147e+001 182 34 58
-2.507195e-001 2.537502e+000 -1.313339e+001 213 73 92
-2.507195e-001 2.537502e+000 -1.313339e+001 213 73 92
-2.438038e-001 2.402562e+000 -1.299441e+001 212 69 89
-5.418433e+000 2.869406e+000 -1.654105e+001 109 94 77
-4.650194e+000 2.685578e+000 -1.635777e+001 204 186 159
-3.977552e+000 2.822281e+000 -1.616590e+001 64 47 55
-3.721746e+000 2.697921e+000 -1.622574e+001 78 77 85
-3.070611e+000 2.567736e+000 -1.617364e+001 56 53 60
3.015666e-002 2.292568e+000 -1.296247e+001 208 65 85
1.472050e-002 2.205790e+000 -1.292978e+001 216 67 91
3.056368e+000 1.967807e+000 -1.232345e+001 160 131 54
-3.848437e+001 9.428151e+000 -6.821179e+001 116 107 110
-3.496357e+000 2.555497e+000 -1.631225e+001 162 173 181
-3.904880e-001 1.872172e+000 -1.321011e+001 141 20 39
-2.606831e-002 2.035141e+000 -1.321317e+001 129 13 32
-3.756386e+001 9.462973e+000 -7.718879e+001 42 39 48
-3.525655e+000 2.204055e+000 -1.649207e+001 94 101 109
-7.139417e-001 1.826534e+000 -1.319817e+001 197 64 86
1.634467e+000 1.493683e+000 -1.205732e+001 199 64 81
-5.172250e+000 1.870001e+000 -1.844455e+001 39 38 42
-3.499082e+000 1.663428e+000 -1.657645e+001 110 123 132
-2.546793e+000 1.563423e+000 -1.451620e+001 237 90 118
3.290461e+000 1.394806e+000 -1.175394e+001 225 207 124
-3.171045e+001 5.767727e+000 -7.129359e+001 109 97 103
-2.299946e+000 1.279108e+000 -1.412800e+001 225 73 104
3.114674e+000 1.156102e+000 -1.198819e+001 170 135 68
-2.158016e+000 1.054913e+000 -1.387196e+001 197 47 76
-1.872409e+000 1.091071e+000 -1.367108e+001 173 34 55
-9.420694e-001 9.195233e-001 -1.372020e+001 130 13 35
-3.192288e+001 2.811843e+000 -7.236657e+001 114 109 105
-2.679027e+001 3.387910e+000 -6.673745e+001 129 105 118
-1.977589e+001 2.056007e+000 -6.196456e+001 56 44 44
-1.009457e+000 6.395591e-001 -1.340072e+001 130 18 36
-1.218313e-001 7.481092e-001 -1.312528e+001 220 66 92
-1.218313e-001 7.481092e-001 -1.312528e+001 220 66 92
1.476521e+000 7.452333e-001 -1.143840e+001 151 23 40
-3.687251e+001 1.573276e+000 -6.544318e+001 120 83 97
-2.884881e+001 9.548772e-001 -6.823127e+001 174 176 155
-2.537025e+001 1.998957e+000 -6.720393e+001 114 93 101
-2.353900e+001 9.333815e-001 -6.224053e+001 116 85 93
2.393198e+000 4.483561e-001 -1.113465e+001 190 72 84
-4.047746e+001 4.902391e-001 -9.017907e+001 123 118 114
-1.757698e+000 1.219083e-001 -1.314866e+001 202 59 87
-2.618808e+000 -1.433908e-001 -1.442456e+001 183 168 175
-2.500065e+000 6.255156e-003 -1.427020e+001 196 176 182
-2.407709e+000 -4.690496e-003 -1.420429e+001 214 165 174
-2.187114e+000 -2.068520e-002 -1.374252e+001 213 53 87
-2.514729e+000 -1.057374e-001 -1.429576e+001 193 184 189
1.439519e+000 -1.515047e-002 -1.103206e+001 171 23 46
-5.057733e+000 -5.172828e-001 -1.648112e+001 222 73 106
-4.068651e+000 -2.950839e-001 -1.560491e+001 199 45 79
-7.675087e-001 -2.941852e-001 -1.308574e+001 153 25 45
-7.306563e-001 -3.239889e-001 -1.313408e+001 211 61 88
-7.306563e-001 -3.239889e-001 -1.313408e+001 211 61 88
-6.838292e-001 -3.316423e-001 -1.316002e+001 161 18 41
8.677123e-001 -1.954822e-001 -1.157203e+001 221 61 87
-4.559570e+001 -3.904682e+000 -7.845928e+001 149 143 129
-3.185239e+000 -4.741510e-001 -1.480572e+001 182 30 60
-2.826929e+000 -5.796906e-001 -1.438040e+001 186 34 73
-1.482126e+000 -4.396298e-001 -1.309933e+001 190 31 59
8.828093e-002 -5.489498e-001 -1.196306e+001 236 76 104
1.345959e+000 -3.545564e-001 -1.095798e+001 234 76 101
1.345959e+000 -3.545564e-001 -1.095798e+001 234 76 101
1.454421e+000 -3.442317e-001 -1.092358e+001 221 73 94
-5.011950e+001 -6.981661e+000 -9.865908e+001 105 100 106
-2.964244e+000 -9.957013e-001 -1.454148e+001 174 15 47
-2.153717e+000 -9.136514e-001 -1.380337e+001 247 83 112
-6.136265e-001 -8.548080e-001 -1.278441e+001 205 79 98
-4.371974e+001 -8.111256e+000 -8.443597e+001 163 137 120
-4.234804e+001 -7.906906e+000 -8.646106e+001 147 148 140
-3.433834e+001 -6.109588e+000 -7.268155e+001 171 158 141
-1.131390e+000 -9.000521e-001 -1.292927e+001 200 37 68
-8.784389e-001 -1.013300e+000 -1.294376e+001 224 67 94
-5.975009e-001 -9.088067e-001 -1.272935e+001 219 67 92
-5.402661e-001 -1.009790e+000 -1.263272e+001 171 23 51
-5.517061e+000 -1.698573e+000 -1.750400e+001 205 192 193
-4.536700e+000 -1.471891e+000 -1.627255e+001 225 75 104
-1.495381e-001 -1.154990e+000 -1.260895e+001 142 20 42
3.602056e-001 -1.111768e+000 -1.154415e+001 245 89 110
5.230253e-001 -9.845095e-001 -1.150497e+001 173 20 48
7.509695e-001 -1.149713e+000 -1.128627e+001 230 66 93
-3.129866e+001 -9.180072e+000 -7.345516e+001 130 140 142
-1.196836e+000 -1.430087e+000 -1.303936e+001 228 75 96
-2.274941e+001 -9.691390e+000 -6.258261e+001 139 102 110
-2.198061e+001 -9.674678e+000 -6.203734e+001 151 111 114
8.616408e-002 -1.664664e+000 -1.225411e+001 219 65 89
-3.129261e+001 -1.262983e+001 -7.156239e+001 99 101 100
8.583075e-001 -1.598282e+000 -1.117537e+001 165 20 43
-3.492556e+001 -1.318346e+001 -7.180895e+001 189 208 209
-7.141972e+001 -2.766164e+001 -1.318688e+002 167 160 150
3.408353e-001 -2.533331e+000 -1.274377e+001 208 61 89
-2.910321e+001 -1.428026e+001 -6.257982e+001 95 97 92
-2.910321e+001 -1.428026e+001 -6.257982e+001 95 97 92
-2.841368e+001 -1.533555e+001 -6.779857e+001 142 139 148
-1.311583e+000 -3.210813e+000 -1.397534e+001 213 65 91
-9.219951e-001 -2.981936e+000 -1.338133e+001 202 44 69
-1.198247e+000 -3.467027e+000 -1.376495e+001 220 70 96
-1.198247e+000 -3.467027e+000 -1.376495e+001 220 70 96
-1.232242e+000 -3.564401e+000 -1.376112e+001 210 57 82
2.676214e-001 -3.225498e+000 -1.282823e+001 200 51 73
-7.904237e-001 -3.632981e+000 -1.349798e+001 199 42 71
-7.913475e-001 -3.653511e+000 -1.333190e+001 216 61 92
-3.356459e+001 -2.147825e+001 -7.098014e+001 171 158 152
-3.653259e+001 -2.338745e+001 -7.913160e+001 126 132 128
-3.180302e+001 -2.048380e+001 -6.945027e+001 176 177 170
-3.448681e-001 -3.725426e+000 -1.311663e+001 142 12 36
-5.645732e-002 -3.611691e+000 -1.296116e+001 204 65 85
-3.487184e+001 -2.341461e+001 -7.439983e+001 198 202 197
-4.478334e+000 4.743600e+000 -1.589026e+001 132 112 80
-4.014454e+000 4.628139e+000 -1.576450e+001 156 136 104
-3.554561e+000 4.578672e+000 -1.547023e+001 171 148 117
-2.641937e+000 4.665664e+000 -1.586164e+001 111 74 55
-4.100995e+000 4.345871e+000 -1.564049e+001 205 185 152
-3.475430e+000 4.506168e+000 -1.572915e+001 128 104 74
-1.193102e+000 3.813107e+000 -1.343163e+001 152 144 133
-1.160351e+000 3.774887e+000 -1.352572e+001 102 89 83
-7.471492e-001 3.732838e+000 -1.364082e+001 85 66 57
-4.566522e+000 4.147682e+000 -1.567323e+001 206 190 160
-4.774338e+000 4.110554e+000 -1.580134e+001 162 142 109
-2.552838e+000 4.200882e+000 -1.584668e+001 186 151 131
-2.552838e+000 4.200882e+000 -1.584668e+001 186 151 131
-3.032491e+000 3.741061e+000 -1.580579e+001 114 72 52
-3.032491e+000 3.741061e+000 -1.580579e+001 114 72 52
-1.925276e+000 3.314281e+000 -1.369239e+001 211 67 90
-1.183176e+000 3.252059e+000 -1.329364e+001 154 28 48
-2.884439e+000 3.526754e+000 -1.595665e+001 73 51 54
-8.211806e-001 2.878367e+000 -1.318003e+001 192 53 76
-8.211806e-001 2.878367e+000 -1.318003e+001 192 53 76
-5.098676e-001 2.997493e+000 -1.325481e+001 139 23 44
-5.221112e+000 3.203146e+000 -1.615079e+001 214 198 162
-8.624349e-001 2.779660e+000 -1.323707e+001 224 85 106
-5.546161e-002 2.780572e+000 -1.304270e+001 156 50 65
-5.411478e+000 2.956828e+000 -1.627999e+001 67 57 43
-4.299553e+000 2.964133e+000 -1.591429e+001 126 92 72
-3.127600e+000 2.894550e+000 -1.615585e+001 75 70 71
-9.070065e-001 2.461891e+000 -1.331681e+001 170 28 50
-6.009648e-001 2.478980e+000 -1.305492e+001 180 41 64
-5.268471e+000 2.651077e+000 -1.663577e+001 88 79 75
-4.114990e+000 2.772511e+000 -1.623762e+001 83 67 77
-1.256950e-001 2.165019e+000 -1.313086e+001 165 23 47
1.997601e-001 2.258063e+000 -1.293233e+001 207 64 82
1.135121e+000 2.036279e+000 -1.256307e+001 180 65 69
-4.561111e+000 2.598292e+000 -1.663515e+001 84 73 81
-4.148818e+000 2.465336e+000 -1.668734e+001 146 156 165
-1.690529e+000 2.096358e+000 -1.349881e+001 181 37 62
-1.056126e+000 1.936333e+000 -1.324460e+001 153 21 44
-2.913508e-002 1.979596e+000 -1.317901e+001 179 46 67
9.971291e-001 1.881530e+000 -1.232583e+001 169 30 49
1.116869e+000 1.861870e+000 -1.239380e+001 170 35 50
9.570698e-001 1.834099e+000 -1.234594e+001 215 67 91
-3.305320e+001 8.262437e+000 -7.353714e+001 69 56 69
-2.704082e+001 8.886778e+000 -7.102870e+001 86 64 75
-3.511399e+000 2.158397e+000 -1.656443e+001 142 151 160
-3.118619e+000 1.980286e+000 -1.640167e+001 169 168 176
-1.380278e+000 1.851802e+000 -1.334256e+001 219 71 95
-1.380278e+000 1.851802e+000 -1.334256e+001 219 71 95
-1.357882e+000 1.780230e+000 -1.353073e+001 152 16 39
-9.217299e-001 1.810942e+000 -1.319472e+001 208 65 87
-9.217299e-001 1.810942e+000 -1.319472e+001 208 65 87
-5.227980e-001 1.706393e+000 -1.317158e+001 129 9 30
-8.968991e-002 1.687728e+000 -1.317868e+001 152 17 36
9.673139e-003 1.796621e+000 -1.310590e+001 90 21 28
2.737572e-001 1.744219e+000 -1.315900e+001 146 14 33
2.737572e-001 1.744219e+000 -1.315900e+001 146 14 33
5.393511e-001 1.616159e+000 -1.305772e+001 226 73 94
1.455094e+000 1.490382e+000 -1.200428e+001 181 43 59
-3.831897e+000 1.725255e+000 -1.688856e+001 154 167 176
-2.619203e+000 1.571200e+000 -1.456799e+001 191 43 75
4.714599e-001 1.517247e+000 -1.312600e+001 177 41 59
1.816543e+000 1.410072e+000 -1.184201e+001 142 27 34
1.816543e+000 1.410072e+000 -1.184201e+001 142 27 34
-3.554353e+001 5.156604e+000 -6.370535e+001 102 83 86
-3.729161e+001 5.147914e+000 -6.817035e+001 43 35 48
-3.467847e+001 5.562443e+000 -7.130783e+001 92 88 98
-3.277024e+000 1.334020e+000 -1.584702e+001 197 195 203
-4.529143e-001 1.220224e+000 -1.366076e+001 209 61 84
-2.484806e+001 3.730964e+000 -6.651056e+001 117 96 105
-2.269120e+000 1.081524e+000 -1.404985e+001 196 47 77
-1.416265e+000 8.739176e-001 -1.340150e+001 136 17 39
-5.451235e-001 1.072782e+000 -1.378190e+001 129 20 38
-2.724634e+001 3.104539e+000 -6.760261e+001 149 123 132
-1.774169e+000 6.598827e-001 -1.342269e+001 194 49 77
-1.502140e+000 8.662937e-001 -1.348544e+001 214 73 95
1.082893e+000 6.931891e-001 -1.155116e+001 167 22 41
1.693856e+000 6.523465e-001 -1.134336e+001 141 24 38
-3.935200e+001 2.475671e+000 -7.936655e+001 81 67 83
-2.451460e+001 1.648381e+000 -6.482756e+001 88 47 51
-2.078509e+001 1.206287e+000 -6.479386e+001 57 43 48
-1.729771e+000 3.884412e-001 -1.321695e+001 222 72 99
-9.537388e-001 5.060364e-001 -1.336958e+001 193 58 83
-9.068196e-001 3.879775e-001 -1.333624e+001 149 20 42
-4.377207e-001 4.377942e-001 -1.331688e+001 213 61 89
-5.343171e-002 4.179125e-001 -1.292266e+001 148 15 41
1.935069e-001 4.377026e-001 -1.250949e+001 222 63 86
1.881729e+000 4.734924e-001 -1.112300e+001 141 24 35
-3.647616e+000 2.476584e-001 -1.593125e+001 197 190 197
-1.526085e+000 1.829734e-001 -1.327709e+001 201 60 81
9.108611e-001 2.282835e-001 -1.154955e+001 179 29 52
1.841466e+000 2.567845e-001 -1.102082e+001 193 64 82
4.755824e+000 1.612673e-001 -9.415535e+000 192 163 93
-3.766603e+000 -1.421540e-001 -1.563231e+001 192 38 72
-3.277391e+000 -1.370704e-001 -1.501162e+001 240 92 127
-2.054605e+000 4.140636e-002 -1.355160e+001 202 41 74
1.530804e+000 -2.726024e-002 -1.089846e+001 223 67 91
1.873012e+000 9.321008e-002 -1.079959e+001 103 19 33
-3.986217e+001 -3.262282e+000 -8.182426e+001 80 109 79
-3.955515e+001 -2.358740e+000 -8.414951e+001 89 92 95
-3.159860e+001 -2.074916e+000 -7.220801e+001 181 185 171
-3.887854e+000 -3.855966e-001 -1.557738e+001 172 24 56
-3.262914e+000 -3.016102e-001 -1.492894e+001 198 47 80
-3.058528e+000 -2.899131e-001 -1.475231e+001 219 61 97
-2.235374e+000 -4.029493e-001 -1.415124e+001 185 140 145
-1.654937e+000 -2.736091e-001 -1.317543e+001 167 17 42
8.883896e-003 -2.459114e-001 -1.226169e+001 219 65 88
4.363875e-001 -1.514806e-001 -1.198190e+001 186 53 74
2.269779e+000 -1.114798e-001 -1.071030e+001 188 64 81
2.291682e+000 -1.894835e-001 -1.072336e+001 138 27 42
2.225948e+000 -2.440753e-001 -1.064601e+001 119 27 40
-4.682793e+000 -6.867141e-001 -1.637466e+001 143 7 31
-3.519874e+000 -7.063969e-001 -1.510340e+001 218 67 97
-3.131392e+000 -6.350250e-001 -1.467777e+001 236 79 109
-2.606029e+000 -5.969500e-001 -1.407124e+001 231 74 105
-1.396482e+000 -4.506829e-001 -1.304926e+001 221 63 88
1.467886e+000 -4.839413e-001 -1.089749e+001 217 70 89
-3.086053e+001 -4.663302e+000 -6.878678e+001 166 174 159
-3.086053e+001 -4.663302e+000 -6.878678e+001 166 174 159
-4.496752e+000 -9.933901e-001 -1.610015e+001 213 64 92
-2.402021e+000 -9.159888e-001 -1.402124e+001 236 79 107
3.157923e-001 -7.198593e-001 -1.172122e+001 227 70 97
9.337980e-001 -6.448978e-001 -1.138850e+001 186 30 57
2.036968e+000 -6.329456e-001 -1.062918e+001 131 17 29
-4.192030e+001 -7.400309e+000 -8.090805e+001 194 178 172
-3.329799e+001 -6.754400e+000 -7.367680e+001 171 160 132
-4.988212e+000 -1.159291e+000 -1.638904e+001 200 43 76
-4.262228e+000 -1.236098e+000 -1.610504e+001 217 69 94
-4.195472e+000 -1.340166e+000 -1.598773e+001 161 25 49
7.524783e-001 -8.995412e-001 -1.132473e+001 169 19 44
-4.284579e+001 -9.475413e+000 -8.045238e+001 102 91 90
-4.168209e+001 -8.294167e+000 -8.138600e+001 176 142 104
-4.269807e+001 -8.699145e+000 -8.461474e+001 210 199 197
-3.411684e+001 -8.981210e+000 -7.830345e+001 78 73 77
-4.357353e+000 -1.481117e+000 -1.595338e+001 185 41 68
-4.246310e+000 -1.748240e+000 -1.615008e+001 147 31 51
-4.246310e+000 -1.748240e+000 -1.615008e+001 147 31 51
-8.238812e-001 -1.226126e+000 -1.287763e+001 236 78 103
-6.193950e-001 -1.132360e+000 -1.273036e+001 179 29 56
-7.347176e-001 -1.296943e+000 -1.277359e+001 235 73 101
8.000593e-001 -1.126414e+000 -1.126097e+001 182 29 53
-3.069883e+001 -9.038159e+000 -7.270181e+001 213 225 234
-2.359519e+001 -7.716783e+000 -5.974375e+001 205 206 193
-2.411124e+001 -7.946537e+000 -6.168347e+001 109 81 98
-1.946805e+000 -1.485700e+000 -1.355544e+001 167 23 50
-1.836098e+000 -1.563699e+000 -1.355851e+001 161 23 55
-1.571074e+000 -1.625422e+000 -1.340756e+001 216 70 88
-1.416356e+000 -1.599268e+000 -1.305407e+001 225 69 93
9.103814e-001 -1.331326e+000 -1.105284e+001 186 33 57
1.103791e+000 -1.201517e+000 -1.106334e+001 215 64 91
-3.948624e+000 -2.359578e+000 -1.614147e+001 217 64 88
-3.633636e+000 -2.119102e+000 -1.609631e+001 165 26 56
-2.155805e-001 -1.584362e+000 -1.255602e+001 172 17 48
1.896088e-001 -1.711376e+000 -1.229929e+001 223 73 98
6.921698e-001 -1.456446e+000 -1.131887e+001 187 32 60
-3.262981e+001 -1.261017e+001 -7.333521e+001 55 60 59
-2.871460e+001 -1.164713e+001 -6.922858e+001 156 166 161
-2.072047e+001 -9.222502e+000 -5.807405e+001 153 116 117
-9.478624e-001 -2.075356e+000 -1.293801e+001 234 76 101
-3.022959e-001 -2.049975e+000 -1.268023e+001 117 15 34
9.509601e-001 -1.739796e+000 -1.105323e+001 210 55 79
-3.628431e+001 -1.404123e+001 -7.332827e+001 145 162 169
-3.092894e+001 -1.223425e+001 -6.417598e+001 179 197 196
-2.468320e+001 -1.165486e+001 -6.329389e+001 126 58 73
-1.369604e+000 -2.273385e+000 -1.340780e+001 222 65 86
-5.528758e-001 -2.297535e+000 -1.277715e+001 166 69 63
-2.615261e-001 -2.226970e+000 -1.254028e+001 199 53 76
-8.834158e+001 -3.369067e+001 -1.573420e+002 93 82 87
-3.668617e+001 -1.536039e+001 -7.265078e+001 138 152 155
-2.186290e+000 -2.668744e+000 -1.420806e+001 218 61 88
-2.015124e+000 -2.620572e+000 -1.422605e+001 231 72 100
-7.604494e-001 -2.530850e+000 -1.315339e+001 188 50 71
-4.646534e-001 -2.603872e+000 -1.307706e+001 176 34 60
1.755736e-001 -2.341990e+000 -1.260721e+001 200 64 83
-3.618829e+001 -1.611085e+001 -7.206064e+001 116 124 121
-3.633238e+001 -1.677548e+001 -7.265430e+001 106 112 111
-3.206912e+001 -1.541997e+001 -6.726110e+001 141 141 137
-2.929575e+001 -1.515112e+001 -6.709399e+001 148 154 152
-3.132808e+001 -1.620187e+001 -7.223573e+001 90 96 92
-2.292927e+001 -1.401140e+001 -6.425265e+001 159 121 118
-2.343867e+001 -1.644533e+001 -7.354102e+001 110 75 93
-1.684648e-001 -2.766401e+000 -1.299250e+001 213 60 84
-3.684193e+001 -1.846674e+001 -7.457785e+001 82 84 80
-3.498087e+001 -1.779740e+001 -7.025140e+001 93 97 93
-3.091011e+001 -1.643196e+001 -6.579864e+001 102 104 101
-3.394598e+001 -1.836554e+001 -7.778743e+001 149 160 156
-2.900105e+001 -1.579306e+001 -6.702628e+001 90 97 91
-1.283196e+000 -3.308616e+000 -1.391750e+001 221 70 95
-1.770942e+000 -3.432204e+000 -1.405396e+001 194 30 64
-1.770942e+000 -3.432204e+000 -1.405396e+001 194 30 64
-1.554499e+000 -3.527947e+000 -1.396689e+001 181 33 62
-8.612313e-002 -3.236537e+000 -1.313269e+001 206 63 89
-5.971323e+001 -3.340754e+001 -1.145991e+002 62 46 46
-3.791334e+001 -2.179595e+001 -7.624555e+001 92 102 95
-3.924141e+001 -2.285733e+001 -8.188549e+001 136 148 141
-3.405001e+001 -2.249661e+001 -7.228002e+001 155 93 101
-3.405001e+001 -2.249661e+001 -7.228002e+001 155 93 101
-1.642187e-001 -3.731212e+000 -1.298419e+001 178 41 61
-1.085044e+000 -4.071460e+000 -1.322702e+001 239 77 114
-6.009399e+000 4.412768e+000 -1.705778e+001 229 227 205
-1.280942e+000 3.541765e+000 -1.349749e+001 99 83 83
-1.280942e+000 3.541765e+000 -1.349749e+001 99 83 83
-6.015536e+000 4.191648e+000 -1.690270e+001 228 227 209
-4.034479e+000 3.958450e+000 -1.570575e+001 121 95 70
-1.976384e+000 3.244773e+000 -1.380954e+001 224 75 100
-1.534815e+000 3.388558e+000 -1.353625e+001 157 28 51
-5.402551e+000 3.762438e+000 -1.619746e+001 227 216 184
-1.343707e+000 2.904776e+000 -1.338731e+001 176 40 64
