ply
format ascii 1.0
element face 0
property list uchar int vertex_indices
element vertex 873
property float x
property float y
property float z
property uchar diffuse_red
property uchar diffuse_green
property uchar diffuse_blue
end_header
-1.569362e+000 -5.177374e-001 -7.625721e+000 131 134 125
-8.177212e-001 -6.389422e-001 -7.666381e+000 14 39 19
-5.574164e-001 -4.676328e-001 -7.903602e+000 154 155 47
-5.900376e-001 -5.507054e-001 -7.930249e+000 157 149 23
-4.464438e-001 -5.476974e-001 -7.977605e+000 162 150 15
-2.700310e-001 -5.055024e-001 -8.020520e+000 73 95 95
-1.182139e-001 -5.098364e-001 -8.070749e+000 102 126 119
7.428976e-001 -5.301255e-001 -8.452414e+000 211 161 125
8.592810e-001 -5.477134e-001 -8.510036e+000 19 83 127
8.592810e-001 -5.477134e-001 -8.510036e+000 19 83 127
3.730888e+000 -4.687797e-001 -9.682455e+000 189 89 57
4.061052e+000 -4.930300e-001 -9.848049e+000 40 15 24
4.544625e+000 -4.561403e-001 -1.009288e+001 162 146 126
4.537325e+000 -5.033001e-001 -1.015287e+001 166 142 126
-1.138011e+000 -6.050246e-001 -7.766027e+000 176 26 30
-7.233317e-001 -6.636252e-001 -7.967256e+000 38 72 70
-4.224609e-001 -6.563157e-001 -8.092303e+000 64 100 97
-4.224609e-001 -6.563157e-001 -8.092303e+000 64 100 97
7.185199e-001 -6.057600e-001 -8.491057e+000 205 175 130
7.172867e-001 -6.400974e-001 -8.520509e+000 206 167 135
2.526180e+000 -6.406117e-001 -9.288413e+000 166 20 33
2.701783e+000 -5.902338e-001 -9.319151e+000 205 92 88
2.902856e+000 -6.201098e-001 -9.464326e+000 165 24 35
2.896156e+000 -6.281951e-001 -9.450129e+000 165 24 35
3.225728e+000 -6.444136e-001 -9.619439e+000 196 135 117
3.864273e+000 -5.694490e-001 -9.849013e+000 185 124 77
3.802626e+000 -5.922254e-001 -9.833434e+000 183 139 100
3.777559e+000 -6.711097e-001 -9.911102e+000 86 50 35
4.445496e+000 -6.085242e-001 -1.021907e+001 30 12 8
-1.490605e+000 -7.058362e-001 -7.732917e+000 167 162 142
-1.490605e+000 -7.058362e-001 -7.732917e+000 167 162 142
-1.462848e+000 -7.035719e-001 -7.738802e+000 144 157 155
-1.462848e+000 -7.035719e-001 -7.738802e+000 144 157 155
-1.072583e+000 -7.666524e-001 -7.904060e+000 198 144 120
5.609392e-001 -7.160154e-001 -8.549085e+000 161 160 131
6.259117e-001 -7.307091e-001 -8.586801e+000 198 174 130
6.258071e-001 -7.330411e-001 -8.583739e+000 198 174 130
6.312714e-001 -7.805361e-001 -8.639979e+000 203 173 134
7.983273e-001 -7.583409e-001 -8.646499e+000 13 88 136
6.664484e-001 -7.724251e-001 -8.660629e+000 200 170 133
2.612361e+000 -7.134714e-001 -9.431208e+000 160 13 25
2.911247e+000 -6.990552e-001 -9.544355e+000 220 100 97
2.877762e+000 -7.774481e-001 -9.624170e+000 198 78 80
3.210687e+000 -7.040887e-001 -9.688145e+000 118 60 45
3.210687e+000 -7.040887e-001 -9.688145e+000 118 60 45
3.173864e+000 -7.954687e-001 -9.784059e+000 123 66 64
3.556589e+000 -7.314294e-001 -9.874081e+000 176 139 111
3.783339e+000 -7.794400e-001 -1.006335e+001 167 132 100
3.973706e+000 -7.416581e-001 -1.010100e+001 25 5 0
3.971982e+000 -7.433229e-001 -1.009749e+001 25 5 0
4.413228e+000 -6.944835e-001 -1.030353e+001 39 18 8
4.621572e+000 -6.909197e-001 -1.037591e+001 133 70 49
-1.091226e+000 -8.059917e-001 -7.982994e+000 193 161 123
-6.304997e-001 -8.068826e-001 -8.163680e+000 165 158 36
3.152656e+000 -8.559090e-001 -9.839176e+000 107 53 47
3.514631e+000 -8.405699e-001 -1.000765e+001 175 141 112
3.612061e+000 -8.541884e-001 -1.006956e+001 120 90 63
3.648727e+000 -8.828562e-001 -1.013297e+001 172 136 110
-1.152246e+000 -8.846672e-001 -8.064158e+000 178 39 50
-1.141989e+000 -9.236213e-001 -8.118114e+000 201 154 117
-1.150859e+000 -9.452817e-001 -8.147050e+000 205 156 125
-3.874352e-001 -8.911477e-001 -8.387542e+000 19 58 24
-3.260122e-001 -9.038619e-001 -8.431520e+000 170 166 36
5.963301e-001 -9.372193e-001 -8.855303e+000 198 165 135
5.572440e-001 -9.860519e-001 -8.909296e+000 145 20 12
1.710001e+000 -9.739031e-001 -9.383823e+000 125 71 52
1.709482e+000 -9.752147e-001 -9.382841e+000 125 71 52
2.453454e+000 -9.169957e-001 -9.630897e+000 151 13 26
2.442159e+000 -9.298362e-001 -9.604060e+000 151 13 26
2.588949e+000 -1.011144e+000 -9.816818e+000 214 94 94
2.584143e+000 -1.018289e+000 -9.800383e+000 214 94 94
2.755466e+000 -9.817198e-001 -9.887542e+000 178 38 55
3.617798e+000 -9.516909e-001 -1.021429e+001 172 137 112
-1.179915e+000 -9.743947e-001 -8.178094e+000 196 150 113
-1.156107e+000 -9.710147e-001 -8.157004e+000 182 31 37
-9.061036e-001 -1.032890e+000 -8.359514e+000 176 167 39
-6.550351e-001 -9.890666e-001 -8.360862e+000 170 166 37
5.296638e-001 -1.078176e+000 -9.036372e+000 207 175 144
1.472342e+000 -1.013712e+000 -9.333967e+000 129 83 66
1.656939e+000 -1.083223e+000 -9.538137e+000 136 83 68
1.902091e+000 -1.042799e+000 -9.566727e+000 103 51 37
2.350213e+000 -1.102289e+000 -9.824630e+000 164 30 47
2.567886e+000 -1.059136e+000 -9.833577e+000 207 89 93
2.535492e+000 -1.062851e+000 -9.920449e+000 168 29 44
2.704842e+000 -1.066220e+000 -9.974483e+000 159 24 34
-1.163632e+000 -1.062055e+000 -8.294568e+000 219 159 131
-1.163632e+000 -1.062055e+000 -8.294568e+000 219 159 131
1.569761e+000 -1.172508e+000 -9.710143e+000 205 121 111
2.306582e+000 -1.171263e+000 -9.927958e+000 188 154 131
1.079507e+000 5.879294e-002 -8.195983e+000 178 159 132
4.546235e+000 2.066567e-001 -9.583999e+000 175 154 128
2.555981e+000 1.007920e-002 -8.752679e+000 201 135 105
3.023579e+000 3.530694e-002 -9.002910e+000 210 93 92
4.314713e+000 8.937710e-002 -9.455789e+000 180 154 126
4.841625e+000 3.183505e-002 -9.763180e+000 49 19 16
-2.477294e-001 -1.927640e-001 -7.805597e+000 148 137 29
2.550878e+000 -1.084325e-001 -8.871017e+000 196 144 104
3.021470e+000 -1.075297e-001 -9.060369e+000 170 24 36
3.863230e+000 -9.383346e-002 -9.405179e+000 119 36 30
3.999738e+000 -1.357512e-001 -9.543165e+000 192 86 37
1.450952e+000 -2.301667e-001 -8.575532e+000 195 132 101
2.767445e+000 -3.125075e-001 -9.106804e+000 193 84 77
4.627490e+000 -2.447610e-001 -9.927044e+000 173 103 29
3.666963e+000 -3.319893e-001 -9.491389e+000 189 117 37
2.605814e+000 -4.616613e-001 -9.142460e+000 157 26 34
2.666913e+000 -5.357719e-001 -9.240762e+000 172 33 41
2.972722e+000 -5.040737e-001 -9.351712e+000 207 92 85
3.285789e+000 -4.695417e-001 -9.460924e+000 130 82 52
3.275708e+000 -5.289263e-001 -9.513510e+000 144 87 68
3.392249e+000 -5.014679e-001 -9.523308e+000 200 81 45
3.392650e+000 -5.482705e-001 -9.623323e+000 191 83 38
3.598124e+000 -5.303704e-001 -9.696096e+000 121 30 17
3.598124e+000 -5.303704e-001 -9.696096e+000 121 30 17
3.818897e+000 -4.363433e-001 -9.695252e+000 194 91 46
3.925898e+000 -5.072569e-001 -9.781005e+000 191 114 44
3.974980e+000 -5.429724e-001 -9.877366e+000 177 86 41
4.707476e+000 -3.714841e-001 -1.012288e+001 124 68 33
2.222348e-001 -6.964534e-001 -8.372673e+000 167 168 129
3.095091e-001 -6.344761e-001 -8.348029e+000 122 8 19
1.104114e+000 -6.111704e-001 -8.628463e+000 26 71 112
1.209722e+000 -6.349816e-001 -8.743094e+000 132 81 92
2.635948e+000 -6.504205e-001 -9.352193e+000 161 22 29
2.640991e+000 -6.436967e-001 -9.363493e+000 161 22 29
2.848009e+000 -6.381785e-001 -9.411128e+000 196 81 71
2.937041e+000 -6.290092e-001 -9.466495e+000 203 79 78
3.347781e+000 -6.397613e-001 -9.644432e+000 198 101 42
4.535836e+000 -6.088392e-001 -1.028189e+001 166 146 123
4.629101e+000 -5.756946e-001 -1.034512e+001 113 48 20
-1.132637e+000 -7.649386e-001 -7.920239e+000 177 31 44
-6.046652e-001 -7.068720e-001 -8.050097e+000 163 162 36
3.190839e-001 -7.156569e-001 -8.442921e+000 162 162 140
2.500183e+000 -7.134301e-001 -9.371233e+000 202 94 89
2.527547e+000 -7.340301e-001 -9.400610e+000 177 30 46
3.487530e+000 -7.477520e-001 -9.889754e+000 174 142 101
3.540352e+000 -7.584393e-001 -9.887372e+000 183 145 117
-1.065183e+000 -7.852766e-001 -7.968156e+000 180 44 46
-1.030484e+000 -8.230421e-001 -8.011867e+000 183 30 33
-6.591463e-001 -8.398196e-001 -8.136722e+000 58 107 110
-6.597997e-001 -8.274533e-001 -8.156166e+000 58 107 110
2.236350e-001 -7.957535e-001 -8.505098e+000 164 167 136
2.260649e-001 -7.968517e-001 -8.504712e+000 164 167 136
7.182038e-001 -8.505685e-001 -8.794543e+000 28 84 134
1.533291e+000 -8.773492e-001 -9.164141e+000 124 77 68
2.091152e+000 -8.665279e-001 -9.398104e+000 116 62 51
2.091902e+000 -8.657571e-001 -9.399276e+000 116 62 51
2.844741e+000 -8.696220e-001 -9.755906e+000 194 76 78
3.422376e+000 -8.835886e-001 -1.002808e+001 176 140 109
-1.215138e+000 -9.236128e-001 -8.092012e+000 196 155 125
-1.169902e+000 -9.550682e-001 -8.141422e+000 208 160 129
7.001940e-001 -9.454441e-001 -8.861049e+000 15 53 86
2.415489e+000 -9.144699e-001 -9.625571e+000 213 109 102
2.410552e+000 -1.005327e+000 -9.751465e+000 163 25 35
2.570900e+000 -9.887686e-001 -9.788007e+000 170 30 42
2.949613e+000 -1.014266e+000 -9.973125e+000 76 28 10
-1.244130e+000 -1.034250e+000 -8.224061e+000 176 29 30
-1.244324e+000 -1.034351e+000 -8.223743e+000 176 29 30
5.223036e-001 -1.003167e+000 -8.915032e+000 193 170 124
6.147420e-001 -1.086855e+000 -9.011971e+000 16 82 125
1.327980e+000 -1.078360e+000 -9.356722e+000 127 74 61
1.549364e+000 -1.079110e+000 -9.473014e+000 126 71 61
1.549019e+000 -1.079538e+000 -9.472456e+000 126 71 61
2.198640e+000 -1.127676e+000 -9.745894e+000 203 138 122
2.459506e+000 -1.056313e+000 -9.871989e+000 171 22 41
2.535713e+000 -1.046943e+000 -9.842758e+000 166 29 41
2.537695e+000 -1.045305e+000 -9.842601e+000 166 29 41
2.562749e+000 -1.071919e+000 -9.891441e+000 206 93 93
2.548933e+000 -1.093687e+000 -9.964515e+000 196 91 89
-1.298974e+000 -1.049817e+000 -8.242489e+000 185 33 39
5.995986e-001 -1.106766e+000 -9.119766e+000 29 89 137
1.165489e+000 -1.139137e+000 -9.424381e+000 99 45 35
1.165489e+000 -1.139137e+000 -9.424381e+000 99 45 35
3.507068e+000 -1.135820e+000 -1.067595e+001 49 14 16
4.223100e+000 -1.145039e+000 -1.083388e+001 184 174 164
1.088382e+000 -1.203215e+000 -9.579075e+000 186 61 56
-1.996521e+000 6.098106e-001 -7.694684e+000 201 177 143
3.895756e+000 3.088991e-001 -9.215724e+000 196 111 30
2.751578e+000 2.967965e-003 -8.885651e+000 187 72 69
4.957652e+000 5.228255e-002 -9.765645e+000 26 20 32
2.203338e+000 -1.154582e-001 -8.760368e+000 115 69 50
2.313982e+000 -1.183139e-001 -8.792217e+000 111 63 47
2.428839e+000 -1.074684e-001 -8.836276e+000 112 65 52
2.434022e+000 -9.889649e-002 -8.851318e+000 112 65 52
2.664959e+000 -1.524795e-001 -8.901967e+000 176 30 35
4.567413e+000 -1.134579e-001 -9.737607e+000 159 88 27
4.829392e+000 -8.795425e-002 -9.804444e+000 136 74 36
2.731748e+000 -2.727929e-001 -9.063564e+000 166 26 34
3.366333e+000 -2.078582e-001 -9.287405e+000 88 39 23
4.116167e+000 -2.701571e-001 -9.656004e+000 215 139 68
4.672311e+000 -1.972267e-001 -9.936171e+000 178 103 33
-5.796057e-001 -4.319827e-001 -7.833689e+000 20 44 36
-5.774528e-001 -4.310724e-001 -7.835918e+000 20 44 36
-2.209704e-001 -4.368316e-001 -7.990927e+000 76 103 97
2.733590e+000 -3.211042e-001 -9.120491e+000 169 22 31
2.574101e+000 -4.377703e-001 -9.130526e+000 202 92 82
-4.347468e-001 -5.616149e-001 -8.003846e+000 53 102 106
-4.210955e-001 -5.582124e-001 -8.000806e+000 59 101 98
3.872536e+000 -4.609859e-001 -9.692932e+000 191 95 50
7.796997e-001 -7.063282e-001 -8.585991e+000 11 91 130
1.232271e+000 -6.865794e-001 -8.802825e+000 193 133 109
1.232271e+000 -6.865794e-001 -8.802825e+000 193 133 109
1.450243e+000 -6.942181e-001 -8.867637e+000 199 133 109
2.629756e+000 -5.831459e-001 -9.283661e+000 208 92 77
2.550014e+000 -6.438834e-001 -9.293460e+000 166 20 33
2.964936e+000 -6.551300e-001 -9.501469e+000 167 21 32
3.106780e+000 -6.466315e-001 -9.566000e+000 106 54 43
3.991656e+000 -6.210893e-001 -9.983195e+000 196 169 131
-1.050411e+000 -7.419267e-001 -7.917477e+000 172 17 35
1.149573e+000 -7.627098e-001 -8.848779e+000 103 57 59
1.468002e+000 -7.506108e-001 -8.972889e+000 167 126 108
1.661651e+000 -7.214656e-001 -9.015785e+000 197 129 106
2.255863e+000 -7.220275e-001 -9.278360e+000 126 81 64
2.501382e+000 -7.637985e-001 -9.434510e+000 162 23 32
3.056894e+000 -7.722881e-001 -9.702701e+000 90 42 38
3.191888e+000 -7.416294e-001 -9.729169e+000 129 76 68
-3.725530e-001 -8.032184e-001 -8.276127e+000 170 162 26
2.602840e+000 -8.280837e-001 -9.576585e+000 189 82 71
3.017601e+000 -8.706759e-001 -9.814007e+000 114 60 51
4.448939e+000 -8.392342e-001 -1.043424e+001 155 123 116
-7.808993e-001 -9.030173e-001 -8.215461e+000 160 163 18
2.142564e+000 -9.893424e-001 -9.579026e+000 123 67 53
2.142564e+000 -9.893424e-001 -9.579026e+000 123 67 53
2.190604e+000 -1.004158e+000 -9.661765e+000 198 131 114
3.064590e+000 -9.289280e-001 -9.932653e+000 192 130 107
-1.106238e+000 -9.923236e-001 -8.215707e+000 195 38 48
1.897827e+000 -1.125144e+000 -9.606114e+000 192 134 117
1.897827e+000 -1.125144e+000 -9.606114e+000 192 134 117
2.102510e+000 -1.061989e+000 -9.674771e+000 139 84 71
2.105382e+000 -1.059246e+000 -9.679291e+000 139 84 71
2.271317e+000 -1.092133e+000 -9.810301e+000 170 28 45
2.308241e+000 -1.028286e+000 -9.730947e+000 174 24 45
2.302339e+000 -1.035916e+000 -9.714174e+000 174 24 45
2.217982e+000 -1.153640e+000 -9.925290e+000 116 20 23
1.415771e+000 -6.238451e-002 -8.387643e+000 185 128 110
4.407281e+000 3.499979e-003 -9.564213e+000 32 18 14
1.373307e+000 -8.905352e-002 -8.413511e+000 190 130 99
1.461572e+000 -1.549840e-001 -8.493290e+000 192 127 99
1.733178e+000 -1.970647e-001 -8.607421e+000 115 55 42
1.849113e+000 -1.907575e-001 -8.651675e+000 98 53 33
1.849113e+000 -1.907575e-001 -8.651675e+000 98 53 33
2.124614e+000 -1.584796e-001 -8.727358e+000 195 143 105
2.124614e+000 -1.584796e-001 -8.727358e+000 195 143 105
2.602381e+000 -7.425174e-002 -8.858350e+000 182 26 46
4.738004e+000 -9.609863e-002 -9.818208e+000 163 98 26
1.486507e+000 -2.464297e-001 -8.539697e+000 180 124 107
-3.982533e-001 -4.497564e-001 -7.931182e+000 59 98 109
8.037097e-001 -4.169250e-001 -8.342170e+000 142 27 37
-4.264468e-001 -5.696955e-001 -7.996103e+000 55 99 102
-4.261169e-001 -5.681212e-001 -7.997827e+000 55 99 102
-3.067520e-001 -6.114693e-001 -8.082392e+000 170 162 27
-3.067520e-001 -6.114693e-001 -8.082392e+000 170 162 27
1.306603e+000 -6.083446e-001 -8.734434e+000 181 125 110
1.344015e+000 -6.694366e-001 -8.857366e+000 200 137 110
3.305671e+000 -6.399270e-001 -9.696220e+000 200 134 108
9.709835e-001 -7.467071e-001 -8.743653e+000 15 88 136
9.736683e-001 -7.394947e-001 -8.748979e+000 15 88 136
1.323268e+000 -7.260108e-001 -8.892208e+000 196 134 107
1.545653e+000 -7.112946e-001 -8.980292e+000 196 133 105
1.579245e+000 -7.486041e-001 -9.006368e+000 161 117 108
1.693940e+000 -7.413042e-001 -9.053234e+000 158 107 94
1.805754e+000 -7.387027e-001 -9.092051e+000 152 97 88
1.984010e+000 -7.111474e-001 -9.152745e+000 194 134 108
2.101621e+000 -7.052700e-001 -9.188980e+000 198 136 98
2.371018e+000 -7.508869e-001 -9.346506e+000 202 135 108
3.665501e-001 -7.944630e-001 -8.567932e+000 162 164 146
6.676104e-001 -8.664166e-001 -8.773730e+000 136 28 30
-1.240413e+000 -9.426530e-001 -8.108414e+000 186 33 36
6.413569e-001 -9.301719e-001 -8.844485e+000 148 26 46
7.418170e-001 -9.038523e-001 -8.860472e+000 2 43 85
7.130211e-001 -9.635823e-001 -8.970690e+000 9 61 87
2.081608e+000 -9.966272e-001 -9.518149e+000 199 133 111
-1.258004e+000 -9.856890e-001 -8.158293e+000 190 35 40
-1.275376e+000 -1.034018e+000 -8.213713e+000 187 30 40
1.287858e+000 -1.032876e+000 -9.327477e+000 195 132 115
1.272440e+000 -1.071499e+000 -9.364520e+000 195 134 113
1.272440e+000 -1.071499e+000 -9.364520e+000 195 134 113
2.076458e+000 -1.023357e+000 -9.614343e+000 200 139 119
1.981061e+000 -1.086851e+000 -9.762083e+000 159 108 104
1.981061e+000 -1.086851e+000 -9.762083e+000 159 108 104
1.977610e+000 -1.189648e+000 -9.796215e+000 156 41 58
8.151083e-001 -3.481824e-001 -8.319755e+000 164 29 34
7.610908e-001 -6.178233e-001 -8.506894e+000 127 11 28
2.432026e+000 -7.587775e-001 -9.418711e+000 176 24 39
-4.971987e-001 -8.460167e-001 -8.298187e+000 126 129 44
4.976610e-001 -9.634334e-001 -8.871604e+000 173 34 49
3.511759e+000 -9.280384e-001 -1.013285e+001 170 135 104
3.865824e+000 -1.073340e+000 -1.052596e+001 143 126 118
1.547457e+000 -1.144643e+000 -9.608866e+000 201 143 123
1.680882e+000 -1.137118e+000 -9.674218e+000 199 140 126
1.905088e+000 -1.126021e+000 -9.763655e+000 205 138 127
4.670760e+000 5.943869e-001 -9.592201e+000 188 155 117
1.559333e-002 -2.117696e-001 -7.929783e+000 31 46 15
1.183035e+000 -1.095411e-001 -8.320363e+000 3 55 82
5.933720e-001 -7.459145e-001 -8.631473e+000 181 31 47
-7.421496e-001 -8.228159e-001 -8.127682e+000 24 56 26
2.713692e+000 -7.851199e-001 -9.599185e+000 174 23 40
2.713692e+000 -7.851199e-001 -9.599185e+000 174 23 40
-5.776149e-001 -9.924783e-001 -8.456113e+000 118 140 118
-6.686041e-002 -1.019258e+000 -8.670097e+000 31 58 32
-6.686041e-002 -1.019258e+000 -8.670097e+000 31 58 32
3.411126e+000 2.938819e-001 -9.079077e+000 73 16 25
3.801861e+000 2.804286e-001 -9.199920e+000 123 20 24
3.090520e+000 4.514211e-002 -8.976885e+000 178 30 45
3.090520e+000 4.514211e-002 -8.976885e+000 178 30 45
1.087215e-001 -1.796018e-001 -7.923751e+000 157 151 129
2.832378e+000 -5.373141e-001 -9.420212e+000 168 27 33
2.841031e+000 -5.199479e-001 -9.447070e+000 168 27 33
1.530098e+000 -7.946495e-001 -9.062753e+000 199 131 103
3.276075e+000 -8.399365e-001 -9.908351e+000 189 135 105
2.279126e+000 -1.132226e+000 -1.034138e+001 185 155 147
-5.913584e-001 -9.724957e-001 -8.383011e+000 114 140 129
-3.809694e-001 -9.477611e-001 -8.469228e+000 124 140 133
-3.074225e-001 -1.008040e+000 -8.560031e+000 23 61 30
1.975243e+000 1.682756e+000 -9.495329e+000 185 162 130
1.047389e+000 7.376987e-002 -8.132836e+000 173 163 125
-2.255161e-001 -5.971768e-002 -7.738052e+000 56 97 123
4.606573e+000 -3.389566e-001 -1.001170e+001 180 149 119
3.878157e+000 5.705586e-001 -9.321807e+000 179 138 92
1.713617e+000 -8.358916e-001 -9.194259e+000 196 135 107
3.685323e+000 -4.632851e-001 -9.666449e+000 142 46 25
3.215510e+000 4.460961e-001 -9.081154e+000 177 129 44
1.595593e+000 -1.055667e+000 -9.958904e+000 172 53 54
4.316540e+000 5.588989e-001 -9.589106e+000 186 105 23
2.828921e+000 -1.662698e-001 -9.027324e+000 167 10 21
2.239783e+000 2.294183e-001 -8.683402e+000 179 140 99
-3.951149e-001 2.491222e-001 -7.583597e+000 61 106 114
3.009827e+000 -1.584778e-001 -9.088088e+000 157 23 32
2.765688e+000 -3.155264e-001 -9.106052e+000 184 72 71
4.675639e+000 -3.351284e-001 -1.003200e+001 141 73 38
4.049828e+000 -5.271155e-001 -9.878388e+000 33 17 28
-9.106714e-001 -5.731105e-001 -7.832497e+000 18 75 111
2.956142e-001 -6.175872e-001 -8.331035e+000 149 158 124
2.964699e-001 -6.143196e-001 -8.337356e+000 149 158 124
2.483053e+000 -6.048737e-001 -9.261020e+000 144 18 31
3.538688e+000 -5.689819e-001 -9.656375e+000 184 59 53
3.659150e+000 -6.612404e-001 -9.847541e+000 182 145 108
3.714250e+000 -6.012593e-001 -9.801880e+000 120 77 49
-1.034555e+000 -7.164125e-001 -7.885299e+000 161 25 30
-1.034555e+000 -7.164125e-001 -7.885299e+000 161 25 30
-1.059259e+000 -7.266688e-001 -7.889266e+000 204 153 120
2.426162e-001 -6.806963e-001 -8.358509e+000 113 26 29
2.658460e+000 -6.969161e-001 -9.431903e+000 179 67 74
3.370155e+000 -6.953627e-001 -9.720906e+000 194 149 107
1.603318e+000 -9.702335e-001 -9.329999e+000 124 74 59
1.859912e+000 -8.990209e-001 -9.339049e+000 111 61 41
2.770496e+000 -1.022283e+000 -9.929507e+000 201 90 97
3.600193e+000 -9.729088e-001 -1.023686e+001 172 139 108
5.177526e-001 -1.186276e+000 -9.256033e+000 34 64 94
9.101423e-001 -1.360985e-001 -8.283415e+000 21 84 117
1.051892e+000 -2.234658e-001 -8.349240e+000 15 52 67
4.798914e+000 -1.526141e-001 -9.846720e+000 124 62 20
2.942805e+000 -3.751250e-001 -9.228390e+000 159 32 41
3.937035e+000 -7.513432e-001 -1.011232e+001 176 144 124
-5.413125e-001 -8.250356e-001 -8.214131e+000 25 56 45
2.861984e+000 -8.082119e-001 -9.672865e+000 162 53 56
2.884965e+000 -8.263911e-001 -9.589269e+000 158 20 35
4.602609e+000 -8.187511e-001 -1.059760e+001 115 53 51
2.410297e+000 -9.204846e-001 -9.614131e+000 203 95 96
2.705790e+000 -1.004630e+000 -9.895993e+000 183 73 79
6.373259e-001 -1.037897e+000 -8.981768e+000 30 86 131
1.070284e+000 -1.188248e+000 -9.510735e+000 165 169 153
2.363430e+000 -6.239436e-001 -9.220660e+000 198 132 110
1.427105e+000 -7.079766e-001 -8.881996e+000 194 132 107
2.873232e+000 -8.748787e-001 -9.712159e+000 150 18 41
7.446621e-001 -9.050325e-001 -8.854123e+000 18 52 84
4.365588e+000 -1.085499e+000 -1.077455e+001 169 153 142
1.893563e+000 1.269145e+000 -9.045092e+000 23 17 22
8.355841e-001 -2.733358e-001 -8.264103e+000 165 17 28
2.230756e+000 -1.621120e-001 -8.776422e+000 196 143 112
-9.216680e-001 -5.255603e-001 -7.774193e+000 28 54 32
-1.731740e+001 2.889166e+001 -4.152636e+001 92 72 63
4.185348e+000 -7.132358e-002 -9.520345e+000 182 111 48
4.850033e+000 -2.034638e-002 -9.787360e+000 143 81 44
-4.405931e-001 -6.766459e-001 -8.134155e+000 112 124 40
5.516972e-001 -8.405046e-001 -8.726130e+000 154 29 37
-2.321619e+000 1.561880e+000 -8.529573e+000 107 90 75
4.539166e+000 -1.071535e+000 -1.088467e+001 36 15 24
-1.402279e+000 -1.120341e+000 -8.295237e+000 129 135 136
1.276855e-001 -1.221919e+000 -9.424428e+000 154 160 176
7.184885e-001 -9.690739e-001 -9.204057e+000 15 76 119
-1.569701e-001 -3.451500e-001 -8.008497e+000 23 57 27
5.048281e+000 2.799649e-001 -9.623324e+000 43 22 29
7.548283e-001 -4.657192e-002 -8.113776e+000 143 8 23
4.303039e+000 7.899435e-002 -9.442000e+000 187 156 120
4.792528e+000 1.598746e-001 -9.626661e+000 67 14 32
4.766669e+000 9.141543e-002 -9.657597e+000 56 14 26
7.725138e-001 -2.170647e-001 -8.219970e+000 203 154 109
4.729496e+000 -5.649727e-002 -9.770331e+000 33 7 17
7.451027e-001 -3.589326e-001 -8.320992e+000 183 147 100
4.634351e+000 -1.680207e-001 -9.803815e+000 159 90 24
-1.440879e+000 -1.326387e+000 -6.723296e+000 147 138 117
3.761563e+000 -3.219303e-001 -9.541398e+000 184 66 47
3.678701e+000 -3.794421e-001 -9.579089e+000 180 56 29
3.721071e+000 -3.665104e-001 -9.590983e+000 116 28 9
3.707487e+000 -3.804354e-001 -9.570384e+000 116 28 9
-9.617654e-001 -5.738063e-001 -7.791496e+000 16 69 47
-7.746909e-001 -5.958100e-001 -7.852073e+000 19 70 54
7.112081e-001 -5.874423e-001 -8.474548e+000 137 10 4
3.476780e+000 -4.099753e-001 -9.617858e+000 176 52 34
4.028645e+000 -4.496794e-001 -9.763909e+000 187 148 111
-1.584682e+000 -6.889868e-001 -7.683414e+000 30 76 117
5.944015e-001 -6.903744e-001 -8.484926e+000 152 16 28
7.163211e-001 -6.438958e-001 -8.516480e+000 196 148 112
2.844464e+000 -6.558978e-001 -9.462753e+000 154 15 32
3.226266e+000 -6.448622e-001 -9.619380e+000 177 109 88
3.599363e+000 -6.229445e-001 -9.768825e+000 180 118 85
3.597755e+000 -6.246830e-001 -9.766283e+000 180 118 85
-1.158526e+000 -7.754674e-001 -7.924663e+000 193 141 104
-5.496731e-001 -7.858466e-001 -8.165503e+000 162 145 23
2.057711e-001 -7.146129e-001 -8.425615e+000 155 140 109
6.679262e-001 -7.713139e-001 -8.662587e+000 203 146 116
1.366789e+000 -7.205749e-001 -8.907640e+000 175 115 76
2.660222e+000 -6.951488e-001 -9.434704e+000 187 67 71
2.882386e+000 -6.793490e-001 -9.531268e+000 148 19 27
3.598336e+000 -6.856363e-001 -9.836275e+000 105 60 33
3.718381e+000 -7.161612e-001 -9.959230e+000 161 122 90
2.313640e-001 -8.288669e-001 -8.542888e+000 147 139 115
6.216979e-001 -7.967040e-001 -8.685139e+000 183 153 107
3.843568e+000 -7.597999e-001 -1.004576e+001 169 129 89
3.729144e+000 -8.661943e-001 -1.012583e+001 167 128 96
3.897761e+000 -9.251834e-001 -1.030347e+001 41 23 35
4.344802e+000 -8.855533e-001 -1.050132e+001 27 4 16
4.339589e+000 -8.908399e-001 -1.049267e+001 27 4 16
4.430649e+000 -8.519735e-001 -1.052413e+001 156 129 111
4.430649e+000 -8.519735e-001 -1.052413e+001 156 129 111
4.599347e+000 -8.420826e-001 -1.063120e+001 120 55 48
-6.140160e-001 -9.913279e-001 -8.432802e+000 154 146 35
5.580243e-001 -9.841957e-001 -8.910773e+000 126 15 3
2.353044e+000 -1.037638e+000 -9.771702e+000 197 113 96
3.690304e+000 -9.552468e-001 -1.024143e+001 170 127 100
-1.220835e+000 -1.078038e+000 -8.349641e+000 165 147 114
2.298391e+000 -9.882825e-001 -9.854380e+000 185 117 91
2.786897e+000 -1.069280e+000 -1.000264e+001 150 23 34
2.684383e+000 -1.094688e+000 -1.001360e+001 136 8 21
3.798853e+000 -1.061811e+000 -1.049833e+001 178 148 131
2.044138e+000 -1.135244e+000 -9.844592e+000 197 127 114
1.409406e+000 -1.192852e+000 -9.716150e+000 191 76 80
1.571569e+000 -1.194311e+000 -9.829324e+000 200 119 108
1.571858e+000 -1.193798e+000 -9.830704e+000 200 119 108
4.532359e+000 1.882103e-001 -9.499042e+000 94 48 31
1.041634e+000 -2.486978e-001 -8.320704e+000 14 41 64
2.691437e+000 -1.826848e-001 -8.907282e+000 198 76 79
3.938052e+000 -7.113756e-002 -9.402638e+000 113 35 25
2.961873e+000 -2.290374e-001 -9.127342e+000 191 69 67
4.705964e+000 -1.411178e-001 -9.847988e+000 37 6 31
4.780411e+000 -1.245353e-001 -9.892211e+000 52 12 23
2.655752e+000 -3.259549e-001 -9.104530e+000 147 22 28
2.935636e+000 -3.440833e-001 -9.205639e+000 179 70 67
3.600459e+000 -3.793141e-001 -9.531942e+000 192 132 73
4.687969e+000 -2.313184e-001 -9.951330e+000 48 12 5
-9.081249e-001 -5.782377e-001 -7.828608e+000 1 71 94
-5.900202e-001 -6.143345e-001 -7.963488e+000 42 85 86
2.893123e+000 -5.130572e-001 -9.320866e+000 188 77 76
3.921598e+000 -5.126178e-001 -9.774880e+000 181 99 57
4.607371e+000 -4.418718e-001 -1.011621e+001 169 128 111
2.221085e-001 -6.965169e-001 -8.372706e+000 163 143 106
3.610716e+000 -5.893096e-001 -9.729253e+000 188 85 46
3.879873e+000 -5.213817e-001 -9.814441e+000 182 98 60
3.837589e+000 -6.223332e-001 -9.881775e+000 160 114 81
4.571194e+000 -4.954756e-001 -1.016521e+001 158 123 102
-9.998761e-001 -5.643983e-001 -8.104239e+000 171 27 32
-7.978665e-001 -7.796933e-001 -8.053958e+000 25 69 65
-7.978665e-001 -7.796933e-001 -8.053958e+000 25 69 65
1.961918e-001 -7.608044e-001 -8.451832e+000 159 145 106
3.542049e-001 -7.426004e-001 -8.481371e+000 135 68 65
3.542049e-001 -7.426004e-001 -8.481371e+000 135 68 65
3.359482e-001 -7.507522e-001 -8.516586e+000 150 136 109
3.661306e+000 -6.584298e-001 -9.853366e+000 175 129 96
3.511045e+000 -6.861419e-001 -9.835715e+000 179 136 101
4.521220e+000 -6.548913e-001 -1.033040e+001 158 126 104
1.874524e+000 -8.541788e-001 -9.287961e+000 115 68 60
3.598748e+000 -8.138268e-001 -1.000892e+001 168 124 90
-1.177819e+000 -9.215603e-001 -8.105037e+000 192 147 108
-1.057973e+000 -9.151812e-001 -8.056616e+000 172 27 36
6.961871e-001 -8.911915e-001 -8.878605e+000 25 70 100
1.964464e+000 -9.061337e-001 -9.396695e+000 97 60 45
1.964464e+000 -9.061337e-001 -9.396695e+000 97 60 45
2.446143e+000 -9.291915e-001 -9.667157e+000 153 14 35
2.532904e+000 -8.942044e-001 -9.627904e+000 146 16 29
2.811230e+000 -8.739089e-001 -9.774895e+000 150 25 33
3.394214e+000 -9.358401e-001 -1.008963e+001 172 128 98
4.354772e+000 -7.898169e-001 -1.043820e+001 94 75 64
4.513152e+000 -8.251764e-001 -1.045713e+001 92 31 24
-1.027773e+000 -1.006458e+000 -8.292606e+000 147 140 24
-1.995138e-001 -9.951337e-001 -8.581751e+000 163 150 42
9.056841e-001 -3.030498e-001 -9.969055e+000 27 76 112
9.056841e-001 -3.030498e-001 -9.969055e+000 27 76 112
1.603690e+000 -9.696373e-001 -9.330538e+000 119 68 70
2.015139e+000 -1.035380e+000 -9.602845e+000 112 69 62
2.015139e+000 -1.035380e+000 -9.602845e+000 112 69 62
2.704343e+000 -9.839702e-001 -9.830397e+000 147 30 31
3.844884e+000 -9.716153e-001 -1.037967e+001 188 154 124
-7.132098e-001 -1.064748e+000 -8.510952e+000 156 152 32
-3.145488e-001 -1.041404e+000 -8.640499e+000 157 151 21
1.430092e+000 -1.093464e+000 -9.453694e+000 116 65 59
2.612127e+000 -1.072951e+000 -9.974522e+000 156 22 37
2.611789e+000 -1.073301e+000 -9.973851e+000 156 22 37
4.320410e+000 -1.166695e+000 -1.067832e+001 74 9 23
1.517500e+000 -1.157211e+000 -9.806334e+000 164 26 37
1.475493e+000 -1.193922e+000 -9.786696e+000 172 35 50
1.690930e+000 -1.173083e+000 -9.854235e+000 174 34 47
3.927437e+000 4.780360e-002 -9.333510e+000 210 109 48
4.347209e+000 2.357205e-001 -9.485676e+000 77 46 26
2.086110e+000 -1.234379e-001 -8.710465e+000 117 74 62
2.664869e+000 -6.820734e-002 -8.914719e+000 163 39 47
3.363175e+000 -2.102699e-001 -9.281898e+000 106 49 28
3.781611e+000 -2.503149e-001 -9.497498e+000 185 117 46
4.107822e+000 -2.218515e-001 -9.591606e+000 214 131 65
4.107822e+000 -2.218515e-001 -9.591606e+000 214 131 65
-4.823098e-001 -4.456475e-001 -7.891143e+000 49 87 80
-9.659879e-001 -6.066646e-001 -7.833717e+000 175 26 30
-8.352929e-002 -6.144752e-001 -8.164176e+000 165 156 13
-8.352929e-002 -6.144752e-001 -8.164176e+000 165 156 13
-6.810496e-001 -1.863534e+000 -6.709005e+000 43 84 89
-6.810496e-001 -1.863534e+000 -6.709005e+000 43 84 89
2.310395e+000 -6.320823e-001 -9.205967e+000 96 45 34
2.547506e+000 -5.750001e-001 -9.237663e+000 202 81 86
3.000105e+000 -5.597330e-001 -9.411970e+000 147 8 28
3.234832e+000 -6.226703e-001 -9.595771e+000 122 69 64
4.564611e+000 -5.392738e-001 -1.022249e+001 169 140 124
-1.593018e+000 -7.368483e-001 -7.715023e+000 26 99 124
2.393267e-001 -7.360952e-001 -8.419729e+000 154 144 117
6.523785e-001 -7.513200e-001 -8.625464e+000 153 25 35
-7.208818e-001 -8.133818e-001 -8.110515e+000 21 45 24
2.380432e-001 -8.326959e-001 -8.559644e+000 146 141 117
4.433195e+000 -7.778456e-001 -1.029856e+001 158 128 107
-6.805102e-001 -8.839452e-001 -8.276920e+000 153 139 22
-6.805102e-001 -8.839452e-001 -8.276920e+000 153 139 22
-4.347223e-001 -9.069837e-001 -8.392998e+000 163 149 20
1.990163e+000 -9.548456e-001 -9.476440e+000 184 114 82
2.988492e+000 -9.162278e-001 -9.863787e+000 137 78 74
3.900739e+000 -8.427931e-001 -1.021599e+001 187 152 118
-1.145625e+000 -9.655734e-001 -8.170616e+000 177 36 45
1.454039e+000 -1.047802e+000 -9.376368e+000 99 49 35
1.454120e+000 -1.047833e+000 -9.376377e+000 99 49 35
2.568231e+000 -1.008369e+000 -9.854182e+000 146 16 28
1.827027e+000 -1.061808e+000 -9.703745e+000 188 125 113
2.618400e+000 -1.062063e+000 -9.911788e+000 153 22 38
2.258305e+000 -1.179872e+000 -9.919890e+000 175 131 100
4.415721e+000 -1.153860e+000 -1.106496e+001 190 162 112
-1.887213e+000 -1.306490e+000 -8.472712e+000 161 155 152
2.006753e+000 -1.652938e-001 -8.689440e+000 183 121 81
2.338095e+000 -1.794073e-001 -8.789889e+000 185 123 82
1.886950e+000 -2.213757e-001 -8.673186e+000 188 128 73
1.883428e+000 -2.273348e-001 -8.666687e+000 188 128 73
-1.016034e+000 -6.112219e-001 -7.822037e+000 170 28 32
-1.019982e+000 -6.214770e-001 -7.811234e+000 170 28 32
-2.183084e+000 -5.356518e-001 -7.527644e+000 188 156 117
3.669159e+000 -1.834645e-001 -1.015766e+001 189 117 89
1.888431e+000 -6.815134e-001 -9.080333e+000 182 111 84
7.751144e-001 -8.166454e-001 -8.763875e+000 15 49 74
1.909359e+000 -8.996591e-001 -9.342256e+000 177 114 82
1.909359e+000 -8.996591e-001 -9.342256e+000 177 114 82
2.019020e+000 -9.067704e-001 -9.422281e+000 182 113 90
2.019340e+000 -9.072313e-001 -9.422140e+000 182 113 90
1.311362e+000 -9.939620e-001 -9.278101e+000 186 116 95
1.856858e+000 -1.001605e+000 -9.500786e+000 179 118 95
1.254455e+000 -1.099912e+000 -9.411505e+000 179 117 96
1.255542e+000 -1.097716e+000 -9.413767e+000 179 117 96
2.093081e+000 -1.008595e+000 -9.796735e+000 182 121 102
4.977021e+000 1.021097e-001 -9.673153e+000 29 24 33
4.728567e+000 -8.900063e-002 -9.821485e+000 159 82 33
4.721068e+000 -9.075819e-002 -9.816911e+000 159 82 33
1.432369e+000 -7.140297e-001 -8.932545e+000 179 113 86
2.308935e+000 -8.989889e-001 -9.545183e+000 182 115 89
2.384080e+000 -8.803386e-001 -9.587991e+000 158 25 38
1.900133e+000 -1.163932e+000 -9.821548e+000 154 32 44
4.457701e+000 -4.609814e-001 -1.004380e+001 93 67 68
4.399881e+000 -9.091914e-001 -1.054614e+001 125 99 77
1.822240e+000 -1.114223e+000 -9.746850e+000 186 121 104
1.577728e+000 -1.198897e+000 -9.773165e+000 181 99 81
-1.222731e-001 -5.204039e-002 -7.696229e+000 150 143 115
3.881129e+000 -1.481289e-001 -9.398376e+000 160 62 34
4.104795e+000 -3.853890e-001 -9.757558e+000 193 152 119
-1.557403e+000 -5.972038e-001 -7.723263e+000 28 87 117
-1.587023e+000 -7.277708e-001 -7.779971e+000 19 87 111
-9.402570e-001 -1.061673e+000 -8.385381e+000 118 121 103
1.331938e+000 -1.149309e+000 -9.533817e+000 188 122 105
1.453979e+000 -1.140230e+000 -9.586579e+000 194 127 112
3.432676e+000 -3.822042e-001 -9.488868e+000 180 123 81
-4.717542e-001 -7.460830e-001 -8.262741e+000 78 106 107
2.014786e+000 -8.014801e-001 -9.269398e+000 178 111 84
1.584131e+000 -1.109083e+000 -1.013968e+001 189 93 94
7.782835e-002 -6.501674e-001 -8.301414e+000 152 144 116
2.260075e+000 -7.957025e-001 -9.451277e+000 189 119 86
1.012752e+000 -1.103210e-001 -8.402464e+000 147 160 142
9.973916e-001 -1.553748e-001 -8.348077e+000 147 160 142
2.204786e+000 3.282396e-001 -8.956687e+000 187 123 85
3.587160e+000 -9.416875e-001 -1.047724e+001 173 130 98
1.484316e+000 -1.268845e+000 -8.766177e+000 134 68 41
-2.216135e+001 2.572719e+001 -4.569112e+001 75 60 53
1.615315e+000 1.940329e-001 -8.343570e+000 191 144 98
-3.393256e-001 -3.114828e-001 -7.835052e+000 137 143 21
-3.562951e-001 -3.514556e-001 -7.880448e+000 19 41 23
3.723743e+000 -2.808672e-001 -9.490473e+000 124 55 6
-5.124030e-001 -4.070469e-001 -7.826858e+000 155 154 29
7.231239e-001 -4.511782e-001 -8.389193e+000 191 160 121
2.598004e+000 -3.418523e-001 -9.064921e+000 193 83 78
-1.177157e-001 -4.937251e-001 -8.096637e+000 102 126 119
-1.595624e+000 -7.106707e-001 -7.727445e+000 20 91 138
2.240801e-001 -8.834293e-001 -8.239818e+000 155 169 143
2.754284e-001 -8.000137e-001 -8.538789e+000 169 157 145
-6.495268e-001 -8.935031e-001 -8.265090e+000 155 154 27
-5.351853e-001 -9.521223e-001 -8.403726e+000 159 161 30
-2.895208e-001 -8.904734e-001 -8.424226e+000 21 55 20
-1.180100e+000 -9.769442e-001 -8.176862e+000 196 150 113
-1.064432e+000 -1.042670e+000 -8.318490e+000 173 171 53
-5.644765e-001 -1.017811e+000 -8.487716e+000 170 160 46
-3.194334e-001 -1.047532e+000 -8.628987e+000 170 172 51
-5.442226e-001 -1.074422e+000 -8.569407e+000 166 165 43
2.953004e+000 -2.791262e-001 -9.164321e+000 202 92 85
2.950792e+000 -2.807337e-001 -9.161496e+000 202 92 85
3.893093e+000 -4.131343e-001 -9.675285e+000 184 85 43
-2.315850e+000 -1.491110e-001 -7.986098e+000 177 150 121
-1.458280e-001 -6.845992e-001 -8.195935e+000 165 155 21
2.665205e+000 -6.709395e-001 -9.370116e+000 205 93 85
2.793298e+000 -7.922841e-001 -9.610642e+000 201 84 81
2.229043e+000 -1.013053e+000 -9.624366e+000 137 87 76
-1.220859e+001 4.086302e+001 -4.632302e+001 100 86 83
-1.102922e+000 -7.023627e-001 -7.856612e+000 182 29 41
-1.102922e+000 -7.023627e-001 -7.856612e+000 182 29 41
1.366808e+000 -9.957911e-001 -9.262282e+000 126 77 73
1.367563e+000 -9.945005e-001 -9.263717e+000 126 77 73
2.198345e+000 -9.833649e-001 -9.607905e+000 199 134 112
3.655883e+000 -9.444817e-001 -1.020148e+001 141 106 87
2.796583e+000 -1.046041e+000 -9.949342e+000 159 21 34
-1.144382e+000 -1.079472e+000 -8.324272e+000 195 39 40
1.320401e+000 -9.099091e-002 -8.376727e+000 91 47 43
-1.166077e+001 4.330942e+001 -4.310958e+001 109 94 90
-1.251800e+001 4.118427e+001 -4.530874e+001 112 92 89
1.787418e-001 -1.581786e-001 -7.965173e+000 163 153 128
-1.970297e+001 2.603279e+001 -4.425220e+001 119 100 85
7.951042e-002 -1.288578e-001 -7.875480e+000 167 152 116
-1.287562e-001 -1.988088e-001 -7.857273e+000 26 48 23
7.872768e-001 -1.376348e-001 -8.185744e+000 195 141 101
1.786800e+000 2.492503e+000 -1.102454e+001 144 23 21
4.311462e+000 -6.614137e-002 -9.570902e+000 183 151 122
-2.337834e-001 -3.449647e-001 -7.889582e+000 150 143 33
7.725352e-001 -2.984990e-001 -8.290789e+000 146 13 29
7.888279e-001 -3.147511e-001 -8.308236e+000 195 133 105
3.723748e+000 -2.588466e-001 -9.460560e+000 128 60 26
3.723748e+000 -2.588466e-001 -9.460560e+000 128 60 26
4.250393e+000 -1.469926e-001 -9.608042e+000 55 22 15
-5.103762e-001 -4.450486e-001 -7.878559e+000 153 142 33
7.258502e-001 -4.257496e-001 -8.359276e+000 194 150 104
3.572369e+000 -3.610236e-001 -9.504793e+000 122 52 7
3.782198e+000 -3.026239e-001 -9.569065e+000 184 66 47
3.725313e+000 -4.014161e-001 -9.581394e+000 168 61 39
4.540445e+000 -2.345962e-001 -9.836700e+000 168 101 55
4.758709e+000 -2.146420e-001 -9.992036e+000 40 2 4
-5.624354e-001 -6.147177e-001 -7.975048e+000 148 137 12
2.296310e-001 -5.410584e-001 -8.233042e+000 117 30 22
2.296310e-001 -5.410584e-001 -8.233042e+000 117 30 22
7.093664e-001 -5.898708e-001 -8.471180e+000 137 10 4
3.625103e+000 -4.098829e-001 -9.557414e+000 106 24 18
-1.586431e+000 -6.797984e-001 -7.695106e+000 30 76 117
-9.957719e-001 -6.384324e-001 -7.841495e+000 205 135 95
-9.956905e-001 -6.445269e-001 -7.835969e+000 205 135 95
-6.811475e-001 8.197102e-002 -8.673417e+000 20 43 16
-8.217576e-001 -7.266238e-001 -7.947261e+000 21 46 29
2.162695e-001 -6.360813e-001 -8.317436e+000 130 20 19
2.949990e-001 -6.192383e-001 -8.329710e+000 157 146 119
7.053101e-001 -6.729547e-001 -8.546178e+000 191 140 108
7.048714e-001 -6.738954e-001 -8.545072e+000 191 140 108
6.969903e-001 -7.024426e-001 -8.579623e+000 189 146 101
2.513753e+000 -6.662219e-001 -9.310617e+000 185 64 71
2.587548e+000 -6.041163e-001 -9.320124e+000 143 19 22
2.879335e+000 -5.753351e-001 -9.382337e+000 186 68 72
3.041213e+000 -5.644579e-001 -9.452768e+000 195 123 83
3.631874e+000 -6.111531e-001 -9.754851e+000 117 44 18
3.686836e+000 -6.050911e-001 -9.817080e+000 161 116 83
4.031022e+000 -5.379789e-001 -9.897113e+000 184 155 127
4.484138e+000 -4.835882e-001 -1.007787e+001 41 13 11
-1.479137e+000 -7.187129e-001 -7.751189e+000 26 84 108
-1.187043e+000 -7.222641e-001 -7.848041e+000 187 137 99
-1.187043e+000 -7.222641e-001 -7.848041e+000 187 137 99
-1.140913e+000 -7.445335e-001 -7.901055e+000 187 145 105
-1.059845e+000 -7.266537e-001 -7.890076e+000 194 143 97
-5.116931e-001 -7.639717e-001 -8.099352e+000 160 149 34
-3.346988e-001 -7.497764e-001 -8.196619e+000 156 146 19
2.857605e-001 -7.121147e-001 -8.418159e+000 114 15 19
2.857605e-001 -7.121147e-001 -8.418159e+000 114 15 19
6.848948e-001 -7.284771e-001 -8.610168e+000 183 144 107
1.257392e+000 -7.510754e-001 -8.884643e+000 169 113 98
2.888467e+000 -6.662172e-001 -9.508446e+000 146 16 28
2.923043e+000 -6.591689e-001 -9.507903e+000 185 66 64
3.621728e+000 -7.030754e-001 -9.864356e+000 173 129 93
3.877604e+000 -6.612891e-001 -9.940682e+000 166 123 90
-1.143238e+000 -7.979432e-001 -7.959013e+000 162 33 31
-1.193942e+000 -8.694619e-001 -8.029099e+000 186 147 108
-1.078892e+000 -8.735261e-001 -8.073981e+000 194 125 92
-1.079099e+000 -8.759027e-001 -8.071661e+000 194 125 92
-6.830757e-001 -8.006797e-001 -8.270213e+000 156 144 52
-3.679992e-001 -8.304094e-001 -8.315295e+000 152 148 25
1.861837e-001 -8.367031e-001 -8.536034e+000 159 128 110
1.873850e-001 -8.328080e-001 -8.540867e+000 159 128 110
2.474451e-001 -8.011139e-001 -8.531486e+000 102 18 20
2.474451e-001 -8.011139e-001 -8.531486e+000 102 18 20
1.766119e-001 -8.669014e-001 -8.568214e+000 150 140 115
6.558648e-001 -8.004438e-001 -8.694918e+000 200 140 111
5.894443e-001 -8.776113e-001 -8.775720e+000 194 149 103
5.894443e-001 -8.776113e-001 -8.775720e+000 194 149 103
6.217694e-001 -8.779071e-001 -8.786493e+000 173 149 92
2.480972e+000 -8.399619e-001 -9.528217e+000 151 16 36
3.165813e+000 -8.231142e-001 -9.822110e+000 76 24 26
3.163536e+000 -8.254814e-001 -9.818804e+000 76 24 26
3.533837e+000 -7.804561e-001 -9.898915e+000 170 125 91
3.556774e+000 -7.568796e-001 -9.930868e+000 170 125 91
3.592391e+000 -8.314059e-001 -1.005597e+001 164 126 93
3.721758e+000 -8.536638e-001 -1.008021e+001 168 127 96
-1.129615e+000 -8.937922e-001 -8.085342e+000 191 133 103
-1.104184e+000 -8.904500e-001 -8.075065e+000 162 22 25
-1.118573e+000 -9.133989e-001 -8.135510e+000 171 30 39
-8.206926e-001 -8.915663e-001 -8.193538e+000 155 147 26
-8.909340e-001 -9.597169e-001 -8.261969e+000 75 93 70
5.976357e-001 -8.946092e-001 -8.798886e+000 146 10 22
5.975851e-001 -8.951157e-001 -8.798276e+000 146 10 22
1.504989e+000 -9.201097e-001 -9.219162e+000 172 115 90
2.569393e+000 -9.092775e-001 -9.664427e+000 175 61 54
2.484047e+000 -9.413092e-001 -9.687577e+000 184 71 71
2.760902e+000 -8.774218e-001 -9.720413e+000 180 60 67
2.776467e+000 -9.258116e-001 -9.794454e+000 142 15 25
3.729977e+000 -9.216828e-001 -1.026156e+001 166 126 100
3.900201e+000 -9.240208e-001 -1.030596e+001 41 23 35
4.423305e+000 -8.864384e-001 -1.055998e+001 159 134 115
5.823318e-001 -9.704758e-001 -8.895496e+000 192 142 113
5.517546e-001 -1.030897e+000 -8.962631e+000 188 147 104
1.570544e+000 -1.015159e+000 -9.383953e+000 180 119 93
1.909050e+000 -1.012109e+000 -9.526497e+000 188 121 94
1.909050e+000 -1.012109e+000 -9.526497e+000 188 121 94
4.406323e+000 -1.022069e+000 -1.070946e+001 169 131 105
-1.078527e+000 -1.066377e+000 -8.352828e+000 147 137 41
-1.092820e+000 -1.073830e+000 -8.416569e+000 142 143 35
5.060181e-001 -1.054715e+000 -8.986728e+000 180 153 114
1.627779e+000 -1.116490e+000 -9.587724e+000 181 124 98
2.521000e+000 -1.079866e+000 -9.953521e+000 142 15 27
3.828953e+000 -1.060784e+000 -1.048752e+001 38 17 17
4.288092e+000 -1.036666e+000 -1.067573e+001 31 11 4
1.130376e+000 -1.170297e+000 -9.551678e+000 180 52 56
1.349634e+000 -1.178218e+000 -9.626734e+000 166 47 49
3.327655e+000 -1.150392e+000 -1.064574e+001 151 85 61
4.886388e+000 2.092551e-001 -9.624607e+000 56 17 19
4.886388e+000 2.092551e-001 -9.624607e+000 56 17 19
2.710169e+000 -1.984211e-002 -8.894949e+000 147 15 25
2.710169e+000 -1.984211e-002 -8.894949e+000 147 15 25
4.276952e+000 6.950776e-002 -9.463506e+000 72 38 27
2.753504e+000 -1.775274e-001 -9.004471e+000 154 26 30
2.753504e+000 -1.775274e-001 -9.004471e+000 154 26 30
2.966516e+000 -1.730891e-001 -9.082576e+000 172 54 46
4.728961e+000 2.741084e-002 -9.734762e+000 182 101 43
4.840943e+000 3.072639e-002 -9.761723e+000 45 15 13
4.809336e+000 -3.961403e-002 -9.814887e+000 46 14 12
2.730260e+000 -2.436737e-001 -9.027929e+000 151 21 29
2.746504e+000 -2.821946e-001 -9.119525e+000 150 20 28
3.801016e+000 -1.813402e-001 -9.452088e+000 177 104 43
4.788157e+000 -1.701623e-001 -9.860270e+000 138 72 38
-5.665400e-001 -4.292330e-001 -7.847758e+000 27 45 16
-5.665400e-001 -4.292330e-001 -7.847758e+000 27 45 16
4.134876e+000 -3.368029e-001 -9.728376e+000 202 134 82
4.791967e+000 -2.729362e-001 -9.965937e+000 28 12 23
3.782431e+000 -4.978698e-001 -9.707008e+000 182 72 39
-1.098922e+000 -6.620705e-001 -7.817719e+000 174 24 26
-1.098922e+000 -6.620705e-001 -7.817719e+000 174 24 26
-8.344565e-001 -5.736059e-001 -8.064955e+000 158 146 18
-3.067509e-001 -6.937940e-001 -8.145125e+000 155 139 21
-3.067509e-001 -6.937940e-001 -8.145125e+000 155 139 21
-1.187307e-001 -7.037393e-001 -8.213146e+000 21 44 35
1.203043e+000 -6.484886e-001 -8.722194e+000 137 83 71
1.156092e+000 -6.916427e-001 -8.761563e+000 173 110 88
1.296855e+000 -6.544460e-001 -8.773724e+000 68 24 18
2.666524e+000 -6.736335e-001 -9.378882e+000 182 65 66
2.906636e+000 -5.567707e-001 -9.373661e+000 158 5 36
2.906500e+000 -5.940885e-001 -9.416161e+000 141 17 30
3.753101e+000 -7.031321e-001 -9.760927e+000 160 114 81
1.934832e-001 -7.115057e-001 -8.382099e+000 105 16 18
1.954005e-001 -7.623879e-001 -8.449365e+000 159 145 106
1.927061e+000 -6.920128e-001 -9.081467e+000 181 115 91
1.928359e+000 -6.916225e-001 -9.082103e+000 181 115 91
2.596421e+000 -7.349234e-001 -9.404555e+000 153 25 35
3.346905e+000 -6.740057e-001 -9.706234e+000 162 73 42
4.731497e+000 -5.466550e-001 -1.044043e+001 137 83 61
-1.199880e+000 -7.765327e-001 -7.986128e+000 170 31 38
-3.356515e-001 -8.212430e-001 -8.279687e+000 154 145 28
2.761661e+000 -8.367975e-001 -9.655347e+000 195 71 79
3.176317e+000 -7.931762e-001 -9.786710e+000 103 55 40
3.664306e+000 -8.383649e-001 -1.007809e+001 169 128 96
-1.200427e+000 -8.891032e-001 -8.065582e+000 184 151 96
-1.125288e+000 -9.362992e-001 -8.138676e+000 173 25 33
1.856608e+000 -9.016274e-001 -9.337537e+000 108 60 55
1.856608e+000 -9.016274e-001 -9.337537e+000 108 60 55
2.522953e+000 -9.591838e-001 -9.699329e+000 152 15 34
2.809084e+000 -9.391743e-001 -9.800224e+000 181 65 66
3.068267e+000 -9.158930e-001 -9.924620e+000 184 116 90
3.700857e+000 -8.619718e-001 -1.014213e+001 71 33 14
3.700857e+000 -8.619718e-001 -1.014213e+001 71 33 14
4.421802e+000 -8.027099e-001 -1.045727e+001 160 131 113
-1.140762e+000 -1.004614e+000 -8.224495e+000 181 148 101
-1.072663e+000 -1.023774e+000 -8.291711e+000 77 98 93
-4.491884e-001 -9.910940e-001 -8.499510e+000 153 141 39
-4.491884e-001 -9.910940e-001 -8.499510e+000 153 141 39
1.364803e+000 -1.005622e+000 -9.274328e+000 129 75 75
1.489338e+000 -9.720113e-001 -9.282985e+000 102 54 50
1.679391e+000 -1.038775e+000 -9.466275e+000 108 57 35
1.682552e+000 -1.033972e+000 -9.472866e+000 108 57 35
2.424650e+000 -9.761788e-001 -9.737550e+000 153 17 38
2.588284e+000 -1.011950e+000 -9.815736e+000 196 78 87
2.722094e+000 -1.041971e+000 -9.929709e+000 161 25 45
2.955498e+000 -1.007209e+000 -9.989316e+000 59 17 28
2.213358e+000 -1.109912e+000 -9.794782e+000 183 116 99
2.365383e+000 -1.082085e+000 -9.863101e+000 151 28 38
4.495634e+000 1.132675e-001 -9.535533e+000 190 160 129
2.310071e+000 -1.217380e-001 -8.787465e+000 90 39 23
4.705278e+000 -6.610206e-002 -9.794555e+000 184 92 32
2.047885e+000 -2.325422e-001 -8.751524e+000 114 76 53
2.643337e+000 -1.918961e-001 -8.979009e+000 154 40 39
4.564626e+000 -1.163281e-001 -9.734201e+000 149 73 19
-4.804441e-001 -4.473104e-001 -7.890279e+000 49 87 80
-2.679435e-001 -4.123873e-001 -7.957415e+000 169 150 37
4.448912e+000 -2.873666e-001 -9.830120e+000 171 90 33
4.735933e+000 -3.541470e-001 -1.008696e+001 132 58 32
2.304508e+000 -6.393648e-001 -9.195500e+000 96 45 34
2.361461e+000 -6.297178e-001 -9.212591e+000 187 120 95
-2.529835e+000 5.260991e-001 -8.790185e+000 180 150 115
-1.104496e+000 -7.660931e-001 -7.929046e+000 168 27 31
-1.104496e+000 -7.660931e-001 -7.929046e+000 168 27 31
-6.577886e-001 -8.045652e-001 -8.130313e+000 56 97 87
2.835311e-001 -7.859705e-001 -8.519728e+000 156 140 114
1.148323e+000 -7.660271e-001 -8.846164e+000 100 47 39
2.256546e+000 -7.209277e-001 -9.279406e+000 124 82 70
4.569153e+000 -6.046449e-001 -1.019923e+001 102 35 19
-7.810511e-001 -8.476077e-001 -8.155008e+000 157 149 21
-3.710669e-001 -8.022845e-001 -8.277237e+000 156 141 34
2.368126e-001 -8.353812e-001 -8.557308e+000 146 141 117
2.795687e+000 -7.722366e-001 -9.573107e+000 170 55 60
2.791741e+000 -8.654046e-001 -9.683361e+000 151 23 30
3.936697e+000 -7.550409e-001 -1.011372e+001 188 155 122
3.913695e+000 -8.046853e-001 -1.017182e+001 192 154 117
-1.222494e+000 -8.799682e-001 -8.044091e+000 172 31 38
3.407819e+000 -8.713384e-001 -9.978694e+000 171 129 92
-1.147017e+000 -9.670957e-001 -8.169571e+000 177 36 45
-2.423848e-001 -9.879549e-001 -8.569962e+000 159 142 28
-2.417003e-001 -9.847876e-001 -8.573100e+000 159 142 28
2.074320e+000 -1.029234e+000 -9.530905e+000 186 123 92
-6.042079e-001 -1.069000e+000 -8.543636e+000 163 151 36
5.848638e-001 -1.129544e+000 -9.190835e+000 13 74 108
3.532905e+000 -1.168602e+000 -1.058890e+001 186 141 103
1.043805e+000 -1.202672e+000 -9.666120e+000 183 60 68
1.519475e+000 -1.440940e-001 -8.486355e+000 106 57 42
1.552910e+000 -2.182004e-001 -8.551047e+000 182 114 83
1.552910e+000 -2.182004e-001 -8.551047e+000 182 114 83
1.786737e+000 -2.086500e-001 -8.638133e+000 190 120 86
1.786737e+000 -2.086500e-001 -8.638133e+000 190 120 86
2.238108e+000 -1.544103e-001 -8.775274e+000 183 125 85
2.238698e+000 -1.840540e-001 -8.821018e+000 184 129 94
1.601523e+000 -2.385227e-001 -8.586243e+000 165 107 85
1.601523e+000 -2.385227e-001 -8.586243e+000 165 107 85
-1.512241e-001 -4.059656e-001 -8.007053e+000 161 145 13
8.816167e-001 -4.678486e-001 -8.450647e+000 16 43 70
3.250741e+000 -3.961945e-001 -9.384707e+000 191 132 90
1.258627e+000 -6.304300e-001 -8.757375e+000 184 119 90
2.054714e+000 -6.666603e-001 -9.089852e+000 140 87 81
2.054714e+000 -6.666603e-001 -9.089852e+000 140 87 81
-3.061315e-001 -7.449921e-001 -8.216795e+000 159 153 30
2.651436e-001 -8.640204e-001 -8.621881e+000 139 138 117
6.648637e-001 -8.778317e-001 -8.830406e+000 111 10 26
2.465209e+000 -8.842509e-001 -9.610134e+000 154 26 35
2.618539e+000 -9.129866e-001 -9.718930e+000 149 15 30
1.829985e+000 -1.066523e+000 -9.618645e+000 178 115 98
4.358418e+000 1.760920e-001 -9.420654e+000 156 122 92
2.504371e+000 -2.568706e-001 -8.948625e+000 187 122 82
4.709621e+000 -1.811478e-001 -9.910843e+000 159 87 29
3.118125e+000 -4.402454e-001 -9.416557e+000 192 126 81
-4.936006e-001 -7.702049e-001 -8.158656e+000 60 104 105
2.678708e-001 -7.411182e-001 -8.455130e+000 156 138 117
