ply
format ascii 1.0
element face 0
property list uchar int vertex_indices
element vertex 684
property float x
property float y
property float z
property uchar diffuse_red
property uchar diffuse_green
property uchar diffuse_blue
end_header
3.974044e-001 -1.064733e+000 -9.090376e+000 160 41 54
-2.778033e-001 -9.246043e-001 -8.557022e+000 155 152 136
-7.492067e-001 -1.059708e+000 -8.595185e+000 27 56 41
-2.165793e-001 -8.509664e-001 -8.506025e+000 31 60 43
-2.392612e-001 -6.732041e-001 -8.259598e+000 159 170 103
4.874949e-001 -8.787569e-001 -8.837444e+000 166 45 48
-2.165793e-001 -8.509664e-001 -8.506025e+000 31 60 43
5.932844e-001 -6.368201e-001 -8.527377e+000 165 34 44
1.023567e+000 -1.021325e+000 -9.241938e+000 144 86 82
-5.997539e-001 -4.153454e-001 -7.918603e+000 137 145 66
-3.945675e-001 -2.862661e-001 -7.868071e+000 159 162 24
-2.715760e-002 -1.627410e-001 -7.929019e+000 29 57 34
-5.656229e-002 -3.186530e-001 -8.028358e+000 22 56 37
-5.656229e-002 -3.186530e-001 -8.028358e+000 22 56 37
-6.733209e-001 -3.713964e-001 -7.835413e+000 29 60 41
-4.628197e-001 -4.758388e-001 -7.992296e+000 147 144 43
2.510397e+000 -8.713735e-002 -8.901730e+000 193 141 109
-1.013789e+000 -4.906366e-001 -7.777804e+000 23 50 23
3.695138e+000 -1.037283e-001 -9.239458e+000 134 48 51
3.249194e+000 -5.253252e-001 -9.513029e+000 195 134 114
-7.382797e-001 -7.070913e-001 -8.137901e+000 30 67 35
-3.945675e-001 -2.862661e-001 -7.868071e+000 159 162 24
1.453054e+000 -8.663702e-002 -8.406671e+000 186 128 109
-3.821328e-001 -6.933118e-001 -8.209782e+000 125 139 68
-5.354413e-001 -3.375677e-001 -7.844337e+000 26 56 27
-5.354413e-001 -3.375677e-001 -7.844337e+000 26 56 27
3.372336e+000 3.953282e-002 -8.962852e+000 196 137 107
3.902593e+000 -1.149012e-001 -9.351212e+000 194 139 93
1.679237e+000 -1.324492e-001 -8.554782e+000 190 125 105
2.510397e+000 -8.713735e-002 -8.901730e+000 193 141 109
3.265230e+000 -1.872670e-001 -9.206965e+000 139 96 84
-7.252068e-001 -3.426513e-001 -7.754589e+000 135 136 74
7.406435e-001 -3.147865e-001 -8.312752e+000 174 114 81
3.223322e+000 -5.789430e-001 -9.550005e+000 188 126 107
-1.579451e-001 -4.588174e-001 -8.054835e+000 150 152 62
-1.579451e-001 -4.588174e-001 -8.054835e+000 150 152 62
1.075110e+000 -5.599582e-001 -8.647270e+000 17 56 92
-8.107659e-001 -1.045637e+000 -8.533250e+000 143 154 67
-6.692736e-001 -9.641968e-001 -8.462321e+000 114 137 124
-3.661330e-001 -9.768407e-001 -8.618703e+000 35 58 41
1.138494e+000 3.392499e-002 -8.158517e+000 17 85 134
4.909109e+000 2.655839e-001 -9.544285e+000 161 98 58
4.351957e+000 1.919364e-001 -9.395451e+000 90 65 61
3.975257e+000 5.237365e-002 -9.277500e+000 190 82 42
1.371315e+000 -3.211624e-002 -8.366373e+000 187 130 105
3.265230e+000 -1.872670e-001 -9.206965e+000 139 96 84
4.375825e+000 -5.427890e-002 -9.551376e+000 185 162 144
2.663627e+000 1.345517e-001 -8.747236e+000 169 33 48
1.008731e+000 -2.022059e-001 -8.331781e+000 14 59 83
3.362327e-001 -6.240429e-001 -8.394556e+000 131 88 79
-3.186892e-001 -6.324532e-001 -8.110458e+000 33 60 32
1.902094e-001 -6.659470e-001 -8.535269e+000 161 107 104
3.303302e+000 -7.035717e-002 -9.138070e+000 195 144 124
-5.896011e-002 -1.020017e-001 -7.894064e+000 147 156 129
4.505598e+000 3.473646e-001 -9.354442e+000 34 18 32
4.417737e+000 2.465152e-001 -9.382727e+000 184 159 142
1.391755e+000 -1.269844e-001 -8.418132e+000 114 59 63
-3.463489e-001 -4.093809e-001 -7.999730e+000 24 53 30
4.052985e+000 -6.379578e-001 -1.005282e+001 172 146 128
-4.927528e-001 -8.349702e-001 -8.354401e+000 28 55 40
3.090960e-001 -5.394129e-001 -8.288346e+000 173 156 133
1.483275e+000 -9.207903e-001 -9.239463e+000 140 80 70
-2.397309e-001 2.938485e-001 -7.637241e+000 160 158 137
4.944990e+000 1.431496e-001 -9.652556e+000 159 92 46
4.704226e+000 2.547882e-001 -9.414518e+000 183 100 52
2.942587e+000 1.301205e-001 -8.852355e+000 170 34 47
3.478864e+000 5.597870e-001 -8.981631e+000 22 20 44
4.416915e+000 3.264327e-001 -9.321283e+000 37 17 19
4.476168e+000 2.941522e-001 -9.368832e+000 186 159 138
4.434548e+000 1.390683e-001 -9.446974e+000 190 173 145
3.283435e+000 -1.377037e-001 -9.165483e+000 199 145 114
3.836401e+000 -1.832537e-001 -9.442522e+000 193 129 58
-3.751912e-001 -3.735004e-001 -7.926688e+000 174 163 47
1.348358e+000 -1.379372e-001 -8.442605e+000 187 128 110
4.794334e+000 -1.241386e-002 -9.760947e+000 174 106 40
1.438445e+000 -1.460674e-001 -8.428242e+000 197 132 112
-1.126356e-001 -9.964296e-001 -8.750097e+000 33 63 19
-1.126356e-001 -9.964296e-001 -8.750097e+000 33 63 19
1.023039e+000 -7.264322e-001 -8.853861e+000 18 65 112
1.622421e+000 6.220117e-001 -8.370704e+000 167 165 135
2.094598e+000 7.195127e-001 -8.570543e+000 164 91 90
2.555595e+000 -1.375902e-001 -8.862803e+000 186 129 102
4.077501e+000 -4.796465e-001 -9.833139e+000 188 153 126
3.968681e+000 -7.192516e-002 -9.370676e+000 104 37 11
-6.583899e-001 -5.431692e-001 -7.894600e+000 47 105 123
4.118273e+000 -3.918209e-001 -9.779041e+000 189 162 126
3.958423e+000 -7.900114e-001 -1.017258e+001 166 139 117
3.984811e+000 1.290420e-001 -9.260519e+000 209 121 71
6.450901e-001 -7.967833e-001 -8.690065e+000 130 32 68
-5.969853e-001 -8.792131e-001 -8.384543e+000 150 153 39
3.941371e+000 1.919471e-001 -9.246417e+000 186 92 29
8.722453e-001 7.780759e-003 -8.143801e+000 102 22 57
3.606976e+000 2.625993e-001 -8.993173e+000 101 23 37
2.053142e+000 7.714156e-001 -8.595673e+000 93 29 30
3.114532e+000 6.655065e-001 -8.906424e+000 65 32 41
3.382250e+000 7.660884e-001 -9.015153e+000 31 27 55
3.409182e+000 7.246685e-001 -9.045141e+000 35 30 51
1.701178e+000 6.220616e-001 -8.402717e+000 187 149 99
2.094598e+000 7.195127e-001 -8.570543e+000 164 91 90
2.851672e+000 6.557568e-001 -8.801769e+000 68 21 32
2.957272e+000 6.573313e-001 -8.872761e+000 82 35 41
2.770443e+000 4.642039e-001 -8.734810e+000 46 14 25
2.805373e+000 -1.924551e-001 -9.008106e+000 186 70 74
1.600165e-001 6.252236e-001 -7.829236e+000 36 59 48
2.064028e+000 6.469345e-001 -8.549570e+000 121 53 64
4.464468e+000 8.698568e-002 -9.451134e+000 33 17 31
1.812655e+000 -1.479994e-001 -8.652273e+000 195 134 99
-3.324033e-001 -3.723028e-001 -7.954012e+000 178 173 28
4.058178e+000 -5.656468e-001 -9.945336e+000 191 158 138
-7.852686e-001 -6.843487e-001 -8.053320e+000 152 158 40
-1.349831e-001 7.036862e-001 -7.775737e+000 167 151 91
3.317541e+000 8.390521e-001 -9.122746e+000 155 121 97
2.534572e+000 -1.828106e-001 -8.872496e+000 192 135 105
2.037744e-001 -7.109198e-001 -8.442150e+000 163 164 146
-3.114625e-001 -9.631478e-001 -8.615428e+000 160 160 43
-1.071856e+002 4.721251e+001 -2.924269e+002 81 66 54
7.101955e-001 -4.111381e-001 -8.357763e+000 200 140 104
4.475754e+000 -8.210200e-001 -1.047390e+001 132 112 103
4.769972e+000 -2.706051e+000 -1.029324e+001 136 120 122
-1.558144e+002 6.137966e+001 -3.097482e+002 88 78 66
-1.849752e+002 6.200586e+001 -3.410961e+002 71 60 62
-1.750860e+002 6.385548e+001 -4.219521e+002 89 40 29
-1.208606e+002 4.971631e+001 -3.409210e+002 55 55 70
2.626112e+000 7.053938e-001 -8.748030e+000 73 26 37
-1.200759e+002 6.282196e+001 -3.396785e+002 69 55 44
-1.510110e+002 5.997242e+001 -3.224480e+002 57 47 42
-1.421114e+002 5.977919e+001 -3.064480e+002 92 83 66
-1.189765e+002 4.960905e+001 -3.167842e+002 115 95 84
2.839873e+000 5.590162e-001 -8.749520e+000 152 107 55
3.707002e+000 6.176294e-001 -9.107301e+000 14 61 103
4.679063e+000 -2.792113e-001 -9.953073e+000 178 146 125
-1.679372e+002 6.182364e+001 -3.067475e+002 101 89 53
-1.462841e+002 6.251042e+001 -3.504565e+002 65 55 51
-1.222909e+002 5.941152e+001 -3.347591e+002 39 23 23
-1.849352e+002 6.301915e+001 -3.342714e+002 51 35 37
3.446616e+000 3.381820e-001 -8.956884e+000 68 18 27
-1.552759e+002 6.655105e+001 -3.478384e+002 139 112 69
-2.551872e-001 -1.596905e-003 -7.720285e+000 62 111 141
2.938918e-001 -5.503609e-001 -8.331953e+000 160 141 125
-1.248310e+000 1.299664e+000 -8.171562e+000 167 39 46
-1.189539e+000 1.306150e+000 -8.211401e+000 176 27 44
1.252353e+000 1.356202e+000 -8.974404e+000 196 93 85
2.241581e+000 9.949208e-001 -8.842375e+000 120 88 89
-8.436672e-001 6.418993e-001 -7.481029e+000 158 157 138
2.596816e+000 8.121107e-001 -8.806057e+000 164 126 113
3.383134e+000 8.417168e-001 -9.111338e+000 28 28 56
2.290490e+000 6.377494e-001 -8.602973e+000 84 32 36
2.946469e+000 3.968277e-001 -8.786604e+000 137 83 51
-1.296581e+000 1.070395e+000 -7.831942e+000 176 38 46
1.002112e+000 9.441296e-001 -8.353987e+000 181 46 41
1.618430e+000 1.200660e+000 -8.836398e+000 16 78 121
1.590741e+000 6.523545e-001 -8.359174e+000 69 41 59
2.483005e+000 6.458213e-001 -8.675760e+000 62 26 24
4.027167e+000 5.978531e-001 -9.178392e+000 138 51 67
3.993749e+000 9.808342e-003 -9.330110e+000 131 49 26
8.962005e-001 -1.240261e-001 -8.284765e+000 12 84 124
-6.400272e-001 -3.853060e-001 -7.846149e+000 22 50 39
-7.880599e-001 -6.228043e-001 -8.001042e+000 159 153 46
-7.205116e-001 -5.541934e-001 -7.926787e+000 40 58 26
5.290800e-001 7.840238e-001 -8.071564e+000 29 55 20
5.290800e-001 7.840238e-001 -8.071564e+000 29 55 20
7.727842e-001 8.261411e-001 -8.210016e+000 165 88 78
3.219333e+000 9.097405e-001 -9.110804e+000 76 46 59
-2.097750e+000 7.069329e-001 -7.683029e+000 195 171 145
5.119286e+000 4.766446e-001 -9.535302e+000 199 104 52
2.839148e+000 -9.910255e-002 -8.983376e+000 202 86 93
2.996405e+000 -2.679658e-001 -9.223949e+000 201 96 93
3.015001e+000 -3.809478e-001 -9.245342e+000 200 86 96
3.249194e+000 -5.253252e-001 -9.513029e+000 195 134 114
-6.490530e-001 -6.141445e-001 -7.977636e+000 44 108 125
-8.354968e-001 1.099008e+000 -8.051494e+000 163 153 112
-5.624434e-001 1.086525e+000 -8.112843e+000 168 152 97
-1.754708e-001 1.016211e+000 -8.089349e+000 32 61 33
9.508104e-001 1.024148e+000 -8.422021e+000 179 46 47
3.317541e+000 8.390521e-001 -9.122746e+000 155 121 97
3.302851e+000 -2.403283e-001 -9.237938e+000 194 143 116
3.247223e+000 -4.186832e-001 -9.352471e+000 196 141 110
2.021981e+000 -6.248569e-001 -9.088533e+000 189 131 117
2.037744e-001 -7.109198e-001 -8.442150e+000 163 164 146
3.007773e+000 -8.383177e-001 -9.857569e+000 194 128 113
-1.331973e+002 4.252149e+001 -2.425696e+002 67 53 53
-1.597832e+002 5.604373e+001 -3.527021e+002 158 108 87
-2.314995e+002 6.537795e+001 -4.187624e+002 108 62 46
-2.075024e+002 4.910916e+001 -3.617697e+002 145 112 97
-2.105419e+002 5.097017e+001 -3.751926e+002 134 102 90
-5.097369e+002 7.338696e+001 -9.337903e+002 75 44 41
-2.492222e+002 3.028344e+001 -4.608170e+002 65 44 59
2.557001e+000 9.876508e-001 -8.955267e+000 144 119 97
1.579755e+000 8.821401e-001 -8.600105e+000 21 78 107
2.969237e+000 8.941857e-001 -8.995905e+000 73 30 40
7.763674e-001 -9.585505e-002 -8.121249e+000 144 21 24
3.311555e+000 -1.542156e-001 -9.164139e+000 193 138 106
4.019138e+000 -2.984652e-001 -9.571979e+000 172 81 47
4.933570e+000 -2.181256e+000 -9.878094e+000 44 32 44
-2.296012e+002 6.158612e+001 -4.121367e+002 148 94 77
-2.296012e+002 6.158612e+001 -4.121367e+002 148 94 77
-2.287938e+002 6.313959e+001 -4.240635e+002 164 74 53
-2.568434e+002 6.435793e+001 -4.758992e+002 130 104 89
-2.037730e+002 4.022861e+001 -4.082901e+002 45 27 23
-2.073914e+002 4.380679e+001 -4.218237e+002 115 95 82
-3.486252e+002 6.570973e+001 -6.532977e+002 70 40 50
1.637036e-001 8.154000e-001 -7.947020e+000 30 57 36
-8.501295e-001 5.700687e-001 -7.411998e+000 48 99 123
5.537726e-002 -1.274944e-001 -7.929638e+000 163 164 144
-7.996386e-001 -6.548362e-001 -8.023343e+000 90 118 87
-1.957717e+002 6.356888e+001 -4.232443e+002 100 42 31
-1.884828e+002 5.877335e+001 -3.908649e+002 51 31 30
-2.071491e+002 5.953189e+001 -4.278968e+002 132 113 110
-1.882997e+002 6.022668e+001 -4.447422e+002 132 90 82
-3.200548e+002 7.224982e+001 -5.894597e+002 131 101 87
-2.962388e+002 5.851584e+001 -6.109886e+002 61 41 32
-1.972348e+002 4.335066e+001 -4.154451e+002 66 47 30
-2.438313e+002 4.672628e+001 -5.614331e+002 163 103 69
-3.335875e+002 4.718020e+001 -7.510724e+002 93 70 78
-3.335875e+002 4.718020e+001 -7.510724e+002 93 70 78
1.907790e+000 7.294276e-001 -8.563280e+000 181 143 96
1.555605e+000 5.839881e-001 -8.325333e+000 167 161 134
-1.471165e-001 -6.518943e-001 -8.223770e+000 39 62 47
-1.609479e+002 5.732909e+001 -3.112577e+002 140 127 118
-1.590075e+002 6.001737e+001 -3.668985e+002 176 121 84
-2.273524e+002 6.710713e+001 -4.569501e+002 28 17 30
-3.138887e+002 5.668191e+001 -6.629529e+002 157 58 65
-2.306875e-001 6.390317e-001 -7.689818e+000 31 58 40
3.501852e+000 -3.203688e-001 -9.478693e+000 193 143 108
-2.229652e+002 6.906829e+001 -3.982745e+002 177 123 64
-2.229652e+002 6.906829e+001 -3.982745e+002 177 123 64
-2.030434e+002 4.569998e+001 -3.593805e+002 151 122 103
1.060725e+000 8.290945e-001 -8.239440e+000 170 159 132
-5.720486e-001 3.220972e-001 -7.475892e+000 28 91 126
2.807990e+000 3.815579e-001 -8.760385e+000 41 16 27
2.938918e-001 -5.503609e-001 -8.331953e+000 160 141 125
-1.547157e+002 4.907841e+001 -2.922717e+002 24 13 19
-2.065711e+002 5.174296e+001 -4.280827e+002 31 21 29
-4.315352e-001 4.467770e-001 -7.554838e+000 155 148 122
4.126204e+000 -8.115486e-001 -1.027638e+001 103 86 79
-1.761230e+002 5.985956e+001 -3.515869e+002 170 118 87
4.756036e+000 5.327502e-001 -9.916988e+000 174 102 39
-1.082905e+000 7.039110e-001 -7.460873e+000 180 154 112
1.604279e+000 1.032811e+000 -8.664087e+000 26 78 122
1.999333e+000 1.015546e+000 -8.766880e+000 162 94 93
1.990004e+000 9.754838e-001 -8.729708e+000 90 27 35
2.921117e+000 9.237667e-001 -8.991433e+000 79 29 35
3.266630e+000 9.175997e-001 -9.103181e+000 129 43 51
2.157193e+000 7.120545e-001 -8.576154e+000 163 99 101
2.697151e+000 6.875284e-001 -8.758211e+000 117 69 69
3.010509e+000 6.597299e-001 -8.872281e+000 62 24 32
3.663929e+000 7.588211e-001 -9.124291e+000 18 54 96
1.659695e+000 5.750885e-001 -8.434808e+000 175 87 71
3.056430e+000 5.581294e-001 -8.798993e+000 119 75 32
2.819334e+000 4.591288e-002 -8.869380e+000 157 30 37
2.719074e+000 -1.928073e-002 -8.839151e+000 159 26 40
3.787084e-001 1.684486e+000 -9.027665e+000 155 93 75
8.368538e-001 8.178441e-001 -8.197662e+000 179 151 126
1.957232e+000 8.728906e-001 -8.617283e+000 102 36 45
4.052185e+000 8.741119e-001 -9.352600e+000 108 27 27
4.856629e+000 2.975174e-001 -9.504251e+000 51 21 20
2.701178e+000 8.748224e-002 -8.793736e+000 192 74 81
2.750515e+000 -2.572145e-001 -9.029933e+000 156 24 37
3.106021e+000 -3.465966e-001 -9.329266e+000 160 34 45
3.880851e+000 -3.784603e-001 -9.660446e+000 188 97 69
2.018411e+000 -8.923377e-001 -9.467703e+000 186 125 110
7.623180e-002 8.398765e-001 -7.980783e+000 164 156 54
7.623180e-002 8.398765e-001 -7.980783e+000 164 156 54
2.211710e+000 1.035913e+000 -8.850749e+000 80 39 48
2.638380e+000 1.092613e+000 -9.076434e+000 31 14 22
2.638380e+000 1.092613e+000 -9.076434e+000 31 14 22
2.604960e+000 3.206072e-002 -8.844366e+000 190 139 111
1.949573e+000 -1.390812e-001 -8.597411e+000 95 46 39
-2.392389e+002 5.591970e+001 -4.306251e+002 100 75 64
-1.124902e+000 7.341098e-001 -7.474251e+000 164 37 38
-9.349173e-001 7.476320e-001 -7.562381e+000 179 33 47
8.192721e-001 6.586516e-001 -8.058592e+000 166 83 72
2.164620e+000 6.472957e-001 -8.567461e+000 111 52 58
1.316110e+000 -2.830084e-002 -8.327733e+000 104 53 42
1.316110e+000 -2.830084e-002 -8.327733e+000 104 53 42
8.255506e-001 -2.163686e-001 -8.334173e+000 140 31 48
-2.234183e+002 4.786210e+001 -4.422614e+002 62 45 37
-3.346904e+002 5.695148e+001 -6.127431e+002 103 28 41
-4.737576e-001 1.393791e+000 -8.471651e+000 171 150 121
5.792741e-001 9.858678e-001 -8.304803e+000 171 35 36
1.682454e+000 1.058397e+000 -8.688990e+000 9 72 119
3.234957e+000 6.957859e-001 -8.968799e+000 83 53 65
4.631463e+000 8.388106e-001 -9.591675e+000 161 73 66
-7.373689e-001 -5.807769e-001 -7.911065e+000 31 63 36
-2.037730e+002 4.022861e+001 -4.082901e+002 45 27 23
-3.913851e-001 1.329740e+000 -8.459288e+000 163 150 117
9.772479e-001 1.162911e+000 -8.605861e+000 168 149 125
1.180883e+000 -5.427235e-002 -8.333010e+000 23 69 105
2.831646e+000 -6.494961e-001 -9.592639e+000 172 29 47
2.831646e+000 -6.494961e-001 -9.592639e+000 172 29 47
-4.149306e+002 5.450475e+001 -8.829447e+002 85 81 95
-8.937178e+002 6.850740e+001 -1.577206e+003 109 86 72
-6.073573e+002 4.871037e+001 -1.109548e+003 100 73 65
4.659251e+000 -3.196731e+000 -1.045126e+001 160 141 145
-2.595500e-001 8.851741e-001 -7.889479e+000 165 152 118
2.518210e+000 -2.150991e-001 -8.963263e+000 196 139 112
3.701122e+000 -6.307347e-001 -9.853092e+000 160 121 95
-3.626936e+002 5.650973e+001 -7.713050e+002 36 19 33
-5.907933e+002 5.731546e+001 -1.056240e+003 174 152 135
-4.401864e+002 4.354463e+001 -8.167369e+002 139 119 103
1.699741e+000 7.228080e-001 -8.426567e+000 17 81 123
1.206414e+000 -5.078164e-001 -8.776298e+000 201 122 116
-4.700994e-001 -5.728349e-001 -8.096728e+000 69 105 132
-2.984109e+002 5.064358e+001 -5.959338e+002 150 46 52
-1.547157e+002 4.907841e+001 -2.922717e+002 24 13 19
-2.785027e+002 3.269350e+001 -5.433536e+002 21 14 21
-1.001204e+003 2.463724e+002 -1.792828e+003 131 105 90
-2.079848e+002 5.411437e+001 -4.075903e+002 27 21 28
1.443836e+000 1.440861e+000 -9.084276e+000 141 141 131
2.026763e+000 9.304729e-001 -8.695142e+000 165 97 83
3.021281e+000 1.083499e+000 -9.155045e+000 76 52 58
2.079829e+000 8.903692e-001 -8.690417e+000 88 26 31
2.033303e+000 8.410240e-001 -8.624211e+000 93 29 25
2.033986e+000 7.134216e-001 -8.541334e+000 168 99 92
2.119972e+000 8.789876e-001 -8.704653e+000 169 105 95
2.976687e+000 4.552280e-001 -8.800142e+000 156 104 68
4.849904e+000 1.756456e-001 -9.591237e+000 58 18 9
1.831757e+000 1.047050e+000 -8.704710e+000 183 140 75
2.708961e+000 1.058575e+000 -9.048126e+000 36 16 16
-8.436672e-001 6.418993e-001 -7.481029e+000 158 157 138
3.902593e+000 -1.149012e-001 -9.351212e+000 194 139 93
-2.416319e+000 -2.489771e-001 -7.819179e+000 186 165 148
3.032928e+000 -4.490761e-001 -9.388217e+000 195 78 85
-2.072349e+000 8.333459e-001 -7.742973e+000 197 177 149
-1.186598e+000 8.665248e-001 -7.582700e+000 169 31 43
2.960790e+000 9.960731e-001 -9.079316e+000 88 50 50
4.507582e+000 7.448640e-001 -9.415334e+000 181 143 116
2.626556e+000 5.207213e-001 -8.736226e+000 116 59 30
-1.806697e+002 6.048374e+001 -4.234623e+002 93 58 50
3.273289e+000 -3.688403e-001 -9.334627e+000 193 139 111
3.318645e+000 -5.588204e-001 -9.511565e+000 203 136 109
1.838963e+000 1.228356e+000 -8.959478e+000 68 42 57
1.662931e+000 1.130838e+000 -8.810187e+000 19 76 128
3.218563e+000 -4.286387e-002 -9.100529e+000 197 140 111
-1.874595e+002 4.798337e+001 -3.980257e+002 53 39 47
4.839310e+000 -2.708853e+000 -9.922514e+000 151 132 130
1.427733e+000 1.253718e+000 -8.966443e+000 13 76 112
1.653625e+000 1.413788e+000 -9.153577e+000 186 136 92
-6.517503e-001 6.926428e-001 -7.585058e+000 82 108 101
5.025527e+000 -1.922937e+000 -9.633492e+000 57 46 54
4.474589e+000 -3.454224e+000 -1.114693e+001 56 45 54
-1.222843e+000 1.510888e+000 -8.343437e+000 115 126 124
-9.030788e-002 -4.465341e-001 -8.047401e+000 30 59 44
-1.995901e+002 4.486888e+001 -4.318445e+002 80 62 48
5.036615e+000 -2.033997e+000 -9.673782e+000 132 116 117
3.642788e+000 -4.479431e-001 -9.620841e+000 163 56 36
-1.251111e-001 1.777726e+000 -9.051615e+000 56 53 7
-1.251111e-001 1.777726e+000 -9.051615e+000 56 53 7
1.592823e+000 1.684086e+000 -9.460483e+000 100 13 21
2.078681e+000 1.697648e+000 -9.642194e+000 104 28 29
2.197493e+000 1.768327e+000 -9.764561e+000 79 115 131
2.305910e+000 1.701759e+000 -9.715739e+000 85 19 32
3.333700e+000 1.859968e+000 -1.032189e+001 95 46 22
-1.161364e+000 1.328961e+000 -8.230424e+000 159 150 124
-1.161364e+000 1.328961e+000 -8.230424e+000 159 150 124
1.054288e+000 1.430263e+000 -8.943303e+000 194 143 110
1.095223e+000 1.394401e+000 -8.916140e+000 158 31 38
2.405009e+000 1.465357e+000 -9.446996e+000 105 79 73
2.824163e+000 1.699510e+000 -9.905771e+000 151 110 90
-1.246149e+000 1.199743e+000 -8.030860e+000 174 31 39
-1.246149e+000 1.199743e+000 -8.030860e+000 174 31 39
-1.182035e+000 1.182875e+000 -7.981531e+000 157 40 31
1.158739e+000 1.218418e+000 -8.722117e+000 206 148 115
-1.258011e+000 1.044858e+000 -7.837412e+000 187 145 102
6.467407e-001 9.577589e-001 -8.275622e+000 165 156 129
9.168143e-001 1.055112e+000 -8.473721e+000 172 150 117
1.147837e+000 1.151365e+000 -8.652869e+000 188 151 114
1.147837e+000 1.151365e+000 -8.652869e+000 188 151 114
1.910395e+000 1.092867e+000 -8.809398e+000 140 83 66
-9.825519e-001 7.399642e-001 -7.544707e+000 194 142 109
-9.825519e-001 7.399642e-001 -7.544707e+000 194 142 109
1.676707e+000 9.030313e-001 -8.562919e+000 154 166 131
1.636830e+000 8.556734e-001 -8.506044e+000 179 173 141
1.636830e+000 8.556734e-001 -8.506044e+000 179 173 141
1.932786e+000 9.465823e-001 -8.701731e+000 92 32 35
1.932786e+000 9.465823e-001 -8.701731e+000 92 32 35
2.510787e+000 8.857959e-001 -8.869820e+000 68 29 34
2.530056e+000 8.930323e-001 -8.816795e+000 137 108 97
2.793217e+000 1.031135e+000 -9.046649e+000 36 11 13
2.793217e+000 1.031135e+000 -9.046649e+000 36 11 13
3.036424e+000 1.040737e+000 -9.201535e+000 152 114 111
3.093055e+000 8.579902e-001 -9.028025e+000 124 86 94
3.093055e+000 8.579902e-001 -9.028025e+000 124 86 94
3.364324e+000 8.940550e-001 -9.140577e+000 26 18 40
-8.177492e-001 6.561349e-001 -7.470687e+000 66 86 63
9.598509e-001 6.758750e-001 -8.133329e+000 169 166 128
2.059183e+000 7.426534e-001 -8.576359e+000 96 31 36
2.136030e+000 8.083947e-001 -8.630171e+000 167 98 103
2.136030e+000 8.083947e-001 -8.630171e+000 167 98 103
2.108798e+000 7.782332e-001 -8.600684e+000 93 33 37
2.157193e+000 7.120545e-001 -8.576154e+000 163 99 101
2.540661e+000 6.611342e-001 -8.680979e+000 123 74 72
2.642911e+000 8.352989e-001 -8.791629e+000 144 108 104
4.526054e+000 8.026997e-001 -9.499916e+000 157 28 63
4.526054e+000 8.026997e-001 -9.499916e+000 157 28 63
3.412825e+000 6.199375e-001 -8.976344e+000 27 30 65
-3.006133e+000 1.777721e-001 -7.612602e+000 181 27 39
4.856629e+000 2.975174e-001 -9.504251e+000 51 21 20
2.738623e+000 6.393969e-002 -8.812643e+000 163 31 41
2.747949e+000 3.036878e-002 -8.886738e+000 161 30 39
3.021216e+000 -2.813447e-001 -9.184957e+000 166 28 44
2.994348e+000 -3.184535e-001 -9.201319e+000 149 23 37
4.101629e+000 -4.384307e-001 -9.828647e+000 179 145 107
1.878511e+000 -6.505663e-001 -9.039495e+000 191 130 111
2.368944e+000 -6.468442e-001 -9.212749e+000 139 83 74
1.601108e+000 -9.325638e-001 -9.328119e+000 141 80 72
-4.293658e-002 1.635604e+000 -8.866632e+000 38 52 37
2.935837e+000 1.803515e+000 -1.009053e+001 118 55 22
2.817895e+000 1.739709e+000 -9.906959e+000 86 28 19
3.649538e+000 1.884906e+000 -1.044306e+001 43 8 2
-2.103179e+002 7.289563e+001 -4.454334e+002 137 89 70
-2.103179e+002 7.289563e+001 -4.454334e+002 137 89 70
-6.358322e-003 1.335350e+000 -8.515082e+000 29 56 43
1.443836e+000 1.440861e+000 -9.084276e+000 141 141 131
2.399852e+000 1.509635e+000 -9.467246e+000 163 132 119
-1.189031e+000 1.157478e+000 -8.059521e+000 179 42 51
1.209599e+000 1.324464e+000 -8.912643e+000 158 31 44
1.511070e+000 1.285989e+000 -8.914944e+000 141 149 138
2.152283e+000 1.384158e+000 -9.232714e+000 120 98 100
2.152283e+000 1.384158e+000 -9.232714e+000 120 98 100
2.090492e+000 1.283539e+000 -9.115208e+000 92 68 83
-1.097554e+000 9.826533e-001 -7.862195e+000 172 38 33
-2.157569e-001 9.890434e-001 -8.071079e+000 18 49 27
2.060855e+000 1.018602e+000 -8.781287e+000 168 99 94
2.670635e+000 1.140573e+000 -9.105740e+000 145 124 116
-1.116753e+000 7.798314e-001 -7.534068e+000 184 149 118
-1.005447e-001 9.047237e-001 -8.027648e+000 30 46 30
2.094358e+000 9.275766e-001 -8.706808e+000 153 85 82
2.094358e+000 9.275766e-001 -8.706808e+000 153 85 82
3.307823e+000 9.546870e-001 -9.142509e+000 156 119 78
-2.105015e+000 5.886484e-001 -7.645780e+000 191 170 143
2.053142e+000 7.714156e-001 -8.595673e+000 93 29 30
2.266500e+000 6.769240e-001 -8.613211e+000 141 85 89
4.255991e+000 1.330943e-002 -9.427326e+000 212 134 59
4.255991e+000 1.330943e-002 -9.427326e+000 212 134 59
2.281424e+000 -7.124755e-002 -8.746474e+000 192 141 114
2.771949e+000 -2.599482e-002 -8.898964e+000 187 75 74
4.661815e+000 -4.148177e-001 -1.011808e+001 150 119 109
-6.400272e-001 -3.853060e-001 -7.846149e+000 22 50 39
2.572567e+000 -5.121213e-001 -9.186000e+000 192 78 78
-1.631663e-001 -5.425995e-001 -8.171284e+000 29 60 43
3.749297e-001 -6.238187e-001 -8.354035e+000 163 161 150
1.833705e+000 -6.860848e-001 -9.118989e+000 140 82 71
3.953298e+000 -7.295734e-001 -1.004447e+001 171 148 127
4.187019e+000 -7.117835e-001 -1.016023e+001 137 120 109
4.535727e+000 -6.699724e-001 -1.030984e+001 163 143 134
-7.506140e-001 -8.297108e-001 -8.333181e+000 74 116 116
1.483275e+000 -9.207903e-001 -9.239463e+000 140 80 70
3.066524e+000 -8.188430e-001 -9.811086e+000 124 63 57
3.066524e+000 -8.188430e-001 -9.811086e+000 124 63 57
3.197964e+000 -7.939846e-001 -9.819851e+000 151 95 79
5.003361e+000 -2.053792e+000 -9.679689e+000 140 124 124
5.058299e+000 -2.688703e+000 -9.553539e+000 133 115 115
-6.957197e-001 1.607891e+000 -8.647303e+000 38 53 34
-6.041954e-001 1.356535e+000 -8.403964e+000 34 54 42
2.846107e+000 1.705431e+000 -9.853789e+000 157 118 77
-2.950717e+002 7.220622e+001 -5.352647e+002 116 94 83
-1.657333e+002 5.964211e+001 -4.075445e+002 104 60 46
-2.230380e+000 1.162585e+000 -8.103907e+000 188 169 139
-2.259696e+000 1.083218e+000 -8.030125e+000 188 166 142
-1.325020e+000 1.133402e+000 -7.888977e+000 168 44 51
-1.325020e+000 1.133402e+000 -7.888977e+000 168 44 51
-1.296581e+000 1.070395e+000 -7.831942e+000 176 38 46
1.314880e+000 1.196925e+000 -8.754029e+000 182 87 75
2.630632e+000 1.279374e+000 -9.393653e+000 138 114 104
-2.137865e+000 1.050342e+000 -7.865659e+000 195 175 148
-2.491598e-001 1.070685e+000 -8.142939e+000 31 54 58
1.339055e+000 1.125735e+000 -8.658538e+000 169 71 62
2.050701e+000 1.159271e+000 -8.973267e+000 87 60 79
-1.186598e+000 8.665248e-001 -7.582700e+000 169 31 43
-1.159527e+000 8.053120e-001 -7.538321e+000 174 40 49
-1.030832e+000 8.457892e-001 -7.652247e+000 169 42 34
-1.735962e-001 9.045333e-001 -7.995828e+000 28 53 28
9.400075e-001 9.561306e-001 -8.358966e+000 170 153 128
8.368538e-001 8.178441e-001 -8.197662e+000 179 151 126
1.002112e+000 9.441296e-001 -8.353987e+000 181 46 41
-1.104479e+000 6.659672e-001 -7.407672e+000 171 35 47
8.592952e-001 7.392242e-001 -8.144152e+000 170 153 133
2.897327e+000 8.005139e-001 -8.838852e+000 77 35 45
2.858944e+000 7.555268e-001 -8.837809e+000 79 38 44
3.226121e+000 8.356034e-001 -9.057512e+000 70 39 42
-2.988663e-001 3.563591e-001 -7.557136e+000 121 126 122
4.979254e+000 2.056719e-001 -9.612490e+000 158 98 34
8.896881e-001 8.584343e-002 -8.114569e+000 51 54 96
3.040610e+000 5.484535e-002 -8.942688e+000 190 69 80
3.040610e+000 5.484535e-002 -8.942688e+000 190 69 80
3.813426e+000 1.205883e-001 -9.144865e+000 194 91 50
3.595972e+000 -3.314400e-001 -9.490878e+000 158 85 49
4.562682e+000 -2.751431e-001 -9.848170e+000 185 154 134
-3.458245e-001 -4.787746e-001 -8.016101e+000 138 145 61
-3.458245e-001 -4.787746e-001 -8.016101e+000 138 145 61
3.247223e+000 -4.186832e-001 -9.352471e+000 196 141 110
3.371429e+000 -4.527521e-001 -9.459639e+000 197 131 104
-4.878317e-001 -5.364966e-001 -8.006986e+000 56 105 122
8.076606e-001 -6.782593e-001 -8.716296e+000 11 59 105
1.906855e+000 -5.869217e-001 -8.977247e+000 192 131 110
2.373590e+000 -5.716839e-001 -9.178301e+000 195 132 115
-4.386144e-001 -7.929628e-001 -8.308602e+000 133 138 34
-4.386144e-001 -7.929628e-001 -8.308602e+000 133 138 34
1.151751e+000 -7.220591e-001 -8.905729e+000 137 82 80
5.153822e+000 -1.631869e+000 -9.275352e+000 155 137 137
5.221884e+000 -2.393290e+000 -9.150725e+000 159 141 141
-9.097005e+001 4.261563e+001 -2.397272e+002 84 65 60
-1.812878e+000 1.433621e+000 -8.060351e+000 127 131 130
5.299259e-001 1.630807e+000 -9.036116e+000 167 146 119
4.543071e+000 2.054374e+000 -1.114120e+001 148 116 79
-1.398516e+000 1.295793e+000 -8.111116e+000 170 33 43
-1.398516e+000 1.295793e+000 -8.111116e+000 170 33 43
-5.513440e-001 1.453131e+000 -8.506067e+000 27 61 44
1.513622e+000 1.498474e+000 -9.235797e+000 24 79 104
-1.285981e+000 1.152519e+000 -7.975112e+000 165 104 80
1.199864e+000 1.261579e+000 -8.761161e+000 160 31 43
2.258901e+000 1.396737e+000 -9.274143e+000 133 106 93
2.507839e+000 1.305839e+000 -9.255898e+000 33 15 13
2.507839e+000 1.305839e+000 -9.255898e+000 33 15 13
2.246935e-001 1.010249e+000 -8.198668e+000 29 50 26
2.246935e-001 1.010249e+000 -8.198668e+000 29 50 26
1.192079e+000 1.152047e+000 -8.640316e+000 197 147 111
2.213244e+000 1.036439e+000 -8.855692e+000 80 39 48
2.776651e+000 1.085193e+000 -9.115777e+000 145 122 106
-1.159983e+000 8.051833e-001 -7.544121e+000 174 40 49
-1.124902e+000 7.341098e-001 -7.474251e+000 164 37 38
8.944935e-001 8.328197e-001 -8.234593e+000 154 78 62
1.003032e+000 9.465791e-001 -8.366536e+000 182 47 41
1.003032e+000 9.465791e-001 -8.366536e+000 182 47 41
3.045990e+000 9.522140e-001 -9.058232e+000 133 98 96
-2.097750e+000 7.069329e-001 -7.683029e+000 195 171 145
8.192721e-001 6.586516e-001 -8.058592e+000 166 83 72
4.397400e+000 8.584916e-002 -9.443749e+000 40 23 35
1.564111e+000 -1.428553e-001 -8.540651e+000 185 124 103
2.138269e+000 -1.180357e-001 -8.702857e+000 193 142 111
-7.252068e-001 -3.426513e-001 -7.754589e+000 135 136 74
2.493675e+000 -5.125207e-001 -9.263226e+000 194 132 105
6.457058e-001 -6.754065e-001 -8.589306e+000 198 132 110
3.372125e+000 -8.741747e-001 -1.000319e+001 146 115 95
3.479673e+000 -9.307483e-001 -1.016541e+001 184 150 123
-9.657451e-001 -8.771727e-001 -8.258680e+000 34 64 39
4.990254e-001 -1.000789e+000 -8.964556e+000 193 130 119
4.971953e+000 -2.185962e+000 -9.811747e+000 154 140 139
4.767350e+000 -2.816226e+000 -1.045279e+001 142 126 128
-9.172093e+001 5.218825e+001 -2.736215e+002 90 79 80
-4.644372e-001 1.630586e+000 -8.716648e+000 31 54 25
1.345900e+000 1.616446e+000 -9.295740e+000 96 115 113
1.345900e+000 1.616446e+000 -9.295740e+000 96 115 113
-1.003203e+002 5.312517e+001 -3.086272e+002 86 69 61
1.381961e+000 1.538185e+000 -9.196803e+000 108 122 134
1.381961e+000 1.538185e+000 -9.196803e+000 108 122 134
1.474771e+000 1.597181e+000 -9.320395e+000 38 40 63
1.676829e+000 1.560270e+000 -9.309048e+000 88 62 81
2.337455e+000 1.495892e+000 -9.440921e+000 99 78 95
-8.039049e-001 1.249724e+000 -8.233334e+000 172 157 72
-8.039049e-001 1.249724e+000 -8.233334e+000 172 157 72
-2.049758e-001 1.231583e+000 -8.340465e+000 162 156 81
-2.049758e-001 1.231583e+000 -8.340465e+000 162 156 81
2.665651e+000 1.444232e+000 -9.477136e+000 145 113 99
-6.759843e-001 9.875714e-001 -7.931233e+000 171 154 96
-6.759843e-001 9.875714e-001 -7.931233e+000 171 154 96
-4.554761e-001 1.082031e+000 -8.125493e+000 34 54 28
-2.712204e-001 1.012144e+000 -8.065597e+000 174 155 62
-9.349173e-001 7.476320e-001 -7.562381e+000 179 33 47
7.727842e-001 8.261411e-001 -8.210016e+000 165 88 78
2.883812e+000 1.027653e+000 -9.080624e+000 140 110 102
-2.050036e+000 6.566023e-001 -7.621252e+000 148 123 101
9.271652e-001 7.145146e-001 -8.144459e+000 157 85 70
3.234957e+000 6.957859e-001 -8.968799e+000 83 53 65
4.068973e+000 2.783790e-002 -9.359878e+000 185 87 31
1.048735e+000 -1.606179e-001 -8.437008e+000 15 59 92
-4.072049e-001 -5.049986e-001 -8.120937e+000 27 58 30
6.573556e-001 -6.149749e-001 -8.482270e+000 153 88 60
1.536134e+000 -7.523991e-001 -9.081750e+000 197 132 114
-2.778033e-001 -9.246043e-001 -8.557022e+000 155 152 136
3.813995e-001 -1.138882e+000 -9.191058e+000 167 46 61
5.073639e+000 -1.838239e+000 -9.579341e+000 60 50 59
5.086792e+000 -1.846044e+000 -9.466296e+000 138 121 121
4.884981e+000 -2.274618e+000 -9.805386e+000 135 122 122
4.849081e+000 -2.633155e+000 -1.027907e+001 136 119 125
2.806225e+002 2.085402e+002 7.434363e+002 109 81 77
4.668439e+000 -3.024606e+000 -1.062722e+001 149 130 133
4.575309e+000 -3.300309e+000 -1.090497e+001 143 127 130
4.496163e+000 -3.380197e+000 -1.093292e+001 147 131 134
-1.178227e+002 5.912577e+001 -3.136116e+002 124 92 87
-5.132593e-001 1.530740e+000 -8.617337e+000 170 157 113
-4.060935e-001 1.480410e+000 -8.618384e+000 36 60 30
-2.079358e-001 1.467627e+000 -8.608693e+000 29 51 30
-2.079358e-001 1.467627e+000 -8.608693e+000 29 51 30
1.576172e+000 1.574782e+000 -9.314783e+000 180 127 96
1.576172e+000 1.574782e+000 -9.314783e+000 180 127 96
1.537136e+000 1.432731e+000 -9.118745e+000 30 76 112
1.653625e+000 1.413788e+000 -9.153577e+000 186 136 92
-1.629157e+002 5.431667e+001 -3.996515e+002 104 71 57
-9.049380e-001 1.265930e+000 -8.272763e+000 30 53 24
-8.354968e-001 1.099008e+000 -8.051494e+000 163 153 112
-6.627120e-001 1.189087e+000 -8.143913e+000 35 55 39
-5.986617e-001 1.262294e+000 -8.295211e+000 171 154 111
-5.986617e-001 1.262294e+000 -8.295211e+000 171 154 111
2.723999e-003 1.241949e+000 -8.407611e+000 167 149 115
2.723999e-003 1.241949e+000 -8.407611e+000 167 149 115
-6.442898e-002 1.165315e+000 -8.292940e+000 37 60 43
-6.442898e-002 1.165315e+000 -8.292940e+000 37 60 43
-7.776210e-001 1.016384e+000 -7.999846e+000 32 60 31
-5.435619e-001 9.365707e-001 -7.886821e+000 38 64 45
-4.690776e-001 9.952515e-001 -7.988759e+000 168 155 110
-4.690776e-001 9.952515e-001 -7.988759e+000 168 155 110
5.792741e-001 9.858678e-001 -8.304803e+000 171 35 36
8.603349e-001 1.085935e+000 -8.466378e+000 163 156 131
8.603349e-001 1.085935e+000 -8.466378e+000 163 156 131
1.479074e+000 1.115230e+000 -8.769399e+000 6 77 115
2.423009e+000 1.221139e+000 -9.166207e+000 130 101 93
-2.021809e-001 8.114632e-001 -7.859053e+000 161 155 93
-2.021809e-001 8.114632e-001 -7.859053e+000 161 155 93
1.463631e-001 8.851557e-001 -8.078832e+000 28 53 26
1.463631e-001 8.851557e-001 -8.078832e+000 28 53 26
1.523022e+000 9.956801e-001 -8.629100e+000 26 74 118
1.848789e+000 8.629948e-001 -8.580780e+000 176 114 89
2.752362e+000 8.610508e-001 -8.895515e+000 92 53 58
3.281222e+000 9.878852e-001 -9.175943e+000 158 118 83
4.687507e+000 6.284136e-001 -9.458125e+000 176 141 126
3.867207e+000 3.748495e-001 -9.112301e+000 125 27 47
3.867207e+000 3.748495e-001 -9.112301e+000 125 27 47
-3.323075e-001 -3.121983e-001 -7.921210e+000 23 61 45
-2.906599e-001 -3.947584e-001 -7.949198e+000 93 116 116
-7.394886e-001 -8.083036e-001 -8.208806e+000 78 113 131
1.904644e+000 -7.575353e-001 -9.217793e+000 194 131 113
2.020457e+000 -7.677401e-001 -9.304945e+000 193 134 112
-1.147191e+000 -1.089597e+000 -8.476444e+000 39 67 47
5.621458e-001 -1.127292e+000 -9.287439e+000 20 76 127
-1.679372e+002 6.182364e+001 -3.067475e+002 101 89 53
-9.589109e+001 4.962164e+001 -2.801901e+002 38 26 26
-1.590075e+002 6.001737e+001 -3.668985e+002 176 121 84
-1.128675e-001 1.402399e+000 -8.545132e+000 169 153 109
-1.128675e-001 1.402399e+000 -8.545132e+000 169 153 109
7.069355e-003 1.462536e+000 -8.661711e+000 39 55 23
-1.584512e+002 5.677766e+001 -3.750165e+002 89 44 31
-4.871770e-001 1.256202e+000 -8.313939e+000 35 61 30
1.137639e-001 1.229002e+000 -8.428291e+000 34 57 28
2.365869e+000 1.341185e+000 -9.241854e+000 150 124 109
-1.159782e+000 9.546170e-001 -7.769041e+000 154 58 55
-9.603807e-001 1.058073e+000 -8.049304e+000 44 95 121
-3.613718e-001 9.857810e-001 -8.001351e+000 35 60 36
-1.035550e+000 7.396306e-001 -7.508692e+000 168 122 89
-1.035550e+000 7.396306e-001 -7.508692e+000 168 122 89
2.661523e-001 8.929262e-001 -8.097762e+000 163 152 122
5.258580e-001 8.872754e-001 -8.179472e+000 162 150 126
3.741593e+000 1.027889e+000 -9.345739e+000 154 118 87
3.879488e+000 9.414383e-001 -9.324710e+000 132 24 40
-8.342831e-001 6.629145e-001 -7.480879e+000 96 120 118
-7.153566e-001 6.292670e-001 -7.484537e+000 26 56 29
4.599462e+000 9.195085e-001 -9.692131e+000 168 138 114
4.467652e+000 7.166398e-001 -9.605712e+000 169 85 38
3.880508e+000 -1.550586e-001 -9.394396e+000 183 125 68
3.880508e+000 -1.550586e-001 -9.394396e+000 183 125 68
-6.552480e-001 -5.705616e-001 -7.943440e+000 66 110 108
1.774795e+000 -7.974391e-001 -9.230875e+000 193 130 112
-1.512590e+002 6.051188e+001 -3.699121e+002 171 120 76
-2.595500e-001 8.851741e-001 -7.889479e+000 165 152 118
1.009505e-002 8.842651e-001 -7.999861e+000 160 151 110
-2.072876e+000 6.046460e-001 -7.634210e+000 151 126 104
2.839873e+000 5.590162e-001 -8.749520e+000 152 107 55
-4.700994e-001 -5.728349e-001 -8.096728e+000 69 105 132
4.768737e+000 -7.790684e-001 -1.061621e+001 30 19 27
4.180788e+002 3.113380e+002 1.072188e+003 52 27 29
2.391795e+002 1.895805e+002 6.607859e+002 59 30 35
3.651680e+000 8.942798e-001 -9.262762e+000 17 58 109
4.360529e+000 1.115441e+000 -9.770771e+000 141 25 37
4.360529e+000 1.115441e+000 -9.770771e+000 141 25 37
8.602600e-001 7.288423e-001 -8.195698e+000 174 156 134
3.028390e+000 7.526351e-001 -8.878507e+000 53 19 23
-4.315352e-001 4.467770e-001 -7.554838e+000 155 148 122
3.278753e+000 5.597406e-001 -8.933453e+000 156 116 80
3.278753e+000 5.597406e-001 -8.933453e+000 156 116 80
1.025866e-002 -6.297136e-001 -8.171036e+000 156 156 144
-9.742289e-001 4.151371e-001 -7.398146e+000 93 121 135
2.375471e+000 -3.487630e-001 -9.016141e+000 194 140 112
-1.177793e+000 -6.910793e-001 -7.889286e+000 197 114 104
4.367351e+000 -2.295475e-001 -9.668730e+000 112 68 38
4.821800e-001 -4.046830e-001 -8.216263e+000 164 160 141
2.885359e+000 -1.136636e-001 -9.031370e+000 171 33 46
4.876908e+000 1.562609e+000 -1.017585e+001 40 32 43
9.460375e-001 -1.527989e-001 -8.066677e+000 99 130 151
2.243230e+000 -1.904008e-001 -9.976321e+000 129 80 75
7.452714e-003 4.959695e-003 -6.590653e-002 0 255 0
7.430736e-003 4.951501e-003 -1.159065e-001 255 255 0
1.164642e-001 9.395890e-001 2.019617e-001 255 0 0
1.168915e-001 9.360549e-001 1.520885e-001 255 255 0
