ply
format ascii 1.0
element face 0
property list uchar int vertex_indices
element vertex 881
property float x
property float y
property float z
property uchar diffuse_red
property uchar diffuse_green
property uchar diffuse_blue
end_header
-3.247433e-001 1.380569e+000 -1.003472e+001 56 35 18
1.130086e+000 -4.464633e-001 -8.392596e+000 67 63 62
-1.748210e+000 -2.481291e-001 -8.224487e+000 77 55 31
-1.439027e+000 -1.156871e+000 -8.042945e+000 89 60 45
-1.577279e+000 -1.255055e+000 -7.993557e+000 72 48 33
-2.022117e+000 -1.600735e+000 -8.148464e+000 53 38 32
-2.436617e+000 -1.715848e+000 -8.121471e+000 144 127 99
2.382828e+000 -2.613189e-001 -7.164501e+000 141 121 110
4.880343e-001 2.093864e-001 -8.844234e+000 110 107 93
-5.406222e-001 4.312823e-002 -8.862377e+000 40 32 35
7.809098e-002 -7.239602e-002 -8.676088e+000 19 17 23
2.592127e-003 -1.037144e-001 -8.675712e+000 131 121 100
6.211849e-001 -1.242635e-001 -8.670340e+000 114 102 91
6.477862e-001 -2.008031e-001 -8.656959e+000 19 18 24
-3.276341e-001 -1.603012e-001 -8.665719e+000 22 19 22
-1.508807e-001 -1.673393e-001 -8.681478e+000 137 130 102
6.049962e-001 -5.484137e-001 -8.699354e+000 22 20 25
2.852464e-001 -5.962724e-001 -8.618637e+000 116 110 87
-1.723414e+000 -5.693356e-001 -8.047975e+000 39 26 20
-5.816667e-001 -1.205481e+000 -8.437442e+000 150 150 142
1.367093e-001 -1.678140e+000 -7.916382e+000 109 90 80
-5.576444e-001 1.024345e+000 -9.950271e+000 153 119 75
1.701094e-001 3.201531e-001 -8.921070e+000 92 87 79
-2.685397e-001 1.121850e-001 -8.811314e+000 150 137 111
-1.355000e+000 -1.814147e-002 -8.163393e+000 133 116 88
7.560542e-001 -2.530127e-001 -8.656381e+000 22 19 15
5.997636e-001 -2.985513e-001 -8.627385e+000 29 24 21
7.201421e-001 -4.314309e-001 -8.639816e+000 144 137 110
7.417548e-001 -5.085677e-001 -8.650589e+000 28 25 26
7.417548e-001 -5.085677e-001 -8.650589e+000 28 25 26
-1.567219e-002 -7.011985e-001 -8.531455e+000 134 124 101
1.636776e-001 -7.227061e-001 -8.549175e+000 23 20 24
3.889872e-001 -6.394160e-001 -8.607090e+000 137 130 111
-1.469006e+000 -6.110886e-001 -8.115131e+000 98 66 44
8.840866e-002 -7.482741e-001 -8.531639e+000 138 130 100
-2.629623e+000 -6.112918e-001 -8.134154e+000 182 144 101
2.341814e-002 -1.019229e+000 -8.464801e+000 28 22 24
2.341814e-002 -1.019229e+000 -8.464801e+000 28 22 24
-1.540935e+000 -1.001943e+000 -8.089803e+000 54 25 14
9.753004e-001 -1.426828e+000 -7.599633e+000 92 56 25
-1.534283e+000 -1.296545e+000 -7.994809e+000 35 25 26
-1.534283e+000 -1.296545e+000 -7.994809e+000 35 25 26
-1.699822e+001 6.488782e-001 -3.328756e+001 141 133 130
-1.483626e+001 5.380267e-001 -3.497908e+001 123 118 110
1.747257e+000 4.102887e-001 -7.040669e+000 179 153 116
-3.479746e-001 1.639445e+000 -1.000498e+001 163 140 106
2.827945e-002 2.667625e-002 -8.691239e+000 98 88 76
1.197652e+000 -3.607701e-001 -8.311952e+000 34 29 26
1.197652e+000 -3.607701e-001 -8.311952e+000 34 29 26
-1.705431e+001 1.457174e+000 -3.203062e+001 213 216 223
-1.705431e+001 1.457174e+000 -3.203062e+001 213 216 223
1.900109e+000 2.270715e-001 -6.910218e+000 175 152 111
-8.420777e-001 -2.387371e-001 -8.811596e+000 77 71 59
-1.794489e+000 -1.091273e+000 -7.940375e+000 116 76 52
-1.228621e-001 9.606465e-002 -8.786998e+000 20 18 23
-9.435779e-001 -5.374230e-001 -8.460350e+000 28 17 20
1.144641e+000 1.425377e+000 -8.308368e+000 69 41 27
-2.863675e-001 1.588905e+000 -1.003640e+001 64 43 16
-2.863675e-001 1.588905e+000 -1.003640e+001 64 43 16
-4.790093e+000 4.342518e+000 -2.049932e+001 192 191 186
-4.748698e+000 4.297306e+000 -2.059542e+001 163 162 157
-4.637286e+000 4.290717e+000 -2.045984e+001 232 229 222
-3.961913e-001 2.806715e-002 -8.786977e+000 147 146 128
-1.987263e-002 5.166469e-002 -8.797977e+000 135 124 110
1.520496e-001 1.579069e-002 -8.718201e+000 26 20 22
-1.920572e+000 -1.897439e-001 -8.093126e+000 141 116 86
-1.097561e+000 -1.973259e-001 -8.223644e+000 55 34 12
-1.097561e+000 -1.973259e-001 -8.223644e+000 55 34 12
-5.223557e-001 -1.733872e-001 -8.690334e+000 143 131 109
-2.738669e+000 -3.123853e-001 -8.263211e+000 177 139 100
-1.347897e+000 -1.171745e+000 -8.067554e+000 97 74 52
1.242945e+000 2.038954e+000 -8.287932e+000 62 41 26
-1.449265e-001 1.888057e+000 -1.020347e+001 120 104 80
-4.534904e+000 4.455770e+000 -2.080143e+001 90 87 95
-7.797548e-002 3.224829e-001 -8.958281e+000 20 17 13
-3.787974e-001 2.067471e-001 -8.953908e+000 29 25 21
1.146940e-001 3.880909e-003 -8.698491e+000 29 20 14
-4.374627e-001 -2.511560e-001 -8.336349e+000 111 35 36
-9.366841e-001 -7.739092e-001 -8.355749e+000 98 89 71
-2.576361e-001 -1.110942e+000 -8.407481e+000 23 17 18
-1.385922e+000 -1.306771e+000 -8.069198e+000 64 45 43
-2.767003e+000 -1.380578e+000 -8.192690e+000 192 157 123
1.814031e+000 4.240270e-001 -6.977432e+000 68 44 35
4.553012e-001 5.624196e-002 -8.721828e+000 133 127 102
1.104819e+000 6.544291e-002 -8.562935e+000 69 65 64
6.900144e-001 -1.136436e-001 -8.701942e+000 20 15 11
-2.256772e+000 1.634052e-002 -8.272732e+000 168 139 105
-1.928806e+000 -2.925828e-001 -8.221422e+000 78 52 29
-6.959463e-001 -9.423743e-001 -8.540395e+000 155 150 130
-1.684544e+001 4.990496e-001 -3.265610e+001 213 209 206
-3.134523e-001 8.794002e-001 -9.983955e+000 111 94 68
1.190846e+000 2.820387e-001 -8.711338e+000 87 83 78
2.599337e-001 -9.174934e-002 -8.695252e+000 137 130 104
3.076722e-001 8.943686e-003 -8.718142e+000 134 127 105
-2.656528e+000 -2.483526e-002 -8.469105e+000 132 89 42
-3.948535e-001 -4.327761e-001 -8.594484e+000 131 129 107
-4.582426e-001 -4.689050e-001 -8.598431e+000 26 25 20
4.546088e-001 -6.067804e-001 -8.604386e+000 22 20 25
-5.479706e-001 -6.814760e-001 -8.548984e+000 29 23 22
1.346309e-002 -7.754386e-001 -8.522826e+000 23 16 19
-7.298319e-001 -1.043969e+000 -8.526331e+000 142 139 124
-7.531269e-001 -1.166015e+000 -8.585248e+000 124 125 119
1.763870e+000 5.277463e-001 -7.054216e+000 181 161 120
-2.761011e-001 1.445322e+000 -9.966369e+000 130 109 80
1.558631e+000 2.768936e-002 -7.065800e+000 82 39 23
1.636776e-001 -7.227061e-001 -8.549175e+000 23 20 24
-2.084578e+000 -7.440146e-001 -7.924130e+000 151 125 95
-2.084578e+000 -7.440146e-001 -7.924130e+000 151 125 95
-9.885014e-001 -9.314943e-001 -8.294881e+000 116 86 61
4.754877e-004 -9.507059e-001 -8.469262e+000 117 109 89
-7.408494e-002 -9.751672e-001 -8.449812e+000 23 20 22
6.683003e-001 -1.802239e+000 -7.812377e+000 187 153 115
1.692687e+000 9.254336e-001 -7.562517e+000 36 20 22
2.534302e+000 7.044737e-002 -7.348340e+000 28 19 20
9.456636e-001 -1.624922e-001 -8.598200e+000 41 37 38
-1.704453e+001 1.396377e+000 -3.262483e+001 45 44 48
-4.015336e-001 1.792215e-001 -8.945617e+000 155 148 132
-5.860277e-001 -9.534218e-002 -8.757454e+000 24 19 24
-4.969189e-001 5.383859e-002 -8.841204e+000 37 25 27
-1.664248e-001 2.436564e-001 -8.914446e+000 33 26 16
-2.064435e-002 1.646073e-001 -8.774480e+000 30 27 28
-4.661593e-001 1.165282e-001 -8.881968e+000 36 27 19
-4.593238e-001 3.129834e-002 -8.839307e+000 138 132 116
-5.351686e-001 1.420169e-001 -8.932994e+000 28 28 17
-5.351686e-001 1.420169e-001 -8.932994e+000 28 28 17
-2.429892e-001 2.606124e-001 -8.947844e+000 28 25 15
-2.429892e-001 2.606124e-001 -8.947844e+000 28 25 15
-2.171812e-001 2.157280e-001 -8.878422e+000 131 120 103
-4.326542e-001 1.639459e-001 -8.931023e+000 102 95 77
-1.491478e-001 2.963423e-001 -8.956185e+000 115 110 79
-3.087926e+000 3.202806e+000 -1.928192e+001 163 162 168
-4.796588e-001 1.120206e+000 -9.943090e+000 166 138 100
-3.826337e+000 2.730211e+000 -1.925227e+001 173 172 169
9.062011e-001 4.671522e-001 -8.898174e+000 19 17 18
7.869086e-001 3.453847e-001 -8.960804e+000 52 50 53
-3.151041e-001 1.781944e-001 -8.892570e+000 31 27 15
-1.117579e+000 -8.772809e-001 -8.194569e+000 122 96 69
-1.864053e+000 -9.648875e-001 -7.915420e+000 126 91 63
-1.272267e+000 -9.945314e-001 -8.156660e+000 72 42 24
2.235273e-001 -1.855574e+000 -8.032653e+000 138 110 86
1.074305e+000 1.669472e+000 -8.307961e+000 94 81 72
7.873692e-001 1.634549e+000 -8.530754e+000 35 21 15
9.703704e-001 1.557924e+000 -8.382945e+000 29 15 15
-4.024336e-001 1.845770e+000 -1.002077e+001 149 110 69
-4.364683e+000 3.709380e+000 -2.045366e+001 190 194 205
-4.250735e+000 3.615658e+000 -2.053601e+001 166 172 184
-1.008497e-001 1.137108e+000 -1.009133e+001 67 48 34
1.843519e+000 7.419163e-002 -6.859296e+000 188 151 106
-1.905533e-001 3.402469e-001 -9.027990e+000 26 20 22
-2.148119e+000 6.704486e-002 -8.287443e+000 144 114 88
-2.785379e+000 -3.406186e-001 -8.315800e+000 124 85 49
-2.614002e+000 -5.282546e-001 -8.146857e+000 106 64 24
-1.005211e+000 -6.403994e-001 -8.464498e+000 85 68 55
-1.077388e+000 -7.313036e-001 -8.344823e+000 80 55 25
-1.793666e+000 -8.280041e-001 -7.878966e+000 159 124 96
-1.295213e+000 -9.321705e-001 -8.112511e+000 87 52 30
-2.933739e-001 -1.116235e+000 -8.372576e+000 23 18 14
-1.512152e+000 -1.190206e+000 -8.047834e+000 75 54 47
-7.199834e-003 -1.408488e+000 -8.186123e+000 39 27 26
-4.505150e-001 1.617460e+000 -1.010827e+001 89 58 22
-3.928352e+000 2.749653e+000 -1.932416e+001 231 228 223
4.218787e-001 3.261500e-001 -8.909787e+000 61 56 53
-1.991558e+000 9.121021e-002 -8.323060e+000 113 84 52
-9.732269e-001 3.148513e-001 -9.293204e+000 45 41 39
1.162367e+000 6.025121e-003 -8.637895e+000 45 40 36
-3.616299e-001 -8.710901e-002 -8.707216e+000 105 29 42
-1.049606e+000 -6.106616e-001 -8.433904e+000 34 14 4
-1.424209e+000 -6.753088e-001 -8.071932e+000 132 98 73
-2.632955e+000 -8.734553e-001 -8.080476e+000 173 143 109
-2.304726e+000 -7.838438e-001 -7.908781e+000 162 139 105
-1.060277e+000 -9.171767e-001 -8.249690e+000 125 101 76
-1.714022e+000 -1.003797e+000 -7.989634e+000 68 35 16
-1.242462e+000 -1.361262e+000 -8.246464e+000 31 16 11
-1.822279e+000 -1.382126e+000 -7.968763e+000 33 20 21
-2.281696e-001 -1.602087e+000 -8.236902e+000 127 118 113
2.034022e-001 -1.823177e+000 -8.038829e+000 68 42 25
7.519419e-001 1.714147e+000 -8.629221e+000 48 34 25
1.780924e+000 1.503705e+000 -8.353916e+000 115 94 77
-1.554504e-001 1.944383e+000 -1.022139e+001 37 20 13
-6.160263e-004 1.953266e+000 -1.039544e+001 34 20 18
-4.462206e+000 3.665899e+000 -2.025434e+001 222 226 238
-4.418153e+000 3.629271e+000 -2.069040e+001 241 245 253
-2.655427e-001 1.038343e+000 -9.975519e+000 101 80 59
1.950449e+000 3.185181e-001 -6.918226e+000 64 39 28
1.950449e+000 3.185181e-001 -6.918226e+000 64 39 28
1.734525e+000 1.976185e-001 -6.909548e+000 94 56 33
2.278932e+000 1.778003e-001 -7.054794e+000 46 28 24
4.035257e-001 3.870350e-001 -8.916355e+000 123 122 111
1.246088e+000 3.529180e-001 -8.761529e+000 13 9 12
1.537097e+000 1.216647e-001 -7.058048e+000 185 141 96
5.288157e-002 -1.206158e-002 -8.685636e+000 133 127 103
5.438307e-001 -1.489075e-001 -8.655619e+000 30 28 26
6.515763e-001 -4.541979e-001 -8.695689e+000 33 31 23
-2.052871e+000 -5.141587e-001 -8.010092e+000 122 91 62
6.919816e-001 -6.022734e-001 -8.685216e+000 28 28 27
7.587651e-001 -5.850783e-001 -8.652347e+000 118 113 112
-1.946895e+000 -6.343040e-001 -7.994260e+000 93 62 33
8.278075e-001 -8.629108e-001 -8.024597e+000 49 42 35
-2.183340e+000 -7.598825e-001 -7.934042e+000 93 58 31
-1.189465e+000 -9.023462e-001 -8.142843e+000 119 84 61
-1.271790e-001 -1.075984e+000 -8.450905e+000 18 18 22
-7.531269e-001 -1.166015e+000 -8.585248e+000 124 125 119
-7.215404e-001 -1.228122e+000 -8.549648e+000 25 24 29
-7.215404e-001 -1.228122e+000 -8.549648e+000 25 24 29
-6.710273e-001 -1.182799e+000 -8.509926e+000 139 139 135
-5.816667e-001 -1.205481e+000 -8.437442e+000 150 150 142
4.410004e-001 -1.474857e+000 -7.731815e+000 77 39 21
4.827423e+000 1.768509e+000 -9.383861e+000 94 78 71
1.763870e+000 5.277463e-001 -7.054216e+000 181 161 120
-1.206203e+001 5.908376e+000 -3.527204e+001 21 22 26
4.016995e-001 2.273381e-001 -8.874778e+000 21 16 16
3.305484e-001 -4.919006e-001 -8.633509e+000 143 136 109
6.727827e-001 -5.279709e-001 -8.678811e+000 149 143 121
-1.980860e+000 -4.686868e-001 -7.979525e+000 151 127 93
3.889872e-001 -6.394160e-001 -8.607090e+000 137 130 111
2.681915e-001 -7.696209e-001 -8.565163e+000 21 16 22
3.440846e-001 -7.413083e-001 -8.594885e+000 104 97 72
8.641812e-001 -7.728003e-001 -7.807497e+000 120 108 86
-4.505600e-001 -1.123287e+000 -8.385632e+000 135 129 113
4.277600e-001 -1.043273e+000 -7.926821e+000 81 43 31
-5.156740e-001 -1.166433e+000 -8.398649e+000 34 31 32
7.862620e-001 -1.459419e+000 -7.557322e+000 204 167 122
-2.394906e+000 -1.477414e+000 -8.124768e+000 137 108 86
6.462755e-001 -1.690693e+000 -7.726913e+000 194 161 121
5.088874e-001 1.992501e+000 -8.711098e+000 150 126 93
7.250485e-001 1.445468e+000 -9.103313e+000 70 65 61
4.158939e-001 7.159551e-001 -9.479465e+000 19 17 23
9.395002e-002 2.749806e-001 -8.872634e+000 99 93 81
5.074342e-001 2.661638e-001 -8.909472e+000 111 104 93
-2.049655e+000 -9.124087e-001 -7.849507e+000 129 92 63
-3.190501e+000 3.248943e+000 -1.922632e+001 254 254 252
-4.641509e-001 9.134908e-001 -1.000357e+001 71 56 41
-2.237231e+000 -1.019869e+000 -7.912187e+000 117 78 48
-2.541866e+000 -1.313432e+000 -8.105689e+000 141 109 81
-9.388411e-001 -1.495749e+000 -9.034918e+000 163 169 182
-4.297798e+000 4.144999e+000 -2.068979e+001 79 78 86
-5.524336e-001 1.352175e+000 -1.002154e+001 67 40 20
-4.945321e-001 1.083455e+000 -1.003609e+001 152 121 82
5.543318e-002 1.155680e+000 -9.928801e+000 59 46 40
8.082979e-001 4.443921e-001 -8.919483e+000 24 23 21
-1.773720e+000 -1.250707e-001 -8.117401e+000 68 41 24
-2.397871e+000 -1.738627e+000 -8.194644e+000 94 77 57
-1.435220e+001 -3.089041e+000 -3.349312e+001 13 12 17
7.064335e-001 9.904601e-001 -9.055569e+000 65 58 52
7.315536e-001 -4.855059e-001 -8.683071e+000 25 28 20
-1.728129e+001 1.262640e+000 -3.192188e+001 186 184 188
-1.829688e+001 -3.571510e+000 -3.588525e+001 17 15 18
-1.941391e+001 -3.478824e+000 -3.529170e+001 213 204 196
-1.855145e+001 -4.062364e+000 -3.954300e+001 195 183 167
4.980257e-001 2.463516e+000 -8.701810e+000 75 63 52
3.350917e+000 3.191046e+000 -1.140475e+001 48 37 30
1.475839e+000 1.925149e+000 -8.269315e+000 70 45 23
3.429084e+000 2.738736e+000 -1.105163e+001 24 14 13
3.428584e+000 2.708858e+000 -1.107796e+001 61 51 49
3.576928e+000 2.689327e+000 -1.092703e+001 37 27 26
3.821799e+000 2.477989e+000 -1.041518e+001 91 78 72
-4.525854e+000 4.477845e+000 -2.053017e+001 127 126 132
-6.975139e-001 3.333204e+000 -1.437027e+001 24 20 21
9.363128e-001 1.760822e+000 -8.234729e+000 44 31 22
3.988901e+000 2.366088e+000 -1.028035e+001 77 63 63
9.662166e-001 1.686897e+000 -8.241891e+000 49 36 28
1.387912e+000 1.603065e+000 -8.237198e+000 73 41 20
3.988523e+000 2.211412e+000 -1.041497e+001 31 20 21
-4.250735e+000 3.615658e+000 -2.053601e+001 166 172 184
-4.560195e-001 1.888837e+000 -9.910392e+000 127 90 50
-4.761719e-001 1.862277e+000 -1.007903e+001 164 129 89
-1.223097e-001 1.831053e+000 -1.014573e+001 57 39 18
4.571361e+000 1.683596e+000 -9.515407e+000 37 26 24
4.766561e+000 1.660363e+000 -9.323595e+000 45 35 27
-2.546498e-001 1.710823e+000 -1.008659e+001 50 33 5
4.886349e+000 1.423744e+000 -9.035717e+000 117 99 94
-3.780196e+000 2.825051e+000 -1.946603e+001 183 182 180
-3.195583e+000 2.557653e+000 -2.006056e+001 57 57 62
-3.195583e+000 2.557653e+000 -2.006056e+001 57 57 62
-6.601018e-001 1.230057e+000 -1.000523e+001 155 126 96
-6.249285e-001 1.143247e+000 -9.951853e+000 98 69 35
-5.502002e-001 1.335436e+000 -1.002629e+001 62 37 15
-5.045103e-001 1.283690e+000 -9.952848e+000 69 42 25
-5.021556e-001 1.234885e+000 -9.898399e+000 164 143 109
-5.474843e-001 1.166367e+000 -9.883742e+000 161 132 98
-7.304581e-001 1.114775e+000 -1.008370e+001 102 71 43
-5.434250e-001 9.545522e-001 -9.945769e+000 89 66 44
-1.636745e-001 1.111181e+000 -1.003509e+001 60 42 22
2.330696e+000 7.050736e-001 -7.382654e+000 110 94 78
-3.533700e+000 1.824140e+000 -1.944585e+001 30 33 37
-9.292864e-002 8.578113e-001 -1.003962e+001 53 40 33
1.310879e+000 4.710831e-001 -7.297427e+000 188 151 106
1.653155e+000 4.430973e-001 -7.101339e+000 148 116 78
-1.896897e+000 3.341572e-001 -8.593929e+000 118 84 59
-1.846467e+000 3.312737e-001 -8.569340e+000 118 84 59
-9.961205e-001 4.998484e-001 -9.456510e+000 43 38 29
1.475313e-001 3.717678e-001 -9.021989e+000 134 131 113
3.381395e-001 3.359216e-001 -8.910877e+000 62 59 54
4.200196e-001 3.450450e-001 -8.925457e+000 64 56 53
7.869086e-001 3.453847e-001 -8.960804e+000 52 50 53
-2.258766e+000 1.478878e-001 -8.363025e+000 175 147 108
-2.039954e+000 1.984037e-001 -8.508501e+000 56 28 12
-1.985920e+000 2.600679e-001 -8.511168e+000 101 68 43
-4.946856e-001 1.661165e-001 -8.948944e+000 136 130 114
7.975032e-001 3.075916e-001 -8.971093e+000 18 17 19
1.919140e+000 1.215221e-001 -6.961525e+000 151 119 88
2.402802e+000 1.819220e-001 -7.168251e+000 42 25 15
-2.708710e+000 3.198510e-002 -8.513760e+000 182 140 95
-2.069142e+000 1.234644e-001 -8.328056e+000 123 93 70
-1.861260e+000 -3.812093e-003 -8.342903e+000 60 33 21
-1.368446e+000 1.038650e-002 -8.145892e+000 138 118 94
-1.345004e+000 3.643652e-002 -8.189074e+000 73 54 35
-1.239032e+000 5.812561e-002 -8.248986e+000 123 106 80
-1.240601e+000 2.842847e-002 -8.250551e+000 51 33 12
-1.240601e+000 2.842847e-002 -8.250551e+000 51 33 12
-1.164676e+000 -1.183684e-002 -8.326275e+000 118 102 80
-1.130340e+000 -1.203187e-002 -8.343361e+000 119 103 79
-6.291090e-001 6.884285e-002 -8.906477e+000 157 135 110
-6.033424e-001 1.268235e-001 -8.957439e+000 117 107 91
2.649866e-001 5.413562e-002 -8.728293e+000 24 20 7
1.892636e+000 -5.320004e-003 -6.881437e+000 106 68 31
2.705715e+000 3.687649e-002 -7.433816e+000 73 63 64
2.705715e+000 3.687649e-002 -7.433816e+000 73 63 64
-2.351123e+000 -1.143694e-001 -8.218271e+000 174 144 109
-2.129842e+000 -1.177517e-001 -8.172482e+000 155 129 96
-2.129842e+000 -1.177517e-001 -8.172482e+000 155 129 96
-2.047256e+000 -1.024984e-001 -8.187790e+000 78 47 20
-1.425479e+000 -1.346905e-001 -8.091546e+000 158 142 109
-1.814454e-001 -3.784259e-002 -8.701958e+000 78 40 41
6.537740e-001 -5.621120e-002 -8.683613e+000 107 103 89
5.595092e-001 -1.194847e-001 -8.674315e+000 24 18 19
1.949678e+000 -2.894200e-002 -6.830020e+000 167 128 92
-1.053295e+000 -2.506549e-001 -9.441594e+000 51 45 43
-7.776332e-001 -2.829480e-001 -8.817497e+000 76 73 57
-5.089915e-001 -2.142108e-001 -8.652066e+000 130 117 98
-4.412778e-001 -2.333501e-001 -8.658829e+000 116 42 37
1.327504e+001 1.766517e+000 3.050816e+001 122 113 96
-2.048491e+000 -4.248643e-001 -8.015504e+000 143 114 81
-1.941969e+000 -5.961416e-001 -8.023882e+000 141 112 82
-1.830155e+000 -5.841075e-001 -8.077886e+000 79 53 28
-1.766513e+000 -5.720322e-001 -8.035141e+000 96 77 60
-1.688990e+000 -5.478582e-001 -8.062496e+000 125 109 84
-9.334687e-001 -6.420879e-001 -8.451281e+000 55 44 43
-5.984855e-002 -6.600739e-001 -8.526829e+000 28 25 18
-1.829764e+000 -7.357852e-001 -7.942134e+000 97 63 35
-1.365642e+000 -7.334496e-001 -8.067119e+000 127 92 70
-1.128460e+000 -7.756740e-001 -8.207281e+000 127 100 71
-4.515188e-001 -8.551466e-001 -8.482683e+000 135 132 113
-1.402549e+000 -8.653525e-001 -8.038104e+000 125 90 68
-1.034279e+000 -9.893313e-001 -8.352886e+000 75 50 28
-2.535226e+000 -9.826182e-001 -7.980344e+000 173 140 107
-1.865098e+000 -1.000474e+000 -7.949028e+000 77 41 19
-1.746715e+000 -1.109310e+000 -7.970626e+000 74 36 17
-2.277323e-002 -1.093472e+000 -8.480305e+000 12 10 13
8.474273e-001 -9.804256e-001 -7.676113e+000 72 39 20
9.922678e-001 -1.070668e+000 -7.624015e+000 85 49 24
-1.673996e+001 -5.664470e+000 -3.767499e+001 180 172 161
-2.748883e+000 -1.273336e+000 -8.133982e+000 169 122 80
-1.796442e+000 -1.277368e+000 -8.086864e+000 48 26 15
-1.664690e+000 -1.257012e+000 -8.004694e+000 73 54 41
-1.464034e+000 -1.258168e+000 -8.016136e+000 113 91 78
-1.464034e+000 -1.258168e+000 -8.016136e+000 113 91 78
-8.270468e-001 -1.261514e+000 -8.664708e+000 132 129 134
-1.546588e-001 -1.191229e+000 -8.416716e+000 37 31 25
6.769308e-001 -1.123111e+000 -7.583931e+000 156 124 105
-2.210314e+000 -1.341051e+000 -8.083576e+000 36 23 19
-1.502687e+000 -1.321530e+000 -8.044174e+000 31 16 15
-1.442173e+000 -1.384553e+000 -8.103052e+000 59 45 44
-1.365338e+000 -1.342720e+000 -8.080629e+000 28 15 15
-1.148959e+000 -1.356804e+000 -8.358260e+000 43 26 19
-5.938100e-001 -1.379537e+000 -8.456221e+000 132 127 124
-1.617949e+000 -1.680760e+000 -8.217704e+000 37 22 19
-2.828643e-002 -1.758494e+000 -8.128106e+000 29 20 27
6.554090e-002 -1.608675e+000 -7.987338e+000 34 24 23
1.827237e-001 -1.682402e+000 -7.939278e+000 53 35 28
1.042077e+000 -1.594213e+000 -7.695727e+000 169 126 84
2.463097e-001 -1.872522e+000 -8.048474e+000 61 37 22
6.341748e-001 2.276953e+000 -8.391190e+000 166 124 87
1.157586e+000 2.093247e+000 -8.261174e+000 73 56 30
1.157586e+000 2.093247e+000 -8.261174e+000 73 56 30
3.184081e+000 2.935542e+000 -1.123768e+001 78 69 64
8.279797e-001 1.943799e+000 -8.292934e+000 65 41 27
1.302737e+000 1.994744e+000 -8.271332e+000 61 44 16
1.463362e+000 1.960785e+000 -8.271835e+000 167 152 113
7.886669e-001 1.923986e+000 -8.528082e+000 83 56 38
8.676273e-001 1.794309e+000 -8.340573e+000 104 81 69
1.620390e+000 1.896095e+000 -8.364656e+000 66 40 22
1.620390e+000 1.896095e+000 -8.364656e+000 66 40 22
4.134752e+000 2.201702e+000 -1.010080e+001 81 67 58
9.647670e-001 1.717725e+000 -8.223496e+000 121 107 91
4.357084e+000 1.964259e+000 -9.930258e+000 43 32 30
4.427512e+000 1.907756e+000 -9.754359e+000 43 29 29
-3.951320e+000 4.156506e+000 -2.148874e+001 95 94 101
-3.013144e+000 3.443699e+000 -1.901995e+001 152 151 147
-3.522914e-001 1.826347e+000 -9.829232e+000 108 72 41
8.694922e-001 1.557452e+000 -8.434897e+000 127 112 93
1.484376e+000 1.543732e+000 -8.263771e+000 70 36 11
4.466125e+000 1.651413e+000 -9.522846e+000 42 30 29
4.596358e+000 1.683618e+000 -9.419416e+000 89 76 68
4.764504e+000 1.638752e+000 -9.371079e+000 107 97 88
-4.065447e-001 1.688852e+000 -1.009536e+001 105 75 38
-5.362918e-001 1.615365e+000 -1.008805e+001 108 70 33
4.775552e+000 1.474276e+000 -9.225605e+000 41 29 29
-3.695003e+000 2.342220e+000 -1.907971e+001 158 161 169
-4.584401e-001 1.178247e+000 -9.938418e+000 115 87 50
-2.079515e-001 1.285964e+000 -1.001163e+001 59 42 21
-2.079515e-001 1.285964e+000 -1.001163e+001 59 42 21
-2.340328e-001 1.172775e+000 -9.997903e+000 82 64 42
6.183569e-001 8.996158e-001 -9.237527e+000 63 58 56
1.718489e+000 7.630468e-001 -7.204155e+000 159 143 107
7.020514e-001 6.993542e-001 -9.147250e+000 22 17 23
-7.320516e-001 5.329910e-001 -9.400119e+000 31 26 19
1.395350e+000 4.826571e-001 -7.232622e+000 210 171 127
-2.148331e+000 3.346140e-001 -8.573224e+000 159 126 89
-2.071843e+000 3.349823e-001 -8.526905e+000 143 108 80
-1.979191e+000 3.012422e-001 -8.480856e+000 87 51 27
-3.723544e-002 4.208591e-001 -9.093064e+000 98 98 88
-1.411031e-001 4.068806e-001 -9.094953e+000 30 21 26
5.911983e-002 3.512723e-001 -8.994383e+000 28 24 13
3.728383e-001 4.900219e-001 -9.000208e+000 72 67 60
4.616306e-001 3.861236e-001 -8.850783e+000 59 55 46
9.120117e-001 4.270210e-001 -8.880063e+000 39 37 40
1.599890e+000 2.830101e-001 -7.064513e+000 129 84 43
1.823071e+000 2.641942e-001 -6.888542e+000 167 138 95
-2.106907e+000 2.908238e-001 -8.584281e+000 85 49 23
-2.113145e+000 1.489999e-001 -8.425198e+000 78 45 26
-1.778147e+000 2.426920e-001 -8.614573e+000 75 53 40
-7.309687e-001 1.855207e-001 -9.056825e+000 30 27 22
-5.947400e-002 2.822578e-001 -8.879187e+000 138 132 117
4.966788e-001 2.985899e-001 -8.824307e+000 130 123 113
5.455206e-001 2.947585e-001 -8.881637e+000 58 53 46
1.699344e+000 2.371790e-001 -6.902899e+000 200 162 115
1.699344e+000 2.371790e-001 -6.902899e+000 200 162 115
1.690302e+000 1.489690e-001 -6.949960e+000 130 82 43
1.690302e+000 1.489690e-001 -6.949960e+000 130 82 43
-1.875042e+000 -1.410970e-002 -8.243249e+000 111 83 59
-1.385165e+000 6.344117e-002 -8.202203e+000 127 107 83
-1.216989e+000 -2.802584e-003 -8.244947e+000 129 109 83
1.154895e+000 5.266541e-002 -8.314256e+000 104 100 91
1.782413e+000 1.006608e-001 -6.940867e+000 102 60 36
-1.999364e+000 -1.052040e-001 -8.149352e+000 156 127 97
-1.999364e+000 -1.052040e-001 -8.149352e+000 156 127 97
-1.895466e+000 -7.134403e-002 -8.235022e+000 65 37 15
-7.697044e-001 -1.945356e-001 -8.784682e+000 78 76 65
-2.409120e-001 -6.432624e-002 -8.763200e+000 18 22 24
1.522519e+000 -6.707756e-002 -7.001266e+000 158 112 76
1.903495e+000 -8.472263e-002 -6.864803e+000 136 100 68
1.903495e+000 -8.472263e-002 -6.864803e+000 136 100 68
2.661510e+000 -6.307734e-002 -7.367636e+000 65 56 53
-2.310513e+000 -1.943030e-001 -8.177647e+000 168 140 106
1.358267e+000 -3.023719e-001 -8.140584e+000 72 69 62
2.403186e+000 -2.184413e-001 -7.195819e+000 31 15 15
-2.047953e+000 -3.893232e-001 -8.031444e+000 160 131 101
-1.912954e+000 -3.631938e-001 -8.111789e+000 64 36 12
-1.912954e+000 -3.631938e-001 -8.111789e+000 64 36 12
-1.646396e+000 -4.019234e-001 -8.256755e+000 64 42 19
-1.662674e+001 -2.676371e+000 -3.781224e+001 193 185 162
-2.377020e+000 -6.060423e-001 -8.006491e+000 172 149 112
-1.784710e+000 -5.245142e-001 -8.074109e+000 32 21 18
-1.527399e+000 -5.743468e-001 -8.131880e+000 112 83 57
-1.725369e+000 -6.898155e-001 -7.981447e+000 92 59 33
-1.111750e+000 -7.111803e-001 -8.346397e+000 109 84 54
-9.679324e-001 -7.312483e-001 -8.378950e+000 64 48 24
-9.475317e-001 -8.444454e-001 -8.368469e+000 89 74 59
-2.145110e+000 -8.153420e-001 -7.914022e+000 137 103 76
-1.628510e+000 -8.396827e-001 -8.029596e+000 105 70 48
-1.229319e+000 -9.189028e-001 -8.102364e+000 83 47 25
-2.564846e+000 -1.006991e+000 -7.963327e+000 148 114 79
-2.525716e+000 -1.020820e+000 -7.927338e+000 178 142 106
-2.053651e+000 -1.053274e+000 -7.898390e+000 127 86 64
-1.568292e+000 -1.029825e+000 -7.976275e+000 94 62 44
-1.096428e+000 -1.131194e+000 -8.272036e+000 73 46 25
-1.942881e-001 -1.180576e+000 -8.398322e+000 79 73 68
5.708394e-001 -9.720459e-001 -7.799183e+000 76 40 18
8.139321e-001 -9.745071e-001 -7.652235e+000 132 100 73
-1.387857e+000 -1.156511e+000 -8.079056e+000 49 27 14
-1.387857e+000 -1.156511e+000 -8.079056e+000 49 27 14
-1.230913e+000 -1.157758e+000 -8.194114e+000 67 38 24
-1.089132e+000 -1.215679e+000 -8.401299e+000 60 37 24
-1.089132e+000 -1.215679e+000 -8.401299e+000 60 37 24
-1.097852e+000 -1.302846e+000 -8.396888e+000 39 20 16
-1.179289e-001 -1.216662e+000 -8.453465e+000 94 87 77
5.851195e-001 -1.186436e+000 -7.698505e+000 84 46 23
-1.570821e+000 -1.358984e+000 -8.014657e+000 43 35 32
-3.347964e-002 -1.389083e+000 -8.200261e+000 115 105 95
9.539888e-001 -1.233865e+000 -7.571387e+000 145 104 74
1.453108e-001 -1.510278e+000 -7.916742e+000 136 111 95
2.701806e-001 -1.509063e+000 -7.838882e+000 171 145 123
6.224644e-001 -1.563224e+000 -7.652273e+000 209 167 129
8.760078e-002 -1.812612e+000 -8.049058e+000 53 36 27
-1.052817e+001 -6.173105e+000 -2.596445e+001 43 45 63
-9.507970e+000 -8.033123e+000 -2.558438e+001 165 157 154
3.280259e+000 3.073365e+000 -1.127037e+001 36 25 25
3.280259e+000 3.073365e+000 -1.127037e+001 36 25 25
3.403200e+000 3.062274e+000 -1.126849e+001 30 19 13
1.034730e+000 2.241289e+000 -8.348522e+000 80 58 35
1.064103e+000 2.192848e+000 -8.352848e+000 180 161 122
1.064103e+000 2.192848e+000 -8.352848e+000 180 161 122
1.105247e+000 2.149056e+000 -8.307145e+000 67 48 18
3.639828e+000 2.865699e+000 -1.100251e+001 53 44 37
1.323344e+000 1.943357e+000 -8.211978e+000 161 145 112
1.519628e+000 1.920000e+000 -8.281772e+000 157 136 104
4.033176e+000 2.206292e+000 -1.032371e+001 24 15 19
8.782171e-001 1.669331e+000 -8.414356e+000 118 98 72
1.392058e+000 1.749049e+000 -8.278464e+000 70 43 24
3.999254e+000 2.166938e+000 -1.033998e+001 55 43 43
4.554687e+000 1.851318e+000 -9.597111e+000 39 29 27
4.827101e+000 1.851096e+000 -9.534613e+000 40 28 32
-4.185581e+000 3.673811e+000 -2.018128e+001 248 252 253
-3.970973e-001 1.897484e+000 -9.971675e+000 157 121 83
1.382293e+000 1.577747e+000 -8.277326e+000 105 78 51
4.299201e+000 1.805576e+000 -9.765936e+000 57 43 40
4.544382e+000 1.745532e+000 -9.499755e+000 31 21 20
4.544382e+000 1.745532e+000 -9.499755e+000 31 21 20
4.457502e+000 1.734410e+000 -9.505782e+000 74 63 57
1.330993e+000 1.343324e+000 -8.540066e+000 25 17 16
4.667973e+000 1.446838e+000 -9.222038e+000 30 21 20
4.860967e+000 1.321242e+000 -9.112479e+000 27 16 17
-4.397864e-001 1.286215e+000 -9.867521e+000 152 134 95
1.623784e+000 9.208498e-001 -7.578606e+000 130 96 61
4.817833e+000 1.185983e+000 -8.928551e+000 28 16 18
6.254383e-001 9.597830e-001 -9.281030e+000 37 35 40
4.483071e-001 8.924441e-001 -9.441986e+000 52 47 51
4.483071e-001 8.924441e-001 -9.441986e+000 52 47 51
1.380189e+000 6.787040e-001 -7.318733e+000 148 106 60
-1.658334e+001 1.775168e+000 -3.150063e+001 59 71 123
3.285775e-002 7.026718e-001 -9.904589e+000 33 29 30
1.420760e+000 5.361355e-001 -7.179819e+000 214 181 136
-2.179890e+000 3.487073e-001 -8.521421e+000 106 72 35
-1.857121e+000 3.720889e-001 -8.600994e+000 93 59 34
-1.172183e+000 3.917678e-001 -9.496769e+000 151 146 121
-6.044699e-001 4.686674e-001 -9.303796e+000 124 119 99
-2.096592e-001 3.877046e-001 -9.064090e+000 133 132 102
-2.096592e-001 3.877046e-001 -9.064090e+000 133 132 102
-1.109590e-001 3.676162e-001 -9.008096e+000 117 112 93
-7.797548e-002 3.224829e-001 -8.958281e+000 20 17 13
1.769428e-001 3.747192e-001 -9.008010e+000 136 134 116
1.234587e+000 3.437063e-001 -7.729587e+000 28 22 23
-2.175553e+000 2.047097e-001 -8.419638e+000 88 57 26
-1.009792e+000 2.143733e-001 -9.253933e+000 35 31 27
-8.282173e-001 2.000440e-001 -9.116048e+000 39 32 26
-6.339698e-001 1.621878e-001 -8.991541e+000 26 23 18
1.647634e+000 2.018768e-001 -7.018646e+000 138 94 55
2.154784e+000 2.149720e-001 -6.964850e+000 61 38 32
2.154784e+000 2.149720e-001 -6.964850e+000 61 38 32
-3.085973e+000 1.910605e-002 -8.933729e+000 185 157 126
-2.548589e+000 2.789723e-002 -8.395837e+000 174 140 95
1.121794e+000 1.350173e-001 -8.677148e+000 57 53 52
1.907892e+000 8.859479e-002 -6.888271e+000 98 66 42
-1.978191e+000 -3.787585e-002 -8.213437e+000 133 105 76
-7.730333e-001 -1.555603e-001 -8.861455e+000 22 18 16
-3.097334e-002 -4.935705e-002 -8.674214e+000 19 13 12
-2.475685e+000 -2.894829e-001 -8.150795e+000 165 131 91
-2.424265e+000 -4.231487e-001 -8.218105e+000 128 94 59
-2.180428e+000 -3.538069e-001 -8.091350e+000 175 146 114
1.536373e+000 -3.659855e-001 -7.551923e+000 119 99 82
-2.255954e+000 -5.122754e-001 -7.958382e+000 175 152 121
-1.984266e+000 -5.575482e-001 -7.975417e+000 147 118 86
9.054931e-001 -5.737156e-001 -8.593812e+000 14 12 15
-2.386906e+000 -8.024529e-001 -7.974231e+000 142 116 83
-1.987214e+000 -6.762358e-001 -7.971154e+000 97 64 31
-1.336939e+000 -6.836619e-001 -8.206985e+000 76 45 17
-2.632955e+000 -8.734553e-001 -8.080476e+000 173 143 109
-7.976252e-001 -1.208601e+000 -8.608032e+000 17 15 21
-2.389813e+000 -1.166486e+000 -7.975571e+000 126 94 69
-2.389813e+000 -1.166486e+000 -7.975571e+000 126 94 69
-1.451626e+000 -1.279821e+000 -8.155809e+000 42 21 18
-5.506868e-001 -1.295242e+000 -8.443213e+000 152 147 141
3.422152e-001 -1.239280e+000 -7.820684e+000 138 105 71
5.243953e-001 -1.126674e+000 -7.736018e+000 75 31 22
8.665360e-002 -1.404508e+000 -7.946062e+000 37 23 20
-2.491957e+000 -1.483018e+000 -8.108916e+000 123 102 76
-2.079530e+000 -1.587286e+000 -8.195536e+000 100 85 72
-1.706135e+000 -1.559468e+000 -8.090470e+000 25 14 14
2.150651e-001 -1.423552e+000 -7.870642e+000 137 105 84
-1.839684e+001 -8.187182e+000 -4.090654e+001 122 115 99
-1.988742e+000 -1.641194e+000 -8.135885e+000 108 92 74
-7.793845e-002 -1.719388e+000 -8.139771e+000 25 19 23
2.325884e+000 -1.733240e+000 -8.183736e+000 61 57 56
-2.053518e+001 -9.357937e+000 -4.074513e+001 84 71 65
-9.572196e+000 -5.282031e+000 -2.396475e+001 36 35 53
2.365368e-001 -1.783379e+000 -7.954970e+000 150 120 96
5.021509e-001 -1.814557e+000 -7.847449e+000 167 131 96
-1.221253e+001 -7.114995e+000 -2.699722e+001 120 129 163
-1.233813e+001 -7.631690e+000 -2.776657e+001 19 16 47
-1.233813e+001 -7.631690e+000 -2.776657e+001 19 16 47
-1.310836e+001 -8.159864e+000 -2.875413e+001 48 38 55
-9.949024e+000 -7.501313e+000 -2.538125e+001 208 194 193
-8.984929e+000 -6.753259e+000 -2.385920e+001 173 159 140
-1.657810e+001 -9.360384e+000 -3.052627e+001 146 129 111
-1.350056e+001 -8.789159e+000 -2.823924e+001 38 35 44
-1.297671e+001 -8.742830e+000 -2.800751e+001 72 73 93
-1.258115e+001 -8.765375e+000 -2.738708e+001 68 66 86
6.833187e-001 2.298026e+000 -8.372068e+000 93 56 33
3.541295e+000 2.892582e+000 -1.088033e+001 69 57 48
4.564023e-001 1.963988e+000 -8.749192e+000 92 79 66
5.076162e-001 1.927651e+000 -8.771725e+000 146 119 94
4.012332e+000 2.307390e+000 -1.026481e+001 39 29 29
-4.400945e+000 3.986875e+000 -2.034132e+001 195 195 198
8.750540e-001 1.749116e+000 -8.367613e+000 41 27 24
1.016341e+000 1.644302e+000 -8.244998e+000 30 19 16
4.656546e+000 1.891791e+000 -9.603372e+000 79 66 60
-4.196992e+000 4.030487e+000 -2.135694e+001 106 108 113
-4.196992e+000 4.030487e+000 -2.135694e+001 106 108 113
-3.993124e+000 3.810681e+000 -2.161278e+001 82 82 84
-3.194522e-001 1.929866e+000 -1.011539e+001 90 58 33
4.756389e+000 1.712296e+000 -9.381388e+000 42 36 30
1.477014e+000 1.400296e+000 -8.472247e+000 44 27 23
-8.046249e+000 4.791675e+000 -3.387066e+001 17 12 19
-7.421247e-001 1.511064e+000 -1.006638e+001 139 97 59
-8.060175e-001 1.339803e+000 -1.027363e+001 97 66 38
1.029870e+000 1.137780e+000 -9.007307e+000 67 61 61
-1.538562e+001 4.822559e+000 -4.343904e+001 37 39 53
1.759866e+000 7.726185e-001 -7.223160e+000 72 51 46
1.791875e+000 4.612122e-001 -7.035265e+000 66 46 41
1.598598e+000 3.226503e-001 -6.959925e+000 191 150 103
-2.420484e+000 1.467958e-001 -8.481214e+000 122 82 47
1.852018e+000 1.171625e-001 -6.890161e+000 108 72 46
2.096119e+000 2.457678e-001 -6.957661e+000 67 45 31
2.278932e+000 1.778003e-001 -7.054794e+000 46 28 24
-2.580029e+000 8.002983e-002 -8.469207e+000 133 91 49
-2.580029e+000 8.002983e-002 -8.469207e+000 133 91 49
-2.146706e+000 1.346331e-002 -8.318224e+000 79 48 28
1.806331e+000 2.402829e-002 -6.914073e+000 90 49 24
-2.385157e+000 -1.174883e-001 -8.199647e+000 136 104 64
-2.385157e+000 -1.174883e-001 -8.199647e+000 136 104 64
-2.293225e+000 -1.242624e-001 -8.224157e+000 175 147 110
-2.157514e+000 -1.552495e-001 -8.176994e+000 124 95 61
-1.508807e-001 -1.673393e-001 -8.681478e+000 137 130 102
6.211849e-001 -1.242635e-001 -8.670340e+000 114 102 91
7.169862e-001 -1.807516e-001 -8.678389e+000 91 88 73
1.806515e+000 -4.640802e-002 -6.878052e+000 143 98 62
1.806515e+000 -4.640802e-002 -6.878052e+000 143 98 62
-1.654770e+000 -3.460739e-001 -8.169150e+000 92 67 44
-3.750024e-001 -2.562699e-001 -8.644613e+000 20 24 23
2.723401e-001 -3.444251e-001 -8.669189e+000 139 132 106
5.227665e-001 -3.225010e-001 -8.632463e+000 132 126 104
-2.337716e+000 -4.115974e-001 -8.106592e+000 165 136 103
-1.855572e+000 -3.734068e-001 -8.220192e+000 66 42 19
-4.582426e-001 -4.689050e-001 -8.598431e+000 26 25 20
3.999569e-001 -4.573100e-001 -8.595173e+000 33 28 29
5.804712e-001 -4.670783e-001 -8.649769e+000 116 109 91
-2.812966e+000 -5.624190e-001 -8.314098e+000 168 129 94
-2.326254e+000 -5.736826e-001 -8.010715e+000 164 142 103
-1.723414e+000 -5.693356e-001 -8.047975e+000 39 26 20
-5.479706e-001 -6.814760e-001 -8.548984e+000 29 23 22
-5.029106e-001 -5.764666e-001 -8.576901e+000 23 21 18
-5.029106e-001 -5.764666e-001 -8.576901e+000 23 21 18
1.774086e-001 -5.406845e-001 -8.561282e+000 119 112 98
4.839795e-001 -6.881032e-001 -8.656861e+000 57 52 48
4.839795e-001 -6.881032e-001 -8.656861e+000 57 52 48
5.320635e-001 -5.733146e-001 -8.645537e+000 52 48 45
5.320635e-001 -5.733146e-001 -8.645537e+000 52 48 45
6.280047e-001 -6.279603e-001 -8.750505e+000 90 83 64
5.541050e-001 -6.544448e-001 -8.697092e+000 13 12 17
6.469667e-001 -6.998973e-001 -8.731334e+000 17 15 14
6.469667e-001 -6.998973e-001 -8.731334e+000 17 15 14
7.587651e-001 -5.850783e-001 -8.652347e+000 118 113 112
7.117759e-001 -6.778482e-001 -8.700701e+000 102 98 95
-1.420316e+000 -7.307837e-001 -8.113598e+000 81 46 24
2.944626e-001 -8.480645e-001 -8.580890e+000 87 80 61
4.124268e-001 -7.139319e-001 -8.612204e+000 11 9 10
3.674084e-001 -8.175472e-001 -8.605651e+000 19 17 20
-1.931192e+000 -8.724606e-001 -7.984867e+000 78 40 20
-6.959463e-001 -9.423743e-001 -8.540395e+000 155 150 130
-6.747155e-001 -1.004171e+000 -8.516374e+000 26 22 30
-6.369673e-001 -8.891036e-001 -8.489909e+000 26 25 23
-6.095027e-001 -9.677454e-001 -8.511011e+000 134 129 110
-1.256725e+000 -1.120212e+000 -8.163578e+000 70 39 23
-1.028990e+000 -1.161855e+000 -8.296288e+000 97 72 52
-7.003761e-001 -1.116046e+000 -8.530160e+000 24 20 19
-6.710273e-001 -1.182799e+000 -8.509926e+000 139 139 135
-6.400526e-001 -1.072175e+000 -8.488640e+000 132 131 126
-6.400526e-001 -1.072175e+000 -8.488640e+000 132 131 126
-5.463847e-001 -1.091622e+000 -8.397514e+000 138 134 123
-6.112177e-001 -1.139702e+000 -8.459611e+000 24 22 22
-4.826292e-002 -1.047075e+000 -8.464372e+000 127 114 85
8.984703e-001 -1.057590e+000 -7.665444e+000 72 37 18
-2.402317e+000 -1.289478e+000 -8.147047e+000 53 30 20
-6.369941e-001 -1.252458e+000 -8.469551e+000 24 23 26
3.894472e-001 -1.241446e+000 -7.780065e+000 149 113 79
-2.482076e+000 -1.410105e+000 -8.186148e+000 85 60 41
9.077925e-001 -1.327664e+000 -7.655532e+000 89 47 25
-7.641440e-001 -1.653455e+000 -8.928563e+000 185 189 198
6.277993e-001 -1.411152e+000 -7.615555e+000 107 56 35
1.119528e+000 -1.416616e+000 -7.617145e+000 98 60 37
-1.760262e+000 -1.635576e+000 -8.111019e+000 61 47 47
4.513380e-001 -1.745113e+000 -7.845548e+000 168 127 93
-1.594555e+001 -8.719769e+000 -3.021135e+001 70 63 78
-1.543790e+001 -8.763473e+000 -2.979321e+001 54 52 67
-1.311363e+001 -8.898690e+000 -2.895417e+001 72 79 117
-1.721029e+001 -9.579019e+000 -3.017718e+001 179 159 134
3.456492e+000 2.998854e+000 -1.116466e+001 76 63 59
3.696740e+000 2.775091e+000 -1.090609e+001 46 35 31
4.379330e+000 2.485064e+000 -1.041618e+001 34 23 21
7.056681e-001 1.803961e+000 -8.595588e+000 35 25 22
1.378064e+000 1.529392e+000 -8.352048e+000 50 30 17
4.609709e+000 1.724465e+000 -9.440672e+000 86 73 65
-1.160745e+001 6.041498e+000 -3.551910e+001 17 14 21
6.453072e-001 1.535333e+000 -9.371576e+000 41 39 37
-1.465231e+001 6.260154e+000 -4.212236e+001 31 34 43
-2.761011e-001 1.445322e+000 -9.966369e+000 130 109 80
-1.479276e+001 5.313728e+000 -4.209395e+001 45 50 57
-1.478742e+001 5.035318e+000 -4.268894e+001 74 69 63
-1.478742e+001 5.035318e+000 -4.268894e+001 74 69 63
-1.018139e-001 1.219937e+000 -1.007826e+001 100 84 67
-1.350845e+001 4.574557e+000 -4.361381e+001 34 29 23
-3.493837e+000 2.054339e+000 -1.938967e+001 30 30 35
1.345821e+000 8.195377e-001 -7.669368e+000 169 136 102
1.729900e+000 5.980772e-001 -7.036727e+000 69 46 30
1.355630e+000 4.612591e-001 -7.253880e+000 155 108 62
1.662514e+000 3.798395e-001 -7.044153e+000 126 83 44
-2.418795e+000 -2.137749e-002 -8.285941e+000 120 80 44
-2.418795e+000 -2.137749e-002 -8.285941e+000 120 80 44
2.314890e-001 -1.608221e-002 -8.704410e+000 26 20 22
-2.258612e-001 -1.948446e-001 -8.654865e+000 29 28 19
-2.258612e-001 -1.948446e-001 -8.654865e+000 29 28 19
-7.430455e-002 -1.336784e-001 -8.661703e+000 27 21 22
2.592127e-003 -1.037144e-001 -8.675712e+000 131 121 100
1.073060e-001 -1.469968e-001 -8.671263e+000 124 116 93
3.371408e-001 -6.311584e-002 -8.709196e+000 23 25 22
3.371408e-001 -6.311584e-002 -8.709196e+000 23 25 22
2.599337e-001 -9.174934e-002 -8.695252e+000 137 130 104
1.836848e-001 -1.187555e-001 -8.684254e+000 26 22 20
2.136320e-001 -1.932003e-001 -8.667827e+000 123 115 93
2.900061e-001 -1.659652e-001 -8.681439e+000 24 21 23
4.132798e-001 -3.235963e-002 -8.707887e+000 140 131 116
4.410866e-001 -1.063920e-001 -8.688011e+000 29 25 28
4.410866e-001 -1.063920e-001 -8.688011e+000 29 25 28
3.660409e-001 -1.360020e-001 -8.688984e+000 142 135 106
4.681348e-001 -1.777932e-001 -8.665594e+000 144 142 117
4.681348e-001 -1.777932e-001 -8.665594e+000 144 142 117
5.156129e-001 -7.677621e-002 -8.686959e+000 137 130 103
5.156129e-001 -7.677621e-002 -8.686959e+000 137 130 103
5.438307e-001 -1.489075e-001 -8.655619e+000 30 28 26
1.185930e+000 -7.585293e-002 -8.328675e+000 91 82 73
1.873101e+000 -5.678961e-002 -6.872176e+000 195 167 128
1.873101e+000 -5.678961e-002 -6.872176e+000 195 167 128
2.296434e+000 -8.607307e-002 -7.204976e+000 29 19 18
-2.701386e+000 -2.182900e-001 -8.309827e+000 125 81 39
-3.025385e-001 -2.262360e-001 -8.655539e+000 136 130 107
-1.966868e-001 -2.660641e-001 -8.635154e+000 135 131 101
-2.738486e-001 -2.968428e-001 -8.628277e+000 24 22 25
-4.515712e-002 -2.053686e-001 -8.643155e+000 136 131 106
-9.146658e-002 -3.077098e-001 -8.614595e+000 134 127 108
-9.146658e-002 -3.077098e-001 -8.614595e+000 134 127 108
-1.679809e-001 -3.377108e-001 -8.610946e+000 30 29 24
1.371905e-001 -2.212495e-001 -8.658857e+000 25 22 23
1.517138e-002 -3.504223e-001 -8.611261e+000 135 123 107
9.040209e-002 -3.232347e-001 -8.628606e+000 26 21 24
9.040209e-002 -3.232347e-001 -8.628606e+000 26 21 24
2.424427e-001 -2.692515e-001 -8.670965e+000 25 20 16
3.163674e-001 -2.410206e-001 -8.668361e+000 142 136 110
3.927063e-001 -2.098547e-001 -8.667327e+000 28 24 24
3.927063e-001 -2.098547e-001 -8.667327e+000 28 24 24
4.946483e-001 -2.504419e-001 -8.636717e+000 27 22 26
4.946483e-001 -2.504419e-001 -8.636717e+000 27 22 26
3.462654e-001 -3.145341e-001 -8.657688e+000 23 21 22
3.462654e-001 -3.145341e-001 -8.657688e+000 23 21 22
4.205758e-001 -2.828532e-001 -8.645400e+000 153 145 126
4.205758e-001 -2.828532e-001 -8.645400e+000 153 145 126
4.461353e-001 -3.559238e-001 -8.630287e+000 25 21 18
4.461353e-001 -3.559238e-001 -8.630287e+000 25 21 18
5.712923e-001 -2.250117e-001 -8.639953e+000 124 115 92
5.712923e-001 -2.250117e-001 -8.639953e+000 124 115 92
-2.483157e+000 -4.046556e-001 -8.201433e+000 160 130 97
-1.606560e+000 -4.640373e-001 -8.172345e+000 48 30 25
-3.948535e-001 -4.327761e-001 -8.594484e+000 131 129 107
-3.197218e-001 -3.998433e-001 -8.598548e+000 25 26 28
-2.444912e-001 -3.684622e-001 -8.604350e+000 139 133 109
-2.895890e-001 -4.707805e-001 -8.572171e+000 139 132 104
-2.895890e-001 -4.707805e-001 -8.572171e+000 139 132 104
-1.814678e-001 -5.100512e-001 -8.553964e+000 138 130 109
-1.814678e-001 -5.100512e-001 -8.553964e+000 138 130 109
-6.104276e-002 -3.792639e-001 -8.594161e+000 26 20 24
4.495626e-002 -4.240484e-001 -8.593774e+000 21 21 22
1.960934e-001 -3.714910e-001 -8.645120e+000 21 20 16
2.262318e-001 -4.444896e-001 -8.629889e+000 124 116 95
2.262318e-001 -4.444896e-001 -8.629889e+000 124 116 95
3.005244e-001 -4.178479e-001 -8.638914e+000 25 22 24
3.305484e-001 -4.919006e-001 -8.633509e+000 143 136 109
2.551460e-001 -5.199242e-001 -8.620437e+000 26 21 25
3.744259e-001 -3.886028e-001 -8.643542e+000 151 147 124
3.744259e-001 -3.886028e-001 -8.643542e+000 151 147 124
5.476733e-001 -3.994529e-001 -8.648744e+000 22 17 19
-1.813257e+001 -2.658869e+000 -3.546845e+001 212 203 195
-1.861848e+000 -6.174922e-001 -7.968293e+000 138 107 79
-4.398260e-001 -5.382503e-001 -8.574928e+000 149 138 120
-4.094727e-001 -6.095455e-001 -8.548685e+000 27 22 25
-1.213574e-001 -6.556750e-001 -8.518518e+000 132 121 97
2.953095e-002 -6.007198e-001 -8.544391e+000 134 124 100
2.953095e-002 -6.007198e-001 -8.544391e+000 134 124 100
1.049867e-001 -5.719371e-001 -8.563767e+000 23 17 26
6.019374e-002 -6.747755e-001 -8.543823e+000 25 20 17
1.342457e-001 -6.496210e-001 -8.555468e+000 128 118 94
1.342457e-001 -6.496210e-001 -8.555468e+000 128 118 94
2.092251e-001 -6.194506e-001 -8.578868e+000 19 15 20
2.092251e-001 -6.194506e-001 -8.578868e+000 19 15 20
3.128373e-001 -6.677028e-001 -8.594103e+000 24 18 22
3.589434e-001 -5.664674e-001 -8.619652e+000 31 27 23
3.589434e-001 -5.664674e-001 -8.619652e+000 31 27 23
-5.700509e-001 -8.570922e-001 -8.519432e+000 141 137 112
-4.530676e-001 -7.144775e-001 -8.524769e+000 24 24 23
-3.479726e-001 -7.491596e-001 -8.497491e+000 27 26 25
-4.955156e-001 -8.200756e-001 -8.506816e+000 27 26 22
-4.230604e-001 -7.833001e-001 -8.502562e+000 138 130 114
-3.914702e-001 -8.529617e-001 -8.475835e+000 24 24 23
-3.176135e-001 -8.174256e-001 -8.465925e+000 132 131 102
-2.097716e-001 -8.563133e-001 -8.448357e+000 131 122 93
-2.097716e-001 -8.563133e-001 -8.448357e+000 131 122 93
-9.117301e-002 -7.280631e-001 -8.505392e+000 32 29 28
-9.117301e-002 -7.280631e-001 -8.505392e+000 32 29 28
-1.663124e-001 -7.553195e-001 -8.485408e+000 126 118 95
-1.663124e-001 -7.553195e-001 -8.485408e+000 126 118 95
-1.567219e-002 -7.011985e-001 -8.531455e+000 134 124 101
-1.350785e-001 -8.282723e-001 -8.467674e+000 26 21 25
-1.350785e-001 -8.282723e-001 -8.467674e+000 26 21 25
-5.905988e-002 -8.002096e-001 -8.490981e+000 110 104 84
1.346309e-002 -7.754386e-001 -8.522826e+000 23 16 19
1.176046e-001 -8.231103e-001 -8.534965e+000 27 22 29
1.176046e-001 -8.231103e-001 -8.534965e+000 27 22 29
1.929815e-001 -7.963943e-001 -8.548767e+000 138 128 98
1.929815e-001 -7.963943e-001 -8.548767e+000 138 128 98
3.440846e-001 -7.413083e-001 -8.594885e+000 104 97 72
-4.657331e-001 -8.870017e-001 -8.471662e+000 130 124 102
-1.792424e-001 -9.289389e-001 -8.433779e+000 27 24 25
-1.792424e-001 -9.289389e-001 -8.433779e+000 27 24 25
-2.550193e-001 -9.584212e-001 -8.428443e+000 140 132 111
-3.301587e-001 -9.888710e-001 -8.410423e+000 25 23 27
-1.033066e-001 -9.018039e-001 -8.453783e+000 128 118 97
-3.003492e-002 -8.763624e-001 -8.484081e+000 21 19 18
-7.408494e-002 -9.751672e-001 -8.449812e+000 23 20 22
7.263795e-002 -9.231063e-001 -8.500639e+000 21 18 24
7.263795e-002 -9.231063e-001 -8.500639e+000 21 18 24
1.482667e-001 -8.974542e-001 -8.529067e+000 116 105 82
4.754877e-004 -9.507059e-001 -8.469262e+000 117 109 89
9.986330e-002 -9.968326e-001 -8.495158e+000 97 87 64
2.192741e-001 -8.695337e-001 -8.546029e+000 17 18 21
-2.342833e+000 -1.052244e+000 -7.940177e+000 135 91 64
-1.582021e+000 -1.105454e+000 -8.037607e+000 56 27 22
-5.156740e-001 -1.166433e+000 -8.398649e+000 34 31 32
-4.785267e-001 -1.057390e+000 -8.410135e+000 29 25 23
-4.054420e-001 -1.021098e+000 -8.407658e+000 136 131 113
7.090416e-001 -1.354065e+000 -7.622964e+000 85 46 26
-2.732689e+000 -1.519389e+000 -8.110255e+000 235 219 194
-2.732689e+000 -1.519389e+000 -8.110255e+000 235 219 194
1.093948e+000 -1.464175e+000 -7.556520e+000 203 170 137
-1.997671e+001 -7.720893e+000 -3.795220e+001 165 152 130
8.736553e-001 -1.624560e+000 -7.681019e+000 209 175 137
-1.015668e+001 -5.611624e+000 -2.485175e+001 98 99 119
-1.522970e+001 -8.655009e+000 -3.025948e+001 109 103 106
-1.579675e+001 -8.966482e+000 -2.970943e+001 67 58 76
-1.644175e+001 -9.482056e+000 -3.043873e+001 196 183 168
1.097755e+000 2.201756e+000 -8.207205e+000 180 160 127
1.579953e+000 1.719592e+000 -8.297961e+000 75 47 23
-1.095798e+001 5.755695e+000 -3.702992e+001 15 12 19
6.485264e-001 1.081636e+000 -9.428732e+000 71 64 57
8.756915e-001 1.172835e+000 -9.148730e+000 37 31 33
9.459375e-001 1.089711e+000 -8.958330e+000 40 34 31
7.183158e-001 8.698095e-001 -9.083092e+000 76 71 65
-1.265392e+001 3.442893e+000 -4.237366e+001 36 31 28
8.306092e-001 8.040844e-001 -9.106826e+000 54 50 49
1.353177e+000 4.054326e-001 -7.119736e+000 150 103 58
1.747257e+000 4.102887e-001 -7.040669e+000 179 153 116
1.608981e+000 3.700601e-001 -7.089999e+000 194 156 110
-1.987618e+000 1.771510e-001 -8.480630e+000 50 21 17
-1.987618e+000 1.771510e-001 -8.480630e+000 50 21 17
-1.617416e+000 3.032684e-001 -8.746187e+000 55 31 19
-2.238844e+000 1.321011e-001 -8.332403e+000 154 124 86
-8.969957e-001 -1.756257e-001 -9.048036e+000 75 70 60
-2.430822e+000 -2.508843e-001 -8.188306e+000 178 148 110
2.465238e+000 -2.242219e-001 -7.183228e+000 20 10 19
2.114880e+000 -3.964723e-001 -7.187039e+000 155 133 113
-1.822448e+001 -2.665719e+000 -3.572203e+001 213 204 195
-9.388411e-001 -1.495749e+000 -9.034918e+000 163 169 182
-3.914255e-001 -1.380506e+000 -8.382925e+000 137 134 127
8.125958e-001 -1.320156e+000 -7.621025e+000 104 62 40
-1.813723e+001 -7.791100e+000 -3.914898e+001 139 131 112
6.979550e-001 -1.636115e+000 -7.720136e+000 138 91 49
1.047315e+000 -1.578655e+000 -7.691165e+000 157 114 72
-2.099027e+000 -1.949807e+000 -8.274849e+000 42 36 32
-1.275752e+001 -7.211361e+000 -2.839554e+001 22 14 30
-1.541763e+001 -9.047651e+000 -2.956606e+001 110 102 118
1.934204e+000 2.360837e+000 -9.072668e+000 31 19 28
8.429462e-001 1.674602e+000 -8.475912e+000 122 94 64
1.747916e+000 8.691738e-001 -7.415522e+000 172 153 121
