ply
format ascii 1.0
element face 0
property list uchar int vertex_indices
element vertex 896
property float x
property float y
property float z
property uchar diffuse_red
property uchar diffuse_green
property uchar diffuse_blue
end_header
3.352772e+000 3.077455e+000 -1.127395e+001 83 64 52
3.645784e+000 3.113814e+000 -1.142896e+001 57 44 36
-7.183749e-001 1.516025e+000 -1.020479e+001 158 114 66
-4.694590e-001 1.658633e+000 -1.012980e+001 131 87 48
4.862468e-002 1.747631e+000 -1.032889e+001 37 19 5
2.989175e+000 2.713207e+000 -1.127793e+001 56 43 34
2.994526e+000 2.776029e+000 -1.122649e+001 21 8 7
3.433126e+000 2.943599e+000 -1.125011e+001 67 45 32
3.558212e+000 2.976672e+000 -1.129776e+001 61 44 36
-6.784680e-001 1.373283e+000 -1.014049e+001 100 58 19
-6.784680e-001 1.373283e+000 -1.014049e+001 100 58 19
3.297216e+000 2.837909e+000 -1.110457e+001 41 26 21
-7.953789e-001 1.017287e+000 -1.023544e+001 134 98 62
-7.625801e-001 1.142578e+000 -1.020552e+001 56 28 5
-6.144721e-001 1.176529e+000 -1.000759e+001 125 95 58
-6.144721e-001 1.176529e+000 -1.000759e+001 125 95 58
3.592992e+000 2.818000e+000 -1.086244e+001 34 19 15
3.605230e+000 2.849285e+000 -1.082613e+001 56 40 32
3.756665e+000 2.851997e+000 -1.113005e+001 32 19 14
3.756665e+000 2.851997e+000 -1.113005e+001 32 19 14
-6.922944e-001 1.075959e+000 -1.000842e+001 85 55 21
-4.679940e-001 1.225540e+000 -9.929954e+000 67 38 8
-4.303045e-001 1.226712e+000 -9.896573e+000 135 104 60
-4.048693e-001 1.164616e+000 -9.882365e+000 127 96 50
3.878752e+000 2.755765e+000 -1.092846e+001 33 18 15
-2.210285e+000 4.493743e-001 -9.412843e+000 36 16 6
-2.127556e+000 5.078782e-001 -9.242948e+000 35 18 10
-3.949028e-001 1.117085e+000 -9.848569e+000 136 103 60
9.106140e-001 2.510971e+000 -8.810841e+000 133 93 44
3.841084e+000 2.663318e+000 -1.085854e+001 67 54 43
3.841084e+000 2.663318e+000 -1.085854e+001 67 54 43
3.880815e+000 2.667550e+000 -1.078756e+001 79 65 56
-1.946392e+000 5.387157e-001 -9.189465e+000 39 18 7
-1.854040e+000 5.314076e-001 -9.183233e+000 48 26 15
-1.218686e+000 2.393588e-001 -1.006396e+001 100 85 66
9.567642e-001 2.499799e+000 -8.712411e+000 115 77 30
1.624929e+000 2.379181e+000 -9.231922e+000 71 61 44
-2.525783e+000 2.813784e-001 -8.945495e+000 85 46 13
-2.413847e+000 3.763100e-001 -8.910297e+000 109 68 35
-2.072798e+000 4.472728e-001 -8.969812e+000 71 36 16
-1.947049e+000 5.017925e-001 -8.891252e+000 71 45 28
-1.189606e+000 3.721718e-001 -9.561345e+000 75 66 52
8.821105e-001 2.429848e+000 -8.566638e+000 82 46 10
8.665655e-001 2.430314e+000 -8.455681e+000 149 118 71
3.626642e+000 2.223918e+000 -1.043592e+001 30 17 9
3.895573e+000 2.505530e+000 -1.053028e+001 45 28 20
-2.419808e+000 2.952316e-001 -8.676845e+000 142 104 64
-2.417535e+000 2.661718e-001 -8.628572e+000 134 97 53
-2.280270e+000 3.137080e-001 -8.719151e+000 126 90 54
-2.153729e+000 3.531963e-001 -8.682031e+000 116 81 48
-2.059782e+000 3.624220e-001 -8.664538e+000 56 27 9
-1.994835e+000 3.916375e-001 -8.850933e+000 52 23 8
-1.776493e+000 4.044584e-001 -8.810688e+000 39 15 5
-9.481252e-001 4.853952e-001 -9.495343e+000 73 66 52
-9.481252e-001 4.853952e-001 -9.495343e+000 73 66 52
-8.400057e-001 4.797879e-001 -9.522330e+000 34 25 17
3.770855e+000 2.288592e+000 -1.033524e+001 32 19 12
4.084147e+000 2.358001e+000 -1.041745e+001 37 19 15
-2.912514e+000 -2.496762e-001 -8.616097e+000 80 53 26
-2.912514e+000 -2.496762e-001 -8.616097e+000 80 53 26
-1.713386e+000 4.152028e-001 -8.821418e+000 52 24 8
-1.548213e+000 3.924715e-001 -8.868634e+000 39 19 3
-1.548213e+000 3.924715e-001 -8.868634e+000 39 19 3
-1.396671e+000 3.519283e-001 -9.010318e+000 50 27 14
4.245755e-001 9.040541e-001 -9.383452e+000 44 37 32
-2.912544e+000 -5.144219e-001 -8.643848e+000 156 127 97
-2.681373e+000 -1.374812e-001 -8.444012e+000 91 50 19
-2.555606e+000 -8.368590e-002 -8.486695e+000 136 91 49
-2.369832e+000 3.195744e-002 -8.402398e+000 103 62 18
-2.161509e+000 1.962762e-001 -8.456355e+000 75 39 7
-1.966066e+000 2.019526e-001 -8.448858e+000 64 34 14
-1.822453e+000 3.078758e-001 -8.576695e+000 48 20 4
5.156484e-001 8.839571e-001 -9.419547e+000 50 43 33
3.797270e+000 2.049801e+000 -1.016918e+001 31 19 13
3.894917e+000 2.156847e+000 -1.003370e+001 70 53 45
4.085809e+000 2.166814e+000 -1.006416e+001 40 27 19
-1.947866e+000 9.521806e-002 -8.331535e+000 58 29 6
-1.916296e+000 1.739465e-001 -8.420505e+000 46 15 2
-9.377099e-001 6.224304e-002 -8.950418e+000 58 46 32
7.947892e-001 1.674720e+000 -8.437730e+000 121 89 48
7.947892e-001 1.674720e+000 -8.437730e+000 121 89 48
4.099423e+000 2.154108e+000 -9.937114e+000 85 66 52
-2.420047e+000 -2.141015e-001 -8.254707e+000 139 98 54
-1.056403e+000 3.335780e-002 -8.807855e+000 92 72 47
-1.011013e+000 1.163529e-003 -8.828863e+000 44 30 18
1.218340e-001 3.879561e-001 -9.008657e+000 17 11 13
2.609799e-001 5.103503e-001 -9.171928e+000 105 97 78
9.957643e-001 1.796090e+000 -8.247438e+000 85 63 40
1.268897e+000 1.921042e+000 -8.273146e+000 72 38 10
3.967244e+000 1.669635e+000 -9.910146e+000 25 11 7
4.206688e+000 2.010127e+000 -9.831216e+000 36 19 11
4.206688e+000 2.010127e+000 -9.831216e+000 36 19 11
4.386573e+000 2.125238e+000 -9.822260e+000 39 25 18
-2.494223e+000 -4.042371e-001 -8.224547e+000 141 97 49
-2.437657e+000 -3.181242e-001 -8.201658e+000 153 110 59
-2.491375e+000 -4.098754e-001 -8.141250e+000 117 69 28
-2.108756e+000 -1.072862e-001 -8.157961e+000 141 106 66
-1.854769e+000 -1.210051e-001 -8.168761e+000 72 38 13
-1.773168e+000 -7.939127e-002 -8.176606e+000 100 69 40
-1.480299e+000 1.849262e-001 -8.254924e+000 137 114 67
1.366359e+000 1.676621e+000 -8.311647e+000 64 29 8
1.693019e+000 1.756018e+000 -8.423434e+000 62 36 19
4.061704e+000 1.629284e+000 -9.807263e+000 27 13 7
4.396968e+000 2.006257e+000 -9.790208e+000 63 48 41
4.396968e+000 2.006257e+000 -9.790208e+000 63 48 41
-1.900673e+000 -2.349294e-001 -8.117484e+000 79 46 11
5.201039e-001 2.721452e-001 -8.891011e+000 48 35 21
1.700575e+000 1.575624e+000 -8.436296e+000 70 41 17
1.790794e+000 1.638473e+000 -8.391030e+000 63 46 26
-2.569738e+000 -7.889635e-001 -8.110511e+000 109 66 24
-2.449418e+000 -7.686251e-001 -8.007546e+000 173 137 87
-1.863380e+000 -3.182680e-001 -8.055744e+000 121 89 48
-2.134097e-001 -4.141704e-002 -8.681500e+000 24 21 23
-1.373267e-001 -7.481522e-002 -8.654796e+000 31 25 20
1.948844e-001 5.431922e-002 -8.680502e+000 131 120 59
2.264037e-001 5.629866e-002 -8.693950e+000 134 118 61
1.474381e+000 1.464768e+000 -8.212550e+000 24 14 12
1.712528e+000 1.527121e+000 -8.259014e+000 135 109 75
1.798678e+000 1.564843e+000 -8.340676e+000 79 61 38
1.798678e+000 1.564843e+000 -8.340676e+000 79 61 38
4.211973e+000 1.547621e+000 -9.581254e+000 39 26 18
4.381493e+000 1.738317e+000 -9.377843e+000 33 18 14
-1.717199e+000 -6.044037e-001 -8.004382e+000 89 53 19
-1.597819e+000 -4.886502e-001 -8.008200e+000 109 77 47
-1.469224e+000 -4.840969e-001 -8.098085e+000 86 51 22
3.860625e+000 1.092929e+000 -9.623790e+000 34 22 8
3.962496e+000 9.782567e-001 -9.650053e+000 80 68 45
3.954264e+000 9.500093e-001 -9.604657e+000 35 22 5
4.040944e+000 1.027375e+000 -9.563323e+000 83 65 43
4.295132e+000 1.366102e+000 -9.421336e+000 32 18 17
-2.345647e+000 -1.414808e+000 -8.116594e+000 64 36 3
4.868686e-001 -2.842847e-001 -8.589522e+000 96 82 46
5.253867e-001 -2.907350e-001 -8.608481e+000 106 92 64
5.253867e-001 -2.907350e-001 -8.608481e+000 106 92 64
1.292318e+000 4.560320e-001 -8.505018e+000 25 18 14
1.311773e+000 4.716038e-001 -8.541244e+000 31 24 17
4.491910e+000 1.566716e+000 -9.268419e+000 115 98 71
4.517396e+000 1.586800e+000 -9.260842e+000 40 23 16
4.451895e+000 1.615330e+000 -9.070423e+000 48 30 21
-2.505948e+000 -1.544402e+000 -8.059424e+000 198 171 128
-1.765459e+000 -7.906791e-001 -7.851336e+000 133 93 58
4.269672e-001 -5.537498e-001 -8.573805e+000 17 14 9
4.680464e-001 -4.586095e-001 -8.585038e+000 16 11 17
4.680464e-001 -4.586095e-001 -8.585038e+000 16 11 17
6.197379e-001 -3.367598e-001 -8.611062e+000 103 94 69
6.197379e-001 -3.367598e-001 -8.611062e+000 103 94 69
6.369451e-001 -4.852008e-001 -8.647336e+000 97 88 62
6.369451e-001 -4.852008e-001 -8.647336e+000 97 88 62
6.088560e-001 -5.665956e-001 -8.666449e+000 67 60 49
6.088560e-001 -5.665956e-001 -8.666449e+000 67 60 49
6.388477e-001 -3.950008e-001 -8.611934e+000 24 18 6
1.449962e+000 7.866752e-001 -8.038019e+000 28 24 13
4.320068e+000 1.277473e+000 -9.236772e+000 72 58 45
4.587593e+000 1.543362e+000 -9.028417e+000 79 58 53
-4.948689e-002 -9.186558e-001 -8.439351e+000 21 17 12
3.035222e-001 -7.709472e-001 -8.536677e+000 66 59 41
6.760528e-001 -5.331292e-001 -8.630679e+000 22 14 12
4.610852e+000 1.378710e+000 -8.976048e+000 119 99 83
1.039195e+000 -3.449525e-001 -8.418661e+000 18 8 6
1.252506e+000 7.798428e-001 -7.609609e+000 127 88 50
1.314531e+000 8.276398e-001 -7.582236e+000 144 102 60
1.410385e+000 9.281970e-001 -7.658207e+000 67 36 17
4.165033e+000 6.434507e-001 -9.090711e+000 65 49 37
4.573884e+000 1.132047e+000 -8.885511e+000 37 23 16
1.044419e-001 -1.179326e+000 -8.259974e+000 33 19 8
1.251777e+000 6.716257e-001 -7.585172e+000 86 46 23
1.289553e+000 7.814952e-001 -7.523201e+000 139 100 62
1.414395e+000 9.266003e-001 -7.507912e+000 129 90 51
1.404320e+000 9.264970e-001 -7.454645e+000 141 99 51
2.053294e+000 8.935783e-001 -7.695710e+000 58 38 12
4.544190e+000 9.814220e-001 -8.731467e+000 29 14 11
4.558619e+000 1.041918e+000 -8.748302e+000 34 19 14
4.726461e+000 1.169511e+000 -8.683287e+000 126 109 80
7.580870e-001 -8.321952e-001 -8.055266e+000 97 73 46
1.316358e+000 -8.551501e-001 -8.353229e+000 8 7 12
1.235898e+000 4.619150e-001 -7.446088e+000 169 125 78
1.259811e+000 6.721428e-001 -7.386127e+000 144 100 53
1.389840e+000 7.676567e-001 -7.318731e+000 161 117 70
4.769742e+000 1.085524e+000 -8.571373e+000 121 101 75
3.209251e-001 -1.086793e+000 -7.879747e+000 122 82 56
4.712113e-001 -8.542707e-001 -7.802116e+000 98 63 41
4.951601e-001 -9.356833e-001 -7.779859e+000 72 34 13
7.990891e-001 -8.364082e-001 -7.855451e+000 66 34 11
1.225621e+000 4.259695e-001 -7.332700e+000 171 126 74
4.338965e+000 4.834586e-001 -8.704198e+000 77 61 46
4.800872e+000 1.028186e+000 -8.413481e+000 119 96 70
6.815968e-001 -9.310890e-001 -7.665593e+000 89 46 13
1.361209e+000 5.982715e-001 -7.165790e+000 181 135 86
1.721879e+000 7.336942e-001 -7.201581e+000 159 132 76
4.597449e+000 6.824805e-001 -8.443643e+000 27 16 12
4.839602e+000 9.893097e-001 -8.372571e+000 115 90 74
7.344783e-001 -1.037049e+000 -7.557272e+000 159 111 63
1.281710e+000 -2.669351e-002 -7.308296e+000 115 109 101
1.500041e+000 4.572364e-001 -7.088357e+000 80 37 3
4.908403e+000 8.636988e-001 -8.210842e+000 121 95 73
9.617487e-001 -9.134309e-001 -7.488619e+000 147 108 63
4.755407e+000 5.824536e-001 -8.146583e+000 29 18 12
4.945675e+000 8.135282e-001 -8.153143e+000 116 94 72
1.633201e+000 3.465257e-001 -6.951289e+000 155 112 57
1.633201e+000 3.465257e-001 -6.951289e+000 155 112 57
1.708820e+000 3.562887e-001 -6.961603e+000 127 89 39
1.768612e+000 -3.787775e-002 -6.878443e+000 162 130 84
5.136212e+000 5.518060e-001 -7.729181e+000 113 89 72
6.810912e-002 1.984628e+000 -1.049803e+001 71 61 53
6.810912e-002 1.984628e+000 -1.049803e+001 71 61 53
2.766096e+000 2.772710e+000 -1.134013e+001 37 23 22
3.086766e+000 2.917623e+000 -1.127008e+001 63 45 33
-2.239290e+000 -2.628202e+000 -1.552659e+001 123 132 139
3.228286e+000 2.759155e+000 -1.127097e+001 64 49 41
3.588829e+000 2.883079e+000 -1.119461e+001 22 8 5
3.597536e+000 2.844220e+000 -1.112805e+001 24 15 10
3.737988e+000 2.905462e+000 -1.113465e+001 70 53 45
-8.649016e-001 9.185359e-001 -1.039511e+001 55 31 11
3.410617e+000 2.530979e+000 -1.084301e+001 36 25 21
3.702992e+000 2.690327e+000 -1.076745e+001 90 70 59
-4.180254e-001 1.064684e+000 -9.960637e+000 80 46 7
2.339241e-001 9.827035e-001 -1.040321e+001 109 109 109
9.671520e-001 2.511096e+000 -8.845126e+000 150 110 61
3.261906e+000 2.356925e+000 -1.084773e+001 55 44 38
3.745550e+000 2.674722e+000 -1.075441e+001 31 18 10
-2.196076e+000 4.319512e-001 -9.160124e+000 49 23 10
1.997861e-001 9.577618e-001 -1.025888e+001 105 103 104
8.690392e-001 2.450994e+000 -8.773403e+000 97 51 9
1.550798e+000 2.421702e+000 -9.160795e+000 39 24 15
-2.874645e+000 4.009049e-002 -8.874098e+000 141 100 55
-2.715349e+000 8.702190e-002 -8.822971e+000 126 85 39
-2.325062e+000 3.532079e-001 -8.912455e+000 100 63 34
-2.012070e+000 4.990147e-001 -8.982419e+000 81 50 29
-1.983105e+000 4.575554e-001 -8.893898e+000 36 14 1
-1.850242e+000 4.857484e-001 -9.006709e+000 44 21 13
-1.589739e+000 4.454287e-001 -9.136085e+000 59 32 12
-1.560732e+000 5.096613e-001 -9.124113e+000 53 28 9
-1.536374e-001 6.113034e-001 -1.009218e+001 25 16 16
-8.652336e-002 6.216216e-001 -1.000139e+001 13 12 9
3.384969e+000 2.062410e+000 -1.059166e+001 32 22 13
3.911825e+000 2.489654e+000 -1.048020e+001 92 73 66
-2.174670e+000 3.230628e-001 -8.633894e+000 137 104 63
-2.174670e+000 3.230628e-001 -8.633894e+000 137 104 63
-2.072621e+000 4.421574e-001 -8.804880e+000 58 25 4
-2.024915e+000 3.769240e-001 -8.679242e+000 50 22 8
-1.709709e+000 4.548276e-001 -8.949019e+000 45 19 7
-1.587917e+000 4.000428e-001 -8.971151e+000 45 22 6
-1.394546e+000 3.763995e-001 -9.093131e+000 41 18 5
-1.394546e+000 3.763995e-001 -9.093131e+000 41 18 5
-1.160408e+000 2.647403e-001 -9.560289e+000 13 7 4
-1.160408e+000 2.647403e-001 -9.560289e+000 13 7 4
-4.138721e-001 6.073131e-001 -9.677877e+000 107 102 71
-2.806273e+000 -1.194997e-001 -8.676092e+000 71 36 4
-2.158752e+000 2.781116e-001 -8.519904e+000 75 41 13
-2.024818e+000 2.939954e-001 -8.652520e+000 50 23 6
-1.944989e+000 3.080588e-001 -8.604782e+000 41 13 2
-1.756653e+000 3.680656e-001 -8.723657e+000 35 14 8
2.126825e-001 7.077251e-001 -9.665281e+000 72 63 47
8.827732e-001 2.155150e+000 -8.397284e+000 63 36 17
3.414018e+000 1.886805e+000 -1.038358e+001 81 64 44
3.551291e+000 1.840941e+000 -1.028876e+001 77 58 43
3.819870e+000 2.172780e+000 -1.023467e+001 37 22 20
-2.587511e+000 -6.142630e-002 -8.432441e+000 132 89 44
-2.243302e+000 9.549983e-002 -8.532674e+000 78 39 10
-2.243302e+000 9.549983e-002 -8.532674e+000 78 39 10
-1.892820e+000 3.080483e-001 -8.517839e+000 54 25 11
-1.569384e+000 1.946310e-001 -8.789558e+000 32 12 5
-1.188199e+000 2.228172e-001 -9.083017e+000 65 47 28
-1.024088e+000 1.718106e-001 -9.036639e+000 19 12 9
6.857335e-001 1.837286e+000 -8.502433e+000 151 118 75
-2.590328e+000 -2.167281e-001 -8.316707e+000 68 31 2
-2.590328e+000 -2.167281e-001 -8.316707e+000 68 31 2
-2.484814e+000 -5.457468e-002 -8.347884e+000 107 64 27
-9.857721e-001 1.029239e-001 -8.967410e+000 21 12 12
7.738149e-001 1.603653e+000 -8.542061e+000 77 55 32
-2.340212e+000 -2.364631e-001 -8.198902e+000 151 114 67
8.533220e-001 1.514280e+000 -8.426439e+000 128 102 67
1.071340e+000 1.678798e+000 -8.263069e+000 52 33 22
3.956488e+000 1.827423e+000 -9.913011e+000 64 47 39
-2.315223e+000 -2.460210e-001 -8.163334e+000 125 87 40
-2.237140e+000 -2.328913e-001 -8.216232e+000 129 88 42
-1.776764e+000 6.196341e-002 -8.137981e+000 72 40 17
3.910784e-001 4.244935e-001 -9.008634e+000 51 42 29
3.992405e+000 1.785516e+000 -9.760603e+000 72 54 45
1.188037e+000 1.418556e+000 -8.268195e+000 123 90 54
1.231455e+000 1.424099e+000 -8.193879e+000 124 93 62
1.330700e+000 1.423719e+000 -8.250609e+000 18 15 9
1.330700e+000 1.423719e+000 -8.250609e+000 18 15 9
1.881323e+000 1.559206e+000 -8.479052e+000 27 17 15
4.048676e+000 1.522378e+000 -9.688431e+000 23 12 9
-2.775824e+000 -1.218681e+000 -8.312469e+000 252 254 252
-2.200933e+000 -5.879377e-001 -7.947084e+000 121 87 42
-1.705018e+000 -3.430970e-001 -8.122132e+000 47 29 17
-1.593908e+000 -2.708986e-001 -8.026865e+000 28 21 18
-3.552105e-001 -1.746653e-001 -8.660544e+000 142 130 82
-1.436161e-001 -8.008672e-002 -8.656091e+000 35 27 15
4.338670e+000 1.674418e+000 -9.405276e+000 74 56 44
-2.442125e+000 -9.172330e-001 -7.998539e+000 153 113 62
-2.442125e+000 -9.172330e-001 -7.998539e+000 153 113 62
-2.180377e+000 -6.351324e-001 -7.938169e+000 147 110 65
-1.635068e+000 -5.228313e-001 -8.048501e+000 62 38 10
-9.880790e-001 -4.740933e-001 -8.287705e+000 67 40 10
-9.334251e-001 -5.611030e-001 -8.356041e+000 88 65 33
-4.264495e-001 -4.291223e-001 -8.561698e+000 33 25 12
3.985161e+000 1.088118e+000 -9.583543e+000 84 66 42
-1.039665e+000 -5.406720e-001 -8.246940e+000 102 66 30
-9.720269e-001 -6.090001e-001 -8.309305e+000 118 84 46
-8.330830e-001 -8.056799e-001 -8.543918e+000 108 92 66
-5.132769e-001 -6.343743e-001 -8.524176e+000 31 27 14
6.613601e-001 -7.516011e-002 -8.651256e+000 21 17 14
-9.193238e-001 -1.211722e+000 -8.443179e+000 14 14 13
-9.193238e-001 -1.211722e+000 -8.443179e+000 14 14 13
-7.176958e-001 -1.091703e+000 -8.545355e+000 160 154 133
-6.362711e-001 -9.468667e-001 -8.500588e+000 63 57 39
-6.362711e-001 -9.468667e-001 -8.500588e+000 63 57 39
-6.355537e-001 -1.110462e+000 -8.474838e+000 163 156 137
5.902961e-001 -2.576540e-001 -8.596737e+000 26 19 14
6.947654e-001 -3.610715e-001 -8.578418e+000 105 91 64
1.448615e+000 8.670960e-001 -7.991568e+000 145 119 86
4.325159e+000 1.217235e+000 -9.154712e+000 28 14 11
1.393336e+000 8.372771e-001 -7.919997e+000 141 113 71
1.453689e+000 8.822079e-001 -7.818692e+000 66 40 17
1.473120e+000 1.051727e+000 -7.783717e+000 38 16 5
2.021035e+000 9.542087e-001 -8.094560e+000 69 44 22
4.621027e+000 1.401699e+000 -8.924288e+000 36 18 11
-3.718430e-001 -1.253519e+000 -8.348632e+000 142 128 101
-1.477652e-001 -1.112764e+000 -8.409428e+000 41 34 21
5.175529e-001 -1.165871e+000 -8.692658e+000 30 19 17
4.374371e+000 9.816513e-001 -9.059182e+000 54 40 34
5.650886e-001 -9.335073e-001 -8.416657e+000 70 56 43
1.794142e+000 9.422952e-001 -7.688573e+000 36 19 11
1.920055e+000 9.149195e-001 -7.665883e+000 97 74 42
2.311877e+000 8.482244e-001 -7.948274e+000 77 54 38
2.311877e+000 8.482244e-001 -7.948274e+000 77 54 38
1.057135e-001 -1.148257e+000 -8.079882e+000 39 18 7
3.068828e-001 -9.112291e-001 -7.990330e+000 121 84 49
1.430411e+000 8.498720e-001 -7.314456e+000 141 99 57
1.779429e+000 9.446558e-001 -7.434104e+000 54 26 11
1.779429e+000 9.446558e-001 -7.434104e+000 54 26 11
1.859683e+000 9.710119e-001 -7.513799e+000 128 101 63
4.730894e+000 1.139637e+000 -8.615056e+000 129 109 84
4.758030e+000 1.177125e+000 -8.538328e+000 84 65 54
-6.041706e-002 -1.697872e+000 -8.180241e+000 46 31 26
6.075215e-001 -7.856331e-001 -7.789009e+000 61 29 9
1.348173e+000 6.636378e-001 -7.215443e+000 113 67 24
1.407818e+000 7.070725e-001 -7.317098e+000 92 50 10
1.680792e+000 8.311808e-001 -7.231564e+000 57 25 4
1.680792e+000 8.311808e-001 -7.231564e+000 57 25 4
4.257766e+000 4.499345e-001 -8.547519e+000 34 21 13
4.770264e+000 1.066401e+000 -8.494410e+000 126 105 76
2.366176e-001 -1.548635e+000 -7.928462e+000 120 81 48
2.930210e-001 -1.149855e+000 -7.811333e+000 112 74 37
7.677005e-001 -8.721622e-001 -7.720018e+000 83 46 19
1.686741e+000 6.834931e-001 -7.071312e+000 160 127 70
4.093152e+000 3.023913e-001 -8.278261e+000 21 11 12
4.140297e+000 2.712992e-001 -8.261563e+000 52 39 34
4.140297e+000 2.712992e-001 -8.261563e+000 52 39 34
4.188353e+000 3.020831e-001 -8.262024e+000 46 35 31
4.188353e+000 3.020831e-001 -8.262024e+000 46 35 31
1.704472e+000 4.565642e-001 -6.999374e+000 153 117 65
1.653874e+000 3.085971e-001 -6.936389e+000 94 50 12
4.566454e+000 2.084452e-001 -8.136002e+000 79 62 45
4.593911e+000 1.962761e-001 -8.103363e+000 66 49 34
4.896102e+000 6.258251e-001 -8.046940e+000 32 19 15
4.905110e+000 5.767245e-001 -7.989540e+000 27 14 14
4.905110e+000 5.767245e-001 -7.989540e+000 27 14 14
5.020876e+000 7.036119e-001 -7.980108e+000 93 69 53
1.760847e+000 1.442475e-001 -6.926169e+000 116 73 22
4.663963e+000 9.666262e-002 -7.958056e+000 79 64 43
1.760284e+000 5.039687e-002 -6.842946e+000 186 149 101
5.046613e+000 5.200576e-001 -7.756698e+000 74 54 45
5.109505e+000 5.881977e-001 -7.801616e+000 110 85 67
5.236509e+000 4.150269e-001 -7.803602e+000 51 37 31
4.785500e+000 -5.024705e-002 -7.844311e+000 79 62 44
-9.709266e-002 1.919057e+000 -1.037658e+001 41 22 15
3.094307e+000 2.855869e+000 -1.130884e+001 67 54 42
3.536103e+000 3.027993e+000 -1.129251e+001 26 13 7
3.254706e+000 2.744663e+000 -1.121923e+001 30 17 9
-3.018876e+000 1.626331e-001 -9.552865e+000 191 164 120
1.183649e+000 2.510184e+000 -9.319631e+000 41 31 19
-2.912343e+000 1.183151e-001 -9.215816e+000 114 81 50
-2.433543e+000 4.226250e-001 -9.138429e+000 79 44 16
-2.426281e+000 4.654212e-001 -9.209103e+000 84 46 22
-2.503137e+000 3.260720e-001 -8.959221e+000 109 69 34
-2.231433e+000 4.637536e-001 -9.036992e+000 58 29 13
7.687248e-002 9.078981e-001 -1.013734e+001 47 39 24
6.462154e-001 2.295776e+000 -8.681587e+000 97 55 22
1.195671e+000 2.574156e+000 -8.780703e+000 128 97 53
-1.115987e-001 6.497693e-001 -1.002934e+001 122 121 121
2.451800e-003 6.751708e-001 -9.947498e+000 54 46 34
-1.088328e+000 3.034360e-001 -9.420098e+000 14 9 11
-8.424152e-001 4.783444e-001 -9.447025e+000 111 103 67
-7.668637e-001 5.048591e-001 -9.457478e+000 24 21 15
-7.668637e-001 5.048591e-001 -9.457478e+000 24 21 15
-6.321461e-001 5.535210e-001 -9.556635e+000 110 98 65
-6.321461e-001 5.535210e-001 -9.556635e+000 110 98 65
-6.936594e-001 5.335386e-001 -9.460385e+000 100 89 68
-6.167808e-001 5.338420e-001 -9.490616e+000 21 12 14
-5.555421e-001 5.664003e-001 -9.575308e+000 22 16 19
-4.839338e-001 5.909131e-001 -9.582015e+000 110 96 58
-4.839338e-001 5.909131e-001 -9.582015e+000 110 96 58
-4.071348e-001 6.081858e-001 -9.590551e+000 21 13 12
-5.409998e-001 5.559493e-001 -9.496009e+000 100 86 55
-5.409998e-001 5.559493e-001 -9.496009e+000 100 86 55
-4.628438e-001 5.648737e-001 -9.514203e+000 20 13 19
-3.875020e-001 5.836992e-001 -9.519888e+000 113 97 71
-3.875020e-001 5.836992e-001 -9.519888e+000 113 97 71
-2.717798e-001 6.489293e-001 -9.703500e+000 97 87 59
-3.299743e-001 6.162490e-001 -9.616075e+000 109 94 70
-3.299743e-001 6.162490e-001 -9.616075e+000 109 94 70
-3.160969e-001 6.063067e-001 -9.529554e+000 24 16 15
-3.160969e-001 6.063067e-001 -9.529554e+000 24 16 15
-2.446978e-001 6.201844e-001 -9.545511e+000 87 75 50
-1.957332e-001 6.486544e-001 -9.732178e+000 19 10 11
-1.199387e-001 6.396599e-001 -9.766797e+000 71 63 40
-6.771311e-002 6.943161e-001 -9.812371e+000 70 61 43
-6.771311e-002 6.943161e-001 -9.812371e+000 70 61 43
-5.081962e-002 6.510322e-001 -9.752858e+000 12 11 13
3.606181e+000 2.291898e+000 -1.032404e+001 67 51 44
3.697750e+000 2.124691e+000 -1.041557e+001 26 18 12
-2.592533e+000 9.099637e-002 -8.493159e+000 144 103 48
-2.342758e+000 1.920385e-001 -8.621148e+000 80 41 8
-9.483057e-001 3.683859e-001 -9.299597e+000 123 110 80
-9.483057e-001 3.683859e-001 -9.299597e+000 123 110 80
-5.236789e-001 5.353567e-001 -9.416815e+000 19 18 11
-4.468244e-001 5.342353e-001 -9.444244e+000 106 90 66
-4.468244e-001 5.342353e-001 -9.444244e+000 106 90 66
-3.709305e-001 5.662787e-001 -9.440574e+000 23 21 9
-3.709305e-001 5.662787e-001 -9.440574e+000 23 21 9
-4.292237e-001 5.178193e-001 -9.361942e+000 20 15 11
-4.292237e-001 5.178193e-001 -9.361942e+000 20 15 11
-2.981776e-001 5.699931e-001 -9.471172e+000 105 92 61
-2.263364e-001 5.869270e-001 -9.478946e+000 20 12 13
-2.802950e-001 5.530463e-001 -9.386605e+000 16 16 7
-1.684845e-001 6.096128e-001 -9.571357e+000 13 9 4
-9.476150e-002 5.849916e-001 -9.601278e+000 62 52 41
-1.454401e-001 5.629154e-001 -9.512935e+000 57 47 30
-7.213262e-002 5.476286e-001 -9.535005e+000 16 10 8
3.563318e-002 5.829195e-001 -9.725264e+000 16 8 10
4.743047e-002 5.821014e-001 -9.632739e+000 84 73 53
6.167597e-004 5.481109e-001 -9.554771e+000 85 76 49
-1.658589e-001 4.825386e-001 -9.277781e+000 81 68 46
-1.102983e-001 5.133646e-001 -9.360694e+000 71 61 38
-5.746232e-002 5.386854e-001 -9.443013e+000 67 58 43
-5.746232e-002 5.386854e-001 -9.443013e+000 67 58 43
-9.018343e-002 4.831967e-001 -9.294177e+000 20 15 12
-9.018343e-002 4.831967e-001 -9.294177e+000 20 15 12
-3.384731e-002 5.020620e-001 -9.387195e+000 23 16 6
-3.384731e-002 5.020620e-001 -9.387195e+000 23 16 6
-1.597103e-002 4.951936e-001 -9.296911e+000 88 80 62
1.899062e-002 5.269574e-001 -9.477221e+000 21 16 13
3.707772e-002 5.030502e-001 -9.408301e+000 84 77 49
3.707772e-002 5.030502e-001 -9.408301e+000 84 77 49
7.326773e-001 1.980068e+000 -8.362590e+000 80 43 18
1.047479e+000 2.107911e+000 -8.309610e+000 163 134 74
3.797175e+000 1.958884e+000 -1.011117e+001 36 23 17
4.152566e+000 2.204681e+000 -1.006618e+001 60 41 34
-1.506951e-001 4.716784e-001 -9.185231e+000 19 15 15
3.867722e-003 4.724942e-001 -9.226666e+000 16 11 7
3.867722e-003 4.724942e-001 -9.226666e+000 16 11 7
-5.559288e-002 4.467659e-001 -9.132975e+000 16 12 9
-5.559288e-002 4.467659e-001 -9.132975e+000 16 12 9
2.343443e-002 4.324150e-001 -9.171516e+000 79 67 42
2.343443e-002 4.324150e-001 -9.171516e+000 79 67 42
5.827509e-002 4.852090e-001 -9.334847e+000 20 17 12
5.827509e-002 4.852090e-001 -9.334847e+000 20 17 12
1.303708e-001 4.999784e-001 -9.342751e+000 76 64 46
1.039803e-001 4.272227e-001 -9.201904e+000 16 12 3
1.039803e-001 4.272227e-001 -9.201904e+000 16 12 3
1.719888e-001 4.424023e-001 -9.210081e+000 71 62 50
9.001747e-001 1.823397e+000 -8.295712e+000 45 27 16
-1.852547e+000 8.906522e-002 -8.315089e+000 65 33 11
5.138850e-002 4.209347e-001 -8.981672e+000 90 79 52
1.125024e-001 4.393779e-001 -9.087461e+000 91 77 54
1.942403e-001 4.177750e-001 -9.137820e+000 20 13 6
9.030969e-001 1.741122e+000 -8.265715e+000 110 91 56
4.007077e+000 1.882038e+000 -9.885528e+000 60 46 35
1.052015e+000 7.724396e-001 -8.990974e+000 19 13 14
1.091609e+000 9.369023e-001 -8.816294e+000 46 39 26
1.797504e+000 1.727569e+000 -8.464082e+000 64 46 30
3.961964e+000 1.645219e+000 -9.847387e+000 63 46 39
-1.781688e+000 -1.168188e-001 -8.138294e+000 103 70 35
4.359911e+000 1.878882e+000 -9.612883e+000 38 23 18
-1.808729e+000 -3.483375e-001 -8.005841e+000 120 88 49
-2.033784e-001 -1.838047e-001 -8.641121e+000 33 26 14
-1.331223e-001 -1.315995e-001 -8.628309e+000 144 125 78
8.657850e-002 -5.291555e-002 -8.652965e+000 31 24 13
8.657850e-002 -5.291555e-002 -8.652965e+000 31 24 13
-2.317236e+000 -8.338311e-001 -8.019871e+000 156 123 72
-8.819132e-001 -6.810888e-001 -8.468447e+000 28 17 14
-3.689702e-001 -3.843426e-001 -8.556195e+000 145 127 78
-2.507734e-001 -2.686544e-001 -8.599874e+000 33 27 12
-1.519506e-001 -2.916235e-001 -8.568981e+000 36 30 14
-7.727892e-002 -2.752975e-001 -8.585109e+000 146 124 87
4.132129e-002 -1.563683e-001 -8.629809e+000 35 29 12
4.132129e-002 -1.563683e-001 -8.629809e+000 35 29 12
-4.941499e-003 -2.499805e-001 -8.597257e+000 26 28 7
6.674489e-002 -2.210233e-001 -8.608487e+000 127 114 74
1.131340e-001 -1.208961e-001 -8.635520e+000 135 119 70
1.131340e-001 -1.208961e-001 -8.635520e+000 135 119 70
1.850675e-001 -8.950211e-002 -8.646085e+000 28 29 13
1.392472e-001 -1.914191e-001 -8.622965e+000 26 23 9
2.158044e-001 -1.661977e-001 -8.643847e+000 121 104 65
2.598594e-001 -6.699131e-002 -8.661801e+000 144 122 75
2.598594e-001 -6.699131e-002 -8.661801e+000 144 122 75
3.047387e-001 3.092627e-002 -8.682375e+000 141 125 84
3.323013e-001 -3.715606e-002 -8.667181e+000 37 31 12
3.323013e-001 -3.715606e-002 -8.667181e+000 37 31 12
2.870483e-001 -1.375346e-001 -8.650868e+000 31 26 7
2.870483e-001 -1.375346e-001 -8.650868e+000 31 26 7
3.616137e-001 -1.089221e-001 -8.653530e+000 149 133 76
4.048887e-001 -5.048170e-003 -8.667259e+000 153 131 81
5.060030e-001 -6.110424e-002 -8.656391e+000 145 128 76
5.739350e-001 -2.963512e-002 -8.659556e+000 26 21 17
4.316048e+000 1.479886e+000 -9.336163e+000 39 24 21
4.495558e+000 1.741181e+000 -9.236830e+000 83 64 50
-1.638001e-001 -4.697145e-001 -8.529262e+000 143 123 75
-2.041336e-002 -4.079371e-001 -8.544162e+000 129 115 74
6.743083e-003 -4.758592e-001 -8.525482e+000 28 24 9
6.743083e-003 -4.758592e-001 -8.525482e+000 28 24 9
2.214533e-002 -3.076128e-001 -8.571035e+000 137 120 79
9.475594e-002 -2.904191e-001 -8.593978e+000 29 22 14
1.214408e-001 -3.604027e-001 -8.580866e+000 121 101 71
7.939994e-002 -4.555017e-001 -8.548298e+000 125 109 68
1.680295e-001 -2.587225e-001 -8.611727e+000 124 107 64
1.680295e-001 -2.587225e-001 -8.611727e+000 124 107 64
1.957271e-001 -3.332776e-001 -8.604718e+000 27 17 11
2.425381e-001 -2.400253e-001 -8.636692e+000 29 21 5
2.707337e-001 -3.056872e-001 -8.622399e+000 134 119 79
2.956672e-001 -3.745598e-001 -8.608561e+000 29 28 16
3.109753e-001 -2.072078e-001 -8.636972e+000 148 128 78
3.109753e-001 -2.072078e-001 -8.636972e+000 148 128 78
3.837680e-001 -1.710892e-001 -8.627254e+000 38 28 26
3.837680e-001 -1.710892e-001 -8.627254e+000 38 28 26
3.413045e-001 -2.810815e-001 -8.624997e+000 34 30 4
3.413045e-001 -2.810815e-001 -8.624997e+000 34 30 4
4.106164e-001 -2.462064e-001 -8.608213e+000 152 134 83
4.555317e-001 -1.462576e-001 -8.622930e+000 155 133 93
4.555317e-001 -1.462576e-001 -8.622930e+000 155 133 93
5.297729e-001 -1.205632e-001 -8.624995e+000 34 29 26
4.791465e-001 -2.206808e-001 -8.606117e+000 38 27 23
5.564835e-001 -1.989787e-001 -8.610546e+000 139 117 78
6.025525e-001 -1.007318e-001 -8.641866e+000 121 99 64
6.284850e-001 -1.720134e-001 -8.622473e+000 23 19 13
4.342681e+000 1.559911e+000 -9.233518e+000 45 28 20
-5.476940e-001 -9.680319e-001 -8.444319e+000 39 36 26
-5.380933e-001 -7.929220e-001 -8.482177e+000 155 137 91
-5.078445e-001 -8.718499e-001 -8.462290e+000 32 30 23
-4.679651e-001 -7.551810e-001 -8.471171e+000 33 27 16
-4.389813e-001 -8.343913e-001 -8.452014e+000 145 124 82
-4.389813e-001 -8.343913e-001 -8.452014e+000 145 124 82
-4.118349e-001 -8.889879e-001 -8.412793e+000 30 29 24
-3.965231e-001 -7.306604e-001 -8.474469e+000 139 123 75
-2.243464e-001 -7.247063e-001 -8.440087e+000 32 27 9
-1.091347e-001 -6.071786e-001 -8.490461e+000 134 116 75
-1.523245e-001 -6.972805e-001 -8.453818e+000 131 112 72
-1.523245e-001 -6.972805e-001 -8.453818e+000 131 112 72
-8.295780e-002 -6.743379e-001 -8.474622e+000 27 18 15
-4.977237e-002 -7.395811e-001 -8.462766e+000 108 89 57
-4.977237e-002 -7.395811e-001 -8.462766e+000 108 89 57
-3.665535e-002 -5.757190e-001 -8.501512e+000 32 30 10
3.715386e-002 -5.528925e-001 -8.517046e+000 139 116 82
1.073369e-001 -5.267041e-001 -8.534321e+000 17 18 10
2.065145e-001 -5.714383e-001 -8.547297e+000 22 11 15
2.065145e-001 -5.714383e-001 -8.547297e+000 22 11 15
6.573028e-001 -2.359940e-001 -8.602128e+000 113 100 66
6.573028e-001 -2.359940e-001 -8.602128e+000 113 100 66
7.292223e-001 -2.197853e-001 -8.623010e+000 20 17 5
4.348654e+000 1.141029e+000 -9.171317e+000 55 40 33
4.321241e+000 1.512513e+000 -9.017168e+000 62 45 37
-3.113742e-001 -9.222021e-001 -8.387769e+000 34 26 14
-2.392010e-001 -8.933378e-001 -8.396551e+000 135 121 66
-2.392010e-001 -8.933378e-001 -8.396551e+000 135 121 66
-1.937074e-001 -7.972298e-001 -8.424397e+000 136 116 79
-1.673696e-001 -8.646318e-001 -8.408462e+000 30 21 15
-9.192290e-002 -8.432760e-001 -8.429477e+000 119 98 70
-9.192290e-002 -8.432760e-001 -8.429477e+000 119 98 70
-2.295573e-002 -8.125410e-001 -8.450295e+000 23 13 7
-2.295573e-002 -8.125410e-001 -8.450295e+000 23 13 7
1.915155e+000 8.741756e-001 -8.162255e+000 69 44 21
-1.846179e-001 -1.189734e+000 -8.396760e+000 115 103 77
1.387503e+000 9.232051e-001 -7.654864e+000 67 35 14
4.654625e-001 -8.951899e-001 -8.212994e+000 85 58 37
1.413487e+000 9.189709e-001 -7.485237e+000 135 94 48
4.027862e+000 4.034141e-001 -9.030185e+000 22 11 9
4.799897e+000 1.233377e+000 -8.804086e+000 30 18 17
-1.689747e-002 -1.335278e+000 -8.191286e+000 45 27 23
9.437243e-002 -1.349631e+000 -7.894200e+000 100 68 43
3.325350e-001 -9.918941e-001 -7.917302e+000 103 68 40
5.417784e-001 -8.612952e-001 -7.856344e+000 56 28 14
8.304456e-001 -8.392049e-001 -8.001861e+000 99 74 44
4.400826e+000 6.881490e-001 -8.534283e+000 35 21 19
4.576223e+000 9.372128e-001 -8.510485e+000 56 39 32
2.007465e-001 -1.592142e+000 -7.916335e+000 156 127 100
7.889512e-001 -1.077150e+000 -7.518110e+000 175 129 79
9.353322e-001 -9.883138e-001 -7.501666e+000 130 86 37
1.413796e+000 1.734647e-001 -7.105266e+000 156 106 57
1.549528e+000 2.790994e-001 -7.018106e+000 114 66 27
1.745780e+000 4.599198e-001 -7.010769e+000 67 40 12
4.765166e+000 6.598339e-001 -8.127734e+000 63 49 39
4.836700e+000 5.819399e-001 -8.122430e+000 33 23 19
4.850338e+000 4.715102e-001 -7.995235e+000 55 41 35
4.817887e+000 3.165798e-001 -7.966171e+000 50 36 35
3.508099e+000 3.261578e+000 -1.165670e+001 31 17 16
3.528007e+000 3.150655e+000 -1.154862e+001 34 20 19
2.692357e-002 1.900018e+000 -1.039980e+001 27 17 8
1.319585e-001 1.909356e+000 -1.044725e+001 64 54 44
-7.973100e-001 1.388764e+000 -1.032163e+001 113 69 27
-6.332978e-002 1.818179e+000 -1.018218e+001 107 84 53
3.146504e+000 2.803128e+000 -1.128298e+001 29 18 12
3.227686e+000 2.837549e+000 -1.091468e+001 63 46 36
-7.902770e-001 9.675244e-001 -1.018574e+001 79 55 25
-2.281905e+000 4.091895e-001 -9.688951e+000 27 21 21
-6.662483e-001 1.080905e+000 -1.007527e+001 73 42 15
2.005699e-001 1.201067e+000 -1.029362e+001 115 113 118
-2.537436e+000 2.835109e-001 -9.248513e+000 116 76 44
-2.934226e+000 3.549908e-002 -9.154808e+000 43 22 7
-2.832987e-001 8.050209e-001 -9.980926e+000 114 86 49
3.490548e+000 2.433301e+000 -1.063433e+001 69 52 42
3.490548e+000 2.433301e+000 -1.063433e+001 69 52 42
-2.057563e+000 4.445152e-001 -8.913213e+000 103 67 43
-1.404246e+000 2.011263e-001 -9.745011e+000 71 52 36
-1.079831e+000 4.499459e-001 -9.641880e+000 52 40 23
-9.013464e-001 4.366531e-001 -9.366193e+000 122 103 72
-7.530870e-001 4.851623e-001 -9.380431e+000 105 92 62
-6.768649e-001 5.021684e-001 -9.393979e+000 22 19 10
5.750672e-001 2.013738e+000 -8.648171e+000 62 34 9
5.832932e-001 2.171244e+000 -8.483066e+000 128 91 47
-2.687987e+000 2.321017e-002 -8.643063e+000 147 108 59
-1.603971e+000 3.706763e-001 -8.896092e+000 85 59 36
-1.603971e+000 3.706763e-001 -8.896092e+000 85 59 36
-1.091224e+000 1.106518e-002 -9.568412e+000 57 48 41
-8.780079e-001 3.839134e-001 -9.312943e+000 26 19 14
-7.844357e-001 3.647570e-001 -9.257239e+000 26 18 17
-8.061413e-001 4.212246e-001 -9.306490e+000 128 108 78
-8.061413e-001 4.212246e-001 -9.306490e+000 128 108 78
-7.338732e-001 4.496143e-001 -9.309298e+000 19 18 9
-6.368343e-001 4.182437e-001 -9.268103e+000 21 12 13
-5.832041e-001 4.889950e-001 -9.333135e+000 24 17 6
-5.631133e-001 4.508731e-001 -9.266271e+000 111 99 63
3.767119e+000 2.139085e+000 -1.013986e+001 65 48 40
-2.434078e+000 1.028652e-001 -8.438235e+000 103 59 20
-8.329292e-001 2.842273e-001 -9.201515e+000 22 18 11
-7.620080e-001 3.220082e-001 -9.194571e+000 120 103 76
-7.396280e-001 2.649624e-001 -9.145724e+000 25 22 13
-6.669318e-001 2.931190e-001 -9.148776e+000 117 101 68
-5.404004e-001 3.980763e-001 -9.213494e+000 24 17 13
-4.876931e-001 4.695175e-001 -9.279084e+000 19 16 11
-4.876931e-001 4.695175e-001 -9.279084e+000 19 16 11
-4.677669e-001 4.316546e-001 -9.211930e+000 118 103 69
-5.196500e-001 3.527984e-001 -9.152917e+000 119 106 66
-4.474145e-001 3.876045e-001 -9.150400e+000 25 21 15
-4.112835e-001 4.856253e-001 -9.293893e+000 109 96 63
-3.929388e-001 4.512064e-001 -9.224738e+000 26 16 16
-3.929388e-001 4.512064e-001 -9.224738e+000 26 16 16
-3.735973e-001 4.102392e-001 -9.161230e+000 115 102 73
-3.167136e-001 4.752308e-001 -9.233154e+000 113 98 61
1.941064e-001 5.910688e-001 -9.368568e+000 106 96 71
4.242620e-001 6.401849e-001 -9.433524e+000 18 13 10
-6.461380e-001 2.492908e-001 -9.086981e+000 26 20 13
-4.982363e-001 3.055756e-001 -9.094122e+000 25 21 19
-4.044399e-001 2.892423e-001 -9.037951e+000 24 20 13
-3.529404e-001 3.675426e-001 -9.097567e+000 28 18 17
-3.327573e-001 3.238513e-001 -9.036371e+000 124 112 70
-2.780675e-001 3.897230e-001 -9.108470e+000 121 106 72
-2.260069e-001 4.595173e-001 -9.172958e+000 106 89 63
4.204770e+000 2.179575e+000 -9.985067e+000 28 19 10
-2.142773e+000 -4.694017e-002 -8.247136e+000 91 55 18
-1.860245e-001 3.810981e-001 -9.042497e+000 123 108 75
-3.473556e-002 4.162459e-001 -9.064793e+000 94 80 54
2.973511e-001 4.264887e-001 -9.169795e+000 102 94 74
2.973511e-001 4.264887e-001 -9.169795e+000 102 94 74
8.822726e-001 1.682948e+000 -8.281613e+000 38 23 13
-2.375809e+000 -3.085110e-001 -8.152423e+000 122 78 31
-2.336223e+000 -3.173743e-001 -8.093570e+000 158 122 74
8.149334e-002 3.515400e-001 -8.950568e+000 18 13 8
1.658189e+000 1.726196e+000 -8.372045e+000 68 40 24
-2.212707e+000 -5.446050e-001 -8.009820e+000 155 121 73
-2.212707e+000 -5.446050e-001 -8.009820e+000 155 121 73
2.444233e-001 1.380013e-001 -8.716484e+000 89 75 48
4.418760e+000 1.758127e+000 -9.493310e+000 80 57 44
4.498811e+000 1.633833e+000 -9.310679e+000 43 28 23
-2.084774e+000 -8.789214e-001 -7.851474e+000 129 91 54
4.482565e+000 1.685466e+000 -9.159013e+000 80 59 48
4.532909e+000 1.606895e+000 -9.105787e+000 71 52 38
1.019913e+000 6.130752e-002 -8.447617e+000 47 38 31
7.395739e-001 -4.648230e-001 -8.525550e+000 83 74 59
1.240428e+000 1.790153e-001 -8.308121e+000 71 63 42
1.517426e+000 9.805976e-001 -7.728002e+000 28 14 11
1.968521e+000 9.679492e-001 -8.110889e+000 12 7 12
9.563461e-001 -9.971412e-001 -8.716574e+000 116 120 123
4.133548e+000 7.023820e-001 -9.148567e+000 58 41 30
9.193532e-001 -1.092642e+000 -8.560625e+000 53 46 38
-2.450883e-001 -1.847039e+000 -8.351976e+000 124 131 134
9.451242e-001 -1.071763e+000 -8.455430e+000 118 123 127
1.245352e+000 4.025412e-001 -7.599254e+000 113 69 30
5.661386e-002 -1.361452e+000 -8.010767e+000 43 31 19
6.838621e-001 -8.076000e-001 -7.972546e+000 62 32 16
1.367404e+000 6.476404e-001 -7.314564e+000 151 106 50
6.207437e-001 -1.051668e+000 -7.705291e+000 86 41 19
4.188727e+000 4.348130e-001 -8.421009e+000 27 17 16
4.217769e+000 3.160775e-001 -8.337273e+000 22 12 11
4.553017e+000 5.026532e-001 -8.376224e+000 38 27 23
4.832190e+000 5.864498e-001 -8.279438e+000 25 15 10
4.885251e+000 2.634680e-001 -7.806646e+000 56 42 41
2.891457e+000 3.027508e+000 -1.164269e+001 33 19 16
6.210942e-002 1.782397e+000 -1.027751e+001 66 51 32
2.519346e+000 2.243358e+000 -1.170447e+001 21 11 10
3.464508e+000 2.686532e+000 -1.086419e+001 46 30 21
6.254512e-001 2.368402e+000 -8.847536e+000 168 126 76
1.375183e+000 2.515809e+000 -9.150583e+000 63 49 28
2.970478e+000 1.874755e+000 -1.110429e+001 57 46 29
6.330270e-001 2.446072e+000 -8.505982e+000 164 122 76
9.736518e-001 2.496994e+000 -8.778683e+000 129 88 44
-2.905623e+000 -7.581522e-002 -8.920075e+000 122 79 35
-1.723711e+000 5.221293e-001 -9.204132e+000 46 23 15
-1.301773e+000 2.398918e-002 -9.913448e+000 115 115 117
-1.783671e-002 7.008663e-001 -1.003491e+001 22 17 13
5.550075e-001 2.196275e+000 -8.622845e+000 137 100 56
4.009935e+000 2.479279e+000 -1.051684e+001 27 18 11
-2.829027e+000 3.400312e-003 -8.756565e+000 144 101 50
-2.651177e+000 1.352616e-001 -8.748292e+000 149 107 59
-1.970584e+000 5.035937e-001 -8.806135e+000 33 13 2
6.227510e-001 2.016868e+000 -8.578963e+000 147 104 63
8.439310e-001 2.282522e+000 -8.485862e+000 52 22 11
9.769641e-001 2.427723e+000 -8.451740e+000 159 126 73
3.768237e+000 2.285044e+000 -1.026955e+001 28 17 14
3.768237e+000 2.285044e+000 -1.026955e+001 28 17 14
-2.610594e+000 -4.003822e-002 -8.513442e+000 96 53 13
3.388094e+000 1.511187e+000 -1.041395e+001 72 57 39
-1.053796e+000 2.891921e-002 -9.088699e+000 78 58 37
3.878142e+000 1.534710e+000 -9.863768e+000 25 14 12
2.154886e+000 1.789091e+000 -8.377197e+000 32 21 19
4.497199e+000 1.888953e+000 -9.727977e+000 33 20 20
4.497199e+000 1.888953e+000 -9.727977e+000 33 20 20
4.440630e+000 1.937542e+000 -9.527205e+000 70 54 42
4.458210e+000 1.745602e+000 -9.417602e+000 32 18 15
-1.983787e+000 -6.906280e-001 -7.932353e+000 136 101 61
-1.983787e+000 -6.906280e-001 -7.932353e+000 136 101 61
4.330467e-001 -9.611014e-001 -8.680317e+000 19 14 11
1.145469e+000 -3.456685e-002 -8.271641e+000 80 65 42
1.428415e+000 8.972181e-001 -7.599541e+000 124 89 55
2.118141e+000 9.921750e-001 -7.947595e+000 93 62 31
1.246146e+000 3.974505e-001 -7.706070e+000 165 133 86
7.561857e-001 -7.705864e-001 -7.862063e+000 71 40 20
4.985472e-001 -1.244942e+000 -7.730914e+000 117 68 27
7.645931e-001 -9.208369e-001 -7.589875e+000 130 87 43
4.648654e+000 3.824871e-001 -8.042918e+000 26 16 15
1.818683e+000 1.774006e-001 -6.890190e+000 116 74 31
1.818683e+000 1.774006e-001 -6.890190e+000 116 74 31
2.050819e+000 3.748066e-001 -6.936991e+000 157 120 67
5.119558e+000 3.038534e-001 -7.764184e+000 28 17 15
3.020592e+000 3.251709e+000 -1.171088e+001 53 36 28
-6.657732e-001 1.201236e+000 -1.011648e+001 113 79 41
-2.523505e+000 2.176256e-001 -9.811339e+000 26 21 18
-2.390826e+000 2.312726e-001 -9.745158e+000 110 84 57
2.705227e+000 1.983559e+000 -1.122318e+001 23 13 11
-2.190535e+000 4.350103e-001 -9.377222e+000 41 23 13
-4.495542e-001 1.004720e+000 -9.896189e+000 139 102 55
3.634578e+000 2.611715e+000 -1.067320e+001 112 87 58
-2.686192e+000 1.862086e-001 -9.013691e+000 132 93 49
-2.686192e+000 1.862086e-001 -9.013691e+000 132 93 49
2.599637e-001 8.996660e-001 -1.031538e+001 110 108 111
9.879105e-001 2.517808e+000 -8.642702e+000 155 125 71
1.094650e+000 2.521761e+000 -8.863535e+000 154 123 71
2.882196e+000 1.793822e+000 -1.105188e+001 26 20 15
1.128435e+000 1.563354e+000 -8.297003e+000 56 33 16
-2.745977e-001 2.686985e-002 -8.727691e+000 19 15 20
1.465779e+000 1.658375e+000 -8.293424e+000 83 50 21
3.769112e-002 4.135106e-002 -8.683423e+000 89 74 42
1.808426e+000 9.132360e-001 -8.086132e+000 70 45 23
-4.602304e-001 -1.378927e+000 -8.443960e+000 161 147 121
-4.602304e-001 -1.378927e+000 -8.443960e+000 161 147 121
5.997796e-001 -1.129949e+000 -8.761390e+000 127 127 125
5.997796e-001 -1.129949e+000 -8.761390e+000 127 127 125
-3.168157e-001 -1.602097e+000 -8.367443e+000 162 151 128
8.646548e-001 -1.136502e+000 -8.563846e+000 32 25 17
1.313567e+000 5.691884e-001 -7.340811e+000 75 30 11
2.527738e+000 2.272820e+000 -1.221863e+001 26 16 14
3.513152e+000 3.023797e+000 -1.129140e+001 31 20 16
-2.671612e+000 1.706355e-001 -9.822026e+000 137 115 79
-2.008638e+000 5.053677e-001 -9.408515e+000 30 16 15
9.119310e-002 1.123267e+000 -1.011968e+001 75 62 50
3.213052e+000 1.658033e+000 -1.078368e+001 74 57 40
-2.646301e+000 7.180654e-003 -8.631174e+000 149 108 60
5.439967e-001 1.269625e+000 -9.201475e+000 54 45 30
-1.826831e+000 3.142648e-001 -8.558221e+000 52 23 5
4.061472e+000 2.055289e+000 -9.797967e+000 73 51 37
4.061472e+000 2.055289e+000 -9.797967e+000 73 51 37
3.739252e+000 1.105308e+000 -1.009434e+001 45 30 11
-1.083356e+000 -1.061700e+000 -8.241137e+000 131 97 52
1.248044e+000 -7.793607e-001 -8.342940e+000 20 16 16
4.164315e+000 2.807895e-001 -8.136153e+000 19 13 13
4.771842e+000 2.511683e-001 -7.848055e+000 31 20 19
6.443898e-001 2.430336e+000 -8.960034e+000 175 139 81
8.690575e-001 2.521526e+000 -9.177896e+000 150 112 62
3.291135e+000 2.227132e+000 -1.069888e+001 26 16 14
3.056448e+000 1.637573e+000 -1.083768e+001 21 12 10
9.164483e-001 1.941296e+000 -8.311385e+000 42 27 20
-1.393350e+000 -2.461072e-001 -8.084929e+000 168 137 83
-2.401802e+000 -8.836172e-001 -7.988755e+000 165 129 77
9.371016e-001 -1.086514e+000 -8.710966e+000 116 120 120
4.634239e+000 4.790663e-001 -8.224217e+000 27 17 16
5.974153e-001 1.632700e+000 -8.558792e+000 36 27 20
3.298503e+000 1.341741e+000 -1.032237e+001 20 12 11
-4.772552e-001 -9.775653e-001 -8.460685e+000 154 132 93
1.353500e+000 6.718517e-001 -8.108203e+000 39 30 26
1.099214e+000 -1.161180e+000 -8.570015e+000 119 123 126
-2.942969e+000 4.295808e-002 -9.196067e+000 90 64 36
6.767448e-001 1.816377e+000 -8.597428e+000 138 106 59
-2.343073e+000 -6.715052e-001 -8.003069e+000 153 119 71
-9.158051e-001 -1.471193e+000 -8.395765e+000 18 13 17
4.251866e+000 2.648141e-001 -8.603005e+000 34 24 23
-1.771417e-001 1.474736e+000 -1.003735e+001 136 105 56
-3.284856e-001 1.003906e+000 -9.925286e+000 118 89 47
7.657166e-001 2.215426e+000 -8.392635e+000 76 46 34
4.326084e+000 8.071429e-001 -9.887579e+000 81 63 41
3.441205e+000 2.251780e+000 -1.052390e+001 35 24 22
3.441205e+000 2.251780e+000 -1.052390e+001 35 24 22
-1.384723e+000 1.832568e-001 -8.545110e+000 129 102 58
-8.257682e-001 -2.171200e-001 -8.735330e+000 67 58 37
2.022307e+000 1.712432e+000 -8.649542e+000 16 12 13
-1.190323e+000 1.581791e-001 -9.296854e+000 26 17 17
9.232950e-001 1.012535e+000 -8.161122e+000 15 13 15
4.255188e+000 2.618026e+000 -1.044565e+001 155 134 115
4.278763e+000 2.595499e+000 -1.042121e+001 59 38 17
-4.854536e+000 3.978215e+000 -2.024309e+001 50 45 39
8.220400e-001 1.672431e+000 -8.395839e+000 159 133 99
-3.002632e+000 2.854093e+000 -1.916227e+001 17 16 21
-7.295013e-001 1.218002e+000 -1.009682e+001 132 101 71
-3.898493e-001 1.108344e+000 -9.825581e+000 150 125 92
-2.378064e-001 8.777522e-001 -9.912326e+000 61 44 24
2.662840e-002 8.415894e-001 -9.960518e+000 73 60 56
4.143662e-001 3.377800e-001 -8.905980e+000 64 56 53
-4.593030e-001 1.727624e-001 -8.919618e+000 136 130 114
-6.156533e-001 -1.664905e-001 -8.715009e+000 107 102 87
-2.232078e+000 -3.141192e-001 -8.129949e+000 121 82 51
-1.865516e+000 -6.329731e-001 -8.003215e+000 140 108 79
-2.243882e+000 -1.076405e+000 -8.011349e+000 129 95 76
-1.811159e+000 -1.404178e+000 -8.101503e+000 25 15 16
-1.811159e+000 -1.404178e+000 -8.101503e+000 25 15 16
3.316811e+000 2.816495e+000 -1.092817e+001 99 86 69
3.316811e+000 2.816495e+000 -1.092817e+001 99 86 69
-3.397977e+000 4.174160e+000 -2.095751e+001 55 57 64
1.041027e+000 1.578103e+000 -8.177018e+000 94 81 72
-4.538288e-001 1.747705e+000 -1.012022e+001 104 66 29
1.021423e+000 1.531137e+000 -8.279780e+000 76 62 55
1.010520e+000 1.472539e+000 -8.366241e+000 31 17 14
1.241768e+000 1.413473e+000 -8.201711e+000 72 44 30
1.466969e+000 3.728453e-001 -7.098197e+000 141 98 53
-2.107667e-001 2.111963e-001 -8.831078e+000 135 130 108
-2.318069e+000 -4.906086e-002 -8.244638e+000 163 129 84
1.722348e+000 -6.311827e-002 -6.881559e+000 182 143 104
-1.683062e+000 -1.944035e-001 -8.102363e+000 157 133 109
1.587615e+000 -1.479230e-001 -7.071352e+000 122 69 36
-1.784553e+000 -4.850187e-001 -8.003605e+000 123 96 67
-2.406815e+000 -7.341446e-001 -8.032099e+000 192 164 126
-1.939441e+000 -8.269994e-001 -7.976260e+000 119 83 51
-1.928291e+000 -8.839413e-001 -7.938443e+000 122 86 54
-1.744653e+000 -1.136255e+000 -8.004169e+000 106 70 54
-1.499507e+000 -1.123261e+000 -8.161208e+000 35 15 8
-1.317923e+000 -1.448015e+000 -8.216243e+000 69 53 54
9.445932e-001 -1.870286e+000 -8.012216e+000 154 113 83
3.625570e+000 3.191140e+000 -1.137322e+001 73 58 51
3.625570e+000 3.191140e+000 -1.137322e+001 73 58 51
3.289419e+000 2.960821e+000 -1.104654e+001 112 94 84
1.088882e+000 2.064397e+000 -8.312019e+000 67 48 18
6.292715e-001 1.862661e+000 -8.586442e+000 60 34 12
1.603589e+000 1.817005e+000 -8.286232e+000 147 127 95
1.664506e+000 1.476391e+000 -8.284568e+000 65 38 19
1.530019e+000 8.954954e-001 -7.516750e+000 83 49 36
1.260717e+000 7.665587e-001 -7.627931e+000 20 22 24
-9.423442e-001 3.636308e-001 -9.267345e+000 165 162 132
-9.423442e-001 3.636308e-001 -9.267345e+000 165 162 132
-7.359001e-001 4.597566e-001 -9.262244e+000 28 24 13
1.614978e+000 2.936623e-001 -7.045561e+000 103 68 37
-8.987228e-001 2.596983e-001 -9.175201e+000 152 148 122
1.572097e+000 -1.008938e-001 -7.050131e+000 115 65 40
-2.655621e+000 -3.637370e-001 -8.280069e+000 128 92 60
-1.782718e+000 -4.068515e-001 -8.123108e+000 71 44 25
-1.467580e+000 -4.369348e-001 -8.189262e+000 136 113 81
2.154941e+000 -2.773921e-001 -7.127910e+000 53 30 18
-1.597907e+000 -4.722589e-001 -8.020951e+000 109 97 80
-1.085493e+000 -8.599451e-001 -8.265803e+000 81 52 31
-2.438370e+000 -1.046322e+000 -8.076637e+000 118 77 45
-1.854176e+000 -1.028537e+000 -7.962523e+000 114 80 61
-2.522340e+000 -1.193826e+000 -8.081276e+000 107 67 35
-2.470520e+000 -1.150481e+000 -8.090790e+000 101 66 36
-2.472351e+000 -1.148789e+000 -8.085504e+000 101 66 36
-1.289993e+000 -1.213148e+000 -8.113941e+000 36 19 22
-1.538848e-001 -1.181110e+000 -8.355369e+000 122 118 105
2.961802e-001 -1.466796e+000 -7.877148e+000 41 21 15
-2.631933e+000 -1.802476e+000 -8.361150e+000 64 54 53
9.340007e-001 -1.691435e+000 -7.849041e+000 171 131 95
-4.328040e+000 4.339998e+000 -2.033487e+001 148 149 153
-4.202421e+000 3.293126e+000 -2.047494e+001 199 207 220
-7.025201e-001 1.449283e+000 -1.000304e+001 139 97 59
4.728023e-001 1.204471e+000 -9.593106e+000 26 21 18
-7.169300e-001 1.038814e+000 -1.001919e+001 163 127 95
1.510726e+000 4.275477e-001 -7.114555e+000 123 84 55
4.014035e-001 3.777945e-001 -8.882370e+000 123 122 111
