ply
format ascii 1.0
element face 0
property list uchar int vertex_indices
element vertex 881
property float x
property float y
property float z
property uchar diffuse_red
property uchar diffuse_green
property uchar diffuse_blue
end_header
2.089237e-001 -8.052107e-001 -8.413387e+000 27 22 29
2.873943e-001 -7.776039e-001 -8.425310e+000 138 128 98
2.873328e-001 -7.761245e-001 -8.417413e+000 138 128 98
4.437648e-001 -7.199583e-001 -8.463078e+000 104 97 72
-3.999436e-001 -8.661359e-001 -8.338371e+000 130 124 102
-1.011379e-001 -9.109482e-001 -8.297450e+000 27 24 25
-1.010314e-001 -9.109118e-001 -8.297798e+000 27 24 25
-1.797849e-001 -9.422182e-001 -8.297947e+000 140 132 111
-2.586352e-001 -9.725530e-001 -8.274700e+000 25 23 27
-2.118076e-002 -8.828594e-001 -8.316830e+000 128 118 97
5.493169e-002 -8.567308e-001 -8.345965e+000 21 19 18
7.163837e-003 -9.602015e-001 -8.314480e+000 23 20 22
1.615782e-001 -9.080841e-001 -8.370841e+000 21 18 24
1.619331e-001 -9.073841e-001 -8.368431e+000 21 18 24
2.392301e-001 -8.823002e-001 -8.401570e+000 116 105 82
8.606262e-002 -9.354838e-001 -8.335459e+000 117 109 89
1.895290e-001 -9.865470e-001 -8.375098e+000 97 87 64
3.129127e-001 -8.539965e-001 -8.420526e+000 17 18 21
-2.355158e+000 -1.016921e+000 -7.767875e+000 135 91 64
-1.556793e+000 -1.074833e+000 -7.855672e+000 56 27 22
-4.542081e-001 -1.158485e+000 -8.269811e+000 34 31 32
-4.146437e-001 -1.044155e+000 -8.277089e+000 29 25 23
-3.385027e-001 -1.006019e+000 -8.271032e+000 136 131 113
8.371230e-001 -1.361059e+000 -7.498517e+000 85 46 26
-2.767405e+000 -1.503448e+000 -7.930515e+000 235 219 194
-2.771632e+000 -1.506294e+000 -7.943130e+000 235 219 194
1.232604e+000 -1.469305e+000 -7.400093e+000 203 170 137
-2.215610e+001 -8.742833e+000 -4.085925e+001 165 152 130
1.006922e+000 -1.626733e+000 -7.500771e+000 209 175 137
-1.120499e+001 -6.264046e+000 -2.647481e+001 98 99 119
-1.668727e+001 -9.544539e+000 -3.204699e+001 109 103 106
-1.735497e+001 -9.899448e+000 -3.154496e+001 67 58 76
-1.816474e+001 -1.052780e+001 -3.251384e+001 196 183 168
1.257374e+000 2.343645e+000 -8.108425e+000 180 160 127
1.753189e+000 1.837129e+000 -8.214551e+000 75 47 23
-1.203593e+001 5.818128e+000 -3.961525e+001 15 12 19
7.656023e-001 1.162222e+000 -9.377606e+000 71 64 57
9.974443e-001 1.253061e+000 -8.968215e+000 37 31 33
1.081122e+000 1.175721e+000 -8.880078e+000 40 34 31
8.490217e-001 9.488413e-001 -9.018442e+000 76 71 65
9.581416e-001 8.762029e-001 -9.022183e+000 54 50 49
1.526357e+000 4.911412e-001 -6.943293e+000 150 103 58
1.927758e+000 4.959479e-001 -6.833173e+000 179 153 116
1.792309e+000 4.539064e-001 -6.908071e+000 194 156 110
-1.975558e+000 2.561215e-001 -8.330700e+000 50 21 17
-1.973207e+000 2.565181e-001 -8.326826e+000 50 21 17
-1.593145e+000 3.799298e-001 -8.638880e+000 55 31 19
-2.271425e+000 2.063339e-001 -8.264866e+000 154 124 86
-8.521513e-001 -1.303926e-001 -8.956684e+000 75 70 60
-2.440605e+000 -1.816113e-001 -8.025244e+000 178 148 110
2.668867e+000 -1.726890e-001 -6.996487e+000 20 10 19
2.309425e+000 -3.509362e-001 -7.013558e+000 155 133 113
-2.011055e+001 -3.194270e+000 -3.838122e+001 213 204 195
-9.082319e-001 -1.512201e+000 -8.940073e+000 163 169 182
-3.212657e-001 -1.382415e+000 -8.251391e+000 137 134 127
9.413678e-001 -1.318564e+000 -7.477373e+000 104 62 40
-1.995597e+001 -8.763900e+000 -4.178902e+001 139 131 112
8.177814e-001 -1.651244e+000 -7.580329e+000 138 91 49
1.183658e+000 -1.585907e+000 -7.523262e+000 157 114 72
-2.103676e+000 -1.952275e+000 -8.072703e+000 42 36 32
-1.388863e+001 -7.913939e+000 -2.985328e+001 22 14 30
-1.718426e+001 -1.014529e+001 -3.187433e+001 110 102 118
2.116374e+000 2.486465e+000 -9.027037e+000 31 19 28
9.780251e-001 1.784205e+000 -8.316414e+000 122 94 64
1.930565e+000 9.648686e-001 -7.250057e+000 172 153 121
-3.655161e+000 2.250039e+000 -2.004429e+001 182 190 200
3.866932e-002 2.994871e-001 -8.740732e+000 97 90 75
-2.400263e+000 1.058601e-001 -8.231449e+000 109 71 37
-2.579571e+000 -9.837040e-001 -7.817823e+000 181 145 109
7.791252e-001 -9.868216e-001 -7.611099e+000 66 34 22
9.197502e-001 -9.922087e-001 -7.460529e+000 111 75 51
-1.428832e+001 -9.258115e+000 -3.003606e+001 27 25 35
-4.092609e+000 2.687952e+000 -2.020770e+001 222 221 219
8.018503e-003 1.025544e+000 -1.001888e+001 81 66 47
-1.225786e+000 -1.232542e+000 -8.013088e+000 82 56 41
-1.619652e+001 -9.716858e+000 -3.210311e+001 30 27 34
-4.129612e-001 2.111635e+000 -1.025137e+001 148 116 76
1.142219e+000 1.705229e+000 -8.183666e+000 48 37 33
-1.121735e+001 4.847150e+000 -3.815624e+001 22 19 30
2.463979e+000 -8.477469e-002 -6.963005e+000 47 32 27
-6.851311e-001 -1.320711e+000 -8.568100e+000 119 124 127
-2.368144e+000 -1.908251e+000 -8.033355e+000 205 193 179
2.482829e+000 1.118326e-001 -6.928957e+000 146 126 102
-1.557411e+000 -8.490480e-001 -7.859163e+000 76 43 27
-1.092270e+000 -1.061581e+000 -8.126923e+000 70 43 20
-1.473360e+000 -2.133559e-001 -7.958510e+000 171 151 116
-2.084447e+001 -1.002367e+001 -4.259636e+001 19 16 25
5.323058e-001 -4.255251e-002 -7.914646e+000 25 22 26
8.704697e-001 2.265594e+000 -8.247390e+000 145 115 97
5.841537e-001 2.231006e+000 -8.760895e+000 162 145 117
1.016864e+000 1.986854e+000 -8.248009e+000 52 34 24
5.116373e+000 2.019914e+000 -9.567009e+000 82 70 72
5.199458e+000 1.859770e+000 -9.368653e+000 46 33 27
-3.542961e-001 1.245022e+000 -9.890288e+000 150 125 92
-3.151713e-001 1.224563e+000 -9.909632e+000 107 82 51
7.621445e-001 9.155813e-001 -9.196083e+000 28 24 25
1.926418e+000 6.351560e-001 -6.879818e+000 177 157 119
-1.790552e+001 1.686167e+000 -3.305524e+001 56 69 118
3.538040e-001 4.014513e-001 -8.882401e+000 97 90 81
9.592021e-001 4.577107e-001 -8.785407e+000 61 57 54
1.848326e+000 3.500589e-001 -6.839509e+000 95 56 24
2.068526e+000 4.616954e-001 -6.740741e+000 170 148 107
-2.110122e+000 2.664530e-001 -8.286350e+000 124 92 67
-7.702748e-002 3.763375e-001 -8.885387e+000 154 149 119
1.857234e+000 2.483405e-001 -6.778071e+000 165 120 78
7.172546e-001 1.918890e-001 -8.679094e+000 54 48 35
2.923960e+000 1.171357e-001 -7.276568e+000 19 9 12
-1.048694e+000 2.989498e-002 -8.219897e+000 110 95 74
-3.133185e-001 -1.135541e-001 -8.577598e+000 132 122 105
-9.191621e-001 -3.089428e-001 -8.598532e+000 44 36 36
9.835767e-001 -4.618281e-001 -8.495741e+000 78 73 76
2.138654e-001 -6.522707e-001 -8.422455e+000 136 129 101
-7.039950e-001 -1.123036e+000 -8.457379e+000 128 129 122
-2.418446e-001 -1.083227e+000 -8.268741e+000 137 132 113
-1.339810e+001 -8.841173e+000 -2.907859e+001 91 104 149
-1.867181e+001 -1.051590e+001 -3.243080e+001 157 140 124
-1.440494e+001 -9.774559e+000 -2.978250e+001 32 33 52
3.430166e+000 3.164342e+000 -1.149241e+001 69 58 52
1.611204e+000 2.064083e+000 -8.170837e+000 70 49 25
7.097469e-001 1.986610e+000 -8.520810e+000 157 133 105
4.557790e+000 2.262524e+000 -1.003589e+001 63 50 42
4.408289e+000 2.204706e+000 -1.005497e+001 36 24 25
1.333723e+000 1.507032e+000 -8.208560e+000 99 77 53
-2.352378e-001 1.619215e+000 -1.000807e+001 58 35 16
-2.352378e-001 1.619215e+000 -1.000807e+001 58 35 16
-3.893753e-001 1.258215e+000 -9.849328e+000 115 87 50
3.953697e-001 2.045584e-001 -8.673206e+000 104 98 85
1.605713e+000 3.279925e-001 -7.053039e+000 139 96 54
-1.120194e+000 8.429599e-002 -8.167068e+000 47 30 14
-3.444086e-001 1.264635e-001 -8.723788e+000 36 34 16
-3.467175e-001 1.234362e-001 -8.735294e+000 36 34 16
-2.695842e-001 -1.327142e-001 -8.553370e+000 21 18 15
-2.700612e-001 -1.325402e-001 -8.552824e+000 21 18 15
1.591644e+000 -6.369519e-002 -7.226073e+000 150 111 85
6.478583e-001 -2.620005e-001 -8.510200e+000 145 138 119
6.478583e-001 -2.620005e-001 -8.510200e+000 145 138 119
-1.882517e+000 -3.433848e-001 -7.944027e+000 120 94 69
1.030585e+000 -4.396614e-001 -8.645518e+000 11 9 15
-1.882153e+000 -6.535537e-001 -7.807886e+000 95 56 33
-1.832090e+000 -6.547607e-001 -7.770048e+000 146 112 84
-2.257035e+000 -8.219940e-001 -7.728254e+000 84 49 22
-2.452762e+000 -1.007058e+000 -7.774820e+000 164 123 91
-2.028711e-001 -1.144492e+000 -8.277213e+000 115 110 104
1.329322e-001 -1.111785e+000 -8.407188e+000 27 23 21
-2.141873e+000 -1.204981e+000 -7.823469e+000 62 40 29
-1.578780e+000 -1.189514e+000 -7.920002e+000 86 55 40
-1.471767e+000 -1.148416e+000 -7.941078e+000 51 28 18
-1.551174e+000 -1.348103e+000 -7.842965e+000 43 35 32
-1.359599e+001 -8.641407e+000 -2.982643e+001 122 131 164
-1.784269e+001 -1.050407e+001 -3.159667e+001 175 165 156
1.063154e+000 2.048403e+000 -8.252701e+000 46 33 25
1.488739e+000 1.798030e+000 -8.148311e+000 50 30 19
4.999875e+000 1.539965e+000 -9.209804e+000 75 60 57
-4.187253e+000 2.803603e+000 -2.005443e+001 231 228 223
5.124071e+000 1.375646e+000 -9.047771e+000 27 16 17
-4.801498e-001 1.323003e+000 -9.916801e+000 73 49 21
1.968957e+000 7.138461e-001 -6.919977e+000 189 169 134
2.151963e+000 4.388556e-001 -6.732215e+000 170 146 112
-1.022605e+000 3.864600e-001 -9.281731e+000 50 48 39
2.934649e-001 1.700833e-001 -8.636868e+000 93 88 72
3.023905e-001 8.994197e-002 -8.610353e+000 126 120 99
1.240932e+000 5.184488e-002 -8.421057e+000 71 66 63
-6.422455e-001 -7.347947e-002 -8.706099e+000 106 99 88
-1.827257e-001 -2.615498e-002 -8.591118e+000 23 19 27
1.375708e+000 -2.317570e-001 -8.116964e+000 61 56 55
1.787244e+000 -1.474626e-001 -6.876743e+000 174 126 85
1.787244e+000 -1.474626e-001 -6.876743e+000 174 126 85
-2.797045e+000 -3.129292e-001 -8.123758e+000 195 158 121
-8.484230e-001 -3.636301e-001 -8.669759e+000 72 68 56
-2.466283e+000 -9.655156e-001 -7.795785e+000 121 78 46
-2.612060e+000 -1.159314e+000 -7.911836e+000 165 127 88
-2.635097e+000 -1.272143e+000 -7.951232e+000 168 137 104
-1.148223e+000 -1.291411e+000 -8.217038e+000 57 38 32
-3.802629e-001 -1.291960e+000 -8.223769e+000 135 132 123
-1.912537e-001 -1.240976e+000 -8.292364e+000 97 93 84
-1.561055e-001 -1.650579e+000 -8.057787e+000 41 36 32
-1.400925e+001 -9.789001e+000 -2.941338e+001 68 66 86
5.198935e+000 1.544725e+000 -9.030809e+000 43 27 28
2.017706e-001 1.297248e+000 -1.024221e+001 44 34 32
8.037792e-001 8.758958e-001 -9.151038e+000 24 19 24
4.648174e-001 7.129499e-001 -9.412810e+000 94 89 82
1.963485e+000 4.916016e-001 -6.817920e+000 173 149 115
1.978999e+000 5.470693e-001 -6.847535e+000 66 46 41
1.757268e+000 3.831586e-001 -6.894471e+000 138 92 51
1.916191e+000 3.593616e-001 -6.709393e+000 90 55 17
-5.157046e-001 1.590597e-002 -8.678339e+000 131 122 103
1.053758e+000 -1.166909e-001 -8.586087e+000 51 47 48
-9.682417e-001 -4.929054e-001 -8.402544e+000 35 20 24
-1.069557e+000 -6.310815e-001 -8.220369e+000 66 41 19
7.386621e-001 -6.072120e-001 -8.628691e+000 90 83 64
-5.793725e-001 -8.695351e-001 -8.372693e+000 26 25 23
-5.170747e-001 -1.013813e+000 -8.318321e+000 28 26 23
-1.215522e-001 -1.087029e+000 -8.279191e+000 119 107 91
-1.768312e+001 -9.820654e+000 -3.191161e+001 126 126 143
1.168632e+000 2.500476e+000 -8.272719e+000 177 157 122
1.168632e+000 2.500476e+000 -8.272719e+000 177 157 122
4.006515e+000 2.912485e+000 -1.093057e+001 113 99 86
4.357943e+000 2.306273e+000 -1.006535e+001 78 63 58
1.415604e+000 1.736462e+000 -8.196767e+000 47 28 18
5.077202e+000 1.829445e+000 -9.310025e+000 94 78 71
1.948437e+000 7.924980e-001 -6.962749e+000 179 159 125
-1.327483e+000 1.671544e-001 -8.078548e+000 143 121 95
4.918768e-001 9.128320e-002 -8.618478e+000 21 18 19
1.221150e-001 -1.300785e-001 -8.537940e+000 22 19 22
3.125321e-001 -1.502660e-001 -8.558243e+000 123 115 93
3.920032e-001 -1.226353e-001 -8.572329e+000 24 21 23
3.413162e-001 -2.294446e-001 -8.551827e+000 25 20 16
4.191976e-001 -2.010867e-001 -8.559201e+000 142 136 110
2.630339e-001 -2.559116e-001 -8.531423e+000 123 118 99
-2.923897e-001 -4.688441e-001 -8.444024e+000 20 20 18
8.396795e-001 -4.025522e-001 -8.527212e+000 144 137 110
-3.081560e-001 -6.491317e-001 -8.390269e+000 132 127 103
-1.184978e-001 -6.577193e-001 -8.377875e+000 24 22 25
-1.184978e-001 -6.577193e-001 -8.377875e+000 24 22 25
-3.912082e-002 -6.275960e-001 -8.388096e+000 132 121 97
-4.632099e-001 -7.241321e-001 -8.399776e+000 138 132 113
-5.091130e-001 -8.343777e-001 -8.382232e+000 141 137 112
1.332464e-001 -8.284541e-001 -8.379932e+000 107 100 73
1.332464e-001 -8.284541e-001 -8.379932e+000 107 100 73
-1.796794e-001 -9.408270e-001 -8.287581e+000 140 132 111
-2.586149e-001 -9.728700e-001 -8.276225e+000 25 23 27
-2.634756e+000 -1.040046e+000 -7.874649e+000 171 136 98
-2.634756e+000 -1.040046e+000 -7.874649e+000 171 136 98
8.477734e-001 6.759226e-001 -8.866140e+000 66 64 65
4.576914e-001 1.824732e-001 -8.664640e+000 95 89 72
8.584839e-001 8.217328e-001 -9.042102e+000 18 16 19
-1.844979e+000 -2.552906e-001 -7.910590e+000 75 48 27
8.278333e-001 2.586239e+000 -8.355388e+000 122 75 33
7.461530e-001 2.130100e+000 -8.512435e+000 101 64 38
9.857298e-001 2.164652e+000 -8.259611e+000 47 23 19
1.344066e+000 1.933980e+000 -8.041647e+000 82 69 53
8.010116e-001 1.904168e+000 -8.715589e+000 44 30 21
1.002115e+000 1.833651e+000 -8.399986e+000 151 126 96
1.144805e+000 1.922125e+000 -8.193806e+000 32 19 12
1.315070e+000 1.855226e+000 -8.255839e+000 61 45 45
1.306914e+000 1.850949e+000 -8.198234e+000 61 45 45
1.864369e+000 1.874349e+000 -8.348024e+000 75 47 33
1.203028e+000 1.710349e+000 -8.250904e+000 78 64 59
1.771254e+000 1.665342e+000 -8.232919e+000 91 52 21
1.811077e+000 1.170391e+000 -7.641458e+000 125 97 76
-3.317083e-001 6.865063e-001 -9.501589e+000 128 124 115
-2.908652e-001 7.008746e-001 -9.465974e+000 25 22 15
-2.908652e-001 7.008746e-001 -9.465974e+000 25 22 15
-2.509614e-001 7.083829e-001 -9.498337e+000 31 26 22
2.469933e-002 7.785451e-001 -9.821750e+000 67 61 57
1.520797e+000 9.222001e-001 -7.443804e+000 185 145 107
1.901004e+000 9.570555e-001 -7.486784e+000 54 39 25
2.009333e+000 9.900588e-001 -7.295673e+000 158 139 103
-2.550744e+000 5.086731e-001 -8.802955e+000 143 101 61
-2.099345e+000 4.753933e-001 -8.513819e+000 150 114 82
-1.763480e+000 5.393674e-001 -8.587059e+000 96 61 33
-1.676615e+000 6.028749e-001 -9.518576e+000 210 215 235
-1.522410e+000 5.056404e-001 -8.789793e+000 129 102 79
-1.040237e+000 5.813347e-001 -9.454035e+000 36 29 19
-6.002755e-001 6.179044e-001 -9.318987e+000 111 104 94
-6.002755e-001 6.179044e-001 -9.318987e+000 111 104 94
-4.222196e-001 6.689111e-001 -9.528257e+000 35 27 21
-3.520667e-001 6.526700e-001 -9.408318e+000 34 27 18
-3.520667e-001 6.526700e-001 -9.408318e+000 34 27 18
-3.104533e-001 6.633549e-001 -9.399669e+000 27 23 13
-2.719368e-001 6.751538e-001 -9.407221e+000 119 118 100
-2.719368e-001 6.751538e-001 -9.407221e+000 119 118 100
-2.198605e-001 6.474909e-001 -9.401772e+000 22 17 13
-1.697172e-001 6.530489e-001 -9.400081e+000 96 90 84
2.633492e-002 6.647302e-001 -9.655444e+000 23 20 13
1.715080e-001 6.484675e-001 -9.576129e+000 26 19 11
1.915121e-001 6.184689e-001 -9.509361e+000 92 85 75
2.894109e-001 6.071903e-001 -9.355955e+000 74 75 64
1.446178e+000 7.797646e-001 -7.576120e+000 28 21 31
1.561150e+000 8.321022e-001 -7.114008e+000 148 105 62
1.561150e+000 8.321022e-001 -7.114008e+000 148 105 62
5.026895e+000 9.611715e-001 -8.573382e+000 66 55 57
-2.722843e+000 3.471809e-001 -8.630545e+000 178 146 105
-2.307473e+000 3.820376e-001 -8.444196e+000 99 63 28
-2.225748e+000 3.184372e-001 -8.229255e+000 158 125 90
-2.296542e+000 4.180546e-001 -8.521946e+000 185 150 110
-2.130567e+000 3.426690e-001 -8.201882e+000 84 50 22
-2.076935e+000 3.238140e-001 -8.295606e+000 121 90 69
-1.978431e+000 3.393753e-001 -8.399316e+000 113 78 59
-1.725076e+000 3.615818e-001 -8.580713e+000 81 55 45
-1.601080e+000 3.235350e-001 -8.660534e+000 43 21 8
-1.223757e+000 3.636724e-001 -8.848246e+000 90 72 50
-4.671675e-003 5.128106e-001 -9.158300e+000 34 25 26
3.259999e-001 5.249443e-001 -9.179365e+000 13 11 12
3.481265e-001 4.938917e-001 -9.144074e+000 71 67 62
3.887141e-001 4.910111e-001 -9.143540e+000 80 76 73
1.598639e+000 7.154207e-001 -6.986622e+000 201 164 122
1.598639e+000 7.154207e-001 -6.986622e+000 201 164 122
-2.134445e+000 2.617739e-001 -8.176838e+000 140 108 83
-2.117092e+000 3.108997e-001 -8.225941e+000 148 118 90
-2.117092e+000 3.108997e-001 -8.225941e+000 148 118 90
-1.139197e+000 2.804367e-001 -8.483837e+000 127 107 82
-3.692998e-001 2.016090e-001 -8.794923e+000 158 148 122
1.474517e+000 5.871396e-001 -7.102425e+000 154 112 63
1.603082e+000 5.808158e-001 -7.149486e+000 158 117 73
1.603152e+000 5.023021e-001 -6.970328e+000 224 186 139
-2.955771e+000 1.419404e-002 -8.344247e+000 199 161 116
-2.306764e+000 -3.946329e-003 -8.002652e+000 131 101 62
-2.197647e+000 5.544289e-002 -8.076436e+000 101 68 35
-2.250197e+000 2.566272e-002 -8.102334e+000 111 79 41
-2.025858e+000 1.435162e-001 -8.182315e+000 68 36 11
-1.272159e+000 1.183463e-001 -8.060675e+000 86 62 37
-1.272830e+000 1.169504e-001 -8.065375e+000 86 62 37
-5.525474e-001 1.518767e-001 -8.854581e+000 113 38 50
-1.385869e-001 1.623866e-001 -8.686657e+000 158 157 125
-1.398630e-001 1.595716e-001 -8.696371e+000 158 157 125
8.517803e-001 9.597351e-002 -8.626358e+000 45 38 31
1.542982e+000 4.455666e-001 -7.128632e+000 146 91 50
1.761577e+000 4.650373e-001 -7.017603e+000 97 54 12
1.824731e+000 4.445778e-001 -6.709882e+000 132 95 51
-2.417109e+000 -7.143699e-002 -8.004506e+000 182 148 108
-2.417109e+000 -7.143699e-002 -8.004506e+000 182 148 108
-2.030091e+000 1.771764e-003 -7.885593e+000 159 130 98
-2.071660e+000 -4.951528e-002 -7.819436e+000 110 80 44
-2.080641e+000 -1.183090e-001 -7.917119e+000 117 89 52
-1.846806e+000 -2.028893e-002 -7.965331e+000 122 96 72
-3.800294e-001 -1.130691e-001 -8.565342e+000 139 111 95
3.550088e-001 -1.085093e-001 -8.570818e+000 31 31 24
1.628807e+000 2.861165e-001 -7.043625e+000 189 144 102
1.882927e+000 2.587515e-001 -6.719939e+000 159 114 73
2.834660e+000 2.296499e-001 -7.318312e+000 57 47 46
2.961766e+000 1.999776e-001 -7.584152e+000 62 52 51
-2.220184e+000 -1.711057e-001 -7.942921e+000 182 150 112
-2.225770e+000 -2.670358e-001 -7.847147e+000 161 134 97
-2.039836e+000 -1.900788e-001 -7.917410e+000 163 131 100
-2.056298e+000 -2.208685e-001 -7.921961e+000 108 73 43
-1.738473e+000 -2.422100e-001 -7.997921e+000 59 32 12
-1.664104e+000 -2.364138e-001 -7.919901e+000 73 49 25
-1.664104e+000 -2.364138e-001 -7.919901e+000 73 49 25
-9.762884e-001 -8.656941e-002 -7.816450e+000 125 104 79
1.792861e+000 2.147987e-001 -6.723183e+000 151 104 62
1.873549e+000 1.370593e-001 -6.643498e+000 200 152 108
1.919542e+000 1.188707e-001 -6.670118e+000 200 153 110
1.986191e+000 1.944281e-001 -6.785227e+000 153 111 73
1.998592e+000 1.924901e-001 -6.737259e+000 144 103 64
2.953262e+000 1.892812e-001 -7.302903e+000 60 51 50
2.953262e+000 1.892812e-001 -7.302903e+000 60 51 50
-2.639999e+000 -4.356477e-001 -7.866949e+000 150 105 66
-2.634074e+000 -4.874163e-001 -7.862281e+000 187 146 101
-2.284377e+000 -3.943164e-001 -7.950275e+000 171 143 110
-1.892848e+000 -3.380192e-001 -7.809670e+000 145 116 87
-1.843249e+000 -4.604818e-001 -7.970258e+000 73 47 30
-1.608513e+000 -3.493573e-001 -7.945696e+000 74 56 49
-1.599080e+000 -4.125378e-001 -7.876483e+000 95 78 63
-3.396292e-001 -4.286992e-001 -8.480106e+000 138 132 110
-3.396292e-001 -4.286992e-001 -8.480106e+000 138 132 110
9.420257e-001 -3.049218e-001 -8.505962e+000 33 29 17
9.417322e-001 -3.050084e-001 -8.505506e+000 33 29 17
9.827120e-001 -4.022129e-001 -8.497087e+000 87 80 74
2.389511e+000 -5.865595e-003 -6.967419e+000 89 61 38
-2.721796e+000 -6.043332e-001 -7.917328e+000 108 70 32
-1.353203e+000 -6.155223e-001 -7.994513e+000 81 45 23
-9.988953e-001 -5.820932e-001 -8.095844e+000 94 69 54
-8.946148e-001 -5.589807e-001 -8.320659e+000 62 48 44
2.061341e+000 -9.831054e-002 -6.737442e+000 171 131 96
2.211597e+000 -1.785230e-001 -6.803978e+000 138 99 60
-2.226906e+000 -6.610637e-001 -7.649735e+000 167 138 106
-2.240181e+000 -7.769228e-001 -7.771078e+000 152 115 89
-1.244920e+000 -7.414765e-001 -7.959859e+000 88 52 28
-9.123623e-001 -6.641476e-001 -8.257246e+000 100 89 59
-5.380097e-001 -6.963991e-001 -8.406914e+000 155 148 129
2.512326e+000 -2.984060e-001 -7.011318e+000 44 29 34
2.513580e+000 -2.995469e-001 -7.015310e+000 44 29 34
-3.060498e+000 -9.525003e-001 -8.241218e+000 167 143 123
-2.447125e+000 -8.607826e-001 -7.717626e+000 139 103 71
-2.240700e+000 -8.139463e-001 -7.793030e+000 87 52 24
-1.634449e+000 -8.215143e-001 -7.810971e+000 72 35 16
-1.253577e+000 -8.338587e-001 -7.857543e+000 136 103 72
-1.253577e+000 -8.338587e-001 -7.857543e+000 136 103 72
-1.268938e+000 -8.504677e-001 -8.060668e+000 74 39 17
-8.546004e-001 -1.017198e+000 -8.357029e+000 90 84 75
2.059510e-001 -8.565909e-001 -8.357706e+000 109 99 77
2.009361e+000 -4.140492e-001 -7.118775e+000 24 14 15
-2.657697e+000 -1.123956e+000 -7.762154e+000 176 131 89
-2.397246e+000 -1.030344e+000 -7.621758e+000 134 95 67
-2.316252e+000 -1.092238e+000 -7.701237e+000 129 93 71
-1.773015e+000 -9.223441e-001 -7.639006e+000 127 90 64
-1.550788e+000 -1.002898e+000 -7.627138e+000 61 29 14
-4.101475e-001 -1.091931e+000 -8.209729e+000 147 144 126
1.465477e-001 -1.043146e+000 -8.314854e+000 63 59 58
8.105772e-001 -9.173573e-001 -7.698927e+000 80 45 23
-2.652344e+000 -1.174648e+000 -7.916223e+000 168 124 85
-1.430292e+000 -1.115219e+000 -7.877128e+000 102 71 51
-1.075971e+000 -1.178378e+000 -8.172769e+000 119 92 67
-1.044565e+000 -1.473781e+000 -8.684099e+000 40 25 18
-1.005035e+000 -1.453714e+000 -8.627064e+000 150 136 128
-7.143087e-001 -1.387924e+000 -8.462571e+000 173 175 187
-5.387780e-001 -1.248803e+000 -8.356708e+000 173 167 159
2.526024e-001 -1.164308e+000 -7.927907e+000 135 106 72
9.873408e-001 -1.004500e+000 -7.461769e+000 78 43 21
-1.155260e+000 -1.396503e+000 -8.171834e+000 27 15 14
-7.004266e-001 -1.449324e+000 -8.501700e+000 55 60 72
-7.004266e-001 -1.449324e+000 -8.501700e+000 55 60 72
1.315810e-001 -1.309712e+000 -8.017484e+000 130 103 81
1.202672e-001 -1.310433e+000 -7.934607e+000 46 26 10
3.441855e-001 -1.187028e+000 -7.856807e+000 139 111 90
3.441855e-001 -1.187028e+000 -7.856807e+000 139 111 90
3.991380e-001 -1.268289e+000 -7.782774e+000 133 98 79
6.687321e-001 -1.187049e+000 -7.591004e+000 82 42 16
9.726331e-001 -1.167978e+000 -7.426247e+000 171 127 95
1.049066e+000 -1.066670e+000 -7.534115e+000 80 45 23
1.082386e+000 -1.146991e+000 -7.413986e+000 170 132 93
1.082386e+000 -1.146991e+000 -7.413986e+000 170 132 93
-1.451659e+000 -1.535730e+000 -7.974678e+000 32 19 19
3.379426e-001 -1.395356e+000 -7.722720e+000 58 29 11
4.819745e-001 -1.399192e+000 -7.818266e+000 91 50 30
5.363506e-001 -1.362680e+000 -7.704200e+000 96 53 34
9.414568e-001 -1.240470e+000 -7.544828e+000 162 121 84
9.655481e-001 -1.276321e+000 -7.383676e+000 100 56 28
9.874160e-001 -1.272134e+000 -7.420928e+000 185 141 109
1.249354e+000 -1.175875e+000 -7.440927e+000 134 101 70
-3.418749e-001 -1.796285e+000 -8.473525e+000 160 160 161
-3.418749e-001 -1.796285e+000 -8.473525e+000 160 160 161
2.119916e-001 -1.505159e+000 -7.772867e+000 134 107 98
4.317172e-001 -1.612417e+000 -7.707065e+000 174 141 110
4.620931e-001 -1.589588e+000 -7.668729e+000 95 59 33
4.620931e-001 -1.589588e+000 -7.668729e+000 95 59 33
4.934077e-001 -1.554011e+000 -7.641174e+000 178 143 109
8.308180e-001 -1.424446e+000 -7.491242e+000 199 154 121
1.302557e+000 -1.407078e+000 -7.492831e+000 175 138 102
2.355279e-001 -1.770198e+000 -7.795757e+000 47 20 10
2.355279e-001 -1.770198e+000 -7.795757e+000 47 20 10
5.130993e-001 -1.785562e+000 -7.873640e+000 130 91 50
9.394206e-001 -1.598900e+000 -7.626501e+000 168 124 78
1.332999e+000 -1.523674e+000 -7.492872e+000 204 172 134
4.209771e-004 -2.129668e+000 -8.252845e+000 64 53 57
1.416224e-001 -1.929300e+000 -8.016186e+000 58 41 33
7.407561e-001 -1.825486e+000 -7.727597e+000 137 102 70
9.726455e-001 -1.803360e+000 -7.721519e+000 207 168 125
1.237740e+000 -1.939893e+000 -7.817145e+000 199 166 133
4.075916e-001 -2.122007e+000 -8.110424e+000 133 108 84
5.444050e-001 2.325796e+000 -8.966801e+000 87 73 62
1.147350e+000 2.395387e+000 -8.262540e+000 170 146 110
7.215329e-001 2.195206e+000 -8.597554e+000 92 53 23
7.215329e-001 2.195206e+000 -8.597554e+000 92 53 23
7.730460e-001 2.078844e+000 -8.559039e+000 63 35 21
7.730460e-001 2.078844e+000 -8.559039e+000 63 35 21
1.022176e+000 2.042960e+000 -8.240231e+000 92 70 56
1.330742e+000 2.009820e+000 -8.271619e+000 38 29 24
8.736924e-001 1.806347e+000 -8.806053e+000 131 117 104
1.123170e+000 1.843586e+000 -8.158535e+000 137 122 102
9.969342e-001 1.764188e+000 -8.363390e+000 111 84 55
9.782504e-001 1.645052e+000 -8.595743e+000 118 103 84
1.107973e+000 1.739308e+000 -8.238627e+000 40 26 24
2.175961e+000 1.746431e+000 -8.500014e+000 14 8 12
1.111388e+000 1.577947e+000 -8.850909e+000 42 38 35
1.510269e+000 1.509029e+000 -8.259826e+000 68 40 28
2.066566e+000 1.554240e+000 -8.494015e+000 68 56 52
2.066566e+000 1.554240e+000 -8.494015e+000 68 56 52
6.841612e-001 1.016910e+000 -9.268100e+000 63 58 54
2.097917e+000 1.088849e+000 -7.431037e+000 45 19 18
2.165168e+000 1.081711e+000 -7.468692e+000 61 38 22
-1.773211e+000 6.459778e-001 -9.111275e+000 133 101 68
1.479751e-002 7.066600e-001 -9.641825e+000 65 60 57
8.222143e-002 7.199190e-001 -9.853762e+000 56 53 48
1.638311e+000 1.019557e+000 -7.315811e+000 176 137 94
2.007176e+000 9.683053e-001 -7.215921e+000 73 49 23
-1.881943e+000 5.021204e-001 -8.563512e+000 143 108 76
-1.881943e+000 5.021204e-001 -8.563512e+000 143 108 76
-1.803992e+000 4.722792e-001 -8.991156e+000 76 45 20
-1.598930e+000 4.854124e-001 -8.548955e+000 116 89 64
-1.547445e+000 5.403029e-001 -8.853795e+000 105 77 55
-1.132359e+000 5.357754e-001 -9.570319e+000 168 162 132
-9.493140e-001 5.708727e-001 -9.359079e+000 37 29 21
-7.313862e-001 5.848271e-001 -9.355656e+000 118 112 96
-4.829031e-001 6.316096e-001 -9.367829e+000 28 24 10
-5.725275e-001 6.147214e-001 -9.428166e+000 119 112 102
-4.976619e-001 5.954957e-001 -9.305784e+000 111 104 95
-4.328547e-001 6.361896e-001 -9.421094e+000 113 110 95
-3.108431e-001 5.952780e-001 -9.294334e+000 33 29 22
-3.108431e-001 5.952780e-001 -9.294334e+000 33 29 22
-2.283802e-001 6.162553e-001 -9.290340e+000 122 116 99
-2.253866e-001 6.184079e-001 -9.269274e+000 122 116 99
-2.067844e-001 5.786097e-001 -9.214223e+000 29 24 20
-1.076388e-001 5.517864e-001 -9.150130e+000 27 19 13
5.570892e-001 7.108635e-001 -9.405192e+000 26 23 20
-2.899259e+000 2.871397e-001 -8.732939e+000 122 93 63
-2.784484e+000 3.644467e-001 -8.720945e+000 176 143 102
-2.607654e+000 2.991295e-001 -8.450540e+000 181 147 101
-2.342031e+000 3.120002e-001 -8.380342e+000 103 67 33
-8.295679e-002 5.124143e-001 -9.085619e+000 115 109 94
1.395840e-001 4.857321e-001 -9.069556e+000 24 19 15
2.177600e-001 4.598461e-001 -8.997762e+000 23 19 20
1.291758e-001 4.524912e-001 -8.977231e+000 104 101 84
3.719745e-001 4.639234e-001 -9.067846e+000 16 15 11
3.414428e-001 4.329372e-001 -8.935621e+000 20 14 17
5.614114e-001 4.027013e-001 -8.808981e+000 120 114 102
1.437240e+000 6.003461e-001 -7.677032e+000 198 177 140
1.482233e+000 6.664147e-001 -7.410626e+000 185 148 103
1.504716e+000 5.992531e-001 -7.108939e+000 173 131 81
-3.105934e+000 1.585478e-001 -8.924278e+000 185 162 125
-3.068329e+000 1.969114e-001 -8.889528e+000 128 101 68
-2.182007e+000 1.760890e-001 -8.267869e+000 79 48 22
-2.013284e+000 2.887306e-001 -8.284534e+000 45 17 5
-2.017689e+000 1.935109e-001 -8.265838e+000 73 42 24
-1.859726e+000 1.880225e-001 -8.251942e+000 81 58 44
-1.714708e+000 2.261896e-001 -8.465848e+000 38 20 10
6.948374e-001 3.139560e-001 -8.713244e+000 50 43 37
1.969047e+000 5.708214e-001 -6.942757e+000 172 147 107
-2.365082e+000 1.851944e-002 -8.005694e+000 169 137 96
-2.185813e+000 1.492732e-001 -8.104223e+000 102 66 39
-1.865891e+000 5.597860e-002 -8.117059e+000 109 78 58
-1.251207e+000 1.497519e-001 -8.069092e+000 134 113 81
2.437888e-001 1.595898e-001 -8.654646e+000 98 89 74
1.392245e+000 1.708125e-001 -8.210207e+000 49 40 33
-2.544262e+000 -1.553266e-001 -8.058702e+000 156 118 77
-2.478276e+000 -1.621173e-001 -7.918459e+000 126 88 51
-2.459267e+000 -1.751208e-001 -7.974555e+000 172 138 100
-2.140716e+000 -1.064687e-001 -7.878894e+000 173 143 105
-2.067734e+000 -7.975745e-002 -7.890532e+000 165 139 104
-4.115192e-001 -1.483094e-001 -8.559766e+000 125 61 60
-2.655083e+000 -3.554069e-001 -8.022940e+000 126 83 47
-2.603799e+000 -3.013229e-001 -7.957293e+000 172 131 87
-2.555365e+000 -2.719228e-001 -7.972610e+000 166 124 84
-2.540266e+000 -3.331056e-001 -7.987774e+000 144 102 60
-2.322102e+000 -2.067386e-001 -7.904459e+000 170 136 99
-2.304186e+000 -2.445414e-001 -7.925608e+000 106 67 28
-2.304186e+000 -2.445414e-001 -7.925608e+000 106 67 28
1.349865e+000 -9.453860e-002 -8.207490e+000 66 56 45
1.369867e+000 -6.037989e-002 -8.146814e+000 95 85 73
1.457844e+000 9.985322e-002 -7.355427e+000 146 117 95
1.855850e+000 1.058753e-001 -6.658539e+000 157 105 63
1.970774e+000 1.741826e-001 -6.744947e+000 100 55 24
2.117718e+000 1.545999e-001 -6.635932e+000 114 77 50
-2.884924e+000 -5.352674e-001 -8.109892e+000 134 100 74
-1.633741e+000 -3.298160e-001 -7.984917e+000 87 67 43
1.606914e+000 -8.341223e-002 -7.318816e+000 156 116 85
1.621791e+000 -2.196651e-001 -7.849233e+000 15 6 7
1.722361e+000 -3.532607e-002 -6.817644e+000 191 142 101
1.960132e+000 -4.410937e-002 -6.752263e+000 146 95 63
2.115524e+000 -7.745650e-005 -6.660569e+000 197 158 117
2.297994e+000 5.346551e-002 -6.853406e+000 161 128 96
-2.136444e+000 -5.620766e-001 -7.613868e+000 141 114 84
-1.463422e+000 -5.260679e-001 -7.999309e+000 84 53 28
-1.451811e+000 -5.875060e-001 -7.962151e+000 68 36 15
-9.774151e-001 -6.176469e-001 -8.230288e+000 53 30 19
1.786150e+000 -1.866672e-001 -6.864670e+000 157 105 65
1.944396e+000 -1.962555e-001 -6.978938e+000 152 100 60
2.082686e+000 -4.964240e-002 -6.652482e+000 196 157 116
-2.814146e+000 -7.573449e-001 -8.050467e+000 163 131 93
-2.814146e+000 -7.573449e-001 -8.050467e+000 163 131 93
-2.570629e+000 -7.522217e-001 -7.757014e+000 189 158 120
-2.428592e+000 -7.331892e-001 -7.825376e+000 176 144 110
-1.971641e+000 -7.177257e-001 -7.687451e+000 88 45 20
-1.228615e+000 -7.077328e-001 -8.018489e+000 78 46 23
-5.901976e-001 -8.091792e-001 -8.400961e+000 153 146 127
1.851026e+000 -3.431696e-001 -7.087826e+000 179 146 118
2.462001e+000 -3.426680e-001 -7.050527e+000 34 18 19
-2.332773e+000 -8.354525e-001 -7.607941e+000 166 122 93
-1.937183e+000 -8.950909e-001 -7.688178e+000 78 37 19
-1.473763e+000 -8.865462e-001 -7.860055e+000 69 36 18
-1.110027e+000 -8.572326e-001 -8.065874e+000 78 46 25
-9.979084e-001 -8.481637e-001 -8.105288e+000 93 65 37
-9.979084e-001 -8.481637e-001 -8.105288e+000 93 65 37
-2.917974e+000 -1.092199e+000 -8.077020e+000 161 123 83
-2.487166e+000 -1.155875e+000 -7.899917e+000 84 46 25
-2.077852e+000 -9.879324e-001 -7.720496e+000 78 37 18
-1.359393e+000 -9.582021e-001 -7.897247e+000 75 40 21
-2.886649e-002 -1.114309e+000 -8.316568e+000 52 47 43
-2.871436e+000 -1.336025e+000 -7.998541e+000 172 139 100
-2.583360e+000 -1.165426e+000 -7.798208e+000 102 61 31
-2.583360e+000 -1.165426e+000 -7.798208e+000 102 61 31
-1.803399e+000 -1.061812e+000 -7.647105e+000 126 86 54
-1.803399e+000 -1.061812e+000 -7.647105e+000 126 86 54
-1.650502e+000 -1.132337e+000 -7.737124e+000 124 90 68
-1.499820e+000 -1.120804e+000 -7.768600e+000 45 19 12
-1.066876e+000 -1.306507e+000 -8.136874e+000 80 63 53
-1.066876e+000 -1.306507e+000 -8.136874e+000 80 63 53
-8.748397e-001 -1.250354e+000 -8.370365e+000 110 106 105
-7.687061e-001 -1.303245e+000 -8.540634e+000 27 24 31
-3.387342e-001 -1.181249e+000 -8.235507e+000 140 136 125
2.187918e-001 -1.201737e+000 -8.017176e+000 56 43 33
6.116777e-001 -1.031733e+000 -7.645134e+000 95 58 35
6.895982e-001 -9.463324e-001 -7.617736e+000 65 27 15
-2.282521e+000 -1.381406e+000 -7.800891e+000 108 77 58
-1.277512e+000 -1.392545e+000 -8.084326e+000 30 14 15
-1.286376e+000 -1.417314e+000 -8.029786e+000 56 44 44
-1.126972e+000 -1.358269e+000 -8.150455e+000 78 62 49
1.784710e-001 -1.354851e+000 -7.979580e+000 51 23 11
2.333384e-001 -1.229792e+000 -7.845152e+000 124 95 65
3.648042e-001 -1.286953e+000 -7.943738e+000 60 32 20
3.021066e-001 -1.286060e+000 -7.741854e+000 112 87 65
4.379199e-001 -1.187292e+000 -7.794166e+000 131 97 71
6.718605e-001 -1.096232e+000 -7.608949e+000 135 98 69
7.077535e-001 -1.187638e+000 -7.581083e+000 66 28 8
1.232046e+000 -1.106778e+000 -7.605491e+000 69 41 20
1.167818e+000 -1.063506e+000 -7.370980e+000 165 130 100
-2.726756e+000 -1.493433e+000 -7.761681e+000 181 157 132
-2.377791e+000 -1.580597e+000 -7.778129e+000 145 123 100
-2.183531e+000 -1.543497e+000 -7.994587e+000 110 87 74
-2.129314e+000 -1.530892e+000 -7.957487e+000 59 42 39
-2.034684e+000 -1.492206e+000 -7.907215e+000 38 27 28
-1.896310e+000 -1.582709e+000 -7.770096e+000 49 35 32
5.192851e-001 -1.325043e+000 -7.523683e+000 97 56 36
6.234042e-001 -1.270678e+000 -7.625162e+000 83 42 20
6.823111e-001 -1.327058e+000 -7.533519e+000 112 63 50
9.138365e-001 -1.257727e+000 -7.545289e+000 90 45 23
8.871949e-001 -1.287996e+000 -7.569540e+000 161 119 96
1.084602e+000 -1.303913e+000 -7.428171e+000 173 135 99
1.145663e+000 -1.178175e+000 -7.361191e+000 150 111 73
1.141894e+000 -1.167431e+000 -7.328709e+000 150 111 73
-1.815663e-001 -1.837829e+000 -8.267736e+000 43 34 34
7.741340e-001 -1.432499e+000 -7.523246e+000 106 57 27
7.851380e-001 -1.486948e+000 -7.554949e+000 173 128 90
7.851380e-001 -1.486948e+000 -7.554949e+000 173 128 90
8.253634e-001 -1.479920e+000 -7.566824e+000 137 91 57
9.338358e-001 -1.361491e+000 -7.501552e+000 89 45 20
1.035426e+000 -1.422102e+000 -7.421479e+000 189 145 103
2.294246e+000 -1.649896e+000 -8.576217e+000 167 148 113
5.361418e-001 -1.676447e+000 -7.655884e+000 176 132 93
6.730416e-001 -1.684745e+000 -7.673989e+000 142 99 55
7.922621e-001 -1.579719e+000 -7.511061e+000 151 104 62
1.109803e+000 -1.842090e+000 -7.787680e+000 174 134 96
1.096885e+000 -1.880191e+000 -7.777217e+000 210 172 135
1.360343e+000 -1.854899e+000 -7.811066e+000 139 112 85
1.300207e+000 -1.880939e+000 -7.776424e+000 156 124 90
1.106580e+000 -2.078162e+000 -7.990381e+000 190 160 134
7.451086e-001 2.314450e+000 -8.509861e+000 172 134 98
6.951256e-001 2.286595e+000 -8.420564e+000 141 102 69
9.239622e-001 2.316373e+000 -8.429502e+000 73 45 34
9.156356e-001 2.132327e+000 -8.263069e+000 70 36 26
8.182568e-001 2.084199e+000 -8.487658e+000 163 132 106
8.558515e-001 2.055025e+000 -8.542261e+000 88 60 39
1.976911e+000 2.013219e+000 -8.500263e+000 109 94 73
1.309764e+000 1.882632e+000 -8.127785e+000 28 16 16
1.225982e+000 1.785396e+000 -8.174101e+000 83 66 58
8.944563e-001 1.724538e+000 -8.553145e+000 138 118 103
8.944563e-001 1.724538e+000 -8.553145e+000 138 118 103
1.029178e+000 1.628232e+000 -8.531196e+000 43 38 35
1.185597e+000 1.652383e+000 -8.327057e+000 36 18 18
1.906008e+000 1.656741e+000 -8.248237e+000 64 32 19
1.985874e+000 1.678419e+000 -8.212100e+000 84 59 44
1.243794e+000 1.494687e+000 -8.635067e+000 44 36 40
1.614315e+000 1.631042e+000 -8.169790e+000 132 97 71
1.287763e+000 1.344231e+000 -8.663735e+000 32 28 29
1.701838e+000 1.413225e+000 -8.537850e+000 21 16 20
6.040457e-001 1.001765e+000 -9.372947e+000 28 22 25
-2.031158e+000 6.456716e-001 -9.108948e+000 95 63 43
-5.207011e-002 7.210145e-001 -9.698824e+000 18 12 12
1.622021e-001 6.987876e-001 -9.847086e+000 16 11 10
7.549421e-001 8.594977e-001 -9.216977e+000 40 36 37
-2.361403e+000 5.027104e-001 -8.602333e+000 170 136 91
-2.067498e+000 5.897462e-001 -8.715418e+000 104 64 29
-1.131690e+000 4.610711e-001 -9.375597e+000 153 144 111
-1.073473e+000 5.063262e-001 -9.351429e+000 49 42 31
-1.073473e+000 5.063262e-001 -9.351429e+000 49 42 31
-1.022356e+000 5.381410e-001 -9.436545e+000 164 158 132
-5.743480e-001 5.801581e-001 -9.297604e+000 35 26 24
-4.691756e-001 5.584243e-001 -9.231584e+000 26 20 17
-1.797953e-001 5.412439e-001 -9.099170e+000 124 117 106
-1.797953e-001 5.412439e-001 -9.099170e+000 124 117 106
2.743227e-001 6.392888e-001 -9.453039e+000 19 14 8
-2.601411e+000 3.797749e-001 -8.534270e+000 137 99 61
-1.918211e+000 4.179818e-001 -8.367910e+000 122 90 65
-2.012725e+000 3.564344e-001 -8.355164e+000 79 45 33
-1.849922e+000 4.487033e-001 -8.533460e+000 76 45 24
-1.401802e+000 4.402059e-001 -9.228350e+000 101 79 55
-9.973444e-001 3.294371e-001 -9.221439e+000 133 129 110
-4.931822e-002 4.740949e-001 -9.000864e+000 29 20 24
5.578417e-002 4.451803e-001 -8.947305e+000 24 18 22
5.235018e-002 4.453225e-001 -8.943423e+000 24 18 22
3.707253e-001 5.470743e-001 -9.010759e+000 31 27 22
1.417692e+000 5.577579e-001 -7.656446e+000 33 23 22
1.965118e+000 7.115597e-001 -6.906043e+000 191 168 133
-2.494736e+000 2.537545e-001 -8.245467e+000 184 151 102
-2.496892e+000 1.674811e-001 -8.269411e+000 151 114 69
-2.109701e+000 2.253768e-001 -8.311793e+000 67 36 16
-1.654925e+000 2.974277e-001 -8.626361e+000 48 25 15
-9.753482e-001 2.698301e-001 -9.224502e+000 29 23 20
-8.778446e-001 2.740461e-001 -9.100505e+000 52 50 38
-9.186000e-001 1.629746e-001 -9.113660e+000 48 43 39
-2.278749e+000 1.419160e-001 -8.075800e+000 120 84 50
-1.963175e+000 1.219188e-001 -8.231740e+000 53 23 13
-1.796095e+000 1.626929e-001 -8.044009e+000 37 13 9
-1.800362e+000 1.292836e-001 -8.266715e+000 98 64 45
-1.802149e+000 1.296655e-001 -8.264657e+000 98 64 45
-4.802174e-001 8.843500e-002 -8.617447e+000 34 28 27
1.453087e+000 3.650298e-001 -7.341618e+000 128 89 60
1.488274e+000 3.517112e-001 -7.221768e+000 203 173 133
1.925118e+000 4.166392e-001 -6.797131e+000 140 103 64
2.007841e+000 3.755593e-001 -6.746900e+000 198 167 123
-2.792692e+000 -1.939258e-001 -8.124962e+000 117 75 35
-1.802688e+000 -1.317030e-001 -7.979843e+000 61 34 13
-5.973934e-001 -1.516913e-001 -8.645264e+000 98 90 67
-3.417896e-001 -8.432229e-002 -8.577128e+000 25 17 28
1.917369e+000 3.397055e-001 -6.796152e+000 110 70 36
-2.152952e+000 -2.743263e-001 -7.842242e+000 170 144 107
-2.062466e+000 -2.847172e-001 -7.898166e+000 107 74 41
-1.982499e+000 -2.553246e-001 -7.894692e+000 160 132 97
-1.754842e+000 -1.698727e-001 -7.949987e+000 148 120 95
1.423490e+000 -1.098687e-001 -8.184866e+000 92 83 74
1.473513e+000 4.779071e-002 -7.357615e+000 173 143 99
1.602516e+000 1.337025e-001 -6.966422e+000 187 145 105
1.949019e+000 2.216305e-001 -6.721315e+000 156 115 72
-2.410122e+000 -4.157950e-001 -7.889459e+000 112 76 42
-2.171300e+000 -3.688091e-001 -7.849124e+000 109 72 43
-2.171300e+000 -3.688091e-001 -7.849124e+000 109 72 43
1.569520e+000 -2.296670e-001 -7.944065e+000 75 66 59
1.697581e+000 -9.395526e-002 -7.021044e+000 191 149 110
1.882218e+000 5.924483e-002 -6.672974e+000 199 149 103
1.860202e+000 -1.648593e-002 -6.765057e+000 190 139 96
2.875590e+000 -1.257746e-002 -7.216122e+000 57 49 47
1.798288e+000 -7.941214e-002 -6.813679e+000 127 74 34
2.623839e+000 -1.753579e-001 -6.990823e+000 30 19 20
-2.519047e+000 -7.459713e-001 -7.772403e+000 186 157 117
-2.292419e+000 -6.405574e-001 -7.727747e+000 160 131 99
-1.652974e+000 -7.034255e-001 -7.754872e+000 73 39 12
-1.526019e+000 -5.987347e-001 -7.752100e+000 85 52 21
-1.179604e+000 -7.423879e-001 -7.993980e+000 84 47 24
1.794837e+000 -2.965660e-001 -7.029046e+000 186 158 117
2.186131e+000 -1.973624e-001 -6.802473e+000 207 175 137
2.478632e+000 -3.073540e-001 -7.028262e+000 146 121 101
-2.797442e+000 -9.353693e-001 -7.932210e+000 169 126 85
-2.225313e+000 -8.894337e-001 -7.731424e+000 117 76 51
-2.602843e+000 -1.001787e+000 -7.762682e+000 183 144 104
-2.403894e+000 -1.080407e+000 -7.792743e+000 70 32 16
-1.831805e+000 -9.319919e-001 -7.606465e+000 84 48 25
-7.555538e-001 -1.211076e+000 -8.513954e+000 21 19 21
2.186925e-001 -1.044123e+000 -8.385972e+000 19 14 18
1.136047e+000 -8.051483e-001 -7.862441e+000 78 63 49
-6.380646e-001 -1.283672e+000 -8.371759e+000 145 149 152
-2.323541e-001 -1.257774e+000 -8.486235e+000 33 28 25
3.559622e-001 -1.249519e+000 -7.913738e+000 67 37 23
3.559622e-001 -1.249519e+000 -7.913738e+000 67 37 23
4.975971e-001 -1.235298e+000 -7.629660e+000 143 104 79
7.980762e-001 -1.151511e+000 -7.726221e+000 57 24 14
1.126190e+000 -1.158587e+000 -7.616566e+000 83 45 21
1.260306e+000 -1.064701e+000 -7.380421e+000 103 76 55
6.311991e-001 -1.375617e+000 -7.644273e+000 106 60 36
-1.874079e+000 -1.721540e+000 -8.023399e+000 49 34 31
-1.721169e+000 -1.775998e+000 -8.016023e+000 55 33 24
2.195136e-001 -1.557651e+000 -7.798576e+000 31 16 20
3.444299e-001 -1.560971e+000 -7.718104e+000 67 44 33
5.478845e-001 -1.471675e+000 -7.556629e+000 69 34 12
6.842595e-001 -1.468837e+000 -7.525639e+000 161 115 81
6.842595e-001 -1.468837e+000 -7.525639e+000 161 115 81
1.456403e+000 -1.376703e+000 -7.569697e+000 93 69 45
1.414917e+000 -1.471565e+000 -7.467402e+000 169 140 106
2.293312e+000 -1.585481e+000 -8.375699e+000 89 76 74
-1.924855e+000 -1.838165e+000 -7.963142e+000 114 96 81
1.647529e-001 -1.749854e+000 -7.944823e+000 39 24 23
1.032506e+000 -1.735353e+000 -7.708752e+000 217 179 141
1.407928e+000 -1.580543e+000 -7.548078e+000 167 136 105
1.619523e-001 -1.937733e+000 -7.960286e+000 120 92 73
2.827563e-001 -1.942206e+000 -7.959768e+000 153 121 102
6.527041e-001 -2.074549e+000 -7.952819e+000 174 146 119
8.616023e-001 2.131297e+000 -8.224634e+000 133 97 72
7.089322e-001 2.066200e+000 -8.866656e+000 94 63 43
7.089322e-001 2.066200e+000 -8.866656e+000 94 63 43
1.797187e+000 2.022276e+000 -8.020584e+000 149 125 96
2.000829e+000 1.983308e+000 -8.427454e+000 15 9 19
8.673351e-001 1.827254e+000 -9.501478e+000 41 35 33
1.634850e+000 1.716378e+000 -8.191637e+000 144 105 71
1.688308e+000 1.778693e+000 -8.147543e+000 139 101 63
1.410103e+000 1.523883e+000 -8.397041e+000 46 26 21
1.202001e+000 1.397169e+000 -8.750007e+000 49 40 42
1.297543e+000 1.446264e+000 -8.499930e+000 43 34 35
1.422392e+000 1.400777e+000 -8.665626e+000 33 25 28
6.155254e-001 9.401086e-001 -9.365625e+000 61 52 52
2.388690e+000 1.106266e+000 -7.766192e+000 76 54 40
3.295019e-001 7.548903e-001 -9.299067e+000 35 29 31
1.455833e+000 8.902603e-001 -7.540203e+000 26 22 23
1.564208e+000 9.804658e-001 -7.578460e+000 170 134 89
1.687174e+000 8.976491e-001 -7.225716e+000 149 108 62
-1.174531e+000 5.127417e-001 -9.464533e+000 48 40 27
-9.813901e-001 4.932652e-001 -9.306502e+000 49 43 33
-9.813901e-001 4.932652e-001 -9.306502e+000 49 43 33
-8.275305e-001 5.682359e-001 -9.263511e+000 33 26 24
-8.082579e-001 5.067927e-001 -9.283987e+000 145 136 108
-8.082579e-001 5.067927e-001 -9.283987e+000 145 136 108
-7.302050e-001 5.371799e-001 -9.272011e+000 29 22 25
-6.223972e-001 5.109512e-001 -9.211143e+000 28 23 22
-5.428889e-001 5.352530e-001 -9.239108e+000 123 115 94
1.926217e+000 7.852048e-001 -6.977137e+000 185 162 119
1.928278e+000 7.856278e-001 -6.979304e+000 185 162 119
-9.585587e-001 4.324225e-001 -9.261980e+000 166 161 140
-8.901355e-001 4.687328e-001 -9.296083e+000 39 39 31
-8.901355e-001 4.687328e-001 -9.296083e+000 39 39 31
-8.589707e-001 4.144728e-001 -9.201515e+000 149 142 114
-8.589707e-001 4.144728e-001 -9.201515e+000 149 142 114
-8.377183e-001 3.561865e-001 -9.164425e+000 38 36 39
-8.377183e-001 3.561865e-001 -9.164425e+000 38 36 39
-9.080855e-001 3.195810e-001 -9.144699e+000 154 149 117
-9.080855e-001 3.195810e-001 -9.144699e+000 154 149 117
-7.727556e-001 4.588532e-001 -9.107927e+000 44 37 32
-7.727556e-001 4.588532e-001 -9.107927e+000 44 37 32
-7.017083e-001 4.850913e-001 -9.188405e+000 137 131 109
-6.800737e-001 4.262882e-001 -9.153102e+000 29 24 26
-6.800737e-001 4.262882e-001 -9.153102e+000 29 24 26
-7.557472e-001 3.960315e-001 -9.139574e+000 149 143 115
-7.557472e-001 3.960315e-001 -9.139574e+000 149 143 115
-7.247203e-001 3.468059e-001 -9.006081e+000 41 35 31
-6.523851e-001 3.719750e-001 -9.077261e+000 144 136 109
-6.523851e-001 3.719750e-001 -9.077261e+000 144 136 109
-5.967550e-001 4.572204e-001 -9.131986e+000 132 125 99
-5.162915e-001 4.853304e-001 -9.138606e+000 28 27 23
-5.162915e-001 4.853304e-001 -9.138606e+000 28 27 23
-5.696109e-001 4.050298e-001 -9.050815e+000 18 16 19
-3.086581e-001 4.455600e-001 -9.019826e+000 30 23 20
-3.926722e-001 4.090841e-001 -9.038461e+000 137 129 107
-3.676714e-001 3.584734e-001 -8.990235e+000 32 26 32
-3.676714e-001 3.584734e-001 -8.990235e+000 32 26 32
-2.893280e-001 3.918722e-001 -8.993748e+000 146 142 116
-2.893280e-001 3.918722e-001 -8.993748e+000 146 142 116
-2.292735e-001 4.742965e-001 -9.019019e+000 136 129 111
-2.292735e-001 4.742965e-001 -9.019019e+000 136 129 111
-2.087595e-001 4.242522e-001 -8.980093e+000 32 27 22
-1.852249e-001 3.757970e-001 -8.924881e+000 147 143 107
-1.851104e-001 3.768755e-001 -8.918198e+000 147 143 107
3.995602e-001 4.696724e-001 -9.038552e+000 43 37 40
7.065193e-001 5.577360e-001 -9.134619e+000 10 8 10
7.161276e-001 4.131811e-001 -8.885920e+000 55 51 51
-1.135899e+000 3.095256e-001 -8.573421e+000 76 55 34
-1.097098e+000 1.944962e-001 -9.380382e+000 80 70 69
-8.053570e-001 3.097851e-001 -9.040068e+000 146 136 102
-8.119581e-001 3.039033e-001 -9.095038e+000 146 136 102
-7.084163e-001 2.867818e-001 -9.024764e+000 142 138 114
-6.285612e-001 3.194602e-001 -9.009262e+000 28 24 24
-6.285612e-001 3.194602e-001 -9.009262e+000 28 24 24
-5.259909e-001 2.960972e-001 -8.954708e+000 27 27 27
-5.259909e-001 2.960972e-001 -8.954708e+000 27 27 27
-6.032584e-001 2.702075e-001 -8.936741e+000 132 128 98
-6.052245e-001 2.674521e-001 -8.964114e+000 132 128 98
-4.402294e-001 3.299727e-001 -8.927141e+000 152 147 125
-4.438909e-001 3.246009e-001 -8.979252e+000 152 147 125
-5.030150e-001 2.458799e-001 -8.908561e+000 126 120 93
-5.030150e-001 2.458799e-001 -8.908561e+000 126 120 93
-4.210657e-001 2.746559e-001 -8.911583e+000 34 29 35
-4.209919e-001 2.744840e-001 -8.912320e+000 34 29 35
-2.651829e-001 3.434525e-001 -8.912869e+000 35 32 28
-2.658093e-001 3.430036e-001 -8.913471e+000 35 32 28
-2.410069e-001 2.908677e-001 -8.851985e+000 150 143 114
1.531357e+000 5.428175e-001 -7.114980e+000 145 91 47
1.590750e+000 5.058105e-001 -7.002609e+000 212 175 128
-2.526573e+000 5.727002e-002 -8.114650e+000 166 127 83
1.416962e+000 2.641479e-001 -7.684275e+000 28 24 27
1.767800e+000 2.626119e-001 -6.827452e+000 188 141 99
2.553263e+000 2.622387e-001 -6.963854e+000 144 118 91
2.553263e+000 2.622387e-001 -6.963854e+000 144 118 91
2.850030e+000 2.311614e-001 -7.483592e+000 24 15 17
-2.702568e+000 -2.114145e-001 -8.013162e+000 186 148 105
-2.675423e+000 -2.670259e-001 -8.027165e+000 106 65 28
2.410066e+000 2.448457e-001 -6.832273e+000 145 123 87
2.410066e+000 2.448457e-001 -6.832273e+000 145 123 87
-2.250155e+000 -3.667458e-001 -7.943737e+000 168 139 107
-1.928588e+000 -3.280611e-001 -7.779577e+000 106 75 46
-1.928588e+000 -3.280611e-001 -7.779577e+000 106 75 46
-2.051035e+000 -3.676795e-001 -7.723995e+000 170 145 105
-3.456084e-001 -3.192957e-001 -8.493143e+000 28 23 29
5.667965e-001 -3.973313e-001 -8.498978e+000 131 121 91
6.920365e-001 -4.420288e-001 -8.554348e+000 118 106 83
1.383479e+000 -2.554644e-001 -8.035713e+000 65 58 49
1.572418e+000 -1.117902e-001 -7.296149e+000 185 160 131
-1.908701e+000 -5.633976e-001 -7.734085e+000 102 60 38
-1.932839e+000 -4.829266e-001 -7.872652e+000 82 51 21
1.727395e+000 -8.616148e-002 -6.869184e+000 140 90 47
1.980557e+000 -1.754495e-001 -6.795461e+000 154 108 70
1.980557e+000 -1.754495e-001 -6.795461e+000 154 108 70
2.227232e+000 -1.059715e-001 -6.694444e+000 133 94 70
-2.325896e+000 -7.431280e-001 -7.764335e+000 168 141 112
6.872221e-001 -7.090594e-001 -8.598519e+000 62 59 55
6.897485e-001 -7.256999e-001 -8.670842e+000 62 59 55
5.398351e-001 -7.753997e-001 -8.525905e+000 60 52 47
6.115177e-001 -7.415214e-001 -8.548536e+000 18 13 19
6.115177e-001 -7.415214e-001 -8.548536e+000 18 13 19
7.809085e-001 -7.661686e-001 -8.651675e+000 71 66 62
7.029116e-001 -7.826042e-001 -8.604703e+000 15 10 13
7.029116e-001 -7.826042e-001 -8.604703e+000 15 10 13
8.478707e-001 -7.483954e-001 -8.620111e+000 16 14 19
2.130639e+000 -3.867871e-001 -7.126932e+000 189 165 142
-8.625984e-001 -8.799479e-001 -8.228653e+000 21 15 17
-5.507521e-001 -9.485657e-001 -8.373139e+000 142 136 113
2.654568e-001 -9.608140e-001 -8.406917e+000 20 12 14
3.393691e-001 -9.309887e-001 -8.428939e+000 88 70 69
4.889550e-001 -8.687242e-001 -8.442432e+000 44 38 37
4.132288e-001 -9.055405e-001 -8.452212e+000 14 8 16
5.068112e-001 -9.377022e-001 -8.444919e+000 14 9 14
5.622947e-001 -8.461242e-001 -8.530045e+000 19 13 17
6.307355e-001 -8.140089e-001 -8.561022e+000 47 40 40
5.859307e-001 -9.530669e-001 -8.675168e+000 36 31 35
8.011606e-001 -8.628327e-001 -8.729550e+000 16 11 17
