ply
format ascii 1.0
element face 0
property list uchar int vertex_indices
element vertex 887
property float x
property float y
property float z
property uchar diffuse_red
property uchar diffuse_green
property uchar diffuse_blue
end_header
4.458017e+000 1.261464e+000 -9.231339e+000 57 45 41
-1.218837e+000 3.271270e-001 -9.613604e+000 43 40 42
1.620394e-001 -3.194651e-002 -8.669815e+000 135 130 101
3.624851e-001 -1.188737e-001 -8.660457e+000 156 144 118
2.162957e-001 -1.744848e-001 -8.651313e+000 139 128 97
3.144097e-001 -2.192902e-001 -8.641892e+000 159 148 119
-2.963359e+000 -5.504123e-001 -8.668976e+000 177 149 127
-1.929818e-001 -4.049792e-001 -8.552310e+000 23 19 20
5.856220e-001 -2.769854e-001 -8.610612e+000 30 28 22
-2.366247e-001 -5.018107e-001 -8.522234e+000 19 20 15
-2.074976e-001 -5.708873e-001 -8.500890e+000 137 124 105
-2.946047e-001 -7.646402e-001 -8.441354e+000 134 127 109
-1.788724e-001 -6.387959e-001 -8.480325e+000 19 19 17
-2.651482e-001 -8.318238e-001 -8.417491e+000 26 23 28
-1.584681e+000 -1.745343e+000 -8.466887e+000 69 48 43
-1.495862e+001 -9.565754e+000 -2.866705e+001 72 61 65
-1.429990e+001 -9.362811e+000 -2.797007e+001 107 97 96
-1.409756e+001 -9.452546e+000 -2.801015e+001 32 23 26
-1.036019e+001 -8.513022e+000 -2.603452e+001 255 255 254
-1.287334e+001 -1.041870e+001 -2.615766e+001 115 110 123
3.540116e+000 2.318728e+000 -1.065751e+001 31 21 22
3.916297e+000 2.016292e+000 -1.008772e+001 27 19 17
-1.871903e+001 -4.712773e+000 -3.629498e+001 201 190 180
7.806698e-001 -9.658451e-001 -7.632379e+000 106 72 45
-2.408361e+000 -1.538350e+000 -8.038057e+000 161 137 112
-1.258162e+001 -8.846071e+000 -2.771399e+001 27 27 35
-1.635696e+000 -1.761747e+000 -8.372150e+000 167 139 119
-1.366427e+001 -9.915242e+000 -2.757104e+001 39 36 45
-1.452282e+001 -1.089483e+001 -2.682528e+001 111 101 109
-1.395749e+001 -1.060339e+001 -2.663792e+001 131 121 130
-1.272914e+001 -1.085290e+001 -2.563259e+001 109 107 129
-1.205018e+001 -1.117464e+001 -2.667948e+001 23 21 34
9.266212e-001 2.252693e+000 -8.403158e+000 165 139 103
-6.724028e-001 1.223464e+000 -1.008086e+001 137 104 72
4.332622e+000 1.302739e+000 -9.315362e+000 68 54 54
-1.411444e+001 -8.657575e+000 -2.999475e+001 125 115 98
-1.459012e+001 -8.997896e+000 -2.919385e+001 83 73 71
-1.369000e+001 -9.514103e+000 -2.756291e+001 107 98 101
3.392733e+000 2.859349e+000 -1.097815e+001 106 90 67
3.392733e+000 2.859349e+000 -1.097815e+001 106 90 67
3.734273e+000 2.240872e+000 -1.022784e+001 34 21 24
4.154814e+000 1.982103e+000 -9.923797e+000 95 78 71
4.154814e+000 1.982103e+000 -9.923797e+000 95 78 71
4.272174e+000 1.835320e+000 -9.644585e+000 93 75 63
-1.600182e+001 -8.915767e+000 -3.032861e+001 83 81 104
-1.481071e+001 -8.790625e+000 -3.024357e+001 30 28 33
-1.376206e+000 -1.690568e+000 -8.401050e+000 187 163 148
-1.145247e+001 -1.026785e+001 -2.705019e+001 53 49 72
-1.296135e+001 -1.067423e+001 -2.579836e+001 31 28 41
-1.387564e+001 -1.079716e+001 -2.630314e+001 121 115 129
-1.312004e+001 -1.030072e+001 -2.662842e+001 104 95 99
2.994713e+000 2.916909e+000 -1.142103e+001 35 21 20
3.198421e+000 2.784959e+000 -1.113170e+001 36 22 19
3.552101e+000 2.729994e+000 -1.080424e+001 66 47 32
1.090988e+000 2.095975e+000 -8.322556e+000 181 158 116
4.078343e+000 2.441980e+000 -1.026691e+001 86 72 64
1.366298e+000 1.906195e+000 -8.274406e+000 177 154 115
1.362154e+000 1.882126e+000 -8.281646e+000 66 43 12
3.411549e+000 2.260879e+000 -1.065801e+001 28 17 15
-4.946744e-001 1.617609e+000 -1.009081e+001 149 104 67
1.316882e+000 1.778907e+000 -8.266379e+000 166 142 104
-5.678213e-001 1.452378e+000 -1.000147e+001 104 64 29
8.763586e-001 1.590181e+000 -8.390692e+000 131 108 78
9.413890e-001 1.601453e+000 -8.270581e+000 61 46 43
1.415889e+000 1.577344e+000 -8.244496e+000 96 59 28
3.547772e+000 1.916032e+000 -1.038194e+001 39 26 20
-6.521145e-001 1.212617e+000 -9.976009e+000 126 95 59
4.292482e+000 1.760750e+000 -9.527899e+000 84 70 61
3.910199e+000 1.570658e+000 -9.764835e+000 64 57 51
4.235643e+000 1.526182e+000 -9.608856e+000 32 22 23
-3.272277e-001 8.355605e-001 -9.940129e+000 126 101 77
4.208353e+000 1.429331e+000 -9.537286e+000 72 60 60
7.234200e-001 8.208294e-001 -9.102677e+000 70 63 59
7.234200e-001 8.208294e-001 -9.102677e+000 70 63 59
-1.153555e+000 4.048775e-001 -9.489302e+000 43 37 17
-1.153555e+000 4.048775e-001 -9.489302e+000 43 37 17
-1.010352e+000 4.425888e-001 -9.403436e+000 164 159 127
-1.720979e+000 3.444997e-001 -8.600504e+000 120 84 60
-1.355447e+000 1.688699e-001 -8.310782e+000 136 113 82
2.073449e-001 3.595336e-001 -8.985524e+000 138 131 112
3.958287e-001 2.697808e-001 -8.916440e+000 77 73 64
-1.206835e+000 5.072730e-002 -8.195032e+000 124 107 81
-6.105915e-001 1.372902e-001 -8.932416e+000 117 114 92
2.368760e-001 1.393258e-001 -8.732433e+000 99 93 75
4.397221e-001 2.711821e-001 -8.874828e+000 93 90 74
-1.285965e+000 -5.140666e-002 -8.087987e+000 148 124 86
-1.017894e+000 -1.139356e-001 -8.306080e+000 56 38 14
-1.017894e+000 -1.139356e-001 -8.306080e+000 56 38 14
-3.781772e-001 -7.541088e-002 -8.681098e+000 100 37 40
-3.830801e-001 -7.651633e-002 -8.680129e+000 100 37 40
1.600044e+000 4.496363e-001 -7.073658e+000 138 103 60
1.653739e+000 3.790546e-001 -7.071785e+000 141 104 62
-1.701762e+001 -6.788582e+000 -3.743779e+001 87 74 57
-2.014414e+000 -2.620104e-001 -8.113099e+000 150 116 79
-2.607074e-001 -1.067482e-001 -8.672995e+000 137 127 98
-2.607074e-001 -1.067482e-001 -8.672995e+000 137 127 98
1.439660e+000 2.371608e-001 -7.255534e+000 141 93 47
1.525718e+000 3.068331e-001 -7.105815e+000 127 83 36
1.684939e+000 1.316904e-001 -6.991250e+000 130 85 44
2.604996e+000 1.548136e-001 -7.489603e+000 16 8 11
2.597831e+000 1.323517e-001 -7.477395e+000 63 43 47
2.597831e+000 1.323517e-001 -7.477395e+000 63 43 47
-9.194283e-001 -5.742017e-001 -8.412964e+000 37 20 12
5.906143e-001 -3.746981e-001 -8.627553e+000 138 132 107
9.001821e-001 -2.786785e-001 -8.522803e+000 52 48 47
-1.804437e+000 -6.899989e-001 -7.937879e+000 134 98 64
-5.365539e-001 -6.599541e-001 -8.518993e+000 20 16 17
4.642356e-001 -5.449670e-001 -8.597133e+000 22 13 18
6.946126e-001 -5.773130e-001 -8.630985e+000 21 16 18
2.505550e-001 -7.492345e-001 -8.524775e+000 17 13 14
-2.557644e+000 -1.064067e+000 -8.076481e+000 183 138 93
-1.574971e+000 -9.073456e-001 -7.963250e+000 79 44 24
-7.295850e-001 -1.032446e+000 -8.546939e+000 25 21 12
-1.245469e+001 -7.973362e+000 -2.772989e+001 108 123 158
-4.099805e-001 -1.135405e+000 -8.359966e+000 139 135 124
-2.092068e-001 -1.030213e+000 -8.385305e+000 134 122 97
-2.091447e-001 -1.033066e+000 -8.393592e+000 134 122 97
2.334830e-001 -1.114769e+000 -8.048423e+000 53 24 12
9.109626e-001 -1.175955e+000 -7.551432e+000 116 74 34
-1.193155e+001 -1.005900e+001 -2.734804e+001 71 73 88
-1.066519e+001 -9.829539e+000 -2.533445e+001 71 70 86
3.345145e+000 2.788077e+000 -1.094129e+001 52 35 23
1.006274e+000 2.112860e+000 -8.338128e+000 180 156 112
3.413842e+000 2.532643e+000 -1.084788e+001 37 26 24
-4.239971e-001 2.027548e+000 -1.020835e+001 54 38 37
3.602466e+000 2.320613e+000 -1.046651e+001 29 17 19
3.988856e+000 1.993962e+000 -1.002240e+001 38 26 26
4.461842e+000 2.167875e+000 -9.930875e+000 74 58 57
3.560540e+000 1.837122e+000 -1.030392e+001 69 58 52
3.663083e+000 1.844279e+000 -1.026110e+001 25 16 19
4.369048e+000 1.680860e+000 -9.466348e+000 46 31 26
-3.400349e-001 1.161693e+000 -9.892115e+000 84 57 27
4.067584e+000 1.491883e+000 -9.698937e+000 23 14 15
4.184277e+000 1.327170e+000 -9.528870e+000 29 18 22
-1.926200e+000 3.773607e-001 -8.552817e+000 83 47 20
-4.238681e-001 5.280732e-001 -9.366039e+000 42 35 25
2.180384e+000 9.786865e-001 -7.965584e+000 80 65 54
2.182803e+000 9.792756e-001 -7.969270e+000 80 65 54
-1.028673e+000 3.932854e-001 -9.400364e+000 167 163 132
-1.028673e+000 3.932854e-001 -9.400364e+000 167 163 132
1.065254e-001 4.193429e-001 -9.107301e+000 100 93 85
-3.656316e-001 4.122658e-002 -8.755810e+000 153 144 110
4.045730e-001 1.787407e-001 -8.779056e+000 94 89 77
6.651339e-001 2.045744e-001 -8.769709e+000 51 50 48
-1.891379e+000 -6.761177e-002 -8.124249e+000 149 120 86
-4.044806e-001 1.906785e-002 -8.756097e+000 22 18 12
-2.031668e+001 -7.900071e+000 -3.820399e+001 168 148 123
-2.637048e+000 -3.273172e-001 -8.261625e+000 202 163 124
-5.581005e-001 -1.586995e-001 -8.662421e+000 100 93 75
1.559653e+000 2.376209e-001 -7.075499e+000 121 76 33
-1.892887e+000 -6.193270e-001 -7.971656e+000 90 55 23
-9.478617e-001 -5.856082e-001 -8.409162e+000 86 65 47
-1.028229e+001 -5.896108e+000 -2.508754e+001 94 96 111
-1.865530e+000 -6.418217e-001 -7.980517e+000 133 97 70
-1.829441e+000 -6.210958e-001 -7.973667e+000 133 100 69
-1.921324e+000 -7.536332e-001 -7.919980e+000 127 91 59
8.224072e-001 -5.765351e-001 -8.677100e+000 25 21 18
-3.842987e-002 -7.282220e-001 -8.479467e+000 115 109 85
-3.842987e-002 -7.282220e-001 -8.479467e+000 115 109 85
7.125730e-001 -7.673274e-001 -8.680885e+000 59 55 55
7.138774e-001 -7.758047e-001 -8.709862e+000 59 55 55
2.247866e+000 -2.447538e-001 -7.198690e+000 67 45 32
-1.573170e+001 -9.921071e+000 -2.805148e+001 142 134 144
-1.430022e+001 -9.617759e+000 -2.770872e+001 67 57 58
-1.400977e+001 -9.559281e+000 -2.785769e+001 88 77 76
-1.101862e+001 -8.420468e+000 -2.588947e+001 57 65 101
4.338097e-001 -1.185350e+000 -7.781110e+000 99 55 28
9.387446e-001 -1.111541e+000 -7.527490e+000 106 63 31
2.092009e-001 -1.547021e+000 -7.931973e+000 50 30 23
-1.344485e+001 -1.101207e+001 -2.593624e+001 79 76 88
2.806837e+000 2.700519e+000 -1.122755e+001 36 27 21
3.838077e+000 2.832330e+000 -1.103294e+001 31 20 16
3.353263e+000 2.440625e+000 -1.081139e+001 33 21 23
3.434392e+000 2.137587e+000 -1.064933e+001 31 23 21
3.969033e+000 2.323727e+000 -1.023596e+001 54 36 31
1.439431e+000 1.709158e+000 -8.326652e+000 148 122 89
4.118339e+000 1.999593e+000 -9.958851e+000 86 68 58
4.327720e+000 2.028196e+000 -9.959723e+000 33 18 21
-2.930220e-001 1.391363e+000 -9.969662e+000 138 116 75
9.566633e-001 1.496707e+000 -8.392485e+000 32 19 11
4.006570e+000 1.767914e+000 -9.908760e+000 37 26 25
4.246504e+000 1.571666e+000 -9.629558e+000 29 19 19
4.732946e-001 7.912075e-001 -9.317728e+000 24 20 19
4.243761e+000 1.295797e+000 -9.416058e+000 27 18 19
-1.642061e+000 3.325412e-001 -8.675295e+000 59 32 21
4.961917e-001 3.342015e-001 -8.861005e+000 61 52 43
7.769460e-001 3.979843e-001 -8.895653e+000 30 24 26
-3.440427e-001 7.686794e-002 -8.820636e+000 153 143 107
-3.455524e-001 8.045903e-002 -8.795694e+000 153 143 107
-9.047983e-001 -1.273238e-001 -8.812830e+000 18 14 11
5.476861e-002 7.785033e-002 -8.713364e+000 104 97 77
-4.261821e-001 -2.287903e-001 -8.615173e+000 112 36 44
1.233177e+000 -2.399010e-002 -7.481741e+000 149 129 97
1.269613e+000 1.257470e-002 -7.474345e+000 170 138 88
2.038382e+000 2.819729e-001 -6.958884e+000 167 139 100
1.193369e+000 -2.564670e-001 -8.264882e+000 66 58 56
-9.722946e-001 -6.474581e-001 -8.343864e+000 122 97 67
-1.162877e+000 -8.140405e-001 -8.078122e+000 82 45 26
-1.822777e+000 -9.587482e-001 -7.914180e+000 85 44 25
-1.135378e+000 -1.149856e+000 -8.202373e+000 94 71 53
-2.350492e+000 -1.435243e+000 -8.133128e+000 53 32 15
-2.133814e+000 -1.387704e+000 -8.080388e+000 129 104 76
-1.135889e+001 -9.086496e+000 -2.680141e+001 91 95 132
9.702827e-001 2.347923e+000 -8.441742e+000 74 47 28
3.153607e+000 2.519671e+000 -1.111232e+001 21 12 13
8.623663e-001 1.913491e+000 -8.408106e+000 44 28 28
4.056909e+000 2.420340e+000 -1.023690e+001 93 78 73
-3.387467e+000 1.921091e+000 -1.907007e+001 28 27 33
3.610228e+000 2.189039e+000 -1.054930e+001 28 17 21
-2.206630e-001 1.574198e+000 -9.995910e+000 145 122 91
3.946514e+000 1.442014e+000 -9.752615e+000 33 24 29
4.383413e+000 1.094166e+000 -9.199451e+000 59 49 48
4.409207e+000 1.049443e+000 -9.153353e+000 28 18 18
4.409207e+000 1.049443e+000 -9.153353e+000 28 18 18
-1.974016e+000 2.907964e-001 -8.490794e+000 60 34 21
-9.489665e-001 3.638227e-001 -9.302635e+000 167 163 128
-1.870815e-001 3.812990e-001 -9.042316e+000 147 135 114
3.381781e-001 5.246498e-001 -9.080786e+000 68 62 49
1.701331e+000 7.526134e-001 -7.215378e+000 67 39 25
4.335192e+000 9.165889e-001 -9.093185e+000 37 25 24
-7.189787e-001 2.300010e-001 -9.072969e+000 151 142 121
-3.850889e-001 2.525237e-001 -8.972486e+000 149 145 118
-2.595003e+000 -2.544565e-001 -8.262061e+000 181 142 101
-2.075051e+000 -3.133086e-001 -8.090312e+000 172 140 101
-3.037109e-001 -1.376135e-001 -8.644302e+000 28 21 25
1.210101e+000 -1.822708e-001 -8.285106e+000 32 25 20
3.933500e-001 -4.272503e-001 -8.589005e+000 31 27 28
-1.354204e+000 -6.201105e-001 -8.075298e+000 130 95 63
-4.881662e-001 -1.099641e+000 -8.386475e+000 33 31 31
-3.027226e-001 -1.140746e+000 -8.349282e+000 41 34 28
-1.880355e-002 -1.051876e+000 -8.458017e+000 30 25 23
-1.389831e+001 -9.915644e+000 -2.697395e+001 97 86 89
-1.411399e+001 -1.101495e+001 -2.814453e+001 132 123 132
-1.352779e+001 -1.065763e+001 -2.613227e+001 78 63 81
-1.085440e+001 -1.066587e+001 -2.584776e+001 65 63 84
2.904378e+000 2.864117e+000 -1.148098e+001 30 19 16
2.066695e+000 2.036661e+000 -8.596743e+000 29 20 22
3.729461e+000 2.136273e+000 -1.023979e+001 29 18 22
4.045002e+000 1.353593e+000 -9.640501e+000 26 17 23
4.176427e+000 1.206277e+000 -9.455662e+000 33 25 26
3.583929e-001 2.933013e-001 -8.914130e+000 96 90 77
-2.556029e+000 -3.975079e-003 -8.505192e+000 121 76 33
1.191419e-001 8.440974e-002 -8.709873e+000 100 96 69
1.625467e-001 -3.203915e-002 -8.670149e+000 132 122 97
3.081103e-001 1.874920e-002 -8.694556e+000 140 129 106
-1.046110e-001 -2.111701e-001 -8.610161e+000 25 19 21
1.879890e-001 -1.027102e-001 -8.657360e+000 23 18 19
1.421683e-001 -1.997665e-001 -8.629048e+000 15 15 16
-3.667378e-001 -3.981288e-001 -8.567018e+000 136 125 98
-2.948423e-001 -3.671097e-001 -8.570438e+000 21 20 22
2.608190e-002 -3.219734e-001 -8.582945e+000 133 122 101
6.957228e-002 -2.252826e-001 -8.613499e+000 126 114 91
1.706577e-001 -2.700708e-001 -8.619818e+000 126 114 91
9.762895e-002 -2.954044e-001 -8.596857e+000 25 19 24
1.246615e-001 -3.686065e-001 -8.588847e+000 115 101 75
-3.095846e-001 -5.347797e-001 -8.523708e+000 149 135 109
1.043067e-002 -4.887362e-001 -8.535850e+000 21 18 16
-6.257552e-002 -5.157118e-001 -8.523990e+000 127 118 88
1.808032e-001 -5.092033e-001 -8.564045e+000 107 100 72
4.215200e-001 -5.022302e-001 -8.593911e+000 143 130 113
-3.348994e-002 -5.856487e-001 -8.508235e+000 26 21 27
3.890491e-002 -5.603856e-001 -8.520393e+000 135 124 95
-1.918661e-001 -8.024732e-001 -8.424247e+000 134 122 98
-2.019212e-002 -8.222384e-001 -8.455034e+000 20 15 20
-2.032203e+000 -1.093070e+000 -7.965032e+000 99 66 49
-3.076683e-001 -9.280338e-001 -8.387821e+000 22 23 21
-2.274376e+000 -1.175300e+000 -8.050447e+000 63 37 20
3.281131e+000 2.913916e+000 -1.115336e+001 64 47 39
3.281131e+000 2.913916e+000 -1.115336e+001 64 47 39
3.550552e+000 2.904037e+000 -1.097963e+001 71 56 49
4.351947e+000 1.163587e+000 -9.202640e+000 30 18 22
-1.777696e+000 -5.630652e-001 -7.984645e+000 134 101 73
-1.273782e+000 -6.250925e-001 -8.204456e+000 70 36 9
-1.839813e+000 -1.576764e+000 -8.155115e+000 47 33 29
-1.500899e+001 -1.136805e+001 -2.692293e+001 122 111 117
1.237045e+000 1.741879e+000 -8.349060e+000 44 29 24
-3.280779e-001 5.962497e-001 -9.530073e+000 102 92 86
-3.283060e-001 5.908615e-001 -9.560190e+000 102 92 86
-1.462651e+001 -1.067460e+001 -2.724771e+001 50 43 50
3.844393e+000 2.458510e+000 -1.049833e+001 80 66 55
5.702833e-001 1.219295e+000 -9.366199e+000 71 64 54
-1.703535e+000 1.685037e-001 -8.518891e+000 17 14 17
7.883756e-001 4.346122e-001 -8.863747e+000 26 20 20
1.658665e+000 4.788162e-001 -7.109936e+000 188 159 113
1.980977e+000 3.494442e-001 -6.928750e+000 160 135 94
-1.296664e+001 -1.068098e+001 -2.580986e+001 25 18 34
6.338774e-001 2.471871e+000 -8.710450e+000 194 169 124
-3.563175e-001 -4.870656e-002 -8.712391e+000 26 24 25
1.123456e+000 2.610218e+000 -9.428882e+000 154 134 102
2.675117e+000 2.856287e+000 -1.154387e+001 99 86 70
3.713855e+000 3.083085e+000 -1.132599e+001 38 26 26
1.002353e+000 2.483243e+000 -8.561414e+000 87 63 26
1.000677e+000 2.482805e+000 -8.557813e+000 87 63 26
-4.647134e-001 2.008398e+000 -1.031440e+001 131 106 85
6.883005e-001 2.310235e+000 -8.618236e+000 165 117 75
8.637560e-001 2.377285e+000 -8.524187e+000 89 53 30
4.040710e+000 2.817121e+000 -1.081014e+001 89 74 67
-3.228901e-001 2.013372e+000 -1.024515e+001 79 53 32
3.947869e+000 2.563075e+000 -1.065093e+001 83 66 58
-2.336003e-001 1.762000e+000 -1.011107e+001 126 99 71
4.647369e-001 2.007404e+000 -8.801654e+000 159 140 116
6.966881e-001 2.051953e+000 -8.457636e+000 84 47 28
6.760146e-001 1.836254e+000 -8.564631e+000 147 113 86
3.516851e+000 2.196686e+000 -1.064997e+001 28 16 16
3.634204e+000 2.211097e+000 -1.051011e+001 62 52 51
3.634204e+000 2.211097e+000 -1.051011e+001 62 52 51
5.882771e-001 1.754308e+000 -8.618989e+000 56 34 19
9.078831e-001 1.758694e+000 -8.348493e+000 76 57 42
3.356271e+000 2.083169e+000 -1.055250e+001 40 29 24
3.529596e+000 2.007874e+000 -1.048105e+001 60 46 43
4.123740e+000 2.140584e+000 -1.003406e+001 94 79 74
-5.910832e-001 1.296397e+000 -9.975974e+000 60 31 9
-5.910832e-001 1.296397e+000 -9.975974e+000 60 31 9
-6.204353e-001 1.224515e+000 -9.949696e+000 160 126 89
7.091708e-001 1.627562e+000 -8.635998e+000 127 111 96
8.357245e-001 1.707713e+000 -8.456904e+000 75 49 31
7.968033e-001 1.585752e+000 -8.515256e+000 152 126 80
-2.981410e-001 1.101825e+000 -9.911359e+000 74 53 22
3.992824e+000 1.810957e+000 -9.928781e+000 68 57 52
3.920569e+000 1.619649e+000 -9.880196e+000 66 54 52
4.306138e+000 1.846848e+000 -9.573183e+000 91 72 66
4.266361e+000 1.813222e+000 -9.430018e+000 81 64 56
-2.214699e+000 5.175686e-001 -9.337395e+000 108 77 47
1.104905e+000 1.335642e+000 -8.345601e+000 132 106 79
-2.114056e+000 5.293649e-001 -8.915968e+000 152 116 80
-1.826818e+000 5.332091e-001 -9.469337e+000 78 49 23
-2.900861e-001 6.621654e-001 -9.682599e+000 114 110 99
-2.580718e-001 6.712994e-001 -9.669744e+000 96 90 82
-2.580718e-001 6.712994e-001 -9.669744e+000 96 90 82
-1.816454e-001 6.701927e-001 -9.718500e+000 19 12 10
-6.258629e-002 7.076134e-001 -9.889736e+000 18 13 12
-3.229799e+000 2.985654e-002 -9.374379e+000 44 33 23
-1.950570e+000 4.322630e-001 -8.751345e+000 133 97 66
-1.548588e+000 4.451269e-001 -8.896022e+000 125 98 69
-7.547181e-001 5.280361e-001 -9.456639e+000 26 22 12
1.489407e-002 6.029764e-001 -9.699385e+000 19 10 13
4.494475e-002 5.988469e-001 -9.693550e+000 19 14 11
1.232702e-001 5.830572e-001 -9.518914e+000 95 89 75
-2.243604e+000 1.945251e-001 -8.620587e+000 89 51 15
-2.151699e+000 3.279313e-001 -8.637130e+000 91 58 25
-1.998209e+000 3.286184e-001 -8.617948e+000 133 101 71
-1.872596e+000 2.781519e-001 -8.590715e+000 97 66 48
-1.613752e+000 2.985750e-001 -8.760842e+000 48 24 21
-1.483909e+000 2.986412e-001 -8.950841e+000 69 46 33
-2.879356e+000 -8.703206e-002 -8.714616e+000 189 154 115
-2.238917e+000 1.358753e-001 -8.506459e+000 149 114 77
-1.977637e+000 2.644915e-001 -8.420535e+000 124 90 68
-1.964767e+000 2.263309e-001 -8.557503e+000 109 76 58
1.255097e-002 4.190080e-001 -9.120238e+000 18 14 10
1.255097e-002 4.190080e-001 -9.120238e+000 18 14 10
1.408604e+000 8.942432e-001 -7.640872e+000 159 117 79
1.674630e+000 1.003579e+000 -7.546653e+000 79 65 56
1.674630e+000 1.003579e+000 -7.546653e+000 79 65 56
-2.326236e+000 2.562519e-002 -8.367182e+000 102 62 25
-2.190798e+000 -2.502618e-002 -8.287131e+000 149 113 77
-1.955547e+000 8.153746e-002 -8.314904e+000 128 100 76
-1.945285e+000 6.870913e-002 -8.392889e+000 63 33 21
-1.945285e+000 6.870913e-002 -8.392889e+000 63 33 21
-1.922648e+000 4.796206e-002 -8.231835e+000 117 88 67
-1.927252e+000 4.486562e-002 -8.402531e+000 99 72 53
-1.020633e-001 2.560924e-001 -8.873196e+000 29 16 13
-6.398577e-002 2.256379e-001 -8.823228e+000 142 127 104
3.916431e-002 3.097473e-001 -8.895841e+000 23 19 10
3.916431e-002 3.097473e-001 -8.895841e+000 23 19 10
1.431665e+000 8.630711e-001 -7.585824e+000 138 94 55
1.352288e+000 7.707171e-001 -7.666196e+000 179 142 96
1.469562e+000 8.832242e-001 -7.457644e+000 175 140 93
-2.121941e+000 -5.993375e-002 -8.236391e+000 163 133 98
-2.140959e+000 -1.143048e-001 -8.230610e+000 163 134 94
-2.055184e+000 -7.403948e-002 -8.236207e+000 112 80 48
-1.828254e+000 -1.614438e-002 -8.273037e+000 122 93 54
1.590548e+000 7.985334e-001 -7.555031e+000 49 21 6
1.570532e+000 7.401124e-001 -7.412917e+000 150 111 80
-2.742057e+000 -3.467250e-001 -8.389625e+000 178 139 108
-2.505681e+000 -3.659167e-001 -8.242541e+000 165 124 80
-2.397873e+000 -2.904139e-001 -8.275885e+000 169 135 89
-1.838415e+000 -1.162909e-001 -8.171011e+000 126 96 68
-5.858562e-001 -1.386449e-001 -8.699003e+000 25 19 21
-4.215022e-001 -7.001277e-002 -8.638395e+000 101 37 42
-4.215022e-001 -7.001277e-002 -8.638395e+000 101 37 42
3.100646e-001 7.532642e-002 -8.708503e+000 22 14 2
6.127970e-001 1.241702e-001 -8.619621e+000 61 53 43
1.321607e+000 6.629995e-001 -7.359064e+000 189 146 101
1.425693e+000 6.953157e-001 -7.317948e+000 134 91 39
-2.566064e+000 -4.366156e-001 -8.230124e+000 158 113 74
-2.433233e+000 -4.792242e-001 -8.155685e+000 170 132 87
-2.144316e+000 -3.067445e-001 -8.099237e+000 158 128 89
-2.057687e+000 -2.556580e-001 -8.061793e+000 112 77 39
-1.944131e+000 -2.772522e-001 -8.083420e+000 166 133 98
-1.866286e+000 -2.894861e-001 -8.035003e+000 150 120 84
-1.724526e+000 -2.659841e-001 -8.135572e+000 118 87 64
5.714931e-001 -8.518498e-002 -8.625046e+000 121 110 92
1.315753e+000 5.452580e-001 -7.336252e+000 107 60 18
1.546691e+000 6.121854e-001 -7.320899e+000 94 55 24
-2.820271e+000 -6.894474e-001 -8.420833e+000 90 63 45
-2.652429e+000 -6.544042e-001 -8.288963e+000 99 64 27
-1.864160e+000 -4.235580e-001 -8.048582e+000 145 112 80
-1.659697e+000 -4.633852e-001 -8.072618e+000 76 66 57
-1.659697e+000 -4.633852e-001 -8.072618e+000 76 66 57
4.762949e-001 -2.801830e-001 -8.579081e+000 134 125 93
7.438488e-001 -1.370363e-001 -8.681036e+000 18 15 9
1.373696e+000 4.728667e-001 -7.095370e+000 178 137 85
1.556162e+000 5.159300e-001 -7.133831e+000 109 71 33
1.723173e+000 4.750897e-001 -7.097376e+000 168 139 96
-2.802391e+000 -8.181323e-001 -8.401282e+000 108 73 48
-1.861406e+000 -5.780639e-001 -8.060615e+000 138 105 73
-1.622762e+000 -5.734978e-001 -8.084181e+000 116 85 57
-9.465404e-001 -6.210741e-001 -8.603252e+000 44 24 17
2.369566e-001 -3.736060e-001 -8.586382e+000 134 126 91
6.180449e-001 -3.080265e-001 -8.574312e+000 146 141 109
1.405813e+000 3.235252e-001 -7.233136e+000 210 170 119
1.494717e+000 3.043477e-001 -7.099166e+000 197 152 103
-2.606936e+000 -8.663763e-001 -8.168989e+000 155 114 80
-2.543841e+000 -8.594966e-001 -8.120650e+000 108 70 34
-2.280964e+000 -7.209649e-001 -8.013218e+000 160 130 93
-2.213876e+000 -7.178976e-001 -7.980359e+000 175 142 107
7.302670e-001 -6.126696e-001 -8.635798e+000 17 14 9
7.597361e-001 -4.411209e-001 -8.589416e+000 138 132 121
1.685769e+000 3.314595e-001 -6.986604e+000 126 84 40
-2.605067e+000 -1.013039e+000 -8.103487e+000 134 87 41
-1.975194e+000 -8.704019e-001 -7.918186e+000 144 106 71
-1.851716e+000 -7.616854e-001 -7.905808e+000 154 117 89
-1.469613e+000 -8.696054e-001 -8.000063e+000 105 70 51
-1.231598e+000 -7.070184e-001 -8.051155e+000 123 88 58
-1.229133e+000 -8.167795e-001 -8.062169e+000 134 99 71
-1.231017e+000 -8.525728e-001 -8.070562e+000 92 57 29
-9.783477e-001 -7.795166e-001 -8.246273e+000 131 101 71
-8.931309e-001 -8.183551e-001 -8.417900e+000 85 72 54
2.607484e-001 -7.778231e-001 -8.516348e+000 118 106 86
1.468036e+000 1.164491e-001 -7.105402e+000 145 88 53
2.602828e+000 7.720621e-002 -7.497776e+000 68 52 53
-2.075044e+000 -9.841084e-001 -7.883742e+000 136 94 71
-1.887040e+000 -9.682501e-001 -7.926119e+000 83 46 20
-1.771302e+000 -8.963378e-001 -7.909861e+000 128 91 65
-7.901550e-001 -1.193018e+000 -8.643453e+000 143 143 143
1.213242e-001 -9.096373e-001 -8.472913e+000 110 97 78
7.282278e-001 -8.560499e-001 -8.742541e+000 14 9 13
1.635602e+000 4.452668e-002 -6.947012e+000 153 97 51
-2.043075e+000 -1.203910e+000 -8.027432e+000 92 68 54
-1.628636e+000 -1.190987e+000 -8.059202e+000 49 25 15
-1.523565e+000 -1.149228e+000 -7.947908e+000 66 39 26
-1.474715e+000 -1.083246e+000 -8.032238e+000 44 19 7
-1.100966e+000 -1.102517e+000 -8.251926e+000 72 43 23
-1.046985e+000 -1.088639e+000 -8.226512e+000 139 107 85
-7.583204e-001 -1.260803e+000 -8.625070e+000 29 31 36
-6.404255e-001 -1.266102e+000 -8.473693e+000 48 49 50
-1.430599e-001 -1.110804e+000 -8.388196e+000 28 19 11
-1.405234e-001 -1.144463e+000 -8.455577e+000 28 19 11
3.432268e-001 -9.712929e-001 -8.267774e+000 60 35 22
1.827165e+000 1.461971e-002 -6.921152e+000 130 85 40
-2.016684e+000 -1.421139e+000 -8.071487e+000 48 28 20
-2.026675e+000 -1.444508e+000 -8.112426e+000 48 28 20
-1.661813e+000 -1.227222e+000 -7.968444e+000 34 16 12
-1.655293e+000 -1.213118e+000 -7.943548e+000 34 16 12
-1.627847e+000 -1.365419e+000 -8.003704e+000 54 44 42
-1.214568e+000 -1.273261e+000 -8.187560e+000 87 68 54
-1.029804e+000 -1.402883e+000 -8.433701e+000 70 52 47
-1.047666e+000 -1.439282e+000 -8.429692e+000 150 147 152
1.577064e-001 -1.088494e+000 -8.098392e+000 115 94 71
4.377515e-001 -8.576846e-001 -7.964722e+000 80 47 28
1.507026e+000 -9.918761e-001 -8.573577e+000 6 6 16
-1.256906e+000 -1.506359e+000 -8.252506e+000 130 112 99
1.414167e-001 -1.188675e+000 -8.039884e+000 118 88 69
2.615975e-001 -1.175152e+000 -7.990700e+000 56 25 5
3.249177e-001 -1.099553e+000 -7.872618e+000 138 98 73
7.746134e-001 -8.300238e-001 -7.659023e+000 72 36 14
-3.427337e-001 -1.523700e+000 -8.249461e+000 201 196 196
-7.220936e-002 -1.451734e+000 -8.235825e+000 30 20 12
2.472229e-001 -1.253878e+000 -7.944558e+000 63 29 13
3.004222e-001 -1.260630e+000 -7.823367e+000 113 75 55
6.659458e-001 -9.941891e-001 -7.669634e+000 137 99 80
8.608051e-001 -1.050866e+000 -7.639375e+000 96 52 25
1.051647e-001 -1.379694e+000 -7.865569e+000 132 111 96
3.258983e-001 -1.272218e+000 -7.727375e+000 75 39 15
8.355048e-001 -1.066159e+000 -7.476712e+000 121 76 36
9.580316e-001 -1.021262e+000 -7.430364e+000 105 62 30
1.206861e-001 -1.590633e+000 -7.873116e+000 81 50 29
1.759896e-001 -1.575376e+000 -7.913339e+000 85 57 36
7.557505e-001 -1.372413e+000 -7.593840e+000 223 177 130
7.557505e-001 -1.372413e+000 -7.593840e+000 223 177 130
9.791850e-001 -1.258771e+000 -7.490241e+000 147 104 62
1.025792e+000 -1.319289e+000 -7.614657e+000 177 133 92
1.032105e+000 -1.269122e+000 -7.567978e+000 123 78 41
1.515040e-002 -1.782893e+000 -8.017594e+000 118 114 118
1.236846e-001 -1.816280e+000 -7.970928e+000 58 36 26
9.201309e-001 -1.460062e+000 -7.610780e+000 201 163 115
1.137808e+000 -1.378226e+000 -7.533102e+000 196 163 122
9.228458e-001 2.598355e+000 -9.209050e+000 106 79 50
9.410739e-001 2.629362e+000 -9.236954e+000 153 129 93
3.803901e+000 3.148239e+000 -1.170047e+001 30 20 18
3.783277e+000 3.111623e+000 -1.132347e+001 38 21 21
8.533159e-001 2.428335e+000 -8.624036e+000 165 119 69
3.217470e+000 2.885234e+000 -1.126536e+001 74 60 57
3.901593e+000 2.974732e+000 -1.119804e+001 91 76 76
3.979032e+000 3.027342e+000 -1.121839e+001 52 34 32
4.702418e-001 2.217410e+000 -8.926566e+000 182 166 140
8.291709e-001 2.330295e+000 -8.588572e+000 63 30 15
8.291709e-001 2.330295e+000 -8.588572e+000 63 30 15
3.234630e+000 2.681300e+000 -1.129049e+001 27 16 21
3.532784e+000 2.746061e+000 -1.088220e+001 117 105 83
3.156098e+000 2.468392e+000 -1.112323e+001 55 46 44
3.767054e+000 2.528173e+000 -1.061460e+001 75 57 45
3.877012e+000 2.530974e+000 -1.064360e+001 92 73 67
-2.440308e-001 1.847271e+000 -1.013009e+001 60 32 18
-2.671392e-001 1.760082e+000 -1.014412e+001 71 39 14
-6.194048e-002 1.772686e+000 -1.015512e+001 53 35 11
6.724574e-001 1.990270e+000 -8.407874e+000 161 123 92
3.754101e+000 2.375766e+000 -1.041786e+001 47 33 26
4.067927e+000 2.465836e+000 -1.071436e+001 20 10 9
-3.689379e-001 1.626434e+000 -1.003632e+001 99 62 27
5.068798e-001 1.779095e+000 -9.020902e+000 64 48 34
7.983064e-001 1.947883e+000 -8.411576e+000 111 78 63
7.921821e-001 1.877160e+000 -8.384389e+000 144 109 89
3.335683e+000 2.127133e+000 -1.061685e+001 32 21 19
4.184922e+000 2.271217e+000 -1.039189e+001 35 21 20
4.275600e+000 2.391928e+000 -1.026660e+001 35 27 25
4.397448e+000 2.326307e+000 -1.015529e+001 79 60 58
-4.946228e-001 1.429866e+000 -1.008514e+001 76 41 13
-5.130561e-001 1.367843e+000 -1.003282e+001 113 78 51
-4.457789e-001 1.374977e+000 -9.919656e+000 142 103 66
4.925497e-001 1.754692e+000 -8.821300e+000 107 89 79
7.634638e-001 1.776754e+000 -8.505536e+000 160 126 96
9.512251e-001 1.816205e+000 -8.279960e+000 27 14 10
1.103697e+000 1.835338e+000 -8.322183e+000 37 25 18
3.911256e+000 2.095702e+000 -1.008513e+001 43 29 29
9.093371e-001 1.714264e+000 -8.287664e+000 154 137 108
9.079499e-001 1.714908e+000 -8.282145e+000 154 137 108
9.638064e-001 1.644722e+000 -8.267604e+000 145 127 105
1.747773e+000 1.799476e+000 -8.722190e+000 89 68 34
3.742189e+000 1.956941e+000 -1.032291e+001 29 17 18
3.726602e+000 1.891308e+000 -1.024649e+001 30 18 18
-4.506683e-001 1.073820e+000 -9.885107e+000 166 137 97
-2.522196e-001 1.163437e+000 -9.862542e+000 132 113 83
-2.135693e-001 1.118088e+000 -9.981245e+000 73 56 29
8.265629e-001 1.467354e+000 -8.627727e+000 109 96 77
9.442457e-001 1.554934e+000 -8.322073e+000 40 25 19
9.245622e-001 1.483402e+000 -8.400674e+000 107 91 79
3.927196e+000 1.798072e+000 -1.000175e+001 28 17 15
-6.174022e-001 9.599475e-001 -9.973001e+000 85 57 31
1.399728e+000 1.480261e+000 -8.339501e+000 83 48 25
1.478036e+000 1.554906e+000 -8.222034e+000 132 92 55
1.703053e+000 1.547022e+000 -8.282448e+000 151 125 87
1.678070e+000 1.478137e+000 -8.351587e+000 82 51 22
4.270844e+000 1.828067e+000 -9.608334e+000 94 76 65
4.270844e+000 1.828067e+000 -9.608334e+000 94 76 65
-1.872543e+000 5.330530e-001 -9.620055e+000 111 91 67
-1.095515e+000 5.880358e-001 -1.018046e+001 161 152 135
-2.419862e-001 7.571159e-001 -9.951067e+000 43 30 21
1.151521e+000 1.343831e+000 -8.350205e+000 115 86 57
1.345780e+000 1.338131e+000 -8.292974e+000 121 95 69
4.208788e+000 1.577313e+000 -9.711162e+000 29 22 22
-3.259326e+000 1.035195e-001 -9.609685e+000 63 49 44
-2.814021e+000 2.906564e-001 -9.310282e+000 65 41 13
-4.953493e-001 5.999732e-001 -9.583720e+000 106 106 80
-4.953493e-001 5.999732e-001 -9.583720e+000 106 106 80
-3.969613e-001 6.191533e-001 -9.582835e+000 32 25 19
-2.735226e-001 6.493928e-001 -9.606786e+000 26 21 17
-2.766493e-001 6.434943e-001 -9.630085e+000 26 21 17
6.528167e-003 6.983272e-001 -9.924399e+000 50 44 44
-3.036814e+000 1.070309e-001 -8.996759e+000 193 167 128
-2.967921e+000 1.471698e-001 -9.424180e+000 134 111 79
-2.255359e+000 4.252586e-001 -8.788967e+000 172 134 89
-1.713447e+000 4.495174e-001 -8.783847e+000 67 32 12
-1.587833e+000 4.528758e-001 -8.924889e+000 83 55 30
-1.480960e+000 4.284523e-001 -8.927711e+000 114 86 65
-1.286472e+000 3.265203e-001 -9.845440e+000 117 108 97
-1.236456e+000 3.388747e-001 -9.632503e+000 29 21 15
-6.830361e-001 5.418355e-001 -9.480892e+000 107 101 87
-6.385831e-001 5.494443e-001 -9.495134e+000 31 27 18
-6.385831e-001 5.494443e-001 -9.495134e+000 31 27 18
-2.236489e-001 5.678910e-001 -9.410078e+000 93 83 74
4.245204e+000 1.279834e+000 -9.301701e+000 67 53 52
-1.847465e+000 3.340948e-001 -8.749071e+000 54 25 17
-1.527175e+000 3.052164e-001 -8.832856e+000 39 15 12
-2.341643e-002 5.081529e-001 -9.385076e+000 22 15 12
-2.799366e+000 7.792791e-003 -8.728167e+000 185 143 95
-2.787451e+000 -6.268049e-002 -8.593069e+000 132 93 54
-2.587407e+000 5.889111e-002 -8.512022e+000 175 129 77
-2.229655e+000 1.890650e-001 -8.448855e+000 88 49 16
-2.054348e+000 1.909348e-001 -8.388369e+000 137 103 75
-2.153635e+000 1.526615e-001 -8.375657e+000 175 142 99
-2.057522e+000 2.064005e-001 -8.522061e+000 152 118 95
-1.938844e+000 1.750673e-001 -8.373817e+000 98 71 51
-1.645137e+000 2.201129e-001 -8.654245e+000 42 22 19
-1.649506e+000 2.154899e-001 -8.667155e+000 42 22 19
-1.249592e+000 2.659009e-001 -8.848670e+000 51 29 18
1.432847e+000 9.283090e-001 -7.578475e+000 161 128 88
-2.690996e+000 -1.211643e-001 -8.340116e+000 128 86 45
-2.389352e+000 2.374009e-002 -8.370580e+000 126 87 46
-2.066601e+000 3.595196e-002 -8.342412e+000 71 39 12
-1.968264e+000 9.607676e-002 -8.368119e+000 60 31 13
-1.006696e+000 -1.687272e-003 -8.901667e+000 39 30 25
-4.603319e-001 1.748939e-001 -8.927989e+000 139 132 106
1.053648e-001 2.293455e-001 -8.812566e+000 79 74 67
1.396909e+000 8.690506e-001 -7.651904e+000 110 72 35
1.396909e+000 8.690506e-001 -7.651904e+000 110 72 35
1.401344e+000 8.217459e-001 -7.608989e+000 112 71 34
1.427681e+000 8.997594e-001 -7.494227e+000 170 127 85
1.837402e+000 9.014556e-001 -7.501433e+000 68 44 17
2.214600e+000 9.367715e-001 -7.891989e+000 75 55 49
-2.943999e+000 -3.054128e-001 -8.665959e+000 151 121 99
-2.455841e+000 -2.257926e-001 -8.454666e+000 125 84 40
-2.463783e+000 -2.423829e-001 -8.354217e+000 157 118 75
-2.216779e+000 -4.451726e-002 -8.265525e+000 167 133 95
-1.964673e+000 -9.907216e-002 -8.269064e+000 75 44 15
-1.266772e+000 6.485729e-002 -8.176772e+000 43 27 4
-1.066020e+000 6.323929e-002 -8.348626e+000 122 102 77
-3.657872e-001 4.110923e-002 -8.756334e+000 152 144 107
-2.524443e-001 8.630723e-002 -8.771165e+000 150 139 109
1.233364e+000 6.249948e-001 -7.744231e+000 54 48 43
1.237979e+000 6.936629e-001 -7.663363e+000 49 43 39
1.616996e+000 7.769964e-001 -7.458840e+000 113 74 45
-2.474270e+000 -2.776198e-001 -8.355958e+000 104 64 28
-2.199950e+000 -1.588814e-001 -8.188624e+000 178 146 105
-1.979837e+000 -1.887506e-001 -8.109114e+000 158 129 86
1.335533e+000 6.801324e-001 -7.309811e+000 121 76 34
-2.812464e+000 -5.869707e-001 -8.423101e+000 98 71 52
-2.289673e+000 -4.482480e-001 -8.243551e+000 160 127 89
-2.289673e+000 -4.482480e-001 -8.243551e+000 160 127 89
-1.690179e+000 -3.430348e-001 -8.195349e+000 70 43 22
-1.049597e+000 -2.679566e-001 -8.424484e+000 133 110 79
1.205276e+000 1.575560e-001 -8.385670e+000 50 41 36
1.283391e+000 5.145987e-001 -7.330320e+000 137 93 44
1.470346e+000 6.019707e-001 -7.204622e+000 198 160 121
1.551711e+000 5.907206e-001 -7.201805e+000 182 150 101
-2.663278e+000 -6.986349e-001 -8.300552e+000 163 122 78
-2.069070e+000 -4.293873e-001 -8.049444e+000 156 126 88
-2.605570e+000 -7.069530e-001 -8.180183e+000 174 136 95
-2.473981e+000 -7.172729e-001 -8.082051e+000 181 147 107
-2.395597e+000 -7.102336e-001 -8.072417e+000 150 117 76
-1.888280e+000 -6.031893e-001 -7.933928e+000 83 45 19
-1.609006e+000 -5.113450e-001 -8.078084e+000 120 96 72
3.932029e-001 -3.602510e-001 -8.571898e+000 177 163 133
1.133907e+000 -1.654187e-001 -8.380407e+000 41 33 28
1.183276e+000 -2.284467e-001 -8.335139e+000 71 62 57
1.166923e+000 -1.945676e-001 -8.247904e+000 71 62 57
-2.534784e+000 -8.131899e-001 -8.098673e+000 177 139 103
-2.432711e+000 -8.286125e-001 -8.048172e+000 178 146 108
-2.387090e+000 -8.570086e-001 -7.983849e+000 182 148 114
-2.085881e+000 -6.347326e-001 -7.888408e+000 154 121 86
-1.921678e+000 -7.525050e-001 -8.034475e+000 75 38 11
-1.653118e+000 -6.066572e-001 -7.949872e+000 124 89 61
-1.653118e+000 -6.066572e-001 -7.949872e+000 124 89 61
-1.319313e+000 -6.729958e-001 -8.095598e+000 93 58 30
-1.282783e+000 -6.511222e-001 -7.998704e+000 126 91 59
-1.216202e+000 -7.219218e-001 -8.259842e+000 80 44 20
-8.551402e-001 -7.113899e-001 -8.376709e+000 21 12 19
8.610376e-001 -4.724115e-001 -8.592387e+000 14 8 13
1.647517e+000 3.124781e-001 -7.008707e+000 114 71 28
-2.429743e+000 -9.749056e-001 -8.000295e+000 177 138 97
-1.990622e+000 -8.238372e-001 -7.973836e+000 105 62 36
-1.907630e+000 -7.970319e-001 -7.995685e+000 111 67 40
-1.886684e+000 -8.949232e-001 -7.959862e+000 81 36 17
-1.778199e+000 -8.644876e-001 -7.907379e+000 90 51 24
-1.073052e+000 -8.106809e-001 -8.303761e+000 95 62 29
-8.755537e-001 -8.598044e-001 -8.424478e+000 25 15 8
9.538362e-001 -5.201206e-001 -8.360386e+000 20 15 19
1.689417e+000 2.236190e-001 -6.917264e+000 102 59 40
2.177522e+000 2.096024e-001 -7.015168e+000 69 45 21
2.564062e+000 8.451978e-002 -7.412535e+000 19 7 10
-2.306085e+000 -1.137954e+000 -8.056590e+000 129 93 70
-1.932213e+000 -9.904231e-001 -8.000978e+000 119 77 52
-1.658028e+000 -9.279036e-001 -7.915526e+000 112 71 41
-1.621557e+000 -9.139943e-001 -7.944740e+000 76 38 15
-1.637457e+000 -1.010466e+000 -7.972509e+000 115 75 49
-1.620817e+000 -9.699062e-001 -7.895012e+000 115 75 49
-9.253573e-001 -9.546104e-001 -8.354044e+000 104 82 62
1.374260e+000 -1.538622e-001 -7.310244e+000 184 156 131
1.650280e+000 7.161759e-002 -6.900172e+000 203 152 97
1.796231e+000 9.444916e-002 -6.936644e+000 99 56 16
2.567831e+000 6.861581e-002 -7.382438e+000 69 57 58
-2.218214e+000 -1.284944e+000 -8.023386e+000 87 52 32
-1.797742e+000 -1.092944e+000 -7.926907e+000 105 69 47
-1.921175e+000 -1.247033e+000 -8.072722e+000 85 62 49
-1.648052e+000 -1.152949e+000 -7.975028e+000 83 56 35
-7.778405e-001 -1.252738e+000 -8.681228e+000 33 32 37
-6.910524e-001 -1.276286e+000 -8.531010e+000 53 58 65
-6.910524e-001 -1.276286e+000 -8.531010e+000 53 58 65
-6.776268e-001 -1.305385e+000 -8.511623e+000 175 178 183
1.639085e+000 -2.544900e-002 -6.939057e+000 158 102 53
1.648254e+000 5.484220e-003 -6.906876e+000 202 149 95
-1.232937e+000 -1.282941e+000 -8.160271e+000 32 16 14
-1.018098e+000 -1.351039e+000 -8.465387e+000 73 46 35
4.033277e-001 -8.951050e-001 -7.938194e+000 72 40 19
6.612392e-001 -8.349917e-001 -7.752552e+000 74 37 18
7.447226e-001 -8.250166e-001 -7.764243e+000 112 81 56
-1.846484e+000 -1.537145e+000 -8.077259e+000 50 32 25
-1.780439e+000 -1.636117e+000 -8.173014e+000 88 71 66
-1.202467e+000 -1.622279e+000 -8.392081e+000 22 13 15
-3.811556e-001 -1.510320e+000 -8.421839e+000 127 122 127
-1.183083e-003 -1.296516e+000 -8.144729e+000 28 14 13
2.436738e-001 -1.127273e+000 -7.998919e+000 136 103 76
3.134379e-001 -1.147099e+000 -7.906378e+000 70 36 15
3.134379e-001 -1.147099e+000 -7.906378e+000 70 36 15
4.598529e-001 -9.285443e-001 -7.788384e+000 120 82 59
4.279227e-001 -1.098367e+000 -7.831941e+000 77 40 21
6.135257e-001 -9.821705e-001 -7.771338e+000 94 58 41
1.721778e-001 -1.336615e+000 -7.916110e+000 36 13 7
-6.564541e-002 -1.722744e+000 -8.217008e+000 29 19 18
1.954176e-001 -1.382906e+000 -7.890709e+000 39 18 12
2.186562e-001 -1.346833e+000 -7.876390e+000 136 110 91
2.165837e-001 -1.321904e+000 -7.834200e+000 136 110 91
3.843271e-001 -1.363757e+000 -7.725506e+000 142 101 69
5.347475e-001 -1.235456e+000 -7.657478e+000 116 69 35
7.406178e-001 -1.060800e+000 -7.563512e+000 162 119 85
7.802929e-001 -1.123806e+000 -7.570356e+000 169 123 89
8.257155e-001 -1.046446e+000 -7.508921e+000 102 56 22
2.074880e-001 -1.554897e+000 -7.883231e+000 165 133 107
1.865227e-001 -1.665459e+000 -7.932554e+000 88 57 29
4.122206e-001 -1.402802e+000 -7.664544e+000 130 85 45
4.132961e-001 -1.499407e+000 -7.742486e+000 186 144 96
6.369112e-001 -1.343746e+000 -7.596419e+000 188 141 95
6.369112e-001 -1.343746e+000 -7.596419e+000 188 141 95
7.566162e-001 -1.188103e+000 -7.487681e+000 98 50 12
8.180330e-001 -1.150128e+000 -7.481601e+000 188 144 103
8.314264e-001 -1.200141e+000 -7.566375e+000 188 144 103
9.264997e-001 -1.210277e+000 -7.479077e+000 123 76 45
1.270038e+000 -1.237978e+000 -7.561687e+000 123 98 72
8.806331e-001 -1.502738e+000 -7.574041e+000 184 142 99
1.272503e+000 -1.267480e+000 -7.551956e+000 156 131 103
3.845950e+000 3.175324e+000 -1.148559e+001 87 67 58
3.750405e+000 2.921268e+000 -1.119724e+001 83 70 64
4.849694e-001 2.328002e+000 -8.912089e+000 85 70 59
6.642815e-001 2.352809e+000 -8.561339e+000 175 131 86
3.726462e+000 2.811909e+000 -1.099360e+001 35 21 20
3.967518e+000 2.777283e+000 -1.091964e+001 37 26 24
4.128577e+000 2.781251e+000 -1.098956e+001 39 25 24
6.504059e-001 2.183686e+000 -8.508386e+000 157 111 76
3.202245e+000 2.498118e+000 -1.099777e+001 54 42 42
4.136769e+000 2.590321e+000 -1.062946e+001 36 25 23
4.256173e+000 2.635514e+000 -1.068803e+001 73 56 49
4.256173e+000 2.635514e+000 -1.068803e+001 73 56 49
-6.017110e-001 1.578072e+000 -1.020309e+001 143 99 57
-2.371207e-001 1.634419e+000 -1.001139e+001 57 34 18
7.092357e-001 1.843766e+000 -8.514861e+000 94 63 43
3.421280e+000 2.138909e+000 -1.061889e+001 34 20 20
-8.016701e-001 1.436062e+000 -1.024306e+001 141 103 58
8.112757e-001 1.769541e+000 -8.446418e+000 76 49 30
3.624286e+000 2.066848e+000 -1.049510e+001 29 18 24
-3.195398e-001 1.265049e+000 -9.939424e+000 54 33 17
8.535959e-001 1.683092e+000 -8.400339e+000 60 38 27
9.795918e-001 1.671374e+000 -8.259764e+000 35 20 17
-7.392681e-001 1.079173e+000 -1.013871e+001 167 131 96
-7.392681e-001 1.079173e+000 -1.013871e+001 167 131 96
1.384790e+000 1.631554e+000 -8.281692e+000 119 80 49
1.684900e+000 1.701008e+000 -8.445742e+000 39 22 20
4.473491e-001 1.119384e+000 -9.619295e+000 50 45 41
7.971704e-001 1.219654e+000 -9.107568e+000 37 32 28
1.923792e+000 1.567040e+000 -8.581551e+000 19 13 17
-2.150701e+000 5.468467e-001 -9.458421e+000 118 98 71
1.605654e+000 1.443964e+000 -8.307206e+000 81 47 19
4.001306e+000 1.561151e+000 -9.801423e+000 60 48 45
4.026507e+000 1.504115e+000 -9.531834e+000 60 49 46
4.212584e+000 1.640736e+000 -9.707139e+000 25 17 15
-7.568992e-001 5.127240e-001 -9.923847e+000 105 99 83
1.062728e-002 6.406077e-001 -9.742999e+000 55 48 44
2.932810e-001 7.816343e-001 -9.650429e+000 44 40 41
5.586196e-001 9.043952e-001 -9.234582e+000 66 58 54
-1.896169e+000 4.512624e-001 -8.664459e+000 78 42 21
-1.882419e+000 4.496443e-001 -8.781255e+000 108 74 47
-9.408803e-001 4.835421e-001 -9.436126e+000 34 29 26
-9.408803e-001 4.835421e-001 -9.436126e+000 34 29 26
-3.086730e-001 5.837466e-001 -9.473011e+000 114 108 92
-4.323321e-002 6.107003e-001 -9.674048e+000 66 62 50
1.634584e-001 5.597052e-001 -9.463223e+000 23 15 17
1.912573e-001 6.306529e-001 -9.278770e+000 128 121 102
1.912573e-001 6.306529e-001 -9.278770e+000 128 121 102
4.113885e+000 1.272841e+000 -9.296979e+000 22 14 12
-2.871701e+000 8.555130e-002 -8.933948e+000 160 128 83
-2.856597e+000 9.851048e-002 -8.893346e+000 160 128 83
-2.875834e+000 1.005695e-001 -9.032517e+000 177 149 111
-2.417620e+000 2.111347e-001 -8.615519e+000 163 124 81
-2.103226e+000 3.270723e-001 -8.488400e+000 163 129 94
-2.027863e+000 3.507543e-001 -8.511938e+000 137 103 75
-1.094268e+000 3.212294e-001 -9.463756e+000 26 20 18
-1.034109e+000 2.280859e-001 -9.316377e+000 18 11 18
-1.614639e-001 4.692627e-001 -9.202426e+000 29 22 26
-1.614639e-001 4.692627e-001 -9.202426e+000 29 22 26
2.582350e-001 4.607888e-001 -9.183902e+000 15 11 11
-1.993225e+000 1.857271e-001 -8.374677e+000 64 35 19
-2.025270e+000 1.446555e-001 -8.501138e+000 64 35 19
1.918861e-001 4.211848e-001 -9.133463e+000 22 17 15
1.891467e-001 4.202456e-001 -9.135657e+000 22 17 15
1.473366e+000 9.836780e-001 -7.831944e+000 123 91 54
2.184932e+000 9.674209e-001 -7.895068e+000 32 24 27
-2.401109e+000 1.183985e-002 -8.283655e+000 172 134 86
-1.859283e+000 8.990679e-002 -8.306870e+000 47 19 21
-1.778022e+000 8.500164e-002 -8.385726e+000 48 24 12
-1.778428e+000 8.268856e-002 -8.393228e+000 48 24 12
-1.791991e+000 6.049816e-002 -8.324894e+000 91 63 42
-1.067469e+000 1.914214e-001 -8.698728e+000 55 34 17
-1.037965e+000 9.973549e-002 -9.019436e+000 73 52 37
1.319820e+000 6.002659e-001 -8.289331e+000 66 59 56
1.523092e+000 8.964421e-001 -7.530042e+000 45 21 15
1.883007e+000 9.435121e-001 -7.705904e+000 54 32 19
2.247521e+000 9.281467e-001 -7.876721e+000 26 16 21
-2.297161e+000 -1.127353e-001 -8.187519e+000 168 136 92
-1.820200e+000 -7.932613e-002 -8.355608e+000 47 16 6
-1.498432e+000 8.647846e-002 -8.179277e+000 76 58 43
-5.476287e-001 4.856712e-003 -8.784373e+000 141 129 102
4.176133e-001 1.474623e-001 -8.709107e+000 77 70 52
1.228614e+000 3.578830e-001 -8.404222e+000 56 49 42
1.331175e+000 7.508277e-001 -7.454087e+000 108 60 23
-2.665247e+000 -2.889329e-001 -8.311465e+000 114 75 42
-2.226778e+000 -1.996247e-001 -8.213025e+000 130 99 56
-2.008836e+000 -2.627646e-001 -8.185340e+000 116 84 50
-9.517578e-001 -1.848554e-001 -8.770362e+000 47 38 31
-7.310251e-001 -1.606749e-001 -8.781380e+000 69 60 52
-8.270579e-001 -1.615313e-001 -8.502077e+000 72 63 55
1.234713e+000 4.752604e-001 -7.790057e+000 66 62 55
1.351131e+000 5.870665e-001 -7.401800e+000 103 56 20
1.455112e+000 7.041111e-001 -7.322527e+000 183 138 74
1.672035e+000 7.462361e-001 -7.247894e+000 161 136 103
-1.632473e+000 -2.911436e-001 -8.113432e+000 128 98 70
-1.632473e+000 -2.911436e-001 -8.113432e+000 128 98 70
-1.578779e+000 -3.069068e-001 -8.192530e+000 70 41 25
1.107738e+000 8.966872e-002 -8.291073e+000 96 88 76
1.397177e+000 5.618567e-001 -7.234117e+000 150 105 63
1.724815e+000 6.277835e-001 -7.155333e+000 184 164 111
-1.951608e+000 -4.446004e-001 -7.962875e+000 121 91 53
-1.765704e+000 -4.434054e-001 -8.077696e+000 76 47 29
-1.620728e+000 -3.987695e-001 -8.228714e+000 35 18 16
-1.590352e+000 -4.303136e-001 -8.078812e+000 19 15 18
-9.429570e-001 -4.592784e-001 -8.434319e+000 36 18 16
-2.681891e+000 -7.813553e-001 -8.281812e+000 160 121 88
-1.873150e+000 -4.872079e-001 -7.930058e+000 141 108 75
-1.837949e+000 -5.746952e-001 -7.977892e+000 92 56 27
-8.561591e-001 -5.785284e-001 -8.487696e+000 21 15 17
-1.881104e+000 -6.348069e-001 -7.889421e+000 144 109 81
-8.682521e-001 -7.847424e-001 -8.411601e+000 18 12 14
-1.627576e+000 -8.343698e-001 -7.894026e+000 136 97 63
-1.406194e+000 -8.813920e-001 -8.034137e+000 121 86 58
-1.130471e+000 -8.375458e-001 -8.113605e+000 134 101 70
-9.151109e-001 -8.378619e-001 -8.375412e+000 104 87 62
-9.978144e-001 -8.458527e-001 -8.204679e+000 138 105 74
1.547450e+000 1.512425e-001 -7.041741e+000 119 71 31
1.822860e+000 2.056076e-001 -6.936570e+000 183 150 105
2.110973e+000 2.334623e-001 -6.953968e+000 141 117 81
-2.010409e+000 -9.724663e-001 -7.965853e+000 72 34 13
-2.010409e+000 -9.724663e-001 -7.965853e+000 72 34 13
-2.090123e+000 -1.086275e+000 -8.040841e+000 60 27 10
-1.730002e+000 -9.372280e-001 -7.942920e+000 129 88 58
-7.548842e-001 -1.115855e+000 -8.543401e+000 28 26 26
4.827274e-001 -9.742185e-001 -8.709055e+000 13 8 13
-1.297574e+000 -1.182276e+000 -8.126037e+000 36 16 18
-1.032555e+000 -1.137327e+000 -8.358206e+000 67 41 26
8.481470e-002 -1.072074e+000 -8.475693e+000 53 47 41
1.545100e+000 -6.813416e-002 -6.986473e+000 134 81 44
2.413187e+000 -1.098031e-001 -7.158454e+000 102 81 68
2.428045e+000 -8.314379e-002 -7.167083e+000 31 19 19
-2.313021e+000 -1.543495e+000 -8.115131e+000 153 129 102
-2.292499e+000 -1.546368e+000 -8.311992e+000 99 73 48
-1.574451e+000 -1.183760e+000 -7.925680e+000 35 20 22
1.799449e+000 -5.222533e-002 -6.782514e+000 199 162 121
-1.875219e+000 -1.504780e+000 -8.045817e+000 112 94 74
6.049156e-002 -1.231752e+000 -8.089818e+000 129 103 69
5.877619e-002 -1.196284e+000 -8.025380e+000 129 103 69
3.947623e-001 -9.695851e-001 -7.842512e+000 69 33 17
-1.866651e+000 -1.773007e+000 -8.230609e+000 125 104 90
-1.615687e+000 -1.788478e+000 -8.332112e+000 31 20 24
1.324981e-001 -1.292507e+000 -8.012689e+000 64 38 26
5.161288e-001 -1.056068e+000 -7.745394e+000 74 31 13
7.009801e-001 -1.016902e+000 -7.683277e+000 82 40 25
8.074098e-001 -9.714724e-001 -7.576915e+000 123 82 49
3.481985e-001 -1.326429e+000 -7.748239e+000 128 91 62
7.423067e-001 -1.107448e+000 -7.557301e+000 90 44 18
7.175540e-001 -1.129274e+000 -7.511960e+000 173 126 99
1.363620e-001 -1.537505e+000 -7.847383e+000 125 94 73
5.073103e-001 -1.417724e+000 -7.746922e+000 129 80 41
8.692989e-001 -1.209369e+000 -7.562194e+000 114 65 33
9.881180e-001 -1.228248e+000 -7.587282e+000 116 70 34
1.155832e+000 -1.220244e+000 -7.466826e+000 188 156 115
8.353036e-002 -1.739124e+000 -7.967901e+000 133 103 74
2.936625e+000 2.785866e+000 -1.151915e+001 51 40 36
2.936625e+000 2.785866e+000 -1.151915e+001 51 40 36
6.757579e-001 2.262638e+000 -8.659345e+000 106 62 27
3.391484e+000 2.736479e+000 -1.082475e+001 65 46 39
3.149260e+000 2.519014e+000 -1.110778e+001 24 18 19
7.299796e-001 2.052530e+000 -8.417472e+000 129 98 72
7.299796e-001 2.052530e+000 -8.417472e+000 129 98 72
4.182788e+000 2.566198e+000 -1.061151e+001 95 76 69
-6.671107e-001 1.572975e+000 -1.014818e+001 162 122 78
-6.671107e-001 1.572975e+000 -1.014818e+001 162 122 78
5.692202e-001 1.853633e+000 -8.598567e+000 67 47 23
5.654160e-001 1.853419e+000 -8.590616e+000 67 47 23
6.920222e-001 1.911370e+000 -8.558847e+000 93 59 32
3.305046e+000 2.188657e+000 -1.076180e+001 31 19 21
