ply
format ascii 1.0
element face 0
property list uchar int vertex_indices
element vertex 869
property float x
property float y
property float z
property uchar diffuse_red
property uchar diffuse_green
property uchar diffuse_blue
end_header
8.421874e-002 -2.021113e-001 -8.721469e+000 211 192 177
1.381212e+000 8.800945e-002 -9.092821e+000 147 154 121
4.331970e+000 2.543452e-001 -9.726575e+000 76 60 37
3.103763e+000 4.584232e-001 -8.774508e+000 199 197 182
3.103763e+000 4.584232e-001 -8.774508e+000 199 197 182
5.389334e+000 -1.316799e+000 -1.091076e+001 218 221 221
4.272379e+000 -3.737595e+000 -1.228646e+001 209 211 210
4.658671e+000 -3.017828e+000 -1.181558e+001 202 201 203
4.831464e+000 -2.804105e+000 -1.159695e+001 205 199 206
3.168438e+000 3.541411e+000 -1.570959e+001 203 131 87
3.432516e+000 3.900938e+000 -1.529989e+001 212 141 110
5.076963e+000 4.101004e+000 -1.249591e+001 228 161 118
6.852807e-001 2.892442e+000 -1.118904e+001 224 210 173
4.816494e+000 3.073772e+000 -1.295787e+001 185 150 118
3.657106e+000 2.305881e+000 -1.156951e+001 119 98 77
2.087125e+000 2.312319e+000 -1.007532e+001 147 144 123
3.465526e+000 2.144619e+000 -1.116357e+001 120 102 81
3.574275e+000 2.111279e+000 -1.123812e+001 117 99 79
3.574275e+000 2.111279e+000 -1.123812e+001 117 99 79
4.213315e+000 2.263379e+000 -1.180571e+001 115 91 67
2.039034e+000 2.167520e+000 -9.873160e+000 94 81 62
3.775249e+000 1.939254e+000 -1.117088e+001 113 95 75
3.591930e+000 1.870635e+000 -1.092188e+001 114 97 77
3.846117e+000 1.880472e+000 -1.112917e+001 123 105 85
4.285862e+000 1.827783e+000 -1.136189e+001 155 134 113
2.267905e-001 1.374207e+000 -9.341831e+000 184 133 135
3.899636e+000 1.764435e+000 -1.102975e+001 119 101 81
3.923899e+000 1.711704e+000 -1.101347e+001 94 73 52
4.040447e+000 1.764814e+000 -1.116456e+001 125 104 83
4.492873e+000 1.746609e+000 -1.144843e+001 103 83 59
6.150949e-001 1.381354e+000 -9.369004e+000 147 95 84
5.679872e-001 1.317507e+000 -9.213647e+000 151 103 103
1.580234e+000 1.451110e+000 -9.263951e+000 133 142 118
1.923503e+000 1.355099e+000 -9.109225e+000 176 171 153
3.845944e+000 1.299858e+000 -1.040003e+001 88 68 46
1.530189e+000 1.011796e+000 -8.941519e+000 216 212 183
3.854040e+000 1.135309e+000 -1.025953e+001 87 69 47
-1.440958e+000 -9.622627e-001 -9.782977e+000 199 161 148
-1.536481e+000 -1.048854e+000 -9.798890e+000 224 195 184
-1.349121e+000 -1.090946e+000 -9.781685e+000 228 191 188
-1.349121e+000 -1.090946e+000 -9.781685e+000 228 191 188
2.045818e+000 9.030463e-001 -8.667245e+000 175 166 153
8.962237e-001 -1.227649e+000 -9.686190e+000 154 164 136
3.912825e+000 3.991367e+000 -1.472297e+001 232 205 175
4.652900e+000 4.477395e+000 -1.340941e+001 223 118 103
3.162430e+000 3.288993e+000 -1.574784e+001 99 102 82
3.437480e+000 3.371975e+000 -1.516292e+001 89 101 86
3.655800e+000 2.630040e+000 -1.473745e+001 161 117 62
3.655800e+000 2.630040e+000 -1.473745e+001 161 117 62
4.427830e+000 3.142867e+000 -1.370127e+001 207 146 79
1.380270e+000 2.692018e+000 -1.060697e+001 186 176 159
-1.497421e+000 8.515435e-001 -1.241266e+001 158 110 95
1.873633e-001 2.263480e+000 -1.015738e+001 201 172 166
2.045025e+000 2.811673e+000 -1.053060e+001 120 100 64
2.975990e+000 2.566696e+000 -1.143018e+001 110 85 63
4.239483e+000 2.548025e+000 -1.235738e+001 106 82 58
4.990164e+000 2.629250e+000 -1.270604e+001 189 145 98
2.388163e-001 2.009753e+000 -1.004582e+001 189 138 137
3.624816e+000 2.423241e+000 -1.168749e+001 102 81 57
5.077965e+000 2.485447e+000 -1.241813e+001 221 171 94
1.237522e+000 2.021477e+000 -9.954978e+000 219 211 191
3.339509e+000 2.224530e+000 -1.122277e+001 97 77 53
3.154610e+000 2.175242e+000 -1.093880e+001 124 103 82
4.423457e+000 2.228094e+000 -1.194582e+001 132 107 83
1.521408e+000 1.826865e+000 -9.817098e+000 168 147 120
3.563999e+000 2.015055e+000 -1.111269e+001 117 99 77
4.294505e-001 1.440049e+000 -9.244626e+000 167 120 122
5.487823e-001 1.496056e+000 -9.464465e+000 213 188 182
5.017784e-001 1.431985e+000 -9.375586e+000 164 124 114
3.145572e+000 1.662139e+000 -1.040813e+001 85 67 47
3.343683e+000 1.808229e+000 -1.067797e+001 112 94 74
1.328695e+000 1.238796e+000 -9.854711e+000 151 120 99
1.328695e+000 1.238796e+000 -9.854711e+000 151 120 99
4.080290e+000 1.550842e+000 -1.083077e+001 141 122 99
8.885009e-001 1.100810e+000 -9.370340e+000 147 109 90
1.154464e+000 9.972988e-001 -9.669546e+000 142 105 88
2.783347e+000 1.508344e+000 -9.565730e+000 67 60 44
3.571014e+000 1.357585e+000 -1.027425e+001 110 93 73
3.771869e+000 1.128121e+000 -1.013557e+001 86 68 46
-1.374180e+000 -1.018384e+000 -9.845266e+000 229 200 182
-1.274970e+000 -1.087380e+000 -9.794256e+000 183 132 125
-9.215611e-002 -1.820050e-001 -8.912705e+000 230 204 194
2.573404e+000 9.249587e-001 -8.626382e+000 51 47 40
3.054822e+000 1.012863e+000 -8.964454e+000 240 240 205
-1.271790e+000 -1.260128e+000 -9.798159e+000 90 45 44
-4.745218e-001 -8.425386e-001 -9.244400e+000 187 132 130
-4.745218e-001 -8.425386e-001 -9.244400e+000 187 132 130
3.754896e+000 4.049850e+000 -1.489815e+001 243 189 117
3.768954e+000 4.156621e+000 -1.476123e+001 219 140 101
2.284333e+000 2.833771e+000 -1.682384e+001 218 136 88
3.009761e+000 3.198967e+000 -1.599565e+001 172 93 80
3.125760e+000 3.371161e+000 -1.568936e+001 196 142 95
4.372316e+000 4.068737e+000 -1.362829e+001 224 123 105
7.938638e-001 1.613685e+000 -1.883611e+001 243 160 111
9.370145e-001 1.641415e+000 -1.850289e+001 249 159 118
1.568987e+000 2.095856e+000 -1.776430e+001 248 199 179
1.730698e+000 2.122675e+000 -1.762807e+001 251 195 169
1.803090e+000 2.278631e+000 -1.743192e+001 241 174 121
1.831065e+000 2.160496e+000 -1.742067e+001 230 135 101
4.136037e+000 3.658657e+000 -1.406918e+001 220 152 89
3.828542e+000 3.034781e+000 -1.463744e+001 218 161 90
6.381176e-001 2.806658e+000 -1.132594e+001 208 182 125
1.767338e+000 3.037757e+000 -1.075004e+001 101 90 66
4.783411e+000 3.380723e+000 -1.310251e+001 213 145 94
1.479339e+000 2.659195e+000 -1.050295e+001 233 231 218
1.249934e+000 2.346893e+000 -1.021961e+001 124 134 111
1.667553e+000 1.958538e+000 -9.840266e+000 242 245 245
3.672263e+000 1.937817e+000 -1.106426e+001 93 72 53
1.870590e-001 1.398586e+000 -9.378053e+000 195 139 148
5.362445e+000 1.807106e+000 -1.177067e+001 232 227 231
2.546492e-001 1.313275e+000 -9.036314e+000 206 186 181
3.794255e+000 1.381192e+000 -1.045977e+001 81 66 46
2.943475e-001 8.606505e-001 -9.006571e+000 202 175 168
2.081413e+000 1.192831e+000 -8.932110e+000 163 149 120
-1.607405e+000 -1.027982e+000 -9.824304e+000 235 216 208
-1.098142e+000 -1.240141e+000 -9.989974e+000 174 113 108
3.077833e+000 8.061013e-001 -8.902515e+000 235 234 213
-1.411888e+000 -1.185124e+000 -9.755025e+000 90 31 33
-1.293699e+000 -1.189444e+000 -9.797438e+000 211 167 166
4.153564e+000 3.250845e-001 -9.610726e+000 89 70 53
3.586102e+000 2.622860e-001 -9.286121e+000 81 66 45
5.108510e+000 8.300961e-002 -1.011994e+001 142 122 97
4.862807e+000 4.542975e+000 -1.297700e+001 250 200 126
4.595452e+000 4.118856e+000 -1.352106e+001 240 182 105
4.718189e+000 4.182607e+000 -1.321699e+001 244 167 111
1.331006e+000 1.907052e+000 -1.808308e+001 231 141 104
1.374897e+000 2.036324e+000 -1.808000e+001 247 187 153
1.374897e+000 2.036324e+000 -1.808000e+001 247 187 153
1.651793e+000 2.018333e+000 -1.763795e+001 236 165 116
3.491243e+000 3.060290e+000 -1.507761e+001 195 150 105
9.136378e-001 1.338660e+000 -1.862448e+001 246 162 125
-1.435877e+000 -6.603960e-001 -2.152221e+001 201 127 110
-1.589371e+000 -1.368767e+000 -2.171217e+001 222 164 103
-1.589371e+000 -1.368767e+000 -2.171217e+001 222 164 103
3.492824e+000 2.573955e+000 -1.489528e+001 161 102 76
3.889459e+000 2.581798e+000 -1.441260e+001 177 120 62
-4.350924e-001 1.856980e+000 -1.148978e+001 166 103 114
4.101030e-001 2.404992e+000 -1.095608e+001 165 112 90
-3.684693e+000 1.888069e+000 -8.289119e+000 142 108 77
1.795308e+000 2.724147e+000 -1.065190e+001 91 70 55
2.409952e+000 2.642237e+000 -1.081361e+001 80 72 56
1.527727e+000 2.261560e+000 -1.013203e+001 172 159 141
-2.321713e+000 1.623124e+000 -8.782929e+000 140 120 111
-2.726157e-001 1.248941e+000 -1.029718e+001 178 116 129
9.030097e-001 1.742054e+000 -9.798447e+000 161 124 118
1.797579e+000 1.586710e+000 -9.452191e+000 181 168 146
1.656250e+000 1.405871e+000 -9.574800e+000 187 172 153
5.542001e+000 1.535441e+000 -1.135693e+001 234 224 235
1.369836e+000 2.705826e-001 -9.630981e+000 181 162 147
1.604165e+000 7.641820e-001 -8.765761e+000 214 211 178
-1.735749e+000 -1.020131e+000 -9.935918e+000 105 41 41
-1.452270e+000 -1.119100e+000 -9.805260e+000 197 163 160
1.665447e+000 4.055491e-001 -8.843814e+000 106 110 87
9.636223e-001 -4.764466e-001 -9.400885e+000 199 192 176
3.609186e+000 4.195215e-001 -9.328355e+000 85 68 50
4.709894e+000 4.534398e+000 -1.301626e+001 248 194 121
1.502140e+000 2.330271e+000 -1.787625e+001 248 203 145
1.462838e+000 2.175883e+000 -1.786788e+001 235 140 118
-3.772610e-001 3.413060e-001 -2.045358e+001 173 91 89
7.715391e-001 1.094518e+000 -1.868999e+001 247 157 123
-1.794876e+000 -1.418901e+000 -2.190791e+001 236 195 121
-4.223033e-001 -1.249118e-001 -2.031569e+001 223 89 96
4.362204e+000 2.848452e+000 -1.386642e+001 220 180 93
4.930649e+000 2.891241e+000 -1.262725e+001 177 83 82
-3.216201e+000 1.742732e+000 -8.229418e+000 124 92 54
-1.420234e+000 1.646842e+000 -9.651134e+000 95 80 65
-3.462804e+000 1.443715e+000 -8.249687e+000 163 132 94
-3.183575e+000 1.518777e+000 -8.155048e+000 133 95 56
8.056034e-001 2.007182e+000 -1.000212e+001 160 125 115
-1.805981e+000 1.172119e+000 -9.144508e+000 116 104 84
1.281566e+000 7.056380e-001 -9.698732e+000 135 95 71
-1.741797e+000 -1.041508e+000 -9.950838e+000 98 35 35
1.901381e+000 8.051141e-001 -8.636426e+000 116 132 99
-7.321009e-001 -7.725806e-001 -9.349639e+000 229 203 199
1.096076e+000 -9.387400e-001 -9.554096e+000 209 206 188
4.472741e+000 3.984960e+000 -1.363619e+001 246 196 111
1.161004e+000 1.846203e+000 -1.846181e+001 244 170 123
-8.496290e-001 -8.993972e-002 -2.072241e+001 135 145 157
-1.124291e+000 -7.645561e-001 -2.117409e+001 166 90 93
5.262086e+000 3.727246e+000 -1.221241e+001 242 236 245
4.914941e+000 3.007255e+000 -1.288122e+001 236 232 243
-3.579479e+000 1.249899e+000 -8.179259e+000 174 143 112
3.380021e+000 1.892815e+000 -1.073810e+001 75 58 40
4.276781e-001 7.264271e-002 -9.319742e+000 177 147 118
-3.291015e+000 2.841618e+000 -8.829803e+000 193 144 152
-6.182558e-001 1.328363e-001 -2.052346e+001 203 214 234
5.713689e-001 1.155390e+000 -1.903659e+001 228 106 95
-3.319359e+000 2.483477e+000 -8.473967e+000 160 130 96
1.181055e+000 2.878579e+000 -1.111284e+001 155 125 96
-3.582464e+000 1.635141e+000 -8.242184e+000 178 151 109
-6.015273e-001 1.415823e+000 -1.127366e+001 164 121 128
-2.876462e-001 1.351238e+000 -1.040327e+001 173 116 128
5.597719e+000 1.731204e+000 -1.118980e+001 214 196 187
9.895733e-001 -6.779972e-001 -9.528971e+000 185 175 158
5.190494e+000 -1.078934e-001 -1.017178e+001 142 126 91
3.869084e+000 3.965237e+000 -1.491278e+001 236 180 100
-7.614042e-001 -3.544064e-001 -2.043812e+001 230 239 254
1.371665e+000 -5.700141e-001 -9.314736e+000 161 128 95
5.138779e+000 3.970144e+000 -1.249909e+001 235 236 243
3.773123e+000 1.713177e+000 -1.071836e+001 95 78 55
-7.222130e-001 -5.861694e-001 -9.642315e+000 225 198 191
-3.597826e+000 2.440444e+000 -8.431515e+000 97 63 46
-2.598146e+000 2.337779e+000 -8.656264e+000 124 100 74
5.380765e+000 1.870400e+000 -1.133991e+001 234 227 235
2.629978e+000 7.225337e-001 -8.973709e+000 74 61 41
2.467479e+000 2.214418e-001 -8.589438e+000 120 107 89
2.273762e+000 -2.177902e-002 -8.697017e+000 194 188 159
2.251157e+000 -5.340845e-002 -8.731585e+000 158 146 123
2.229789e+000 -8.454953e-002 -8.779927e+000 207 197 170
2.973417e+000 4.327542e-001 -9.012583e+000 68 57 48
3.018330e+000 1.296563e-001 -8.893978e+000 245 238 219
3.053164e+000 1.624191e-001 -8.994611e+000 84 67 49
6.048896e+000 -7.114233e-001 -9.962868e+000 238 185 133
1.507840e+000 7.771096e-001 -9.061174e+000 199 166 94
1.618113e+000 6.559857e-001 -9.035204e+000 178 139 83
1.505673e+000 3.855928e-001 -9.002384e+000 175 162 130
1.517457e+000 3.693459e-001 -9.074398e+000 140 126 95
1.868103e+000 -9.268335e-002 -8.719115e+000 183 163 138
1.797311e+000 -9.885578e-002 -8.827345e+000 215 198 179
2.354672e+000 -1.926886e-001 -8.942479e+000 75 63 49
2.759807e+000 -1.285670e-001 -9.147732e+000 156 143 124
-3.531114e+000 2.547263e+000 -8.442690e+000 154 124 112
2.446020e-001 1.069250e+000 -9.002087e+000 206 167 151
3.180584e-001 8.398660e-001 -9.001728e+000 214 179 158
3.660107e-001 7.448023e-001 -9.085348e+000 212 167 146
1.297891e+000 1.130464e+000 -9.802327e+000 176 141 115
1.422184e+000 -2.829083e-002 -9.055897e+000 114 117 90
1.729947e+000 -2.901023e-001 -8.915010e+000 177 157 137
2.110348e+000 -3.144809e-001 -9.163184e+000 57 39 24
5.826948e+000 -1.377669e+000 -1.008054e+001 253 243 225
-3.744859e+000 2.460951e+000 -8.436153e+000 170 121 104
-3.702434e+000 2.057600e+000 -8.305410e+000 159 122 92
-3.575264e+000 1.930819e+000 -8.254021e+000 139 107 72
-3.574953e+000 1.934679e+000 -8.257808e+000 139 107 72
-3.071378e+000 1.564743e+000 -8.230216e+000 124 95 63
-2.123316e+000 1.483345e+000 -8.697155e+000 174 152 137
1.338560e-001 9.187954e-001 -9.222082e+000 218 177 154
1.247841e-001 9.501958e-001 -9.267125e+000 192 142 126
1.228880e+000 -1.216953e-001 -9.315639e+000 197 169 145
1.413972e+000 -1.477642e-001 -9.151637e+000 174 144 118
2.051495e+000 -5.113840e-001 -9.345611e+000 74 57 49
2.072109e+000 -5.895613e-001 -9.326702e+000 147 137 119
2.072109e+000 -5.895613e-001 -9.326702e+000 147 137 119
2.565641e+000 -5.855171e-001 -9.639825e+000 84 73 55
-4.016457e+000 2.155852e+000 -8.688972e+000 144 89 75
-3.594345e+000 1.194920e+000 -8.212299e+000 127 95 58
-2.140181e+000 1.573667e+000 -9.117176e+000 233 229 218
-1.694181e+000 1.372468e+000 -9.212687e+000 135 118 104
-1.107876e-001 -2.376259e-001 -8.931090e+000 232 191 169
7.171845e-001 -4.648880e-001 -9.314489e+000 159 117 95
1.113425e+000 -5.979584e-001 -9.296520e+000 186 159 130
1.091523e+000 -5.704583e-001 -9.324359e+000 172 142 114
1.071324e+000 -5.981748e-001 -9.298164e+000 172 142 114
1.489069e+000 -7.469256e-001 -9.224607e+000 193 175 155
1.984144e+000 -8.099017e-001 -9.444516e+000 74 58 44
1.942467e+000 -8.096727e-001 -9.481010e+000 204 195 174
1.929078e+000 -9.175266e-001 -9.583460e+000 157 144 127
1.925624e+000 -9.215436e-001 -9.579029e+000 157 144 127
5.470142e+000 -1.342746e+000 -1.096122e+001 146 127 121
-4.163299e+000 2.319775e+000 -8.889982e+000 191 142 135
-2.851841e+000 1.138802e+000 -8.685813e+000 128 102 86
-1.810346e+000 7.997932e-001 -9.277324e+000 110 85 60
-1.563720e+000 6.075440e-001 -9.190265e+000 129 107 83
-1.871204e-001 -6.155986e-001 -8.871467e+000 219 182 166
1.255852e+000 -8.238782e-001 -9.413733e+000 207 182 149
1.214577e+000 -7.490167e-001 -9.517940e+000 151 122 83
1.302923e+000 -9.146802e-001 -9.466251e+000 201 172 140
1.387309e+000 -9.808245e-001 -9.431102e+000 224 207 190
1.334345e+000 -1.191188e+000 -9.499957e+000 163 138 111
1.834148e+000 -1.128604e+000 -9.661686e+000 49 32 22
1.806070e+000 -1.179333e+000 -9.766934e+000 114 97 84
5.396587e+000 -1.376411e+000 -1.112572e+001 163 110 95
-4.100171e+000 1.563663e+000 -8.745413e+000 150 120 92
-1.776641e+000 6.090939e-001 -9.406064e+000 161 137 114
-1.624243e+000 5.598870e-001 -9.276052e+000 109 83 58
-1.957739e-001 -6.627747e-001 -9.177050e+000 140 97 81
1.010616e+000 -8.973951e-001 -9.686092e+000 183 161 137
9.171978e-001 -1.026106e+000 -9.666717e+000 61 55 31
1.221519e+000 -1.217518e+000 -9.545212e+000 200 183 158
1.747062e+000 -1.299080e+000 -9.865901e+000 115 103 81
2.175470e+000 -1.283064e+000 -1.006441e+001 112 100 80
3.457462e+000 -1.412871e+000 -1.072912e+001 74 50 32
5.155554e+000 -1.847971e+000 -1.131024e+001 197 131 79
-3.277696e+000 8.962965e-001 -9.062516e+000 154 126 106
-1.669404e+000 2.634635e-001 -9.664842e+000 113 83 55
-1.041025e+000 1.401537e-001 -9.853724e+000 186 127 119
-7.765279e-001 -1.007800e+000 -9.270692e+000 203 166 154
-3.793141e-001 -1.004366e+000 -9.225688e+000 187 140 130
-1.730682e-002 -1.035710e+000 -9.373765e+000 193 150 141
-1.539035e-002 -1.030771e+000 -9.378587e+000 193 150 141
-6.012746e-002 -1.015013e+000 -9.455504e+000 174 132 120
-6.519402e-002 -1.024388e+000 -9.446085e+000 174 132 120
6.090047e-001 -1.197789e+000 -9.883886e+000 134 105 82
6.705376e-001 -1.283906e+000 -9.775023e+000 96 84 60
8.309187e-001 -1.354253e+000 -9.800452e+000 76 58 34
7.479544e-001 -1.394321e+000 -9.779464e+000 110 112 81
1.113448e+000 -1.467413e+000 -9.761103e+000 194 177 153
1.005325e+000 -1.560542e+000 -9.844789e+000 173 150 123
1.673147e+000 -1.422694e+000 -9.935460e+000 224 218 192
1.673147e+000 -1.422694e+000 -9.935460e+000 224 218 192
2.282473e+000 -1.530892e+000 -1.040832e+001 68 46 31
4.064217e+000 -1.640024e+000 -1.122252e+001 106 79 58
4.992867e+000 -1.804332e+000 -1.176145e+001 174 86 44
5.153053e+000 -2.035209e+000 -1.141814e+001 202 174 153
5.058544e+000 -2.173295e+000 -1.142268e+001 98 73 66
4.985078e+000 -2.299335e+000 -1.148404e+001 141 124 116
-3.437317e+000 1.053887e+000 -9.439679e+000 58 52 46
-1.527198e+000 1.088381e-001 -9.864189e+000 123 80 66
-1.269042e+000 7.379471e-002 -9.881009e+000 141 101 87
2.321175e-002 -1.316583e+000 -9.800524e+000 187 148 139
5.642822e-001 -1.234312e+000 -9.878568e+000 150 124 99
7.831578e-001 -1.486406e+000 -9.910401e+000 152 130 105
7.927704e-001 -1.684108e+000 -9.967637e+000 211 189 166
1.058549e+000 -1.610990e+000 -9.847695e+000 185 164 140
1.042895e+000 -1.715030e+000 -9.865659e+000 204 181 155
1.379019e+000 -1.779947e+000 -9.940645e+000 90 77 64
-1.677828e+000 1.083118e-001 -1.022214e+001 122 72 62
-1.489535e+000 4.040534e-002 -1.026840e+001 110 69 53
-1.062729e-001 -1.441969e+000 -1.008889e+001 193 160 137
4.935944e-001 -1.381192e+000 -1.012679e+001 168 140 120
1.655145e+000 -2.207828e+000 -1.026011e+001 91 77 68
1.579068e+000 -2.216143e+000 -1.026477e+001 56 42 31
1.591680e+000 -2.260755e+000 -1.027434e+001 53 39 28
2.794266e+000 -1.979418e+000 -1.097340e+001 66 47 33
-2.120815e+000 2.767465e-001 -1.048682e+001 100 80 57
-1.688197e+000 -9.775077e-002 -1.064516e+001 186 139 120
-1.381911e+000 -9.886423e-001 -9.913784e+000 212 174 153
-1.473308e+000 -1.069591e+000 -9.870881e+000 226 184 168
-1.284601e+000 -1.272939e+000 -9.884694e+000 168 114 105
-9.092003e-001 -1.062884e+000 -1.011835e+001 192 142 133
-1.165964e-001 -1.405355e+000 -1.048312e+001 133 92 74
7.666992e-001 -1.917816e+000 -1.029091e+001 176 148 124
8.549474e-001 -2.176709e+000 -1.018159e+001 171 144 114
1.168840e+000 -2.242465e+000 -1.029228e+001 68 51 37
1.314535e+000 -2.362929e+000 -1.036730e+001 58 44 32
1.135576e+000 -2.426384e+000 -1.037141e+001 192 179 150
1.621026e+000 -2.355435e+000 -1.043965e+001 54 37 28
4.601526e+000 -3.083024e+000 -1.202867e+001 190 165 133
-1.738077e+000 -1.066972e+000 -1.007142e+001 172 100 96
-1.251220e+000 -1.347886e+000 -9.977950e+000 188 144 136
-9.915306e-001 -1.477599e+000 -1.020665e+001 192 152 135
-8.807066e-001 -1.472747e+000 -1.005657e+001 179 133 120
-1.011452e-001 -1.692353e+000 -1.060257e+001 166 135 81
-8.257182e-002 -1.763337e+000 -1.058630e+001 139 103 41
-1.571014e-002 -2.086014e+000 -1.027992e+001 208 186 164
-3.371365e-002 -2.191127e+000 -1.016244e+001 217 193 163
6.116993e-001 -2.339149e+000 -1.056056e+001 126 94 71
7.053591e-001 -2.396307e+000 -1.035252e+001 165 144 120
4.506311e+000 -3.365284e+000 -1.203363e+001 191 169 154
-1.380641e+000 -1.375391e+000 -1.032528e+001 202 143 139
-1.331755e+000 -1.429074e+000 -1.030163e+001 194 134 128
-3.318805e-001 -1.985867e+000 -1.068313e+001 115 89 61
-1.060308e-001 -2.339108e+000 -1.039800e+001 177 148 108
1.940676e-001 -2.521631e+000 -1.040104e+001 197 174 142
1.515385e-001 -2.522461e+000 -1.050148e+001 190 166 117
6.661157e-001 -2.571567e+000 -1.051749e+001 141 116 91
1.458366e+000 -2.679491e+000 -1.109607e+001 66 55 43
4.388494e+000 -3.484987e+000 -1.225922e+001 216 177 91
4.377663e+000 -3.556799e+000 -1.224748e+001 196 116 68
4.383810e+000 -3.552879e+000 -1.225665e+001 196 116 68
4.317658e+000 -3.579727e+000 -1.235998e+001 140 123 109
-1.729121e+000 -9.584728e-001 -1.079155e+001 206 171 149
-1.728970e+000 -1.043022e+000 -1.096278e+001 209 176 153
-1.820771e+000 -1.130527e+000 -1.099042e+001 206 166 140
-1.705063e+000 -1.173659e+000 -1.093434e+001 211 180 152
-1.139777e+000 -1.417798e+000 -1.086421e+001 164 120 101
-3.470012e-001 -1.840119e+000 -1.089720e+001 89 67 42
-3.561377e-001 -1.964119e+000 -1.075470e+001 180 160 137
-3.564853e-001 -1.962589e+000 -1.075595e+001 180 160 137
-5.055236e-001 -2.329055e+000 -1.053433e+001 204 176 139
-2.168408e-001 -2.271299e+000 -1.051478e+001 186 147 82
1.087362e-001 -2.486024e+000 -1.054540e+001 167 131 85
1.503658e-001 -2.607181e+000 -1.045691e+001 211 184 142
1.991312e-001 -2.764272e+000 -1.059001e+001 201 181 157
9.489040e-001 -2.668424e+000 -1.102836e+001 59 46 38
4.228777e+000 -3.699791e+000 -1.252277e+001 225 192 99
4.234338e+000 -3.782962e+000 -1.247159e+001 83 66 53
4.232337e+000 -3.873018e+000 -1.244671e+001 229 208 196
-9.249690e-001 -1.719601e+000 -1.126415e+001 149 88 77
-8.501927e-001 -1.794224e+000 -1.138682e+001 147 88 72
-4.815035e-001 -2.060837e+000 -1.109119e+001 98 76 55
-1.718344e-001 -2.762617e+000 -1.080253e+001 178 144 90
1.545927e-002 -2.837938e+000 -1.081119e+001 204 180 152
3.776859e-002 -2.859114e+000 -1.080646e+001 202 180 151
4.806491e-001 -2.918488e+000 -1.093269e+001 88 62 47
7.925219e-001 -2.926240e+000 -1.113241e+001 60 48 34
2.780734e+000 -3.178636e+000 -1.228883e+001 84 57 37
4.148289e+000 -3.782895e+000 -1.262144e+001 229 180 65
4.159992e+000 -3.829907e+000 -1.257665e+001 138 117 110
4.120012e+000 -3.894554e+000 -1.263935e+001 136 118 101
4.120028e+000 -3.894482e+000 -1.263945e+001 136 118 101
4.177270e+000 -3.881552e+000 -1.252940e+001 204 159 114
4.053605e+000 -4.149592e+000 -1.246096e+001 211 147 74
-8.383618e-001 -1.840095e+000 -1.150266e+001 184 137 119
-8.749782e-001 -1.948348e+000 -1.147607e+001 184 133 115
-6.700716e-001 -1.978889e+000 -1.152599e+001 172 134 109
1.105229e+000 -3.148192e+000 -1.160325e+001 82 72 53
3.948456e+000 -4.077240e+000 -1.288343e+001 227 177 78
-6.810555e-001 -2.158691e+000 -1.177313e+001 153 117 91
-5.719229e-001 -2.428646e+000 -1.168203e+001 182 162 137
-5.102155e-001 -2.732907e+000 -1.161899e+001 194 180 156
9.904815e-002 -2.942140e+000 -1.141701e+001 102 72 45
1.412092e-001 -3.256323e+000 -1.112295e+001 221 204 178
2.122993e+000 -3.578368e+000 -1.241225e+001 75 50 30
-9.476504e-001 -2.079718e+000 -1.239512e+001 199 168 140
-7.979662e-001 -2.395888e+000 -1.202417e+001 105 99 63
1.731862e-002 -3.639155e+000 -1.135391e+001 248 236 217
8.479946e-001 -3.596531e+000 -1.185864e+001 84 70 55
-9.614158e-001 -2.137412e+000 -1.268752e+001 176 143 110
-5.718590e-001 -2.811385e+000 -1.212906e+001 137 113 89
-1.468924e-001 -3.424527e+000 -1.178837e+001 188 165 137
-7.178508e-002 -3.786899e+000 -1.151796e+001 203 173 143
8.247886e-001 -3.835242e+000 -1.190807e+001 65 49 37
7.402790e-001 -3.825242e+000 -1.199009e+001 83 70 53
7.300084e-001 -3.834800e+000 -1.196497e+001 83 70 53
1.950695e+000 -3.995388e+000 -1.266271e+001 99 73 50
2.094725e+000 -4.010756e+000 -1.281779e+001 91 65 42
3.550451e+000 -4.721059e+000 -1.336969e+001 245 212 192
3.496229e+000 -4.653715e+000 -1.349445e+001 205 177 153
3.503099e+000 -4.777175e+000 -1.344008e+001 114 90 76
3.449388e+000 -4.797633e+000 -1.335390e+001 114 90 76
3.406877e+000 -4.821200e+000 -1.338134e+001 127 106 92
-6.972171e-001 -3.363996e+000 -1.210457e+001 205 181 148
-1.819360e-001 -3.861776e+000 -1.167660e+001 199 174 146
5.751356e-001 -3.967815e+000 -1.211919e+001 197 184 167
1.956947e-001 -4.050006e+000 -1.180331e+001 89 73 56
2.332979e+000 -4.410969e+000 -1.316522e+001 106 74 46
3.405525e+000 -4.726421e+000 -1.366458e+001 138 118 111
3.405312e+000 -4.726213e+000 -1.366494e+001 138 118 111
3.425753e+000 -4.766187e+000 -1.366242e+001 93 77 67
3.372893e+000 -4.767323e+000 -1.371601e+001 93 71 57
3.372893e+000 -4.767323e+000 -1.371601e+001 93 71 57
3.371157e+000 -4.779936e+000 -1.375924e+001 231 212 198
3.412983e+000 -4.866076e+000 -1.357856e+001 113 95 85
3.413089e+000 -4.865216e+000 -1.358001e+001 113 95 85
3.337739e+000 -4.842632e+000 -1.373618e+001 93 74 55
3.337739e+000 -4.842632e+000 -1.373618e+001 93 74 55
3.324088e+000 -4.868160e+000 -1.374944e+001 221 207 192
3.278553e+000 -4.927099e+000 -1.379628e+001 98 86 67
-1.203011e+000 -2.205259e+000 -1.355465e+001 170 149 120
-6.913946e-002 -4.143722e+000 -1.163820e+001 88 67 44
3.285282e+000 -4.914377e+000 -1.387171e+001 213 196 184
3.293700e+000 -4.970839e+000 -1.378932e+001 127 110 96
3.289378e+000 -4.972242e+000 -1.378279e+001 127 110 96
2.032444e+000 5.515955e-001 -8.506143e+000 145 151 115
2.542672e+000 2.184936e-001 -8.607484e+000 159 147 126
2.542672e+000 2.184936e-001 -8.607484e+000 159 147 126
2.967720e+000 3.527239e-001 -8.848412e+000 109 97 81
3.103242e+000 2.747702e-001 -8.947094e+000 82 74 56
1.588097e+000 9.336165e-001 -8.859237e+000 203 184 147
1.846987e+000 8.368254e-001 -8.863539e+000 154 137 109
2.616604e+000 7.482761e-001 -9.021679e+000 70 53 37
1.677125e+000 1.652486e-001 -8.788257e+000 103 109 71
1.622593e+000 -1.250694e-001 -8.755350e+000 116 108 77
1.887385e+000 -1.989763e-001 -8.718747e+000 163 137 110
1.800599e+000 -2.346836e-001 -8.859616e+000 168 148 123
2.350596e+000 -5.645943e-002 -8.910429e+000 78 66 52
2.283413e+000 -2.407573e-001 -8.917209e+000 187 179 158
2.266680e+000 -3.263658e-001 -9.006639e+000 214 203 185
2.251905e+000 -3.467711e-001 -8.993465e+000 214 203 185
-3.397321e+000 2.458329e+000 -8.398698e+000 128 92 78
-2.622856e+000 2.179000e+000 -8.641332e+000 87 66 48
3.991738e-001 8.040114e-001 -9.018595e+000 232 196 177
4.285553e-001 7.440731e-001 -9.014648e+000 188 143 125
5.676614e-001 7.626593e-001 -9.049895e+000 148 110 91
5.673084e-001 7.510941e-001 -9.085692e+000 143 101 79
7.572157e-001 8.039958e-001 -9.236407e+000 164 119 98
1.326746e+000 1.532736e+000 -9.840267e+000 217 188 160
1.689160e+000 -4.245803e-001 -8.882417e+000 170 149 130
1.545535e+000 -2.827167e-001 -9.028074e+000 89 79 55
2.163949e+000 -3.703741e-001 -9.144471e+000 73 59 48
5.270289e+000 -6.968908e-001 -1.046140e+001 148 104 70
5.872273e+000 -1.427135e+000 -1.019122e+001 217 155 107
5.803984e+000 -1.529647e+000 -1.029187e+001 242 191 130
-3.184897e+000 1.607998e+000 -8.228048e+000 146 116 82
-2.966938e+000 1.614549e+000 -8.266180e+000 152 122 92
-2.744669e+000 1.669456e+000 -8.378964e+000 89 63 48
4.722647e-001 6.417353e-001 -9.183546e+000 182 138 113
5.900055e-001 6.125687e-001 -9.340855e+000 170 127 102
2.026863e+000 -5.855741e-001 -9.293733e+000 71 59 46
1.941982e+000 -6.723205e-001 -9.313473e+000 72 57 52
5.589448e+000 -8.735476e-001 -1.078189e+001 150 134 117
5.799951e+000 -1.683497e+000 -1.028669e+001 255 244 227
5.609435e+000 -1.915829e+000 -1.034885e+001 254 243 220
-3.872994e+000 1.760704e+000 -8.384611e+000 140 105 76
-1.688360e-001 -5.128186e-001 -8.827155e+000 226 194 175
2.412502e+000 -8.680834e-001 -9.766149e+000 252 251 232
5.335236e+000 -1.306967e+000 -1.105970e+001 199 182 153
-1.860025e+000 1.333940e+000 -9.400372e+000 150 129 116
-1.751413e+000 9.328206e-001 -9.052229e+000 197 176 154
-1.495912e+000 6.177715e-001 -9.204722e+000 97 76 51
-2.838189e-001 1.405170e-001 -9.464569e+000 176 131 110
-1.997724e-001 -5.452749e-001 -8.953276e+000 227 190 172
-1.958895e-001 -6.193838e-001 -8.902038e+000 188 148 136
-2.071762e-001 -5.705486e-001 -9.012280e+000 220 183 165
-1.890152e-001 -6.377389e-001 -8.952172e+000 214 176 163
-1.707489e-001 -6.907967e-001 -8.970237e+000 220 182 165
-2.076808e-001 -6.490559e-001 -9.103031e+000 158 116 99
9.764558e-001 -6.293160e-001 -9.552514e+000 133 101 76
9.564855e-001 -6.684979e-001 -9.567827e+000 166 136 113
1.081540e+000 -8.040821e-001 -9.565698e+000 171 148 117
1.226327e+000 -7.330762e-001 -9.456693e+000 188 154 107
1.395014e+000 -1.134004e+000 -9.501961e+000 139 109 82
2.205999e+000 -1.097674e+000 -9.953654e+000 55 42 25
2.347617e+000 -1.037164e+000 -9.977471e+000 200 192 173
2.340544e+000 -1.044351e+000 -9.968878e+000 200 192 173
4.317391e+000 -1.153928e+000 -1.091448e+001 76 50 33
-1.789357e+000 7.215642e-001 -9.296173e+000 106 82 56
-1.774279e+000 5.632433e-001 -9.485580e+000 182 159 138
-1.941108e-001 -6.594339e-001 -9.145019e+000 199 156 140
-1.329894e-001 -7.181295e-001 -9.240260e+000 176 132 117
-5.410888e-002 -8.865089e-001 -9.134616e+000 111 71 63
-9.703781e-002 -8.312084e-001 -9.228022e+000 148 113 94
-6.063118e-002 -9.219776e-001 -9.177838e+000 190 155 135
-5.059749e-002 -8.774231e-001 -9.312730e+000 137 101 83
3.806185e-001 -1.032631e+000 -9.332882e+000 163 119 110
3.687407e-001 -1.078673e+000 -9.438823e+000 130 81 77
1.231743e+000 -1.158201e+000 -9.575974e+000 193 174 157
1.136225e+000 -1.289310e+000 -9.697581e+000 189 167 143
1.277980e+000 -1.205505e+000 -9.567343e+000 170 150 125
2.202938e+000 -1.300659e+000 -1.006365e+001 244 241 219
2.203902e+000 -1.300104e+000 -1.006456e+001 244 241 219
2.214654e+000 -1.264315e+000 -1.014912e+001 55 47 28
2.165342e+000 -1.317788e+000 -1.008118e+001 55 47 28
3.740494e+000 -1.490004e+000 -1.092978e+001 86 61 41
3.740494e+000 -1.490004e+000 -1.092978e+001 86 61 41
5.161008e+000 -2.078110e+000 -1.117174e+001 206 166 163
5.120814e+000 -2.102376e+000 -1.113332e+001 206 166 163
-3.211493e+000 6.490547e-001 -9.141050e+000 180 153 124
-1.591242e+000 2.097154e-001 -9.679221e+000 109 79 56
-1.114082e-001 -8.249208e-001 -9.489482e+000 200 159 139
7.942482e-001 -1.292945e+000 -9.777707e+000 111 109 79
7.730137e-001 -1.274422e+000 -9.795376e+000 70 68 45
8.653379e-001 -1.334541e+000 -9.795139e+000 70 61 33
8.717615e-001 -1.327659e+000 -9.803657e+000 70 61 33
1.138103e+000 -1.531955e+000 -9.757614e+000 191 170 149
1.653345e+000 -1.525675e+000 -9.951617e+000 56 42 26
1.641246e+000 -1.503871e+000 -9.986479e+000 203 192 169
2.074165e+000 -1.537152e+000 -1.025416e+001 53 42 24
3.523360e+000 -1.636026e+000 -1.098935e+001 71 48 28
3.868827e+000 -1.772714e+000 -1.125334e+001 80 53 34
5.097935e+000 -1.920547e+000 -1.145368e+001 208 127 53
-3.727970e+000 1.126409e+000 -9.541870e+000 110 79 58
-1.840693e+000 3.049338e-001 -9.982703e+000 160 121 106
-3.597888e-001 -1.185809e+000 -9.676098e+000 143 93 84
8.110022e-001 -1.526441e+000 -9.871287e+000 171 151 124
9.635891e-001 -1.824423e+000 -9.954620e+000 188 167 146
3.930728e+000 -1.800966e+000 -1.139761e+001 96 69 50
3.942031e+000 -1.973397e+000 -1.142507e+001 96 68 47
4.939049e+000 -2.447022e+000 -1.152493e+001 208 186 177
4.549653e-001 -1.384956e+000 -1.020436e+001 122 88 63
4.935619e-001 -1.507832e+000 -1.027182e+001 123 88 65
6.410008e-001 -1.564653e+000 -1.015543e+001 187 160 139
5.827504e-001 -1.660825e+000 -1.018147e+001 211 186 161
8.009217e-001 -1.790414e+000 -9.962002e+000 204 184 157
8.738729e-001 -1.830817e+000 -1.000970e+001 228 203 178
8.020086e-001 -1.841376e+000 -1.017161e+001 172 139 113
8.647728e-001 -2.040753e+000 -1.005580e+001 177 160 134
9.723382e-001 -2.109279e+000 -1.012051e+001 103 79 54
4.790089e+000 -2.802371e+000 -1.175827e+001 194 182 173
4.793678e+000 -2.800650e+000 -1.176221e+001 194 182 173
-2.154021e+000 3.515308e-001 -1.041014e+001 92 64 52
-1.682031e+000 -1.640976e-001 -1.064969e+001 215 173 151
-1.444941e+000 -9.305261e-001 -9.921038e+000 229 191 172
-1.436662e+000 -1.030087e+000 -9.899034e+000 191 147 130
-1.382636e+000 -1.091994e+000 -9.869032e+000 181 124 112
-1.352654e+000 -1.154089e+000 -9.853193e+000 218 169 157
7.702081e-001 -2.103305e+000 -1.025149e+001 203 181 157
7.896352e-001 -2.222315e+000 -1.019420e+001 173 146 117
1.096387e+000 -2.304375e+000 -1.024854e+001 61 53 36
1.163178e+000 -2.287085e+000 -1.028836e+001 90 75 62
1.136981e+000 -2.400834e+000 -1.030047e+001 227 223 192
1.535154e+000 -2.366874e+000 -1.050481e+001 84 68 59
1.638803e+000 -2.329800e+000 -1.064309e+001 46 31 24
-1.825959e+000 -2.991735e-001 -1.058629e+001 215 166 145
-1.498461e+000 -1.207663e+000 -9.870342e+000 172 112 104
-9.301853e-001 -1.381656e+000 -1.010211e+001 206 169 151
-9.501628e-001 -1.371423e+000 -1.016209e+001 164 114 100
-4.446280e-001 -1.534864e+000 -1.039531e+001 154 112 94
-6.473358e-001 -1.467498e+000 -1.055686e+001 167 134 119
6.515525e-002 -1.946030e+000 -1.020062e+001 194 166 128
1.487359e-002 -2.141134e+000 -1.020778e+001 178 147 112
-1.100103e-002 -2.209563e+000 -1.016896e+001 172 142 106
6.690454e-001 -2.269843e+000 -1.026382e+001 232 215 189
6.821336e-001 -2.254273e+000 -1.029154e+001 232 215 189
6.791921e-001 -2.312859e+000 -1.034832e+001 196 180 156
-2.008908e+000 -4.507869e-001 -1.081766e+001 192 143 121
-2.008908e+000 -4.507869e-001 -1.081766e+001 192 143 121
-1.686661e+000 -9.699773e-001 -1.072057e+001 187 144 126
-1.462681e+000 -1.314322e+000 -1.033267e+001 208 146 149
-1.429723e+000 -1.356888e+000 -1.031837e+001 206 147 146
-4.622880e-001 -1.674102e+000 -1.094010e+001 151 123 76
-3.450477e-001 -1.946845e+000 -1.070799e+001 176 154 132
-3.493955e-001 -1.954129e+000 -1.069992e+001 176 154 132
-2.082879e-001 -1.826012e+000 -1.075484e+001 78 47 24
-5.838624e-002 -2.370289e+000 -1.042513e+001 145 111 65
6.844487e-001 -2.689240e+000 -1.065269e+001 54 32 19
1.447259e+000 -2.608819e+000 -1.107027e+001 57 46 28
1.492462e+000 -2.652513e+000 -1.110780e+001 49 38 26
4.407033e+000 -3.679923e+000 -1.217594e+001 182 77 54
4.370204e+000 -3.733475e+000 -1.223114e+001 221 173 75
-6.816059e-001 -1.650116e+000 -1.121722e+001 132 92 68
-2.946028e-001 -2.531098e+000 -1.049351e+001 159 126 83
1.304047e-001 -2.727577e+000 -1.058659e+001 205 180 143
5.339027e-001 -2.828061e+000 -1.084118e+001 95 75 63
4.315259e+000 -3.617672e+000 -1.234981e+001 221 200 197
4.265497e+000 -3.615824e+000 -1.250721e+001 210 133 63
4.289597e+000 -3.790703e+000 -1.236011e+001 82 69 54
4.216632e+000 -3.862516e+000 -1.238157e+001 231 212 199
-3.016204e-001 -2.511856e+000 -1.064602e+001 211 182 144
4.724239e-003 -2.681729e+000 -1.068976e+001 206 180 133
4.872426e-001 -2.968101e+000 -1.104007e+001 48 28 19
7.914538e-001 -2.975328e+000 -1.123207e+001 56 42 29
3.221932e+000 -3.366292e+000 -1.265311e+001 101 70 42
4.143489e+000 -3.905004e+000 -1.261515e+001 230 213 197
4.178256e+000 -4.000009e+000 -1.247659e+001 227 187 193
4.098195e+000 -3.946585e+000 -1.265565e+001 98 84 67
-6.853234e-001 -2.089810e+000 -1.146093e+001 158 118 92
4.016857e+000 -3.983725e+000 -1.281950e+001 226 170 55
4.031265e+000 -4.035817e+000 -1.275979e+001 79 58 48
4.067251e+000 -4.109566e+000 -1.266310e+001 227 215 211
-1.181038e+000 -1.856864e+000 -1.203484e+001 180 123 119
-8.944927e-001 -2.195955e+000 -1.187743e+001 160 113 91
-6.067911e-001 -2.443715e+000 -1.182974e+001 131 124 96
-1.501658e-001 -2.930167e+000 -1.148890e+001 110 89 62
1.424339e-001 -3.040419e+000 -1.130155e+001 181 158 132
9.559644e-001 -3.395927e+000 -1.173705e+001 69 56 37
2.130285e+000 -3.600790e+000 -1.243980e+001 95 73 52
3.051990e+000 -3.663241e+000 -1.301212e+001 120 90 66
-9.881172e-001 -1.887448e+000 -1.279788e+001 152 118 93
-9.170786e-001 -2.181798e+000 -1.228094e+001 206 177 149
-8.602498e-001 -2.327879e+000 -1.215188e+001 165 139 107
-6.318684e-001 -2.591561e+000 -1.199091e+001 67 63 37
-3.385519e-001 -2.817790e+000 -1.182565e+001 100 94 68
-4.717826e-001 -2.854633e+000 -1.187023e+001 135 129 103
-4.288177e-001 -2.848654e+000 -1.206926e+001 142 138 108
-2.690271e-001 -2.941487e+000 -1.166842e+001 117 115 82
6.718148e-002 -3.557466e+000 -1.135982e+001 247 235 214
4.611160e-001 -3.572315e+000 -1.156206e+001 89 76 63
1.926306e-001 -3.655688e+000 -1.136066e+001 133 108 82
8.781007e-001 -3.610398e+000 -1.186410e+001 248 242 224
8.701257e-001 -3.680528e+000 -1.187763e+001 52 40 29
1.884711e+000 -3.757313e+000 -1.252900e+001 90 65 45
1.897727e+000 -3.751262e+000 -1.255285e+001 90 65 45
2.045025e+000 -3.890079e+000 -1.262428e+001 96 71 48
1.895200e+000 -3.928342e+000 -1.266348e+001 83 58 36
2.952377e+000 -4.060273e+000 -1.320454e+001 105 70 40
2.823257e+000 -4.102671e+000 -1.304797e+001 136 99 72
3.627884e+000 -4.330695e+000 -1.330212e+001 203 110 45
3.558661e+000 -4.231000e+000 -1.358073e+001 167 87 36
3.768949e+000 -4.494926e+000 -1.313612e+001 218 148 44
-9.566397e-001 -2.051734e+000 -1.271650e+001 170 137 106
-9.566397e-001 -2.051734e+000 -1.271650e+001 170 137 106
-1.097209e+000 -2.092618e+000 -1.306557e+001 228 201 161
-8.654788e-001 -2.512180e+000 -1.223551e+001 156 145 99
-7.832763e-001 -2.609514e+000 -1.222053e+001 86 81 47
-8.222416e-001 -2.567712e+000 -1.228307e+001 103 96 63
-3.048220e-001 -3.396662e+000 -1.169164e+001 130 126 88
5.838704e-001 -3.839736e+000 -1.190916e+001 51 40 31
3.528614e+000 -4.657109e+000 -1.344877e+001 88 60 48
3.509120e+000 -4.684575e+000 -1.351022e+001 91 74 55
3.530603e+000 -4.689532e+000 -1.347418e+001 241 222 214
3.520679e+000 -4.693699e+000 -1.346178e+001 241 222 214
3.398037e+000 -4.819768e+000 -1.342958e+001 240 226 213
3.493604e+000 -4.849370e+000 -1.344001e+001 208 108 67
-6.406810e-001 -3.264428e+000 -1.228166e+001 172 146 111
-2.809964e-001 -3.656477e+000 -1.187993e+001 175 149 124
6.766074e-002 -3.990191e+000 -1.173066e+001 80 62 44
6.139204e-001 -4.041332e+000 -1.209934e+001 234 226 206
1.443334e+000 -4.162986e+000 -1.274159e+001 80 55 33
3.427929e+000 -4.743113e+000 -1.362665e+001 241 224 214
3.393081e+000 -4.753370e+000 -1.368856e+001 230 214 205
3.394625e+000 -4.856197e+000 -1.362364e+001 238 225 211
3.394625e+000 -4.856197e+000 -1.362364e+001 238 225 211
3.454020e+000 -4.826454e+000 -1.354825e+001 91 72 58
3.409933e+000 -4.904702e+000 -1.358269e+001 236 214 206
3.385007e+000 -4.893214e+000 -1.363675e+001 95 78 74
3.315851e+000 -4.892032e+000 -1.377121e+001 89 69 62
3.293018e+000 -4.887754e+000 -1.385246e+001 89 67 56
3.323374e+000 -4.929016e+000 -1.371166e+001 230 219 200
3.304760e+000 -4.923803e+000 -1.377624e+001 226 216 204
3.304760e+000 -4.923803e+000 -1.377624e+001 226 216 204
3.316046e+000 -4.956940e+000 -1.373321e+001 87 70 59
-1.434336e+000 -1.935128e+000 -1.368441e+001 141 134 108
-1.226751e+000 -2.184828e+000 -1.360910e+001 188 172 145
3.255236e+000 -4.954704e+000 -1.386228e+001 94 77 60
3.283566e+000 -4.972041e+000 -1.383788e+001 243 227 213
3.259374e+000 -5.007650e+000 -1.382832e+001 101 85 71
3.469226e+000 6.316672e-001 -9.214711e+000 86 72 59
1.691498e+000 2.534604e-001 -8.740432e+000 102 106 73
2.846040e+000 1.852514e-002 -8.952445e+000 120 107 89
3.009908e+000 1.104026e-001 -9.204677e+000 65 54 36
1.627831e+000 1.520916e+000 -9.466965e+000 206 190 159
1.619140e+000 1.407251e+000 -9.383127e+000 138 128 99
1.605269e+000 6.928522e-001 -8.968024e+000 191 154 85
1.604925e+000 1.839283e-001 -8.867077e+000 116 116 86
1.577094e+000 -1.245297e-001 -8.788832e+000 94 93 63
2.787792e+000 -2.921181e-001 -9.232623e+000 254 251 231
-2.982952e+000 1.657634e+000 -8.200015e+000 134 104 76
4.603274e-001 7.285729e-001 -9.022521e+000 163 120 102
2.716942e+000 -3.795892e-001 -9.376170e+000 52 39 33
5.794960e+000 -1.489337e+000 -1.023213e+001 249 243 225
5.809494e+000 -1.614487e+000 -1.020417e+001 211 160 114
-2.451105e+000 1.877661e+000 -8.661145e+000 106 79 63
-2.302934e+000 1.910259e+000 -8.700117e+000 145 127 110
-2.457041e+000 1.585024e+000 -8.661424e+000 122 95 76
-2.456251e+000 1.595304e+000 -8.667739e+000 122 95 76
2.791403e-001 7.865973e-001 -9.161941e+000 207 162 140
3.838803e-001 7.207716e-001 -9.216550e+000 206 161 135
1.302869e+000 8.591572e-002 -9.237149e+000 217 191 168
2.096189e+000 -6.583988e-001 -9.254702e+000 75 62 54
5.677990e+000 -1.738703e+000 -1.029477e+001 253 252 237
-3.805583e+000 1.686854e+000 -8.344637e+000 157 124 92
-2.686713e+000 1.148742e+000 -8.711564e+000 142 117 99
3.965358e-001 -4.921366e-001 -8.926086e+000 181 143 134
1.495883e+000 -7.453588e-001 -9.244296e+000 199 179 155
2.425714e+000 -9.734949e-001 -9.839647e+000 45 32 24
5.524007e+000 -9.699087e-001 -1.106656e+001 215 191 168
5.477890e+000 -1.202277e+000 -1.087961e+001 204 188 183
5.579906e+000 -1.991116e+000 -1.037005e+001 252 249 239
-4.121679e+000 2.380933e+000 -8.842615e+000 219 200 197
-1.853181e+000 1.141199e+000 -9.312055e+000 178 156 138
-1.527285e+000 5.452165e-001 -9.086288e+000 175 147 125
-1.617581e+000 6.758822e-001 -9.247594e+000 128 102 70
-1.626360e+000 6.378211e-001 -9.219732e+000 128 102 70
-1.754224e-001 -6.848398e-001 -8.914973e+000 184 147 132
-2.393298e-001 -5.611678e-001 -9.145927e+000 158 114 97
1.142307e+000 -8.011668e-001 -9.535321e+000 196 171 140
1.972132e+000 -9.113492e-001 -9.671798e+000 51 33 23
2.430015e+000 -9.069777e-001 -1.000827e+001 49 36 20
3.807021e+000 -1.133390e+000 -1.061747e+001 91 71 52
5.340703e+000 -1.384739e+000 -1.112147e+001 158 86 46
5.340703e+000 -1.384739e+000 -1.112147e+001 158 86 46
-4.068661e+000 1.595283e+000 -8.706364e+000 94 67 50
-4.075294e+000 1.669553e+000 -8.757381e+000 94 67 50
-4.007737e+000 1.369823e+000 -8.686627e+000 156 121 93
-4.708987e-001 5.356333e-002 -9.666865e+000 170 120 109
-1.440312e-001 -7.041059e-001 -9.289148e+000 128 77 72
-1.931623e-001 -7.617013e-001 -9.359629e+000 140 93 87
-8.845014e-002 -9.011455e-001 -9.130211e+000 184 146 131
1.204575e+000 -1.431991e+000 -9.650230e+000 157 127 97
2.234589e+000 -1.403786e+000 -1.017246e+001 52 38 25
3.654228e+000 -1.294634e+000 -1.070430e+001 62 39 22
3.909255e+000 -1.418762e+000 -1.091830e+001 74 50 29
5.263239e+000 -1.822865e+000 -1.117096e+001 228 205 194
-3.392893e+000 1.026836e+000 -9.348467e+000 54 49 46
-2.977042e+000 5.196594e-001 -9.131917e+000 140 69 40
-1.397739e-001 -7.619073e-001 -9.500987e+000 150 102 90
-2.880146e-002 -1.006384e+000 -9.331932e+000 195 154 141
-2.614741e-002 -1.060793e+000 -9.401827e+000 161 120 114
-1.530734e-001 -9.323148e-001 -9.519861e+000 153 108 94
-1.615305e-001 -1.021216e+000 -9.548351e+000 151 99 91
6.631460e-001 -1.210214e+000 -9.754947e+000 77 71 47
6.209693e-001 -1.245518e+000 -9.875022e+000 190 167 137
8.812117e-001 -1.373876e+000 -9.757804e+000 115 91 66
7.773376e-001 -1.405874e+000 -9.805220e+000 64 57 29
9.672227e-001 -1.342812e+000 -9.852690e+000 95 67 45
1.038234e+000 -1.609416e+000 -9.813323e+000 193 170 147
1.947443e+000 -1.529929e+000 -1.023891e+001 242 238 203
1.942910e+000 -1.617227e+000 -1.025331e+001 59 42 26
2.227777e+000 -1.441554e+000 -1.023363e+001 51 37 20
2.093645e+000 -1.538024e+000 -1.021125e+001 255 252 232
5.068631e+000 -2.204542e+000 -1.136194e+001 81 64 50
5.033912e+000 -2.548178e+000 -1.128506e+001 162 77 40
-3.481737e+000 9.801484e-001 -9.471701e+000 137 114 100
-2.889552e+000 6.002801e-001 -9.348605e+000 143 82 57
-1.575335e+000 9.410718e-002 -9.952234e+000 104 69 50
-7.739934e-001 -1.090805e+000 -9.280330e+000 147 86 75
8.167486e-001 -1.604605e+000 -9.916247e+000 177 151 126
2.852684e+000 -1.750210e+000 -1.081445e+001 61 38 24
3.094456e+000 -1.842901e+000 -1.100288e+001 73 50 32
3.917354e+000 -1.933079e+000 -1.143136e+001 92 66 49
4.258859e+000 -1.935474e+000 -1.151603e+001 104 77 56
4.957111e+000 -2.532630e+000 -1.148408e+001 217 206 199
4.957111e+000 -2.532630e+000 -1.148408e+001 217 206 199
4.973691e+000 -2.593392e+000 -1.140620e+001 155 70 47
-9.363620e-001 -1.150145e+000 -9.759973e+000 166 122 111
7.248391e-001 -1.682163e+000 -1.007969e+001 174 152 126
5.981536e-001 -1.831332e+000 -1.018402e+001 144 105 64
1.058724e+000 -2.063773e+000 -1.013670e+001 68 54 38
1.425009e+000 -2.180535e+000 -1.029258e+001 53 42 24
1.503966e+000 -2.198827e+000 -1.026066e+001 78 64 52
1.555006e+000 -2.239661e+000 -1.032435e+001 49 35 24
4.036865e+000 -2.238336e+000 -1.167749e+001 102 71 50
-1.398234e+000 -3.179400e-001 -1.050080e+001 186 136 125
-1.261897e+000 -1.066597e+000 -9.885313e+000 173 117 104
-1.349000e+000 -1.220427e+000 -9.861311e+000 177 126 115
-1.222086e+000 -1.264702e+000 -9.904658e+000 190 134 127
-8.275796e-001 -1.389436e+000 -9.866421e+000 185 143 129
-4.930626e-001 -1.428152e+000 -9.937701e+000 160 116 102
-5.709838e-002 -1.505903e+000 -1.025375e+001 192 156 140
-5.709838e-002 -1.505903e+000 -1.025375e+001 192 156 140
-1.992229e-003 -1.550323e+000 -1.031467e+001 186 158 128
1.013908e+000 -2.157880e+000 -1.022069e+001 87 71 55
1.163797e+000 -2.423568e+000 -1.032943e+001 54 38 23
1.585769e+000 -2.362454e+000 -1.050628e+001 41 27 20
1.421363e+000 -2.499037e+000 -1.042610e+001 55 41 30
1.516781e+000 -2.477004e+000 -1.055080e+001 87 73 62
1.516781e+000 -2.477004e+000 -1.055080e+001 87 73 62
2.794776e+000 -2.453645e+000 -1.120700e+001 71 48 30
-1.937506e+000 -3.310552e-001 -1.067336e+001 215 158 137
-1.730278e+000 -1.027512e+000 -1.002728e+001 233 194 180
-1.770570e+000 -1.043362e+000 -1.007987e+001 232 191 178
-1.265221e+000 -1.359450e+000 -1.006561e+001 176 124 118
-3.001453e-002 -1.664141e+000 -1.052271e+001 128 92 58
8.340103e-002 -2.236755e+000 -1.022489e+001 156 121 83
3.205706e-001 -2.198510e+000 -1.030610e+001 159 122 91
6.742537e-001 -2.212842e+000 -1.033861e+001 187 165 134
1.222131e+000 -2.384590e+000 -1.061079e+001 90 78 62
2.787316e+000 -2.531517e+000 -1.149203e+001 66 44 28
3.428517e+000 -2.754819e+000 -1.200453e+001 87 56 34
4.453142e+000 -3.239981e+000 -1.228852e+001 216 137 52
-1.192903e+000 -1.391525e+000 -1.062710e+001 159 111 96
-1.118611e+000 -1.441459e+000 -1.066045e+001 154 108 92
-9.062368e-001 -1.468511e+000 -1.044249e+001 133 95 69
-7.549207e-001 -1.550847e+000 -1.061093e+001 126 88 71
-3.882478e-002 -2.314230e+000 -1.024447e+001 168 135 94
-1.009026e-001 -2.374538e+000 -1.039241e+001 201 181 142
-9.729566e-002 -2.369520e+000 -1.039990e+001 201 181 142
6.327946e-001 -2.559815e+000 -1.056275e+001 153 130 107
1.280808e+000 -2.713478e+000 -1.094031e+001 48 35 26
1.559076e+000 -2.735102e+000 -1.124940e+001 68 52 37
4.335746e+000 -3.556749e+000 -1.231787e+001 74 52 36
-3.004155e-001 -2.490423e+000 -1.049571e+001 201 176 138
8.317274e-002 -2.665426e+000 -1.060101e+001 183 155 107
1.734467e-001 -2.779710e+000 -1.050731e+001 179 157 133
2.198663e+000 -2.954203e+000 -1.179310e+001 69 48 31
4.290515e+000 -3.746640e+000 -1.235447e+001 230 211 206
-2.393954e-001 -2.618643e+000 -1.064808e+001 179 144 104
-2.000420e-001 -2.603547e+000 -1.060715e+001 166 135 94
3.165209e-002 -2.786342e+000 -1.077209e+001 177 152 117
1.329848e+000 -2.952354e+000 -1.141416e+001 47 32 16
1.237568e+000 -2.982046e+000 -1.142771e+001 252 249 233
1.237568e+000 -2.982046e+000 -1.142771e+001 252 249 233
1.315480e+000 -3.056845e+000 -1.146977e+001 67 50 35
4.193640e+000 -4.003164e+000 -1.252639e+001 221 200 197
-5.109833e-001 -2.320439e+000 -1.149985e+001 118 87 55
-5.329922e-001 -2.463234e+000 -1.123003e+001 88 65 42
-3.075936e-001 -2.822572e+000 -1.085738e+001 147 105 59
2.817897e-001 -3.294077e+000 -1.106789e+001 134 98 67
1.098820e+000 -3.162318e+000 -1.163694e+001 70 60 42
2.278561e+000 -3.398268e+000 -1.228007e+001 70 48 27
2.810240e+000 -3.458019e+000 -1.256540e+001 109 82 61
3.057695e+000 -3.534110e+000 -1.277054e+001 91 60 33
2.915513e+000 -3.523165e+000 -1.272411e+001 95 67 44
2.913924e+000 -3.636815e+000 -1.276773e+001 111 77 54
3.149271e+000 -3.706327e+000 -1.293313e+001 87 56 30
3.149271e+000 -3.706327e+000 -1.293313e+001 87 56 30
4.006777e+000 -4.088641e+000 -1.273979e+001 230 214 204
3.931307e+000 -4.254898e+000 -1.286312e+001 157 69 32
3.960110e+000 -4.290169e+000 -1.277188e+001 234 215 219
-4.930637e-001 -2.771258e+000 -1.127873e+001 202 181 152
2.932370e-001 -3.374848e+000 -1.122379e+001 64 42 26
9.252013e-001 -3.314416e+000 -1.168887e+001 48 35 19
1.005066e+000 -3.487613e+000 -1.179854e+001 48 35 21
1.683001e+000 -3.418068e+000 -1.240539e+001 85 63 43
2.779247e+000 -3.758823e+000 -1.275317e+001 112 84 61
2.606121e+000 -3.856670e+000 -1.271598e+001 111 84 62
3.088255e+000 -3.701828e+000 -1.296586e+001 88 56 31
3.089192e+000 -3.701525e+000 -1.296716e+001 88 56 31
2.887688e+000 -3.750651e+000 -1.287815e+001 84 57 30
-8.694143e-001 -2.247849e+000 -1.221003e+001 158 125 91
-5.526276e-001 -2.634360e+000 -1.186446e+001 109 105 75
-7.289720e-001 -2.568723e+000 -1.196968e+001 103 104 69
-1.964925e-001 -3.104704e+000 -1.161600e+001 139 114 87
-1.964925e-001 -3.104704e+000 -1.161600e+001 139 114 87
4.485531e-001 -3.616681e+000 -1.157161e+001 56 42 31
8.518895e-001 -3.475674e+000 -1.184728e+001 53 35 23
8.538274e-001 -3.680443e+000 -1.203249e+001 45 33 21
