ply
format ascii 1.0
element face 0
property list uchar int vertex_indices
element vertex 875
property float x
property float y
property float z
property uchar diffuse_red
property uchar diffuse_green
property uchar diffuse_blue
end_header
2.097343e+000 8.577156e-002 -8.704942e+000 102 77 58
1.665847e+000 -4.494282e-001 -8.937620e+000 193 177 154
1.888137e+000 -1.751570e-001 -8.686541e+000 182 169 142
-1.843028e+000 -6.755921e-001 -1.078565e+001 216 185 161
1.082444e+000 -9.041707e-001 -9.570770e+000 219 206 190
1.278893e+000 -8.786975e-001 -9.269099e+000 221 207 180
5.376235e+000 -1.469549e+000 -1.094999e+001 137 74 50
1.033619e+000 -1.567491e+000 -9.857238e+000 222 210 188
4.219372e+000 -1.946955e+000 -1.154174e+001 100 74 47
7.811305e-001 -2.158044e+000 -1.024573e+001 255 255 237
7.838787e-001 -2.162444e+000 -1.026206e+001 255 255 237
3.410694e+000 -2.141698e+000 -1.134163e+001 90 68 44
4.288033e+000 -3.742998e+000 -1.219903e+001 224 211 199
4.794553e+000 -3.709261e+000 -1.123193e+001 249 203 150
4.183012e+000 3.497323e+000 -1.323004e+001 222 138 101
-3.739933e+000 2.206855e+000 -8.434662e+000 150 115 84
2.328741e+000 2.631501e+000 -1.070617e+001 111 91 67
5.151480e+000 2.827395e+000 -1.262505e+001 242 226 238
6.642165e-001 1.403127e+000 -9.271437e+000 164 114 105
3.394810e+000 1.706491e+000 -1.058226e+001 120 98 75
2.423292e+000 9.956095e-001 -8.813991e+000 78 67 51
2.716643e+000 1.046465e+000 -8.885634e+000 110 90 67
5.501002e+000 1.247186e+000 -1.137616e+001 218 166 107
5.546165e+000 8.410282e-001 -1.104995e+001 170 135 105
-1.784946e+000 3.240673e-001 -9.836843e+000 171 143 131
3.682202e+000 1.903768e-001 -9.380591e+000 99 78 59
3.560293e+000 1.022252e-001 -9.344699e+000 82 63 43
-1.188002e+000 -3.734500e-001 -1.042497e+001 144 98 90
4.253140e-001 -3.783157e-001 -8.745707e+000 126 79 68
2.175306e+000 -3.811864e-001 -9.048973e+000 52 42 32
4.125593e+000 -9.276578e-001 -1.046969e+001 92 68 42
3.061750e+000 -1.275992e+000 -1.042230e+001 73 52 34
3.825538e+000 -1.406868e+000 -1.087762e+001 117 97 72
5.119038e+000 -1.845754e+000 -1.133057e+001 193 96 51
9.076892e-001 -1.893110e+000 -1.002117e+001 170 150 121
-3.342226e-001 -3.758473e+000 -1.194066e+001 174 158 136
1.040737e+000 -3.710163e+000 -1.203772e+001 133 119 106
3.859462e+000 3.630767e+000 -1.461461e+001 211 138 87
5.405574e+000 2.516133e+000 -1.216897e+001 144 114 104
1.028188e+000 1.796176e+000 -9.797731e+000 201 173 152
-3.194137e+000 1.504777e+000 -8.168265e+000 117 89 52
4.704728e+000 1.474555e+000 -1.129859e+001 149 122 93
2.015878e+000 6.431577e-001 -8.485357e+000 149 156 119
2.980746e+000 -1.346236e-001 -9.011449e+000 68 54 43
1.857119e+000 -8.550139e-001 -9.459602e+000 52 38 25
1.008385e-001 -1.383795e+000 -9.910300e+000 139 87 66
3.613094e+000 -2.242570e+000 -1.154865e+001 127 105 81
2.569326e+000 -2.709495e+000 -1.152115e+001 101 78 54
2.692326e-001 -2.699853e+000 -1.041567e+001 204 190 166
4.326856e-001 -2.870753e+000 -1.098379e+001 176 159 145
3.772676e+000 -3.826841e+000 -1.319417e+001 211 162 60
5.210946e+000 3.736062e+000 -1.211115e+001 243 228 230
2.503024e+000 2.315482e+000 -1.052966e+001 111 94 70
1.689530e+000 1.848215e+000 -9.733815e+000 235 223 205
1.585020e+000 1.134266e+000 -9.215528e+000 89 88 67
5.104106e+000 -6.395001e-001 -1.054492e+001 111 81 53
-1.152801e+001 -4.143119e+000 -4.274449e+001 203 201 188
-1.768559e-001 -8.287137e-001 -9.512957e+000 190 151 145
-9.235968e-001 -1.125798e+000 -9.303944e+000 211 177 175
2.537273e-002 -2.040910e+000 -1.034071e+001 195 177 141
4.556583e+000 -2.460416e+000 -1.214817e+001 127 59 36
-4.170599e-001 -2.444887e+000 -1.065796e+001 164 141 101
1.474683e+000 -2.183736e+000 -1.018449e+001 155 149 129
-1.095404e+000 -3.370180e+000 -1.300751e+001 228 228 228
7.126075e-001 -3.608813e+000 -1.161515e+001 151 140 118
4.943595e+000 3.293896e+000 -1.262396e+001 180 88 93
1.389082e+000 2.385856e+000 -1.020137e+001 123 107 81
1.075404e+000 1.917739e+000 -9.906588e+000 201 179 156
1.594790e+000 6.305745e-001 -8.992448e+000 171 138 68
2.172947e+000 6.627761e-001 -8.635076e+000 105 76 47
5.034292e+000 6.531246e-001 -1.057510e+001 153 122 94
3.055644e+000 -7.694637e-003 -9.011543e+000 52 39 23
3.870292e+000 2.602816e-002 -9.520044e+000 104 87 62
-1.555498e+000 -6.598200e-001 -1.041999e+001 171 129 117
-9.567317e-001 -3.255635e+000 -1.288799e+001 111 116 93
9.567383e-001 2.388987e+000 -1.075679e+001 66 59 40
-2.502296e-001 1.332994e+000 -1.042188e+001 171 113 112
2.855438e+000 5.787247e-001 -8.872216e+000 42 35 27
2.440442e+000 -2.662090e-001 -8.976820e+000 39 30 23
-9.808640e+000 -5.535308e+000 -4.386389e+001 232 231 224
4.192190e+000 -3.284822e+000 -1.265843e+001 216 146 53
9.325008e-001 9.402801e-001 -9.370781e+000 116 69 47
1.755724e+000 1.654303e+000 -9.504885e+000 251 252 242
1.418274e+000 -1.589950e+000 -9.942891e+000 107 96 80
1.058546e+000 -2.683100e+000 -1.098825e+001 62 53 44
-3.885375e-001 -1.582565e+000 -1.026573e+001 153 129 81
4.230196e+000 7.249003e-001 -1.292889e+001 59 44 29
-3.137820e+000 2.855429e+000 -9.078459e+000 214 211 202
6.892603e-001 2.915077e+000 -1.130027e+001 218 195 147
-2.399080e+000 1.967275e+000 -8.820685e+000 99 76 60
1.585117e+000 2.314869e+000 -1.014528e+001 171 155 134
2.566809e+000 2.142080e+000 -1.024476e+001 106 90 69
4.394665e-001 1.689982e+000 -9.498014e+000 212 171 159
4.391326e-001 1.690270e+000 -9.497082e+000 212 171 159
1.139868e+000 1.837638e+000 -9.843002e+000 161 127 96
-3.355552e+000 1.402329e+000 -8.160777e+000 129 99 72
-1.642008e+000 1.444427e+000 -9.271443e+000 103 85 63
1.655925e+000 1.489378e+000 -9.273706e+000 138 119 95
2.363583e+000 1.603319e+000 -9.290956e+000 87 62 34
3.638628e+000 1.777430e+000 -1.086974e+001 97 72 50
5.279399e+000 1.668949e+000 -1.184319e+001 202 130 127
6.034322e-001 1.254901e+000 -9.266945e+000 166 109 102
1.298413e+000 1.164449e+000 -9.810208e+000 177 134 115
-3.341148e+000 9.921657e-001 -9.038054e+000 171 154 138
-3.061073e+000 5.027033e-001 -9.273906e+000 234 224 222
-1.626456e+000 6.164157e-001 -9.302277e+000 119 104 81
2.951016e+000 4.747638e-001 -8.793291e+000 230 224 200
2.951016e+000 4.747638e-001 -8.793291e+000 230 224 200
-1.740924e+000 4.564864e-001 -9.488862e+000 120 95 73
-1.477422e+000 2.274328e-001 -9.605997e+000 174 138 126
2.629387e+000 3.685943e-001 -8.548630e+000 45 35 24
3.051253e+000 3.205474e-001 -8.810145e+000 230 226 204
4.758350e+000 1.118934e-001 -9.904323e+000 109 89 64
1.149880e-001 -1.383335e-001 -8.954266e+000 175 132 113
2.618656e-001 -1.515508e-001 -8.941517e+000 150 111 93
2.618656e-001 -1.515508e-001 -8.941517e+000 150 111 93
1.474899e+000 -1.295958e-001 -9.211669e+000 118 121 90
2.200274e+000 -1.281509e-001 -8.756538e+000 127 120 102
2.899794e+000 -9.519945e-002 -9.000346e+000 90 84 63
2.901962e+000 -1.248042e-001 -8.990078e+000 204 198 175
4.516127e+000 -4.178184e-002 -9.959032e+000 105 81 57
-1.494342e-001 -3.049224e-001 -8.902503e+000 203 163 151
3.761003e-002 -3.034916e-001 -8.663525e+000 156 115 94
1.783559e+000 -3.747943e-001 -8.831103e+000 174 153 128
1.825173e+000 -3.810114e-001 -8.879354e+000 114 90 59
1.951557e+000 -2.183191e-001 -8.915539e+000 121 101 66
2.117838e+000 -2.340415e-001 -8.860187e+000 118 109 92
2.029427e+000 -4.024328e-001 -9.107260e+000 144 130 88
2.202224e+000 -2.641114e-001 -8.858948e+000 64 56 39
2.255965e+000 -3.238183e-001 -8.958752e+000 116 108 87
2.259796e+000 -3.971344e-001 -9.112781e+000 47 37 19
2.588645e+000 -4.911331e-001 -9.456090e+000 204 200 175
2.617843e+000 -4.326033e-001 -9.348310e+000 201 197 170
1.086697e+000 -6.407826e-001 -9.472966e+000 184 165 138
1.249753e+000 -6.963975e-001 -9.252863e+000 201 177 147
1.583216e+000 -6.639648e-001 -9.112787e+000 216 201 178
2.424004e+000 -6.017431e-001 -9.521085e+000 228 224 194
-1.684930e+000 -9.795659e-001 -9.954907e+000 222 186 175
-1.439701e+000 -1.124924e+000 -9.854899e+000 209 165 152
-1.301537e+000 -1.078920e+000 -9.854926e+000 206 157 143
-5.479502e-001 -9.717846e-001 -9.180010e+000 181 138 131
-5.669662e-001 -1.055590e+000 -9.242040e+000 178 140 131
-4.950860e-001 -1.033350e+000 -9.189680e+000 184 141 134
-2.277956e-001 -1.109621e+000 -9.677284e+000 165 120 101
4.523748e-001 -8.557126e-001 -9.283630e+000 189 156 141
1.205159e+000 -9.041177e-001 -9.437625e+000 208 190 162
1.901369e+000 -9.167663e-001 -9.518144e+000 88 77 53
3.441874e+000 -1.178238e+000 -1.050252e+001 72 54 32
3.509777e+000 -1.191959e+000 -1.055110e+001 79 61 40
3.505005e+000 -1.190157e+000 -1.053889e+001 79 61 40
-1.406780e+000 -1.165874e+000 -9.974242e+000 188 145 135
-8.937937e-001 -1.087836e+000 -9.358253e+000 216 180 179
-5.309199e-002 -1.480285e+000 -1.010225e+001 190 164 141
6.378121e-001 -1.250392e+000 -9.786887e+000 89 82 56
8.672487e-001 -1.301066e+000 -9.770219e+000 79 79 53
8.672487e-001 -1.301066e+000 -9.770219e+000 79 79 53
1.188841e+000 -1.159518e+000 -9.575817e+000 191 173 149
2.108027e+000 -1.218065e+000 -1.000168e+001 206 200 171
2.019795e+000 -1.397664e+000 -1.005987e+001 206 201 170
2.913797e+000 -1.468994e+000 -1.055573e+001 79 61 39
1.154469e+000 -1.592085e+000 -9.719048e+000 169 156 130
1.332579e+000 -1.743865e+000 -9.971370e+000 61 47 38
-3.489855e-001 -1.942864e+000 -1.066057e+001 157 139 119
-2.091396e-002 -1.974937e+000 -1.049073e+001 157 127 99
2.399642e+000 -2.083557e+000 -1.087279e+001 90 69 50
5.128763e+000 -2.158036e+000 -1.127029e+001 133 122 108
6.155560e-001 -2.518966e+000 -1.050546e+001 207 200 188
9.677669e-001 -2.432040e+000 -1.073460e+001 69 49 39
1.163890e+000 -2.391951e+000 -1.032237e+001 122 113 98
6.781524e-001 -2.916846e+000 -1.103615e+001 82 74 63
4.124288e+000 -4.092891e+000 -1.266184e+001 148 131 133
-3.519489e+000 2.380613e+000 -8.373182e+000 102 74 56
1.298677e+000 2.984516e+000 -1.095688e+001 190 174 153
1.882632e+000 2.949940e+000 -1.059805e+001 95 78 58
5.041194e+000 3.304214e+000 -1.249610e+001 188 98 96
5.274410e+000 3.449638e+000 -1.220550e+001 199 92 101
-3.442157e+000 2.121439e+000 -8.142422e+000 151 121 85
1.218022e+000 2.590283e+000 -1.053333e+001 138 134 110
4.757412e+000 2.919580e+000 -1.294156e+001 199 130 103
-3.556804e+000 1.801919e+000 -8.222152e+000 135 106 72
-3.562787e+000 1.807540e+000 -8.240675e+000 135 106 72
-2.436838e+000 2.018837e+000 -8.490769e+000 101 80 63
-2.352672e+000 1.966713e+000 -8.769392e+000 93 68 53
5.117110e-001 2.115565e+000 -9.870886e+000 142 90 76
1.065816e+000 2.283641e+000 -1.039973e+001 79 74 50
1.660159e+000 2.381596e+000 -1.019747e+001 152 126 103
3.608011e+000 2.319507e+000 -1.140974e+001 119 93 68
-3.772545e+000 1.800843e+000 -8.342134e+000 112 81 51
-3.515333e+000 1.625538e+000 -8.325484e+000 110 77 43
-3.340099e+000 1.781582e+000 -8.219149e+000 113 84 50
-3.067160e+000 1.729874e+000 -8.379435e+000 128 98 69
-3.124636e+000 1.700430e+000 -8.384620e+000 98 71 42
2.159826e+000 1.864988e+000 -9.586144e+000 95 84 64
2.654303e+000 1.788003e+000 -9.801766e+000 102 85 66
2.678452e+000 1.757430e+000 -9.782561e+000 102 85 64
9.903917e-001 1.572561e+000 -9.671709e+000 131 92 75
1.740072e+000 1.369011e+000 -9.033687e+000 157 159 129
2.830531e+000 1.363337e+000 -9.357662e+000 59 51 31
3.479802e+000 1.463492e+000 -1.036310e+001 92 67 46
4.698421e+000 1.717879e+000 -1.133816e+001 109 87 62
5.477071e+000 1.778505e+000 -1.144854e+001 214 154 149
-3.039526e+000 1.053616e+000 -8.911110e+000 135 116 102
1.757271e-001 1.270399e+000 -9.113170e+000 218 185 170
2.970950e+000 9.679353e-001 -8.995743e+000 92 84 61
3.080153e+000 7.903114e-001 -8.883573e+000 235 230 201
-2.823242e+000 6.279532e-001 -9.037413e+000 167 141 113
-1.662773e+000 5.679031e-001 -9.421206e+000 154 132 111
2.440062e+000 4.818258e-001 -8.482326e+000 147 143 118
2.597187e+000 4.820243e-001 -8.482043e+000 105 99 73
3.861012e+000 4.761436e-001 -9.493954e+000 97 73 50
1.534725e+000 2.346997e-001 -9.000651e+000 100 105 74
2.932730e+000 1.325132e-001 -8.838775e+000 74 66 47
3.192705e+000 3.663339e-001 -8.838007e+000 61 47 33
4.519030e+000 2.755455e-001 -9.813878e+000 92 68 44
-1.276570e+000 4.980597e-002 -1.007923e+001 109 69 60
1.931721e+000 8.496091e-002 -8.679300e+000 194 173 146
1.984778e+000 -1.311056e-001 -8.602238e+000 129 105 74
-1.763813e+000 -4.433711e-001 -1.079872e+001 188 148 127
-2.274495e-001 -3.023189e-001 -8.948694e+000 209 177 162
2.862972e-001 -1.931688e-001 -8.792065e+000 173 137 120
7.108139e-001 -3.840340e-001 -9.239701e+000 131 94 78
1.634350e+000 -2.425148e-001 -8.861716e+000 156 147 116
1.672264e+000 -3.908362e-001 -8.924917e+000 171 156 135
2.163550e+000 -2.633815e-001 -8.964473e+000 56 49 31
2.145184e+000 -2.607271e-001 -8.892888e+000 56 49 31
2.047828e+000 -4.008197e-001 -9.017296e+000 59 43 35
4.238656e+000 -4.113716e-001 -9.930003e+000 83 61 38
-2.116728e-001 -5.759120e-001 -9.053675e+000 206 171 158
1.160020e+000 -5.019429e-001 -9.213275e+000 220 204 179
2.095616e+000 -6.690938e-001 -9.301156e+000 104 95 81
2.029927e+000 -7.869164e-001 -9.439630e+000 52 40 26
2.521808e+000 -5.283003e-001 -9.480499e+000 68 61 35
2.571009e+000 -5.328815e-001 -9.513313e+000 227 223 199
2.555385e+000 -5.754894e-001 -9.596827e+000 226 219 192
2.555385e+000 -5.754894e-001 -9.596827e+000 226 219 192
-1.279670e+000 -1.013849e+000 -9.888906e+000 216 165 152
-9.324411e-001 -9.271347e-001 -9.852106e+000 176 132 122
-9.304707e-003 -9.844803e-001 -9.151693e+000 169 130 122
7.305427e-001 -8.989650e-001 -9.662043e+000 72 53 36
1.189603e+000 -1.061080e+000 -9.542115e+000 130 106 76
2.271306e+000 -1.072507e+000 -9.906212e+000 84 77 52
2.271306e+000 -1.072507e+000 -9.906212e+000 84 77 52
3.130048e+000 -8.666500e-001 -9.936433e+000 92 74 52
5.385815e+000 -9.886015e-001 -1.099944e+001 178 117 45
-1.075543e+000 -1.399186e+000 -1.006696e+001 176 128 119
-2.066127e-001 -1.280126e+000 -9.709827e+000 186 150 139
-2.054704e-001 -1.274926e+000 -9.674400e+000 186 150 139
-6.594711e-002 -1.179963e+000 -9.542559e+000 195 158 149
4.626068e-002 -1.311419e+000 -9.708574e+000 201 164 155
1.306987e+000 -1.435926e+000 -9.651195e+000 111 85 59
2.086256e+000 -1.436006e+000 -1.012554e+001 232 226 188
2.382955e+000 -1.310303e+000 -1.022180e+001 82 64 45
2.182607e+000 -1.502802e+000 -1.022016e+001 62 45 35
4.136870e+000 -1.615347e+000 -1.121407e+001 118 92 69
5.334640e+000 -1.399178e+000 -1.108786e+001 170 102 71
-1.349797e-003 -1.546806e+000 -1.032726e+001 192 164 141
2.015803e+000 -1.756131e+000 -1.030951e+001 57 45 32
5.256900e+000 -1.696207e+000 -1.120389e+001 126 102 88
5.256900e+000 -1.696207e+000 -1.120389e+001 126 102 88
5.192726e+000 -1.905457e+000 -1.123622e+001 208 197 192
5.252915e+000 -1.895519e+000 -1.116503e+001 101 88 71
5.177774e+000 -2.035503e+000 -1.122830e+001 100 82 71
5.175727e+000 -2.036362e+000 -1.122229e+001 100 82 71
-5.233723e-002 -1.989034e+000 -1.043017e+001 143 114 82
8.159302e-001 -2.121607e+000 -1.018980e+001 193 177 150
8.756682e-001 -1.965469e+000 -1.002642e+001 236 228 210
1.168405e+000 -1.986095e+000 -1.002299e+001 101 95 73
1.533097e+000 -1.853881e+000 -9.938644e+000 111 104 92
4.980409e+000 -2.302630e+000 -1.152866e+001 212 185 161
1.684323e-001 -2.526542e+000 -1.043468e+001 212 197 153
5.939655e-001 -2.333143e+000 -1.050388e+001 148 122 95
7.757908e-001 -2.299009e+000 -1.028356e+001 193 172 145
1.118418e+000 -2.197075e+000 -1.011968e+001 82 75 59
1.521526e+000 -2.284168e+000 -1.028975e+001 66 59 44
4.832622e+000 -2.571961e+000 -1.175165e+001 240 179 77
4.926210e+000 -2.505425e+000 -1.159834e+001 192 175 173
4.890401e+000 -2.648601e+000 -1.164729e+001 217 202 173
2.921358e-001 -2.996068e+000 -1.108780e+001 194 174 152
3.329456e-001 -2.989751e+000 -1.101231e+001 162 141 120
9.631892e-001 -2.749092e+000 -1.095314e+001 63 55 43
1.182622e+000 -2.868275e+000 -1.143305e+001 97 91 78
1.150176e+000 -2.907811e+000 -1.143313e+001 97 92 78
1.020773e+000 -3.138090e+000 -1.168526e+001 112 106 92
4.629048e+000 -3.255604e+000 -1.196718e+001 125 112 103
3.868622e-001 -3.331110e+000 -1.130407e+001 79 65 46
4.093019e-001 -3.442572e+000 -1.156460e+001 111 104 88
4.367826e+000 -3.560211e+000 -1.248483e+001 203 176 154
4.016209e+000 -4.122889e+000 -1.284042e+001 133 123 119
4.069201e+000 -4.143348e+000 -1.275197e+001 136 124 119
4.227658e+000 -3.856440e+000 -1.248748e+001 135 124 117
5.399871e-001 -4.252778e+000 -1.241128e+001 142 129 115
1.532193e+000 2.999583e+000 -1.094790e+001 67 54 42
1.913920e+000 2.853271e+000 -1.049980e+001 76 61 40
2.171079e+000 2.775147e+000 -1.071711e+001 57 45 29
-3.851813e+000 1.809497e+000 -8.256943e+000 165 138 107
4.377132e-001 2.230375e+000 -1.004464e+001 194 146 134
3.848171e+000 2.296509e+000 -1.157902e+001 131 100 78
-3.852649e+000 1.817398e+000 -8.358868e+000 128 101 74
-3.758175e+000 1.702944e+000 -8.211403e+000 148 121 91
-3.135137e+000 1.725186e+000 -8.300501e+000 108 78 50
3.259228e-001 2.036190e+000 -1.007807e+001 165 109 88
3.586870e-001 1.800232e+000 -9.562422e+000 225 193 174
3.290366e-001 1.752886e+000 -9.553831e+000 224 183 171
2.193900e+000 1.987803e+000 -9.691789e+000 73 58 39
3.516839e+000 1.873503e+000 -1.093300e+001 110 86 63
3.505134e+000 1.867170e+000 -1.089175e+001 110 86 63
3.801609e+000 2.056751e+000 -1.128486e+001 115 90 68
-3.335379e+000 1.411583e+000 -8.204780e+000 115 86 56
1.993448e+000 1.576718e+000 -9.437227e+000 151 130 109
-3.624142e+000 1.245304e+000 -8.289197e+000 170 145 115
1.112682e-001 1.219736e+000 -9.268505e+000 188 152 134
2.015117e+000 1.180361e+000 -8.968040e+000 188 174 148
2.291995e+000 1.282458e+000 -9.002053e+000 80 67 51
2.891557e+000 1.122747e+000 -9.104606e+000 106 99 83
1.901128e+000 7.962174e-001 -8.679633e+000 108 109 77
2.582171e+000 9.023399e-001 -8.677764e+000 79 69 48
3.124432e+000 8.696966e-001 -9.002520e+000 93 81 56
4.736274e+000 9.953727e-001 -1.061495e+001 146 115 89
-1.763746e+000 3.978250e-001 -9.647410e+000 113 84 70
-2.043842e+000 2.892237e-001 -1.054421e+001 115 87 74
1.034119e-001 -1.050581e-001 -8.913146e+000 191 148 129
1.570212e+000 -8.880421e-002 -8.588744e+000 143 150 113
1.684773e+000 -5.349686e-002 -8.703494e+000 182 176 146
2.201284e+000 -1.140256e-001 -8.893993e+000 82 68 54
2.370362e+000 -7.478993e-002 -8.724550e+000 93 79 49
-1.868633e+000 -2.443682e-001 -1.065076e+001 165 113 95
-4.596506e-001 -2.098825e-001 -9.276753e+000 217 184 169
-2.079271e-001 -4.280488e-001 -9.067051e+000 221 193 173
-3.020040e-002 -2.655629e-001 -8.764817e+000 214 181 164
1.536657e+000 -3.546313e-001 -9.144967e+000 145 134 110
1.608208e+000 -4.171291e-001 -8.970086e+000 141 126 103
1.606369e+000 -4.156865e-001 -8.965623e+000 141 126 103
1.737731e+000 -1.989327e-001 -8.779010e+000 189 181 161
1.823617e+000 -1.714595e-001 -8.709107e+000 248 245 229
1.810097e+000 -2.453573e-001 -8.732510e+000 247 240 226
5.337500e+000 -2.254889e-001 -9.559602e+000 221 133 41
-9.342561e-002 -5.970131e-001 -8.767229e+000 153 105 88
1.370054e+000 -6.540457e-001 -9.068588e+000 150 116 81
1.501149e+000 -7.271342e-001 -9.199765e+000 249 245 230
2.891629e+000 -5.156030e-001 -9.525083e+000 176 164 148
3.280258e+000 -7.705756e-001 -9.963590e+000 58 41 21
7.878349e-001 -1.073033e+000 -9.655804e+000 67 68 50
1.098332e+000 -1.113176e+000 -9.556789e+000 84 92 58
1.092551e+000 -1.104548e+000 -9.498544e+000 84 92 58
1.231587e+000 -8.890947e-001 -9.419784e+000 195 168 140
1.410243e+000 -9.246697e-001 -9.273395e+000 245 243 228
1.442397e+000 -9.726489e-001 -9.366752e+000 160 139 112
2.432049e+000 -9.439227e-001 -9.794856e+000 70 58 45
3.247649e+000 -1.106003e+000 -1.033265e+001 66 45 24
3.617214e+000 -1.238966e+000 -1.064896e+001 65 47 27
5.215030e+000 -1.211614e+000 -1.130107e+001 125 64 39
5.469930e+000 -1.109417e+000 -1.089796e+001 236 226 230
-4.728746e-001 -1.379241e+000 -9.914106e+000 165 121 110
-4.255673e-001 -1.247569e+000 -9.565924e+000 166 118 111
-1.628683e-001 -1.421930e+000 -1.012099e+001 207 179 160
-8.700957e-002 -1.513018e+000 -1.027352e+001 190 162 141
4.693194e-001 -1.163021e+000 -9.605977e+000 137 100 80
1.117048e+000 -1.414430e+000 -9.733898e+000 202 186 159
1.926882e+000 -1.384495e+000 -1.028175e+001 34 25 18
3.378106e+000 -1.440061e+000 -1.077222e+001 75 55 34
5.118401e+000 -1.704432e+000 -1.146607e+001 211 138 50
5.344101e+000 -1.643555e+000 -1.102939e+001 233 217 221
-3.617541e-001 -1.824009e+000 -1.083288e+001 124 106 87
-3.093438e-001 -1.854090e+000 -1.077918e+001 86 65 46
2.907360e+000 -1.710534e+000 -1.080510e+001 81 63 43
3.297273e+000 -1.724559e+000 -1.097261e+001 108 88 65
3.927225e+000 -1.805504e+000 -1.129972e+001 121 100 73
3.927225e+000 -1.805504e+000 -1.129972e+001 121 100 73
4.268377e+000 -1.932971e+000 -1.152295e+001 120 94 67
-5.157886e-002 -2.109695e+000 -1.046302e+001 164 132 82
5.641697e-001 -2.568616e+000 -1.059694e+001 164 147 125
2.446114e+000 -2.833159e+000 -1.167906e+001 88 65 48
5.077177e-001 -2.646405e+000 -1.066184e+001 145 127 112
5.881524e-001 -2.789898e+000 -1.075822e+001 71 50 33
2.488930e+000 -3.148210e+000 -1.218591e+001 88 70 48
2.887219e+000 -3.036830e+000 -1.216081e+001 123 101 78
-5.240655e-001 -3.413412e+000 -1.216836e+001 176 164 138
3.885553e-001 -3.182337e+000 -1.112432e+001 132 110 84
-2.357724e-001 -3.945495e+000 -1.197557e+001 174 156 136
1.957241e-001 -3.922912e+000 -1.185693e+001 207 203 188
8.104717e-001 -3.767884e+000 -1.200288e+001 76 65 49
4.089169e+000 -4.125320e+000 -1.261529e+001 211 189 184
2.191982e-001 -4.061932e+000 -1.198011e+001 134 127 109
1.309096e+000 2.963436e+000 -1.109350e+001 255 254 240
1.368960e+000 2.864354e+000 -1.073792e+001 229 217 197
1.371453e+000 2.868599e+000 -1.075950e+001 229 217 197
2.195095e+000 2.699080e+000 -1.066314e+001 57 45 33
2.195095e+000 2.699080e+000 -1.066314e+001 57 45 33
2.208912e+000 2.601906e+000 -1.053049e+001 48 35 23
-3.775850e+000 1.888627e+000 -8.334739e+000 161 130 98
-3.529303e+000 1.942337e+000 -8.260656e+000 169 140 102
5.247681e-001 2.255060e+000 -1.005035e+001 156 98 84
-3.008366e+000 1.667133e+000 -8.274207e+000 112 85 55
9.684029e-001 1.823456e+000 -9.921483e+000 128 82 66
2.438535e+000 1.941606e+000 -9.903743e+000 49 40 30
4.105803e+000 2.295513e+000 -1.182599e+001 119 84 62
-3.636481e+000 1.494809e+000 -8.266746e+000 127 96 64
-2.714075e+000 1.526725e+000 -8.354048e+000 84 57 36
1.936452e+000 1.494460e+000 -9.285818e+000 144 118 92
1.770554e+000 1.426531e+000 -9.143286e+000 130 116 94
4.841403e+000 1.649257e+000 -1.155523e+001 120 91 67
-3.518032e+000 1.210098e+000 -8.563288e+000 159 133 116
1.601936e+000 1.313671e+000 -9.377385e+000 94 93 70
3.494505e+000 1.093830e+000 -9.845000e+000 80 58 35
4.288082e+000 1.431652e+000 -1.094322e+001 122 92 64
5.581184e+000 1.449120e+000 -1.123889e+001 232 201 204
5.579315e+000 1.449793e+000 -1.123490e+001 232 201 204
3.077642e-001 8.324727e-001 -9.022991e+000 207 176 156
2.815854e+000 9.659526e-001 -8.923961e+000 38 30 21
1.257014e+000 5.844862e-001 -9.701846e+000 171 134 110
1.269728e+000 4.817014e-001 -9.742495e+000 184 149 124
1.969606e+000 6.036956e-001 -8.532737e+000 125 130 97
2.035670e+000 6.277959e-001 -8.440713e+000 144 149 114
4.921088e+000 5.719375e-001 -1.010716e+001 125 94 66
-1.742379e+000 1.987994e-001 -1.000712e+001 84 60 49
-1.648617e+000 1.892214e-001 -9.854339e+000 162 134 120
1.745426e+000 -8.167498e-002 -8.854234e+000 154 130 99
-6.480346e-001 -2.222688e-001 -9.976958e+000 184 129 126
1.904055e-001 -2.602840e-001 -8.652608e+000 151 114 99
1.410271e+000 -1.841958e-001 -9.121746e+000 191 171 140
4.928941e+000 -5.061779e-001 -1.029736e+001 128 102 76
4.520611e-001 -4.788964e-001 -8.925972e+000 126 83 74
8.858349e-001 -7.407222e-001 -9.659038e+000 121 91 69
3.638908e+000 -5.472338e-001 -9.835609e+000 101 82 60
3.412144e+000 -7.821833e-001 -9.982667e+000 105 87 65
4.818335e+000 -8.713039e-001 -1.064685e+001 133 107 77
4.922001e+000 -7.920022e-001 -1.058797e+001 127 101 71
3.445888e+000 -1.127670e+000 -1.043883e+001 108 90 70
5.341017e+000 -1.030339e+000 -1.115088e+001 145 90 43
-9.689738e-001 -1.226986e+000 -9.446753e+000 202 171 168
-6.608223e-001 -1.863074e+000 -1.145453e+001 157 119 90
-1.812491e-001 -1.555666e+000 -1.049140e+001 184 154 125
-4.485690e-002 -1.584617e+000 -1.049158e+001 144 111 70
9.149164e-001 -1.479505e+000 -9.751607e+000 206 195 173
1.422498e+000 -1.697052e+000 -1.000811e+001 39 31 22
7.040818e-001 -2.070353e+000 -1.033807e+001 192 171 142
8.117329e-001 -2.062016e+000 -1.013809e+001 172 147 117
1.002445e+000 -2.056231e+000 -1.013673e+001 134 115 79
1.483075e+000 -1.867333e+000 -9.948120e+000 58 51 36
3.285799e+000 -2.196405e+000 -1.134452e+001 98 74 50
1.131783e+000 -2.241428e+000 -1.014483e+001 69 59 47
3.537526e+000 -2.696584e+000 -1.196568e+001 116 90 67
3.859910e+000 -2.793456e+000 -1.221988e+001 123 96 66
-2.182448e-001 -2.600347e+000 -1.061578e+001 189 166 123
-2.351761e-001 -2.777278e+000 -1.081172e+001 192 161 106
3.198519e+000 -3.323927e+000 -1.259913e+001 111 84 55
4.214915e+000 -3.329897e+000 -1.264337e+001 210 143 47
-6.384959e-001 -3.367784e+000 -1.209445e+001 205 188 162
4.520950e-001 -3.475841e+000 -1.152170e+001 59 48 37
2.629733e+000 -3.566403e+000 -1.264039e+001 95 75 51
4.098836e+000 -3.593749e+000 -1.277751e+001 243 198 95
-6.383153e-002 -3.728582e+000 -1.165242e+001 200 183 163
3.512853e+000 -4.600744e+000 -1.356120e+001 199 131 52
4.105930e+000 -4.243303e+000 -1.259731e+001 216 142 53
-3.502337e+000 2.690396e+000 -8.493232e+000 146 95 90
1.094587e+000 2.980200e+000 -1.106218e+001 163 133 101
5.131393e+000 3.149839e+000 -1.230736e+001 226 224 229
5.866918e+000 3.113585e+000 -1.072096e+001 203 162 103
1.599014e+000 2.580473e+000 -1.037546e+001 162 141 117
-2.918578e+000 1.992063e+000 -8.049725e+000 98 69 49
1.008165e+000 2.247876e+000 -1.038240e+001 126 121 99
4.112984e+000 2.709705e+000 -1.246744e+001 223 158 114
2.515916e+000 1.755799e+000 -9.723075e+000 46 39 28
2.515916e+000 1.755799e+000 -9.723075e+000 46 39 28
2.559126e+000 1.677289e+000 -9.681628e+000 48 39 30
2.559126e+000 1.677289e+000 -9.681628e+000 48 39 30
-2.510021e+000 1.556284e+000 -8.651415e+000 129 108 87
-2.510408e+000 1.556927e+000 -8.653656e+000 129 108 87
3.533485e+000 1.740177e+000 -1.076412e+001 95 70 48
5.664802e+000 1.643371e+000 -1.108078e+001 217 191 180
-3.559700e+000 1.212536e+000 -8.278598e+000 104 77 56
1.008948e+000 1.121335e+000 -9.579852e+000 139 97 75
1.174552e+000 7.902649e-001 -9.695901e+000 158 120 95
2.030293e+000 2.134049e-001 -8.484850e+000 253 253 237
4.231959e+000 -2.158949e-001 -9.774687e+000 84 62 40
-4.751617e-001 -3.157925e-001 -9.457167e+000 179 124 116
-4.164162e-001 -4.129251e-001 -9.481256e+000 173 114 106
3.671704e-001 -2.228219e-001 -8.853049e+000 152 115 99
1.949731e+000 -7.736894e-001 -9.418771e+000 54 44 35
-6.128499e-002 -8.744129e-001 -9.013391e+000 120 82 73
5.266507e+000 -1.309257e+000 -1.123934e+001 167 76 53
-1.280987e+000 -1.143616e+000 -9.851741e+000 170 114 100
4.684753e-001 -1.322723e+000 -1.011649e+001 135 96 67
5.155292e-001 -1.383517e+000 -1.011211e+001 182 162 137
1.084064e+000 -1.262099e+000 -9.673880e+000 147 126 105
-7.342606e-001 -1.832190e+000 -1.143964e+001 181 144 117
4.787249e-001 -1.832433e+000 -1.024028e+001 206 185 156
2.307432e+000 -2.337089e+000 -1.106839e+001 89 71 51
4.906437e+000 -2.607670e+000 -1.161983e+001 227 202 148
5.065976e+000 -2.610697e+000 -1.131133e+001 210 123 43
-7.661938e-001 -3.176948e+000 -1.217904e+001 210 201 182
3.669801e-001 -2.771878e+000 -1.085063e+001 150 128 103
2.703289e+000 -3.286364e+000 -1.233674e+001 125 103 82
4.874602e+000 -2.927625e+000 -1.153787e+001 236 193 91
2.662237e-001 -3.136637e+000 -1.108776e+001 239 229 210
4.533732e+000 -3.617278e+000 -1.195315e+001 207 128 45
4.479888e-001 -4.144169e+000 -1.257090e+001 59 52 41
1.747791e+000 -3.973128e+000 -1.263761e+001 107 86 65
5.001048e+000 -3.586198e+000 -1.120719e+001 177 111 64
-3.138624e+000 2.835085e+000 -8.920670e+000 81 52 41
-3.562187e+000 2.301551e+000 -8.393224e+000 141 111 83
1.225336e+000 2.916486e+000 -1.106616e+001 153 126 95
4.091992e-001 1.942662e+000 -9.614310e+000 211 163 158
3.023095e+000 2.125113e+000 -1.074688e+001 105 81 55
1.442254e+000 1.512550e+000 -9.913631e+000 128 92 65
-3.775480e+000 1.194167e+000 -8.664282e+000 188 169 152
2.473302e+000 1.089029e+000 -8.685588e+000 102 88 68
5.635120e+000 1.270619e+000 -1.110422e+001 233 217 212
5.639129e+000 1.272336e+000 -1.110721e+001 233 217 212
3.145188e+000 8.403207e-001 -8.808598e+000 87 69 49
-1.719882e+000 6.027826e-001 -9.326873e+000 106 91 72
1.884069e+000 6.815659e-001 -8.699212e+000 133 139 103
1.824373e+000 3.675238e-001 -8.735650e+000 151 134 108
2.850731e+000 1.624432e-001 -8.908881e+000 53 46 40
5.145766e+000 -5.237534e-001 -1.042897e+001 109 78 50
1.482682e+000 -5.044363e-001 -9.178659e+000 154 125 98
2.705627e+000 -7.902564e-001 -9.756123e+000 162 149 133
-3.462503e-001 -1.056993e+000 -9.256385e+000 131 79 67
-1.394671e-001 -1.078811e+000 -9.566351e+000 141 93 84
4.166012e+000 -1.010858e+000 -1.052731e+001 120 98 74
4.254545e+000 -1.166042e+000 -1.083169e+001 91 70 43
4.266865e+000 -1.168274e+000 -1.084275e+001 91 70 43
-1.006845e-001 -1.312272e+000 -9.971623e+000 154 103 96
9.458944e-002 -1.399236e+000 -1.001888e+001 139 87 66
4.818618e+000 -2.011529e+000 -1.191993e+001 120 61 38
-9.070083e-001 -2.345644e+000 -1.240144e+001 203 187 161
3.551334e+000 -2.375299e+000 -1.163954e+001 97 74 50
5.142484e+000 -2.061765e+000 -1.128506e+001 229 216 189
7.308029e-001 -2.389619e+000 -1.040165e+001 198 186 165
1.073494e+000 -2.200743e+000 -1.018226e+001 127 122 103
1.419966e+000 -2.297851e+000 -1.037709e+001 53 43 31
2.442351e+000 -2.730664e+000 -1.157514e+001 118 99 75
-3.257727e-001 -2.695449e+000 -1.078091e+001 168 139 79
1.969669e+000 -2.945017e+000 -1.170657e+001 80 61 41
3.344848e+000 -3.192518e+000 -1.253989e+001 121 95 66
3.433732e+000 -3.121545e+000 -1.244272e+001 144 117 88
2.234292e+000 -4.135814e+000 -1.294546e+001 96 75 46
3.277204e+000 -4.597136e+000 -1.391933e+001 167 105 52
3.676586e+000 -4.188550e+000 -1.339422e+001 180 80 42
3.783429e+000 -4.357564e+000 -1.310726e+001 231 187 80
5.015857e+000 3.143854e+000 -1.256423e+001 239 228 230
-3.759052e+000 1.886226e+000 -8.225509e+000 166 135 104
-3.054242e+000 1.999926e+000 -8.254760e+000 137 112 81
-3.089849e+000 1.699345e+000 -8.256580e+000 104 74 46
-3.093906e+000 1.700538e+000 -8.265285e+000 104 74 46
-3.805556e+000 1.489545e+000 -8.408521e+000 163 133 99
2.662733e+000 1.035654e+000 -8.808517e+000 117 100 77
5.341047e+000 9.062967e-001 -1.098388e+001 182 153 124
1.677726e+000 6.275875e-001 -8.719767e+000 197 182 150
3.197277e+000 5.759261e-001 -8.901132e+000 71 57 45
-1.773011e+000 4.190115e-001 -9.576081e+000 108 87 68
-1.944776e+000 -6.124334e-001 -1.085648e+001 188 154 129
1.772897e+000 -6.016582e-001 -9.078139e+000 52 36 28
1.599457e+000 -9.532945e-001 -9.431071e+000 57 41 34
1.954480e+000 -8.583041e-001 -9.448155e+000 104 94 74
2.124101e+000 -9.998094e-001 -9.912272e+000 38 32 23
3.064863e+000 -9.712130e-001 -1.010235e+001 64 45 28
3.315951e-002 -1.155378e+000 -9.762741e+000 134 81 69
1.066414e+000 -1.430237e+000 -9.842915e+000 139 113 90
3.718535e+000 -1.416742e+000 -1.083997e+001 123 103 78
-7.709237e-001 -2.350453e+000 -1.193715e+001 108 103 78
-3.816097e-001 -2.130209e+000 -1.070688e+001 127 103 82
3.840366e+000 -2.788159e+000 -1.227074e+001 117 90 61
-4.764873e-001 -2.810600e+000 -1.082876e+001 210 191 151
8.732469e-001 -3.076098e+000 -1.130788e+001 46 38 31
1.222232e+000 -3.118591e+000 -1.157025e+001 67 58 43
1.828919e+000 -3.143189e+000 -1.186121e+001 77 58 40
9.688443e-001 -3.279573e+000 -1.162144e+001 164 158 136
1.773737e+000 -3.796637e+000 -1.252081e+001 118 99 79
-2.352856e+000 2.008794e+000 -8.687118e+000 66 46 37
9.477554e-001 1.388878e+000 -9.504887e+000 177 143 132
1.783549e+000 1.192293e+000 -8.975398e+000 117 120 89
3.645217e+000 4.916465e-001 -9.395426e+000 88 66 45
-7.110277e-002 -1.031574e+000 -9.331780e+000 179 140 133
9.838320e-001 -1.149982e+000 -9.539809e+000 135 142 109
1.474388e+000 -1.154000e+000 -9.489921e+000 56 43 32
2.091630e+000 -1.381453e+000 -1.016814e+001 105 97 63
-8.227974e-001 -2.124741e+000 -1.209431e+001 170 123 111
1.306649e+000 -1.531258e+000 -9.756466e+000 64 45 45
1.487019e+000 -1.671204e+000 -1.002528e+001 38 29 20
4.945030e+000 -1.951119e+000 -1.175316e+001 229 167 65
3.891008e+000 -2.303559e+000 -1.177431e+001 138 118 91
8.487031e-001 -2.663560e+000 -1.092448e+001 59 49 43
2.108165e+000 -2.780354e+000 -1.153234e+001 81 60 41
1.118187e+000 -2.614181e+000 -1.070232e+001 49 40 31
2.435844e+000 -3.289362e+000 -1.234618e+001 115 99 76
2.496125e+000 -2.959077e+000 -1.196109e+001 90 73 50
4.504502e+000 -3.013512e+000 -1.223990e+001 246 211 108
2.001674e+000 -3.726299e+000 -1.246227e+001 120 103 83
8.948929e-001 -3.722316e+000 -1.192004e+001 67 58 43
2.783721e+000 -3.988749e+000 -1.310705e+001 140 115 92
5.279455e+000 3.380356e+000 -1.196410e+001 187 89 89
1.148131e+000 2.889057e+000 -1.095796e+001 158 128 92
-2.826563e+000 2.081330e+000 -8.349389e+000 74 52 38
4.411940e+000 2.835624e+000 -1.285836e+001 223 169 109
-3.606239e+000 1.621399e+000 -8.244569e+000 161 129 91
5.574962e+000 1.753604e+000 -1.118169e+001 214 186 165
7.164258e-001 7.418881e-001 -9.282961e+000 136 85 62
7.093360e-001 7.383704e-001 -9.246477e+000 136 85 62
4.160314e+000 2.898062e-001 -9.609985e+000 93 71 50
1.987619e+000 -2.258036e-001 -8.710158e+000 46 31 20
2.402568e+000 -1.018681e+000 -9.797671e+000 82 65 45
-1.059708e-001 -1.484005e+000 -1.030710e+001 170 149 122
1.010677e+000 -1.380754e+000 -9.794914e+000 143 117 94
1.400950e+000 -1.349711e+000 -9.616830e+000 74 61 55
5.167265e+000 -1.354584e+000 -1.139020e+001 138 68 39
2.395104e+000 -1.776468e+000 -1.056400e+001 155 145 128
3.134383e+000 -2.431774e+000 -1.158516e+001 84 62 38
-4.138155e-001 -2.267070e+000 -1.049157e+001 198 172 111
9.789568e-001 -2.383063e+000 -1.064142e+001 77 57 49
1.735681e+000 -2.803753e+000 -1.122987e+001 165 151 135
3.661102e+000 -4.119413e+000 -1.363648e+001 133 68 44
1.461503e+000 -4.448335e+000 -1.362563e+001 103 83 59
2.042079e+000 2.887460e+000 -1.046276e+001 106 90 67
4.070906e+000 2.849521e+000 -1.265274e+001 210 153 101
2.859601e-001 6.755900e-001 -9.259330e+000 155 113 89
-3.541392e-001 -5.205520e-001 -9.391650e+000 163 100 88
-8.123257e-001 -1.032286e+000 -9.305274e+000 222 186 183
9.370619e-001 -9.913787e-001 -9.700507e+000 100 96 71
-1.141649e+000 -1.304382e+000 -9.773690e+000 147 86 83
4.983735e+000 -1.929554e+000 -1.152321e+001 238 189 81
1.274987e+000 -2.243400e+000 -1.011736e+001 60 49 37
-3.448299e+000 1.295099e+000 -8.320919e+000 97 70 49
1.578989e-001 2.028678e-002 -9.144174e+000 162 117 96
-1.282488e+000 -6.883612e-001 -1.009307e+001 206 169 150
-7.226798e-001 -1.254738e+000 -9.561948e+000 140 77 68
4.243890e+000 -1.606022e+000 -1.111386e+001 117 92 62
-5.370220e-001 -1.606746e+000 -1.028364e+001 168 146 115
-5.370220e-001 -1.606746e+000 -1.028364e+001 168 146 115
-7.894367e-001 -2.763970e+000 -1.268996e+001 125 129 102
1.348844e+000 -2.383642e+000 -1.042029e+001 59 50 41
-1.544395e+000 1.048441e+000 -9.262739e+000 217 199 175
5.567558e+000 6.802658e-001 -1.008879e+001 234 207 193
4.513957e-001 -6.288475e-001 -8.578951e+000 138 90 79
4.513957e-001 -6.288475e-001 -8.578951e+000 138 90 79
4.093211e+000 -7.922223e-001 -7.481264e+000 213 127 38
4.889875e+000 3.903759e+000 -1.282530e+001 219 209 209
-3.760025e+000 2.462548e+000 -8.465743e+000 153 117 103
1.745339e+000 2.978498e+000 -1.068730e+001 131 119 94
-4.098311e+000 2.189691e+000 -8.814662e+000 170 130 122
1.135201e+000 2.598741e+000 -1.051925e+001 83 76 55
1.371285e+000 2.768794e+000 -1.072072e+001 170 151 124
1.417339e+000 2.686868e+000 -1.058078e+001 168 151 129
2.226254e+000 2.660874e+000 -1.062961e+001 65 56 43
5.114574e+000 3.078182e+000 -1.229733e+001 168 94 93
5.408540e+000 3.108846e+000 -1.168489e+001 235 225 234
5.741609e+000 3.239259e+000 -1.134410e+001 198 127 117
-2.184976e+000 2.042855e+000 -9.500338e+000 106 81 61
-9.984675e-002 2.219189e+000 -1.033306e+001 206 168 152
1.493984e-001 2.302529e+000 -1.022046e+001 222 191 172
2.019411e-001 2.281367e+000 -1.021065e+001 193 154 144
1.032393e+000 2.421523e+000 -1.074251e+001 72 68 49
1.143010e+000 2.261268e+000 -1.040961e+001 75 75 58
1.270552e+000 2.227827e+000 -1.026058e+001 85 85 65
1.784252e+000 2.343401e+000 -1.031279e+001 83 59 43
2.340902e+000 2.481243e+000 -1.057201e+001 108 97 79
-6.633525e-002 2.100264e+000 -1.035205e+001 220 178 162
3.339800e-001 2.122842e+000 -1.008369e+001 198 155 136
8.519654e-001 2.143239e+000 -1.016448e+001 218 189 163
1.554817e+000 1.939220e+000 -9.923594e+000 178 151 124
5.133542e-001 1.736570e+000 -9.470844e+000 208 165 158
4.963808e-001 1.602939e+000 -9.472904e+000 178 132 123
5.117621e-001 1.578837e+000 -9.508669e+000 201 157 146
6.131097e-001 1.585479e+000 -9.465409e+000 189 147 133
1.726437e+000 1.803992e+000 -9.662807e+000 203 184 160
2.088341e+000 1.858775e+000 -9.552112e+000 113 107 88
3.455845e+000 1.988501e+000 -1.103637e+001 93 71 50
3.543638e+000 1.839383e+000 -1.090527e+001 80 58 37
3.741967e+000 2.089800e+000 -1.133088e+001 109 84 62
3.970399e+000 2.054762e+000 -1.143921e+001 96 72 50
4.123456e+000 2.176348e+000 -1.160598e+001 117 89 66
1.312234e+000 1.553853e+000 -9.898478e+000 174 148 126
1.484327e+000 1.325440e+000 -9.867043e+000 187 165 143
1.566352e+000 1.536006e+000 -9.714038e+000 170 148 127
2.795192e+000 1.676496e+000 -9.664408e+000 144 134 109
2.770785e+000 1.512438e+000 -9.518034e+000 80 69 47
2.806416e+000 1.460342e+000 -9.476730e+000 85 77 59
3.998690e+000 1.700815e+000 -1.112883e+001 93 69 45
5.356074e+000 1.793104e+000 -1.168703e+001 199 109 107
5.310397e+000 1.656961e+000 -1.175602e+001 204 117 106
5.485842e+000 1.619468e+000 -1.156913e+001 232 224 219
1.226731e-001 1.080561e+000 -9.060088e+000 195 163 150
6.840168e-001 1.176674e+000 -9.332604e+000 186 139 131
2.453030e+000 1.174347e+000 -8.824258e+000 100 89 68
2.905043e+000 1.295212e+000 -9.347185e+000 82 74 60
2.984491e+000 1.139957e+000 -9.220690e+000 105 91 76
3.922746e+000 1.281227e+000 -1.044060e+001 107 82 60
5.611602e+000 1.519230e+000 -1.122688e+001 226 187 184
7.861936e-001 9.668489e-001 -9.183163e+000 142 99 80
1.599613e+000 8.454000e-001 -8.725982e+000 196 183 139
2.950761e+000 9.002851e-001 -8.968688e+000 166 163 146
5.190198e+000 9.229200e-001 -1.097785e+001 143 110 83
6.167157e-001 6.582306e-001 -9.174597e+000 175 137 118
1.634554e+000 7.355936e-001 -8.705497e+000 193 181 129
1.904003e+000 7.620995e-001 -8.585890e+000 138 145 113
1.904003e+000 7.620995e-001 -8.585890e+000 138 145 113
1.752850e+000 6.290535e-001 -8.709735e+000 159 151 118
3.161846e+000 7.930128e-001 -8.882975e+000 73 55 41
-1.835236e+000 -3.052036e-002 -1.064650e+001 169 133 114
-1.721858e+000 -1.694101e-001 -1.065748e+001 177 140 124
8.029177e-001 1.511031e-001 -9.338584e+000 210 190 167
1.491785e+000 3.650690e-001 -8.935867e+000 139 137 106
1.587700e+000 4.205429e-001 -8.910731e+000 185 179 152
1.900971e+000 2.738309e-001 -8.733242e+000 158 141 117
2.159692e+000 3.402794e-001 -8.634675e+000 137 116 92
2.508732e+000 4.639218e-001 -8.476097e+000 73 65 54
2.945735e+000 4.087379e-001 -8.797275e+000 216 211 195
3.096923e+000 4.292451e-001 -8.800704e+000 103 99 74
-1.856242e+000 -5.164832e-001 -1.079534e+001 190 153 134
-1.799024e+000 -4.003008e-001 -1.077587e+001 208 167 147
-1.717608e+000 -3.574660e-001 -1.071260e+001 202 166 149
2.305430e-001 -1.525283e-001 -8.857547e+000 204 167 148
8.196447e-001 -1.605491e-002 -9.286936e+000 193 172 151
1.351766e+000 1.192985e-001 -9.218232e+000 198 178 157
1.387850e+000 -9.525965e-002 -9.083699e+000 167 158 136
1.959268e+000 2.136518e-002 -8.584771e+000 197 179 151
2.957482e+000 1.705755e-001 -8.858662e+000 75 66 54
4.171427e+000 3.088284e-001 -9.637842e+000 82 59 41
1.285010e-002 -2.281850e-001 -8.728920e+000 213 188 173
1.544762e+000 -2.333989e-001 -8.869846e+000 109 118 93
1.777009e+000 -1.595040e-001 -8.758997e+000 212 200 187
1.801497e+000 -2.746200e-001 -8.724687e+000 195 189 171
2.297562e+000 -1.625154e-002 -8.702045e+000 192 186 163
2.382601e+000 -2.878668e-002 -8.694724e+000 80 68 46
2.408351e+000 8.404915e-003 -8.682643e+000 63 51 38
2.421614e+000 -7.588520e-002 -8.705119e+000 60 51 32
-1.751305e+000 -9.554108e-001 -1.002136e+001 197 160 154
-1.589272e+000 -9.072791e-001 -1.000360e+001 188 152 137
-1.453693e+000 -8.593432e-001 -9.950733e+000 198 161 149
-1.589823e+000 -1.032014e+000 -9.893998e+000 183 146 137
-1.450119e+000 -9.895611e-001 -9.807294e+000 210 167 156
-1.371022e+000 -1.039645e+000 -9.851900e+000 212 175 157
-9.238630e-002 -5.208519e-001 -8.740924e+000 186 154 133
5.706297e+000 -5.563756e-001 -1.057770e+001 230 170 77
-1.469723e+000 -1.058433e+000 -9.842988e+000 208 171 159
-1.453928e+000 -1.087062e+000 -9.857569e+000 187 147 137
-1.336405e+000 -1.078052e+000 -9.866083e+000 181 138 129
-1.446425e-001 -1.182790e+000 -9.582327e+000 173 135 129
7.009088e-001 -9.346989e-001 -9.779891e+000 101 80 65
1.043594e+000 -9.845366e-001 -9.574256e+000 154 154 130
1.084055e+000 -1.018689e+000 -9.574690e+000 130 129 100
1.338427e+000 -8.399414e-001 -9.234774e+000 185 161 135
2.413672e+000 -7.859455e-001 -9.724507e+000 226 222 198
2.413672e+000 -7.859455e-001 -9.724507e+000 226 222 198
2.398941e+000 -1.017189e+000 -9.878111e+000 74 56 38
2.955069e+000 -1.098198e+000 -1.021291e+001 83 65 46
5.443747e+000 -9.906155e-001 -1.102490e+001 181 124 55
-2.573068e-001 -1.765983e+000 -1.066316e+001 80 57 40
8.842196e-001 -1.259142e+000 -9.775628e+000 90 97 73
1.133429e+000 -1.114502e+000 -9.540464e+000 127 118 94
1.710812e+000 -1.384736e+000 -9.884838e+000 105 99 84
2.059159e+000 -1.421738e+000 -1.012349e+001 81 74 46
4.655723e+000 -1.380711e+000 -1.121639e+001 129 102 75
4.640166e+000 -1.216995e+000 -1.102222e+001 135 108 79
5.343130e+000 -1.284082e+000 -1.097135e+001 126 113 103
5.485570e+000 -1.229300e+000 -1.083864e+001 203 155 105
-2.127287e-001 -1.880914e+000 -1.073048e+001 108 82 59
-2.343775e-001 -2.036207e+000 -1.057458e+001 138 107 70
9.329025e-005 -1.874175e+000 -1.056636e+001 151 125 85
4.979139e-001 -1.735441e+000 -1.025199e+001 189 167 144
9.988537e-001 -1.628915e+000 -9.876126e+000 161 141 115
9.156921e-001 -1.802036e+000 -9.917327e+000 222 215 189
1.353802e+000 -1.767389e+000 -1.000333e+001 94 83 81
2.059786e+000 -1.538244e+000 -1.022119e+001 83 77 55
3.855149e+000 -1.936966e+000 -1.135426e+001 107 85 62
3.873587e+000 -1.945586e+000 -1.138255e+001 107 85 62
4.842138e+000 -1.636066e+000 -1.149385e+001 166 123 88
5.327878e+000 -1.519509e+000 -1.123375e+001 213 197 173
-1.490902e-001 -2.354673e+000 -1.045189e+001 191 162 108
5.456070e-001 -2.221874e+000 -1.035615e+001 175 154 123
6.907071e-001 -2.275693e+000 -1.026340e+001 203 193 166
2.871155e+000 -2.382720e+000 -1.132840e+001 89 70 50
4.964157e-001 -2.746734e+000 -1.073114e+001 151 137 125
4.797167e+000 -2.747305e+000 -1.176088e+001 154 138 131
4.792942e+000 -2.746400e+000 -1.175238e+001 154 138 131
4.894411e+000 -2.658605e+000 -1.155495e+001 220 188 149
4.979188e+000 -2.343361e+000 -1.150141e+001 150 131 127
7.184264e-001 -3.147473e+000 -1.130882e+001 100 93 83
7.184264e-001 -3.147473e+000 -1.130882e+001 100 93 83
4.458374e+000 -3.348825e+000 -1.224907e+001 225 193 158
4.494334e+000 -3.266750e+000 -1.210007e+001 148 140 135
4.566813e+000 -3.146619e+000 -1.207482e+001 209 192 152
4.814644e+000 -2.797793e+000 -1.171320e+001 151 149 137
4.797511e+000 -2.784828e+000 -1.166735e+001 151 149 137
4.809539e+000 -2.819047e+000 -1.157461e+001 139 135 126
6.964121e-001 -3.721590e+000 -1.199389e+001 218 215 193
6.630363e-001 -3.825714e+000 -1.208205e+001 178 174 156
7.954587e-001 -3.606668e+000 -1.194133e+001 102 99 80
4.223192e+000 -3.650563e+000 -1.242428e+001 220 194 142
4.144452e+000 -3.842395e+000 -1.265529e+001 216 190 154
4.458700e+000 -3.521660e+000 -1.214596e+001 181 170 165
-3.493231e-001 -4.058451e+000 -1.189830e+001 172 165 143
5.606275e-001 -4.094997e+000 -1.222947e+001 103 92 82
1.901727e+000 -5.566487e+000 -1.571598e+001 217 176 139
1.901727e+000 -5.566487e+000 -1.571598e+001 217 176 139
1.934107e+000 -5.589432e+000 -1.554194e+001 215 153 96
2.534561e+000 -5.323814e+000 -1.477230e+001 189 172 155
3.351031e+000 -4.797873e+000 -1.366185e+001 150 145 141
4.208028e+000 -3.895543e+000 -1.244121e+001 182 170 160
5.115076e+000 -3.153677e+000 -1.086032e+001 218 142 86
1.516577e+000 3.116067e+000 -1.113400e+001 68 54 45
1.754395e+000 2.915340e+000 -1.055844e+001 130 113 89
6.270469e-001 2.585892e+000 -1.102081e+001 169 134 82
1.276069e+000 2.544242e+000 -1.034812e+001 98 99 68
5.308554e+000 3.275926e+000 -1.186418e+001 187 87 90
5.231576e+000 3.063590e+000 -1.154082e+001 183 110 100
5.815345e+000 2.913771e+000 -1.079706e+001 172 161 155
-2.299317e+000 1.961651e+000 -8.751313e+000 89 66 50
2.643014e-001 2.258306e+000 -1.009499e+001 216 177 167
2.835408e-001 2.200189e+000 -1.007785e+001 215 174 166
1.466028e+000 2.527585e+000 -1.032454e+001 174 154 130
1.509471e+000 2.384795e+000 -1.027682e+001 177 161 140
1.986496e+000 2.283680e+000 -9.924049e+000 98 83 62
2.423602e+000 2.609032e+000 -1.061142e+001 90 69 44
-1.030232e-001 2.117009e+000 -1.039009e+001 199 156 140
7.504245e-001 2.085146e+000 -9.929187e+000 164 129 107
1.421090e+000 2.051292e+000 -9.919163e+000 137 114 92
1.530128e+000 2.083784e+000 -1.008974e+001 165 145 121
1.793806e+000 2.175187e+000 -1.006751e+001 81 59 36
2.190661e+000 2.121689e+000 -9.832039e+000 66 58 32
2.514876e+000 2.188791e+000 -1.038589e+001 95 82 62
3.433311e+000 2.119039e+000 -1.110714e+001 102 78 55
3.871739e+000 2.164407e+000 -1.144922e+001 118 95 71
5.482280e+000 2.473448e+000 -1.141898e+001 151 77 78
1.053505e-001 1.818834e+000 -1.014564e+001 190 125 123
1.137415e+000 1.833399e+000 -9.812356e+000 162 128 101
1.293395e+000 1.815923e+000 -1.002456e+001 136 96 45
1.408398e+000 1.876932e+000 -9.904873e+000 206 181 154
1.470919e+000 1.768857e+000 -9.829542e+000 189 168 140
1.320423e+000 1.602642e+000 -9.869374e+000 169 145 121
1.606402e+000 1.806548e+000 -9.830117e+000 176 155 130
1.892941e+000 1.672763e+000 -9.534710e+000 134 113 86
1.892290e+000 1.672687e+000 -9.532531e+000 134 113 86
2.098558e+000 1.856013e+000 -9.741460e+000 121 114 95
2.271290e+000 1.910196e+000 -9.632391e+000 68 56 37
2.570754e+000 1.846086e+000 -9.912466e+000 110 98 74
2.788021e+000 1.696157e+000 -9.744951e+000 88 77 58
3.487054e+000 2.000054e+000 -1.100063e+001 114 92 71
3.654318e+000 1.986597e+000 -1.123028e+001 111 86 65
3.442853e+000 1.898328e+000 -1.082910e+001 81 59 36
3.455147e+000 1.901457e+000 -1.085892e+001 81 59 36
4.004676e+000 2.020705e+000 -1.141643e+001 121 96 74
4.278302e+000 1.842574e+000 -1.134646e+001 154 129 104
2.437998e-001 1.251308e+000 -9.034602e+000 190 154 145
7.923292e-001 1.411273e+000 -9.483111e+000 185 142 130
1.646423e+000 1.453538e+000 -9.225316e+000 146 150 126
1.991043e+000 1.493356e+000 -9.313871e+000 188 166 142
2.814421e+000 1.650166e+000 -9.700839e+000 64 52 30
5.231322e+000 1.590698e+000 -1.181518e+001 167 139 134
5.231322e+000 1.590698e+000 -1.181518e+001 167 139 134
5.350685e+000 1.756705e+000 -1.166573e+001 236 187 185
5.429804e+000 1.780967e+000 -1.152600e+001 220 138 145
5.429885e+000 1.780894e+000 -1.152630e+001 220 138 145
5.317530e+000 1.721101e+000 -1.178265e+001 202 126 117
-1.726309e+000 1.045357e+000 -9.116212e+000 192 175 154
1.942324e+000 1.210688e+000 -9.017192e+000 188 179 161
3.531833e+000 1.402928e+000 -1.027553e+001 83 61 38
5.628354e+000 1.437582e+000 -1.109022e+001 214 89 75
-2.830868e+000 5.846018e-001 -8.993007e+000 104 62 44
-2.905597e+000 5.329717e-001 -9.041039e+000 214 205 201
8.048009e-001 9.283915e-001 -9.207030e+000 142 99 75
1.351224e+000 9.440095e-001 -9.995852e+000 93 55 32
1.938364e+000 8.274749e-001 -8.660060e+000 106 110 82
2.959870e+000 9.974537e-001 -9.013342e+000 84 76 55
3.105763e+000 1.043840e+000 -8.999808e+000 86 72 46
3.693163e+000 1.006704e+000 -9.874928e+000 77 57 33
4.417152e+000 1.018583e+000 -1.040171e+001 139 111 87
-1.969143e+000 4.229132e-001 -9.890653e+000 107 90 78
4.712454e-001 6.522929e-001 -9.288544e+000 144 107 89
1.587713e+000 7.600405e-001 -8.952462e+000 191 163 103
1.958819e+000 7.729960e-001 -8.520998e+000 99 104 74
2.673912e+000 8.179080e-001 -8.625470e+000 63 53 39
-1.485463e+000 1.932128e-001 -9.678552e+000 110 83 66
-9.998874e-001 1.866244e-001 -9.826524e+000 187 131 126
2.445840e+000 5.461750e-001 -8.995699e+000 44 30 29
