ply
format ascii 1.0
element face 0
property list uchar int vertex_indices
element vertex 877
property float x
property float y
property float z
property uchar diffuse_red
property uchar diffuse_green
property uchar diffuse_blue
end_header
5.519589e+000 -1.155042e+000 -1.079250e+001 213 150 64
-1.670548e+000 -1.639662e-001 -1.063447e+001 203 163 145
1.052728e+000 -7.890267e-001 -9.570464e+000 209 192 166
-1.719101e+000 -6.428401e-001 -1.072053e+001 214 177 158
1.548532e+000 -1.306316e+000 -9.663557e+000 60 52 39
2.786813e+000 -1.976354e+000 -1.098148e+001 76 58 38
5.189716e+000 -2.263226e+000 -1.131305e+001 211 140 65
4.826525e+000 -2.611200e+000 -1.170650e+001 230 199 148
4.756815e+000 -2.957446e+000 -1.179011e+001 197 181 170
5.209133e+000 3.268750e+000 -1.211150e+001 180 92 85
1.505199e+000 1.793116e+000 -9.784531e+000 194 168 141
1.783077e+000 1.574312e+000 -9.469264e+000 182 157 129
7.171982e-001 1.447502e+000 -9.481466e+000 208 172 151
7.655831e-001 1.431883e+000 -9.475483e+000 145 103 87
2.909830e+000 8.947438e-001 -8.972743e+000 75 69 53
5.284101e+000 1.671876e+000 -1.179280e+001 242 187 184
5.498086e+000 1.153389e+000 -1.126956e+001 225 177 126
5.853927e-001 7.179508e-001 -9.057604e+000 174 138 115
3.140250e+000 4.036632e-001 -8.821458e+000 60 46 33
-9.745885e-002 -2.160593e-001 -8.949085e+000 232 196 180
4.777723e+000 -6.332486e-001 -1.038047e+001 89 64 38
-1.216285e-001 -5.339470e-001 -8.763038e+000 189 162 142
1.429759e+000 -6.733979e-001 -9.324246e+000 180 153 123
-5.311263e-001 -8.712957e-001 -9.274538e+000 201 151 142
-4.500343e-001 -7.400317e-001 -9.429120e+000 177 103 102
-4.548485e-001 -8.717852e-001 -9.282137e+000 172 115 108
1.454932e-001 -1.807767e+000 -1.029242e+001 150 121 87
-6.858182e-001 -2.016938e+000 -1.164734e+001 174 138 119
4.670093e+000 -2.978448e+000 -1.189682e+001 134 116 107
-1.329071e-001 -3.241617e+000 -1.168928e+001 186 170 147
4.079011e+000 -4.008360e+000 -1.266637e+001 145 131 126
5.517833e+000 3.506292e+000 -1.158881e+001 212 105 97
5.748759e+000 3.124452e+000 -1.098299e+001 105 97 94
1.527133e+000 2.765433e+000 -1.058857e+001 155 135 111
1.800717e+000 2.390343e+000 -1.032519e+001 99 79 65
1.045560e+000 2.457557e+000 -1.067462e+001 94 86 65
1.207413e+000 1.941501e+000 -9.966368e+000 141 111 83
1.732362e+000 1.735468e+000 -9.648205e+000 184 162 138
4.163604e+000 2.008334e+000 -1.150995e+001 142 115 90
4.772790e-001 1.649388e+000 -9.494810e+000 180 132 122
7.621985e-001 1.471216e+000 -9.476267e+000 216 180 157
2.900937e+000 1.314671e+000 -9.322619e+000 48 42 25
5.380429e+000 1.359163e+000 -1.159384e+001 183 68 63
5.180506e+000 3.464698e-001 -1.030841e+001 136 105 77
1.836275e+000 -2.233011e-001 -8.723221e+000 176 161 137
4.828393e+000 -2.457931e-001 -1.011496e+001 105 77 55
-1.856648e+000 -2.477121e-001 -1.064976e+001 165 113 95
4.373811e+000 -1.113966e+000 -1.080998e+001 108 83 56
2.202859e+000 -1.388397e+000 -1.006877e+001 60 46 33
3.844197e+000 -1.563449e+000 -1.104607e+001 120 100 75
2.143104e+000 -1.409047e+000 -1.014945e+001 54 46 25
4.265051e+000 -1.936497e+000 -1.154772e+001 120 94 67
1.417781e+000 -1.752981e+000 -9.952568e+000 113 103 93
-3.037533e-001 -1.842665e+000 -1.072826e+001 86 65 46
4.799310e+000 -2.697676e+000 -1.178089e+001 231 210 185
4.942759e+000 -2.618753e+000 -1.149383e+001 215 200 198
4.626781e+000 -3.073378e+000 -1.203744e+001 217 200 192
4.463098e+000 -3.305924e+000 -1.216876e+001 216 199 183
4.581638e+000 -3.286718e+000 -1.194323e+001 214 203 198
4.056699e+000 -3.992567e+000 -1.281852e+001 219 195 164
5.050055e+000 3.677717e+000 -1.245906e+001 238 214 207
4.588304e+000 3.503619e+000 -1.333920e+001 221 133 94
4.978995e+000 3.213602e+000 -1.255240e+001 179 89 85
-3.602432e+000 1.837582e+000 -8.205037e+000 154 124 89
1.047773e+000 1.692543e+000 -9.767747e+000 146 88 73
1.676284e+000 1.655670e+000 -9.636293e+000 190 166 136
5.338025e+000 1.500953e+000 -1.167268e+001 195 87 77
2.913686e+000 8.390372e-001 -8.973960e+000 44 35 23
1.319110e-001 8.607212e-001 -9.302208e+000 176 132 115
2.550270e+000 3.899076e-001 -8.570311e+000 58 49 39
1.212949e+000 6.909374e-001 -9.756459e+000 165 124 102
1.846622e+000 2.805102e-001 -8.729963e+000 169 152 126
2.457067e+000 1.054384e-001 -8.593477e+000 62 50 34
3.958922e+000 -4.453762e-001 -9.871615e+000 79 59 34
5.315576e+000 -1.036845e+000 -1.112619e+001 145 90 43
9.487305e-001 -9.769449e-001 -9.669332e+000 98 93 70
2.890589e+000 -1.708777e+000 -1.079328e+001 81 63 43
1.164445e+000 -1.790315e+000 -9.957310e+000 125 102 74
1.764044e+000 -1.849835e+000 -1.003411e+001 72 62 52
3.964373e+000 -2.019040e+000 -1.148354e+001 86 65 40
2.848719e+000 -2.320092e+000 -1.129249e+001 113 92 71
3.008919e+000 -2.479025e+000 -1.147885e+001 88 66 43
4.657839e+000 -3.172371e+000 -1.183028e+001 224 208 199
5.298547e+000 3.851672e+000 -1.198489e+001 243 232 230
5.804742e+000 3.324601e+000 -1.086179e+001 99 98 98
5.804742e+000 3.324601e+000 -1.086179e+001 99 98 98
5.757467e+000 3.178828e+000 -1.094221e+001 242 241 246
4.643410e+000 4.086733e+000 -1.328167e+001 238 158 104
4.862021e+000 3.981054e+000 -1.279760e+001 188 133 93
5.363767e+000 3.549781e+000 -1.182958e+001 212 109 93
4.808673e+000 3.275006e+000 -1.287916e+001 172 141 112
4.956780e+000 3.157791e+000 -1.263293e+001 233 223 229
4.956780e+000 3.157791e+000 -1.263293e+001 233 223 229
4.149575e+000 3.798981e+000 -1.406757e+001 208 132 86
4.898304e+000 2.973255e+000 -1.268701e+001 232 226 233
4.898304e+000 2.973255e+000 -1.268701e+001 232 226 233
-3.831004e+000 2.270859e+000 -8.497476e+000 170 138 116
4.827796e+000 2.627456e+000 -1.264202e+001 159 87 74
3.869207e-001 1.678324e+000 -9.532742e+000 188 131 122
5.253325e+000 1.876175e+000 -1.189051e+001 205 147 73
2.967176e+000 5.225452e-001 -8.877149e+000 246 241 216
1.942420e+000 -7.791526e-001 -9.427954e+000 54 44 35
6.941615e-001 -8.566915e-001 -9.618119e+000 123 94 80
-8.786019e-001 -6.933786e-001 -9.908080e+000 169 117 113
6.809672e-001 -1.330106e+000 -9.845788e+000 195 186 158
3.425275e+000 -1.604803e+000 -1.090503e+001 108 90 68
3.625831e+000 -2.752197e+000 -1.206032e+001 139 115 90
4.388574e+000 -3.485443e+000 -1.225875e+001 233 203 171
4.389991e+000 -3.487910e+000 -1.227363e+001 233 203 171
-2.715021e-001 -3.636406e+000 -1.193458e+001 177 159 139
5.531461e+000 3.690726e+000 -1.153927e+001 146 123 93
4.850706e+000 3.278713e+000 -1.278280e+001 231 222 226
-3.162663e+000 2.566303e+000 -8.576655e+000 138 111 80
4.080192e+000 3.878786e+000 -1.422079e+001 235 183 107
4.884213e+000 2.886490e+000 -1.276918e+001 177 96 94
4.954606e+000 3.051605e+000 -1.265125e+001 171 90 96
5.582288e+000 2.278111e+000 -1.120246e+001 143 104 65
1.232305e+000 1.833871e+000 -9.940764e+000 147 102 58
5.258056e+000 1.960420e-001 -1.028770e+001 140 110 82
3.186497e+000 -1.030222e+000 -1.021036e+001 96 78 56
3.797623e+000 -1.238194e+000 -1.071565e+001 121 101 77
5.427433e+000 -1.177010e+000 -1.092106e+001 170 149 140
5.433582e+000 -1.177635e+000 -1.094184e+001 170 149 140
1.011152e+000 -1.099676e+000 -9.616918e+000 139 143 110
5.246564e+000 -1.745389e+000 -1.116303e+001 159 141 135
2.830241e+000 -1.517227e+000 -1.056007e+001 106 87 71
9.628594e-001 -1.639923e+000 -9.927367e+000 147 106 70
3.246896e+000 -2.042185e+000 -1.121994e+001 91 71 47
4.680011e+000 -2.281937e+000 -1.214643e+001 128 72 36
5.115794e+000 -2.206606e+000 -1.125794e+001 228 208 197
-4.074462e-002 -2.255008e+000 -1.024006e+001 200 187 157
1.204491e-001 -3.268401e+000 -1.132384e+001 191 171 146
5.762900e+000 3.344492e+000 -1.099659e+001 237 233 238
5.756598e+000 3.217121e+000 -1.115686e+001 239 233 236
5.756598e+000 3.217121e+000 -1.115686e+001 239 233 236
4.974741e+000 3.836752e+000 -1.257304e+001 234 146 111
4.533784e+000 3.857180e+000 -1.341070e+001 209 119 84
4.536850e+000 3.859898e+000 -1.342030e+001 209 119 84
5.002802e+000 3.123707e+000 -1.254423e+001 239 228 230
-3.108017e+000 2.104346e+000 -8.269538e+000 120 91 59
5.628596e+000 1.673826e+000 -1.114594e+001 214 186 168
-2.318832e+000 1.749701e+000 -8.772314e+000 121 94 75
4.519658e+000 1.479383e+000 -1.118061e+001 150 120 96
2.175632e+000 6.512327e-001 -8.660114e+000 105 76 47
5.445179e+000 9.967307e-001 -1.101772e+001 198 69 69
5.445179e+000 9.967307e-001 -1.101772e+001 198 69 69
1.899702e+000 5.454553e-001 -8.584261e+000 84 90 63
9.777431e-002 -2.185524e-001 -8.713422e+000 191 164 143
1.158968e+000 -2.061196e+000 -1.016778e+001 159 158 130
4.716764e+000 -2.843915e+000 -1.189174e+001 230 187 67
1.594593e+000 -3.466657e+000 -1.200623e+001 93 74 53
3.166656e+000 -4.361974e+000 -1.360873e+001 180 156 119
5.780012e+000 3.078266e+000 -1.091219e+001 99 100 95
5.780012e+000 3.078266e+000 -1.091219e+001 99 100 95
4.347370e+000 3.956055e+000 -1.374558e+001 207 117 90
4.347370e+000 3.956055e+000 -1.374558e+001 207 117 90
4.649587e+000 3.484872e+000 -1.315504e+001 238 182 105
4.923538e+000 3.272647e+000 -1.259366e+001 180 88 93
-2.377454e+000 1.838541e+000 -8.673363e+000 163 149 136
1.090834e+000 1.561893e+000 -9.756196e+000 114 68 46
1.089877e+000 1.563116e+000 -9.760416e+000 114 68 46
4.615410e+000 1.736829e+000 -1.146771e+001 114 89 65
5.625114e+000 1.432179e+000 -1.112912e+001 202 97 97
-3.095983e+000 1.372346e+000 -8.197627e+000 108 78 49
4.509967e+000 -5.966144e-001 -1.025020e+001 131 106 84
3.620706e-001 -4.195825e-001 -8.903069e+000 186 163 148
3.351676e+000 -1.056891e+000 -1.029283e+001 102 84 60
3.356075e+000 -1.057036e+000 -1.030130e+001 102 84 60
-1.289624e+001 -3.629471e+000 -4.437588e+001 228 231 227
-1.367784e+001 -4.220409e+000 -4.181148e+001 200 141 119
-1.231686e+001 -4.067251e+000 -4.335132e+001 161 143 129
4.862841e+000 3.813903e+000 -1.282251e+001 237 227 227
4.684408e+000 2.998979e+000 -1.299803e+001 220 126 101
4.351532e-001 1.764468e+000 -9.482940e+000 208 180 159
-2.310094e+000 1.475298e+000 -8.855058e+000 106 78 56
3.658965e+000 -3.774954e-001 -9.670100e+000 112 91 70
2.185684e+000 -1.456150e+000 -1.013560e+001 67 51 39
3.397260e+000 -1.707296e+000 -1.108456e+001 101 81 57
5.713702e+000 3.461853e+000 -1.135084e+001 199 93 92
2.040991e+000 9.756790e-001 -8.754734e+000 223 216 197
5.380166e+000 3.340293e+000 -1.164466e+001 185 87 86
-6.867423e-001 -5.994993e-001 -9.578986e+000 214 175 163
1.726249e+000 -2.794115e+000 -1.120777e+001 165 151 135
4.306108e+000 -6.673044e-001 -1.016985e+001 125 99 74
3.694677e+000 -1.578951e+000 -1.085840e+001 118 98 74
5.734579e+000 3.243000e+000 -1.097695e+001 179 166 157
5.734579e+000 3.243000e+000 -1.097695e+001 179 166 157
2.017624e+000 2.351971e+000 -1.011551e+001 107 92 71
-3.452200e+000 2.310634e+000 -8.373311e+000 107 76 55
3.512814e-001 2.209321e+000 -9.995103e+000 213 170 163
2.563913e+000 2.147565e+000 -1.021487e+001 63 42 19
1.993439e+000 1.383545e+000 -9.148400e+000 165 146 120
5.436095e+000 1.756760e+000 -1.148110e+001 231 188 179
1.007586e+000 1.643305e+000 -9.760010e+000 166 124 107
1.198381e+000 1.551028e+000 -9.924552e+000 136 99 75
2.133041e+000 9.207742e-001 -8.706434e+000 149 127 95
2.583691e+000 8.254847e-001 -8.616656e+000 91 86 64
2.613165e+000 5.705078e-001 -8.545560e+000 93 84 69
3.676317e+000 9.917303e-001 -9.869724e+000 78 58 33
3.084646e+000 5.693344e-001 -8.853735e+000 77 66 46
2.448062e+000 2.385350e-001 -8.543643e+000 113 106 89
3.096150e+000 3.945726e-001 -8.793500e+000 210 199 180
4.103148e+000 2.593430e-001 -9.606771e+000 80 58 37
4.238148e+000 -8.469382e-002 -9.739023e+000 115 93 69
1.684563e+000 -3.753383e-001 -8.904152e+000 194 182 160
-1.672627e+000 -1.651504e-001 -1.064592e+001 203 163 145
2.303016e+000 -1.080326e+000 -9.930276e+000 196 190 170
-2.738252e-001 -1.966282e+000 -1.067782e+001 110 81 52
4.750292e+000 -2.934702e+000 -1.167207e+001 157 143 135
5.294937e+000 3.621605e+000 -1.192212e+001 230 150 117
5.803550e+000 2.809766e+000 -1.085253e+001 144 127 123
2.020568e+000 2.487135e+000 -1.018867e+001 80 65 46
8.078170e-001 2.529416e+000 -1.055961e+001 217 191 167
1.242652e+000 2.463257e+000 -1.029660e+001 129 128 100
1.323780e+000 2.408410e+000 -1.019014e+001 144 138 110
1.054015e+000 2.193467e+000 -1.030911e+001 67 61 39
3.107636e-001 2.065359e+000 -1.009014e+001 222 181 157
4.410935e-001 1.634027e+000 -9.554508e+000 198 145 136
7.911819e-001 1.397164e+000 -9.483422e+000 183 141 127
1.400023e+000 1.615980e+000 -9.898371e+000 211 185 157
2.909668e+000 1.134146e+000 -9.116663e+000 46 37 19
5.363739e+000 1.645290e+000 -1.165580e+001 219 156 147
5.352288e+000 1.641803e+000 -1.163374e+001 219 156 147
-4.674523e-001 1.866051e+000 -1.151519e+001 171 126 117
-5.778683e-001 1.837616e+000 -1.156723e+001 143 87 84
4.156289e+000 3.606008e-001 -9.659208e+000 94 70 46
3.029931e+000 1.271131e-001 -8.862248e+000 76 64 50
4.686417e+000 1.234609e-001 -9.898180e+000 95 71 47
4.578386e+000 -1.800764e-001 -9.943441e+000 118 94 68
4.724128e-001 -2.632163e-001 -9.043563e+000 98 57 44
4.969924e+000 -5.512268e-001 -1.036111e+001 106 79 52
5.466312e+000 -7.753395e-001 -1.086763e+001 137 94 55
5.534642e+000 -9.207352e-001 -1.082373e+001 227 219 215
1.731726e+000 -9.987082e-001 -9.600638e+000 58 48 38
2.369282e+000 -8.732146e-001 -9.762838e+000 72 66 46
5.480400e+000 -1.339013e+000 -1.090383e+001 199 144 90
1.202809e+000 -9.922248e-001 -9.448607e+000 211 190 161
2.090621e+000 -1.373993e+000 -1.018217e+001 99 92 57
3.729261e+000 -1.877860e+000 -1.125086e+001 112 86 63
4.946790e+000 -2.522842e+000 -1.148167e+001 213 200 200
4.946790e+000 -2.522842e+000 -1.148167e+001 213 200 200
5.466498e+000 2.995867e+000 -1.152546e+001 140 126 113
-3.602234e+000 2.261048e+000 -8.388773e+000 93 61 39
1.144895e+000 2.416097e+000 -1.059739e+001 101 96 73
3.667171e+000 1.736516e+000 -1.085948e+001 114 89 67
5.285672e+000 1.824680e+000 -1.181960e+001 237 221 224
2.553533e+000 1.051532e+000 -8.752554e+000 77 69 48
-3.754368e+000 1.371048e+000 -8.388535e+000 157 126 92
8.161901e-001 1.068050e+000 -9.247748e+000 144 99 76
4.353056e+000 9.585499e-001 -1.033578e+001 104 74 49
4.286392e+000 2.451622e-001 -9.776881e+000 110 88 65
5.193632e+000 2.890700e-001 -1.026680e+001 101 70 42
3.720434e+000 1.537824e-001 -9.394137e+000 77 56 35
3.963995e+000 -1.102668e-001 -9.599176e+000 116 97 73
3.846229e+000 -2.158342e-001 -9.594534e+000 94 73 53
-1.452181e-002 -2.149146e-001 -8.829717e+000 186 137 124
3.533107e+000 -1.181635e+000 -1.051710e+001 102 85 63
4.428559e+000 -1.224642e+000 -1.092061e+001 113 87 60
5.401433e+000 -1.344902e+000 -1.095145e+001 227 220 212
-1.655127e+000 -6.387825e-001 -1.065928e+001 175 133 117
3.634738e+000 -1.212314e+000 -1.059621e+001 96 80 55
-1.201205e+000 -1.094764e+000 -9.874671e+000 197 145 132
-1.215098e+000 -1.261535e+000 -9.905745e+000 184 134 129
5.205991e+000 -1.801637e+000 -1.119798e+001 230 216 212
9.404616e-002 -1.860890e+000 -1.032575e+001 155 129 91
1.832899e+000 -2.122880e+000 -1.027183e+001 59 49 40
4.848634e+000 -2.360528e+000 -1.182614e+001 219 142 56
5.219417e+000 3.848742e+000 -1.211280e+001 182 154 95
4.391285e+000 3.913868e+000 -1.367483e+001 203 115 86
4.858167e+000 3.752384e+000 -1.293628e+001 232 155 128
5.486316e+000 3.177430e+000 -1.153639e+001 232 211 213
5.485713e+000 3.177001e+000 -1.153431e+001 232 211 213
5.445338e+000 3.160103e+000 -1.158652e+001 173 86 85
-3.266220e+000 2.606686e+000 -8.582889e+000 79 46 26
5.033215e+000 3.221043e+000 -1.248462e+001 233 207 214
5.034822e+000 3.221542e+000 -1.248803e+001 233 207 214
-3.215578e+000 1.899994e+000 -8.232981e+000 156 127 93
-3.207307e+000 1.735953e+000 -8.238922e+000 110 81 49
4.971833e+000 2.336696e+000 -1.243511e+001 164 94 50
5.186597e+000 2.172339e+000 -1.206691e+001 220 168 87
2.097393e+000 1.265165e+000 -9.020317e+000 153 132 102
5.407380e+000 1.331414e+000 -1.152120e+001 230 210 215
1.759992e+000 7.938648e-001 -8.867101e+000 155 129 99
4.813088e+000 4.774022e-001 -1.009741e+001 111 81 53
5.274229e+000 3.573384e-001 -1.033979e+001 101 69 44
1.796062e+000 2.411381e-001 -8.760378e+000 146 124 95
4.329751e+000 4.980335e-003 -9.773391e+000 85 60 37
3.677336e+000 -5.973898e-001 -9.862253e+000 86 67 42
3.547923e+000 -6.812873e-001 -9.922502e+000 85 65 41
1.212564e+000 -8.025537e-001 -9.421766e+000 174 153 125
4.720290e+000 -1.223625e+000 -1.104890e+001 111 80 51
7.410319e-001 -1.031563e+000 -9.595127e+000 100 103 81
1.666161e+000 -1.376350e+000 -9.923403e+000 63 54 43
2.716092e+000 -1.693993e+000 -1.068395e+001 89 68 51
5.568590e+000 3.178857e+000 -1.133065e+001 234 227 229
4.784339e+000 3.470188e+000 -1.290836e+001 182 121 95
4.701969e+000 3.285649e+000 -1.312205e+001 214 118 94
4.909277e+000 3.389799e+000 -1.281195e+001 196 106 108
-3.238544e+000 2.099383e+000 -8.246105e+000 129 99 64
1.579728e+000 2.079134e+000 -1.005010e+001 169 145 121
-3.689106e+000 1.895188e+000 -8.336896e+000 134 100 70
5.037254e+000 2.326604e+000 -1.234613e+001 226 178 86
5.124415e+000 2.213460e+000 -1.217863e+001 231 178 101
-3.511613e+000 1.578350e+000 -8.259622e+000 153 120 85
-3.589963e+000 1.402391e+000 -8.258355e+000 154 125 93
4.285114e+000 1.879210e-001 -9.720184e+000 107 86 63
9.861604e-001 -4.060745e-001 -9.447907e+000 149 115 88
1.145262e+000 -1.020717e+000 -9.477928e+000 211 197 171
2.952507e+000 -1.454181e+000 -1.053378e+001 98 80 58
3.152797e-001 -1.738324e+000 -1.038200e+001 168 135 103
4.568776e+000 -3.245430e+000 -1.203657e+001 152 139 126
6.765994e-001 -3.147880e+000 -1.127604e+001 128 120 109
-3.357071e+000 2.545931e+000 -8.497148e+000 93 58 39
4.979441e+000 2.795305e+000 -1.255163e+001 237 229 234
-1.004009e-001 1.622668e+000 -1.023470e+001 222 171 168
1.345270e+000 5.795516e-001 -9.455426e+000 189 165 144
4.555509e+000 3.294960e-001 -9.900401e+000 95 71 47
5.248777e+000 -3.343731e-001 -1.038075e+001 115 82 51
-4.870879e-001 -1.137712e-001 -9.559936e+000 216 168 158
3.914010e+000 -1.009661e+000 -1.050082e+001 96 75 48
4.345327e+000 4.063369e+000 -1.363645e+001 209 120 84
4.345327e+000 4.063369e+000 -1.363645e+001 209 120 84
4.211786e+000 2.008082e+000 -1.144200e+001 144 117 91
3.910453e+000 1.093995e+000 -1.012578e+001 140 113 86
4.795983e+000 4.785797e-001 -1.010641e+001 107 77 49
-1.771931e+000 8.952433e-001 -9.216035e+000 118 98 81
3.594333e-001 -1.297333e+000 -1.002524e+001 167 143 114
4.313783e+000 -3.359211e+000 -1.241066e+001 236 181 66
5.074538e+000 3.918043e+000 -1.248402e+001 243 231 238
4.634801e+000 3.724931e+000 -1.327753e+001 240 173 103
1.659613e+000 -1.787008e+000 -1.006251e+001 50 40 32
6.176947e-001 -2.501168e+000 -1.051736e+001 241 237 228
-1.409357e+001 -4.932261e+000 -4.253554e+001 238 200 153
-1.310315e+001 -5.199310e+000 -4.192617e+001 217 151 116
-1.149855e+001 -7.712122e+000 -4.626643e+001 234 173 169
5.584319e+000 2.061259e+000 -1.121128e+001 232 222 221
-1.476347e+001 -5.160886e+000 -4.282920e+001 182 103 72
-1.476347e+001 -5.160886e+000 -4.282920e+001 182 103 72
-1.390773e+001 -5.813818e+000 -4.283112e+001 234 186 140
-1.075317e+001 -5.284423e+000 -4.407137e+001 226 225 215
-1.063919e+001 -6.630726e+000 -4.419780e+001 232 228 216
3.306602e+000 -1.480718e-001 -9.240604e+000 153 141 124
1.592674e+000 -2.464335e+000 -1.060248e+001 65 52 44
-1.292225e+001 -4.569584e+000 -4.244219e+001 221 220 202
-1.583361e+001 -4.815379e+000 -4.224023e+001 155 88 68
-1.531357e+001 -5.540821e+000 -4.227767e+001 235 195 149
-1.099224e+001 -5.900920e+000 -4.396809e+001 82 68 55
-1.099024e+001 -5.897275e+000 -4.396617e+001 82 68 55
-2.760559e+000 8.950604e-001 -8.929068e+000 201 185 167
-2.760559e+000 8.950604e-001 -8.929068e+000 201 185 167
5.507599e+000 2.797650e+000 -1.143375e+001 173 111 116
1.299592e+000 2.459713e+000 -1.024794e+001 111 111 83
1.854273e+000 2.386786e+000 -1.018271e+001 94 73 54
4.229960e-002 2.046817e+000 -1.024396e+001 229 183 169
2.254191e-001 2.086605e+000 -1.012121e+001 210 175 153
6.882170e-001 1.576623e+000 -9.440046e+000 195 154 134
1.276557e+000 1.840668e+000 -1.001356e+001 145 106 64
2.591089e+000 1.114179e+000 -8.791204e+000 85 69 56
3.115833e+000 8.116349e-001 -8.868344e+000 100 86 60
2.593679e+000 3.647148e-001 -8.553318e+000 107 99 81
2.379627e+000 3.262678e-001 -8.547658e+000 109 103 84
2.434582e+000 1.413102e-001 -8.633863e+000 112 104 85
2.434582e+000 1.413102e-001 -8.633863e+000 112 104 85
4.569217e+000 1.746284e-001 -9.889027e+000 88 64 40
2.733436e+000 -4.300245e-002 -9.082355e+000 91 83 74
-1.752299e+000 -1.123944e-001 -1.065383e+001 187 141 123
2.541717e+000 -7.113954e-001 -9.608092e+000 119 111 95
5.543452e+000 -8.876917e-001 -1.074488e+001 150 140 127
5.543463e+000 -8.874508e-001 -1.074408e+001 150 140 127
5.561032e+000 -9.614022e-001 -1.077909e+001 221 204 197
-1.770861e+000 -5.704878e-001 -1.078740e+001 192 156 132
-1.190513e+000 -1.059960e+000 -9.879707e+000 190 135 121
1.341003e+000 -1.268866e+000 -9.563787e+000 147 124 95
9.621226e-001 2.760722e+000 -1.059671e+001 206 190 164
1.462973e+000 2.426559e+000 -1.033188e+001 144 124 98
1.274294e-001 2.077664e+000 -1.019798e+001 194 158 134
1.429776e+000 1.915736e+000 -9.898152e+000 147 117 86
3.375676e+000 2.065288e+000 -1.104555e+001 115 91 67
1.589018e+000 1.009509e+000 -9.011009e+000 82 81 61
1.229436e+000 1.145219e+000 -9.820130e+000 116 71 52
3.119313e+000 7.671681e-001 -8.941267e+000 114 104 77
3.086893e+000 5.061315e-001 -8.875047e+000 60 48 24
2.445644e+000 1.881475e-001 -8.601099e+000 114 106 88
2.558724e+000 -4.707686e-001 -9.436459e+000 71 61 37
3.851598e+000 -5.369951e-001 -9.903703e+000 76 54 31
2.807512e+000 -6.505182e-001 -9.660194e+000 171 157 143
3.470565e+000 -8.271190e-001 -1.007235e+001 79 61 37
5.535730e+000 -9.215194e-001 -1.082569e+001 227 219 215
-5.320295e-001 -8.727010e-001 -9.283055e+000 201 151 142
-3.713592e-001 -9.391528e-001 -9.274388e+000 180 124 114
-1.399090e+000 -1.174853e+000 -9.822355e+000 199 155 144
3.410759e+000 -1.501643e+000 -1.084785e+001 90 74 51
6.648563e-001 -1.665456e+000 -1.015964e+001 176 156 133
8.720132e-001 -1.649993e+000 -9.893557e+000 183 160 129
1.279042e+000 -1.935981e+000 -1.004305e+001 102 93 75
-7.758784e-002 2.135925e+000 -1.036664e+001 221 182 164
2.045791e+000 1.406309e+000 -9.213242e+000 162 140 116
3.590944e+000 1.796633e+000 -1.088266e+001 119 94 72
5.602337e+000 1.599426e+000 -1.113700e+001 211 187 164
2.904321e+000 9.194920e-001 -9.007189e+000 47 41 25
5.418057e+000 1.503298e+000 -1.152902e+001 231 207 217
3.897740e-001 7.790771e-001 -8.991425e+000 225 196 175
4.492475e+000 4.932562e-001 -9.894462e+000 107 79 55
-1.697384e+000 7.130614e-001 -9.220404e+000 125 108 87
1.979016e+000 1.502000e-001 -8.559917e+000 210 195 172
1.679771e+000 -6.263922e-002 -8.718866e+000 182 176 146
1.357241e+000 -3.760690e-001 -9.291030e+000 161 134 106
8.137167e-001 -1.557453e+000 -9.881704e+000 200 187 165
1.371381e+000 -1.867002e+000 -9.973405e+000 139 133 110
5.217704e+000 3.848915e+000 -1.210926e+001 182 154 95
-3.502751e+000 2.507947e+000 -8.422807e+000 140 112 100
-3.723180e+000 1.674318e+000 -8.282610e+000 126 95 66
1.934599e+000 1.482884e+000 -9.326869e+000 144 118 92
2.022683e+000 1.117583e+000 -8.922402e+000 244 241 226
3.033257e+000 1.001843e+000 -9.032833e+000 59 46 24
4.024013e+000 1.258801e+000 -1.051554e+001 143 112 87
3.440112e+000 -1.137716e+000 -1.044877e+001 108 90 70
1.584959e+000 -1.873759e+000 -9.953031e+000 56 48 37
3.371912e+000 -2.297081e+000 -1.148513e+001 94 70 46
1.875299e+000 -3.784147e+000 -1.245156e+001 97 76 53
1.274222e+000 1.683671e+000 -9.877382e+000 142 109 81
4.664591e+000 6.973138e-001 -1.019630e+001 123 94 64
4.770237e+000 1.438470e-001 -9.967275e+000 118 94 70
1.462486e+000 -4.194143e-001 -9.276793e+000 175 148 122
4.192693e+000 -3.313918e-001 -9.878443e+000 78 57 35
1.037319e+000 -9.597792e-001 -9.685951e+000 89 78 52
5.969262e-001 -1.789904e+000 -1.017966e+001 225 208 189
2.364525e+000 -2.173136e+000 -1.092727e+001 88 70 48
5.150501e+000 3.871601e+000 -1.215567e+001 240 232 230
4.875773e+000 2.880614e+000 -1.274033e+001 177 96 94
5.068095e+000 2.118459e+000 -1.225255e+001 163 94 52
-2.129896e+000 1.530619e+000 -8.954648e+000 157 137 116
2.037632e+000 9.932302e-001 -8.768101e+000 252 250 236
2.812451e+000 6.586818e-002 -9.005628e+000 44 38 30
3.106042e+000 -1.090402e+000 -1.025836e+001 96 75 58
-1.793320e-001 -2.690933e+000 -1.080251e+001 157 122 62
-5.998775e-001 4.894786e+000 -2.141213e+001 231 159 153
1.671902e+000 9.905284e-001 -9.039120e+000 62 61 40
3.043162e+000 6.841857e-001 -8.893461e+000 61 47 39
-2.643199e+000 5.164377e-001 -9.154442e+000 173 153 136
4.806757e+000 -1.070606e+000 -1.089829e+001 126 96 67
-1.672791e+001 -4.909118e+000 -4.205587e+001 160 96 72
-1.273289e+001 -7.175959e+000 -4.378294e+001 206 188 174
2.064584e+000 1.506631e+000 -9.239081e+000 77 61 44
5.173091e+000 2.020672e+000 -1.202919e+001 232 199 108
9.365182e-001 1.176901e+000 -9.395917e+000 125 73 57
1.871860e+000 8.589932e-001 -8.874304e+000 181 164 138
5.192658e-001 6.197738e-001 -9.403638e+000 152 111 89
4.157132e+000 2.797119e-001 -9.633104e+000 93 71 50
3.920118e+000 -1.123817e+000 -1.059564e+001 123 101 77
9.948640e-001 -1.153399e+000 -9.675014e+000 138 142 110
4.183310e+000 -3.014696e+000 -1.263284e+001 129 70 40
-1.214693e+001 -6.159293e+000 -4.202965e+001 200 151 130
1.099701e+000 -3.300104e+000 -1.169531e+001 69 56 48
-1.241780e+001 -7.517761e+000 -4.380198e+001 175 132 115
8.543984e-001 1.820452e+000 -9.732969e+000 135 87 70
3.967841e+000 2.578069e-001 -9.543176e+000 115 95 70
-2.857010e+000 5.462168e-001 -9.160283e+000 121 70 55
4.669718e+000 -9.830440e-001 -1.066105e+001 121 95 65
2.815754e+000 -2.190779e+000 -1.118812e+001 112 93 71
-1.617716e+001 -6.282891e+000 -4.307985e+001 178 97 67
-1.311856e+001 -6.431682e+000 -4.275647e+001 250 208 158
-6.843465e-001 -6.002831e-001 -9.548691e+000 214 175 163
9.063999e-002 -7.218291e-001 -9.121644e+000 122 62 53
-1.384470e+001 -7.294513e+000 -4.337866e+001 158 75 51
4.744953e+000 5.684328e-002 -1.068345e+001 120 95 71
2.257905e+000 3.030920e+000 -1.106979e+001 238 230 201
2.257905e+000 3.030920e+000 -1.106979e+001 238 230 201
-3.468794e+000 2.314806e+000 -8.416088e+000 107 76 55
2.216673e-001 2.235988e+000 -1.015671e+001 214 177 159
1.706350e+000 2.128462e+000 -9.998300e+000 152 125 101
1.612480e+000 1.945109e+000 -9.932278e+000 193 174 154
2.183174e+000 2.100328e+000 -9.831267e+000 79 67 43
2.135473e+000 1.941235e+000 -9.596201e+000 105 93 69
-5.886419e-002 2.084946e+000 -1.036685e+001 220 178 160
1.055626e+000 1.884932e+000 -9.965767e+000 215 195 169
6.912551e-001 1.605891e+000 -9.418686e+000 166 126 108
3.642455e+000 1.767946e+000 -1.091567e+001 97 72 50
1.844723e+000 1.485152e+000 -9.352084e+000 173 163 146
2.498101e+000 1.334419e+000 -9.009034e+000 105 92 76
2.948318e+000 1.149932e+000 -9.130141e+000 52 40 23
3.526783e+000 1.387533e+000 -1.029277e+001 85 60 38
3.650678e+000 1.247706e+000 -1.020921e+001 115 95 71
5.288159e+000 1.747208e+000 -1.178700e+001 237 187 179
-1.747167e+000 1.299161e+000 -9.186730e+000 137 116 92
1.958463e-001 1.028468e+000 -8.987231e+000 232 210 192
7.776341e-001 1.135674e+000 -9.342449e+000 159 113 98
2.415934e+000 1.083963e+000 -8.767614e+000 124 116 97
2.628013e+000 1.061723e+000 -8.814925e+000 66 51 32
2.613713e+000 8.345658e-001 -8.625613e+000 164 156 137
3.667116e+000 1.202947e+000 -1.017267e+001 91 69 45
1.520929e+000 7.954756e-001 -8.946843e+000 194 165 91
1.935817e+000 7.782844e-001 -8.564679e+000 131 135 104
2.624761e+000 5.978559e-001 -8.545284e+000 109 100 84
2.982679e+000 5.733512e-001 -8.830612e+000 82 69 51
-1.665746e+000 5.673504e-001 -9.338147e+000 112 95 73
3.053725e+000 3.109877e-001 -8.868956e+000 230 226 204
-1.933129e-001 9.951970e-002 -9.354720e+000 181 143 122
1.990535e+000 1.134721e-001 -8.614863e+000 151 130 103
2.503157e-001 -1.234073e-001 -9.015272e+000 209 170 152
2.800411e+000 -1.972168e-001 -9.121043e+000 225 217 194
2.798503e+000 -1.971216e-001 -9.117978e+000 225 217 194
2.895401e+000 -1.333962e-001 -9.018060e+000 204 198 175
2.832227e+000 -1.468671e-001 -9.065732e+000 179 172 150
-1.691227e+000 -3.262812e-001 -1.072786e+001 203 167 151
1.428193e-003 -3.149344e-001 -8.683026e+000 214 181 165
1.648066e+000 -4.058903e-001 -9.027551e+000 212 201 176
2.636707e+000 -4.746498e-001 -9.398578e+000 190 184 165
1.784962e+000 -8.712154e-001 -9.508959e+000 63 50 34
1.775806e+000 -8.989352e-001 -9.540872e+000 65 53 38
2.301826e+000 -8.438910e-001 -9.809625e+000 204 198 160
-8.444872e-001 -1.108523e+000 -9.315689e+000 213 173 169
1.265993e+000 -1.214922e+000 -9.495698e+000 216 207 188
1.621633e+000 -1.430456e+000 -9.891511e+000 121 112 96
5.190705e+000 -1.555216e+000 -1.110871e+001 231 199 100
9.625138e-001 -1.582967e+000 -9.851282e+000 183 151 119
1.254968e+000 -1.958183e+000 -1.001715e+001 189 181 161
1.197510e+000 -2.945528e+000 -1.139169e+001 82 75 57
4.449056e+000 -3.354706e+000 -1.216258e+001 171 159 153
9.987489e-001 -3.342586e+000 -1.171701e+001 209 202 182
6.436632e-001 -3.911812e+000 -1.207898e+001 141 135 109
9.172809e-001 2.857346e+000 -1.079785e+001 210 194 174
-7.917794e-001 5.082080e+000 -2.196051e+001 235 178 167
7.685703e-001 2.570587e+000 -1.071240e+001 181 157 115
8.604980e-001 2.590708e+000 -1.055308e+001 205 180 152
1.317348e+000 2.371084e+000 -1.020529e+001 93 93 65
1.718923e+000 2.295613e+000 -1.011775e+001 85 57 39
2.120344e+000 2.315012e+000 -1.009131e+001 74 59 38
5.780545e-001 2.225225e+000 -1.006950e+001 205 162 146
5.798688e-001 2.228692e+000 -1.009112e+001 205 162 146
8.604136e-001 2.317554e+000 -1.060370e+001 133 108 85
7.968993e-001 2.213312e+000 -1.021270e+001 140 101 84
1.745835e+000 2.152165e+000 -1.002487e+001 134 108 83
1.811735e+000 1.934247e+000 -9.838357e+000 105 80 59
3.477935e+000 2.215970e+000 -1.132817e+001 100 74 50
3.685384e+000 2.314389e+000 -1.156708e+001 101 77 53
5.628083e+000 2.111673e+000 -1.111346e+001 206 152 63
2.535018e-001 1.797181e+000 -9.669831e+000 189 133 126
3.261053e-001 1.793506e+000 -9.577718e+000 195 141 135
3.941817e-001 1.847356e+000 -9.497587e+000 190 139 135
1.805936e+000 1.880454e+000 -9.829775e+000 155 129 102
2.346771e+000 1.689525e+000 -9.421765e+000 77 64 43
2.408500e+000 1.450296e+000 -9.166147e+000 59 46 30
3.380293e+000 1.984677e+000 -1.094022e+001 115 93 72
4.143724e+000 2.131516e+000 -1.157853e+001 143 111 86
2.503941e-001 1.291339e+000 -9.077894e+000 203 170 156
8.601484e-001 1.289923e+000 -9.432479e+000 152 106 90
1.377131e+000 1.466720e+000 -9.903476e+000 114 78 53
2.545475e+000 1.290800e+000 -9.014800e+000 62 50 33
3.509581e+000 1.424338e+000 -1.035408e+001 112 87 65
3.810513e+000 1.372479e+000 -1.051433e+001 77 55 34
-1.695131e+000 1.303134e+000 -9.173100e+000 124 103 80
8.058609e-001 1.106721e+000 -9.273894e+000 167 122 102
1.574845e+000 1.205836e+000 -9.316119e+000 95 95 69
1.948959e+000 1.137997e+000 -8.942945e+000 174 159 133
1.958540e+000 9.819351e-001 -8.875261e+000 186 168 138
3.048305e+000 1.088434e+000 -9.165864e+000 95 83 59
3.034892e+000 1.046380e+000 -9.067082e+000 184 173 151
-1.685649e+000 7.540566e-001 -9.202877e+000 114 96 78
8.581298e-001 7.920378e-001 -9.335569e+000 163 124 101
2.127254e+000 7.405227e-001 -8.626820e+000 150 131 102
2.587060e+000 6.790023e-001 -9.027005e+000 135 129 106
1.375766e+000 4.528351e-001 -9.857818e+000 190 162 140
1.728911e+000 4.254647e-001 -8.800888e+000 141 131 104
1.908463e+000 5.162443e-001 -8.588631e+000 116 124 89
2.882812e+000 4.607258e-001 -8.910057e+000 40 31 24
3.050738e+000 2.780195e-001 -8.845234e+000 67 58 41
2.334127e+000 6.466203e-002 -8.657234e+000 127 119 96
2.949657e+000 1.672627e-001 -8.868007e+000 70 61 44
3.722614e+000 1.573390e-001 -9.393230e+000 77 56 35
4.692117e+000 1.222692e-001 -9.907490e+000 95 71 47
-1.783974e+000 -3.223689e-001 -1.064102e+001 175 128 108
2.108922e+000 -3.376442e-001 -9.050512e+000 54 47 29
2.433321e+000 -5.840023e-001 -9.526817e+000 227 223 195
2.642865e+000 -3.595116e-001 -9.333935e+000 63 56 31
2.670184e+000 -4.122416e-001 -9.347304e+000 61 49 33
2.558110e+000 -5.377871e-001 -9.507569e+000 227 223 199
-1.601316e+000 -6.119212e-001 -1.064194e+001 197 157 142
5.488958e+000 -1.130826e+000 -1.080603e+001 232 214 210
1.846703e+000 -1.134904e+000 -9.717200e+000 49 40 25
2.197577e+000 -1.216379e+000 -1.007589e+001 246 241 211
5.313042e+000 -1.178545e+000 -1.115239e+001 184 82 55
7.912814e-001 -1.447515e+000 -9.754538e+000 182 178 148
2.049971e+000 -1.535952e+000 -1.021452e+001 75 69 42
2.973630e+000 -1.615358e+000 -1.074704e+001 85 69 46
5.064148e+000 -1.718681e+000 -1.146826e+001 235 184 78
9.175943e-001 -1.727792e+000 -9.888979e+000 179 163 133
1.066327e+000 -1.726952e+000 -9.874378e+000 124 92 63
2.958063e+000 -1.815247e+000 -1.090443e+001 92 76 56
1.115597e+000 -2.060031e+000 -9.970985e+000 152 144 125
4.861939e+000 -2.576746e+000 -1.175859e+001 227 157 64
4.847584e+000 -2.639012e+000 -1.169666e+001 125 112 100
-9.716968e-002 -2.357606e+000 -1.034409e+001 205 184 142
9.983537e-001 -2.605532e+000 -1.085673e+001 94 85 75
4.676242e+000 -2.935741e+000 -1.189064e+001 225 204 194
4.643912e+000 -3.034754e+000 -1.197530e+001 151 134 121
4.836708e+000 -2.716597e+000 -1.168942e+001 114 93 88
4.859287e+000 -2.769499e+000 -1.162569e+001 108 94 94
8.146098e-001 -2.957283e+000 -1.109679e+001 81 72 58
4.418538e+000 -3.375397e+000 -1.213292e+001 203 193 190
8.114526e-001 -3.507428e+000 -1.195541e+001 233 227 204
4.567888e+000 -3.407967e+000 -1.179178e+001 211 135 60
-5.924095e-001 -3.941655e+000 -1.209444e+001 127 135 113
-2.686315e-001 -3.962847e+000 -1.190660e+001 180 165 144
7.966457e-001 -3.832083e+000 -1.197085e+001 115 106 91
4.077701e+000 -4.019155e+000 -1.257382e+001 190 177 175
1.952868e+000 2.704689e+000 -1.039483e+001 96 84 62
-3.540490e+000 2.354635e+000 -8.540527e+000 135 107 83
6.623912e-001 2.589468e+000 -1.099930e+001 205 177 129
1.179720e+000 2.595250e+000 -1.052079e+001 98 93 71
1.179720e+000 2.595250e+000 -1.052079e+001 98 93 71
2.018555e+000 2.649076e+000 -1.038117e+001 76 60 40
2.252834e+000 2.732051e+000 -1.074510e+001 117 97 73
1.116311e+000 2.287537e+000 -1.045967e+001 115 111 89
9.313817e-001 2.156604e+000 -1.031484e+001 107 94 75
1.335033e+000 2.239827e+000 -1.016169e+001 128 123 96
1.325516e+000 2.090110e+000 -9.975777e+000 102 96 74
1.711281e+000 2.248307e+000 -1.011256e+001 166 142 118
2.157535e+000 2.057677e+000 -9.779245e+000 91 76 53
2.231262e+000 2.012487e+000 -9.737684e+000 82 64 45
3.101799e+000 2.131673e+000 -1.089404e+001 106 80 56
3.556194e+000 2.331949e+000 -1.147033e+001 100 73 50
3.371645e+000 2.203385e+000 -1.117036e+001 123 97 73
3.352115e+000 2.135236e+000 -1.108603e+001 123 97 74
3.447832e+000 2.152629e+000 -1.111248e+001 123 97 72
3.839339e+000 2.281082e+000 -1.159094e+001 131 100 78
1.099263e+000 1.851723e+000 -9.826450e+000 152 121 96
2.694854e+000 1.811739e+000 -9.885271e+000 66 50 32
4.310259e+000 2.188408e+000 -1.194333e+001 120 90 64
4.541019e+000 2.113239e+000 -1.189261e+001 147 117 89
7.196090e-001 1.498184e+000 -9.474558e+000 161 124 100
3.722502e+000 1.409965e+000 -1.043023e+001 113 91 67
3.753558e+000 1.419183e+000 -1.052374e+001 113 91 67
4.418124e+000 1.719339e+000 -1.135982e+001 139 111 85
4.085224e+000 1.485211e+000 -1.084702e+001 102 77 55
5.212377e+000 1.669678e+000 -1.189924e+001 161 85 80
5.273768e+000 1.510707e+000 -1.176487e+001 151 83 71
1.991426e+000 9.302225e-001 -8.779032e+000 185 168 141
1.547923e+000 8.317869e-001 -9.006130e+000 162 135 78
1.941659e+000 6.578532e-001 -8.544416e+000 103 111 77
3.064551e+000 5.910547e-001 -8.873474e+000 254 254 243
-2.984760e+000 5.221492e-001 -9.108509e+000 151 80 52
4.470542e+000 2.637058e-001 -9.746256e+000 92 68 44
1.729350e+000 -1.606068e-001 -8.749186e+000 230 231 216
2.838616e+000 -1.850367e-001 -9.032075e+000 65 53 39
-3.347396e-001 -4.161241e-001 -9.246093e+000 210 178 161
2.592938e+000 -5.346673e-001 -9.461088e+000 66 58 39
3.893170e+000 -4.038099e-001 -9.787569e+000 83 61 38
1.228815e+000 -8.900645e-001 -9.410639e+000 195 168 140
4.296138e+000 -9.087471e-001 -1.052269e+001 98 74 46
-1.670559e+000 -8.927033e-001 -1.009297e+001 190 147 137
-9.365149e-001 -1.098241e+000 -9.368251e+000 218 185 180
-6.176432e-001 -9.839572e-001 -9.183338e+000 184 145 139
1.121243e+000 -1.185495e+000 -9.647851e+000 154 139 110
2.202381e+000 -1.262328e+000 -1.005894e+001 67 60 41
5.439338e+000 -1.304498e+000 -1.086115e+001 220 208 214
5.788261e+000 -1.346770e+000 -1.003252e+001 255 240 220
9.885202e-001 -1.316853e+000 -9.828978e+000 117 87 61
1.637518e+000 -1.433097e+000 -9.824109e+000 219 211 190
3.354805e+000 -1.436419e+000 -1.073356e+001 75 55 34
3.411148e+000 -1.677157e+000 -1.100371e+001 87 65 42
5.359942e+000 -1.551626e+000 -1.098971e+001 136 68 56
5.849806e-001 -1.653822e+000 -1.019969e+001 212 189 166
5.205957e+000 -1.933354e+000 -1.114486e+001 227 221 212
2.122900e-002 -1.939189e+000 -1.040061e+001 153 126 97
1.136232e+000 -2.135866e+000 -1.006501e+001 89 82 68
2.621329e+000 -2.116963e+000 -1.101720e+001 83 65 45
3.127323e+000 -2.339710e+000 -1.141117e+001 89 67 43
4.942992e+000 -2.420620e+000 -1.160963e+001 231 206 201
7.233083e-001 -2.948682e+000 -1.112672e+001 72 63 48
4.910784e-001 -3.370997e+000 -1.149034e+001 69 56 47
6.564854e-001 -3.204201e+000 -1.129130e+001 62 54 43
4.419872e+000 -3.545841e+000 -1.207315e+001 225 208 198
4.072407e+000 -4.136504e+000 -1.265559e+001 211 189 184
-9.877824e-002 -3.886170e+000 -1.158776e+001 193 176 158
5.821264e+000 3.508574e+000 -1.099137e+001 191 155 96
5.821264e+000 3.508574e+000 -1.099137e+001 191 155 96
3.606835e+000 4.224994e+000 -1.525141e+001 210 129 108
7.651465e-001 2.446697e+000 -1.055987e+001 216 190 169
1.982975e+000 2.605222e+000 -1.032716e+001 78 63 44
2.222073e+000 2.601825e+000 -1.062420e+001 48 35 23
2.279117e+000 2.453799e+000 -1.052046e+001 47 39 26
-2.496851e+000 1.981281e+000 -8.614028e+000 76 54 41
1.147593e+000 2.420603e+000 -1.062482e+001 101 96 73
2.119895e+000 2.176186e+000 -9.914058e+000 77 61 44
2.955033e+000 2.326262e+000 -1.103967e+001 96 71 46
4.065908e+000 2.188271e+000 -1.163612e+001 147 118 93
4.474042e+000 2.515598e+000 -1.240456e+001 134 104 80
1.049081e+000 1.892742e+000 -9.954248e+000 220 199 175
2.783752e+000 1.599699e+000 -9.653178e+000 74 59 38
3.179147e+000 1.877861e+000 -1.061604e+001 113 89 61
3.675051e+000 1.667228e+000 -1.081378e+001 91 67 43
-3.061593e+000 1.291147e+000 -8.245848e+000 119 93 67
9.555444e-001 1.342889e+000 -9.474054e+000 195 165 150
2.558263e+000 1.238172e+000 -8.924040e+000 108 87 61
2.928641e+000 1.218209e+000 -9.169470e+000 127 110 88
3.502692e+000 1.578806e+000 -1.053861e+001 84 59 37
4.378612e+000 1.632182e+000 -1.121100e+001 120 90 64
4.287713e+000 1.419930e+000 -1.097300e+001 122 92 64
4.628475e+000 1.360496e+000 -1.107437e+001 113 83 55
5.243568e+000 1.712021e+000 -1.185937e+001 223 198 194
-3.505361e+000 1.248342e+000 -8.227108e+000 138 108 81
4.102774e+000 9.825720e-001 -1.016361e+001 100 74 47
5.422894e+000 1.116546e+000 -1.137227e+001 177 131 75
5.274489e+000 3.571813e-001 -1.034137e+001 101 69 44
2.006678e+000 6.625652e-002 -8.635786e+000 163 139 111
2.968797e+000 3.729140e-002 -8.905017e+000 62 55 37
3.934473e+000 5.475988e-002 -9.536039e+000 83 61 38
4.736817e+000 -5.237272e-002 -9.983562e+000 78 52 34
-4.889433e-001 9.909368e-003 -9.804986e+000 159 115 104
5.321178e-001 -2.402575e-001 -9.254924e+000 130 87 71
2.278803e+000 -2.127607e-001 -8.863675e+000 42 34 21
2.211751e+000 -3.095495e-001 -8.983903e+000 61 52 40
4.080673e-001 -5.735079e-001 -9.085707e+000 120 65 58
5.346489e+000 -1.064244e+000 -1.106135e+001 207 152 61
-1.706803e-001 -1.342938e+000 -9.972180e+000 158 109 104
5.734311e-001 -1.601307e+000 -1.021078e+001 160 136 112
5.179993e-001 -1.686425e+000 -1.024883e+001 170 147 122
4.392492e+000 -2.093981e+000 -1.160653e+001 156 121 91
1.414045e+000 -1.940697e+000 -9.908024e+000 60 49 37
-2.972217e-001 -2.464474e+000 -1.042849e+001 202 183 147
6.029775e-001 -2.641960e+000 -1.064483e+001 134 113 90
2.902504e+000 -3.719520e+000 -1.288835e+001 105 79 56
-6.176793e-001 -3.881511e+000 -1.234367e+001 121 126 103
-2.854100e-001 -3.879747e+000 -1.197345e+001 188 171 151
4.023292e+000 -4.048939e+000 -1.285435e+001 209 188 156
4.018591e+000 -4.187765e+000 -1.271223e+001 200 192 189
3.807749e+000 3.816450e+000 -1.466517e+001 204 132 78
-3.771876e+000 2.370737e+000 -8.435252e+000 182 135 125
2.466372e+000 2.446043e+000 -1.051740e+001 81 63 47
4.444421e+000 3.208429e+000 -1.352990e+001 225 160 108
3.069809e+000 2.255376e+000 -1.095265e+001 135 109 83
3.263882e+000 2.173880e+000 -1.102691e+001 99 73 48
3.100068e+000 2.058646e+000 -1.077761e+001 126 100 76
4.012547e+000 2.313498e+000 -1.176764e+001 142 112 88
3.955616e+000 2.190955e+000 -1.157067e+001 106 76 52
1.449205e+000 1.843369e+000 -9.816402e+000 204 181 150
4.647691e+000 2.112257e+000 -1.197202e+001 116 86 58
4.120517e+000 1.908258e+000 -1.140834e+001 116 90 65
4.410817e+000 1.902064e+000 -1.159572e+001 105 79 48
4.749664e+000 1.822031e+000 -1.173135e+001 99 72 51
5.131647e+000 1.907926e+000 -1.211471e+001 173 129 72
5.237898e+000 1.785546e+000 -1.187016e+001 225 214 209
-2.526713e-002 1.566361e+000 -1.026232e+001 198 139 139
3.375753e+000 1.568295e+000 -1.043661e+001 83 63 39
5.359936e+000 1.436812e+000 -1.161251e+001 225 205 210
1.531436e+000 9.979608e-001 -8.988935e+000 211 198 154
2.163660e+000 1.060940e+000 -8.858232e+000 158 136 108
3.766690e+000 1.062328e+000 -1.001483e+001 129 105 79
3.766690e+000 1.062328e+000 -1.001483e+001 129 105 79
4.298223e+000 1.251386e+000 -1.075325e+001 126 95 67
4.980450e+000 1.204573e+000 -1.116808e+001 97 67 41
5.360473e+000 1.232101e+000 -1.140951e+001 178 125 63
1.639247e+000 6.816820e-001 -8.744868e+000 203 194 159
1.639247e+000 6.816820e-001 -8.744868e+000 203 194 159
-1.548769e+000 2.192319e-001 -9.657292e+000 105 76 60
3.820030e+000 2.149930e-001 -9.424375e+000 84 64 40
8.834628e-001 -4.440967e-001 -9.513775e+000 152 121 101
-1.506793e+000 -8.717907e-001 -9.987761e+000 228 196 178
3.838586e+000 -1.340103e+000 -1.080412e+001 95 72 48
-1.083776e+000 -3.346563e+000 -1.303852e+001 223 224 225
4.549805e+000 -3.231963e+000 -1.198203e+001 152 139 126
-7.056755e-001 -3.610930e+000 -1.232963e+001 199 188 170
5.706994e-001 -3.270780e+000 -1.141679e+001 53 44 35
1.274592e+000 -3.296412e+000 -1.183947e+001 134 120 107
-6.781125e-001 -3.793223e+000 -1.226824e+001 220 220 216
5.346577e+000 3.879789e+000 -1.209446e+001 243 232 230
5.536976e+000 3.692035e+000 -1.155149e+001 146 123 93
5.885243e+000 3.446843e+000 -1.097620e+001 241 238 242
5.885243e+000 3.446843e+000 -1.097620e+001 241 238 242
3.784721e+000 4.012345e+000 -1.495078e+001 230 172 100
4.397019e+000 3.375899e+000 -1.361874e+001 192 106 83
1.198715e+000 2.469357e+000 -1.045814e+001 137 133 106
8.498183e-001 2.090374e+000 -1.016352e+001 209 186 152
3.033606e+000 2.120383e+000 -1.082271e+001 105 81 55
4.034134e+000 2.374693e+000 -1.191048e+001 146 116 92
4.936503e+000 2.571629e+000 -1.257119e+001 206 161 94
1.755927e+000 1.635705e+000 -9.543745e+000 253 255 247
4.012702e+000 2.065622e+000 -1.144394e+001 110 83 59
5.080503e+000 2.122384e+000 -1.227016e+001 163 94 52
-2.586678e-003 1.590800e+000 -9.974856e+000 197 144 138
1.710959e+000 1.415855e+000 -9.203866e+000 99 102 78
3.650333e+000 1.526909e+000 -1.054724e+001 134 112 88
4.877841e+000 1.431457e+000 -1.137914e+001 105 76 44
5.319128e+000 1.579239e+000 -1.171673e+001 237 217 219
2.510222e+000 9.007739e-001 -8.568531e+000 68 57 39
4.266692e+000 1.031405e+000 -1.032374e+001 151 121 95
5.207763e+000 1.112861e+000 -1.114601e+001 182 151 122
4.577923e+000 8.812745e-001 -1.054961e+001 141 114 87
-2.782635e-001 1.308506e-001 -9.412382e+000 160 118 101
4.186586e+000 -3.285311e-001 -9.853336e+000 78 57 35
4.515664e+000 -1.801984e-001 -9.928154e+000 83 61 38
-5.241396e-001 -2.548733e-001 -9.831282e+000 166 108 104
2.789924e+000 -6.760986e-001 -9.722454e+000 166 155 143
3.813447e+000 -1.410289e+000 -1.088601e+001 117 97 72
-4.036861e-001 -1.155785e+000 -9.392387e+000 191 151 144
3.381561e+000 -1.463014e+000 -1.075982e+001 76 56 35
3.381561e+000 -1.463014e+000 -1.075982e+001 76 56 35
3.534255e+000 -1.561420e+000 -1.094167e+001 114 94 70
1.066230e+000 -2.183553e+000 -1.012670e+001 127 122 103
2.006495e+000 -2.105392e+000 -1.041079e+001 71 57 44
-9.095039e-001 -3.483887e+000 -1.298792e+001 123 129 101
4.462863e+000 -3.541821e+000 -1.213119e+001 216 197 188
1.581844e+000 -3.903455e+000 -1.248200e+001 123 101 80
2.219885e+000 -3.970218e+000 -1.280829e+001 125 101 77
2.862875e+000 -4.436777e+000 -1.352098e+001 137 110 81
3.968377e+000 3.990602e+000 -1.449543e+001 198 128 94
3.874929e+000 3.881260e+000 -1.455051e+001 238 192 127
-3.225598e+000 2.336107e+000 -8.369957e+000 152 122 88
-6.026054e-001 4.919720e+000 -2.154492e+001 231 159 153
9.692474e-001 2.813381e+000 -1.076616e+001 204 190 163
-3.721851e+000 2.082007e+000 -8.351633e+000 175 147 108
-3.721851e+000 2.082007e+000 -8.351633e+000 175 147 108
6.592342e-001 2.186776e+000 -1.004886e+001 139 88 71
1.031542e+000 2.082055e+000 -1.022803e+001 94 87 65
1.942190e+000 2.238446e+000 -9.998087e+000 114 99 74
1.938655e+000 1.022589e+000 -8.968254e+000 136 119 93
1.438363e+000 2.171802e-001 -9.404882e+000 172 147 124
2.817221e+000 -2.891243e-001 -9.116993e+000 62 45 26
1.768075e+000 -1.040005e+000 -9.620644e+000 60 52 42
-9.196213e-001 -1.132000e+000 -9.345732e+000 211 177 175
-1.827979e+001 -5.708792e+000 -4.292394e+001 124 45 48
-2.130475e-001 -2.068950e+000 -1.047188e+001 186 156 94
4.689995e+000 -2.831787e+000 -1.183074e+001 230 187 67
4.922969e+000 -2.811449e+000 -1.148732e+001 170 85 50
2.836367e+000 -3.378766e+000 -1.248815e+001 93 71 48
8.434660e-001 -3.479159e+000 -1.183696e+001 166 159 133
9.810232e-001 -3.502575e+000 -1.181546e+001 69 59 44
7.772396e-001 -3.944121e+000 -1.205976e+001 70 59 49
5.427948e+000 3.564896e+000 -1.178961e+001 220 115 93
4.517650e+000 3.383092e+000 -1.345058e+001 228 175 124
-2.883178e+000 2.251999e+000 -8.378096e+000 136 110 83
3.134047e+000 2.607863e+000 -1.157564e+001 117 85 60
1.478404e+000 1.935400e+000 -9.836743e+000 153 120 86
2.011092e+000 2.035630e+000 -9.792340e+000 127 114 97
5.539414e+000 1.873860e+000 -1.127868e+001 213 185 170
2.122933e+000 1.363728e+000 -9.101363e+000 70 52 39
-3.075802e+000 6.316259e-001 -9.073631e+000 179 155 131
9.933786e-001 5.632154e-001 -9.511969e+000 185 158 128
1.154482e+000 5.018755e-001 -9.739747e+000 131 83 57
1.755925e+000 3.592885e-003 -8.728633e+000 143 119 84
3.029577e+000 -1.257466e-002 -8.968258e+000 52 39 23
2.449844e+000 -6.065528e-001 -9.463929e+000 228 219 198
2.704837e+000 -4.499838e-001 -9.291230e+000 79 64 48
2.345481e+000 -7.544709e-001 -9.589632e+000 66 52 22
2.656488e-001 -1.078724e+000 -9.612823e+000 120 60 57
2.279791e+000 -1.229084e+000 -9.980172e+000 66 51 37
-1.811335e+001 -5.556592e+000 -4.384901e+001 174 141 106
4.275656e+000 -1.859249e+000 -1.144167e+001 118 91 64
-1.380480e+001 -1.098668e+001 -5.295320e+001 226 224 225
-6.186107e-001 -3.683114e+000 -1.228923e+001 108 108 84
1.522236e+000 2.546877e+000 -1.037008e+001 189 171 148
3.813714e-001 1.583045e+000 -9.472558e+000 181 128 120
4.224145e+000 1.685667e+000 -1.119569e+001 152 126 101
4.319187e+000 1.109368e+000 -1.052807e+001 153 123 95
4.616086e+000 1.150403e+000 -1.081123e+001 155 125 99
-1.858460e+000 5.488683e-001 -9.629207e+000 172 153 138
1.332528e+000 3.957119e-001 -9.581279e+000 186 159 138
-4.807748e-001 1.953733e-001 -9.562492e+000 162 115 105
3.097633e+000 2.067163e-001 -8.826700e+000 57 45 35
-3.294946e-001 -1.321549e+000 -9.907649e+000 123 73 60
-5.773472e-001 -2.120775e+000 -1.116339e+001 194 173 128
1.825379e+000 -2.249428e+000 -1.038248e+001 56 45 36
2.196235e+000 -2.185841e+000 -1.081761e+001 118 102 88
2.877233e+000 -2.450273e+000 -1.140757e+001 91 71 49
-1.025397e+001 -9.115061e+000 -4.802971e+001 179 78 76
-1.025397e+001 -9.115061e+000 -4.802971e+001 179 78 76
-1.338581e+001 -1.048995e+001 -5.331718e+001 233 136 132
-1.298724e+001 -1.200165e+001 -5.165158e+001 229 219 218
-2.779062e-001 -3.275996e+000 -1.171362e+001 126 131 97
2.949103e+000 -4.023220e+000 -1.302589e+001 124 95 65
3.944824e+000 -4.053591e+000 -1.299831e+001 219 168 55
1.468776e+000 2.818140e+000 -1.105675e+001 210 196 169
1.321312e+000 2.185270e+000 -9.971183e+000 123 116 93
5.115392e+000 2.435363e+000 -1.224027e+001 223 186 157
2.240837e+000 1.177846e+000 -9.021006e+000 61 48 32
3.967021e+000 1.391231e+000 -1.076107e+001 104 82 61
