ply
format ascii 1.0
element face 0
property list uchar int vertex_indices
element vertex 878
property float x
property float y
property float z
property uchar diffuse_red
property uchar diffuse_green
property uchar diffuse_blue
end_header
2.784363e+000 5.916773e+000 -1.660229e+001 136 88 74
1.747084e+000 1.628356e+000 -9.561957e+000 253 253 240
5.391097e+000 1.538331e+000 -1.148896e+001 235 221 215
-4.097032e+000 1.694578e+000 -8.917363e+000 111 86 62
5.247710e+000 8.175789e-001 -1.074379e+001 183 150 123
-2.688681e+000 1.142201e+000 -1.157218e+001 217 224 225
-1.573743e+000 6.897622e-001 -9.207973e+000 95 75 51
9.175601e-001 3.803305e-001 -9.519530e+000 149 113 88
4.159192e+000 -3.226478e-001 -9.802414e+000 79 57 36
4.804661e+000 -1.089044e+000 -1.093031e+001 126 95 64
5.058137e+000 -3.229755e+000 -1.095078e+001 215 147 80
6.123484e-001 -2.796828e+000 -1.089656e+001 65 48 29
2.381509e+000 -3.117635e+000 -1.210865e+001 112 95 72
6.538722e+000 -4.428726e+000 -1.484482e+001 167 150 132
1.631741e+000 -4.092361e+000 -1.264210e+001 93 70 48
8.677850e-001 8.211367e+000 -1.951490e+001 217 110 100
1.270297e+000 7.917335e+000 -1.897144e+001 240 219 222
1.270297e+000 7.917335e+000 -1.897144e+001 240 219 222
3.870914e+000 5.438735e+000 -1.466725e+001 138 94 91
3.870914e+000 5.438735e+000 -1.466725e+001 138 94 91
3.970088e+000 5.319928e+000 -1.478798e+001 219 198 196
1.374784e+000 7.581994e+000 -1.956301e+001 246 203 94
3.877915e+000 5.182934e+000 -1.489649e+001 143 94 92
9.625300e-001 7.701341e+000 -2.038498e+001 239 206 96
1.335916e+000 2.380881e+000 -1.019238e+001 109 102 73
5.320336e+000 2.628820e+000 -1.177939e+001 158 84 81
-3.823415e+000 1.967995e+000 -8.477156e+000 171 141 103
1.823981e+000 1.491749e+000 -9.258352e+000 196 176 154
1.443096e+000 1.296722e+000 -9.653887e+000 181 156 134
-1.887545e+000 4.737001e-001 -9.751817e+000 162 144 128
5.133343e+000 -5.231486e-001 -1.042949e+001 110 78 53
-5.571698e-001 -1.517745e-002 -9.995126e+000 146 103 93
4.401867e+000 -7.856397e-001 -1.037028e+001 130 104 79
1.280536e+000 -7.767088e-001 -9.315189e+000 216 200 172
1.280536e+000 -7.767088e-001 -9.315189e+000 216 200 172
-4.073088e-002 -1.100365e+000 -9.559320e+000 203 165 156
3.724033e+000 -1.621692e+000 -1.101280e+001 116 94 71
-1.611702e-001 -1.557862e+000 -1.054576e+001 182 155 118
1.571207e+000 -2.311480e+000 -1.043195e+001 57 47 35
8.570847e-001 -2.648678e+000 -1.086813e+001 57 50 38
1.447104e+000 -2.734357e+000 -1.111551e+001 69 55 40
2.622024e+000 -3.312783e+000 -1.248686e+001 89 67 46
-4.273242e-001 -3.325828e+000 -1.203139e+001 170 161 132
7.102019e-002 -3.096217e+000 -1.137642e+001 195 177 149
4.665465e-001 -3.128414e+000 -1.141802e+001 81 64 45
2.121400e+000 -3.548628e+000 -1.242384e+001 90 66 46
2.473550e+000 -3.723176e+000 -1.262579e+001 127 106 83
3.917751e+000 -3.836930e+000 -1.300201e+001 127 68 37
-8.738815e-001 -3.506722e+000 -1.293305e+001 108 110 86
2.204253e+000 -3.966146e+000 -1.278367e+001 122 98 74
3.038759e+000 -4.220701e+000 -1.345498e+001 113 83 53
1.081590e+000 7.683643e+000 -1.962847e+001 219 116 112
9.104693e-001 7.077774e+000 -1.964478e+001 225 121 78
9.104693e-001 7.077774e+000 -1.964478e+001 225 121 78
1.215526e+000 6.995750e+000 -1.911394e+001 225 122 77
2.783552e+000 5.357377e-001 -8.674006e+000 57 47 39
9.902107e-001 5.584270e-001 -9.500388e+000 175 147 116
1.994934e+000 -1.314848e+000 -1.031513e+001 34 29 21
-8.263156e+000 2.860773e+000 -4.748074e+001 234 227 221
1.666000e+000 -2.480920e+000 -1.069495e+001 63 49 41
4.823910e+000 -3.133345e+000 -1.159925e+001 202 120 40
4.115939e+000 -3.385831e+000 -1.272192e+001 212 147 52
8.148855e-001 -3.156358e+000 -9.889491e+000 68 54 41
1.007648e+000 -3.504725e+000 -1.188153e+001 69 57 43
1.442862e+000 -3.838406e+000 -1.244945e+001 88 66 45
1.317028e+000 8.549957e-001 -9.852844e+000 113 72 49
1.377321e+000 -6.182630e-001 -9.249309e+000 140 101 67
3.911982e+000 -1.135919e+000 -1.058145e+001 123 98 76
-9.924904e+000 3.376653e+000 -4.993901e+001 231 231 229
1.004395e+000 -1.372478e+000 -9.827023e+000 138 111 89
-9.867671e+000 2.663247e+000 -5.046851e+001 213 99 97
-9.723184e+000 2.592137e+000 -4.964653e+001 213 99 97
-1.145494e+001 2.159572e+000 -5.325965e+001 230 229 226
-1.097738e+001 1.251618e+000 -5.171247e+001 214 111 105
-5.631936e-001 -1.720319e+000 -1.131710e+001 175 150 115
-6.062715e-001 -2.162553e+000 -1.151411e+001 205 183 149
-8.138468e+000 -2.400500e+000 -4.592495e+001 250 250 240
6.846711e-001 7.898042e+000 -1.970744e+001 234 206 159
2.231054e+000 2.776765e-001 -8.514111e+000 83 65 50
-8.213049e+000 1.779108e+000 -4.528707e+001 239 239 231
-7.618543e+000 -2.192933e-001 -4.389872e+001 162 154 118
-6.802954e-001 -2.432880e+000 -1.227947e+001 116 121 88
3.859305e+000 -4.390390e+000 -1.294310e+001 244 199 97
-3.121123e+000 1.214885e+000 -8.564416e+000 142 121 103
-3.120934e+000 1.217085e+000 -8.571487e+000 142 121 103
-6.830018e-001 -5.805422e-001 -9.674385e+000 214 172 158
-8.779575e+000 2.236879e-001 -4.466741e+001 243 244 235
-9.467497e-001 -1.488276e-001 -1.040283e+001 121 78 71
2.903064e-001 6.647368e+000 -1.995019e+001 245 214 69
4.635840e-001 -6.966443e-001 -9.590607e+000 140 90 83
-4.132051e+000 2.325877e+000 -8.888723e+000 191 160 155
1.462443e+000 2.427407e+000 -1.034424e+001 142 122 95
1.604198e+000 2.176318e+000 -1.002218e+001 201 189 166
2.134124e+000 1.899956e+000 -9.641552e+000 98 86 69
-1.550611e-001 2.142227e+000 -1.036465e+001 203 160 144
-5.733740e-002 2.095898e+000 -1.038538e+001 219 177 155
-7.505199e-003 2.264245e+000 -1.047685e+001 205 167 146
2.248559e-001 2.071324e+000 -1.009110e+001 214 174 152
1.229354e-001 2.122085e+000 -1.045404e+001 224 177 163
1.313048e+000 1.947087e+000 -9.926079e+000 179 159 131
1.375136e+000 1.873643e+000 -9.921004e+000 172 146 116
1.421154e+000 1.907903e+000 -9.883687e+000 147 117 89
1.865645e+000 1.825605e+000 -9.766863e+000 64 47 27
1.847628e+000 1.758142e+000 -9.646883e+000 165 141 118
1.637171e+000 7.282659e-001 -8.743357e+000 195 173 131
1.558108e+000 6.981498e-001 -8.921445e+000 201 170 88
3.076029e+000 3.314910e-001 -8.857087e+000 121 110 90
-1.402028e+000 5.960562e-001 -9.230005e+000 154 129 110
6.331110e-001 5.772809e-001 -9.427897e+000 167 126 102
1.628494e+000 2.413701e-001 -8.919731e+000 111 114 82
-1.729917e+000 4.425355e-001 -9.488603e+000 120 95 73
2.673279e+000 -2.496297e-001 -9.167499e+000 207 202 180
-1.907639e+000 3.519342e-001 -1.003410e+001 146 121 104
-1.390471e+000 6.280213e-002 -9.965908e+000 166 123 117
1.673367e+000 -3.910292e-001 -8.954334e+000 179 165 143
2.856347e+000 -5.711329e-001 -9.587862e+000 148 132 116
5.541577e+000 -9.674400e-001 -1.068468e+001 215 162 93
1.263584e+000 -9.082832e-001 -9.373276e+000 181 160 129
1.586166e+000 -8.988335e-001 -9.384234e+000 105 78 60
5.443903e+000 -1.227474e+000 -1.087646e+001 226 210 202
-1.846579e+000 -5.170955e-001 -1.081673e+001 187 151 128
-1.653772e+000 -5.743431e-001 -1.076545e+001 207 170 151
-3.745524e-001 -9.407580e-001 -9.258286e+000 175 123 110
3.575911e+000 -1.475686e+000 -1.086061e+001 101 80 53
-1.430146e+000 -9.675673e-001 -9.912398e+000 195 153 137
-1.404022e+000 -1.182303e+000 -9.854296e+000 200 158 146
1.050527e+000 -1.454546e+000 -9.834230e+000 152 118 97
5.159402e+000 -1.745346e+000 -1.126789e+001 222 155 71
5.152534e+000 -1.903457e+000 -1.127658e+001 113 92 75
6.551989e-001 -1.666376e+000 -1.011101e+001 184 162 135
1.005140e+000 -1.814465e+000 -9.888046e+000 222 214 193
1.061611e+000 -1.728420e+000 -9.859497e+000 122 89 56
1.290418e+000 -1.858768e+000 -1.003313e+001 103 94 77
1.592399e+000 -1.667083e+000 -1.005391e+001 112 102 93
3.360950e+000 -2.108106e+000 -1.130683e+001 87 63 39
4.994517e+000 -2.291390e+000 -1.144844e+001 203 181 174
9.189241e-001 -1.864941e+000 -9.941575e+000 207 188 161
9.985628e-001 -1.871494e+000 -9.909614e+000 207 193 167
2.870969e+000 -2.394384e+000 -1.137750e+001 81 60 39
3.554114e+000 -2.387438e+000 -1.163993e+001 95 75 48
4.986545e+000 -2.506208e+000 -1.142123e+001 197 157 150
4.842336e+000 -2.573402e+000 -1.170371e+001 220 150 64
4.831814e+000 -2.570448e+000 -1.168782e+001 220 150 64
4.706464e+000 -2.874021e+000 -1.188064e+001 229 202 135
4.689220e+000 -2.952975e+000 -1.183318e+001 204 187 177
4.743264e+000 -2.953525e+000 -1.176609e+001 202 188 179
7.356407e-001 -2.684970e+000 -1.076974e+001 156 144 129
4.559128e+000 -3.293588e+000 -1.200461e+001 154 141 132
4.568033e+000 -3.296050e+000 -1.202497e+001 154 141 132
1.119155e+000 -3.153981e+000 -1.156639e+001 199 192 169
4.369989e+000 -3.638229e+000 -1.223284e+001 143 126 119
8.634057e-002 -3.423645e+000 -1.128933e+001 220 202 178
1.182971e-001 -3.323002e+000 -1.110371e+001 217 205 184
1.182971e-001 -3.323002e+000 -1.110371e+001 217 205 184
4.024863e+000 -4.028466e+000 -1.275272e+001 161 148 138
6.464434e-001 -3.811258e+000 -1.195896e+001 219 217 189
8.575488e-001 -3.715389e+000 -1.197251e+001 89 78 62
5.009802e-001 2.293553e+000 -1.011445e+001 192 156 112
2.141393e+000 1.960612e+000 -9.756257e+000 99 86 67
2.277089e+000 1.912181e+000 -9.687153e+000 80 65 42
1.591780e+000 1.779067e+000 -9.778294e+000 169 147 120
1.548186e+000 1.564031e+000 -9.894317e+000 177 151 127
2.530423e+000 9.122370e-001 -8.641279e+000 72 55 40
3.728710e+000 1.101312e+000 -1.009064e+001 102 76 53
1.820456e-001 1.255368e+000 -9.173927e+000 219 185 172
1.913994e+000 8.070940e-001 -8.796263e+000 111 113 82
4.827349e+000 1.061123e+000 -1.082359e+001 120 89 61
-1.755244e+000 6.903733e-001 -9.353694e+000 99 81 62
2.361684e+000 1.823205e-001 -8.568066e+000 147 139 118
-2.495760e+000 8.654416e-001 -1.026272e+001 223 216 206
1.771554e+000 -1.245485e-001 -8.760326e+000 196 182 164
-2.137405e+000 4.193760e-001 -1.036271e+001 130 106 88
-1.920722e+000 -1.448609e-001 -1.061759e+001 173 126 111
5.311561e+000 -9.443460e-001 -1.105798e+001 165 126 101
1.407034e+000 -9.345326e-001 -9.335222e+000 244 236 220
4.327351e+000 -1.142504e+000 -1.079876e+001 103 75 52
4.727649e+000 -1.152819e+000 -1.099290e+001 131 101 72
5.503716e+000 -1.142031e+000 -1.075781e+001 218 152 80
1.981476e-002 -1.339581e+000 -9.816191e+000 187 149 136
4.027713e+000 -1.686449e+000 -1.122434e+001 110 84 59
3.891233e+000 -1.858670e+000 -1.133884e+001 89 66 36
2.198700e-002 -1.472391e+000 -1.018641e+001 182 143 125
1.122205e+000 -1.816836e+000 -9.921735e+000 127 101 71
4.586996e+000 -2.271186e+000 -1.210712e+001 159 117 85
5.159543e+000 -2.061370e+000 -1.117753e+001 223 195 192
5.159543e+000 -2.061370e+000 -1.117753e+001 223 195 192
-3.043265e-001 -2.132773e+000 -1.038842e+001 208 181 126
1.092232e+000 -2.332682e+000 -1.028565e+001 114 106 87
1.463342e+000 -2.267475e+000 -1.026148e+001 87 78 60
4.114336e+000 -2.925137e+000 -1.246396e+001 154 110 76
1.996981e+000 -2.973848e+000 -1.177698e+001 76 55 36
1.996981e+000 -2.973848e+000 -1.177698e+001 76 55 36
2.367025e+000 -2.772479e+000 -1.163808e+001 83 62 41
2.457684e+000 -2.853671e+000 -1.171795e+001 82 63 39
4.423653e+000 -3.298342e+000 -1.222375e+001 202 119 55
4.439937e+000 -3.388653e+000 -1.217485e+001 221 208 204
4.587713e+000 -3.202495e+000 -1.190376e+001 225 211 189
4.672443e+000 -3.120592e+000 -1.185159e+001 106 90 74
4.278534e+000 -3.730571e+000 -1.230929e+001 226 211 205
1.635095e+000 -4.067953e+000 -1.274800e+001 92 70 49
1.505734e+000 2.592654e+000 -1.040280e+001 192 172 147
4.540997e-001 2.260172e+000 -1.018665e+001 199 149 136
4.061449e-001 1.682267e+000 -9.542327e+000 185 136 122
1.564477e+000 1.996103e+000 -1.010638e+001 185 155 130
1.690418e+000 1.907498e+000 -9.772307e+000 176 151 128
-3.164927e+000 1.696217e+000 -8.261957e+000 114 84 50
1.300136e+000 1.669779e+000 -9.910369e+000 162 131 105
4.343070e+000 1.265093e+000 -1.072117e+001 133 103 75
5.509717e+000 8.521599e-001 -1.100976e+001 190 153 123
1.957628e+000 5.020420e-001 -8.496473e+000 138 143 108
1.785803e-002 -2.478910e-001 -8.715477e+000 211 178 161
4.616842e+000 -1.378301e+000 -1.116388e+001 120 89 60
-3.446263e-002 -1.546160e+000 -1.051181e+001 154 113 80
3.730659e+000 -2.573045e+000 -1.193947e+001 113 87 60
5.007669e+000 -2.634933e+000 -1.128752e+001 205 123 37
3.803962e+000 -2.874881e+000 -1.231768e+001 130 101 71
3.573658e+000 -2.970200e+000 -1.234443e+001 121 92 64
2.909748e-001 -2.985061e+000 -1.107806e+001 201 182 159
4.025322e+000 -4.165311e+000 -1.270955e+001 211 207 198
3.905280e+000 -4.362534e+000 -1.284691e+001 215 163 60
4.050651e+000 4.942289e+000 -1.465112e+001 207 135 86
-3.788979e+000 2.404164e+000 -8.490539e+000 172 128 117
1.167167e+000 2.111084e+000 -1.009574e+001 184 162 141
2.134701e+000 1.139273e+000 -8.856617e+000 81 60 41
4.474706e+000 8.453402e-001 -1.024496e+001 148 117 92
-1.845664e+000 -4.012039e-001 -1.075892e+001 191 147 122
3.311720e+000 -1.007365e+000 -1.015901e+001 103 83 59
4.530028e+000 -1.243010e+000 -1.096084e+001 132 102 74
1.224639e+000 -1.092378e+000 -9.532829e+000 195 178 152
4.833845e+000 -2.357084e+000 -1.178602e+001 223 139 56
2.316668e+000 -2.735704e+000 -1.158038e+001 79 61 37
3.450325e+000 -2.680967e+000 -1.202932e+001 130 106 79
4.417373e+000 -3.293801e+000 -1.223388e+001 197 108 50
2.079163e-001 -3.117615e+000 -1.118796e+001 188 167 140
2.316917e+000 -3.144036e+000 -1.207628e+001 114 97 75
2.139665e+000 -4.138187e+000 -1.299704e+001 121 97 74
5.245944e+000 2.683520e+000 -1.203874e+001 139 109 105
-4.083988e+000 2.455495e+000 -8.799684e+000 210 199 197
1.594703e+000 2.099258e+000 -1.011401e+001 173 149 125
1.721232e+000 2.374855e+000 -1.025315e+001 86 63 45
3.114023e+000 5.700516e-001 -8.831823e+000 79 62 51
4.964345e+000 1.050206e+000 -1.087883e+001 148 119 88
-1.515549e+000 9.411147e-002 -9.947786e+000 121 81 71
1.665380e+000 -1.934766e+000 -1.013313e+001 87 78 64
-8.669818e-001 -1.896815e+000 -1.151803e+001 193 145 129
7.852573e-001 -2.150375e+000 -1.020809e+001 254 252 239
7.852573e-001 -2.150375e+000 -1.020809e+001 254 252 239
1.982614e+000 -3.507071e+000 -1.234344e+001 108 87 66
1.608222e+000 -3.931827e+000 -1.258998e+001 125 104 83
4.414619e+000 1.161702e+000 -1.073011e+001 156 129 102
1.406199e+000 -1.956226e-002 -9.076231e+000 94 99 73
2.977332e+000 -5.899410e-001 -9.656203e+000 140 123 103
8.004819e-001 -2.801633e+000 -1.106322e+001 63 53 43
8.010358e-001 -2.800977e+000 -1.106286e+001 63 53 43
1.511493e+000 1.722271e+000 -9.942887e+000 163 130 101
4.339221e+000 -1.772827e+000 -1.138846e+001 110 79 51
5.413014e+000 3.473533e+000 -1.198327e+001 189 100 96
2.151987e+000 -1.914617e-001 -8.818625e+000 148 139 115
2.331167e+000 -2.237211e-001 -8.885747e+000 93 81 66
2.155448e+000 -5.012896e-001 -9.095452e+000 109 99 74
5.417849e+000 -1.184152e+000 -1.091237e+001 216 202 194
9.161472e-001 -1.024348e+000 -9.649905e+000 65 63 40
1.761681e+000 -1.311921e+000 -9.856403e+000 63 47 33
5.323704e+000 -1.467560e+000 -1.100348e+001 221 164 159
5.323704e+000 -1.467560e+000 -1.100348e+001 221 164 159
1.088302e+000 1.788424e+000 -9.770545e+000 141 106 80
-1.773991e+000 -2.454123e-001 -1.072563e+001 173 128 109
-1.773991e+000 -2.454123e-001 -1.072563e+001 173 128 109
1.087062e+000 -8.037672e-001 -9.564768e+000 177 154 127
4.002309e+000 -4.141316e+000 -1.266231e+001 216 208 202
1.320941e+000 2.376442e+000 -1.021111e+001 98 94 67
1.723194e+000 4.190659e-001 -8.778234e+000 148 137 109
3.076138e+000 7.441889e-002 -8.856546e+000 72 54 41
-5.149621e-001 -7.260107e-001 -9.440130e+000 179 112 106
2.073227e+000 1.135987e+000 -8.883100e+000 147 118 90
1.728296e+000 4.204544e-001 -8.791734e+000 149 137 110
1.736972e+000 -3.844418e-001 -8.874963e+000 181 162 138
-1.635772e+000 -3.743820e-001 -1.075421e+001 191 153 134
7.104079e-001 -1.377486e+000 -9.786158e+000 102 108 75
2.515473e+000 2.451451e-001 -8.587466e+000 58 45 38
4.326136e+000 -3.914480e+000 -1.223817e+001 205 124 43
5.299318e+000 1.793461e-001 -1.043357e+001 141 109 84
5.162704e+000 2.530018e+000 -1.229706e+001 221 187 165
8.131752e-001 -1.068625e+000 -9.766428e+000 75 73 53
5.388047e+000 3.899477e+000 -1.163835e+001 247 241 216
1.661124e+000 3.221693e+000 -1.117987e+001 150 102 77
1.448105e+000 3.103407e+000 -1.124103e+001 134 123 103
1.727061e+000 2.936440e+000 -1.060207e+001 125 113 89
1.477263e+000 2.763900e+000 -1.049535e+001 159 138 119
1.317600e+000 2.653162e+000 -1.065514e+001 252 238 216
1.829257e+000 2.619495e+000 -1.025759e+001 129 113 88
2.045595e+000 2.806404e+000 -1.051933e+001 88 69 50
1.839899e+000 2.580150e+000 -1.022696e+001 131 118 93
1.914511e+000 2.611836e+000 -1.032412e+001 119 107 87
-3.448266e-001 1.983379e+000 -1.150747e+001 156 116 107
-5.198433e-002 2.211908e+000 -1.032761e+001 224 189 177
7.399919e-001 2.308964e+000 -1.042111e+001 179 147 126
7.713260e-001 2.295458e+000 -1.048265e+001 135 102 87
1.537246e+000 2.337638e+000 -1.016144e+001 197 193 183
4.335484e-001 2.089121e+000 -1.008789e+001 162 114 99
4.360107e-001 2.055616e+000 -1.004724e+001 168 121 102
1.593605e+000 2.111783e+000 -1.003952e+001 173 164 141
1.604994e+000 2.169790e+000 -1.001139e+001 206 202 190
1.620636e+000 2.037972e+000 -9.935862e+000 191 181 162
2.024472e+000 2.213056e+000 -9.836701e+000 117 107 87
2.071661e+000 2.172492e+000 -9.959387e+000 110 102 83
2.349575e+000 2.138473e+000 -1.030305e+001 46 34 24
2.509097e+000 2.264592e+000 -1.027081e+001 76 67 50
2.545214e+000 2.215732e+000 -1.015947e+001 89 68 41
3.685799e+000 2.364625e+000 -1.159721e+001 102 80 57
-1.702704e+000 1.449021e+000 -9.363424e+000 98 77 60
1.390672e+000 1.780391e+000 -9.871875e+000 179 163 138
1.907934e+000 1.991027e+000 -1.020159e+001 92 75 58
1.761998e+000 1.949161e+000 -9.805789e+000 148 123 100
1.738706e+000 1.815372e+000 -9.715248e+000 182 166 140
1.841162e+000 1.794141e+000 -9.736113e+000 227 211 187
4.007257e+000 1.902534e+000 -1.122549e+001 120 96 72
-1.786004e+000 1.253810e+000 -9.194210e+000 120 101 84
4.819240e-001 1.467525e+000 -9.494133e+000 207 171 161
4.819240e-001 1.467525e+000 -9.494133e+000 207 171 161
3.846909e-001 1.415947e+000 -9.138791e+000 173 129 126
4.286827e-001 1.404336e+000 -9.181793e+000 181 141 136
8.822308e-001 1.611261e+000 -9.475857e+000 154 111 98
1.422967e+000 1.642508e+000 -9.980215e+000 166 140 116
1.841885e+000 1.673215e+000 -9.535545e+000 157 139 111
2.259636e+000 1.822968e+000 -9.571534e+000 103 101 65
2.357101e+000 1.675898e+000 -9.269282e+000 87 62 38
2.813538e+000 1.664347e+000 -9.646095e+000 103 83 58
3.675819e+000 1.701262e+000 -1.079731e+001 84 64 43
2.311989e-001 1.325206e+000 -9.226757e+000 179 152 135
2.020386e+000 1.334991e+000 -9.103259e+000 134 114 90
3.946392e+000 1.524918e+000 -1.079446e+001 97 79 55
1.460823e-001 1.033985e+000 -9.089160e+000 211 178 169
1.567072e-001 1.084822e+000 -9.061520e+000 212 182 174
2.033789e+000 1.243066e+000 -9.021013e+000 162 152 127
2.484715e+000 1.332045e+000 -8.949885e+000 95 97 83
2.848019e+000 1.274688e+000 -9.325534e+000 71 66 47
2.912974e+000 1.273617e+000 -9.242766e+000 100 92 77
2.797057e+000 1.125632e+000 -9.271511e+000 77 69 61
3.954094e+000 1.257692e+000 -1.048783e+001 85 63 39
3.248295e-001 8.569852e-001 -8.986763e+000 176 144 131
1.617178e+000 9.500317e-001 -8.962547e+000 142 129 93
1.560834e+000 9.128766e-001 -8.838602e+000 169 157 110
1.931842e+000 9.515547e-001 -8.877351e+000 159 144 122
2.017875e+000 8.576392e-001 -8.754446e+000 185 175 153
2.467122e+000 1.087224e+000 -8.691404e+000 106 99 83
2.553610e+000 9.795802e-001 -8.669408e+000 94 88 74
2.927546e+000 9.401456e-001 -9.117635e+000 73 71 59
1.936995e+000 8.120483e-001 -8.677378e+000 105 111 83
1.897788e+000 7.468604e-001 -8.596293e+000 143 153 120
1.898412e+000 7.476184e-001 -8.594292e+000 143 153 120
2.037964e+000 7.659778e-001 -8.594963e+000 135 134 114
2.712453e+000 8.297056e-001 -8.712066e+000 52 42 33
1.685606e+000 3.375134e-001 -8.893081e+000 96 102 74
1.715953e+000 2.971048e-001 -8.969232e+000 136 144 114
1.633344e+000 2.622955e-001 -8.789946e+000 120 129 98
2.988708e+000 5.633029e-001 -8.857940e+000 73 66 55
4.282111e+000 3.076679e-001 -9.763315e+000 91 73 49
-1.661777e+000 -8.237611e-001 -1.021901e+001 170 112 110
8.641758e-002 -1.954451e-001 -8.828166e+000 211 182 166
1.770559e-001 -1.674118e-001 -8.966520e+000 178 141 123
2.662738e-001 -1.558101e-001 -8.903958e+000 149 108 93
2.614946e+000 4.204140e-001 -8.609238e+000 126 122 102
2.849987e+000 1.864947e-001 -9.009809e+000 83 74 67
2.982479e+000 1.129213e-001 -8.912635e+000 126 125 102
5.900419e+000 1.098470e-002 -1.089763e+001 158 125 98
-1.729292e+000 -8.858238e-001 -1.015891e+001 218 187 176
-1.628307e+000 -1.021640e+000 -9.879910e+000 189 162 155
-1.581435e+000 -1.022908e+000 -9.901916e+000 185 151 142
1.666957e-002 -2.298685e-001 -8.753301e+000 213 190 174
6.881413e-001 -4.301711e-001 -9.331212e+000 114 78 64
1.925778e+000 2.113699e-002 -8.580015e+000 189 179 159
1.858102e+000 -1.842713e-001 -8.799266e+000 209 203 185
2.840754e+000 -7.772066e-002 -9.089381e+000 174 174 151
2.776105e+000 -3.176701e-001 -9.268495e+000 226 224 203
3.009645e+000 -1.055277e-001 -9.060663e+000 71 62 46
-7.440577e-001 -9.177089e-001 -9.273280e+000 214 173 170
-6.258696e-001 -8.590345e-001 -9.291713e+000 201 154 149
-4.418077e-001 -7.907380e-001 -9.355111e+000 165 108 105
-4.424168e-001 -7.904602e-001 -9.354639e+000 165 108 105
-4.835530e-001 -8.094066e-001 -9.327905e+000 169 116 112
-5.376129e-001 -8.968545e-001 -9.206566e+000 172 126 121
9.225136e-001 -8.477500e-001 -9.668376e+000 145 129 109
1.250381e+000 -7.067458e-001 -9.283465e+000 197 179 155
1.536101e+000 -5.060188e-001 -9.207649e+000 186 171 148
1.547609e+000 -6.314091e-001 -9.194744e+000 203 196 182
1.548847e+000 -5.644132e-001 -9.063624e+000 227 220 205
2.318862e+000 -8.570149e-001 -9.860947e+000 207 204 186
2.493299e+000 -6.568534e-001 -9.593112e+000 100 99 79
2.601191e+000 -7.353151e-001 -9.685631e+000 86 80 69
1.258161e+000 -9.298538e-001 -9.420399e+000 156 137 110
1.917650e+000 -9.411526e-001 -9.633437e+000 69 61 49
2.129677e+000 -1.349474e+000 -1.013828e+001 210 206 174
2.322282e+000 -1.115460e+000 -1.003052e+001 211 209 190
2.322282e+000 -1.115460e+000 -1.003052e+001 211 209 190
-3.433157e-001 -2.025812e+000 -1.071302e+001 137 120 94
4.334382e-001 -1.921535e+000 -1.025392e+001 183 168 142
9.215957e-001 -1.428827e+000 -9.731393e+000 163 148 116
9.996596e-001 -1.501647e+000 -9.803846e+000 168 153 129
-1.144982e-001 -2.384447e+000 -1.053103e+001 178 156 105
9.141221e-001 -1.785351e+000 -9.901108e+000 220 211 192
7.178099e-001 -2.320746e+000 -1.036535e+001 179 173 149
1.214615e+000 -1.966914e+000 -1.011170e+001 95 92 75
5.346903e+000 3.734440e+000 -1.147074e+001 234 170 136
-2.316295e+000 2.392740e+000 -9.057602e+000 107 84 66
1.505937e+000 3.086889e+000 -1.111926e+001 65 53 41
1.518914e+000 3.059022e+000 -1.107098e+001 97 85 74
1.662023e+000 2.986592e+000 -1.062268e+001 88 77 60
5.123365e+000 3.402630e+000 -1.205801e+001 193 113 108
5.462638e+000 3.486240e+000 -1.135320e+001 219 135 126
-2.257872e+000 2.255869e+000 -9.303896e+000 87 64 50
6.407346e-001 2.676240e+000 -1.106835e+001 177 152 96
6.433521e-001 2.675696e+000 -1.111048e+001 177 152 96
7.449697e-001 2.682757e+000 -1.100894e+001 198 177 122
7.305480e-001 2.618581e+000 -1.077814e+001 217 192 138
1.259755e+000 2.520694e+000 -1.025545e+001 100 107 79
1.436336e+000 2.767886e+000 -1.059549e+001 187 175 153
1.580043e+000 2.704087e+000 -1.050150e+001 96 72 51
1.887432e+000 2.582056e+000 -1.028211e+001 103 90 70
2.376680e+000 2.752366e+000 -1.073932e+001 90 75 52
2.739357e+000 2.768800e+000 -1.170575e+001 125 99 74
1.530867e-001 2.282746e+000 -1.022815e+001 223 198 176
3.503923e-001 2.214919e+000 -1.004689e+001 215 177 168
1.075058e+000 2.428395e+000 -1.061637e+001 114 113 92
1.130291e+000 2.233776e+000 -1.031387e+001 68 69 51
1.130010e+000 2.233793e+000 -1.031324e+001 68 69 51
1.552509e+000 2.513569e+000 -1.028514e+001 165 149 128
1.312709e+000 2.367297e+000 -1.018469e+001 87 94 66
1.516052e+000 2.334197e+000 -1.023000e+001 227 225 210
1.908727e+000 2.390045e+000 -1.010090e+001 120 104 79
1.958938e+000 2.366576e+000 -1.007202e+001 99 87 64
-4.034978e-001 1.907625e+000 -1.155927e+001 181 145 135
-3.022114e-003 2.040596e+000 -1.025058e+001 201 159 152
5.963044e-002 2.082377e+000 -1.023649e+001 201 174 151
1.824287e-001 2.081437e+000 -1.007591e+001 195 167 146
3.834037e-001 1.920559e+000 -9.600818e+000 191 145 142
7.964834e-001 2.126367e+000 -1.023492e+001 182 158 130
8.318518e-001 1.995187e+000 -1.001163e+001 153 117 102
1.029331e+000 2.021458e+000 -1.014606e+001 147 120 109
1.742690e+000 2.135879e+000 -1.002305e+001 140 116 87
2.177707e+000 2.278006e+000 -1.006895e+001 93 74 52
2.183879e+000 2.094747e+000 -9.842141e+000 72 61 45
2.209908e+000 2.089345e+000 -9.820625e+000 130 123 95
2.552103e+000 2.145922e+000 -1.017222e+001 54 38 17
3.525671e+000 2.148918e+000 -1.122446e+001 91 71 49
3.746047e+000 2.272505e+000 -1.155836e+001 89 68 45
4.200864e+000 2.254775e+000 -1.179877e+001 125 101 77
-1.276891e+000 1.503155e+000 -9.304742e+000 129 111 96
-1.214823e+000 1.471220e+000 -9.413933e+000 126 104 90
1.395558e+000 1.857965e+000 -9.844531e+000 200 181 159
1.730127e+000 1.788268e+000 -9.682156e+000 204 193 168
2.046218e+000 1.831188e+000 -9.514424e+000 118 114 97
2.367969e+000 2.033478e+000 -1.007704e+001 54 45 29
2.272845e+000 1.884510e+000 -9.679413e+000 73 62 40
2.284765e+000 1.841632e+000 -9.551290e+000 95 89 67
3.537046e+000 2.079777e+000 -1.108030e+001 91 69 48
3.856302e+000 2.029755e+000 -1.132992e+001 96 73 50
3.862623e+000 2.029887e+000 -1.134138e+001 96 73 50
3.913063e+000 2.054713e+000 -1.141280e+001 129 108 84
3.901780e+000 2.057903e+000 -1.137290e+001 129 108 84
3.942356e+000 2.023881e+000 -1.138745e+001 94 73 50
-1.792864e+000 1.279235e+000 -9.266968e+000 125 105 83
-1.022625e+000 1.348947e+000 -9.422367e+000 116 83 68
4.535172e-001 1.435522e+000 -9.173120e+000 189 149 147
5.267894e-001 1.638606e+000 -9.450435e+000 195 155 144
6.146480e-001 1.444672e+000 -9.464204e+000 193 157 145
1.879290e+000 1.651161e+000 -9.505266e+000 135 115 86
1.922132e+000 1.647917e+000 -9.544511e+000 209 192 168
2.331572e+000 1.761566e+000 -9.551199e+000 122 102 65
2.351490e+000 1.679989e+000 -9.441383e+000 66 59 38
3.821871e+000 1.808659e+000 -1.107621e+001 121 100 78
3.849162e+000 1.837453e+000 -1.106425e+001 93 73 47
5.285235e+000 1.746502e+000 -1.178215e+001 238 191 193
1.811489e-001 1.262387e+000 -9.168246e+000 216 188 176
1.025097e-001 1.087971e+000 -9.168379e+000 190 162 150
1.370638e-001 1.119242e+000 -9.140096e+000 212 182 173
7.907141e-001 1.368365e+000 -9.431694e+000 150 110 96
6.324587e-001 1.143121e+000 -9.347992e+000 183 134 128
1.628544e+000 1.438747e+000 -9.343843e+000 79 81 58
1.642448e+000 1.435210e+000 -9.228987e+000 149 155 132
1.746635e+000 1.497665e+000 -9.395507e+000 161 149 125
1.847147e+000 1.479058e+000 -9.358272e+000 173 160 142
1.738419e+000 1.318803e+000 -9.040698e+000 110 124 94
2.032396e+000 1.461108e+000 -9.398870e+000 104 84 59
2.364880e+000 1.590269e+000 -9.335558e+000 75 61 37
2.590726e+000 1.523814e+000 -9.696356e+000 43 34 24
2.720814e+000 1.400421e+000 -9.464059e+000 65 62 52
1.536861e+000 1.027982e+000 -9.434856e+000 178 157 138
1.926503e+000 1.191604e+000 -8.986017e+000 190 185 166
2.301577e+000 1.322800e+000 -8.876183e+000 120 113 93
2.583281e+000 1.297844e+000 -9.008340e+000 78 64 45
2.863915e+000 1.283674e+000 -9.278082e+000 90 84 68
2.921035e+000 1.326512e+000 -9.264434e+000 115 102 86
3.668053e+000 1.284410e+000 -1.028634e+001 81 60 41
5.009615e+000 1.164253e+000 -1.104193e+001 136 109 82
-1.510138e+000 5.711020e-001 -9.173378e+000 96 88 69
4.314721e-001 7.376828e-001 -9.008450e+000 181 150 135
1.572725e+000 8.588085e-001 -8.819968e+000 170 159 111
2.431651e+000 1.078876e+000 -8.698409e+000 90 83 64
2.554602e+000 1.133871e+000 -8.841483e+000 96 88 66
2.958372e+000 1.078298e+000 -8.991638e+000 94 80 63
3.029253e+000 1.036327e+000 -9.080447e+000 221 217 196
4.097379e+000 9.652304e-001 -1.024158e+001 89 66 42
4.654400e+000 9.405821e-001 -1.052035e+001 101 79 55
-1.853036e+000 -1.636238e-001 -1.057408e+001 163 122 104
2.605472e+000 9.071430e-001 -8.634395e+000 90 83 65
2.902145e+000 8.917684e-001 -8.856672e+000 216 213 196
2.634189e+000 7.488665e-001 -8.587548e+000 44 37 28
3.031427e+000 6.453122e-001 -9.005600e+000 89 83 73
-1.607894e+000 -6.266495e-001 -1.066607e+001 202 163 149
1.466572e+000 1.850938e-001 -9.147499e+000 119 117 89
1.628895e+000 2.389324e-001 -8.905664e+000 106 113 82
2.645476e+000 6.275279e-001 -8.694082e+000 114 108 96
3.262705e+000 4.361936e-001 -9.055948e+000 59 45 36
4.924064e+000 5.189755e-001 -1.023419e+001 107 81 54
-1.647584e+000 -8.315113e-001 -1.011121e+001 201 162 151
-9.187430e-001 -7.318415e-001 -1.008971e+001 160 117 110
1.175957e-001 -1.847029e-001 -8.771120e+000 210 186 168
2.344391e-001 -1.553959e-001 -8.885314e+000 203 168 149
2.823758e-001 -1.839495e-001 -8.782702e+000 169 142 125
3.070371e-001 -1.733172e-001 -8.975893e+000 179 142 126
1.278862e+000 -1.600124e-002 -9.249273e+000 192 176 154
1.406697e+000 -1.009266e-001 -9.051544e+000 104 109 84
1.923799e+000 1.641399e-001 -8.728566e+000 157 142 117
2.109365e+000 1.139221e-001 -8.639338e+000 128 116 90
2.343038e+000 1.848962e-001 -8.776827e+000 49 42 31
2.610847e+000 1.961760e-001 -8.686387e+000 48 39 25
2.993112e+000 1.854686e-001 -8.951320e+000 68 62 46
3.040964e+000 3.207311e-001 -8.850554e+000 235 234 216
4.205129e+000 2.302823e-001 -9.757443e+000 95 75 54
4.285924e+000 3.048393e-001 -9.645354e+000 115 94 73
-1.694261e+000 -8.897121e-001 -1.012369e+001 186 149 139
-1.561558e-001 -3.330431e-001 -8.885026e+000 214 187 175
3.953043e-001 -2.441041e-001 -8.801561e+000 125 88 76
1.634464e+000 -2.698694e-001 -8.878519e+000 154 151 126
2.252355e+000 -1.561892e-001 -8.860920e+000 59 56 41
2.459918e+000 1.078380e-001 -8.646605e+000 63 57 43
2.848922e+000 5.860630e-002 -8.983435e+000 78 75 64
2.948366e+000 9.048043e-002 -8.897089e+000 151 148 128
3.030907e+000 3.237737e-002 -9.014167e+000 126 126 108
4.184701e+000 -9.200425e-002 -9.691139e+000 97 78 59
4.245841e+000 -1.031525e-001 -9.758469e+000 114 96 74
-1.221636e+000 -1.033038e+000 -9.848986e+000 178 128 119
-8.071802e-001 -1.007261e+000 -9.280777e+000 202 168 167
-7.188305e-001 -9.303942e-001 -9.241858e+000 199 158 156
-5.921319e-001 -8.619070e-001 -9.261762e+000 186 137 135
-4.740304e-001 -9.349154e-001 -9.223281e+000 172 127 123
3.339466e-001 -8.754131e-001 -9.361195e+000 178 138 140
2.896918e-001 -9.988485e-001 -9.530124e+000 178 130 132
1.029468e+000 -9.566743e-001 -9.797550e+000 157 146 125
1.427800e+000 -6.574884e-001 -9.309638e+000 177 151 121
1.497057e+000 -6.820031e-001 -9.209666e+000 179 171 152
1.796298e+000 -3.251082e-001 -8.761076e+000 178 171 151
3.489739e+000 -3.899530e-001 -9.583704e+000 110 95 76
5.048860e+000 -7.568687e-001 -1.063677e+001 111 87 59
7.942300e-001 -1.323033e+000 -9.854806e+000 112 127 99
8.624108e-001 -1.311313e+000 -9.783535e+000 82 78 51
1.414888e+000 -9.605684e-001 -9.394156e+000 246 244 231
2.119106e+000 -1.261608e+000 -1.014359e+001 248 247 216
2.095678e+000 -1.378856e+000 -1.018724e+001 64 61 30
2.158099e+000 -1.230631e+000 -1.017478e+001 216 214 184
2.181939e+000 -1.230160e+000 -1.013199e+001 68 61 32
2.156583e+000 -1.253378e+000 -1.011962e+001 82 77 47
2.205153e+000 -1.185624e+000 -1.010527e+001 56 51 26
2.220383e+000 -1.247487e+000 -1.015759e+001 233 232 201
3.433987e+000 -1.192912e+000 -1.052174e+001 85 69 45
1.166849e+000 -1.444226e+000 -9.626143e+000 174 166 144
1.628142e+000 -1.441745e+000 -9.951113e+000 79 74 56
2.788719e+000 -1.981504e+000 -1.099987e+001 81 66 45
1.795596e-003 -2.245226e+000 -1.037203e+001 180 156 125
1.136588e+000 -2.133951e+000 -1.017750e+001 144 142 124
1.164303e+000 -2.070076e+000 -1.005441e+001 120 119 99
1.345676e+000 -1.763837e+000 -1.000672e+001 98 91 81
4.980860e+000 3.745480e+000 -1.236469e+001 237 174 145
1.369616e+000 3.031065e+000 -1.094201e+001 148 128 104
1.457149e+000 2.941476e+000 -1.082346e+001 154 138 114
1.706004e+000 2.978253e+000 -1.057637e+001 137 129 108
1.784659e+000 2.886296e+000 -1.052449e+001 94 79 53
1.873196e+000 2.973471e+000 -1.065878e+001 152 144 123
6.781542e-001 2.621735e+000 -1.084828e+001 185 162 108
8.569555e-001 2.590903e+000 -1.055024e+001 201 186 164
9.097686e-001 2.608378e+000 -1.041656e+001 162 133 101
1.494889e+000 2.616591e+000 -1.043632e+001 170 159 140
1.560192e+000 2.651293e+000 -1.048190e+001 98 71 49
5.182273e+000 3.202724e+000 -1.242343e+001 170 88 87
-4.635557e-001 1.970902e+000 -1.163103e+001 170 133 125
1.937856e-001 2.253774e+000 -1.014979e+001 191 158 142
2.960472e-001 2.298849e+000 -1.009881e+001 216 178 169
3.358713e-001 2.281100e+000 -1.005858e+001 204 167 158
4.841580e-001 2.263349e+000 -1.006300e+001 185 141 132
1.143830e+000 2.408851e+000 -1.052446e+001 93 92 72
1.070482e+000 2.333604e+000 -1.048137e+001 115 114 93
1.550168e+000 2.302295e+000 -1.016785e+001 248 248 237
1.600404e+000 2.528649e+000 -1.032377e+001 174 157 134
1.879312e+000 2.537111e+000 -1.010702e+001 103 88 67
2.431500e+000 2.579149e+000 -1.065979e+001 93 76 48
3.069393e+000 2.472494e+000 -1.114279e+001 103 81 57
4.102016e+000 2.556276e+000 -1.225447e+001 137 108 84
-5.894525e-001 1.837778e+000 -1.152384e+001 142 74 82
-4.479399e-001 1.921748e+000 -1.156870e+001 148 111 102
2.893019e-001 1.982582e+000 -1.008410e+001 177 109 104
4.377976e-001 2.071344e+000 -1.008737e+001 164 113 98
3.738089e-001 1.987464e+000 -1.009206e+001 222 198 172
7.534326e-001 2.102399e+000 -1.008766e+001 171 145 120
8.025969e-001 2.088368e+000 -1.021599e+001 227 208 178
1.029574e+000 2.132933e+000 -1.033701e+001 108 109 93
1.047449e+000 2.199406e+000 -1.027241e+001 56 57 39
1.286843e+000 2.094503e+000 -1.006313e+001 124 116 96
1.266660e+000 2.056473e+000 -9.961362e+000 110 97 78
1.673770e+000 2.147892e+000 -9.989656e+000 219 209 189
1.975139e+000 2.307715e+000 -1.003260e+001 102 87 60
1.992527e+000 2.258039e+000 -9.994422e+000 97 85 63
2.114023e+000 2.305060e+000 -1.005841e+001 72 63 47
2.524417e+000 2.308327e+000 -1.022456e+001 94 76 53
2.554967e+000 2.269808e+000 -1.020038e+001 97 78 55
2.471177e+000 2.176697e+000 -1.015310e+001 104 94 69
3.454849e+000 2.293553e+000 -1.127479e+001 100 76 52
3.621926e+000 2.317262e+000 -1.150288e+001 118 96 73
3.674438e+000 2.310405e+000 -1.166866e+001 118 96 73
3.386430e+000 2.168924e+000 -1.107662e+001 94 74 50
3.386430e+000 2.168924e+000 -1.107662e+001 94 74 50
3.447132e+000 2.141869e+000 -1.113657e+001 121 101 77
3.446259e+000 2.141872e+000 -1.113615e+001 121 101 77
3.657011e+000 2.153268e+000 -1.128335e+001 117 97 73
4.231971e+000 2.185096e+000 -1.171151e+001 116 90 65
4.231971e+000 2.185096e+000 -1.171151e+001 116 90 65
-1.660413e+000 1.441308e+000 -9.247909e+000 119 100 75
-1.458509e+000 1.524757e+000 -9.336980e+000 83 68 49
1.152592e-001 1.704841e+000 -1.000601e+001 187 131 134
2.478923e-001 1.796511e+000 -9.688657e+000 194 133 135
3.478843e-001 1.860944e+000 -9.576581e+000 210 165 163
3.478843e-001 1.860944e+000 -9.576581e+000 210 165 163
2.903532e-001 1.732182e+000 -9.613869e+000 192 142 141
1.388058e+000 1.921108e+000 -9.896931e+000 199 185 165
1.373213e+000 1.868392e+000 -9.928343e+000 165 147 122
1.365668e+000 1.874063e+000 -9.869088e+000 165 147 122
1.446097e+000 1.871556e+000 -9.860232e+000 187 169 147
1.690212e+000 1.759037e+000 -9.724471e+000 215 208 187
2.053808e+000 2.062866e+000 -9.750890e+000 103 91 70
2.110507e+000 1.826159e+000 -9.545465e+000 130 126 105
2.440337e+000 1.869238e+000 -9.939891e+000 41 35 30
2.355702e+000 1.846609e+000 -9.649028e+000 116 94 48
2.517985e+000 1.843832e+000 -9.968544e+000 49 44 35
2.677170e+000 1.874996e+000 -9.963439e+000 86 74 54
3.426919e+000 2.097345e+000 -1.112012e+001 95 74 52
3.473820e+000 1.974915e+000 -1.097828e+001 114 95 72
3.807318e+000 2.022109e+000 -1.134343e+001 117 99 75
3.798324e+000 2.025962e+000 -1.130455e+001 117 99 75
3.885034e+000 2.000806e+000 -1.131062e+001 121 102 78
3.838701e+000 1.871803e+000 -1.114108e+001 119 98 75
3.962884e+000 1.982345e+000 -1.131173e+001 120 98 76
4.038482e+000 1.986411e+000 -1.139858e+001 110 86 62
-3.072599e+000 1.340837e+000 -8.235964e+000 130 105 73
-1.689099e-001 1.300825e+000 -1.016491e+001 165 105 113
5.265705e-001 1.558251e+000 -9.562909e+000 195 155 145
5.551421e-001 1.421542e+000 -9.430226e+000 204 172 160
5.899575e-001 1.409071e+000 -9.405122e+000 148 106 93
1.719692e+000 1.712563e+000 -9.609435e+000 184 167 142
2.279060e+000 1.765937e+000 -9.554296e+000 60 51 29
2.299190e+000 1.800114e+000 -9.497158e+000 75 64 42
4.508653e+000 1.758069e+000 -1.151607e+001 96 72 50
1.691305e-001 1.289244e+000 -9.211692e+000 185 149 139
2.163013e-001 1.287923e+000 -9.143940e+000 185 152 144
2.190767e-001 1.287731e+000 -9.149363e+000 185 152 144
1.736691e+000 1.352286e+000 -9.045180e+000 156 166 138
1.889801e+000 1.352204e+000 -9.137304e+000 233 227 212
2.183557e+000 1.527264e+000 -9.349397e+000 129 125 106
2.365567e+000 1.501867e+000 -9.241467e+000 91 81 64
2.252045e+000 1.374265e+000 -9.200835e+000 114 105 88
2.282973e+000 1.475553e+000 -9.123745e+000 94 83 60
2.398396e+000 1.488791e+000 -9.219808e+000 128 125 106
3.511696e+000 1.401903e+000 -1.035492e+001 107 86 65
3.486316e+000 1.408729e+000 -1.028570e+001 107 86 65
3.798755e+000 1.362641e+000 -1.049793e+001 72 55 37
-2.000831e+000 4.125759e-001 -1.014618e+001 159 145 132
7.045456e-002 1.062608e+000 -9.231671e+000 215 186 171
8.201311e-001 1.073254e+000 -9.228026e+000 140 99 76
1.775950e+000 1.095251e+000 -8.988405e+000 108 110 80
2.539258e+000 1.280073e+000 -8.985018e+000 60 49 37
2.405968e+000 1.238377e+000 -9.033330e+000 105 91 69
2.414633e+000 1.163433e+000 -8.779977e+000 89 82 63
2.746612e+000 1.307012e+000 -9.363942e+000 53 49 38
2.824326e+000 1.197938e+000 -9.152507e+000 109 106 89
2.976102e+000 1.256629e+000 -9.190256e+000 70 55 34
4.811721e+000 1.070611e+000 -1.087906e+001 134 110 84
6.152516e-001 7.476707e-001 -9.078741e+000 134 92 70
1.975605e+000 8.398982e-001 -8.798716e+000 150 135 114
2.406005e+000 1.078703e+000 -8.715604e+000 137 134 116
2.406005e+000 1.078703e+000 -8.715604e+000 137 134 116
2.608781e+000 1.065749e+000 -8.726959e+000 62 49 40
2.856110e+000 1.120511e+000 -9.048168e+000 109 104 90
3.030737e+000 1.090072e+000 -9.083385e+000 86 78 56
4.679207e+000 8.804335e-001 -1.046066e+001 111 87 60
-1.932854e+000 -1.443350e-001 -1.062487e+001 178 138 125
-1.832803e+000 -1.843541e-001 -1.068281e+001 199 155 142
1.453008e+000 5.247966e-001 -9.079534e+000 201 187 157
1.876505e+000 8.065173e-001 -8.711288e+000 155 154 126
2.024515e+000 7.884996e-001 -8.633373e+000 131 133 111
1.910629e+000 6.686174e-001 -8.555625e+000 123 135 101
2.575285e+000 9.092552e-001 -8.650761e+000 60 52 41
-1.906735e+000 -7.294973e-001 -1.090984e+001 185 161 138
1.910706e+000 3.898210e-001 -8.596090e+000 166 169 140
1.995154e+000 4.905636e-001 -8.461344e+000 142 153 124
2.616869e+000 5.313018e-001 -8.518478e+000 186 184 162
-4.416659e-001 -2.526066e-001 -9.380451e+000 220 194 181
-3.380879e-001 -4.448491e-001 -9.356377e+000 203 187 169
6.845813e-002 -1.779026e-001 -9.037917e+000 174 128 116
2.362263e+000 1.291697e-001 -8.620943e+000 145 144 126
2.590503e+000 1.194509e-001 -8.738286e+000 74 68 54
3.041064e+000 3.792410e-001 -8.824646e+000 255 255 244
3.044353e+000 2.761977e-001 -8.850062e+000 61 59 39
3.099050e+000 2.974754e-001 -8.875609e+000 131 127 111
-8.272877e-001 -6.860676e-001 -9.732748e+000 206 172 163
-5.142607e-001 -7.155383e-001 -9.417639e+000 178 116 117
-9.379952e-002 -4.865931e-001 -8.760307e+000 210 184 171
1.442271e+000 -3.912906e-001 -9.341833e+000 157 135 111
1.880518e+000 -1.882928e-001 -8.703162e+000 179 168 150
2.175828e+000 -1.048308e-001 -8.823367e+000 73 67 52
2.200859e+000 -1.705233e-001 -8.890038e+000 116 113 96
4.012526e+000 -1.558940e-001 -9.810363e+000 100 84 61
4.858268e+000 -2.715516e-001 -1.017951e+001 101 80 56
5.780789e+000 -3.384274e-001 -1.054864e+001 215 135 46
-1.560210e+000 -1.082244e+000 -9.831606e+000 187 165 158
-1.322027e+000 -1.239458e+000 -9.837108e+000 180 138 129
-6.220864e-001 -1.005474e+000 -9.271538e+000 189 158 155
1.793472e+000 -3.844175e-001 -9.007668e+000 176 173 155
1.762296e+000 -6.541158e-001 -9.231246e+000 77 61 43
1.983784e+000 -7.218818e-001 -9.422502e+000 63 57 45
1.983784e+000 -7.218818e-001 -9.422502e+000 63 57 45
2.582351e+000 -8.301881e-001 -9.821169e+000 83 69 51
2.601021e+000 -5.479253e-001 -9.502192e+000 68 62 45
2.708491e+000 -4.081795e-001 -9.365287e+000 65 59 46
2.776907e+000 -6.838667e-001 -9.700659e+000 166 163 151
4.070081e+000 -5.005810e-001 -9.972756e+000 89 71 47
4.355520e+000 -4.676453e-001 -1.001888e+001 94 72 49
5.039511e+000 -6.568582e-001 -1.071347e+001 92 70 46
4.972822e+000 -4.379070e-001 -1.020009e+001 135 111 83
5.453458e+000 -7.326608e-001 -1.075409e+001 174 127 76
-3.724570e-001 -1.074984e+000 -9.307922e+000 134 92 85
8.923124e-001 -1.144000e+000 -9.737770e+000 58 62 39
1.137204e+000 -1.018463e+000 -9.505490e+000 204 198 174
1.274141e+000 -1.131198e+000 -9.489510e+000 253 252 237
3.592701e+000 -1.181933e+000 -1.060224e+001 107 92 71
4.292021e+000 -1.193352e+000 -1.089506e+001 93 75 51
4.084823e-002 -1.945181e+000 -1.046445e+001 133 112 80
7.971719e-001 -1.441544e+000 -9.804370e+000 159 166 137
7.778310e-001 -1.560732e+000 -9.924899e+000 171 154 115
1.031685e+000 -1.706064e+000 -9.884587e+000 225 224 209
1.277847e+000 -1.285450e+000 -9.550184e+000 138 118 91
1.653746e+000 -1.482177e+000 -9.985148e+000 170 165 145
2.156479e+000 -1.419185e+000 -1.018942e+001 59 52 36
2.235183e+000 -1.460446e+000 -1.025894e+001 74 65 50
3.377483e+000 -1.624061e+000 -1.091285e+001 87 71 48
8.070166e-001 -2.049537e+000 -1.010302e+001 180 174 152
9.895857e-001 -2.067028e+000 -1.011342e+001 146 130 105
1.029366e+000 -2.091286e+000 -1.012913e+001 100 93 76
1.029366e+000 -2.091286e+000 -1.012913e+001 100 93 76
1.309395e+000 -1.828942e+000 -1.007178e+001 105 97 86
1.364443e+000 -1.941133e+000 -9.948748e+000 133 130 112
5.439306e-001 -2.588786e+000 -1.074280e+001 162 144 122
1.402024e+000 -2.527392e+000 -1.059731e+001 97 94 82
5.515108e+000 3.951635e+000 -1.159801e+001 198 166 116
5.515108e+000 3.951635e+000 -1.159801e+001 198 166 116
5.105020e+000 3.704971e+000 -1.242323e+001 235 171 146
1.587859e+000 3.068031e+000 -1.099049e+001 80 70 57
1.703328e+000 3.038194e+000 -1.090536e+001 129 121 102
1.842593e+000 3.024632e+000 -1.072259e+001 75 62 46
1.883196e+000 2.931553e+000 -1.063940e+001 82 71 50
1.337309e+000 2.720832e+000 -1.066624e+001 154 137 110
1.899622e+000 2.835459e+000 -1.046744e+001 69 57 36
2.164016e+000 2.761208e+000 -1.076429e+001 45 37 26
1.959650e+000 2.702643e+000 -1.044366e+001 78 66 46
5.467887e+000 2.993922e+000 -1.152958e+001 140 125 104
-3.832843e+000 1.815434e+000 -8.395501e+000 133 105 75
-2.338387e+000 1.937608e+000 -8.690805e+000 88 62 47
5.270366e-001 2.232527e+000 -1.004484e+001 141 96 84
7.399265e-001 2.345061e+000 -1.049455e+001 142 109 88
7.399265e-001 2.345061e+000 -1.049455e+001 142 109 88
1.028799e+000 2.458848e+000 -1.056882e+001 90 88 65
1.635777e+000 2.409114e+000 -1.026082e+001 149 131 107
2.017844e+000 2.490155e+000 -1.019990e+001 73 60 34
3.377420e+000 2.587178e+000 -1.186352e+001 135 109 83
3.243445e+000 2.532686e+000 -1.143730e+001 114 88 63
3.588712e+000 2.414728e+000 -1.162337e+001 103 78 52
4.726558e+000 2.718185e+000 -1.284649e+001 199 145 101
4.322000e+000 2.575071e+000 -1.239326e+001 103 77 54
-3.766857e+000 1.646800e+000 -8.388275e+000 132 101 71
1.097692e+000 2.205760e+000 -1.033216e+001 108 109 91
1.146400e+000 2.185480e+000 -1.020427e+001 70 71 53
1.165973e+000 2.126561e+000 -1.003924e+001 87 89 68
2.081987e+000 2.270149e+000 -9.983258e+000 77 66 44
2.111128e+000 2.172995e+000 -9.900820e+000 62 51 33
2.405707e+000 2.083601e+000 -1.015443e+001 44 41 29
3.651982e+000 2.418025e+000 -1.163619e+001 129 105 82
4.089547e+000 2.265208e+000 -1.176863e+001 102 76 53
1.387458e+000 1.918509e+000 -9.909789e+000 199 185 165
2.077417e+000 1.967445e+000 -9.546032e+000 97 86 66
2.231334e+000 2.014173e+000 -9.724699e+000 83 68 43
2.133752e+000 1.869890e+000 -9.585814e+000 102 90 68
3.546309e+000 2.020352e+000 -1.109603e+001 117 96 75
3.416254e+000 1.908867e+000 -1.090261e+001 101 84 64
3.500077e+000 1.846072e+000 -1.090785e+001 106 89 69
3.771652e+000 2.085832e+000 -1.134666e+001 94 73 52
5.480787e+000 2.283894e+000 -1.140546e+001 141 116 112
-4.763155e-001 1.330304e+000 -1.062520e+001 177 128 132
2.253541e+000 1.586656e+000 -9.337003e+000 96 90 62
2.879328e+000 1.734104e+000 -9.668737e+000 118 97 76
3.581331e+000 1.793811e+000 -1.085723e+001 114 92 71
3.444441e+000 1.682584e+000 -1.058777e+001 90 69 48
3.669211e+000 1.732607e+000 -1.086396e+001 117 96 75
4.629156e+000 1.750682e+000 -1.158991e+001 100 78 57
5.201645e+000 1.765477e+000 -1.192317e+001 179 94 77
5.464156e+000 1.682064e+000 -1.143918e+001 228 217 219
1.583545e+000 1.274997e+000 -9.562587e+000 170 153 133
1.716638e+000 1.477370e+000 -9.252981e+000 179 172 151
1.855913e+000 1.451159e+000 -9.279608e+000 206 200 182
1.954114e+000 1.336776e+000 -9.083958e+000 207 202 182
1.993523e+000 1.381208e+000 -9.169540e+000 156 138 114
2.045740e+000 1.409604e+000 -9.168208e+000 141 125 96
2.335248e+000 1.558625e+000 -9.246369e+000 130 106 61
2.671077e+000 1.501749e+000 -9.394134e+000 116 108 95
2.630508e+000 1.439215e+000 -9.574802e+000 39 30 25
2.799700e+000 1.413722e+000 -9.491679e+000 94 82 68
3.499444e+000 1.414630e+000 -1.032068e+001 106 85 64
3.758611e+000 1.538800e+000 -1.059878e+001 86 65 44
3.735871e+000 1.398674e+000 -1.047635e+001 106 90 68
-1.966630e+000 4.172505e-001 -9.923747e+000 104 90 77
4.917554e-002 9.609228e-001 -9.565472e+000 170 130 118
1.026000e+000 1.110081e+000 -9.629561e+000 133 92 72
2.895536e+000 1.309419e+000 -9.306380e+000 45 41 30
2.904453e+000 1.204614e+000 -9.076796e+000 110 97 79
3.837963e+000 1.118175e+000 -1.027522e+001 84 62 39
5.637479e+000 1.344283e+000 -1.106869e+001 212 85 76
-1.614620e+000 2.351319e-001 -9.900570e+000 184 160 150
3.915787e-001 7.790271e-001 -8.993834e+000 225 200 180
1.551289e+000 7.956959e-001 -9.187161e+000 164 142 73
2.594879e+000 1.103818e+000 -8.785892e+000 78 67 57
2.793995e+000 1.086077e+000 -9.217151e+000 34 27 24
3.025649e+000 9.992528e-001 -9.037582e+000 76 68 52
3.685394e+000 9.829568e-001 -9.915072e+000 80 59 38
-9.751846e-001 4.495076e-002 -1.003237e+001 176 125 124
2.870597e+000 8.189351e-001 -9.092584e+000 37 32 22
2.920470e+000 8.265320e-001 -9.000733e+000 43 40 25
1.667391e+000 3.799269e-001 -8.979780e+000 100 96 69
1.982850e+000 4.684937e-001 -8.604974e+000 136 152 116
2.924330e+000 5.290749e-001 -8.723068e+000 173 171 149
3.118827e+000 4.676453e-001 -8.890460e+000 128 122 96
3.154838e+000 4.772748e-001 -8.885788e+000 48 37 31
8.686573e-001 -3.111036e-001 -9.447583e+000 148 120 103
1.426271e+000 6.360138e-002 -9.068914e+000 131 143 107
2.385260e+000 2.466665e-001 -8.546977e+000 138 138 119
3.010074e+000 1.155797e-001 -8.913655e+000 185 182 165
-1.430759e+000 -1.016137e+000 -9.843556e+000 186 147 131
-1.366980e+000 -1.032876e+000 -9.873203e+000 211 181 162
-8.780827e-001 -7.591953e-001 -9.792058e+000 167 127 123
-2.283492e-001 -3.978657e-001 -9.077376e+000 239 219 202
9.209554e-001 -4.635684e-001 -9.597711e+000 158 132 112
1.583151e+000 -1.085088e-001 -8.720306e+000 142 153 118
1.740289e+000 -8.291506e-002 -8.798019e+000 156 139 113
1.903008e+000 -1.707768e-001 -8.824017e+000 179 174 149
2.868076e+000 -2.141853e-001 -9.134191e+000 77 70 52
2.903079e+000 -7.196975e-002 -8.942018e+000 63 60 43
3.873358e+000 -2.354835e-001 -9.685048e+000 93 78 55
-1.519208e+000 -1.131402e+000 -9.807093e+000 212 219 221
-1.443837e+000 -1.148654e+000 -9.808676e+000 183 143 136
-5.688287e-002 -9.277284e-001 -9.215300e+000 118 88 81
1.566908e+000 -4.892083e-001 -9.254382e+000 168 157 137
1.465982e+000 -7.313311e-001 -9.268521e+000 245 245 239
2.011757e+000 -7.085670e-001 -9.447622e+000 74 67 51
3.591126e+000 -5.535538e-001 -9.815027e+000 104 87 67
3.573164e+000 -4.793045e-001 -9.719755e+000 75 58 35
3.733685e+000 -5.374529e-001 -9.835192e+000 70 54 31
3.876251e+000 -5.385848e-001 -9.942970e+000 81 63 40
9.683481e-001 -1.315355e+000 -9.827720e+000 124 100 73
1.250957e+000 -9.617357e-001 -9.447836e+000 143 116 86
1.296289e+000 -9.191941e-001 -9.420724e+000 210 204 180
1.180629e+000 -1.108036e+000 -9.498510e+000 191 179 158
1.171189e+000 -1.212404e+000 -9.661849e+000 147 132 108
