ply
format ascii 1.0
element face 0
property list uchar int vertex_indices
element vertex 877
property float x
property float y
property float z
property uchar diffuse_red
property uchar diffuse_green
property uchar diffuse_blue
end_header
3.220484e+000 -4.776007e+000 -1.355040e+001 231 164 75
-3.436462e+000 2.538137e+000 -8.438383e+000 149 105 96
1.342403e+000 2.485976e+000 -1.021506e+001 179 158 139
1.404293e+000 2.081816e+000 -9.881470e+000 247 230 208
1.584572e+000 1.913538e+000 -9.800584e+000 239 218 194
1.925831e+000 8.942467e-001 -8.790057e+000 179 159 130
1.881904e+000 6.137243e-001 -8.709500e+000 114 113 76
3.000289e-001 1.670970e+000 -9.453973e+000 235 189 173
5.298627e+000 3.657129e-001 -1.035900e+001 120 86 58
-3.924921e+000 2.368810e+000 -8.573733e+000 178 122 107
-3.949528e+000 2.294326e+000 -8.617448e+000 195 137 128
5.778176e-001 7.902525e-001 -9.083797e+000 162 117 96
1.580607e+000 2.187657e-001 -8.932658e+000 145 144 109
1.856561e+000 2.257483e-001 -8.768163e+000 175 148 121
2.373298e+000 -9.590876e-002 -8.778102e+000 56 42 29
4.404099e-001 7.018420e-001 -9.202928e+000 169 125 98
1.908766e+000 -2.993544e-001 -8.761519e+000 129 99 70
2.234487e+000 -1.692485e-001 -8.971103e+000 59 46 30
1.239825e+000 3.666873e-001 -9.538652e+000 171 125 102
5.540657e+000 -7.422159e-001 -1.096331e+001 146 97 57
-3.954709e+000 1.389195e+000 -8.670864e+000 139 104 70
-4.000433e+000 1.331477e+000 -8.718627e+000 134 101 68
-2.893235e+000 1.099398e+000 -8.817121e+000 53 44 37
2.033201e+000 -6.370027e-001 -9.274724e+000 135 123 107
2.514406e+000 -7.294810e-001 -9.779714e+000 56 42 29
-5.206335e-001 -1.906778e-001 -9.302172e+000 220 174 158
-2.933355e-001 -4.046918e-001 -9.111089e+000 206 165 145
-1.666972e-001 -5.448900e-001 -8.903558e+000 196 159 140
2.385420e+000 -9.165140e-001 -9.788045e+000 63 51 37
3.193475e+000 -9.560887e-001 -1.014102e+001 66 43 25
4.030826e+000 -9.898637e-001 -1.063399e+001 100 74 51
4.545818e+000 -1.184570e+000 -1.091431e+001 114 80 52
5.173154e+000 -1.117670e+000 -1.115106e+001 163 125 98
5.448453e+000 -1.544967e+000 -1.087588e+001 212 127 46
-1.522223e+000 2.105674e-001 -9.690008e+000 117 84 65
1.045072e+000 -1.013159e+000 -9.592329e+000 162 146 112
1.312895e+000 -9.142083e-001 -9.402492e+000 167 134 94
1.341560e+000 -1.024618e+000 -9.417384e+000 194 170 146
2.157166e+000 -1.184982e+000 -1.000002e+001 55 43 29
5.318032e+000 -1.793344e+000 -1.101108e+001 203 123 55
8.896897e-001 -1.073367e+000 -9.689675e+000 103 99 74
1.696459e+000 -1.351963e+000 -9.965730e+000 66 50 37
2.174058e+000 -1.342716e+000 -1.008451e+001 63 50 33
3.938918e+000 -1.394697e+000 -1.096883e+001 97 69 45
3.587358e+000 -1.508072e+000 -1.088889e+001 81 55 32
3.586807e+000 -1.508851e+000 -1.088761e+001 81 55 32
6.828284e-001 -1.183094e+000 -9.845583e+000 92 82 55
1.407348e+000 -1.590290e+000 -9.957305e+000 83 65 50
1.895791e+000 -1.548060e+000 -1.029307e+001 45 34 29
-1.050648e+000 -1.009965e+000 -9.778990e+000 169 111 99
-1.566728e-001 -1.243848e+000 -9.648252e+000 177 137 125
7.290786e-001 -1.460084e+000 -1.006757e+001 171 139 108
-1.841905e+000 -7.716504e-001 -1.063604e+001 218 181 157
-1.880080e+000 -8.060578e-001 -1.064850e+001 166 123 102
-8.807220e-001 -1.468872e+000 -1.008713e+001 184 136 126
-7.200339e-001 -1.478637e+000 -1.023696e+001 183 143 123
-7.550358e-001 -1.526813e+000 -1.038879e+001 149 92 85
1.114012e+000 -2.182847e+000 -1.007725e+001 64 50 38
1.158348e+000 -2.388041e+000 -1.031488e+001 156 144 119
1.797112e+000 -2.399997e+000 -1.063287e+001 69 54 38
2.355297e+000 -2.436169e+000 -1.120256e+001 78 56 35
-1.241802e+000 -1.486682e+000 -1.030831e+001 228 199 179
-7.937751e-001 -1.546924e+000 -1.056275e+001 177 144 125
1.122278e+000 -2.258153e+000 -1.073666e+001 69 51 37
4.595293e+000 -3.288985e+000 -1.197167e+001 233 216 200
4.638778e+000 -3.281459e+000 -1.204258e+001 233 216 200
-3.571317e-001 -2.081916e+000 -1.069383e+001 112 81 53
1.375635e+000 -2.757344e+000 -1.118173e+001 64 53 33
2.902866e+000 -2.986955e+000 -1.205441e+001 96 68 44
2.902866e+000 -2.986955e+000 -1.205441e+001 96 68 44
-5.943297e-001 -2.338244e+000 -1.154551e+001 139 113 80
5.491244e-002 -2.941756e+000 -1.103904e+001 177 153 122
3.076332e+000 -3.531315e+000 -1.280446e+001 108 77 49
-6.738405e-001 -2.676942e+000 -1.158858e+001 80 79 48
5.719537e-001 -3.193938e+000 -1.122147e+001 59 44 31
2.307362e+000 -3.678256e+000 -1.252688e+001 100 74 51
3.697806e-001 -3.616596e+000 -1.158740e+001 58 42 27
9.089283e-001 -3.551621e+000 -1.186908e+001 64 50 33
1.516781e+000 -4.049001e+000 -1.246783e+001 89 62 42
2.377299e+000 -4.223403e+000 -1.312935e+001 94 64 40
1.089929e+000 1.934589e+000 -9.813168e+000 194 170 144
1.896062e+000 8.728862e-001 -8.929469e+000 188 166 135
2.692095e+000 7.436753e-001 -8.829516e+000 92 76 60
-3.595660e+000 2.517668e+000 -8.396456e+000 190 140 133
-2.579089e+000 1.922276e+000 -8.380222e+000 119 96 76
-2.229980e+000 1.856700e+000 -8.663740e+000 154 136 118
5.322828e+000 8.044626e-001 -1.065738e+001 232 205 191
-3.346825e+000 1.757759e+000 -8.243720e+000 124 91 60
-3.334566e+000 1.719421e+000 -8.195764e+000 124 91 60
1.629002e+000 1.621201e-001 -8.738252e+000 139 141 102
1.766684e+000 -2.311493e-002 -8.759572e+000 151 125 88
2.142821e+000 2.240114e-002 -8.865385e+000 117 91 67
2.791262e+000 -3.759148e-002 -9.190526e+000 49 36 34
4.045904e+000 -1.963334e-002 -9.619488e+000 94 72 48
1.553094e+000 3.671149e-001 -9.397574e+000 172 140 115
1.818610e+000 -1.488303e-001 -8.715415e+000 252 245 226
1.997664e+000 -1.490597e-001 -8.835309e+000 93 65 47
2.791756e+000 -3.107154e-001 -9.338603e+000 57 45 29
5.781795e+000 -3.421349e-001 -1.076197e+001 171 120 65
-1.872137e+000 1.419634e+000 -9.474749e+000 132 114 100
1.508199e+000 -4.862569e-001 -9.214332e+000 170 139 110
2.018811e+000 -6.652530e-001 -9.340903e+000 64 52 35
2.473532e+000 -4.602072e-001 -9.647748e+000 41 29 22
2.379288e+000 -6.223474e-001 -9.753915e+000 41 34 27
4.782444e+000 -9.547945e-001 -1.076320e+001 131 98 69
-1.128129e-001 -3.144942e-001 -8.897179e+000 202 162 144
1.201608e+000 -6.701385e-001 -9.232903e+000 223 198 169
-2.529844e+000 7.569388e-001 -9.849515e+000 224 224 219
1.656617e+000 -9.634801e-001 -9.692483e+000 58 43 32
3.969701e-001 -1.045733e+000 -9.564065e+000 153 99 95
3.349730e-001 -1.232615e+000 -9.869155e+000 135 87 71
5.918343e-001 -1.212047e+000 -1.009494e+001 128 84 60
3.528600e+000 -1.711737e+000 -1.105314e+001 111 86 66
-4.558449e-001 -1.189038e+000 -1.004722e+001 115 48 39
8.971497e-001 -1.767721e+000 -9.960789e+000 186 157 125
1.421064e+000 -1.944657e+000 -9.954350e+000 60 43 33
3.763657e+000 -2.066515e+000 -1.143793e+001 88 58 34
-3.848496e-001 -1.365030e+000 -1.007120e+001 129 67 56
2.943738e+000 -2.530203e+000 -1.160685e+001 81 55 32
-3.270549e-002 -2.135055e+000 -1.016173e+001 234 216 188
8.404154e-001 -2.450328e+000 -1.057980e+001 53 38 30
1.120985e+000 -2.510264e+000 -1.072582e+001 111 64 39
1.236074e+000 -2.449197e+000 -1.057837e+001 60 46 35
-1.437616e+000 -1.505326e+000 -1.107881e+001 202 161 145
-1.134893e+000 -1.915356e+000 -1.156865e+001 173 109 100
-1.100478e+000 -1.949081e+000 -1.166352e+001 199 147 136
-1.024086e+000 -2.100410e+000 -1.159414e+001 183 128 121
-6.964901e-001 -2.084127e+000 -1.156426e+001 180 135 114
-5.153393e-001 -2.358419e+000 -1.113843e+001 171 137 94
-4.244101e-001 -2.499305e+000 -1.076465e+001 141 112 72
-1.004958e+000 -2.056763e+000 -1.200473e+001 165 106 100
-5.270106e-001 -2.660443e+000 -1.088157e+001 237 211 177
-5.270106e-001 -2.660443e+000 -1.088157e+001 237 211 177
-3.974027e-001 -2.824168e+000 -1.083717e+001 223 200 150
-4.023877e-001 -2.826613e+000 -1.082378e+001 223 200 150
9.170026e-002 -2.953724e+000 -1.082380e+001 148 113 85
6.779706e-001 -3.084704e+000 -1.130340e+001 56 44 28
1.131608e+000 -3.139257e+000 -1.149070e+001 59 46 30
-4.885119e-001 -2.911425e+000 -1.086596e+001 179 147 102
-1.495323e-001 -3.057768e+000 -1.155931e+001 163 147 115
-8.174004e-001 -2.744394e+000 -1.240521e+001 204 178 141
-6.399022e-001 -2.997785e+000 -1.235497e+001 159 141 117
-3.574355e-001 -3.107579e+000 -1.187282e+001 128 128 93
-4.713651e-001 -3.104735e+000 -1.205380e+001 105 104 73
1.876312e+000 -3.924785e+000 -1.254782e+001 98 71 50
-9.926438e-001 -2.907106e+000 -1.326848e+001 189 166 142
2.713273e-001 -3.849298e+000 -1.172725e+001 65 52 35
2.141812e+000 -4.148849e+000 -1.294250e+001 120 93 67
3.496949e+000 -4.595778e+000 -1.354725e+001 202 99 47
3.419015e+000 -4.752923e+000 -1.332016e+001 151 133 119
4.042253e+000 -5.033181e+000 -1.230400e+001 173 147 123
5.911427e-002 -3.927736e+000 -1.161553e+001 143 110 78
3.363192e+000 -4.814681e+000 -1.342350e+001 156 135 124
5.628390e+000 2.292134e+000 -1.122501e+001 157 115 73
5.491204e+000 2.172403e+000 -1.103609e+001 157 115 73
1.422154e+000 1.758442e+000 -9.739102e+000 200 175 145
-2.580226e+000 1.980990e+000 -8.554022e+000 111 90 69
1.585374e+000 8.190220e-001 -8.905042e+000 183 148 63
1.652763e+000 6.890371e-001 -8.886923e+000 154 113 60
2.896531e+000 1.969540e-001 -8.998539e+000 53 41 32
-3.219922e+000 1.742648e+000 -8.258267e+000 128 92 58
-2.247812e+000 1.791150e+000 -8.753960e+000 174 153 132
1.448934e+000 1.321693e+000 -9.797780e+000 187 157 133
1.429230e+000 5.833377e-001 -9.280270e+000 204 175 145
3.029471e+000 -9.606720e-002 -9.067895e+000 75 56 42
1.813752e+000 -2.355255e-001 -8.788519e+000 254 253 242
4.794412e+000 -3.274859e-001 -1.011199e+001 106 74 51
5.288303e+000 -2.968739e-001 -1.040167e+001 119 83 54
4.662999e+000 -4.762221e-001 -1.028136e+001 102 72 48
-4.237828e-001 8.451630e-002 -9.583040e+000 214 165 150
-4.776292e-001 7.000939e-002 -9.716408e+000 150 102 90
-2.138580e+000 4.543636e-001 -1.022717e+001 116 91 71
-2.138580e+000 4.543636e-001 -1.022717e+001 116 91 71
-1.639821e+000 1.511538e-001 -9.924737e+000 84 57 38
-1.742679e-001 -8.399913e-001 -9.557594e+000 217 181 159
7.586760e-002 -9.894610e-001 -9.376372e+000 120 61 55
2.064933e+000 -1.207129e+000 -1.018608e+001 35 28 22
4.036149e-002 -1.295577e+000 -9.793675e+000 221 183 172
-1.564474e+000 -1.121968e+000 -9.954856e+000 168 102 92
1.989035e+000 -2.182362e+000 -1.044190e+001 75 54 37
1.985215e+000 -2.266908e+000 -1.059755e+001 68 51 35
-1.020750e+000 -1.496428e+000 -1.030086e+001 141 77 68
-6.631213e-001 -1.473838e+000 -1.040937e+001 147 84 74
1.030091e+000 -2.231688e+000 -1.003063e+001 148 137 116
1.420348e+000 -2.259775e+000 -1.037069e+001 45 35 23
1.829121e+000 -2.326861e+000 -1.061615e+001 65 51 40
1.784639e+000 -2.352297e+000 -1.050506e+001 65 51 40
4.405709e+000 -3.485085e+000 -1.227894e+001 230 195 136
4.405709e+000 -3.485085e+000 -1.227894e+001 230 195 136
1.471587e+000 -3.084291e+000 -1.149984e+001 127 109 87
4.124847e+000 -3.750691e+000 -1.266739e+001 229 173 58
-4.471544e-001 -2.615436e+000 -1.088648e+001 178 141 92
-9.783778e-001 -2.396428e+000 -1.306411e+001 180 149 120
-8.958104e-001 -2.313947e+000 -1.234523e+001 222 202 168
-2.256726e-001 -2.999559e+000 -1.134520e+001 119 105 74
-1.079205e-001 -3.727636e+000 -1.139460e+001 208 182 151
-4.709275e-001 -3.748918e+000 -1.142763e+001 189 163 136
3.024394e+000 -4.692911e+000 -1.352896e+001 209 140 62
1.965134e+000 1.078697e+000 -9.034259e+000 166 138 110
2.172349e+000 8.225819e-001 -8.673833e+000 159 143 112
-2.368345e+000 2.048990e+000 -8.737881e+000 84 67 57
1.290095e+000 1.980609e+000 -9.975878e+000 229 205 174
1.260632e+000 1.929559e+000 -9.903290e+000 229 205 174
1.164908e+000 1.638736e+000 -9.768359e+000 157 114 83
-2.403261e+000 1.857746e+000 -8.685197e+000 175 156 141
-3.441805e+000 1.441827e+000 -8.215523e+000 157 123 86
1.496046e+000 -2.957379e-002 -8.941341e+000 140 141 109
-4.075204e+000 1.653212e+000 -8.744226e+000 79 53 38
-8.646882e-003 -2.861713e-001 -8.773222e+000 221 184 165
1.516140e+000 -4.650832e-001 -9.142841e+000 173 143 117
-3.847927e+000 1.372874e+000 -9.666477e+000 152 124 108
1.768617e+000 -1.126395e+000 -9.860047e+000 62 47 42
-1.304965e+000 3.191740e-002 -1.017767e+001 173 116 110
3.332015e+000 -1.451000e+000 -1.066433e+001 94 72 49
-1.441710e+000 5.572425e-002 -1.046487e+001 173 112 107
4.835042e+000 -2.013567e+000 -1.196955e+001 119 57 34
3.549037e+000 -2.389034e+000 -1.164630e+001 99 72 45
3.549037e+000 -2.389034e+000 -1.164630e+001 99 72 45
4.660745e+000 -2.292980e+000 -1.211912e+001 124 66 33
-4.532740e-001 -1.529707e+000 -1.082254e+001 159 124 84
-1.456255e+000 -1.565950e+000 -1.117493e+001 171 125 109
-4.076819e-001 -2.590791e+000 -1.072647e+001 205 178 141
8.087727e-001 -2.826917e+000 -1.112864e+001 64 51 42
4.170041e+000 -3.464878e+000 -1.264779e+001 237 172 68
-5.095745e-001 -2.683769e+000 -1.153225e+001 210 192 168
4.022274e-001 -3.144086e+000 -1.111349e+001 70 46 24
-9.866931e-001 -2.517827e+000 -1.292056e+001 158 128 102
-8.620597e-001 -3.061386e+000 -1.260328e+001 115 116 85
-8.620597e-001 -3.061386e+000 -1.260328e+001 115 116 85
2.563102e-002 -3.606011e+000 -1.126492e+001 254 245 224
2.504987e+000 -4.434228e+000 -1.327813e+001 138 104 78
2.817487e+000 -4.462456e+000 -1.335377e+001 129 94 64
3.099031e+000 -4.509950e+000 -1.378709e+001 186 153 120
3.099031e+000 -4.509950e+000 -1.378709e+001 186 153 120
3.200981e+000 -4.599308e+000 -1.383616e+001 150 77 50
1.660466e+000 1.390461e+000 -9.374285e+000 133 121 99
1.639922e+000 1.345255e+000 -9.310699e+000 133 121 99
1.706775e+000 1.035329e+000 -8.874847e+000 118 113 79
1.433691e+000 1.612996e+000 -9.709413e+000 176 137 104
-3.795612e+000 1.805589e+000 -8.221323e+000 175 142 101
1.400267e+000 8.684574e-001 -9.662782e+000 198 167 140
4.581411e+000 4.540027e-002 -9.881724e+000 130 102 78
4.581411e+000 4.540027e-002 -9.881724e+000 130 102 78
-3.739995e+000 1.249166e+000 -8.447927e+000 138 103 71
6.293462e-002 5.972107e-002 -9.211048e+000 183 137 110
-3.131386e+000 6.159184e-001 -9.026935e+000 184 150 123
-2.453216e+000 8.713317e-001 -1.018760e+001 102 81 67
-1.600731e+000 2.454576e-001 -9.714486e+000 104 73 52
2.131094e+000 -1.014987e+000 -9.958610e+000 40 31 24
-5.753616e-001 -9.858105e-001 -9.221956e+000 211 171 159
-2.778464e-001 -9.826148e-001 -9.465968e+000 140 84 69
-1.397733e+000 -1.954733e-001 -1.066311e+001 181 136 120
-2.981660e-001 -1.548742e+000 -1.090259e+001 109 67 42
1.545402e+000 -2.332960e+000 -1.039316e+001 48 36 27
1.280582e+000 -2.542987e+000 -1.102492e+001 41 32 25
-1.287649e+000 -1.720283e+000 -1.149531e+001 200 153 140
-5.106159e-001 -2.444883e+000 -1.112095e+001 117 87 63
1.116549e+000 -2.920686e+000 -1.103358e+001 183 169 141
1.035078e+000 -3.061899e+000 -1.122278e+001 150 137 106
7.925993e-001 -3.386735e+000 -1.190546e+001 47 33 30
2.671953e+000 -3.748176e+000 -1.274937e+001 101 75 52
-3.189409e-001 -3.085680e+000 -1.154983e+001 166 157 120
2.552737e-002 -3.251945e+000 -1.148548e+001 213 192 163
8.109295e-001 -3.756091e+000 -1.164422e+001 71 53 38
3.006391e+000 -4.229265e+000 -1.336011e+001 115 80 51
3.700460e+000 -4.569348e+000 -1.316990e+001 241 187 81
1.249508e-001 -3.774062e+000 -1.143648e+001 82 63 45
2.491513e+000 -4.306231e+000 -1.316513e+001 100 69 45
3.348815e+000 -4.684327e+000 -1.346553e+001 239 188 89
3.507909e+000 -4.791514e+000 -1.329412e+001 229 181 147
2.366803e+000 4.069760e-001 -8.767240e+000 63 49 38
5.332223e+000 8.333550e-002 -1.028385e+001 125 91 63
2.692720e+000 -1.137975e-001 -9.363092e+000 41 32 24
2.844793e+000 -2.954202e-001 -9.060847e+000 65 52 36
2.267000e-001 3.316492e-001 -9.115053e+000 184 149 122
1.940555e+000 -3.529141e-001 -8.994427e+000 59 41 29
2.869989e+000 -3.222042e-001 -9.510065e+000 56 44 33
2.650320e+000 -6.061869e-001 -9.524463e+000 62 48 35
2.589052e+000 -7.640368e-001 -9.728595e+000 61 51 35
-3.208115e+000 8.217995e-001 -9.016858e+000 211 185 162
-2.682589e+000 5.565865e-001 -9.288983e+000 177 152 130
-1.908180e+000 2.665227e-001 -1.030654e+001 180 141 128
-1.174784e-001 -5.960368e-001 -9.666191e+000 144 96 86
5.277215e+000 -1.904637e+000 -1.109000e+001 241 188 93
6.756886e-001 -1.055671e+000 -9.950660e+000 104 66 45
6.798494e-001 -1.054012e+000 -9.957264e+000 104 66 45
6.292273e-001 -1.331195e+000 -9.870160e+000 195 175 149
3.094303e+000 -1.713434e+000 -1.086935e+001 110 85 63
4.377028e+000 -1.762311e+000 -1.147038e+001 110 76 48
-9.550491e-001 -8.007872e-001 -9.941962e+000 176 129 119
5.270666e-001 -1.294788e+000 -1.004919e+001 138 98 73
-4.912831e-001 -1.564828e+000 -1.046447e+001 155 113 91
-6.731037e-001 -1.546334e+000 -1.109977e+001 127 82 61
-1.589463e+000 -1.420203e+000 -1.111847e+001 164 120 90
-1.638601e+000 -1.608604e+000 -1.102871e+001 195 164 144
4.916981e-001 -2.503107e+000 -1.060241e+001 139 95 66
-1.332974e+000 -1.869853e+000 -1.304513e+001 211 187 161
-2.469245e-001 -2.695401e+000 -1.077308e+001 164 119 62
4.630978e-002 -2.856902e+000 -1.080577e+001 210 185 155
3.981513e-002 -3.621724e+000 -1.126438e+001 221 203 180
2.578705e+000 -4.294923e+000 -1.288922e+001 143 107 83
3.658477e+000 -4.705270e+000 -1.321009e+001 186 83 51
5.082253e-001 -3.933628e+000 -1.209412e+001 50 39 33
5.680356e+000 1.354729e+000 -1.007123e+001 238 187 54
1.794048e+000 2.173850e+000 -9.913149e+000 82 60 40
3.068675e+000 -2.077459e-002 -8.967417e+000 62 44 29
2.332873e+000 -4.542477e-001 -8.992267e+000 34 25 16
2.178811e+000 -8.539699e-001 -9.692657e+000 46 37 29
2.109040e+000 -9.099991e-001 -9.551866e+000 46 37 29
-2.193599e+000 6.626215e-001 -1.011785e+001 163 137 122
-2.411016e+000 6.214754e-001 -1.008297e+001 102 83 66
-7.893244e-001 -2.052555e-001 -1.005767e+001 142 90 76
3.757898e-001 -8.971517e-001 -9.323151e+000 214 183 166
5.651234e-001 -1.442693e+000 -1.015767e+001 179 153 130
-4.571692e-001 -1.467630e+000 -1.019981e+001 133 70 57
-4.370464e-001 -1.442874e+000 -1.028261e+001 133 70 57
-1.128286e+000 -1.322893e+000 -1.001852e+001 153 87 78
-6.047463e-001 -1.763886e+000 -1.106667e+001 174 147 113
-8.947419e-001 -2.682833e+000 -1.213292e+001 209 190 160
2.879533e+000 -4.055568e+000 -1.285922e+001 121 87 59
3.531939e+000 -4.412473e+000 -1.353040e+001 240 193 82
2.263633e+000 -4.332941e+000 -1.324965e+001 139 107 82
3.735467e-001 1.081570e+000 -8.953636e+000 144 81 72
2.623815e+000 5.476445e-002 -8.715853e+000 68 55 47
4.877809e+000 -7.145032e-001 -1.039753e+001 112 80 55
1.702370e-001 -1.057360e+000 -9.690465e+000 113 50 48
-2.972438e-001 -1.293564e+000 -9.964259e+000 127 67 56
1.779682e+000 -2.269783e+000 -1.032101e+001 52 37 26
-1.611415e+000 -1.086081e+000 -1.024519e+001 174 110 101
-1.612217e+000 -1.091644e+000 -1.023377e+001 174 110 101
-1.533089e+000 -1.183081e+000 -1.075565e+001 204 173 152
-1.866092e+000 -1.258029e+000 -1.110168e+001 227 201 176
-1.268225e+000 -1.545343e+000 -1.099267e+001 201 165 146
-1.446956e+000 -1.501035e+000 -1.202763e+001 154 99 95
-1.477138e+000 -1.753086e+000 -1.414146e+001 125 129 96
-2.274140e+000 1.446850e+000 -8.984595e+000 125 92 73
-1.955982e+000 1.515553e+000 -9.289525e+000 230 227 222
-3.116513e+000 1.223439e+000 -8.572784e+000 153 126 109
-3.767285e+000 1.168028e+000 -8.659481e+000 189 167 145
5.481543e+000 -1.166019e+000 -1.098004e+001 165 142 135
1.448897e+000 -1.550963e+000 -1.005640e+001 84 67 51
4.043368e+000 -3.685438e+000 -1.273299e+001 243 197 76
4.263861e+000 -3.875413e+000 -1.156874e+001 204 115 31
5.678674e+000 5.816477e-001 -1.038673e+001 235 207 198
-2.759645e+000 8.959435e-001 -8.857058e+000 210 187 163
-2.752129e+000 8.722431e-001 -8.844476e+000 210 187 163
-6.492920e-001 2.516297e-001 -9.596843e+000 154 95 81
-6.945855e-001 -7.234040e-001 -9.580236e+000 213 170 154
-2.231212e-002 -1.483988e+000 -1.047529e+001 167 122 88
4.364505e+000 -4.345070e+000 -1.287616e+001 206 115 36
4.077161e+000 -3.778432e+000 -1.266542e+001 238 187 65
3.001012e+000 -4.693206e+000 -1.271761e+001 240 186 79
4.448797e+000 -3.013533e+000 -1.195409e+001 232 157 78
3.579357e+000 9.917169e-001 -1.044161e+001 54 41 33
5.046804e+000 2.051717e-001 -1.090232e+001 123 98 76
1.300535e+000 -4.005018e-001 -9.438072e+000 216 191 161
-5.793227e-001 -1.566516e+000 -1.008575e+001 137 80 68
3.028304e+000 -8.956916e-001 -1.024420e+001 143 121 98
1.225459e+000 3.065919e+000 -1.117108e+001 156 137 112
1.802384e+000 3.145070e+000 -1.091554e+001 88 81 65
2.023045e+000 3.082569e+000 -1.106958e+001 90 80 67
2.139419e+000 3.049187e+000 -1.098664e+001 103 90 64
5.359024e+000 3.668507e+000 -1.185886e+001 229 155 134
6.428372e-001 2.617568e+000 -1.103042e+001 194 171 125
6.273407e-001 2.421710e+000 -1.100943e+001 201 179 150
1.501362e+000 2.871611e+000 -1.072275e+001 110 92 68
-1.852528e+000 -8.816209e-002 -2.262301e+001 188 195 201
-3.739039e-001 1.911791e+000 -1.151549e+001 148 109 102
2.842369e-001 2.352991e+000 -1.017486e+001 162 117 104
7.043129e-001 2.336536e+000 -1.048766e+001 166 142 120
7.481241e-001 2.316505e+000 -1.049893e+001 167 137 118
7.466497e-001 2.320816e+000 -1.047765e+001 167 137 118
1.423490e+000 2.575844e+000 -1.054214e+001 143 126 106
1.435411e+000 2.552772e+000 -1.047177e+001 147 132 114
1.353832e+000 2.508575e+000 -1.026404e+001 187 187 163
1.421642e+000 2.520704e+000 -1.042541e+001 145 124 105
1.815471e+000 2.696540e+000 -1.025540e+001 116 104 80
1.809754e+000 2.536747e+000 -1.037001e+001 96 78 66
9.635988e-002 2.077041e+000 -1.014423e+001 210 171 160
1.272642e-001 2.065206e+000 -1.015242e+001 189 152 141
1.609668e-001 2.071210e+000 -1.014480e+001 219 188 173
1.612142e-001 2.064256e+000 -1.017432e+001 219 188 173
2.199812e-001 2.098245e+000 -1.011461e+001 210 179 165
3.144385e-001 2.194041e+000 -1.005267e+001 184 148 142
1.237727e+000 2.270215e+000 -1.029622e+001 72 75 57
1.260637e+000 2.228308e+000 -1.021202e+001 71 76 56
2.032918e+000 2.434375e+000 -1.016254e+001 235 227 209
2.530455e+000 2.513856e+000 -1.056656e+001 103 79 45
2.530455e+000 2.513856e+000 -1.056656e+001 103 79 45
2.489483e+000 2.402103e+000 -1.043957e+001 79 67 42
2.508616e+000 2.297461e+000 -1.038322e+001 79 76 52
3.094362e+000 2.368256e+000 -1.110602e+001 98 77 56
5.459889e+000 2.842683e+000 -1.150787e+001 200 200 206
2.795973e-001 1.900023e+000 -9.678821e+000 195 148 150
2.168231e+000 2.157396e+000 -9.910247e+000 75 68 45
2.575038e+000 2.154139e+000 -1.022351e+001 50 35 22
3.957186e+000 2.020969e+000 -1.141423e+001 83 64 42
3.957186e+000 2.020969e+000 -1.141423e+001 83 64 42
5.576216e+000 2.438576e+000 -1.152229e+001 150 70 73
-1.829801e+000 1.243371e+000 -9.261420e+000 141 130 113
4.390349e-001 1.639580e+000 -9.518534e+000 188 145 143
1.236356e+000 1.791211e+000 -9.909672e+000 118 83 36
1.409399e+000 1.864613e+000 -9.885781e+000 191 179 155
1.351595e+000 1.587843e+000 -9.869251e+000 200 183 163
1.843127e+000 1.810345e+000 -9.724459e+000 199 182 160
2.346680e+000 1.926819e+000 -9.686051e+000 84 68 49
4.014577e+000 1.859562e+000 -1.114888e+001 108 87 66
-7.842956e-001 1.158808e+000 -9.508423e+000 102 60 54
4.815986e-001 1.478231e+000 -9.503301e+000 199 168 163
8.749971e-001 1.443939e+000 -9.490753e+000 183 156 147
1.756143e+000 1.491704e+000 -9.451975e+000 143 128 110
4.107214e+000 1.639209e+000 -1.105931e+001 103 83 68
1.412246e-001 1.053586e+000 -9.025675e+000 208 179 175
2.012869e-001 1.217329e+000 -9.031576e+000 185 158 160
8.705975e-001 1.135890e+000 -9.327879e+000 144 102 84
1.546786e+000 1.155455e+000 -9.699095e+000 183 166 148
1.863842e+000 1.447649e+000 -9.306090e+000 208 203 185
1.929238e+000 1.391641e+000 -9.131659e+000 227 227 220
1.914026e+000 1.329438e+000 -9.117060e+000 155 142 127
2.198458e+000 1.571266e+000 -9.271305e+000 100 101 85
2.757244e+000 1.442048e+000 -9.419790e+000 74 67 58
3.726511e+000 1.349798e+000 -1.041519e+001 55 39 23
-1.967102e+000 -2.233284e-001 -1.057333e+001 202 166 152
-1.967102e+000 -2.233284e-001 -1.057333e+001 202 166 152
-1.705040e-001 8.071893e-001 -9.185302e+000 146 113 95
4.296199e-001 7.495525e-001 -8.992766e+000 176 144 128
1.406856e+000 9.924627e-001 -9.050227e+000 182 178 149
1.491572e+000 9.920879e-001 -8.985831e+000 200 197 168
1.839137e+000 1.231069e+000 -9.004268e+000 139 134 113
2.895844e+000 1.426321e+000 -9.381251e+000 70 59 42
-1.691103e+000 -6.194607e-001 -1.071296e+001 200 168 153
-1.494498e+000 -4.496750e-001 -1.054736e+001 179 141 132
1.058929e+000 4.955983e-001 -9.552738e+000 131 100 75
2.898439e+000 1.038375e+000 -8.996287e+000 147 141 129
3.105910e+000 1.073245e+000 -9.053070e+000 73 54 40
3.005870e+000 1.040300e+000 -9.063447e+000 88 85 72
-1.713305e+000 -8.643536e-001 -1.030714e+001 199 153 150
1.633245e+000 6.214119e-001 -8.894696e+000 164 154 109
2.367530e+000 7.934159e-001 -8.880434e+000 101 93 78
2.372091e+000 7.573397e-001 -8.865823e+000 115 103 87
2.976986e+000 7.986993e-001 -8.863134e+000 54 48 37
3.070403e+000 9.518928e-001 -9.020304e+000 104 98 70
3.082189e+000 9.208567e-001 -8.959686e+000 196 192 175
-1.736827e+000 -8.782113e-001 -1.014039e+001 216 185 175
-1.679481e+000 -9.477888e-001 -9.918091e+000 216 192 188
-1.543721e+000 -7.407195e-001 -9.925106e+000 204 162 153
-1.625763e+000 -8.723723e-001 -9.921995e+000 191 158 150
-1.562517e+000 -9.598476e-001 -9.922673e+000 210 177 168
-8.434270e-001 -7.224122e-001 -9.611284e+000 192 154 151
6.287497e-002 -1.611572e-001 -8.872660e+000 186 144 132
1.589533e+000 3.494092e-001 -8.889159e+000 133 138 108
1.562295e+000 2.354736e-001 -8.945503e+000 124 136 109
2.955464e+000 5.484458e-001 -8.785163e+000 111 112 99
3.110524e+000 5.593005e-001 -8.824621e+000 87 80 70
4.888288e+000 4.948539e-001 -1.018386e+001 97 73 53
4.888288e+000 4.948539e-001 -1.018386e+001 97 73 53
-1.286861e+000 -1.193858e+000 -9.790491e+000 201 158 157
-5.794577e-001 -7.170462e-001 -9.399710e+000 181 127 127
8.152468e-002 -1.754442e-001 -8.779545e+000 208 179 165
3.314848e-001 -1.631004e-001 -8.907531e+000 133 95 84
1.934011e+000 1.724274e-001 -8.634334e+000 163 154 137
2.353619e+000 2.244573e-001 -8.762401e+000 77 71 60
2.353619e+000 2.244573e-001 -8.762401e+000 77 71 60
2.524733e+000 4.802096e-001 -8.535646e+000 74 70 59
2.858265e+000 1.269125e-001 -8.899373e+000 74 72 58
4.475643e+000 5.795225e-002 -9.844125e+000 89 72 54
1.867218e+000 1.182171e-002 -8.583759e+000 239 247 246
5.974368e-001 -1.254079e+000 -9.783872e+000 142 132 120
5.266785e+000 -1.640174e+000 -1.097034e+001 146 143 141
4.482965e+000 -3.300295e+000 -1.220061e+001 210 187 153
4.770918e+000 -2.739827e+000 -1.175519e+001 166 156 148
4.880317e+000 -2.660569e+000 -1.168361e+001 204 194 184
4.887486e+000 -2.750832e+000 -1.161860e+001 143 138 135
3.960663e+000 -4.090098e+000 -1.276264e+001 149 140 145
4.768416e+000 4.392512e+000 -1.296651e+001 211 158 104
5.086040e+000 3.806999e+000 -1.241976e+001 223 192 186
9.199261e-001 2.856198e+000 -1.080146e+001 202 192 173
9.621294e-001 2.894408e+000 -1.074838e+001 172 162 139
2.179680e+000 3.080826e+000 -1.119687e+001 116 104 80
5.516788e+000 3.925092e+000 -1.164920e+001 240 233 224
-2.329479e+000 2.246206e+000 -9.392124e+000 92 71 54
-2.329479e+000 2.246206e+000 -9.392124e+000 92 71 54
-2.288739e+000 2.297835e+000 -9.281375e+000 73 51 37
4.909564e-001 2.546408e+000 -1.115932e+001 194 178 153
6.631188e-001 2.592599e+000 -1.095117e+001 204 183 134
7.604930e-001 2.661893e+000 -1.096559e+001 171 145 79
1.533787e+000 2.753485e+000 -1.053947e+001 141 123 102
2.241990e+000 3.026336e+000 -1.100908e+001 251 247 230
2.247483e+000 3.024439e+000 -1.102921e+001 251 247 230
-1.021600e-001 2.222564e+000 -1.030405e+001 195 160 154
-2.801776e-002 2.369425e+000 -1.027631e+001 180 142 131
-2.766238e-003 2.326330e+000 -1.032031e+001 173 137 123
1.699918e-001 2.417940e+000 -1.023489e+001 195 160 147
7.969752e-002 2.271204e+000 -1.018946e+001 196 170 155
2.043478e-001 2.284212e+000 -1.009454e+001 191 153 151
1.208424e+000 2.410546e+000 -1.033570e+001 120 124 102
1.326157e+000 2.415461e+000 -1.019860e+001 143 146 124
5.782478e+000 3.253034e+000 -1.106364e+001 169 158 155
5.782478e+000 3.253034e+000 -1.106364e+001 169 158 155
2.028803e-001 1.997063e+000 -1.007729e+001 188 137 134
3.726700e-001 1.996262e+000 -1.009638e+001 224 195 174
1.116812e+000 2.206984e+000 -1.025619e+001 89 92 75
1.269917e+000 2.208735e+000 -1.015823e+001 63 67 50
1.478291e+000 2.398754e+000 -1.028928e+001 214 206 187
1.629264e+000 2.348132e+000 -1.017882e+001 148 135 114
1.558997e+000 2.278910e+000 -1.016194e+001 156 145 127
2.296124e+000 2.314440e+000 -1.047750e+001 40 29 19
2.328841e+000 2.353259e+000 -1.035812e+001 53 42 31
-1.727839e+000 1.443210e+000 -9.232528e+000 91 72 54
-1.727839e+000 1.443210e+000 -9.232528e+000 91 72 54
-1.163670e+000 1.469389e+000 -9.478496e+000 70 49 34
1.681217e-001 1.813167e+000 -1.012314e+001 184 124 124
1.075513e+000 1.944640e+000 -9.936029e+000 171 157 146
1.666398e+000 2.024675e+000 -9.864398e+000 160 151 137
2.188907e+000 2.110601e+000 -9.836711e+000 49 47 29
2.260314e+000 2.089364e+000 -9.889430e+000 76 59 35
2.505312e+000 2.251273e+000 -1.031213e+001 59 46 30
2.463427e+000 2.041087e+000 -1.020169e+001 57 54 47
3.832839e+000 2.299785e+000 -1.147081e+001 97 75 54
3.919332e+000 2.062795e+000 -1.140420e+001 119 99 81
4.118663e+000 2.166708e+000 -1.160376e+001 105 83 62
-1.782063e+000 1.367927e+000 -9.169081e+000 108 89 72
-1.023521e-001 1.413873e+000 -1.010514e+001 164 108 119
4.116367e-001 1.682938e+000 -9.530463e+000 177 138 131
5.134325e-001 1.700731e+000 -9.457001e+000 200 160 160
4.337621e-001 1.593051e+000 -9.574145e+000 168 123 120
1.165073e+000 1.708365e+000 -9.782579e+000 152 122 106
2.189251e+000 2.035522e+000 -9.801589e+000 85 77 56
3.805970e+000 1.830019e+000 -1.114623e+001 81 62 45
3.961432e+000 2.002245e+000 -1.128600e+001 108 90 70
4.067784e+000 1.862931e+000 -1.131341e+001 87 66 45
4.040797e+000 1.877366e+000 -1.124494e+001 87 66 45
3.020069e-001 1.420255e+000 -9.193822e+000 157 111 113
3.515762e-001 1.435659e+000 -9.242884e+000 158 113 115
2.287839e-001 1.345829e+000 -9.186564e+000 166 138 125
4.675952e-001 1.441069e+000 -9.422052e+000 144 107 100
5.004974e-001 1.444526e+000 -9.457653e+000 200 167 154
5.363683e+000 1.717377e+000 -1.163330e+001 212 136 128
5.363683e+000 1.717377e+000 -1.163330e+001 212 136 128
-1.704291e+000 7.237868e-001 -9.194393e+000 112 100 86
2.178324e+000 1.548021e+000 -9.298754e+000 119 116 102
2.707844e+000 1.555754e+000 -9.530116e+000 79 67 50
2.710163e+000 1.490321e+000 -9.507275e+000 119 117 105
3.664456e+000 1.335287e+000 -1.040685e+001 67 52 32
5.355417e+000 1.482422e+000 -1.180275e+001 185 133 128
2.012661e+000 1.314535e+000 -9.074839e+000 167 151 130
5.500271e+000 1.177321e+000 -1.125658e+001 207 168 123
-1.779530e+000 -3.462772e-001 -1.065212e+001 200 161 144
2.863176e+000 1.134635e+000 -9.045392e+000 108 106 93
4.768810e+000 1.010913e+000 -1.068304e+001 123 103 78
-1.642725e+000 -7.574794e-001 -1.040362e+001 171 124 125
-1.642963e+000 -7.728985e-001 -1.018970e+001 210 169 168
-1.040202e-001 1.327752e-001 -9.192447e+000 172 144 128
8.010308e-001 1.537895e-001 -9.310063e+000 201 188 169
2.170250e+000 7.153694e-001 -8.626613e+000 83 65 43
2.430227e+000 9.458058e-001 -8.675922e+000 115 115 107
2.452584e+000 8.637071e-001 -8.557446e+000 143 143 124
2.937182e+000 8.758328e-001 -8.929827e+000 217 212 200
2.917879e+000 8.511977e-001 -8.931060e+000 60 57 48
3.115468e+000 7.740226e-001 -8.903535e+000 85 80 65
-1.606654e+000 -9.257979e-001 -9.952376e+000 214 177 169
3.067082e+000 5.452434e-001 -8.923450e+000 70 66 55
3.222085e+000 6.659998e-001 -8.916261e+000 42 33 25
-8.553801e-001 -9.244503e-001 -9.413979e+000 186 150 148
-1.198327e-001 -3.073477e-001 -8.802081e+000 186 145 143
3.001600e+000 1.309934e-001 -8.868214e+000 215 214 199
8.628045e-001 -8.320273e-001 -9.658387e+000 111 90 69
1.131702e+000 -7.714499e-001 -9.464241e+000 194 178 155
1.150948e+000 -8.291683e-001 -9.472382e+000 172 161 136
1.117630e+000 -4.885436e-001 -9.226487e+000 176 157 133
1.714191e+000 -3.725297e-001 -8.865819e+000 165 160 143
2.871069e+000 -1.367513e-002 -8.946455e+000 45 44 24
5.466305e+000 -1.054375e+000 -1.089177e+001 104 98 86
1.141962e+000 -1.502838e+000 -9.722362e+000 216 215 204
1.618056e+000 -1.636524e+000 -9.963768e+000 45 37 30
5.310233e+000 -1.550686e+000 -1.104215e+001 103 98 97
5.927826e+000 -6.250536e-001 -9.768251e+000 180 117 61
4.567660e+000 -3.373598e+000 -1.205580e+001 154 150 145
4.589835e+000 -3.159545e+000 -1.190511e+001 198 190 188
4.971159e+000 -2.482772e+000 -1.148642e+001 131 124 127
4.809640e+000 -2.849390e+000 -1.165662e+001 140 131 133
5.770390e+000 -1.367566e+000 -1.001724e+001 226 166 108
-3.362111e+000 2.868017e+000 -8.838298e+000 140 87 94
4.770427e+000 4.328798e+000 -1.302387e+001 220 154 110
-3.946501e+000 2.464201e+000 -8.694935e+000 174 112 113
-1.253075e+000 1.946678e+000 -2.113283e+001 155 162 175
-6.776583e-001 1.846673e+000 -2.085956e+001 155 161 174
4.386524e+000 3.689633e+000 -1.368402e+001 191 109 84
-4.064680e+000 2.230207e+000 -8.811398e+000 157 100 93
1.603308e+000 3.071117e+000 -1.114365e+001 69 60 47
1.452502e+000 2.987838e+000 -1.093734e+001 51 37 26
1.629421e+000 3.111673e+000 -1.088153e+001 122 116 98
4.528701e+000 3.250040e+000 -1.339968e+001 216 150 99
5.489518e+000 3.836660e+000 -1.167511e+001 231 183 163
7.390416e-001 2.629042e+000 -1.087303e+001 213 192 149
9.041874e-001 2.658745e+000 -1.055526e+001 189 178 164
9.391666e-001 2.643176e+000 -1.056210e+001 156 132 110
1.035380e+000 2.659298e+000 -1.062751e+001 131 105 76
1.034680e+000 2.659908e+000 -1.062313e+001 131 105 76
9.277232e-001 2.605556e+000 -1.058469e+001 152 125 105
1.219843e+000 2.653327e+000 -1.078948e+001 127 98 70
-5.769983e-001 1.864280e+000 -1.161298e+001 137 73 84
7.842729e-001 2.300749e+000 -1.050943e+001 118 85 74
1.051416e+000 2.522841e+000 -1.062680e+001 120 113 88
1.290102e+000 2.461348e+000 -1.024167e+001 86 94 70
1.498396e+000 2.630959e+000 -1.042670e+001 158 147 129
1.825334e+000 2.548763e+000 -1.020050e+001 95 78 57
1.952060e+000 2.770150e+000 -1.044546e+001 226 221 202
2.006555e+000 2.777397e+000 -1.047002e+001 83 67 55
5.722888e+000 3.312011e+000 -1.113175e+001 198 121 124
-3.178821e+000 1.713039e+000 -8.248235e+000 110 81 52
-3.076498e+000 1.672423e+000 -8.268654e+000 93 66 39
1.063463e+000 2.224131e+000 -1.038186e+001 51 52 38
1.158317e+000 2.188167e+000 -1.027400e+001 53 56 39
1.221928e+000 2.137842e+000 -1.011635e+001 104 105 91
-3.508449e+000 1.347214e+000 -8.220423e+000 117 90 61
-1.335911e+000 1.526930e+000 -9.406668e+000 74 56 42
-1.254601e+000 1.499565e+000 -9.463549e+000 67 49 35
4.357919e-001 1.996824e+000 -9.608580e+000 190 149 147
1.283571e+000 2.050572e+000 -1.007646e+001 98 83 61
1.964565e+000 2.130243e+000 -9.858645e+000 118 111 92
2.007146e+000 2.243467e+000 -9.949305e+000 85 73 52
3.501769e+000 2.191764e+000 -1.123213e+001 106 88 66
3.579431e+000 2.187288e+000 -1.128949e+001 100 82 62
3.572750e+000 2.114566e+000 -1.125409e+001 98 80 60
3.586056e+000 2.074740e+000 -1.121798e+001 77 59 39
3.793648e+000 2.146171e+000 -1.141053e+001 106 87 70
3.785447e+000 2.151261e+000 -1.138786e+001 106 87 70
3.871440e+000 2.159557e+000 -1.145474e+001 104 82 63
3.900449e+000 2.106713e+000 -1.142614e+001 83 62 41
4.002898e+000 2.049218e+000 -1.148937e+001 84 63 44
4.297310e+000 2.105323e+000 -1.185292e+001 104 82 58
1.007418e+000 1.661649e+000 -9.756809e+000 159 122 113
2.228185e+000 2.023800e+000 -9.710063e+000 62 53 35
2.205147e+000 1.908707e+000 -9.658387e+000 90 84 65
3.698573e+000 1.914538e+000 -1.109103e+001 80 61 44
4.375510e+000 1.896633e+000 -1.151419e+001 92 71 51
3.039165e-001 1.384727e+000 -9.111741e+000 152 106 109
1.878410e+000 1.595204e+000 -9.489423e+000 155 136 111
2.187630e+000 1.778157e+000 -9.531232e+000 87 80 61
2.228645e+000 1.644735e+000 -9.327874e+000 87 78 61
2.495924e+000 1.755285e+000 -9.874232e+000 31 27 18
2.520597e+000 1.693418e+000 -9.827850e+000 37 27 22
3.904299e+000 1.759581e+000 -1.104195e+001 105 85 65
3.931531e+000 1.743170e+000 -1.111224e+001 105 85 65
8.750806e-001 1.153227e+000 -9.367060e+000 113 65 49
1.779739e+000 1.473616e+000 -9.338451e+000 156 137 120
3.274356e+000 1.350259e+000 -1.003374e+001 69 52 36
3.587447e+000 1.453675e+000 -1.038248e+001 73 56 40
6.620860e-001 7.315917e-001 -9.392669e+000 119 71 48
9.256531e-001 7.564534e-001 -9.411412e+000 127 97 69
1.266461e+000 6.531947e-001 -9.787952e+000 111 69 53
1.882659e+000 1.269649e+000 -9.190768e+000 145 130 109
4.451200e+000 1.086603e+000 -1.056693e+001 110 88 65
5.078267e-001 7.198084e-001 -9.027716e+000 220 197 182
1.536825e+000 9.045781e-001 -8.781043e+000 190 177 133
2.418466e+000 1.100804e+000 -9.110090e+000 70 65 51
2.390198e+000 1.229789e+000 -8.764112e+000 72 65 49
2.908030e+000 1.143152e+000 -9.115734e+000 32 22 10
4.650582e+000 8.812341e-001 -1.046517e+001 114 93 72
2.041823e+000 7.777642e-001 -8.522261e+000 98 90 67
-1.736766e+000 -1.077360e+000 -1.004087e+001 222 222 226
-1.446716e+000 -9.090857e-001 -9.883611e+000 219 186 177
-9.886815e-002 -1.914991e-001 -8.906420e+000 226 203 191
3.191123e-001 -1.385638e-001 -9.020210e+000 122 78 68
1.952221e+000 5.942734e-001 -8.572418e+000 110 123 95
1.956286e+000 5.106969e-001 -8.473609e+000 124 141 108
2.656015e+000 6.044047e-001 -8.515638e+000 31 26 20
-1.440450e+000 -1.008737e+000 -9.819391e+000 179 140 131
9.415120e-001 -2.757118e-001 -9.350315e+000 189 174 158
1.872137e+000 1.086852e-001 -8.740637e+000 160 144 120
1.815743e+000 1.390667e-002 -8.738916e+000 174 162 139
4.563714e+000 2.128686e-001 -9.819517e+000 75 59 37
1.260705e+000 -6.319755e-001 -9.189309e+000 149 123 90
2.543719e+000 1.775650e-001 -8.561940e+000 59 55 44
2.911993e+000 5.861968e-002 -8.917891e+000 44 38 22
2.911993e+000 5.861968e-002 -8.917891e+000 44 38 22
2.882942e+000 -3.024900e-001 -9.195831e+000 129 122 109
5.303793e+000 -1.455326e+000 -1.114237e+001 217 187 145
5.855531e-001 -2.467808e+000 -1.055452e+001 221 218 210
1.274256e+000 -2.019397e+000 -1.007138e+001 210 211 195
5.820558e+000 -1.276195e+000 -1.000864e+001 228 200 160
4.580347e+000 -3.133392e+000 -1.203357e+001 174 163 159
4.860337e+000 -2.697756e+000 -1.166905e+001 142 134 132
4.824874e+000 -2.804419e+000 -1.169352e+001 199 195 198
3.749375e+000 4.149459e+000 -1.470254e+001 205 135 93
3.810644e+000 4.156420e+000 -1.466908e+001 227 160 115
4.512940e+000 4.303131e+000 -1.351386e+001 207 150 92
-3.729498e+000 2.767218e+000 -8.626752e+000 181 134 136
4.612943e+000 4.134331e+000 -1.337286e+001 216 137 94
2.450247e+000 3.107288e+000 -1.680649e+001 222 159 110
2.717015e+000 3.023688e+000 -1.629086e+001 185 101 77
3.071547e+000 3.274866e+000 -1.580666e+001 164 117 87
-3.938368e+000 2.190763e+000 -8.630657e+000 93 60 46
1.323398e+000 2.939161e+000 -1.096357e+001 242 247 231
4.552876e+000 3.415843e+000 -1.336856e+001 217 179 127
5.544187e+000 3.676211e+000 -1.192407e+001 231 160 130
1.913967e+000 2.849877e+000 -1.053155e+001 57 48 32
-2.462761e+000 2.026421e+000 -8.636167e+000 89 68 51
7.493946e-002 2.171120e+000 -1.026516e+001 197 172 154
7.437830e-001 2.346335e+000 -1.057483e+001 132 95 77
7.421391e-001 2.352511e+000 -1.054538e+001 132 95 77
1.610624e+000 2.606998e+000 -1.045594e+001 135 112 94
2.387897e+000 2.736428e+000 -1.093001e+001 92 81 63
3.412413e+000 2.578238e+000 -1.169356e+001 96 74 52
4.599705e+000 2.709413e+000 -1.303692e+001 189 113 79
4.657684e+000 2.668377e+000 -1.286919e+001 177 111 66
4.821432e+000 2.755673e+000 -1.288859e+001 156 113 96
1.124574e+000 2.142686e+000 -1.016936e+001 103 107 90
1.177334e+000 2.261226e+000 -1.032615e+001 93 97 80
1.717499e+000 2.268070e+000 -1.015728e+001 137 116 95
1.785936e+000 2.248864e+000 -1.016756e+001 75 53 35
2.032357e+000 2.501566e+000 -1.023396e+001 67 55 39
4.101588e+000 2.470295e+000 -1.200684e+001 130 105 83
4.283457e+000 2.519988e+000 -1.230358e+001 134 109 88
-3.599238e+000 1.324589e+000 -8.184763e+000 137 109 79
3.394040e+000 2.269756e+000 -1.129114e+001 84 65 43
4.445949e+000 2.225387e+000 -1.201981e+001 116 91 69
3.094573e-001 1.485275e+000 -9.671524e+000 187 139 137
1.157033e+000 1.617475e+000 -9.912822e+000 98 65 48
2.459595e+000 1.869525e+000 -1.002138e+001 32 25 16
3.925048e+000 1.966235e+000 -1.130373e+001 83 68 45
4.064567e+000 1.817139e+000 -1.115919e+001 95 74 53
2.157710e-001 1.304669e+000 -9.121551e+000 173 143 140
5.698571e-001 1.313947e+000 -9.214902e+000 134 86 84
1.032640e+000 1.401152e+000 -9.645858e+000 114 78 64
1.746003e+000 1.680503e+000 -9.579968e+000 240 237 228
-1.281709e-001 9.833104e-001 -9.589067e+000 186 130 132
2.751334e+000 1.532633e+000 -9.488113e+000 70 59 45
4.824271e+000 1.472526e+000 -1.100090e+001 126 102 76
-1.605844e+000 2.861035e-001 -9.607569e+000 90 68 51
1.950568e+000 1.304877e+000 -9.060096e+000 154 144 126
2.462578e+000 1.297156e+000 -9.060544e+000 72 66 52
1.608652e+000 9.228553e-001 -8.821497e+000 167 152 109
1.646063e+000 8.913452e-001 -8.681115e+000 161 146 113
2.618398e+000 1.059003e+000 -8.715752e+000 40 30 25
4.264613e+000 9.362661e-001 -1.020739e+001 75 54 33
1.361743e+000 3.425361e-001 -9.702186e+000 172 153 139
-9.797420e-001 -7.611590e-001 -9.890380e+000 159 111 109
-9.797420e-001 -7.611590e-001 -9.890380e+000 159 111 109
-8.750618e-001 -6.838028e-001 -9.808632e+000 156 112 111
1.465094e+000 -3.485693e-001 -9.167400e+000 165 140 125
2.284543e+000 1.041623e-001 -8.668551e+000 94 90 79
2.512033e+000 2.558145e-001 -8.545352e+000 48 44 32
4.108880e+000 2.519253e-001 -9.588060e+000 65 48 32
4.285591e+000 2.316743e-001 -9.734540e+000 89 74 55
5.216042e-001 -5.097425e-001 -9.033029e+000 108 76 63
1.587940e+000 -3.865183e-001 -8.932082e+000 110 109 88
8.061566e-001 -1.398028e+000 -9.810943e+000 94 104 72
-9.025244e-002 -2.231499e+000 -1.029813e+001 166 142 91
1.619893e+000 -1.567185e+000 -9.954716e+000 46 39 32
5.170125e+000 -1.729819e+000 -1.130195e+001 208 134 52
5.800349e+000 -1.620380e+000 -1.031889e+001 215 134 46
5.518038e+000 -2.451711e+000 -1.065178e+001 220 143 56
4.181092e+000 4.452469e+000 -1.383457e+001 204 146 109
-3.371914e+000 2.795396e+000 -8.674276e+000 159 110 107
-3.354077e+000 2.826679e+000 -8.731347e+000 125 66 74
-3.297963e+000 2.755255e+000 -8.673818e+000 149 103 103
-3.284472e+000 2.771071e+000 -8.771348e+000 132 82 86
2.180471e+000 3.286399e+000 -1.694502e+001 225 146 108
2.659049e+000 3.394781e+000 -1.657103e+001 205 140 90
4.694080e+000 4.187092e+000 -1.317735e+001 236 158 119
-1.714871e+000 1.447205e+000 -2.230159e+001 187 185 189
9.980091e-001 2.314099e+000 -1.907832e+001 238 179 123
2.822537e+000 3.248693e+000 -1.623956e+001 196 119 84
4.192216e+000 3.652924e+000 -1.422754e+001 215 147 98
2.429496e-001 1.825064e+000 -2.002137e+001 221 150 97
3.958384e+000 3.210212e+000 -1.434966e+001 191 139 92
5.118064e+000 3.576143e+000 -1.238291e+001 225 220 232
-6.781358e-001 1.032407e+000 -2.126170e+001 126 132 144
1.347773e+000 2.737928e+000 -1.067270e+001 146 131 109
2.116449e+000 2.909721e+000 -1.091622e+001 41 33 22
-3.204408e+000 2.075151e+000 -8.223085e+000 138 112 81
-1.964788e+000 -2.662870e-001 -2.276787e+001 204 186 147
-5.078693e-001 1.872958e+000 -1.156822e+001 164 126 127
-2.156402e-003 2.347079e+000 -1.034025e+001 181 140 128
2.499390e-001 2.331951e+000 -1.013867e+001 211 176 174
5.151073e-001 2.372619e+000 -1.060369e+001 214 195 180
7.113259e-001 2.302795e+000 -1.047871e+001 166 142 118
2.516394e+000 2.598883e+000 -1.064850e+001 126 96 49
3.545276e+000 2.585688e+000 -1.172893e+001 103 78 56
4.368447e+000 2.577645e+000 -1.250844e+001 91 69 46
2.466602e+000 2.454947e+000 -1.054881e+001 66 53 38
4.207675e+000 2.335382e+000 -1.184641e+001 133 111 88
1.778972e+000 2.112485e+000 -1.003042e+001 82 56 31
2.142846e+000 2.085115e+000 -9.701380e+000 68 56 41
3.459292e+000 2.025145e+000 -1.102589e+001 84 65 48
9.122291e-001 1.725216e+000 -9.849381e+000 145 107 99
2.604913e+000 1.988528e+000 -9.925906e+000 57 44 25
3.073491e+000 1.885821e+000 -1.061100e+001 60 41 26
4.472478e+000 1.911562e+000 -1.168402e+001 90 69 48
-2.553999e-001 1.098361e+000 -1.016915e+001 158 101 112
1.478753e+000 1.549383e+000 -9.972678e+000 128 96 73
1.675024e+000 1.574412e+000 -9.577591e+000 183 164 143
1.785210e+000 1.034396e+000 -8.980434e+000 133 125 104
2.158328e+000 1.057854e+000 -8.874811e+000 142 124 100
3.033889e+000 1.078476e+000 -9.149741e+000 66 58 44
1.913160e+000 6.508777e-001 -8.592105e+000 117 131 102
1.913160e+000 6.508777e-001 -8.592105e+000 117 131 102
2.944818e+000 7.343092e-001 -8.824410e+000 236 234 218
2.970741e+000 6.263815e-001 -8.870448e+000 253 253 243
3.031550e+000 6.392958e-001 -8.867530e+000 43 39 28
1.893526e-001 -2.424729e-001 -8.647789e+000 149 113 107
2.133998e+000 2.623801e-001 -8.571917e+000 130 116 88
2.926827e+000 3.772367e-001 -8.783466e+000 104 104 94
4.636036e+000 -4.308599e-001 -1.011165e+001 106 88 66
4.889775e+000 -4.282061e-001 -1.022204e+001 128 110 88
-4.660163e-001 -2.158676e+000 -1.057206e+001 179 152 105
9.040527e-001 -1.497730e+000 -9.753687e+000 193 192 176
5.176415e+000 -1.535353e+000 -1.135842e+001 183 87 49
-2.905038e-001 -3.876629e+000 -1.194407e+001 174 162 146
4.885517e+000 -2.761587e+000 -1.154380e+001 205 166 145
5.799320e+000 -1.323338e+000 -9.940079e+000 70 51 40
4.456503e+000 4.373919e+000 -1.362296e+001 230 176 114
2.751414e+000 3.372161e+000 -1.633298e+001 229 186 143
4.179439e+000 3.808941e+000 -1.414455e+001 202 134 92
4.628100e+000 4.092246e+000 -1.323739e+001 236 164 113
-4.123273e+000 2.437936e+000 -8.913836e+000 117 41 51
-4.342593e-001 1.827865e+000 -2.078313e+001 213 219 230
5.824995e-001 2.459925e+000 -1.923993e+001 214 140 75
9.949354e-001 2.757527e+000 -1.876646e+001 220 131 87
9.949354e-001 2.757527e+000 -1.876646e+001 220 131 87
9.338970e-001 2.454554e+000 -1.914469e+001 223 132 88
-2.613991e-001 1.687297e+000 -2.078773e+001 219 164 98
4.118596e-001 1.510204e+000 -1.983085e+001 231 164 98
7.851514e-001 2.162461e+000 -1.931929e+001 232 181 136
3.339254e+000 3.048183e+000 -1.537760e+001 96 117 102
-3.177097e+000 2.250638e+000 -8.309574e+000 116 90 57
-3.177097e+000 2.250638e+000 -8.309574e+000 116 90 57
1.727632e+000 2.918159e+000 -1.111430e+001 78 68 59
2.999121e+000 2.665870e+000 -1.153758e+001 122 100 77
4.909039e+000 2.691105e+000 -1.266815e+001 150 82 69
-3.741430e+000 1.486619e+000 -8.318219e+000 161 131 98
2.273237e+000 2.458055e+000 -1.052790e+001 37 32 20
2.594741e+000 2.454554e+000 -1.073769e+001 118 91 44
3.235957e+000 2.479391e+000 -1.135406e+001 124 104 83
4.122662e+000 2.540956e+000 -1.207938e+001 100 73 54
-3.695886e+000 1.264352e+000 -8.204314e+000 137 107 76
3.534987e-001 1.763283e+000 -9.547189e+000 217 192 181
-3.571470e+000 1.239551e+000 -8.164885e+000 156 133 101
1.292104e+000 1.683118e+000 -9.913556e+000 140 112 91
1.669243e-001 1.226833e+000 -9.205205e+000 193 175 165
1.750548e+000 1.535237e+000 -9.458068e+000 170 154 130
-1.738203e+000 7.687448e-001 -9.215532e+000 98 88 76
1.175500e+000 9.403434e-001 -9.816079e+000 126 89 73
1.175500e+000 9.403434e-001 -9.816079e+000 126 89 73
4.749871e+000 1.295468e+000 -1.116331e+001 130 108 87
4.742153e+000 1.039806e+000 -1.070133e+001 89 67 44
1.890840e+000 9.232329e-001 -8.920632e+000 169 157 141
2.141039e+000 1.126926e+000 -8.937765e+000 89 66 45
2.503401e+000 9.845950e-001 -8.659395e+000 43 39 30
3.184595e+000 8.013924e-001 -8.926387e+000 41 31 22
1.786278e+000 1.636961e-001 -8.647779e+000 127 105 81
4.063751e-001 -6.475684e-001 -9.110310e+000 141 100 96
5.070439e-001 -2.382320e+000 -1.047862e+001 134 105 76
7.611072e-001 -1.895663e+000 -1.000683e+001 169 154 133
4.388872e+000 -2.906471e+000 -1.235529e+001 179 97 51
3.257068e+000 -4.534664e+000 -1.356072e+001 201 142 62
3.739389e+000 -4.168155e+000 -1.322473e+001 205 143 61
3.310034e+000 -5.111075e+000 -1.370102e+001 193 113 55
4.359967e+000 4.404980e+000 -1.367403e+001 214 142 103
4.571212e+000 4.335851e+000 -1.341341e+001 236 198 112
2.468818e+000 3.538130e+000 -1.661422e+001 205 125 92
2.808146e+000 3.603743e+000 -1.595370e+001 214 153 99
3.738089e+000 4.003007e+000 -1.476676e+001 227 176 100
4.767103e+000 4.104371e+000 -1.285499e+001 232 182 117
6.935912e-001 2.313004e+000 -1.929490e+001 215 126 81
4.409881e+000 3.899892e+000 -1.347785e+001 228 179 101
-4.752656e-001 1.356555e+000 -2.118947e+001 204 202 216
-1.011426e-001 1.572229e+000 -2.058464e+001 234 180 117
-1.063544e-001 1.651415e+000 -1.999302e+001 234 180 117
2.412344e-001 1.576657e+000 -1.997243e+001 213 103 83
2.412344e-001 1.576657e+000 -1.997243e+001 213 103 83
4.486490e-001 1.702981e+000 -1.974113e+001 214 113 89
-3.353902e+000 2.211180e+000 -8.309892e+000 115 84 53
2.368931e-001 1.306671e+000 -2.017983e+001 229 160 101
2.368931e-001 1.306671e+000 -2.017983e+001 229 160 101
