ply
format ascii 1.0
element face 0
property list uchar int vertex_indices
element vertex 873
property float x
property float y
property float z
property uchar diffuse_red
property uchar diffuse_green
property uchar diffuse_blue
end_header
1.052030e+000 -1.278280e+000 -9.734497e+000 198 187 166
9.689573e-001 -1.477569e+000 -9.944417e+000 213 197 171
4.152869e+000 -2.509520e+000 -1.183054e+001 218 119 62
4.088874e+000 -2.895841e+000 -1.168507e+001 230 193 113
4.400187e-001 -1.353038e+000 -1.014279e+001 184 160 132
3.613433e+000 -3.284822e+000 -1.269616e+001 134 74 46
3.655246e+000 -2.915232e+000 -1.265527e+001 118 68 37
4.476132e+000 -1.847265e+000 -1.143282e+001 187 76 55
4.016868e+000 -2.526783e+000 -1.218474e+001 189 85 55
4.016868e+000 -2.526783e+000 -1.218474e+001 189 85 55
5.809842e-001 -2.386712e+000 -1.049227e+001 154 133 111
-9.489274e-001 3.155997e-001 -9.487384e+000 189 161 149
-1.987973e+000 8.818629e-001 -8.754924e+000 131 112 97
4.266887e+000 -2.044841e+000 -1.185205e+001 201 104 56
4.028061e+000 -2.927481e+000 -1.199445e+001 104 92 78
3.938339e+000 -3.160157e+000 -1.208731e+001 131 117 101
3.938339e+000 -3.160157e+000 -1.208731e+001 131 117 101
3.888142e+000 -3.149921e+000 -1.216870e+001 120 107 91
3.842382e+000 -3.216314e+000 -1.224084e+001 138 128 119
9.428626e-001 -1.087054e+000 -9.737110e+000 71 73 53
3.814700e+000 -3.057941e+000 -1.244078e+001 199 132 45
1.388026e+000 -8.460114e-001 -9.577623e+000 131 101 67
4.845742e+000 -8.000794e-001 -1.092521e+001 121 57 36
4.274470e+000 -1.972045e+000 -1.201922e+001 128 72 36
4.228306e+000 -2.093041e+000 -1.192282e+001 224 154 66
4.148735e+000 -2.298875e+000 -1.202387e+001 192 101 49
4.017052e+000 -3.103093e+000 -1.192989e+001 185 96 52
3.898755e+000 -2.705026e+000 -1.229889e+001 210 120 48
3.738815e+000 -2.873700e+000 -1.262559e+001 196 132 55
4.131864e+000 -2.111956e+000 -1.196672e+001 127 59 36
3.745106e+000 -2.732126e+000 -1.251272e+001 137 82 44
3.052739e+000 -3.158478e+000 -1.267789e+001 120 91 61
2.509638e+000 -3.291084e+000 -1.257167e+001 106 81 59
1.763582e+000 -3.895656e-001 -9.062345e+000 231 225 206
1.390501e+000 -9.948291e-001 -9.516175e+000 234 228 215
1.315061e+000 -1.167952e+000 -9.632407e+000 249 247 235
1.150219e+000 -1.523611e+000 -9.885229e+000 237 228 207
4.300498e+000 -1.985060e+000 -1.178711e+001 230 173 68
8.399029e-001 -1.599950e+000 -1.006132e+001 159 123 89
4.073997e+000 -2.361908e+000 -1.210695e+001 231 188 92
3.960710e+000 -2.376728e+000 -1.214668e+001 143 65 35
3.939254e+000 -2.554545e+000 -1.225929e+001 232 196 90
3.904635e+000 -2.989766e+000 -1.220590e+001 189 96 47
3.832132e+000 -2.584671e+000 -1.238021e+001 129 70 40
3.841597e+000 -2.737758e+000 -1.246153e+001 216 147 55
2.260383e+000 -3.023544e+000 -1.216588e+001 126 106 83
4.334971e+000 -1.802148e+000 -1.170285e+001 158 71 51
2.342608e+000 -2.029548e+000 -1.104592e+001 83 66 46
-2.059589e+000 8.551802e-001 -8.835603e+000 62 57 61
1.662470e+000 -6.515270e-001 -9.288050e+000 128 100 68
4.896073e+000 -8.200380e-001 -1.089749e+001 210 205 194
4.855365e+000 -9.995226e-001 -1.093291e+001 97 79 64
4.546428e+000 -1.908262e+000 -1.131240e+001 222 209 200
4.520471e+000 -1.984107e+000 -1.136705e+001 223 207 200
4.354109e+000 -2.350196e+000 -1.158412e+001 208 203 200
1.627645e+000 2.608636e-001 -9.082756e+000 100 93 61
4.022960e+000 -2.749313e+000 -1.211499e+001 233 169 66
4.604994e+000 -1.330576e+000 -1.134302e+001 241 197 103
4.462857e+000 -1.513934e+000 -1.157730e+001 157 71 37
3.939254e+000 -2.554545e+000 -1.225929e+001 232 196 90
2.658431e+000 -2.639920e+000 -1.193260e+001 94 72 49
3.672176e+000 -1.751734e+000 -1.137705e+001 96 75 45
1.693812e+000 -8.334076e-002 -8.862436e+000 127 131 96
4.936547e+000 -8.115771e-001 -1.083638e+001 85 71 59
4.923031e+000 -7.970064e-001 -1.089895e+001 98 88 75
4.850785e+000 -1.114516e+000 -1.092725e+001 96 84 70
4.825519e+000 -1.174833e+000 -1.095206e+001 92 79 65
4.813476e+000 -1.156260e+000 -1.101628e+001 122 102 88
1.800235e+000 4.537069e-001 -8.878977e+000 85 84 54
4.853673e+000 -1.076965e+000 -1.090720e+001 235 221 218
4.649133e+000 -1.597508e+000 -1.119269e+001 229 220 191
4.546091e+000 -1.801833e+000 -1.134731e+001 216 141 64
4.587156e+000 -1.816109e+000 -1.122597e+001 93 80 69
4.593052e+000 -1.868155e+000 -1.123783e+001 229 212 206
4.593052e+000 -1.868155e+000 -1.123783e+001 229 212 206
4.559387e+000 -1.823253e+000 -1.126246e+001 227 209 200
4.559387e+000 -1.823253e+000 -1.126246e+001 227 209 200
4.471171e+000 -2.117166e+000 -1.130861e+001 111 95 91
4.454406e+000 -2.106974e+000 -1.144934e+001 101 88 81
4.461933e+000 -2.191291e+000 -1.139878e+001 110 93 77
4.390718e+000 -2.319391e+000 -1.147492e+001 216 204 199
4.550543e+000 -1.910836e+000 -1.132295e+001 222 209 200
3.509945e+000 -1.620603e+000 -1.122414e+001 79 57 33
3.702206e+000 -2.099531e+000 -1.176217e+001 101 74 44
3.448553e+000 -2.490918e+000 -1.207958e+001 117 88 59
4.550157e+000 -1.472582e+000 -1.144686e+001 231 188 90
1.005140e+000 -9.069461e-001 -9.687374e+000 68 70 49
-2.430410e+000 1.421187e+000 -8.334807e+000 95 66 35
-2.170891e+000 8.173492e-001 -8.944094e+000 117 96 77
4.573324e+000 -1.912377e+000 -1.121101e+001 140 120 115
7.443643e-001 -1.238533e+000 -1.009051e+001 188 166 152
4.394628e+000 -2.323080e+000 -1.148884e+001 216 204 199
4.533662e+000 -1.786560e+000 -1.152951e+001 219 143 52
1.873211e+000 -3.222675e+000 -1.213947e+001 97 76 53
2.505029e+000 -1.519129e+000 -1.064260e+001 84 66 46
2.654478e+000 -1.193768e+000 -1.034835e+001 74 56 36
1.058480e+000 -1.675002e+000 -9.957976e+000 220 209 187
2.046955e+000 -2.490421e+000 -1.146516e+001 102 85 65
-2.355519e+000 1.189997e+000 -8.326618e+000 159 131 94
4.087940e+000 -3.002538e+000 -1.182436e+001 215 164 50
4.368843e-001 -2.068179e+000 -1.035603e+001 176 148 101
3.960910e+000 -3.087638e+000 -1.215794e+001 207 191 192
3.283351e+000 -3.657448e+000 -1.308484e+001 202 125 60
4.784958e+000 -1.062475e+000 -1.104514e+001 197 88 65
-6.848875e-001 3.171470e-002 -9.819342e+000 126 78 69
5.870467e-001 -1.461507e+000 -1.021126e+001 168 135 103
3.835195e+000 -3.289476e+000 -1.232914e+001 215 203 189
4.447231e+000 -7.641743e-001 -1.066460e+001 116 85 54
3.648544e+000 -3.347805e+000 -1.264215e+001 231 185 65
3.695163e+000 -3.635626e+000 -1.238675e+001 158 78 59
3.370337e+000 -3.728130e+000 -1.302702e+001 205 126 55
-1.056347e+000 -1.951769e-001 -1.049016e+001 196 161 141
3.843728e+000 -3.441983e+000 -1.215875e+001 186 79 49
3.511766e+000 -3.611610e+000 -1.282242e+001 189 97 45
3.328412e+000 -3.604761e+000 -1.317362e+001 188 112 55
3.160259e+000 -3.534741e-001 -9.609058e+000 81 60 40
1.320089e+000 -4.901683e-001 -9.287969e+000 215 202 176
3.459719e+000 -3.571376e+000 -1.291402e+001 222 152 68
4.733826e+000 -1.288222e+000 -1.116633e+001 237 200 103
1.829784e+000 -1.934383e-001 -8.885968e+000 230 231 220
3.628737e+000 -3.121260e+000 -1.272513e+001 229 192 84
1.021749e+000 -1.490758e+000 -9.898518e+000 205 189 163
4.942041e+000 -7.534625e-001 -1.079444e+001 163 148 147
4.890023e+000 -8.877322e-001 -1.086981e+001 227 218 213
4.905676e+000 -1.001285e+000 -1.081801e+001 130 114 99
4.781169e+000 -1.373212e+000 -1.094686e+001 121 116 104
4.591950e+000 -1.793209e+000 -1.130766e+001 140 120 98
4.591950e+000 -1.793209e+000 -1.130766e+001 140 120 98
4.573324e+000 -1.912377e+000 -1.121101e+001 140 120 115
4.527073e+000 -1.977193e+000 -1.121101e+001 146 128 122
4.350800e+000 -2.405738e+000 -1.146828e+001 154 145 143
4.316217e+000 -2.510875e+000 -1.156738e+001 157 143 135
4.930010e+000 -7.774436e-001 -1.084838e+001 205 196 183
4.921438e+000 -8.433240e-001 -1.084063e+001 236 223 217
4.920798e+000 -9.143097e-001 -1.082361e+001 225 224 217
4.889242e+000 -1.000949e+000 -1.085085e+001 81 64 47
4.869342e+000 -1.051981e+000 -1.087275e+001 97 87 72
4.841904e+000 -1.199557e+000 -1.088612e+001 87 78 60
-2.595039e+000 1.442848e+000 -8.362881e+000 119 90 60
4.796146e+000 -1.339771e+000 -1.098713e+001 204 173 175
4.735691e+000 -1.447523e+000 -1.100145e+001 229 214 209
4.763188e+000 -1.554041e+000 -1.089374e+001 225 150 58
4.657577e+000 -1.702294e+000 -1.114836e+001 220 213 207
4.526125e+000 -1.858175e+000 -1.134347e+001 206 187 165
4.454324e+000 -2.071143e+000 -1.139313e+001 205 190 183
3.767402e+000 -3.263890e+000 -1.240619e+001 221 173 76
4.805990e+000 -1.254201e+000 -1.090962e+001 140 79 55
-2.142636e+000 1.206625e+000 -8.353071e+000 148 124 89
4.766662e+000 -9.720934e-001 -1.109909e+001 180 104 59
4.553148e+000 -1.618588e+000 -1.144319e+001 216 159 53
-4.809933e-001 1.808207e-001 -9.672227e+000 153 94 89
1.129784e+000 -1.383816e+000 -9.865710e+000 147 106 70
3.520787e+000 -1.689717e+000 -1.127969e+001 88 63 41
3.578596e+000 -1.754080e+000 -1.139259e+001 114 92 68
4.336320e+000 -2.491842e+000 -1.150856e+001 223 210 194
1.658038e+000 -2.396429e-001 -8.958308e+000 143 137 112
3.430631e+000 -1.943415e+000 -1.145157e+001 96 75 48
4.292223e+000 -2.634907e+000 -1.156467e+001 209 120 50
4.942105e+000 -1.021464e+000 -1.071593e+001 203 126 43
3.925715e+000 -1.072915e+000 -1.088293e+001 126 102 78
3.568586e+000 -1.386049e+000 -1.100877e+001 92 68 44
4.453296e+000 -2.279642e+000 -1.137791e+001 192 95 48
3.568050e+000 -3.372819e+000 -1.279814e+001 221 155 67
1.693593e+000 -1.773980e-001 -8.894510e+000 117 112 78
4.583793e+000 -2.084392e+000 -1.125136e+001 169 84 47
4.357775e+000 -2.519977e+000 -1.147531e+001 231 190 86
3.044272e+000 -6.445896e-001 -9.917779e+000 84 66 46
4.164286e+000 -1.174434e+000 -1.107423e+001 115 88 58
6.379807e-001 6.317387e-001 -9.051987e+000 179 144 124
1.557246e+000 -7.813124e-001 -9.404271e+000 151 126 96
4.903221e+000 -8.538149e-001 -1.089173e+001 100 87 80
4.915122e+000 -9.532616e-001 -1.081239e+001 95 76 68
4.881761e+000 -1.089079e+000 -1.084855e+001 149 131 127
4.792353e+000 -9.542679e-001 -1.107579e+001 181 108 43
4.505660e+000 -2.056711e+000 -1.127774e+001 150 128 120
4.951706e+000 -8.321806e-001 -1.076491e+001 101 79 63
4.920798e+000 -9.143097e-001 -1.082361e+001 225 224 217
-1.130391e+000 8.261263e-001 -9.188791e+000 139 120 98
4.377464e+000 -2.281884e+000 -1.153510e+001 206 193 185
4.853673e+000 -1.076965e+000 -1.090720e+001 235 221 218
4.864398e+000 -1.266159e+000 -1.080778e+001 219 138 63
4.767933e+000 -1.344382e+000 -1.099944e+001 94 77 65
4.618625e+000 -1.917358e+000 -1.118064e+001 225 161 87
4.359888e+000 -2.347098e+000 -1.152057e+001 208 206 192
1.078730e+000 -1.590916e+000 -9.937219e+000 170 150 121
4.386126e+000 -2.017240e+000 -1.166261e+001 219 142 56
4.453296e+000 -2.279642e+000 -1.137791e+001 192 95 48
4.200826e+000 -2.845692e+000 -1.167724e+001 168 68 49
2.552745e+000 -2.062397e+000 -1.121711e+001 113 92 71
1.387801e+000 -7.782693e-001 -9.389865e+000 201 182 157
4.642183e+000 -1.631600e+000 -1.119067e+001 124 118 96
1.759611e+000 4.470102e-001 -8.895305e+000 184 175 145
2.669647e+000 -5.643495e-001 -9.691076e+000 171 157 143
6.114258e-001 -7.457889e-001 -9.382764e+000 180 139 135
7.655201e-001 5.671393e-001 -9.111324e+000 216 189 163
4.519711e+000 -1.932438e+000 -1.136010e+001 118 98 79
4.473097e+000 -2.162508e+000 -1.132741e+001 216 212 211
4.040442e+000 -4.102007e-001 -1.009201e+001 79 54 32
1.267168e+000 -9.219704e-001 -9.545106e+000 85 84 53
3.335268e+000 -1.639226e+000 -1.114818e+001 127 105 81
1.209626e+000 -5.700608e-002 -9.360728e+000 212 192 168
4.628072e+000 -1.700292e+000 -1.118922e+001 94 79 65
-7.057023e-001 -9.028802e-001 -9.794701e+000 170 114 102
1.948790e+000 -8.220068e-002 -8.694026e+000 155 135 102
1.466317e+000 1.226833e+000 -9.925110e+000 194 166 139
1.323416e-001 -3.977601e-001 -9.075447e+000 226 195 176
5.520114e-001 -2.152886e+000 -1.019854e+001 211 196 169
4.069824e+000 -2.927325e+000 -1.187126e+001 117 110 99
1.659977e+000 1.421847e-002 -8.896097e+000 137 145 106
-2.218961e+000 1.431484e+000 -8.390235e+000 142 116 82
1.291899e+000 2.507952e-001 -9.463803e+000 131 89 62
3.375381e+000 -1.523665e+000 -1.107667e+001 78 56 33
9.961394e-001 -1.723958e+000 -9.994707e+000 172 147 117
3.087821e+000 -2.917350e+000 -1.245277e+001 129 100 70
1.082996e+000 -1.063859e+000 -9.690940e+000 143 147 114
-2.369476e+000 1.359909e+000 -8.345741e+000 144 115 83
-2.339825e+000 1.326073e+000 -8.338843e+000 114 85 52
9.910376e-001 -1.096031e+000 -9.747919e+000 111 114 85
1.772619e+000 2.208981e-001 -8.861910e+000 178 171 145
4.789251e+000 -1.001465e+000 -1.102652e+001 218 152 65
4.557518e+000 -1.872515e+000 -1.125710e+001 110 91 84
-2.312755e+000 1.452743e+000 -8.323419e+000 152 123 89
-2.312755e+000 1.452743e+000 -8.323419e+000 152 123 89
2.547171e+000 -2.959535e+000 -1.226376e+001 119 97 74
4.280539e+000 -2.320634e+000 -1.176849e+001 211 108 52
3.859335e+000 -3.257211e+000 -1.219807e+001 124 114 106
5.248368e-001 1.771259e+000 -1.010277e+001 225 187 167
-8.048339e-001 -9.282212e-001 -9.723614e+000 171 124 112
1.205657e+000 -7.028620e-001 -9.570279e+000 190 171 145
-7.528685e-001 -8.534505e-001 -9.787622e+000 178 126 113
9.842518e-001 6.697768e-001 -9.321881e+000 156 113 95
4.855365e+000 -9.995226e-001 -1.093291e+001 97 79 64
7.000414e-001 -6.592133e-001 -9.321399e+000 145 97 87
-8.557948e-001 -7.889587e-001 -9.793397e+000 224 187 171
3.873950e+000 -3.074210e+000 -1.221013e+001 203 142 58
4.725099e+000 -1.579446e+000 -1.118019e+001 230 213 185
4.725099e+000 -1.579446e+000 -1.118019e+001 230 213 185
7.638681e-001 -1.295288e+000 -1.008240e+001 192 174 152
3.300241e+000 -1.767465e+000 -1.120766e+001 84 62 38
7.087753e-001 -1.941725e+000 -1.032417e+001 173 146 115
3.226128e+000 -1.255615e+000 -1.071613e+001 112 93 69
-4.264508e-001 -2.705016e-001 -1.022907e+001 168 120 110
2.197317e-001 -1.934924e+000 -1.040251e+001 163 122 62
3.725337e+000 -3.007127e+000 -1.259514e+001 188 118 46
-2.105781e+000 1.508603e+000 -8.357401e+000 109 80 49
8.059550e-001 -6.210998e-001 -9.283641e+000 176 146 122
2.800437e+000 -1.737388e+000 -1.097213e+001 114 96 73
6.298339e-001 -2.041967e+000 -1.034501e+001 174 152 119
1.622625e+000 3.575756e-001 -9.112851e+000 204 192 166
1.574994e+000 -6.580048e-001 -9.310768e+000 215 206 190
6.329863e-001 -1.874304e+000 -1.030073e+001 150 113 61
-2.039845e+000 1.245356e+000 -8.382167e+000 144 119 89
1.273737e+000 -8.117399e-001 -9.514027e+000 214 199 171
4.082219e+000 -2.571907e+000 -1.203464e+001 246 211 108
1.804751e-001 -2.376985e-001 -9.192165e+000 207 170 154
7.018341e-001 5.882926e-001 -9.076687e+000 177 142 122
-8.474522e-001 -9.514026e-001 -9.723667e+000 209 165 152
-2.528138e+000 2.039857e+000 -8.511105e+000 140 112 100
1.871117e+000 3.983879e-001 -8.819791e+000 121 125 89
-2.154139e+000 1.266663e+000 -8.344984e+000 108 81 50
-1.902581e+000 1.230083e+000 -8.421983e+000 80 54 35
-1.307289e-001 -8.278027e-001 -9.203329e+000 219 180 172
1.047982e+000 -1.123585e+000 -9.759962e+000 75 72 44
-2.563973e+000 1.552077e+000 -8.364972e+000 132 102 64
6.688763e-001 6.220199e-001 -9.081690e+000 225 196 175
7.297518e-001 5.763593e-001 -9.102517e+000 149 114 91
1.653021e+000 -1.022581e-001 -8.815223e+000 143 150 113
4.839327e+000 -1.236404e+000 -1.088085e+001 226 215 212
-1.675156e-001 -8.362526e-001 -9.201585e+000 184 145 139
9.890191e-001 -1.184945e+000 -9.766399e+000 86 89 58
4.391091e+000 -2.393300e+000 -1.147214e+001 211 196 193
7.123109e-001 -1.582386e+000 -1.005597e+001 204 183 152
4.053281e+000 -2.957675e+000 -1.189800e+001 208 198 186
3.965936e+000 -3.034495e+000 -1.213787e+001 143 119 108
4.894351e+000 2.542912e+000 -1.165368e+001 124 96 83
-1.664622e+000 1.526847e+000 -8.744355e+000 86 63 45
3.162319e+000 -1.039729e+000 -1.045794e+001 101 83 60
-6.408565e-001 -1.027782e+000 -9.858562e+000 156 95 85
4.061745e+000 -2.917848e+000 -1.184102e+001 117 110 99
4.902559e+000 2.644052e+000 -1.152905e+001 173 86 85
2.798800e+000 4.094494e-001 -8.991840e+000 246 241 216
1.738103e+000 1.420464e-001 -8.837213e+000 103 111 75
3.667725e+000 -6.238486e-001 -1.014619e+001 91 69 43
3.667725e+000 -6.238486e-001 -1.014619e+001 91 69 43
4.044020e+000 -7.515050e-001 -1.050861e+001 104 78 53
1.398935e+000 -5.784170e-001 -9.329766e+000 154 121 83
2.446315e+000 -9.009115e-001 -9.949194e+000 127 110 92
1.452171e+000 2.202378e-002 -9.287532e+000 211 196 173
1.576096e-001 -3.294703e-001 -9.007913e+000 235 208 187
1.301977e+000 -1.020730e+000 -9.602197e+000 140 115 92
4.097104e+000 -1.388935e+000 -1.128387e+001 108 80 48
1.276920e+000 -1.263463e+000 -9.651648e+000 231 222 209
-4.563759e-001 -1.037080e+000 -9.416223e+000 202 171 168
1.179178e+000 -1.427142e+000 -9.784425e+000 216 208 184
4.049734e+000 -3.085224e+000 -1.181585e+001 231 175 72
4.049734e+000 -3.085224e+000 -1.181585e+001 231 175 72
4.929182e+000 2.582618e+000 -1.146283e+001 239 229 233
4.929182e+000 2.582618e+000 -1.146283e+001 239 229 233
4.493942e+000 -5.802799e-002 -1.013984e+001 129 101 77
1.579931e+000 -5.461050e-002 -9.083399e+000 132 139 105
1.646230e+000 -3.153333e-001 -9.006682e+000 113 111 86
4.413788e+000 -8.216029e-001 -1.072931e+001 112 81 52
4.552290e+000 -1.318174e+000 -1.145615e+001 127 61 36
9.164623e-001 -1.652796e+000 -1.010318e+001 188 166 143
3.529407e+000 -2.140437e+000 -1.168069e+001 146 120 93
6.657110e-003 -1.795672e+000 -1.051943e+001 127 103 82
1.583514e+000 7.017757e-001 -9.236672e+000 164 130 63
1.678619e+000 6.330291e-001 -8.912971e+000 212 198 153
1.465244e+000 1.134749e+000 -9.966249e+000 110 70 45
-1.649111e+000 1.134972e+000 -8.764428e+000 135 113 96
3.745106e+000 -2.732126e+000 -1.251272e+001 137 82 44
2.623143e+000 -3.208788e+000 -1.258003e+001 101 77 53
2.017272e+000 1.643775e-001 -8.741582e+000 231 225 212
1.009216e+000 3.626629e-001 -9.535378e+000 135 90 66
4.463708e+000 -1.678023e+000 -1.161871e+001 229 167 65
1.149766e+000 -4.593911e-001 -9.493994e+000 195 175 152
1.571125e+000 -1.697154e+000 -1.004362e+001 56 45 34
6.300570e-001 -1.384321e+000 -1.025528e+001 129 90 64
2.860226e-001 -2.092365e+000 -1.034465e+001 162 127 65
4.513948e+000 -1.660208e+000 -1.149451e+001 238 189 81
1.618719e+000 -1.896768e-001 -9.117419e+000 107 114 87
-9.986072e-001 5.147248e-001 -9.250657e+000 108 91 71
7.425019e-001 1.414538e+000 -9.529831e+000 198 152 143
4.915122e+000 -9.532616e-001 -1.081239e+001 95 76 68
1.959587e+000 1.224847e-002 -8.798379e+000 158 138 110
1.582668e+000 -5.910802e-001 -9.268351e+000 191 171 148
5.555880e-001 1.758372e+000 -1.019578e+001 195 155 132
2.586487e-001 1.762718e+000 -1.031507e+001 221 182 164
-2.371286e+000 9.943801e-001 -8.382854e+000 90 62 40
1.342397e-001 -1.560827e+000 -1.056013e+001 75 50 31
1.999987e+000 4.309113e-001 -8.670123e+000 95 105 71
-2.603986e+000 2.001564e+000 -8.530218e+000 82 55 42
1.651698e+000 1.581605e-001 -9.045753e+000 138 143 107
1.547104e+000 -1.110794e-001 -9.166137e+000 130 138 102
1.119701e+000 -7.756011e-001 -9.666876e+000 94 84 60
2.326968e+000 -3.235393e+000 -1.238660e+001 98 76 53
4.877322e+000 2.379736e+000 -1.162844e+001 168 86 79
1.411477e+000 1.754539e+000 -1.007379e+001 90 89 66
5.099847e+000 1.139408e+000 -1.102318e+001 230 214 213
5.026753e+000 1.274732e+000 -1.117214e+001 235 216 218
1.800235e+000 4.537069e-001 -8.878977e+000 85 84 54
3.846046e+000 1.759605e-002 -9.794803e+000 114 92 70
3.920533e+000 -7.878105e-001 -1.050561e+001 98 74 46
3.406484e+000 -9.825753e-001 -1.044739e+001 77 59 37
3.352374e+000 -1.927346e+000 -1.144564e+001 127 105 81
3.779582e+000 -3.368137e+000 -1.236704e+001 223 205 195
3.429657e+000 -3.809555e+000 -1.296190e+001 212 150 52
4.855886e+000 2.473852e+000 -1.169038e+001 230 224 230
1.975982e+000 6.120322e-001 -8.820748e+000 96 102 68
1.970978e+000 3.264776e-001 -8.704074e+000 117 125 92
3.319383e+000 1.799281e-001 -9.422313e+000 77 56 36
1.032407e+000 7.823495e-001 -9.276770e+000 133 83 57
1.539990e+000 -1.926250e-001 -9.112466e+000 80 84 62
2.996716e-001 -3.259677e-001 -8.805998e+000 234 208 193
3.974125e+000 -3.135671e+000 -1.200970e+001 226 209 205
3.258246e+000 -1.375517e-001 -9.481364e+000 75 54 35
4.154549e+000 -6.416147e-001 -1.041144e+001 106 80 53
4.589338e+000 -1.575635e+000 -1.120937e+001 193 96 51
3.463292e+000 -4.839320e-001 -9.923235e+000 71 50 27
9.189889e-001 8.053412e-001 -9.332804e+000 203 172 154
3.639348e+000 -2.606530e-001 -9.779647e+000 117 98 74
-8.379917e-001 4.305690e-001 -9.270979e+000 86 64 50
-8.379917e-001 4.305690e-001 -9.270979e+000 86 64 50
3.005331e+000 -1.253036e+000 -1.062447e+001 113 95 73
2.091487e+000 -1.411398e+000 -1.015188e+001 72 51 38
2.446961e+000 -1.767165e+000 -1.085198e+001 90 72 50
1.583721e+000 -7.903096e-001 -9.381022e+000 164 142 111
1.831977e+000 -1.025843e-001 -8.857980e+000 179 167 142
-3.012420e-001 -8.533221e-001 -9.247951e+000 198 159 153
-1.934048e+000 1.326210e+000 -8.462513e+000 125 101 76
5.357784e-001 7.483510e-001 -9.082626e+000 218 187 166
-1.170488e+000 -2.501216e-001 -1.055011e+001 177 131 108
-9.305101e-001 -8.301595e-001 -9.809164e+000 223 182 171
1.419875e+000 9.249088e-001 -9.846603e+000 160 120 98
4.195435e+000 1.400451e-001 -9.978968e+000 94 69 44
-2.710966e+000 1.954898e+000 -8.528585e+000 87 50 34
7.205150e-001 1.046678e+000 -9.239213e+000 129 73 64
1.451809e+000 1.445515e+000 -9.938895e+000 213 194 161
-2.639945e+000 1.376843e+000 -8.322809e+000 150 121 89
-1.276797e-001 -1.681923e+000 -1.105180e+001 141 119 91
8.712156e-001 9.734981e-001 -9.339321e+000 156 99 89
3.069549e+000 -1.154699e+000 -1.058660e+001 109 90 68
4.873716e+000 2.408087e+000 -1.181146e+001 165 82 81
3.643469e+000 1.912078e-001 -9.635987e+000 115 95 70
-4.014898e-001 -4.221501e-001 -9.958339e+000 162 113 106
3.238697e+000 -2.852554e+000 -1.243462e+001 138 109 79
3.426317e-001 -2.892423e+000 -1.112411e+001 199 181 159
1.846272e+000 3.658019e-001 -8.883624e+000 190 185 159
1.725710e+000 2.874004e-001 -9.027501e+000 124 117 88
1.492425e+000 -8.546736e-001 -9.425426e+000 204 196 173
6.496893e-001 -7.740394e-001 -9.378344e+000 212 189 171
3.274125e+000 -3.773807e+000 -1.320326e+001 237 195 83
1.918625e+000 -4.614806e-002 -8.740783e+000 250 248 241
9.178263e-001 -3.856637e-001 -9.672003e+000 114 77 61
1.595401e+000 1.446544e+000 -9.856113e+000 164 136 108
1.459382e+000 1.291643e+000 -9.893578e+000 205 181 155
4.864176e-001 8.554789e-001 -9.131451e+000 204 168 155
1.569055e+000 -6.913059e-001 -9.282379e+000 226 212 199
4.642183e+000 -1.631600e+000 -1.119067e+001 124 118 96
-2.160303e-001 -7.633704e-001 -9.255601e+000 214 168 160
4.540976e+000 -1.854186e+000 -1.129468e+001 133 115 106
-7.339739e-001 -1.050616e+000 -9.772261e+000 207 158 151
-2.622693e+000 2.048118e+000 -8.542207e+000 163 115 107
8.041612e-001 1.344300e+000 -9.485545e+000 172 128 113
1.723258e+000 1.064276e+000 -9.263139e+000 115 121 95
2.472609e+000 4.208740e-001 -8.736421e+000 231 228 198
4.893332e+000 1.353082e+000 -1.142322e+001 223 153 146
4.893332e+000 1.353082e+000 -1.142322e+001 223 153 146
5.053408e+000 1.136709e+000 -1.111486e+001 235 208 206
5.053408e+000 1.136709e+000 -1.111486e+001 235 208 206
1.055003e+000 1.175208e+000 -9.532512e+000 202 163 146
7.997260e-001 5.640469e-001 -9.125584e+000 140 104 82
4.801885e+000 1.523403e-001 -1.034704e+001 106 76 47
4.936918e+000 -6.840089e-001 -1.091207e+001 137 94 55
4.890023e+000 -8.877322e-001 -1.086981e+001 227 218 213
3.568683e-002 -8.459357e-001 -9.215328e+000 189 141 131
4.561587e+000 -1.664200e+000 -1.120472e+001 195 112 65
4.632034e+000 -1.664733e+000 -1.118641e+001 213 198 189
-7.794381e-001 -9.687984e-001 -9.743546e+000 208 168 157
1.042141e+000 -1.554391e+000 -9.891643e+000 212 193 168
4.335696e+000 -2.386460e+000 -1.161476e+001 206 195 189
4.941373e+000 2.512663e+000 -1.152123e+001 140 126 113
8.352545e-001 1.330062e+000 -9.481820e+000 219 177 161
8.547464e-001 1.303333e+000 -9.489941e+000 152 109 93
2.551022e+000 4.024821e-001 -8.843721e+000 216 207 181
4.810497e+000 1.561765e+000 -1.172366e+001 224 173 122
4.856410e+000 1.470148e+000 -1.161509e+001 212 119 108
4.985967e+000 1.111556e+000 -1.127564e+001 220 114 95
-1.949694e+000 1.268184e+000 -8.402166e+000 106 80 55
3.546556e+000 -1.341119e+000 -1.096795e+001 120 100 75
-2.091422e-001 -7.261271e-001 -9.288348e+000 185 128 123
-1.450505e-002 -8.401644e-001 -9.212618e+000 147 97 92
-1.247451e+000 -6.489440e-001 -1.059718e+001 177 142 121
9.220841e-001 -1.411604e+000 -9.999399e+000 177 157 132
2.909275e-001 -1.857183e+000 -1.006055e+001 210 196 167
3.799086e+000 -3.307485e+000 -1.238223e+001 152 135 119
-2.481205e+000 2.098878e+000 -8.603753e+000 142 96 91
4.678661e+000 2.407389e+000 -1.221816e+001 129 104 100
-2.567594e+000 1.742649e+000 -8.390582e+000 144 113 83
-2.410259e+000 1.971677e+000 -8.474018e+000 137 106 77
7.286685e-001 1.448623e+000 -9.492049e+000 227 191 176
4.812190e+000 1.424320e+000 -1.162088e+001 233 219 214
4.893953e+000 1.425794e+000 -1.157485e+001 236 218 219
4.893953e+000 1.425794e+000 -1.157485e+001 236 218 219
4.955389e+000 1.267108e+000 -1.129576e+001 231 218 222
4.992060e+000 1.281597e+000 -1.123673e+001 233 221 218
4.998548e+000 1.231156e+000 -1.126487e+001 212 84 75
5.031514e+000 1.021646e+000 -1.122122e+001 221 184 159
2.503378e+000 3.200542e-001 -8.743689e+000 107 100 74
4.462147e-001 9.172548e-001 -9.214976e+000 215 181 162
2.340034e+000 -2.654039e-002 -8.812529e+000 58 45 31
3.862524e+000 -7.958189e-002 -9.815427e+000 118 97 72
-1.089048e+000 6.787161e-001 -9.198691e+000 125 106 85
3.561929e+000 -1.286554e+000 -1.091677e+001 92 72 45
3.482921e+000 -1.768350e+000 -1.131413e+001 90 66 42
4.235004e+000 -2.579978e+000 -1.172466e+001 217 207 197
4.816052e+000 2.926970e+000 -1.180996e+001 238 215 218
4.816074e+000 2.697044e+000 -1.187779e+001 237 221 220
-2.346487e+000 2.013773e+000 -8.526825e+000 147 117 83
4.642626e+000 2.468445e+000 -1.224357e+001 232 230 236
4.793457e+000 2.270096e+000 -1.207100e+001 135 104 98
-2.666481e+000 1.988440e+000 -8.493702e+000 165 133 118
-2.485849e+000 2.002267e+000 -8.555730e+000 81 49 36
7.134423e-001 1.388590e+000 -9.550702e+000 216 181 164
1.459920e+000 1.675882e+000 -9.965859e+000 200 188 165
4.929252e+000 1.179064e+000 -1.139728e+001 236 215 216
5.021958e+000 1.171533e+000 -1.113679e+001 217 91 85
4.964388e+000 1.080593e+000 -1.133032e+001 236 219 212
2.150299e+000 2.468520e-001 -8.754293e+000 103 80 56
4.195435e+000 1.400451e-001 -9.978968e+000 94 69 44
1.691783e+000 1.064020e-001 -8.879636e+000 131 138 99
3.801067e+000 -1.337590e+000 -1.109700e+001 90 65 39
1.141715e+000 -1.286015e+000 -9.766765e+000 171 148 117
3.166852e+000 -1.899846e+000 -1.130503e+001 115 93 70
4.693792e+000 2.472114e+000 -1.210172e+001 241 226 232
4.693792e+000 2.472114e+000 -1.210172e+001 241 226 232
4.729790e+000 2.399626e+000 -1.198267e+001 174 84 84
4.755457e+000 2.410538e+000 -1.205290e+001 174 84 84
4.709428e+000 2.333898e+000 -1.209309e+001 233 226 228
-1.752310e+000 1.603970e+000 -8.600749e+000 96 73 57
3.705427e+000 -2.539292e-002 -9.697617e+000 88 63 43
2.799305e+000 -1.388840e-001 -9.119092e+000 68 54 43
5.619496e-003 1.953366e-002 -9.451992e+000 208 162 147
4.770537e+000 -1.716520e+000 -1.102740e+001 209 121 39
9.696114e-001 -1.338027e+000 -9.931857e+000 166 141 106
3.335366e+000 -2.706094e+000 -1.230787e+001 121 92 63
4.839653e+000 2.228531e+000 -1.179888e+001 164 77 75
1.566447e+000 1.591088e+000 -9.862721e+000 153 120 86
4.154549e+000 -6.416147e-001 -1.041144e+001 106 80 53
4.780948e+000 2.342981e+000 -1.184584e+001 234 229 233
4.780948e+000 2.342981e+000 -1.184584e+001 234 229 233
1.434893e+000 1.632674e+000 -9.995825e+000 172 152 125
1.575435e+000 1.393255e+000 -9.845018e+000 165 130 101
-1.316677e-001 -8.362063e-001 -9.116836e+000 210 172 164
4.787536e-001 -1.554889e+000 -1.006794e+001 179 161 131
3.833886e+000 -3.151166e+000 -1.226955e+001 233 199 96
3.968298e+000 -3.215515e+000 -1.206807e+001 228 193 133
2.392770e+000 -3.188855e+000 -1.239235e+001 129 107 84
1.435851e+000 1.800053e+000 -9.964902e+000 123 116 93
1.885728e+000 1.012209e-001 -8.918712e+000 151 126 100
4.151148e+000 -2.808289e-003 -9.972810e+000 122 97 75
4.324605e+000 -2.804712e-002 -1.006655e+001 84 58 41
3.376647e+000 -3.377112e-001 -9.729201e+000 112 91 70
-8.457446e-001 -1.924613e-001 -1.045056e+001 177 133 122
3.852027e+000 -1.808341e+000 -1.152312e+001 107 81 52
8.183798e-001 -1.476662e+000 -1.010012e+001 206 185 164
1.532582e+000 8.092002e-001 -9.183895e+000 214 197 164
4.740996e-001 8.948241e-001 -9.382323e+000 193 160 146
-4.683931e-001 -6.270207e-001 -9.898127e+000 178 128 121
1.344583e+000 -1.508080e+000 -9.886975e+000 49 36 27
-5.293863e-001 3.736952e-002 -9.966568e+000 170 115 110
4.378683e+000 -2.152120e+000 -1.171136e+001 226 165 70
4.335512e-001 1.713872e+000 -1.017972e+001 194 158 134
6.605283e-001 1.476062e+000 -9.533063e+000 205 159 148
9.092395e-001 1.343438e+000 -9.501784e+000 196 157 142
2.951205e+000 3.845300e-001 -9.006140e+000 44 30 19
4.942942e+000 -7.341755e-001 -1.089762e+001 135 113 99
4.871432e+000 -1.020273e+000 -1.088586e+001 191 172 165
-1.078077e+000 -8.964966e-002 -1.050252e+001 183 138 119
-1.298356e-001 -7.808229e-001 -9.230135e+000 215 172 163
-1.253754e-002 -7.696881e-001 -9.266380e+000 185 132 122
4.628079e+000 -1.579913e+000 -1.120298e+001 210 145 89
-2.545526e+000 1.903291e+000 -8.550581e+000 135 107 83
1.492603e+000 1.581730e+000 -9.929340e+000 204 183 154
5.009419e+000 1.238245e+000 -1.121896e+001 201 103 96
5.060144e+000 1.204054e+000 -1.111999e+001 238 198 204
5.060144e+000 1.204054e+000 -1.111999e+001 238 198 204
1.508363e+000 1.268376e+000 -9.901156e+000 181 153 129
1.012094e+000 6.901752e-001 -9.310230e+000 169 132 113
1.724356e+000 7.245039e-002 -8.806545e+000 120 127 89
2.239390e+000 -2.424497e-001 -9.013158e+000 68 57 42
2.647111e+000 -5.972446e-001 -9.738365e+000 173 160 145
4.897350e+000 -1.037292e+000 -1.083968e+001 228 220 216
-1.351842e-001 -6.584816e-001 -9.408004e+000 207 154 146
-1.754760e-001 -7.054420e-001 -9.310878e+000 204 150 142
4.348754e+000 -2.419391e+000 -1.155047e+001 207 203 194
4.677731e-001 1.665327e+000 -1.010584e+001 217 175 162
2.846349e+000 1.263922e-001 -9.009349e+000 64 52 39
-1.963407e+000 9.016376e-001 -8.748546e+000 118 97 80
4.372719e+000 -1.878104e+000 -1.157981e+001 195 94 51
4.542656e+000 -2.019560e+000 -1.123957e+001 217 200 199
4.348754e+000 -2.419391e+000 -1.155047e+001 207 203 194
9.277180e-001 -1.892310e+000 -1.010926e+001 183 164 132
4.299071e+000 -2.548680e+000 -1.160352e+001 120 100 97
-2.561005e+000 2.121020e+000 -8.551701e+000 132 84 80
-2.666481e+000 1.988440e+000 -8.493702e+000 165 133 118
5.117684e+000 1.185123e+000 -1.114788e+001 211 92 81
-2.014913e+000 7.884849e-001 -8.835739e+000 165 148 131
4.006396e+000 -3.187520e+000 -1.193750e+001 227 168 70
-2.077418e+000 1.705482e+000 -8.365397e+000 98 72 47
1.617747e+000 1.917154e+000 -1.021787e+001 254 252 239
1.683414e+000 1.560766e+000 -9.915866e+000 179 152 125
-2.771819e+000 1.813126e+000 -8.590454e+000 98 66 43
-2.771819e+000 1.813126e+000 -8.590454e+000 98 66 43
-1.773782e+000 1.684614e+000 -8.661360e+000 109 84 66
4.971421e+000 1.343678e+000 -1.140030e+001 215 187 167
-9.560030e-001 4.476362e-001 -9.266164e+000 104 89 68
3.786297e+000 -1.160351e+000 -1.093901e+001 99 75 51
3.995994e+000 -1.720646e+000 -1.145796e+001 174 150 118
4.430790e+000 -1.989857e+000 -1.144815e+001 176 78 56
4.430790e+000 -1.989857e+000 -1.144815e+001 176 78 56
5.490669e-001 -1.426208e+000 -1.027989e+001 137 94 60
8.785474e-001 -2.611125e+000 -1.108003e+001 58 52 40
8.147585e-001 -2.677305e+000 -1.111785e+001 66 58 45
3.817120e+000 -3.427695e+000 -1.229540e+001 217 202 198
-2.594385e+000 2.077891e+000 -8.532073e+000 185 137 132
3.196473e+000 -2.311879e-001 -9.501808e+000 92 73 53
1.237774e+000 -1.467006e+000 -9.842426e+000 123 89 53
5.062996e-001 1.355299e+000 -9.702940e+000 213 162 158
1.712783e+000 1.796523e+000 -1.007362e+001 236 227 210
5.158695e+000 1.059834e+000 -1.096301e+001 218 189 173
2.841579e+000 -2.814806e+000 -1.225411e+001 133 110 84
2.337075e+000 -2.792521e+000 -1.202887e+001 115 99 76
1.444109e+000 1.285643e+000 -9.850291e+000 226 200 173
1.288824e+000 -5.966805e-001 -9.506461e+000 144 101 69
3.335268e+000 -1.639226e+000 -1.114818e+001 127 105 81
7.031071e-001 -1.719332e+000 -1.019966e+001 204 183 156
2.795663e-001 -2.464962e+000 -1.084447e+001 145 127 103
5.656194e-001 1.660963e+000 -1.007451e+001 214 174 151
2.778587e+000 7.433644e-001 -9.130057e+000 128 121 103
4.786968e+000 1.389775e+000 -1.173475e+001 242 187 184
4.869656e+000 1.474708e+000 -1.157234e+001 204 138 122
4.869656e+000 1.474708e+000 -1.157234e+001 204 138 122
2.815747e+000 -8.856175e-002 -9.099153e+000 68 52 34
2.221674e+000 -2.333223e-001 -9.030405e+000 159 151 134
2.221674e+000 -2.333223e-001 -9.030405e+000 159 151 134
1.767580e+000 -3.446219e-001 -8.985418e+000 178 164 144
-1.897002e-002 -7.085438e-001 -9.335332e+000 205 147 139
1.352571e+000 -1.165443e+000 -9.574185e+000 163 146 120
4.506150e+000 -1.654815e+000 -1.112927e+001 229 171 85
-2.510787e+000 2.128483e+000 -8.551207e+000 162 114 110
4.119002e-001 1.747282e+000 -1.024489e+001 222 186 162
6.401185e-001 1.126371e+000 -9.217810e+000 206 163 154
1.345831e+000 1.361128e+000 -9.963532e+000 126 91 66
-2.536189e+000 1.141077e+000 -8.333075e+000 112 81 50
3.991832e-001 8.559314e-001 -9.292027e+000 224 185 170
2.503205e-001 -3.741870e-001 -8.799072e+000 218 196 181
1.459841e-002 -7.016488e-001 -9.249309e+000 151 88 83
1.695679e+000 -1.217036e+000 -9.817515e+000 219 211 190
3.525462e+000 -1.303586e+000 -1.092431e+001 95 73 49
1.262182e+000 -1.335395e+000 -9.704941e+000 233 223 200
2.604559e+000 -1.555990e+000 -1.073591e+001 83 65 45
1.371943e+000 -1.749732e+000 -9.972223e+000 128 121 101
1.690001e+000 2.057833e+000 -1.033089e+001 95 67 44
1.246844e+000 2.176423e+000 -1.059260e+001 168 153 125
-2.635994e+000 1.667198e+000 -8.384642e+000 132 96 66
1.219657e+000 1.434030e+000 -9.778878e+000 192 165 139
1.821458e+000 8.825915e-001 -9.127985e+000 109 106 78
2.069524e+000 7.660141e-001 -8.897252e+000 173 159 132
4.870684e+000 1.254476e+000 -1.157375e+001 201 94 77
2.496934e+000 2.546357e-001 -8.678885e+000 47 37 26
3.625739e+000 4.187179e-001 -9.688390e+000 102 75 52
1.986687e+000 -4.488242e-002 -8.770608e+000 147 122 95
2.108979e+000 3.065724e-002 -8.401264e+000 109 100 85
-1.032074e+000 -2.344001e-001 -1.048543e+001 178 141 123
4.774801e+000 -1.303616e+000 -1.103294e+001 228 218 213
4.636513e+000 -1.740228e+000 -1.121700e+001 226 215 212
1.040206e+000 -1.788017e+000 -1.006514e+001 210 191 164
4.156785e+000 -2.796202e+000 -1.174537e+001 214 203 198
4.678661e+000 2.407389e+000 -1.221816e+001 129 104 100
1.389653e+000 1.922597e+000 -1.024299e+001 128 125 98
9.297067e-001 -1.010959e-001 -9.421625e+000 186 152 125
3.278585e+000 -9.194583e-001 -1.034075e+001 80 60 36
3.636136e+000 -3.507579e+000 -1.260076e+001 220 190 154
4.962626e-001 -2.826841e+000 -1.096565e+001 159 134 109
4.816052e+000 2.926970e+000 -1.180996e+001 238 215 218
4.645757e+000 3.012143e+000 -1.227696e+001 242 217 213
4.663330e+000 2.642159e+000 -1.223035e+001 226 224 229
4.816074e+000 2.697044e+000 -1.187779e+001 237 221 220
4.750630e+000 2.711327e+000 -1.208854e+001 230 208 218
4.750630e+000 2.711327e+000 -1.208854e+001 230 208 218
4.577792e+000 2.403509e+000 -1.231607e+001 179 88 92
1.053438e+000 2.187442e+000 -1.052256e+001 195 177 153
4.949164e+000 1.503153e+000 -1.139837e+001 234 221 219
-2.278643e+000 1.404948e+000 -8.345575e+000 110 81 49
1.275717e+000 1.417545e+000 -9.816656e+000 173 134 119
1.623503e+000 7.203363e-001 -9.104691e+000 195 181 132
2.296928e+000 4.177990e-001 -8.966718e+000 110 95 74
1.443089e+000 4.001345e-001 -9.813311e+000 155 113 90
2.537231e-001 -2.941451e-001 -8.911036e+000 191 148 134
2.537231e-001 -2.941451e-001 -8.911036e+000 191 148 134
2.262605e-001 -3.471952e-001 -8.899303e+000 191 150 142
3.971730e+000 -1.146696e+000 -1.092508e+001 136 112 85
4.502387e+000 -2.632243e+000 -1.167984e+001 206 120 41
5.921124e-001 -2.688122e+000 -1.096121e+001 142 112 86
2.752609e+000 -3.196460e+000 -1.261666e+001 105 79 56
5.920944e-001 -3.149225e+000 -1.146245e+001 60 50 40
4.720126e+000 2.930606e+000 -1.205875e+001 239 224 229
4.877322e+000 2.379736e+000 -1.162844e+001 168 86 79
4.549907e+000 2.357659e+000 -1.244940e+001 237 229 234
4.559374e+000 2.286836e+000 -1.252017e+001 146 106 94
4.884089e+000 1.183398e+000 -1.146318e+001 202 98 86
-1.965790e+000 1.214362e+000 -8.378320e+000 136 112 85
3.547039e+000 -4.542304e-001 -9.915971e+000 84 62 39
1.312411e+000 -3.115746e-001 -9.379412e+000 178 151 124
3.283212e+000 -1.338752e+000 -1.086147e+001 114 94 70
2.743786e+000 -1.661382e+000 -1.091850e+001 75 56 39
5.019187e+000 2.561936e+000 -1.140196e+001 174 94 93
4.625173e+000 2.567853e+000 -1.230163e+001 169 88 85
4.625173e+000 2.567853e+000 -1.230163e+001 169 88 85
-1.719680e+000 1.268139e+000 -8.707422e+000 130 109 86
3.489999e+000 4.694899e-001 -9.634471e+000 123 100 79
3.953303e+000 3.449467e-001 -9.873721e+000 138 114 88
1.496302e+000 -3.555991e-001 -9.342472e+000 155 128 99
2.519331e+000 -2.635074e+000 -1.185974e+001 119 101 81
-1.063225e+001 -3.081486e+000 -4.656584e+001 214 212 199
4.271603e-001 -2.855980e+000 -1.106254e+001 246 234 218
4.901186e+000 2.326122e+000 -1.142533e+001 235 229 232
1.766547e+000 2.043454e+000 -1.030149e+001 77 58 44
2.391601e+000 2.137884e-001 -8.666985e+000 61 51 41
1.162196e+000 4.438896e-001 -9.542195e+000 185 158 128
4.207537e+000 -5.622199e-001 -1.035095e+001 130 106 80
-1.164373e+000 -5.708000e-001 -1.057703e+001 211 177 152
3.720158e+000 -1.454183e+000 -1.113215e+001 125 101 75
3.561144e+000 -1.962483e+000 -1.158203e+001 138 118 91
3.731259e+000 -2.024535e+000 -1.173314e+001 103 76 48
-1.943983e+000 1.670486e+000 -8.431641e+000 74 52 38
1.444109e+000 1.285643e+000 -9.850291e+000 226 200 173
2.504409e+000 -5.415010e-001 -9.540012e+000 79 62 42
2.332689e+000 -8.817285e-001 -9.871429e+000 82 65 45
2.431693e+000 -7.137064e-001 -9.744969e+000 68 55 39
5.034477e+000 -7.263861e-001 -1.080728e+001 237 185 69
1.164807e+000 -6.634274e-001 -9.591388e+000 202 184 164
1.681415e+000 8.679827e-001 -8.792885e+000 105 105 78
6.880794e-001 9.121905e-001 -9.112858e+000 133 73 60
1.607445e+000 5.092090e-001 -9.080728e+000 190 161 83
1.762445e+000 -1.365006e+000 -1.009222e+001 29 24 21
1.620580e+000 1.434243e+000 -9.877243e+000 191 162 133
2.412669e+000 1.021519e+000 -9.091266e+000 61 49 33
1.742869e+000 2.602953e-001 -9.013699e+000 95 95 64
4.948252e+000 -9.961225e-001 -1.077687e+001 213 150 64
-1.074367e+000 -1.622652e-001 -1.045893e+001 203 163 145
1.208248e+000 -6.738607e-001 -9.542088e+000 209 192 166
-1.113267e+000 -5.630889e-001 -1.051340e+001 214 177 158
1.635216e+000 -1.126733e+000 -9.796124e+000 60 52 39
2.653826e+000 -1.686608e+000 -1.087764e+001 76 58 38
4.717037e+000 -1.955729e+000 -1.133624e+001 211 140 65
4.368131e+000 -2.228250e+000 -1.156034e+001 230 199 148
4.298431e+000 -2.514414e+000 -1.160091e+001 197 181 170
4.754123e+000 2.763690e+000 -1.211397e+001 180 92 85
1.592046e+000 1.474655e+000 -9.837582e+000 194 168 141
1.825347e+000 1.286284e+000 -9.555090e+000 182 157 129
9.350227e-001 1.180924e+000 -9.538575e+000 208 172 151
9.796101e-001 1.171863e+000 -9.580800e+000 145 103 87
2.758391e+000 7.177740e-001 -9.099828e+000 75 69 53
4.786968e+000 1.389775e+000 -1.173475e+001 242 187 184
4.954709e+000 9.473682e-001 -1.124383e+001 225 177 126
8.293223e-001 5.722659e-001 -9.142620e+000 174 138 115
2.954900e+000 3.110416e-001 -8.995486e+000 60 46 33
2.654087e-001 -2.001115e-001 -9.006006e+000 232 196 180
4.313391e+000 -5.542228e-001 -1.036380e+001 89 64 38
2.489147e-001 -4.610964e-001 -8.838929e+000 189 162 142
1.522262e+000 -5.787105e-001 -9.353734e+000 180 153 123
-9.754866e-002 -7.398532e-001 -9.249421e+000 201 151 142
-3.417946e-002 -6.358630e-001 -9.415473e+000 177 103 102
-3.415171e-002 -7.435599e-001 -9.283267e+000 172 115 108
4.463083e-001 -1.523492e+000 -1.015252e+001 150 121 87
-2.692996e-001 -1.708325e+000 -1.131110e+001 174 138 119
4.243768e+000 -2.545795e+000 -1.174666e+001 134 116 107
1.892724e-001 -2.759598e+000 -1.145308e+001 186 170 147
3.743785e+000 -3.426652e+000 -1.240855e+001 145 131 126
4.984267e+000 2.945482e+000 -1.158051e+001 212 105 97
5.161941e+000 2.608106e+000 -1.102676e+001 105 97 94
1.609231e+000 2.304334e+000 -1.058862e+001 155 135 111
1.827223e+000 1.964735e+000 -1.025544e+001 99 79 65
1.198167e+000 2.038678e+000 -1.061581e+001 94 86 65
1.338574e+000 1.597880e+000 -9.976186e+000 141 111 83
1.782611e+000 1.422433e+000 -9.703040e+000 184 162 138
3.845512e+000 1.676448e+000 -1.148597e+001 142 115 90
7.335950e-001 1.350908e+000 -9.552991e+000 180 132 122
9.724610e-001 1.199856e+000 -9.535068e+000 216 180 157
2.751899e+000 1.068419e+000 -9.417340e+000 48 42 25
4.877899e+000 1.123633e+000 -1.160550e+001 183 68 63
4.700873e+000 2.633790e-001 -1.044040e+001 136 105 77
1.869874e+000 -2.072212e-001 -8.865452e+000 176 161 137
4.360770e+000 -2.314339e-001 -1.015318e+001 105 77 55
-1.223911e+000 -2.319348e-001 -1.044327e+001 165 113 95
3.988533e+000 -9.622872e-001 -1.076699e+001 108 83 56
2.165771e+000 -1.182530e+000 -1.004527e+001 60 46 33
3.543367e+000 -1.341213e+000 -1.095909e+001 120 100 75
2.112014e+000 -1.197343e+000 -1.009738e+001 54 46 25
3.907898e+000 -1.665458e+000 -1.144137e+001 120 94 67
1.510207e+000 -1.481200e+000 -9.909356e+000 113 103 93
6.538272e-002 -1.560302e+000 -1.053959e+001 86 65 46
4.343222e+000 -2.301342e+000 -1.161856e+001 231 210 185
4.458192e+000 -2.227085e+000 -1.135152e+001 215 200 198
4.193994e+000 -2.619003e+000 -1.182698e+001 217 200 192
4.065969e+000 -2.822670e+000 -1.197017e+001 216 199 183
4.156785e+000 -2.796202e+000 -1.174537e+001 214 203 198
3.716605e+000 -3.412552e+000 -1.252420e+001 219 195 164
4.599336e+000 3.107324e+000 -1.236314e+001 238 214 207
4.221713e+000 2.980992e+000 -1.318854e+001 221 133 94
4.536786e+000 2.711957e+000 -1.243947e+001 179 89 85
-2.614119e+000 1.491307e+000 -8.345186e+000 154 124 89
1.206053e+000 1.387179e+000 -9.792080e+000 146 88 73
1.733681e+000 1.357732e+000 -9.715528e+000 190 166 136
4.839316e+000 1.247279e+000 -1.164421e+001 195 87 77
2.764609e+000 6.726279e-001 -9.121460e+000 44 35 23
4.499868e-001 6.903399e-001 -9.331517e+000 176 132 115
2.467603e+000 3.013731e-001 -8.777237e+000 58 49 39
1.339337e+000 5.439284e-001 -9.717652e+000 165 124 102
1.873233e+000 2.105179e-001 -8.840831e+000 169 152 126
2.383256e+000 6.483403e-002 -8.762309e+000 62 50 34
3.632072e+000 -3.961810e-001 -9.909801e+000 79 59 34
4.766591e+000 -8.954643e-001 -1.102785e+001 145 90 43
1.115507e+000 -8.240800e-001 -9.576470e+000 98 93 70
2.736088e+000 -1.456359e+000 -1.069366e+001 81 63 43
1.297277e+000 -1.506138e+000 -9.878312e+000 125 102 74
1.800038e+000 -1.568168e+000 -1.001300e+001 72 62 52
3.630767e+000 -1.719612e+000 -1.130679e+001 86 65 40
2.703199e+000 -1.977360e+000 -1.114976e+001 113 92 71
2.831650e+000 -2.107752e+000 -1.129240e+001 88 66 43
4.225297e+000 -2.701405e+000 -1.166093e+001 224 208 199
4.823760e+000 3.256551e+000 -1.197967e+001 243 232 230
5.203980e+000 2.771267e+000 -1.091511e+001 99 98 98
5.203980e+000 2.771267e+000 -1.091511e+001 99 98 98
5.169529e+000 2.651783e+000 -1.099034e+001 242 241 246
4.259740e+000 3.475569e+000 -1.310549e+001 238 158 104
4.421003e+000 3.357073e+000 -1.260658e+001 188 133 93
4.866592e+000 2.992056e+000 -1.181332e+001 212 109 93
4.402077e+000 2.775011e+000 -1.275314e+001 172 141 112
4.536960e+000 2.675638e+000 -1.255803e+001 233 223 229
4.536960e+000 2.675638e+000 -1.255803e+001 233 223 229
3.868602e+000 3.262260e+000 -1.392655e+001 208 132 86
4.475750e+000 2.512086e+000 -1.257344e+001 232 226 233
4.475750e+000 2.512086e+000 -1.257344e+001 232 226 233
-2.806691e+000 1.849200e+000 -8.584212e+000 170 138 116
4.403872e+000 2.204152e+000 -1.245626e+001 159 87 74
6.603036e-001 1.376899e+000 -9.600384e+000 188 131 122
4.731205e+000 1.553497e+000 -1.174468e+001 205 147 73
2.798800e+000 4.094494e-001 -8.991840e+000 246 241 216
1.948557e+000 -6.674525e-001 -9.452573e+000 54 44 35
9.115965e-001 -7.347294e-001 -9.613916e+000 123 94 80
-4.073642e-001 -6.144220e-001 -9.918302e+000 169 117 113
8.970257e-001 -1.126655e+000 -9.790368e+000 195 186 158
3.170377e+000 -1.362534e+000 -1.074729e+001 108 90 68
3.355519e+000 -2.349787e+000 -1.183984e+001 139 115 90
4.003297e+000 -2.978675e+000 -1.205137e+001 233 203 171
4.003297e+000 -2.978675e+000 -1.205137e+001 233 203 171
6.899497e-002 -3.087828e+000 -1.164182e+001 177 159 139
5.000492e+000 3.103312e+000 -1.155331e+001 146 123 93
4.438856e+000 2.776703e+000 -1.266705e+001 231 222 226
-2.267447e+000 2.093869e+000 -8.667346e+000 138 111 80
3.799520e+000 3.325857e+000 -1.403348e+001 235 183 107
4.470085e+000 2.438537e+000 -1.265189e+001 177 96 94
4.544009e+000 2.591992e+000 -1.260618e+001 171 90 96
5.048168e+000 1.906535e+000 -1.126808e+001 143 104 65
1.358362e+000 1.504755e+000 -9.948433e+000 147 102 58
4.755722e+000 1.372235e-001 -1.039743e+001 140 110 82
2.983181e+000 -8.838147e-001 -1.018349e+001 96 78 56
3.482534e+000 -1.054219e+000 -1.058949e+001 121 101 77
4.877161e+000 -1.016037e+000 -1.089178e+001 170 149 140
4.877161e+000 -1.016037e+000 -1.089178e+001 170 149 140
1.172853e+000 -9.343384e-001 -9.603631e+000 139 143 110
4.709639e+000 -1.489515e+000 -1.106229e+001 159 141 135
2.687483e+000 -1.294210e+000 -1.048376e+001 106 87 71
1.129784e+000 -1.383816e+000 -9.865710e+000 147 106 70
3.040680e+000 -1.746420e+000 -1.111093e+001 91 71 47
4.274470e+000 -1.972045e+000 -1.201922e+001 128 72 36
4.608349e+000 -1.880818e+000 -1.116490e+001 228 208 197
2.944702e-001 -1.885345e+000 -1.005106e+001 200 187 157
4.093911e-001 -2.770806e+000 -1.109909e+001 191 171 146
5.159408e+000 2.784638e+000 -1.100828e+001 237 233 238
5.129177e+000 2.664182e+000 -1.107750e+001 239 233 236
5.129177e+000 2.664182e+000 -1.107750e+001 239 233 236
4.543405e+000 3.249122e+000 -1.248401e+001 234 146 111
4.206360e+000 3.306613e+000 -1.336057e+001 209 119 84
4.206360e+000 3.306613e+000 -1.336057e+001 209 119 84
4.556841e+000 2.634592e+000 -1.243536e+001 239 228 230
-2.199487e+000 1.708064e+000 -8.382414e+000 120 91 59
5.083865e+000 1.390546e+000 -1.118836e+001 214 186 168
-1.563423e+000 1.421180e+000 -8.827629e+000 121 94 75
4.119811e+000 1.212916e+000 -1.109110e+001 150 120 96
2.143915e+000 5.167314e-001 -8.801951e+000 105 76 47
4.960335e+000 8.196454e-001 -1.116907e+001 198 69 69
4.960335e+000 8.196454e-001 -1.116907e+001 198 69 69
1.924354e+000 4.289089e-001 -8.753055e+000 84 90 63
4.324297e-001 -2.009564e-001 -8.809337e+000 191 164 143
1.294054e+000 -1.737846e+000 -1.008139e+001 159 158 130
4.264866e+000 -2.423623e+000 -1.169658e+001 230 187 67
1.616086e+000 -2.862974e+000 -1.146982e+001 93 74 53
2.949017e+000 -3.714854e+000 -1.314416e+001 180 156 119
5.186722e+000 2.566752e+000 -1.096380e+001 99 100 95
5.186722e+000 2.566752e+000 -1.096380e+001 99 100 95
4.016152e+000 3.375223e+000 -1.355341e+001 207 117 90
4.016152e+000 3.375223e+000 -1.355341e+001 207 117 90
4.320405e+000 2.990761e+000 -1.316219e+001 238 182 105
4.504922e+000 2.768996e+000 -1.250826e+001 180 88 93
-1.610729e+000 1.494736e+000 -8.749456e+000 163 149 136
1.246112e+000 1.279390e+000 -9.812577e+000 114 68 46
1.246112e+000 1.279390e+000 -9.812577e+000 114 68 46
4.235504e+000 1.450237e+000 -1.147936e+001 114 89 65
5.060636e+000 1.180838e+000 -1.113050e+001 202 97 97
-2.190295e+000 1.107150e+000 -8.328978e+000 108 78 49
4.102755e+000 -5.267002e-001 -1.027697e+001 131 106 84
6.440319e-001 -3.689985e-001 -8.966908e+000 186 163 148
3.120406e+000 -9.051351e-001 -1.024140e+001 102 84 60
3.120406e+000 -9.051351e-001 -1.024140e+001 102 84 60
-1.432603e+001 -4.043941e+000 -4.912580e+001 228 231 227
-1.445117e+001 -4.465480e+000 -4.440086e+001 200 141 119
-1.373479e+001 -4.535738e+000 -4.820891e+001 161 143 129
4.458484e+000 3.241073e+000 -1.272710e+001 237 227 227
4.346015e+000 2.565010e+000 -1.301432e+001 220 126 101
6.960368e-001 1.443584e+000 -9.527280e+000 208 180 159
-1.553722e+000 1.194580e+000 -8.891636e+000 106 78 56
3.376647e+000 -3.377112e-001 -9.729201e+000 112 91 70
2.142588e+000 -1.235202e+000 -1.008418e+001 67 51 39
3.146330e+000 -1.447424e+000 -1.090237e+001 101 81 57
5.026205e+000 2.837818e+000 -1.109504e+001 199 93 92
2.047177e+000 7.879310e-001 -8.919576e+000 223 216 197
4.872818e+000 2.806958e+000 -1.162239e+001 185 87 86
-2.319234e-001 -5.224276e-001 -9.535641e+000 214 175 163
1.760441e+000 -2.373815e+000 -1.105083e+001 165 151 135
