ply
format ascii 1.0
element face 0
property list uchar int vertex_indices
element vertex 877
property float x
property float y
property float z
property uchar diffuse_red
property uchar diffuse_green
property uchar diffuse_blue
end_header
1.595732e+000 -4.085280e+000 -1.270495e+001 110 83 62
3.440010e+000 -4.584254e+000 -1.357904e+001 237 173 77
3.438189e+000 -4.790248e+000 -1.334277e+001 231 205 202
3.205154e+000 -4.750851e+000 -1.352825e+001 231 164 75
-3.399863e+000 2.523310e+000 -8.441143e+000 149 105 96
1.346224e+000 2.471107e+000 -1.021826e+001 179 158 139
1.407949e+000 2.069700e+000 -9.885389e+000 247 230 208
1.587364e+000 1.902809e+000 -9.805389e+000 239 218 194
1.927519e+000 8.914898e-001 -8.799392e+000 179 159 130
1.883468e+000 6.124251e-001 -8.717808e+000 114 113 76
3.105209e-001 1.661897e+000 -9.456121e+000 235 189 173
5.277880e+000 3.648108e-001 -1.037069e+001 120 86 58
-3.884676e+000 2.352405e+000 -8.571980e+000 178 122 107
-3.909528e+000 2.281472e+000 -8.618446e+000 195 137 128
5.869223e-001 7.870254e-001 -9.086410e+000 162 117 96
1.583992e+000 2.195635e-001 -8.938131e+000 145 144 109
1.857578e+000 2.259952e-001 -8.773904e+000 175 148 121
2.366557e+000 -9.632340e-002 -8.779855e+000 56 42 29
4.504977e-001 7.007750e-001 -9.207108e+000 169 125 98
1.908952e+000 -2.960738e-001 -8.765602e+000 129 99 70
2.233901e+000 -1.658567e-001 -8.977980e+000 59 46 30
1.244822e+000 3.657737e-001 -9.540645e+000 171 125 102
5.517684e+000 -7.371488e-001 -1.097071e+001 146 97 57
-3.916998e+000 1.384569e+000 -8.667774e+000 139 104 70
-3.961116e+000 1.323688e+000 -8.713744e+000 134 101 68
-2.861927e+000 1.092244e+000 -8.812027e+000 53 44 37
2.031921e+000 -6.327785e-001 -9.275272e+000 135 123 107
2.511423e+000 -7.239541e-001 -9.782518e+000 56 42 29
-5.057727e-001 -1.884099e-001 -9.298870e+000 220 174 158
-2.795382e-001 -4.008079e-001 -9.108913e+000 206 165 145
-1.533694e-001 -5.398019e-001 -8.902481e+000 196 159 140
2.382218e+000 -9.106310e-001 -9.788231e+000 63 51 37
3.185781e+000 -9.496187e-001 -1.014367e+001 66 43 25
4.017914e+000 -9.834347e-001 -1.063763e+001 100 74 51
4.525496e+000 -1.179786e+000 -1.091289e+001 114 80 52
5.171697e+000 -1.099735e+000 -1.118299e+001 163 125 98
5.425729e+000 -1.534435e+000 -1.088248e+001 212 127 46
-1.502103e+000 2.107117e-001 -9.684913e+000 117 84 65
1.050695e+000 -1.006085e+000 -9.590554e+000 162 146 112
1.315777e+000 -9.089005e-001 -9.399138e+000 167 134 94
1.345574e+000 -1.017220e+000 -9.416914e+000 194 170 146
2.156129e+000 -1.177144e+000 -1.000020e+001 55 43 29
5.297380e+000 -1.781024e+000 -1.101807e+001 203 123 55
9.035343e-001 -1.055149e+000 -9.707809e+000 103 99 74
1.696871e+000 -1.344254e+000 -9.961446e+000 66 50 37
2.172825e+000 -1.334042e+000 -1.008421e+001 63 50 33
3.927970e+000 -1.385548e+000 -1.097295e+001 97 69 45
3.577225e+000 -1.499144e+000 -1.088976e+001 81 55 32
3.577225e+000 -1.499144e+000 -1.088976e+001 81 55 32
6.904058e-001 -1.175373e+000 -9.842338e+000 92 82 55
1.409074e+000 -1.581470e+000 -9.950881e+000 83 65 50
1.895954e+000 -1.538613e+000 -1.029080e+001 45 34 29
-1.033604e+000 -1.003264e+000 -9.771809e+000 169 111 99
-1.454312e-001 -1.237349e+000 -9.638590e+000 177 137 125
7.361144e-001 -1.451055e+000 -1.006328e+001 171 139 108
-1.821668e+000 -7.676691e-001 -1.062375e+001 218 181 157
-1.859662e+000 -8.019451e-001 -1.063586e+001 166 123 102
-8.650858e-001 -1.459869e+000 -1.007880e+001 184 136 126
-7.068045e-001 -1.472388e+000 -1.022149e+001 183 143 123
-7.410092e-001 -1.518641e+000 -1.037713e+001 149 92 85
1.118659e+000 -2.169344e+000 -1.007310e+001 64 50 38
1.160352e+000 -2.375145e+000 -1.030335e+001 156 144 119
1.795734e+000 -2.386826e+000 -1.062402e+001 69 54 38
2.352147e+000 -2.422502e+000 -1.119782e+001 78 56 35
-1.224711e+000 -1.471208e+000 -1.030688e+001 228 199 179
-7.793655e-001 -1.538359e+000 -1.055228e+001 177 144 125
1.126187e+000 -2.245343e+000 -1.072990e+001 69 51 37
4.577524e+000 -3.269560e+000 -1.196928e+001 233 216 200
4.618635e+000 -3.262846e+000 -1.203681e+001 233 216 200
-3.456642e-001 -2.070801e+000 -1.068155e+001 112 81 53
1.377263e+000 -2.742221e+000 -1.117283e+001 64 53 33
2.897374e+000 -2.970592e+000 -1.205138e+001 96 68 44
2.897374e+000 -2.970592e+000 -1.205138e+001 96 68 44
-5.824067e-001 -2.326559e+000 -1.153093e+001 139 113 80
6.410060e-002 -2.925415e+000 -1.102720e+001 177 153 122
3.065280e+000 -3.513605e+000 -1.279068e+001 108 77 49
-6.617738e-001 -2.663376e+000 -1.157226e+001 80 79 48
5.776354e-001 -3.176308e+000 -1.120941e+001 59 44 31
2.300858e+000 -3.659416e+000 -1.251160e+001 100 74 51
3.756291e-001 -3.596923e+000 -1.157157e+001 58 42 27
9.126879e-001 -3.532562e+000 -1.185739e+001 64 50 33
1.514380e+000 -4.027778e+000 -1.244929e+001 89 62 42
2.370646e+000 -4.201803e+000 -1.311421e+001 94 64 40
1.095531e+000 1.923552e+000 -9.816334e+000 194 170 144
1.897703e+000 8.698851e-001 -8.937633e+000 188 166 135
2.688895e+000 7.418678e-001 -8.840779e+000 92 76 60
-3.557785e+000 2.502962e+000 -8.399220e+000 190 140 133
-2.549097e+000 1.912345e+000 -8.382922e+000 119 96 76
-2.202909e+000 1.847073e+000 -8.665244e+000 154 136 118
5.302176e+000 8.004845e-001 -1.066867e+001 232 205 191
-3.310108e+000 1.748694e+000 -8.245455e+000 124 91 60
-3.298904e+000 1.710239e+000 -8.197149e+000 124 91 60
1.631312e+000 1.625519e-001 -8.742913e+000 139 141 102
1.768618e+000 -2.074065e-002 -8.765473e+000 151 125 88
2.142897e+000 2.475674e-002 -8.872868e+000 117 91 67
2.787147e+000 -3.511796e-002 -9.198547e+000 49 36 34
4.034875e+000 -1.661753e-002 -9.631719e+000 94 72 48
1.556303e+000 3.663337e-001 -9.400970e+000 172 140 115
1.819551e+000 -1.449598e-001 -8.721425e+000 252 245 226
1.998607e+000 -1.456747e-001 -8.842071e+000 93 65 47
2.787418e+000 -3.068870e-001 -9.345203e+000 57 45 29
5.757254e+000 -3.391766e-001 -1.077172e+001 171 120 65
-1.849038e+000 1.411566e+000 -9.470789e+000 132 114 100
1.511633e+000 -4.817016e-001 -9.216759e+000 170 139 110
2.021313e+000 -6.596823e-001 -9.345590e+000 64 52 35
2.470911e+000 -4.561452e-001 -9.651398e+000 41 29 22
2.377195e+000 -6.174610e-001 -9.756613e+000 41 34 27
4.764643e+000 -9.483719e-001 -1.076888e+001 131 98 69
-1.006335e-001 -3.126347e-001 -8.892997e+000 202 162 144
1.205471e+000 -6.660412e-001 -9.230675e+000 223 198 169
-2.503861e+000 7.544472e-001 -9.844328e+000 224 224 219
1.658789e+000 -9.566773e-001 -9.692694e+000 58 43 32
4.064066e-001 -1.038472e+000 -9.561237e+000 153 99 95
3.443925e-001 -1.224711e+000 -9.864778e+000 135 87 71
5.996624e-001 -1.204543e+000 -1.009051e+001 128 84 60
3.519746e+000 -1.701322e+000 -1.105464e+001 111 86 66
-4.428566e-001 -1.182547e+000 -1.003787e+001 115 48 39
9.017966e-001 -1.757989e+000 -9.952371e+000 186 157 125
1.425914e+000 -1.930379e+000 -9.955375e+000 60 43 33
3.752386e+000 -2.054885e+000 -1.143710e+001 88 58 34
-3.723967e-001 -1.357647e+000 -1.006125e+001 129 67 56
2.937953e+000 -2.515954e+000 -1.160455e+001 81 55 32
-2.325030e-002 -2.123884e+000 -1.014794e+001 234 216 188
8.459127e-001 -2.436151e+000 -1.057256e+001 53 38 30
1.124706e+000 -2.495924e+000 -1.071854e+001 111 64 39
1.239350e+000 -2.434929e+000 -1.057208e+001 60 46 35
-1.423933e+000 -1.501965e+000 -1.105513e+001 202 161 145
-1.120001e+000 -1.905511e+000 -1.155618e+001 173 109 100
-1.084647e+000 -1.939753e+000 -1.165075e+001 199 147 136
-1.009918e+000 -2.090190e+000 -1.157858e+001 183 128 121
-6.830222e-001 -2.072246e+000 -1.155723e+001 180 135 114
-5.032733e-001 -2.345847e+000 -1.112590e+001 171 137 94
-4.123843e-001 -2.485286e+000 -1.075335e+001 141 112 72
-9.915729e-001 -2.069229e+000 -1.194378e+001 165 106 100
-5.146515e-001 -2.645622e+000 -1.086926e+001 237 211 177
-5.146515e-001 -2.645622e+000 -1.086926e+001 237 211 177
-3.874382e-001 -2.808762e+000 -1.082122e+001 223 200 150
-3.908705e-001 -2.810943e+000 -1.080991e+001 223 200 150
1.006764e-001 -2.936963e+000 -1.081274e+001 148 113 85
6.830403e-001 -3.067921e+000 -1.129148e+001 56 44 28
1.133883e+000 -3.122373e+000 -1.147897e+001 59 46 30
-4.764604e-001 -2.895024e+000 -1.085319e+001 179 147 102
-1.396492e-001 -3.041425e+000 -1.154675e+001 163 147 115
-8.057610e-001 -2.731874e+000 -1.238462e+001 204 178 141
-6.291956e-001 -2.983545e+000 -1.233479e+001 159 141 117
-3.466919e-001 -3.091217e+000 -1.186001e+001 128 128 93
-4.608623e-001 -3.088979e+000 -1.203800e+001 105 104 73
1.871930e+000 -3.904467e+000 -1.253043e+001 98 71 50
-9.814840e-001 -2.895259e+000 -1.324173e+001 189 166 142
2.772925e-001 -3.828296e+000 -1.170959e+001 65 52 35
2.135968e+000 -4.127469e+000 -1.292598e+001 120 93 67
3.478092e+000 -4.573078e+000 -1.352095e+001 202 99 47
3.402919e+000 -4.727352e+000 -1.330024e+001 151 133 119
4.022973e+000 -5.002944e+000 -1.229071e+001 173 147 123
6.638823e-002 -3.905965e+000 -1.159763e+001 143 110 78
3.347222e+000 -4.788888e+000 -1.340269e+001 156 135 124
5.618474e+000 2.289574e+000 -1.125523e+001 157 115 73
5.469357e+000 2.159298e+000 -1.104844e+001 157 115 73
1.425960e+000 1.748761e+000 -9.743420e+000 200 175 145
-2.550450e+000 1.971981e+000 -8.557706e+000 111 90 69
1.589310e+000 8.170942e-001 -8.913334e+000 183 148 63
1.655840e+000 6.871037e-001 -8.893980e+000 154 113 60
2.891944e+000 1.983891e-001 -9.008521e+000 53 41 32
-3.184749e+000 1.731515e+000 -8.257335e+000 128 92 58
-2.220623e+000 1.781756e+000 -8.754815e+000 174 153 132
1.452426e+000 1.314468e+000 -9.800686e+000 187 157 133
1.437035e+000 5.835413e-001 -9.289472e+000 204 175 145
3.023883e+000 -9.294665e-002 -9.077286e+000 75 56 42
1.818048e+000 -2.253438e-001 -8.801992e+000 254 253 242
4.776750e+000 -3.239357e-001 -1.012173e+001 106 74 51
5.267330e+000 -2.937363e-001 -1.041181e+001 119 83 54
4.646029e+000 -4.721636e-001 -1.028936e+001 102 72 48
-4.096705e-001 8.494052e-002 -9.579610e+000 214 165 150
-4.631891e-001 7.115001e-002 -9.713866e+000 150 102 90
-2.114934e+000 4.540270e-001 -1.022232e+001 116 91 71
-2.114934e+000 4.540270e-001 -1.022232e+001 116 91 71
-1.620245e+000 1.511981e-001 -9.917098e+000 84 57 38
-1.624303e-001 -8.353629e-001 -9.550253e+000 217 181 159
8.603394e-002 -9.842528e-001 -9.368645e+000 120 61 55
2.064303e+000 -1.199508e+000 -1.018516e+001 35 28 22
5.101710e-002 -1.287554e+000 -9.787142e+000 221 183 172
-1.545152e+000 -1.116161e+000 -9.941987e+000 168 102 92
1.986506e+000 -2.170327e+000 -1.043416e+001 75 54 37
1.983007e+000 -2.254328e+000 -1.059011e+001 68 51 35
-1.007407e+000 -1.497793e+000 -1.027025e+001 141 77 68
-6.474606e-001 -1.465483e+000 -1.040146e+001 147 84 74
1.032781e+000 -2.219732e+000 -1.001888e+001 148 137 116
1.421075e+000 -2.247526e+000 -1.036078e+001 45 35 23
1.829002e+000 -2.313228e+000 -1.061134e+001 65 51 40
1.783236e+000 -2.339340e+000 -1.049619e+001 65 51 40
4.386649e+000 -3.465751e+000 -1.227093e+001 230 195 136
4.386649e+000 -3.465751e+000 -1.227093e+001 230 195 136
1.471985e+000 -3.067676e+000 -1.148904e+001 127 109 87
4.105432e+000 -3.732273e+000 -1.265229e+001 229 173 58
-4.352508e-001 -2.600873e+000 -1.087402e+001 178 141 92
-9.667763e-001 -2.387326e+000 -1.304045e+001 180 149 120
-8.915188e-001 -2.312961e+000 -1.229661e+001 222 202 168
-2.155512e-001 -2.983454e+000 -1.133137e+001 119 105 74
-9.919626e-002 -3.706838e+000 -1.137815e+001 208 182 151
-4.602170e-001 -3.727996e+000 -1.140997e+001 189 163 136
3.010284e+000 -4.668449e+000 -1.350624e+001 209 140 62
1.966344e+000 1.074366e+000 -9.042670e+000 166 138 110
2.172544e+000 8.204270e-001 -8.684391e+000 159 143 112
-2.340189e+000 2.037792e+000 -8.739513e+000 84 67 57
1.297968e+000 1.976332e+000 -9.989393e+000 229 205 174
1.271089e+000 1.929891e+000 -9.922893e+000 229 205 174
1.172979e+000 1.635332e+000 -9.779863e+000 157 114 83
-2.372771e+000 1.848551e+000 -8.688327e+000 175 156 141
-3.405494e+000 1.433529e+000 -8.214203e+000 157 123 86
1.501376e+000 -2.785346e-002 -8.945872e+000 140 141 109
-4.034860e+000 1.642795e+000 -8.739968e+000 79 53 38
2.985957e-003 -2.844330e-001 -8.769726e+000 221 184 165
1.545248e+000 -4.329946e-001 -9.186857e+000 173 143 117
-3.811526e+000 1.363177e+000 -9.656006e+000 152 124 108
1.769920e+000 -1.118884e+000 -9.859558e+000 62 47 42
-1.290448e+000 2.227358e-002 -1.015397e+001 173 116 110
3.324051e+000 -1.441839e+000 -1.066610e+001 94 72 49
-1.421798e+000 5.372661e-002 -1.045537e+001 173 112 107
4.815440e+000 -2.003083e+000 -1.196825e+001 119 57 34
3.539261e+000 -2.375797e+000 -1.164438e+001 99 72 45
3.539261e+000 -2.375797e+000 -1.164438e+001 99 72 45
4.664302e+000 -2.266574e+000 -1.215019e+001 124 66 33
-4.411190e-001 -1.521706e+000 -1.081201e+001 159 124 84
-1.439321e+000 -1.561686e+000 -1.115306e+001 171 125 109
-3.956866e-001 -2.576095e+000 -1.071544e+001 205 178 141
8.135369e-001 -2.811724e+000 -1.111739e+001 64 51 42
4.157364e+000 -3.445091e+000 -1.264656e+001 237 172 68
-4.982629e-001 -2.670025e+000 -1.151690e+001 210 192 168
4.090245e-001 -3.126598e+000 -1.110161e+001 70 46 24
-9.748593e-001 -2.507688e+000 -1.289735e+001 158 128 102
-8.506548e-001 -3.047283e+000 -1.258012e+001 115 116 85
-8.506548e-001 -3.047283e+000 -1.258012e+001 115 116 85
3.388327e-002 -3.585808e+000 -1.124984e+001 254 245 224
2.494991e+000 -4.411445e+000 -1.325661e+001 138 104 78
2.805486e+000 -4.439467e+000 -1.333273e+001 129 94 64
3.084736e+000 -4.487359e+000 -1.376457e+001 186 153 120
3.084736e+000 -4.487359e+000 -1.376457e+001 186 153 120
3.185832e+000 -4.576097e+000 -1.381333e+001 150 77 50
1.665158e+000 1.386922e+000 -9.385416e+000 133 121 99
1.642998e+000 1.339025e+000 -9.317450e+000 133 121 99
1.709583e+000 1.031322e+000 -8.882996e+000 118 113 79
1.437454e+000 1.604256e+000 -9.713596e+000 176 137 104
-3.756337e+000 1.795335e+000 -8.221895e+000 175 142 101
1.404091e+000 8.641030e-001 -9.665168e+000 198 167 140
4.565446e+000 4.697120e-002 -9.892726e+000 130 102 78
4.565446e+000 4.697120e-002 -9.892726e+000 130 102 78
-3.703091e+000 1.237550e+000 -8.438801e+000 138 103 71
7.485061e-002 6.096917e-002 -9.210669e+000 183 137 110
-3.099647e+000 6.127039e-001 -9.019995e+000 184 150 123
-2.427999e+000 8.655510e-001 -1.017754e+001 102 81 67
-1.580812e+000 2.512235e-001 -9.714622e+000 104 73 52
2.130069e+000 -1.008248e+000 -9.958656e+000 40 31 24
-5.602235e-001 -9.785199e-001 -9.217933e+000 211 171 159
-2.656025e-001 -9.775104e-001 -9.457206e+000 140 84 69
-1.379768e+000 -1.933228e-001 -1.065642e+001 181 136 120
-2.862737e-001 -1.539862e+000 -1.089510e+001 109 67 42
1.545684e+000 -2.320131e+000 -1.038407e+001 48 36 27
1.282867e+000 -2.529177e+000 -1.101587e+001 41 32 25
-1.271307e+000 -1.709911e+000 -1.148818e+001 200 153 140
-4.986112e-001 -2.431824e+000 -1.110805e+001 117 87 63
1.119597e+000 -2.904368e+000 -1.102410e+001 183 169 141
1.038250e+000 -3.045050e+000 -1.121203e+001 150 137 106
7.959647e-001 -3.369116e+000 -1.189029e+001 47 33 30
2.658910e+000 -3.737648e+000 -1.271409e+001 101 75 52
-3.088440e-001 -3.069428e+000 -1.153405e+001 166 157 120
3.431611e-002 -3.234395e+000 -1.147233e+001 213 192 163
8.140796e-001 -3.735500e+000 -1.162887e+001 71 53 38
2.986940e+000 -4.208959e+000 -1.332633e+001 115 80 51
3.681121e+000 -4.545943e+000 -1.314767e+001 241 187 81
1.322122e-001 -3.753045e+000 -1.142006e+001 82 63 45
2.481975e+000 -4.284169e+000 -1.314467e+001 100 69 45
3.333064e+000 -4.659621e+000 -1.344478e+001 239 188 89
3.491205e+000 -4.765544e+000 -1.327443e+001 229 181 147
2.364887e+000 4.065871e-001 -8.775738e+000 63 49 38
5.310903e+000 9.433718e-002 -1.030272e+001 125 91 63
2.689152e+000 -1.111425e-001 -9.369803e+000 41 32 24
2.838473e+000 -2.925953e-001 -9.066176e+000 65 52 36
2.376256e-001 3.309630e-001 -9.115276e+000 184 149 122
1.941635e+000 -3.486278e-001 -8.999669e+000 59 41 29
2.865134e+000 -3.185028e-001 -9.516172e+000 56 44 33
2.646669e+000 -6.009362e-001 -9.529103e+000 62 48 35
2.585619e+000 -7.581917e-001 -9.731804e+000 61 51 35
-3.167013e+000 8.035460e-001 -9.002712e+000 211 185 162
-2.655083e+000 5.561859e-001 -9.277498e+000 177 152 130
-1.885040e+000 2.412096e-001 -1.026781e+001 180 141 128
-1.055982e-001 -5.921776e-001 -9.660942e+000 144 96 86
5.223299e+000 -1.905279e+000 -1.105231e+001 241 188 93
6.826436e-001 -1.049534e+000 -9.945352e+000 104 66 45
6.873666e-001 -1.047223e+000 -9.953762e+000 104 66 45
6.470147e-001 -1.318658e+000 -9.880066e+000 195 175 149
3.087458e+000 -1.703297e+000 -1.086894e+001 110 85 63
4.364090e+000 -1.751245e+000 -1.147503e+001 110 76 48
-9.432329e-001 -8.066470e-001 -9.914446e+000 176 129 119
5.189227e-001 -1.299762e+000 -1.001316e+001 138 98 73
-4.782131e-001 -1.555869e+000 -1.045561e+001 155 113 91
-6.593460e-001 -1.537162e+000 -1.109270e+001 127 82 61
-1.563195e+000 -1.407565e+000 -1.112280e+001 164 120 90
-1.620256e+000 -1.600335e+000 -1.101418e+001 195 164 144
4.990443e-001 -2.488827e+000 -1.059305e+001 139 95 66
-1.319269e+000 -1.863674e+000 -1.302237e+001 211 187 161
-2.362604e-001 -2.680607e+000 -1.075955e+001 164 119 62
6.122840e-002 -2.838060e+000 -1.080866e+001 210 185 155
4.795415e-002 -3.601424e+000 -1.124919e+001 221 203 180
2.569075e+000 -4.272329e+000 -1.287063e+001 143 107 83
3.636102e+000 -4.682381e+000 -1.317972e+001 186 83 51
5.122415e-001 -3.912715e+000 -1.207498e+001 50 39 33
5.657897e+000 1.348706e+000 -1.008869e+001 238 187 54
1.795620e+000 2.161558e+000 -9.918855e+000 82 60 40
3.062922e+000 -1.791513e-002 -8.977683e+000 62 44 29
2.331471e+000 -4.492352e-001 -8.998587e+000 34 25 16
2.177017e+000 -8.483548e-001 -9.692801e+000 46 37 29
2.107349e+000 -9.041728e-001 -9.551479e+000 46 37 29
-2.155845e+000 6.271740e-001 -1.008188e+001 163 137 122
-2.386020e+000 6.175595e-001 -1.007329e+001 102 83 66
-7.617732e-001 -1.747601e-001 -1.010168e+001 142 90 76
3.781226e-001 -8.997583e-001 -9.303850e+000 214 183 166
5.721956e-001 -1.434693e+000 -1.015020e+001 179 153 130
-4.439337e-001 -1.458846e+000 -1.019206e+001 133 70 57
-4.247003e-001 -1.435180e+000 -1.027189e+001 133 70 57
-1.110410e+000 -1.318701e+000 -1.000252e+001 153 87 78
-5.889981e-001 -1.752431e+000 -1.106255e+001 174 147 113
-8.822369e-001 -2.670134e+000 -1.211380e+001 209 190 160
2.868559e+000 -4.034481e+000 -1.284253e+001 121 87 59
3.515811e+000 -4.389920e+000 -1.351227e+001 240 193 82
2.255476e+000 -4.310937e+000 -1.322849e+001 139 107 82
3.841461e-001 1.076963e+000 -8.957408e+000 144 81 72
2.621086e+000 5.743783e-002 -8.726101e+000 68 55 47
4.862138e+000 -7.072369e-001 -1.040956e+001 112 80 55
1.686603e-001 -1.077019e+000 -9.650381e+000 113 50 48
-2.853492e-001 -1.286522e+000 -9.954630e+000 127 67 56
1.778092e+000 -2.257286e+000 -1.031202e+001 52 37 26
-1.592521e+000 -1.086168e+000 -1.022171e+001 174 110 101
-1.592907e+000 -1.085637e+000 -1.022187e+001 174 110 101
-1.515017e+000 -1.176454e+000 -1.074413e+001 204 173 152
-1.846766e+000 -1.251219e+000 -1.108889e+001 227 201 176
-1.259730e+000 -1.548318e+000 -1.095077e+001 201 165 146
-1.431017e+000 -1.494916e+000 -1.201053e+001 154 99 95
-1.464244e+000 -1.749543e+000 -1.411375e+001 125 129 96
-2.247677e+000 1.439298e+000 -8.982839e+000 125 92 73
-1.913939e+000 1.650189e+000 -9.470659e+000 230 227 222
-3.087804e+000 1.227695e+000 -8.580052e+000 153 126 109
-3.729570e+000 1.161035e+000 -8.654532e+000 189 167 145
5.458383e+000 -1.158490e+000 -1.098598e+001 165 142 135
1.450534e+000 -1.542356e+000 -1.005036e+001 84 67 51
4.025719e+000 -3.665985e+000 -1.272085e+001 243 197 76
4.245711e+000 -3.851939e+000 -1.156292e+001 204 115 31
5.655545e+000 5.795989e-001 -1.040024e+001 235 207 198
-2.721656e+000 8.644242e-001 -8.832966e+000 210 187 163
-2.722556e+000 8.679509e-001 -8.840279e+000 210 187 163
-6.336515e-001 2.523354e-001 -9.595420e+000 154 95 81
-6.797562e-001 -7.196085e-001 -9.571601e+000 213 170 154
-1.217405e-002 -1.476003e+000 -1.046604e+001 167 122 88
4.343884e+000 -4.320967e+000 -1.286304e+001 206 115 36
4.059458e+000 -3.758122e+000 -1.265394e+001 238 187 65
2.988322e+000 -4.667056e+000 -1.269976e+001 240 186 79
4.431847e+000 -2.996335e+000 -1.195129e+001 232 157 78
3.569537e+000 9.859067e-001 -1.044739e+001 54 41 33
5.027512e+000 2.041764e-001 -1.090988e+001 123 98 76
1.304403e+000 -3.975062e-001 -9.437585e+000 216 191 161
-5.653608e-001 -1.557039e+000 -1.007777e+001 137 80 68
3.021851e+000 -8.897163e-001 -1.024631e+001 143 121 98
1.226857e+000 3.047616e+000 -1.116695e+001 156 137 112
1.800579e+000 3.126289e+000 -1.091289e+001 88 81 65
2.019828e+000 3.064129e+000 -1.106686e+001 90 80 67
2.135493e+000 3.031023e+000 -1.098387e+001 103 90 64
5.332257e+000 3.644546e+000 -1.185878e+001 229 155 134
6.478629e-001 2.602143e+000 -1.102539e+001 194 171 125
6.325499e-001 2.407493e+000 -1.100443e+001 201 179 150
1.501733e+000 2.854683e+000 -1.072032e+001 110 92 68
-1.856352e+000 -1.006275e-001 -2.261580e+001 188 195 201
-3.638468e-001 1.899810e+000 -1.150860e+001 148 109 102
2.924751e-001 2.339367e+000 -1.017222e+001 162 117 104
7.097944e-001 2.322959e+000 -1.048480e+001 166 142 120
7.533217e-001 2.303187e+000 -1.049547e+001 167 137 118
7.519111e-001 2.307347e+000 -1.047489e+001 167 137 118
1.424685e+000 2.560842e+000 -1.054022e+001 143 126 106
1.436621e+000 2.537939e+000 -1.047008e+001 147 132 114
1.355698e+000 2.494207e+000 -1.026229e+001 187 187 163
1.422997e+000 2.506089e+000 -1.042383e+001 145 124 105
1.814515e+000 2.680849e+000 -1.025494e+001 116 104 80
1.808848e+000 2.522029e+000 -1.036924e+001 96 78 66
1.057507e-001 2.065209e+000 -1.014069e+001 210 171 160
1.364735e-001 2.053449e+000 -1.014891e+001 189 152 141
1.700207e-001 2.059272e+000 -1.014206e+001 219 188 173
1.702282e-001 2.052484e+000 -1.017090e+001 219 188 173
2.287346e-001 2.086316e+000 -1.011146e+001 210 179 165
3.227106e-001 2.181583e+000 -1.004988e+001 184 148 142
1.240369e+000 2.257316e+000 -1.029419e+001 72 75 57
1.263256e+000 2.215702e+000 -1.021030e+001 71 76 56
2.030898e+000 2.420347e+000 -1.016282e+001 235 227 209
2.524971e+000 2.499092e+000 -1.056640e+001 103 79 45
2.524971e+000 2.499092e+000 -1.056640e+001 103 79 45
2.484442e+000 2.388090e+000 -1.043979e+001 79 67 42
2.503586e+000 2.284111e+000 -1.038371e+001 79 76 52
3.085087e+000 2.354120e+000 -1.110504e+001 98 77 56
5.433721e+000 2.824265e+000 -1.151029e+001 200 200 206
2.886455e-001 1.889390e+000 -9.677664e+000 195 148 150
2.165782e+000 2.145155e+000 -9.911727e+000 75 68 45
2.569816e+000 2.141715e+000 -1.022472e+001 50 35 22
3.942589e+000 2.008525e+000 -1.141432e+001 83 64 42
3.942589e+000 2.008525e+000 -1.141432e+001 83 64 42
5.549475e+000 2.422875e+000 -1.152455e+001 150 70 73
-1.807150e+000 1.236183e+000 -9.258432e+000 141 130 113
4.474525e-001 1.630743e+000 -9.517761e+000 188 145 143
1.239702e+000 1.781213e+000 -9.909518e+000 118 83 36
1.411729e+000 1.854202e+000 -9.886002e+000 191 179 155
1.354411e+000 1.579193e+000 -9.869080e+000 200 183 163
1.843033e+000 1.800382e+000 -9.725855e+000 199 182 160
2.343455e+000 1.916040e+000 -9.688801e+000 84 68 49
3.999840e+000 1.848135e+000 -1.115011e+001 108 87 66
-7.686960e-001 1.152502e+000 -9.505531e+000 102 60 54
4.898509e-001 1.470212e+000 -9.503122e+000 199 168 163
8.810294e-001 1.436292e+000 -9.491026e+000 183 156 147
1.757041e+000 1.483706e+000 -9.454489e+000 143 128 110
4.092192e+000 1.629054e+000 -1.106138e+001 103 83 68
1.522000e-001 1.048241e+000 -9.026742e+000 208 179 175
2.118986e-001 1.211156e+000 -9.032424e+000 185 158 160
8.769787e-001 1.130064e+000 -9.328968e+000 144 102 84
1.548860e+000 1.149204e+000 -9.700514e+000 183 166 148
1.864268e+000 1.439925e+000 -9.309563e+000 208 203 185
1.929483e+000 1.384261e+000 -9.136183e+000 227 227 220
1.914357e+000 1.322494e+000 -9.121426e+000 155 142 127
2.196741e+000 1.562808e+000 -9.275544e+000 100 101 85
2.752071e+000 1.434007e+000 -9.425352e+000 74 67 58
3.714596e+000 1.341621e+000 -1.041923e+001 55 39 23
-1.945928e+000 -2.231910e-001 -1.056607e+001 202 166 152
-1.945928e+000 -2.231910e-001 -1.056607e+001 202 166 152
-1.578270e-001 8.032118e-001 -9.185024e+000 146 113 95
4.390710e-001 7.459485e-001 -8.994754e+000 176 144 128
1.410481e+000 9.874791e-001 -9.053973e+000 182 178 149
1.494761e+000 9.871411e-001 -8.990035e+000 200 197 168
1.840164e+000 1.224648e+000 -9.009315e+000 139 134 113
2.889679e+000 1.418529e+000 -9.386831e+000 70 59 42
-1.671745e+000 -6.168729e-001 -1.070486e+001 200 168 153
-1.476057e+000 -4.482024e-001 -1.054096e+001 179 141 132
1.064216e+000 4.930301e-001 -9.554064e+000 131 100 75
2.893102e+000 1.032587e+000 -9.005007e+000 147 141 129
3.098842e+000 1.067583e+000 -9.061048e+000 73 54 40
2.999913e+000 1.034241e+000 -9.072610e+000 88 85 72
-1.692858e+000 -8.598257e-001 -1.030038e+001 199 153 150
1.635859e+000 6.185481e-001 -8.899997e+000 164 154 109
2.365587e+000 7.895283e-001 -8.887554e+000 101 93 78
2.370472e+000 7.531344e-001 -8.874286e+000 115 103 87
2.971125e+000 7.946881e-001 -8.872031e+000 54 48 37
3.063698e+000 9.469394e-001 -9.028495e+000 104 98 70
3.075467e+000 9.161013e-001 -8.968242e+000 196 192 175
-1.715918e+000 -8.737953e-001 -1.013504e+001 216 185 175
-1.658448e+000 -9.427033e-001 -9.913700e+000 216 192 188
-1.523647e+000 -7.368677e-001 -9.920822e+000 204 162 153
-1.605111e+000 -8.677421e-001 -9.917646e+000 191 158 150
-1.542289e+000 -9.544737e-001 -9.917912e+000 210 177 168
-8.270313e-001 -7.183809e-001 -9.609396e+000 192 154 151
7.498785e-002 -1.597217e-001 -8.875370e+000 186 144 132
1.592536e+000 3.480237e-001 -8.894679e+000 133 138 108
1.565619e+000 2.343610e-001 -8.951525e+000 124 136 109
2.949989e+000 5.458555e-001 -8.794739e+000 111 112 99
3.103981e+000 5.566233e-001 -8.834400e+000 87 80 70
4.868818e+000 4.918251e-001 -1.019162e+001 97 73 53
4.868818e+000 4.918251e-001 -1.019162e+001 97 73 53
-1.267898e+000 -1.187211e+000 -9.787330e+000 201 158 157
-5.642775e-001 -7.128520e-001 -9.399158e+000 181 127 127
9.372578e-002 -1.740776e-001 -8.783159e+000 208 179 165
3.420091e-001 -1.618564e-001 -8.910966e+000 133 95 84
1.935307e+000 1.720554e-001 -8.642316e+000 163 154 137
2.352197e+000 2.237207e-001 -8.770801e+000 77 71 60
2.352197e+000 2.237207e-001 -8.770801e+000 77 71 60
2.522642e+000 4.775699e-001 -8.546633e+000 74 70 59
2.853596e+000 1.266206e-001 -8.908589e+000 74 72 58
4.459542e+000 5.765207e-002 -9.852841e+000 89 72 54
1.869042e+000 1.233165e-002 -8.592059e+000 239 247 246
6.055480e-001 -1.247352e+000 -9.784482e+000 142 132 120
5.245435e+000 -1.631023e+000 -1.097625e+001 146 143 141
4.466248e+000 -3.282225e+000 -1.219846e+001 210 187 153
4.752598e+000 -2.724760e+000 -1.175599e+001 166 156 148
4.861485e+000 -2.645977e+000 -1.168527e+001 204 194 184
4.868571e+000 -2.735571e+000 -1.162051e+001 143 138 135
3.946499e+000 -4.067776e+000 -1.275623e+001 149 140 145
4.745177e+000 4.363892e+000 -1.296234e+001 211 158 104
5.061108e+000 3.782236e+000 -1.241737e+001 223 192 186
9.235798e-001 2.839409e+000 -1.079744e+001 202 192 173
9.655890e-001 2.877393e+000 -1.074459e+001 172 162 139
2.175404e+000 3.062343e+000 -1.119401e+001 116 104 80
5.488611e+000 3.899228e+000 -1.165020e+001 240 233 224
-2.303661e+000 2.232221e+000 -9.388077e+000 92 71 54
-2.303661e+000 2.232221e+000 -9.388077e+000 92 71 54
-2.263065e+000 2.283535e+000 -9.277940e+000 73 51 37
4.966862e-001 2.531327e+000 -1.115376e+001 194 178 153
6.681387e-001 2.577366e+000 -1.094637e+001 204 183 134
7.649573e-001 2.646146e+000 -1.096148e+001 171 145 79
1.534218e+000 2.737456e+000 -1.053723e+001 141 123 102
2.237430e+000 3.008295e+000 -1.100642e+001 251 247 230
2.242969e+000 3.006348e+000 -1.102694e+001 251 247 230
-9.187921e-002 2.209557e+000 -1.030042e+001 195 160 154
-1.814958e-002 2.355564e+000 -1.027287e+001 180 142 131
6.873067e-003 2.312839e+000 -1.031616e+001 173 137 123
1.787815e-001 2.403855e+000 -1.023191e+001 195 160 147
8.909935e-002 2.258008e+000 -1.018648e+001 196 170 155
2.131602e-001 2.271051e+000 -1.009189e+001 191 153 151
1.211171e+000 2.396645e+000 -1.033406e+001 120 124 102
1.328359e+000 2.401588e+000 -1.019756e+001 143 146 124
5.752956e+000 3.231808e+000 -1.106742e+001 169 158 155
5.752956e+000 3.231808e+000 -1.106742e+001 169 158 155
2.118094e-001 1.985611e+000 -1.007482e+001 188 137 134
3.805812e-001 1.985009e+000 -1.009345e+001 224 195 174
1.120263e+000 2.194490e+000 -1.025411e+001 89 92 75
1.272596e+000 2.196269e+000 -1.015677e+001 63 67 50
1.479516e+000 2.385054e+000 -1.028779e+001 214 206 187
1.629737e+000 2.334770e+000 -1.017801e+001 148 135 114
1.559884e+000 2.265999e+000 -1.016094e+001 156 145 127
2.292338e+000 2.300993e+000 -1.047730e+001 40 29 19
2.324907e+000 2.339610e+000 -1.035835e+001 53 42 31
-1.705830e+000 1.434863e+000 -9.229747e+000 91 72 54
-1.705830e+000 1.434863e+000 -9.229747e+000 91 72 54
-1.145704e+000 1.461071e+000 -9.475317e+000 70 49 34
1.772361e-001 1.802756e+000 -1.012050e+001 184 124 124
1.079682e+000 1.933868e+000 -9.934955e+000 171 157 146
1.667091e+000 2.013415e+000 -9.864747e+000 160 151 137
2.186383e+000 2.098710e+000 -9.838345e+000 49 47 29
2.257358e+000 2.077532e+000 -9.891193e+000 76 59 35
2.500392e+000 2.238233e+000 -1.031289e+001 59 46 30
2.459018e+000 2.029381e+000 -1.020282e+001 57 54 47
3.818729e+000 2.285659e+000 -1.147029e+001 97 75 54
3.904941e+000 2.050115e+000 -1.140422e+001 119 99 81
4.102735e+000 2.153263e+000 -1.160340e+001 105 83 62
-1.759559e+000 1.360063e+000 -9.166470e+000 108 89 72
-9.160132e-002 1.405691e+000 -1.010214e+001 164 108 119
4.202000e-001 1.673841e+000 -9.529583e+000 177 138 131
5.214980e-001 1.691580e+000 -9.456579e+000 200 160 160
4.421605e-001 1.584313e+000 -9.573629e+000 168 123 120
1.168994e+000 1.698933e+000 -9.782660e+000 152 122 106
2.186845e+000 2.024067e+000 -9.803539e+000 85 77 56
3.792657e+000 1.818866e+000 -1.114700e+001 81 62 45
3.946847e+000 1.989963e+000 -1.128648e+001 108 90 70
4.052642e+000 1.851439e+000 -1.131412e+001 87 66 45
4.025877e+000 1.865781e+000 -1.124595e+001 87 66 45
3.117418e-001 1.412849e+000 -9.194093e+000 157 111 113
3.609249e-001 1.428015e+000 -9.243402e+000 158 113 115
2.389447e-001 1.338719e+000 -9.187084e+000 166 138 125
4.760442e-001 1.433305e+000 -9.422150e+000 144 107 100
5.087328e-001 1.436873e+000 -9.457276e+000 200 167 154
5.339532e+000 1.706270e+000 -1.163537e+001 212 136 128
5.339532e+000 1.706270e+000 -1.163537e+001 212 136 128
-1.682241e+000 7.198404e-001 -9.191938e+000 112 100 86
2.176777e+000 1.539623e+000 -9.303067e+000 119 116 102
2.702792e+000 1.547057e+000 -9.534889e+000 79 67 50
2.705078e+000 1.482142e+000 -9.511819e+000 119 117 105
3.652777e+000 1.327421e+000 -1.041016e+001 67 52 32
5.331662e+000 1.472666e+000 -1.180443e+001 185 133 128
2.012516e+000 1.307568e+000 -9.079982e+000 167 151 130
5.475942e+000 1.169447e+000 -1.126125e+001 207 168 123
-1.759630e+000 -3.455344e-001 -1.064497e+001 200 161 144
2.857932e+000 1.128326e+000 -9.053599e+000 108 106 93
4.749731e+000 1.004590e+000 -1.068802e+001 123 103 78
-1.623088e+000 -7.536743e-001 -1.039646e+001 171 124 125
-1.622784e+000 -7.691563e-001 -1.018429e+001 210 169 168
-9.157585e-002 1.324037e-001 -9.193020e+000 172 144 128
8.081727e-001 1.532224e-001 -9.312044e+000 201 188 169
2.169812e+000 7.120341e-001 -8.634555e+000 83 65 43
2.427956e+000 9.411314e-001 -8.684051e+000 115 115 107
2.450329e+000 8.595225e-001 -8.566358e+000 143 143 124
2.931805e+000 8.709192e-001 -8.939279e+000 217 212 200
2.912644e+000 8.464263e-001 -8.940476e+000 60 57 48
3.108677e+000 7.701138e-001 -8.912643e+000 85 80 65
-1.586229e+000 -9.206480e-001 -9.947391e+000 214 177 169
3.060772e+000 5.426155e-001 -8.932605e+000 70 66 55
3.214658e+000 6.626758e-001 -8.925745e+000 42 33 25
-8.385076e-001 -9.190854e-001 -9.413081e+000 186 150 148
-1.065697e-001 -3.050414e-001 -8.804850e+000 186 145 143
2.996033e+000 1.306722e-001 -8.878020e+000 215 214 199
8.694822e-001 -8.275375e-001 -9.659833e+000 111 90 69
1.137085e+000 -7.671255e-001 -9.467092e+000 194 178 155
1.156230e+000 -8.245396e-001 -9.475301e+000 172 161 136
1.123288e+000 -4.855978e-001 -9.230159e+000 176 157 133
1.716777e+000 -3.700585e-001 -8.872706e+000 165 160 143
2.866359e+000 -1.321809e-002 -8.955635e+000 45 44 24
5.443850e+000 -1.048988e+000 -1.089916e+001 104 98 86
1.147205e+000 -1.494646e+000 -9.724644e+000 216 215 204
1.620314e+000 -1.627701e+000 -9.965979e+000 45 37 30
5.289328e+000 -1.542786e+000 -1.104913e+001 103 98 97
5.901507e+000 -6.211600e-001 -9.781735e+000 180 117 61
4.550378e+000 -3.354783e+000 -1.205440e+001 154 150 145
4.572451e+000 -3.141962e+000 -1.190451e+001 198 190 188
4.952303e+000 -2.469531e+000 -1.149013e+001 131 124 127
4.791666e+000 -2.834029e+000 -1.165893e+001 140 131 133
5.746233e+000 -1.360004e+000 -1.003066e+001 226 166 108
-3.327046e+000 2.848897e+000 -8.835124e+000 140 87 94
4.747014e+000 4.300679e+000 -1.301886e+001 220 154 110
-3.906493e+000 2.447423e+000 -8.692430e+000 174 112 113
-1.254830e+000 1.928706e+000 -2.112631e+001 155 162 175
-6.806660e-001 1.829495e+000 -2.085368e+001 155 161 174
4.366590e+000 3.666076e+000 -1.367785e+001 191 109 84
-4.023768e+000 2.215103e+000 -8.807867e+000 157 100 93
1.602525e+000 3.052792e+000 -1.114006e+001 69 60 47
1.452874e+000 2.970102e+000 -1.093421e+001 51 37 26
1.628715e+000 3.093137e+000 -1.087876e+001 122 116 98
4.508190e+000 3.229369e+000 -1.339380e+001 216 150 99
5.461588e+000 3.811442e+000 -1.167588e+001 231 183 163
7.437155e-001 2.613646e+000 -1.086847e+001 213 192 149
9.082833e-001 2.643298e+000 -1.055188e+001 189 178 164
9.431021e-001 2.627717e+000 -1.055938e+001 156 132 110
1.038637e+000 2.643834e+000 -1.062413e+001 131 105 76
1.037990e+000 2.644336e+000 -1.062035e+001 131 105 76
9.317023e-001 2.590436e+000 -1.058131e+001 152 125 105
1.221914e+000 2.637752e+000 -1.078651e+001 127 98 70
-5.661739e-001 1.852651e+000 -1.160420e+001 137 73 84
7.892694e-001 2.287539e+000 -1.050597e+001 118 85 74
1.054692e+000 2.508121e+000 -1.062405e+001 120 113 88
1.292393e+000 2.447287e+000 -1.023988e+001 86 94 70
1.499164e+000 2.615755e+000 -1.042466e+001 158 147 129
1.824397e+000 2.534118e+000 -1.019981e+001 95 78 57
1.949964e+000 2.753986e+000 -1.044414e+001 226 221 202
2.004179e+000 2.761097e+000 -1.046916e+001 83 67 55
5.693742e+000 3.290395e+000 -1.113509e+001 198 121 124
-3.143924e+000 1.702591e+000 -8.248235e+000 110 81 52
-3.042340e+000 1.662446e+000 -8.268244e+000 93 66 39
1.067057e+000 2.211476e+000 -1.037928e+001 51 52 38
1.161485e+000 2.175775e+000 -1.027191e+001 53 56 39
1.224924e+000 2.125825e+000 -1.011489e+001 104 105 91
-3.470531e+000 1.339314e+000 -8.219853e+000 117 90 61
-1.316771e+000 1.518152e+000 -9.403768e+000 74 56 42
-1.236049e+000 1.491037e+000 -9.460284e+000 67 49 35
4.440107e-001 1.985815e+000 -9.607429e+000 190 149 147
1.286340e+000 2.038967e+000 -1.007579e+001 98 83 61
1.963473e+000 2.118253e+000 -9.859868e+000 118 111 92
2.005600e+000 2.230707e+000 -9.950313e+000 85 73 52
3.490009e+000 2.178520e+000 -1.123171e+001 106 88 66
3.567146e+000 2.174027e+000 -1.128903e+001 100 82 62
3.560642e+000 2.101732e+000 -1.125392e+001 98 80 60
3.573915e+000 2.062155e+000 -1.121797e+001 77 59 39
3.779942e+000 2.133038e+000 -1.141013e+001 106 87 70
3.771824e+000 2.138109e+000 -1.138755e+001 106 87 70
3.857221e+000 2.146301e+000 -1.145438e+001 104 82 63
3.886129e+000 2.093765e+000 -1.142603e+001 83 62 41
3.987946e+000 2.036562e+000 -1.148929e+001 84 63 44
4.280256e+000 2.092103e+000 -1.185225e+001 104 82 58
1.012305e+000 1.652627e+000 -9.756287e+000 159 122 113
2.225593e+000 2.012462e+000 -9.712357e+000 62 53 35
2.202835e+000 1.898084e+000 -9.660910e+000 90 84 65
3.685898e+000 1.902933e+000 -1.109172e+001 80 61 44
4.358211e+000 1.884743e+000 -1.151488e+001 92 71 51
3.137797e-001 1.377543e+000 -9.112441e+000 152 106 109
1.878476e+000 1.586540e+000 -9.492098e+000 155 136 111
2.185631e+000 1.768363e+000 -9.534301e+000 87 80 61
2.226641e+000 1.635816e+000 -9.331899e+000 87 78 61
2.491749e+000 1.745421e+000 -9.876706e+000 31 27 18
2.516355e+000 1.683939e+000 -9.830584e+000 37 27 22
3.890487e+000 1.748806e+000 -1.104348e+001 105 85 65
3.917475e+000 1.732515e+000 -1.111341e+001 105 85 65
8.813820e-001 1.147266e+000 -9.368041e+000 113 65 49
1.780601e+000 1.465752e+000 -9.341512e+000 156 137 120
3.265591e+000 1.342340e+000 -1.003822e+001 69 52 36
3.576189e+000 1.445138e+000 -1.038565e+001 73 56 40
6.697030e-001 7.278668e-001 -9.393516e+000 119 71 48
9.317524e-001 7.525723e-001 -9.412780e+000 127 97 69
1.270261e+000 6.496334e-001 -9.788736e+000 111 69 53
1.883152e+000 1.263015e+000 -9.194803e+000 145 130 109
4.434285e+000 1.079970e+000 -1.057153e+001 110 88 65
5.168395e-001 7.164179e-001 -9.029636e+000 220 197 182
1.539991e+000 9.002267e-001 -8.786312e+000 190 177 133
2.415959e+000 1.094878e+000 -9.116525e+000 70 65 51
2.387907e+000 1.223484e+000 -8.771366e+000 72 65 49
2.902432e+000 1.136770e+000 -9.123696e+000 32 22 10
4.632445e+000 8.758323e-001 -1.047078e+001 114 93 72
2.042245e+000 7.741400e-001 -8.530301e+000 98 90 67
-1.715538e+000 -1.071578e+000 -1.003583e+001 222 222 226
-1.427090e+000 -9.042365e-001 -9.879751e+000 219 186 177
-8.592408e-002 -1.898813e-001 -8.908564e+000 226 203 191
3.295232e-001 -1.373302e-001 -9.022688e+000 122 78 68
1.953459e+000 5.912936e-001 -8.581021e+000 110 123 95
1.957804e+000 5.078763e-001 -8.483491e+000 124 141 108
2.652670e+000 6.016247e-001 -8.525737e+000 31 26 20
-1.420696e+000 -1.003247e+000 -9.815869e+000 179 140 131
9.479555e-001 -2.739996e-001 -9.352818e+000 189 174 158
1.873726e+000 1.086206e-001 -8.747976e+000 160 144 120
1.817714e+000 1.435203e-002 -8.746242e+000 174 162 139
4.547494e+000 2.110535e-001 -9.829860e+000 75 59 37
1.265641e+000 -6.282588e-001 -9.193700e+000 149 123 90
2.541318e+000 1.771162e-001 -8.572067e+000 59 55 44
2.906998e+000 5.869777e-002 -8.927234e+000 44 38 22
2.906998e+000 5.869777e-002 -8.927234e+000 44 38 22
2.878091e+000 -3.005437e-001 -9.204033e+000 129 122 109
5.282498e+000 -1.447725e+000 -1.114815e+001 217 187 145
5.929779e-001 -2.454421e+000 -1.055164e+001 221 218 210
1.278379e+000 -2.008419e+000 -1.007243e+001 210 211 195
5.796061e+000 -1.269220e+000 -1.002227e+001 228 200 160
4.563005e+000 -3.116138e+000 -1.203238e+001 174 163 159
4.841609e+000 -2.682895e+000 -1.167068e+001 142 134 132
4.806817e+000 -2.789400e+000 -1.169578e+001 199 195 198
3.732392e+000 4.123214e+000 -1.469309e+001 205 135 93
3.793488e+000 4.130102e+000 -1.466036e+001 227 160 115
4.491108e+000 4.275402e+000 -1.350693e+001 207 150 92
-3.691081e+000 2.748412e+000 -8.624931e+000 181 134 136
4.590682e+000 4.107701e+000 -1.336653e+001 216 137 94
2.440222e+000 3.087247e+000 -1.679696e+001 222 159 110
2.705566e+000 3.004481e+000 -1.627859e+001 185 101 77
3.058400e+000 3.254300e+000 -1.579469e+001 164 117 87
-3.897988e+000 2.176162e+000 -8.627987e+000 93 60 46
1.324503e+000 2.921821e+000 -1.095966e+001 242 247 231
4.532203e+000 3.393999e+000 -1.336335e+001 217 179 127
5.516081e+000 3.652105e+000 -1.192412e+001 231 160 130
1.911969e+000 2.833179e+000 -1.052985e+001 57 48 32
-2.434335e+000 2.014180e+000 -8.634916e+000 89 68 51
8.425644e-002 2.158640e+000 -1.026125e+001 197 172 154
7.489068e-001 2.332815e+000 -1.057110e+001 132 95 77
7.473322e-001 2.338820e+000 -1.054241e+001 132 95 77
1.610773e+000 2.591924e+000 -1.045413e+001 135 112 94
2.382846e+000 2.720188e+000 -1.092837e+001 92 81 63
3.400562e+000 2.562550e+000 -1.169115e+001 96 74 52
4.579601e+000 2.692151e+000 -1.303267e+001 189 113 79
4.637284e+000 2.651366e+000 -1.286555e+001 177 111 66
4.799802e+000 2.738042e+000 -1.288508e+001 156 113 96
1.128109e+000 2.130619e+000 -1.016758e+001 103 107 90
1.180335e+000 2.248374e+000 -1.032395e+001 93 97 80
1.717515e+000 2.255199e+000 -1.015674e+001 137 116 95
1.785546e+000 2.236009e+000 -1.016745e+001 75 53 35
2.030159e+000 2.487164e+000 -1.023361e+001 67 55 39
4.085286e+000 2.454917e+000 -1.200488e+001 130 105 83
4.265863e+000 2.504127e+000 -1.230117e+001 134 109 88
-3.560450e+000 1.316820e+000 -8.184312e+000 137 109 79
3.382855e+000 2.256071e+000 -1.129022e+001 84 65 43
4.427721e+000 2.211332e+000 -1.201881e+001 116 91 69
3.184706e-001 1.477075e+000 -9.670500e+000 187 139 137
1.160879e+000 1.608628e+000 -9.912062e+000 98 65 48
2.455469e+000 1.858926e+000 -1.002320e+001 32 25 16
3.910749e+000 1.954173e+000 -1.130413e+001 83 68 45
4.049533e+000 1.805949e+000 -1.116051e+001 95 74 53
2.261090e-001 1.297821e+000 -9.122337e+000 173 143 140
5.780249e-001 1.307042e+000 -9.215999e+000 134 86 84
1.037613e+000 1.393536e+000 -9.646303e+000 114 78 64
1.746778e+000 1.671336e+000 -9.581944e+000 240 237 228
-1.163954e-001 9.781151e-001 -9.587155e+000 186 130 132
2.745960e+000 1.524205e+000 -9.492802e+000 70 59 45
4.804239e+000 1.463329e+000 -1.100430e+001 126 102 76
-1.585143e+000 2.843482e-001 -9.603970e+000 90 68 51
1.950902e+000 1.297880e+000 -9.065435e+000 154 144 126
2.459544e+000 1.290336e+000 -9.066548e+000 72 66 52
1.611514e+000 9.180896e-001 -8.827502e+000 167 152 109
1.648688e+000 8.870870e-001 -8.687174e+000 161 146 113
2.615227e+000 1.052974e+000 -8.725660e+000 40 30 25
4.249683e+000 9.302373e-001 -1.021442e+001 75 54 33
1.365220e+000 3.408049e-001 -9.703487e+000 172 153 139
-9.630134e-001 -7.572288e-001 -9.887246e+000 159 111 109
-9.630134e-001 -7.572288e-001 -9.887246e+000 159 111 109
-8.588383e-001 -6.802304e-001 -9.805956e+000 156 112 111
1.468789e+000 -3.463519e-001 -9.172055e+000 165 140 125
2.283980e+000 1.036177e-001 -8.678447e+000 94 90 79
2.509804e+000 2.549497e-001 -8.555367e+000 48 44 32
4.095832e+000 2.500430e-001 -9.598237e+000 65 48 32
4.271274e+000 2.298502e-001 -9.744448e+000 89 74 55
5.309007e-001 -5.065300e-001 -9.036276e+000 108 76 63
1.591345e+000 -3.842625e-001 -8.938854e+000 110 109 88
8.131269e-001 -1.390417e+000 -9.811825e+000 94 104 72
-7.870527e-002 -2.219530e+000 -1.029551e+001 166 142 91
1.622143e+000 -1.558760e+000 -9.956947e+000 46 39 32
5.149439e+000 -1.720463e+000 -1.130610e+001 208 134 52
5.775197e+000 -1.610664e+000 -1.032947e+001 215 134 46
5.494719e+000 -2.436935e+000 -1.065977e+001 220 143 56
4.161306e+000 4.423859e+000 -1.382694e+001 204 146 109
-3.336347e+000 2.776805e+000 -8.672319e+000 159 110 107
-3.319012e+000 2.807773e+000 -8.729494e+000 125 66 74
-3.263066e+000 2.737094e+000 -8.671516e+000 149 103 103
-3.250051e+000 2.752656e+000 -8.769274e+000 132 82 86
2.171331e+000 3.265460e+000 -1.693427e+001 225 146 108
2.647953e+000 3.373248e+000 -1.656114e+001 205 140 90
4.671280e+000 4.160024e+000 -1.317174e+001 236 158 119
-1.717476e+000 1.429845e+000 -2.229863e+001 187 185 189
9.919914e-001 2.296524e+000 -1.907191e+001 238 179 123
2.810344e+000 3.228246e+000 -1.622692e+001 196 119 84
4.173416e+000 3.629687e+000 -1.422008e+001 215 147 98
2.382273e-001 1.808461e+000 -2.001729e+001 221 150 97
3.941213e+000 3.189972e+000 -1.434094e+001 191 139 92
5.093309e+000 3.552966e+000 -1.238098e+001 225 220 232
-6.821958e-001 1.016826e+000 -2.126194e+001 126 132 144
1.349119e+000 2.721965e+000 -1.066966e+001 146 131 109
2.112836e+000 2.892495e+000 -1.091366e+001 41 33 22
-3.169205e+000 2.062147e+000 -8.223156e+000 138 112 81
-1.968657e+000 -2.785471e-001 -2.276134e+001 204 186 147
-4.973335e-001 1.861349e+000 -1.155967e+001 164 126 127
7.446578e-003 2.333448e+000 -1.033605e+001 181 140 128
2.584155e-001 2.318586e+000 -1.013551e+001 211 176 174
5.214900e-001 2.358739e+000 -1.060020e+001 214 195 180
7.167808e-001 2.289453e+000 -1.047577e+001 166 142 118
2.510869e+000 2.583560e+000 -1.064803e+001 126 96 49
3.532555e+000 2.569863e+000 -1.172674e+001 103 78 56
4.350261e+000 2.561317e+000 -1.250579e+001 91 69 46
2.461593e+000 2.440568e+000 -1.054865e+001 66 53 38
4.190891e+000 2.320819e+000 -1.184529e+001 133 111 88
1.778840e+000 2.100599e+000 -1.003051e+001 82 56 31
2.140745e+000 2.073430e+000 -9.703464e+000 68 56 41
3.448091e+000 2.012976e+000 -1.102622e+001 84 65 48
9.175254e-001 1.715615e+000 -9.848831e+000 145 107 99
2.599830e+000 1.977225e+000 -9.928292e+000 57 44 25
3.065124e+000 1.874744e+000 -1.061206e+001 60 41 26
4.454466e+000 1.899503e+000 -1.168430e+001 90 69 48
-2.438075e-001 1.092088e+000 -1.016503e+001 158 101 112
1.480714e+000 1.540890e+000 -9.972414e+000 128 96 73
1.676224e+000 1.565914e+000 -9.579300e+000 183 164 143
1.786623e+000 1.029193e+000 -8.985337e+000 133 125 104
2.157528e+000 1.052527e+000 -8.881099e+000 142 124 100
3.027529e+000 1.072384e+000 -9.158039e+000 66 58 44
1.914379e+000 6.479453e-001 -8.599592e+000 117 131 102
1.914379e+000 6.479453e-001 -8.599592e+000 117 131 102
2.939251e+000 7.306709e-001 -8.833512e+000 236 234 218
2.965408e+000 6.228159e-001 -8.880688e+000 253 253 243
3.025817e+000 6.356449e-001 -8.877956e+000 43 39 28
2.010054e-001 -2.404595e-001 -8.651902e+000 149 113 107
2.134358e+000 2.610565e-001 -8.581664e+000 130 116 88
2.921662e+000 3.755914e-001 -8.793206e+000 104 104 94
4.619502e+000 -4.289972e-001 -1.012092e+001 106 88 66
4.870944e+000 -4.258789e-001 -1.023033e+001 128 110 88
-4.527963e-001 -2.147420e+000 -1.056754e+001 179 152 105
9.105834e-001 -1.489562e+000 -9.755220e+000 193 192 176
5.155922e+000 -1.527404e+000 -1.136276e+001 183 87 49
-2.797235e-001 -3.856316e+000 -1.193385e+001 174 162 146
4.867124e+000 -2.746674e+000 -1.154692e+001 205 166 145
5.774996e+000 -1.316038e+000 -9.954050e+000 70 51 40
4.434926e+000 4.345745e+000 -1.361561e+001 230 176 114
2.740050e+000 3.350792e+000 -1.632312e+001 229 186 143
4.160583e+000 3.784710e+000 -1.413719e+001 202 134 92
4.605846e+000 4.065873e+000 -1.323155e+001 236 164 113
-4.082222e+000 2.421154e+000 -8.910058e+000 117 41 51
-4.378587e-001 1.810863e+000 -2.077790e+001 213 219 230
5.777150e-001 2.441805e+000 -1.923133e+001 214 140 75
9.891273e-001 2.738479e+000 -1.875673e+001 220 131 87
9.891273e-001 2.738479e+000 -1.875673e+001 220 131 87
9.279367e-001 2.436378e+000 -1.913790e+001 223 132 88
-2.658137e-001 1.670428e+000 -2.078526e+001 219 164 98
4.070085e-001 1.494845e+000 -1.982727e+001 231 164 98
7.795999e-001 2.145272e+000 -1.931349e+001 232 181 136
3.325282e+000 3.028939e+000 -1.536683e+001 96 117 102
-3.142389e+000 2.236311e+000 -8.309423e+000 116 90 57
-3.142389e+000 2.236311e+000 -8.309423e+000 116 90 57
1.726185e+000 2.900889e+000 -1.111052e+001 78 68 59
2.989880e+000 2.649830e+000 -1.153481e+001 122 100 77
4.886920e+000 2.673868e+000 -1.266548e+001 150 82 69
-3.701851e+000 1.477477e+000 -8.317081e+000 161 131 98
2.269436e+000 2.443707e+000 -1.052744e+001 37 32 20
2.588801e+000 2.440087e+000 -1.073715e+001 118 91 44
3.225523e+000 2.464455e+000 -1.135248e+001 124 104 83
4.106155e+000 2.525076e+000 -1.207734e+001 100 73 54
-3.656310e+000 1.256955e+000 -8.203676e+000 137 107 76
3.623521e-001 1.753700e+000 -9.546111e+000 217 192 181
-3.532852e+000 1.232420e+000 -8.164560e+000 156 133 101
1.295139e+000 1.673890e+000 -9.913048e+000 140 112 91
1.774534e-001 1.220384e+000 -9.205588e+000 193 175 165
1.751445e+000 1.526990e+000 -9.460503e+000 170 154 130
-1.715952e+000 7.645922e-001 -9.212689e+000 98 88 76
1.179682e+000 9.351606e-001 -9.816529e+000 126 89 73
1.179682e+000 9.351606e-001 -9.816529e+000 126 89 73
4.730589e+000 1.287266e+000 -1.116613e+001 130 108 87
4.723655e+000 1.032942e+000 -1.070719e+001 89 67 44
1.891727e+000 9.186708e-001 -8.926163e+000 169 157 141
2.140382e+000 1.120986e+000 -8.944197e+000 89 66 45
2.500922e+000 9.792803e-001 -8.668790e+000 43 39 30
3.177863e+000 7.965057e-001 -8.937348e+000 41 31 22
1.788447e+000 1.633924e-001 -8.655272e+000 127 105 81
4.162673e-001 -6.436179e-001 -9.113028e+000 141 100 96
5.150310e-001 -2.369654e+000 -1.047636e+001 134 105 76
7.681708e-001 -1.885392e+000 -1.000704e+001 169 154 133
4.372941e+000 -2.891263e+000 -1.235270e+001 179 97 51
3.246643e+000 -4.511415e+000 -1.355001e+001 201 142 62
3.726396e+000 -4.146127e+000 -1.321597e+001 205 143 61
3.298672e+000 -5.083249e+000 -1.368806e+001 193 113 55
4.339337e+000 4.376605e+000 -1.366756e+001 214 142 103
4.548996e+000 4.307849e+000 -1.340686e+001 236 198 112
2.458350e+000 3.515875e+000 -1.660309e+001 205 125 92
2.796402e+000 3.581151e+000 -1.594297e+001 214 153 99
3.721359e+000 3.977725e+000 -1.475744e+001 227 176 100
4.744013e+000 4.077741e+000 -1.285074e+001 232 182 117
6.882936e-001 2.295224e+000 -1.928854e+001 215 126 81
4.389539e+000 3.874917e+000 -1.347199e+001 228 179 101
-4.797170e-001 1.340261e+000 -2.118889e+001 204 202 216
-1.056605e-001 1.555909e+000 -2.058228e+001 234 180 117
-1.097292e-001 1.635553e+000 -1.998751e+001 234 180 117
2.366482e-001 1.560926e+000 -1.996874e+001 213 103 83
2.366482e-001 1.560926e+000 -1.996874e+001 213 103 83
4.437506e-001 1.687053e+000 -1.973696e+001 214 113 89
