ply
format ascii 1.0
element face 0
property list uchar int vertex_indices
element vertex 873
property float x
property float y
property float z
property uchar diffuse_red
property uchar diffuse_green
property uchar diffuse_blue
end_header
1.676691e-001 1.817103e+000 -1.012269e+001 184 124 124
1.076095e+000 1.949254e+000 -9.935696e+000 171 157 146
1.667607e+000 2.029659e+000 -9.864326e+000 160 151 137
2.190627e+000 2.115910e+000 -9.836924e+000 49 47 29
2.262102e+000 2.094659e+000 -9.889780e+000 76 59 35
2.507047e+000 2.256732e+000 -1.031317e+001 59 46 30
2.465293e+000 2.046340e+000 -1.020252e+001 57 54 47
3.835166e+000 2.305556e+000 -1.147384e+001 97 75 54
3.921909e+000 2.068389e+000 -1.140718e+001 119 99 81
4.121237e+000 2.172436e+000 -1.160706e+001 105 83 62
-1.783981e+000 1.370579e+000 -9.166361e+000 108 89 72
-1.028972e-001 1.417237e+000 -1.010442e+001 164 108 119
4.118005e-001 1.687038e+000 -9.529229e+000 177 138 131
5.137362e-001 1.704920e+000 -9.455728e+000 200 160 160
4.339755e-001 1.597026e+000 -9.573039e+000 168 123 120
1.165952e+000 1.712775e+000 -9.782138e+000 152 122 106
2.191038e+000 2.040752e+000 -9.801781e+000 85 77 56
3.808717e+000 1.835402e+000 -1.114882e+001 81 62 45
3.964138e+000 2.007828e+000 -1.128886e+001 108 90 70
4.070646e+000 1.868416e+000 -1.131633e+001 87 66 45
4.043655e+000 1.882873e+000 -1.124776e+001 87 66 45
3.023383e-001 1.424088e+000 -9.192051e+000 157 111 113
3.519294e-001 1.439500e+000 -9.241264e+000 158 113 115
2.290688e-001 1.349521e+000 -9.184789e+000 166 138 125
4.679958e-001 1.444930e+000 -9.420727e+000 144 107 100
5.009201e-001 1.448431e+000 -9.456301e+000 200 167 154
5.367448e+000 1.723204e+000 -1.163717e+001 212 136 128
5.367448e+000 1.723204e+000 -1.163717e+001 212 136 128
-1.705796e+000 7.257803e-001 -9.191598e+000 112 100 86
2.180611e+000 1.552836e+000 -9.298244e+000 119 116 102
2.710550e+000 1.560750e+000 -9.530220e+000 79 67 50
2.712912e+000 1.495266e+000 -9.507307e+000 119 117 105
3.667728e+000 1.340283e+000 -1.040846e+001 67 52 32
5.359225e+000 1.487986e+000 -1.180677e+001 185 133 128
2.015014e+000 1.319058e+000 -9.073946e+000 167 151 130
5.504666e+000 1.182766e+000 -1.126013e+001 207 168 123
-1.781171e+000 -3.458055e-001 -1.065090e+001 200 161 144
2.866524e+000 1.139311e+000 -9.045056e+000 108 106 93
4.773035e+000 1.016005e+000 -1.068555e+001 123 103 78
-1.643872e+000 -7.572555e-001 -1.040197e+001 171 124 125
-1.644019e+000 -7.727011e-001 -1.018792e+001 210 169 168
-1.034829e-001 1.349034e-001 -9.190346e+000 172 144 128
8.025299e-001 1.563564e-001 -9.308604e+000 201 188 169
2.173302e+000 7.193700e-001 -8.625225e+000 83 65 43
2.433401e+000 9.501880e-001 -8.674762e+000 115 115 107
2.455886e+000 8.680242e-001 -8.556168e+000 143 143 124
2.940811e+000 8.802569e-001 -8.929423e+000 217 212 200
2.921501e+000 8.555847e-001 -8.930644e+000 60 57 48
3.119302e+000 7.784725e-001 -8.903086e+000 85 80 65
-1.607460e+000 -9.256580e-001 -9.950259e+000 214 177 169
3.070984e+000 5.494056e-001 -8.922990e+000 70 66 55
3.226073e+000 6.703720e-001 -8.915899e+000 42 33 25
-8.551749e-001 -9.238919e-001 -9.411678e+000 186 150 148
-1.188989e-001 -3.056678e-001 -8.799505e+000 186 145 143
3.005687e+000 1.346544e-001 -8.867660e+000 215 214 199
8.647130e-001 -8.306164e-001 -9.657308e+000 111 90 69
1.133970e+000 -7.698107e-001 -9.463110e+000 194 178 155
1.153263e+000 -8.275859e-001 -9.471270e+000 172 161 136
1.119854e+000 -4.865548e-001 -9.225096e+000 176 157 133
1.717193e+000 -3.700709e-001 -8.864415e+000 165 160 143
2.875061e+000 -1.025315e-002 -8.945894e+000 45 44 24
5.472010e+000 -1.051022e+000 -1.089469e+001 104 98 86
1.144491e+000 -1.502027e+000 -9.721488e+000 216 215 204
1.621030e+000 -1.635639e+000 -9.963395e+000 45 37 30
5.315928e+000 -1.547855e+000 -1.104496e+001 103 98 97
5.934418e+000 -6.209604e-001 -9.770589e+000 180 117 61
4.572927e+000 -3.372737e+000 -1.205854e+001 154 150 145
4.595176e+000 -3.158607e+000 -1.190796e+001 198 190 188
4.976707e+000 -2.480925e+000 -1.148915e+001 131 124 127
4.815103e+000 -2.847924e+000 -1.165927e+001 140 131 133
5.777059e+000 -1.364339e+000 -1.001969e+001 226 166 108
-3.366155e+000 2.871309e+000 -8.835021e+000 140 87 94
4.771533e+000 4.336290e+000 -1.302942e+001 220 154 110
-3.950749e+000 2.466786e+000 -8.691136e+000 174 112 113
-1.259818e+000 1.947143e+000 -2.114221e+001 155 162 175
-6.837669e-001 1.847430e+000 -2.086923e+001 155 161 174
4.387336e+000 3.696240e+000 -1.368994e+001 191 109 84
-4.068885e+000 2.232493e+000 -8.807522e+000 157 100 93
1.603271e+000 3.076758e+000 -1.114546e+001 69 60 47
1.452457e+000 2.993388e+000 -1.093883e+001 51 37 26
1.629518e+000 3.117439e+000 -1.088306e+001 122 116 98
4.530010e+000 3.256431e+000 -1.340521e+001 216 150 99
5.492178e+000 3.844442e+000 -1.167945e+001 231 183 163
7.384612e-001 2.633935e+000 -1.087393e+001 213 192 149
9.039130e-001 2.663838e+000 -1.055584e+001 189 178 164
9.389392e-001 2.648249e+000 -1.056281e+001 156 132 110
1.035212e+000 2.664435e+000 -1.062825e+001 131 105 76
1.034519e+000 2.665028e+000 -1.062396e+001 131 105 76
9.274966e-001 2.610601e+000 -1.058531e+001 152 125 105
1.219805e+000 2.658482e+000 -1.079060e+001 127 98 70
-5.789794e-001 1.867506e+000 -1.161394e+001 137 73 84
7.840814e-001 2.305438e+000 -1.050979e+001 118 85 74
1.051343e+000 2.527829e+000 -1.062760e+001 120 113 88
1.290495e+000 2.466515e+000 -1.024198e+001 86 94 70
1.498831e+000 2.636342e+000 -1.042739e+001 158 147 129
1.826263e+000 2.554272e+000 -1.020105e+001 95 78 57
1.952877e+000 2.775866e+000 -1.044643e+001 226 221 202
2.007422e+000 2.783124e+000 -1.047113e+001 83 67 55
5.726303e+000 3.319587e+000 -1.113550e+001 198 121 124
-3.181820e+000 1.715460e+000 -8.243977e+000 110 81 52
-3.079362e+000 1.674890e+000 -8.264350e+000 93 66 39
1.063675e+000 2.228913e+000 -1.038216e+001 51 52 38
1.158698e+000 2.192983e+000 -1.027421e+001 53 56 39
1.222480e+000 2.142677e+000 -1.011638e+001 104 105 91
-3.511455e+000 1.349129e+000 -8.215811e+000 117 90 61
-1.337560e+000 1.529939e+000 -9.404491e+000 74 56 42
-1.256168e+000 1.502588e+000 -9.461435e+000 67 49 35
4.357847e-001 2.001259e+000 -9.607537e+000 190 149 147
1.284262e+000 2.055330e+000 -1.007655e+001 98 83 61
1.966038e+000 2.135472e+000 -9.858760e+000 118 111 92
2.008562e+000 2.248795e+000 -9.949634e+000 85 73 52
3.503991e+000 2.197360e+000 -1.123469e+001 106 88 66
3.581694e+000 2.192897e+000 -1.129215e+001 100 82 62
3.575079e+000 2.120102e+000 -1.125674e+001 98 80 60
3.588438e+000 2.080251e+000 -1.122059e+001 77 59 39
3.796061e+000 2.151794e+000 -1.141345e+001 106 87 70
3.787858e+000 2.156896e+000 -1.139074e+001 106 87 70
3.873885e+000 2.165219e+000 -1.145774e+001 104 82 63
3.902973e+000 2.112336e+000 -1.142914e+001 83 62 41
4.005508e+000 2.054814e+000 -1.149248e+001 84 63 44
4.299940e+000 2.111005e+000 -1.185658e+001 104 82 58
1.008157e+000 1.665969e+000 -9.756146e+000 159 122 113
2.230056e+000 2.029064e+000 -9.710133e+000 62 53 35
2.207084e+000 1.913850e+000 -9.658362e+000 90 84 65
3.701207e+000 1.919971e+000 -1.109353e+001 80 61 44
4.378497e+000 1.902231e+000 -1.151749e+001 92 71 51
3.043085e-001 1.388545e+000 -9.109852e+000 152 106 109
1.880263e+000 1.599896e+000 -9.488969e+000 155 136 111
2.189686e+000 1.783179e+000 -9.531035e+000 87 80 61
2.230915e+000 1.649678e+000 -9.327426e+000 87 78 61
2.498133e+000 1.760337e+000 -9.874612e+000 31 27 18
2.522893e+000 1.698423e+000 -9.828191e+000 37 27 22
3.907213e+000 1.764963e+000 -1.104445e+001 105 85 65
3.934450e+000 1.748529e+000 -1.111484e+001 105 85 65
8.761178e-001 1.157000e+000 -9.365758e+000 113 65 49
1.781624e+000 1.478164e+000 -9.337730e+000 156 137 120
3.277459e+000 1.355168e+000 -1.003473e+001 69 52 36
3.590599e+000 1.458764e+000 -1.038404e+001 73 56 40
6.630892e-001 7.347468e-001 -9.391285e+000 119 71 48
9.269342e-001 7.597606e-001 -9.410202e+000 127 97 69
1.268000e+000 6.564655e-001 -9.787386e+000 111 69 53
1.884834e+000 1.274049e+000 -9.189895e+000 145 130 109
4.455185e+000 1.091658e+000 -1.056913e+001 110 88 65
5.088371e-001 7.229620e-001 -9.025778e+000 220 197 182
1.539014e+000 9.084837e-001 -8.779428e+000 190 177 133
2.421345e+000 1.105245e+000 -9.109502e+000 70 65 51
2.393133e+000 1.234465e+000 -8.763038e+000 72 65 49
2.911382e+000 1.147844e+000 -9.115505e+000 32 22 10
4.654892e+000 8.861929e-001 -1.046735e+001 114 93 72
2.044756e+000 7.818008e-001 -8.520664e+000 98 90 67
-1.737667e+000 -1.077480e+000 -1.003882e+001 222 222 226
-1.447360e+000 -9.088792e-001 -9.881559e+000 219 186 177
-9.802097e-002 -1.896905e-001 -8.903971e+000 226 203 191
3.203635e-001 -1.365199e-001 -9.018142e+000 122 78 68
1.955155e+000 5.979908e-001 -8.570934e+000 110 123 95
1.959324e+000 5.143031e-001 -8.472068e+000 124 141 108
2.659686e+000 6.085133e-001 -8.514461e+000 31 26 20
-1.441002e+000 -1.008620e+000 -9.817262e+000 179 140 131
9.433712e-001 -2.735825e-001 -9.348963e+000 189 174 158
1.875128e+000 1.118073e-001 -8.739185e+000 160 144 120
1.818723e+000 1.688937e-002 -8.737428e+000 174 162 139
4.568712e+000 2.171508e-001 -9.821087e+000 75 59 37
1.263179e+000 -6.300783e-001 -9.187966e+000 149 123 90
2.547478e+000 1.811088e-001 -8.560751e+000 59 55 44
2.916001e+000 6.215140e-002 -8.917321e+000 44 38 22
2.916001e+000 6.215140e-002 -8.917321e+000 44 38 22
2.886963e+000 -2.994261e-001 -9.195533e+000 129 122 109
5.309407e+000 -1.452449e+000 -1.114532e+001 217 187 145
5.875682e-001 -2.468280e+000 -1.055400e+001 221 218 210
1.276998e+000 -2.019082e+000 -1.007088e+001 210 211 195
5.827239e+000 -1.272862e+000 -1.001113e+001 228 200 160
4.585596e+000 -3.132439e+000 -1.203650e+001 174 163 159
4.865799e+000 -2.696201e+000 -1.167186e+001 142 134 132
4.830310e+000 -2.802911e+000 -1.169621e+001 199 195 198
3.748837e+000 4.155870e+000 -1.470919e+001 205 135 93
3.810209e+000 4.162873e+000 -1.467586e+001 227 160 115
4.513580e+000 4.310344e+000 -1.351975e+001 207 150 92
-3.733711e+000 2.770244e+000 -8.623069e+000 181 134 136
4.613829e+000 4.141490e+000 -1.337861e+001 216 137 94
2.448167e+000 3.111714e+000 -1.681456e+001 222 159 110
2.715436e+000 3.028338e+000 -1.629831e+001 185 101 77
3.070378e+000 3.280006e+000 -1.581386e+001 164 117 87
-3.942371e+000 2.193136e+000 -8.626599e+000 93 60 46
1.323238e+000 2.944612e+000 -1.096495e+001 242 247 231
4.554121e+000 3.422383e+000 -1.337411e+001 217 179 127
5.546827e+000 3.683797e+000 -1.192865e+001 231 160 130
1.914660e+000 2.855630e+000 -1.053263e+001 57 48 32
-2.465447e+000 2.029505e+000 -8.632680e+000 89 68 51
7.413734e-002 2.175378e+000 -1.026484e+001 197 172 154
7.434928e-001 2.351033e+000 -1.057527e+001 132 95 77
7.418558e-001 2.357195e+000 -1.054589e+001 132 95 77
1.611185e+000 2.612403e+000 -1.045673e+001 135 112 94
2.388939e+000 2.742154e+000 -1.093184e+001 92 81 63
3.414100e+000 2.584049e+000 -1.169667e+001 96 74 52
4.601586e+000 2.715471e+000 -1.304202e+001 189 113 79
4.659723e+000 2.674466e+000 -1.287414e+001 177 111 66
4.823531e+000 2.761898e+000 -1.289365e+001 156 113 96
1.124997e+000 2.147471e+000 -1.016940e+001 103 107 90
1.177679e+000 2.266117e+000 -1.032645e+001 93 97 80
1.718496e+000 2.273260e+000 -1.015765e+001 137 116 95
1.787015e+000 2.254040e+000 -1.016805e+001 75 53 35
2.033508e+000 2.507108e+000 -1.023466e+001 67 55 39
4.103758e+000 2.476203e+000 -1.201060e+001 130 105 83
4.285596e+000 2.525934e+000 -1.230777e+001 134 109 88
-3.602285e+000 1.326441e+000 -8.180068e+000 137 109 79
3.396093e+000 2.275370e+000 -1.129373e+001 84 65 43
4.448538e+000 2.231201e+000 -1.202373e+001 116 91 69
3.095401e-001 1.489042e+000 -9.670458e+000 187 139 137
1.157885e+000 1.621772e+000 -9.912442e+000 98 65 48
2.461639e+000 1.874642e+000 -1.002196e+001 32 25 16
3.927736e+000 1.971763e+000 -1.130658e+001 83 68 45
4.067528e+000 1.822613e+000 -1.116193e+001 95 74 53
2.160921e-001 1.308323e+000 -9.119678e+000 173 143 140
5.705360e-001 1.317767e+000 -9.213334e+000 134 86 84
1.033597e+000 1.405190e+000 -9.645110e+000 114 78 64
1.747623e+000 1.685221e+000 -9.579526e+000 240 237 228
-1.282816e-001 9.863398e-001 -9.587496e+000 186 130 132
2.754109e+000 1.537647e+000 -9.488153e+000 70 59 45
4.828104e+000 1.478035e+000 -1.100380e+001 126 102 76
-1.607196e+000 2.875719e-001 -9.605265e+000 90 68 51
1.952866e+000 1.309360e+000 -9.059153e+000 154 144 126
2.465405e+000 1.301878e+000 -9.059872e+000 72 66 52
1.610902e+000 9.267808e-001 -8.820042e+000 167 152 109
1.648427e+000 8.953060e-001 -8.679448e+000 161 146 113
2.621717e+000 1.063516e+000 -8.714937e+000 40 30 25
4.268737e+000 9.411179e-001 -1.020917e+001 75 54 33
1.363590e+000 3.455290e-001 -9.701506e+000 172 153 139
-9.799944e-001 -7.605860e-001 -9.888586e+000 159 111 109
-9.799944e-001 -7.605860e-001 -9.888586e+000 159 111 109
-8.752097e-001 -6.830820e-001 -9.806804e+000 156 112 111
1.467662e+000 -3.462427e-001 -9.166157e+000 165 140 125
2.288047e+000 1.074187e-001 -8.667428e+000 94 90 79
2.515727e+000 2.594386e-001 -8.544121e+000 48 44 32
4.113588e+000 2.560759e-001 -9.589101e+000 65 48 32
4.290384e+000 2.358650e-001 -9.735836e+000 89 74 55
5.232609e-001 -5.080335e-001 -9.031073e+000 108 76 63
1.590797e+000 -3.841837e-001 -8.930744e+000 110 109 88
8.082249e-001 -1.397271e+000 -9.809955e+000 94 104 72
-8.894763e-002 -2.232080e+000 -1.029708e+001 166 142 91
1.622841e+000 -1.566227e+000 -9.954339e+000 46 39 32
5.175690e+000 -1.727306e+000 -1.130496e+001 208 134 52
5.806975e+000 -1.617393e+000 -1.032158e+001 215 134 46
5.524583e+000 -2.449651e+000 -1.065446e+001 220 143 56
4.181195e+000 4.459558e+000 -1.384067e+001 204 146 109
-3.375813e+000 2.798673e+000 -8.670727e+000 159 110 107
-3.358057e+000 2.829957e+000 -8.728000e+000 125 66 74
-3.301826e+000 2.758526e+000 -8.670330e+000 149 103 103
-3.288379e+000 2.774327e+000 -8.768060e+000 132 82 86
2.177966e+000 3.290808e+000 -1.695301e+001 225 146 108
2.657104e+000 3.399593e+000 -1.657899e+001 205 140 90
4.695111e+000 4.194386e+000 -1.318297e+001 236 158 119
-1.722232e+000 1.446744e+000 -2.231146e+001 187 185 189
9.939411e-001 2.316553e+000 -1.908768e+001 238 179 123
2.820940e+000 3.253581e+000 -1.624702e+001 196 119 84
4.192587e+000 3.659266e+000 -1.423385e+001 215 147 98
2.380134e-001 1.826481e+000 -2.003111e+001 221 150 97
3.958765e+000 3.216082e+000 -1.435586e+001 191 139 92
5.120197e+000 3.583324e+000 -1.238780e+001 225 220 232
-6.840483e-001 1.032367e+000 -2.127193e+001 126 132 144
1.347874e+000 2.743278e+000 -1.067366e+001 146 131 109
2.117123e+000 2.915511e+000 -1.091788e+001 41 33 22
-3.207619e+000 2.077928e+000 -8.218879e+000 138 112 81
-1.971745e+000 -2.681703e-001 -2.277712e+001 204 186 147
-5.097567e-001 1.876243e+000 -1.156916e+001 164 126 127
-3.168030e-003 2.351455e+000 -1.034006e+001 181 140 128
2.493100e-001 2.336502e+000 -1.013832e+001 211 176 174
5.145348e-001 2.377194e+000 -1.060418e+001 214 195 180
7.110648e-001 2.307433e+000 -1.047910e+001 166 142 118
2.517778e+000 2.604605e+000 -1.065002e+001 126 96 49
3.547056e+000 2.591545e+000 -1.173215e+001 103 78 56
4.370515e+000 2.583622e+000 -1.251290e+001 91 69 46
2.468069e+000 2.460532e+000 -1.055016e+001 66 53 38
4.210092e+000 2.341249e+000 -1.185003e+001 133 111 88
1.780178e+000 2.117574e+000 -1.003063e+001 82 56 31
2.144600e+000 2.090410e+000 -9.701400e+000 68 56 41
3.461678e+000 2.030610e+000 -1.102817e+001 84 65 48
9.127875e-001 1.729504e+000 -9.848907e+000 145 107 99
2.607079e+000 1.993858e+000 -9.926465e+000 57 44 25
3.075814e+000 1.891085e+000 -1.061258e+001 60 41 26
4.475444e+000 1.917175e+000 -1.168755e+001 90 69 48
-2.559772e-001 1.101316e+000 -1.016826e+001 158 101 112
1.479963e+000 1.553743e+000 -9.972536e+000 128 96 73
1.676624e+000 1.578978e+000 -9.577093e+000 183 164 143
1.787505e+000 1.038527e+000 -8.979221e+000 133 125 104
2.161062e+000 1.062204e+000 -8.873711e+000 142 124 100
3.037386e+000 1.083139e+000 -9.149639e+000 66 58 44
1.915987e+000 6.546910e-001 -8.590504e+000 117 131 102
1.915987e+000 6.546910e-001 -8.590504e+000 117 131 102
2.948550e+000 7.386487e-001 -8.823764e+000 236 234 218
2.974571e+000 6.305379e-001 -8.870007e+000 253 253 243
3.035434e+000 6.434956e-001 -8.867126e+000 43 39 28
1.906732e-001 -2.405486e-001 -8.645210e+000 149 113 107
2.137308e+000 2.657706e-001 -8.570582e+000 130 116 88
2.930755e+000 3.811601e-001 -8.782770e+000 104 104 94
4.641244e+000 -4.272362e-001 -1.011346e+001 106 88 66
4.895108e+000 -4.244374e-001 -1.022405e+001 128 110 88
-4.652674e-001 -2.159398e+000 -1.057110e+001 179 152 105
9.063059e-001 -1.497030e+000 -9.752701e+000 193 192 176
5.181839e+000 -1.532628e+000 -1.136144e+001 183 87 49
-2.892711e-001 -3.878881e+000 -1.194416e+001 174 162 146
4.891070e+000 -2.760008e+000 -1.154644e+001 205 166 145
5.806050e+000 -1.320057e+000 -9.942496e+000 70 51 40
4.457001e+000 4.381133e+000 -1.362895e+001 230 176 114
2.749685e+000 3.377068e+000 -1.634075e+001 229 186 143
4.179776e+000 3.815427e+000 -1.415087e+001 202 134 92
4.629096e+000 4.099416e+000 -1.324301e+001 236 164 113
-4.127692e+000 2.440352e+000 -8.910137e+000 117 41 51
-4.401195e-001 1.828751e+000 -2.079295e+001 213 219 230
5.779093e-001 2.462255e+000 -1.924910e+001 214 140 75
9.907751e-001 2.760434e+000 -1.877541e+001 220 131 87
9.907751e-001 2.760434e+000 -1.877541e+001 220 131 87
9.296619e-001 2.457072e+000 -1.915405e+001 223 132 88
-2.670615e-001 1.688143e+000 -2.079775e+001 219 164 98
4.073296e-001 1.511492e+000 -1.984058e+001 231 164 98
7.808569e-001 2.164618e+000 -1.932875e+001 232 181 136
3.338678e+000 3.053379e+000 -1.538450e+001 96 117 102
-3.180424e+000 2.253578e+000 -8.305557e+000 116 90 57
-3.180424e+000 2.253578e+000 -8.305557e+000 116 90 57
1.727815e+000 2.923731e+000 -1.111602e+001 78 68 59
3.000469e+000 2.671636e+000 -1.154032e+001 122 100 77
4.911359e+000 2.697365e+000 -1.267302e+001 150 82 69
-3.744741e+000 1.488513e+000 -8.313670e+000 161 131 98
2.274522e+000 2.463565e+000 -1.052913e+001 37 32 20
2.596239e+000 2.460143e+000 -1.073932e+001 118 91 44
3.237718e+000 2.485124e+000 -1.135668e+001 124 104 83
4.124775e+000 2.546912e+000 -1.208326e+001 100 73 54
-3.698982e+000 1.266088e+000 -8.199591e+000 137 107 76
3.535488e-001 1.767445e+000 -9.545947e+000 217 192 181
-3.574438e+000 1.241340e+000 -8.160159e+000 156 133 101
1.293069e+000 1.687551e+000 -9.913265e+000 140 112 91
1.671914e-001 1.230354e+000 -9.203400e+000 193 175 165
1.752309e+000 1.539820e+000 -9.457468e+000 170 154 130
-1.739770e+000 7.707694e-001 -9.212747e+000 98 88 76
1.176777e+000 9.438888e-001 -9.815546e+000 126 89 73
1.176777e+000 9.438888e-001 -9.815546e+000 126 89 73
4.753667e+000 1.300734e+000 -1.116633e+001 130 108 87
4.746345e+000 1.044885e+000 -1.070390e+001 89 67 44
1.893337e+000 9.272960e-001 -8.919406e+000 169 157 141
2.143700e+000 1.131310e+000 -8.936796e+000 89 66 45
2.506669e+000 9.890039e-001 -8.658396e+000 43 39 30
3.188512e+000 8.058121e-001 -8.926194e+000 41 31 22
1.789194e+000 1.668556e-001 -8.646171e+000 127 105 81
4.079371e-001 -6.460819e-001 -9.108370e+000 141 100 96
5.089665e-001 -2.382781e+000 -1.047805e+001 134 105 76
7.632750e-001 -1.895471e+000 -1.000599e+001 169 154 133
4.393690e+000 -2.905410e+000 -1.235831e+001 179 97 51
3.261000e+000 -4.535598e+000 -1.356367e+001 201 142 62
3.743701e+000 -4.168421e+000 -1.322763e+001 205 143 61
3.314093e+000 -5.112137e+000 -1.370363e+001 193 113 55
4.360363e+000 4.412158e+000 -1.368012e+001 214 142 103
4.571938e+000 4.343146e+000 -1.341925e+001 236 198 112
2.466581e+000 3.542961e+000 -1.662202e+001 205 125 92
2.806501e+000 3.608970e+000 -1.596107e+001 214 153 99
3.737596e+000 4.009282e+000 -1.477345e+001 227 176 100
4.768392e+000 4.111717e+000 -1.286027e+001 232 182 117
6.891446e-001 2.315244e+000 -1.930427e+001 215 126 81
4.410698e+000 3.906740e+000 -1.348362e+001 228 179 101
-4.811289e-001 1.356915e+000 -2.119970e+001 204 202 216
-1.065143e-001 1.573113e+000 -2.059464e+001 234 180 117
-1.114870e-001 1.652513e+000 -2.000261e+001 234 180 117
2.364480e-001 1.577879e+000 -1.998216e+001 213 103 83
2.364480e-001 1.577879e+000 -1.998216e+001 213 103 83
4.440934e-001 1.704474e+000 -1.975079e+001 214 113 89
-3.357353e+000 2.213980e+000 -8.305772e+000 115 84 53
2.321473e-001 1.307606e+000 -2.018976e+001 229 160 101
2.321473e-001 1.307606e+000 -2.018976e+001 229 160 101
7.378361e-001 2.532437e+000 -1.090014e+001 160 130 92
4.484191e+000 2.803915e+000 -1.362381e+001 210 152 91
1.421230e+000 2.461895e+000 -1.031207e+001 131 113 95
3.134291e+000 2.637178e+000 -1.151254e+001 97 73 49
1.319817e+000 2.292859e+000 -1.017795e+001 112 115 93
4.125742e+000 2.207449e+000 -1.169330e+001 129 106 90
1.833058e+000 1.525411e+000 -9.397575e+000 238 239 234
3.373116e+000 1.683765e+000 -1.046840e+001 99 83 64
3.373116e+000 1.683765e+000 -1.046840e+001 99 83 64
4.542116e+000 1.064748e+000 -1.053831e+001 128 106 84
1.448955e+000 6.158270e-001 -9.201480e+000 193 180 108
1.616049e+000 7.491272e-001 -8.810077e+000 205 199 166
1.579286e+000 6.331131e-001 -8.956651e+000 165 139 78
5.421888e+000 -2.471401e-002 -1.026888e+001 177 155 134
7.847159e-001 -1.108491e+000 -9.691052e+000 92 100 79
3.158634e-001 -1.923695e+000 -1.031098e+001 157 130 102
-1.082682e-001 -2.205751e+000 -1.037816e+001 156 120 67
4.771583e+000 -2.351021e+000 -1.192835e+001 230 178 79
5.281188e+000 -1.939888e+000 -1.112194e+001 224 186 114
7.708965e-001 2.792612e+000 -1.823160e+001 238 200 147
1.449418e+000 3.173166e+000 -1.811484e+001 237 186 126
-4.077630e+000 2.346850e+000 -8.765165e+000 194 142 139
-3.861726e+000 2.294133e+000 -8.514443e+000 173 135 120
-1.673210e+000 7.062616e-001 -2.289405e+001 121 125 135
-1.673210e+000 7.062616e-001 -2.289405e+001 121 125 135
-4.660700e-001 1.612747e+000 -2.093629e+001 206 215 224
-1.930974e+000 -4.860696e-002 -2.295649e+001 214 211 194
9.640133e-001 2.810673e+000 -1.064966e+001 190 183 165
5.794137e+000 3.095151e+000 -1.092537e+001 103 108 104
5.794137e+000 3.095151e+000 -1.092537e+001 103 108 104
1.115775e+000 1.595426e+000 -9.911739e+000 99 61 42
3.130837e+000 1.915957e+000 -1.077954e+001 74 55 39
3.802954e+000 1.530951e+000 -1.059690e+001 76 60 44
5.129532e+000 1.244613e+000 -1.118058e+001 165 144 124
1.161029e+000 5.017885e-001 -9.758135e+000 118 75 56
2.150545e+000 6.465408e-001 -8.646467e+000 93 71 48
3.790858e-001 -8.516581e-001 -9.235595e+000 213 196 186
3.532038e+000 -4.286217e-001 -9.600625e+000 71 55 37
5.638265e+000 -8.166030e-001 -1.055087e+001 209 126 42
4.176026e+000 -2.278905e+000 -1.165872e+001 180 156 129
4.278131e+000 4.272718e+000 -1.387637e+001 235 187 121
-3.613553e+000 2.824464e+000 -8.671296e+000 187 144 138
-3.031418e+000 2.683271e+000 -8.729770e+000 119 93 66
-7.075642e-001 1.907724e+000 -2.074221e+001 143 151 163
-2.004430e+000 8.372401e-001 -2.224065e+001 217 187 149
8.530720e-001 2.812928e+000 -1.102386e+001 171 139 76
1.168111e+000 2.898880e+000 -1.105798e+001 138 112 82
4.218672e-001 2.329802e+000 -1.028227e+001 154 102 98
1.336959e+000 1.394068e+000 -9.904364e+000 96 64 43
3.243040e+000 1.647124e+000 -1.042946e+001 64 47 31
1.315973e+000 7.362239e-001 -9.879357e+000 105 70 50
1.349288e+000 3.645048e-001 -9.781650e+000 163 144 130
4.319183e+000 4.740281e-001 -9.722154e+000 116 99 84
2.282585e+000 1.615145e-001 -8.761560e+000 35 29 22
2.407023e+000 2.004204e-001 -8.637753e+000 125 128 110
1.716613e+000 -4.447712e-001 -8.972919e+000 191 186 171
1.396510e+000 -1.500355e+000 -9.756133e+000 29 27 23
4.931989e+000 -1.818732e+000 -1.138298e+001 235 190 97
4.866093e+000 3.831142e+000 -1.282979e+001 228 224 230
1.157066e+000 2.803570e+000 -1.069338e+001 140 109 79
1.157066e+000 2.803570e+000 -1.069338e+001 140 109 79
1.937232e+000 2.722045e+000 -1.057694e+001 92 79 57
9.054263e-001 1.898469e+000 -9.940273e+000 128 84 71
1.253869e-001 1.358254e+000 -9.594736e+000 163 107 110
8.400688e-001 -4.255580e-001 -9.459314e+000 102 69 51
3.378944e+000 3.449073e+000 -1.543177e+001 77 83 75
3.378944e+000 3.449073e+000 -1.543177e+001 77 83 75
4.610307e+000 3.402016e+000 -1.334928e+001 210 147 95
-3.877495e+000 1.973891e+000 -8.493361e+000 169 138 106
1.631466e+000 2.775102e+000 -1.044453e+001 58 44 35
2.956712e+000 2.692543e+000 -1.208147e+001 99 77 56
3.368325e+000 1.528606e+000 -1.046636e+001 70 53 37
-1.686982e+000 6.276495e-001 -9.305915e+000 94 83 71
2.738330e+000 6.512933e-001 -8.570232e+000 30 25 21
5.873372e-001 -1.516578e+000 -9.875376e+000 197 186 168
-3.607982e+000 2.434231e+000 -8.439358e+000 75 48 33
5.037180e+000 3.445296e+000 -1.260906e+001 195 101 102
-3.422653e+000 1.979717e+000 -8.223725e+000 147 123 86
1.604445e+000 5.582459e-001 -8.907012e+000 188 180 152
1.608222e+000 5.421554e-001 -8.938652e+000 188 180 152
3.059488e+000 3.518406e+000 -1.651570e+001 222 177 115
-3.153377e+000 2.375903e+000 -8.388819e+000 123 99 65
-1.505444e+000 1.089070e+000 -9.257041e+000 202 193 176
5.781502e+000 7.195887e-001 -1.048497e+001 225 215 213
5.097065e+000 -1.659101e+000 -1.122259e+001 209 126 58
5.730787e+000 2.613961e+000 -1.141149e+001 160 69 71
5.646889e-001 -1.766201e-001 -8.877149e+000 120 79 71
6.002557e+000 1.281123e+000 -1.158217e+001 215 209 214
4.721871e+000 2.690346e+000 -1.297580e+001 195 132 88
4.629841e+000 -3.199532e+000 -1.199102e+001 223 209 201
1.311779e+000 2.016104e+000 -9.983344e+000 215 194 164
1.021088e+000 -6.212932e-001 -9.497179e+000 199 175 147
3.299199e-001 -1.018414e+000 -9.395084e+000 179 128 125
-1.451699e+000 -8.580149e-001 -9.958956e+000 197 154 136
8.265841e-001 -1.546282e+000 -9.860367e+000 211 194 166
2.795825e+000 -1.979482e+000 -1.096834e+001 75 53 34
4.415131e+000 -3.353531e+000 -1.223564e+001 232 165 74
2.054681e-001 -2.656327e+000 -1.048009e+001 206 183 149
2.019407e+000 -2.997039e+000 -1.178247e+001 76 55 34
4.302799e+000 -3.624449e+000 -1.238576e+001 132 111 86
3.029832e+000 -5.555189e-001 -9.595829e+000 140 119 99
5.325973e+000 -1.290118e+000 -1.109301e+001 199 113 66
9.233053e-001 -1.763849e+000 -9.956503e+000 194 169 141
4.054528e+000 -3.603277e+000 -1.283122e+001 225 182 68
4.220635e+000 -3.665605e+000 -1.242449e+001 221 188 149
4.301382e+000 -3.743015e+000 -1.236275e+001 226 214 205
4.128571e+000 -3.915831e+000 -1.258987e+001 229 210 198
4.106345e+000 -4.043679e+000 -1.262753e+001 229 207 201
4.029528e+000 -4.162904e+000 -1.272922e+001 227 209 202
5.572086e+000 3.269343e+000 -1.132956e+001 187 94 91
-1.828850e+000 -5.668742e-001 -1.083608e+001 226 187 161
4.937462e+000 -2.187623e+000 -1.165636e+001 188 66 55
3.057192e+000 -3.534958e+000 -1.275854e+001 110 76 48
3.065571e+000 -3.532476e+000 -1.278024e+001 110 76 48
5.011446e+000 -2.325026e+000 -1.145022e+001 230 211 195
3.652226e+000 -2.580376e+000 -1.188304e+001 130 98 73
4.308005e+000 -3.489773e+000 -1.237342e+001 196 98 51
1.880994e+000 -3.401124e+000 -1.222014e+001 79 57 36
4.021339e+000 -4.293212e+000 -1.273030e+001 156 66 50
3.603471e+000 -2.740252e+000 -1.195969e+001 136 109 82
6.316880e-002 -2.592731e+000 -1.061112e+001 219 195 150
3.933038e+000 -3.460719e+000 -1.309097e+001 123 69 33
5.616671e+000 3.130888e+000 -1.146255e+001 176 92 90
5.489348e+000 2.939789e+000 -1.152410e+001 203 194 193
6.922526e-001 1.619006e+000 -9.412071e+000 166 129 120
7.778657e-001 1.148772e+000 -9.320225e+000 157 113 103
1.831194e+000 5.605513e-001 -8.658350e+000 145 146 115
-6.769098e-001 -9.302335e-001 -9.235380e+000 187 144 145
2.248857e+000 1.957967e+000 -9.691878e+000 93 84 65
5.521233e+000 1.374208e+000 -1.132986e+001 228 182 189
5.011314e+000 -2.242369e+000 -1.152814e+001 205 178 155
-4.866421e-001 1.885882e+000 -1.151966e+001 172 129 131
-4.652030e-001 1.844984e+000 -1.152315e+001 154 98 105
4.333284e-001 1.871309e+000 -9.501822e+000 213 172 172
4.188378e+000 2.188087e+000 -1.168674e+001 139 115 91
4.157149e+000 2.136813e+000 -1.160174e+001 138 114 88
5.671519e+000 1.330065e+000 -1.104617e+001 225 221 222
4.537913e+000 2.352022e-001 -9.827111e+000 106 85 66
-5.188361e-001 -7.177555e-001 -9.423918e+000 181 117 117
5.236618e+000 -1.833704e+000 -1.115811e+001 221 215 201
5.162799e+000 -2.048587e+000 -1.116404e+001 204 196 194
5.314578e+000 -1.814765e+000 -1.094787e+001 219 157 54
5.117707e+000 3.723814e+000 -1.244012e+001 238 178 155
2.981380e+000 2.033423e+000 -1.082659e+001 125 104 83
4.731980e+000 2.034851e+000 -1.190849e+001 148 122 100
2.409392e+000 3.218594e-001 -8.506871e+000 170 155 136
-3.784883e+000 2.437879e+000 -8.456236e+000 157 113 100
2.234558e-001 2.100387e+000 -1.011715e+001 224 183 161
6.793690e-001 1.325719e+000 -9.385345e+000 158 100 88
2.339712e+000 9.010515e-002 -8.631136e+000 169 155 125
2.455388e+000 1.433515e-001 -8.588790e+000 75 60 41
-3.565462e+000 1.796033e+000 -8.228921e+000 135 101 64
-3.089444e+000 1.721382e+000 -8.309408e+000 111 80 51
-3.105297e+000 1.668566e+000 -8.279430e+000 132 103 74
2.919069e-001 8.644622e-001 -9.015921e+000 188 149 127
6.048190e-001 7.512555e-001 -9.118377e+000 178 134 110
1.627941e+000 4.109855e-001 -8.881941e+000 166 145 106
1.578302e+000 2.924090e-001 -9.007066e+000 120 117 84
2.897215e+000 -9.372699e-002 -9.008911e+000 117 103 84
-3.353291e+000 1.428728e+000 -8.241489e+000 117 84 53
1.736369e-001 8.736749e-001 -9.237249e+000 210 168 143
1.436643e+000 4.166533e-002 -9.033911e+000 93 92 65
1.609391e+000 -1.234365e-001 -8.719535e+000 129 122 84
1.607062e+000 -4.817747e-001 -9.079400e+000 240 225 202
3.506278e+000 -3.262994e-001 -9.951413e+000 102 74 53
-4.011414e+000 1.525087e+000 -8.770823e+000 150 119 88
-2.985603e+000 1.031454e+000 -8.917115e+000 149 132 117
-1.783709e+000 7.822816e-001 -9.367441e+000 96 74 52
8.195854e-003 -3.066992e-001 -8.689300e+000 210 173 148
1.472100e+000 -5.833908e-001 -9.216353e+000 164 134 105
-3.449982e+000 1.065070e+000 -9.270230e+000 120 99 86
-3.275845e+000 9.575431e-001 -9.058084e+000 195 171 151
-1.421350e+000 4.928617e-001 -9.320618e+000 103 76 55
-3.932408e-001 2.694511e-001 -9.586549e+000 164 117 100
-2.502126e-001 -3.872156e-001 -9.088138e+000 211 174 154
-2.409586e-001 -4.313768e-001 -9.040332e+000 182 146 122
1.127086e+000 -6.112164e-001 -9.411124e+000 169 138 109
1.092522e+000 -6.343066e-001 -9.489337e+000 196 163 130
1.228874e+000 -7.427414e-001 -9.473350e+000 197 163 119
1.251760e+000 -7.825280e-001 -9.395987e+000 181 152 125
1.229197e+000 -8.533195e-001 -9.360266e+000 228 204 171
-1.865754e+000 5.007193e-001 -9.926273e+000 111 84 63
-1.485978e+000 1.367962e-001 -9.732896e+000 106 70 51
-1.485364e+000 1.432795e-001 -9.741584e+000 106 70 51
-2.896904e-001 -4.789204e-001 -9.059564e+000 207 161 145
-2.027401e-001 -6.678969e-001 -8.896471e+000 214 175 158
1.049728e+000 -7.995422e-001 -9.541084e+000 216 191 161
8.978794e-001 -8.584443e-001 -9.669079e+000 138 111 84
1.021199e+000 -8.878370e-001 -9.697555e+000 191 168 137
1.354869e+000 -1.024405e+000 -9.356269e+000 240 224 205
1.785381e+000 -1.188513e+000 -9.798973e+000 69 56 43
5.347388e+000 -1.490894e+000 -1.105128e+001 120 100 92
5.350862e+000 -1.490378e+000 -1.105396e+001 120 100 92
-2.009650e+000 3.730438e-001 -1.002943e+001 116 87 66
-1.759571e+000 2.270413e-001 -1.020608e+001 105 83 60
-1.669551e+000 1.430816e-001 -1.009192e+001 140 99 89
-1.597136e+000 1.093694e-001 -1.000277e+001 150 114 100
-1.598790e+000 1.102441e-001 -1.000176e+001 150 114 100
-3.630264e-001 -4.154580e-001 -9.777273e+000 143 83 73
-8.239862e-002 -8.400922e-001 -9.469973e+000 159 118 99
-3.748244e-002 -9.568451e-001 -9.291273e+000 197 160 143
-4.617959e-002 -1.004150e+000 -9.431264e+000 216 173 159
-4.716034e-003 -1.030961e+000 -9.318959e+000 158 116 103
1.291958e+000 -1.241562e+000 -9.401011e+000 177 150 116
1.757265e+000 -1.313107e+000 -9.824328e+000 57 41 28
-8.040936e-001 -9.425569e-001 -9.328807e+000 196 152 141
-7.840524e-001 -1.024106e+000 -9.237789e+000 205 161 149
-7.272980e-001 -9.737673e-001 -9.265030e+000 222 175 166
-7.860539e-001 -1.112344e+000 -9.232781e+000 157 96 88
-4.733539e-002 -1.167042e+000 -9.483032e+000 171 128 116
8.741609e-001 -1.296668e+000 -9.775019e+000 82 77 48
7.448696e-001 -1.399361e+000 -9.759677e+000 120 121 85
5.086186e+000 -2.163880e+000 -1.134889e+001 165 146 133
5.033791e+000 -2.210538e+000 -1.145658e+001 168 144 134
-1.838807e+000 -2.788024e-001 -1.073977e+001 205 154 132
-1.682586e+000 -5.131358e-002 -1.071477e+001 186 144 122
-9.231369e-001 -1.161185e+000 -9.325687e+000 208 175 166
7.737385e-001 -1.454774e+000 -1.006628e+001 158 125 93
7.737385e-001 -1.454774e+000 -1.006628e+001 158 125 93
7.453307e-001 -1.697447e+000 -1.002190e+001 218 193 167
9.952048e-001 -1.640167e+000 -9.865395e+000 169 137 104
1.073622e+000 -1.704418e+000 -9.840422e+000 196 170 140
1.347159e+000 -2.000757e+000 -9.889588e+000 78 66 43
1.517002e+000 -1.945447e+000 -9.920307e+000 73 59 48
-1.798223e+000 -4.120810e-001 -1.075888e+001 216 168 148
-1.796989e+000 -4.100162e-001 -1.076298e+001 216 168 148
-1.772209e+000 -5.059162e-001 -1.078157e+001 218 178 153
-1.450388e+000 -1.083928e+000 -9.860366e+000 193 151 133
-1.283143e+000 -1.117671e+000 -9.877985e+000 165 104 89
-1.293651e+000 -1.243757e+000 -9.881998e+000 219 166 155
-1.329765e+000 -1.268459e+000 -9.876483e+000 166 114 103
-1.263291e+000 -1.279136e+000 -9.900052e+000 184 132 121
-2.829227e-001 -1.447708e+000 -1.008684e+001 167 120 103
5.536570e-001 -1.602505e+000 -1.021826e+001 173 134 104
4.634589e-001 -1.751471e+000 -1.021195e+001 181 151 123
5.115322e-001 -1.721509e+000 -1.026943e+001 199 167 139
6.354406e-001 -1.784698e+000 -1.012586e+001 211 190 164
8.107435e-001 -2.032639e+000 -1.003789e+001 214 193 168
-1.331825e+000 -1.419387e+000 -1.030800e+001 191 132 130
-6.278236e-001 -1.531997e+000 -1.044590e+001 184 143 127
1.467294e-001 -1.723358e+000 -1.043352e+001 166 134 87
7.582728e-001 -2.297859e+000 -1.023514e+001 201 174 144
8.109175e-001 -2.434980e+000 -1.044562e+001 126 93 69
9.683443e-001 -2.432620e+000 -1.061776e+001 76 57 43
4.611450e+000 -3.178451e+000 -1.198125e+001 230 200 140
-3.183729e-001 -4.534586e+000 -4.021409e+000 227 209 184
-6.475561e-001 -1.749406e+000 -1.114784e+001 165 138 112
-3.454948e-001 -2.165976e+000 -1.037647e+001 208 175 123
-1.405972e-001 -2.370505e+000 -1.050024e+001 205 164 107
1.769368e-001 -2.536553e+000 -1.034052e+001 210 185 146
1.432239e+000 -2.597964e+000 -1.109937e+001 212 206 177
4.327692e+000 -3.575185e+000 -1.236910e+001 160 132 124
5.070747e-002 -2.691912e+000 -1.057957e+001 221 193 145
1.407403e-002 -2.770740e+000 -1.071681e+001 215 189 140
1.239777e+000 -2.831791e+000 -1.129820e+001 113 99 70
-3.790698e-001 -2.633575e+000 -1.077895e+001 189 159 113
3.337487e-001 -2.982241e+000 -1.099104e+001 159 126 99
1.125822e-001 -2.932476e+000 -1.137325e+001 171 143 113
2.192789e-001 -3.060398e+000 -1.113156e+001 165 135 107
5.981767e-001 -2.974464e+000 -1.118946e+001 189 177 151
3.440940e-001 -3.253974e+000 -1.106461e+001 146 117 86
5.099611e-001 -3.132794e+000 -1.132448e+001 89 79 59
5.099611e-001 -3.132794e+000 -1.132448e+001 89 79 59
4.016212e+000 -4.203585e+000 -1.274447e+001 132 115 99
4.018566e+000 -4.227381e+000 -1.269641e+001 200 164 165
7.235010e-001 -3.433908e+000 -1.196644e+001 46 35 31
5.716620e+000 1.541528e+000 -1.121666e+001 234 163 159
-2.947642e+000 2.161689e+000 -8.392748e+000 130 102 78
5.628166e+000 3.399578e-001 -1.050561e+001 191 156 128
-3.987867e+000 2.479429e+000 -8.720879e+000 200 145 134
1.604318e+000 4.415308e-001 -8.943267e+000 188 172 136
2.431314e+000 -1.258686e-001 -8.745061e+000 88 72 58
-3.887753e+000 1.875895e+000 -8.472443e+000 138 103 73
2.394946e-001 8.018508e-001 -9.217635e+000 203 162 137
4.466655e-001 7.025258e-001 -9.130197e+000 197 153 128
7.376801e-001 6.061603e-001 -9.412336e+000 140 93 67
1.050573e+000 7.431560e-001 -9.574071e+000 176 136 106
-4.084769e+000 1.702571e+000 -8.802201e+000 96 70 52
-4.084769e+000 1.702571e+000 -8.802201e+000 96 70 52
-3.600739e+000 1.220679e+000 -8.227146e+000 128 96 64
-3.580000e+000 1.205004e+000 -8.271627e+000 119 82 53
2.582243e+000 -4.679155e-001 -9.229585e+000 97 85 68
-2.948067e+000 1.063740e+000 -8.850624e+000 59 57 52
-2.845409e+000 1.010625e+000 -8.839789e+000 172 151 134
-1.671415e+000 7.096304e-001 -9.211058e+000 123 99 71
3.825317e-001 -3.351545e-001 -8.814890e+000 180 143 125
1.480268e+000 -5.911854e-001 -9.162290e+000 200 176 150
1.594554e+000 -5.146100e-001 -9.089002e+000 193 176 151
1.646265e+000 -6.349120e-001 -9.082411e+000 168 137 108
5.525358e+000 -1.022160e+000 -1.081429e+001 102 82 73
-3.895257e+000 1.167875e+000 -9.326451e+000 95 67 48
-1.753158e-001 -5.819207e-001 -8.844281e+000 196 159 143
-1.984078e-001 -5.354290e-001 -8.952218e+000 232 197 177
9.416719e-001 -6.056713e-001 -9.502033e+000 188 156 134
1.914956e+000 -9.349696e-001 -9.550548e+000 239 233 204
2.404837e+000 -9.927491e-001 -9.794001e+000 55 37 23
4.185929e+000 -1.103615e+000 -1.060149e+001 100 70 46
-2.882576e+000 5.319183e-001 -9.274711e+000 144 86 62
-1.844276e+000 4.108124e-001 -9.716964e+000 111 86 66
-1.730202e-001 -6.730204e-001 -8.916076e+000 188 149 136
-1.709723e-001 -8.487512e-001 -9.007273e+000 187 143 130
1.415033e+000 -1.003429e+000 -9.428414e+000 190 172 148
1.815925e+000 -1.203293e+000 -9.708551e+000 57 44 28
-3.770760e-001 -1.004797e+000 -9.214382e+000 198 143 130
-6.676467e-002 -9.760290e-001 -9.455147e+000 171 127 114
-6.757824e-002 -9.757274e-001 -9.454941e+000 171 127 114
1.745146e+000 -1.264722e+000 -9.715613e+000 97 81 65
-2.053694e+000 3.914892e-001 -1.055445e+001 125 87 76
-7.958629e-001 -5.023441e-001 -9.861583e+000 208 169 154
-6.634076e-001 -9.445315e-001 -9.231857e+000 193 140 127
-6.634076e-001 -9.445315e-001 -9.231857e+000 193 140 127
-4.139208e-001 -1.107153e+000 -9.407753e+000 154 110 101
8.888255e-001 -1.351135e+000 -9.763392e+000 130 110 81
1.305245e+000 -1.459648e+000 -9.683556e+000 120 86 59
1.647536e+000 -1.501076e+000 -9.988404e+000 213 204 179
1.592021e+000 -1.563814e+000 -9.951309e+000 100 85 64
5.029538e+000 -2.358295e+000 -1.126907e+001 226 185 170
-1.972064e+000 -2.400732e-001 -1.064045e+001 226 179 153
5.545585e-001 -1.498894e+000 -1.016290e+001 168 144 120
8.319608e-001 -1.635018e+000 -9.847747e+000 209 188 158
5.030770e+000 -2.431002e+000 -1.137160e+001 222 174 169
-1.932228e+000 -3.095632e-001 -1.073285e+001 214 158 135
-1.528107e+000 -9.746115e-001 -9.932592e+000 225 184 166
-1.669790e+000 -1.059466e+000 -9.926898e+000 235 198 182
-1.414238e+000 -1.071811e+000 -9.877013e+000 212 166 146
-3.105677e-001 -1.428002e+000 -1.010651e+001 139 90 73
7.120325e-001 -1.787970e+000 -1.007907e+001 223 196 168
7.938959e-001 -1.847204e+000 -1.013160e+001 187 156 125
1.101271e+000 -2.133345e+000 -1.009708e+001 148 140 121
1.300205e+000 -2.077018e+000 -9.874984e+000 60 51 34
1.315094e+000 -2.034511e+000 -9.990553e+000 243 234 203
-1.766889e+000 -1.039211e+000 -1.009261e+001 229 180 172
-1.596547e+000 -1.071982e+000 -1.073376e+001 187 153 133
-1.060757e+000 -1.448852e+000 -1.018638e+001 175 127 113
-1.088137e+000 -1.478971e+000 -1.020675e+001 172 124 112
4.959701e-001 -2.034841e+000 -1.021239e+001 203 175 144
1.389450e+000 -2.256264e+000 -1.021766e+001 77 66 48
1.487768e+000 -2.283741e+000 -1.016660e+001 70 57 40
1.449128e+000 -2.412918e+000 -1.037813e+001 56 39 26
2.507850e+000 -2.376858e+000 -1.112648e+001 86 64 43
-1.403336e+000 -1.437471e+000 -1.034127e+001 167 131 109
6.518091e-001 -2.324726e+000 -1.035490e+001 215 191 161
3.707413e+000 -2.916761e+000 -1.228674e+001 113 79 49
-6.377109e-001 -1.813018e+000 -1.144103e+001 161 119 87
-2.194700e-001 -2.390112e+000 -1.043165e+001 197 159 97
9.570304e-001 -2.666319e+000 -1.089801e+001 60 47 38
1.428008e+000 -2.772476e+000 -1.111125e+001 65 48 32
-6.490159e-001 -1.971228e+000 -1.149762e+001 191 163 131
-7.038868e-001 -2.155475e+000 -1.172122e+001 175 138 115
-5.400707e-001 -2.299065e+000 -1.123315e+001 198 169 110
1.069362e-001 -2.595434e+000 -1.054075e+001 224 197 148
1.314315e-001 -2.605568e+000 -1.050224e+001 205 180 133
1.298840e-001 -2.605653e+000 -1.050023e+001 205 180 133
7.623917e-002 -2.624016e+000 -1.059736e+001 226 199 152
1.909154e-001 -2.817465e+000 -1.061380e+001 222 201 174
1.908987e-001 -2.815026e+000 -1.061846e+001 222 201 174
1.814036e-001 -2.845390e+000 -1.063436e+001 202 179 154
1.292939e+000 -2.804329e+000 -1.126437e+001 216 203 177
1.292939e+000 -2.804329e+000 -1.126437e+001 216 203 177
-5.365512e-001 -2.478645e+000 -1.119075e+001 105 81 53
-4.603827e-001 -2.573240e+000 -1.084025e+001 164 128 89
-6.113106e-001 -2.449131e+000 -1.182516e+001 131 123 92
-3.486224e-001 -2.688860e+000 -1.092099e+001 209 173 121
-3.615384e-001 -2.705124e+000 -1.085744e+001 209 173 121
1.123366e+000 -3.069851e+000 -1.170991e+001 91 77 48
1.075575e+000 -3.186848e+000 -1.173265e+001 219 207 180
1.496360e-001 -3.105653e+000 -1.130909e+001 182 154 130
1.240702e-001 -3.299925e+000 -1.125245e+001 196 168 136
1.006957e+000 -3.374041e+000 -1.174844e+001 239 234 212
-3.619853e-001 -2.983243e+000 -1.183464e+001 117 112 82
3.598657e-001 -3.520480e+000 -1.149473e+001 88 72 57
-3.528179e+000 2.275838e+000 -8.339023e+000 142 111 86
-2.635800e+000 2.100560e+000 -8.604118e+000 86 60 43
1.283843e+000 1.742860e+000 -1.003328e+001 189 152 125
1.535916e+000 8.936284e-001 -8.914319e+000 208 181 135
1.569695e+000 7.200008e-001 -8.940044e+000 205 172 94
-3.609381e+000 2.028323e+000 -8.304044e+000 160 124 88
-3.609381e+000 2.028323e+000 -8.304044e+000 160 124 88
1.895150e+000 7.268483e-003 -8.585626e+000 216 198 176
2.917947e+000 -1.078917e-001 -9.036149e+000 254 250 231
3.888541e+000 -1.898422e-001 -9.613717e+000 98 74 50
-4.126557e+000 2.261163e+000 -8.840718e+000 200 152 140
-1.742571e-001 6.597381e-001 -9.151394e+000 187 151 126
3.168377e-001 6.053809e-001 -9.339038e+000 160 108 84
1.543195e+000 -5.754109e-002 -8.869033e+000 115 116 82
1.621702e+000 -2.540000e-001 -8.813723e+000 154 136 106
-3.628309e+000 1.263670e+000 -8.248691e+000 187 157 121
1.783364e+000 -3.667069e-001 -8.936929e+000 169 143 116
5.595875e+000 -8.716069e-001 -1.073875e+001 237 202 188
-1.625343e+000 7.390191e-001 -9.184677e+000 109 87 63
-1.606694e+000 6.554422e-001 -9.297565e+000 151 125 91
-1.147114e+000 5.650996e-001 -9.357533e+000 147 112 92
3.822661e-001 -3.549835e-001 -8.837239e+000 187 154 134
5.546863e+000 -9.906697e-001 -1.080352e+001 236 219 211
5.536552e+000 -1.004222e+000 -1.078337e+001 236 219 211
-3.995915e+000 1.183251e+000 -8.835966e+000 121 86 57
5.478097e+000 -1.367565e+000 -1.094057e+001 216 186 189
5.476164e+000 -1.344076e+000 -1.085525e+001 226 150 69
8.906003e-001 -7.464676e-001 -9.666517e+000 128 92 70
1.096800e+000 -8.798717e-001 -9.562272e+000 226 209 181
1.203026e+000 -9.926405e-001 -9.436758e+000 217 192 161
5.263627e+000 -1.703976e+000 -1.104779e+001 233 220 204
5.257813e+000 -1.786753e+000 -1.107982e+001 239 218 214
5.257813e+000 -1.786753e+000 -1.107982e+001 239 218 214
-1.890049e+000 3.352761e-001 -1.016395e+001 159 127 112
-1.466704e-001 -9.205227e-001 -9.525591e+000 169 120 105
1.047532e+000 -1.205328e+000 -9.562776e+000 123 120 83
3.840554e+000 -1.567580e+000 -1.100855e+001 120 93 66
5.093795e+000 -1.450312e+000 -1.171134e+001 169 126 93
5.220884e+000 -1.933817e+000 -1.116246e+001 237 217 216
-6.093950e-001 -1.055421e+000 -9.218905e+000 165 115 104
-2.368177e-002 -1.055980e+000 -9.398176e+000 168 126 117
-1.994883e-003 -1.079567e+000 -9.439113e+000 202 154 145
6.856264e-001 -1.338350e+000 -9.831133e+000 180 165 137
1.563844e+000 -1.351430e+000 -1.005360e+001 79 63 50
1.447831e+000 -1.531086e+000 -9.974149e+000 83 68 57
1.447831e+000 -1.531086e+000 -9.974149e+000 83 68 57
3.889553e+000 -1.871871e+000 -1.133042e+001 89 62 37
5.034672e+000 -2.377260e+000 -1.132397e+001 237 201 196
-1.129441e-002 -1.359267e+000 -9.836464e+000 191 149 138
2.892755e+000 -1.815443e+000 -1.096224e+001 82 60 39
4.100400e+000 -1.996367e+000 -1.151058e+001 122 90 65
-1.793783e+000 -5.493168e-001 -1.079194e+001 201 161 136
-1.829748e+000 -5.635006e-001 -1.084343e+001 223 187 161
2.740589e-003 -1.541052e+000 -1.032985e+001 205 171 141
1.824402e+000 -2.152357e+000 -1.022049e+001 57 43 30
-1.233450e+000 -1.393271e+000 -1.004442e+001 204 158 147
9.813087e-001 -2.172973e+000 -1.022943e+001 68 50 33
1.812655e+000 -2.365167e+000 -1.045232e+001 81 60 40
2.509294e+000 -2.399670e+000 -1.121007e+001 76 51 29
4.805506e+000 -3.110603e+000 -1.196768e+001 227 201 180
-3.721732e-001 -1.884793e+000 -1.095926e+001 88 65 42
1.493754e+000 -2.567364e+000 -1.102186e+001 60 45 25
3.460135e+000 -2.743571e+000 -1.204229e+001 107 77 51
-6.830115e-001 -1.747344e+000 -1.138092e+001 154 110 85
-5.232569e-001 -2.035017e+000 -1.131896e+001 151 118 85
-9.471448e-002 -2.368868e+000 -1.040311e+001 219 199 163
2.537766e+000 -2.884721e+000 -1.187254e+001 89 64 41
-3.592908e-001 -2.524691e+000 -1.059930e+001 178 146 108
-3.570242e-001 -2.611330e+000 -1.064223e+001 204 172 132
4.806339e-001 -2.825225e+000 -1.074611e+001 119 87 68
2.141547e+000 -3.170637e+000 -1.205789e+001 78 57 36
3.250609e+000 -3.336597e+000 -1.271592e+001 110 79 50
3.924809e-001 -2.992506e+000 -1.094572e+001 128 98 71
4.173185e+000 -4.147648e+000 -1.252449e+001 226 148 62
-8.160464e-001 -2.459290e+000 -1.200101e+001 136 134 96
4.726559e-001 -3.232801e+000 -1.131744e+001 66 52 39
2.980142e+000 -3.948468e+000 -1.308033e+001 125 94 66
1.647964e+000 1.957068e+000 -9.959645e+000 182 155 127
5.782958e-001 7.903945e-001 -9.077532e+000 162 117 96
-3.547633e+000 1.360822e+000 -8.237856e+000 119 86 55
-3.842739e+000 1.552074e+000 -8.425254e+000 150 114 80
-3.000050e+000 5.131918e-001 -9.065100e+000 141 67 41
3.447416e+000 -1.199433e+000 -1.047006e+001 75 53 32
5.270003e+000 -1.697675e+000 -1.106583e+001 233 219 201
-1.625513e+000 1.016813e-001 -1.012443e+001 166 122 110
-1.625574e+000 1.012595e-001 -1.012387e+001 166 122 110
1.009808e+000 -1.003649e+000 -9.634560e+000 91 81 54
1.242700e+000 -1.275361e+000 -9.588527e+000 209 188 164
3.420120e+000 -1.535716e+000 -1.084722e+001 79 57 34
-3.301458e-002 -1.119083e+000 -9.470009e+000 203 160 151
1.026576e+000 -1.277542e+000 -9.787143e+000 182 155 128
5.130799e+000 -2.181985e+000 -1.120988e+001 235 193 163
1.645497e+000 -1.971385e+000 -1.008958e+001 97 82 68
4.429261e+000 -2.113297e+000 -1.168677e+001 160 118 87
-1.613945e+000 -3.941423e-001 -1.082927e+001 178 135 118
-1.000615e+000 -1.308745e+000 -1.013414e+001 172 118 104
7.473006e-003 -1.496511e+000 -1.014484e+001 187 146 128
3.344761e-001 -1.498258e+000 -1.035667e+001 140 96 69
1.754965e+000 -2.143329e+000 -1.034472e+001 51 37 26
-7.554321e-001 -1.533313e+000 -1.036631e+001 149 92 85
8.842956e-002 -1.698334e+000 -1.036631e+001 154 123 68
8.568741e-001 -2.133659e+000 -1.012648e+001 218 186 154
7.297013e-001 -2.263360e+000 -1.026418e+001 189 157 121
1.387314e+000 -2.471552e+000 -1.044754e+001 82 70 58
3.778503e+000 -2.827386e+000 -1.222729e+001 134 101 70
2.717043e-001 -2.353631e+000 -1.040045e+001 157 118 67
4.279698e+000 -3.737016e+000 -1.165465e+001 212 124 35
-4.273180e-001 -2.417038e+000 -1.088426e+001 197 163 119
-1.028959e+000 -2.070723e+000 -1.215275e+001 197 146 138
-1.061090e+000 -2.031494e+000 -1.295239e+001 221 195 160
-9.097556e-001 -2.163691e+000 -1.216699e+001 171 125 110
1.565999e-001 -2.892262e+000 -1.061186e+001 216 199 172
2.228012e+000 -3.310373e+000 -1.223277e+001 87 62 40
2.523827e+000 -3.449173e+000 -1.228431e+001 93 67 44
-9.478714e-001 -2.344284e+000 -1.265174e+001 226 200 169
3.018210e+000 -3.679682e+000 -1.290132e+001 127 97 69
3.878374e+000 -4.347510e+000 -1.292931e+001 230 170 68
2.488212e+000 1.318912e-001 -8.622918e+000 60 46 33
-4.009559e+000 2.205502e+000 -8.741860e+000 126 80 57
-3.393154e+000 1.367886e+000 -8.253838e+000 109 73 46
2.229216e+000 -3.024686e-001 -8.943133e+000 53 40 31
-3.861713e+000 1.351342e+000 -8.557036e+000 187 153 119
3.022500e-001 5.263603e-001 -9.315278e+000 187 148 123
2.171187e+000 -3.919859e-001 -9.059932e+000 59 45 32
-2.821562e+000 5.332846e-001 -9.453481e+000 175 150 130
3.308395e+000 -1.253450e+000 -1.054365e+001 102 79 58
4.194009e+000 -1.271967e+000 -1.105677e+001 103 73 47
-1.433951e-002 -9.728763e-001 -9.275830e+000 182 145 129
-8.179694e-001 -6.255614e-001 -9.849778e+000 204 162 150
-8.389550e-001 -1.148959e+000 -9.320075e+000 153 94 76
1.537864e+000 -1.823838e+000 -9.908640e+000 87 75 65
-1.816979e+000 -8.994368e-001 -1.056631e+001 213 176 164
-1.816979e+000 -8.994368e-001 -1.056631e+001 213 176 164
-1.527179e+000 -1.188875e+000 -1.040456e+001 193 135 129
4.683939e+000 -3.049364e+000 -1.186741e+001 223 204 191
3.392313e+000 -2.809381e+000 -1.214333e+001 132 102 75
