ply
format ascii 1.0
element face 0
property list uchar int vertex_indices
element vertex 874
property float x
property float y
property float z
property uchar diffuse_red
property uchar diffuse_green
property uchar diffuse_blue
end_header
2.228297e+000 -3.039296e-001 -8.941414e+000 53 40 31
-3.869740e+000 1.360168e+000 -8.561669e+000 187 153 119
2.996320e-001 5.269802e-001 -9.314699e+000 187 148 123
2.169653e+000 -3.940110e-001 -9.057591e+000 59 45 32
-2.827670e+000 5.364377e-001 -9.455525e+000 175 150 130
3.308507e+000 -1.256603e+000 -1.054274e+001 102 79 58
4.194824e+000 -1.275827e+000 -1.105522e+001 103 73 47
-1.852015e-002 -9.741813e-001 -9.275146e+000 182 145 129
-8.221848e-001 -6.251742e-001 -9.851101e+000 204 162 150
-8.436931e-001 -1.148982e+000 -9.321593e+000 153 94 76
1.535814e+000 -1.826315e+000 -9.909148e+000 87 75 65
-1.822123e+000 -8.986632e-001 -1.056886e+001 213 176 164
-1.822123e+000 -8.986632e-001 -1.056886e+001 213 176 164
-1.532258e+000 -1.188569e+000 -1.040704e+001 193 135 129
4.679385e+000 -3.059071e+000 -1.185943e+001 223 204 191
3.391792e+000 -2.814053e+000 -1.214341e+001 132 102 75
-1.338141e+000 -1.617727e+000 -1.121954e+001 194 146 134
-1.317714e+000 -1.661413e+000 -1.130036e+001 166 115 102
-1.317714e+000 -1.661413e+000 -1.130036e+001 166 115 102
2.320609e+000 -2.742337e+000 -1.158599e+001 87 63 39
-1.087546e+000 -1.982599e+000 -1.178321e+001 170 109 104
-4.301195e-001 -2.588447e+000 -1.074709e+001 207 181 145
4.956393e-001 -2.719508e+000 -1.069533e+001 197 176 157
5.131893e-001 -2.703789e+000 -1.075484e+001 197 176 157
-1.100664e+000 -2.028422e+000 -1.189944e+001 197 143 137
-9.388358e-001 -2.167032e+000 -1.237544e+001 207 184 150
-8.342613e-001 -2.145861e+000 -1.188438e+001 184 139 124
-6.818662e-001 -2.345832e+000 -1.188576e+001 147 128 95
-5.788980e-001 -2.546242e+000 -1.155445e+001 185 169 143
-8.546455e-001 -2.395804e+000 -1.224038e+001 117 109 72
-8.299687e-001 -2.536566e+000 -1.224193e+001 97 94 57
5.561207e-001 -3.308570e+000 -1.145275e+001 53 39 27
2.040748e+000 -3.492564e+000 -1.231036e+001 106 81 61
3.948329e+000 -4.380039e+000 -1.263694e+001 228 160 59
1.174323e+000 -3.525458e+000 -1.212861e+001 132 114 94
1.785820e+000 -3.170267e-002 -8.797422e+000 162 138 102
1.394891e+000 -3.207300e-002 -9.035273e+000 100 104 81
5.701061e+000 -6.601848e-001 -1.054631e+001 224 132 49
4.753576e-001 -4.372398e-001 -8.979495e+000 129 83 70
1.378875e+000 -9.624103e-001 -9.408702e+000 246 240 227
4.281393e+000 -1.490665e+000 -1.109742e+001 99 69 45
4.713723e-001 -1.099907e+000 -9.667984e+000 184 148 125
1.657516e+000 -2.629671e+000 -1.099172e+001 115 98 79
-8.796576e-001 -1.756027e+000 -1.133693e+001 171 120 103
1.279591e+000 -2.608206e+000 -1.118673e+001 51 40 33
3.547187e+000 -3.292888e+000 -1.270197e+001 135 100 68
-1.198027e+000 -1.838671e+000 -1.292345e+001 183 135 120
-2.284795e+000 2.053295e+000 -8.731527e+000 235 228 222
1.567283e+000 6.125081e-001 -8.975758e+000 181 142 72
1.806034e+000 5.169429e-001 -8.724734e+000 213 197 170
-2.215509e+000 1.749511e+000 -8.855822e+000 180 156 136
7.759091e-001 9.619749e-001 -9.310075e+000 214 179 151
1.688480e+000 3.695959e-001 -8.830504e+000 119 98 68
-3.553305e+000 1.205996e+000 -8.234539e+000 110 76 48
-1.703883e+000 1.256034e+000 -9.205525e+000 212 193 169
1.377231e+000 -3.109559e-001 -9.227821e+000 202 173 145
1.172361e+000 -3.795617e-001 -9.304551e+000 189 155 127
1.849247e+000 -9.944124e-001 -9.861755e+000 61 44 35
-1.707937e+000 1.552369e-001 -1.019371e+001 93 65 51
9.903822e-001 -1.010948e+000 -9.700404e+000 72 66 42
9.881847e-001 -1.009510e+000 -9.700753e+000 72 66 42
1.057351e-001 -1.030568e+000 -9.658397e+000 109 46 45
9.602865e-001 -1.368125e+000 -9.823536e+000 111 76 48
1.253816e+000 -1.833462e+000 -1.008962e+001 54 37 22
1.253816e+000 -1.833462e+000 -1.008962e+001 54 37 22
-1.495134e+000 -1.047547e+000 -9.954701e+000 218 181 163
-4.756289e-002 -2.054181e+000 -1.046477e+001 164 126 86
-1.705948e-001 -2.423192e+000 -1.044142e+001 197 160 98
-1.697270e-001 -2.423203e+000 -1.044220e+001 197 160 98
-2.106655e-001 -2.596087e+000 -1.064433e+001 194 165 123
-7.223550e-001 -2.248737e+000 -1.175485e+001 147 111 77
-4.584690e-001 -2.820206e+000 -1.094260e+001 211 186 141
-5.014672e-001 -2.699850e+000 -1.191099e+001 87 78 51
-1.477657e-002 -3.049173e+000 -1.156247e+001 144 117 87
1.293137e-001 -3.253933e+000 -1.131682e+001 192 162 132
3.313332e-001 8.698248e-001 -9.033489e+000 208 167 147
1.385121e+000 1.432207e+000 -9.942990e+000 148 102 76
2.376424e+000 -7.945470e-002 -8.839561e+000 70 55 46
9.811715e-001 5.574145e-001 -9.493091e+000 192 153 123
-4.053684e+000 1.839999e+000 -8.733474e+000 104 69 42
6.260642e-001 3.791747e-001 -9.438470e+000 179 139 108
2.529354e+000 -8.214434e-001 -9.564775e+000 65 51 35
-3.146847e+000 6.811877e-001 -9.118014e+000 184 150 123
2.226600e-002 -1.131593e+000 -9.789191e+000 131 70 63
-2.910197e-001 -1.507079e+000 -1.100034e+001 109 67 42
-1.520529e+000 -1.317338e+000 -1.087570e+001 205 177 156
1.490484e+000 -2.729914e+000 -1.125370e+001 64 45 30
5.648065e+000 -6.902348e-001 -1.068717e+001 245 193 81
-1.579499e+000 -5.365502e-001 -1.050586e+001 174 132 116
-2.320287e+000 -8.582472e-001 -1.165618e+001 218 148 85
-3.978320e+000 2.382652e+000 -8.701621e+000 192 134 123
5.587101e+000 -8.297657e-001 -1.071029e+001 242 183 69
1.141899e-001 -1.394050e+000 -1.004961e+001 125 73 54
2.547009e+000 -2.094594e+000 -1.101239e+001 83 58 38
2.898392e-001 1.020646e+000 -9.237646e+000 193 153 128
-2.115832e+000 -9.534246e-001 -1.095152e+001 228 202 175
1.609509e+000 5.085747e-003 -9.165979e+000 115 116 84
3.388090e+000 -6.803533e-001 -9.514422e+000 100 74 55
-1.312114e+000 -6.950594e-001 -1.025586e+001 212 169 151
-9.187440e-001 -1.604884e+000 -1.077041e+001 142 87 70
4.206252e+000 2.568802e-001 -9.882155e+000 105 80 58
2.841229e+000 5.962903e-002 -8.974624e+000 105 93 70
2.737210e-001 7.601821e-001 -9.239620e+000 179 129 105
4.742273e+000 -6.177333e-001 -1.034275e+001 138 108 82
-1.313016e+000 5.281560e-001 -9.320161e+000 83 57 38
1.052022e+000 -8.933738e-001 -9.668048e+000 201 175 145
3.485885e+000 -1.397938e+000 -1.075700e+001 97 72 49
1.409495e+000 -1.842096e+000 -9.949998e+000 140 126 100
-1.465782e+000 -1.045002e+000 -9.863847e+000 182 138 119
-1.272880e+000 -1.452284e+000 -1.028375e+001 190 131 131
1.436177e-001 -2.608478e+000 -1.044561e+001 225 199 151
9.904225e-002 -2.634512e+000 -1.055061e+001 206 180 131
4.227987e+000 -3.818950e+000 -1.247532e+001 180 158 154
3.957913e+000 -4.155079e+000 -1.286425e+001 144 126 114
2.442741e+000 -4.644652e-002 -8.700146e+000 72 54 44
3.054479e+000 -8.186786e-001 -9.866297e+000 128 103 83
1.444007e+000 -8.961424e-001 -9.345661e+000 245 229 204
3.841473e+000 -1.126102e+000 -1.058622e+001 103 76 52
4.267233e+000 -3.789142e+000 -1.240907e+001 221 204 195
-6.483401e-001 -2.588402e+000 -1.189887e+001 107 109 77
2.815241e+000 2.307288e-002 -8.982370e+000 69 56 46
5.861124e+000 -5.781907e-002 -1.066688e+001 190 143 110
1.564910e+000 -2.431758e-001 -8.882977e+000 109 108 78
3.624212e-001 -4.881487e-001 -8.937058e+000 165 114 114
1.359891e+000 -1.055771e+000 -9.474504e+000 195 171 143
4.246894e-001 -1.094471e+000 -9.487408e+000 158 122 106
3.867297e+000 -1.778400e+000 -1.124678e+001 102 72 48
4.184241e+000 -1.994310e+000 -1.157910e+001 122 91 63
-1.230259e+000 -1.271279e+000 -9.895558e+000 187 130 121
2.275364e-001 -1.737062e+000 -1.032751e+001 143 105 71
4.829220e+000 -2.897716e+000 -1.163613e+001 227 194 176
-1.643505e+000 1.125522e+000 -2.222082e+001 153 151 154
4.300107e+000 -3.584382e+000 -1.239360e+001 220 193 165
4.243892e+000 -3.671328e+000 -1.249012e+001 231 193 153
7.283153e-001 -3.271548e+000 -1.138901e+001 42 32 23
4.919354e+000 -5.912650e-001 -1.019441e+001 133 99 73
-2.863152e-001 -4.710057e-001 -9.245331e+000 196 147 131
6.934924e-001 -1.324383e+000 -9.875792e+000 186 170 139
7.644884e-001 -1.467890e+000 -1.003946e+001 164 130 100
9.632752e-002 -1.923488e+000 -1.043756e+001 198 170 131
2.395351e+000 -2.818482e+000 -1.165594e+001 86 62 36
1.676244e+000 -5.982159e-001 -9.091508e+000 149 120 88
3.918741e+000 -9.777797e-001 -1.050177e+001 100 69 48
4.022323e+000 -2.014937e+000 -1.154954e+001 95 68 44
-7.826337e-001 -1.452621e+000 -1.012947e+001 146 89 83
1.566858e+000 7.522889e-001 -8.939429e+000 199 165 86
9.666534e-001 7.012879e-001 -9.445354e+000 174 137 101
1.404923e+000 -8.177286e-001 -9.280540e+000 175 142 107
1.903883e+000 -1.060000e+000 -9.654429e+000 100 88 67
1.476460e-001 -1.762168e+000 -1.043309e+001 151 117 80
5.545904e+000 -6.877734e-001 -1.080940e+001 173 114 47
-2.639907e+000 5.201740e-001 -9.461231e+000 151 122 100
3.888622e+000 -4.486167e+000 -1.255793e+001 207 121 37
-3.353639e-001 1.852649e-001 -9.493713e+000 164 115 98
5.070406e+000 -2.047900e+000 -1.141140e+001 243 195 82
-4.837791e-001 -2.049878e+000 -1.088030e+001 132 106 81
-1.818275e+000 6.422279e-001 -2.304887e+001 149 153 160
1.806237e+000 2.790654e+000 -1.038319e+001 116 101 80
2.136320e+000 2.962934e+000 -1.096234e+001 87 79 66
-1.106545e-001 2.119792e+000 -1.039262e+001 194 154 147
1.100882e+000 2.314143e+000 -1.046926e+001 100 102 86
1.576012e+000 2.485373e+000 -1.027671e+001 120 104 84
1.886517e+000 2.399982e+000 -1.008554e+001 87 70 51
1.391429e+000 1.817085e+000 -9.906069e+000 204 188 165
2.206898e+000 2.065526e+000 -9.732578e+000 73 67 51
4.039235e+000 1.911901e+000 -1.126720e+001 103 82 61
2.093083e+000 1.757117e+000 -9.515630e+000 108 104 92
1.643939e+000 1.333032e+000 -9.224086e+000 91 97 77
2.027963e+000 1.492974e+000 -9.345562e+000 92 76 48
1.956129e+000 7.753959e-001 -8.526510e+000 80 93 65
1.939982e+000 6.730556e-001 -8.519895e+000 82 96 68
-1.686449e+000 -8.649233e-001 -1.016210e+001 202 166 158
-1.531772e+000 -9.178664e-001 -9.926625e+000 213 183 175
3.038332e-001 -1.606165e-001 -8.932771e+000 170 132 121
1.876302e+000 5.480817e-001 -8.601621e+000 102 108 80
-7.304971e-001 -8.433796e-001 -9.347655e+000 193 154 152
-5.526061e-001 -8.147325e-001 -9.364203e+000 198 140 139
5.053296e+000 -2.187691e+000 -1.141614e+001 157 144 149
5.080347e+000 -2.088826e+000 -1.136658e+001 172 161 147
4.508679e+000 -3.371329e+000 -1.217531e+001 168 159 156
4.255299e+000 -3.861734e+000 -1.252571e+001 129 124 130
-2.332122e+000 2.370852e+000 -9.159103e+000 95 72 58
4.821229e+000 3.150691e+000 -1.289205e+001 180 157 138
1.069324e+000 2.304916e+000 -1.046248e+001 61 63 46
5.549942e-002 2.098844e+000 -1.023784e+001 195 163 148
1.927683e+000 2.137175e+000 -9.960028e+000 64 54 45
3.732114e+000 2.174206e+000 -1.136501e+001 85 68 48
3.807260e+000 2.184942e+000 -1.141224e+001 84 65 45
4.062742e+000 1.931825e+000 -1.132071e+001 86 65 44
3.492525e+000 1.414664e+000 -1.026666e+001 89 72 55
3.750528e+000 1.298099e+000 -1.033368e+001 68 52 36
-1.700963e+000 -8.196021e-001 -1.033801e+001 173 119 123
6.064528e+000 8.087435e-001 -1.063628e+001 201 151 67
1.957487e+000 5.394318e-001 -8.505073e+000 84 95 67
-1.178631e-001 -3.435510e-001 -8.786848e+000 196 152 151
2.530910e+000 4.089675e-001 -8.561772e+000 75 70 58
2.530910e+000 4.089675e-001 -8.561772e+000 75 70 58
5.160697e+000 -1.786335e+000 -1.125462e+001 208 181 155
5.300119e+000 -1.695687e+000 -1.109102e+001 200 196 193
5.478967e+000 -1.220249e+000 -1.079928e+001 200 158 112
4.932605e+000 -2.468773e+000 -1.155779e+001 133 132 130
5.146415e+000 -1.930237e+000 -1.137005e+001 194 172 155
4.989479e+000 -2.369478e+000 -1.151052e+001 157 151 148
4.265710e+000 -3.726332e+000 -1.244642e+001 155 151 148
4.504051e+000 -3.232152e+000 -1.216010e+001 226 200 114
4.601259e+000 -3.178202e+000 -1.209281e+001 171 162 159
4.772056e+000 -2.756814e+000 -1.176575e+001 148 140 135
4.519761e+000 3.254441e+000 -1.350901e+001 195 119 79
-2.329199e+000 2.354620e+000 -9.286179e+000 77 55 41
4.797810e+000 2.819703e+000 -1.294974e+001 173 126 94
1.169440e+000 2.139538e+000 -1.001404e+001 71 68 56
4.331064e-001 2.005535e+000 -9.598915e+000 190 149 147
-3.447778e+000 1.289796e+000 -8.205018e+000 87 60 39
1.435874e+000 1.635224e+000 -9.862829e+000 133 111 86
2.748343e+000 1.502367e+000 -9.478377e+000 72 59 45
4.660887e-001 9.366482e-001 -9.309334e+000 124 65 51
3.632559e+000 1.147528e+000 -1.004330e+001 72 54 38
5.606098e+000 1.252693e+000 -1.114623e+001 207 189 175
5.606098e+000 1.252693e+000 -1.114623e+001 207 189 175
5.797900e+000 2.246674e-001 -1.058940e+001 213 189 167
5.042384e+000 -1.869149e+000 -1.153203e+001 215 165 66
5.315290e+000 -1.458485e+000 -1.114651e+001 217 187 145
4.318239e+000 -3.617105e+000 -1.233322e+001 181 174 172
-6.726416e-001 1.226096e+000 -2.142829e+001 128 134 150
4.414566e+000 3.082635e+000 -1.368952e+001 199 137 80
-1.536598e+000 1.510258e+000 -9.298045e+000 95 76 59
3.383981e+000 2.075313e+000 -1.102223e+001 105 87 67
4.212821e+000 2.087856e+000 -1.159501e+001 106 84 61
2.776277e+000 1.633590e+000 -9.635621e+000 49 37 26
5.128104e+000 -5.572478e-002 -1.012960e+001 100 76 50
5.123761e+000 -4.825440e-002 -1.011661e+001 100 76 50
2.296815e+000 3.232566e+000 -1.709560e+001 213 133 95
-6.348302e-001 1.711509e+000 -2.128909e+001 130 133 150
-5.120695e-001 1.879179e+000 -1.157411e+001 164 126 127
4.903518e+000 3.418304e+000 -1.276471e+001 186 98 97
-3.431626e+000 2.270554e+000 -8.313975e+000 129 104 74
3.495439e+000 2.532359e+000 -1.164114e+001 127 105 82
1.750646e+000 1.539142e+000 -9.454814e+000 170 154 130
5.629133e+000 1.151984e+000 -1.107882e+001 203 70 69
1.992328e+000 5.595615e-001 -8.472935e+000 77 91 60
-8.949532e-001 1.270157e+000 -9.504527e+000 75 47 42
-1.685174e-001 1.354085e+000 -1.014359e+001 163 103 113
5.384855e+000 -1.517691e+000 -1.090473e+001 125 62 52
4.389200e+000 -3.428481e+000 -1.227723e+001 214 196 144
3.760101e+000 3.083031e+000 -1.479471e+001 212 158 95
1.318902e+000 2.129977e+000 -1.002166e+001 67 71 54
4.636677e+000 3.889694e+000 -1.319293e+001 238 170 112
1.168290e+000 3.058893e+000 -1.127340e+001 198 185 169
9.722746e-001 2.943669e+000 -1.077394e+001 187 178 158
1.323046e+000 2.992658e+000 -1.109570e+001 178 171 155
2.042631e+000 3.192775e+000 -1.147513e+001 90 83 63
2.014232e+000 3.153409e+000 -1.142357e+001 86 74 55
-7.585798e-001 1.226022e-001 -2.097042e+001 155 164 181
-1.185574e-001 2.356718e+000 -1.099056e+001 168 115 122
4.436105e-001 2.441002e+000 -1.116794e+001 219 197 186
1.356263e+000 2.961961e+000 -1.094809e+001 162 146 120
1.808896e+000 2.997710e+000 -1.067605e+001 115 105 86
5.124280e+000 3.544748e+000 -1.232395e+001 212 121 115
-5.842300e-001 1.908311e+000 -1.164750e+001 170 134 132
-6.853733e-001 1.761969e+000 -1.178915e+001 152 110 113
-3.832439e-001 1.958958e+000 -1.172970e+001 185 145 143
-1.713459e-001 2.314027e+000 -1.040409e+001 209 179 175
1.474501e+000 2.689099e+000 -1.053683e+001 166 156 136
1.451612e+000 2.556397e+000 -1.042335e+001 200 192 172
1.498679e+000 2.611003e+000 -1.035589e+001 233 231 217
1.784183e+000 2.853490e+000 -1.045028e+001 145 133 105
5.137895e+000 3.116916e+000 -1.220250e+001 174 93 98
-8.037005e-001 1.291968e+000 -1.248102e+001 159 130 123
-5.620072e-002 2.057253e+000 -1.045761e+001 215 183 173
1.710887e-001 2.186527e+000 -1.021942e+001 232 209 195
3.619427e-001 2.125698e+000 -1.011143e+001 177 135 124
5.044704e-001 2.143415e+000 -1.009734e+001 195 152 139
1.881423e+000 2.429177e+000 -1.009649e+001 103 83 58
-1.355440e+000 7.333172e-001 -1.265523e+001 142 106 101
8.077248e-002 1.640121e+000 -1.020669e+001 207 155 165
1.708932e+000 2.143557e+000 -9.995335e+000 136 117 92
1.370631e+000 1.860611e+000 -9.906433e+000 204 194 170
1.705393e+000 1.983129e+000 -9.836548e+000 163 147 125
2.677282e+000 2.213438e+000 -1.033225e+001 127 108 66
3.575949e+000 1.922644e+000 -1.090934e+001 92 76 55
4.327279e+000 2.032076e+000 -1.159849e+001 124 103 82
2.320043e+000 1.959104e+000 -9.760929e+000 95 78 60
5.371454e+000 1.782644e+000 -1.170708e+001 215 137 151
1.014063e-001 1.168011e+000 -9.170136e+000 226 198 194
5.301331e-001 1.125276e+000 -9.327530e+000 137 76 73
1.622720e+000 1.484469e+000 -9.354370e+000 172 161 143
1.773262e+000 1.450644e+000 -9.282802e+000 149 136 113
1.844283e+000 1.670061e+000 -9.470747e+000 212 198 180
2.129225e+000 1.668543e+000 -9.349096e+000 119 119 104
2.789138e+000 1.668462e+000 -9.662578e+000 68 57 45
3.865018e+000 1.424090e+000 -1.056558e+001 89 76 60
-1.444703e+000 1.438115e-001 -9.708978e+000 125 100 89
-1.663937e+000 -6.876842e-001 -1.056957e+001 210 175 163
7.636196e-001 8.496377e-001 -9.263251e+000 161 128 118
1.163014e+000 7.782956e-001 -9.616388e+000 164 132 111
2.285152e+000 1.374614e+000 -9.014254e+000 109 106 93
-1.675911e+000 -8.126060e-001 -1.059606e+001 212 179 172
-1.621208e+000 -8.049218e-001 -1.023394e+001 199 149 149
-1.455666e+000 -6.419321e-001 -1.038634e+001 186 141 136
1.386842e+000 3.487966e-001 -9.691123e+000 182 167 152
2.394394e+000 1.111860e+000 -8.858982e+000 86 82 71
3.003199e+000 1.066210e+000 -9.087768e+000 62 56 42
3.034031e+000 1.159936e+000 -9.143260e+000 150 142 120
4.705746e+000 8.401035e-001 -1.040680e+001 105 85 60
-1.616647e+000 -1.069498e+000 -1.001321e+001 222 195 190
-1.506417e+000 -1.077722e+000 -9.937014e+000 219 190 183
1.492008e+000 2.310188e-001 -9.017614e+000 111 127 98
2.935477e+000 9.334354e-001 -8.964732e+000 189 190 174
2.945817e+000 7.790774e-001 -8.939273e+000 72 70 61
3.140182e+000 8.493577e-001 -8.945516e+000 80 75 62
1.703109e-001 -1.484039e-001 -8.893975e+000 185 146 135
2.631586e+000 6.119218e-001 -8.535622e+000 103 101 86
-7.067735e-001 -1.019856e+000 -9.285702e+000 187 154 155
-6.056772e-001 -9.523742e-001 -9.261532e+000 210 174 174
2.300134e+000 -1.775582e-002 -8.698512e+000 130 124 112
4.578252e+000 -1.601500e-001 -9.917106e+000 120 104 81
5.446911e+000 -1.031490e+000 -1.094136e+001 158 158 152
5.255831e+000 -1.796412e+000 -1.124029e+001 157 161 160
5.281726e+000 -1.569407e+000 -1.104138e+001 173 173 172
4.356769e+000 -3.542624e+000 -1.241345e+001 218 186 138
4.695784e+000 -3.076021e+000 -1.181399e+001 158 157 161
4.575734e+000 -3.381197e+000 -1.206136e+001 164 160 160
4.866991e+000 -2.731228e+000 -1.163178e+001 185 183 190
5.892748e+000 -1.332716e+000 -1.015522e+001 229 161 77
5.651954e+000 -2.043432e+000 -1.035917e+001 227 169 99
2.800929e+000 3.486320e+000 -1.655686e+001 224 177 137
2.992153e+000 3.270410e+000 -1.603486e+001 208 140 100
4.425979e+000 3.806255e+000 -1.362380e+001 214 141 99
-8.364546e-001 1.728778e-001 -2.206764e+001 168 180 197
1.749940e+000 3.171373e+000 -1.103427e+001 94 86 70
4.585535e+000 3.309888e+000 -1.332952e+001 219 151 92
-3.979718e+000 2.040137e+000 -8.690006e+000 164 132 107
6.245258e-001 2.576657e+000 -1.107182e+001 178 150 84
1.901964e+000 3.033242e+000 -1.058472e+001 99 85 64
5.777655e-001 2.400432e+000 -1.054666e+001 188 164 143
1.869247e+000 2.693468e+000 -1.036429e+001 103 93 71
2.024423e+000 2.749859e+000 -1.041031e+001 88 71 50
2.141336e+000 2.916255e+000 -1.068898e+001 121 111 99
3.014718e+000 2.739812e+000 -1.161570e+001 108 82 61
5.085874e+000 3.106886e+000 -1.215979e+001 179 98 97
1.179131e+000 2.413405e+000 -1.037148e+001 111 115 96
1.214255e+000 2.314794e+000 -1.032075e+001 81 88 72
1.978757e+000 2.546697e+000 -1.022601e+001 84 78 56
2.120591e+000 2.541033e+000 -1.035066e+001 90 75 54
2.180189e+000 2.446353e+000 -1.026761e+001 107 90 57
4.249613e+000 2.619136e+000 -1.231866e+001 125 101 77
-1.171870e+000 1.487259e+000 -9.631785e+000 95 71 55
1.722962e-001 1.788633e+000 -1.022358e+001 196 136 137
1.271918e+000 2.214672e+000 -1.016151e+001 69 76 61
2.079816e+000 2.245793e+000 -9.938194e+000 76 70 46
3.603373e+000 2.268114e+000 -1.139865e+001 91 71 52
3.524736e+000 2.180155e+000 -1.118372e+001 87 68 51
-1.802136e+000 1.295343e+000 -9.232158e+000 119 106 88
-2.039230e-001 1.332420e+000 -1.028073e+001 164 105 117
1.618282e+000 1.926437e+000 -9.886348e+000 175 163 142
2.065968e+000 1.998440e+000 -9.685726e+000 135 133 118
1.447935e+000 1.621209e+000 -9.974716e+000 148 128 104
1.805299e+000 1.826158e+000 -9.686317e+000 143 124 100
5.273361e+000 1.633544e+000 -1.187761e+001 197 166 165
5.273380e+000 1.803676e+000 -1.177575e+001 203 128 129
9.874591e-002 1.101752e+000 -9.162243e+000 193 168 161
2.016275e-001 1.321470e+000 -9.236967e+000 214 193 174
1.980526e-001 1.306220e+000 -9.155472e+000 181 150 147
1.768947e+000 1.479439e+000 -9.492433e+000 162 148 127
1.883064e+000 1.668926e+000 -9.503569e+000 149 127 105
1.790014e+000 1.514947e+000 -9.336004e+000 251 255 249
1.988526e+000 1.492009e+000 -9.319301e+000 223 216 194
2.573265e+000 1.561321e+000 -9.682687e+000 42 34 29
4.009368e+000 1.692223e+000 -1.078161e+001 141 123 101
2.211989e+000 1.461876e+000 -9.211608e+000 111 112 96
2.221400e+000 1.439206e+000 -9.154956e+000 112 112 100
2.197824e+000 1.461576e+000 -8.985719e+000 108 104 93
3.646512e+000 1.361993e+000 -1.034025e+001 72 55 39
3.964500e+000 1.286568e+000 -1.047093e+001 90 70 49
5.624149e+000 1.442590e+000 -1.109244e+001 205 112 110
2.893960e+000 1.182188e+000 -9.157024e+000 55 49 35
3.064831e+000 1.196937e+000 -9.263235e+000 118 93 57
2.098038e+000 9.380080e-001 -8.747996e+000 168 163 145
1.636744e+000 4.049563e-001 -8.907477e+000 99 100 79
1.808687e+000 5.893918e-001 -8.719442e+000 101 107 79
2.020563e+000 8.175966e-001 -8.596059e+000 120 121 105
2.457190e+000 9.254813e-001 -8.610604e+000 180 183 172
1.940321e+000 1.846997e-001 -8.793884e+000 151 140 122
1.994567e+000 3.821143e-001 -8.520868e+000 185 183 162
3.089038e+000 5.207882e-001 -8.848322e+000 75 73 58
3.316446e-001 -8.839389e-001 -9.349388e+000 181 149 149
1.795500e+000 -1.840204e-001 -8.811602e+000 202 204 196
2.479462e+000 2.038914e-001 -8.551302e+000 80 81 66
9.355700e-001 -1.477866e+000 -9.787784e+000 172 155 125
5.348676e+000 -1.310185e+000 -1.102175e+001 146 137 139
5.342403e+000 -1.527068e+000 -1.100325e+001 194 174 180
5.071196e+000 -2.137208e+000 -1.137793e+001 207 202 205
5.174057e+000 -1.983639e+000 -1.120753e+001 195 195 201
5.261949e+000 -1.881833e+000 -1.114251e+001 152 151 146
5.192588e+000 -2.024063e+000 -1.120017e+001 148 138 147
4.411972e+000 -3.427486e+000 -1.217553e+001 170 166 167
4.889757e+000 -2.882746e+000 -1.169752e+001 205 204 205
-3.509804e+000 2.684219e+000 -8.592106e+000 179 118 121
1.292720e+000 3.002796e+000 -1.093276e+001 178 170 154
1.292720e+000 3.002796e+000 -1.093276e+001 178 170 154
4.254906e+000 3.441215e+000 -1.382841e+001 230 149 104
4.620481e+000 3.439388e+000 -1.339661e+001 221 148 99
5.306905e+000 3.886218e+000 -1.175016e+001 240 183 177
5.306905e+000 3.886218e+000 -1.175016e+001 240 183 177
7.564173e-001 2.689177e+000 -1.114029e+001 207 185 127
4.160931e+000 2.711128e+000 -1.400806e+001 208 150 104
5.397116e+000 3.715902e+000 -1.161331e+001 245 179 147
-2.124261e+000 2.035732e+000 -9.059450e+000 76 50 37
2.115528e+000 2.712359e+000 -1.061251e+001 114 96 58
3.300422e+000 2.742358e+000 -1.172764e+001 117 91 66
5.335933e+000 3.279017e+000 -1.191613e+001 189 94 100
1.071468e+000 2.373676e+000 -1.042028e+001 112 114 94
1.107338e+000 2.259811e+000 -1.039499e+001 102 109 92
1.832348e+000 2.409349e+000 -1.022397e+001 55 41 30
1.899486e+000 2.557318e+000 -1.017561e+001 103 88 65
1.899486e+000 2.557318e+000 -1.017561e+001 103 88 65
1.937435e+000 2.451732e+000 -1.011716e+001 101 91 64
2.560386e+000 2.475177e+000 -1.047829e+001 132 108 65
3.410508e+000 2.470839e+000 -1.139214e+001 101 80 59
1.520295e+000 2.087914e+000 -1.008564e+001 167 150 131
2.033077e+000 2.412268e+000 -1.011537e+001 66 61 42
3.405668e+000 2.200988e+000 -1.111807e+001 92 73 58
3.530177e+000 2.277287e+000 -1.131504e+001 106 87 66
3.537255e+000 2.227506e+000 -1.130000e+001 87 69 49
4.249009e+000 2.197705e+000 -1.173011e+001 115 93 72
-1.296240e+000 1.511399e+000 -9.368713e+000 132 114 102
1.376327e+000 1.885080e+000 -9.928635e+000 168 153 132
2.049219e+000 2.127978e+000 -9.798689e+000 100 89 69
2.134046e+000 2.212477e+000 -9.902051e+000 71 66 48
2.114366e+000 1.982839e+000 -9.736233e+000 83 77 58
3.772307e+000 2.073155e+000 -1.120556e+001 112 93 76
3.568914e+000 1.996596e+000 -1.097257e+001 102 85 65
4.345086e+000 1.965180e+000 -1.149147e+001 139 118 97
5.990341e-001 1.637850e+000 -9.441133e+000 222 194 183
1.157859e+000 1.625036e+000 -9.908965e+000 115 86 68
1.797469e+000 1.741475e+000 -9.622522e+000 195 186 164
1.793950e+000 1.698557e+000 -9.496634e+000 168 151 131
2.257750e+000 2.022844e+000 -9.623133e+000 92 75 45
4.508780e+000 1.848992e+000 -1.156894e+001 114 93 76
4.471076e+000 1.800394e+000 -1.150332e+001 126 108 88
1.511685e+000 1.345149e+000 -9.759516e+000 183 171 155
1.644318e+000 1.456481e+000 -9.204478e+000 149 158 139
2.403070e+000 1.633669e+000 -9.224680e+000 90 69 46
4.339867e+000 1.629181e+000 -1.105811e+001 113 93 69
1.871214e+000 1.371997e+000 -9.198769e+000 161 153 137
1.950563e+000 1.354952e+000 -9.065282e+000 230 233 223
2.441163e+000 1.514813e+000 -9.212735e+000 64 55 45
2.774542e+000 1.528967e+000 -9.424771e+000 98 86 74
3.538463e+000 1.409442e+000 -1.028004e+001 74 59 40
1.201684e+000 7.061268e-001 -9.637011e+000 170 135 115
2.371727e+000 1.325438e+000 -8.983473e+000 89 78 60
2.373218e+000 1.301974e+000 -8.874982e+000 80 71 56
4.459533e+000 1.027528e+000 -1.041035e+001 132 110 87
1.937040e+000 8.572500e-001 -8.788788e+000 175 164 142
4.530514e+000 8.772181e-001 -1.049009e+001 121 101 77
-2.203265e-001 -3.051766e-001 -8.996892e+000 211 184 178
1.245931e-001 -1.419657e-001 -8.828077e+000 213 180 171
1.360003e+000 -4.472463e-002 -9.036576e+000 192 186 170
1.630960e+000 2.673667e-001 -8.865743e+000 102 115 87
-6.257966e-001 -1.006919e+000 -9.228005e+000 198 162 165
-6.257966e-001 -1.006919e+000 -9.228005e+000 198 162 165
2.850887e+000 -4.514645e-002 -8.961386e+000 71 70 51
4.918582e+000 -1.400401e-002 -1.004190e+001 131 115 90
1.372200e+000 -1.895963e+000 -1.003695e+001 145 147 127
4.932125e+000 -2.549426e+000 -1.150594e+001 156 146 155
5.048683e+000 -2.325238e+000 -1.137894e+001 182 175 174
4.641018e+000 -3.350186e+000 -1.217573e+001 167 165 169
3.231053e+000 3.692583e+000 -1.579867e+001 216 149 102
2.488532e+000 3.192718e+000 -1.699080e+001 236 183 137
4.687983e+000 4.125311e+000 -1.310598e+001 220 134 102
-3.605987e+000 2.636120e+000 -8.521356e+000 197 149 151
3.383230e+000 3.223583e+000 -1.536755e+001 101 121 103
3.383230e+000 3.223583e+000 -1.536755e+001 101 121 103
6.916520e-001 2.651585e+000 -1.092191e+001 188 164 103
1.291515e+000 2.662931e+000 -1.093232e+001 168 149 135
4.557026e+000 3.149483e+000 -1.338127e+001 228 158 98
5.305978e+000 3.514408e+000 -1.194434e+001 210 117 102
-2.083666e-001 2.300936e+000 -1.044103e+001 205 175 175
4.884599e-001 2.274734e+000 -1.009811e+001 181 145 141
9.416654e-001 2.260855e+000 -1.057271e+001 119 114 97
1.407931e+000 2.496523e+000 -1.030790e+001 135 116 98
2.123104e+000 2.523274e+000 -1.016793e+001 118 100 62
3.391204e+000 2.600581e+000 -1.162231e+001 100 78 57
3.103226e+000 2.436104e+000 -1.114991e+001 121 103 81
3.818805e+000 2.416364e+000 -1.167285e+001 97 81 69
4.274177e+000 2.534431e+000 -1.227065e+001 143 119 97
-3.607908e+000 1.344767e+000 -8.261457e+000 107 77 49
-3.607908e+000 1.344767e+000 -8.261457e+000 107 77 49
3.325879e+000 2.242602e+000 -1.118309e+001 93 71 49
3.369899e+000 2.228252e+000 -1.114027e+001 121 100 81
3.588430e+000 2.356004e+000 -1.153642e+001 87 68 44
3.517605e+000 2.240187e+000 -1.126440e+001 90 72 52
-3.216316e-002 1.471329e+000 -1.014629e+001 169 116 129
1.755313e+000 2.075182e+000 -9.998555e+000 145 126 100
3.983159e+000 2.076611e+000 -1.141213e+001 92 69 51
5.460910e-001 1.502988e+000 -9.458863e+000 215 187 186
9.073722e-001 1.537574e+000 -9.463360e+000 174 147 136
1.747572e+000 1.684706e+000 -9.581442e+000 251 252 238
4.613117e+000 1.724695e+000 -1.145950e+001 114 99 78
4.638578e+000 1.668984e+000 -1.143615e+001 100 84 61
9.825420e-001 1.109763e+000 -9.495999e+000 139 101 84
1.727625e+000 1.072868e+000 -9.016625e+000 109 119 92
2.897034e+000 1.330847e+000 -9.279289e+000 42 39 30
2.454887e+000 1.024191e+000 -9.126846e+000 58 49 40
2.552823e+000 1.112933e+000 -8.760239e+000 185 185 172
3.722791e+000 9.949402e-001 -9.793411e+000 78 61 43
3.722791e+000 9.949402e-001 -9.793411e+000 78 61 43
7.983103e-001 -2.673124e-001 -9.520517e+000 181 158 140
1.858879e+000 2.476946e-001 -8.774955e+000 166 158 141
1.858879e+000 2.476946e-001 -8.774955e+000 166 158 141
1.542905e+000 -5.011298e-001 -9.178781e+000 181 175 156
3.907393e+000 1.711189e-001 -9.466427e+000 112 99 80
5.297756e+000 -1.956540e-001 -1.027383e+001 135 111 83
1.308966e+000 -1.103029e+000 -9.499019e+000 186 179 162
5.075725e+000 -2.409770e+000 -1.139648e+001 214 199 200
-3.680853e+000 2.764804e+000 -8.610220e+000 189 135 136
2.039562e+000 2.957223e+000 -1.775289e+001 227 136 105
2.142005e+000 2.980019e+000 -1.766740e+001 236 161 122
2.328144e+000 3.050118e+000 -1.736407e+001 233 187 141
2.419531e+000 3.082743e+000 -1.717388e+001 217 145 96
2.573066e+000 3.152965e+000 -1.693645e+001 211 128 87
1.227081e+000 2.017024e+000 -1.849274e+001 232 158 120
1.609978e+000 2.387597e+000 -1.838989e+001 243 158 134
2.688979e+000 2.882948e+000 -1.633009e+001 203 130 99
2.928414e+000 3.094188e+000 -1.612718e+001 190 117 92
8.646741e-001 1.451494e+000 -1.904216e+001 222 135 92
5.991820e-001 2.733473e+000 -1.129083e+001 196 173 103
2.009307e+000 2.925464e+000 -1.065749e+001 111 89 58
2.115112e+000 2.920409e+000 -1.090532e+001 47 38 29
-1.237845e-001 2.303806e+000 -1.037297e+001 211 183 179
1.116681e+000 2.574890e+000 -1.058296e+001 94 96 75
1.417615e+000 2.621455e+000 -1.057018e+001 144 129 105
1.392532e+000 2.535386e+000 -1.038615e+001 140 124 105
3.417925e+000 2.662680e+000 -1.186594e+001 109 87 64
4.201162e+000 2.639933e+000 -1.284271e+001 128 101 79
4.848273e+000 2.717362e+000 -1.277432e+001 160 87 65
2.582022e+000 2.588551e+000 -1.062113e+001 105 85 64
2.994176e+000 2.393950e+000 -1.111012e+001 113 95 75
3.130550e+000 2.411843e+000 -1.121272e+001 124 106 84
5.462554e+000 3.024819e+000 -1.135244e+001 229 235 244
2.066884e+000 2.314470e+000 -9.891234e+000 73 61 47
2.066884e+000 2.314470e+000 -9.891234e+000 73 61 47
-3.480503e+000 1.218871e+000 -8.245030e+000 119 95 67
-9.328609e-001 1.379683e+000 -9.608307e+000 144 93 89
1.118479e+000 1.727962e+000 -9.794155e+000 186 164 151
1.696377e+000 2.051499e+000 -9.826111e+000 155 136 111
1.221722e+000 1.626131e+000 -9.890166e+000 195 178 159
3.446250e+000 1.863474e+000 -1.089619e+001 74 58 42
3.926917e+000 1.428938e+000 -1.059222e+001 76 64 48
3.775238e+000 1.336811e+000 -1.038992e+001 103 89 71
4.693224e+000 1.354883e+000 -1.102679e+001 141 119 96
4.823039e+000 1.311351e+000 -1.095465e+001 140 115 93
5.668867e+000 1.463817e+000 -1.084829e+001 213 201 204
-1.917896e+000 -8.639233e-001 -1.094222e+001 189 168 151
2.809763e+000 1.159871e+000 -9.134826e+000 40 38 33
4.745662e+000 1.047150e+000 -1.069505e+001 100 76 52
1.848666e+000 8.009691e-001 -8.744655e+000 165 162 141
4.266491e+000 9.432794e-001 -1.020041e+001 88 68 44
1.603480e+000 3.252868e-001 -8.904762e+000 135 146 119
2.247432e+000 7.560597e-001 -8.649644e+000 99 83 68
1.208689e+000 -7.825525e-001 -9.425555e+000 187 172 151
1.765169e+000 4.657267e-002 -8.722625e+000 145 125 94
5.711833e+000 -6.477512e-001 -1.057663e+001 221 143 50
4.824396e+000 -1.605117e+000 -1.135001e+001 200 99 64
5.004951e+000 -2.465380e+000 -1.140300e+001 206 197 210
3.078270e+000 -6.048808e+000 -1.426927e+001 217 146 53
1.112137e+000 2.374934e+000 -1.920515e+001 232 158 100
1.316821e+000 2.320097e+000 -1.879422e+001 234 164 103
1.857025e+000 2.715956e+000 -1.834626e+001 229 130 101
1.857025e+000 2.715956e+000 -1.834626e+001 229 130 101
2.223156e+000 3.014569e+000 -1.742859e+001 216 111 92
4.014325e+000 3.838935e+000 -1.427282e+001 207 149 107
-3.107679e+000 2.631389e+000 -8.648670e+000 121 91 61
-2.806903e-001 1.360001e+000 -2.128672e+001 227 157 114
6.627311e-001 1.642678e+000 -1.979129e+001 241 166 115
8.066436e-001 1.940412e+000 -1.977131e+001 226 142 114
1.491990e+000 2.358119e+000 -1.851102e+001 227 121 96
2.814253e+000 2.862014e+000 -1.639552e+001 154 87 78
3.290333e+000 3.139896e+000 -1.551445e+001 76 86 77
3.450063e+000 3.072423e+000 -1.531934e+001 80 99 92
4.352845e+000 3.585842e+000 -1.381625e+001 228 147 105
5.149966e+000 4.073241e+000 -1.224829e+001 205 176 114
-3.408278e-001 7.435790e-001 -2.079822e+001 217 134 106
6.700705e-001 2.775563e+000 -1.119969e+001 215 197 147
1.376713e+000 2.876413e+000 -1.073402e+001 242 250 249
3.863814e+000 2.738336e+000 -1.447558e+001 209 169 102
4.054685e+000 2.831841e+000 -1.423022e+001 210 161 94
4.251228e+000 2.649705e+000 -1.317489e+001 171 151 136
4.711452e+000 2.780889e+000 -1.299898e+001 217 143 95
4.895977e+000 2.903720e+000 -1.283492e+001 172 91 96
4.873936e+000 2.912930e+000 -1.278379e+001 172 91 96
-2.336049e+000 1.774655e+000 -8.739416e+000 123 105 92
3.645650e+000 2.523715e+000 -1.176830e+001 91 71 47
-3.872590e+000 1.211549e+000 -8.500373e+000 157 130 87
5.569420e+000 2.318136e+000 -1.116647e+001 137 103 60
-1.814637e+000 1.156950e+000 -9.171254e+000 105 94 76
3.336057e+000 1.721725e+000 -1.065969e+001 78 61 45
2.244838e-001 1.361075e+000 -9.233183e+000 211 184 173
3.208659e+000 1.532612e+000 -1.016857e+001 75 57 42
1.824421e+000 1.341593e+000 -9.124151e+000 119 105 84
2.446682e-001 7.380984e-001 -9.231446e+000 161 122 99
4.757844e+000 9.795828e-001 -1.062511e+001 140 118 94
-1.476841e-001 2.011135e-001 -9.191514e+000 214 196 182
2.637171e+000 9.616570e-001 -8.655677e+000 45 35 32
2.627389e+000 9.675260e-001 -8.639905e+000 45 35 32
2.041835e+000 1.971203e-001 -8.517273e+000 225 225 216
-7.502486e-001 -3.796495e+000 -1.255002e+001 199 200 186
1.363414e+000 -8.037756e-001 -9.257875e+000 174 160 137
4.442566e+000 -2.496952e+000 -1.195500e+001 206 127 67
4.913095e+000 -2.493301e+000 -1.166073e+001 235 217 174
4.913095e+000 -2.493301e+000 -1.166073e+001 235 217 174
4.036537e+000 -4.259735e+000 -1.264351e+001 171 105 78
1.698300e+000 2.716517e+000 -1.833137e+001 246 189 144
3.394380e+000 3.784276e+000 -1.511458e+001 111 105 101
-3.744378e+000 2.555124e+000 -8.509166e+000 186 122 121
6.533988e-001 1.787164e+000 -2.012997e+001 239 185 139
6.533988e-001 1.787164e+000 -2.012997e+001 239 185 139
7.865195e-001 1.584492e+000 -1.967306e+001 231 120 95
1.007644e+000 1.801429e+000 -1.939451e+001 235 132 105
1.484045e+000 2.366866e+000 -1.847147e+001 227 121 95
4.078757e+000 3.412759e+000 -1.430435e+001 214 150 108
4.846801e+000 3.904266e+000 -1.293579e+001 230 235 242
-3.804117e+000 2.245766e+000 -8.542083e+000 104 76 49
2.950584e-002 1.040223e+000 -2.020036e+001 239 159 99
3.598322e+000 3.019154e+000 -1.479588e+001 174 104 83
3.913220e+000 3.034565e+000 -1.453972e+001 191 132 88
4.225088e+000 3.352257e+000 -1.403998e+001 211 126 96
4.927250e+000 3.732866e+000 -1.275811e+001 230 231 236
5.261081e+000 3.884527e+000 -1.190204e+001 235 233 243
-5.583251e-001 3.479558e-001 -2.072226e+001 207 216 232
6.089980e-001 2.627121e+000 -1.119897e+001 186 149 75
4.134028e+000 2.747791e+000 -1.415462e+001 182 117 74
-3.046920e+000 2.022842e+000 -8.223948e+000 144 121 90
-2.501160e+000 2.068230e+000 -8.509176e+000 82 59 41
1.384626e+000 2.628116e+000 -1.041547e+001 143 126 108
2.833733e+000 2.702313e+000 -1.138125e+001 88 66 45
3.260140e+000 2.671992e+000 -1.152784e+001 135 113 89
4.277705e+000 2.692555e+000 -1.350276e+001 191 118 73
-3.017031e+000 1.749745e+000 -8.321959e+000 131 105 78
1.208076e+000 2.466230e+000 -1.034058e+001 132 146 117
3.795706e+000 2.465213e+000 -1.183703e+001 127 105 84
4.319044e+000 2.507373e+000 -1.226720e+001 143 123 99
-3.171160e+000 1.659093e+000 -8.229857e+000 140 112 78
-2.683233e+000 1.558894e+000 -8.561182e+000 96 71 49
-3.037236e+000 1.280165e+000 -8.387539e+000 132 106 85
-2.330740e+000 1.399496e+000 -8.809304e+000 101 76 56
2.960976e+000 1.266084e+000 -9.164552e+000 63 50 42
5.579399e+000 1.152316e+000 -1.103781e+001 217 85 75
5.579399e+000 1.152316e+000 -1.103781e+001 217 85 75
1.421325e+000 2.473553e-001 -9.441705e+000 178 160 145
1.289853e+000 -1.190717e+000 -9.509649e+000 212 215 207
1.400033e+000 -9.831309e-001 -9.350917e+000 205 202 195
5.713400e+000 -3.930374e-001 -1.053848e+001 238 214 189
5.104616e+000 -2.214251e+000 -1.122958e+001 220 209 204
3.939202e+000 3.326386e+000 -1.453376e+001 227 183 111
5.100730e+000 4.150592e+000 -1.238350e+001 234 240 239
5.064959e+000 4.157578e+000 -1.230518e+001 234 240 239
-7.446726e-001 5.961305e-001 -2.184764e+001 117 127 136
-4.841276e-001 7.442562e-001 -2.156485e+001 222 222 234
3.470199e+000 2.900555e+000 -1.546509e+001 75 96 90
3.753081e+000 2.807047e+000 -1.500493e+001 209 157 92
3.812984e+000 2.924691e+000 -1.453248e+001 194 136 86
3.812984e+000 2.924691e+000 -1.453248e+001 194 136 86
-8.034504e-001 2.573972e-001 -2.103731e+001 127 134 150
-8.034504e-001 2.573972e-001 -2.103731e+001 127 134 150
3.092290e+000 2.107598e+000 -1.102726e+001 98 80 60
3.958806e+000 2.390852e+000 -1.169495e+001 140 118 96
-3.122157e+000 1.389650e+000 -8.276411e+000 104 77 46
1.117563e+000 1.591653e+000 -9.924949e+000 111 71 52
9.510033e-001 1.341018e+000 -9.571684e+000 183 160 155
4.640574e+000 1.482131e+000 -1.119920e+001 144 123 102
2.118958e-001 1.002263e+000 -8.992471e+000 208 193 186
3.593614e+000 1.451390e+000 -1.026728e+001 77 62 43
3.663515e+000 1.141768e+000 -9.988739e+000 93 76 56
3.215016e+000 6.042286e-001 -8.934206e+000 48 38 30
1.917374e+000 -4.370101e-002 -8.626487e+000 221 230 227
4.617957e+000 3.581493e-002 -9.912456e+000 122 110 87
4.537091e+000 -3.098616e+000 -1.233712e+001 240 221 119
-1.071062e-001 1.103347e+000 -2.141004e+001 226 128 93
1.312204e+000 3.005753e+000 -1.113292e+001 208 201 188
-2.701386e+000 2.281896e+000 -8.509220e+000 95 71 47
4.238254e+000 2.992621e+000 -1.393873e+001 176 99 76
4.943665e+000 3.307832e+000 -1.262268e+001 188 93 93
9.499346e-001 2.386714e+000 -1.065778e+001 48 48 37
4.048494e+000 2.680367e+000 -1.338227e+001 200 152 85
-2.764264e+000 1.505081e+000 -8.377368e+000 86 58 40
1.501855e+000 1.939509e+000 -9.893849e+000 149 117 87
3.417803e+000 1.244029e+000 -1.006230e+001 80 63 45
3.799328e+000 5.817694e-001 -9.570504e+000 106 94 72
-1.369718e-001 -5.395094e-001 -8.834778e+000 216 200 190
5.305114e+000 -1.009066e+000 -1.084457e+001 229 197 98
4.014288e+000 2.979705e+000 -1.426438e+001 218 171 101
1.373571e+000 2.910535e+000 -1.069886e+001 210 208 203
-3.330710e+000 1.510156e+000 -8.173769e+000 164 138 101
1.143036e+000 1.206437e+000 -9.757647e+000 112 72 60
1.535236e+000 -7.067871e-001 -9.232910e+000 201 199 187
4.446643e+000 3.618997e+000 -1.356022e+001 205 114 95
1.923994e+000 2.560807e+000 -1.016360e+001 207 196 172
1.923994e+000 2.560807e+000 -1.016360e+001 207 196 172
-2.985459e+000 1.517266e+000 -8.366619e+000 151 131 104
-3.808461e+000 1.498380e+000 -8.468602e+000 172 143 109
-2.258871e+000 1.767155e+000 -8.817481e+000 169 162 154
5.791382e+000 7.103086e-001 -1.049311e+001 230 220 220
5.054181e+000 1.560686e-001 -1.030534e+001 110 88 64
3.302672e+000 2.161998e+000 -1.736060e+001 91 85 63
-3.553741e+000 1.812453e+000 -8.251815e+000 159 127 88
-1.756187e+000 1.154140e+000 -9.196600e+000 135 115 90
1.833377e+000 -5.382272e-001 -9.004300e+000 59 42 24
1.770644e+000 -5.969638e-001 -8.971016e+000 61 35 25
5.414773e+000 -1.086877e+000 -1.099008e+001 236 191 92
-2.934044e+000 5.533361e-001 -9.088287e+000 132 74 48
-1.542781e+000 1.843819e-001 -9.782164e+000 114 78 57
-2.067127e+000 3.934423e-001 -1.012858e+001 153 121 103
3.130095e-001 -9.432972e-001 -9.368264e+000 190 142 134
-8.998321e-002 -1.214192e+000 -9.580213e+000 162 114 103
1.044356e+000 -1.552600e+000 -9.787697e+000 227 208 184
5.084361e+000 -2.002297e+000 -1.138778e+001 250 190 94
-1.927767e+000 -2.256671e-001 -1.063300e+001 210 158 136
4.965466e+000 -2.290239e+000 -1.155530e+001 205 118 72
4.918276e+000 -2.438699e+000 -1.159896e+001 209 180 148
-1.677770e+000 -4.001654e-001 -1.080965e+001 209 164 145
5.953165e-001 -1.602482e+000 -1.020017e+001 180 150 122
8.728317e-001 -2.018327e+000 -9.992288e+000 197 180 151
4.834501e+000 -2.869770e+000 -1.161339e+001 218 186 183
-1.531524e+000 -1.226935e+000 -1.042196e+001 234 195 177
-1.298696e+000 -1.425703e+000 -1.031998e+001 193 132 131
-3.069939e-001 -2.159449e+000 -1.043268e+001 183 147 71
-4.640258e-001 -2.870780e+000 -1.088832e+001 210 183 134
2.294958e-001 -2.954862e+000 -1.118840e+001 146 116 86
1.826416e-001 -3.326738e+000 -1.121952e+001 199 173 145
-1.532744e-001 -3.256352e+000 -1.180252e+001 178 158 128
-9.356538e-002 -3.310868e+000 -1.167994e+001 209 188 161
-1.045475e-001 -3.313758e+000 -1.173427e+001 186 165 138
-1.496086e-001 -3.392637e+000 -1.177504e+001 189 165 139
8.321126e-002 -3.521857e+000 -1.133334e+001 233 211 185
5.495185e+000 1.755409e-001 -1.031259e+001 197 161 135
2.767852e-001 2.093494e+000 -1.014518e+001 222 175 156
1.438810e+000 7.838216e-001 -9.198205e+000 188 151 75
4.916101e-001 6.855434e-001 -9.215440e+000 183 139 114
5.460898e+000 -8.768197e-001 -1.091249e+001 181 155 130
3.027281e+000 -9.386915e-001 -1.007372e+001 67 47 30
5.417532e+000 -1.556388e+000 -1.084729e+001 211 128 50
-1.059773e+000 1.620212e-001 -9.823775e+000 167 104 95
5.219105e+000 -1.934690e+000 -1.116815e+001 237 217 216
5.124322e+000 -1.892595e+000 -1.136886e+001 188 94 55
-1.761014e+000 -4.587497e-001 -1.078689e+001 196 154 130
-1.531508e+000 -9.719479e-001 -9.938001e+000 225 184 166
2.390911e+000 -2.448589e+000 -1.121771e+001 75 53 32
4.347030e+000 -2.724839e+000 -1.245905e+001 151 103 71
6.070076e-001 -2.343237e+000 -1.055285e+001 141 109 79
-3.809042e+000 1.730657e+000 -8.341632e+000 157 122 92
4.910715e+000 -5.279561e-001 -1.027232e+001 131 98 75
5.343383e+000 -1.359154e+000 -1.108125e+001 231 213 206
-1.376977e+000 1.689321e-001 -9.686381e+000 172 124 114
3.851946e+000 -1.744047e+000 -1.124850e+001 115 87 63
3.956909e+000 -1.729891e+000 -1.114075e+001 110 80 54
-2.352479e+000 1.470670e-002 -1.116925e+001 204 174 141
-1.266458e+000 -1.309665e+000 -9.922052e+000 157 100 95
-1.266458e+000 -1.309665e+000 -9.922052e+000 157 100 95
2.016316e+000 -2.993170e+000 -1.178657e+001 76 54 33
-5.807495e-001 -2.503722e+000 -1.179939e+001 126 116 87
1.233209e-001 -2.976711e+000 -1.138453e+001 185 157 127
-8.869244e-002 -3.314915e+000 -1.166988e+001 207 186 159
-3.723428e+000 1.767324e+000 -8.338262e+000 167 134 96
-2.923615e+000 1.005499e+000 -8.883610e+000 170 147 129
4.945212e+000 -2.422796e+000 -1.156526e+001 236 217 215
-1.621672e+000 -1.095734e+000 -9.891363e+000 233 197 181
5.068795e-001 -1.620682e+000 -1.032633e+001 189 155 128
4.684818e+000 -2.537015e+000 -1.205043e+001 223 142 52
-5.374864e-001 -1.537874e+000 -1.040198e+001 165 129 108
2.767124e+000 -2.372604e+000 -1.126844e+001 93 68 46
4.618861e+000 -3.075572e+000 -1.196983e+001 231 216 208
4.618861e+000 -3.075572e+000 -1.196983e+001 231 216 208
-2.561095e-001 -2.736476e+000 -1.087431e+001 158 116 56
-1.140736e+000 -2.372211e+000 -1.361020e+001 167 147 122
-3.207101e-001 -3.147227e+000 -1.174245e+001 164 162 124
1.830440e+000 -4.048386e+000 -1.271589e+001 135 109 84
3.519948e+000 -4.895789e+000 -1.336145e+001 229 151 68
3.541341e+000 -1.826458e+000 -1.112469e+001 124 96 74
3.455524e+000 -2.686934e+000 -1.202000e+001 130 100 74
2.037614e+000 -3.494955e+000 -1.230497e+001 106 81 61
4.593546e-001 -3.513437e+000 -1.166059e+001 51 38 23
1.892740e+000 -3.998059e+000 -1.267505e+001 126 100 75
1.517318e+000 2.565604e+000 -1.036953e+001 183 162 133
-1.069016e+000 -1.514869e+000 -1.094708e+001 176 125 111
5.089962e-002 -3.438196e+000 -1.145260e+001 204 179 149
2.118839e+000 -3.869410e+000 -1.269739e+001 104 78 55
-6.694013e-002 -1.723534e+000 -1.055112e+001 187 157 84
3.596510e+000 -4.088552e+000 -1.344096e+001 120 57 34
-1.655437e+000 7.224670e-001 -9.192152e+000 133 109 81
5.152496e+000 -2.104773e+000 -1.125106e+001 224 180 98
1.043070e+000 -1.747430e+000 -9.882801e+000 192 162 134
1.837014e+000 -4.016041e-001 -8.930108e+000 135 104 77
2.463732e+000 -8.238236e-002 -1.000375e+001 88 76 60
-1.648224e-001 -5.047447e-001 -8.826196e+000 233 198 178
-2.160787e+000 4.059719e-001 -1.038590e+001 130 102 90
1.014773e+000 -8.916297e-001 -9.685946e+000 188 162 133
4.859086e+000 -2.678779e+000 -1.169149e+001 213 195 183
4.642181e-001 -3.602319e+000 -1.161735e+001 68 54 40
-1.791589e+000 -2.705856e-001 -1.067059e+001 180 132 112
-1.215747e+000 -1.167980e+000 -9.898680e+000 201 148 134
-2.988135e+000 1.811941e+000 -8.301949e+000 136 104 74
8.030412e-001 -1.309393e+000 -9.782968e+000 108 109 75
4.804629e+000 -2.248097e+000 -1.190578e+001 189 86 57
-3.120005e+000 1.425710e+000 -8.242124e+000 114 81 50
1.069495e+000 -6.312008e-001 -9.538776e+000 194 168 142
2.556760e+000 -3.529523e+000 -1.241859e+001 112 86 63
3.507848e+000 1.935821e+000 -1.092981e+001 92 77 56
4.828823e-001 1.480379e+000 -9.517421e+000 199 168 163
5.282763e+000 1.496912e+000 -1.183157e+001 133 103 97
5.345266e+000 1.789779e+000 -1.174846e+001 218 199 203
1.714041e+000 1.353555e+000 -9.021707e+000 134 145 124
5.338364e+000 1.356309e+000 -1.171569e+001 139 95 93
5.181309e+000 -1.815177e+000 -1.123571e+001 150 141 138
4.384197e+000 -3.663584e+000 -1.222651e+001 193 164 157
5.376724e+000 1.275403e+000 -1.156030e+001 144 111 94
2.109272e+000 1.369231e+000 -9.066004e+000 76 59 50
5.205212e+000 3.210064e+000 -1.217952e+001 172 103 106
-4.818853e-001 1.480334e+000 -1.069981e+001 141 95 103
5.093300e+000 1.106407e+000 -1.105689e+001 124 100 76
4.713627e+000 3.398722e+000 -1.310876e+001 204 123 86
5.326261e+000 1.888928e+000 -1.173151e+001 208 173 145
8.979615e-003 -1.428764e-001 -8.919471e+000 196 159 153
-3.625522e+000 2.283796e+000 -8.366958e+000 86 55 36
5.346883e+000 2.389628e+000 -1.175409e+001 134 104 100
-7.132727e-001 2.494482e-001 -2.121063e+001 141 151 164
5.324007e-001 2.600492e+000 -1.119834e+001 209 192 157
4.823950e-001 2.428799e+000 -1.112736e+001 215 190 179
1.534881e+000 2.906292e+000 -1.082691e+001 103 88 70
-6.785177e-001 1.876440e+000 -1.169444e+001 179 148 145
-5.314026e-001 1.892026e+000 -1.158127e+001 175 146 142
-2.073750e-002 2.229880e+000 -1.032040e+001 207 178 169
6.123943e-002 2.215929e+000 -1.028690e+001 231 208 190
1.464194e+000 2.544882e+000 -1.036950e+001 177 169 152
1.187548e+000 2.218754e+000 -1.025961e+001 102 109 93
1.666483e+000 2.373683e+000 -1.018727e+001 142 123 99
7.567105e-001 1.952685e+000 -9.761005e+000 147 103 103
2.076671e+000 1.802417e+000 -9.574258e+000 104 97 87
4.109961e+000 1.647737e+000 -1.105751e+001 116 98 76
5.213753e+000 1.789397e+000 -1.201201e+001 183 154 158
5.365922e+000 1.786793e+000 -1.170170e+001 215 137 151
2.103743e+000 1.391140e+000 -9.091253e+000 72 60 48
2.135046e+000 1.376606e+000 -9.108863e+000 43 32 25
1.973991e+000 1.102038e+000 -8.900416e+000 192 184 165
1.537888e-001 -1.095961e-001 -8.974046e+000 170 133 121
-1.206011e+000 -1.091148e+000 -9.896161e+000 202 153 145
5.329103e+000 -1.479306e+000 -1.108623e+001 158 149 158
5.244847e+000 3.907779e+000 -1.247081e+001 240 236 239
5.271956e+000 3.824780e+000 -1.214838e+001 239 233 246
4.147653e-001 2.447820e+000 -1.147850e+001 178 151 140
4.568393e+000 3.238827e+000 -1.335086e+001 216 143 88
4.568393e+000 3.238827e+000 -1.335086e+001 216 143 88
3.007023e+000 2.456435e+000 -1.114341e+001 98 77 57
3.120318e+000 2.483962e+000 -1.116618e+001 102 81 60
3.822428e+000 2.183998e+000 -1.145468e+001 92 74 54
9.830016e-001 1.832102e+000 -9.945301e+000 145 107 92
3.979134e+000 1.963499e+000 -1.125100e+001 117 99 79
2.071847e+000 1.841486e+000 -9.597091e+000 116 112 101
5.297973e+000 1.796365e+000 -1.172232e+001 223 162 168
3.204675e+000 1.508827e+000 -1.022827e+001 75 57 42
4.051764e+000 1.533380e+000 -1.077921e+001 100 84 62
1.601972e+000 1.225716e+000 -9.262490e+000 107 115 96
2.364009e+000 1.227564e+000 -8.782779e+000 139 141 125
1.939010e+000 8.934345e-001 -8.876321e+000 152 142 125
-5.824258e-001 -7.238162e-001 -9.406774e+000 194 143 144
5.551468e+000 -9.212633e-001 -1.071091e+001 221 212 211
4.505915e+000 -3.462507e+000 -1.206754e+001 207 205 204
1.522306e+000 2.384706e+000 -1.028932e+001 170 162 147
4.570479e+000 2.329590e+000 -1.219651e+001 120 95 73
1.469711e+000 1.846292e+000 -9.815877e+000 210 196 173
3.464819e+000 2.098256e+000 -1.106884e+001 112 95 75
3.486022e+000 1.994612e+000 -1.097724e+001 107 91 73
3.909485e+000 1.937905e+000 -1.120993e+001 114 98 75
5.338548e+000 2.453239e-001 -1.032756e+001 133 112 85
