ply
format ascii 1.0
element face 0
property list uchar int vertex_indices
element vertex 873
property float x
property float y
property float z
property uchar diffuse_red
property uchar diffuse_green
property uchar diffuse_blue
end_header
1.252485e+000 -2.106518e+000 -1.003202e+001 60 48 38
1.339634e+000 -1.941417e+000 -9.797125e+000 147 139 120
-7.768714e-001 -1.908128e+000 -1.155967e+001 164 116 95
-4.992712e-001 -2.225941e+000 -1.067273e+001 174 147 94
-4.992712e-001 -2.225941e+000 -1.067273e+001 174 147 94
-8.890409e-003 -2.095466e+000 -1.019598e+001 212 192 162
-8.101105e-001 -2.494856e+000 -1.208408e+001 118 117 86
3.835960e-002 -2.644625e+000 -1.068375e+001 210 186 142
2.867213e+000 -3.009706e+000 -1.213066e+001 121 99 76
2.882559e+000 -3.075015e+000 -1.221285e+001 97 75 52
3.453981e+000 -2.982630e+000 -1.232118e+001 120 91 63
3.654567e+000 -3.076055e+000 -1.248140e+001 142 113 81
-4.631414e-001 -2.866259e+000 -1.092314e+001 177 155 115
1.271037e+000 -3.267788e+000 -1.179691e+001 134 118 102
2.958542e+000 -3.454734e+000 -1.267433e+001 125 101 75
4.351384e+000 -3.701479e+000 -1.208603e+001 224 167 67
-7.052095e-001 -3.226407e+000 -1.218615e+001 180 157 129
-3.306014e-001 -3.248435e+000 -1.180950e+001 125 130 95
1.767608e-001 -3.311464e+000 -1.119869e+001 237 223 199
2.886283e+000 -3.862530e+000 -1.300470e+001 103 77 50
-5.149970e-002 -3.646031e+000 -1.141510e+001 200 183 155
6.175114e-002 -3.653065e+000 -1.114776e+001 154 123 100
4.346176e-001 -3.440370e+000 -1.139299e+001 53 42 30
2.902884e-001 -3.786434e+000 -1.171103e+001 73 58 43
3.736524e-001 -3.748904e+000 -1.155233e+001 137 128 111
3.736524e-001 -3.748904e+000 -1.155233e+001 137 128 111
9.071324e-001 -3.895396e+000 -1.198971e+001 133 117 102
6.026831e+000 2.372867e+000 -1.043143e+001 236 177 109
-3.279441e+000 2.714533e+000 -8.530027e+000 154 114 106
3.315434e+000 5.083628e+000 -1.541217e+001 216 146 86
-3.284865e+000 2.396162e+000 -8.440545e+000 113 86 57
4.752857e+000 3.165864e+000 -1.310571e+001 230 172 134
5.698522e+000 2.373594e+000 -1.128226e+001 171 140 109
-3.659372e+000 2.103600e+000 -8.354645e+000 165 135 101
4.352826e-001 1.915808e+000 -9.549008e+000 202 154 144
1.107450e+000 1.805028e+000 -9.779778e+000 158 126 101
4.022715e+000 2.064800e+000 -1.150219e+001 121 95 70
4.719955e+000 2.180721e+000 -1.205958e+001 195 171 147
-3.678869e+000 1.774348e+000 -8.317173e+000 119 92 63
3.344413e-001 1.529419e+000 -9.528723e+000 180 125 118
5.263563e-001 1.497388e+000 -9.330528e+000 198 152 139
2.556401e+000 9.270910e-001 -8.740339e+000 76 61 44
4.866000e+000 1.749279e+000 -1.168666e+001 188 166 137
4.856778e+000 1.429689e+000 -1.139796e+001 116 86 60
5.177192e+000 1.753807e+000 -1.182770e+001 234 213 202
-3.535649e+000 1.406409e+000 -8.253697e+000 149 120 90
1.548305e+000 1.109658e+000 -9.100656e+000 97 93 69
-3.501237e+000 1.322033e+000 -8.219368e+000 118 88 62
8.704564e-001 7.954165e-001 -9.322381e+000 157 115 91
1.578746e+000 5.993551e-001 -8.978452e+000 165 135 73
-3.107491e-001 7.995724e-002 -9.470575e+000 202 159 143
3.783704e-001 -7.150028e-002 -9.243525e+000 140 95 72
2.496965e+000 -3.820013e-001 -9.371027e+000 48 41 35
-1.771747e+000 1.825441e-001 -1.025545e+001 173 136 127
-1.285407e+000 2.636667e-002 -1.022557e+001 173 120 116
-1.297097e+000 3.045555e-002 -1.022132e+001 173 120 116
-1.314341e+000 2.839881e-004 -1.047988e+001 132 83 76
-1.129072e+000 1.229955e-002 -1.040359e+001 173 114 112
-2.032539e-001 -3.670782e-001 -8.967460e+000 230 205 184
1.385087e+000 -8.665756e-001 -9.363084e+000 154 116 76
1.866798e+000 -1.050871e+000 -9.572491e+000 141 119 97
2.147932e+000 -1.036693e+000 -1.006374e+001 39 30 27
4.173541e+000 -1.078975e+000 -1.080844e+001 119 96 72
-1.341073e+000 -4.899945e-001 -1.036032e+001 149 107 93
2.038693e-001 -9.424526e-001 -9.632977e+000 141 86 84
9.622765e-001 -1.161563e+000 -9.669847e+000 136 140 108
-5.731467e-001 -1.067082e+000 -9.210591e+000 156 101 94
-3.740045e-001 -1.137302e+000 -9.396448e+000 186 144 137
5.904339e-001 -1.300769e+000 -1.004874e+001 136 100 76
3.148951e+000 -1.787526e+000 -1.099419e+001 84 64 40
-6.681814e-002 -1.400376e+000 -1.002999e+001 209 181 157
5.662574e-001 -1.585345e+000 -1.024672e+001 160 131 104
1.721044e+000 -1.779963e+000 -1.008038e+001 46 33 25
-7.123874e-001 -1.813775e+000 -1.141798e+001 182 142 113
-1.421407e-001 -1.653724e+000 -1.069252e+001 111 80 51
6.447091e-001 -1.829020e+000 -1.019690e+001 149 110 74
7.342810e-001 -1.816646e+000 -1.019046e+001 155 128 101
-8.108379e-001 -2.060727e+000 -1.176770e+001 161 111 100
3.697412e+000 -2.651018e+000 -1.202056e+001 106 79 50
-5.856314e-001 -2.304628e+000 -1.165574e+001 135 119 94
-4.959999e-001 -2.410087e+000 -1.108491e+001 117 93 73
-3.848853e-001 -2.431362e+000 -1.067783e+001 147 123 84
3.317103e+000 -3.166869e+000 -1.248754e+001 113 87 59
4.001647e-001 -2.747628e+000 -1.082652e+001 154 126 104
2.815953e-001 -2.952945e+000 -1.078180e+001 197 178 154
1.444504e+000 -2.922608e+000 -1.097160e+001 132 117 96
1.369575e+000 -3.118213e+000 -1.171761e+001 130 117 100
2.901053e+000 -3.460242e+000 -1.274179e+001 94 70 44
3.095876e+000 -3.600582e+000 -1.290228e+001 129 102 73
3.095876e+000 -3.600582e+000 -1.290228e+001 129 102 73
4.068163e+000 -3.408540e+000 -1.280037e+001 220 156 60
-2.185109e-001 -3.225746e+000 -1.172144e+001 122 118 80
5.640802e-001 -3.254751e+000 -1.136763e+001 49 42 26
1.138591e+000 -3.527533e+000 -1.202300e+001 133 117 102
2.127551e+000 -3.815845e+000 -1.269924e+001 103 81 58
2.801110e+000 -3.617485e+000 -1.275626e+001 129 104 84
-6.218631e-001 -3.355612e+000 -1.216607e+001 210 191 161
-2.547531e-001 -3.397058e+000 -1.183250e+001 180 163 137
3.694433e+000 4.896071e+000 -1.487507e+001 223 126 92
3.694433e+000 4.896071e+000 -1.487507e+001 223 126 92
3.788380e+000 4.799051e+000 -1.493589e+001 231 194 121
4.143841e+000 3.718224e+000 -1.375883e+001 235 173 125
1.200055e+000 2.441420e+000 -1.040208e+001 132 129 98
4.469470e+000 3.012462e+000 -1.297816e+001 241 187 144
-3.785931e+000 2.408249e+000 -8.604283e+000 176 129 115
2.096332e+000 1.722803e+000 -9.436783e+000 124 113 93
-3.162058e+000 1.732410e+000 -8.237786e+000 116 87 55
1.048023e+000 1.845870e+000 -9.894410e+000 200 177 154
1.455810e+000 1.510145e+000 -9.983605e+000 137 97 72
1.708815e+000 1.421227e+000 -9.231286e+000 96 98 76
2.479799e+000 1.030528e+000 -9.060263e+000 92 76 60
5.329596e+000 1.590170e+000 -1.179738e+001 231 221 221
5.137022e+000 6.526241e-001 -1.061764e+001 137 104 73
-3.238759e+000 1.086075e+000 -8.710087e+000 133 111 93
1.314157e+000 6.450178e-001 -9.743804e+000 127 86 62
1.515197e+000 2.882571e-001 -9.164584e+000 148 139 108
2.080205e+000 6.789723e-002 -8.678861e+000 94 72 50
3.025264e+000 -6.354172e-003 -8.884918e+000 57 40 29
-3.298191e+000 9.601384e-001 -9.076742e+000 67 58 57
1.765449e+000 -1.343002e-002 -8.770792e+000 144 121 81
4.556502e+000 -1.914840e-001 -1.007382e+001 86 62 39
-1.591618e+000 2.651077e-001 -9.663298e+000 118 91 71
2.520757e-001 -1.772631e-001 -8.839484e+000 178 150 128
-2.071796e+000 3.527174e-001 -1.048284e+001 102 74 62
-1.492602e+000 1.052859e-001 -9.939764e+000 121 85 73
-1.089645e+000 5.992867e-002 -9.810090e+000 177 122 119
-6.888978e-001 -1.713093e-001 -1.010134e+001 136 92 83
1.215432e+000 -6.514912e-001 -9.278678e+000 207 191 166
2.680293e+000 -8.015483e-001 -9.750669e+000 141 129 113
3.230978e+000 -6.154868e-001 -9.768281e+000 86 64 44
1.280030e+000 -8.577865e-001 -9.298885e+000 216 202 178
1.933125e+000 -8.511926e-001 -9.368501e+000 98 88 64
6.710992e-001 -9.298067e-001 -9.757934e+000 114 83 69
3.874598e+000 -1.325340e+000 -1.070336e+001 120 96 72
2.939867e+000 -1.592725e+000 -1.070965e+001 82 61 42
3.521821e+000 -1.554960e+000 -1.092533e+001 112 92 68
1.656908e+000 -1.923393e+000 -1.008440e+001 85 75 65
-1.010391e+000 -1.770850e+000 -1.089742e+001 184 134 125
-6.393860e-001 -1.577105e+000 -1.063383e+001 138 97 76
-7.243986e-001 -2.201960e+000 -1.192819e+001 148 116 91
-4.084969e-001 -1.926245e+000 -1.076214e+001 114 93 74
4.384972e-002 -2.300397e+000 -1.030070e+001 170 139 93
-7.994264e-001 -2.363814e+000 -1.202637e+001 106 105 71
-4.813105e-001 -2.297999e+000 -1.068873e+001 197 174 129
2.631717e+000 -3.071823e+000 -1.211579e+001 117 96 75
5.140762e-001 -2.909464e+000 -1.091352e+001 67 47 31
2.368658e+000 -3.099366e+000 -1.208279e+001 112 95 72
2.957400e+000 -3.790231e+000 -1.293899e+001 128 101 72
5.497981e+000 3.577935e+000 -1.166695e+001 243 226 229
-2.857178e+000 2.271332e+000 -8.419749e+000 132 109 78
2.009075e+000 2.026919e+000 -9.810914e+000 128 115 97
6.876544e-001 1.875859e+000 -9.667162e+000 158 109 95
2.493324e-002 1.821265e+000 -1.015494e+001 222 172 167
1.496884e+000 1.694515e+000 -9.855404e+000 160 128 97
1.952742e+000 1.375571e+000 -9.144522e+000 196 178 154
2.098346e+000 1.382184e+000 -9.121886e+000 94 77 61
4.137381e+000 1.677270e+000 -1.111024e+001 149 124 100
6.008642e+000 1.270825e+000 -1.085333e+001 208 158 59
-2.084862e+000 1.657952e+000 -9.500868e+000 102 74 53
1.933965e+000 1.028096e+000 -8.958759e+000 149 126 102
1.897944e+000 8.881182e-001 -8.981444e+000 181 160 135
2.132215e+000 8.039992e-001 -8.627622e+000 160 140 116
1.693258e-002 7.358374e-001 -9.305951e+000 167 125 99
2.448364e+000 1.093308e-001 -8.731602e+000 70 59 42
-1.727746e+000 4.169474e-001 -9.565608e+000 109 90 74
-1.727746e+000 4.169474e-001 -9.565608e+000 109 90 74
-1.666738e+000 1.538578e-001 -1.006715e+001 85 63 49
-1.666738e+000 1.538578e-001 -1.006715e+001 85 63 49
-1.374300e+000 1.022294e-001 -9.869679e+000 167 123 115
-4.671497e-001 -2.859382e-001 -9.561768e+000 162 109 102
2.317754e+000 -9.045499e-001 -9.904909e+000 204 199 170
-1.558744e+000 -6.903866e-001 -1.041461e+001 189 145 134
5.185562e-001 -9.054643e-001 -9.456893e+000 102 55 45
1.788694e+000 -1.042390e+000 -9.719208e+000 66 56 47
3.630504e+000 -1.261006e+000 -1.069692e+001 82 60 43
-1.857530e+000 -7.684668e-001 -1.072262e+001 184 150 126
-9.000966e-001 -1.115265e+000 -9.359581e+000 213 183 173
-3.769732e-001 -1.680910e+000 -1.094627e+001 145 120 80
-5.135945e-001 -1.870614e+000 -1.127245e+001 169 141 100
1.060687e+000 -1.952060e+000 -9.980620e+000 64 48 32
9.838988e-001 -2.126238e+000 -1.018069e+001 74 59 40
1.475098e+000 -2.171592e+000 -1.022914e+001 157 150 129
1.232601e+000 -2.874490e+000 -1.149783e+001 162 154 133
1.449175e+000 -2.719399e+000 -1.113421e+001 69 55 40
1.349524e+000 -2.887205e+000 -1.136363e+001 65 53 39
1.943140e+000 -2.896431e+000 -1.167402e+001 80 61 41
-4.572528e-001 -2.795357e+000 -1.084674e+001 211 194 149
-4.218967e-001 -3.298518e+000 -1.182774e+001 170 161 132
8.725850e-001 -3.405821e+000 -1.173741e+001 183 175 147
2.132974e+000 -3.533596e+000 -1.244204e+001 90 66 46
1.745613e+000 -3.749201e+000 -1.235005e+001 117 97 73
-4.082432e-002 -3.756734e+000 -1.139961e+001 231 218 194
4.502203e+000 3.363037e+000 -1.348765e+001 242 193 152
3.893287e+000 2.698278e+000 -1.220759e+001 242 196 163
4.691092e+000 2.290348e+000 -1.211365e+001 193 164 135
-3.018019e+000 1.673236e+000 -8.279803e+000 106 75 47
-3.624366e+000 1.360883e+000 -8.058632e+000 161 130 99
-3.711343e+000 1.465676e+000 -8.346506e+000 161 130 99
-3.057248e+000 1.376829e+000 -8.200284e+000 102 72 44
-2.977592e+000 1.184044e+000 -8.718891e+000 137 117 102
2.754136e+000 -2.181740e-001 -9.274000e+000 107 95 71
2.839726e+000 -2.859221e-001 -9.181563e+000 82 60 44
2.839726e+000 -2.859221e-001 -9.181563e+000 82 60 44
4.283321e+000 -2.757012e-001 -9.791923e+000 120 102 78
4.272386e+000 -2.827133e-001 -9.782040e+000 120 102 78
2.637625e+000 -3.624726e-001 -9.372926e+000 149 135 108
2.707142e+000 -4.459390e-001 -9.285746e+000 75 56 41
2.628868e+000 -4.718803e-001 -9.024727e+000 75 56 41
2.507030e+000 -5.347863e-001 -9.524654e+000 95 86 60
2.071691e+000 -1.139839e+000 -1.006724e+001 37 31 24
2.281834e+000 -1.224789e+000 -9.961149e+000 66 48 34
2.287250e+000 -1.224977e+000 -9.988979e+000 66 48 34
-3.136702e-001 -1.235517e+000 -9.075073e+000 130 78 65
-1.466274e+000 -1.292617e+000 -1.033507e+001 226 196 178
-7.052610e-001 -1.477690e+000 -1.029086e+001 157 122 109
6.069634e-001 -1.733264e+000 -1.014729e+001 210 192 170
3.256054e+000 -1.894380e+000 -1.109281e+001 121 99 75
8.957523e-001 -3.069092e+000 -1.139325e+001 46 39 30
2.413646e+000 -3.267719e+000 -1.230837e+001 118 100 78
7.770952e-001 -3.909592e+000 -1.191833e+001 69 55 41
7.770952e-001 -3.909592e+000 -1.191833e+001 69 55 41
-2.818786e+000 2.519007e+000 -8.623939e+000 119 93 68
4.537734e+000 2.879973e+000 -1.267636e+001 226 148 129
1.850026e+000 1.958043e+000 -9.814179e+000 65 49 36
-2.172129e+000 1.722929e+000 -8.917861e+000 167 146 131
2.177806e+000 1.191870e+000 -8.903978e+000 79 60 46
3.998719e+000 1.410226e+000 -1.081859e+001 104 77 56
-2.535051e-001 1.084020e+000 -9.557580e+000 170 112 110
-3.714027e+000 1.204647e+000 -8.698637e+000 190 170 153
-3.721527e+000 1.210675e+000 -8.717204e+000 190 170 153
-3.874341e+000 1.124167e+000 -8.920043e+000 111 79 57
3.911780e+000 -2.862805e-001 -9.625389e+000 113 92 71
1.881489e+000 -4.071329e-001 -8.859459e+000 55 37 28
3.935776e+000 -4.553018e-001 -9.914395e+000 89 67 46
2.219707e+000 -1.071875e+000 -9.886588e+000 88 78 60
2.401313e+000 -1.013349e+000 -9.811292e+000 69 50 36
2.199903e+000 -1.447415e+000 -1.011792e+001 69 51 34
-9.067710e-001 -1.421215e+000 -9.886355e+000 185 151 138
4.578802e-001 -2.015722e+000 -1.026421e+001 204 183 158
1.265840e+000 -2.166049e+000 -1.002229e+001 54 44 32
1.856209e+000 -2.238343e+000 -1.047624e+001 62 48 37
-5.929513e-001 -2.144661e+000 -1.148843e+001 205 183 149
-9.295966e-001 -2.323251e+000 -1.266083e+001 210 191 159
-9.168825e-001 -2.313904e+000 -1.232712e+001 210 191 159
-2.310782e-001 -3.286064e+000 -1.183373e+001 128 127 87
2.987900e+000 -7.132217e-002 -8.898943e+000 67 49 35
2.470100e+000 -2.374136e-001 -9.039962e+000 43 34 27
2.277448e+000 -4.469217e-001 -8.936437e+000 86 82 73
4.875891e+000 -6.999295e-001 -1.045926e+001 105 77 55
8.729978e-001 -5.817199e-001 -9.676450e+000 105 69 49
-1.898060e+000 -2.621084e-001 -1.109217e+001 192 141 122
-2.682572e-001 -9.978995e-001 -9.388141e+000 132 81 63
1.929132e-001 -1.063519e+000 -9.657032e+000 118 60 55
3.037945e+000 -2.409709e+000 -1.154224e+001 84 64 40
5.080560e+000 3.334236e+000 -1.243406e+001 185 100 96
2.472592e+000 -9.265901e-002 -8.429782e+000 75 67 57
1.058306e-001 -7.161506e-001 -9.062398e+000 114 57 48
-1.929449e-001 -1.827945e+000 -1.055733e+001 73 51 29
1.050727e+000 2.361014e+000 -1.054268e+001 111 104 81
1.167507e+000 1.178329e+000 -9.715339e+000 122 81 61
-1.493277e+000 1.030569e+000 -9.229753e+000 214 196 172
-7.374165e-001 6.152415e-001 -9.272004e+000 197 173 149
1.085647e+000 8.855306e-001 -9.725551e+000 124 79 58
1.112405e+000 9.003887e-001 -9.801799e+000 124 79 58
1.778274e+000 -1.001213e+000 -9.136465e+000 67 58 43
1.759221e+000 6.506875e-001 -9.009087e+000 191 176 147
-1.273093e+000 4.277143e-002 -9.476994e+000 164 119 112
-5.485562e-001 -1.512741e+000 -1.005452e+001 150 104 93
-4.046885e+000 2.233750e+000 -8.961482e+000 170 122 109
1.746825e+000 1.363494e+000 -9.092028e+000 161 159 136
1.991635e+000 1.558806e+000 -9.449495e+000 151 131 108
2.374145e+000 1.596589e+000 -9.377140e+000 84 68 47
2.275358e+000 1.352502e+000 -9.141284e+000 117 104 85
6.693835e-001 1.598012e+000 -9.541170e+000 190 144 124
2.591727e+000 1.197978e+000 -8.966181e+000 117 105 88
2.915463e+000 1.310346e+000 -9.445576e+000 95 82 66
2.635587e+000 1.073050e+000 -8.853174e+000 78 65 43
2.855875e+000 9.498813e-001 -8.930539e+000 64 56 44
2.864066e+000 9.434734e-001 -9.017340e+000 84 75 67
-1.236560e-001 1.489881e+000 -1.036925e+001 190 134 134
1.311194e+000 1.065999e+000 -9.718164e+000 139 100 72
2.400650e+000 9.771014e-001 -9.198174e+000 68 52 39
2.595644e+000 5.189978e-001 -8.574505e+000 138 132 106
3.252081e+000 6.626015e-001 -9.071072e+000 82 61 41
2.427274e+000 4.506238e-001 -8.737566e+000 99 92 74
4.165164e+000 3.518186e-001 -9.592911e+000 114 89 67
-3.607576e+000 1.039727e+000 -9.471906e+000 224 219 215
2.401423e+000 3.364333e-001 -9.063956e+000 48 33 26
2.356968e+000 1.237765e-002 -8.614997e+000 124 112 94
2.887617e+000 3.753304e-003 -8.975054e+000 83 75 55
4.467338e+000 3.815873e-002 -9.914203e+000 110 85 63
2.222936e+000 -1.837070e-001 -8.803527e+000 206 199 169
2.753312e+000 -2.232497e-001 -9.079766e+000 206 201 172
5.553691e+000 -4.574139e-001 -1.028128e+001 224 132 52
2.251455e+000 -3.119456e-001 -8.875269e+000 81 69 51
2.633670e+000 -2.934207e-001 -9.263027e+000 146 135 114
2.595839e+000 -3.434132e-001 -9.322326e+000 219 213 183
2.557211e+000 -3.849378e-001 -9.327835e+000 215 210 181
2.688730e+000 -3.148749e-001 -9.253278e+000 212 207 184
2.751840e+000 -3.070995e-001 -9.196815e+000 234 228 207
-1.768949e+000 2.650727e-002 -1.078056e+001 168 126 104
-9.657027e-001 -2.523734e-001 -1.038994e+001 134 89 83
-1.779007e-001 -3.973540e-001 -8.908538e+000 224 191 172
1.230534e+000 -6.042302e-001 -9.181106e+000 203 186 158
1.561256e+000 -6.114968e-001 -9.052369e+000 241 228 210
1.963430e+000 -5.943138e-001 -9.224677e+000 227 218 194
1.743415e+000 -6.518369e-001 -9.185280e+000 50 36 20
1.917230e+000 -6.763099e-001 -9.294836e+000 211 204 185
1.917230e+000 -6.763099e-001 -9.294836e+000 211 204 185
1.945345e+000 -6.741134e-001 -9.279400e+000 63 55 36
2.371195e+000 -6.692589e-001 -9.557706e+000 199 194 166
-1.775764e+000 -3.231706e-001 -1.077618e+001 184 137 114
1.175335e+000 -8.205218e-001 -9.539171e+000 186 164 135
1.705767e+000 -9.519762e-001 -9.520909e+000 123 115 100
1.919215e+000 -9.144384e-001 -9.518257e+000 195 181 144
2.227040e+000 -1.025457e+000 -9.898061e+000 75 63 45
2.258767e+000 -1.030238e+000 -9.908001e+000 226 221 199
2.369276e+000 -1.011819e+000 -9.812969e+000 66 50 35
2.401341e+000 -8.624398e-001 -9.745236e+000 244 240 220
5.289251e+000 -1.277016e+000 -1.110208e+001 204 129 62
-7.757937e-001 -1.022945e+000 -9.243037e+000 227 190 182
-4.626257e-001 -9.594445e-001 -9.193789e+000 201 154 144
-9.356577e-002 -1.039770e+000 -9.497593e+000 160 112 105
-7.107975e-002 -1.102195e+000 -9.521802e+000 197 155 149
2.091718e+000 -1.255467e+000 -1.009986e+001 201 196 174
2.258566e+000 -1.080646e+000 -1.004677e+001 191 184 166
2.118108e+000 -1.156340e+000 -9.945999e+000 110 102 91
2.109795e+000 -1.272397e+000 -1.007084e+001 77 72 43
2.151919e+000 -1.277945e+000 -1.002137e+001 88 81 60
3.373847e+000 -1.394494e+000 -1.063540e+001 78 60 36
3.673491e+000 -1.439310e+000 -1.070224e+001 107 86 60
4.202611e+000 -1.522886e+000 -1.113820e+001 95 69 42
5.186233e+000 -1.565445e+000 -1.118862e+001 232 199 102
-1.270639e+000 -1.070629e+000 -9.868940e+000 210 159 146
-1.139873e+000 -1.141262e+000 -9.862860e+000 160 99 85
-9.013957e-001 -1.057587e+000 -9.385233e+000 179 140 131
1.661049e+000 -1.498708e+000 -9.922786e+000 45 35 25
2.884245e+000 -1.459972e+000 -1.052357e+001 81 63 43
3.721375e+000 -1.840571e+000 -1.119203e+001 88 64 40
5.170690e+000 -1.823043e+000 -1.117424e+001 218 187 132
-1.052621e+000 -1.400973e+000 -1.015017e+001 175 131 118
9.690598e-001 -1.768531e+000 -9.907750e+000 251 249 235
1.412178e+000 -1.774540e+000 -9.916159e+000 116 108 87
4.888751e+000 -2.182739e+000 -1.136405e+001 205 117 77
4.922690e+000 -2.321903e+000 -1.147967e+001 109 89 80
5.003881e+000 -2.037146e+000 -1.113223e+001 225 195 134
5.016852e+000 -2.212541e+000 -1.111653e+001 217 166 93
5.413098e+000 -2.234066e+000 -1.033381e+001 255 227 192
5.413098e+000 -2.234066e+000 -1.033381e+001 255 227 192
-2.670553e-001 -1.917420e+000 -1.067878e+001 128 96 70
-1.901068e-001 -1.858104e+000 -1.070109e+001 104 78 56
2.015878e-002 -2.035793e+000 -1.011621e+001 205 182 150
8.278849e-001 -2.125600e+000 -1.014473e+001 189 171 143
1.034928e+000 -1.894705e+000 -9.900855e+000 155 134 107
1.352047e+000 -1.980838e+000 -9.993372e+000 149 141 119
1.501573e+000 -2.230160e+000 -1.014068e+001 74 65 48
3.284229e+000 -2.331943e+000 -1.134858e+001 102 82 57
3.915278e+000 -2.326257e+000 -1.161218e+001 104 76 47
3.978156e+000 -2.349749e+000 -1.171015e+001 123 92 64
4.779619e+000 -2.606453e+000 -1.158166e+001 132 111 98
4.779619e+000 -2.606453e+000 -1.158166e+001 132 111 98
-4.334735e-001 -2.052452e+000 -1.107492e+001 110 89 66
-1.382182e-001 -2.305683e+000 -1.046955e+001 167 129 73
-6.872624e-003 -2.250153e+000 -1.015635e+001 200 173 142
-2.570268e-002 -2.280824e+000 -1.015850e+001 181 161 122
1.165884e+000 -2.368482e+000 -1.029436e+001 119 112 95
4.545058e+000 -2.686483e+000 -1.209521e+001 229 155 68
4.777335e+000 -2.828094e+000 -1.156697e+001 213 183 175
4.698071e+000 -2.906694e+000 -1.160996e+001 154 137 124
5.124313e+000 -2.817434e+000 -1.046175e+001 216 169 117
-3.576802e-001 -2.484516e+000 -1.078663e+001 185 163 119
-2.809261e-001 -2.502006e+000 -1.044957e+001 178 154 113
-2.214063e-001 -2.589926e+000 -1.061072e+001 195 171 123
1.872749e-002 -2.624853e+000 -1.056409e+001 209 188 139
-7.744431e-002 -2.689302e+000 -1.070729e+001 197 164 105
1.336735e+000 -2.750811e+000 -1.126899e+001 118 111 85
1.226611e+000 -2.816496e+000 -1.130148e+001 100 91 73
2.688506e+000 -2.976008e+000 -1.199747e+001 91 69 45
4.422454e+000 -3.327321e+000 -1.215373e+001 138 123 114
4.422454e+000 -3.327321e+000 -1.215373e+001 138 123 114
4.860986e+000 -3.308493e+000 -1.085570e+001 231 200 148
4.860986e+000 -3.308493e+000 -1.085570e+001 231 200 148
5.021026e+000 -3.071839e+000 -1.076616e+001 253 226 184
1.548684e-001 -3.074644e+000 -1.128252e+001 178 157 135
6.367617e-001 -3.105056e+000 -1.140291e+001 76 67 51
9.393169e-001 -3.248056e+000 -1.159063e+001 134 125 95
4.370943e+000 -3.416287e+000 -1.202497e+001 211 195 190
4.329691e+000 -3.512285e+000 -1.228006e+001 213 186 183
4.412355e+000 -3.486824e+000 -1.212753e+001 149 134 120
4.172502e+000 -3.660874e+000 -1.249439e+001 233 198 94
4.461529e+000 -3.663573e+000 -1.206160e+001 204 125 37
-1.218497e-001 -3.234400e+000 -1.171948e+001 195 179 154
-1.324805e-001 -3.304688e+000 -1.175653e+001 189 173 148
4.472882e-001 -3.268747e+000 -1.136316e+001 102 91 68
8.715266e-001 -3.430445e+000 -1.182429e+001 138 126 102
9.739206e-001 -3.277030e+000 -1.167719e+001 222 213 184
8.583743e-001 -3.487864e+000 -1.180860e+001 225 213 191
8.583743e-001 -3.487864e+000 -1.180860e+001 225 213 191
7.811862e-001 -3.621174e+000 -1.194307e+001 126 119 93
1.116228e+000 -3.363552e+000 -1.172554e+001 87 74 57
3.908373e+000 -4.137785e+000 -1.286401e+001 194 184 176
4.043883e+000 -3.984315e+000 -1.267381e+001 108 97 92
4.225149e+000 -3.794046e+000 -1.237065e+001 144 131 122
6.973682e-001 -3.742762e+000 -1.187296e+001 86 79 60
7.986139e-001 -3.734319e+000 -1.178371e+001 64 55 38
-3.602836e+000 2.217341e+000 -8.508423e+000 148 115 85
1.652706e+000 1.387200e+000 -9.239138e+000 130 132 103
2.568306e+000 9.051015e-001 -8.624573e+000 124 113 85
2.904875e+000 1.224815e+000 -9.167378e+000 125 107 85
3.004432e+000 1.166204e+000 -9.230484e+000 68 52 31
3.081622e+000 8.572311e-001 -8.992511e+000 97 80 60
1.838466e-001 1.133522e+000 -9.093004e+000 190 152 139
1.838466e-001 1.133522e+000 -9.093004e+000 190 152 139
1.650642e+000 8.729203e-001 -8.753475e+000 170 154 119
2.603973e+000 6.470394e-001 -8.557854e+000 100 91 75
-2.971611e+000 1.078380e+000 -8.886681e+000 71 58 57
1.393331e+000 6.043446e-001 -9.392126e+000 172 146 123
3.022404e+000 2.713762e-001 -8.799082e+000 63 52 34
4.508181e+000 2.895452e-001 -9.850963e+000 96 70 47
1.430767e+000 3.562201e-001 -9.687869e+000 177 152 130
1.430767e+000 3.562201e-001 -9.687869e+000 177 152 130
2.530567e+000 8.662241e-002 -8.624136e+000 53 44 29
2.751904e+000 3.037418e-002 -9.092546e+000 40 33 22
2.922445e+000 6.112850e-002 -8.898077e+000 104 95 78
2.179587e+000 -1.123185e-001 -8.820802e+000 90 83 62
2.224169e+000 -2.459685e-001 -8.885919e+000 69 62 43
2.867938e+000 -1.332127e-001 -9.210499e+000 190 179 159
2.681438e+000 -2.120713e-001 -9.085030e+000 220 213 187
2.681438e+000 -2.120713e-001 -9.085030e+000 220 213 187
2.689443e+000 -2.623900e-001 -9.181406e+000 72 60 38
2.689443e+000 -2.623900e-001 -9.181406e+000 72 60 38
-1.601928e+000 1.441993e-001 -9.881694e+000 97 70 55
5.379476e-001 -2.483026e-001 -9.134035e+000 137 89 75
1.669111e+000 -3.498203e-001 -8.931595e+000 236 230 209
2.145766e+000 -2.862896e-001 -9.054262e+000 67 56 37
2.049613e+000 -4.706076e-001 -8.997622e+000 62 48 35
2.611787e+000 -4.065984e-001 -9.298051e+000 240 236 203
2.611787e+000 -4.065984e-001 -9.298051e+000 240 236 203
2.519193e+000 -4.449889e-001 -9.392381e+000 228 222 200
2.604393e+000 -3.936046e-001 -9.389381e+000 60 45 19
2.596547e+000 -4.343234e-001 -9.347866e+000 237 229 190
4.453197e+000 -4.460628e-001 -1.015806e+001 76 52 28
-1.029040e+000 -2.242324e-001 -1.057689e+001 133 87 82
1.560980e+000 -4.754026e-001 -9.096443e+000 181 164 138
1.630460e+000 -5.685525e-001 -9.042189e+000 150 129 100
2.052327e+000 -6.331814e-001 -9.213454e+000 80 66 52
2.091086e+000 -6.612666e-001 -9.329534e+000 109 97 82
2.358146e+000 -6.990488e-001 -9.628391e+000 203 198 170
2.412367e+000 -7.196894e-001 -9.752573e+000 71 59 38
2.412367e+000 -7.196894e-001 -9.752573e+000 71 59 38
2.478820e+000 -5.539063e-001 -9.459374e+000 92 78 56
2.478820e+000 -5.539063e-001 -9.459374e+000 92 78 56
2.527547e+000 -5.787829e-001 -9.588906e+000 238 232 211
2.429802e+000 -6.829814e-001 -9.547828e+000 237 234 207
4.499462e+000 -9.117288e-001 -1.052845e+001 120 91 61
2.043439e+000 -7.880150e-001 -9.529427e+000 50 37 21
2.387505e+000 -8.092625e-001 -9.762845e+000 244 240 211
2.355053e+000 -8.649918e-001 -9.715781e+000 73 63 40
2.262540e+000 -9.613218e-001 -9.852072e+000 80 74 51
2.256058e+000 -1.070824e+000 -9.908390e+000 79 71 51
4.232152e+000 -1.174481e+000 -1.081239e+001 86 60 37
5.235476e+000 -1.197890e+000 -1.134669e+001 153 73 53
-4.023401e-001 -1.077893e+000 -9.219389e+000 169 125 116
1.046812e+000 -9.897881e-001 -9.552215e+000 154 148 119
1.744865e+000 -1.329418e+000 -9.639873e+000 69 52 36
2.089633e+000 -1.334194e+000 -1.013163e+001 95 88 60
2.089633e+000 -1.334194e+000 -1.013163e+001 95 88 60
3.613970e+000 -1.258112e+000 -1.056682e+001 85 63 42
3.647263e+000 -1.462423e+000 -1.070971e+001 105 83 58
5.120016e+000 -1.386899e+000 -1.116986e+001 181 98 52
5.219668e+000 -1.591976e+000 -1.112620e+001 90 74 50
-9.143627e-001 -1.086512e+000 -9.363187e+000 224 187 183
1.860715e-001 -1.263895e+000 -9.719531e+000 169 125 115
6.223949e-001 -1.298530e+000 -9.910798e+000 183 164 137
9.011290e-001 -1.320773e+000 -9.764766e+000 132 115 84
1.638436e+000 -1.418122e+000 -9.962140e+000 83 74 56
2.963268e+000 -1.610949e+000 -1.075432e+001 79 58 37
4.120679e+000 -1.685383e+000 -1.130707e+001 121 95 68
5.164546e+000 -1.914793e+000 -1.116131e+001 237 223 216
-1.425172e+000 -1.349872e+000 -1.048135e+001 217 180 167
-1.426378e-001 -1.451568e+000 -1.020898e+001 147 107 85
-9.457676e-002 -1.447464e+000 -1.015745e+001 155 116 97
1.000774e+000 -1.615305e+000 -9.867082e+000 137 111 76
1.998151e+000 -1.738376e+000 -1.026384e+001 50 36 24
2.843877e+000 -1.872657e+000 -1.093695e+001 71 53 33
3.166746e+000 -1.988136e+000 -1.105341e+001 91 69 46
3.889359e+000 -1.874039e+000 -1.127731e+001 111 85 60
4.010461e+000 -1.928706e+000 -1.144883e+001 87 61 36
3.891648e+000 -1.978917e+000 -1.141102e+001 81 57 32
5.123233e+000 -2.068736e+000 -1.110454e+001 190 85 62
-9.091756e-001 -1.968576e+000 -1.170722e+001 165 113 100
8.834820e-001 -1.949086e+000 -1.002879e+001 241 229 207
8.834820e-001 -1.949086e+000 -1.002879e+001 241 229 207
1.047183e+000 -1.981544e+000 -9.939660e+000 73 58 38
1.630908e+000 -1.974813e+000 -1.010435e+001 82 70 58
1.615635e+000 -2.120040e+000 -1.017771e+001 46 36 26
1.742315e+000 -2.174300e+000 -1.033648e+001 54 41 30
4.571274e+000 -2.501266e+000 -1.197677e+001 215 137 52
5.303824e+000 -2.451837e+000 -1.041839e+001 218 131 42
-7.453159e-001 -2.345232e+000 -1.200944e+001 101 95 70
5.643345e-001 -2.309988e+000 -1.052316e+001 155 120 91
6.026500e-001 -2.311862e+000 -1.044985e+001 140 108 84
2.403757e+000 -2.387626e+000 -1.106692e+001 96 75 54
2.926195e+000 -2.506685e+000 -1.155500e+001 79 59 36
3.426330e+000 -2.672164e+000 -1.182629e+001 107 82 52
3.721702e+000 -2.921464e+000 -1.229264e+001 122 93 64
4.728451e+000 -2.784114e+000 -1.178937e+001 125 106 89
4.603026e+000 -3.015250e+000 -1.193775e+001 128 109 96
4.659005e+000 -2.954528e+000 -1.162649e+001 103 83 66
4.750857e+000 -2.685519e+000 -1.157323e+001 84 69 59
4.767498e+000 -2.820960e+000 -1.169101e+001 216 201 198
5.472265e-001 -2.659133e+000 -1.050064e+001 129 111 90
1.190203e+000 -2.845623e+000 -1.126103e+001 95 89 70
1.255713e+000 -2.857296e+000 -1.121837e+001 65 57 38
2.510754e+000 -2.897258e+000 -1.179833e+001 89 67 43
4.516518e+000 -3.117263e+000 -1.245489e+001 238 202 83
-2.597816e-001 -3.111326e+000 -1.173271e+001 144 138 106
4.298688e+000 -3.462809e+000 -1.239344e+001 197 118 58
4.220933e+000 -3.616488e+000 -1.230061e+001 215 205 196
4.804301e+000 -3.510990e+000 -1.105132e+001 246 175 103
9.228389e-001 -3.374871e+000 -1.172236e+001 221 214 186
3.773158e+000 -3.878359e+000 -1.315122e+001 195 117 42
3.992644e+000 -4.040910e+000 -1.277205e+001 207 193 185
4.012834e+000 -3.958989e+000 -1.274003e+001 210 195 176
4.032193e+000 -4.022751e+000 -1.267794e+001 211 201 189
4.035473e+000 -4.025245e+000 -1.268258e+001 211 201 189
4.021978e+000 -3.978336e+000 -1.246790e+001 213 198 193
3.962621e+000 -4.063930e+000 -1.249815e+001 101 93 82
4.211966e+000 -3.825724e+000 -1.242425e+001 226 214 205
3.280042e-001 -3.549773e+000 -1.151174e+001 214 209 184
7.694674e-001 -3.688627e+000 -1.191596e+001 199 191 170
3.836528e+000 -4.160882e+000 -1.268304e+001 171 109 61
3.836528e+000 -4.160882e+000 -1.268304e+001 171 109 61
-3.310527e+000 2.991142e+000 -9.036862e+000 179 140 141
-2.312889e+000 2.225122e+000 -8.826018e+000 109 86 70
2.048112e+000 9.834270e-001 -9.002269e+000 184 169 144
3.779650e+000 9.823256e-001 -1.000818e+001 108 82 57
4.368359e+000 6.686121e-001 -9.966045e+000 118 91 64
-3.713088e+000 1.239289e+000 -8.466268e+000 138 112 85
4.192251e-001 7.230918e-001 -9.126324e+000 164 126 105
1.395154e+000 7.864433e-001 -9.755683e+000 167 139 117
1.995734e+000 1.201372e-001 -8.596504e+000 152 131 100
3.705827e+000 1.547838e-001 -9.410932e+000 76 55 34
1.267410e+000 -2.149635e-002 -9.123216e+000 196 175 149
2.735818e+000 -2.098427e-001 -9.129243e+000 70 61 40
2.053685e+000 -4.024171e-001 -9.081934e+000 58 38 29
2.633826e+000 -4.426593e-001 -9.336671e+000 69 56 45
-2.754892e-001 -4.124656e-001 -9.000631e+000 197 161 145
1.101209e+000 -6.292659e-001 -9.426548e+000 192 166 135
2.475686e+000 -5.808590e-001 -9.538873e+000 70 54 32
4.260542e+000 -8.985983e-001 -1.048511e+001 95 69 44
4.260542e+000 -8.985983e-001 -1.048511e+001 95 69 44
2.231020e+000 -9.940261e-001 -9.814758e+000 70 65 39
3.218050e+000 -1.150909e+000 -1.030055e+001 97 75 58
-1.555969e+000 -5.736847e-001 -1.078377e+001 173 130 114
-9.955164e-001 -9.426713e-001 -9.855035e+000 166 112 100
-1.000647e+000 -9.402652e-001 -9.909889e+000 166 112 100
1.752908e+000 -1.227791e+000 -9.721029e+000 103 89 70
1.752908e+000 -1.227791e+000 -9.721029e+000 103 89 70
2.135232e+000 -1.350986e+000 -1.020162e+001 222 216 184
1.315433e+000 -1.373842e+000 -9.697323e+000 111 82 52
3.709920e+000 -1.704259e+000 -1.113537e+001 122 98 74
4.046268e+000 -1.782821e+000 -1.131187e+001 98 69 43
-1.310066e+000 -1.253582e+000 -9.968034e+000 173 118 118
4.168816e+000 -1.986023e+000 -1.147474e+001 125 97 68
4.835469e+000 -2.158284e+000 -1.150813e+001 187 74 53
5.409558e+000 -2.193550e+000 -1.030147e+001 224 145 61
-6.355449e-001 -2.002596e+000 -1.183394e+001 192 167 140
-1.429782e-001 -2.006493e+000 -1.052103e+001 180 144 99
3.193798e+000 -2.359046e+000 -1.143168e+001 95 73 49
-7.548712e-001 -2.127166e+000 -1.189145e+001 178 138 122
-8.208972e-001 -2.124147e+000 -1.183118e+001 181 139 124
8.414222e-001 -2.284082e+000 -1.027897e+001 126 101 74
2.129656e+000 -2.547924e+000 -1.124473e+001 92 71 52
3.744275e+000 -2.700959e+000 -1.203935e+001 130 102 72
8.924231e-001 -2.697756e+000 -1.098958e+001 59 52 41
2.441921e+000 -2.885874e+000 -1.177907e+001 98 76 55
2.441921e+000 -2.885874e+000 -1.177907e+001 98 76 55
2.266432e+000 -3.034449e+000 -1.188495e+001 91 73 51
2.770732e+000 -3.008089e+000 -1.205043e+001 87 67 42
3.297660e+000 -3.036448e+000 -1.230188e+001 119 93 66
2.836964e+000 -3.427564e+000 -1.269610e+001 110 86 60
-7.673331e-001 -3.212857e+000 -1.239539e+001 222 208 181
3.962905e-001 -3.191561e+000 -1.111290e+001 129 104 80
1.929666e+000 -3.813523e+000 -1.251632e+001 123 103 79
4.108231e+000 -3.835502e+000 -1.259018e+001 115 97 82
-5.594678e-001 -3.498771e+000 -1.209282e+001 164 157 131
-1.179821e-002 -3.561803e+000 -1.145179e+001 196 179 153
-3.411246e+000 2.116230e+000 -8.278398e+000 153 123 87
4.262036e-001 1.516418e+000 -9.369400e+000 175 122 112
2.013905e+000 1.114724e+000 -8.928119e+000 235 226 209
5.830756e-001 8.692865e-001 -9.159187e+000 157 112 93
4.395790e+000 5.530972e-001 -9.854489e+000 119 93 70
4.860559e+000 5.180472e-001 -1.016001e+001 126 93 65
-1.586231e+000 1.822090e-001 -9.843625e+000 167 134 124
-1.591097e+000 -4.252869e-001 -1.078148e+001 172 131 113
-2.884002e-001 -6.590513e-001 -9.678344e+000 150 95 81
1.420654e+000 -1.453609e+000 -9.921069e+000 57 42 34
3.489296e+000 -1.490164e+000 -1.089898e+001 112 92 68
-1.003883e+000 -1.451148e+000 -1.020178e+001 188 152 138
-9.597694e-001 -1.850965e+000 -1.150858e+001 166 110 97
-8.030829e-001 -1.790709e+000 -1.133856e+001 166 118 98
-4.257618e-001 -1.944768e+000 -1.102066e+001 108 87 68
-1.418264e-001 -2.010963e+000 -1.054730e+001 181 145 96
3.741462e+000 -2.424085e+000 -1.179836e+001 113 90 63
4.047600e+000 -2.335110e+000 -1.176045e+001 111 82 52
2.804897e-001 -2.326062e+000 -1.039638e+001 156 122 75
1.399751e+000 -2.517732e+000 -1.053208e+001 66 54 42
3.530574e+000 -2.533925e+000 -1.159295e+001 130 103 76
3.663883e+000 -2.578814e+000 -1.172075e+001 136 110 82
2.249549e+000 -3.175859e+000 -1.197782e+001 93 72 51
2.621034e+000 -3.315348e+000 -1.237227e+001 91 69 46
4.506699e+000 -3.484984e+000 -1.193218e+001 234 181 82
9.209171e-001 -3.489475e+000 -1.177577e+001 63 51 35
2.851379e+000 -3.677023e+000 -1.273154e+001 99 73 46
1.491258e+000 -3.906770e+000 -1.253265e+001 85 65 42
-3.792766e+000 1.111001e+000 -9.585238e+000 221 222 217
-1.463191e+000 6.250778e-001 -9.197164e+000 87 67 46
3.653245e+000 1.691647e-001 -9.441638e+000 98 77 58
-2.069383e-001 -6.201242e-001 -9.407199e+000 146 106 98
2.071567e+000 -9.325313e-001 -9.947751e+000 52 36 28
-6.716384e-001 -1.082565e+000 -9.196664e+000 155 98 89
4.927448e+000 -1.805300e+000 -1.163406e+001 195 82 52
4.927448e+000 -1.805300e+000 -1.163406e+001 195 82 52
1.661079e+000 -1.922513e+000 -1.011058e+001 87 78 64
4.228151e-002 -1.970125e+000 -1.010487e+001 203 178 147
3.615910e+000 -2.252545e+000 -1.159470e+001 125 104 80
1.876058e+000 -2.406642e+000 -1.069630e+001 113 96 80
2.932814e-001 -2.967549e+000 -1.091593e+001 191 175 152
5.522450e-002 -3.232419e+000 -1.139885e+001 208 190 164
5.666227e-002 -3.235115e+000 -1.142020e+001 208 190 164
1.883321e+000 -3.578647e+000 -1.242957e+001 87 66 46
-3.370952e+000 2.633470e+000 -8.723839e+000 98 60 44
1.000941e+000 1.098356e+000 -9.552567e+000 135 93 71
1.918112e+000 5.640452e-001 -8.619220e+000 84 88 57
1.441816e+000 2.216194e-001 -9.405740e+000 171 141 120
2.466970e+000 -4.368090e-001 -9.478235e+000 50 44 37
2.739845e+000 -6.788435e-001 -9.593214e+000 171 159 143
2.027977e+000 -1.227039e+000 -1.009302e+001 34 31 24
5.128106e+000 -1.361839e+000 -1.149538e+001 116 55 37
3.342909e+000 -2.413914e+000 -1.157668e+001 125 105 80
-8.812968e-001 -2.466797e+000 -1.240819e+001 205 192 161
2.046052e+000 -2.897955e+000 -1.159421e+001 105 87 65
1.350633e-001 -3.234188e+000 -1.128161e+001 184 164 137
2.247570e-001 1.041395e+000 -9.020205e+000 211 180 163
3.438376e+000 -2.419904e-001 -9.469192e+000 87 70 48
4.354430e+000 -9.402682e-001 -1.050664e+001 127 100 72
-1.855895e-001 -2.047375e+000 -1.047471e+001 185 156 89
9.647308e-001 -3.202229e+000 -1.150113e+001 194 182 155
1.819924e+000 1.273615e+000 -9.171886e+000 114 115 83
2.532786e+000 8.761002e-001 -9.267298e+000 68 52 42
4.258025e+000 -3.285253e-001 -9.792694e+000 120 99 80
4.283809e+000 -3.231257e-001 -9.852429e+000 120 99 80
-1.263363e-001 -8.576221e-001 -9.585731e+000 220 187 168
-1.263363e-001 -8.576221e-001 -9.585731e+000 220 187 168
1.309620e+000 -2.149094e+000 -1.011857e+001 63 51 39
9.902629e-001 -3.483078e+000 -1.179445e+001 66 54 42
1.245746e+000 3.193154e-001 -8.876436e+000 188 161 139
2.233753e+000 -2.001890e-001 -8.978726e+000 235 232 207
2.233753e+000 -2.001890e-001 -8.978726e+000 235 232 207
-2.286266e+000 1.549374e+000 -8.495243e+000 112 85 68
2.128864e+000 -6.308876e-001 -9.036581e+000 37 28 21
-6.511254e-001 -8.821354e-001 -8.038463e+000 209 171 154
-2.998264e+000 2.055628e+000 -9.708673e+000 111 87 61
2.530841e+000 -2.080639e+000 -1.208170e+001 108 91 73
-4.043633e+000 2.299632e+000 -8.826974e+000 196 144 136
-4.042797e+000 1.592937e+000 -8.946434e+000 158 128 105
-2.106389e+000 1.490605e+000 -9.056141e+000 115 86 70
-1.757939e+000 1.295729e+000 -9.219180e+000 118 99 77
-1.757939e+000 1.295729e+000 -9.219180e+000 118 99 77
1.871531e-001 1.039222e+000 -9.032035e+000 213 178 166
-1.530882e-001 7.962674e-001 -9.166615e+000 160 122 101
2.535036e-001 7.914661e-001 -9.240184e+000 190 151 130
3.749804e-001 7.500755e-001 -9.099431e+000 197 162 142
5.656553e-001 8.063405e-001 -9.104714e+000 163 120 101
1.417006e+000 9.749126e-001 -8.919512e+000 217 203 167
1.576532e+000 7.452154e-001 -8.874272e+000 185 161 99
-3.270701e+000 6.232591e-001 -9.186804e+000 224 221 220
-1.083074e+000 4.793781e-001 -9.340354e+000 141 96 85
-1.009559e+000 4.875054e-001 -9.295527e+000 157 105 92
1.606981e+000 6.824291e-001 -8.774706e+000 184 161 120
2.588633e+000 3.926532e-001 -8.436535e+000 51 41 28
1.324379e+000 1.374234e-001 -9.274707e+000 188 162 139
1.553096e+000 2.574769e-001 -8.952109e+000 101 108 75
2.571860e+000 3.022976e-001 -8.450280e+000 52 43 26
2.521855e+000 1.511840e-001 -8.574191e+000 129 120 103
-4.241821e-001 1.098531e-002 -9.519474e+000 218 171 161
2.424031e+000 -3.147646e-002 -8.746081e+000 56 44 30
2.040056e+000 -4.025942e-001 -9.195026e+000 144 130 88
2.261157e+000 -3.044301e-001 -8.872497e+000 79 74 54
1.231675e+000 -6.020571e-001 -9.201690e+000 204 184 156
1.370360e+000 -6.673782e-001 -9.333276e+000 173 134 99
1.924272e+000 -6.890504e-001 -9.376984e+000 196 192 172
1.924272e+000 -6.890504e-001 -9.376984e+000 196 192 172
1.947376e+000 -6.408744e-001 -9.318688e+000 218 210 190
1.947376e+000 -6.408744e-001 -9.318688e+000 218 210 190
1.982708e+000 -5.449758e-001 -9.161208e+000 200 191 174
-5.128996e-001 -1.126326e+000 -9.619390e+000 163 110 108
-4.634584e-001 -1.149698e+000 -9.566935e+000 165 113 110
-2.199896e-001 -1.125768e+000 -9.663653e+000 142 96 79
4.544486e-001 -1.456991e+000 -1.026400e+001 154 128 105
1.999511e+000 -1.373876e+000 -9.984432e+000 206 201 170
-2.040158e+000 1.909056e+000 -8.743849e+000 100 76 63
2.425571e+000 9.614339e-001 -8.498187e+000 100 86 69
1.573849e+000 7.085130e-001 -8.983377e+000 204 170 96
2.460565e+000 5.991020e-001 -8.563307e+000 137 133 109
2.514783e+000 5.038958e-001 -8.452424e+000 100 93 71
-1.396181e+000 1.231632e-001 -9.817785e+000 169 129 121
2.051685e+000 -4.908083e-004 -8.702672e+000 132 109 77
2.224547e+000 3.935182e-002 -8.639525e+000 104 97 79
2.252540e+000 -1.369163e-001 -8.870283e+000 57 50 33
2.342821e+000 -4.765353e-002 -8.886946e+000 60 45 26
2.342821e+000 -4.765353e-002 -8.886946e+000 60 45 26
7.802591e-001 -3.916233e-001 -9.646092e+000 103 64 48
7.802591e-001 -3.916233e-001 -9.646092e+000 103 64 48
1.789484e+000 -9.188651e-001 -9.464848e+000 80 69 57
1.899880e+000 -9.728109e-001 -9.575027e+000 58 47 32
-5.023651e-001 -1.167039e+000 -9.670190e+000 138 77 75
1.458358e+000 -1.110239e+000 -9.538726e+000 80 64 48
-2.077516e-001 -1.525890e+000 -1.039842e+001 170 139 110
-2.234779e-001 -1.987097e+000 -1.043947e+001 133 104 62
-5.342645e-001 -2.285997e+000 -1.077288e+001 179 162 121
-4.607892e-001 -2.547331e+000 -1.078571e+001 184 161 119
1.123174e+000 -2.386961e+000 -1.023660e+001 152 143 126
-3.189148e+000 2.734141e+000 -8.686599e+000 138 91 83
-3.704072e+000 2.297178e+000 -8.584311e+000 92 56 37
-4.120654e+000 1.338582e+000 -8.975278e+000 216 214 206
1.813692e+000 7.675532e-001 -8.606085e+000 167 154 124
2.443031e+000 8.465056e-001 -8.434369e+000 74 65 48
4.531814e-001 6.899694e-001 -9.191800e+000 180 145 125
-4.679797e-001 1.616993e-001 -9.733327e+000 151 104 94
2.355026e+000 1.506755e-001 -8.592828e+000 151 144 125
-4.662575e-001 -7.733865e-001 -9.424675e+000 203 144 138
5.844665e-001 -1.271606e+000 -1.004930e+001 134 108 79
1.357828e+000 -1.293040e+000 -9.622505e+000 85 66 48
1.673429e+000 -1.432253e+000 -9.782661e+000 44 37 22
-2.966299e-001 -2.114109e+000 -1.040952e+001 202 179 124
1.688299e+000 -2.075906e+000 -1.015824e+001 48 37 28
1.033197e+000 -2.398348e+000 -1.049481e+001 64 54 42
1.563345e+000 -2.492462e+000 -1.039436e+001 126 112 99
-3.318299e+000 2.736798e+000 -8.649473e+000 143 95 88
3.502845e+000 4.409560e+000 -1.523830e+001 206 133 113
-4.003244e+000 1.556977e+000 -8.968550e+000 164 133 102
2.058700e+000 6.509136e-001 -8.429242e+000 125 89 62
-5.005435e-001 -2.510066e-001 -9.807524e+000 167 112 106
2.286511e+000 -2.054659e-001 -8.898514e+000 42 34 21
-5.706050e-001 -8.149451e-001 -9.407630e+000 171 104 103
1.267577e+000 -8.581734e-001 -9.172676e+000 221 207 180
6.411407e-001 -2.378467e+000 -1.041629e+001 184 163 140
-4.460320e-001 9.759866e-001 -9.262930e+000 173 141 121
1.929657e+000 5.614932e-001 -8.659182e+000 81 88 58
1.929657e+000 5.614932e-001 -8.659182e+000 81 88 58
2.482567e+000 5.451460e-001 -8.466923e+000 59 46 38
2.691278e+000 6.089185e-001 -8.651008e+000 47 36 27
-6.944425e-001 -3.401033e-001 -9.904860e+000 197 144 138
6.776065e-001 -2.714491e-001 -9.384762e+000 112 68 50
2.180949e+000 -3.817193e-001 -9.125359e+000 52 42 32
6.882199e-001 -9.189655e-001 -9.836321e+000 117 86 71
8.418312e-001 -2.272806e+000 -1.021631e+001 126 103 72
2.267975e-001 -2.865229e+000 -1.055305e+001 170 152 127
-3.511592e+000 2.773333e+000 -8.649617e+000 193 145 134
-3.378365e+000 2.715554e+000 -8.655928e+000 173 123 116
3.446036e+000 4.229749e+000 -1.518742e+001 191 101 88
-3.912120e+000 1.298253e+000 -8.822098e+000 153 127 98
2.819093e-001 -1.348531e+000 -1.011112e+001 135 95 70
3.896344e-001 -1.394934e+000 -1.012544e+001 165 141 115
-3.907648e+000 1.129743e+000 -9.017324e+000 105 78 57
-3.164486e+000 6.616184e-001 -9.038390e+000 197 180 160
-7.524404e+000 -6.544294e+000 -4.354213e+001 127 80 63
-7.981504e+000 -7.933935e+000 -4.457181e+001 216 165 124
1.878571e+000 -4.002027e-001 -8.860626e+000 56 41 31
-8.516100e+000 -6.000519e+000 -4.324094e+001 228 189 144
2.194398e-002 7.302557e-001 -9.285353e+000 171 128 105
-1.295734e+001 -3.097345e+000 -5.344511e+001 231 173 167
-3.158772e-001 -5.290049e-001 -9.272724e+000 159 98 85
-1.008627e+001 -5.713447e+000 -4.501741e+001 232 231 224
3.526840e+000 4.212120e+000 -1.501974e+001 196 104 93
-2.331698e+000 6.182943e-001 -9.557285e+000 228 227 231
-1.628812e+001 -4.432666e+000 -4.605611e+001 224 224 224
-6.961000e-001 5.863959e-001 -9.055816e+000 197 174 152
-6.653719e-001 5.863509e-001 -9.044277e+000 196 174 150
4.821697e+000 3.834990e+000 -1.274261e+001 219 209 209
1.860597e-001 2.170176e+000 -1.018123e+001 223 193 169
1.517153e+000 2.250635e+000 -1.019801e+001 161 141 117
3.027741e+000 2.391966e+000 -1.113034e+001 114 88 63
4.260123e-001 1.813902e+000 -9.460736e+000 219 173 168
1.061689e+000 1.875890e+000 -9.952123e+000 223 202 182
1.298263e+000 1.855329e+000 -9.994334e+000 206 181 148
2.088160e+000 1.793479e+000 -9.554337e+000 104 99 80
8.994517e-001 1.275013e+000 -9.457552e+000 174 133 117
1.311548e+000 1.538082e+000 -9.853945e+000 174 148 126
1.298478e+000 1.319724e+000 -9.921187e+000 130 94 72
1.784115e+000 9.380988e-001 -8.997191e+000 150 133 110
2.869493e+000 9.506719e-001 -9.019194e+000 90 80 71
5.863958e+000 8.633350e-001 -1.041865e+001 211 159 67
1.345721e+000 7.111048e-002 -9.200679e+000 211 198 181
-5.296017e-001 -8.190776e-001 -9.392764e+000 196 137 136
5.488186e+000 3.197584e+000 -1.128573e+001 191 101 103
1.608413e+000 1.207836e+000 -9.264362e+000 114 115 95
1.997667e+000 1.238412e+000 -8.908226e+000 197 181 161
3.176135e+000 4.396088e-001 -8.843248e+000 63 48 34
4.749358e-001 -1.879214e+000 -1.021197e+001 206 186 163
3.213072e+000 4.307453e+000 -1.565315e+001 224 167 122
4.426904e+000 2.106260e+000 -1.185027e+001 132 104 80
5.564209e+000 2.150768e+000 -1.114627e+001 183 137 61
6.169460e-001 1.241215e+000 -9.266515e+000 172 117 114
1.556784e+000 2.469873e-001 -9.008669e+000 94 102 73
-2.038372e-001 -2.997488e-001 -9.004507e+000 210 179 166
5.045173e+000 -6.494641e-001 -1.051484e+001 111 84 57
5.290428e+000 -1.398419e+000 -1.114133e+001 171 101 66
-2.375346e-001 -2.473276e+000 -1.055171e+001 179 148 93
3.358471e+000 4.186370e+000 -1.534601e+001 228 170 132
3.011787e+000 1.975529e+000 -1.067466e+001 81 60 36
3.732692e+000 2.071609e+000 -1.127171e+001 100 75 53
4.007095e+000 1.711204e+000 -1.109587e+001 107 81 58
5.123684e+000 -8.289194e-002 -1.022508e+001 108 78 50
1.420155e+000 -9.197136e-001 -9.359792e+000 239 233 227
-3.561569e+000 1.476063e+000 -8.276638e+000 126 95 66
-1.514856e+000 -6.442808e-001 -1.038392e+001 175 130 125
5.389043e-001 -4.940499e-001 -9.221394e+000 117 77 67
-7.008436e+000 -5.928983e+000 -4.226773e+001 127 115 84
-8.189200e+000 -5.450161e+000 -4.327655e+001 97 75 54
-3.493761e+000 2.429958e+000 -8.590638e+000 126 99 73
1.444068e+000 2.718170e+000 -1.057735e+001 210 190 163
-8.881402e-002 2.237581e+000 -1.034204e+001 223 184 168
4.119057e-001 1.845386e+000 -9.498309e+000 197 148 141
5.354006e+000 1.722706e+000 -1.148271e+001 214 151 148
-9.587784e-002 2.166249e+000 -1.039367e+001 193 150 133
-8.741001e-002 2.081799e+000 -1.035768e+001 201 154 140
-4.426020e-002 2.078883e+000 -1.034476e+001 219 176 159
5.564084e-002 2.056792e+000 -1.028583e+001 223 180 164
1.489347e+000 1.600448e+000 -9.953595e+000 205 174 147
1.612316e+000 1.490261e+000 -9.501821e+000 174 156 129
2.100064e+000 1.167768e+000 -9.027955e+000 158 130 106
2.105871e+000 1.066482e+000 -8.766930e+000 175 151 124
2.462990e+000 8.472342e-001 -8.557625e+000 93 82 64
5.214471e+000 1.692352e+000 -1.169978e+001 242 181 174
1.544520e+000 9.402899e-001 -8.907011e+000 165 147 101
2.984564e+000 7.544850e-001 -9.024777e+000 150 145 126
3.067351e+000 7.311629e-001 -8.833037e+000 105 94 68
2.594162e-001 9.014357e-001 -8.992428e+000 187 149 132
2.531138e+000 2.211325e-001 -8.527597e+000 89 77 65
2.865751e+000 5.019681e-001 -8.854897e+000 79 69 62
3.008921e+000 3.185018e-001 -8.812011e+000 125 113 93
4.479385e-001 6.821677e-001 -9.249255e+000 178 138 115
1.920630e+000 3.581613e-002 -8.580784e+000 164 145 115
2.534476e+000 1.135275e-001 -8.554452e+000 123 111 99
2.954941e+000 -4.948697e-002 -8.932306e+000 90 77 61
2.954941e+000 -4.948697e-002 -8.932306e+000 90 77 61
1.913788e+000 -1.448128e-001 -8.656527e+000 154 133 103
2.260250e+000 -9.594965e-002 -9.018416e+000 141 135 108
2.223554e+000 -9.870003e-002 -8.721908e+000 143 137 110
2.305812e+000 -1.190643e-001 -8.694851e+000 67 52 35
2.729435e+000 -1.368914e-001 -8.950158e+000 137 130 104
2.718987e+000 -3.016386e-001 -9.105897e+000 95 88 61
2.718987e+000 -3.016386e-001 -9.105897e+000 95 88 61
-1.449987e+000 2.227739e-001 -9.622167e+000 168 133 121
2.265702e+000 -3.040300e-001 -8.939901e+000 81 70 54
2.675686e+000 -3.251686e-001 -9.214361e+000 235 231 196
2.531844e+000 -4.520321e-001 -9.260604e+000 101 87 60
-1.725810e+000 1.757224e-001 -1.033363e+001 99 65 55
1.012737e+000 -5.972796e-001 -9.437459e+000 180 160 135
1.765928e+000 -5.965215e-001 -9.307433e+000 93 70 44
1.813197e+000 -7.608178e-001 -9.408609e+000 120 110 92
4.488730e+000 -9.001198e-001 -1.046684e+001 97 68 42
5.453369e+000 -8.337178e-001 -1.089198e+001 138 122 113
5.512460e+000 -8.857288e-001 -1.076269e+001 165 147 135
5.395972e+000 -9.049939e-001 -1.076020e+001 190 176 172
5.326636e+000 -1.091177e+000 -1.091772e+001 231 197 112
-1.742193e+000 -3.122948e-001 -1.070762e+001 193 147 124
-1.742193e+000 -3.122948e-001 -1.070762e+001 193 147 124
-2.443186e-001 -4.702224e-001 -9.159064e+000 188 148 132
5.323396e-001 -7.221317e-001 -9.279236e+000 173 136 118
