ply
format ascii 1.0
element face 0
property list uchar int vertex_indices
element vertex 876
property float x
property float y
property float z
property uchar diffuse_red
property uchar diffuse_green
property uchar diffuse_blue
end_header
4.728788e+000 -1.966833e+000 -1.134963e+001 133 115 106
-9.307211e-001 -1.120209e+000 -9.721874e+000 207 158 151
-2.971281e+000 2.146636e+000 -8.465506e+000 163 115 107
6.832085e-001 1.423224e+000 -9.470830e+000 172 128 113
1.662657e+000 1.129470e+000 -9.238111e+000 115 121 95
2.463957e+000 4.443264e-001 -8.692092e+000 231 228 198
5.129726e+000 1.480247e+000 -1.155535e+001 223 153 146
5.129726e+000 1.480247e+000 -1.155535e+001 223 153 146
5.304863e+000 1.245756e+000 -1.123163e+001 235 208 206
5.304863e+000 1.245756e+000 -1.123163e+001 235 208 206
9.524028e-001 1.245153e+000 -9.526723e+000 202 163 146
6.771130e-001 5.899757e-001 -9.086798e+000 140 104 82
5.018453e+000 1.762438e-001 -1.040962e+001 106 76 47
5.174112e+000 -7.208821e-001 -1.100029e+001 137 94 55
5.104955e+000 -9.349924e-001 -1.092071e+001 227 218 213
-1.245421e-001 -9.046206e-001 -9.148525e+000 189 141 131
4.729667e+000 -1.752236e+000 -1.120917e+001 195 112 65
4.819620e+000 -1.760739e+000 -1.122328e+001 213 198 189
-9.762972e-001 -1.029507e+000 -9.671711e+000 208 168 157
9.521705e-001 -1.645441e+000 -9.837704e+000 212 193 168
4.487454e+000 -2.514322e+000 -1.161540e+001 206 195 189
5.196220e+000 2.741214e+000 -1.168489e+001 140 126 113
7.156443e-001 1.407922e+000 -9.461715e+000 219 177 161
7.366441e-001 1.379408e+000 -9.466365e+000 152 109 93
2.558291e+000 4.260856e-001 -8.839256e+000 216 207 181
5.031715e+000 1.704397e+000 -1.185218e+001 224 173 122
5.088861e+000 1.605276e+000 -1.175061e+001 212 119 108
5.221136e+000 1.218002e+000 -1.137818e+001 220 114 95
-2.250682e+000 1.320273e+000 -8.320935e+000 106 80 55
3.639305e+000 -1.415291e+000 -1.098589e+001 120 100 75
-3.831543e-001 -7.755216e-001 -9.216613e+000 185 128 123
-1.786131e-001 -9.009372e-001 -9.159289e+000 147 97 92
-1.466374e+000 -6.941464e-001 -1.057707e+001 177 142 121
8.258485e-001 -1.495023e+000 -9.954263e+000 177 157 132
1.605202e-001 -1.960964e+000 -9.994247e+000 210 196 167
3.919493e+000 -3.481697e+000 -1.239220e+001 152 135 119
-2.832350e+000 2.206526e+000 -8.566080e+000 142 96 91
4.912090e+000 2.624887e+000 -1.242086e+001 129 104 100
-2.898444e+000 1.818388e+000 -8.276406e+000 144 113 83
-2.760610e+000 2.073324e+000 -8.433829e+000 137 106 77
6.027614e-001 1.534711e+000 -9.487685e+000 227 191 176
5.035184e+000 1.554916e+000 -1.174707e+001 233 219 214
5.133936e+000 1.558842e+000 -1.172163e+001 236 218 219
5.133936e+000 1.558842e+000 -1.172163e+001 236 218 219
5.184333e+000 1.385568e+000 -1.139122e+001 231 218 222
5.235789e+000 1.402086e+000 -1.135631e+001 233 221 218
5.244395e+000 1.347396e+000 -1.138835e+001 212 84 75
5.255898e+000 1.118789e+000 -1.129029e+001 221 184 159
2.492645e+000 3.376916e-001 -8.682188e+000 107 100 74
2.994729e-001 9.644179e-001 -9.182259e+000 215 181 162
2.318029e+000 -3.159749e-002 -8.749377e+000 58 45 31
3.974844e+000 -7.882764e-002 -9.814087e+000 118 97 72
-1.331871e+000 7.032739e-001 -9.181302e+000 125 106 85
3.652877e+000 -1.356735e+000 -1.092904e+001 92 72 45
3.572652e+000 -1.865325e+000 -1.133170e+001 90 66 42
4.395789e+000 -2.732640e+000 -1.176883e+001 217 207 197
5.060090e+000 3.190866e+000 -1.198743e+001 238 215 218
5.070818e+000 2.945391e+000 -1.208507e+001 237 221 220
-2.667365e+000 2.107915e+000 -8.422218e+000 147 117 83
4.869799e+000 2.689656e+000 -1.243847e+001 232 230 236
5.047967e+000 2.480902e+000 -1.229218e+001 135 104 98
-3.016424e+000 2.083539e+000 -8.416329e+000 165 133 118
-2.831839e+000 2.102126e+000 -8.497754e+000 81 49 36
5.871516e-001 1.470371e+000 -9.541042e+000 216 181 164
1.387308e+000 1.784505e+000 -9.977596e+000 200 188 165
5.163629e+000 1.290806e+000 -1.151557e+001 236 215 216
5.275007e+000 1.283161e+000 -1.126706e+001 217 91 85
5.200276e+000 1.184298e+000 -1.144353e+001 236 219 212
2.119519e+000 2.556548e-001 -8.720734e+000 103 80 56
4.331289e+000 1.616098e-001 -9.971489e+000 94 69 44
1.622161e+000 1.086425e-001 -8.801208e+000 131 138 99
3.908371e+000 -1.407479e+000 -1.110531e+001 90 65 39
1.053374e+000 -1.363750e+000 -9.717543e+000 171 148 117
3.238620e+000 -2.009472e+000 -1.133624e+001 115 93 70
4.919684e+000 2.692147e+000 -1.227901e+001 241 226 232
4.919684e+000 2.692147e+000 -1.227901e+001 241 226 232
4.964754e+000 2.616465e+000 -1.216893e+001 174 84 84
4.964754e+000 2.616465e+000 -1.216893e+001 174 84 84
4.945596e+000 2.545694e+000 -1.229092e+001 233 226 228
-2.041029e+000 1.679000e+000 -8.526681e+000 96 73 57
3.808701e+000 -2.108165e-002 -9.705931e+000 88 63 43
2.824086e+000 -1.505472e-001 -9.102836e+000 68 54 43
-1.598051e-001 9.346592e-003 -9.424752e+000 208 162 147
4.981587e+000 -1.824922e+000 -1.108849e+001 209 121 39
8.730956e-001 -1.414518e+000 -9.871377e+000 166 141 106
3.427888e+000 -2.855177e+000 -1.235629e+001 121 92 63
5.072785e+000 2.428955e+000 -1.195153e+001 164 77 75
1.499762e+000 1.694569e+000 -9.864080e+000 153 120 86
4.296589e+000 -6.739554e-001 -1.042973e+001 106 80 53
5.017070e+000 2.553996e+000 -1.201861e+001 234 229 233
5.017070e+000 2.553996e+000 -1.201861e+001 234 229 233
1.360726e+000 1.737201e+000 -9.998964e+000 172 152 125
1.499919e+000 1.478085e+000 -9.783250e+000 165 130 101
-3.015485e-001 -8.902601e-001 -9.022357e+000 210 172 164
3.562075e-001 -1.645748e+000 -1.002109e+001 179 161 131
3.964727e+000 -3.328108e+000 -1.230833e+001 233 199 96
4.096603e+000 -3.387759e+000 -1.206758e+001 228 193 133
2.415248e+000 -3.345463e+000 -1.237689e+001 129 107 84
1.358834e+000 1.916306e+000 -9.962328e+000 123 116 93
1.834493e+000 1.008603e-001 -8.870941e+000 151 126 100
4.295599e+000 4.724065e-003 -9.995997e+000 122 97 75
4.491249e+000 -2.097035e-002 -1.010805e+001 84 58 41
3.447562e+000 -3.550489e-001 -9.715713e+000 112 91 70
-1.047957e+000 -2.121893e-001 -1.044134e+001 177 133 122
3.970612e+000 -1.908188e+000 -1.155455e+001 107 81 52
7.164978e-001 -1.564945e+000 -1.006460e+001 206 185 164
1.457990e+000 8.543522e-001 -9.152384e+000 214 197 164
3.294231e-001 9.445199e-001 -9.445208e+000 193 160 146
-6.428138e-001 -6.596254e-001 -9.780589e+000 178 128 121
1.273841e+000 -1.599630e+000 -9.849105e+000 49 36 27
-7.187885e-001 3.047078e-002 -9.929888e+000 170 115 110
4.566965e+000 -2.292002e+000 -1.180934e+001 226 165 70
2.941831e-001 1.818761e+000 -1.019357e+001 194 158 134
5.293447e-001 1.563191e+000 -9.519904e+000 205 159 148
7.942163e-001 1.422423e+000 -9.480786e+000 196 157 142
2.983270e+000 4.096454e-001 -8.977615e+000 44 30 19
5.154877e+000 -7.688153e-001 -1.093561e+001 135 113 99
5.085879e+000 -1.077262e+000 -1.093646e+001 191 172 165
-1.295216e+000 -1.043575e-001 -1.051158e+001 183 138 119
-3.004984e-001 -8.388388e-001 -9.179813e+000 215 172 163
-1.759583e-001 -8.247894e-001 -9.209257e+000 185 132 122
4.815526e+000 -1.669833e+000 -1.124001e+001 210 145 89
-2.894573e+000 2.003156e+000 -8.508291e+000 135 107 83
1.419931e+000 1.682612e+000 -9.922250e+000 204 183 154
5.251273e+000 1.354632e+000 -1.133123e+001 201 103 96
5.310226e+000 1.318431e+000 -1.123594e+001 238 198 204
5.310226e+000 1.318431e+000 -1.123594e+001 238 198 204
1.445454e+000 1.354010e+000 -9.943079e+000 181 153 129
9.023303e-001 7.270452e-001 -9.257740e+000 169 132 113
1.661183e+000 7.073064e-002 -8.749339e+000 120 127 89
2.214006e+000 -2.605738e-001 -8.957411e+000 68 57 42
2.660333e+000 -6.326355e-001 -9.714050e+000 173 160 145
5.116780e+000 -1.097913e+000 -1.089719e+001 228 220 216
-3.026612e-001 -7.033826e-001 -9.326440e+000 207 154 146
-3.495019e-001 -7.568581e-001 -9.249259e+000 204 150 142
4.514137e+000 -2.559074e+000 -1.158258e+001 207 203 194
3.313026e-001 1.765822e+000 -1.011939e+001 217 175 162
2.873043e+000 1.321033e-001 -8.989366e+000 64 52 39
-2.256577e+000 9.327629e-001 -8.673113e+000 118 97 80
4.537701e+000 -1.984644e+000 -1.162550e+001 195 94 51
4.721013e+000 -2.137338e+000 -1.126598e+001 217 200 199
4.514137e+000 -2.559074e+000 -1.158258e+001 207 203 194
8.343984e-001 -1.998838e+000 -1.004691e+001 183 164 132
4.462048e+000 -2.697768e+000 -1.163787e+001 120 100 97
-2.914305e+000 2.229992e+000 -8.495929e+000 132 84 80
-3.016424e+000 2.083539e+000 -8.416329e+000 165 133 118
5.347096e+000 1.295734e+000 -1.120714e+001 211 92 81
-2.323664e+000 8.146298e-001 -8.809825e+000 165 148 131
4.134237e+000 -3.357064e+000 -1.192744e+001 227 168 70
-2.396565e+000 1.786050e+000 -8.300977e+000 98 72 47
1.559242e+000 2.045495e+000 -1.024179e+001 254 252 239
1.627999e+000 1.663141e+000 -9.930501e+000 179 152 125
-3.116525e+000 1.894156e+000 -8.493921e+000 98 66 43
-3.116525e+000 1.894156e+000 -8.493921e+000 98 66 43
-2.069563e+000 1.766359e+000 -8.612596e+000 109 84 66
5.192064e+000 1.468871e+000 -1.146331e+001 215 187 167
-1.181347e+000 4.594220e-001 -9.207568e+000 104 89 68
3.895328e+000 -1.219816e+000 -1.094687e+001 99 75 51
4.130126e+000 -1.815053e+000 -1.149497e+001 174 150 118
4.606428e+000 -2.104921e+000 -1.149718e+001 176 78 56
4.606428e+000 -2.104921e+000 -1.149718e+001 176 78 56
4.332605e-001 -1.504672e+000 -1.022428e+001 137 94 60
7.980385e-001 -2.748665e+000 -1.103928e+001 58 52 40
7.295495e-001 -2.812045e+000 -1.105848e+001 66 58 45
3.940738e+000 -3.610323e+000 -1.230233e+001 217 202 198
-2.940086e+000 2.179297e+000 -8.451745e+000 185 137 132
3.241939e+000 -2.415013e-001 -9.453951e+000 92 73 53
1.159124e+000 -1.553765e+000 -9.789873e+000 123 89 53
3.656566e-001 1.426070e+000 -9.605730e+000 213 162 158
1.658680e+000 1.916491e+000 -1.009188e+001 236 227 210
5.478249e+000 1.168941e+000 -1.119565e+001 218 189 173
2.885538e+000 -2.947372e+000 -1.221975e+001 133 110 84
2.343901e+000 -2.919239e+000 -1.197427e+001 115 99 76
1.370878e+000 1.368717e+000 -9.861964e+000 226 200 173
1.205770e+000 -6.366255e-001 -9.461305e+000 144 101 69
3.418630e+000 -1.732830e+000 -1.117897e+001 127 105 81
5.974334e-001 -1.820638e+000 -1.016389e+001 204 183 156
1.621215e-001 -2.600142e+000 -1.080309e+001 145 127 103
4.346478e-001 1.761111e+000 -1.007719e+001 214 174 151
2.797885e+000 7.924592e-001 -9.110344e+000 128 121 103
5.013753e+000 1.518736e+000 -1.187974e+001 242 187 184
5.107513e+000 1.611823e+000 -1.172182e+001 204 138 122
5.107513e+000 1.611823e+000 -1.172182e+001 204 138 122
2.833692e+000 -9.478538e-002 -9.054657e+000 68 52 34
2.195061e+000 -2.514307e-001 -8.977437e+000 159 151 134
2.195061e+000 -2.514307e-001 -8.977437e+000 159 151 134
1.709887e+000 -3.711741e-001 -8.927733e+000 178 164 144
-1.826828e-001 -7.589866e-001 -9.271212e+000 205 147 139
1.276810e+000 -1.239281e+000 -9.529826e+000 163 146 120
4.683122e+000 -1.752501e+000 -1.116737e+001 229 171 85
-2.856420e+000 2.235635e+000 -8.482051e+000 162 114 110
2.729509e-001 1.853582e+000 -1.026171e+001 222 186 162
5.065309e-001 1.187455e+000 -9.175931e+000 206 163 154
1.267760e+000 1.447329e+000 -9.978110e+000 126 91 66
-2.865645e+000 1.181432e+000 -8.227562e+000 112 81 50
2.518928e-001 8.992377e-001 -9.238601e+000 224 185 170
9.478815e-002 -4.073370e-001 -8.723100e+000 218 196 181
-1.478769e-001 -7.547659e-001 -9.202608e+000 151 88 83
1.643808e+000 -1.290511e+000 -9.777150e+000 219 211 190
3.623357e+000 -1.380118e+000 -1.096269e+001 95 73 49
1.182257e+000 -1.414673e+000 -9.645708e+000 233 223 200
2.627240e+000 -1.644872e+000 -1.073495e+001 83 65 45
1.304585e+000 -1.854701e+000 -9.933608e+000 128 121 101
1.639236e+000 2.198722e+000 -1.037195e+001 95 67 44
1.166335e+000 2.322766e+000 -1.063972e+001 168 153 125
-2.988475e+000 1.741588e+000 -8.312235e+000 132 96 66
1.128549e+000 1.523287e+000 -9.775706e+000 192 165 139
1.764696e+000 9.359522e-001 -9.080264e+000 109 106 78
2.028363e+000 8.119008e-001 -8.846685e+000 173 159 132
5.100788e+000 1.372729e+000 -1.170428e+001 201 94 77
2.482500e+000 2.696444e-001 -8.605484e+000 47 37 26
3.718996e+000 4.534378e-001 -9.698082e+000 102 75 52
1.951021e+000 -5.942940e-002 -8.761793e+000 147 122 95
2.056487e+000 4.561107e-002 -8.248824e+000 109 100 85
-1.240918e+000 -2.540926e-001 -1.045909e+001 178 141 123
4.976581e+000 -1.377869e+000 -1.107651e+001 228 218 213
4.825704e+000 -1.841851e+000 -1.125503e+001 226 215 212
9.521483e-001 -1.891179e+000 -1.001564e+001 210 191 164
4.303993e+000 -2.955012e+000 -1.176570e+001 214 203 198
4.912090e+000 2.624887e+000 -1.242086e+001 129 104 100
1.316333e+000 2.050744e+000 -1.027874e+001 128 125 98
8.234624e-001 -1.158494e-001 -9.403152e+000 186 152 125
3.350236e+000 -9.723960e-001 -1.035091e+001 80 60 36
3.756168e+000 -3.702215e+000 -1.264710e+001 220 190 154
3.925639e-001 -2.971969e+000 -1.090252e+001 159 134 109
5.060090e+000 3.190866e+000 -1.198743e+001 238 215 218
4.896722e+000 3.294089e+000 -1.253285e+001 242 217 213
4.894438e+000 2.879440e+000 -1.243057e+001 226 224 229
5.070818e+000 2.945391e+000 -1.208507e+001 237 221 220
4.992605e+000 2.956845e+000 -1.228874e+001 230 208 218
4.992605e+000 2.956845e+000 -1.228874e+001 230 208 218
4.792259e+000 2.616358e+000 -1.249808e+001 179 88 92
9.576775e-001 2.335612e+000 -1.058449e+001 195 177 153
5.194149e+000 1.643102e+000 -1.153733e+001 234 221 219
-2.597750e+000 1.462417e+000 -8.255681e+000 110 81 49
1.188349e+000 1.506830e+000 -9.815496e+000 173 134 119
1.556991e+000 7.616127e-001 -9.083195e+000 195 181 132
2.276020e+000 4.414760e-001 -8.926392e+000 110 95 74
1.369857e+000 4.235143e-001 -9.793082e+000 155 113 90
9.949822e-002 -3.248496e-001 -8.853540e+000 191 148 134
9.949822e-002 -3.248496e-001 -8.853540e+000 191 148 134
7.099137e-002 -3.784980e-001 -8.827288e+000 191 150 142
4.108621e+000 -1.214637e+000 -1.097960e+001 136 112 85
4.669342e+000 -2.769967e+000 -1.166663e+001 206 120 41
4.933788e-001 -2.808090e+000 -1.085024e+001 142 112 86
2.807190e+000 -3.361054e+000 -1.263452e+001 105 79 56
5.014662e-001 -3.297928e+000 -1.138549e+001 60 50 40
4.958515e+000 3.194454e+000 -1.225604e+001 239 224 229
5.129028e+000 2.597203e+000 -1.180757e+001 168 86 79
4.771216e+000 2.570365e+000 -1.266351e+001 237 229 234
4.759814e+000 2.486394e+000 -1.268243e+001 146 106 94
5.116697e+000 1.295652e+000 -1.159126e+001 202 98 86
-2.270541e+000 1.263710e+000 -8.304772e+000 136 112 85
3.638346e+000 -4.808596e-001 -9.929695e+000 84 62 39
1.231382e+000 -3.374097e-001 -9.349540e+000 178 151 124
3.344713e+000 -1.407481e+000 -1.084648e+001 114 94 70
2.775404e+000 -1.754298e+000 -1.092120e+001 75 56 39
5.277163e+000 2.793608e+000 -1.155114e+001 174 94 93
4.857973e+000 2.799973e+000 -1.252045e+001 169 88 85
4.857973e+000 2.799973e+000 -1.252045e+001 169 88 85
-2.008459e+000 1.324305e+000 -8.653374e+000 130 109 86
3.583543e+000 5.050303e-001 -9.667100e+000 123 100 79
4.112397e+000 3.738678e-001 -9.973200e+000 138 114 88
1.426173e+000 -3.830195e-001 -9.304643e+000 155 128 99
2.543110e+000 -2.764999e+000 -1.183287e+001 119 101 81
-1.073572e+001 -3.039769e+000 -4.695875e+001 214 212 199
3.214087e-001 -3.004555e+000 -1.100944e+001 246 234 218
5.145210e+000 2.536544e+000 -1.157171e+001 235 229 232
1.716845e+000 2.179331e+000 -1.031127e+001 77 58 44
2.365414e+000 2.270331e-001 -8.569367e+000 61 51 41
1.068605e+000 4.670273e-001 -9.520795e+000 185 158 128
4.373346e+000 -5.961645e-001 -1.041303e+001 130 106 80
-1.378480e+000 -6.113246e-001 -1.055799e+001 211 177 152
3.832804e+000 -1.537031e+000 -1.116624e+001 125 101 75
3.669212e+000 -2.077714e+000 -1.164001e+001 138 118 91
3.849542e+000 -2.139562e+000 -1.178348e+001 103 76 48
-2.246556e+000 1.746101e+000 -8.348281e+000 74 52 38
1.370878e+000 1.368717e+000 -9.861964e+000 226 200 173
2.508105e+000 -5.802500e-001 -9.544547e+000 79 62 42
2.323271e+000 -9.342290e-001 -9.843175e+000 82 65 45
2.431013e+000 -7.586290e-001 -9.730184e+000 68 55 39
5.239315e+000 -7.529081e-001 -1.080112e+001 237 185 69
1.074360e+000 -7.064456e-001 -9.543895e+000 202 184 164
1.610032e+000 9.178807e-001 -8.721955e+000 105 105 78
5.553720e-001 9.594854e-001 -9.058719e+000 133 73 60
1.539161e+000 5.370272e-001 -9.052391e+000 190 161 83
1.715402e+000 -1.440430e+000 -1.003017e+001 29 24 21
1.559289e+000 1.527035e+000 -9.881877e+000 191 162 133
2.403884e+000 1.088679e+000 -9.073994e+000 61 49 33
1.681513e+000 2.711539e-001 -8.963242e+000 95 95 64
5.163319e+000 -1.050881e+000 -1.081126e+001 213 150 64
-1.287203e+000 -1.789219e-001 -1.043191e+001 203 163 145
1.122260e+000 -7.188187e-001 -9.504832e+000 209 192 166
-1.322571e+000 -6.002975e-001 -1.047808e+001 214 177 158
1.578394e+000 -1.193867e+000 -9.754274e+000 60 52 39
2.671733e+000 -1.773940e+000 -1.084554e+001 76 58 38
4.966412e+000 -2.103500e+000 -1.150117e+001 211 140 65
4.543068e+000 -2.364083e+000 -1.162582e+001 230 199 148
4.463401e+000 -2.662397e+000 -1.164183e+001 197 181 170
4.965259e+000 2.998613e+000 -1.223866e+001 180 92 85
1.527217e+000 1.570554e+000 -9.850963e+000 194 168 141
1.776269e+000 1.370476e+000 -9.548069e+000 182 157 129
8.238425e-001 1.250245e+000 -9.529762e+000 208 172 151
8.747379e-001 1.242714e+000 -9.598656e+000 145 103 87
2.778360e+000 7.664447e-001 -9.087346e+000 75 69 53
5.013753e+000 1.518736e+000 -1.187974e+001 242 187 184
5.206935e+000 1.040641e+000 -1.139083e+001 225 177 126
7.101710e-001 5.985378e-001 -9.121559e+000 174 138 115
2.976882e+000 3.324161e-001 -8.932753e+000 60 46 33
1.122843e-001 -2.221035e-001 -8.937133e+000 232 196 180
4.482968e+000 -5.842089e-001 -1.041632e+001 89 64 38
9.402246e-002 -4.977443e-001 -8.753192e+000 189 162 142
1.451649e+000 -6.176630e-001 -9.301908e+000 180 153 123
-2.663733e-001 -7.946884e-001 -9.199004e+000 201 151 142
-1.977774e-001 -6.859702e-001 -9.381773e+000 177 103 102
-1.973788e-001 -7.939017e-001 -9.207677e+000 172 115 108
3.223031e-001 -1.614004e+000 -1.011294e+001 150 121 87
-4.169269e-001 -1.805893e+000 -1.131704e+001 174 138 119
4.400946e+000 -2.693412e+000 -1.178689e+001 134 116 107
7.446912e-002 -2.908768e+000 -1.143726e+001 186 170 147
3.862314e+000 -3.606904e+000 -1.241648e+001 145 131 126
5.255661e+000 3.216005e+000 -1.176395e+001 212 105 97
5.458268e+000 2.856593e+000 -1.120751e+001 105 97 94
1.552281e+000 2.461746e+000 -1.063163e+001 155 135 111
1.784450e+000 2.098868e+000 -1.029024e+001 99 79 65
1.115524e+000 2.178031e+000 -1.068786e+001 94 86 65
1.258966e+000 1.701048e+000 -9.994973e+000 141 111 83
1.735051e+000 1.517100e+000 -9.727655e+000 184 162 138
3.981830e+000 1.817267e+000 -1.161010e+001 142 115 90
6.060484e-001 1.427587e+000 -9.503588e+000 180 132 122
8.644307e-001 1.271113e+000 -9.538293e+000 216 180 157
2.773374e+000 1.143109e+000 -9.417112e+000 48 42 25
5.127300e+000 1.232931e+000 -1.178087e+001 183 68 63
4.927874e+000 2.949454e-001 -1.054975e+001 136 105 77
1.817644e+000 -2.258964e-001 -8.811524e+000 176 161 137
4.511054e+000 -2.341750e-001 -1.014979e+001 105 77 55
-1.443859e+000 -2.528441e-001 -1.041127e+001 165 113 95
4.112621e+000 -1.010900e+000 -1.078192e+001 108 83 56
2.150890e+000 -1.255261e+000 -1.002909e+001 60 46 33
3.639305e+000 -1.415291e+000 -1.098589e+001 120 100 75
2.092202e+000 -1.269642e+000 -1.007834e+001 54 46 25
4.028057e+000 -1.752059e+000 -1.145663e+001 120 94 67
1.450774e+000 -1.570117e+000 -9.872085e+000 113 103 93
-7.409251e-002 -1.645979e+000 -1.048634e+001 86 65 46
4.505370e+000 -2.432194e+000 -1.164776e+001 231 210 185
4.632034e+000 -2.358038e+000 -1.138264e+001 215 200 198
4.341896e+000 -2.763549e+000 -1.184858e+001 217 200 192
4.208780e+000 -2.980184e+000 -1.199541e+001 216 199 183
4.303993e+000 -2.955012e+000 -1.176570e+001 214 203 198
3.835898e+000 -3.594975e+000 -1.254704e+001 219 195 164
4.823802e+000 3.384054e+000 -1.256181e+001 238 214 207
4.414936e+000 3.242437e+000 -1.342474e+001 221 133 94
4.751764e+000 2.951875e+000 -1.263440e+001 179 89 85
-2.965138e+000 1.556892e+000 -8.277004e+000 154 124 89
1.108949e+000 1.468660e+000 -9.731207e+000 146 88 73
1.681282e+000 1.446897e+000 -9.736588e+000 190 166 136
5.058937e+000 1.363204e+000 -1.175283e+001 195 87 77
2.784055e+000 7.175350e-001 -9.106760e+000 44 35 23
3.065487e-001 7.235372e-001 -9.336076e+000 176 132 115
2.455345e+000 3.166441e-001 -8.720084e+000 58 49 39
1.264216e+000 5.724145e-001 -9.743359e+000 165 124 102
1.816681e+000 2.198626e-001 -8.767602e+000 169 152 126
2.370332e+000 6.295808e-002 -8.725213e+000 62 50 34
3.734885e+000 -4.198384e-001 -9.933921e+000 79 59 34
4.960612e+000 -9.390139e-001 -1.106114e+001 145 90 43
1.026480e+000 -8.855985e-001 -9.584603e+000 98 93 70
2.761470e+000 -1.537331e+000 -1.067998e+001 81 63 43
1.219960e+000 -1.590442e+000 -9.805804e+000 125 102 74
1.760132e+000 -1.662922e+000 -9.982710e+000 72 62 52
3.721234e+000 -1.806487e+000 -1.129513e+001 86 65 40
2.758712e+000 -2.107053e+000 -1.124468e+001 113 92 71
2.877659e+000 -2.228141e+000 -1.131043e+001 88 66 43
4.385241e+000 -2.861917e+000 -1.170200e+001 224 208 199
5.088507e+000 3.560469e+000 -1.220764e+001 243 232 230
5.497625e+000 3.033092e+000 -1.107119e+001 99 98 98
5.497625e+000 3.033092e+000 -1.107119e+001 99 98 98
5.453956e+000 2.899652e+000 -1.114137e+001 242 241 246
4.458054e+000 3.780129e+000 -1.334426e+001 238 158 104
4.624023e+000 3.648861e+000 -1.279857e+001 188 133 93
5.128681e+000 3.269307e+000 -1.202560e+001 212 109 93
4.625498e+000 3.027379e+000 -1.301762e+001 172 141 112
4.756628e+000 2.914879e+000 -1.277385e+001 233 223 229
4.756628e+000 2.914879e+000 -1.277385e+001 233 223 229
4.055559e+000 3.556806e+000 -1.426816e+001 208 132 86
4.681418e+000 2.731757e+000 -1.276172e+001 232 226 233
4.681418e+000 2.731757e+000 -1.276172e+001 232 226 233
-3.166067e+000 1.937168e+000 -8.515321e+000 170 138 116
4.614267e+000 2.403698e+000 -1.268009e+001 159 87 74
5.308155e-001 1.458026e+000 -9.598523e+000 188 131 122
4.946204e+000 1.696681e+000 -1.187363e+001 205 147 73
2.813528e+000 4.356396e-001 -8.944299e+000 246 241 216
1.909091e+000 -7.105098e-001 -9.412058e+000 54 44 35
8.089682e-001 -7.796052e-001 -9.557823e+000 123 94 80
-5.833636e-001 -6.516074e-001 -9.833950e+000 169 117 113
7.931563e-001 -1.195411e+000 -9.739577e+000 195 186 158
3.242367e+000 -1.445142e+000 -1.078600e+001 108 90 68
3.434263e+000 -2.470516e+000 -1.183971e+001 139 115 90
4.132129e+000 -3.136387e+000 -1.205367e+001 233 203 171
4.132129e+000 -3.136387e+000 -1.205367e+001 233 203 171
-4.708216e-002 -3.237372e+000 -1.158159e+001 177 159 139
5.291254e+000 3.400876e+000 -1.178305e+001 146 123 93
4.649321e+000 3.022110e+000 -1.288140e+001 231 222 226
-2.587218e+000 2.196525e+000 -8.583568e+000 138 111 80
3.946363e+000 3.600399e+000 -1.424961e+001 235 183 107
4.675932e+000 2.653165e+000 -1.284990e+001 177 96 94
4.768192e+000 2.826420e+000 -1.283723e+001 171 90 96
5.312899e+000 2.084085e+000 -1.142590e+001 143 104 65
1.278664e+000 1.600355e+000 -9.955894e+000 147 102 58
4.945132e+000 1.592135e-001 -1.041412e+001 140 110 82
3.032384e+000 -9.384076e-001 -1.019841e+001 96 78 56
3.576767e+000 -1.116407e+000 -1.062513e+001 121 101 77
5.082823e+000 -1.069808e+000 -1.092372e+001 170 149 140
5.082823e+000 -1.069808e+000 -1.092372e+001 170 149 140
1.092612e+000 -1.010055e+000 -9.649469e+000 139 143 110
4.909958e+000 -1.577083e+000 -1.111197e+001 159 141 135
2.715364e+000 -1.369132e+000 -1.048560e+001 106 87 71
1.044529e+000 -1.467990e+000 -9.823749e+000 147 106 70
3.098530e+000 -1.845305e+000 -1.112791e+001 91 71 47
4.425172e+000 -2.070262e+000 -1.203711e+001 128 72 36
4.796887e+000 -1.993176e+000 -1.120417e+001 228 208 197
1.634433e-001 -1.996950e+000 -1.000590e+001 200 187 157
3.035464e-001 -2.922878e+000 -1.107638e+001 191 171 146
5.461413e+000 3.051818e+000 -1.119683e+001 237 233 238
5.427852e+000 2.920335e+000 -1.127201e+001 239 233 236
5.427852e+000 2.920335e+000 -1.127201e+001 239 233 236
4.772319e+000 3.542743e+000 -1.271531e+001 234 146 111
4.389747e+000 3.585911e+000 -1.356973e+001 209 119 84
4.389747e+000 3.585911e+000 -1.356973e+001 209 119 84
4.777465e+000 2.869532e+000 -1.263958e+001 239 228 230
-2.537106e+000 1.793562e+000 -8.350453e+000 120 91 59
5.358777e+000 1.522777e+000 -1.135615e+001 214 186 168
-1.837347e+000 1.486772e+000 -8.760552e+000 121 94 75
4.268938e+000 1.316404e+000 -1.116850e+001 150 120 96
2.113670e+000 5.457557e-001 -8.775502e+000 105 76 47
5.209309e+000 9.031001e-001 -1.130629e+001 198 69 69
5.209309e+000 9.031001e-001 -1.130629e+001 198 69 69
1.876239e+000 4.502482e-001 -8.708156e+000 84 90 63
2.866968e-001 -2.247302e-001 -8.751484e+000 191 164 143
1.222968e+000 -1.839831e+000 -1.003915e+001 159 158 130
4.403783e+000 -2.545333e+000 -1.167234e+001 230 187 67
1.584059e+000 -3.030609e+000 -1.148541e+001 93 74 53
3.000340e+000 -3.866481e+000 -1.306935e+001 180 156 119
5.448873e+000 2.797159e+000 -1.106354e+001 99 100 95
5.448873e+000 2.797159e+000 -1.106354e+001 99 100 95
4.192254e+000 3.665420e+000 -1.380163e+001 207 117 90
4.192254e+000 3.665420e+000 -1.380163e+001 207 117 90
4.488424e+000 3.232298e+000 -1.329166e+001 238 182 105
4.732689e+000 3.020085e+000 -1.274639e+001 180 88 93
-1.889284e+000 1.564240e+000 -8.683338e+000 163 149 136
1.158906e+000 1.359184e+000 -9.821457e+000 114 68 46
1.158906e+000 1.359184e+000 -9.821457e+000 114 68 46
4.405922e+000 1.576750e+000 -1.160082e+001 114 89 65
5.318276e+000 1.294001e+000 -1.126172e+001 202 97 97
-2.498957e+000 1.146764e+000 -8.225584e+000 108 78 49
4.230749e+000 -5.501839e-001 -1.027540e+001 131 106 84
5.140399e-001 -4.018758e-001 -8.917253e+000 186 163 148
3.176806e+000 -9.582819e-001 -1.024471e+001 102 84 60
3.176806e+000 -9.582819e-001 -1.024471e+001 102 84 60
-1.427873e+001 -3.963416e+000 -4.872599e+001 228 231 227
-1.468147e+001 -4.490096e+000 -4.464693e+001 200 141 119
-1.357850e+001 -4.427587e+000 -4.742466e+001 161 143 129
4.677924e+000 3.531308e+000 -1.296507e+001 237 227 227
4.530390e+000 2.783583e+000 -1.318988e+001 220 126 101
5.672295e-001 1.527617e+000 -9.501606e+000 208 180 159
-1.824048e+000 1.246651e+000 -8.824783e+000 106 78 56
3.447562e+000 -3.550489e-001 -9.715713e+000 112 91 70
2.124094e+000 -1.309982e+000 -1.006975e+001 67 51 39
3.218652e+000 -1.536745e+000 -1.094783e+001 101 81 57
5.314367e+000 3.111232e+000 -1.129652e+001 199 93 92
2.006558e+000 8.348125e-001 -8.873255e+000 223 216 197
5.129876e+000 3.064780e+000 -1.181044e+001 185 87 86
-4.089305e-001 -5.660614e-001 -9.514812e+000 214 175 163
1.720886e+000 -2.480764e+000 -1.094839e+001 165 151 135
4.020706e+000 -6.076053e-001 -1.016373e+001 125 99 74
3.494366e+000 -1.432893e+000 -1.078760e+001 118 98 74
5.453695e+000 2.969035e+000 -1.121723e+001 179 166 157
5.453695e+000 2.969035e+000 -1.121723e+001 179 166 157
1.994473e+000 2.085522e+000 -1.020521e+001 107 92 71
-2.883954e+000 1.987256e+000 -8.535321e+000 107 76 55
4.902017e-001 1.927380e+000 -9.948051e+000 213 170 163
2.486312e+000 1.903882e+000 -1.028895e+001 63 42 19
1.957305e+000 1.197715e+000 -9.234707e+000 165 146 120
5.156775e+000 1.595597e+000 -1.160805e+001 231 188 179
1.085060e+000 1.433052e+000 -9.824810e+000 166 124 107
1.242026e+000 1.340865e+000 -9.845248e+000 136 99 75
2.081085e+000 7.834934e-001 -8.826083e+000 149 127 95
2.490681e+000 7.021432e-001 -8.790348e+000 91 86 64
2.507816e+000 4.750940e-001 -8.694679e+000 93 84 69
3.478200e+000 8.655009e-001 -9.947847e+000 78 58 33
2.929635e+000 4.779891e-001 -8.977689e+000 77 66 46
2.361294e+000 1.812774e-001 -8.676138e+000 113 106 89
2.934137e+000 3.236622e-001 -8.898584e+000 210 199 180
3.864729e+000 2.099459e-001 -9.714459e+000 80 58 37
3.976888e+000 -9.441018e-002 -9.807018e+000 115 93 69
1.680050e+000 -3.577594e-001 -8.951067e+000 194 182 160
-1.287203e+000 -1.789219e-001 -1.043191e+001 203 163 145
2.232699e+000 -9.775438e-001 -9.885076e+000 196 190 170
-4.629016e-002 -1.754395e+000 -1.045014e+001 110 81 52
4.464628e+000 -2.647340e+000 -1.156398e+001 157 143 135
5.014821e+000 3.307257e+000 -1.198763e+001 230 150 117
5.458730e+000 2.544192e+000 -1.098246e+001 144 127 123
1.998276e+000 2.210065e+000 -1.028019e+001 80 65 46
8.981998e-001 2.232543e+000 -1.053136e+001 217 191 167
1.288149e+000 2.178525e+000 -1.033082e+001 129 128 100
1.365946e+000 2.125595e+000 -1.022140e+001 144 138 110
1.128820e+000 1.941329e+000 -1.038965e+001 67 61 39
4.559912e-001 1.802572e+000 -1.006108e+001 222 181 157
5.743873e-001 1.411123e+000 -9.536679e+000 198 145 136
8.881595e-001 1.203202e+000 -9.509152e+000 183 141 127
1.432956e+000 1.412287e+000 -9.942979e+000 211 185 157
2.786695e+000 9.827874e-001 -9.251240e+000 46 37 19
5.078914e+000 1.490956e+000 -1.174028e+001 219 156 147
5.078914e+000 1.490956e+000 -1.174028e+001 219 156 147
-2.490448e-001 1.641325e+000 -1.138843e+001 171 126 117
-3.408630e-001 1.596783e+000 -1.128055e+001 143 87 84
3.909883e+000 3.027537e-001 -9.755796e+000 94 70 46
2.879667e+000 8.616729e-002 -8.964956e+000 76 64 50
4.387042e+000 9.196762e-002 -9.967842e+000 95 71 47
4.287478e+000 -1.776186e-001 -1.000275e+001 118 94 68
6.137762e-001 -2.661576e-001 -9.070184e+000 98 57 44
4.666538e+000 -5.100572e-001 -1.043163e+001 106 79 52
5.146971e+000 -7.186616e-001 -1.095492e+001 137 94 55
5.169281e+000 -8.380985e-001 -1.082980e+001 227 219 215
1.723208e+000 -9.052682e-001 -9.568232e+000 58 48 38
2.297243e+000 -7.984304e-001 -9.763938e+000 72 66 46
5.109421e+000 -1.208164e+000 -1.086406e+001 199 144 90
1.256289e+000 -8.995800e-001 -9.414628e+000 211 190 161
2.040215e+000 -1.231771e+000 -1.007783e+001 99 92 57
3.534081e+000 -1.699271e+000 -1.116609e+001 112 86 63
4.653161e+000 -2.285349e+000 -1.142229e+001 213 200 200
4.653161e+000 -2.285349e+000 -1.142229e+001 213 200 200
5.196220e+000 2.741214e+000 -1.168489e+001 140 126 113
-2.941188e+000 1.919600e+000 -8.368970e+000 93 61 39
1.205511e+000 2.141362e+000 -1.062118e+001 101 96 73
3.487643e+000 1.547684e+000 -1.088785e+001 114 89 67
5.022230e+000 1.662357e+000 -1.190433e+001 237 221 224
2.452522e+000 9.016095e-001 -8.868005e+000 77 69 48
-3.075248e+000 1.144234e+000 -8.377339e+000 157 126 92
9.067971e-001 9.090231e-001 -9.243158e+000 144 99 76
4.101674e+000 8.400952e-001 -1.040873e+001 104 74 49
4.068516e+000 2.013418e-001 -9.971039e+000 110 88 65
4.863582e+000 2.457413e-001 -1.034697e+001 101 70 42
3.512433e+000 1.173814e-001 -9.491651e+000 77 56 35
3.739040e+000 -1.206314e-001 -9.702812e+000 116 97 73
3.620614e+000 -2.111046e-001 -9.660122e+000 94 73 53
1.797998e-001 -2.242090e-001 -8.853964e+000 186 137 124
3.346415e+000 -1.071807e+000 -1.047716e+001 102 85 63
4.165585e+000 -1.115545e+000 -1.089417e+001 113 87 60
5.051527e+000 -1.220149e+000 -1.094008e+001 227 220 212
-1.261163e+000 -5.935255e-001 -1.040967e+001 175 133 117
3.448040e+000 -1.102304e+000 -1.058278e+001 96 80 55
-8.630626e-001 -9.983634e-001 -9.766049e+000 197 145 132
-8.645405e-001 -1.131643e+000 -9.714435e+000 184 134 129
4.889416e+000 -1.637129e+000 -1.118654e+001 230 216 212
2.778177e-001 -1.662967e+000 -1.014442e+001 155 129 91
1.818896e+000 -1.897103e+000 -1.016271e+001 59 49 40
4.550209e+000 -2.131697e+000 -1.169259e+001 219 142 56
4.916565e+000 3.497567e+000 -1.208393e+001 182 154 95
4.224906e+000 3.625101e+000 -1.372135e+001 203 115 86
4.773708e+000 3.543752e+000 -1.337075e+001 232 155 128
5.281365e+000 2.938228e+000 -1.184730e+001 232 211 213
5.281365e+000 2.938228e+000 -1.184730e+001 232 211 213
5.155609e+000 2.884731e+000 -1.169678e+001 173 86 85
-2.666439e+000 2.228837e+000 -8.567388e+000 79 46 26
4.852610e+000 2.983778e+000 -1.270517e+001 233 207 214
4.852610e+000 2.983778e+000 -1.270517e+001 233 207 214
-2.600125e+000 1.603400e+000 -8.233251e+000 156 127 93
-2.597750e+000 1.462417e+000 -8.255681e+000 110 81 49
4.745884e+000 2.136099e+000 -1.250264e+001 164 94 50
4.956970e+000 1.989685e+000 -1.221860e+001 220 168 87
2.048473e+000 1.085058e+000 -9.104203e+000 153 132 102
5.134561e+000 1.205131e+000 -1.164553e+001 230 210 215
1.751827e+000 6.712225e-001 -8.970536e+000 155 129 99
4.531724e+000 4.121113e-001 -1.022609e+001 111 81 53
4.968573e+000 3.067350e-001 -1.048190e+001 101 69 44
1.781410e+000 1.720750e-001 -8.849855e+000 146 124 95
4.039410e+000 -1.245609e-002 -9.788640e+000 85 60 37
3.492017e+000 -5.617100e-001 -9.974721e+000 86 67 42
3.345582e+000 -6.228193e-001 -9.913352e+000 85 65 41
1.268424e+000 -7.393429e-001 -9.440944e+000 174 153 125
4.416119e+000 -1.105331e+000 -1.097087e+001 111 80 51
8.478246e-001 -9.390368e-001 -9.557707e+000 100 103 81
1.671124e+000 -1.243166e+000 -9.889443e+000 63 54 43
2.616061e+000 -1.530975e+000 -1.061462e+001 89 68 51
5.290407e+000 2.908215e+000 -1.151078e+001 234 227 229
4.603309e+000 3.212141e+000 -1.304842e+001 182 121 95
4.569168e+000 3.065236e+000 -1.337523e+001 214 118 94
4.665328e+000 3.105598e+000 -1.281286e+001 196 106 108
-2.628457e+000 1.779904e+000 -8.265114e+000 129 99 64
1.596036e+000 1.827044e+000 -1.006510e+001 169 145 121
-3.047890e+000 1.610199e+000 -8.398499e+000 134 100 70
4.783735e+000 2.118542e+000 -1.237409e+001 226 178 86
4.884839e+000 2.022929e+000 -1.227387e+001 231 178 101
-2.859088e+000 1.322882e+000 -8.265475e+000 153 120 85
-2.911530e+000 1.167755e+000 -8.220832e+000 154 125 93
4.032381e+000 1.481485e-001 -9.826406e+000 107 86 63
1.061954e+000 -3.850573e-001 -9.416534e+000 149 115 88
1.209794e+000 -9.309418e-001 -9.481314e+000 211 197 171
2.828443e+000 -1.317762e+000 -1.049029e+001 98 80 58
4.724763e-001 -1.547086e+000 -1.017164e+001 168 135 103
4.297474e+000 -2.922957e+000 -1.186359e+001 152 139 126
7.952501e-001 -2.808677e+000 -1.103628e+001 128 120 109
-2.749665e+000 2.178564e+000 -8.522041e+000 93 58 39
4.771216e+000 2.570365e+000 -1.266351e+001 237 229 234
9.396239e-002 1.395739e+000 -1.007474e+001 222 171 168
1.384229e+000 4.797377e-001 -9.476011e+000 189 165 144
4.265060e+000 2.781488e-001 -9.962364e+000 95 71 47
4.891645e+000 -3.106011e-001 -1.038957e+001 115 82 51
-2.344876e-001 -1.303569e-001 -9.450312e+000 216 168 158
3.683540e+000 -9.159951e-001 -1.046259e+001 96 75 48
4.223585e+000 3.792013e+000 -1.381718e+001 209 120 84
4.223585e+000 3.792013e+000 -1.381718e+001 209 120 84
4.048356e+000 1.825065e+000 -1.158028e+001 144 117 91
3.649646e+000 9.514397e-001 -1.005251e+001 140 113 86
4.522259e+000 4.113631e-001 -1.024420e+001 107 77 49
-1.363630e+000 7.447099e-001 -9.175168e+000 118 98 81
5.124963e-001 -1.153744e+000 -9.812805e+000 167 143 114
4.063644e+000 -3.022414e+000 -1.217136e+001 236 181 66
4.867968e+000 3.620671e+000 -1.265149e+001 243 231 238
4.462761e+000 3.448657e+000 -1.337761e+001 240 173 103
1.653264e+000 -1.593699e+000 -9.946132e+000 50 40 32
7.388953e-001 -2.202027e+000 -1.024740e+001 241 237 228
-1.522666e+001 -5.296597e+000 -4.572099e+001 238 200 153
-1.390953e+001 -5.469853e+000 -4.430711e+001 217 151 116
-1.256527e+001 -8.366291e+000 -5.023642e+001 234 173 169
5.271634e+000 1.868506e+000 -1.132020e+001 232 222 221
-1.585261e+001 -5.500590e+000 -4.571311e+001 182 103 72
-1.585261e+001 -5.500590e+000 -4.571311e+001 182 103 72
-1.502965e+001 -6.251633e+000 -4.607123e+001 234 186 140
-1.171103e+001 -5.682514e+000 -4.764791e+001 226 225 215
-1.168640e+001 -7.211232e+000 -4.823234e+001 232 228 216
3.112907e+000 -1.536999e-001 -9.270955e+000 153 141 124
1.604390e+000 -2.199063e+000 -1.045194e+001 65 52 44
-1.416458e+001 -4.991963e+000 -4.635290e+001 221 220 202
-1.704103e+001 -5.160112e+000 -4.520909e+001 155 88 68
-1.635574e+001 -5.884956e+000 -4.493759e+001 235 195 149
-1.199059e+001 -6.357410e+000 -4.759486e+001 82 68 55
-1.199059e+001 -6.357410e+000 -4.759486e+001 82 68 55
-2.219563e+000 7.363441e-001 -8.877381e+000 201 185 167
-2.219563e+000 7.363441e-001 -8.877381e+000 201 185 167
5.210566e+000 2.547265e+000 -1.155071e+001 173 111 116
1.344197e+000 2.175975e+000 -1.030475e+001 111 111 83
1.846240e+000 2.114596e+000 -1.025342e+001 94 73 54
2.181547e-001 1.788894e+000 -1.020974e+001 229 183 169
3.827498e-001 1.825045e+000 -1.011742e+001 210 175 153
7.980220e-001 1.364174e+000 -9.487938e+000 195 154 134
1.326620e+000 1.615379e+000 -1.007516e+001 145 106 64
2.481394e+000 9.565848e-001 -8.886092e+000 85 69 56
2.960582e+000 6.932801e-001 -8.999254e+000 100 86 60
2.482891e+000 2.944209e-001 -8.661601e+000 107 99 81
2.295672e+000 2.593235e-001 -8.665843e+000 109 103 84
2.342415e+000 9.735717e-002 -8.725077e+000 112 104 85
2.342415e+000 9.735717e-002 -8.725077e+000 112 104 85
4.280956e+000 1.360903e-001 -9.961610e+000 88 64 40
2.615978e+000 -6.397526e-002 -9.159411e+000 91 83 74
-1.365026e+000 -1.354715e-001 -1.048093e+001 187 141 123
2.439752e+000 -6.496708e-001 -9.588283e+000 119 111 95
5.209967e+000 -8.156693e-001 -1.082114e+001 150 140 127
5.209967e+000 -8.156693e-001 -1.082114e+001 150 140 127
5.199762e+000 -8.760281e-001 -1.080372e+001 221 204 197
-1.376942e+000 -5.353414e-001 -1.056382e+001 192 156 132
-8.464328e-001 -9.598325e-001 -9.721856e+000 190 135 121
1.374294e+000 -1.142479e+000 -9.519304e+000 147 124 95
1.039266e+000 2.447725e+000 -1.059841e+001 206 190 164
1.491654e+000 2.145267e+000 -1.035807e+001 144 124 98
2.941831e-001 1.818761e+000 -1.019357e+001 194 158 134
1.461728e+000 1.678622e+000 -9.942697e+000 147 117 86
3.240656e+000 1.850711e+000 -1.111076e+001 115 91 67
1.611258e+000 8.642839e-001 -9.165553e+000 82 81 61
1.278102e+000 9.857611e-001 -9.817526e+000 116 71 52
2.958622e+000 6.554296e-001 -9.050900e+000 114 104 77
2.932366e+000 4.216726e-001 -8.995972e+000 60 48 24
2.358557e+000 1.367062e-001 -8.724716e+000 114 106 88
2.467393e+000 -4.436695e-001 -9.490237e+000 71 61 37
3.620764e+000 -4.952704e-001 -9.915773e+000 76 54 31
2.682716e+000 -5.978322e-001 -9.663332e+000 171 157 143
3.285199e+000 -7.556723e-001 -1.007151e+001 79 61 37
5.169281e+000 -8.380985e-001 -1.082980e+001 227 219 215
-2.663733e-001 -7.946884e-001 -9.199004e+000 201 151 142
-1.260244e-001 -8.537815e-001 -9.205019e+000 180 124 114
-1.026562e+000 -1.058546e+000 -9.655231e+000 199 155 144
3.241406e+000 -1.358693e+000 -1.077859e+001 90 74 51
7.850047e-001 -1.494322e+000 -1.004096e+001 176 156 133
9.626393e-001 -1.470945e+000 -9.769541e+000 183 160 129
1.330157e+000 -1.737680e+000 -9.966656e+000 102 93 75
1.101023e-001 1.868980e+000 -1.033101e+001 221 182 164
2.015023e+000 1.221505e+000 -9.341079e+000 162 140 116
3.433856e+000 1.605218e+000 -1.095625e+001 119 94 72
5.296568e+000 1.449542e+000 -1.126858e+001 211 187 164
2.777642e+000 7.903711e-001 -9.145641e+000 47 41 25
5.084170e+000 1.355615e+000 -1.152203e+001 231 207 217
5.370452e-001 6.512791e-001 -9.038899e+000 225 196 175
4.193074e+000 4.235644e-001 -9.918965e+000 107 79 55
-1.288666e+000 5.834368e-001 -9.128174e+000 125 108 87
1.941971e+000 1.022332e-001 -8.660054e+000 210 195 172
1.670290e+000 -8.350769e-002 -8.756549e+000 182 176 146
1.391393e+000 -3.598363e-001 -9.306054e+000 161 134 106
9.121585e-001 -1.394612e+000 -9.781845e+000 200 187 165
1.404601e+000 -1.663959e+000 -9.858262e+000 139 133 110
4.916565e+000 3.497567e+000 -1.208393e+001 182 154 95
-2.866208e+000 2.137997e+000 -8.424494e+000 140 112 100
-3.024497e+000 1.402792e+000 -8.229627e+000 126 95 66
1.905671e+000 1.283711e+000 -9.372248e+000 144 118 92
1.982520e+000 9.602682e-001 -9.025926e+000 244 241 226
2.889123e+000 8.639385e-001 -9.158442e+000 59 46 24
3.852680e+000 1.117443e+000 -1.067908e+001 143 112 87
3.266207e+000 -1.034299e+000 -1.041711e+001 108 90 70
1.590369e+000 -1.664343e+000 -9.821682e+000 56 48 37
3.209520e+000 -2.069672e+000 -1.134898e+001 94 70 46
1.851137e+000 -3.356354e+000 -1.203484e+001 97 76 53
1.319907e+000 1.469596e+000 -9.907271e+000 142 109 81
4.346883e+000 6.073261e-001 -1.018124e+001 123 94 64
4.510787e+000 1.136388e-001 -1.014052e+001 118 94 70
1.483192e+000 -3.963375e-001 -9.275813e+000 175 148 122
3.923155e+000 -3.095084e-001 -9.888860e+000 78 57 35
1.110759e+000 -8.735962e-001 -9.642413e+000 89 78 52
7.172459e-001 -1.592769e+000 -9.998688e+000 225 208 189
2.290913e+000 -1.941730e+000 -1.075202e+001 88 70 48
4.966561e+000 3.592264e+000 -1.241407e+001 240 232 230
4.675932e+000 2.653165e+000 -1.284990e+001 177 96 94
4.827271e+000 1.934394e+000 -1.231614e+001 163 94 52
-1.666589e+000 1.293765e+000 -8.886552e+000 157 137 116
1.998086e+000 8.484798e-001 -8.889502e+000 252 250 236
2.678510e+000 3.345781e-002 -9.064961e+000 44 38 30
2.950598e+000 -9.845027e-001 -1.018493e+001 96 75 58
4.292178e-002 -2.388262e+000 -1.053878e+001 157 122 62
-5.087569e-001 4.791837e+000 -2.180859e+001 231 159 153
1.670245e+000 8.437834e-001 -9.108710e+000 62 61 40
2.885737e+000 5.818755e-001 -8.986383e+000 61 47 39
-2.120330e+000 4.082030e-001 -9.086889e+000 173 153 136
4.519712e+000 -9.742774e-001 -1.089335e+001 126 96 67
-1.782915e+001 -5.212270e+000 -4.460891e+001 160 96 72
-1.339618e+001 -7.486169e+000 -4.584973e+001 206 188 174
2.003393e+000 1.304350e+000 -9.263767e+000 77 61 44
4.931013e+000 1.846748e+000 -1.215220e+001 232 199 108
1.015197e+000 1.006956e+000 -9.429107e+000 125 73 57
1.849287e+000 7.280775e-001 -8.966655e+000 181 164 138
6.527717e-001 5.127135e-001 -9.348317e+000 152 111 89
3.927126e+000 2.269545e-001 -9.771151e+000 93 71 50
3.683397e+000 -1.014548e+000 -1.053004e+001 123 101 77
1.051827e+000 -1.007721e+000 -9.382627e+000 138 142 110
3.956471e+000 -2.720706e+000 -1.241307e+001 129 70 40
-1.301357e+001 -6.555136e+000 -4.488338e+001 200 151 130
1.170616e+000 -2.960090e+000 -1.146828e+001 69 56 48
-1.344860e+001 -8.077361e+000 -4.715545e+001 175 132 115
9.362624e-001 1.591657e+000 -9.791020e+000 135 87 70
3.774406e+000 2.062890e-001 -9.734080e+000 115 95 70
-2.287796e+000 4.334364e-001 -9.028389e+000 121 70 55
4.399004e+000 -9.007950e-001 -1.071302e+001 121 95 65
2.708400e+000 -1.975500e+000 -1.106946e+001 112 93 71
-1.700524e+001 -6.586112e+000 -4.511679e+001 178 97 67
-1.412346e+001 -6.877186e+000 -4.580847e+001 250 208 158
-4.089305e-001 -5.660614e-001 -9.514812e+000 214 175 163
2.782378e-001 -6.475083e-001 -8.960112e+000 122 62 53
-1.493787e+001 -7.814575e+000 -4.652606e+001 158 75 51
4.454037e+000 3.597013e-002 -1.068146e+001 120 95 71
2.214118e+000 2.716163e+000 -1.109493e+001 238 230 201
2.214118e+000 2.716163e+000 -1.109493e+001 238 230 201
-2.883954e+000 1.987256e+000 -8.535321e+000 107 76 55
3.755957e-001 1.960015e+000 -1.015787e+001 214 177 159
1.707893e+000 1.873002e+000 -1.003283e+001 152 125 101
1.624470e+000 1.708769e+000 -9.995079e+000 193 174 154
2.137138e+000 1.851487e+000 -9.907476e+000 79 67 43
2.097177e+000 1.704138e+000 -9.702710e+000 105 93 69
1.253413e-001 1.825508e+000 -1.033820e+001 220 178 160
1.122797e+000 1.648570e+000 -9.984641e+000 215 195 169
7.978850e-001 1.386812e+000 -9.440902e+000 166 126 108
3.458587e+000 1.573694e+000 -1.091427e+001 97 72 50
1.828781e+000 1.289520e+000 -9.436703e+000 173 163 146
2.407917e+000 1.155894e+000 -9.121595e+000 105 92 76
2.821543e+000 9.979216e-001 -9.272761e+000 52 40 23
3.355811e+000 1.226816e+000 -1.036476e+001 85 60 38
3.465495e+000 1.099268e+000 -1.028468e+001 115 95 71
5.035580e+000 1.591163e+000 -1.191950e+001 237 187 179
-1.336209e+000 1.097907e+000 -9.108412e+000 137 116 92
3.635037e-001 8.694941e-001 -9.023518e+000 232 210 192
8.796047e-001 9.732264e-001 -9.419159e+000 159 113 98
2.331562e+000 9.297270e-001 -8.887384e+000 124 116 97
2.525766e+000 9.120506e-001 -8.952162e+000 66 51 32
2.506696e+000 7.095491e-001 -8.759854e+000 164 156 137
3.490346e+000 1.060079e+000 -1.025775e+001 91 69 45
1.535951e+000 6.712428e-001 -9.031601e+000 194 165 91
1.905440e+000 6.555620e-001 -8.702926e+000 131 135 104
2.523139e+000 5.008422e-001 -8.710964e+000 109 100 84
2.836754e+000 4.805272e-001 -8.946231e+000 82 69 51
-1.267138e+000 4.586047e-001 -9.268541e+000 112 95 73
2.905288e+000 2.492019e-001 -8.997650e+000 230 226 204
2.345749e-002 5.118359e-002 -9.349446e+000 181 143 122
1.949563e+000 7.103167e-002 -8.711820e+000 151 130 103
4.150742e-001 -1.411138e-001 -9.002569e+000 209 170 152
2.677407e+000 -2.005343e-001 -9.203395e+000 225 217 194
2.677407e+000 -2.005343e-001 -9.203395e+000 225 217 194
2.760805e+000 -1.432370e-001 -9.108966e+000 204 198 175
2.706352e+000 -1.554718e-001 -9.153219e+000 179 172 150
-1.306830e+000 -3.255344e-001 -1.054440e+001 203 167 151
2.006844e-001 -3.095450e-001 -8.700474e+000 214 181 165
1.653492e+000 -3.889557e-001 -9.095962e+000 212 201 176
2.531700e+000 -4.447131e-001 -9.438915e+000 190 184 165
1.775212e+000 -7.961722e-001 -9.510828e+000 63 50 34
1.760603e+000 -8.149200e-001 -9.502348e+000 65 53 38
2.234527e+000 -7.704425e-001 -9.789338e+000 204 198 160
-5.353351e-001 -9.961315e-001 -9.194360e+000 213 173 169
1.314290e+000 -1.096640e+000 -9.471290e+000 216 207 188
1.629892e+000 -1.285574e+000 -9.823316e+000 121 112 96
4.863346e+000 -1.409253e+000 -1.108026e+001 231 199 100
1.047055e+000 -1.420074e+000 -9.770117e+000 183 151 119
1.306219e+000 -1.749750e+000 -9.918786e+000 189 181 161
1.256876e+000 -2.627018e+000 -1.114637e+001 82 75 57
4.207059e+000 -3.034439e+000 -1.202562e+001 171 159 153
1.083154e+000 -2.991043e+000 -1.146252e+001 209 202 182
7.703729e-001 -3.514149e+000 -1.181683e+001 141 135 109
1.000171e+000 2.547963e+000 -1.081111e+001 210 194 174
-7.033246e-001 4.977430e+000 -2.232324e+001 235 178 167
8.621091e-001 2.274459e+000 -1.068334e+001 181 157 115
9.429225e-001 2.281321e+000 -1.047551e+001 205 180 152
1.359170e+000 2.092460e+000 -1.023880e+001 93 93 65
1.707457e+000 2.015465e+000 -1.008158e+001 85 57 39
2.081129e+000 2.046477e+000 -1.014917e+001 74 59 38
6.964626e-001 1.953711e+000 -1.008821e+001 205 162 146
6.964626e-001 1.953711e+000 -1.008821e+001 205 162 146
9.444289e-001 2.046335e+000 -1.058675e+001 133 108 85
8.890663e-001 1.942642e+000 -1.019634e+001 140 101 84
1.743350e+000 1.895915e+000 -1.007633e+001 134 108 83
1.810146e+000 1.708349e+000 -9.977952e+000 105 80 59
3.316910e+000 1.984323e+000 -1.130928e+001 100 74 50
3.544223e+000 2.097021e+000 -1.167309e+001 101 77 53
5.312954e+000 1.915149e+000 -1.123930e+001 206 152 63
4.088442e-001 1.564342e+000 -9.722793e+000 189 133 126
4.725020e-001 1.555803e+000 -9.591372e+000 195 141 135
5.342879e-001 1.605792e+000 -9.558476e+000 190 139 135
1.786766e+000 1.643666e+000 -9.830189e+000 155 129 102
2.278281e+000 1.476108e+000 -9.510996e+000 77 64 43
2.319800e+000 1.256496e+000 -9.222324e+000 59 46 30
3.242906e+000 1.778406e+000 -1.101011e+001 115 93 72
3.948266e+000 1.922781e+000 -1.161958e+001 143 111 86
4.118662e-001 1.102305e+000 -9.114806e+000 203 170 156
9.511864e-001 1.108336e+000 -9.467461e+000 152 106 90
1.414320e+000 1.277483e+000 -9.954419e+000 114 78 53
2.448133e+000 1.115962e+000 -9.112847e+000 62 50 33
3.324005e+000 1.256199e+000 -1.036413e+001 112 87 65
3.610872e+000 1.214056e+000 -1.055685e+001 77 55 34
-1.296126e+000 1.101970e+000 -9.125150e+000 124 103 80
8.997421e-001 9.436646e-001 -9.304979e+000 167 122 102
1.585786e+000 1.039876e+000 -9.376157e+000 95 95 69
1.918638e+000 9.776202e-001 -9.048330e+000 174 159 133
1.928377e+000 8.396155e-001 -8.995106e+000 186 168 138
2.903327e+000 9.412433e-001 -9.280653e+000 95 83 59
2.889646e+000 9.030213e-001 -9.182854e+000 184 173 151
-1.289718e+000 6.184370e-001 -9.180229e+000 114 96 78
9.498670e-001 6.703001e-001 -9.386032e+000 163 124 101
2.066235e+000 6.240505e-001 -8.710857e+000 150 131 102
2.573549e+000 5.786872e-001 -9.477671e+000 135 129 106
1.413827e+000 3.713196e-001 -9.884267e+000 190 162 140
1.724434e+000 3.443720e-001 -8.905291e+000 141 131 104
1.879889e+000 4.243063e-001 -8.707080e+000 116 124 89
2.749491e+000 3.815598e-001 -9.016217e+000 40 31 24
2.902942e+000 2.197350e-001 -8.974049e+000 67 58 41
2.260180e+000 2.791715e-002 -8.776630e+000 127 119 96
2.810741e+000 1.212544e-001 -8.989151e+000 70 61 44
3.512433e+000 1.173814e-001 -9.491651e+000 77 56 35
4.387042e+000 9.196762e-002 -9.967842e+000 95 71 47
-1.377764e+000 -3.140092e-001 -1.039111e+001 175 128 108
2.054439e+000 -3.229162e-001 -9.083646e+000 54 47 29
2.348887e+000 -5.407405e-001 -9.541469e+000 227 223 195
2.538103e+000 -3.430058e-001 -9.381225e+000 63 56 31
2.558021e+000 -3.879423e-001 -9.381957e+000 61 49 33
2.463071e+000 -5.013062e-001 -9.537940e+000 227 223 199
-1.226918e+000 -5.754603e-001 -1.046339e+001 197 157 142
5.143520e+000 -1.033853e+000 -1.085018e+001 232 214 210
1.828870e+000 -1.027829e+000 -9.692866e+000 49 40 25
2.138027e+000 -1.099255e+000 -1.000993e+001 246 241 211
4.993254e+000 -1.078073e+000 -1.116853e+001 184 82 55
8.985295e-001 -1.305237e+000 -9.698303e+000 182 178 148
2.017772e+000 -1.388595e+000 -1.016809e+001 75 69 42
2.851273e+000 -1.463649e+000 -1.069177e+001 85 69 46
4.811769e+000 -1.584022e+000 -1.154894e+001 235 184 78
