ply
format ascii 1.0
element face 0
property list uchar int vertex_indices
element vertex 873
property float x
property float y
property float z
property uchar diffuse_red
property uchar diffuse_green
property uchar diffuse_blue
end_header
6.531784e-001 2.166791e+000 -9.981064e+000 134 87 72
4.068097e-001 1.823783e+000 -9.503805e+000 203 153 147
8.236732e-001 1.629792e+000 -9.447525e+000 171 133 114
5.630463e-001 1.382198e+000 -9.190989e+000 152 105 92
1.288438e+000 1.780393e+000 -9.971050e+000 144 110 64
2.975780e+000 1.239086e+000 -9.330272e+000 117 102 77
2.867959e+000 1.080052e+000 -9.205219e+000 51 43 29
2.867959e+000 1.080052e+000 -9.205219e+000 51 43 29
4.207461e+000 1.220129e+000 -1.067605e+001 134 104 78
1.531080e+000 9.957911e-001 -8.951513e+000 220 205 170
2.574945e+000 7.921183e-001 -8.618915e+000 70 58 42
2.920841e+000 6.524329e-001 -8.953768e+000 50 41 30
2.943384e+000 5.825091e-001 -9.012141e+000 43 35 24
4.590147e+000 9.747902e-001 -1.060128e+001 123 92 64
4.294493e-001 8.759447e-001 -9.020635e+000 170 129 113
2.791421e-001 7.867907e-001 -9.334392e+000 146 102 79
-2.780170e+000 1.045305e+000 -8.790318e+000 157 140 126
2.922155e+000 1.705310e-001 -8.872051e+000 60 51 38
2.897234e+000 8.669269e-002 -9.114714e+000 106 97 81
1.977891e+000 -1.262482e-001 -8.569906e+000 121 94 62
2.342525e+000 -1.080594e-001 -8.774105e+000 63 50 35
2.573033e+000 -1.471236e-001 -9.180887e+000 37 30 24
2.895652e+000 -8.538319e-002 -8.975557e+000 65 53 38
2.784654e+000 -2.578350e-001 -9.211852e+000 60 52 32
3.126019e+000 -8.507171e-002 -9.245204e+000 111 95 79
3.877010e-001 -2.130517e-001 -8.823186e+000 157 119 102
2.197359e+000 -3.556970e-001 -9.222013e+000 56 42 34
2.394515e+000 -4.397153e-001 -9.659316e+000 42 34 25
2.736428e+000 -3.372596e-001 -9.344241e+000 64 51 40
-1.399331e+000 1.036165e-001 -9.658547e+000 163 123 111
-1.399331e+000 1.036165e-001 -9.658547e+000 163 123 111
-5.733915e-002 -2.702827e-001 -8.820150e+000 192 156 140
2.230230e+000 -7.100365e-001 -9.861746e+000 36 29 27
3.676585e+000 -8.777483e-001 -1.034673e+001 90 68 45
1.852586e+000 -9.258607e-001 -9.592190e+000 62 50 44
3.146916e+000 -1.075208e+000 -1.040540e+001 93 75 55
3.060002e-001 -9.975168e-001 -9.428255e+000 171 115 118
7.582377e-001 -1.012640e+000 -9.591251e+000 99 95 76
1.046261e+000 -9.480493e-001 -9.735949e+000 89 82 54
1.191576e+000 -1.043755e+000 -9.524906e+000 133 104 75
3.010099e+000 -1.245721e+000 -1.039431e+001 70 53 33
3.494085e+000 -1.222773e+000 -1.058280e+001 97 76 55
3.296624e+000 -1.350110e+000 -1.066139e+001 107 86 65
3.615180e+000 -1.452218e+000 -1.082225e+001 121 99 76
5.373593e+000 -1.535632e+000 -1.090216e+001 209 123 44
-1.704070e+000 -1.006416e+000 -9.938953e+000 223 186 177
7.159690e-001 -1.407749e+000 -9.838714e+000 178 159 136
9.897669e-001 -1.307084e+000 -9.785837e+000 115 84 56
7.856181e-001 -1.482968e+000 -9.876364e+000 169 145 114
8.009305e-001 -1.427528e+000 -9.808278e+000 181 174 144
4.641671e+000 -1.943919e+000 -1.177895e+001 168 128 101
-6.562927e-001 -1.429521e+000 -1.017379e+001 182 149 132
-6.307418e-001 -1.469337e+000 -1.033364e+001 150 98 87
-1.402357e-001 -1.396123e+000 -1.010564e+001 208 180 157
9.944133e-001 -1.996574e+000 -9.967400e+000 135 109 77
1.250438e+000 -2.094643e+000 -1.002598e+001 60 48 38
1.337524e+000 -1.930034e+000 -9.790636e+000 147 139 120
-7.697635e-001 -1.897587e+000 -1.155238e+001 164 116 95
-4.943765e-001 -2.212652e+000 -1.066274e+001 174 147 94
-4.943765e-001 -2.212652e+000 -1.066274e+001 174 147 94
-5.609633e-003 -2.082538e+000 -1.018562e+001 212 192 162
-8.060969e-001 -2.482268e+000 -1.207807e+001 118 117 86
4.084930e-002 -2.630107e+000 -1.067744e+001 210 186 142
2.853110e+000 -2.996935e+000 -1.213295e+001 121 99 76
2.868907e+000 -3.062873e+000 -1.221191e+001 97 75 52
3.437149e+000 -2.971280e+000 -1.232186e+001 120 91 63
3.636831e+000 -3.064822e+000 -1.248300e+001 142 113 81
-4.595374e-001 -2.850308e+000 -1.091474e+001 177 155 115
1.265667e+000 -3.253201e+000 -1.179277e+001 134 118 102
2.940434e+000 -3.440847e+000 -1.266322e+001 125 101 75
4.323818e+000 -3.683415e+000 -1.208220e+001 224 167 67
-7.022616e-001 -3.210527e+000 -1.217769e+001 180 157 129
-3.289227e-001 -3.233401e+000 -1.183461e+001 125 130 95
1.754184e-001 -3.293441e+000 -1.118688e+001 237 223 199
2.872001e+000 -3.847604e+000 -1.300959e+001 103 77 50
-5.114376e-002 -3.627324e+000 -1.140717e+001 200 183 155
6.189285e-002 -3.633931e+000 -1.113966e+001 154 123 100
4.333633e-001 -3.423682e+000 -1.138863e+001 53 42 30
2.885927e-001 -3.767854e+000 -1.170398e+001 73 58 43
3.717941e-001 -3.730298e+000 -1.154512e+001 137 128 111
3.717941e-001 -3.730298e+000 -1.154512e+001 137 128 111
9.021517e-001 -3.877237e+000 -1.198389e+001 133 117 102
5.996055e+000 2.355346e+000 -1.045675e+001 236 177 109
-3.245520e+000 2.701945e+000 -8.514336e+000 154 114 106
3.306734e+000 5.053728e+000 -1.543599e+001 216 146 86
-3.252535e+000 2.385593e+000 -8.420581e+000 113 86 57
4.735695e+000 3.144828e+000 -1.312534e+001 230 172 134
5.672765e+000 2.356402e+000 -1.130370e+001 171 140 109
-3.634219e+000 2.109726e+000 -8.364305e+000 165 135 101
4.423989e-001 1.910222e+000 -9.548679e+000 202 154 144
1.111226e+000 1.799885e+000 -9.783544e+000 158 126 101
4.010133e+000 2.052351e+000 -1.151598e+001 121 95 70
4.702431e+000 2.165742e+000 -1.207541e+001 195 171 147
-3.647507e+000 1.775799e+000 -8.312864e+000 119 92 63
3.415499e-001 1.526333e+000 -9.528106e+000 180 125 118
5.329749e-001 1.495062e+000 -9.332097e+000 198 152 139
2.552813e+000 9.254788e-001 -8.745125e+000 76 61 44
4.846993e+000 1.736612e+000 -1.170138e+001 188 166 137
4.837499e+000 1.418992e+000 -1.141156e+001 116 86 60
5.156396e+000 1.740594e+000 -1.184464e+001 234 213 202
-3.503756e+000 1.406338e+000 -8.239337e+000 149 120 90
1.549813e+000 1.107879e+000 -9.102470e+000 97 93 69
-3.477781e+000 1.331299e+000 -8.225169e+000 118 88 62
8.702490e-001 7.902795e-001 -9.300520e+000 157 115 91
1.581511e+000 5.983582e-001 -8.977346e+000 165 135 73
-3.024510e-001 8.387431e-002 -9.461867e+000 202 159 143
3.835658e-001 -6.720494e-002 -9.236598e+000 140 95 72
2.491181e+000 -3.785293e-001 -9.369688e+000 48 41 35
-1.757118e+000 1.862513e-001 -1.024260e+001 173 136 127
-1.273698e+000 3.035316e-002 -1.021269e+001 173 120 116
-1.285077e+000 3.451904e-002 -1.020968e+001 173 120 116
-1.302721e+000 4.414434e-003 -1.047012e+001 132 83 76
-1.118223e+000 1.603541e-002 -1.039239e+001 173 114 112
-1.953885e-001 -3.604279e-001 -8.957426e+000 230 205 184
1.387392e+000 -8.581759e-001 -9.369860e+000 154 116 76
1.863719e+000 -1.043815e+000 -9.569454e+000 141 119 97
2.142747e+000 -1.030802e+000 -1.006062e+001 39 30 27
4.155821e+000 -1.075360e+000 -1.081245e+001 119 96 72
-1.325354e+000 -4.909120e-001 -1.030237e+001 149 107 93
2.084562e-001 -9.343278e-001 -9.624991e+000 141 86 84
9.686130e-001 -1.150726e+000 -9.689798e+000 136 140 108
-5.646885e-001 -1.056999e+000 -9.199183e+000 156 101 94
-3.661394e-001 -1.125774e+000 -9.396607e+000 186 144 137
5.867907e-001 -1.288706e+000 -1.004362e+001 136 100 76
3.137070e+000 -1.780136e+000 -1.099482e+001 84 64 40
-6.237193e-002 -1.389650e+000 -1.002737e+001 209 181 157
5.711949e-001 -1.578416e+000 -1.023184e+001 160 131 104
1.717171e+000 -1.770148e+000 -1.007589e+001 46 33 25
-7.064348e-001 -1.803468e+000 -1.140553e+001 182 142 113
-1.381509e-001 -1.643610e+000 -1.068399e+001 111 80 51
6.453821e-001 -1.818159e+000 -1.018784e+001 149 110 74
7.347696e-001 -1.805944e+000 -1.018321e+001 155 128 101
-8.032168e-001 -2.050308e+000 -1.175218e+001 161 111 100
3.679905e+000 -2.640986e+000 -1.202193e+001 106 79 50
-5.817688e-001 -2.292462e+000 -1.164840e+001 135 119 94
-4.917162e-001 -2.396637e+000 -1.107548e+001 117 93 73
-3.807452e-001 -2.417232e+000 -1.066810e+001 147 123 84
3.298472e+000 -3.154346e+000 -1.248010e+001 113 87 59
4.025622e-001 -2.734311e+000 -1.082404e+001 154 126 104
2.820335e-001 -2.937171e+000 -1.077359e+001 197 178 154
1.439702e+000 -2.908484e+000 -1.096761e+001 132 117 96
1.363995e+000 -3.104280e+000 -1.171320e+001 130 117 100
2.888757e+000 -3.447794e+000 -1.274650e+001 94 70 44
3.079381e+000 -3.586683e+000 -1.290137e+001 129 102 73
3.079381e+000 -3.586683e+000 -1.290137e+001 129 102 73
4.046615e+000 -3.395644e+000 -1.280361e+001 220 156 60
-2.178343e-001 -3.207969e+000 -1.169391e+001 122 118 80
5.622533e-001 -3.238764e+000 -1.136093e+001 49 42 26
1.133396e+000 -3.512082e+000 -1.202007e+001 133 117 102
2.123133e+000 -3.805391e+000 -1.273022e+001 103 81 58
2.786870e+000 -3.603524e+000 -1.275665e+001 129 104 84
-6.174476e-001 -3.341814e+000 -1.217949e+001 210 191 161
-2.536125e-001 -3.380632e+000 -1.182743e+001 180 163 137
3.683804e+000 4.866630e+000 -1.489842e+001 223 126 92
3.683804e+000 4.866630e+000 -1.489842e+001 223 126 92
3.777223e+000 4.769979e+000 -1.495931e+001 231 194 121
4.131189e+000 3.695412e+000 -1.378030e+001 235 173 125
1.203332e+000 2.431573e+000 -1.040648e+001 132 129 98
4.454579e+000 2.993154e+000 -1.299746e+001 241 187 144
-3.750384e+000 2.400833e+000 -8.593330e+000 176 129 115
2.095687e+000 1.717383e+000 -9.443653e+000 124 113 93
-3.132697e+000 1.730469e+000 -8.225945e+000 116 87 55
1.051989e+000 1.840444e+000 -9.898111e+000 200 177 154
1.457539e+000 1.505651e+000 -9.987483e+000 137 97 72
1.709910e+000 1.417617e+000 -9.234856e+000 96 98 76
2.476549e+000 1.028119e+000 -9.065121e+000 92 76 60
5.306632e+000 1.577363e+000 -1.181282e+001 231 221 221
5.114146e+000 6.465521e-001 -1.062994e+001 137 104 73
-3.210303e+000 1.085570e+000 -8.687872e+000 133 111 93
1.315516e+000 6.443811e-001 -9.742153e+000 127 86 62
1.515710e+000 2.899359e-001 -9.162712e+000 148 139 108
2.079830e+000 7.207739e-002 -8.684346e+000 94 72 50
3.017470e+000 -4.352296e-003 -8.887395e+000 57 40 29
-3.270666e+000 9.618928e-001 -9.060540e+000 67 58 57
1.764996e+000 -9.989812e-003 -8.769250e+000 144 121 81
4.537289e+000 -1.916182e-001 -1.008163e+001 86 62 39
-1.577016e+000 2.691175e-001 -9.651627e+000 118 91 71
2.581838e-001 -1.716863e-001 -8.832159e+000 178 150 128
-2.050858e+000 3.437613e-001 -1.042314e+001 102 74 62
-1.479245e+000 1.094890e-001 -9.926421e+000 121 85 73
-1.078050e+000 6.424535e-002 -9.799363e+000 177 122 119
-6.798808e-001 -1.667269e-001 -1.009132e+001 136 92 83
1.215888e+000 -6.454516e-001 -9.272170e+000 207 191 166
2.672669e+000 -7.967473e-001 -9.749051e+000 141 129 113
3.221563e+000 -6.117453e-001 -9.772303e+000 86 64 44
1.279796e+000 -8.508625e-001 -9.291731e+000 216 202 178
1.929887e+000 -8.449134e-001 -9.364872e+000 98 88 64
6.733260e-001 -9.226013e-001 -9.750059e+000 114 83 69
3.858954e+000 -1.320085e+000 -1.070682e+001 120 96 72
2.943074e+000 -1.582865e+000 -1.075034e+001 82 61 42
3.506985e+000 -1.549280e+000 -1.092310e+001 112 92 68
1.653069e+000 -1.912831e+000 -1.007936e+001 85 75 65
-1.002951e+000 -1.759415e+000 -1.088698e+001 184 134 125
-6.330490e-001 -1.566651e+000 -1.062380e+001 138 97 76
-7.198733e-001 -2.190577e+000 -1.191827e+001 148 116 91
-4.037564e-001 -1.914631e+000 -1.075201e+001 114 93 74
5.133037e-002 -2.284496e+000 -1.038421e+001 170 139 93
-7.948763e-001 -2.351727e+000 -1.201656e+001 106 105 71
-4.764877e-001 -2.284457e+000 -1.067913e+001 197 174 129
2.623198e+000 -3.060238e+000 -1.212702e+001 117 96 75
5.135310e-001 -2.894480e+000 -1.090694e+001 67 47 31
2.354457e+000 -3.086286e+000 -1.206072e+001 112 95 72
2.941718e+000 -3.775530e+000 -1.293941e+001 128 101 72
5.474804e+000 3.553933e+000 -1.169293e+001 243 226 229
-2.829242e+000 2.265419e+000 -8.409961e+000 132 109 78
2.008932e+000 2.019862e+000 -9.819051e+000 128 115 97
6.934528e-001 1.870801e+000 -9.669380e+000 158 109 95
3.308705e-002 1.816300e+000 -1.015457e+001 222 172 167
1.498635e+000 1.688809e+000 -9.858486e+000 160 128 97
1.952636e+000 1.372202e+000 -9.149238e+000 196 178 154
2.097520e+000 1.378627e+000 -9.127094e+000 94 77 61
4.123677e+000 1.666869e+000 -1.112265e+001 149 124 100
5.977733e+000 1.259619e+000 -1.087143e+001 208 158 59
-2.065266e+000 1.655148e+000 -9.491265e+000 102 74 53
1.933945e+000 1.026514e+000 -8.962186e+000 149 126 102
1.897600e+000 8.871240e-001 -8.983565e+000 181 160 135
2.131507e+000 8.039187e-001 -8.631818e+000 160 140 116
2.469877e-002 7.365777e-001 -9.299892e+000 167 125 99
2.444182e+000 1.115295e-001 -8.732313e+000 70 59 42
-1.710897e+000 4.113220e-001 -9.517991e+000 109 90 74
-1.710897e+000 4.113220e-001 -9.517991e+000 109 90 74
-1.649371e+000 1.516300e-001 -1.003047e+001 85 63 49
-1.649371e+000 1.516300e-001 -1.003047e+001 85 63 49
-1.362393e+000 1.059711e-001 -9.851998e+000 167 123 115
-4.587119e-001 -2.803533e-001 -9.550846e+000 162 109 102
2.312042e+000 -8.991697e-001 -9.902678e+000 204 199 170
-1.546716e+000 -6.826563e-001 -1.040262e+001 189 145 134
5.219010e-001 -8.976615e-001 -9.449421e+000 102 55 45
1.785912e+000 -1.035521e+000 -9.716228e+000 66 56 47
3.606312e+000 -1.256288e+000 -1.068012e+001 82 60 43
-1.844563e+000 -7.604146e-001 -1.071036e+001 184 150 126
-8.894282e-001 -1.104668e+000 -9.350021e+000 213 183 173
-3.712005e-001 -1.668628e+000 -1.096393e+001 145 120 80
-5.092227e-001 -1.859842e+000 -1.126102e+001 169 141 100
1.058378e+000 -1.938224e+000 -9.987102e+000 64 48 32
9.924066e-001 -2.114418e+000 -1.021803e+001 74 59 40
1.471718e+000 -2.159913e+000 -1.022377e+001 157 150 129
1.228210e+000 -2.861342e+000 -1.149315e+001 162 154 133
1.444374e+000 -2.706550e+000 -1.112969e+001 69 55 40
1.344727e+000 -2.873839e+000 -1.135895e+001 65 53 39
1.948133e+000 -2.886052e+000 -1.171775e+001 80 61 41
-4.533654e-001 -2.779759e+000 -1.083874e+001 211 194 149
-4.199835e-001 -3.282480e+000 -1.182423e+001 170 161 132
8.690558e-001 -3.390288e+000 -1.173401e+001 183 175 147
2.124188e+000 -3.519594e+000 -1.243825e+001 90 66 46
1.736662e+000 -3.733196e+000 -1.234689e+001 117 97 73
-4.064090e-002 -3.737358e+000 -1.139155e+001 231 218 194
4.486830e+000 3.341249e+000 -1.350757e+001 242 193 152
3.882165e+000 2.682497e+000 -1.222450e+001 242 196 163
4.673920e+000 2.274860e+000 -1.212997e+001 193 164 135
-2.997943e+000 1.683799e+000 -8.294650e+000 106 75 47
-3.590767e+000 1.360589e+000 -8.042541e+000 161 130 99
-3.678457e+000 1.465673e+000 -8.333570e+000 161 130 99
-3.028850e+000 1.376196e+000 -8.184568e+000 102 72 44
-2.951732e+000 1.185202e+000 -8.706012e+000 137 117 102
2.747368e+000 -2.155060e-001 -9.274577e+000 107 95 71
2.832522e+000 -2.828257e-001 -9.182578e+000 82 60 44
2.832522e+000 -2.828257e-001 -9.182578e+000 82 60 44
4.267357e+000 -2.745182e-001 -9.801087e+000 120 102 78
4.243535e+000 -2.876154e-001 -9.759927e+000 120 102 78
2.631137e+000 -3.591908e-001 -9.372288e+000 149 135 108
2.700419e+000 -4.421129e-001 -9.285845e+000 75 56 41
2.622468e+000 -4.675453e-001 -9.023593e+000 75 56 41
2.501617e+000 -5.305373e-001 -9.525427e+000 95 86 60
2.066792e+000 -1.133410e+000 -1.006394e+001 37 31 24
2.274247e+000 -1.220584e+000 -9.944421e+000 66 48 34
2.281227e+000 -1.218154e+000 -9.986273e+000 66 48 34
-3.065592e-001 -1.224746e+000 -9.063248e+000 130 78 65
-1.455354e+000 -1.281984e+000 -1.032264e+001 226 196 178
-6.980830e-001 -1.467097e+000 -1.028001e+001 157 122 109
6.071271e-001 -1.721590e+000 -1.014438e+001 210 192 170
3.235386e+000 -1.888338e+000 -1.106196e+001 121 99 75
8.927602e-001 -3.054465e+000 -1.138769e+001 46 39 30
2.416814e+000 -3.259544e+000 -1.235809e+001 118 100 78
7.727683e-001 -3.891105e+000 -1.191218e+001 69 55 41
7.727683e-001 -3.891105e+000 -1.191218e+001 69 55 41
-2.789789e+000 2.508736e+000 -8.609296e+000 119 93 68
4.522024e+000 2.861307e+000 -1.269459e+001 226 148 129
1.850539e+000 1.951432e+000 -9.821298e+000 65 49 36
-2.150554e+000 1.719352e+000 -8.905336e+000 167 146 131
2.176487e+000 1.189315e+000 -8.908536e+000 79 60 46
3.985709e+000 1.401652e+000 -1.082946e+001 104 77 56
-2.443250e-001 1.083217e+000 -9.552698e+000 170 112 110
-3.682113e+000 1.205365e+000 -8.681629e+000 190 170 153
-3.689598e+000 1.211609e+000 -8.701695e+000 190 170 153
-3.842353e+000 1.126097e+000 -8.906423e+000 111 79 57
3.897465e+000 -2.847193e-001 -9.630616e+000 113 92 71
1.879274e+000 -4.022599e-001 -8.855417e+000 55 37 28
3.932037e+000 -4.505099e-001 -9.943303e+000 89 67 46
2.214335e+000 -1.065575e+000 -9.883906e+000 88 78 60
2.395124e+000 -1.007353e+000 -9.809248e+000 69 50 36
2.193727e+000 -1.439648e+000 -1.011381e+001 69 51 34
-8.926123e-001 -1.411402e+000 -9.888911e+000 185 151 138
4.650013e-001 -2.004642e+000 -1.028497e+001 204 183 158
1.263255e+000 -2.153827e+000 -1.001360e+001 54 44 32
1.850835e+000 -2.227084e+000 -1.047208e+001 62 48 37
-5.885523e-001 -2.132985e+000 -1.147921e+001 205 183 149
-9.256581e-001 -2.312206e+000 -1.265526e+001 210 191 159
-9.123282e-001 -2.302399e+000 -1.231940e+001 210 191 159
-2.300668e-001 -3.269957e+000 -1.182721e+001 128 127 87
2.981081e+000 -6.871964e-002 -8.903202e+000 67 49 35
2.464910e+000 -2.341112e-001 -9.038913e+000 43 34 27
2.272988e+000 -4.423620e-001 -8.933564e+000 86 82 73
4.854256e+000 -6.979586e-001 -1.046882e+001 105 77 55
8.681453e-001 -5.734352e-001 -9.665211e+000 105 69 49
-1.884782e+000 -2.569165e-001 -1.108125e+001 192 141 122
-2.614495e-001 -9.886577e-001 -9.377649e+000 132 81 63
1.971894e-001 -1.055035e+000 -9.646659e+000 118 60 55
3.055631e+000 -2.400770e+000 -1.162940e+001 84 64 40
5.060798e+000 3.311932e+000 -1.245533e+001 185 100 96
2.468005e+000 -8.916579e-002 -8.429265e+000 75 67 57
1.163413e-001 -6.976199e-001 -9.148090e+000 114 57 48
-1.887254e-001 -1.816777e+000 -1.054750e+001 73 51 29
1.054633e+000 2.352569e+000 -1.054891e+001 111 104 81
1.167205e+000 1.179711e+000 -9.723474e+000 122 81 61
-1.477591e+000 1.031219e+000 -9.220286e+000 214 196 172
-7.261727e-001 6.170335e-001 -9.262283e+000 197 173 149
1.093032e+000 8.801228e-001 -9.721307e+000 124 79 58
1.114816e+000 8.986146e-001 -9.799859e+000 124 79 58
1.775943e+000 -9.936831e-001 -9.132397e+000 67 58 43
1.759192e+000 6.507499e-001 -9.009524e+000 191 176 147
-1.260176e+000 4.782631e-002 -9.465600e+000 164 119 112
-5.419291e-001 -1.501809e+000 -1.004228e+001 150 104 93
-4.011928e+000 2.228977e+000 -8.953924e+000 170 122 109
1.747261e+000 1.359951e+000 -9.093805e+000 161 159 136
1.990656e+000 1.553522e+000 -9.452519e+000 151 131 108
2.371369e+000 1.590887e+000 -9.382247e+000 84 68 47
2.273030e+000 1.348367e+000 -9.145053e+000 117 104 85
6.747829e-001 1.593802e+000 -9.539885e+000 190 144 124
2.587683e+000 1.194476e+000 -8.970855e+000 117 105 88
2.909243e+000 1.305182e+000 -9.451312e+000 95 82 66
2.631262e+000 1.070261e+000 -8.857669e+000 78 65 43
2.850043e+000 9.472880e-001 -8.935269e+000 64 56 44
2.858083e+000 9.407563e-001 -9.021885e+000 84 75 67
-1.156394e-001 1.485425e+000 -1.036366e+001 190 134 134
1.312594e+000 1.063122e+000 -9.715698e+000 139 100 72
2.397044e+000 9.743906e-001 -9.200315e+000 68 52 39
2.591076e+000 5.192662e-001 -8.576763e+000 138 132 106
3.243421e+000 6.607639e-001 -9.076327e+000 82 61 41
2.423336e+000 4.510900e-001 -8.738380e+000 99 92 74
4.149852e+000 3.499202e-001 -9.601305e+000 114 89 67
-3.579521e+000 1.041830e+000 -9.460161e+000 224 219 215
2.397080e+000 3.369127e-001 -9.063560e+000 48 33 26
2.353037e+000 1.523268e-002 -8.614386e+000 124 112 94
2.880380e+000 5.630398e-003 -8.976430e+000 83 75 55
4.449314e+000 3.716834e-002 -9.922843e+000 110 85 63
2.219293e+000 -1.800832e-001 -8.801599e+000 206 199 169
2.746483e+000 -2.203019e-001 -9.079846e+000 206 201 172
5.525955e+000 -4.567504e-001 -1.029534e+001 224 132 52
2.247427e+000 -3.078372e-001 -8.873058e+000 81 69 51
2.627201e+000 -2.903392e-001 -9.262035e+000 146 135 114
2.589476e+000 -3.401437e-001 -9.321052e+000 219 213 183
2.551008e+000 -3.814399e-001 -9.326318e+000 215 210 181
2.681974e+000 -3.117044e-001 -9.252611e+000 212 207 184
2.745634e+000 -3.036997e-001 -9.199111e+000 234 228 207
-1.755048e+000 3.015323e-002 -1.076706e+001 168 126 104
-9.557220e-001 -2.476879e-001 -1.037745e+001 134 89 83
-1.701718e-001 -3.905481e-001 -8.898339e+000 224 191 172
1.229327e+000 -5.982717e-001 -9.169976e+000 203 186 158
1.560230e+000 -6.056115e-001 -9.046815e+000 241 228 210
1.960221e+000 -5.891328e-001 -9.220514e+000 227 218 194
1.741279e+000 -6.461291e-001 -9.180163e+000 50 36 20
1.914097e+000 -6.707976e-001 -9.290359e+000 211 204 185
1.914097e+000 -6.707976e-001 -9.290359e+000 211 204 185
1.942087e+000 -6.686115e-001 -9.275036e+000 63 55 36
2.365466e+000 -6.645668e-001 -9.554849e+000 199 194 166
-1.762280e+000 -3.177465e-001 -1.076232e+001 184 137 114
1.175436e+000 -8.140144e-001 -9.531979e+000 186 164 135
1.703164e+000 -9.452901e-001 -9.515294e+000 123 115 100
1.915579e+000 -9.081123e-001 -9.513401e+000 195 181 144
2.221340e+000 -1.019434e+000 -9.894103e+000 75 63 45
2.252874e+000 -1.024232e+000 -9.904099e+000 226 221 199
2.362948e+000 -1.005832e+000 -9.809678e+000 66 50 35
2.395073e+000 -8.571101e-001 -9.742223e+000 244 240 220
5.262716e+000 -1.273009e+000 -1.111139e+001 204 129 62
-7.663309e-001 -1.012892e+000 -9.231409e+000 227 190 182
-4.545655e-001 -9.498995e-001 -9.183253e+000 201 154 144
-8.765845e-002 -1.030840e+000 -9.486832e+000 160 112 105
-6.537734e-002 -1.093025e+000 -9.511073e+000 197 155 149
2.086256e+000 -1.248527e+000 -1.009520e+001 201 196 174
2.252494e+000 -1.074613e+000 -1.004281e+001 191 184 166
2.112813e+000 -1.149660e+000 -9.941703e+000 110 102 91
2.104276e+000 -1.265340e+000 -1.006636e+001 77 72 43
2.146241e+000 -1.270811e+000 -1.001711e+001 88 81 60
3.360897e+000 -1.388547e+000 -1.063586e+001 78 60 36
3.658860e+000 -1.433381e+000 -1.070462e+001 107 86 60
4.184049e+000 -1.517442e+000 -1.114211e+001 95 69 42
5.160847e+000 -1.559970e+000 -1.119863e+001 232 199 102
-1.259054e+000 -1.061359e+000 -9.849640e+000 210 159 146
-1.129536e+000 -1.131141e+000 -9.850440e+000 160 99 85
-8.915396e-001 -1.047432e+000 -9.373334e+000 179 140 131
1.657713e+000 -1.489946e+000 -9.917013e+000 45 35 25
2.874484e+000 -1.453302e+000 -1.052319e+001 81 63 43
3.705499e+000 -1.833402e+000 -1.119396e+001 88 64 40
5.143939e+000 -1.816019e+000 -1.118154e+001 218 187 132
-1.044464e+000 -1.389915e+000 -1.013396e+001 175 131 118
9.687893e-001 -1.757834e+000 -9.900251e+000 251 249 235
1.409778e+000 -1.764212e+000 -9.909464e+000 116 108 87
4.864247e+000 -2.173986e+000 -1.137148e+001 205 117 77
4.897654e+000 -2.312541e+000 -1.148719e+001 109 89 80
4.978709e+000 -2.028750e+000 -1.114050e+001 225 195 134
4.991335e+000 -2.203054e+000 -1.112519e+001 217 166 93
5.383919e+000 -2.222441e+000 -1.034716e+001 255 227 192
5.383919e+000 -2.222441e+000 -1.034716e+001 255 227 192
-2.627040e-001 -1.905900e+000 -1.066794e+001 128 96 70
-1.860683e-001 -1.846996e+000 -1.069032e+001 104 78 56
2.373510e-002 -2.023178e+000 -1.010683e+001 205 182 150
8.276606e-001 -2.113449e+000 -1.013749e+001 189 171 143
1.034175e+000 -1.883427e+000 -9.893135e+000 155 134 107
1.349709e+000 -1.969607e+000 -9.987491e+000 149 141 119
1.498180e+000 -2.218110e+000 -1.013597e+001 74 65 48
3.270310e+000 -2.322369e+000 -1.134936e+001 102 82 57
3.897321e+000 -2.317290e+000 -1.161507e+001 104 76 47
3.959623e+000 -2.340821e+000 -1.171299e+001 123 92 64
4.755125e+000 -2.595636e+000 -1.158851e+001 132 111 98
4.755125e+000 -2.595636e+000 -1.158851e+001 132 111 98
-4.289731e-001 -2.040712e+000 -1.106385e+001 110 89 66
-1.346282e-001 -2.292177e+000 -1.046039e+001 167 129 73
-3.443690e-003 -2.236572e+000 -1.014757e+001 200 173 142
-2.222456e-002 -2.267081e+000 -1.014977e+001 181 161 122
1.163858e+000 -2.355768e+000 -1.028869e+001 119 112 95
4.521562e+000 -2.676213e+000 -1.209926e+001 229 155 68
4.753842e+000 -2.815837e+000 -1.157890e+001 213 183 175
4.673670e+000 -2.894145e+000 -1.161687e+001 154 137 124
5.096937e+000 -2.802571e+000 -1.047437e+001 216 169 117
-3.536733e-001 -2.470409e+000 -1.077739e+001 185 163 119
-2.768818e-001 -2.487410e+000 -1.044103e+001 178 154 113
-2.179183e-001 -2.575225e+000 -1.060226e+001 195 171 123
2.116636e-002 -2.610202e+000 -1.055628e+001 209 188 139
-7.481565e-002 -2.674470e+000 -1.069943e+001 197 164 105
1.332276e+000 -2.737950e+000 -1.126407e+001 118 111 85
1.222524e+000 -2.803253e+000 -1.129620e+001 100 91 73
2.676376e+000 -2.964016e+000 -1.199645e+001 91 69 45
4.400335e+000 -3.313454e+000 -1.216231e+001 138 123 114
4.400335e+000 -3.313454e+000 -1.216231e+001 138 123 114
4.834610e+000 -3.291465e+000 -1.086616e+001 231 200 148
4.834610e+000 -3.291465e+000 -1.086616e+001 231 200 148
4.993752e+000 -3.056015e+000 -1.077715e+001 253 226 184
1.551816e-001 -3.059069e+000 -1.127570e+001 178 157 135
6.349528e-001 -3.090103e+000 -1.139718e+001 76 67 51
9.357773e-001 -3.232984e+000 -1.158585e+001 134 125 95
4.347705e+000 -3.401600e+000 -1.203033e+001 211 195 190
4.308480e+000 -3.497582e+000 -1.229186e+001 213 186 183
4.390934e+000 -3.472209e+000 -1.213823e+001 149 134 120
4.148913e+000 -3.645298e+000 -1.249568e+001 233 198 94
4.436750e+000 -3.647134e+000 -1.206683e+001 204 125 37
-1.220428e-001 -3.217759e+000 -1.170732e+001 195 179 154
-1.312512e-001 -3.289821e+000 -1.176808e+001 189 173 148
4.462076e-001 -3.252793e+000 -1.135776e+001 102 91 68
8.678072e-001 -3.414783e+000 -1.181961e+001 138 126 102
9.700812e-001 -3.261972e+000 -1.167242e+001 222 213 184
8.546695e-001 -3.471883e+000 -1.180409e+001 225 213 191
8.546695e-001 -3.471883e+000 -1.180409e+001 225 213 191
7.775264e-001 -3.604691e+000 -1.193873e+001 126 119 93
1.111619e+000 -3.348297e+000 -1.172154e+001 87 74 57
3.893397e+000 -4.124138e+000 -1.288452e+001 194 184 176
4.025057e+000 -3.969797e+000 -1.267858e+001 108 97 92
4.206579e+000 -3.779327e+000 -1.238481e+001 144 131 122
6.940472e-001 -3.725520e+000 -1.186909e+001 86 79 60
7.949599e-001 -3.717069e+000 -1.178015e+001 64 55 38
-3.570916e+000 2.213439e+000 -8.502605e+000 148 115 85
1.653463e+000 1.383401e+000 -9.240419e+000 130 132 103
2.564376e+000 9.035299e-001 -8.628395e+000 124 113 85
2.898892e+000 1.220513e+000 -9.173223e+000 125 107 85
2.997742e+000 1.161966e+000 -9.236406e+000 68 52 31
3.074293e+000 8.547431e-001 -8.997824e+000 97 80 60
1.914782e-001 1.132526e+000 -9.088519e+000 190 152 139
1.914782e-001 1.132526e+000 -9.088519e+000 190 152 139
1.651291e+000 8.721903e-001 -8.752927e+000 170 154 119
2.599558e+000 6.467314e-001 -8.560759e+000 100 91 75
-2.943141e+000 1.074152e+000 -8.853531e+000 71 58 57
1.394120e+000 6.040131e-001 -9.388423e+000 172 146 123
3.014906e+000 2.721165e-001 -8.802319e+000 63 52 34
4.491832e+000 2.878943e-001 -9.864328e+000 96 70 47
1.430713e+000 3.565256e-001 -9.683012e+000 177 152 130
1.430713e+000 3.565256e-001 -9.683012e+000 177 152 130
2.526706e+000 8.926711e-002 -8.626922e+000 53 44 29
2.745290e+000 3.201661e-002 -9.092960e+000 40 33 22
2.915934e+000 6.299772e-002 -8.901640e+000 104 95 78
2.176771e+000 -1.088145e-001 -8.820609e+000 90 83 62
2.220336e+000 -2.421832e-001 -8.883667e+000 69 62 43
2.860382e+000 -1.310351e-001 -9.210954e+000 190 179 159
2.675016e+000 -2.091311e-001 -9.084787e+000 220 213 187
2.675016e+000 -2.091311e-001 -9.084787e+000 220 213 187
2.682872e+000 -2.593534e-001 -9.181109e+000 72 60 38
2.682872e+000 -2.593534e-001 -9.181109e+000 72 60 38
-1.587909e+000 1.484414e-001 -9.868128e+000 97 70 55
5.421656e-001 -2.433311e-001 -9.125638e+000 137 89 75
1.667960e+000 -3.451188e-001 -8.926890e+000 236 230 209
2.142096e+000 -2.825188e-001 -9.051315e+000 67 56 37
2.046361e+000 -4.657378e-001 -8.994270e+000 62 48 35
2.605326e+000 -4.029782e-001 -9.296884e+000 240 236 203
2.605326e+000 -4.029782e-001 -9.296884e+000 240 236 203
2.513065e+000 -4.412664e-001 -9.390529e+000 228 222 200
2.597851e+000 -3.902032e-001 -9.387946e+000 60 45 19
2.590061e+000 -4.306415e-001 -9.346435e+000 237 229 190
4.434683e+000 -4.448222e-001 -1.016538e+001 76 52 28
-1.018933e+000 -2.199057e-001 -1.056417e+001 133 87 82
1.561580e+000 -4.685179e-001 -9.102038e+000 181 164 138
1.629669e+000 -5.628534e-001 -9.038420e+000 150 129 100
2.048649e+000 -6.278608e-001 -9.209665e+000 80 66 52
2.087039e+000 -6.560371e-001 -9.325655e+000 109 97 82
2.352364e+000 -6.943160e-001 -9.625319e+000 203 198 170
2.406116e+000 -7.151031e-001 -9.749454e+000 71 59 38
2.406116e+000 -7.151031e-001 -9.749454e+000 71 59 38
2.472730e+000 -5.497160e-001 -9.457152e+000 92 78 56
2.472730e+000 -5.497160e-001 -9.457152e+000 92 78 56
2.520993e+000 -5.747263e-001 -9.586560e+000 238 232 211
2.423765e+000 -6.782491e-001 -9.545233e+000 237 234 207
4.479839e+000 -9.086163e-001 -1.053474e+001 120 91 61
2.039294e+000 -7.824322e-001 -9.525116e+000 50 37 21
2.381312e+000 -8.042214e-001 -9.759659e+000 244 240 211
2.349049e+000 -8.595680e-001 -9.712579e+000 73 63 40
2.256755e+000 -9.555716e-001 -9.848252e+000 80 74 51
2.250154e+000 -1.064614e+000 -9.904535e+000 79 71 51
4.213929e+000 -1.170348e+000 -1.081668e+001 86 60 37
5.209421e+000 -1.194804e+000 -1.135505e+001 153 73 53
-3.946899e-001 -1.067984e+000 -9.208366e+000 169 125 116
1.047311e+000 -9.823760e-001 -9.544261e+000 154 148 119
1.741641e+000 -1.321098e+000 -9.634712e+000 69 52 36
2.084088e+000 -1.326914e+000 -1.012703e+001 95 88 60
2.084088e+000 -1.326914e+000 -1.012703e+001 95 88 60
3.599885e+000 -1.252866e+000 -1.056871e+001 85 63 42
3.632728e+000 -1.456374e+000 -1.071188e+001 105 83 58
5.094799e+000 -1.382382e+000 -1.117822e+001 181 98 52
5.193627e+000 -1.586147e+000 -1.113565e+001 90 74 50
-9.044568e-001 -1.076162e+000 -9.351373e+000 224 187 183
1.901620e-001 -1.254533e+000 -9.709380e+000 169 125 115
6.241655e-001 -1.289761e+000 -9.901421e+000 183 164 137
9.023568e-001 -1.310871e+000 -9.765387e+000 132 115 84
1.635231e+000 -1.409798e+000 -9.956137e+000 83 74 56
2.961334e+000 -1.603004e+000 -1.078178e+001 79 58 37
4.102913e+000 -1.679432e+000 -1.131179e+001 121 95 68
5.139524e+000 -1.905404e+000 -1.117760e+001 237 223 216
-1.414465e+000 -1.339321e+000 -1.046860e+001 217 180 167
-1.377988e-001 -1.441694e+000 -1.019774e+001 147 107 85
-8.989224e-002 -1.437586e+000 -1.014649e+001 155 116 97
1.000771e+000 -1.605313e+000 -9.860278e+000 137 111 76
1.992576e+000 -1.729254e+000 -1.025934e+001 50 36 24
2.828803e+000 -1.863837e+000 -1.092465e+001 71 53 33
3.154014e+000 -1.979756e+000 -1.105313e+001 91 69 46
3.872268e+000 -1.866878e+000 -1.127971e+001 111 85 60
3.992514e+000 -1.921599e+000 -1.145188e+001 87 61 36
3.874370e+000 -1.971442e+000 -1.141351e+001 81 57 32
5.097019e+000 -2.060070e+000 -1.111343e+001 190 85 62
-9.031101e-001 -1.957621e+000 -1.169473e+001 165 113 100
8.833017e-001 -1.937640e+000 -1.002136e+001 241 229 207
8.833017e-001 -1.937640e+000 -1.002136e+001 241 229 207
1.046325e+000 -1.969956e+000 -9.932864e+000 73 58 38
1.627126e+000 -1.964014e+000 -1.009929e+001 82 70 58
1.611708e+000 -2.108645e+000 -1.017282e+001 46 36 26
1.737595e+000 -2.163012e+000 -1.033222e+001 54 41 30
4.548138e+000 -2.491893e+000 -1.198139e+001 215 137 52
5.275266e+000 -2.439066e+000 -1.043103e+001 218 131 42
-7.408142e-001 -2.333153e+000 -1.199772e+001 101 95 70
5.646840e-001 -2.297304e+000 -1.051542e+001 155 120 91
6.029159e-001 -2.299097e+000 -1.044232e+001 140 108 84
2.394716e+000 -2.376900e+000 -1.106454e+001 96 75 54
2.913900e+000 -2.496484e+000 -1.155439e+001 79 59 36
3.410667e+000 -2.661653e+000 -1.182739e+001 107 82 52
3.703390e+000 -2.910416e+000 -1.229422e+001 122 93 64
4.703663e+000 -2.771926e+000 -1.179727e+001 125 106 89
4.578031e+000 -3.001981e+000 -1.194348e+001 128 109 96
4.634765e+000 -2.941730e+000 -1.163317e+001 103 83 66
4.726485e+000 -2.674228e+000 -1.158016e+001 84 69 59
4.746937e+000 -2.809437e+000 -1.170692e+001 216 201 198
5.473633e-001 -2.644797e+000 -1.049424e+001 129 111 90
1.186319e+000 -2.832160e+000 -1.125588e+001 95 89 70
1.251580e+000 -2.843773e+000 -1.121356e+001 65 57 38
2.499819e+000 -2.885244e+000 -1.179663e+001 89 67 43
4.492689e+000 -3.105277e+000 -1.245996e+001 238 202 83
-2.583035e-001 -3.095746e+000 -1.172503e+001 144 138 106
4.275534e+000 -3.448602e+000 -1.239740e+001 197 118 58
4.197164e+000 -3.600718e+000 -1.230198e+001 215 205 196
4.777719e+000 -3.493017e+000 -1.106100e+001 246 175 103
9.190757e-001 -3.359371e+000 -1.171777e+001 221 214 186
3.751936e+000 -3.863187e+000 -1.315245e+001 195 117 42
3.968848e+000 -4.023035e+000 -1.277417e+001 207 193 185
3.992907e+000 -3.943176e+000 -1.275010e+001 210 195 176
4.013470e+000 -4.007162e+000 -1.268957e+001 211 201 189
4.020303e+000 -4.012097e+000 -1.270424e+001 211 201 189
3.999509e+000 -3.961054e+000 -1.247147e+001 213 198 193
3.940316e+000 -4.046161e+000 -1.250150e+001 101 93 82
4.187158e+000 -3.808532e+000 -1.242411e+001 226 214 205
3.269778e-001 -3.532609e+000 -1.150708e+001 214 209 184
7.658253e-001 -3.671770e+000 -1.191192e+001 199 191 170
3.814086e+000 -4.142541e+000 -1.268348e+001 171 109 61
3.814086e+000 -4.142541e+000 -1.268348e+001 171 109 61
-3.280576e+000 2.982278e+000 -9.035095e+000 179 140 141
-2.290508e+000 2.220812e+000 -8.821159e+000 109 86 70
2.046591e+000 9.813752e-001 -9.003332e+000 184 169 144
3.767257e+000 9.768678e-001 -1.001542e+001 108 82 57
4.351669e+000 6.642437e-001 -9.975576e+000 118 91 64
-3.682093e+000 1.241541e+000 -8.456453e+000 138 112 85
4.253059e-001 7.238078e-001 -9.121524e+000 164 126 105
1.395742e+000 7.846872e-001 -9.752239e+000 167 139 117
1.993817e+000 1.227993e-001 -8.594507e+000 152 131 100
3.693457e+000 1.545532e-001 -9.416360e+000 76 55 34
1.268402e+000 -1.830535e-002 -9.117622e+000 196 175 149
2.729035e+000 -2.070341e-001 -9.129142e+000 70 61 40
2.050362e+000 -3.980320e-001 -9.078484e+000 58 38 29
2.627153e+000 -4.389424e-001 -9.335457e+000 69 56 45
-2.674180e-001 -4.056243e-001 -8.990115e+000 197 161 145
1.104354e+000 -6.207126e-001 -9.436452e+000 192 166 135
2.469494e+000 -5.766626e-001 -9.536486e+000 70 54 32
4.242750e+000 -8.953845e-001 -1.049045e+001 95 69 44
4.242750e+000 -8.953845e-001 -1.049045e+001 95 69 44
2.225443e+000 -9.880245e-001 -9.810992e+000 70 65 39
3.206564e+000 -1.145568e+000 -1.030070e+001 97 75 58
-1.543947e+000 -5.672846e-001 -1.077013e+001 173 130 114
-9.856083e-001 -9.337054e-001 -9.842465e+000 166 112 100
-9.892379e-001 -9.318952e-001 -9.897351e+000 166 112 100
1.749603e+000 -1.220107e+000 -9.715553e+000 103 89 70
1.749603e+000 -1.220107e+000 -9.715553e+000 103 89 70
2.129353e+000 -1.343771e+000 -1.019709e+001 222 216 184
1.314106e+000 -1.365032e+000 -9.690284e+000 111 82 52
3.694264e+000 -1.697699e+000 -1.113706e+001 122 98 74
4.028798e+000 -1.776342e+000 -1.131613e+001 98 69 43
-1.299184e+000 -1.242850e+000 -9.955605e+000 173 118 118
4.149408e+000 -1.978626e+000 -1.147756e+001 125 97 68
4.811341e+000 -2.149973e+000 -1.151494e+001 187 74 53
5.380327e+000 -2.182099e+000 -1.031453e+001 224 145 61
-6.309416e-001 -1.992022e+000 -1.182175e+001 192 167 140
-1.391054e-001 -1.994458e+000 -1.051090e+001 180 144 99
3.180228e+000 -2.349435e+000 -1.143190e+001 95 73 49
-7.499272e-001 -2.115928e+000 -1.187922e+001 178 138 122
-8.159057e-001 -2.112851e+000 -1.182222e+001 181 139 124
8.408284e-001 -2.271408e+000 -1.027207e+001 126 101 74
2.121623e+000 -2.536540e+000 -1.124156e+001 92 71 52
3.726485e+000 -2.690709e+000 -1.204142e+001 130 102 72
8.903520e-001 -2.684296e+000 -1.098337e+001 59 52 41
2.431313e+000 -2.873823e+000 -1.177689e+001 98 76 55
2.431313e+000 -2.873823e+000 -1.177689e+001 98 76 55
2.256452e+000 -3.021751e+000 -1.188257e+001 91 73 51
2.758025e+000 -2.996023e+000 -1.204949e+001 87 67 42
3.281682e+000 -3.024779e+000 -1.230208e+001 119 93 66
2.822519e+000 -3.414308e+000 -1.269484e+001 110 86 60
-7.641999e-001 -3.197212e+000 -1.238581e+001 222 208 181
3.958436e-001 -3.175590e+000 -1.110775e+001 129 104 80
1.919773e+000 -3.797752e+000 -1.251469e+001 123 103 79
4.087987e+000 -3.819980e+000 -1.260154e+001 115 97 82
-5.572446e-001 -3.481618e+000 -1.208523e+001 164 157 131
-1.128451e-002 -3.544120e+000 -1.144657e+001 196 179 153
-3.378652e+000 2.110801e+000 -8.265768e+000 153 123 87
4.328401e-001 1.513053e+000 -9.367119e+000 175 122 112
2.012817e+000 1.112236e+000 -8.929796e+000 235 226 209
5.883962e-001 8.689530e-001 -9.154438e+000 157 112 93
4.378856e+000 5.494999e-001 -9.864142e+000 119 93 70
4.840069e+000 5.137868e-001 -1.017196e+001 126 93 65
-1.571946e+000 1.863111e-001 -9.831401e+000 167 134 124
-1.578691e+000 -4.195898e-001 -1.076775e+001 172 131 113
-2.813436e-001 -6.520424e-001 -9.667177e+000 150 95 81
1.418558e+000 -1.444864e+000 -9.914659e+000 57 42 34
3.475373e+000 -1.484226e+000 -1.089980e+001 112 92 68
-9.949867e-001 -1.440220e+000 -1.018967e+001 188 152 138
-9.534577e-001 -1.840024e+000 -1.149622e+001 166 110 97
-7.971122e-001 -1.782573e+000 -1.128151e+001 166 118 98
-4.211096e-001 -1.933469e+000 -1.100948e+001 108 87 68
-1.379954e-001 -1.998948e+000 -1.053714e+001 181 145 96
3.722959e+000 -2.415495e+000 -1.179788e+001 113 90 63
4.028672e+000 -2.326375e+000 -1.176370e+001 111 82 52
2.821101e-001 -2.312694e+000 -1.038746e+001 156 122 75
1.396124e+000 -2.504868e+000 -1.052753e+001 66 54 42
3.514902e+000 -2.523816e+000 -1.159519e+001 130 103 76
3.647278e+000 -2.568721e+000 -1.172351e+001 136 110 82
2.239426e+000 -3.162613e+000 -1.197580e+001 93 72 51
2.608295e+000 -3.302115e+000 -1.237077e+001 91 69 46
4.473262e+000 -3.466947e+000 -1.191687e+001 234 181 82
9.169993e-001 -3.473534e+000 -1.177172e+001 63 51 35
2.836570e+000 -3.662523e+000 -1.273122e+001 99 73 46
1.483645e+000 -3.890726e+000 -1.253239e+001 85 65 42
-3.763420e+000 1.112657e+000 -9.573386e+000 221 222 217
-1.447125e+000 6.248286e-001 -9.176250e+000 87 67 46
3.641148e+000 1.688314e-001 -9.446602e+000 98 77 58
-1.999068e-001 -6.129698e-001 -9.396467e+000 146 106 98
2.066626e+000 -9.269366e-001 -9.942865e+000 52 36 28
-6.626897e-001 -1.072275e+000 -9.185220e+000 155 98 89
4.902389e+000 -1.799225e+000 -1.163901e+001 195 82 52
4.902389e+000 -1.799225e+000 -1.163901e+001 195 82 52
1.657452e+000 -1.912093e+000 -1.010580e+001 87 78 64
4.583968e-002 -1.957826e+000 -1.009538e+001 203 178 147
3.603571e+000 -2.241996e+000 -1.161081e+001 125 104 80
1.870017e+000 -2.394886e+000 -1.069245e+001 113 96 80
2.937312e-001 -2.952160e+000 -1.090960e+001 191 175 152
5.555442e-002 -3.216215e+000 -1.139296e+001 208 190 164
5.704881e-002 -3.218905e+000 -1.141377e+001 208 190 164
1.869725e+000 -3.560974e+000 -1.241920e+001 87 66 46
-3.340619e+000 2.627036e+000 -8.720496e+000 98 60 44
1.004082e+000 1.095926e+000 -9.549524e+000 135 93 71
1.917125e+000 5.646489e-001 -8.618435e+000 84 88 57
1.441878e+000 2.230081e-001 -9.400878e+000 171 141 120
2.461023e+000 -4.332296e-001 -9.476003e+000 50 44 37
2.732757e+000 -6.743474e-001 -9.593965e+000 171 159 143
2.023407e+000 -1.220198e+000 -1.008981e+001 34 31 24
5.102205e+000 -1.358072e+000 -1.150182e+001 116 55 37
3.328784e+000 -2.403568e+000 -1.158083e+001 125 105 80
-8.767707e-001 -2.454560e+000 -1.239599e+001 205 192 161
2.037701e+000 -2.885383e+000 -1.159141e+001 105 87 65
1.353020e-001 -3.217842e+000 -1.127531e+001 184 164 137
2.322778e-001 1.041000e+000 -9.016122e+000 211 180 163
3.427153e+000 -2.400935e-001 -9.472048e+000 87 70 48
4.335951e+000 -9.369008e-001 -1.051248e+001 127 100 72
-1.801063e-001 -2.034314e+000 -1.048619e+001 185 156 89
9.612371e-001 -3.187266e+000 -1.149641e+001 194 182 155
1.819767e+000 1.270240e+000 -9.173265e+000 114 115 83
2.528261e+000 8.736082e-001 -9.269435e+000 68 52 42
4.241262e+000 -3.271881e-001 -9.799866e+000 120 99 80
4.268179e+000 -3.216432e-001 -9.862793e+000 120 99 80
-1.201641e-001 -8.496744e-001 -9.575037e+000 220 187 168
-1.201641e-001 -8.496744e-001 -9.575037e+000 220 187 168
1.307165e+000 -2.137215e+000 -1.011272e+001 63 51 39
9.860089e-001 -3.467242e+000 -1.179044e+001 66 54 42
1.247572e+000 3.213448e-001 -8.872232e+000 188 161 139
2.229803e+000 -1.967934e-001 -8.976423e+000 235 232 207
2.229803e+000 -1.967934e-001 -8.976423e+000 235 232 207
-2.264500e+000 1.548984e+000 -8.487254e+000 112 85 68
2.124902e+000 -6.253875e-001 -9.032861e+000 37 28 21
-6.406752e-001 -8.710510e-001 -8.027572e+000 209 171 154
-2.972828e+000 2.050968e+000 -9.699571e+000 111 87 61
2.520189e+000 -2.073151e+000 -1.207763e+001 108 91 73
-4.007853e+000 2.293427e+000 -8.820202e+000 196 144 136
-4.009663e+000 1.591943e+000 -8.939583e+000 158 128 105
-2.086372e+000 1.488980e+000 -9.044125e+000 115 86 70
-1.741274e+000 1.295305e+000 -9.210773e+000 118 99 77
-1.741274e+000 1.295305e+000 -9.210773e+000 118 99 77
1.943281e-001 1.038612e+000 -9.025364e+000 213 178 166
-1.446716e-001 7.968785e-001 -9.157372e+000 160 122 101
2.598977e-001 7.916653e-001 -9.232509e+000 190 151 130
3.809087e-001 7.505604e-001 -9.092209e+000 197 162 142
5.707633e-001 8.064013e-001 -9.098646e+000 163 120 101
1.418758e+000 9.737744e-001 -8.919048e+000 217 203 167
1.577310e+000 7.449845e-001 -8.873408e+000 185 161 99
-3.245092e+000 6.273830e-001 -9.175600e+000 224 221 220
-1.070409e+000 4.821103e-001 -9.327325e+000 141 96 85
-9.972275e-001 4.901935e-001 -9.282722e+000 157 105 92
1.607674e+000 6.825986e-001 -8.774004e+000 184 161 120
2.584689e+000 3.936071e-001 -8.440642e+000 51 41 28
1.325800e+000 1.396060e-001 -9.275496e+000 188 162 139
1.553719e+000 2.593733e-001 -8.952069e+000 101 108 75
2.566545e+000 3.035554e-001 -8.448564e+000 52 43 26
2.517575e+000 1.531113e-001 -8.576080e+000 129 120 103
-4.155714e-001 1.518710e-002 -9.506962e+000 218 171 161
2.419462e+000 -2.883199e-002 -8.744818e+000 56 44 30
2.036628e+000 -3.984071e-001 -9.191080e+000 144 130 88
2.257051e+000 -3.004750e-001 -8.870283e+000 79 74 54
1.231897e+000 -5.960784e-001 -9.193436e+000 204 184 156
1.369704e+000 -6.614081e-001 -9.325383e+000 173 134 99
1.920815e+000 -6.835828e-001 -9.371432e+000 196 192 172
1.920815e+000 -6.835828e-001 -9.371432e+000 196 192 172
1.943923e+000 -6.355854e-001 -9.313404e+000 218 210 190
1.943923e+000 -6.355854e-001 -9.313404e+000 218 210 190
1.979352e+000 -5.399693e-001 -9.156444e+000 200 191 174
-5.050982e-001 -1.116541e+000 -9.606224e+000 163 110 108
-4.558704e-001 -1.139771e+000 -9.553876e+000 165 113 110
-2.136857e-001 -1.116358e+000 -9.650778e+000 142 96 79
4.568466e-001 -1.448998e+000 -1.026280e+001 154 128 105
1.995480e+000 -1.366892e+000 -9.985052e+000 206 201 170
-2.019406e+000 1.905123e+000 -8.732003e+000 100 76 63
2.423506e+000 9.600668e-001 -8.505122e+000 100 86 69
1.574473e+000 7.082901e-001 -8.982156e+000 204 170 96
2.457461e+000 5.990889e-001 -8.567451e+000 137 133 109
2.511358e+000 5.044021e-001 -8.456542e+000 100 93 71
-1.384025e+000 1.273766e-001 -9.812498e+000 169 129 121
2.049235e+000 2.440515e-003 -8.700557e+000 132 109 77
2.221440e+000 4.201027e-002 -8.638899e+000 104 97 79
2.248940e+000 -1.338094e-001 -8.869269e+000 57 50 33
2.338784e+000 -4.505064e-002 -8.886426e+000 60 45 26
2.338784e+000 -4.505064e-002 -8.886426e+000 60 45 26
7.830904e-001 -3.873328e-001 -9.645882e+000 103 64 48
7.830904e-001 -3.873328e-001 -9.645882e+000 103 64 48
1.786289e+000 -9.122276e-001 -9.458085e+000 80 69 57
1.897029e+000 -9.668174e-001 -9.574713e+000 58 47 32
-4.947135e-001 -1.157144e+000 -9.657081e+000 138 77 75
1.456520e+000 -1.102427e+000 -9.530408e+000 80 64 48
-2.029363e-001 -1.517110e+000 -1.039601e+001 170 139 110
-2.190677e-001 -1.976255e+000 -1.043638e+001 133 104 62
-5.292137e-001 -2.274054e+000 -1.076990e+001 179 162 121
-4.562807e-001 -2.534206e+000 -1.078263e+001 184 161 119
1.121582e+000 -2.374977e+000 -1.023497e+001 152 143 126
-3.158382e+000 2.724420e+000 -8.677453e+000 138 91 83
-3.666059e+000 2.288544e+000 -8.565635e+000 92 56 37
-4.087917e+000 1.339374e+000 -8.969260e+000 216 214 206
1.813764e+000 7.673931e-001 -8.607205e+000 167 154 124
2.440729e+000 8.456773e-001 -8.440694e+000 74 65 48
4.587814e-001 6.909514e-001 -9.192147e+000 180 145 125
-4.598255e-001 1.649505e-001 -9.731446e+000 151 104 94
2.351070e+000 1.527251e-001 -8.591363e+000 151 144 125
-4.581155e-001 -7.650980e-001 -9.411346e+000 203 144 138
5.867405e-001 -1.264133e+000 -1.004792e+001 134 108 79
1.356184e+000 -1.284317e+000 -9.613574e+000 85 66 48
1.670941e+000 -1.424384e+000 -9.781903e+000 44 37 22
-2.919960e-001 -2.102505e+000 -1.040603e+001 202 179 124
1.684584e+000 -2.065664e+000 -1.015766e+001 48 37 28
1.031834e+000 -2.386873e+000 -1.049392e+001 64 54 42
1.559476e+000 -2.480561e+000 -1.039393e+001 126 112 99
-3.286353e+000 2.726991e+000 -8.640451e+000 143 95 88
3.488049e+000 4.377649e+000 -1.524054e+001 206 133 113
-3.970510e+000 1.556172e+000 -8.961363e+000 164 133 102
2.057662e+000 6.512652e-001 -8.431327e+000 125 89 62
-4.927013e-001 -2.461677e-001 -9.804519e+000 167 112 106
2.282449e+000 -2.020615e-001 -8.896909e+000 42 34 21
-5.619672e-001 -8.063192e-001 -9.394275e+000 171 104 103
1.267344e+000 -8.509086e-001 -9.164222e+000 221 207 180
6.415508e-001 -2.366589e+000 -1.041443e+001 184 163 140
-4.360959e-001 9.758282e-001 -9.253262e+000 173 141 121
1.928696e+000 5.620012e-001 -8.658921e+000 81 88 58
1.928696e+000 5.620012e-001 -8.658921e+000 81 88 58
2.479383e+000 5.454879e-001 -8.471147e+000 59 46 38
2.686938e+000 6.084867e-001 -8.656321e+000 47 36 27
-6.860070e-001 -3.348491e-001 -9.901595e+000 197 144 138
6.807112e-001 -2.667985e-001 -9.375123e+000 112 68 50
2.176916e+000 -3.776724e-001 -9.122273e+000 52 42 32
6.906601e-001 -9.127192e-001 -9.835176e+000 117 86 71
8.416617e-001 -2.261166e+000 -1.021426e+001 126 103 72
2.282949e-001 -2.850644e+000 -1.055017e+001 170 152 127
-3.477948e+000 2.763165e+000 -8.641118e+000 193 145 134
-3.346018e+000 2.705915e+000 -8.647018e+000 173 123 116
3.432299e+000 4.199968e+000 -1.519219e+001 191 101 88
-3.880552e+000 1.299312e+000 -8.815048e+000 153 127 98
2.852491e-001 -1.340530e+000 -1.010916e+001 135 95 70
3.924802e-001 -1.386862e+000 -1.012362e+001 165 141 115
-3.876847e+000 1.131631e+000 -9.009745e+000 105 78 57
-3.139255e+000 6.656278e-001 -9.027101e+000 197 180 160
-7.526099e+000 -6.549888e+000 -4.349964e+001 127 80 63
-8.000337e+000 -7.950815e+000 -4.463582e+001 216 165 124
1.876219e+000 -3.953790e-001 -8.856055e+000 56 41 31
-8.510645e+000 -6.006233e+000 -4.319280e+001 228 189 144
2.932757e-002 7.308836e-001 -9.276598e+000 171 128 105
-1.295941e+001 -3.130776e+000 -5.348370e+001 231 173 167
-3.080828e-001 -5.218807e-001 -9.259948e+000 159 98 85
-1.008713e+001 -5.726780e+000 -4.502974e+001 232 231 224
3.512480e+000 4.182179e+000 -1.502378e+001 196 104 93
-2.312142e+000 6.210957e-001 -9.543334e+000 228 227 231
-1.621416e+001 -4.432249e+000 -4.594464e+001 224 224 224
-6.850475e-001 5.886425e-001 -9.044211e+000 197 174 152
-6.544601e-001 5.885817e-001 -9.032668e+000 196 174 150
4.801461e+000 3.807451e+000 -1.276160e+001 219 209 209
1.925714e-001 2.163082e+000 -1.017669e+001 223 193 169
1.517562e+000 2.241463e+000 -1.019641e+001 161 141 117
3.019782e+000 2.379167e+000 -1.113044e+001 114 88 63
4.322318e-001 1.808543e+000 -9.454795e+000 219 173 168
1.062625e+000 1.869632e+000 -9.934739e+000 223 202 182
1.299576e+000 1.848748e+000 -9.990053e+000 206 181 148
2.077464e+000 1.786886e+000 -9.508736e+000 104 99 80
9.027905e-001 1.272490e+000 -9.449453e+000 174 133 117
1.312676e+000 1.533281e+000 -9.848565e+000 174 148 126
1.299464e+000 1.315997e+000 -9.915781e+000 130 94 72
1.782965e+000 9.367200e-001 -8.990650e+000 150 133 110
2.861559e+000 9.475864e-001 -9.016328e+000 90 80 71
5.828814e+000 8.537004e-001 -1.042707e+001 211 159 67
1.346371e+000 7.400392e-002 -9.195134e+000 211 198 181
-5.212602e-001 -8.107416e-001 -9.384308e+000 196 137 136
5.454776e+000 3.170138e+000 -1.129136e+001 191 101 103
1.605433e+000 1.208153e+000 -9.223744e+000 114 115 95
1.995403e+000 1.235212e+000 -8.901860e+000 197 181 161
3.166079e+000 4.389847e-001 -8.842594e+000 63 48 34
4.768788e-001 -1.881794e+000 -1.024649e+001 206 186 163
3.201628e+000 4.279318e+000 -1.566547e+001 224 167 122
4.396517e+000 2.092524e+000 -1.182185e+001 132 104 80
5.519692e+000 2.131662e+000 -1.112610e+001 183 137 61
6.218954e-001 1.239375e+000 -9.257277e+000 172 117 114
1.556637e+000 2.491336e-001 -9.003156e+000 94 102 73
-1.958558e-001 -2.934117e-001 -8.995723e+000 210 179 166
5.020191e+000 -6.487586e-001 -1.052262e+001 111 84 57
5.267487e+000 -1.396032e+000 -1.115626e+001 171 101 66
-2.339372e-001 -2.459428e+000 -1.054528e+001 179 148 93
3.346271e+000 4.158745e+000 -1.535762e+001 228 170 132
2.996265e+000 1.964725e+000 -1.064245e+001 81 60 36
3.720591e+000 2.058749e+000 -1.127976e+001 100 75 53
3.981264e+000 1.700129e+000 -1.106751e+001 107 81 58
5.097618e+000 -8.502672e-002 -1.023239e+001 108 78 50
1.419617e+000 -9.132041e-001 -9.357375e+000 239 233 227
-3.524814e+000 1.476140e+000 -8.252719e+000 126 95 66
