ply
format ascii 1.0
element face 0
property list uchar int vertex_indices
element vertex 875
property float x
property float y
property float z
property uchar diffuse_red
property uchar diffuse_green
property uchar diffuse_blue
end_header
4.132120e+000 -1.901566e+000 -1.151662e+001 100 74 47
8.031836e-001 -2.094161e+000 -1.023395e+001 255 255 237
8.057281e-001 -2.098406e+000 -1.024942e+001 255 255 237
3.349093e+000 -2.088271e+000 -1.131731e+001 90 68 44
4.193753e+000 -3.644785e+000 -1.215643e+001 224 211 199
4.678272e+000 -3.603263e+000 -1.120663e+001 249 203 150
4.106575e+000 3.373443e+000 -1.317482e+001 222 138 101
-3.542466e+000 2.137421e+000 -8.452297e+000 150 115 84
2.309053e+000 2.538944e+000 -1.069346e+001 111 91 67
5.041698e+000 2.720496e+000 -1.258440e+001 242 226 238
6.992826e-001 1.356483e+000 -9.284828e+000 164 114 105
3.338389e+000 1.641225e+000 -1.057500e+001 120 98 75
2.397737e+000 9.584261e-001 -8.842710e+000 78 67 51
2.680612e+000 1.006609e+000 -8.913565e+000 110 90 67
5.375728e+000 1.190370e+000 -1.136298e+001 218 166 107
5.406744e+000 7.996073e-001 -1.102177e+001 170 135 105
-1.674867e+000 3.167593e-001 -9.827082e+000 171 143 131
3.610868e+000 1.764627e-001 -9.399122e+000 99 78 59
3.493226e+000 9.166492e-002 -9.363591e+000 82 63 43
-1.101616e+000 -3.616671e-001 -1.040451e+001 144 98 90
4.658547e-001 -3.644752e-001 -8.766619e+000 126 79 68
2.156412e+000 -3.718042e-001 -9.069463e+000 52 42 32
4.040822e+000 -9.093672e-001 -1.046757e+001 92 68 42
3.012194e+000 -1.244523e+000 -1.041551e+001 73 52 34
3.750869e+000 -1.374459e+000 -1.086425e+001 117 97 72
4.999636e+000 -1.803005e+000 -1.131097e+001 193 96 51
9.267788e-001 -1.836806e+000 -1.001525e+001 170 150 121
-2.862643e-001 -3.652731e+000 -1.188842e+001 174 158 136
1.047750e+000 -3.609086e+000 -1.198765e+001 133 119 106
3.790310e+000 3.503994e+000 -1.452135e+001 211 138 87
5.284951e+000 2.417833e+000 -1.213708e+001 144 114 104
1.049683e+000 1.735228e+000 -9.786645e+000 201 173 152
-3.018573e+000 1.461166e+000 -8.194502e+000 117 89 52
4.604674e+000 1.412436e+000 -1.128071e+001 149 122 93
2.008234e+000 6.187801e-001 -8.530932e+000 149 156 119
2.933754e+000 -1.350275e-001 -9.036141e+000 68 54 43
1.848136e+000 -8.309476e-001 -9.469110e+000 52 38 25
1.467591e-001 -1.341218e+000 -9.902561e+000 139 87 66
3.545061e+000 -2.187435e+000 -1.152101e+001 127 105 81
2.533109e+000 -2.638550e+000 -1.148939e+001 101 78 54
3.055428e-001 -2.617971e+000 -1.039553e+001 204 190 166
4.621642e-001 -2.787540e+000 -1.095274e+001 176 159 145
3.698207e+000 -3.734816e+000 -1.313616e+001 211 162 60
5.096282e+000 3.597733e+000 -1.208045e+001 243 228 230
2.477178e+000 2.232831e+000 -1.052099e+001 111 94 70
1.690985e+000 1.783601e+000 -9.742605e+000 235 223 205
1.588995e+000 1.094274e+000 -9.232506e+000 89 88 67
4.983810e+000 -6.321501e-001 -1.054183e+001 111 81 53
-1.177600e+001 -4.279884e+000 -4.362619e+001 203 201 188
-1.196918e-001 -8.016667e-001 -9.513827e+000 190 151 145
-8.420586e-001 -1.086330e+000 -9.305527e+000 211 177 175
7.105351e-002 -1.979432e+000 -1.032275e+001 195 177 141
4.458634e+000 -2.402807e+000 -1.211168e+001 127 59 36
-3.595365e-001 -2.371260e+000 -1.063088e+001 164 141 101
1.474501e+000 -2.119444e+000 -1.017490e+001 155 149 129
-1.028984e+000 -3.282518e+000 -1.293637e+001 228 228 228
7.303948e-001 -3.507069e+000 -1.157156e+001 151 140 118
4.839006e+000 3.171989e+000 -1.257943e+001 180 88 93
1.400179e+000 2.304092e+000 -1.019617e+001 123 107 81
1.095741e+000 1.852583e+000 -9.895073e+000 201 179 156
1.597736e+000 6.077066e-001 -9.013634e+000 171 138 68
2.156273e+000 6.379933e-001 -8.668554e+000 105 76 47
4.918443e+000 6.178084e-001 -1.057218e+001 153 122 94
3.006143e+000 -1.256087e-002 -9.036598e+000 52 39 23
3.793420e+000 1.671723e-002 -9.539052e+000 104 87 62
-1.457962e+000 -6.380315e-001 -1.039304e+001 171 129 117
-8.935367e-001 -3.170988e+000 -1.281986e+001 111 116 93
9.813586e-001 2.309046e+000 -1.074052e+001 66 59 40
-1.891244e-001 1.289953e+000 -1.040856e+001 171 113 112
2.813812e+000 5.546344e-001 -8.900440e+000 42 35 27
2.412489e+000 -2.609787e-001 -9.000288e+000 39 30 23
-1.006269e+001 -5.717725e+000 -4.487584e+001 232 231 224
4.105171e+000 -3.205454e+000 -1.261159e+001 216 146 53
9.605128e-001 9.067548e-001 -9.395930e+000 116 69 47
1.754352e+000 1.596074e+000 -9.515606e+000 251 252 242
1.421867e+000 -1.543807e+000 -9.940693e+000 107 96 80
1.069300e+000 -2.607218e+000 -1.096036e+001 62 53 44
-3.287775e-001 -1.534206e+000 -1.024809e+001 153 129 81
4.153824e+000 6.856064e-001 -1.288831e+001 59 44 29
-2.965334e+000 2.761651e+000 -9.078995e+000 214 211 202
7.220330e-001 2.818182e+000 -1.126835e+001 218 195 147
-2.255782e+000 1.905777e+000 -8.830109e+000 99 76 60
1.590726e+000 2.235510e+000 -1.014638e+001 171 155 134
2.539467e+000 2.065436e+000 -1.024632e+001 106 90 69
4.825129e-001 1.634191e+000 -9.507024e+000 212 171 159
4.822028e-001 1.634472e+000 -9.506103e+000 212 171 159
1.159409e+000 1.775278e+000 -9.847623e+000 161 127 96
-3.172776e+000 1.362257e+000 -8.182787e+000 129 99 72
-1.529967e+000 1.400514e+000 -9.272860e+000 103 85 63
1.658539e+000 1.437528e+000 -9.293787e+000 138 119 95
2.342443e+000 1.545695e+000 -9.314749e+000 87 62 34
3.575868e+000 1.709435e+000 -1.086164e+001 97 72 50
5.162853e+000 1.598692e+000 -1.181941e+001 202 130 127
6.406148e-001 1.213339e+000 -9.280466e+000 166 109 102
1.311755e+000 1.123616e+000 -9.813814e+000 177 134 115
-3.168607e+000 9.664857e-001 -9.039343e+000 171 154 138
-2.902748e+000 4.931693e-001 -9.271596e+000 234 224 222
-1.518338e+000 6.005053e-001 -9.307519e+000 119 104 81
2.906679e+000 4.542101e-001 -8.827666e+000 230 224 200
2.906679e+000 4.542101e-001 -8.827666e+000 230 224 200
-1.629199e+000 4.455729e-001 -9.482463e+000 120 95 73
-1.376954e+000 2.231835e-001 -9.605883e+000 174 138 126
2.595979e+000 3.529954e-001 -8.587386e+000 45 35 24
3.002844e+000 3.049686e-001 -8.843503e+000 230 226 204
4.649917e+000 9.679844e-002 -9.917189e+000 109 89 64
1.658081e-001 -1.322666e-001 -8.967677e+000 175 132 113
3.078473e-001 -1.455813e-001 -8.960906e+000 150 111 93
3.078473e-001 -1.455813e-001 -8.960906e+000 150 111 93
1.480363e+000 -1.275683e-001 -9.226325e+000 118 121 90
2.180880e+000 -1.263982e-001 -8.784470e+000 127 120 102
2.856751e+000 -9.655447e-002 -9.029696e+000 90 84 63
2.858082e+000 -1.253481e-001 -9.016314e+000 204 198 175
4.416455e+000 -5.131504e-002 -9.968988e+000 105 81 57
-9.003460e-002 -2.925454e-001 -8.912611e+000 203 163 151
9.143054e-002 -2.908274e-001 -8.680624e+000 156 115 94
1.777838e+000 -3.639985e-001 -8.853907e+000 174 153 128
1.818052e+000 -3.702512e-001 -8.901357e+000 114 90 59
1.940938e+000 -2.135661e-001 -8.939861e+000 121 101 66
2.101230e+000 -2.288809e-001 -8.885474e+000 118 109 92
2.015450e+000 -3.922030e-001 -9.125577e+000 144 130 88
2.182516e+000 -2.580759e-001 -8.884423e+000 64 56 39
2.234407e+000 -3.162403e-001 -8.982108e+000 116 108 87
2.237873e+000 -3.875558e-001 -9.131895e+000 47 37 19
2.555443e+000 -4.802468e-001 -9.468548e+000 204 200 175
2.583672e+000 -4.233516e-001 -9.363615e+000 201 197 170
1.103319e+000 -6.219316e-001 -9.476273e+000 184 165 138
1.261121e+000 -6.752481e-001 -9.261113e+000 201 177 147
1.583474e+000 -6.440181e-001 -9.126386e+000 216 201 178
2.396185e+000 -5.871012e-001 -9.530788e+000 228 224 194
-1.581771e+000 -9.459320e-001 -9.941969e+000 222 186 175
-1.343412e+000 -1.085988e+000 -9.838009e+000 209 165 152
-1.210079e+000 -1.042658e+000 -9.842488e+000 206 157 143
-4.780218e-001 -9.378448e-001 -9.186722e+000 181 138 131
-4.965197e-001 -1.018631e+000 -9.243386e+000 178 140 131
-4.268011e-001 -9.967200e-001 -9.189036e+000 184 141 134
-1.701221e-001 -1.073273e+000 -9.668292e+000 165 120 101
4.897800e-001 -8.283886e-001 -9.293528e+000 189 156 141
1.217176e+000 -8.766496e-001 -9.440776e+000 208 190 162
1.890381e+000 -8.907416e-001 -9.524507e+000 88 77 53
3.378889e+000 -1.150373e+000 -1.049251e+001 72 54 32
3.445036e+000 -1.164174e+000 -1.054189e+001 79 61 40
3.440176e+000 -1.162253e+000 -1.052905e+001 79 61 40
-1.313011e+000 -1.127085e+000 -9.961350e+000 188 145 135
-8.131143e-001 -1.049555e+000 -9.355959e+000 216 180 179
-3.187301e-003 -1.435562e+000 -1.009200e+001 190 164 141
6.670744e-001 -1.211962e+000 -9.779190e+000 89 82 56
8.889436e-001 -1.261360e+000 -9.763737e+000 79 79 53
8.889436e-001 -1.261360e+000 -9.763737e+000 79 79 53
1.200209e+000 -1.124363e+000 -9.570238e+000 191 173 149
2.089400e+000 -1.184634e+000 -9.997483e+000 206 200 171
2.003564e+000 -1.358500e+000 -1.005343e+001 206 201 170
2.868213e+000 -1.431308e+000 -1.054208e+001 79 61 39
1.166035e+000 -1.543027e+000 -9.713629e+000 169 156 130
1.337788e+000 -1.691631e+000 -9.962116e+000 61 47 38
-2.924513e-001 -1.884863e+000 -1.063215e+001 157 139 119
2.589105e-002 -1.915632e+000 -1.046633e+001 157 127 99
2.369058e+000 -2.026885e+000 -1.084815e+001 90 69 50
5.007952e+000 -2.104625e+000 -1.125362e+001 133 122 108
6.409531e-001 -2.443029e+000 -1.047994e+001 207 200 188
9.819723e-001 -2.361369e+000 -1.070747e+001 69 49 39
1.172347e+000 -2.320003e+000 -1.030297e+001 122 113 98
6.996296e-001 -2.832065e+000 -1.100131e+001 82 74 63
4.034684e+000 -3.986803e+000 -1.260766e+001 148 131 133
-3.330136e+000 2.304855e+000 -8.394514e+000 102 74 56
1.312770e+000 2.883218e+000 -1.093451e+001 190 174 153
1.878068e+000 2.847787e+000 -1.058668e+001 95 78 58
4.932291e+000 3.180429e+000 -1.245300e+001 188 98 96
5.160453e+000 3.321767e+000 -1.217837e+001 199 92 101
-3.254106e+000 2.054829e+000 -8.168301e+000 151 121 85
1.234937e+000 2.502439e+000 -1.052141e+001 138 134 110
4.673290e+000 2.814376e+000 -1.293177e+001 199 130 103
-3.367287e+000 1.748086e+000 -8.247281e+000 135 106 72
-3.372763e+000 1.753190e+000 -8.264470e+000 135 106 72
-2.289514e+000 1.955174e+000 -8.507936e+000 101 80 63
-2.210762e+000 1.905197e+000 -8.780446e+000 93 68 53
5.518913e-001 2.045232e+000 -9.871039e+000 142 90 76
1.087502e+000 2.206569e+000 -1.039094e+001 79 74 50
1.663557e+000 2.299921e+000 -1.019852e+001 152 126 103
3.547188e+000 2.233822e+000 -1.138904e+001 119 93 68
-3.575218e+000 1.746916e+000 -8.362382e+000 112 81 51
-3.329677e+000 1.578536e+000 -8.349826e+000 110 77 43
-3.158596e+000 1.728002e+000 -8.244058e+000 113 84 50
-2.896967e+000 1.677710e+000 -8.398915e+000 128 98 69
-2.953280e+000 1.649922e+000 -8.406244e+000 98 71 42
2.145800e+000 1.798921e+000 -9.601445e+000 95 84 64
2.623588e+000 1.723050e+000 -9.814312e+000 102 85 66
2.646734e+000 1.693354e+000 -9.795052e+000 102 85 64
1.014570e+000 1.519338e+000 -9.678618e+000 131 92 75
1.739800e+000 1.321148e+000 -9.059794e+000 157 159 129
2.793121e+000 1.312440e+000 -9.381870e+000 59 51 31
3.425083e+000 1.406051e+000 -1.037824e+001 92 67 46
4.600237e+000 1.648147e+000 -1.132311e+001 109 87 62
5.352453e+000 1.704002e+000 -1.143447e+001 214 154 149
-2.872699e+000 1.020895e+000 -8.897564e+000 135 116 102
2.271001e-001 1.229394e+000 -9.127995e+000 218 185 170
2.927453e+000 9.303636e-001 -9.028328e+000 92 84 61
3.031841e+000 7.584847e-001 -8.917130e+000 235 230 201
-2.670867e+000 6.141515e-001 -9.039540e+000 167 141 113
-1.554284e+000 5.534407e-001 -9.424058e+000 154 132 111
2.413673e+000 4.629117e-001 -8.522145e+000 147 143 118
2.565137e+000 4.627116e-001 -8.522529e+000 105 99 73
3.785473e+000 4.518600e-001 -9.515620e+000 97 73 50
1.539192e+000 2.251326e-001 -9.022148e+000 100 105 74
2.888219e+000 1.235603e-001 -8.870154e+000 74 66 47
3.139285e+000 3.487847e-001 -8.871409e+000 61 47 33
4.419550e+000 2.557105e-001 -9.828649e+000 92 68 44
-1.184429e+000 4.971655e-002 -1.006351e+001 109 69 60
1.922332e+000 8.029026e-002 -8.709710e+000 194 173 146
1.972962e+000 -1.283365e-001 -8.634018e+000 129 105 74
-1.660551e+000 -4.288813e-001 -1.076194e+001 188 148 127
-1.658509e-001 -2.903422e-001 -8.965051e+000 209 177 162
3.315678e-001 -1.851241e-001 -8.804965e+000 173 137 120
7.411000e-001 -3.724641e-001 -9.254134e+000 131 94 78
1.633998e+000 -2.359792e-001 -8.883058e+000 156 147 116
1.670408e+000 -3.795719e-001 -8.945293e+000 171 156 135
2.145616e+000 -2.576926e-001 -8.988784e+000 56 49 31
2.127502e+000 -2.547959e-001 -8.917354e+000 56 49 31
2.033142e+000 -3.903655e-001 -9.037536e+000 59 43 35
4.148160e+000 -4.078921e-001 -9.938501e+000 83 61 38
-1.511919e-001 -5.546804e-001 -9.056362e+000 206 171 158
1.174753e+000 -4.868259e-001 -9.222440e+000 220 204 179
2.078672e+000 -6.507766e-001 -9.314047e+000 104 95 81
2.014929e+000 -7.650931e-001 -9.448633e+000 52 40 26
2.490841e+000 -5.161415e-001 -9.492004e+000 68 61 35
2.538364e+000 -5.207792e-001 -9.524240e+000 227 223 199
2.523302e+000 -5.622642e-001 -9.605878e+000 226 219 192
2.523302e+000 -5.622642e-001 -9.605878e+000 226 219 192
-1.188897e+000 -9.775573e-001 -9.871780e+000 216 165 152
-8.523237e-001 -8.961412e-001 -9.839799e+000 176 132 122
4.310837e-002 -9.512737e-001 -9.161292e+000 169 130 122
7.572626e-001 -8.714433e-001 -9.655413e+000 72 53 36
1.201613e+000 -1.028828e+000 -9.542147e+000 130 106 76
2.247626e+000 -1.043679e+000 -9.905251e+000 84 77 52
2.247626e+000 -1.043679e+000 -9.905251e+000 84 77 52
3.077621e+000 -8.460856e-001 -9.938781e+000 92 74 52
5.259527e+000 -9.724725e-001 -1.099380e+001 178 117 45
-9.932213e-001 -1.354261e+000 -1.005295e+001 176 128 119
-1.500085e-001 -1.238735e+000 -9.701876e+000 186 150 139
-1.489804e-001 -1.234232e+000 -9.671916e+000 186 150 139
-1.383924e-002 -1.140834e+000 -9.534046e+000 195 158 149
9.462995e-002 -1.269298e+000 -9.699576e+000 201 164 155
1.314219e+000 -1.392244e+000 -9.650124e+000 111 85 59
2.067443e+000 -1.395783e+000 -1.011625e+001 232 226 188
2.355057e+000 -1.275344e+000 -1.021377e+001 82 64 45
2.160765e+000 -1.461280e+000 -1.021080e+001 62 45 35
4.051107e+000 -1.577931e+000 -1.119198e+001 118 92 69
5.208384e+000 -1.370042e+000 -1.107662e+001 170 102 71
4.611528e-002 -1.499728e+000 -1.030224e+001 192 164 141
1.998700e+000 -1.706578e+000 -1.029685e+001 57 45 32
5.132339e+000 -1.657676e+000 -1.118750e+001 126 102 88
5.132339e+000 -1.657676e+000 -1.118750e+001 126 102 88
5.072504e+000 -1.861548e+000 -1.122245e+001 208 197 192
5.129621e+000 -1.851081e+000 -1.115348e+001 101 88 71
5.054922e+000 -1.987268e+000 -1.120853e+001 100 82 71
5.054922e+000 -1.987268e+000 -1.120853e+001 100 82 71
-4.402285e-003 -1.928825e+000 -1.040660e+001 143 114 82
8.364821e-001 -2.057076e+000 -1.017208e+001 193 177 150
8.950579e-001 -1.905472e+000 -1.001386e+001 236 228 210
1.178241e+000 -1.925880e+000 -1.001137e+001 101 95 73
1.531340e+000 -1.798016e+000 -9.929662e+000 111 104 92
4.865909e+000 -2.246003e+000 -1.150595e+001 212 185 161
2.079554e-001 -2.448516e+000 -1.040753e+001 212 197 153
6.205724e-001 -2.263480e+000 -1.047986e+001 148 122 95
7.970443e-001 -2.229172e+000 -1.026352e+001 193 172 145
1.129190e+000 -2.130376e+000 -1.010537e+001 82 75 59
1.518839e+000 -2.216310e+000 -1.027337e+001 66 59 44
4.722542e+000 -2.508131e+000 -1.172106e+001 240 179 77
4.811973e+000 -2.442548e+000 -1.156990e+001 192 175 173
4.776810e+000 -2.581239e+000 -1.161684e+001 217 202 173
3.250545e-001 -2.907587e+000 -1.104728e+001 194 174 152
3.649527e-001 -2.901452e+000 -1.097529e+001 162 141 120
9.763593e-001 -2.669595e+000 -1.092099e+001 63 55 43
1.188130e+000 -2.788833e+000 -1.139336e+001 97 91 78
1.156561e+000 -2.827052e+000 -1.139318e+001 97 92 78
1.030168e+000 -3.051749e+000 -1.164029e+001 112 106 92
4.523378e+000 -3.170702e+000 -1.192806e+001 125 112 103
4.157237e-001 -3.234358e+000 -1.126238e+001 79 65 46
4.366109e-001 -3.344357e+000 -1.151829e+001 111 104 88
4.271962e+000 -3.469764e+000 -1.243611e+001 203 176 154
3.930644e+000 -4.017536e+000 -1.278343e+001 133 123 119
3.981446e+000 -4.036426e+000 -1.269601e+001 136 124 119
4.134501e+000 -3.756041e+000 -1.243474e+001 135 124 117
5.594871e-001 -4.136164e+000 -1.234977e+001 142 129 115
1.538811e+000 2.897120e+000 -1.092678e+001 67 54 42
1.908352e+000 2.754313e+000 -1.049113e+001 76 61 40
2.156998e+000 2.678346e+000 -1.070477e+001 57 45 29
-3.652513e+000 1.756342e+000 -8.284385e+000 165 138 107
4.800784e-001 2.156310e+000 -1.004012e+001 194 146 134
3.779029e+000 2.210520e+000 -1.155382e+001 131 100 78
-3.650018e+000 1.762043e+000 -8.373856e+000 128 101 74
-3.562381e+000 1.653569e+000 -8.239785e+000 148 121 91
-2.962696e+000 1.673816e+000 -8.324625e+000 108 78 50
3.714720e-001 1.968974e+000 -1.007265e+001 165 109 88
4.040548e-001 1.740813e+000 -9.568570e+000 225 193 174
3.756489e-001 1.695234e+000 -9.561225e+000 224 183 171
2.178876e+000 1.917499e+000 -9.705037e+000 73 58 39
3.458312e+000 1.802734e+000 -1.092291e+001 110 86 63
3.445439e+000 1.796055e+000 -1.087770e+001 110 86 63
3.734080e+000 1.978988e+000 -1.126778e+001 115 90 68
-3.155303e+000 1.373797e+000 -8.234424e+000 115 86 56
1.984801e+000 1.520935e+000 -9.455227e+000 151 130 109
-3.434267e+000 1.211779e+000 -8.310849e+000 170 145 115
1.642404e-001 1.180403e+000 -9.279093e+000 188 152 134
2.005219e+000 1.138182e+000 -8.996671e+000 188 174 148
2.272748e+000 1.236052e+000 -9.031629e+000 80 67 51
2.851030e+000 1.079892e+000 -9.133355e+000 106 99 83
1.894440e+000 7.676335e-001 -8.713300e+000 108 109 77
2.551785e+000 8.683601e-001 -8.715142e+000 79 69 48
3.075348e+000 8.349667e-001 -9.035128e+000 93 81 56
4.634411e+000 9.498163e-001 -1.061711e+001 146 115 89
-1.652584e+000 3.885944e-001 -9.639019e+000 113 84 70
-1.929090e+000 2.820823e-001 -1.051701e+001 115 87 74
1.547292e-001 -9.994053e-002 -8.921887e+000 191 148 129
1.572673e+000 -8.653488e-002 -8.617685e+000 143 150 113
1.683473e+000 -5.299103e-002 -8.731114e+000 182 176 146
2.182026e+000 -1.131566e-001 -8.919273e+000 82 68 54
2.345190e+000 -7.513364e-002 -8.755053e+000 93 79 49
-1.760880e+000 -2.354588e-001 -1.061840e+001 165 113 95
-3.915046e-001 -2.014736e-001 -9.286465e+000 217 184 169
-1.473311e-001 -4.119711e-001 -9.074385e+000 221 193 173
2.576455e-002 -2.543884e-001 -8.779462e+000 214 181 164
1.539951e+000 -3.453416e-001 -9.163536e+000 145 134 110
1.608715e+000 -4.051473e-001 -8.990599e+000 141 126 103
1.606778e+000 -4.035269e-001 -8.985097e+000 141 126 103
1.734205e+000 -1.938578e-001 -8.804284e+000 189 181 161
1.817134e+000 -1.672451e-001 -8.736416e+000 248 245 229
1.803862e+000 -2.386838e-001 -8.758792e+000 247 240 226
5.202349e+000 -2.291332e-001 -9.577280e+000 221 133 41
-3.610637e-002 -5.743270e-001 -8.777854e+000 153 105 88
1.378148e+000 -6.342793e-001 -9.086769e+000 150 116 81
1.500264e+000 -7.032928e-001 -9.209882e+000 249 245 230
2.847095e+000 -5.055554e-001 -9.535854e+000 176 164 148
3.223979e+000 -7.544351e-001 -9.966579e+000 58 41 21
8.115351e-001 -1.038028e+000 -9.657416e+000 67 68 50
1.113148e+000 -1.079052e+000 -9.555213e+000 84 92 58
1.108252e+000 -1.071302e+000 -9.505294e+000 84 92 58
1.243531e+000 -8.628839e-001 -9.429503e+000 195 168 140
1.415532e+000 -8.962727e-001 -9.281354e+000 245 243 228
1.446408e+000 -9.430964e-001 -9.372510e+000 160 139 112
2.403023e+000 -9.189966e-001 -9.796576e+000 70 58 45
3.191768e+000 -1.079679e+000 -1.032773e+001 66 45 24
3.548721e+000 -1.210191e+000 -1.063736e+001 65 47 27
5.093473e+000 -1.189009e+000 -1.128283e+001 125 64 39
5.342065e+000 -1.089901e+000 -1.090184e+001 236 226 230
-4.089580e-001 -1.335747e+000 -9.905700e+000 165 121 110
-3.613760e-001 -1.205715e+000 -9.557778e+000 166 118 111
-1.095964e-001 -1.377356e+000 -1.009952e+001 207 179 160
-3.655683e-002 -1.466689e+000 -1.025119e+001 190 162 141
5.047586e-001 -1.127161e+000 -9.608226e+000 137 100 80
1.130265e+000 -1.371216e+000 -9.727676e+000 202 186 159
1.913850e+000 -1.346745e+000 -1.027091e+001 34 25 18
3.317509e+000 -1.405114e+000 -1.075700e+001 75 55 34
5.003224e+000 -1.667904e+000 -1.145115e+001 211 138 50
5.217785e+000 -1.607836e+000 -1.101793e+001 233 217 221
-3.050548e-001 -1.770305e+000 -1.079922e+001 124 106 87
-2.542485e-001 -1.799658e+000 -1.074899e+001 86 65 46
2.861718e+000 -1.666076e+000 -1.078702e+001 81 63 43
3.238884e+000 -1.681414e+000 -1.095219e+001 108 88 65
3.848774e+000 -1.762431e+000 -1.127595e+001 121 100 73
3.848774e+000 -1.762431e+000 -1.127595e+001 121 100 73
4.180766e+000 -1.888849e+000 -1.149783e+001 120 94 67
-4.364070e-003 -2.045027e+000 -1.043450e+001 164 132 82
5.903986e-001 -2.491151e+000 -1.056997e+001 164 147 125
2.412386e+000 -2.757959e+000 -1.163834e+001 88 65 48
5.359331e-001 -2.567412e+000 -1.063377e+001 145 127 112
6.132718e-001 -2.706991e+000 -1.072808e+001 71 50 33
2.453597e+000 -3.067338e+000 -1.213811e+001 88 70 48
2.839943e+000 -2.959629e+000 -1.211505e+001 123 101 78
-4.707286e-001 -3.318549e+000 -1.210808e+001 176 164 138
4.181432e-001 -3.089023e+000 -1.108617e+001 132 110 84
-1.913132e-001 -3.833370e+000 -1.191960e+001 174 156 136
2.276173e-001 -3.811240e+000 -1.180388e+001 207 203 188
8.239568e-001 -3.663576e+000 -1.194983e+001 76 65 49
4.000273e+000 -4.017623e+000 -1.256120e+001 211 189 184
2.497321e-001 -3.946871e+000 -1.192469e+001 134 127 109
1.322696e+000 2.863037e+000 -1.106839e+001 255 254 240
1.381578e+000 2.767505e+000 -1.072483e+001 229 217 197
1.382874e+000 2.770749e+000 -1.074143e+001 229 217 197
2.180204e+000 2.604761e+000 -1.065222e+001 57 45 33
2.180204e+000 2.604761e+000 -1.065222e+001 57 45 33
2.193606e+000 2.510835e+000 -1.052315e+001 48 35 23
-3.577743e+000 1.831338e+000 -8.355072e+000 161 130 98
-3.340201e+000 1.882878e+000 -8.283501e+000 169 140 102
5.643582e-001 2.179984e+000 -1.004620e+001 156 98 84
-2.839724e+000 1.617527e+000 -8.298388e+000 112 85 55
9.933064e-001 1.761905e+000 -9.922962e+000 128 82 66
2.415258e+000 1.872103e+000 -9.912834e+000 49 40 30
4.029538e+000 2.209186e+000 -1.179929e+001 119 84 62
-3.444733e+000 1.451993e+000 -8.287388e+000 127 96 64
-2.558015e+000 1.481828e+000 -8.375725e+000 84 57 36
1.929663e+000 1.441689e+000 -9.307144e+000 144 118 92
1.769271e+000 1.376558e+000 -9.166878e+000 130 116 94
4.738864e+000 1.581150e+000 -1.153565e+001 120 91 67
-3.333530e+000 1.177184e+000 -8.575024e+000 159 133 116
1.606070e+000 1.267771e+000 -9.394534e+000 94 93 70
3.433821e+000 1.049380e+000 -9.857983e+000 80 58 35
4.203518e+000 1.372896e+000 -1.093697e+001 122 92 64
5.455971e+000 1.385591e+000 -1.123840e+001 232 201 204
5.452944e+000 1.386044e+000 -1.123193e+001 232 201 204
3.542010e-001 8.057432e-001 -9.037959e+000 207 176 156
2.777508e+000 9.288346e-001 -8.956300e+000 38 30 21
1.271353e+000 5.629495e-001 -9.711678e+000 171 134 110
1.283221e+000 4.631630e-001 -9.747886e+000 184 149 124
1.959976e+000 5.817011e-001 -8.569061e+000 125 130 97
2.024395e+000 6.053569e-001 -8.483302e+000 144 149 114
4.808149e+000 5.405025e-001 -1.011662e+001 125 94 66
-1.634062e+000 1.951527e-001 -9.988844e+000 84 60 49
-1.542915e+000 1.860490e-001 -9.841718e+000 162 134 120
1.742025e+000 -8.071490e-002 -8.878760e+000 154 130 99
-5.760450e-001 -2.148485e-001 -9.964991e+000 184 129 126
2.392192e-001 -2.496376e-001 -8.676804e+000 151 114 99
1.417563e+000 -1.799066e-001 -9.135887e+000 191 171 140
4.817225e+000 -5.022301e-001 -1.030700e+001 128 102 76
4.909548e-001 -4.620720e-001 -8.938489e+000 126 83 74
9.081788e-001 -7.185554e-001 -9.656457e+000 121 91 69
3.569616e+000 -5.378329e-001 -9.844189e+000 101 82 60
3.350275e+000 -7.650846e-001 -9.985573e+000 105 87 65
4.711593e+000 -8.565725e-001 -1.064824e+001 133 107 77
4.812451e+000 -7.796336e-001 -1.059320e+001 127 101 71
3.383990e+000 -1.101427e+000 -1.043367e+001 108 90 70
5.219470e+000 -1.014331e+000 -1.114450e+001 145 90 43
-8.864155e-001 -1.184095e+000 -9.440409e+000 202 171 168
-5.976658e-001 -1.810378e+000 -1.140608e+001 157 119 90
-1.285422e-001 -1.508929e+000 -1.046479e+001 184 154 125
3.755563e-003 -1.537276e+000 -1.045581e+001 144 111 70
9.332812e-001 -1.434035e+000 -9.735260e+000 206 195 173
1.424663e+000 -1.646453e+000 -9.996570e+000 39 31 22
7.281281e-001 -2.008189e+000 -1.031708e+001 192 171 142
8.325192e-001 -1.998974e+000 -1.012039e+001 172 147 117
1.017339e+000 -1.994103e+000 -1.012207e+001 134 115 79
1.482788e+000 -1.810920e+000 -9.936758e+000 58 51 36
3.229971e+000 -2.142034e+000 -1.131619e+001 98 74 50
1.141967e+000 -2.173430e+000 -1.012992e+001 69 59 47
3.474449e+000 -2.630513e+000 -1.193214e+001 116 90 67
3.785541e+000 -2.725115e+000 -1.218293e+001 123 96 66
-1.685667e-001 -2.519198e+000 -1.057696e+001 189 166 123
-1.845201e-001 -2.693142e+000 -1.077660e+001 192 161 106
3.140819e+000 -3.240824e+000 -1.254411e+001 111 84 55
4.125470e+000 -3.247822e+000 -1.259181e+001 210 143 47
-5.813662e-001 -3.274266e+000 -1.203778e+001 205 188 162
4.781041e-001 -3.376220e+000 -1.147595e+001 59 48 37
2.588773e+000 -3.474605e+000 -1.258380e+001 95 75 51
4.013474e+000 -3.505447e+000 -1.271968e+001 243 198 95
-2.306558e-002 -3.620974e+000 -1.160265e+001 200 183 163
3.442597e+000 -4.486552e+000 -1.348980e+001 199 131 52
4.018956e+000 -4.132745e+000 -1.255013e+001 216 142 53
-3.313439e+000 2.603079e+000 -8.512214e+000 146 95 90
1.115026e+000 2.879661e+000 -1.103633e+001 163 133 101
5.020071e+000 3.031150e+000 -1.227016e+001 226 224 229
5.730181e+000 2.995231e+000 -1.073881e+001 203 162 103
1.603753e+000 2.491823e+000 -1.036897e+001 162 141 117
-2.751340e+000 1.930491e+000 -8.081552e+000 98 69 49
1.032058e+000 2.172237e+000 -1.037491e+001 126 121 99
4.038265e+000 2.610598e+000 -1.242874e+001 223 158 114
2.489873e+000 1.692391e+000 -9.737017e+000 46 39 28
2.489873e+000 1.692391e+000 -9.737017e+000 46 39 28
2.531406e+000 1.616335e+000 -9.696155e+000 48 39 30
2.531406e+000 1.616335e+000 -9.696155e+000 48 39 30
-2.364213e+000 1.509518e+000 -8.662564e+000 129 108 87
-2.364213e+000 1.509518e+000 -8.662564e+000 129 108 87
3.473859e+000 1.673674e+000 -1.075719e+001 95 70 48
5.531540e+000 1.572675e+000 -1.107522e+001 217 191 180
-3.371941e+000 1.179950e+000 -8.296810e+000 104 77 56
1.031933e+000 1.082983e+000 -9.588405e+000 139 97 75
1.191242e+000 7.619038e-001 -9.699181e+000 158 120 95
2.018722e+000 2.056336e-001 -8.527548e+000 253 253 237
4.144863e+000 -2.181525e-001 -9.796614e+000 84 62 40
-4.074081e-001 -3.045397e-001 -9.462938e+000 179 124 116
-3.508207e-001 -3.987889e-001 -9.486433e+000 173 114 106
4.094867e-001 -2.141325e-001 -8.864580e+000 152 115 99
1.937213e+000 -7.519416e-001 -9.426625e+000 54 44 35
-6.404700e-003 -8.436288e-001 -9.021750e+000 120 82 73
5.136112e+000 -1.283594e+000 -1.120652e+001 167 76 53
-1.189383e+000 -1.102810e+000 -9.844310e+000 170 114 100
5.045554e-001 -1.283794e+000 -1.011006e+001 135 96 67
5.476068e-001 -1.341849e+000 -1.009470e+001 182 162 137
1.099437e+000 -1.224545e+000 -9.676600e+000 147 126 105
-6.697231e-001 -1.779865e+000 -1.138450e+001 181 144 117
5.070427e-001 -1.772878e+000 -1.023591e+001 206 185 156
2.279190e+000 -2.273367e+000 -1.103912e+001 89 71 51
4.795154e+000 -2.543557e+000 -1.159301e+001 227 202 148
4.945898e+000 -2.542020e+000 -1.129305e+001 210 123 43
-7.053056e-001 -3.089731e+000 -1.212143e+001 210 201 182
3.988637e-001 -2.689760e+000 -1.081792e+001 150 128 103
2.669317e+000 -3.203961e+000 -1.231446e+001 125 103 82
4.757122e+000 -2.848948e+000 -1.150604e+001 236 193 91
2.967528e-001 -3.042172e+000 -1.104930e+001 239 229 210
4.429779e+000 -3.520465e+000 -1.191317e+001 207 128 45
4.701594e-001 -4.032552e+000 -1.250782e+001 59 52 41
1.731707e+000 -3.868568e+000 -1.257551e+001 107 86 65
4.876319e+000 -3.483333e+000 -1.117943e+001 177 111 64
-2.966400e+000 2.742925e+000 -8.929604e+000 81 52 41
-3.371643e+000 2.228711e+000 -8.413355e+000 141 111 83
1.241591e+000 2.817879e+000 -1.104135e+001 153 126 95
4.529731e-001 1.878336e+000 -9.619574e+000 211 163 158
2.980802e+000 2.047600e+000 -1.073846e+001 105 81 55
1.451464e+000 1.460102e+000 -9.917674e+000 128 92 65
-3.584967e+000 1.163048e+000 -8.679735e+000 188 169 152
2.447257e+000 1.049007e+000 -8.723531e+000 102 88 68
5.508268e+000 1.213312e+000 -1.110542e+001 233 217 212
5.508412e+000 1.214008e+000 -1.110475e+001 233 217 212
3.094888e+000 8.067955e-001 -8.845893e+000 87 69 49
-1.604968e+000 5.811132e-001 -9.295903e+000 106 91 72
1.877587e+000 6.568515e-001 -8.731285e+000 133 139 103
1.819432e+000 3.535282e-001 -8.765768e+000 151 134 108
2.810086e+000 1.527676e-001 -8.941809e+000 53 46 40
5.024608e+000 -5.200091e-001 -1.043151e+001 109 78 50
1.486737e+000 -4.898417e-001 -9.190871e+000 154 125 98
2.667871e+000 -7.707983e-001 -9.761050e+000 162 149 133
-2.829736e-001 -1.020109e+000 -9.253181e+000 131 79 67
-8.578134e-002 -1.042772e+000 -9.557133e+000 141 93 84
4.078676e+000 -9.897385e-001 -1.052110e+001 120 98 74
4.166881e+000 -1.141705e+000 -1.082400e+001 91 70 43
4.176885e+000 -1.143663e+000 -1.083036e+001 91 70 43
-4.832967e-002 -1.271039e+000 -9.956527e+000 154 103 96
1.402554e-001 -1.355737e+000 -1.000281e+001 139 87 66
4.711384e+000 -1.966317e+000 -1.188667e+001 120 61 38
-8.415085e-001 -2.284829e+000 -1.234396e+001 203 187 161
3.483766e+000 -2.315510e+000 -1.160505e+001 97 74 50
5.021945e+000 -2.011897e+000 -1.126817e+001 229 216 189
7.530651e-001 -2.317543e+000 -1.037927e+001 198 186 165
1.086325e+000 -2.135821e+000 -1.017363e+001 127 122 103
1.420460e+000 -2.229904e+000 -1.035840e+001 53 43 31
2.411015e+000 -2.658860e+000 -1.153946e+001 118 99 75
-2.719359e-001 -2.614008e+000 -1.074799e+001 168 139 79
1.950672e+000 -2.866297e+000 -1.166505e+001 80 61 41
3.283562e+000 -3.113795e+000 -1.248959e+001 121 95 66
3.370756e+000 -3.044593e+000 -1.239367e+001 144 117 88
2.203706e+000 -4.030142e+000 -1.288215e+001 96 75 46
3.215848e+000 -4.487816e+000 -1.384707e+001 167 105 52
3.607257e+000 -4.087323e+000 -1.333985e+001 180 80 42
3.706207e+000 -4.248419e+000 -1.304896e+001 231 187 80
4.910400e+000 3.026539e+000 -1.252721e+001 239 228 230
-3.560384e+000 1.828806e+000 -8.246740e+000 166 135 104
-2.883714e+000 1.938301e+000 -8.280570e+000 137 112 81
-2.918551e+000 1.648598e+000 -8.281345e+000 104 74 46
-2.922283e+000 1.649648e+000 -8.288999e+000 104 74 46
-3.608751e+000 1.447219e+000 -8.424994e+000 163 133 99
2.630127e+000 9.968227e-001 -8.844505e+000 117 100 77
5.217386e+000 8.612217e-001 -1.097627e+001 182 153 124
1.678254e+000 6.051422e-001 -8.749952e+000 197 182 150
3.144624e+000 5.512202e-001 -8.935602e+000 71 57 45
-1.660782e+000 4.092217e-001 -9.567516e+000 108 87 68
-1.836731e+000 -5.919823e-001 -1.081297e+001 188 154 129
1.766888e+000 -5.840477e-001 -9.093861e+000 52 36 28
1.598278e+000 -9.249847e-001 -9.436094e+000 57 41 34
1.941787e+000 -8.339858e-001 -9.456120e+000 104 94 74
2.105630e+000 -9.731702e-001 -9.911281e+000 38 32 23
3.013062e+000 -9.468903e-001 -1.010078e+001 64 45 28
9.042988e-002 -1.130762e+000 -9.681661e+000 134 81 69
1.081566e+000 -1.387813e+000 -9.840230e+000 139 113 90
3.648132e+000 -1.382930e+000 -1.083028e+001 123 103 78
-7.073556e-001 -2.286723e+000 -1.188580e+001 108 103 78
-3.246157e-001 -2.066440e+000 -1.067698e+001 127 103 82
3.764121e+000 -2.720263e+000 -1.222703e+001 117 90 61
-4.183669e-001 -2.725445e+000 -1.079438e+001 210 191 151
8.878018e-001 -2.988477e+000 -1.126830e+001 46 38 31
1.225638e+000 -3.032181e+000 -1.152739e+001 67 58 43
1.812712e+000 -3.058004e+000 -1.180966e+001 77 58 40
9.794730e-001 -3.188047e+000 -1.157654e+001 164 158 136
1.757941e+000 -3.697395e+000 -1.246345e+001 118 99 79
-2.210468e+000 1.945860e+000 -8.701215e+000 66 46 37
9.736795e-001 1.341891e+000 -9.515415e+000 177 143 132
1.781545e+000 1.150311e+000 -9.002601e+000 117 120 89
3.577610e+000 4.675651e-001 -9.419381e+000 88 66 45
-1.729276e-002 -9.966283e-001 -9.328200e+000 179 140 133
1.002891e+000 -1.115242e+000 -9.545189e+000 135 142 109
1.476169e+000 -1.121033e+000 -9.479421e+000 56 43 32
2.072933e+000 -1.343278e+000 -1.015811e+001 105 97 63
-7.579887e-001 -2.068738e+000 -1.204204e+001 170 123 111
1.313305e+000 -1.484658e+000 -9.750392e+000 64 45 45
1.487195e+000 -1.621702e+000 -1.001394e+001 38 29 20
4.836187e+000 -1.909010e+000 -1.172587e+001 229 167 65
3.813048e+000 -2.247312e+000 -1.173911e+001 138 118 91
8.656441e-001 -2.586204e+000 -1.089175e+001 59 49 43
2.083890e+000 -2.704718e+000 -1.149506e+001 81 60 41
1.127044e+000 -2.537339e+000 -1.067468e+001 49 40 31
2.401833e+000 -3.205334e+000 -1.229553e+001 115 99 76
2.461284e+000 -2.882132e+000 -1.191788e+001 90 73 50
4.402631e+000 -2.936444e+000 -1.219716e+001 246 211 108
1.976118e+000 -3.626102e+000 -1.239765e+001 120 103 83
9.058233e-001 -3.618391e+000 -1.186714e+001 67 58 43
2.737643e+000 -3.889830e+000 -1.304466e+001 140 115 92
5.161498e+000 3.252280e+000 -1.193063e+001 187 89 89
1.166969e+000 2.791491e+000 -1.093533e+001 158 128 92
-2.664548e+000 2.016261e+000 -8.372740e+000 74 52 38
4.327274e+000 2.731078e+000 -1.280928e+001 223 169 109
-3.415376e+000 1.574097e+000 -8.266802e+000 161 129 91
5.447606e+000 1.680496e+000 -1.117884e+001 214 186 165
7.488009e-001 7.168206e-001 -9.293801e+000 136 85 62
7.417358e-001 7.134473e-001 -9.257435e+000 136 85 62
4.075795e+000 2.712767e-001 -9.635229e+000 93 71 50
1.980630e+000 -2.183248e-001 -8.758806e+000 46 31 20
2.374498e+000 -9.913448e-001 -9.799535e+000 82 65 45
-5.505855e-002 -1.438604e+000 -1.028282e+001 170 149 122
1.027389e+000 -1.338727e+000 -9.786945e+000 143 117 94
1.403724e+000 -1.306915e+000 -9.633979e+000 74 61 55
5.051709e+000 -1.331004e+000 -1.137273e+001 138 68 39
2.365026e+000 -1.727888e+000 -1.054451e+001 155 145 128
3.079859e+000 -2.369317e+000 -1.154950e+001 84 62 38
-3.553305e-001 -2.197402e+000 -1.046474e+001 198 172 111
1.005078e+000 -2.311695e+000 -1.069480e+001 77 57 49
1.724135e+000 -2.725335e+000 -1.119425e+001 165 151 135
3.589557e+000 -4.021986e+000 -1.357010e+001 133 68 44
1.452390e+000 -4.339131e+000 -1.355217e+001 103 83 59
2.032318e+000 2.786910e+000 -1.045563e+001 106 90 67
3.998117e+000 2.746382e+000 -1.261082e+001 210 153 101
3.322962e-001 6.536671e-001 -9.267669e+000 155 113 89
-2.926573e-001 -5.081797e-001 -9.338594e+000 163 100 88
-7.339179e-001 -9.956029e-001 -9.302879e+000 222 186 183
9.573554e-001 -9.616036e-001 -9.696464e+000 100 96 71
-1.055183e+000 -1.260351e+000 -9.761713e+000 147 86 83
4.871218e+000 -1.884604e+000 -1.150543e+001 238 189 81
1.280438e+000 -2.175223e+000 -1.010275e+001 60 49 37
-3.264997e+000 1.259270e+000 -8.338236e+000 97 70 49
2.071931e-001 2.050740e-002 -9.153037e+000 162 117 96
-1.191776e+000 -6.645845e-001 -1.006975e+001 206 169 150
-6.488213e-001 -1.211899e+000 -9.552758e+000 140 77 68
4.150691e+000 -1.571760e+000 -1.107778e+001 117 92 62
-4.725785e-001 -1.556946e+000 -1.026254e+001 168 146 115
-4.725785e-001 -1.556946e+000 -1.026254e+001 168 146 115
-7.292308e-001 -2.692979e+000 -1.262711e+001 125 129 102
1.351346e+000 -2.313025e+000 -1.040020e+001 59 50 41
-1.436772e+000 1.017842e+000 -9.264378e+000 217 199 175
5.431902e+000 6.436165e-001 -1.010452e+001 234 207 193
4.905435e-001 -6.055812e-001 -8.596675e+000 138 90 79
4.905435e-001 -6.055812e-001 -8.596675e+000 138 90 79
4.002514e+000 -7.667833e-001 -7.562417e+000 213 127 38
4.788874e+000 3.762445e+000 -1.277986e+001 219 209 209
-3.560727e+000 2.383352e+000 -8.480952e+000 153 117 103
1.745366e+000 2.876201e+000 -1.067491e+001 131 119 94
-3.891812e+000 2.121790e+000 -8.824526e+000 170 130 122
1.155075e+000 2.511149e+000 -1.050952e+001 83 76 55
1.383041e+000 2.674850e+000 -1.070592e+001 170 151 124
1.427646e+000 2.595372e+000 -1.056892e+001 168 151 129
2.209926e+000 2.567668e+000 -1.061896e+001 65 56 43
5.003953e+000 2.962443e+000 -1.226166e+001 168 94 93
5.286280e+000 2.990529e+000 -1.166540e+001 235 225 234
5.605998e+000 3.114715e+000 -1.133331e+001 198 127 117
-2.054500e+000 1.979408e+000 -9.498753e+000 106 81 61
-4.096976e-002 2.146951e+000 -1.032079e+001 206 168 152
1.997864e-001 2.226366e+000 -1.020652e+001 222 191 172
2.513670e-001 2.206400e+000 -1.020206e+001 193 154 144
1.054812e+000 2.340255e+000 -1.072680e+001 72 68 49
1.161845e+000 2.184669e+000 -1.039963e+001 75 75 58
1.285392e+000 2.151894e+000 -1.025413e+001 85 85 65
1.782341e+000 2.262069e+000 -1.030703e+001 83 59 43
2.320596e+000 2.393648e+000 -1.056257e+001 108 97 79
-9.246804e-003 2.031359e+000 -1.033515e+001 220 178 162
3.788453e-001 2.052394e+000 -1.007427e+001 198 155 136
8.803824e-001 2.071242e+000 -1.015861e+001 218 189 163
1.560247e+000 1.871995e+000 -9.924723e+000 178 151 124
5.538367e-001 1.679029e+000 -9.480434e+000 208 165 158
5.367946e-001 1.549848e+000 -9.479811e+000 178 132 123
5.514636e-001 1.526270e+000 -9.513684e+000 201 157 146
6.500279e-001 1.532769e+000 -9.475185e+000 189 147 133
1.726100e+000 1.740792e+000 -9.670082e+000 203 184 160
2.075934e+000 1.792646e+000 -9.563626e+000 113 107 88
3.398218e+000 1.913751e+000 -1.101990e+001 93 71 50
3.482653e+000 1.769216e+000 -1.089158e+001 80 58 37
3.675322e+000 2.010846e+000 -1.130956e+001 109 84 62
3.896253e+000 1.976200e+000 -1.141647e+001 96 72 50
4.044604e+000 2.093353e+000 -1.158052e+001 117 89 66
1.324929e+000 1.500050e+000 -9.896926e+000 174 148 126
1.491273e+000 1.278808e+000 -9.867595e+000 187 165 143
1.570995e+000 1.482258e+000 -9.718847e+000 170 148 127
2.758360e+000 1.614392e+000 -9.676070e+000 144 134 109
2.734060e+000 1.455945e+000 -9.531749e+000 80 69 47
2.768328e+000 1.405535e+000 -9.491444e+000 85 77 59
3.922519e+000 1.633662e+000 -1.111189e+001 93 69 45
5.236108e+000 1.718383e+000 -1.166685e+001 199 109 107
5.191530e+000 1.586801e+000 -1.173241e+001 204 117 106
5.360139e+000 1.550020e+000 -1.155046e+001 232 224 219
1.754008e-001 1.046102e+000 -9.073690e+000 195 163 150
7.176043e-001 1.137393e+000 -9.340959e+000 186 139 131
2.426575e+000 1.130889e+000 -8.853038e+000 100 89 68
2.863125e+000 1.245829e+000 -9.365116e+000 82 74 60
2.939387e+000 1.095762e+000 -9.241774e+000 105 91 76
3.847774e+000 1.228439e+000 -1.043915e+001 107 82 60
5.480675e+000 1.452932e+000 -1.121801e+001 226 187 184
8.167085e-001 9.344879e-001 -9.198134e+000 142 99 80
1.602916e+000 8.157205e-001 -8.753827e+000 196 183 139
2.906250e+000 8.647122e-001 -8.995570e+000 166 163 146
5.071030e+000 8.776401e-001 -1.096790e+001 143 110 83
6.520313e-001 6.365513e-001 -9.186091e+000 175 137 118
1.636595e+000 7.094964e-001 -8.734956e+000 193 181 129
1.896396e+000 7.346759e-001 -8.617498e+000 138 145 113
1.896396e+000 7.346759e-001 -8.617498e+000 138 145 113
1.750647e+000 6.063092e-001 -8.739821e+000 159 151 118
3.109407e+000 7.606656e-001 -8.912953e+000 73 55 41
-1.728242e+000 -2.815357e-002 -1.061583e+001 169 133 114
-1.619421e+000 -1.624817e-001 -1.062190e+001 177 140 124
8.310801e-001 1.451065e-001 -9.347884e+000 210 190 167
1.497626e+000 3.515082e-001 -8.956177e+000 139 137 106
1.590625e+000 4.048499e-001 -8.933825e+000 185 179 152
1.892805e+000 2.626865e-001 -8.761471e+000 158 141 117
2.142431e+000 3.265578e-001 -8.665622e+000 137 116 92
2.480038e+000 4.452818e-001 -8.516130e+000 73 65 54
2.900610e+000 3.903658e-001 -8.828100e+000 216 211 195
3.047072e+000 4.097593e-001 -8.834650e+000 103 99 74
-1.750507e+000 -4.995691e-001 -1.076129e+001 190 153 134
-1.694877e+000 -3.865261e-001 -1.073825e+001 208 167 147
-1.615442e+000 -3.454282e-001 -1.068065e+001 202 166 149
2.777181e-001 -1.458621e-001 -8.873773e+000 204 167 148
8.469824e-001 -1.650478e-002 -9.296942e+000 193 172 151
1.361910e+000 1.133376e-001 -9.232898e+000 198 178 157
1.396240e+000 -9.367215e-002 -9.099504e+000 167 158 136
1.948965e+000 1.889623e-002 -8.617902e+000 197 179 151
2.911753e+000 1.601796e-001 -8.887977e+000 75 66 54
4.084616e+000 2.889073e-001 -9.656323e+000 82 59 41
6.745112e-002 -2.181737e-001 -8.747441e+000 213 188 173
1.547758e+000 -2.270142e-001 -8.891733e+000 109 118 93
1.772254e+000 -1.557854e-001 -8.785062e+000 212 200 187
1.795628e+000 -2.669550e-001 -8.751206e+000 195 189 171
2.275738e+000 -1.857379e-002 -8.735386e+000 192 186 163
2.357676e+000 -3.090643e-002 -8.728060e+000 80 68 46
2.381820e+000 5.256235e-003 -8.713523e+000 63 51 38
2.394501e+000 -7.626922e-002 -8.735501e+000 60 51 32
-1.645651e+000 -9.220591e-001 -1.000278e+001 197 160 154
-1.488100e+000 -8.756968e-001 -9.984562e+000 188 152 137
-1.356928e+000 -8.292037e-001 -9.932350e+000 198 161 149
-1.488790e+000 -9.959818e-001 -9.877945e+000 183 146 137
-1.353272e+000 -9.550457e-001 -9.794560e+000 210 167 156
-1.276998e+000 -1.004081e+000 -9.839246e+000 212 175 157
-3.544703e-002 -5.013540e-001 -8.747262e+000 186 154 133
5.565220e+000 -5.531076e-001 -1.057922e+001 230 170 77
-1.372385e+000 -1.021433e+000 -9.827043e+000 208 171 159
-1.357120e+000 -1.048568e+000 -9.840948e+000 187 147 137
-1.243663e+000 -1.040589e+000 -9.848890e+000 181 138 129
-8.929050e-002 -1.144309e+000 -9.579441e+000 173 135 129
7.290599e-001 -9.068177e-001 -9.776192e+000 101 80 65
1.060989e+000 -9.549204e-001 -9.576431e+000 154 154 130
1.100037e+000 -9.882493e-001 -9.578289e+000 130 129 100
1.346734e+000 -8.142515e-001 -9.245864e+000 185 161 135
2.386186e+000 -7.661027e-001 -9.730021e+000 226 222 198
2.386186e+000 -7.661027e-001 -9.730021e+000 226 222 198
2.371564e+000 -9.904792e-001 -9.880088e+000 74 56 38
2.908637e+000 -1.070920e+000 -1.020827e+001 83 65 46
5.313725e+000 -9.743985e-001 -1.101487e+001 181 124 55
-2.030686e-001 -1.714045e+000 -1.063722e+001 80 57 40
9.059512e-001 -1.221286e+000 -9.773656e+000 90 97 73
1.147451e+000 -1.080487e+000 -9.542219e+000 127 118 94
1.705740e+000 -1.345573e+000 -9.885891e+000 105 99 84
2.042194e+000 -1.382612e+000 -1.011860e+001 81 74 46
4.553843e+000 -1.351915e+000 -1.119950e+001 129 102 75
4.538452e+000 -1.192500e+000 -1.100941e+001 135 108 79
5.214952e+000 -1.257778e+000 -1.095960e+001 126 113 103
5.354895e+000 -1.204693e+000 -1.084017e+001 203 155 105
-1.605133e-001 -1.825420e+000 -1.070142e+001 108 82 59
-1.813210e-001 -1.975337e+000 -1.054993e+001 138 107 70
4.635632e-002 -1.818795e+000 -1.054253e+001 151 125 85
5.296928e-001 -1.683974e+000 -1.023716e+001 189 167 144
1.015787e+000 -1.580096e+000 -9.872019e+000 161 141 115
9.345188e-001 -1.746821e+000 -9.908128e+000 222 215 189
1.358885e+000 -1.715487e+000 -9.998066e+000 94 83 81
2.042515e+000 -1.495869e+000 -1.021409e+001 83 77 55
3.779601e+000 -1.890479e+000 -1.133150e+001 107 85 62
3.796544e+000 -1.898275e+000 -1.135621e+001 107 85 62
4.734644e+000 -1.600987e+000 -1.147275e+001 166 123 88
5.202448e+000 -1.487450e+000 -1.121945e+001 213 197 173
-9.880522e-002 -2.283078e+000 -1.042941e+001 191 162 108
5.746197e-001 -2.155852e+000 -1.033971e+001 175 154 123
7.149006e-001 -2.206271e+000 -1.024445e+001 203 193 166
2.825883e+000 -2.320541e+000 -1.130010e+001 89 70 50
5.245575e-001 -2.664306e+000 -1.069958e+001 151 137 125
4.689078e+000 -2.678080e+000 -1.173474e+001 154 138 131
4.683563e+000 -2.676841e+000 -1.172101e+001 154 138 131
4.782296e+000 -2.591439e+000 -1.153158e+001 220 188 149
4.863387e+000 -2.285097e+000 -1.147592e+001 150 131 127
7.379764e-001 -3.058617e+000 -1.127316e+001 100 93 83
7.379764e-001 -3.058617e+000 -1.127316e+001 100 93 83
4.361753e+000 -3.265076e+000 -1.221127e+001 225 193 158
4.396413e+000 -3.184608e+000 -1.206556e+001 148 140 135
4.466241e+000 -3.067496e+000 -1.203975e+001 209 192 152
4.703777e+000 -2.726099e+000 -1.168156e+001 151 149 137
4.689504e+000 -2.715061e+000 -1.164286e+001 151 149 137
4.700748e+000 -2.747687e+000 -1.155221e+001 139 135 126
7.138592e-001 -3.619643e+000 -1.194436e+001 218 215 193
6.810320e-001 -3.721117e+000 -1.203059e+001 178 174 156
8.102932e-001 -3.507689e+000 -1.189218e+001 102 99 80
4.133803e+000 -3.558772e+000 -1.238246e+001 220 194 142
4.056924e+000 -3.745577e+000 -1.260686e+001 216 190 154
4.355935e+000 -3.427892e+000 -1.209949e+001 181 170 165
-3.012328e-001 -3.942616e+000 -1.184554e+001 172 165 143
5.806055e-001 -3.982560e+000 -1.217352e+001 103 92 82
1.876020e+000 -5.443439e+000 -1.561176e+001 217 176 139
1.876020e+000 -5.443439e+000 -1.561176e+001 217 176 139
1.907537e+000 -5.464049e+000 -1.543956e+001 215 153 96
2.492692e+000 -5.199528e+000 -1.468231e+001 189 172 155
3.286892e+000 -4.680396e+000 -1.359341e+001 150 145 141
4.117047e+000 -3.794797e+000 -1.239483e+001 182 170 160
4.992276e+000 -3.067402e+000 -1.085505e+001 218 142 86
1.523788e+000 3.010434e+000 -1.111101e+001 68 54 45
1.753411e+000 2.814615e+000 -1.054623e+001 130 113 89
6.616973e-001 2.500449e+000 -1.099728e+001 169 134 82
1.291320e+000 2.457845e+000 -1.034169e+001 98 99 68
5.190771e+000 3.152679e+000 -1.184108e+001 187 87 90
5.113532e+000 2.946656e+000 -1.152022e+001 183 110 100
5.675221e+000 2.799651e+000 -1.080015e+001 172 161 155
-2.159672e+000 1.900596e+000 -8.764250e+000 89 66 50
3.119264e-001 2.183493e+000 -1.008779e+001 216 177 167
3.309494e-001 2.127657e+000 -1.007313e+001 215 174 166
1.474793e+000 2.441045e+000 -1.031802e+001 174 154 130
1.516218e+000 2.302656e+000 -1.026915e+001 177 161 140
1.977843e+000 2.203452e+000 -9.927477e+000 98 83 62
2.400632e+000 2.516877e+000 -1.060163e+001 90 69 44
-4.525170e-002 2.047339e+000 -1.036906e+001 199 156 140
7.824595e-001 2.015274e+000 -9.928082e+000 164 129 107
1.431083e+000 1.980136e+000 -9.919969e+000 137 114 92
1.536439e+000 2.011830e+000 -1.008747e+001 165 145 121
1.791255e+000 2.099217e+000 -1.006558e+001 81 59 36
2.174890e+000 2.046274e+000 -9.837792e+000 66 58 32
2.488393e+000 2.110306e+000 -1.038040e+001 95 82 62
3.375167e+000 2.039786e+000 -1.108611e+001 102 78 55
3.800537e+000 2.082486e+000 -1.142469e+001 118 95 71
5.356215e+000 2.375854e+000 -1.140446e+001 151 77 78
1.575733e-001 1.759524e+000 -1.011825e+001 190 125 123
1.157217e+000 1.770837e+000 -9.815465e+000 162 128 101
1.307179e+000 1.753568e+000 -1.002226e+001 136 96 45
1.419153e+000 1.812410e+000 -9.908725e+000 206 181 154
1.479422e+000 1.707740e+000 -9.834765e+000 189 168 140
1.334382e+000 1.547865e+000 -9.877588e+000 169 145 121
1.610005e+000 1.743614e+000 -9.833166e+000 176 155 130
1.887381e+000 1.613685e+000 -9.548073e+000 134 113 86
1.886208e+000 1.613449e+000 -9.543050e+000 134 113 86
2.085649e+000 1.789914e+000 -9.748310e+000 121 114 95
2.252886e+000 1.841781e+000 -9.643443e+000 68 56 37
2.541711e+000 1.778827e+000 -9.916966e+000 110 98 74
2.751123e+000 1.633286e+000 -9.753766e+000 88 77 58
3.429118e+000 1.924977e+000 -1.098751e+001 114 92 71
3.590378e+000 1.911288e+000 -1.121057e+001 111 86 65
3.384845e+000 1.826454e+000 -1.081564e+001 81 59 36
3.397126e+000 1.829535e+000 -1.084598e+001 81 59 36
3.929290e+000 1.943127e+000 -1.139423e+001 121 96 74
4.193346e+000 1.769545e+000 -1.132631e+001 154 129 104
2.929951e-001 1.210697e+000 -9.049948e+000 190 154 145
8.221677e-001 1.363625e+000 -9.489865e+000 185 142 130
1.648543e+000 1.402562e+000 -9.241642e+000 146 150 126
1.981375e+000 1.439985e+000 -9.329465e+000 188 166 142
2.776503e+000 1.588783e+000 -9.710683e+000 64 52 30
5.114924e+000 1.522924e+000 -1.178908e+001 167 139 134
5.114924e+000 1.522924e+000 -1.178908e+001 167 139 134
5.229794e+000 1.683233e+000 -1.164378e+001 236 187 185
5.306649e+000 1.706270e+000 -1.150966e+001 220 138 145
5.306829e+000 1.706156e+000 -1.151022e+001 220 138 145
5.197938e+000 1.648823e+000 -1.175744e+001 202 126 117
-1.611876e+000 1.015463e+000 -9.121479e+000 192 175 154
1.933977e+000 1.167288e+000 -9.039057e+000 188 179 161
3.470254e+000 1.347433e+000 -1.027658e+001 83 61 38
5.495221e+000 1.373955e+000 -1.108209e+001 214 89 75
-2.678193e+000 5.723713e-001 -8.997069e+000 104 62 44
-2.750689e+000 5.225568e-001 -9.043539e+000 214 205 201
8.347541e-001 8.971050e-001 -9.220943e+000 142 99 75
1.361809e+000 9.100281e-001 -9.992255e+000 93 55 32
1.930087e+000 7.975525e-001 -8.693181e+000 106 110 82
2.915722e+000 9.584619e-001 -9.041422e+000 84 76 55
3.056225e+000 1.002791e+000 -9.028738e+000 86 72 46
3.624998e+000 9.642988e-001 -9.887169e+000 77 57 33
4.323988e+000 9.730212e-001 -1.040269e+001 139 111 87
-1.852529e+000 4.129178e-001 -9.875971e+000 107 90 78
5.110894e-001 6.309521e-001 -9.296802e+000 144 107 89
1.590932e+000 7.329609e-001 -8.973410e+000 191 163 103
1.949853e+000 7.451259e-001 -8.556831e+000 99 104 74
2.638906e+000 7.864163e-001 -8.659780e+000 63 53 39
-1.384238e+000 1.900768e-001 -9.670550e+000 110 83 66
-9.151155e-001 1.822616e-001 -9.817854e+000 187 131 126
2.418956e+000 5.240374e-001 -9.019078e+000 44 30 29
2.471827e+000 3.451592e-001 -8.575053e+000 81 73 62
2.471827e+000 3.451592e-001 -8.575053e+000 81 73 62
2.487979e+000 3.964264e-001 -8.587886e+000 80 73 63
2.495085e+000 3.946965e-001 -8.609913e+000 80 73 63
3.052175e+000 3.289651e-001 -8.920342e+000 124 117 96
-1.591462e+000 -3.792134e-001 -1.067787e+001 179 143 127
-1.302660e+000 -4.411234e-001 -1.057006e+001 155 110 99
1.342739e-002 -1.624366e-001 -8.942889e+000 190 148 135
