ply
format ascii 1.0
element face 0
property list uchar int vertex_indices
element vertex 874
property float x
property float y
property float z
property uchar diffuse_red
property uchar diffuse_green
property uchar diffuse_blue
end_header
-3.788520e+000 2.024617e+000 -8.173278e+000 166 139 105
1.349948e+000 2.588887e+000 -1.026219e+001 133 114 90
3.043364e+000 2.194970e+000 -1.075748e+001 99 74 51
2.417791e-001 1.648590e+000 -9.628257e+000 177 124 118
2.775981e+000 1.805908e+000 -9.672036e+000 98 81 61
3.680995e+000 2.116890e+000 -1.109656e+001 98 73 51
3.636570e+000 1.824369e+000 -1.074899e+001 95 70 48
5.339645e+000 1.929008e+000 -1.198264e+001 222 216 210
1.914240e+000 1.339038e+000 -8.993464e+000 173 158 135
4.733573e+000 1.440814e+000 -1.106781e+001 116 86 60
4.835898e+000 1.043885e+000 -1.056483e+001 148 118 90
1.600794e+000 6.779034e-001 -8.814974e+000 174 144 74
3.675120e+000 1.574429e-001 -9.218426e+000 98 79 62
8.231940e-001 -7.724768e-001 -9.675905e+000 118 90 68
6.140814e-001 -1.395283e+000 -9.861949e+000 191 181 156
1.128274e+000 -1.269309e+000 -9.652562e+000 146 124 100
5.226088e+000 -1.901967e+000 -1.153700e+001 233 169 66
4.518596e+000 -2.733319e+000 -1.238841e+001 160 118 68
2.780137e+000 -5.446484e+000 -1.486891e+001 186 158 142
3.568612e+000 -4.951705e+000 -1.373789e+001 161 153 151
2.627365e+000 -5.640689e+000 -1.506852e+001 149 143 145
2.866466e+000 -5.608562e+000 -1.474756e+001 200 187 195
-3.609253e+000 2.803085e+000 -8.474990e+000 157 113 108
-5.397039e-001 4.858337e+000 -2.143258e+001 247 215 139
3.752353e+000 3.776979e+000 -1.512867e+001 183 109 80
5.695884e+000 3.289952e+000 -1.150791e+001 174 94 97
1.591894e+000 2.002989e+000 -9.820497e+000 187 162 139
4.081389e+000 2.176726e+000 -1.144088e+001 107 79 57
-3.256405e+000 1.060274e+000 -8.843230e+000 159 135 114
-7.710550e-002 8.306101e-001 -9.392937e+000 165 120 99
1.874272e+000 7.245241e-001 -8.660582e+000 138 143 108
4.669250e+000 3.595905e-001 -9.859992e+000 97 73 49
-3.392022e-001 -4.823434e-001 -8.987807e+000 218 192 175
3.884588e+000 -4.112961e-001 -9.689314e+000 110 89 69
4.569459e+000 -3.331998e-001 -9.878473e+000 93 69 45
4.924640e+000 -3.636011e-001 -1.014932e+001 98 74 50
5.257870e+000 -1.413180e+000 -1.143567e+001 125 61 45
-1.097729e+000 -3.306543e+000 -1.335021e+001 218 221 219
-1.097729e+000 -3.306543e+000 -1.335021e+001 218 221 219
-1.717966e-001 -2.206497e+000 -1.060255e+001 172 137 74
-4.950527e-001 -4.438854e+000 -1.229649e+001 222 226 228
2.668324e+000 -5.696776e+000 -1.490936e+001 201 177 155
3.592169e+000 -5.233551e+000 -1.384755e+001 191 94 58
3.849180e+000 3.842181e+000 -1.500276e+001 233 186 104
1.410612e+000 2.402456e+000 -1.022158e+001 126 105 78
1.618428e+000 2.093886e+000 -9.890018e+000 245 243 231
5.719243e+000 2.392323e+000 -1.118417e+001 143 110 65
7.036184e-001 1.322876e+000 -9.264884e+000 174 132 122
2.767593e+000 1.275449e+000 -9.031566e+000 42 34 30
5.427150e+000 1.543755e+000 -1.172047e+001 177 94 98
5.113601e+000 1.284159e-001 -1.012619e+001 102 75 51
3.736835e+000 -4.916480e+000 -1.338426e+001 185 85 53
6.299009e-001 1.773418e+000 -9.376509e+000 180 140 130
1.766532e+000 1.252617e+000 -8.926859e+000 116 115 86
1.575765e+000 9.574267e-001 -8.969929e+000 177 165 119
-1.154959e+001 -3.549767e+000 -4.279944e+001 230 230 228
4.464222e+000 -2.574477e-001 -9.838502e+000 128 105 86
2.828133e+000 -4.192117e+000 -1.332061e+001 139 115 89
2.415518e+000 -1.866287e+000 -1.064060e+001 153 147 133
1.524952e+000 4.988384e-001 -8.925939e+000 204 193 168
5.827192e+000 -8.663263e-001 -1.089888e+001 236 189 69
-5.435393e-001 -4.164639e+000 -1.222485e+001 96 98 76
5.154850e+000 3.864595e+000 -1.201755e+001 240 164 140
3.619787e+000 -2.438742e+000 -1.172478e+001 101 81 54
1.067820e+000 1.019103e+000 -9.556683e+000 138 95 76
1.202662e+000 3.085199e+000 -1.102952e+001 190 165 137
1.670326e+000 3.153816e+000 -1.076997e+001 93 76 58
3.915986e+000 2.379806e+000 -1.159922e+001 125 98 74
1.288208e+000 2.012423e+000 -9.923209e+000 210 184 155
1.394630e+000 2.017314e+000 -9.868185e+000 148 118 90
1.218301e+000 1.548438e+000 -9.971368e+000 116 80 56
1.256785e+000 1.535163e+000 -9.972929e+000 141 106 82
2.810968e+000 1.462065e+000 -9.353408e+000 86 74 55
5.726697e+000 1.466944e+000 -1.150530e+001 230 158 148
1.320671e+000 1.340877e+000 -9.933778e+000 115 79 53
-1.951172e+000 8.886564e-001 -9.248251e+000 132 116 90
1.626212e+000 6.916204e-001 -8.802437e+000 176 149 102
2.632098e+000 5.523892e-001 -8.488650e+000 142 137 108
-1.855322e+000 4.694568e-001 -9.380982e+000 152 119 100
6.269431e-001 6.234293e-001 -9.322529e+000 163 120 97
2.322986e+000 3.206135e-001 -8.048791e+000 155 150 130
3.102931e+000 4.885037e-001 -8.800632e+000 74 62 50
-1.733715e+000 1.979777e-001 -9.606350e+000 112 84 63
1.970093e+000 1.440147e-001 -8.568261e+000 188 167 140
5.818284e+000 -1.264259e-001 -1.044461e+001 169 125 95
-2.076514e+000 8.884892e-002 -1.070061e+001 181 146 126
-1.984349e+000 -2.245131e-004 -1.062353e+001 156 110 89
1.696425e+000 -4.423966e-002 -8.648601e+000 148 127 94
2.215513e+000 -1.351850e-001 -8.753817e+000 127 118 100
3.160245e+000 -2.084477e-001 -9.244636e+000 130 114 98
-2.152728e+000 -2.473500e-001 -1.064276e+001 207 164 141
-3.751063e-001 -4.695663e-001 -9.035517e+000 230 200 179
2.635000e+000 -6.717440e-001 -9.564654e+000 68 51 39
3.385645e+000 -4.483176e-001 -9.462129e+000 95 73 53
9.591742e-001 -9.376687e-001 -9.665821e+000 176 156 132
1.555243e+000 -6.933627e-001 -9.073667e+000 213 197 174
1.688277e+000 -6.842124e-001 -9.081663e+000 106 83 58
2.172386e+000 -9.540900e-001 -9.990639e+000 98 89 77
4.710833e+000 -9.202801e-001 -1.064600e+001 99 69 43
-1.860550e+000 -1.023219e+000 -1.000402e+001 224 186 175
-1.456804e+000 -1.126727e+000 -9.865857e+000 207 158 144
-1.442051e+000 -1.164593e+000 -9.876147e+000 166 110 100
-9.513675e-001 -9.180309e-001 -9.416240e+000 211 171 159
6.353527e-001 -1.052084e+000 -9.612618e+000 76 72 50
1.117804e+000 -1.200197e+000 -9.600749e+000 139 119 90
1.257436e+000 -1.032279e+000 -9.457409e+000 203 184 155
2.255879e+000 -1.076750e+000 -9.952065e+000 111 102 73
3.003897e+000 -1.226873e+000 -1.034846e+001 79 58 39
3.250254e+000 -1.420644e+000 -1.059957e+001 96 78 56
3.903521e+000 -1.391579e+000 -1.085077e+001 92 68 44
5.325964e+000 -1.472024e+000 -1.150821e+001 165 78 50
5.569418e+000 -1.341511e+000 -1.097546e+001 97 84 72
-1.422927e+000 -1.366697e+000 -9.928759e+000 159 108 105
-1.711244e-001 -1.483687e+000 -1.007319e+001 205 177 157
-1.429848e-001 -1.609296e+000 -1.040718e+001 158 128 94
5.424628e-001 -1.307023e+000 -9.832098e+000 175 157 127
1.113249e+000 -1.342480e+000 -9.628822e+000 215 196 172
5.329956e-001 -1.692288e+000 -1.018551e+001 204 181 157
5.496968e-001 -1.907245e+000 -1.018028e+001 154 123 92
8.488767e-001 -1.916380e+000 -9.947326e+000 193 177 149
1.570326e+000 -1.741316e+000 -1.004743e+001 111 99 90
3.931494e+000 -2.060647e+000 -1.145089e+001 83 62 37
5.031337e+000 -2.639932e+000 -1.171245e+001 134 122 105
5.180735e+000 -2.428945e+000 -1.143229e+001 143 115 101
-1.189436e-001 -2.753897e+000 -1.078426e+001 178 152 97
4.925241e+000 -2.911748e+000 -1.179125e+001 163 154 148
4.951217e+000 -3.002377e+000 -1.173742e+001 214 185 176
4.133906e+000 -4.066286e+000 -1.277805e+001 220 191 142
9.444340e-001 6.414115e+000 -1.909375e+001 238 210 169
5.063185e+000 3.802665e+000 -1.281734e+001 226 136 121
5.768794e+000 3.355340e+000 -1.158593e+001 180 120 113
8.261419e-001 2.684049e+000 -1.051303e+001 163 129 94
5.362884e+000 2.739993e+000 -1.198580e+001 158 133 127
-3.902231e+000 2.020613e+000 -8.195384e+000 157 127 91
-4.066559e+000 1.859979e+000 -8.248018e+000 142 112 84
-8.698374e-002 2.151388e+000 -1.031766e+001 205 158 142
3.468729e+000 2.106109e+000 -1.104674e+001 118 93 71
-4.367157e+000 1.686854e+000 -8.703434e+000 109 81 57
5.469455e+000 1.790352e+000 -1.186969e+001 206 129 120
-3.312331e+000 1.107665e+000 -8.831555e+000 83 65 56
-1.312151e+000 5.001901e-001 -9.413709e+000 143 94 82
6.682216e-001 6.069014e-001 -9.362591e+000 136 91 68
-1.706588e+000 2.420687e-001 -9.612371e+000 107 81 64
3.616788e+000 -1.687447e-002 -9.416407e+000 88 67 50
1.727893e+000 -3.167290e-001 -8.765782e+000 178 164 141
2.283793e+000 -3.380165e-001 -9.007266e+000 111 100 81
5.333703e+000 -3.010189e-001 -1.029964e+001 135 101 73
-1.899036e+000 -3.349719e-001 -1.072382e+001 162 120 101
1.634261e+000 -5.288578e-001 -9.004492e+000 199 183 160
-1.992373e+000 -7.591063e-001 -1.069419e+001 216 181 159
-6.129956e-001 -8.529807e-001 -9.292827e+000 170 118 107
8.507338e-001 -8.911467e-001 -9.668711e+000 144 114 91
2.402088e+000 -7.911674e-001 -9.873364e+000 240 238 201
2.309240e+000 -9.774381e-001 -9.885680e+000 104 95 65
2.310996e+000 -9.777462e-001 -9.891141e+000 104 95 65
3.463260e+000 -8.954085e-001 -1.024568e+001 87 70 44
5.661023e+000 -9.244797e-001 -1.091238e+001 212 194 187
5.631528e+000 -1.110717e+000 -1.100094e+001 89 76 63
-9.710533e-001 -9.940102e-001 -9.296192e+000 190 148 139
1.742769e+000 -9.971342e-001 -9.587843e+000 65 56 46
2.345224e+000 -1.047162e+000 -9.891384e+000 74 62 41
2.325023e+000 -1.085748e+000 -9.897507e+000 73 65 41
3.113493e+000 -1.206382e+000 -1.029332e+001 76 55 36
3.691993e+000 -1.294832e+000 -1.070777e+001 62 43 23
4.605564e+000 -1.246654e+000 -1.094320e+001 116 89 59
3.670418e-001 -1.542369e+000 -1.030549e+001 154 126 102
7.207509e-001 -1.558597e+000 -9.984990e+000 163 141 112
3.668445e+000 -1.690693e+000 -1.109119e+001 114 92 69
3.631088e+000 -1.834694e+000 -1.119916e+001 88 68 43
6.490241e-001 -1.897506e+000 -1.011509e+001 155 133 110
4.053800e+000 -2.012504e+000 -1.148995e+001 91 65 40
4.053800e+000 -2.012504e+000 -1.148995e+001 91 65 40
4.304437e+000 -2.040198e+000 -1.160822e+001 99 72 45
-5.528787e-001 -2.295972e+000 -1.060471e+001 146 121 82
-4.583736e-001 -2.331732e+000 -1.048655e+001 202 172 109
5.074233e+000 -2.536501e+000 -1.162628e+001 201 186 178
4.999171e+000 -2.793277e+000 -1.169303e+001 117 102 87
4.345638e-001 -2.816416e+000 -1.070608e+001 216 197 182
4.342723e+000 -3.838563e+000 -1.249769e+001 117 99 90
4.464060e+000 -3.677484e+000 -1.239141e+001 211 179 173
-1.211709e-001 -3.890825e+000 -1.157803e+001 205 188 168
5.142259e+000 4.388532e+000 -1.308958e+001 210 173 112
-4.220234e+000 2.584908e+000 -8.571028e+000 176 109 107
1.206943e+000 2.593906e+000 -1.029982e+001 132 131 100
-3.820046e+000 2.041058e+000 -8.016152e+000 159 129 93
-3.955768e+000 1.990733e+000 -8.211794e+000 134 104 68
-3.919465e+000 1.968420e+000 -8.191987e+000 157 127 93
1.606009e-001 2.405887e+000 -1.017614e+001 192 149 136
2.684295e-001 1.791342e+000 -9.557100e+000 185 132 121
3.845281e+000 1.803560e+000 -1.090249e+001 119 93 70
5.535863e+000 1.923514e+000 -1.176986e+001 235 222 222
-4.098844e+000 1.459821e+000 -8.312864e+000 115 86 53
1.629898e+000 1.471084e+000 -9.189697e+000 125 130 101
5.627981e+000 1.773585e+000 -1.152403e+001 229 210 205
5.760055e+000 1.709316e+000 -1.139119e+001 211 183 162
6.414869e-002 1.061386e+000 -9.040329e+000 188 152 138
3.846027e+000 1.179920e+000 -1.016165e+001 93 67 42
4.870419e+000 1.048715e+000 -1.068006e+001 146 114 89
1.728244e+000 7.200082e-001 -8.690649e+000 146 117 78
1.398997e+000 8.294073e-002 -9.032253e+000 128 134 97
1.519770e+000 2.777725e-001 -8.902331e+000 98 101 70
1.519770e+000 2.777725e-001 -8.902331e+000 98 101 70
2.090519e+000 2.125088e-001 -8.471670e+000 127 104 72
2.137080e+000 6.261145e-002 -8.545425e+000 95 79 66
2.515061e+000 2.252023e-001 -8.528334e+000 78 67 49
4.061548e+000 6.372909e-002 -9.545582e+000 86 61 39
4.714690e+000 2.081741e-001 -9.879567e+000 86 62 38
5.129693e+000 -4.201717e-001 -1.029614e+001 105 77 53
5.135019e+000 -4.203779e-001 -1.030612e+001 105 77 53
1.797831e+000 -3.294123e-001 -8.733228e+000 196 179 152
-7.184178e-001 -8.543139e-001 -9.329853e+000 168 102 95
1.113209e+000 -8.898243e-001 -9.478991e+000 189 168 136
2.043069e+000 -6.588150e-001 -9.277320e+000 114 108 95
3.505009e+000 -1.456269e+000 -1.083098e+001 84 66 42
4.259013e+000 -1.297847e+000 -1.084679e+001 98 74 50
5.439485e-001 -1.286974e+000 -9.820979e+000 180 161 129
2.108572e+000 -1.551021e+000 -1.015653e+001 61 53 34
3.972558e+000 -1.687253e+000 -1.117544e+001 90 68 41
5.096081e+000 -1.802572e+000 -1.205985e+001 167 124 90
5.493194e+000 -1.717024e+000 -1.110229e+001 233 218 213
5.593080e+000 -1.611532e+000 -1.093553e+001 200 119 37
-1.062277e+000 -2.056256e+000 -1.168326e+001 169 119 109
5.912710e-001 -1.868410e+000 -1.009784e+001 214 197 170
2.905447e+000 -1.954529e+000 -1.102112e+001 72 56 33
1.701598e+000 -2.217034e+000 -1.033917e+001 49 39 29
2.453454e+000 -2.568503e+000 -1.129650e+001 80 62 38
3.530242e+000 -2.303714e+000 -1.146143e+001 99 73 46
9.123887e-001 -2.767827e+000 -1.101056e+001 64 54 44
4.906017e+000 -2.869444e+000 -1.197868e+001 235 208 141
2.603306e+000 -3.563760e+000 -1.253949e+001 97 75 53
4.431601e+000 -3.691580e+000 -1.242809e+001 135 117 100
4.393817e+000 4.718515e+000 -1.439857e+001 204 140 88
-6.531041e-002 6.224643e+000 -2.093979e+001 151 111 107
-3.751658e+000 2.575278e+000 -8.309188e+000 112 86 68
1.604904e+000 2.081157e+000 -9.868829e+000 254 248 234
-4.018691e+000 1.768267e+000 -8.176176e+000 126 93 65
-4.038884e+000 1.715989e+000 -8.196436e+000 131 97 69
5.601733e+000 1.901423e+000 -1.158551e+001 229 220 221
5.329835e+000 1.837752e+000 -1.196836e+001 170 86 75
5.742280e+000 1.310459e+000 -1.120012e+001 216 186 167
3.035992e+000 7.319666e-001 -8.892210e+000 246 239 210
3.042736e+000 6.511745e-001 -8.880996e+000 251 250 227
-1.860528e+000 5.565061e-001 -9.308052e+000 155 133 110
3.002897e+000 2.431830e-001 -8.792496e+000 64 52 40
-2.143009e+000 3.458257e-001 -1.014045e+001 166 135 126
1.302500e+000 3.141497e-001 -9.557956e+000 187 160 139
3.035209e+000 5.424107e-002 -8.865973e+000 62 52 37
-1.276930e+000 -5.652565e-002 -1.043427e+001 136 89 81
3.762323e+000 -2.444624e-001 -9.556189e+000 84 61 38
4.717538e+000 -5.285947e-001 -1.025950e+001 84 58 33
2.287668e+000 -1.196154e+000 -1.000649e+001 60 51 34
1.054289e+000 -1.313684e+000 -9.732723e+000 146 122 96
3.363455e+000 -1.804223e+000 -1.106322e+001 109 89 65
4.162792e+000 -1.811627e+000 -1.137528e+001 132 107 80
1.160032e+000 -1.638421e+000 -9.698206e+000 129 101 75
3.479484e+000 -2.167915e+000 -1.136448e+001 114 90 66
3.477823e+000 -2.166272e+000 -1.134494e+001 114 90 66
4.178207e+000 -1.960718e+000 -1.146261e+001 117 92 64
1.033648e+000 -2.622918e+000 -1.066614e+001 64 52 38
4.915802e+000 -2.806956e+000 -1.184768e+001 235 206 173
2.372659e+000 -3.528412e+000 -1.239985e+001 101 81 61
6.125727e-001 -3.287086e+000 -1.135011e+001 137 129 114
2.736357e+000 -3.710212e+000 -1.273340e+001 99 77 54
2.847637e-001 6.645353e+000 -2.055109e+001 238 211 138
1.027690e+000 6.355889e+000 -1.945244e+001 232 210 167
1.698343e+000 6.074276e+000 -1.816011e+001 145 95 84
1.806414e+000 5.994198e+000 -1.809160e+001 209 176 171
5.222734e+000 3.953826e+000 -1.237796e+001 243 226 218
1.263840e+000 5.868322e+000 -1.872066e+001 147 103 94
-6.425954e-001 5.491686e+000 -2.140489e+001 240 193 163
5.863060e+000 2.510901e+000 -1.107330e+001 160 126 81
-3.828140e+000 1.844227e+000 -8.174087e+000 151 125 92
2.714164e-001 1.388929e+000 -9.045967e+000 131 83 71
8.143907e-001 1.386593e+000 -9.490239e+000 143 100 83
2.436216e+000 1.179842e+000 -8.714183e+000 111 103 84
-2.056378e+000 9.765775e-001 -9.182654e+000 177 158 141
2.815762e+000 -1.109791e-002 -8.982208e+000 44 35 26
5.056586e+000 -4.408397e-001 -1.029928e+001 130 103 78
5.501144e+000 -1.581678e-001 -1.038728e+001 128 93 61
-2.947314e-001 -3.313407e-001 -8.845742e+000 224 192 174
3.698826e+000 -4.972595e-001 -9.779111e+000 86 64 41
3.619994e+000 -7.015469e-001 -9.891747e+000 87 65 43
-1.164078e+000 -1.196337e+000 -9.673955e+000 167 112 99
1.275143e+000 -1.713587e+000 -9.942574e+000 57 40 28
1.624690e+000 -2.027803e+000 -1.004203e+001 83 73 63
2.590654e+000 -2.800124e+000 -1.164567e+001 98 76 52
2.591099e+000 -2.800006e+000 -1.164454e+001 98 76 52
2.826805e+000 -3.450925e+000 -1.248081e+001 91 69 45
-5.339219e-001 -3.469154e+000 -1.212060e+001 167 164 132
5.047825e-001 -3.441898e+000 -1.160951e+001 53 45 34
2.147741e+000 -4.227000e+000 -1.297999e+001 97 72 50
1.775921e+000 6.235088e+000 -1.809772e+001 238 212 164
1.913885e+000 6.108008e+000 -1.794920e+001 143 97 80
1.913885e+000 6.108008e+000 -1.794920e+001 143 97 80
4.629355e+000 4.320464e+000 -1.311053e+001 217 121 88
-3.586219e-001 5.607948e+000 -2.068854e+001 164 125 117
-3.902241e+000 2.109885e+000 -8.099571e+000 140 107 72
5.126484e+000 2.572501e+000 -1.251916e+001 233 180 98
-3.407211e+000 1.722004e+000 -8.135849e+000 135 103 74
4.609468e+000 6.216124e-001 -9.995555e+000 116 89 62
5.860191e+000 4.776028e-001 -1.077821e+001 166 132 104
-1.238684e-001 -4.469262e-001 -8.664217e+000 153 112 90
2.588220e+000 -1.099643e+000 -1.000424e+001 124 109 90
2.778063e-001 -1.352058e+000 -1.008637e+001 169 142 115
2.667854e+000 -1.612598e+000 -1.044921e+001 106 85 64
4.882950e+000 -2.717631e+000 -1.211536e+001 241 183 76
2.624054e+000 -3.012610e+000 -1.191331e+001 115 93 69
3.761620e+000 -4.736968e+000 -1.328458e+001 232 184 76
-4.421179e+000 2.219958e+000 -8.847083e+000 217 213 211
1.567161e-001 1.369831e+000 -8.994616e+000 214 181 165
1.333517e+000 1.092429e+000 -9.776236e+000 130 88 64
5.111186e+000 6.731073e-001 -1.040858e+001 154 120 92
-4.152686e-001 1.546403e-001 -9.395414e+000 163 118 102
-6.001497e-001 -1.156285e-001 -9.547070e+000 214 170 159
-2.597060e-002 -3.347077e-001 -8.619474e+000 158 115 98
5.692483e+000 -7.297879e-001 -1.085786e+001 163 109 48
1.238177e+000 -8.856209e-001 -9.293870e+000 217 202 176
-1.114815e+001 -5.420655e+000 -4.146100e+001 179 169 149
-4.797537e-001 -3.597948e+000 -1.206102e+001 145 127 103
8.844792e-001 6.334937e+000 -1.959637e+001 154 111 98
5.276019e+000 2.683361e+000 -1.238752e+001 221 184 165
5.721198e-001 -2.188671e+000 -1.053401e+001 160 124 88
7.242686e-001 -2.261016e+000 -1.019264e+001 239 232 213
1.523090e-001 -3.321065e+000 -1.122273e+001 221 208 189
4.024458e+000 1.173918e+000 -1.019888e+001 139 112 85
5.699382e+000 1.312213e+000 -1.124308e+001 218 185 163
2.561375e+000 -8.616511e-001 -9.731460e+000 70 53 36
4.926024e+000 -3.265588e+000 -1.158580e+001 199 119 37
5.967282e+000 2.031387e+000 -1.103982e+001 206 157 53
1.991953e-001 7.045210e-001 -9.200967e+000 157 112 87
-3.672064e+000 2.068551e+000 -8.083437e+000 154 126 87
2.596413e+000 -3.666312e+000 -1.276710e+001 106 85 64
5.793668e+000 -1.907221e+000 -1.207864e+001 103 96 76
5.873126e+000 3.286282e+000 -1.106645e+001 206 195 202
2.579525e-001 2.375368e+000 -1.007508e+001 204 159 153
2.315977e-001 2.305366e+000 -1.004400e+001 197 153 144
2.172476e-001 2.227748e+000 -1.009208e+001 197 153 130
4.008470e-001 1.904099e+000 -9.413651e+000 197 150 142
1.678785e+000 2.008513e+000 -9.758902e+000 178 155 136
1.938306e+000 2.250801e+000 -9.898341e+000 119 104 86
5.717152e+000 2.420925e+000 -1.133190e+001 124 96 76
4.402405e-001 1.824126e+000 -9.464354e+000 210 164 159
6.194347e-001 1.555264e+000 -9.459876e+000 166 126 111
6.194347e-001 1.555264e+000 -9.459876e+000 166 126 111
6.589651e-001 1.666055e+000 -9.404301e+000 188 146 130
1.089899e+000 1.864118e+000 -9.796140e+000 174 143 118
3.483140e+000 2.064911e+000 -1.096299e+001 96 72 50
2.197355e+000 1.546401e+000 -9.209579e+000 117 104 88
3.793362e+000 1.584335e+000 -1.060039e+001 124 102 79
5.534208e+000 1.835329e+000 -1.168915e+001 236 213 209
4.147911e-001 8.025057e-001 -8.968889e+000 188 156 135
1.331658e+000 4.911613e-001 -9.729496e+000 190 162 142
3.244872e+000 4.890792e-001 -8.754555e+000 61 47 34
3.333398e+000 6.157987e-001 -9.006159e+000 59 45 31
4.716914e+000 1.979990e-001 -9.920191e+000 81 59 35
-2.002768e+000 -4.346015e-001 -1.083052e+001 185 147 124
2.553998e+000 6.416098e-002 -8.583401e+000 61 50 32
4.308774e+000 -8.712988e-002 -9.705736e+000 97 75 52
3.337837e+000 -1.253575e+000 -1.047482e+001 75 57 37
5.455011e+000 -1.138228e+000 -1.122817e+001 173 109 56
5.556246e+000 -1.083426e+000 -1.104767e+001 219 173 68
5.738295e+000 -9.501140e-001 -1.072586e+001 221 172 83
4.245208e+000 -1.648586e+000 -1.126466e+001 86 62 36
5.291793e+000 -1.714052e+000 -1.136919e+001 225 157 60
5.599839e+000 -1.315736e+000 -1.091944e+001 131 113 104
8.665609e-001 -1.750605e+000 -9.913792e+000 181 148 109
3.962110e+000 -1.835920e+000 -1.131822e+001 99 77 53
4.091063e+000 -2.100936e+000 -1.156234e+001 89 68 41
5.137957e+000 -2.265379e+000 -1.155755e+001 191 106 69
5.237324e+000 -2.264321e+000 -1.146764e+001 120 109 105
5.280202e+000 -2.310729e+000 -1.122860e+001 212 136 68
5.105528e+000 -2.681482e+000 -1.148892e+001 159 89 68
4.326559e+000 -3.809777e+000 -1.257981e+001 224 194 155
4.990676e+000 4.051780e+000 -1.290368e+001 222 210 205
5.434376e+000 3.307856e+000 -1.182854e+001 168 87 84
1.342606e+000 1.978740e+000 -9.924984e+000 171 147 119
5.381295e+000 1.712327e+000 -1.189422e+001 194 165 156
5.605316e+000 1.854516e+000 -1.157700e+001 233 198 204
7.070473e-002 1.189675e+000 -9.001106e+000 185 151 141
2.069592e+000 1.095776e+000 -8.661855e+000 180 165 143
-1.841013e+000 6.119895e-001 -9.237734e+000 100 83 63
-1.683864e+000 6.307006e-001 -9.163954e+000 111 95 77
1.726463e+000 7.219069e-001 -8.686624e+000 148 120 80
2.703792e+000 5.482335e-001 -8.504262e+000 63 54 47
3.135215e+000 5.437087e-001 -8.787908e+000 58 48 28
3.935592e+000 3.271307e-001 -9.436845e+000 97 75 52
8.037981e-001 -8.584044e-001 -9.628880e+000 113 88 64
2.550326e+000 -7.795277e-001 -9.569787e+000 69 55 39
3.346959e+000 -7.645145e-001 -9.910448e+000 91 73 54
-4.801135e-001 -1.012648e+000 -9.220993e+000 139 90 79
4.701655e+000 -1.354803e+000 -1.115127e+001 107 80 51
5.311575e+000 -1.261559e+000 -1.139437e+001 157 120 95
4.118388e+000 -2.021006e+000 -1.151748e+001 90 66 41
4.109785e+000 -2.064644e+000 -1.156163e+001 110 89 62
8.204264e-001 -2.056939e+000 -1.005921e+001 239 233 209
3.651257e+000 -2.611505e+000 -1.189248e+001 103 79 53
5.072427e+000 -2.730080e+000 -1.167930e+001 217 210 201
8.028000e-001 5.528019e+000 -1.965918e+001 236 194 173
5.489399e+000 3.976074e+000 -1.196408e+001 225 144 112
5.489399e+000 3.976074e+000 -1.196408e+001 225 144 112
-4.080750e-001 5.063867e+000 -2.131713e+001 226 164 154
5.058262e+000 3.817972e+000 -1.271415e+001 229 139 113
-3.879451e+000 2.276430e+000 -8.246194e+000 147 118 86
5.941414e+000 2.881268e+000 -1.087678e+001 152 136 130
1.828631e+000 2.495351e+000 -1.024427e+001 56 36 24
2.033884e+000 2.161462e+000 -9.770786e+000 135 127 108
1.954798e+000 1.205339e+000 -8.902231e+000 175 159 138
3.965633e+000 1.248276e+000 -1.030528e+001 98 72 47
4.207522e+000 2.730898e-001 -9.568213e+000 81 59 38
1.481999e+000 -5.243125e-001 -9.223259e+000 153 125 104
2.860788e+000 -2.384710e-001 -9.103913e+000 66 56 41
5.830287e+000 -8.950033e-001 -1.072718e+001 217 132 46
5.470349e+000 -1.582427e+000 -1.115254e+001 229 219 224
2.760584e+000 -1.770636e+000 -1.074338e+001 86 68 45
2.808456e+000 -1.791158e+000 -1.070842e+001 104 86 65
5.426657e+000 -1.764976e+000 -1.113082e+001 233 217 208
4.790366e+000 -2.636943e+000 -1.212448e+001 214 130 59
5.151065e+000 -2.359666e+000 -1.155854e+001 101 84 76
2.386039e+000 -3.543655e+000 -1.248757e+001 102 81 60
4.779966e+000 4.351452e+000 -1.328260e+001 239 150 106
4.779966e+000 4.351452e+000 -1.328260e+001 239 150 106
4.678107e+000 4.079212e+000 -1.338825e+001 235 161 101
-3.922556e+000 2.306739e+000 -8.270996e+000 107 76 53
5.484061e+000 1.808960e+000 -1.178121e+001 226 217 214
5.749105e+000 1.240593e+000 -1.100099e+001 215 90 77
5.749105e+000 1.240593e+000 -1.100099e+001 215 90 77
1.221954e+000 6.092859e-001 -9.723044e+000 175 139 117
1.795012e+000 2.147199e-001 -8.728960e+000 148 118 93
2.412071e+000 2.789484e-001 -8.489357e+000 148 144 124
2.483840e+000 -3.734017e+000 -1.265502e+001 111 92 67
4.923616e+000 -3.162953e+000 -1.166006e+001 225 175 69
1.399013e-001 5.716505e+000 -2.059315e+001 153 111 107
5.779716e+000 3.284075e+000 -1.132271e+001 176 96 100
-3.831451e+000 2.360560e+000 -8.274652e+000 141 112 80
4.160850e+000 3.655840e+000 -1.448302e+001 207 142 97
4.868395e+000 3.336463e+000 -1.316058e+001 222 158 110
-4.015519e+000 1.874614e+000 -8.210047e+000 123 94 64
1.492785e+000 8.289401e-001 -9.035300e+000 200 171 91
4.251552e+000 -3.593736e+000 -1.275314e+001 227 164 67
-3.292311e+000 2.140287e+000 -8.185481e+000 138 114 83
-3.981441e+000 2.009954e+000 -8.230815e+000 136 106 70
-3.831473e+000 1.401404e+000 -8.123434e+000 112 84 60
4.950745e+000 -2.341853e+000 -1.208107e+001 178 84 56
4.075903e+000 1.792292e+000 -1.108094e+001 104 79 52
3.570806e+000 -4.358307e+000 -1.377406e+001 138 83 44
3.570806e+000 -4.358307e+000 -1.377406e+001 138 83 44
-2.738942e+000 1.654119e+000 -8.544164e+000 128 106 90
5.632525e+000 3.405866e+000 -1.159642e+001 182 92 91
1.805847e+000 2.968083e+000 -1.052728e+001 117 102 80
1.412264e+000 2.880647e+000 -1.060353e+001 210 190 163
8.282154e-002 2.304377e+000 -1.019790e+001 219 183 159
5.086266e-001 2.353408e+000 -1.008029e+001 208 162 145
5.086266e-001 2.353408e+000 -1.008029e+001 208 162 145
1.108670e+000 2.001108e+000 -9.881858e+000 187 154 127
1.736603e+000 2.151140e+000 -1.006067e+001 171 146 116
2.486686e+000 1.592748e+000 -9.310316e+000 82 67 48
1.849430e+000 1.546143e+000 -9.320314e+000 219 206 179
2.661630e+000 9.011097e-001 -8.600852e+000 167 156 136
2.661630e+000 9.011097e-001 -8.600852e+000 167 156 136
2.903536e+000 1.036178e+000 -9.011857e+000 53 41 29
4.865132e+000 1.477065e+000 -1.129328e+001 124 97 70
1.294888e+000 1.537837e+000 -9.923881e+000 152 116 92
1.595303e+000 9.866515e-001 -8.807189e+000 167 155 117
1.601545e+000 8.901475e-001 -8.656470e+000 164 146 100
2.020009e+000 9.580216e-001 -8.739269e+000 238 228 204
2.626362e+000 5.363249e-001 -8.546412e+000 152 144 123
2.742101e+000 6.023256e-001 -8.620258e+000 77 66 49
-3.630207e-002 1.086118e+000 -9.189392e+000 187 139 124
1.489877e-001 8.411529e-001 -9.188239e+000 185 143 121
2.876867e-001 8.043422e-001 -8.970475e+000 178 141 123
1.877558e-001 8.286125e-001 -9.088056e+000 195 159 135
1.514594e+000 8.631903e-001 -9.036752e+000 194 165 86
1.634109e+000 6.767719e-001 -8.929495e+000 179 154 96
1.919825e+000 5.599108e-001 -8.646057e+000 114 118 83
2.049138e+000 5.309402e-001 -8.409734e+000 138 143 109
3.189879e+000 3.751217e-001 -8.996529e+000 236 225 206
3.256368e+000 3.664248e-001 -8.842207e+000 69 53 38
1.935075e+000 5.431615e-002 -8.666455e+000 231 223 203
2.232807e+000 2.658706e-002 -8.565093e+000 99 90 76
2.541571e+000 9.364199e-002 -8.578401e+000 96 86 69
2.932706e+000 3.669782e-002 -9.114237e+000 182 172 147
-1.459993e+000 4.669472e-001 -9.289494e+000 155 113 99
-1.167594e+000 5.070355e-001 -9.217892e+000 144 107 88
1.451028e+000 2.285052e-001 -9.426775e+000 160 144 117
1.865895e+000 -1.797838e-001 -8.740163e+000 172 157 136
1.740346e+000 -1.968770e-001 -8.744588e+000 192 183 167
2.166184e+000 -2.149012e-001 -8.905344e+000 133 123 102
2.362330e+000 -2.215298e-001 -8.866628e+000 97 83 70
2.727789e+000 -2.470000e-001 -9.192220e+000 241 236 208
2.847804e+000 -1.984584e-001 -9.075141e+000 220 211 184
2.849946e+000 -3.001583e-001 -9.312289e+000 233 224 199
3.130222e+000 -2.465577e-001 -9.284370e+000 143 126 111
-1.680484e+000 1.562556e-001 -9.513138e+000 157 131 108
-1.573778e+000 1.910429e-001 -9.578818e+000 174 134 122
-5.935398e-001 2.193685e-002 -9.560425e+000 167 122 111
2.876052e-001 -2.725230e-001 -8.720401e+000 152 112 95
1.721965e+000 -3.453542e-001 -8.823118e+000 228 215 196
2.062823e+000 -3.734842e-001 -9.073913e+000 128 113 94
2.388005e+000 -2.877371e-001 -9.091689e+000 106 90 75
2.217445e+000 -4.546127e-001 -9.153365e+000 81 70 53
2.631634e+000 -3.571797e-001 -9.410802e+000 120 108 87
-1.620252e+000 1.247250e-001 -9.713184e+000 162 124 112
-1.428383e+000 7.732803e-002 -9.835369e+000 142 107 95
-1.468842e+000 6.251821e-002 -9.813954e+000 158 118 108
-2.998191e-001 -3.883087e-001 -8.863471e+000 203 167 149
1.988299e+000 -6.310618e-001 -9.164735e+000 62 55 32
2.599876e+000 -7.298328e-001 -9.683801e+000 114 104 88
5.720563e+000 -8.559868e-001 -1.112295e+001 153 131 107
-2.092310e+000 -3.045845e-001 -1.036936e+001 186 138 116
1.405865e+000 -8.884912e-001 -9.301881e+000 189 168 141
-1.917946e+000 -5.238087e-001 -1.072825e+001 215 178 155
-8.679061e-001 -1.017261e+000 -9.192742e+000 214 171 164
-1.313379e-001 -1.104588e+000 -9.309128e+000 174 136 128
2.214256e+000 -1.324053e+000 -1.009611e+001 57 50 32
-6.828426e-001 -1.099102e+000 -9.066752e+000 179 138 130
1.067349e+000 -1.620964e+000 -9.681873e+000 191 179 155
1.494018e+000 -1.429795e+000 -9.611201e+000 60 50 40
-8.538476e-001 -1.598055e+000 -1.035184e+001 181 146 129
1.503777e-001 -1.531162e+000 -1.024881e+001 159 128 97
5.930109e-001 -1.735012e+000 -1.011301e+001 185 164 138
1.811854e+000 -2.062268e+000 -1.006747e+001 78 68 56
2.603219e+000 -1.874470e+000 -1.110082e+001 132 112 94
5.234165e+000 -2.249220e+000 -1.128221e+001 130 106 94
5.556468e+000 -2.653329e+000 -1.063368e+001 207 148 77
-1.023089e-001 -1.945259e+000 -1.047647e+001 149 117 74
8.648051e-001 -2.029342e+000 -9.945030e+000 217 196 169
8.659506e-001 -2.029384e+000 -9.946654e+000 217 196 169
1.042967e+000 -2.123838e+000 -1.012453e+001 133 124 107
1.216711e+000 -2.053828e+000 -1.003825e+001 177 166 149
1.216711e+000 -2.053828e+000 -1.003825e+001 177 166 149
1.111098e+000 -2.177005e+000 -1.002065e+001 112 105 86
1.060390e+000 -2.290522e+000 -1.006277e+001 81 72 56
4.970290e+000 -2.887241e+000 -1.169086e+001 116 101 87
-2.018776e-001 -2.208180e+000 -1.043464e+001 186 146 82
1.532800e-001 -2.462081e+000 -1.032024e+001 161 128 87
6.935208e-001 -2.289230e+000 -1.019274e+001 211 194 174
4.851236e+000 -3.044958e+000 -1.201176e+001 143 117 101
-4.225063e-001 -2.545704e+000 -1.041055e+001 180 157 114
1.240382e+000 -2.821116e+000 -1.127674e+001 108 100 84
1.208267e+000 -2.854794e+000 -1.125636e+001 105 95 83
1.211374e+000 -2.922370e+000 -1.132830e+001 96 88 67
4.688807e+000 -3.565644e+000 -1.187759e+001 212 132 50
5.179272e+000 -3.399046e+000 -1.099912e+001 255 190 130
2.389586e-001 -3.088200e+000 -1.091880e+001 157 135 111
1.150975e+000 -3.071913e+000 -1.139290e+001 90 80 58
-8.048846e-001 -3.323669e+000 -1.229713e+001 187 163 135
4.526216e-001 -3.468921e+000 -1.134943e+001 111 100 81
4.526216e-001 -3.468921e+000 -1.134943e+001 111 100 81
5.772414e-001 -3.325021e+000 -1.124878e+001 69 60 45
8.417052e-001 -3.504765e+000 -1.177323e+001 137 124 97
4.144110e+000 -4.124092e+000 -1.270989e+001 207 190 183
4.143205e+000 -4.226532e+000 -1.263359e+001 133 116 109
6.445231e-001 -3.824122e+000 -1.194989e+001 201 191 170
6.771219e-001 -3.827348e+000 -1.191308e+001 132 124 103
6.072321e-001 -3.969477e+000 -1.193620e+001 116 105 83
6.012502e-001 -4.028663e+000 -1.191227e+001 165 153 136
4.630215e-001 -4.193297e+000 -1.212254e+001 129 120 102
-3.465438e+000 3.060596e+000 -8.889274e+000 150 119 118
1.511666e+000 2.817200e+000 -1.052153e+001 110 88 62
-4.257224e+000 2.356839e+000 -8.401945e+000 180 119 115
1.764474e+000 2.073297e+000 -9.881359e+000 148 123 98
1.805361e+000 1.999473e+000 -9.848890e+000 159 133 107
6.301577e-001 1.712792e+000 -9.441618e+000 163 121 103
9.110419e-001 1.370601e+000 -9.193682e+000 131 88 71
1.452114e+000 1.880021e+000 -9.883701e+000 187 160 130
4.018009e+000 1.393924e+000 -1.054110e+001 97 71 48
4.018009e+000 1.393924e+000 -1.054110e+001 97 71 48
5.502864e+000 1.784566e+000 -1.211027e+001 200 127 125
5.245774e-002 1.382988e+000 -9.270708e+000 189 139 132
7.116263e-001 1.202289e+000 -9.272428e+000 157 112 97
1.421547e+000 1.371806e+000 -9.954869e+000 171 143 125
1.566493e+000 1.327514e+000 -9.520414e+000 161 142 118
1.515029e+000 1.185548e+000 -9.138848e+000 106 98 70
1.561598e+000 8.579808e-001 -8.990514e+000 194 164 98
2.076477e+000 9.437065e-001 -8.667135e+000 172 152 128
2.568602e+000 8.378956e-001 -8.637428e+000 75 63 47
2.665940e+000 8.505542e-001 -8.547379e+000 175 163 146
2.668988e+000 8.523000e-001 -8.549173e+000 175 163 146
2.697183e+000 8.196390e-001 -8.567875e+000 71 58 41
2.661095e+000 7.013419e-001 -8.535904e+000 99 87 73
2.752042e+000 6.738913e-001 -8.628697e+000 54 44 34
3.174465e+000 8.478072e-001 -8.953249e+000 249 246 218
4.993560e+000 1.201883e+000 -1.101827e+001 141 111 83
5.545332e+000 1.324982e+000 -1.152666e+001 191 146 92
-1.888500e+000 1.382636e+000 -9.134628e+000 134 117 91
1.658444e+000 6.609105e-001 -8.875250e+000 200 182 144
2.017742e+000 3.930958e-001 -8.558648e+000 183 167 141
2.613532e+000 2.952360e-001 -8.550971e+000 111 99 85
4.676188e+000 3.826233e-001 -9.911069e+000 99 73 49
4.676188e+000 3.826233e-001 -9.911069e+000 99 73 49
2.965984e-001 7.520227e-001 -9.130907e+000 192 154 132
5.450742e-001 6.931278e-001 -9.142608e+000 168 129 109
5.450742e-001 6.931278e-001 -9.142608e+000 168 129 109
5.563847e-001 6.194525e-001 -9.407103e+000 169 131 105
1.415407e+000 5.686933e-001 -9.338091e+000 157 131 106
2.382914e+000 5.092000e-002 -8.433765e+000 86 74 58
2.447233e+000 9.084970e-002 -8.635915e+000 86 74 58
2.376834e+000 1.344402e-002 -8.526555e+000 105 96 79
3.145795e+000 -4.143935e-002 -9.036329e+000 74 56 42
-3.444236e+000 6.232425e-001 -8.761426e+000 185 169 154
-1.779573e+000 6.254680e-001 -9.105732e+000 127 109 85
-1.779573e+000 6.254680e-001 -9.105732e+000 127 109 85
-1.701315e+000 6.134282e-001 -9.031739e+000 114 95 78
1.357430e+000 4.704728e-002 -8.942616e+000 124 126 95
1.685878e+000 -3.448342e-002 -8.758027e+000 193 187 156
1.955062e+000 -9.091021e-002 -8.754719e+000 184 164 137
1.915378e+000 -1.741279e-001 -8.766571e+000 161 140 115
2.381175e+000 -1.140090e-001 -8.949503e+000 64 54 35
2.828355e+000 -2.027373e-001 -9.233273e+000 72 62 37
2.751938e+000 -2.492688e-001 -9.130552e+000 90 79 52
2.751938e+000 -2.492688e-001 -9.130552e+000 90 79 52
2.848573e+000 -2.435386e-001 -9.392735e+000 246 237 208
3.011147e+000 -9.653137e-002 -9.444264e+000 177 169 146
3.005510e+000 -1.027924e-001 -9.142710e+000 240 237 217
2.846951e+000 -1.736867e-001 -9.197900e+000 87 78 52
2.861450e+000 -2.073278e-001 -9.215022e+000 206 199 172
-2.122668e+000 4.004613e-001 -9.687963e+000 100 83 65
-2.039710e+000 3.572260e-001 -9.899475e+000 157 123 113
2.097776e+000 -4.532221e-001 -9.218178e+000 234 230 193
2.152881e+000 -4.178721e-001 -9.155295e+000 80 69 45
2.207859e+000 -4.984418e-001 -9.059874e+000 104 94 78
2.520629e+000 -5.185848e-001 -9.405195e+000 232 223 190
2.518943e+000 -5.200640e-001 -9.406433e+000 232 223 190
-1.843224e+000 1.219336e-001 -1.005660e+001 90 59 46
-1.465223e+000 1.731873e-002 -9.735950e+000 108 66 59
-1.157002e+000 4.872266e-002 -9.985810e+000 181 121 118
-2.813076e-001 -5.390343e-001 -8.708409e+000 227 198 178
-2.813076e-001 -5.390343e-001 -8.708409e+000 227 198 178
-1.038069e-001 -3.271911e-001 -8.595982e+000 205 172 153
1.596435e+000 -6.628043e-001 -9.114119e+000 169 151 124
1.853970e+000 -8.002346e-001 -9.453438e+000 56 45 29
2.627896e+000 -5.535961e-001 -9.700399e+000 207 198 170
2.567127e+000 -6.055976e-001 -9.596922e+000 239 235 206
-1.997161e+000 -6.807471e-003 -1.049161e+001 154 110 91
-1.195383e+000 -2.301570e-001 -1.024377e+001 144 102 91
-3.225154e-001 -5.646567e-001 -8.827895e+000 215 184 164
1.302984e+000 -8.776612e-001 -9.217018e+000 185 158 128
1.250333e+000 -9.730964e-001 -9.414758e+000 206 181 149
1.920358e+000 -9.623621e-001 -9.523839e+000 207 194 159
3.570777e+000 -9.718105e-001 -1.026144e+001 83 60 36
3.496639e+000 -1.229897e+000 -1.051402e+001 71 50 31
5.602426e+000 -1.361581e+000 -1.091706e+001 226 210 199
5.587928e+000 -1.458762e+000 -1.096215e+001 210 179 169
-1.596558e+000 -5.674090e-001 -1.047561e+001 167 124 113
-7.990893e-001 -9.756248e-001 -9.197766e+000 187 139 129
-6.062899e-001 -8.188989e-001 -9.275366e+000 199 142 131
-5.773571e-001 -9.077016e-001 -9.223061e+000 165 110 102
-2.631995e-001 -9.528993e-001 -9.448564e+000 163 122 107
1.808397e+000 -1.124922e+000 -9.667562e+000 58 46 37
1.828095e+000 -1.186053e+000 -9.693805e+000 47 36 24
1.818835e+000 -1.240696e+000 -9.739948e+000 56 44 32
2.040555e+000 -1.410011e+000 -1.024541e+001 73 67 47
2.334136e+000 -1.213797e+000 -9.927475e+000 67 53 41
3.493101e+000 -1.497824e+000 -1.082173e+001 106 85 64
3.943104e+000 -1.417798e+000 -1.084838e+001 97 73 50
5.505846e+000 -1.622226e+000 -1.103239e+001 140 65 56
5.428002e+000 -1.818885e+000 -1.114556e+001 75 62 45
-1.775513e+000 -8.065024e-001 -1.007055e+001 180 141 123
-1.504559e+000 -1.190178e+000 -9.779839e+000 211 166 155
-1.309469e+000 -1.152675e+000 -9.520965e+000 167 109 95
-2.535519e-001 -1.241086e+000 -9.518229e+000 174 131 122
-3.150871e-001 -1.336858e+000 -9.639446e+000 186 145 131
-3.150871e-001 -1.336858e+000 -9.639446e+000 186 145 131
6.453726e-001 -1.364064e+000 -9.695747e+000 78 75 54
6.124390e-001 -1.389285e+000 -9.750904e+000 170 162 135
9.864969e-001 -1.554043e+000 -9.916383e+000 175 148 122
1.634587e+000 -1.500790e+000 -9.854784e+000 213 201 182
2.045859e+000 -1.603043e+000 -1.020043e+001 77 68 51
5.387095e+000 -2.013529e+000 -1.130315e+001 227 219 204
9.438353e-001 -1.663473e+000 -9.779100e+000 202 186 160
1.177225e+000 -1.738104e+000 -9.791401e+000 114 90 65
1.317062e+000 -1.790053e+000 -1.006101e+001 72 59 45
1.548445e+000 -1.747572e+000 -1.011791e+001 43 34 26
4.051809e+000 -2.252052e+000 -1.168092e+001 117 91 64
-2.539036e-001 -2.064323e+000 -1.047708e+001 92 61 39
1.485012e+000 -2.368414e+000 -1.025808e+001 72 64 46
1.770699e+000 -2.152508e+000 -1.024664e+001 80 70 58
2.429686e+000 -2.474091e+000 -1.116153e+001 77 54 38
2.430679e+000 -2.473795e+000 -1.116220e+001 77 54 38
3.059131e+000 -2.452584e+000 -1.132333e+001 79 58 37
3.148602e+000 -2.532280e+000 -1.154417e+001 80 58 39
3.148602e+000 -2.532280e+000 -1.154417e+001 80 58 39
1.333581e-001 -2.441596e+000 -1.034232e+001 177 148 108
1.236545e+000 -2.573288e+000 -1.025253e+001 65 57 46
4.899949e+000 -3.005492e+000 -1.171921e+001 103 87 73
5.253025e+000 -3.254104e+000 -1.092760e+001 254 234 179
7.746316e-001 -2.655847e+000 -1.080421e+001 225 217 187
1.307829e+000 -2.803508e+000 -1.112293e+001 217 207 181
1.307829e+000 -2.803508e+000 -1.112293e+001 217 207 181
-4.801022e-001 -2.785562e+000 -1.072234e+001 205 175 128
8.457970e-001 -3.185303e+000 -1.159333e+001 47 37 32
8.687945e-001 -3.344299e+000 -1.154400e+001 238 230 196
1.092200e+000 -3.168918e+000 -1.133896e+001 79 68 47
4.336215e+000 -3.963156e+000 -1.253311e+001 121 105 100
2.878515e-001 -3.586154e+000 -1.136639e+001 196 188 160
2.878515e-001 -3.586154e+000 -1.136639e+001 196 188 160
8.115286e-001 -3.420931e+000 -1.152754e+001 239 231 204
4.147418e+000 -4.041854e+000 -1.270436e+001 218 196 168
4.163094e+000 -4.189731e+000 -1.267918e+001 204 191 194
4.069027e+000 -4.261594e+000 -1.290276e+001 111 96 88
4.088830e+000 -4.273134e+000 -1.267669e+001 121 107 98
4.317931e+000 -4.004589e+000 -1.249514e+001 220 213 203
4.185455e+000 -4.149833e+000 -1.269543e+001 142 124 112
3.079671e-001 -3.810445e+000 -1.164615e+001 98 89 71
2.634358e-001 -3.993199e+000 -1.171019e+001 76 63 49
-3.477577e+000 3.010483e+000 -8.685279e+000 160 125 125
-3.499028e+000 2.993909e+000 -8.817566e+000 153 114 105
-3.403103e+000 3.039929e+000 -8.864107e+000 209 212 210
1.426609e+000 3.019932e+000 -1.070254e+001 161 141 117
1.610228e+000 2.635624e+000 -1.038232e+001 108 85 59
-3.825820e+000 2.316689e+000 -8.344352e+000 127 93 64
1.202584e+000 2.111625e+000 -9.986272e+000 213 189 162
2.100468e+000 1.857939e+000 -9.545769e+000 124 113 94
4.684246e+000 2.093987e+000 -1.187066e+001 151 123 101
-2.314434e+000 1.894576e+000 -8.700344e+000 139 119 95
6.570409e-001 1.597389e+000 -9.492096e+000 169 132 106
1.207611e+000 1.757499e+000 -1.003967e+001 181 149 124
1.871935e+000 1.211836e+000 -9.002299e+000 153 135 111
2.018202e+000 1.252368e+000 -8.943183e+000 190 171 148
2.620884e+000 9.617531e-001 -8.671403e+000 88 80 61
4.523570e+000 2.007961e+000 -1.165546e+001 113 86 63
1.023211e+000 1.533510e+000 -9.942601e+000 129 85 69
1.372563e+000 1.297851e+000 -1.000645e+001 143 107 83
1.561221e+000 8.811079e-001 -8.947363e+000 164 138 80
1.981409e+000 1.057159e+000 -8.894059e+000 185 163 139
2.094122e+000 8.729970e-001 -8.653062e+000 177 162 137
2.579196e+000 8.251792e-001 -9.017587e+000 79 67 51
2.695527e+000 7.605722e-001 -8.748953e+000 58 46 34
2.765579e+000 7.368242e-001 -8.724784e+000 59 47 35
-3.997768e+000 1.248836e+000 -8.273268e+000 186 164 141
-3.826826e+000 1.256162e+000 -7.971701e+000 165 139 111
-2.029204e+000 1.325923e+000 -9.297056e+000 151 131 112
1.234827e+000 8.528353e-001 -9.912519e+000 100 58 36
1.543982e+000 7.498622e-001 -8.894733e+000 194 162 86
1.378560e+000 6.292347e-001 -9.237747e+000 199 178 149
2.475241e+000 5.140420e-001 -8.494937e+000 141 134 113
2.472087e+000 4.256536e-001 -8.541471e+000 154 146 124
2.666855e+000 4.374261e-001 -8.602859e+000 109 101 80
2.444780e+000 3.582078e-001 -8.517863e+000 161 156 135
3.034985e+000 3.037431e-001 -9.020719e+000 221 214 190
-3.374933e+000 1.126640e+000 -8.929761e+000 141 114 95
-1.978259e+000 8.617127e-001 -9.178362e+000 100 82 63
2.384369e+000 9.169100e-002 -8.735178e+000 122 113 96
2.985873e+000 1.618063e-001 -8.984968e+000 95 88 72
2.985873e+000 1.618063e-001 -8.984968e+000 95 88 72
2.293129e+000 -2.127730e-001 -8.892271e+000 52 44 24
2.925361e+000 -1.787351e-001 -9.102453e+000 64 55 36
2.834265e+000 -2.723902e-001 -9.140638e+000 58 50 31
-2.647629e+000 6.453627e-001 -1.065579e+001 174 154 136
-2.017204e+000 4.142484e-001 -9.572397e+000 104 88 70
-1.169862e+000 1.325161e-001 -9.626623e+000 179 123 118
9.183583e-002 -2.911470e-001 -8.554266e+000 150 112 94
1.938400e+000 -2.904111e-001 -8.839298e+000 123 98 68
1.873097e+000 -3.567670e-001 -8.779189e+000 131 108 76
2.740816e+000 -3.657003e-001 -9.412214e+000 253 252 219
-7.719377e-001 -2.329710e-001 -9.965147e+000 184 128 123
1.071532e+000 -4.195979e-001 -9.282002e+000 194 167 141
1.156081e+000 -5.017201e-001 -9.171110e+000 184 159 129
1.224810e+000 -6.302531e-001 -9.188669e+000 170 132 95
-2.017281e+000 -2.810149e-001 -1.041139e+001 167 118 98
-2.884850e-001 -5.901895e-001 -8.762252e+000 200 168 154
2.072432e+000 -8.814336e-001 -9.629612e+000 54 42 32
-6.254083e-001 -8.674945e-001 -9.213688e+000 168 116 104
-7.097725e-001 -9.506655e-001 -9.161429e+000 218 171 163
-2.299822e-001 -9.308794e-001 -9.418524e+000 226 191 172
-2.359860e-001 -9.911978e-001 -9.507309e+000 207 170 155
2.789417e-001 -1.120530e+000 -9.478266e+000 140 92 88
1.070962e+000 -1.245241e+000 -9.603830e+000 154 133 104
2.178966e+000 -1.399052e+000 -1.013168e+001 67 61 41
2.494223e+000 -1.447267e+000 -1.018943e+001 121 106 87
-1.650216e+000 -9.903841e-001 -9.745886e+000 199 162 144
-1.236091e-001 -1.428141e+000 -9.771633e+000 187 148 134
6.418070e-001 -1.491184e+000 -9.868476e+000 178 160 136
9.676760e-001 -1.329746e+000 -9.740636e+000 178 157 133
1.105762e+000 -1.338501e+000 -9.640212e+000 207 189 167
1.632335e+000 -1.625641e+000 -1.000790e+001 37 26 18
3.886884e+000 -1.923587e+000 -1.129348e+001 111 89 65
-1.353602e+000 -1.495830e+000 -1.015637e+001 158 105 97
-1.389948e+000 -1.532887e+000 -1.010418e+001 212 179 164
-6.656016e-001 -1.434383e+000 -9.654018e+000 132 75 66
-6.020323e-001 -1.454033e+000 -9.816315e+000 165 123 109
-6.020323e-001 -1.454033e+000 -9.816315e+000 165 123 109
-5.377308e-001 -1.655635e+000 -1.032899e+001 128 93 58
-1.681791e-001 -1.516893e+000 -1.007822e+001 155 118 98
1.890114e+000 -2.084679e+000 -1.022867e+001 56 46 36
-1.599822e+000 -1.538526e+000 -1.083876e+001 190 155 136
-7.190794e-001 -1.906431e+000 -1.123427e+001 177 153 112
-4.728058e-001 -1.893222e+000 -1.079055e+001 132 110 88
-8.426544e-002 -2.004068e+000 -1.005417e+001 161 133 92
3.911747e-001 -1.968017e+000 -1.019608e+001 205 178 151
2.525424e+000 -2.439320e+000 -1.110072e+001 86 68 49
2.504319e+000 -2.484549e+000 -1.115355e+001 75 57 37
1.007781e+000 -2.305952e+000 -9.985504e+000 142 130 110
1.193330e+000 -2.655924e+000 -1.045487e+001 60 54 42
3.801226e+000 -2.718833e+000 -1.193395e+001 137 109 80
3.849942e+000 -2.833670e+000 -1.215092e+001 132 103 71
-5.892403e-001 -2.706501e+000 -1.076953e+001 180 156 110
-2.023965e-001 -2.467079e+000 -1.033369e+001 208 182 144
-2.023965e-001 -2.467079e+000 -1.033369e+001 208 182 144
-4.180162e-001 -2.585695e+000 -1.035203e+001 208 185 144
4.410082e-001 -2.762148e+000 -1.063931e+001 138 112 93
3.775976e-001 -2.822397e+000 -1.064266e+001 159 133 118
5.904928e-001 -2.868089e+000 -1.081588e+001 65 49 32
2.918557e+000 -3.216062e+000 -1.226880e+001 95 73 50
-2.443710e-001 -2.854713e+000 -1.077609e+001 196 167 111
-9.900196e-002 -2.919084e+000 -1.080302e+001 204 185 151
3.886240e-001 -2.920570e+000 -1.059552e+001 121 96 79
3.467169e-001 -3.117732e+000 -1.107095e+001 123 101 77
6.580826e-001 -3.074248e+000 -1.117271e+001 66 56 44
3.083700e+000 -3.660579e+000 -1.283072e+001 108 82 56
4.008292e+000 -3.611879e+000 -1.297780e+001 161 99 42
4.517977e+000 -3.699853e+000 -1.216909e+001 231 214 202
-4.809897e-001 -3.210056e+000 -1.150062e+001 140 134 101
-4.075968e-001 -3.386451e+000 -1.168213e+001 140 146 105
1.133359e-001 -3.231720e+000 -1.112647e+001 189 169 141
1.865339e+000 -3.864996e+000 -1.258492e+001 96 76 52
2.333779e+000 -3.799534e+000 -1.266745e+001 98 76 52
2.692798e+000 -3.866731e+000 -1.288928e+001 95 73 50
4.157096e+000 -4.281916e+000 -1.272888e+001 210 201 194
-6.525397e-001 -3.667954e+000 -1.196658e+001 131 124 95
-1.037234e-001 -3.662474e+000 -1.146404e+001 202 184 159
-1.037234e-001 -3.662474e+000 -1.146404e+001 202 184 159
-9.438985e-002 -3.827505e+000 -1.137123e+001 255 242 216
7.283980e-001 -3.886583e+000 -1.187788e+001 65 57 44
3.393762e+000 5.319113e+000 -1.534442e+001 227 181 180
5.266272e+000 3.828266e+000 -1.271623e+001 228 150 133
-3.938260e+000 2.526836e+000 -8.348275e+000 136 100 81
-3.721100e+000 2.734150e+000 -8.467374e+000 146 102 94
-3.553913e+000 2.771667e+000 -8.526666e+000 82 46 34
1.993887e+000 2.286484e+000 -9.887519e+000 94 77 57
6.700473e-001 2.490675e+000 -1.034277e+001 218 185 163
5.707216e-001 2.305123e+000 -9.982497e+000 134 87 72
3.067998e-001 1.941517e+000 -9.488933e+000 203 153 147
7.507232e-001 1.737130e+000 -9.432160e+000 171 133 114
4.723785e-001 1.472259e+000 -9.164432e+000 152 105 92
1.241172e+000 1.893314e+000 -9.956316e+000 144 110 64
3.047858e+000 1.326041e+000 -9.293598e+000 117 102 77
2.933486e+000 1.156434e+000 -9.165437e+000 51 43 29
2.933486e+000 1.156434e+000 -9.165437e+000 51 43 29
4.352681e+000 1.307159e+000 -1.068627e+001 134 104 78
1.509596e+000 1.072806e+000 -8.944897e+000 220 205 170
2.652209e+000 8.735401e-001 -8.656530e+000 70 58 42
2.991486e+000 6.997934e-001 -8.903263e+000 50 41 30
3.015587e+000 6.253786e-001 -8.965427e+000 43 35 24
4.761754e+000 1.047165e+000 -1.060674e+001 123 92 64
3.355501e-001 9.505854e-001 -9.065610e+000 170 129 113
1.705799e-001 8.362898e-001 -9.314013e+000 146 102 79
-3.079619e+000 1.094829e+000 -8.698212e+000 157 140 126
3.054691e+000 2.183397e-001 -8.991847e+000 60 51 38
2.969690e+000 9.829277e-002 -9.087063e+000 106 97 81
2.048681e+000 -9.441581e-002 -8.761341e+000 121 94 62
2.386261e+000 -1.065752e-001 -8.772501e+000 63 50 35
2.618821e+000 -1.533524e-001 -9.149735e+000 37 30 24
3.075771e+000 -3.312468e-002 -9.250981e+000 65 53 38
2.845525e+000 -2.712644e-001 -9.181293e+000 60 52 32
3.210466e+000 -8.634636e-002 -9.211879e+000 111 95 79
2.772370e-001 -2.279372e-001 -8.768323e+000 157 119 102
2.219084e+000 -3.746964e-001 -9.204716e+000 56 42 34
2.427079e+000 -4.624680e-001 -9.655159e+000 42 34 25
2.793054e+000 -3.552712e-001 -9.319857e+000 64 51 40
-1.607331e+000 1.058564e-001 -9.647121e+000 163 123 111
-1.607331e+000 1.058564e-001 -9.647121e+000 163 123 111
-1.940712e-001 -2.983522e-001 -8.717510e+000 192 156 140
2.250827e+000 -7.492876e-001 -9.866054e+000 36 29 27
3.792081e+000 -9.242284e-001 -1.035983e+001 90 68 45
1.847802e+000 -9.815399e-001 -9.583058e+000 62 50 44
3.226643e+000 -1.133623e+000 -1.042580e+001 93 75 55
2.011098e-001 -1.059636e+000 -9.421471e+000 171 115 118
6.622108e-001 -1.085388e+000 -9.452897e+000 99 95 76
9.914500e-001 -1.002776e+000 -9.753666e+000 89 82 54
1.134814e+000 -1.111249e+000 -9.467247e+000 133 104 75
3.088473e+000 -1.315044e+000 -1.043650e+001 70 53 33
3.595788e+000 -1.289200e+000 -1.060669e+001 97 76 55
3.384986e+000 -1.423728e+000 -1.069001e+001 107 86 65
