ply
format ascii 1.0
element face 0
property list uchar int vertex_indices
element vertex 868
property float x
property float y
property float z
property uchar diffuse_red
property uchar diffuse_green
property uchar diffuse_blue
end_header
8.269506e-001 -2.663194e+000 -7.387512e+000 225 143 77
8.592090e-001 -2.750925e+000 -7.257049e+000 206 138 92
7.938923e-001 -2.370419e+000 -7.658509e+000 244 199 175
7.836885e-001 -2.700036e+000 -7.426281e+000 245 183 128
7.836885e-001 -2.700036e+000 -7.426281e+000 245 183 128
2.706369e+000 -8.892256e-001 -5.373391e+000 204 191 181
1.499395e+000 -8.173489e-001 -5.245966e+000 109 91 65
1.914318e+000 -5.412712e-001 -5.493159e+000 130 93 86
1.844678e+000 -1.144151e+000 -5.505724e+000 205 206 198
1.858577e+000 -1.303152e+000 -5.467891e+000 216 160 72
1.743239e+000 -1.342895e+000 -5.676486e+000 95 117 84
1.698158e+000 -1.533294e+000 -5.800195e+000 194 124 82
1.720056e+000 -1.563318e+000 -5.714507e+000 180 84 60
1.720486e+000 -1.680854e+000 -5.768032e+000 214 187 152
7.454093e-001 -4.778157e-001 -5.738262e+000 227 223 212
1.689251e+000 -1.259411e+000 -5.929179e+000 114 74 72
1.653701e+000 -1.533901e+000 -5.869106e+000 180 82 53
1.228834e+000 -6.995568e-001 -6.050668e+000 109 68 41
1.608185e+000 -1.599625e+000 -6.001722e+000 225 156 75
1.608185e+000 -1.599625e+000 -6.001722e+000 225 156 75
2.577118e-003 -4.995350e-001 -5.817892e+000 126 114 98
6.792509e-001 -6.687242e-001 -5.989256e+000 197 75 73
-9.415218e-001 -6.167344e-001 -5.602459e+000 194 111 75
-9.443182e-001 -6.185109e-001 -5.601084e+000 194 111 75
7.028237e-002 -5.952580e-001 -6.040707e+000 62 49 33
-1.608197e+000 -8.370653e-001 -5.514882e+000 170 77 47
-8.260853e-001 -7.401570e-001 -5.775024e+000 175 119 84
-3.087692e-001 -1.106590e+000 -5.955054e+000 145 82 51
-4.456163e-001 -1.136237e+000 -5.960264e+000 130 66 52
1.402367e+000 -1.778150e+000 -6.553135e+000 122 66 43
1.403197e+000 -2.005102e+000 -6.403232e+000 186 118 54
1.399134e+000 -2.161638e+000 -6.348568e+000 229 210 192
-2.023346e+000 -6.814766e-001 -5.699785e+000 96 73 55
-2.049073e+000 -6.155972e-001 -5.747027e+000 98 76 53
-2.021052e+000 -7.103539e-001 -5.714450e+000 123 119 108
-6.755482e-001 -1.242935e+000 -5.951155e+000 144 64 37
1.343415e+000 -2.287113e+000 -6.426912e+000 174 85 65
1.102438e+000 -2.321081e+000 -6.909875e+000 226 166 83
2.128917e-001 -8.344336e-001 -7.511646e+000 202 197 191
1.080713e+000 -2.141432e+000 -7.130714e+000 182 89 68
9.615047e-001 -2.753135e+000 -7.177897e+000 146 109 83
8.139315e-001 -2.684373e+000 -7.402436e+000 254 215 167
8.211165e-001 -2.720426e+000 -7.299257e+000 254 204 157
8.515902e-001 -2.677488e+000 -7.429327e+000 212 138 80
8.101786e-001 -2.701228e+000 -7.428823e+000 217 141 89
1.841396e+000 -1.184160e+000 -5.409434e+000 211 163 72
1.878119e+000 -1.232061e+000 -5.434057e+000 215 166 72
1.816045e+000 -1.053949e+000 -5.541477e+000 210 200 195
1.762031e+000 -1.439349e+000 -5.520074e+000 165 89 66
1.509327e+000 -1.055312e+000 -5.646647e+000 203 71 67
1.761031e+000 -1.363809e+000 -5.637380e+000 212 208 201
1.595739e+000 -8.978419e-001 -5.878722e+000 198 64 61
1.700179e+000 -1.555849e+000 -5.668065e+000 160 87 61
1.730309e+000 -1.642325e+000 -5.661057e+000 166 147 140
1.693358e+000 -1.773557e+000 -5.699956e+000 173 84 68
1.422143e+000 -6.798196e-001 -6.029841e+000 195 169 118
1.385551e+000 -1.001659e+000 -5.933615e+000 227 146 123
1.493172e+000 -1.410599e+000 -5.895488e+000 194 60 58
5.502025e-001 -5.650725e-001 -6.012711e+000 185 177 164
6.461782e-001 -6.737148e-001 -6.007715e+000 154 62 59
6.461782e-001 -6.737148e-001 -6.007715e+000 154 62 59
1.536932e+000 -1.798110e+000 -6.038499e+000 227 157 78
1.184285e-001 -6.282789e-001 -5.980159e+000 89 72 56
1.492605e+000 -1.688977e+000 -6.237412e+000 218 138 72
-1.713342e+000 -7.789344e-001 -5.497508e+000 234 141 98
-6.694017e-001 -9.644772e-001 -5.854283e+000 167 79 46
1.464829e+000 -2.132510e+000 -6.199822e+000 198 104 79
-8.462764e-001 -1.000720e+000 -5.824483e+000 163 79 45
-6.171948e-002 -9.369746e-001 -6.205821e+000 132 102 85
-2.108949e+000 -4.851267e-001 -5.813140e+000 102 85 60
-1.574345e-001 -8.743570e-001 -6.550671e+000 84 46 39
8.601803e-001 -1.404025e+000 -6.875181e+000 195 188 170
1.725286e-001 -7.449208e-001 -7.545806e+000 243 240 230
1.098925e+000 -2.153958e+000 -7.114351e+000 235 183 107
1.077267e+000 -2.178381e+000 -7.089073e+000 235 183 107
7.799263e-001 -2.687964e+000 -7.393911e+000 224 135 71
2.694587e+000 -9.707881e-001 -5.343279e+000 190 177 167
1.546481e+000 -4.208780e-001 -5.352756e+000 121 49 49
1.543804e+000 -7.774130e-001 -5.308160e+000 111 95 61
1.807410e+000 -1.278168e+000 -5.550802e+000 208 207 199
1.830763e+000 -1.301013e+000 -5.486174e+000 167 96 71
-5.892205e-001 -5.158314e-001 -5.385683e+000 231 142 86
3.210512e-001 -3.323522e-001 -5.742248e+000 218 215 206
-6.868907e-001 -3.020480e-001 -5.472907e+000 218 159 119
-6.297283e-001 -4.174023e-001 -5.443321e+000 244 152 99
-5.543541e-001 -4.958805e-001 -5.440279e+000 186 97 61
5.447112e-001 -7.532404e-001 -6.032318e+000 225 221 209
-1.053197e+000 -4.132893e-001 -5.587816e+000 203 203 198
-8.545060e-001 -7.529709e-001 -5.700955e+000 222 171 128
8.623277e-001 -1.010466e+000 -6.159587e+000 181 136 98
1.476726e+000 -2.117665e+000 -6.167981e+000 233 186 121
-9.057773e-002 -8.684114e-001 -5.994176e+000 110 88 74
-1.720174e+000 -8.149423e-001 -5.522925e+000 123 63 54
-2.183353e-001 -1.062859e+000 -6.123182e+000 100 52 42
1.414542e+000 -1.944734e+000 -6.393461e+000 128 69 35
1.421098e+000 -2.212815e+000 -6.346446e+000 200 102 77
-1.140501e+000 -1.013902e+000 -6.060198e+000 158 84 60
-2.519889e-001 -1.040492e+000 -6.570625e+000 147 85 68
2.084611e-001 -8.581252e-001 -7.808041e+000 246 244 236
9.313975e-001 -2.402736e+000 -7.283813e+000 235 188 95
1.726833e+000 2.454338e+000 -5.599127e+000 220 227 220
1.786818e+000 2.595670e+000 -5.632120e+000 220 227 220
-4.679988e-001 -5.254734e-001 -5.402003e+000 248 212 164
1.204593e+000 -1.319075e+000 -5.810354e+000 93 38 42
1.409978e-001 -3.999251e-001 -5.784063e+000 112 94 80
1.224334e+000 -1.201323e+000 -5.961670e+000 88 42 37
1.224334e+000 -1.201323e+000 -5.961670e+000 88 42 37
1.304485e+000 -1.226837e+000 -5.978070e+000 170 64 56
1.304485e+000 -1.226837e+000 -5.978070e+000 170 64 56
-1.115839e+000 -5.412973e-001 -5.512149e+000 154 97 67
1.118017e+000 -1.148909e+000 -6.089945e+000 244 202 151
-7.334543e-001 -8.854618e-001 -5.600740e+000 162 78 49
1.110849e+000 -1.112261e+000 -6.197630e+000 225 185 134
1.467050e+000 -1.900345e+000 -6.197880e+000 185 82 52
-8.664953e-001 -7.612326e-001 -5.744666e+000 146 72 40
8.362425e-001 -6.687453e-001 -6.504505e+000 166 146 124
-1.763893e+000 -7.459427e-001 -5.528842e+000 131 74 63
8.827771e-001 -1.514473e+000 -7.166115e+000 159 65 65
5.028186e-001 -1.223886e+000 -7.703959e+000 228 220 210
4.237132e-001 -1.249180e+000 -7.796870e+000 236 225 214
1.596080e+000 2.383700e+000 -5.632933e+000 223 92 90
1.865543e+000 -6.901487e-001 -5.539081e+000 120 72 49
1.847400e+000 -9.685395e-001 -5.487055e+000 179 115 57
-4.863919e-001 -4.714732e-001 -5.366002e+000 116 45 45
2.244794e-001 -1.623936e-001 -5.706492e+000 234 232 227
1.443609e+000 -3.387515e-001 -5.980734e+000 156 107 74
1.346895e+000 -9.305566e-001 -5.918868e+000 146 119 78
1.672743e+000 -1.548409e+000 -5.830018e+000 226 176 100
-5.508859e-001 -6.883798e-001 -5.666223e+000 208 149 93
3.676990e-001 -5.299631e-001 -5.953247e+000 153 142 129
7.552547e-001 -1.014741e+000 -6.011535e+000 214 203 188
9.770374e-001 -8.734951e-001 -6.052323e+000 239 202 149
-1.441250e+000 -7.362735e-001 -5.476797e+000 133 53 30
-7.729733e-001 -7.758069e-001 -5.766540e+000 171 115 80
7.385934e-001 -8.289427e-001 -6.342326e+000 141 113 95
1.458825e+000 -1.875684e+000 -6.266855e+000 234 181 88
1.415079e+000 -2.101580e+000 -6.357556e+000 237 193 93
1.297771e+000 -2.528976e+000 -7.795851e+000 156 129 110
1.807185e+000 -8.186140e-001 -5.637380e+000 101 39 39
1.663358e+000 -1.463882e+000 -5.879730e+000 149 60 46
1.659225e+000 -1.561187e+000 -6.168289e+000 203 122 66
9.939343e-001 -7.817733e-001 -6.468995e+000 155 133 119
-5.462730e-001 -1.128853e+000 -5.892895e+000 215 131 89
-2.530480e-001 -1.095991e+000 -5.995562e+000 101 52 41
1.287449e+000 -2.105953e+000 -6.611049e+000 205 152 65
3.648365e-001 -1.138022e+000 -8.267442e+000 233 227 215
1.440922e+000 -2.298011e+000 -8.017651e+000 172 144 126
1.633642e+000 -1.357066e+000 -5.976000e+000 87 37 31
-6.217718e-001 -7.078734e-001 -5.741222e+000 247 208 157
-9.093396e-001 -1.148450e+000 -6.125809e+000 223 124 69
7.958072e-001 -1.068296e+000 -7.410506e+000 152 95 73
9.066225e-001 -2.758682e+000 -7.298225e+000 138 86 56
8.834187e-001 -2.654399e+000 -7.418775e+000 219 151 94
2.029236e+000 -5.088000e-001 -5.211405e+000 115 84 49
-1.324006e+000 -6.927848e-001 -5.551658e+000 133 55 33
6.888341e-002 -7.006975e-001 -7.151084e+000 186 177 162
6.908599e-001 -7.565838e-001 -5.903378e+000 69 67 65
-9.498176e-001 -6.479072e-001 -5.592412e+000 194 112 76
-8.577701e-001 -8.600738e-001 -5.780607e+000 165 82 48
-1.064265e+000 -8.372148e-001 -6.204575e+000 135 58 38
1.973368e+000 -9.312722e-001 -5.275942e+000 199 170 152
1.612717e+000 -1.473079e-001 -5.500882e+000 100 42 42
1.160096e+000 -1.596569e+000 -6.097190e+000 151 51 49
1.040832e+000 -1.193703e+000 -6.421983e+000 245 237 226
-1.025970e+000 -9.571732e-001 -5.863100e+000 216 120 76
2.321497e-001 -9.108049e-001 -6.719531e+000 113 42 42
2.321497e-001 -9.108049e-001 -6.719531e+000 113 42 42
1.741218e+000 -8.699863e-001 -5.488218e+000 119 72 48
2.109063e+000 -1.125598e+000 -6.038802e+000 232 188 108
1.520202e-001 -6.431047e-001 -5.907176e+000 63 54 44
1.016257e+000 -8.674287e-001 -6.328166e+000 78 56 43
1.016257e+000 -8.674287e-001 -6.328166e+000 78 56 43
-1.298637e+000 -7.936172e-001 -5.946926e+000 112 55 48
1.071490e+000 1.065953e+000 -5.541243e+000 115 111 86
-5.771399e-001 -8.485865e-001 -5.676967e+000 249 213 163
1.367181e+000 -4.581175e-001 -5.715943e+000 99 39 41
6.978472e-001 -1.761143e-001 -5.714491e+000 221 218 209
6.978472e-001 -1.761143e-001 -5.714491e+000 221 218 209
-3.487033e-001 -8.932833e-001 -6.360703e+000 108 51 40
1.047699e+000 -1.544382e+000 -6.692819e+000 249 240 231
-1.201675e+000 -3.988446e-001 -5.541661e+000 182 130 97
-1.337223e+000 -5.968902e-001 -5.485069e+000 153 102 59
-3.177898e-001 -3.554005e-001 -5.347923e+000 175 161 151
-2.321341e-001 -4.557336e-001 -5.346044e+000 146 133 120
-1.969691e+000 -1.845887e-001 -5.775995e+000 232 210 141
3.778294e-001 1.766715e+000 -9.097045e+000 213 153 100
1.282910e+000 7.918815e-001 -5.671194e+000 184 181 158
2.937597e+000 6.935565e-001 -5.426815e+000 162 144 124
-5.211582e-001 1.638528e-002 -5.989795e+000 174 100 71
-9.997480e-001 -1.705386e-001 -5.935663e+000 200 107 69
-7.912357e-001 -5.130073e-002 -5.534431e+000 194 73 79
-1.375375e+000 -2.955586e-001 -5.609086e+000 90 67 60
-1.378842e+000 -3.120648e-001 -5.589467e+000 87 68 59
-1.379597e+000 -3.247467e-001 -5.592348e+000 92 73 63
3.090204e+000 2.942135e-002 -5.476736e+000 59 44 41
8.123937e-001 -7.883083e-001 -6.009551e+000 176 84 74
8.571073e-001 -7.988019e-001 -6.023798e+000 151 71 59
1.609672e+000 -3.967833e-001 -5.379756e+000 190 175 118
6.412473e-001 -2.213770e+000 -8.144032e+000 193 95 71
6.580786e-001 -2.493998e+000 -7.986152e+000 198 130 83
2.122256e+000 1.973700e+000 -5.006807e+000 210 103 100
-8.314964e-001 1.494452e-001 -5.945496e+000 219 135 90
-4.312148e-001 -2.470688e-001 -5.416441e+000 175 165 155
9.480543e-001 -9.335856e-001 -6.128006e+000 194 157 124
1.110416e+000 1.118423e+000 -6.295024e+000 199 195 183
-8.933935e-001 3.178858e-002 -5.923374e+000 243 147 96
2.914909e+000 4.776881e-001 -5.375585e+000 145 126 105
-1.985925e+000 -2.122056e-001 -5.780573e+000 234 211 150
-1.432683e+000 -3.307355e-001 -5.573948e+000 133 91 67
5.997686e-001 -2.417150e+000 -8.057385e+000 190 124 80
8.468343e-001 -2.266013e+000 -7.724048e+000 185 107 62
7.748197e-001 1.284779e+000 -6.751467e+000 225 222 216
-6.650936e-001 1.641827e-002 -5.964528e+000 154 78 57
-7.453145e-001 -6.802884e-001 -5.797043e+000 177 123 85
2.071458e+000 -1.298393e-001 -5.125796e+000 228 218 214
1.791063e-001 7.314678e-001 -9.399949e+000 230 232 226
4.484732e-001 -2.402985e+000 -8.300947e+000 187 107 61
6.013779e-001 -2.486052e+000 -8.452063e+000 205 156 128
5.218723e-001 -2.501550e+000 -8.205106e+000 196 121 70
5.582134e-001 -2.556170e+000 -8.144058e+000 189 119 67
2.059557e+000 8.992045e-001 -5.213052e+000 87 42 36
1.470577e+000 4.435914e-001 -5.385845e+000 220 212 199
-2.803340e-001 -1.737798e-001 -9.739908e+000 217 220 222
-1.720000e+000 -8.259862e-001 -5.520575e+000 149 48 51
8.801410e-001 7.143919e-001 -6.447941e+000 216 212 200
1.184854e+000 -8.974385e-001 -6.024340e+000 233 187 135
-4.043295e-001 1.099706e-001 -6.442360e+000 214 214 216
-9.902432e-001 -9.528952e-001 -5.718312e+000 194 80 38
1.481307e+000 2.770844e+000 -6.334116e+000 229 227 227
1.542306e+000 2.307334e+000 -5.656356e+000 213 196 143
1.222001e+000 1.691980e+000 -5.859604e+000 175 161 124
9.784354e-001 1.424287e+000 -6.453346e+000 218 215 210
9.886940e-001 1.420405e+000 -6.497531e+000 218 215 210
1.199465e+000 7.137657e-001 -5.857753e+000 220 212 163
2.932506e+000 7.824092e-001 -5.464991e+000 140 117 93
2.955971e+000 5.381853e-001 -5.407492e+000 154 135 117
-8.038300e-001 -5.512546e-002 -5.532074e+000 134 62 52
-8.038300e-001 -5.512546e-002 -5.532074e+000 134 62 52
2.225970e+000 5.561129e-001 -4.829256e+000 224 152 100
-1.823167e+000 -2.679990e-001 -5.601083e+000 123 69 67
-1.373517e+000 -3.446136e-001 -5.581149e+000 107 77 68
-1.414291e+000 -3.590454e-001 -5.570653e+000 114 70 48
-1.188055e+000 -4.524768e-001 -5.515029e+000 171 110 85
-6.044670e-001 -3.523165e-001 -5.526489e+000 204 80 73
3.161968e+000 4.169189e-002 -5.524973e+000 100 75 68
-1.360370e+000 -6.121151e-001 -5.454690e+000 168 90 52
-5.024907e-001 -3.559937e-001 -5.371803e+000 195 101 90
-1.667344e+000 -8.136266e-001 -5.538392e+000 95 41 39
1.311116e+000 -9.629141e-001 -6.159289e+000 178 115 81
6.775606e-001 -2.238434e+000 -7.898997e+000 198 127 75
1.428234e+000 -1.003519e+000 -5.994926e+000 185 58 54
6.857918e-001 -2.432025e+000 -7.930073e+000 194 127 76
6.857918e-001 -2.432025e+000 -7.930073e+000 194 127 76
7.977022e-001 -2.426585e+000 -7.697664e+000 206 138 85
1.739151e+000 2.314649e+000 -5.749224e+000 216 161 147
1.423868e+000 1.598762e+000 -5.572996e+000 229 218 158
1.649753e+000 1.084233e+000 -5.544189e+000 198 184 171
-7.852747e-001 1.477655e-001 -5.904849e+000 181 92 52
-5.038121e-001 2.158949e-001 -5.997329e+000 136 88 73
2.941813e+000 5.602731e-001 -5.417858e+000 121 99 76
-7.740667e-003 -2.349572e-002 -5.811081e+000 102 91 63
2.228720e+000 5.459902e-001 -4.818355e+000 200 121 63
-1.937428e+000 -3.137112e-001 -5.718991e+000 245 219 162
2.258286e-002 -8.921312e-002 -5.689369e+000 196 192 183
-1.954152e+000 -4.829163e-001 -5.657273e+000 82 50 25
-3.807228e-001 -3.821206e-001 -5.563352e+000 172 161 149
2.095183e+000 1.779740e-001 -5.197609e+000 179 129 60
2.675722e+000 1.470327e-001 -5.241907e+000 138 118 109
3.252926e+000 1.116803e-001 -5.609932e+000 105 77 67
-1.338963e+000 -6.023617e-001 -5.494625e+000 169 110 66
7.076905e-001 -6.057369e-001 -5.897523e+000 205 203 191
-8.315964e-001 -8.720639e-001 -5.857454e+000 181 75 35
3.066613e+000 -2.652246e-001 -5.489877e+000 73 48 46
-4.753365e-001 -9.837768e-001 -5.736472e+000 136 59 35
8.943766e-001 2.193121e+000 -7.816486e+000 239 225 219
-5.231658e-001 1.363649e-001 -5.951899e+000 137 65 48
-1.077462e-001 -1.690876e-002 -6.142029e+000 111 99 73
-7.683264e-001 1.286434e-002 -5.612774e+000 174 150 137
3.115615e-002 -2.933570e-002 -5.860166e+000 99 88 57
2.969735e+000 5.074143e-001 -5.417143e+000 115 96 79
-1.867456e+000 -5.225920e-001 -5.603628e+000 123 64 59
-1.867456e+000 -5.225920e-001 -5.603628e+000 123 64 59
-1.718285e+000 -5.018851e-001 -5.511275e+000 221 122 90
-9.030535e-001 -4.082371e-001 -5.568240e+000 176 81 51
2.697070e+000 1.882246e-001 -5.218672e+000 99 73 62
-1.569296e+000 -5.447441e-001 -5.442935e+000 161 76 52
-1.386334e+000 -5.785343e-001 -5.498281e+000 57 34 33
-2.768592e-001 -3.941361e-001 -5.324543e+000 159 148 138
-2.561771e-001 -4.387680e-001 -5.360027e+000 157 145 133
6.964310e-001 -6.661472e-001 -5.950475e+000 217 206 188
-9.625960e-001 -1.235748e+000 -5.945489e+000 99 23 24
4.838152e-001 -2.347259e+000 -8.217643e+000 204 145 114
5.691795e-001 -2.444884e+000 -8.113305e+000 212 161 136
7.165981e-001 -2.393593e+000 -7.943411e+000 194 127 75
8.059411e-001 -2.346663e+000 -7.719376e+000 193 112 49
7.707992e-001 -2.439984e+000 -7.727981e+000 191 119 57
8.950880e-001 1.406971e+000 -6.954423e+000 245 240 236
-6.727847e-001 2.371952e-001 -5.906402e+000 181 97 66
-1.735117e-001 8.635872e-002 -6.247355e+000 146 133 121
-1.990318e-001 1.663471e-002 -6.282571e+000 114 96 88
-2.321488e-002 -3.847903e-002 -5.862341e+000 104 90 63
3.022800e+000 4.336641e-001 -5.448214e+000 121 106 104
3.022800e+000 4.336641e-001 -5.448214e+000 121 106 104
-2.027134e+000 -4.432961e-001 -5.740595e+000 104 91 82
-1.985243e+000 -4.238592e-001 -5.714418e+000 240 215 149
-1.703786e+000 -5.140384e-001 -5.477746e+000 188 87 62
3.206622e+000 1.193460e-001 -5.600839e+000 69 51 50
2.056233e+000 -4.379333e-002 -5.095025e+000 80 72 68
2.731535e+000 5.687840e-002 -5.232196e+000 96 66 55
1.313533e+000 -7.720349e-001 -6.058305e+000 115 46 35
1.320606e+000 -6.058549e-001 -6.017305e+000 90 58 41
-1.001736e+000 -1.040091e+000 -5.853390e+000 178 60 34
-6.377315e-001 -1.158089e+000 -5.966323e+000 132 50 21
6.312347e-001 -2.523066e+000 -7.919653e+000 214 167 141
7.515806e-001 -2.524066e+000 -7.817332e+000 224 178 153
7.465285e-001 -2.499116e+000 -7.776554e+000 224 178 153
1.727192e+000 2.335265e+000 -5.754989e+000 206 76 76
1.809548e+000 2.209095e+000 -5.615557e+000 222 195 181
-3.440236e-002 7.746160e-001 -9.744362e+000 205 205 208
-1.765147e+000 -2.098263e-001 -5.644758e+000 129 72 70
-7.280253e-002 -6.849686e-002 -5.762003e+000 148 138 126
-1.638277e+000 -3.126293e-001 -5.500390e+000 186 89 57
-2.068005e+000 -5.313060e-001 -5.764382e+000 159 138 81
-6.622207e-001 -3.552313e-001 -5.513981e+000 196 97 64
-1.856250e+000 -5.729717e-001 -5.555538e+000 129 70 66
-1.864730e+000 -5.878223e-001 -5.582992e+000 129 70 66
-1.615492e+000 -5.443432e-001 -5.441879e+000 191 102 72
2.023381e+000 -8.617910e-002 -5.286220e+000 150 57 52
7.121639e-001 -2.305646e+000 -7.933023e+000 220 172 153
6.563931e-001 -2.467053e+000 -7.878973e+000 196 126 70
9.377707e-001 -2.277264e+000 -7.436999e+000 218 176 87
9.435764e-001 -2.294681e+000 -7.466162e+000 218 176 87
1.633567e+000 1.652200e+000 -5.573889e+000 226 217 208
-9.494390e-001 -8.745233e-002 -5.895724e+000 187 77 46
2.706309e-001 9.730370e-002 -6.042508e+000 224 222 210
3.636903e-001 1.709222e-001 -6.071293e+000 236 233 226
-1.056002e+000 -2.058638e-001 -5.851405e+000 223 128 82
-1.056697e+000 -2.098530e-001 -5.862050e+000 223 128 82
1.703020e+000 -3.584398e-001 -5.378085e+000 92 37 38
5.707366e-001 -2.399397e+000 -8.143360e+000 191 118 69
9.670563e-001 -2.199386e+000 -7.415808e+000 158 82 61
1.777306e+000 2.010682e+000 -5.524566e+000 215 203 185
1.777306e+000 2.010682e+000 -5.524566e+000 215 203 185
6.024357e-001 1.685043e+000 -8.563806e+000 240 236 225
1.586433e+000 1.299075e+000 -5.515271e+000 214 208 196
1.225949e+000 9.685460e-001 -6.067143e+000 231 230 224
1.211104e+000 9.150404e-001 -6.223967e+000 212 204 192
-1.736248e-001 -3.189834e-001 -9.618647e+000 217 218 220
1.060761e+000 7.450501e-001 -5.987723e+000 235 234 229
7.664612e-002 2.786182e-002 -5.942675e+000 195 186 178
2.749233e+000 2.708872e-001 -5.274367e+000 149 128 119
1.703626e+000 -3.477923e-001 -5.672145e+000 204 74 74
1.344103e+000 -7.345396e-001 -6.073168e+000 184 138 93
1.588624e+000 -7.961773e-001 -5.912817e+000 102 70 47
1.753281e+000 2.342689e+000 -5.754271e+000 202 68 67
1.069443e+000 1.170667e+000 -6.418057e+000 246 243 236
1.089634e+000 1.171547e+000 -6.454337e+000 246 243 236
2.089552e+000 9.550277e-001 -5.166728e+000 97 45 42
2.002518e+000 8.459961e-001 -5.194482e+000 92 44 42
3.072303e+000 -2.099262e-001 -5.491238e+000 55 35 36
5.829786e-001 -9.486599e-001 -6.042782e+000 215 208 198
1.232477e+000 -8.923406e-001 -6.194182e+000 100 42 31
1.706368e+000 2.294073e+000 -5.734005e+000 225 198 187
1.714909e+000 2.295116e+000 -5.755465e+000 225 198 187
8.544124e-001 1.351833e+000 -6.874819e+000 201 193 182
1.614224e+000 1.188160e+000 -5.489929e+000 232 223 214
-1.089395e+000 -4.760854e-001 -5.725100e+000 132 65 38
3.071041e+000 6.154552e-002 -5.473205e+000 59 40 42
-7.876700e-001 -5.265054e-001 -5.629280e+000 218 171 128
1.653383e+000 -4.238917e-001 -5.398225e+000 218 202 143
1.806611e+000 2.106091e+000 -5.368008e+000 218 87 92
1.244167e+000 1.520606e+000 -5.841642e+000 131 122 91
1.527564e+000 1.637985e+000 -5.669293e+000 105 92 73
1.924983e-001 2.977877e-001 -6.589624e+000 192 188 177
-1.536726e+000 -5.707569e-001 -5.494615e+000 120 41 26
1.575628e+000 1.753766e+000 -5.693386e+000 101 83 70
-8.738593e-001 -2.503646e-001 -5.551661e+000 236 197 150
-1.689616e+000 -5.983492e-001 -5.484329e+000 239 148 107
1.803146e+000 2.236613e+000 -5.835154e+000 227 208 193
1.876909e+000 1.554966e+000 -5.103570e+000 241 229 223
-1.281091e+000 -4.577914e-001 -5.507679e+000 231 192 146
6.439280e-001 -6.235722e-002 -5.799738e+000 231 230 226
1.593008e+000 1.624223e+000 -5.615363e+000 203 195 181
3.080613e+000 8.901391e-001 -5.619588e+000 157 140 133
-8.001045e-001 -1.162701e-001 -5.480413e+000 96 82 77
1.923426e-001 -1.230653e-001 -5.678325e+000 180 170 161
2.067648e+000 -1.339351e-001 -5.094456e+000 159 117 70
-1.718346e+000 -7.070321e-001 -5.508494e+000 155 48 54
-1.033068e+000 -3.725881e-001 -5.623704e+000 188 106 75
2.040555e+000 -2.908423e-001 -5.168919e+000 110 79 41
-7.119858e-001 -2.443559e-001 -5.497584e+000 194 132 89
-3.343145e-001 -3.175466e-001 -5.373983e+000 200 195 183
-4.180523e-001 -1.914059e-001 -5.455451e+000 177 167 157
8.880408e-001 2.321124e+000 -7.688236e+000 242 233 226
8.757880e-001 7.143040e-001 -6.449002e+000 216 212 200
-7.032207e+000 -2.645157e+000 -3.203036e+001 205 206 206
1.746685e+000 2.023904e+000 -5.602725e+000 221 209 195
1.938543e+000 2.017070e+000 -5.107382e+000 236 137 127
9.191628e-001 5.211629e-001 -5.958711e+000 146 139 110
2.933573e+000 7.814734e-001 -5.467762e+000 140 117 93
2.125232e+000 5.816743e-001 -5.017963e+000 181 100 43
-1.915912e+000 -4.944589e-001 -5.555587e+000 104 51 52
-1.198293e+000 -3.999384e-001 -5.508497e+000 184 117 98
-1.226409e+000 -6.251586e-001 -5.502336e+000 164 77 41
3.296917e+000 -2.752254e-002 -5.609020e+000 106 79 71
2.132465e+000 1.972991e+000 -4.990325e+000 184 94 83
2.111795e+000 9.996182e-001 -5.161567e+000 158 83 41
6.261314e-002 1.505974e-001 -6.058405e+000 199 190 185
-4.472278e-001 -2.359411e-001 -5.424033e+000 173 163 153
2.133734e+000 1.933406e+000 -4.993617e+000 152 105 93
-1.576854e+000 -3.657657e-001 -5.455281e+000 171 93 72
-4.217850e-001 -2.525446e-001 -5.401331e+000 176 162 153
-1.496585e-001 -2.279612e-001 -5.544982e+000 165 154 140
-1.465251e+000 -5.923040e-001 -5.459781e+000 150 73 53
-3.365575e-001 -3.148655e-001 -5.320023e+000 171 159 147
1.610514e+000 -3.975456e-001 -5.445404e+000 151 136 92
1.792383e+000 2.285222e+000 -5.731220e+000 231 180 164
2.044009e+000 1.782501e+000 -4.992424e+000 161 132 119
-1.646226e+000 -1.686821e-001 -5.608869e+000 155 78 58
2.806970e-001 -1.803729e-001 -5.687522e+000 214 210 200
3.020840e+000 1.135380e-001 -5.458870e+000 62 42 43
7.466983e-001 -2.448659e+000 -7.872093e+000 191 120 57
-1.030212e+000 -3.476969e-001 -5.662487e+000 143 60 36
6.013056e-001 -2.457377e+000 -8.076774e+000 194 124 75
8.306063e-001 2.064276e+000 -8.048684e+000 240 231 219
1.048729e+000 1.656656e+000 -6.796519e+000 219 214 208
-3.081500e+000 -3.861231e+000 -2.300759e+001 192 191 189
-3.081500e+000 -3.861231e+000 -2.300759e+001 192 191 189
1.496972e+000 1.852808e+000 -5.593942e+000 171 156 114
-2.162383e-001 1.545234e-001 -6.502458e+000 174 166 164
-2.162383e-001 1.545234e-001 -6.502458e+000 174 166 164
-1.999276e+000 -1.900526e-001 -5.800092e+000 240 216 144
-1.474798e+000 -8.216211e-002 -5.583577e+000 89 42 34
-5.915124e-002 -5.315024e-002 -6.077971e+000 120 109 84
-5.686274e-002 -5.656035e-002 -5.968201e+000 99 87 65
7.926465e-001 2.326349e-001 -5.497219e+000 207 204 197
-1.027735e+000 -3.692578e-001 -5.830148e+000 143 81 58
1.289597e+000 1.721811e-001 -5.505222e+000 229 225 216
2.197065e+000 6.620852e-001 -4.826709e+000 198 122 69
2.204717e+000 6.881033e-001 -4.799760e+000 203 133 81
-2.039588e+000 -6.042742e-001 -5.759583e+000 141 126 81
-1.395754e+000 -4.921830e-001 -5.499076e+000 96 74 70
-1.206528e+000 -4.410094e-001 -5.480180e+000 194 131 113
-1.189864e+000 -4.253985e-001 -5.455543e+000 208 141 131
-1.189864e+000 -4.253985e-001 -5.455543e+000 208 141 131
2.986765e+000 1.981714e-001 -5.383294e+000 97 76 71
3.007786e+000 3.422939e-002 -5.412914e+000 81 54 50
3.020573e+000 -5.035210e-002 -5.437169e+000 95 73 69
3.034131e+000 -5.909129e-002 -5.438307e+000 57 37 37
-6.763918e-001 -9.146799e-001 -5.881409e+000 85 27 15
1.464371e+000 1.742725e+000 -5.594623e+000 194 179 140
1.419618e+000 1.514954e+000 -5.619818e+000 182 170 117
1.691812e+000 9.377621e-001 -5.312825e+000 159 128 117
-9.073539e-001 -9.124300e-002 -5.610871e+000 168 139 110
-8.756447e-001 -6.967968e-002 -5.587826e+000 88 67 54
-2.198536e-001 -1.068552e-001 -6.016462e+000 87 74 58
-1.825704e+000 -2.725797e-001 -5.609236e+000 122 69 65
-1.810703e+000 -2.532241e-001 -5.599987e+000 117 66 62
-1.887964e+000 -3.350706e-001 -5.632404e+000 104 51 39
2.204366e+000 6.883691e-001 -4.821550e+000 199 123 71
-1.621882e+000 -4.419992e-001 -5.477908e+000 154 74 52
8.756730e-001 -8.895207e-001 -6.100204e+000 151 88 71
2.058098e+000 -1.501016e-001 -5.141550e+000 113 101 97
1.403812e+000 -9.458690e-001 -5.998816e+000 198 114 99
-2.278558e-001 1.077734e-001 -6.365053e+000 137 106 103
-8.198369e-001 -5.989747e-002 -5.579577e+000 170 127 106
-7.917830e-001 -6.799257e-002 -5.521521e+000 199 89 87
7.813699e-002 -3.534195e-001 -5.756625e+000 64 52 37
-1.880834e+000 -5.765052e-001 -5.555952e+000 72 25 24
1.988946e+000 -3.477980e-002 -5.366834e+000 207 162 157
-1.332049e+000 -6.979624e-001 -5.511569e+000 186 103 70
1.594398e+000 -4.015523e-001 -5.357849e+000 158 141 95
1.819440e+000 2.203455e+000 -5.560536e+000 199 90 91
2.150834e+000 1.967842e+000 -4.995983e+000 169 92 87
2.134813e+000 9.856970e-001 -5.233949e+000 70 34 38
-5.715879e-001 -3.462749e-002 -5.986591e+000 155 80 53
-4.829762e-001 1.199129e-001 -6.005665e+000 115 57 47
-1.754023e+000 -1.769355e-001 -5.684583e+000 91 35 34
-7.466786e-001 -1.422570e-001 -5.462554e+000 207 147 115
-7.465342e-001 -1.361591e-001 -5.451319e+000 207 147 115
-2.293624e-002 -4.335894e-001 -5.705614e+000 111 95 82
2.203579e+000 3.028830e-001 -4.840562e+000 210 130 74
-1.699266e+000 -8.101109e-001 -5.529154e+000 128 69 64
7.882321e-001 -6.590300e-001 -5.920900e+000 172 137 120
1.632012e+000 -4.516252e-001 -5.329308e+000 179 158 111
1.835285e+000 2.452034e+000 -5.290299e+000 179 62 65
1.835285e+000 2.452034e+000 -5.290299e+000 179 62 65
1.334898e+000 1.250744e+000 -5.588861e+000 184 173 125
-2.999928e-002 -3.966678e-001 -9.311052e+000 222 226 222
1.149568e+000 7.276496e-001 -5.915934e+000 236 226 177
7.150600e-001 3.973573e-001 -6.257109e+000 207 204 197
-2.021737e+000 -4.325434e-001 -5.721964e+000 58 43 48
-1.543016e+000 -2.486862e-001 -5.496018e+000 193 108 69
-1.309728e+000 -3.377079e-001 -5.579219e+000 96 58 64
1.281046e-001 -3.503018e-001 -5.782683e+000 80 67 50
3.022781e+000 1.356242e-001 -5.418593e+000 91 77 73
-1.541603e+000 -5.895438e-001 -5.413979e+000 186 96 65
-1.013597e+000 -8.235000e-001 -5.691860e+000 204 99 51
2.345718e-001 -7.421554e-001 -5.984507e+000 120 106 93
1.054154e+000 -7.538072e-001 -6.093880e+000 101 45 33
-5.803057e-001 -1.088463e+000 -5.916821e+000 231 124 77
4.286470e-001 -8.715130e-001 -6.046588e+000 173 163 153
1.635287e+000 -4.705343e-001 -5.418411e+000 155 137 94
9.943078e-001 -2.109116e+000 -7.112092e+000 142 75 68
4.348993e-003 8.978568e-001 -9.914283e+000 213 212 210
2.741468e-002 8.322598e-001 -9.797802e+000 217 92 95
1.283074e+000 1.624027e+000 -6.004986e+000 190 178 138
1.126288e+000 9.889455e-001 -6.293971e+000 218 214 203
1.338167e+000 1.299702e+000 -5.590064e+000 182 169 124
1.249765e+000 8.121867e-001 -5.838160e+000 183 173 131
1.129515e+000 6.183861e-001 -5.958788e+000 181 171 130
5.653163e-001 3.182998e-001 -6.115753e+000 221 217 211
-1.658682e+000 -2.927474e-001 -5.532453e+000 224 130 88
-3.060700e-001 -4.082457e-002 -5.629343e+000 147 135 121
-2.776433e-001 -2.042211e-001 -5.475610e+000 142 130 116
2.446345e-001 -3.388195e-001 -5.778378e+000 206 203 196
-1.636866e+000 -8.218084e-001 -5.522348e+000 64 23 23
7.965025e-001 -5.988499e-001 -5.884094e+000 138 55 46
1.889645e+000 -2.518499e-001 -5.487220e+000 88 47 48
1.301262e+000 -8.199671e-001 -6.069080e+000 196 141 102
1.340860e+000 -7.252194e-001 -6.056114e+000 184 135 90
1.592896e-001 9.515066e-001 -9.291131e+000 225 98 102
1.004235e+000 1.128458e+000 -6.391548e+000 213 209 198
-9.991684e-002 -5.140950e-001 -9.584092e+000 208 94 98
-9.991684e-002 -5.140950e-001 -9.584092e+000 208 94 98
1.028788e+000 6.151229e-001 -5.867883e+000 185 175 133
1.298703e+000 8.040065e-001 -5.604126e+000 235 233 224
4.217741e-001 1.641783e-001 -6.074034e+000 177 169 151
-6.272703e-001 -3.519384e-002 -5.700775e+000 181 171 157
1.492068e-001 -5.503560e-002 -5.736042e+000 189 179 171
-6.853587e-001 -3.355255e-001 -5.569380e+000 228 176 128
2.235393e+000 2.704346e-001 -5.218795e+000 228 176 53
6.202907e-001 -6.051331e-001 -5.898350e+000 158 125 108
1.962785e+000 -1.485921e-001 -5.385767e+000 187 161 164
1.936223e+000 -3.883710e-001 -5.560671e+000 150 107 100
5.896556e-001 1.815933e+000 -8.506219e+000 223 94 95
6.521540e-001 8.847860e-001 -8.286141e+000 221 218 209
6.797556e-001 9.761103e-001 -6.757775e+000 238 237 232
1.076370e+000 1.119297e+000 -6.313760e+000 205 201 190
3.309590e-001 3.576739e-001 -7.362825e+000 246 245 240
1.256573e+000 7.288145e-001 -6.042695e+000 183 171 128
-2.533693e-001 1.206746e-001 -6.494152e+000 140 82 68
1.076551e+000 6.196046e-001 -5.761878e+000 168 155 119
2.091911e+000 9.541815e-001 -5.169978e+000 96 45 45
-3.627608e-001 -7.382269e-001 -5.526851e+000 220 170 127
-9.308766e-001 -1.137039e+000 -5.899838e+000 101 21 23
-2.321714e-002 -9.487435e-002 -9.501213e+000 239 239 230
-8.373098e-002 -3.703169e-001 -9.501392e+000 201 91 92
-9.863465e-002 -2.272263e-001 -5.563925e+000 137 119 105
-9.805181e-002 -2.167378e-001 -5.544702e+000 137 119 105
1.920180e+000 9.204736e-002 -5.219568e+000 130 56 59
1.640571e+000 -3.658855e-001 -5.483233e+000 69 38 35
1.706838e-002 -7.441415e-003 -5.869803e+000 117 101 72
2.154427e-002 -2.479160e-002 -5.907636e+000 117 101 72
2.228578e+000 2.335420e-001 -5.088484e+000 197 117 54
-6.477208e-001 -6.618548e-001 -5.706632e+000 231 184 140
2.164672e+000 2.017491e+000 -5.063369e+000 207 78 79
1.803601e+000 1.091685e+000 -5.202259e+000 113 48 48
7.302920e-001 3.867333e-001 -6.146361e+000 224 221 214
-8.675468e-001 -2.307800e-001 -5.514188e+000 235 197 150
8.660536e-001 -7.626760e-001 -6.027292e+000 134 84 57
1.762770e+000 2.236512e+000 -5.733660e+000 219 196 184
5.894225e-001 6.077774e-001 -6.689630e+000 192 186 174
1.940852e+000 9.686291e-001 -5.193120e+000 181 71 70
-5.953462e-001 1.961987e-001 -5.973967e+000 118 58 47
2.069270e+000 -7.104430e-003 -5.064388e+000 210 175 113
2.002888e+000 -1.910932e-001 -5.210809e+000 142 54 53
-1.283880e+000 -4.671890e-001 -5.523273e+000 232 192 145
1.996672e-001 -4.945931e-001 -5.832905e+000 85 68 60
9.434191e-001 -1.347670e+000 -6.280730e+000 241 234 224
-3.902247e-001 9.799424e-003 -6.124754e+000 100 52 44
1.832484e+000 -1.122282e+000 -5.513140e+000 150 150 140
8.702398e-001 -2.203605e+000 -7.653992e+000 202 121 56
-1.678083e+000 -8.345026e-001 -5.515816e+000 123 67 51
8.442210e-001 -2.300645e+000 -7.758491e+000 219 162 122
1.832276e+000 -1.640463e+000 -5.242952e+000 253 232 193
-7.670676e-001 -8.677314e-001 -5.819056e+000 172 97 60
1.892067e+000 -3.887906e-001 -5.441146e+000 111 77 50
2.810567e-001 -3.550479e-001 -5.668666e+000 187 182 174
-7.439044e-001 -3.938915e-001 -5.469310e+000 200 138 99
-7.849390e-001 -1.040713e+000 -5.874480e+000 146 68 40
1.173528e+000 -2.087675e+000 -6.952323e+000 192 129 63
1.016764e+000 -2.645675e+000 -7.137139e+000 196 126 67
5.117135e-001 -7.998473e-001 -5.971428e+000 134 121 107
-1.633264e+000 -8.533211e-001 -5.520636e+000 208 127 84
-1.436520e+000 -8.693663e-001 -5.596627e+000 148 65 34
-1.914030e+000 -6.094796e-001 -5.563165e+000 133 80 74
9.877598e-001 -1.366691e+000 -6.545713e+000 211 202 193
1.479832e-002 -5.708260e-001 -7.248713e+000 252 249 240
9.912250e-001 -2.229972e+000 -7.359249e+000 225 142 67
1.463219e+000 7.688451e-001 -5.060041e+000 243 239 230
1.748915e+000 -1.369725e+000 -5.579373e+000 212 205 201
1.697866e+000 -1.370337e+000 -5.723799e+000 110 128 105
1.689757e+000 -1.354432e+000 -5.781200e+000 83 99 74
1.645883e+000 -1.577632e+000 -5.925851e+000 174 81 47
1.594905e+000 -1.931064e+000 -5.796769e+000 150 76 59
4.193711e-001 -7.674045e-001 -5.959817e+000 118 109 94
1.478002e+000 -1.706197e+000 -6.228424e+000 218 138 72
-1.889573e+000 -6.617390e-001 -5.592529e+000 64 31 26
-1.407048e+000 -8.461414e-001 -5.630816e+000 121 46 27
1.224896e-002 -9.130966e-001 -6.208241e+000 129 101 89
4.504307e-002 -7.964414e-001 -6.637738e+000 122 94 85
1.910234e+000 -4.711212e-001 -5.268905e+000 113 77 49
1.668994e+000 -8.895721e-001 -5.618403e+000 218 84 81
1.727419e+000 -1.398635e+000 -5.690932e+000 213 212 205
1.736375e+000 -1.224500e+000 -5.746603e+000 89 103 78
1.698652e+000 -1.563407e+000 -5.743693e+000 236 189 109
1.639327e+000 -1.745057e+000 -5.923161e+000 232 170 89
-1.324313e+000 -7.152549e-001 -5.475055e+000 164 81 56
1.479061e+000 -2.114780e+000 -6.169482e+000 233 186 121
-1.843975e+000 -6.299682e-001 -5.536486e+000 176 125 118
1.356161e+000 -2.103370e+000 -6.526985e+000 136 66 46
4.764559e-001 1.823569e+000 -8.625964e+000 218 90 88
1.317580e+000 9.368118e+000 -1.426645e+001 199 198 196
1.778987e+000 -1.788486e-001 -5.110203e+000 150 127 99
1.769372e+000 -2.599160e-001 -5.270603e+000 142 122 100
1.771422e+000 -1.544116e+000 -5.477836e+000 209 153 107
1.700380e+000 -1.410746e+000 -5.748525e+000 221 220 216
1.675070e+000 -1.673763e+000 -5.740213e+000 181 95 63
-7.331682e-001 -8.742970e-001 -5.604255e+000 162 78 49
-2.094290e-001 -1.024156e+000 -6.095854e+000 131 102 87
9.053753e-001 -1.293198e+000 -6.853944e+000 196 189 170
1.182381e+000 -2.323428e+000 -6.809905e+000 229 187 93
3.727104e-001 1.163815e+000 -8.969364e+000 248 244 235
1.939423e+000 -9.592560e-002 -5.162534e+000 129 79 59
1.489449e+000 1.502100e+000 -5.569344e+000 239 231 216
1.731921e+000 -1.503437e+000 -5.616887e+000 153 70 55
1.724031e+000 -1.584518e+000 -5.658761e+000 216 177 91
2.828715e-001 -5.506048e-001 -5.803514e+000 194 187 177
1.039607e-001 -7.893056e-001 -5.939784e+000 67 50 40
1.465263e+000 -1.897286e+000 -6.198577e+000 188 83 53
-1.977759e-002 -9.571377e-001 -6.069313e+000 124 102 91
1.843851e+000 -5.139404e-001 -5.308417e+000 138 108 100
1.960352e+000 -1.204831e+000 -5.427781e+000 222 176 88
1.734791e+000 -1.481729e+000 -5.705411e+000 176 99 71
-6.800496e-001 -8.881155e-001 -5.821009e+000 231 183 135
2.354955e+000 -1.269665e+000 -5.509486e+000 183 164 157
1.485431e+000 -4.298259e-001 -6.053118e+000 101 76 52
1.163961e+000 -2.064820e+000 -6.902058e+000 126 77 45
7.130119e-001 1.857806e-001 -5.544624e+000 245 245 236
1.727893e+000 -1.814299e+000 -5.673666e+000 194 117 49
1.646082e+000 -1.630534e+000 -5.799210e+000 234 194 109
1.645689e+000 -1.831242e+000 -5.483580e+000 195 116 52
-2.791864e-001 -8.266041e-001 -5.482110e+000 177 71 68
1.253425e+000 -2.044065e+000 -6.348170e+000 120 61 41
1.273211e+000 -2.305294e+000 -6.825073e+000 213 182 161
1.063707e+000 -1.516198e+000 -6.708664e+000 249 240 231
-2.420313e-001 -6.622608e-001 -5.515294e+000 150 68 58
9.666500e-002 -3.518406e-001 -5.673207e+000 157 147 135
1.988133e+000 -2.416284e+000 -7.924806e+000 145 106 93
1.009062e+000 -2.008564e+000 -7.382979e+000 162 54 54
1.024569e+000 -2.076645e+000 -7.319732e+000 203 102 69
1.841928e+000 -5.364357e-001 -5.539738e+000 98 47 44
1.770246e+000 -1.123080e+000 -5.703373e+000 77 92 66
1.829070e+000 -1.249997e+000 -5.390060e+000 197 127 60
1.779362e+000 -1.470104e+000 -5.555853e+000 222 190 140
1.497787e+000 -2.095661e+000 -6.114544e+000 235 191 99
1.115308e+000 -2.067500e+000 -7.155068e+000 127 72 65
1.159559e+000 -1.246248e+000 -6.188873e+000 242 209 155
1.016554e+000 -1.980419e+000 -7.338569e+000 198 131 59
1.463615e+000 -1.798540e+000 -6.297332e+000 227 178 87
3.006022e-001 4.580614e-001 -8.766044e+000 233 230 221
1.436623e-001 -8.538551e-001 -6.450267e+000 166 152 139
2.241116e-001 1.130685e+000 -9.074091e+000 232 100 100
2.262800e+000 -8.972194e-001 -5.313625e+000 187 111 52
-6.323500e-002 -1.190060e+000 -7.234928e+000 252 254 243
1.891671e+000 1.302568e+000 -5.029290e+000 185 82 79
1.960681e+000 2.003642e+000 -5.092679e+000 213 119 116
2.053044e+000 1.986244e+000 -5.047993e+000 212 123 118
-1.047561e-001 7.257208e-002 -9.630114e+000 208 87 92
-1.888087e+000 -5.602437e-001 -5.588322e+000 83 35 34
-1.308775e+000 -3.264767e-001 -5.569378e+000 102 63 66
1.971633e+000 -2.673479e-001 -5.268155e+000 140 54 56
-2.041663e+000 -4.145144e-001 -5.741664e+000 177 154 94
1.999213e+000 -4.428863e-002 -5.276722e+000 208 187 177
2.048909e+000 -3.736365e-002 -5.085875e+000 91 76 77
3.324745e-001 -1.107279e-001 -5.722963e+000 187 179 170
-2.256554e-001 -2.287811e-001 -5.481704e+000 144 132 119
1.873926e+000 4.617092e-001 -5.031952e+000 238 231 223
3.377001e+000 1.473285e+000 -6.193650e+000 140 117 107
-2.327810e-001 1.347259e-001 -6.558242e+000 205 194 187
2.928816e+000 8.210533e-001 -5.480290e+000 159 139 114
2.928816e+000 8.210533e-001 -5.480290e+000 159 139 114
-1.459827e+000 -8.134246e-002 -5.577079e+000 119 68 64
-1.356854e+000 -1.637022e-001 -5.700752e+000 126 60 45
3.484772e+000 6.052825e-001 -5.749861e+000 148 123 119
-4.712824e-001 -1.741811e-001 -5.387693e+000 177 167 155
-1.440725e+000 -5.673999e-001 -5.506245e+000 100 67 61
-1.443787e+000 -5.739938e-001 -5.493165e+000 90 36 19
2.034001e+000 -4.675786e-002 -5.142084e+000 144 130 124
1.618344e+000 -3.582796e-001 -5.362152e+000 154 133 87
4.466372e+000 -8.403700e-001 -6.406419e+000 217 203 194
1.561923e+000 2.646256e+000 -5.770209e+000 196 174 126
1.576020e+000 2.684027e+000 -5.757165e+000 189 172 127
1.568509e+000 2.678185e+000 -5.776162e+000 140 123 86
3.318008e+000 1.563531e+000 -6.220145e+000 168 140 126
-7.820023e-001 1.446414e-001 -5.910547e+000 185 89 54
-1.221495e-001 -2.102785e-002 -6.115664e+000 90 76 50
2.102417e+000 9.246541e-001 -5.135358e+000 128 54 41
-1.942962e+000 -3.017397e-001 -5.733553e+000 164 137 83
-1.244279e+000 -2.069812e-001 -5.692679e+000 146 74 53
-1.476562e-001 -8.983404e-002 -6.008880e+000 97 83 53
2.999893e+000 7.039942e-001 -5.461130e+000 104 91 91
1.873260e+000 -4.703280e-001 -5.511878e+000 115 69 68
4.772948e-001 2.011154e+000 -8.843166e+000 228 173 94
3.329910e+000 1.501562e+000 -6.192051e+000 148 111 101
3.369771e+000 1.492538e+000 -6.203471e+000 164 141 128
-7.326496e-001 -5.035030e-002 -5.942742e+000 161 85 52
-1.372203e-001 -2.377664e-002 -6.160238e+000 110 96 71
3.083297e+000 7.596657e-001 -5.541750e+000 189 174 168
3.418409e+000 8.197172e-001 -5.804498e+000 177 149 138
-1.973374e+000 -3.635084e-001 -5.711491e+000 152 123 73
-1.971027e+000 -3.607244e-001 -5.707645e+000 152 123 73
-1.964788e+000 -3.997774e-001 -5.739131e+000 238 213 156
-1.899828e+000 -3.139334e-001 -5.706167e+000 241 209 158
-1.719187e+000 -1.682895e-001 -5.621550e+000 130 75 69
-1.483141e+000 -2.273921e-001 -5.580775e+000 102 33 17
3.471845e+000 6.877477e-001 -5.769848e+000 193 168 161
-1.001398e+000 -9.481355e-001 -5.738912e+000 184 68 23
-6.471365e-001 -8.897619e-001 -5.842743e+000 94 36 15
3.126471e-001 2.407112e-001 -6.124191e+000 219 217 205
-1.890175e+000 -2.672482e-001 -5.746898e+000 219 200 129
-1.996724e+000 -4.463289e-001 -5.693579e+000 226 196 130
-1.862141e+000 -3.533190e-001 -5.591435e+000 83 28 23
-5.275756e-001 -5.628396e-001 -5.464646e+000 241 199 149
-1.026594e+000 -1.459077e-001 -5.913986e+000 167 67 34
-1.440959e+000 -3.452007e-001 -5.505623e+000 114 50 26
1.314423e+000 -7.502849e-001 -6.010604e+000 118 46 39
1.980619e+000 -1.292668e-001 -5.318797e+000 146 59 60
4.806682e-001 8.583665e-001 -8.616540e+000 214 210 201
-2.526704e-001 -2.312595e-001 -9.942661e+000 219 218 221
-1.855909e+000 -2.008298e-001 -5.731292e+000 196 168 108
-9.523429e-001 -1.002383e-001 -5.930756e+000 184 70 36
-7.952471e-001 3.535390e-002 -5.907451e+000 188 97 64
-2.003682e+000 -3.054820e-001 -5.730484e+000 114 87 58
-2.000195e+000 -3.769101e-001 -5.706342e+000 232 207 144
3.024942e+000 7.093320e-001 -5.481912e+000 109 93 93
2.018690e+000 -6.371222e-002 -5.185834e+000 218 205 205
2.018690e+000 -6.371222e-002 -5.185834e+000 218 205 205
1.630345e+000 -3.298683e-001 -5.370585e+000 84 41 41
-1.058654e+000 -2.080113e-001 -5.854476e+000 220 124 80
5.534438e-001 -6.314970e-001 -5.910830e+000 208 200 187
1.797273e+000 2.021308e+000 -5.401935e+000 242 227 220
9.191628e-001 1.377594e+000 -6.769800e+000 232 229 223
8.967805e-001 2.315372e+000 -7.736194e+000 245 232 231
8.548544e-001 2.208960e+000 -7.934452e+000 217 93 97
1.641696e+000 2.386626e+000 -5.761967e+000 109 48 48
1.697594e+000 1.709594e+000 -5.571664e+000 216 207 192
1.299088e+000 -1.073071e+000 -6.066921e+000 139 45 47
8.999712e-001 2.316846e+000 -7.686433e+000 241 233 228
4.243466e-001 1.307456e+000 -8.894021e+000 239 235 228
3.958439e-001 8.124479e-001 -8.674633e+000 217 213 204
1.324057e+000 1.507523e+000 -6.118630e+000 132 123 92
-2.007939e+000 -2.251795e-001 -5.800644e+000 251 227 163
-1.842621e+000 -3.608000e-001 -5.616851e+000 86 33 27
2.071114e+000 1.747947e+000 -4.986249e+000 190 68 67
1.317433e+000 9.955238e-001 -5.757012e+000 124 117 87
1.317433e+000 9.955238e-001 -5.757012e+000 124 117 87
-1.255636e+000 -2.192914e-001 -5.721271e+000 141 69 54
-1.856747e+000 -5.990138e-001 -5.564032e+000 86 41 37
2.154291e+000 5.812620e-001 -5.070222e+000 182 100 41
1.411270e+000 2.311707e+000 -6.206528e+000 197 190 173
2.085097e+000 1.981806e+000 -5.026483e+000 208 111 102
1.821106e+000 7.487947e-001 -5.043906e+000 157 121 105
-1.296426e+000 -2.846026e-001 -5.614187e+000 182 160 163
1.554744e+000 4.274754e-001 -5.288065e+000 231 228 221
-4.839287e-001 -1.898007e-001 -5.440310e+000 174 164 152
2.032002e+000 2.001664e+000 -5.070370e+000 232 146 138
-1.212655e+000 -2.725948e-001 -5.705467e+000 131 51 25
1.524236e+000 2.605956e+000 -6.449846e+000 215 92 94
1.638701e+000 2.551815e+000 -5.745123e+000 190 70 70
1.719844e+000 9.602656e-001 -5.288560e+000 146 109 95
-2.721537e-001 -3.588106e-001 -5.318025e+000 192 182 170
-1.144488e+000 -2.616225e-001 -5.654243e+000 179 98 64
5.583225e-001 -8.137105e-001 -5.979508e+000 188 175 164
-1.383683e+000 -2.569668e-001 -5.636491e+000 132 90 67
-2.231212e-001 -1.343340e-001 -5.515007e+000 152 138 127
-4.817038e-002 1.259613e-001 -6.172657e+000 202 198 189
1.198899e+000 2.554877e+000 -7.274249e+000 240 168 151
-1.230938e-002 7.299439e-001 -9.774172e+000 200 89 92
3.670488e-001 2.662147e-001 -8.699889e+000 221 221 211
1.225119e+000 9.383657e-001 -5.970009e+000 172 166 142
3.496087e+000 1.350602e+000 -6.169290e+000 160 129 126
9.659672e-001 5.579479e-001 -6.188070e+000 208 205 198
1.158245e+000 7.540510e-001 -5.896586e+000 246 237 189
3.540580e+000 1.185170e+000 -6.085908e+000 145 126 119
-7.991758e-002 -3.310538e-002 -6.064926e+000 116 104 76
-1.920799e+000 -2.657494e-001 -5.709073e+000 173 146 94
-1.952989e+000 -3.074973e-001 -5.715214e+000 146 119 70
-1.952406e+000 -3.068369e-001 -5.714277e+000 146 119 70
-1.484037e+000 -7.233201e-002 -5.586241e+000 112 62 63
-8.272295e-001 -4.363100e-002 -5.571794e+000 168 97 85
-1.973707e+000 -4.398373e-001 -5.691586e+000 125 97 49
-1.604660e+000 -3.119048e-001 -5.485041e+000 180 87 48
3.033190e+000 7.171764e-001 -5.485678e+000 116 98 98
-1.447822e+000 -5.269915e-001 -5.503438e+000 89 46 35
-5.542593e-001 -4.368134e-001 -5.483147e+000 198 78 66
2.089571e+000 4.697553e-001 -5.032184e+000 170 132 111
2.082436e+000 8.118666e-002 -5.183142e+000 197 129 105
4.578690e+000 -5.218233e-001 -6.382814e+000 202 188 179
4.531996e+000 -8.365999e-001 -6.410738e+000 183 170 163
4.079146e+000 2.038133e+000 -7.832339e+000 133 114 99
1.774299e+000 2.039776e+000 -5.557431e+000 220 207 193
3.969950e-001 1.995837e-001 -8.687061e+000 213 213 201
2.042045e+000 2.000971e+000 -4.991382e+000 209 112 102
3.520838e+000 1.405768e+000 -6.243316e+000 166 141 137
1.081972e+000 6.211752e-001 -6.244685e+000 205 201 191
1.082065e+000 6.201894e-001 -6.246330e+000 205 201 191
-4.759534e-001 1.895310e-001 -6.039790e+000 140 85 72
-1.951888e+000 -1.873145e-001 -5.808804e+000 115 84 60
-1.861819e+000 -1.829974e-001 -5.722394e+000 220 194 133
2.639780e-002 -1.017987e-002 -6.010151e+000 114 98 75
5.071414e-001 1.559094e-001 -6.023374e+000 182 175 159
-1.939366e+000 -3.154062e-001 -5.725921e+000 238 213 157
-1.775226e-001 -2.433381e-002 -5.703254e+000 164 151 143
-7.750313e-002 -7.683058e-002 -5.974286e+000 97 84 50
-1.104029e+000 -2.802984e-001 -5.626094e+000 164 82 58
-1.048636e+000 -3.371904e-001 -5.609643e+000 169 83 56
3.237216e+000 5.943591e-001 -5.586152e+000 117 98 94
3.290523e+000 6.608898e-001 -5.655086e+000 125 100 96
-1.609594e+000 -3.979523e-001 -5.473175e+000 159 78 59
-1.038776e+000 -4.201169e-001 -5.678195e+000 172 91 61
1.988402e+000 3.390800e-001 -4.993704e+000 200 159 88
1.131668e+000 -1.333603e+000 -6.295733e+000 175 137 120
1.601218e+000 -4.058432e-001 -5.393743e+000 157 146 92
1.666167e+000 2.821545e+000 -5.780354e+000 121 104 83
1.543962e+000 2.626123e+000 -5.734831e+000 188 170 116
1.508379e+000 2.352638e+000 -5.802585e+000 171 161 131
3.903077e+000 2.145112e+000 -8.266869e+000 131 113 101
1.800988e+000 2.168302e+000 -5.596313e+000 197 174 158
1.924505e+000 2.004180e+000 -5.144391e+000 212 107 99
1.810913e+000 1.694729e+000 -5.355669e+000 219 211 200
3.048243e-001 2.937255e-001 -6.982541e+000 223 223 215
1.180364e+000 8.325883e-001 -6.056639e+000 203 199 187
3.437834e+000 1.346898e+000 -6.134404e+000 167 143 137
3.375256e+000 1.220866e+000 -6.004695e+000 142 126 121
-8.798896e-001 -7.673609e-002 -5.596660e+000 54 41 53
-1.958421e+000 -4.905859e-001 -5.668748e+000 76 45 22
-1.303074e+000 -3.429921e-001 -5.570400e+000 89 58 46
3.224528e+000 7.113925e-001 -5.614040e+000 174 154 148
-1.524504e-001 -1.807732e-001 -5.514541e+000 137 124 110
-1.461553e+000 -5.592795e-001 -5.491549e+000 145 97 75
-5.003901e-001 -5.539130e-001 -5.464904e+000 199 150 106
1.957463e+000 2.704258e-001 -5.044201e+000 185 103 91
1.975103e+000 3.046782e-001 -5.015558e+000 176 132 71
1.616237e+000 2.771834e+000 -5.764417e+000 110 95 71
1.708587e+000 2.845881e+000 -5.821055e+000 116 98 75
1.625217e+000 2.554830e+000 -5.719082e+000 186 69 69
2.531119e-001 -9.483832e-002 -8.450612e+000 212 209 202
6.711588e-001 7.174767e-001 -6.610438e+000 210 206 192
1.148296e+000 8.257698e-001 -5.990280e+000 227 221 214
3.372035e+000 1.221944e+000 -6.002059e+000 141 126 121
3.433983e+000 1.189778e+000 -6.016170e+000 174 154 147
-8.148529e-001 9.624164e-002 -5.876553e+000 148 54 26
-4.568386e-001 1.282913e-001 -6.068414e+000 91 42 35
-1.212035e+000 -2.326240e-001 -5.690405e+000 164 85 55
-1.212429e+000 -2.332801e-001 -5.691292e+000 164 85 55
-2.956368e-001 -1.545058e-002 -5.650295e+000 175 164 154
2.054713e+000 9.197582e-001 -5.182346e+000 138 66 47
-4.147595e-002 -4.657709e-002 -5.736241e+000 185 180 170
3.372501e+000 6.592748e-001 -5.700617e+000 121 100 95
3.521187e+000 6.129055e-001 -5.768539e+000 134 113 110
3.669620e+000 5.325642e-001 -5.856319e+000 154 136 132
-1.705822e+000 -5.231373e-001 -5.488282e+000 179 76 54
-1.431191e+000 -5.946682e-001 -5.486781e+000 134 70 45
-9.742216e-001 -1.048115e+000 -5.816414e+000 135 45 24
-6.722446e-001 -9.651609e-001 -5.867730e+000 132 48 28
-4.748967e-001 -5.130118e-001 -5.416946e+000 234 190 156
