ply
format ascii 1.0
element face 0
property list uchar int vertex_indices
element vertex 869
property float x
property float y
property float z
property uchar diffuse_red
property uchar diffuse_green
property uchar diffuse_blue
end_header
8.413314e-001 -9.953977e-001 -6.052949e+000 165 95 92
1.685258e+000 -1.262837e+000 -5.777704e+000 193 196 189
1.717874e+000 -1.267307e+000 -5.682077e+000 90 100 91
1.719303e+000 -1.266554e+000 -5.687049e+000 90 100 91
1.732959e+000 -1.306681e+000 -5.616821e+000 213 207 191
1.140971e+000 -1.385014e+000 -6.342941e+000 198 170 151
1.713439e+000 -1.349002e+000 -5.659771e+000 154 152 147
1.713439e+000 -1.349002e+000 -5.659771e+000 154 152 147
1.768261e+000 -1.432176e+000 -5.500312e+000 190 174 172
1.762085e+000 -1.459800e+000 -5.488402e+000 207 187 174
1.578939e+000 -1.553822e+000 -5.927605e+000 199 119 62
1.614332e+000 -1.567819e+000 -5.886244e+000 199 102 64
1.218848e+000 -1.837560e+000 -6.133315e+000 186 157 133
1.496393e+000 -1.829819e+000 -6.050200e+000 215 143 67
1.545639e+000 -1.868004e+000 -5.930121e+000 205 188 186
8.180875e-001 2.434347e+000 -8.043046e+000 177 116 87
2.102611e+000 -2.511070e-001 -4.833968e+000 219 156 105
-4.326135e-001 -4.054186e-001 -5.370332e+000 214 93 92
-2.050563e-001 -4.203200e-001 -5.335028e+000 177 167 156
-4.558748e-001 -4.220132e-001 -5.408452e+000 177 99 71
1.828789e+000 -6.611512e-001 -5.577727e+000 102 45 32
1.885125e+000 -7.573830e-001 -5.348924e+000 155 126 110
-1.216145e+000 -8.022462e-001 -5.637667e+000 122 64 42
-9.479243e-001 -8.664759e-001 -5.739738e+000 176 89 54
1.771087e+000 -1.108630e+000 -5.625417e+000 95 109 93
-8.020729e-001 -1.055348e+000 -5.826087e+000 156 68 36
1.751379e+000 -1.282821e+000 -5.595058e+000 210 207 188
1.202171e+000 -1.284539e+000 -6.168254e+000 103 42 19
1.502552e+000 -1.468552e+000 -6.098722e+000 193 60 56
1.535408e+000 -1.632845e+000 -6.061838e+000 182 93 44
1.531863e+000 -1.633093e+000 -6.049596e+000 182 93 44
1.405438e+000 -1.914754e+000 -6.240591e+000 195 104 49
-1.264324e+000 -2.671254e-001 -5.639247e+000 134 94 77
1.913279e+000 -6.002303e-001 -5.324310e+000 117 81 76
-8.170789e-001 -3.978953e-001 -5.596059e+000 214 161 117
1.407391e+000 -1.640441e+000 -6.362882e+000 173 102 49
1.603808e+000 -1.862144e+000 -5.785085e+000 205 123 58
1.597850e+000 1.523521e+000 -5.616420e+000 205 197 185
1.992436e+000 -6.347799e-001 -5.055403e+000 176 96 25
-1.476543e+000 -6.769772e-001 -5.444448e+000 200 115 81
-1.476543e+000 -6.769772e-001 -5.444448e+000 200 115 81
-1.512670e-001 -7.283921e-001 -5.634324e+000 128 79 72
-1.624901e+000 -1.700767e-001 -5.645312e+000 126 116 116
1.874644e+000 -6.331155e-001 -5.432597e+000 113 48 47
-1.496395e+000 -5.433031e-001 -5.444969e+000 162 82 58
1.463520e+000 2.811902e-001 -5.468179e+000 243 239 228
5.341805e-001 2.031611e+000 -8.464763e+000 213 90 93
6.794444e-001 -8.496752e-001 -6.013762e+000 214 206 195
1.724141e+000 -1.408922e+000 -5.604832e+000 206 136 74
1.468770e+000 -1.783672e+000 -6.082197e+000 208 152 71
2.088380e+000 8.690875e-001 -5.237361e+000 181 115 60
1.994997e+000 1.286745e-001 -5.266894e+000 167 75 60
8.447443e-001 -8.821576e-001 -5.962396e+000 133 63 55
2.005024e+000 1.036474e+000 -5.170976e+000 141 56 52
1.770688e+000 -1.114278e+000 -5.628755e+000 86 98 78
1.770286e+000 -1.114015e+000 -5.629505e+000 86 98 78
1.441990e+000 -1.677976e+000 -6.222471e+000 166 70 41
-1.908853e+000 -5.433174e-001 -5.690751e+000 197 177 142
1.732380e+000 1.199855e+000 -5.169927e+000 192 73 69
5.925262e-001 2.139688e+000 -8.386877e+000 201 95 97
1.982515e+000 1.639575e-001 -5.373501e+000 104 63 59
2.019216e+000 -1.744825e-004 -5.128921e+000 185 140 80
-9.503560e-001 -1.206877e-001 -5.804162e+000 163 111 83
-5.755892e-001 -1.873290e-001 -5.427915e+000 215 198 183
2.024445e-001 -3.684250e-001 -5.784960e+000 115 105 95
-1.205755e-001 -7.289907e-001 -5.640131e+000 122 46 41
1.806707e+000 -1.033989e+000 -5.545986e+000 173 167 159
-1.694018e+000 -6.792551e-001 -5.569036e+000 127 104 102
-4.944637e-001 -8.348570e-001 -5.684857e+000 229 189 139
1.722234e+000 -1.051214e+000 -5.772052e+000 93 77 68
1.722374e+000 -1.051234e+000 -5.771417e+000 93 77 68
1.692443e+000 -1.111074e+000 -5.832073e+000 98 80 68
1.746600e+000 -1.093705e+000 -5.685519e+000 143 153 125
1.734933e+000 -1.151340e+000 -5.687652e+000 79 94 65
2.669655e+000 -1.175158e+000 -5.642199e+000 83 56 48
-1.162053e+000 -8.357986e-001 -5.747238e+000 139 77 62
1.686841e+000 -1.146452e+000 -5.873926e+000 67 45 35
1.670290e+000 -1.174112e+000 -5.878753e+000 103 81 70
1.670290e+000 -1.174112e+000 -5.878753e+000 103 81 70
1.686825e+000 -1.374286e+000 -5.740541e+000 205 205 202
1.719289e+000 -1.380069e+000 -5.634324e+000 221 197 171
1.738258e+000 -1.434832e+000 -5.576643e+000 212 165 82
1.652122e+000 -1.495165e+000 -5.819360e+000 216 155 77
1.656091e+000 -1.523165e+000 -5.764590e+000 226 176 92
1.745307e+000 -1.506379e+000 -5.525027e+000 215 188 174
1.700376e+000 -1.553312e+000 -5.594313e+000 196 175 167
1.634188e+000 -1.714130e+000 -5.747815e+000 121 99 93
1.457791e+000 -1.746175e+000 -6.201397e+000 224 148 70
1.609749e+000 -1.742295e+000 -5.805625e+000 131 107 105
1.585657e+000 -1.793008e+000 -5.862013e+000 115 92 89
1.535555e+000 -1.911661e+000 -5.935831e+000 122 106 99
1.439977e+000 -2.042131e+000 -6.116653e+000 128 119 113
1.439977e+000 -2.042131e+000 -6.116653e+000 128 119 113
-9.641059e-001 -1.241635e-001 -5.837784e+000 198 122 79
1.840483e+000 -6.335149e-001 -5.547751e+000 131 95 90
-1.515133e+000 -4.120193e-001 -5.476278e+000 154 80 59
1.700975e+000 -9.212475e-001 -5.783433e+000 83 41 43
1.743637e+000 -9.856415e-001 -5.748152e+000 58 40 31
-1.528736e+000 -8.157365e-001 -5.570372e+000 185 107 68
-7.987661e-001 -1.053114e+000 -5.863048e+000 165 73 39
2.346166e-001 -1.022643e+000 -7.492572e+000 205 200 189
-6.266449e-001 -1.189253e+000 -5.973676e+000 171 90 64
8.914175e-001 -1.487577e+000 -7.074877e+000 223 211 201
1.411047e+000 -1.620324e+000 -6.340307e+000 128 63 35
1.609037e+000 -1.677585e+000 -5.801368e+000 215 139 71
1.579045e+000 -1.846954e+000 -5.847347e+000 223 188 170
1.397587e+000 -1.901605e+000 -6.282059e+000 203 113 54
1.655304e+000 8.810591e-001 -5.171231e+000 203 186 174
1.548546e+000 -6.341089e-002 -4.587577e+000 222 213 201
2.159206e+000 -3.204659e-001 -4.822582e+000 159 141 128
2.796725e-001 -4.174570e-001 -5.903227e+000 132 122 112
2.526710e+000 -8.605525e-001 -5.320382e+000 139 110 90
-3.105914e-001 -7.099411e-001 -5.631475e+000 176 112 69
-1.114380e+000 -8.293608e-001 -5.721645e+000 122 59 41
-1.114380e+000 -8.293608e-001 -5.721645e+000 122 59 41
1.595554e+000 -1.347037e+000 -5.996289e+000 124 66 46
1.669755e+000 -1.443978e+000 -5.728881e+000 196 109 71
2.027200e+000 -4.799902e-002 -5.119781e+000 230 225 220
2.140522e+000 -4.665540e-001 -5.307290e+000 173 95 28
1.616251e-001 -2.951528e-001 -5.714026e+000 152 142 132
2.549505e-002 -5.192088e-001 -5.828369e+000 102 83 69
-1.527130e+000 -5.821511e-001 -5.447575e+000 173 88 58
-1.218880e+000 -7.489791e-001 -5.612241e+000 130 69 44
1.733334e+000 -1.019104e+000 -5.750871e+000 54 40 31
1.568407e+000 -1.835995e+000 -5.877705e+000 225 196 162
1.869509e+000 -6.858893e-001 -5.475006e+000 120 75 46
1.869509e+000 -6.858893e-001 -5.475006e+000 120 75 46
-4.376421e-001 -5.327661e-001 -5.448965e+000 197 141 102
-2.099622e+000 1.352418e+001 -2.574697e+001 162 176 210
-7.774442e-001 -5.880224e-002 -5.563636e+000 217 220 215
-8.819218e-001 -4.669669e-001 -5.612895e+000 139 62 41
1.471628e+000 -1.799190e+000 -6.141619e+000 229 179 80
1.522076e+000 -1.877849e+000 -6.009443e+000 241 185 94
-1.772267e+000 1.430332e+001 -2.548695e+001 146 160 206
-1.845753e+000 1.364708e+001 -2.498364e+001 151 166 210
-5.243242e+000 1.585132e+001 -3.268371e+001 145 142 133
2.088119e+000 2.301456e-001 -5.009567e+000 202 121 55
1.414853e+000 2.134810e-001 -5.416129e+000 224 218 207
-1.022820e+000 -3.312904e-001 -5.667534e+000 157 72 49
8.673077e-001 2.528502e+000 -7.932280e+000 215 89 92
8.673077e-001 2.528502e+000 -7.932280e+000 215 89 92
-2.245557e+000 1.343946e+001 -2.655663e+001 59 90 171
-2.245557e+000 1.343946e+001 -2.655663e+001 59 90 171
9.086203e-001 1.916615e+000 -7.717563e+000 249 243 239
8.071805e-001 -1.705638e+000 -7.112363e+000 186 65 69
1.004174e+000 2.154208e+000 -7.586429e+000 254 251 242
1.310438e+000 1.224078e+000 -5.863602e+000 123 114 85
2.009062e+000 -9.350718e-003 -5.179532e+000 197 128 117
-9.665465e-001 -8.631014e-002 -5.868199e+000 169 120 95
1.861871e+000 -5.787776e-001 -5.504224e+000 122 79 76
1.861871e+000 -5.787776e-001 -5.504224e+000 122 79 76
-4.497029e-001 -4.497535e-001 -5.457972e+000 182 114 80
2.782405e+000 -8.145479e-001 -5.519908e+000 44 27 25
1.781806e+000 -1.134475e+000 -5.585258e+000 85 99 83
1.756514e+000 -1.287047e+000 -5.572092e+000 140 136 129
1.783344e+000 -1.330218e+000 -5.468942e+000 221 158 69
1.645386e+000 -1.330624e+000 -5.857197e+000 199 189 183
1.659557e+000 -1.351694e+000 -5.833243e+000 208 205 202
1.750744e+000 -1.476082e+000 -5.505171e+000 213 195 192
1.415329e+000 -1.639532e+000 -6.329632e+000 151 73 32
1.587981e+000 -1.614367e+000 -5.945549e+000 188 103 64
1.660441e+000 -1.671945e+000 -5.655815e+000 214 203 204
1.665576e+000 -1.671755e+000 -5.670344e+000 214 203 204
-1.927407e+000 1.354646e+001 -2.524171e+001 98 114 174
-1.914210e+000 1.345408e+001 -2.508821e+001 98 114 174
7.710379e-001 -6.034397e-001 -5.876145e+000 194 79 78
1.765972e+000 -1.088904e+000 -5.634961e+000 196 202 178
1.428724e+000 -1.656506e+000 -6.297283e+000 186 92 51
1.551443e+000 -1.779328e+000 -5.907660e+000 239 174 92
1.993716e+000 -6.667976e-001 -5.086234e+000 177 98 24
1.968408e+000 -7.368064e-001 -5.120805e+000 189 133 38
-1.968729e+000 -5.386129e-001 -5.759399e+000 128 118 109
-1.050655e+000 -8.177445e-001 -5.696748e+000 168 85 52
2.685241e+000 -1.170358e+000 -5.699560e+000 40 24 20
2.969636e+000 4.815663e-001 -5.491047e+000 170 153 148
1.112398e+000 -6.369971e-001 -5.939995e+000 190 134 83
1.112503e+000 -6.372887e-001 -5.939185e+000 190 134 83
1.562622e+000 -1.722179e+000 -5.983237e+000 232 163 76
-9.011436e-001 -1.173281e+000 -5.962628e+000 143 70 44
-9.011436e-001 -1.173281e+000 -5.962628e+000 143 70 44
1.755110e+000 -1.366491e+000 -5.548537e+000 161 75 59
2.005221e+000 2.480018e-001 -5.226167e+000 127 86 63
5.809039e-001 1.855791e+000 -8.265270e+000 212 133 128
1.883625e+000 -6.222718e-001 -5.423101e+000 121 58 54
2.903788e+000 -8.007491e-001 -5.556959e+000 71 43 37
-4.011985e-001 -4.604092e-001 -5.381689e+000 230 156 126
8.795702e-001 -5.117953e-001 -5.846248e+000 175 70 67
1.816170e+000 -7.030970e-001 -5.588009e+000 107 48 37
5.316766e-001 -5.296270e-001 -6.044256e+000 152 142 133
7.694535e-001 -6.020088e-001 -5.879260e+000 204 84 81
1.817947e+000 -1.091429e+000 -5.465283e+000 186 108 74
2.676100e+000 -1.139021e+000 -5.599273e+000 46 30 25
-1.514891e+000 -8.021678e-001 -5.567634e+000 168 102 70
8.333928e-001 -9.243715e-001 -6.009549e+000 176 82 70
1.672592e+000 -1.188928e+000 -5.867620e+000 115 86 80
1.747044e+000 -1.203334e+000 -5.642403e+000 131 138 120
1.686748e+000 -1.235913e+000 -5.774640e+000 84 94 65
-1.082473e+000 -8.577507e-001 -5.749323e+000 173 98 69
-7.206685e-001 -9.183257e-001 -5.820122e+000 151 71 40
1.706592e+000 -1.294092e+000 -5.710529e+000 202 215 187
1.706797e+000 -1.335510e+000 -5.671877e+000 217 212 193
1.787613e+000 -1.361388e+000 -5.452511e+000 227 164 74
1.347803e+000 -1.362200e+000 -6.018264e+000 165 55 44
6.787804e-001 -1.224817e+000 -7.411757e+000 143 101 100
1.464993e+000 -1.661009e+000 -6.225118e+000 222 135 68
1.350257e+000 -1.863752e+000 -6.384993e+000 129 65 41
1.326168e+000 -1.973707e+000 -6.423586e+000 145 87 46
1.402149e+000 -2.052716e+000 -6.203222e+000 136 117 111
1.422673e+000 -2.025127e+000 -6.137983e+000 93 80 74
1.430204e+000 -2.023877e+000 -6.162102e+000 93 80 74
1.479054e+000 -2.022877e+000 -6.060723e+000 174 91 78
1.166292e+000 -2.031800e+000 -6.848052e+000 178 122 71
1.400951e+000 -2.067251e+000 -6.215713e+000 213 207 196
1.417889e+000 -2.081674e+000 -6.155774e+000 194 132 97
1.425899e+000 -2.073666e+000 -6.143372e+000 241 221 192
1.350413e+000 1.049510e+000 -5.664522e+000 230 225 172
1.485310e+000 -2.091050e-001 -4.570664e+000 130 117 96
1.884729e+000 -1.728180e-001 -5.469462e+000 102 58 53
1.982137e+000 -2.742431e-001 -5.076626e+000 162 127 83
1.869512e+000 -4.799207e-001 -5.588847e+000 109 61 58
1.295590e+000 -3.353166e-001 -6.253115e+000 119 74 52
1.792765e+000 -5.627731e-001 -5.631893e+000 92 46 43
1.904860e+000 -6.297773e-001 -5.344112e+000 113 44 44
2.623738e+000 -9.679708e-001 -5.348557e+000 151 128 110
2.615369e+000 -9.865168e-001 -5.337798e+000 76 56 43
2.710276e+000 -1.107589e+000 -5.612623e+000 80 54 43
2.846385e+000 -1.110745e+000 -5.713069e+000 66 35 34
-1.645230e+000 -6.225985e-001 -5.559975e+000 213 122 75
3.893776e-001 -6.982675e-001 -6.001030e+000 133 121 112
1.763127e+000 -1.091293e+000 -5.627513e+000 206 212 196
2.687969e+000 -1.155841e+000 -5.650580e+000 70 31 24
-1.604251e+000 -7.074896e-001 -5.580373e+000 172 87 56
-1.374720e+000 -7.085816e-001 -5.509981e+000 140 70 47
-1.204609e+000 -7.294651e-001 -5.583499e+000 147 90 67
1.665947e+000 -1.125958e+000 -5.891640e+000 65 40 35
1.723235e+000 -1.178498e+000 -5.723037e+000 75 92 62
-9.766276e-001 -8.584246e-001 -5.737657e+000 191 98 64
-1.010773e+000 -9.630170e-001 -6.071488e+000 143 70 51
-8.154320e-001 -1.042455e+000 -5.829676e+000 166 76 45
1.680189e+000 -1.499735e+000 -5.719782e+000 213 133 82
1.528658e+000 -1.529247e+000 -6.111927e+000 170 73 46
1.561848e+000 -1.745107e+000 -5.890828e+000 224 151 78
1.561848e+000 -1.745107e+000 -5.890828e+000 224 151 78
1.624180e+000 -1.711793e+000 -5.762040e+000 232 212 202
1.509185e+000 -1.818111e+000 -6.054760e+000 233 158 77
1.579155e+000 -1.846634e+000 -5.848007e+000 228 196 181
1.444418e+000 -2.071934e+000 -6.116797e+000 218 176 92
1.313243e+000 -2.098228e+000 -6.438951e+000 240 188 94
1.322480e+000 1.063965e+000 -5.635228e+000 159 149 109
1.264113e+000 7.285639e-001 -5.701739e+000 177 172 135
1.930913e+000 -1.278772e-001 -5.345984e+000 213 177 176
1.852948e+000 -6.349176e-001 -5.508013e+000 139 94 86
1.852948e+000 -6.349176e-001 -5.508013e+000 139 94 86
1.881184e+000 -6.978125e-001 -5.397229e+000 133 87 81
-5.522436e-001 -4.225499e-001 -5.493603e+000 206 118 68
2.217792e-001 -3.727965e-001 -5.771904e+000 146 136 126
-1.496463e+000 -4.035436e-001 -5.467803e+000 148 75 60
-1.609041e-001 -6.660545e-001 -5.451370e+000 161 150 132
-1.409314e-001 -7.125298e-001 -5.577375e+000 171 68 62
-1.363112e+000 -7.381736e-001 -5.491744e+000 128 56 34
1.794245e+000 -1.280928e+000 -5.421916e+000 197 124 57
-7.822837e-001 -9.093679e-001 -5.824087e+000 123 46 29
-3.966276e-002 -9.468538e-001 -6.415790e+000 111 67 63
1.658143e+000 -1.329606e+000 -5.839357e+000 151 139 134
1.779113e+000 -1.329555e+000 -5.496619e+000 197 118 57
1.747253e+000 -1.382980e+000 -5.555131e+000 213 134 70
-5.750627e-001 -1.174836e+000 -5.981508e+000 151 79 55
1.358175e+000 -1.969470e+000 -6.360238e+000 189 126 53
1.403848e+000 -2.099812e+000 -6.194177e+000 242 222 211
1.403848e+000 -2.099812e+000 -6.194177e+000 242 222 211
1.415050e+000 -2.103328e+000 -6.155137e+000 192 111 77
1.433431e+000 -2.102055e+000 -6.144137e+000 232 185 95
1.453833e+000 -2.075777e+000 -6.089006e+000 240 188 98
-7.672411e-001 -5.018409e-002 -5.589307e+000 216 206 206
-1.419571e+000 -9.539736e-002 -5.614559e+000 203 198 195
-2.579640e-001 -2.358422e-001 -5.463845e+000 200 199 186
1.845659e+000 -5.336265e-001 -5.578406e+000 113 72 70
1.844451e+000 -5.361454e-001 -5.572693e+000 113 72 70
-5.278888e-001 -4.232616e-001 -5.434173e+000 222 134 89
-1.263371e+000 -5.127470e-001 -5.551842e+000 79 61 49
7.446055e-001 -6.901657e-001 -6.018142e+000 90 63 51
1.700793e+000 -8.959210e-001 -5.751022e+000 74 34 32
-1.232070e+000 -5.759771e-001 -5.480587e+000 220 186 139
8.051738e-002 -6.470286e-001 -6.043077e+000 50 40 33
1.779631e+000 -1.293135e+000 -5.490779e+000 178 93 74
1.716675e+000 -1.305867e+000 -5.660999e+000 88 110 75
1.665280e+000 -1.332554e+000 -5.799649e+000 214 204 195
1.669636e+000 -1.522644e+000 -5.747476e+000 232 194 109
-6.004059e-001 -1.187668e+000 -5.937891e+000 130 54 40
-5.993242e-001 -1.213900e+000 -5.986468e+000 163 86 59
-5.993242e-001 -1.213900e+000 -5.986468e+000 163 86 59
1.407525e+000 -1.719257e+000 -6.325343e+000 172 86 46
1.398407e+000 -1.938702e+000 -6.269222e+000 232 164 74
2.680467e+000 -9.760962e-001 -5.443053e+000 70 50 38
2.705413e+000 -1.183511e+000 -5.731774e+000 44 26 24
-1.361110e+000 -7.749881e-001 -5.540968e+000 131 59 37
1.654796e+000 -1.146850e+000 -5.879937e+000 62 44 30
-2.567231e-001 -1.099006e+000 -5.943219e+000 147 82 60
1.206708e+000 -1.292731e+000 -6.191552e+000 111 46 43
1.617540e+000 -1.506863e+000 -5.909603e+000 230 169 88
1.522129e+000 -1.662797e+000 -6.031804e+000 230 160 69
1.392834e+000 -2.023957e+000 -6.236983e+000 205 114 70
1.479374e+000 -2.032826e+000 -6.038374e+000 185 91 82
1.479374e+000 -2.032826e+000 -6.038374e+000 185 91 82
1.990824e+000 1.011728e+000 -5.155481e+000 166 61 59
1.294841e+000 1.555711e+000 -6.033126e+000 176 163 123
1.294841e+000 1.555711e+000 -6.033126e+000 176 163 123
7.899982e-001 2.432822e+000 -7.981793e+000 224 224 224
-1.987236e-001 -1.319285e-001 -5.594187e+000 207 205 193
-1.966819e-001 -1.603235e-001 -5.531837e+000 207 205 193
-8.438183e-002 -2.158679e-001 -5.510749e+000 135 120 101
2.612153e+000 -9.116463e-001 -5.372103e+000 167 146 127
-1.810608e+000 -4.011752e-001 -5.705711e+000 68 27 28
1.596760e+000 -8.601339e-001 -5.633186e+000 130 37 35
-9.796148e-001 1.493087e+001 -2.300050e+001 71 98 169
9.407232e-001 2.636977e+000 -7.795006e+000 232 222 227
-8.568008e-001 -5.063404e-001 -5.722485e+000 163 110 78
3.620369e-002 -8.609985e-001 -5.984390e+000 164 150 138
1.649643e+000 -1.553951e+000 -5.807707e+000 236 186 104
1.304372e+000 9.106734e-001 -5.771023e+000 170 161 125
-1.503279e+000 -4.823145e-001 -5.477006e+000 106 35 28
-1.503279e+000 -4.823145e-001 -5.477006e+000 106 35 28
1.532072e+000 -8.194535e-001 -5.552975e+000 111 84 60
1.655568e+000 -1.335369e+000 -5.836347e+000 157 145 138
1.471565e+000 -4.902504e-001 -6.108175e+000 113 89 58
2.710149e+000 -1.237512e+000 -5.691770e+000 43 25 23
2.710149e+000 -1.237512e+000 -5.691770e+000 43 25 23
1.303501e+000 -1.437700e+000 -6.240716e+000 211 67 67
1.654148e+000 -1.524150e+000 -5.815253e+000 221 166 85
4.445567e-001 -1.118951e+000 -7.283588e+000 207 197 188
1.273709e+000 5.996132e-001 -5.654064e+000 248 246 236
1.737660e+000 8.941232e-001 -5.091530e+000 160 64 62
1.426916e-001 -7.921881e-001 -6.182065e+000 151 139 127
1.446793e+000 2.558730e+000 -6.936253e+000 244 240 231
1.828429e+000 3.820455e-001 -5.007907e+000 246 242 230
2.098142e+000 1.694651e-001 -4.879231e+000 216 136 82
2.821920e+000 5.660783e-001 -5.437121e+000 191 175 162
2.889016e+000 5.103034e-001 -5.452627e+000 187 173 162
2.098702e+000 1.833660e-001 -5.066979e+000 236 173 66
2.104231e+000 -2.717776e-002 -4.883601e+000 222 160 110
1.981492e+000 1.798989e-001 -5.311803e+000 106 71 59
1.914465e+000 -1.336414e-001 -5.350330e+000 126 92 90
1.838734e+000 -5.089996e-001 -5.549005e+000 97 49 47
1.838118e+000 -5.264987e-001 -5.524554e+000 114 69 63
1.906087e+000 -6.311334e-001 -5.369091e+000 145 84 80
1.908950e+000 -6.485941e-001 -5.389001e+000 148 101 90
2.688959e+000 -6.955794e-001 -5.412735e+000 90 63 47
2.570722e+000 -7.618278e-001 -5.374928e+000 91 57 58
1.184752e+000 -3.241659e-001 -5.832946e+000 136 92 67
1.831685e+000 -5.755984e-001 -5.618909e+000 111 53 54
-6.432162e-001 -1.863109e-001 -5.414114e+000 198 80 78
-5.291265e-001 -3.077068e-001 -5.373302e+000 218 100 93
1.575026e+000 -5.556437e-001 -5.686153e+000 97 75 51
2.693716e+000 -1.073959e+000 -5.612642e+000 79 56 48
-7.151204e-001 -2.984075e-001 -5.476207e+000 199 155 108
-4.075976e-001 -4.341969e-001 -5.356086e+000 231 109 98
1.218693e+000 -6.059531e-001 -5.960271e+000 178 127 79
1.776509e+000 -8.956899e-001 -5.709737e+000 121 100 99
2.679425e+000 -1.139821e+000 -5.639360e+000 80 60 53
2.791258e+000 -1.087991e+000 -5.684093e+000 65 39 34
-1.289390e+000 -3.190121e-001 -5.588858e+000 99 63 50
-9.496693e-001 -3.855603e-001 -5.615150e+000 195 120 82
-8.962245e-001 -3.971963e-001 -5.611056e+000 173 99 62
1.473103e+000 -7.673072e-001 -6.118920e+000 133 97 70
1.712656e+000 -1.008013e+000 -5.798946e+000 60 35 31
1.778767e+000 -1.016684e+000 -5.638706e+000 185 191 174
1.764791e+000 -1.071414e+000 -5.660803e+000 121 133 102
1.753464e+000 -1.123877e+000 -5.635266e+000 106 118 90
1.766267e+000 -1.150945e+000 -5.620036e+000 143 144 124
1.766267e+000 -1.150945e+000 -5.620036e+000 143 144 124
2.712572e+000 -1.248388e+000 -5.779762e+000 68 39 30
2.712572e+000 -1.248388e+000 -5.779762e+000 68 39 30
2.742932e+000 -1.261822e+000 -5.767739e+000 82 58 54
-1.592638e+000 -4.371799e-001 -5.457454e+000 233 138 86
-1.345036e+000 -5.359195e-001 -5.475948e+000 144 106 79
-1.298939e+000 -5.686881e-001 -5.496629e+000 148 134 139
-9.198691e-002 -7.144234e-001 -5.603896e+000 117 66 53
-2.945124e-002 -7.007618e-001 -5.941947e+000 98 75 59
1.315566e-001 -5.631111e-001 -5.984923e+000 92 77 59
3.076940e-001 -6.926112e-001 -6.014399e+000 70 42 39
7.667291e-001 -9.391056e-001 -5.781103e+000 169 64 55
1.708770e+000 -1.089691e+000 -5.821571e+000 80 61 50
1.696153e+000 -1.106209e+000 -5.840624e+000 103 82 71
1.696374e+000 -1.105470e+000 -5.840480e+000 103 82 71
1.672198e+000 -1.139438e+000 -5.880055e+000 91 69 58
1.669458e+000 -1.142009e+000 -5.874284e+000 91 69 58
1.734572e+000 -1.162822e+000 -5.658444e+000 143 162 127
1.744784e+000 -1.214337e+000 -5.669642e+000 121 130 104
1.759773e+000 -1.284668e+000 -5.578725e+000 159 149 136
1.715870e+000 -1.260233e+000 -5.711251e+000 193 200 181
1.720527e+000 -1.265309e+000 -5.690166e+000 93 107 89
1.746361e+000 -1.324321e+000 -5.611920e+000 208 199 190
-1.851090e+000 -3.808311e-001 -5.680146e+000 173 150 102
-1.873219e+000 -4.903590e-001 -5.657614e+000 171 150 98
-1.752715e+000 -5.945246e-001 -5.574570e+000 105 56 52
8.249510e-001 -9.787074e-001 -6.009352e+000 185 69 67
1.719996e+000 -1.343487e+000 -5.674541e+000 151 154 142
1.746137e+000 -1.449906e+000 -5.548100e+000 120 97 84
1.729198e+000 -1.461135e+000 -5.566629e+000 220 166 91
1.354664e+000 -1.354195e+000 -6.004701e+000 209 108 96
1.354664e+000 -1.354195e+000 -6.004701e+000 209 108 96
1.633571e+000 -1.356953e+000 -5.884258e+000 127 64 61
1.681684e+000 -1.598651e+000 -5.656990e+000 117 94 94
1.699935e+000 -1.651623e+000 -5.614228e+000 225 147 69
-1.499947e+000 -8.542423e-001 -5.596114e+000 193 115 70
-8.588023e-001 -1.009732e+000 -5.846572e+000 199 104 65
-8.564472e-001 -1.019073e+000 -5.824468e+000 199 104 65
-4.579635e-001 -1.064369e+000 -5.762803e+000 198 148 126
-4.579635e-001 -1.064369e+000 -5.762803e+000 198 148 126
1.097641e+000 -1.299858e+000 -6.259685e+000 213 190 172
1.597204e+000 -1.806742e+000 -5.841425e+000 110 86 83
1.599643e+000 -1.805398e+000 -5.848069e+000 110 86 83
5.186240e-001 -1.088623e+000 -7.271864e+000 102 46 48
1.428903e+000 -1.651079e+000 -6.257514e+000 181 79 47
1.560318e+000 -1.889674e+000 -5.923450e+000 218 192 180
1.563538e+000 -1.907545e+000 -5.931365e+000 200 122 67
1.520510e+000 -1.916706e+000 -5.931376e+000 214 192 174
1.541636e+000 -1.906912e+000 -5.950516e+000 131 109 105
1.545641e+000 -1.920304e+000 -5.963278e+000 224 208 172
1.591744e+000 -2.020243e+000 -5.611082e+000 252 216 156
1.483876e+000 -1.958668e+000 -6.059864e+000 239 218 200
1.379098e+000 -1.956119e+000 -6.271524e+000 199 125 52
1.371265e+000 -2.066013e+000 -6.235363e+000 223 169 108
1.272862e+000 -2.080740e+000 -6.519171e+000 208 139 80
1.352686e+000 -2.109146e+000 -6.249332e+000 120 101 93
1.357820e+000 -2.106741e+000 -6.263762e+000 120 101 93
1.330248e+000 -2.129349e+000 -6.343796e+000 219 206 182
1.316256e+000 -2.193710e+000 -6.383647e+000 128 119 114
1.316256e+000 -2.193710e+000 -6.383647e+000 128 119 114
1.287514e+000 -2.229205e+000 -6.369766e+000 217 186 181
1.396110e+000 1.384756e+000 -5.573420e+000 185 174 130
2.088748e+000 2.680275e-001 -5.037001e+000 197 117 51
1.323189e+000 9.800270e-001 -5.688551e+000 197 186 138
2.037133e+000 2.675919e-001 -5.311755e+000 142 99 82
2.068466e+000 2.820151e-001 -5.332445e+000 133 86 69
2.135837e+000 -1.197041e-001 -4.959470e+000 255 230 204
2.731887e+000 -2.697362e-001 -5.319808e+000 148 129 114
1.924961e+000 -5.822400e-002 -5.423041e+000 117 77 77
2.048965e+000 -6.877270e-001 -4.843391e+000 231 198 173
2.103577e+000 -6.477061e-001 -4.862960e+000 108 84 77
2.085092e+000 -7.112716e-001 -4.899088e+000 135 115 112
2.702616e+000 -6.453746e-001 -5.386040e+000 85 66 49
1.867482e+000 -4.495352e-001 -5.553542e+000 120 75 69
1.866632e+000 -4.752477e-001 -5.535667e+000 97 49 42
1.911254e+000 -6.466876e-001 -5.323221e+000 144 117 106
3.427162e-001 -1.128358e-001 -5.720641e+000 219 217 205
1.842907e+000 -5.666458e-001 -5.549167e+000 103 40 39
1.855110e+000 -6.506192e-001 -5.518921e+000 114 63 39
1.939130e+000 -7.231236e-001 -5.490897e+000 169 135 121
2.598499e+000 -8.905043e-001 -5.374956e+000 100 75 58
1.372176e-001 -3.150683e-001 -5.679770e+000 131 115 102
1.793405e+000 -7.750411e-001 -5.706018e+000 103 38 37
1.832995e+000 -8.482579e-001 -5.456962e+000 157 95 52
2.106668e+000 -1.095910e+000 -5.361740e+000 214 130 52
2.688582e+000 -1.042848e+000 -5.579119e+000 41 28 27
-1.345290e+000 -1.417230e-001 -5.589252e+000 200 193 183
-1.345290e+000 -1.417230e-001 -5.589252e+000 200 193 183
-5.796548e-001 -3.214650e-001 -5.499604e+000 217 153 115
-5.781814e-001 -3.394540e-001 -5.470125e+000 217 153 115
1.553906e+000 -8.422873e-001 -5.523876e+000 122 94 70
1.801805e+000 -8.680185e-001 -5.612945e+000 169 121 65
1.792037e+000 -9.199592e-001 -5.616362e+000 185 167 155
1.818292e+000 -9.932490e-001 -5.498476e+000 195 131 55
1.786341e+000 -9.468803e-001 -5.635605e+000 190 181 178
2.755426e+000 -1.077388e+000 -5.660123e+000 65 37 34
-1.651180e+000 -2.030470e-001 -5.634921e+000 130 81 81
-8.972126e-001 -3.577163e-001 -5.647036e+000 223 161 119
1.381497e-001 -5.091603e-001 -5.926272e+000 67 52 33
1.767860e+000 -9.806531e-001 -5.686715e+000 187 187 169
1.765167e+000 -1.035909e+000 -5.675880e+000 83 96 70
1.806877e+000 -1.095862e+000 -5.529984e+000 161 155 144
1.761552e+000 -1.138745e+000 -5.656249e+000 94 105 79
1.826904e+000 -1.247658e+000 -5.366705e+000 223 175 103
-9.272365e-001 -4.275735e-001 -5.693111e+000 166 93 66
-3.752192e-001 -6.824148e-001 -5.653248e+000 197 130 75
1.715255e+000 -1.148318e+000 -5.763784e+000 137 148 121
1.751546e+000 -1.176215e+000 -5.653562e+000 196 203 178
1.694338e+000 -1.249859e+000 -5.776584e+000 186 189 170
1.705856e+000 -1.277690e+000 -5.707759e+000 106 115 88
1.770672e+000 -1.316696e+000 -5.522364e+000 203 127 61
1.777834e+000 -1.420530e+000 -5.471707e+000 221 200 185
1.779726e+000 -1.419593e+000 -5.474733e+000 221 200 185
-1.809869e+000 -5.531166e-001 -5.603860e+000 140 98 80
1.662696e+000 -1.240437e+000 -5.832909e+000 78 65 56
1.685633e+000 -1.262932e+000 -5.778637e+000 183 185 178
1.698043e+000 -1.333727e+000 -5.753712e+000 217 210 193
1.716387e+000 -1.329057e+000 -5.698172e+000 225 218 199
-1.563911e+000 -7.168364e-001 -5.528234e+000 203 105 60
-1.574735e+000 -7.938531e-001 -5.511835e+000 126 71 65
-1.039460e+000 -8.776497e-001 -5.740333e+000 193 108 71
-7.286952e-001 -9.203755e-001 -5.774817e+000 154 68 41
1.348266e+000 -1.361379e+000 -6.020259e+000 162 53 44
1.614615e+000 -1.330089e+000 -6.004486e+000 98 35 27
1.719086e+000 -1.509354e+000 -5.618226e+000 169 87 63
1.712849e+000 -1.512716e+000 -5.608947e+000 169 87 63
1.702103e+000 -1.596418e+000 -5.650345e+000 231 204 201
1.689131e+000 -1.630761e+000 -5.643045e+000 227 204 185
1.909577e+000 -1.691686e+000 -5.534471e+000 97 71 54
-1.059699e+000 -8.777382e-001 -5.758280e+000 159 79 55
1.635037e+000 -1.731018e+000 -5.757533e+000 228 204 192
1.482637e-001 -8.283068e-001 -7.136202e+000 206 200 188
1.553904e+000 -1.625053e+000 -6.047962e+000 190 105 55
1.596749e+000 -1.704290e+000 -5.854376e+000 183 74 53
1.605675e+000 -1.761395e+000 -5.806949e+000 229 201 194
1.584823e+000 -1.782250e+000 -5.847549e+000 225 201 190
1.621311e+000 -1.730838e+000 -5.766548e+000 114 93 92
1.626428e+000 -1.734578e+000 -5.802796e+000 226 204 190
1.665406e+000 -1.954742e+000 -5.557091e+000 106 76 56
9.493651e-001 -1.418254e+000 -6.849430e+000 225 219 207
1.594111e+000 -2.029438e+000 -5.632829e+000 213 132 76
1.454645e+000 -1.878451e+000 -6.165683e+000 235 188 83
1.347131e+000 -1.945632e+000 -6.198517e+000 178 108 45
1.507016e+000 -1.931839e+000 -6.022161e+000 234 216 202
1.513543e+000 -1.952594e+000 -5.972415e+000 232 214 199
1.466666e+000 -2.011245e+000 -6.049057e+000 234 216 205
1.371143e+000 -2.091055e+000 -6.228233e+000 111 101 92
1.381663e+000 -2.108871e+000 -6.188133e+000 111 99 85
1.381663e+000 -2.108871e+000 -6.188133e+000 111 99 85
1.355606e+000 -2.122596e+000 -6.298891e+000 242 223 217
1.342751e+000 -2.166716e+000 -6.255933e+000 233 215 214
1.312004e+000 -2.225179e+000 -6.384392e+000 181 104 82
1.288416e+000 -2.244851e+000 -6.374401e+000 169 92 84
9.541219e-001 -2.092065e+000 -7.214045e+000 192 113 84
2.858374e+000 5.705257e-001 -5.450402e+000 159 142 128
2.105002e+000 -4.089779e-001 -4.816960e+000 217 139 82
2.069107e+000 -6.873766e-001 -4.848391e+000 106 84 72
8.162146e-001 2.488740e+000 -8.268365e+000 186 120 78
1.906956e+000 -6.195104e-001 -5.331848e+000 143 111 105
1.902307e+000 -5.921505e-001 -5.443012e+000 117 41 45
2.557957e+000 -7.220365e-001 -5.325702e+000 70 44 37
2.557957e+000 -7.220365e-001 -5.325702e+000 70 44 37
1.886406e+000 -6.927555e-001 -5.408324e+000 129 87 81
2.615298e+000 -9.291115e-001 -5.393693e+000 105 81 56
1.754479e+000 -7.190479e-001 -5.777450e+000 77 30 31
2.645937e+000 -1.050378e+000 -5.530503e+000 117 105 99
7.991835e-001 -5.821402e-001 -5.866957e+000 190 73 65
1.836442e+000 -9.720877e-001 -5.529535e+000 195 129 55
2.233895e+000 -1.264899e+000 -5.417615e+000 76 51 39
-1.232338e+000 -3.360877e-001 -5.578543e+000 67 44 38
1.754262e+000 -9.585601e-001 -5.812614e+000 89 59 54
1.767225e+000 -1.153133e+000 -5.557744e+000 104 115 87
-1.311986e+000 -5.975757e-001 -5.477948e+000 77 58 48
-1.250559e+000 -5.396642e-001 -5.486843e+000 99 69 57
-1.500734e-001 -7.108515e-001 -5.643515e+000 137 89 74
1.715503e+000 -1.165884e+000 -5.773736e+000 72 92 58
1.715503e+000 -1.165884e+000 -5.773736e+000 72 92 58
-1.869000e+000 -3.796451e-001 -5.704630e+000 165 149 97
-1.836679e+000 -4.378987e-001 -5.673627e+000 187 156 116
-6.298643e-001 -8.514042e-001 -5.588398e+000 163 92 54
3.569787e-001 -8.199348e-001 -6.020412e+000 174 166 154
1.169537e+000 -1.165182e+000 -6.007347e+000 223 174 117
1.169537e+000 -1.165182e+000 -6.007347e+000 223 174 117
1.630586e+000 -1.219680e+000 -5.904424e+000 114 80 72
1.646350e+000 -1.288858e+000 -5.893372e+000 126 98 94
-1.458383e+000 -7.881868e-001 -5.630341e+000 154 78 52
-1.407081e+000 -7.886145e-001 -5.597097e+000 149 74 43
-1.466740e+000 -8.966124e-001 -5.513974e+000 153 73 36
-1.130103e+000 -8.639054e-001 -5.749974e+000 130 62 43
-9.481662e-001 -9.546332e-001 -5.763975e+000 212 114 76
1.611607e+000 -1.560026e+000 -5.850503e+000 224 141 69
1.687703e+000 -1.626646e+000 -5.701290e+000 224 206 187
1.596478e+000 -1.748077e+000 -5.887054e+000 174 77 67
1.562692e+000 -1.800305e+000 -5.918117e+000 216 133 60
-7.024598e-001 -1.183826e+000 -6.096969e+000 190 99 62
9.103700e-001 -1.326121e+000 -7.020091e+000 203 194 177
1.544726e+000 -1.935876e+000 -5.880676e+000 238 183 90
1.618329e+000 -1.986854e+000 -5.575098e+000 255 226 187
8.574724e-001 -1.527998e+000 -7.003957e+000 163 84 86
1.407108e+000 -1.802690e+000 -6.283841e+000 174 91 47
1.438549e+000 -1.935350e+000 -6.133816e+000 207 139 50
1.463313e+000 -1.996712e+000 -6.112402e+000 241 219 198
1.339771e+000 -1.968786e+000 -6.499527e+000 202 159 80
1.268754e+000 -2.025073e+000 -6.705484e+000 202 129 76
1.266142e+000 -2.001631e+000 -6.583109e+000 129 64 44
1.297145e+000 -2.091365e+000 -6.520314e+000 235 176 99
1.329941e+000 -2.179743e+000 -6.275385e+000 235 219 214
9.537319e-001 -1.974224e+000 -7.198477e+000 206 137 76
1.122104e+000 -2.076856e+000 -7.023780e+000 229 151 97
1.173565e+000 -2.081867e+000 -6.868978e+000 198 113 79
1.252910e+000 -2.092912e+000 -6.711163e+000 187 110 86
1.210752e+000 -2.204487e+000 -6.610089e+000 210 136 87
1.273161e+000 -2.266905e+000 -6.372064e+000 233 173 94
1.273161e+000 -2.266905e+000 -6.372064e+000 233 173 94
2.869432e+000 6.574110e-001 -5.486898e+000 165 149 133
1.982355e+000 1.618965e-001 -5.330836e+000 136 100 88
2.532918e+000 -7.347768e-001 -5.326671e+000 94 64 62
2.513996e+000 -8.651374e-001 -5.306830e+000 161 135 120
-1.881290e-001 -1.573741e-001 -5.542155e+000 204 197 187
4.067358e-001 -1.301200e-001 -5.712143e+000 204 202 189
-1.613129e-001 -2.712497e-001 -5.451699e+000 141 133 123
1.732601e+000 -6.617786e-001 -5.662541e+000 83 39 32
-1.418218e+000 -1.031674e-001 -5.598535e+000 197 189 187
-1.430264e+000 -1.397057e-001 -5.602242e+000 94 48 49
5.426454e-002 -3.689417e-001 -5.799144e+000 95 76 62
1.597236e+000 -8.374174e-001 -5.784524e+000 116 31 28
1.855285e+000 -9.799731e-001 -5.516033e+000 218 169 76
1.434023e-001 -5.108976e-001 -5.917727e+000 69 53 36
6.701826e-001 -6.497191e-001 -5.949047e+000 148 59 55
7.361675e-001 -6.325403e-001 -5.940455e+000 199 78 76
1.128046e+000 -6.942249e-001 -6.006499e+000 184 114 63
1.815762e+000 -1.232609e+000 -5.428510e+000 235 182 88
-1.625980e+000 -5.142290e-001 -5.476378e+000 223 122 77
-1.557983e+000 -5.394833e-001 -5.465508e+000 236 150 110
-1.130187e-001 -7.582152e-001 -5.690661e+000 131 98 81
7.023191e-001 -7.748778e-001 -5.998490e+000 225 214 198
1.991431e+000 -1.401118e+000 -5.448768e+000 196 130 70
-1.839984e+000 -3.549498e-001 -5.712491e+000 204 181 129
-1.361904e+000 -8.100213e-001 -5.638123e+000 141 68 46
-1.003714e+000 -8.125644e-001 -5.708480e+000 192 99 66
-8.364883e-001 -8.830062e-001 -5.758057e+000 132 49 31
-5.623756e-001 -9.239182e-001 -5.897834e+000 113 57 46
9.232263e-002 -8.800970e-001 -6.128071e+000 145 127 116
1.623879e+000 -1.426738e+000 -5.927639e+000 151 54 46
1.508052e+000 -1.778217e+000 -6.067437e+000 237 163 69
1.586068e+000 -1.945273e+000 -5.991366e+000 208 121 50
1.299643e+000 -2.052075e+000 -6.448951e+000 225 179 68
1.224254e+000 -2.097484e+000 -6.697288e+000 219 147 105
9.115026e-001 -2.070527e+000 -7.347341e+000 165 85 73
9.526822e-001 -2.053873e+000 -7.229825e+000 157 60 56
1.267445e+000 7.022005e-001 -5.710710e+000 244 240 229
2.099922e+000 -5.373556e-001 -4.815782e+000 110 85 74
2.099922e+000 -5.373556e-001 -4.815782e+000 110 85 74
2.078082e+000 -6.525833e-001 -4.837530e+000 90 71 58
2.952529e+000 -3.525518e-001 -5.527907e+000 140 129 123
7.893585e-001 1.151366e+000 -6.762729e+000 222 219 210
1.990580e+000 -6.559646e-001 -5.283164e+000 153 103 43
2.492103e+000 -8.258509e-001 -5.339677e+000 91 70 67
2.492103e+000 -8.258509e-001 -5.339677e+000 91 70 67
1.862691e+000 -5.966356e-001 -5.513040e+000 118 44 41
-5.008073e-001 -5.143180e-001 -5.440379e+000 200 105 62
1.577822e-001 -3.717250e-001 -5.815276e+000 114 99 89
-1.080042e+000 -4.620604e-001 -5.479313e+000 173 125 89
1.451629e+000 -7.364404e-001 -6.118625e+000 102 69 42
1.574263e+000 -8.404384e-001 -5.969722e+000 196 62 59
6.263826e-002 -6.302011e-001 -5.975110e+000 116 99 84
-1.467056e+000 -8.474261e-001 -5.553512e+000 134 57 32
-1.473354e+000 -8.286396e-001 -5.587977e+000 134 57 32
-1.301062e+000 -8.066877e-001 -5.596684e+000 120 49 28
1.485440e+000 -1.322880e+000 -5.903623e+000 214 69 66
1.653735e+000 -1.472745e+000 -5.794858e+000 228 166 78
-1.153364e+000 -8.579667e-001 -5.808205e+000 146 80 59
-5.308919e-001 -1.032003e+000 -5.956529e+000 97 36 28
1.630195e+000 -1.578539e+000 -5.849152e+000 211 91 63
1.640770e+000 -1.701683e+000 -5.719812e+000 226 207 177
1.646701e+000 -1.735641e+000 -5.686220e+000 185 81 57
-8.645757e-001 -1.112109e+000 -5.997149e+000 207 119 79
1.417377e-001 -7.492614e-001 -7.146259e+000 185 174 161
-7.388507e-001 -1.210614e+000 -6.206626e+000 169 90 60
1.428546e+000 -1.939329e+000 -6.253382e+000 207 120 46
3.594747e-001 -1.182229e+000 -7.902349e+000 243 243 233
1.372453e+000 -1.992854e+000 -6.310664e+000 221 158 67
1.355560e+000 -2.190787e+000 -6.279295e+000 197 100 78
9.333162e-001 -2.075223e+000 -7.287463e+000 230 179 100
1.927275e+000 -3.597815e-002 -5.400452e+000 89 41 39
2.523000e+000 -8.426703e-001 -5.370921e+000 73 37 36
-1.317945e+000 -1.138825e-001 -5.533527e+000 195 195 197
1.435832e+000 -5.847109e-001 -6.088458e+000 100 75 46
1.435832e+000 -5.847109e-001 -6.088458e+000 100 75 46
1.802904e+000 -1.009258e+000 -5.555130e+000 216 206 204
2.230473e-001 -4.560860e-001 -5.961780e+000 91 73 56
1.564248e+000 -8.056075e-001 -5.995883e+000 99 32 31
1.518348e+000 -8.395999e-001 -6.063951e+000 197 59 56
1.715335e+000 -9.601952e-001 -5.798473e+000 58 36 31
1.747327e+000 -1.036377e+000 -5.712993e+000 110 118 96
1.768051e+000 -1.048724e+000 -5.662860e+000 163 170 139
2.057432e+000 -1.366797e+000 -5.174972e+000 135 115 100
-1.904626e+000 -3.177199e-001 -5.758995e+000 63 54 58
-1.904626e+000 -3.177199e-001 -5.758995e+000 63 54 58
3.348307e-001 -8.354261e-001 -5.967126e+000 169 156 144
-1.559943e+000 -7.415844e-001 -5.538150e+000 210 122 85
-6.024476e-002 -8.633670e-001 -6.106773e+000 125 104 83
-3.053103e-002 -8.888311e-001 -6.139710e+000 155 137 123
1.503602e+000 -1.856015e+000 -6.052982e+000 241 187 88
1.488081e+000 -1.899533e+000 -5.916384e+000 232 179 98
2.389126e-001 -1.024816e+000 -7.620142e+000 242 240 232
1.306225e+000 -2.074039e+000 -6.467834e+000 147 87 68
8.961863e-001 -1.983965e+000 -7.368718e+000 144 67 52
9.854954e-001 -2.070810e+000 -7.019790e+000 175 70 66
1.200375e+000 -2.151613e+000 -6.523974e+000 206 119 99
8.081340e-001 -2.002477e+000 -7.403028e+000 115 47 40
1.579118e+000 -6.570237e-002 -4.636684e+000 98 82 68
1.175917e+000 2.874071e+000 -7.342975e+000 218 219 215
1.278089e+000 1.142364e+001 -1.703614e+001 201 200 196
1.278089e+000 1.142364e+001 -1.703614e+001 201 200 196
7.883792e-001 2.455437e+000 -8.008505e+000 212 210 207
1.987845e+000 -4.377858e-001 -5.356607e+000 130 80 45
1.611574e+000 -3.386162e-001 -5.588761e+000 99 65 44
1.592337e+000 -4.572329e-001 -5.528387e+000 105 85 53
1.803854e+000 -9.652481e-001 -5.594744e+000 167 158 152
-5.433084e-001 -4.782092e-001 -5.476803e+000 244 202 152
3.801102e-001 -4.499644e-001 -6.020334e+000 85 70 63
6.532223e-001 -6.003174e-001 -6.005918e+000 210 205 189
-1.130481e+000 -6.952507e-001 -5.690505e+000 87 33 21
-5.752395e-001 -7.855406e-001 -5.783692e+000 210 162 116
1.663264e+000 -1.250289e+000 -5.868679e+000 66 67 47
-4.061717e-001 -1.032428e+000 -5.769281e+000 194 179 164
1.796313e-002 -8.904191e-001 -6.049180e+000 131 109 97
1.611062e+000 -1.416447e+000 -5.980861e+000 213 147 62
1.656636e-002 -9.280472e-001 -9.118329e+000 231 224 218
9.262952e-001 -2.027654e+000 -7.293212e+000 216 163 76
9.744979e-001 1.355416e+000 -6.517188e+000 233 230 223
1.233284e+000 1.015610e+000 -6.089539e+000 239 237 225
1.548731e+000 -3.392520e-001 -5.988189e+000 93 39 34
-4.004892e-001 -4.860621e-001 -5.414218e+000 245 206 159
2.876274e-001 -4.409947e-001 -5.947227e+000 65 52 43
3.249531e-001 -4.642993e-001 -6.172887e+000 82 63 56
1.829440e+000 -1.185583e+000 -5.439125e+000 214 141 74
-2.860614e-001 -7.616350e-001 -5.640589e+000 216 163 116
-6.860507e-001 -7.103632e-001 -5.719280e+000 172 113 75
3.029057e-002 -8.573741e-001 -5.984216e+000 161 146 133
-1.463197e+000 -7.940957e-001 -5.556961e+000 116 42 29
-6.240290e-001 -8.284316e-001 -5.759847e+000 220 170 124
1.164965e+000 -1.228477e+000 -6.168404e+000 243 204 146
-4.776912e-001 -1.097608e+000 -5.904482e+000 212 122 73
-5.668118e-001 -1.080677e+000 -5.951524e+000 192 97 64
1.473481e+000 -1.736945e+000 -6.123804e+000 236 186 97
1.170060e+000 -1.996697e+000 -6.896056e+000 150 96 58
1.294859e+000 -2.137328e+000 -6.414411e+000 235 182 98
9.824313e-001 -2.014143e+000 -7.240513e+000 171 68 63
1.080259e+000 -2.061392e+000 -7.003034e+000 156 90 74
1.192507e+000 -2.054167e+000 -6.783460e+000 222 178 88
2.095192e+000 -8.004319e-001 -5.005576e+000 173 134 100
-3.677935e-001 -2.070724e-001 -5.425432e+000 189 182 172
1.559593e+000 -2.539478e-001 -6.270050e+000 83 52 35
8.466400e-002 -5.228709e-001 -5.837985e+000 125 112 96
1.813175e+000 -1.368071e+000 -5.258001e+000 200 123 56
1.290592e+000 -1.015862e+000 -5.958662e+000 116 41 36
-8.358672e-001 -7.202197e-001 -5.729595e+000 99 41 30
1.658003e+000 -1.336044e+000 -5.840534e+000 174 161 156
1.555331e+000 -1.433669e+000 -6.050059e+000 127 45 37
-9.690929e-001 -1.046663e+000 -6.057126e+000 216 215 213
1.306961e+000 -2.010165e+000 -6.463335e+000 208 160 76
1.608084e+000 -4.202806e-001 -5.437066e+000 185 168 117
1.608084e+000 -4.202806e-001 -5.437066e+000 185 168 117
2.250469e+000 -8.709909e-001 -5.100174e+000 155 135 126
2.154273e+000 -8.612507e-001 -5.518535e+000 206 119 48
-1.460262e+000 -8.617789e-002 -5.564418e+000 188 182 182
-7.939486e-001 -4.906881e-001 -5.588201e+000 156 78 49
-1.489957e+000 -5.006882e-001 -5.434025e+000 123 45 27
1.769919e+000 -1.461155e+000 -5.551601e+000 221 199 195
-6.895275e-002 -9.494982e-001 -6.238731e+000 98 56 44
-8.869501e-001 -1.165147e+000 -6.162835e+000 221 216 213
2.812378e-001 -9.941092e-001 -7.506143e+000 204 190 179
1.341527e+000 -1.838151e+000 -6.253681e+000 105 46 37
1.341527e+000 -1.838151e+000 -6.253681e+000 105 46 37
1.351029e+000 -2.047948e+000 -6.383188e+000 242 194 85
1.459794e+000 -2.151450e+000 -6.137068e+000 208 127 57
1.173234e+000 6.636133e-001 -5.690801e+000 140 133 104
-5.626024e-001 -5.201286e-001 -5.534224e+000 244 202 153
1.288079e+000 -1.664578e+000 -6.277426e+000 87 40 34
5.935895e-001 -1.279749e+000 -7.425573e+000 217 205 189
9.930812e-002 -9.093191e-001 -9.072854e+000 245 237 230
6.974711e-001 -1.856175e+000 -7.244987e+000 218 83 87
1.163809e+000 -2.131100e+000 -6.801616e+000 241 207 115
1.698207e+000 -5.836175e-001 -5.365913e+000 100 52 47
1.711895e+000 -5.710867e-001 -5.389691e+000 100 52 47
6.454571e-001 -5.504383e-001 -5.908667e+000 222 218 206
6.454571e-001 -5.504383e-001 -5.908667e+000 222 218 206
-1.198083e+000 -4.880330e-001 -5.522579e+000 239 203 153
1.184490e+000 -1.998939e+000 -6.450741e+000 106 53 41
1.328349e+000 -2.089808e+000 -6.303052e+000 230 186 81
8.626885e-001 -1.935795e+000 -7.232562e+000 122 61 49
-8.006226e-001 -3.079520e-001 -5.533880e+000 245 205 154
6.999217e-001 -8.329195e-001 -6.064550e+000 224 218 206
6.328261e-001 -1.020067e+000 -6.297875e+000 164 145 130
1.672604e+000 -1.556209e+000 -5.847878e+000 230 184 91
-6.720052e-001 -1.202504e+000 -6.213225e+000 155 77 55
1.543475e+000 -1.974608e-001 -5.778007e+000 105 41 39
-2.467200e-001 -1.111692e+000 -6.165790e+000 99 49 39
1.682210e+000 -1.828605e+000 -6.250727e+000 225 200 192
-1.029388e+000 -6.554405e-001 -5.844946e+000 142 58 32
9.769261e-001 -1.743039e+000 -6.406670e+000 239 231 220
2.102112e+000 2.029570e-001 -4.879466e+000 246 191 144
2.099039e+000 3.352559e-002 -4.874806e+000 246 193 150
2.031144e+000 -6.041126e-002 -5.091717e+000 220 173 91
3.436872e+000 3.363939e-001 -5.758380e+000 161 138 127
2.061877e+000 -5.851744e-001 -4.760519e+000 120 101 92
2.065655e+000 -6.975934e-001 -4.813474e+000 142 122 112
2.002857e+000 -8.479372e-001 -4.820241e+000 118 95 88
2.806085e+000 -6.991204e-001 -5.470825e+000 81 65 64
2.621628e+000 -8.175339e-001 -5.380020e+000 122 97 82
2.619409e+000 -8.278053e-001 -5.387087e+000 93 65 53
-7.443526e-001 -1.025856e-001 -5.499256e+000 141 78 75
-5.107803e-001 -4.147197e-001 -5.368445e+000 199 109 83
-2.140119e-001 -4.757731e-001 -5.272500e+000 170 162 151
-1.026899e+000 -3.335761e-001 -5.614917e+000 182 115 81
1.324349e+000 -7.022235e-001 -6.005460e+000 93 63 36
-8.198172e-001 -7.094890e-001 -5.644985e+000 166 83 57
1.722352e+000 -1.341954e+000 -5.679938e+000 165 158 153
-1.693737e+000 -6.535292e-001 -5.574901e+000 136 86 81
1.631575e+000 -1.225087e+000 -5.940305e+000 108 68 65
1.757435e+000 -1.457286e+000 -5.525057e+000 133 104 103
1.676179e+000 -1.621743e+000 -5.800093e+000 180 98 67
1.612728e+000 -1.752434e+000 -5.939743e+000 205 128 94
1.341672e+000 -2.054704e+000 -6.493018e+000 229 180 79
1.535341e+000 -2.148714e+000 -5.902981e+000 207 143 91
1.242919e+000 -2.122809e+000 -6.818666e+000 214 149 92
1.335740e+000 -2.163285e+000 -6.512134e+000 129 115 115
2.081502e+000 2.538749e-001 -4.846979e+000 206 130 81
2.803454e+000 4.402860e-001 -5.364368e+000 148 132 116
1.271914e+000 9.270797e-001 -5.594434e+000 190 180 137
1.400817e+000 -3.461943e-001 -4.611719e+000 119 106 89
2.053820e+000 -5.663548e-001 -4.794320e+000 215 145 89
2.079124e+000 -5.582913e-001 -4.808322e+000 112 89 82
2.089033e+000 -6.104229e-001 -4.797136e+000 97 78 64
1.879460e+000 -3.357867e-001 -5.428954e+000 112 71 67
1.843777e+000 -7.027614e-001 -5.360621e+000 137 105 92
1.341106e-001 -1.904429e-001 -5.604976e+000 185 176 169
9.584394e-002 -3.912430e-001 -5.775853e+000 56 42 31
-7.415277e-001 -7.119536e-001 -5.671947e+000 176 95 61
8.836260e-001 -9.420689e-001 -6.141421e+000 182 155 131
1.961454e-001 -8.065734e-001 -7.337766e+000 205 199 187
1.634312e+000 -1.730674e+000 -5.822357e+000 217 194 188
1.472351e+000 -1.563697e+000 -6.277757e+000 186 107 54
1.615198e+000 -1.856594e+000 -5.912034e+000 212 133 71
1.520797e+000 -1.820544e+000 -6.037814e+000 216 125 61
1.544849e+000 -1.809678e+000 -6.100655e+000 216 125 61
-1.082445e-001 -8.239320e-001 -8.994802e+000 212 208 198
1.295394e+000 9.348525e-001 -5.597490e+000 202 189 143
1.856593e+000 -6.235804e-001 -5.448628e+000 137 104 89
2.584179e+000 -8.615430e-001 -5.396858e+000 143 116 98
2.584179e+000 -8.615430e-001 -5.396858e+000 143 116 98
2.543028e+000 -9.101723e-001 -5.330196e+000 154 126 111
-6.848986e-001 -1.204238e-001 -5.420008e+000 224 95 92
1.846120e+000 -1.113211e+000 -5.400645e+000 213 156 88
1.834212e+000 -1.166904e+000 -5.419881e+000 194 118 48
-1.425912e-001 -7.165208e-001 -5.568683e+000 171 68 61
-7.747534e-001 -6.989514e-001 -5.654137e+000 211 126 88
1.647209e+000 -1.173087e+000 -5.981830e+000 83 40 39
1.694589e+000 -1.424079e+000 -5.804934e+000 196 104 61
-6.504318e-001 -1.099134e+000 -5.835269e+000 135 63 48
-7.250554e-001 -1.132578e+000 -5.877902e+000 165 73 36
1.655306e+000 -1.987287e+000 -5.616142e+000 126 94 69
1.476936e+000 -2.089920e+000 -6.189839e+000 216 136 69
1.897995e+000 -6.955962e-001 -5.376381e+000 143 117 106
1.729977e+000 -6.974426e-001 -5.691620e+000 75 31 28
2.140409e+000 -9.155147e-001 -5.561715e+000 222 148 92
-1.956356e+000 -4.572260e-001 -5.774242e+000 101 82 52
-1.811897e+000 -5.811812e-001 -5.620137e+000 193 169 110
-8.729905e-001 -1.094545e+000 -6.040699e+000 197 115 74
2.785502e+000 -6.844166e-001 -5.432734e+000 64 49 46
2.676696e+000 -7.697039e-001 -5.393676e+000 170 149 132
-1.623677e-001 -1.489217e-001 -5.538346e+000 168 160 149
-1.392853e+000 -1.826111e-001 -5.569680e+000 193 188 185
-1.392853e+000 -1.826111e-001 -5.569680e+000 193 188 185
-3.952210e-002 -8.393531e-001 -6.011610e+000 119 98 80
-7.349266e-003 -8.459022e-001 -6.033787e+000 155 139 126
1.294634e+000 -1.316517e+000 -6.111581e+000 137 43 34
1.781895e+000 -6.635807e-001 -5.653732e+000 80 35 30
7.767916e-001 -1.000998e+000 -5.997434e+000 208 204 188
-1.760867e+000 -5.932811e-001 -5.620494e+000 79 43 37
-1.702958e+000 -6.619383e-001 -5.536708e+000 143 120 124
-1.702958e+000 -6.619383e-001 -5.536708e+000 143 120 124
1.455900e+000 -1.766568e+000 -6.220513e+000 186 77 44
1.916612e+000 1.445487e-001 -5.237794e+000 94 57 44
1.609978e-002 -3.499473e-001 -5.646304e+000 107 89 75
-2.687980e-002 -6.345759e-001 -5.829460e+000 124 101 86
-8.647279e-002 -1.155020e+000 -6.340050e+000 137 83 62
1.427200e+000 -1.830340e+000 -6.240256e+000 233 189 91
2.093785e+000 -4.355831e-001 -5.341943e+000 145 100 33
-9.919903e-001 -2.506063e-001 -5.708072e+000 194 193 190
1.485778e+000 -9.417652e-001 -6.116605e+000 153 42 39
1.274531e+000 -2.041193e+000 -6.585599e+000 217 170 82
2.152335e+000 2.649649e-001 -4.934040e+000 227 154 108
2.021688e+000 -3.162560e-002 -5.002257e+000 251 204 75
2.154405e+000 -1.125966e+000 -6.154752e+000 223 172 82
1.818578e+000 -6.854735e-001 -5.515520e+000 127 78 39
-1.262736e+000 -3.053862e-001 -5.579313e+000 137 101 79
1.295392e+000 -1.036035e+000 -5.935012e+000 122 38 38
