ply
format ascii 1.0
element face 0
property list uchar int vertex_indices
element vertex 871
property float x
property float y
property float z
property uchar diffuse_red
property uchar diffuse_green
property uchar diffuse_blue
end_header
-1.558830e+000 -7.997316e-001 -5.533204e+000 106 38 27
4.410991e-001 4.856989e-001 -6.480010e+000 232 232 221
-1.072292e+000 -3.925602e-001 -5.692545e+000 117 48 35
2.471086e+000 -8.404809e-001 -5.280293e+000 67 33 32
2.939135e+000 -7.508121e-001 -5.538392e+000 38 27 25
-2.026859e+000 -3.817660e-001 -5.719405e+000 194 178 134
1.851436e+000 -8.515465e-001 -5.577210e+000 143 95 45
1.568658e+000 -1.217057e+000 -5.752659e+000 226 81 84
2.096717e+000 -3.568058e-001 -5.308642e+000 167 123 62
-1.012921e+000 -2.918567e-001 -5.656282e+000 161 59 29
2.192129e+000 -7.615766e-001 -4.965043e+000 71 44 33
6.813359e-001 -1.305327e+000 -7.201189e+000 93 43 45
2.522627e+000 -1.366056e-001 -5.221396e+000 166 148 138
3.256670e-001 9.885275e-002 -5.870699e+000 227 224 215
3.256670e-001 9.885275e-002 -5.870699e+000 227 224 215
2.391321e+000 -5.836976e-001 -5.076782e+000 148 126 115
-3.926702e-002 -1.749281e+000 -8.957956e+000 219 82 83
1.425275e+000 1.007314e+000 -5.565730e+000 241 237 228
-1.286931e+000 -4.778999e-001 -5.525447e+000 233 195 148
1.147716e+000 1.848819e+000 -6.844790e+000 234 231 224
2.184142e+000 1.317206e+000 -5.551313e+000 167 59 57
-1.062842e+000 -6.643056e-001 -5.886213e+000 65 25 27
1.548929e+000 -5.430791e-001 -5.434111e+000 104 87 63
3.958590e+000 -2.197762e+000 -7.576759e+000 180 162 142
4.015683e+000 -2.115374e+000 -7.549074e+000 189 170 152
1.432030e+000 1.600954e+000 -5.607722e+000 179 167 119
2.177689e+000 5.932726e-001 -4.927112e+000 242 187 146
2.196022e+000 6.130953e-001 -4.961630e+000 242 187 146
2.164155e+000 2.620540e-001 -4.861739e+000 247 198 145
2.171897e+000 2.391849e-001 -4.855986e+000 253 209 154
7.892714e-001 1.249231e+000 -6.824694e+000 225 222 215
2.183285e+000 1.666744e-002 -4.769037e+000 237 201 150
3.146775e+000 6.605223e-002 -5.539344e+000 167 143 138
3.063060e+000 2.361209e-002 -5.443467e+000 174 153 148
1.976520e+000 -2.536943e-002 -5.345594e+000 197 133 132
2.126690e+000 -3.328590e-001 -4.781016e+000 234 178 137
1.910767e+000 -1.539640e-001 -5.479620e+000 78 38 35
-7.839811e-001 4.780819e-003 -5.499084e+000 145 76 81
-3.837749e-001 -3.855795e-002 -5.545805e+000 182 178 167
2.773748e+000 -5.998792e-001 -5.346941e+000 91 69 46
-7.935807e-001 -1.197260e-001 -5.486321e+000 74 61 60
1.866245e+000 -4.660109e-001 -5.527593e+000 94 45 41
1.888513e+000 -4.974280e-001 -5.549417e+000 107 62 59
1.899372e+000 -5.224550e-001 -5.397856e+000 128 94 84
1.942181e+000 -6.272049e-001 -5.357115e+000 146 83 81
2.695746e+000 -6.634074e-001 -5.324317e+000 71 34 28
2.803291e+000 -6.154187e-001 -5.385692e+000 135 113 93
-1.739724e+000 -2.189408e-001 -5.592078e+000 96 54 52
-6.368403e-001 -3.493883e-001 -5.457615e+000 190 106 72
-2.744720e-001 -4.016372e-001 -5.354272e+000 168 160 149
1.858354e+000 -5.955999e-001 -5.582049e+000 97 39 38
2.317904e+000 -7.872645e-001 -5.378789e+000 97 70 57
2.710886e+000 -8.202028e-001 -5.401132e+000 78 49 32
2.758048e+000 -8.557565e-001 -5.470639e+000 135 111 89
3.006106e+000 -8.096904e-001 -5.618929e+000 86 59 58
-1.975753e+000 -3.668941e-001 -5.726082e+000 170 151 107
2.743936e+000 -1.016366e+000 -5.345341e+000 126 107 101
-1.654919e+000 -5.396920e-001 -5.451329e+000 227 145 110
1.330401e+000 -7.567763e-001 -6.042980e+000 104 60 37
2.797273e+000 -1.134091e+000 -5.739538e+000 46 27 23
-1.687396e+000 -7.347340e-001 -5.558378e+000 173 94 58
8.068842e-001 -9.023785e-001 -5.786487e+000 138 65 52
8.264323e-001 -8.916522e-001 -5.988302e+000 174 77 64
8.203590e-001 -9.394215e-001 -5.990790e+000 181 79 72
8.513651e-001 -9.248996e-001 -6.068872e+000 142 68 56
1.714698e+000 -1.127119e+000 -5.815345e+000 98 80 68
1.780670e+000 -1.149993e+000 -5.694570e+000 97 110 79
1.797762e+000 -1.167270e+000 -5.619107e+000 132 141 127
1.843685e+000 -1.227097e+000 -5.451865e+000 233 164 90
1.865688e+000 -1.265744e+000 -5.362803e+000 223 175 106
1.865688e+000 -1.265744e+000 -5.362803e+000 223 175 106
-1.077898e+000 -9.203186e-001 -5.800290e+000 203 114 79
-1.076869e+000 -9.235014e-001 -5.790621e+000 203 114 79
-6.281369e-002 -9.434448e-001 -6.488676e+000 138 113 106
-6.281369e-002 -9.434448e-001 -6.488676e+000 138 113 106
1.738376e+000 -1.300579e+000 -5.706313e+000 124 132 101
1.735535e+000 -1.299597e+000 -5.704138e+000 124 132 101
1.836903e+000 -1.285687e+000 -5.419976e+000 231 175 87
-9.879356e-001 -1.121931e+000 -5.907048e+000 199 116 73
-9.587501e-001 -1.012314e+000 -5.787116e+000 202 111 68
1.362979e+000 -1.386224e+000 -6.023201e+000 159 46 37
1.706905e+000 -1.354645e+000 -5.786083e+000 220 209 190
1.757870e+000 -1.396424e+000 -5.606875e+000 226 200 171
1.714458e+000 -1.422270e+000 -5.741761e+000 224 210 188
-9.872529e-001 -1.218001e+000 -5.926529e+000 212 184 167
1.530190e+000 -1.499222e+000 -6.070336e+000 117 39 29
1.715191e+000 -1.538168e+000 -5.536934e+000 159 102 80
1.746514e+000 -1.547752e+000 -5.602532e+000 150 106 91
1.478691e+000 -1.658065e+000 -6.268127e+000 182 95 49
1.607796e+000 -1.751099e+000 -5.989469e+000 206 114 66
1.460419e+000 -1.772959e+000 -6.255070e+000 192 98 47
1.584528e+000 -1.912137e+000 -5.916853e+000 210 190 187
1.604293e+000 -1.875005e+000 -5.851585e+000 121 102 96
1.648722e+000 -2.105184e+000 -5.690800e+000 158 119 99
1.416993e+000 1.453250e+000 -5.598988e+000 202 187 137
1.405732e+000 1.359970e+000 -5.599810e+000 180 168 117
1.760716e+000 1.147063e+000 -5.177319e+000 157 83 70
2.159664e+000 7.695446e-001 -4.925352e+000 189 113 68
2.170956e+000 5.668568e-001 -4.896956e+000 194 119 75
2.166680e+000 4.120304e-001 -4.855434e+000 202 126 77
2.951390e+000 7.142284e-001 -5.463916e+000 184 166 145
1.352493e+000 1.015180e+000 -5.757403e+000 203 192 156
1.230274e+000 9.716568e-001 -5.930614e+000 136 127 98
2.130949e+000 4.539607e-001 -5.025125e+000 166 97 41
2.166665e+000 -9.292511e-002 -4.792289e+000 247 217 176
2.159505e+000 -1.461283e-001 -4.795393e+000 255 229 185
2.143905e+000 -2.889404e-001 -4.773820e+000 247 226 201
2.143905e+000 -2.889404e-001 -4.773820e+000 247 226 201
2.148262e+000 -3.474380e-001 -4.752808e+000 232 206 169
1.997447e+000 -2.569357e-001 -5.379081e+000 141 50 54
2.772012e+000 -5.794003e-001 -5.364704e+000 94 73 50
2.791605e+000 -5.777052e-001 -5.364968e+000 147 125 101
3.041086e+000 -5.354286e-001 -5.541599e+000 81 67 66
1.882723e+000 -5.527324e-001 -5.552613e+000 102 35 37
1.883286e+000 -5.757587e-001 -5.532112e+000 134 89 80
3.006235e+000 -6.579527e-001 -5.543802e+000 50 32 28
-1.016606e+000 -1.685550e-001 -5.776273e+000 217 126 80
-9.813048e-001 -3.082619e-001 -5.767956e+000 201 138 101
-5.635067e-001 -3.611559e-001 -5.468312e+000 192 106 81
2.872959e+000 -7.890245e-001 -5.543056e+000 87 66 54
-1.662025e+000 -4.489601e-001 -5.496902e+000 171 91 61
2.838386e-001 -4.489550e-001 -5.985374e+000 89 76 67
2.952326e+000 -9.106873e-001 -5.627104e+000 63 38 34
2.988760e+000 -9.094990e-001 -5.638675e+000 63 38 34
-2.043767e+000 -4.102041e-001 -5.709589e+000 162 144 106
-1.819762e+000 -5.765017e-001 -5.537405e+000 124 74 71
-1.437085e+000 -5.326520e-001 -5.505863e+000 71 37 26
-1.410009e+000 -5.394893e-001 -5.489920e+000 48 38 36
-1.410009e+000 -5.394893e-001 -5.489920e+000 48 38 36
6.816124e-002 -6.166332e-001 -6.073852e+000 77 63 50
1.747289e+000 -9.951266e-001 -5.805901e+000 76 52 44
1.796482e+000 -9.912861e-001 -5.679251e+000 190 197 164
1.796189e+000 -9.914995e-001 -5.678192e+000 190 197 164
2.695300e+000 -1.072383e+000 -5.491759e+000 92 69 58
-1.380878e+000 -7.740733e-001 -5.576241e+000 108 46 31
1.709635e+000 -1.022895e+000 -5.794947e+000 64 33 27
1.706731e+000 -1.112764e+000 -5.873824e+000 62 39 28
1.785437e+000 -1.197231e+000 -5.620881e+000 112 120 96
1.867256e+000 -1.125263e+000 -5.407181e+000 227 175 90
2.889060e+000 -1.256363e+000 -5.763352e+000 67 39 31
-7.963075e-001 -8.934958e-001 -5.808535e+000 167 89 53
1.675375e+000 -1.263720e+000 -5.921712e+000 108 81 74
1.772313e+000 -1.255379e+000 -5.592417e+000 85 103 79
1.539609e+000 -1.583922e+000 -6.092033e+000 166 72 49
1.607401e+000 -1.640883e+000 -5.976349e+000 219 139 80
1.503660e+000 -1.876865e+000 -6.065511e+000 238 179 85
1.577996e+000 -1.840915e+000 -5.895664e+000 222 156 79
1.537214e+000 -2.019543e+000 -5.979138e+000 210 123 60
1.539127e+000 -2.038709e+000 -5.982872e+000 228 161 87
1.571545e+000 -1.981921e+000 -5.893537e+000 240 186 107
1.382922e+000 -2.073702e+000 -6.343143e+000 204 137 62
2.938482e+000 7.102495e-001 -5.477884e+000 155 134 104
2.938482e+000 7.102495e-001 -5.477884e+000 155 134 104
3.144435e+000 7.659998e-001 -5.630151e+000 189 174 164
1.243956e+000 1.121154e+000 -5.974198e+000 169 159 126
2.132261e+000 2.177683e-001 -5.000264e+000 211 132 66
3.005600e+000 2.977313e-001 -5.376654e+000 158 139 136
3.005600e+000 2.977313e-001 -5.376654e+000 158 139 136
3.452913e+000 4.632219e-001 -5.715217e+000 186 166 157
2.070241e+000 -9.529364e-002 -4.919297e+000 207 128 72
2.143473e+000 -1.397100e-001 -4.755019e+000 223 144 81
2.159237e+000 -1.668786e-001 -4.800884e+000 228 142 87
1.956954e+000 -3.107042e-002 -5.413446e+000 115 75 73
2.143258e+000 -3.144108e-001 -4.788694e+000 250 243 216
2.136805e+000 -4.782356e-001 -4.795878e+000 230 174 125
-1.915858e-001 -3.682833e-002 -5.679064e+000 181 177 168
3.008598e+000 -4.666798e-001 -5.474007e+000 88 71 69
2.970379e+000 -5.318743e-001 -5.472035e+000 80 64 64
1.885446e+000 -4.516558e-001 -5.522436e+000 121 74 70
1.893519e+000 -4.435536e-001 -5.545372e+000 121 74 70
1.920926e+000 -4.854719e-001 -5.424821e+000 134 93 85
-5.272871e-001 -3.575253e-001 -5.454785e+000 158 67 50
1.839781e+000 -7.046274e-001 -5.624216e+000 123 83 77
2.630344e+000 -8.136701e-001 -5.338640e+000 89 57 42
3.529124e-001 -4.410687e-001 -6.006906e+000 78 64 55
-2.092473e+000 -3.709353e-001 -5.804610e+000 198 184 140
-1.690833e+000 -5.137882e-001 -5.478768e+000 174 85 56
-1.975639e-001 -7.252948e-001 -5.637503e+000 134 87 77
1.578809e+000 -8.170908e-001 -5.975564e+000 112 38 29
1.826960e+000 -9.786849e-001 -5.596565e+000 209 194 192
2.883023e+000 -1.096530e+000 -5.706349e+000 67 34 22
-1.666537e+000 -7.333202e-001 -5.552836e+000 203 120 84
-1.482793e+000 -7.500113e-001 -5.536828e+000 157 85 63
1.731871e+000 -1.144189e+000 -5.797847e+000 66 57 42
1.786575e+000 -1.171118e+000 -5.659877e+000 89 109 74
1.786575e+000 -1.171118e+000 -5.659877e+000 89 109 74
1.886453e+000 -1.125665e+000 -5.411721e+000 212 156 89
1.730180e+000 -1.194829e+000 -5.787000e+000 137 147 118
1.695506e+000 -1.373375e+000 -5.828498e+000 218 208 202
1.758264e+000 -1.486494e+000 -5.597519e+000 186 97 66
1.819400e+000 -1.485652e+000 -5.463504e+000 203 119 49
-8.306264e-001 -1.211330e+000 -6.217256e+000 165 85 61
-5.886594e-001 -1.214786e+000 -6.019186e+000 162 86 60
1.662373e+000 -1.668218e+000 -5.688058e+000 186 93 60
1.662373e+000 -1.668218e+000 -5.688058e+000 186 93 60
1.421855e+000 -1.736880e+000 -6.419130e+000 160 84 48
1.445106e+000 -1.996403e+000 -6.157100e+000 229 158 69
8.783230e-001 -2.001292e+000 -7.701107e+000 119 56 41
1.370732e+000 -2.068672e+000 -6.390190e+000 239 191 107
2.116783e+000 5.584373e-001 -5.087664e+000 182 129 73
2.987942e+000 6.524912e-001 -5.472860e+000 186 168 161
3.062035e+000 4.698246e-001 -5.499226e+000 150 133 125
3.106059e+000 4.814187e-001 -5.587696e+000 136 119 112
2.205456e+000 -2.812328e-002 -4.750267e+000 132 111 103
1.954098e+000 -6.704931e-002 -5.400782e+000 74 46 37
2.155501e+000 -3.932086e-001 -4.743377e+000 106 85 74
-1.200331e-002 -2.164081e-001 -5.607027e+000 145 132 120
1.581878e-001 -2.942167e-001 -5.768694e+000 148 139 124
2.146093e+000 -7.176147e-001 -4.860465e+000 130 110 95
2.565266e+000 -6.989135e-001 -5.246745e+000 84 65 63
2.837101e+000 -8.390307e-001 -5.550239e+000 53 36 28
-1.877202e+000 -2.368538e-001 -5.704206e+000 129 121 109
-2.082389e+000 -3.424535e-001 -5.827711e+000 205 191 146
1.621581e+000 -8.256376e-001 -6.048206e+000 188 67 58
-1.414670e+000 -7.075883e-001 -5.509977e+000 108 42 29
-1.265409e+000 -7.780246e-001 -5.664083e+000 116 49 32
-1.132067e+000 -7.713110e-001 -5.718493e+000 150 74 48
-1.075305e+000 -7.118835e-001 -5.730200e+000 132 55 32
-1.477686e+000 -7.976323e-001 -5.568275e+000 175 105 79
-7.499126e-001 -9.588725e-001 -5.868858e+000 103 34 27
-7.528951e-001 -9.543997e-001 -5.884049e+000 103 34 27
-6.571573e-001 -9.379129e-001 -5.844168e+000 164 83 50
2.325285e+000 -1.316326e+000 -5.624442e+000 115 89 75
2.325285e+000 -1.316326e+000 -5.624442e+000 115 89 75
1.708933e+000 -1.389699e+000 -5.744702e+000 220 211 214
3.155179e-001 -1.186643e+000 -7.922843e+000 250 244 233
1.608687e+000 -1.501702e+000 -6.029138e+000 206 123 74
1.774073e+000 -1.546146e+000 -5.437781e+000 201 113 45
1.486494e+000 -1.736564e+000 -6.213891e+000 194 90 51
1.488635e+000 -1.735883e+000 -6.219517e+000 194 90 51
1.413782e+000 -2.045749e+000 -6.403679e+000 221 161 75
1.413782e+000 -2.045749e+000 -6.403679e+000 221 161 75
1.558524e+000 1.635042e+000 -5.696982e+000 129 113 97
3.062261e+000 5.487648e-001 -5.484448e+000 174 159 150
3.213508e+000 5.234567e-001 -5.527150e+000 178 157 146
3.271054e+000 5.042295e-001 -5.597315e+000 174 156 146
3.004793e+000 3.199113e-001 -5.356034e+000 140 122 118
3.004793e+000 3.199113e-001 -5.356034e+000 140 122 118
2.052525e+000 2.205287e-001 -5.253489e+000 137 70 62
5.266934e-001 6.972719e-001 -6.568811e+000 242 238 227
2.040045e+000 -1.228999e-001 -5.136421e+000 88 81 78
9.426040e-002 2.990949e-001 -6.274296e+000 224 229 223
2.951713e+000 -4.165214e-001 -5.432641e+000 74 56 54
-2.201021e-001 -2.768049e-001 -5.468109e+000 172 162 150
1.789299e+000 -5.479138e-001 -5.597028e+000 76 31 32
2.609469e+000 -7.301513e-001 -5.334021e+000 82 51 49
2.923722e+000 -6.181647e-001 -5.463485e+000 78 58 55
5.659608e-001 -6.645631e-001 -6.054253e+000 60 48 39
3.970784e-001 -7.648828e-001 -6.026291e+000 155 146 131
1.544756e+000 -7.793734e-001 -6.142220e+000 102 45 34
4.068884e-003 -8.640261e-001 -6.015943e+000 167 150 142
4.068884e-003 -8.640261e-001 -6.015943e+000 167 150 142
-1.660030e+000 -7.822909e-001 -5.548413e+000 73 32 29
-1.391103e+000 -8.217992e-001 -5.603283e+000 113 47 33
1.611319e+000 -1.170581e+000 -5.756820e+000 226 77 77
1.797757e+000 -1.386473e+000 -5.574175e+000 163 74 50
1.250203e+000 1.124784e+000 -6.164937e+000 246 239 232
1.791409e+000 9.191624e-002 -4.948588e+000 191 163 139
1.881722e+000 -1.909311e-002 -5.278230e+000 200 74 68
3.024460e+000 -5.102885e-002 -5.396752e+000 166 151 146
1.894752e+000 -2.749123e-001 -5.486665e+000 77 43 41
2.263025e+000 -3.324931e-001 -5.224977e+000 193 109 42
2.167961e+000 -3.964167e-001 -5.130104e+000 209 131 70
2.167961e+000 -3.964167e-001 -5.130104e+000 209 131 70
1.839464e-001 9.536931e-002 -5.913059e+000 201 197 185
1.839464e-001 9.536931e-002 -5.913059e+000 201 197 185
2.721424e+000 -4.859239e-001 -5.308105e+000 71 40 32
2.961766e+000 -4.554334e-001 -5.462922e+000 56 41 44
-9.028376e-001 -1.402640e-001 -5.564814e+000 79 77 85
2.554278e+000 -6.839114e-001 -5.251669e+000 85 67 63
2.554278e+000 -6.839114e-001 -5.251669e+000 85 67 63
2.646010e-001 -4.231357e-001 -5.974047e+000 67 57 47
1.893213e+000 -6.741110e-001 -5.503064e+000 116 70 42
1.893213e+000 -6.741110e-001 -5.503064e+000 116 70 42
-1.309433e+000 -3.771345e-001 -5.566551e+000 236 202 155
2.265118e-001 -4.624013e-001 -6.056697e+000 63 49 41
2.718078e+000 -1.042596e+000 -5.406646e+000 84 64 55
1.399872e+000 -9.057453e-001 -5.984823e+000 107 36 34
1.637497e+000 -8.718868e-001 -5.800452e+000 204 69 64
-1.875715e+000 -5.868207e-001 -5.640807e+000 81 45 41
-1.285413e+000 -7.073028e-001 -5.558055e+000 119 53 37
-1.048992e-002 -9.036382e-001 -6.047154e+000 134 112 104
8.222204e-001 -9.987340e-001 -6.071078e+000 178 71 66
1.723062e+000 -1.559022e+000 -5.637163e+000 229 185 100
1.397827e+000 -1.951510e+000 -6.370291e+000 150 88 46
1.563660e+000 -1.984396e+000 -5.929684e+000 232 192 103
7.344851e-001 -1.924314e+000 -7.290781e+000 218 83 87
2.169429e+000 1.053755e+000 -4.915183e+000 199 112 62
2.172111e+000 4.364220e-001 -4.954325e+000 196 114 56
1.469261e+000 4.417860e-001 -5.382883e+000 225 221 206
1.580240e+000 -6.685823e-002 -4.563003e+000 92 75 58
1.994580e+000 2.362581e-001 -5.296206e+000 89 54 40
2.968363e+000 -9.624966e-002 -5.363478e+000 140 126 126
2.138526e+000 -3.718510e-001 -4.770475e+000 232 180 142
3.321398e-001 3.612225e-001 -6.326316e+000 210 204 188
2.140728e+000 -3.543353e-001 -5.032227e+000 218 142 80
-1.962178e-001 -3.834688e-002 -5.587568e+000 222 222 219
2.900031e+000 -5.458405e-001 -5.451094e+000 53 38 39
-1.468688e+000 -7.810535e-002 -5.623091e+000 115 80 78
2.197068e+000 -7.457841e-001 -4.902437e+000 133 110 98
3.004884e+000 -5.898033e-001 -5.510533e+000 44 35 36
-1.762568e+000 -4.280164e-001 -5.562620e+000 243 152 96
3.498761e-001 -4.760685e-001 -5.965802e+000 64 44 38
1.153867e+000 -8.988076e-001 -5.905239e+000 231 185 133
-6.952769e-001 -7.946928e-001 -5.655505e+000 200 153 107
3.303369e-001 -8.652652e-001 -6.021534e+000 204 196 185
-9.594190e-002 -1.510280e+000 -9.200940e+000 228 221 222
1.214841e+000 1.024542e+000 -6.317646e+000 231 225 213
1.465758e+000 4.697476e-001 -5.532947e+000 253 249 238
1.465758e+000 4.697476e-001 -5.532947e+000 253 249 238
2.277410e+000 -4.927633e-001 -5.016964e+000 81 57 44
2.942852e+000 -3.046645e-001 -5.504435e+000 144 125 111
-6.730876e-001 -4.480993e-002 -5.515546e+000 190 178 168
-6.730876e-001 -4.480993e-002 -5.515546e+000 190 178 168
-1.426481e-001 -8.460672e-002 -5.598828e+000 180 173 164
2.659894e+000 -5.175421e-001 -5.386421e+000 77 37 41
3.395992e-001 -4.300913e-001 -5.861278e+000 187 183 174
1.574450e+000 -8.034144e-001 -5.612490e+000 106 82 56
-2.044052e+000 -3.693266e-001 -5.768323e+000 195 176 140
-2.044052e+000 -3.693266e-001 -5.768323e+000 195 176 140
-1.208054e-001 -7.187624e-001 -5.727624e+000 126 53 47
-1.395680e+000 -7.918865e-001 -5.566019e+000 109 46 33
-8.973366e-001 -7.397426e-001 -5.697248e+000 88 35 28
-8.479861e-002 -9.142885e-001 -6.410961e+000 108 66 54
-5.493603e-001 -1.111643e+000 -5.903421e+000 215 124 80
1.368722e+000 -1.585390e+000 -6.344732e+000 210 77 76
6.918390e-002 -1.603652e+000 -8.889485e+000 246 237 230
3.191717e+000 6.289668e-001 -5.597228e+000 190 172 162
2.894479e+000 -1.654548e-001 -5.510302e+000 86 47 51
2.214402e+000 -6.495622e-001 -4.922852e+000 82 56 45
2.214402e+000 -6.495622e-001 -4.922852e+000 82 56 45
2.355854e+000 -7.242533e-001 -5.100813e+000 127 109 95
1.881328e+000 -9.264848e-001 -5.524261e+000 179 110 45
-7.505362e-001 -6.955189e-001 -5.766611e+000 157 103 71
-7.214523e-001 -8.697213e-001 -5.770691e+000 113 47 35
-7.836820e-001 -9.119231e-001 -5.860705e+000 172 89 55
1.673778e+000 -1.428475e+000 -5.902303e+000 144 49 45
8.953806e-001 -1.614748e+000 -7.084065e+000 236 227 218
5.074435e-001 4.400888e-001 -6.184208e+000 198 191 173
-4.226306e-001 -2.255847e-001 -5.352969e+000 176 168 157
-2.031113e+000 -3.666212e-001 -5.783709e+000 192 175 133
7.034119e-001 -1.889068e+000 -7.306781e+000 215 80 84
2.463567e+000 -5.303832e-001 -5.176292e+000 157 140 123
7.653631e-001 -6.310736e-001 -6.037455e+000 86 55 45
-1.618112e+000 -8.348418e-001 -5.525589e+000 184 110 76
5.774379e-001 -1.014792e+000 -6.317260e+000 159 142 126
1.407205e+000 1.024383e+000 -5.603376e+000 246 243 233
-2.258474e-002 2.720687e-002 -5.762896e+000 237 237 229
1.059757e+000 -4.689314e-001 -5.843798e+000 64 38 41
1.155792e+000 -1.877311e+000 -6.266992e+000 240 232 221
1.545866e+000 -2.166023e-001 -5.666446e+000 114 43 43
-1.073759e+000 -3.326315e-001 -5.840162e+000 131 54 37
1.793649e+000 3.164241e-005 -4.994983e+000 131 50 52
1.154143e-002 -1.072630e+000 -6.270658e+000 246 242 233
1.523472e+000 -1.892677e+000 -6.033706e+000 244 185 94
1.021836e+000 -1.739748e+000 -6.581275e+000 238 229 219
1.731062e+000 7.729273e-001 -4.522058e+000 132 55 56
1.134628e-001 -5.652286e-001 -5.867232e+000 89 76 58
2.179897e+000 4.048693e-001 -5.107255e+000 190 109 45
1.564552e+000 -7.828529e-002 -4.554006e+000 109 97 77
7.939167e-001 2.208078e-001 -5.489858e+000 209 206 196
-1.450263e+000 -4.573851e-002 -5.596306e+000 176 166 164
-1.463951e+000 -1.082910e-001 -5.626788e+000 90 55 61
2.916036e+000 -6.069103e-001 -5.478665e+000 62 43 37
2.829839e-001 -4.181422e-001 -5.982063e+000 79 68 59
1.874533e+000 -6.225604e-001 -5.548265e+000 133 83 77
1.874533e+000 -6.225604e-001 -5.548265e+000 133 83 77
-1.622696e+000 -6.017503e-001 -5.445517e+000 220 135 98
-2.092481e-001 -7.109645e-001 -5.608191e+000 132 48 48
-1.675953e+000 -7.920129e-001 -5.520938e+000 102 60 56
8.369848e-001 -1.002646e+000 -6.070220e+000 165 95 92
1.714304e+000 -1.281765e+000 -5.781805e+000 193 196 189
1.748050e+000 -1.286995e+000 -5.682359e+000 90 100 91
1.749857e+000 -1.286078e+000 -5.688228e+000 90 100 91
1.763677e+000 -1.328417e+000 -5.614570e+000 213 207 191
1.150693e+000 -1.405541e+000 -6.371954e+000 198 170 151
1.743614e+000 -1.372250e+000 -5.659563e+000 154 152 147
1.743614e+000 -1.372250e+000 -5.659563e+000 154 152 147
1.800667e+000 -1.460004e+000 -5.493876e+000 190 174 172
1.793964e+000 -1.489074e+000 -5.480700e+000 207 187 174
1.605116e+000 -1.583897e+000 -5.939800e+000 199 119 62
1.640528e+000 -1.599640e+000 -5.891447e+000 199 102 64
1.232096e+000 -1.878039e+000 -6.157578e+000 186 157 133
1.520650e+000 -1.870696e+000 -6.069375e+000 215 143 67
1.571777e+000 -1.911512e+000 -5.944966e+000 205 188 186
8.299662e-001 2.548531e+000 -8.121239e+000 177 116 87
2.145023e+000 -2.317387e-001 -4.793640e+000 219 156 105
-4.921425e-001 -3.935448e-001 -5.368559e+000 214 93 92
-2.559504e-001 -4.088954e-001 -5.330553e+000 177 167 156
-5.155944e-001 -4.109330e-001 -5.407873e+000 177 99 71
1.861409e+000 -6.565257e-001 -5.570457e+000 102 45 32
1.919902e+000 -7.576066e-001 -5.332772e+000 155 126 110
-1.303402e+000 -8.057122e-001 -5.652438e+000 122 64 42
-1.022944e+000 -8.717094e-001 -5.758401e+000 176 89 54
1.802783e+000 -1.122032e+000 -5.622402e+000 95 109 93
-8.714276e-001 -1.067408e+000 -5.846249e+000 156 68 36
1.782596e+000 -1.303714e+000 -5.591407e+000 210 207 188
1.213137e+000 -1.302217e+000 -6.189342e+000 103 42 19
1.525875e+000 -1.493952e+000 -6.117089e+000 193 60 56
1.560518e+000 -1.665280e+000 -6.079867e+000 182 93 44
1.556841e+000 -1.665637e+000 -6.067231e+000 182 93 44
1.427946e+000 -1.957337e+000 -6.271011e+000 195 104 49
-1.352972e+000 -2.500508e-001 -5.652005e+000 134 94 77
1.948913e+000 -5.940043e-001 -5.306710e+000 117 81 76
-8.892034e-001 -3.854838e-001 -5.604871e+000 214 161 117
1.427848e+000 -1.671580e+000 -6.390187e+000 173 102 49
1.631638e+000 -1.906557e+000 -5.793144e+000 205 123 58
1.619367e+000 1.615710e+000 -5.610701e+000 205 197 185
2.031057e+000 -6.310384e-001 -5.026206e+000 176 96 25
-1.576312e+000 -6.765668e-001 -5.453383e+000 200 115 81
-1.576312e+000 -6.765668e-001 -5.453383e+000 200 115 81
-1.972786e-001 -7.280078e-001 -5.641680e+000 128 79 72
-1.727128e+000 -1.497081e-001 -5.660179e+000 126 116 116
1.907713e+000 -6.283584e-001 -5.417259e+000 113 48 47
-1.596361e+000 -5.379418e-001 -5.452618e+000 162 82 58
1.479338e+000 3.228754e-001 -5.457145e+000 243 239 228
5.304666e-001 2.121660e+000 -8.528713e+000 213 90 93
6.684042e-001 -8.516179e-001 -6.029887e+000 214 206 195
1.754795e+000 -1.435022e+000 -5.602674e+000 206 136 74
1.491769e+000 -1.822276e+000 -6.102514e+000 208 152 71
2.129335e+000 9.356990e-001 -5.212406e+000 181 115 60
2.032290e+000 1.644020e-001 -5.243974e+000 167 75 60
8.398393e-001 -8.854960e-001 -5.975682e+000 133 63 55
2.042544e+000 1.110283e+000 -5.144337e+000 141 56 52
1.799809e+000 -1.129998e+000 -5.618680e+000 86 98 78
1.801932e+000 -1.127625e+000 -5.626603e+000 86 98 78
1.465780e+000 -1.710668e+000 -6.250623e+000 166 70 41
-2.021747e+000 -5.375948e-001 -5.709813e+000 197 177 142
1.758275e+000 1.280010e+000 -5.145392e+000 192 73 69
5.907352e-001 2.236491e+000 -8.456213e+000 201 95 97
2.019894e+000 2.018585e-001 -5.356243e+000 104 63 59
2.057403e+000 2.980738e-002 -5.100067e+000 185 140 80
-1.024935e+000 -9.735374e-002 -5.820427e+000 163 111 83
-6.398783e-001 -1.671415e-001 -5.428125e+000 215 198 183
1.711159e-001 -3.532429e-001 -5.794116e+000 115 105 95
-1.653322e-001 -7.285242e-001 -5.647758e+000 122 46 41
1.837790e+000 -1.045784e+000 -5.535576e+000 173 167 159
-1.800439e+000 -6.789439e-001 -5.583172e+000 127 104 102
-5.532822e-001 -8.387786e-001 -5.696638e+000 229 189 139
1.752119e+000 -1.061475e+000 -5.774714e+000 93 77 68
1.752244e+000 -1.061494e+000 -5.774051e+000 93 77 68
1.721467e+000 -1.123441e+000 -5.837519e+000 98 80 68
1.777420e+000 -1.106159e+000 -5.684983e+000 143 153 125
1.765403e+000 -1.166186e+000 -5.687390e+000 79 94 65
2.741756e+000 -1.191801e+000 -5.633794e+000 83 56 48
-1.246380e+000 -8.416031e-001 -5.762300e+000 139 77 62
1.715843e+000 -1.160014e+000 -5.881141e+000 67 45 35
1.697743e+000 -1.189803e+000 -5.883233e+000 103 81 70
1.697929e+000 -1.189508e+000 -5.884145e+000 103 81 70
1.716177e+000 -1.398082e+000 -5.743728e+000 205 205 202
1.749695e+000 -1.404810e+000 -5.633080e+000 221 197 171
1.769767e+000 -1.462266e+000 -5.573702e+000 212 165 82
1.680701e+000 -1.523511e+000 -5.826489e+000 216 155 77
1.689461e+000 -1.550631e+000 -5.778791e+000 226 176 92
1.775566e+000 -1.537520e+000 -5.516587e+000 215 188 174
1.730812e+000 -1.585712e+000 -5.593017e+000 196 175 167
1.660567e+000 -1.751599e+000 -5.750654e+000 121 99 93
1.480570e+000 -1.782307e+000 -6.225604e+000 224 148 70
1.635074e+000 -1.783010e+000 -5.806391e+000 131 107 105
1.612815e+000 -1.833800e+000 -5.872959e+000 115 92 89
1.561466e+000 -1.956997e+000 -5.951006e+000 122 106 99
1.463328e+000 -2.091648e+000 -6.140985e+000 128 119 113
1.463328e+000 -2.091648e+000 -6.140985e+000 128 119 113
-1.038701e+000 -1.008356e-001 -5.855478e+000 198 122 79
1.872711e+000 -6.286318e-001 -5.537335e+000 131 95 90
-1.615337e+000 -4.014463e-001 -5.484902e+000 154 80 59
1.729625e+000 -9.261601e-001 -5.786155e+000 83 41 43
1.774128e+000 -9.933470e-001 -5.749480e+000 58 40 31
-1.630050e+000 -8.190850e-001 -5.588066e+000 185 107 68
-8.676493e-001 -1.064902e+000 -5.884482e+000 165 73 39
2.172056e-001 -1.024286e+000 -7.555758e+000 205 200 189
-6.880342e-001 -1.205507e+000 -5.999081e+000 171 90 64
8.960335e-001 -1.507107e+000 -7.133100e+000 223 211 201
1.431893e+000 -1.650243e+000 -6.368580e+000 128 63 35
1.636620e+000 -1.713828e+000 -5.809420e+000 215 139 71
1.604799e+000 -1.890438e+000 -5.855536e+000 223 188 170
1.418907e+000 -1.943645e+000 -6.311190e+000 203 113 54
1.678307e+000 9.482378e-001 -5.148326e+000 203 186 174
1.565109e+000 -3.791963e-002 -4.539177e+000 222 213 201
2.204639e+000 -3.041112e-001 -4.781500e+000 159 141 128
2.521832e-001 -4.036336e-001 -5.916371e+000 132 122 112
2.590251e+000 -8.656018e-001 -5.297724e+000 139 110 90
-3.627887e-001 -7.090457e-001 -5.639568e+000 176 112 69
-1.196756e+000 -8.334585e-001 -5.738821e+000 122 59 41
-1.196756e+000 -8.334585e-001 -5.738821e+000 122 59 41
1.621608e+000 -1.368076e+000 -6.009462e+000 124 66 46
1.698659e+000 -1.470805e+000 -5.732125e+000 196 109 71
2.067326e+000 -2.015010e-002 -5.091473e+000 230 225 220
2.185907e+000 -4.545640e-001 -5.287492e+000 173 95 28
1.281843e-001 -2.773740e-001 -5.720793e+000 152 142 132
-1.216738e-002 -5.096670e-001 -5.841315e+000 102 83 69
-1.628432e+000 -5.783081e-001 -5.455848e+000 173 88 58
-1.306404e+000 -7.506149e-001 -5.625451e+000 130 69 44
1.763492e+000 -1.028170e+000 -5.752481e+000 54 40 31
1.593521e+000 -1.877425e+000 -5.889124e+000 225 196 162
1.903650e+000 -6.826701e-001 -5.463656e+000 120 75 46
1.903650e+000 -6.826701e-001 -5.463656e+000 120 75 46
-4.962988e-001 -5.310456e-001 -5.442867e+000 197 141 102
-1.928865e+000 1.318744e+001 -2.509344e+001 162 176 210
-8.480299e-001 -3.367868e-002 -5.569477e+000 217 220 215
-9.560780e-001 -4.573494e-001 -5.622912e+000 139 62 41
1.494300e+000 -1.838562e+000 -6.161725e+000 229 179 80
1.547349e+000 -1.921127e+000 -6.027035e+000 241 185 94
-1.614146e+000 1.395750e+001 -2.485872e+001 146 160 206
-1.692516e+000 1.334151e+001 -2.440408e+001 151 166 210
-4.805480e+000 1.505486e+001 -3.113424e+001 145 142 133
2.129069e+000 2.697722e-001 -4.975386e+000 202 121 55
1.428475e+000 2.520369e-001 -5.402926e+000 224 218 207
-1.101731e+000 -3.163906e-001 -5.680028e+000 157 72 49
8.712361e-001 2.641344e+000 -7.993242e+000 215 89 92
8.712361e-001 2.641344e+000 -7.993242e+000 215 89 92
-2.057275e+000 1.305176e+001 -2.578987e+001 59 90 171
-2.057275e+000 1.305176e+001 -2.578987e+001 59 90 171
9.127741e-001 2.010724e+000 -7.772776e+000 249 243 239
8.090031e-001 -1.733398e+000 -7.171950e+000 186 65 69
1.010505e+000 2.256662e+000 -7.638092e+000 254 251 242
1.321321e+000 1.302897e+000 -5.868279e+000 123 114 85
2.047460e+000 2.097434e-002 -5.154314e+000 197 128 117
-1.041039e+000 -6.169058e-002 -5.886080e+000 169 120 95
1.895547e+000 -5.709342e-001 -5.494113e+000 122 79 76
1.895547e+000 -5.709342e-001 -5.494113e+000 122 79 76
-5.089370e-001 -4.394218e-001 -5.459648e+000 182 114 80
2.858027e+000 -8.164629e-001 -5.504299e+000 44 27 25
1.812776e+000 -1.149917e+000 -5.577439e+000 85 99 83
1.787905e+000 -1.308280e+000 -5.567472e+000 140 136 129
1.816129e+000 -1.353886e+000 -5.460928e+000 221 158 69
1.673221e+000 -1.351878e+000 -5.864858e+000 199 189 183
1.688032e+000 -1.373937e+000 -5.840234e+000 208 205 202
1.782790e+000 -1.505790e+000 -5.499549e+000 213 195 192
1.436659e+000 -1.670273e+000 -6.358661e+000 151 73 32
1.612689e+000 -1.647598e+000 -5.953312e+000 188 103 64
1.689784e+000 -1.709062e+000 -5.657830e+000 214 203 204
1.694843e+000 -1.708774e+000 -5.672093e+000 214 203 204
-1.768090e+000 1.323257e+001 -2.463880e+001 98 114 174
-1.757529e+000 1.314868e+001 -2.449868e+001 98 114 174
7.624248e-001 -5.963040e-001 -5.886162e+000 194 79 78
1.797464e+000 -1.101453e+000 -5.632305e+000 196 202 178
1.450385e+000 -1.688203e+000 -6.324689e+000 186 92 51
1.577322e+000 -1.819148e+000 -5.920769e+000 239 174 92
2.032788e+000 -6.642703e-001 -5.058669e+000 177 98 24
2.006621e+000 -7.371000e-001 -5.095090e+000 189 133 38
-2.082958e+000 -5.323362e-001 -5.781797e+000 128 118 109
-1.130807e+000 -8.214100e-001 -5.712586e+000 168 85 52
2.757833e+000 -1.186472e+000 -5.693212e+000 40 24 20
3.050783e+000 5.344969e-001 -5.471243e+000 170 153 148
1.117485e+000 -6.303885e-001 -5.951099e+000 190 134 83
1.117570e+000 -6.306823e-001 -5.950277e+000 190 134 83
1.587895e+000 -1.762055e+000 -5.988653e+000 232 163 76
-9.732305e-001 -1.189160e+000 -5.989556e+000 143 70 44
-9.732305e-001 -1.189160e+000 -5.989556e+000 143 70 44
1.785841e+000 -1.392176e+000 -5.540513e+000 161 75 59
2.042344e+000 2.880272e-001 -5.200537e+000 127 86 63
5.791233e-001 1.948996e+000 -8.340355e+000 212 133 128
1.918101e+000 -6.165316e-001 -5.409624e+000 121 58 54
2.985961e+000 -8.015556e-001 -5.543043e+000 71 43 37
-4.591677e-001 -4.506279e-001 -5.380497e+000 230 156 126
8.749249e-001 -5.008678e-001 -5.854906e+000 175 70 67
1.851621e+000 -6.974881e-001 -5.588065e+000 107 48 37
5.147574e-001 -5.192528e-001 -6.061271e+000 152 142 133
7.608533e-001 -5.944960e-001 -5.890280e+000 204 84 81
1.850894e+000 -1.105141e+000 -5.454968e+000 186 108 74
2.748552e+000 -1.154310e+000 -5.589161e+000 46 30 25
-1.614583e+000 -8.064191e-001 -5.581283e+000 168 102 70
8.283097e-001 -9.289449e-001 -6.025445e+000 176 82 70
1.701199e+000 -1.204156e+000 -5.875217e+000 115 86 80
1.777982e+000 -1.220608e+000 -5.640451e+000 131 138 120
1.715782e+000 -1.253717e+000 -5.778582e+000 84 94 65
-1.163299e+000 -8.628236e-001 -5.767247e+000 173 98 69
-7.853013e-001 -9.282250e-001 -5.832694e+000 151 71 40
1.736251e+000 -1.314769e+000 -5.711751e+000 202 215 187
1.736653e+000 -1.358103e+000 -5.672100e+000 217 212 193
1.820023e+000 -1.386762e+000 -5.442562e+000 227 164 74
1.366479e+000 -1.381686e+000 -6.039850e+000 165 55 44
6.776886e-001 -1.233328e+000 -7.479657e+000 143 101 100
1.487059e+000 -1.694192e+000 -6.247180e+000 222 135 68
1.370634e+000 -1.903164e+000 -6.419902e+000 129 65 41
1.345251e+000 -2.017635e+000 -6.459197e+000 145 87 46
1.424436e+000 -2.101942e+000 -6.231545e+000 136 117 111
1.444845e+000 -2.073822e+000 -6.161826e+000 93 80 74
1.451581e+000 -2.073088e+000 -6.182473e+000 93 80 74
1.503202e+000 -2.072137e+000 -6.081186e+000 174 91 78
1.181453e+000 -2.074771e+000 -6.900087e+000 178 122 71
1.421947e+000 -2.117940e+000 -6.239510e+000 213 207 196
1.440192e+000 -2.132715e+000 -6.180781e+000 194 132 97
1.449039e+000 -2.124332e+000 -6.169447e+000 241 221 192
1.362446e+000 1.122223e+000 -5.662296e+000 230 225 172
1.499252e+000 -1.900529e-001 -4.522303e+000 130 117 96
1.918656e+000 -1.483742e-001 -5.457291e+000 102 58 53
2.019021e+000 -2.558616e-001 -5.046310e+000 162 127 83
1.903823e+000 -4.674987e-001 -5.582297e+000 109 61 58
1.308327e+000 -3.161411e-001 -6.271876e+000 119 74 52
1.824032e+000 -5.537115e-001 -5.627416e+000 92 46 43
1.940048e+000 -6.247901e-001 -5.327053e+000 113 44 44
2.693159e+000 -9.772104e-001 -5.327935e+000 151 128 110
2.683735e+000 -9.969133e-001 -5.315713e+000 76 56 43
2.784128e+000 -1.121476e+000 -5.602637e+000 80 54 43
2.926647e+000 -1.124315e+000 -5.706178e+000 66 35 34
-1.749686e+000 -6.201683e-001 -5.572953e+000 213 122 75
3.670580e-001 -6.942871e-001 -6.019308e+000 133 121 112
1.794547e+000 -1.103920e+000 -5.624771e+000 206 212 196
2.760337e+000 -1.171695e+000 -5.641558e+000 70 31 24
-1.707041e+000 -7.081739e-001 -5.594370e+000 172 87 56
-1.469285e+000 -7.094981e-001 -5.519536e+000 140 70 47
-1.292493e+000 -7.340748e-001 -5.586527e+000 147 90 67
1.691839e+000 -1.140374e+000 -5.894027e+000 65 40 35
1.753376e+000 -1.194218e+000 -5.724435e+000 75 92 62
-1.053487e+000 -8.634928e-001 -5.754448e+000 191 98 64
-1.083824e+000 -9.724605e-001 -6.097341e+000 143 70 51
-8.853313e-001 -1.053971e+000 -5.850071e+000 166 76 45
1.708675e+000 -1.530078e+000 -5.719489e+000 213 133 82
1.556292e+000 -1.554743e+000 -6.139176e+000 170 73 46
1.587849e+000 -1.783636e+000 -5.902637e+000 224 151 78
1.587849e+000 -1.783636e+000 -5.902637e+000 224 151 78
1.652049e+000 -1.749349e+000 -5.768653e+000 232 212 202
1.534110e+000 -1.858396e+000 -6.074382e+000 233 158 77
1.605157e+000 -1.889427e+000 -5.858175e+000 228 196 181
1.465317e+000 -2.124269e+000 -6.131887e+000 218 176 92
1.334399e+000 -2.147036e+000 -6.479263e+000 240 188 94
1.332302e+000 1.134922e+000 -5.628510e+000 159 149 109
1.272838e+000 7.882534e-001 -5.701210e+000 177 172 135
1.966375e+000 -1.019888e-001 -5.328313e+000 213 177 176
1.887654e+000 -6.277034e-001 -5.500955e+000 139 94 86
1.887292e+000 -6.277326e-001 -5.500957e+000 139 94 86
1.915655e+000 -6.954386e-001 -5.382678e+000 133 87 81
-6.150150e-001 -4.110732e-001 -5.497442e+000 206 118 68
1.910821e-001 -3.578279e-001 -5.780423e+000 146 136 126
-1.595759e+000 -3.929170e-001 -5.475284e+000 148 75 60
-2.088346e-001 -6.639262e-001 -5.451914e+000 161 150 132
-1.870365e-001 -7.115864e-001 -5.582979e+000 171 68 62
-1.459620e+000 -7.372560e-001 -5.509189e+000 128 56 34
1.827372e+000 -1.302675e+000 -5.412054e+000 197 124 57
-8.509534e-001 -9.156292e-001 -5.843564e+000 123 46 29
-7.495283e-002 -9.512908e-001 -6.449812e+000 111 67 63
1.685605e+000 -1.351628e+000 -5.844002e+000 151 139 134
1.809839e+000 -1.354053e+000 -5.485619e+000 197 118 57
1.778877e+000 -1.408393e+000 -5.550642e+000 213 134 70
-6.343825e-001 -1.190387e+000 -6.006885e+000 151 79 55
1.378797e+000 -2.013755e+000 -6.393843e+000 189 126 53
1.422881e+000 -2.152161e+000 -6.213420e+000 242 222 211
1.423424e+000 -2.151128e+000 -6.217377e+000 242 222 211
1.434769e+000 -2.156388e+000 -6.173132e+000 192 111 77
1.457736e+000 -2.153793e+000 -6.172589e+000 232 185 95
1.477790e+000 -2.127065e+000 -6.112301e+000 240 188 98
-8.370755e-001 -2.479594e-002 -5.595781e+000 216 206 206
-1.513908e+000 -7.217705e-002 -5.626688e+000 203 198 195
-3.094489e-001 -2.172431e-001 -5.463433e+000 200 199 186
1.878870e+000 -5.231443e-001 -5.571971e+000 113 72 70
1.877379e+000 -5.265225e-001 -5.564664e+000 113 72 70
-5.889202e-001 -4.106675e-001 -5.439517e+000 222 134 89
-1.352970e+000 -5.056075e-001 -5.561844e+000 79 61 49
7.357912e-001 -6.857955e-001 -6.033632e+000 90 63 51
1.729460e+000 -8.998126e-001 -5.752913e+000 74 34 32
-1.321827e+000 -5.708538e-001 -5.488960e+000 220 186 139
3.992094e-002 -6.529834e-001 -6.036866e+000 50 40 33
1.811629e+000 -1.315234e+000 -5.482417e+000 178 93 74
1.751219e+000 -1.322651e+000 -5.673112e+000 88 110 75
1.693797e+000 -1.354234e+000 -5.805091e+000 214 204 195
1.696344e+000 -1.554960e+000 -5.744329e+000 232 194 109
-6.609442e-001 -1.199965e+000 -5.975225e+000 130 54 40
-6.595506e-001 -1.230984e+000 -6.012360e+000 163 86 59
-6.595506e-001 -1.230984e+000 -6.012360e+000 163 86 59
1.429311e+000 -1.753092e+000 -6.356228e+000 172 86 46
1.423601e+000 -1.982691e+000 -6.304082e+000 232 164 74
2.752718e+000 -9.850995e-001 -5.426300e+000 70 50 38
2.779122e+000 -1.200235e+000 -5.726085e+000 44 26 24
-1.455087e+000 -7.780683e-001 -5.552659e+000 131 59 37
1.683552e+000 -1.158025e+000 -5.893522e+000 62 44 30
-3.040857e-001 -1.111660e+000 -5.964270e+000 147 82 60
1.218289e+000 -1.310154e+000 -6.215369e+000 111 46 43
1.644939e+000 -1.535110e+000 -5.920353e+000 230 169 88
1.546603e+000 -1.696740e+000 -6.048664e+000 230 160 69
1.414206e+000 -2.069888e+000 -6.269274e+000 205 114 70
1.502639e+000 -2.083232e+000 -6.055469e+000 185 91 82
1.500984e+000 -2.083403e+000 -6.052404e+000 185 91 82
2.029205e+000 1.086834e+000 -5.131658e+000 166 61 59
1.306516e+000 1.648751e+000 -6.046215e+000 176 163 123
1.306516e+000 1.648751e+000 -6.046215e+000 176 163 123
7.917409e-001 2.541229e+000 -8.042622e+000 224 224 224
-2.469466e-001 -1.086760e-001 -5.598234e+000 207 205 193
-2.451992e-001 -1.381252e-001 -5.534178e+000 207 205 193
-1.289735e-001 -1.922105e-001 -5.518334e+000 135 120 101
2.677561e+000 -9.190261e-001 -5.348958e+000 167 146 127
-1.918898e+000 -3.901854e-001 -5.723383e+000 68 27 28
1.615094e+000 -8.686163e-001 -5.616232e+000 130 37 35
-8.706722e-001 1.476122e+001 -2.268499e+001 71 98 169
9.473082e-001 2.758828e+000 -7.859187e+000 232 222 227
-9.289319e-001 -4.978671e-001 -5.736196e+000 163 110 78
2.928993e-004 -8.640576e-001 -6.003545e+000 164 150 138
1.678368e+000 -1.584902e+000 -5.814756e+000 236 186 104
1.315113e+000 9.780347e-001 -5.773451e+000 170 161 125
-1.603068e+000 -4.744369e-001 -5.485903e+000 106 35 28
-1.603068e+000 -4.744369e-001 -5.485903e+000 106 35 28
1.552858e+000 -8.213714e-001 -5.547823e+000 111 84 60
1.683867e+000 -1.356895e+000 -5.843442e+000 157 145 138
1.490990e+000 -4.834118e-001 -6.111803e+000 113 89 58
2.784599e+000 -1.256610e+000 -5.685381e+000 43 25 23
2.784599e+000 -1.256610e+000 -5.685381e+000 43 25 23
1.323289e+000 -1.454437e+000 -6.287749e+000 211 67 67
1.683038e+000 -1.553493e+000 -5.823148e+000 221 166 85
4.372928e-001 -1.124264e+000 -7.346499e+000 207 197 188
1.287769e+000 6.647585e-001 -5.667453e+000 248 246 236
1.764073e+000 9.623000e-001 -5.064985e+000 160 64 62
1.122468e-001 -7.917536e-001 -6.206567e+000 151 139 127
1.465223e+000 2.679008e+000 -6.968134e+000 244 240 231
1.858679e+000 4.286804e-001 -4.977247e+000 246 242 230
2.141301e+000 2.084112e-001 -4.841757e+000 216 136 82
2.897950e+000 6.245628e-001 -5.418272e+000 191 175 162
2.970436e+000 5.692140e-001 -5.437122e+000 187 173 162
2.142726e+000 2.241550e-001 -5.038838e+000 236 173 66
2.145611e+000 6.969683e-004 -4.843285e+000 222 160 110
2.018689e+000 2.185668e-001 -5.292296e+000 106 71 59
1.949135e+000 -1.082304e-001 -5.332510e+000 126 92 90
1.872119e+000 -4.973049e-001 -5.541953e+000 97 49 47
1.870800e+000 -5.162865e-001 -5.515543e+000 114 69 63
1.942222e+000 -6.251757e-001 -5.354639e+000 145 84 80
1.947871e+000 -6.408724e-001 -5.379673e+000 148 101 90
2.759604e+000 -6.929974e-001 -5.392499e+000 90 63 47
2.637879e+000 -7.608364e-001 -5.356829e+000 91 57 58
1.192372e+000 -3.045659e-001 -5.840732e+000 136 92 67
1.865024e+000 -5.665008e-001 -5.614608e+000 111 53 54
-7.097917e-001 -1.667907e-001 -5.413490e+000 198 80 78
-5.917972e-001 -2.934395e-001 -5.370010e+000 218 100 93
1.597882e+000 -5.456662e-001 -5.686085e+000 97 75 51
2.767144e+000 -1.085994e+000 -5.603062e+000 79 56 48
-7.839721e-001 -2.826493e-001 -5.479421e+000 199 155 108
-4.658300e-001 -4.247631e-001 -5.351744e+000 231 109 98
1.228501e+000 -5.970323e-001 -5.973175e+000 178 127 79
1.802066e+000 -9.060611e-001 -5.696956e+000 121 100 99
2.753675e+000 -1.153897e+000 -5.632842e+000 80 60 53
2.867845e+000 -1.101376e+000 -5.674512e+000 65 39 34
-1.378849e+000 -3.051644e-001 -5.598502e+000 99 63 50
-1.026094e+000 -3.734475e-001 -5.624513e+000 195 120 82
-9.707902e-001 -3.848928e-001 -5.620948e+000 173 99 62
1.493740e+000 -7.640002e-001 -6.136247e+000 133 97 70
1.742081e+000 -1.016202e+000 -5.802849e+000 60 35 31
1.809361e+000 -1.026348e+000 -5.634829e+000 185 191 174
1.796273e+000 -1.082895e+000 -5.659353e+000 121 133 102
1.787821e+000 -1.134702e+000 -5.639631e+000 106 118 90
1.797233e+000 -1.166570e+000 -5.615801e+000 143 144 124
1.797233e+000 -1.166570e+000 -5.615801e+000 143 144 124
2.787295e+000 -1.267528e+000 -5.776824e+000 68 39 30
2.775952e+000 -1.272033e+000 -5.762618e+000 68 39 30
2.818285e+000 -1.282120e+000 -5.762681e+000 82 58 54
-1.695707e+000 -4.282553e-001 -5.464953e+000 233 138 86
-1.438156e+000 -5.312652e-001 -5.481679e+000 144 106 79
-1.390196e+000 -5.649032e-001 -5.503442e+000 148 134 139
-1.358368e-001 -7.137305e-001 -5.609443e+000 117 66 53
-6.814708e-002 -6.973758e-001 -5.960885e+000 98 75 59
9.934618e-002 -5.539096e-001 -6.004308e+000 92 77 59
2.824154e-001 -6.881088e-001 -6.034221e+000 70 42 39
7.576674e-001 -9.454820e-001 -5.789312e+000 169 64 55
1.738206e+000 -1.101251e+000 -5.826326e+000 80 61 50
1.725326e+000 -1.118223e+000 -5.846547e+000 103 82 71
1.725538e+000 -1.117417e+000 -5.846456e+000 103 82 71
1.698516e+000 -1.154263e+000 -5.883127e+000 91 69 58
1.695404e+000 -1.157274e+000 -5.876982e+000 91 69 58
1.764655e+000 -1.178466e+000 -5.656575e+000 143 162 127
1.768331e+000 -1.237852e+000 -5.654291e+000 121 130 104
1.790866e+000 -1.306116e+000 -5.573437e+000 159 149 136
1.742192e+000 -1.282151e+000 -5.705694e+000 193 200 181
1.749880e+000 -1.285708e+000 -5.687994e+000 93 107 89
1.777448e+000 -1.346981e+000 -5.608959e+000 208 199 190
-1.961282e+000 -3.692530e-001 -5.697354e+000 173 150 102
-1.985012e+000 -4.828978e-001 -5.674744e+000 171 150 98
-1.860741e+000 -5.918245e-001 -5.587314e+000 105 56 52
8.197545e-001 -9.850117e-001 -6.026812e+000 185 69 67
1.749994e+000 -1.366705e+000 -5.673828e+000 151 154 142
1.775559e+000 -1.479531e+000 -5.539458e+000 120 97 84
1.759047e+000 -1.490461e+000 -5.560827e+000 220 166 91
1.370207e+000 -1.375621e+000 -6.018221e+000 209 108 96
1.370556e+000 -1.376406e+000 -6.017848e+000 209 108 96
1.660726e+000 -1.379298e+000 -5.892636e+000 127 64 61
1.708733e+000 -1.634994e+000 -5.651042e+000 117 94 94
1.730457e+000 -1.688182e+000 -5.613405e+000 225 147 69
-1.598467e+000 -8.611112e-001 -5.609371e+000 193 115 70
-9.302388e-001 -1.019931e+000 -5.867648e+000 199 104 65
-9.281171e-001 -1.029464e+000 -5.845390e+000 199 104 65
-5.147854e-001 -1.076701e+000 -5.778680e+000 198 148 126
-5.135897e-001 -1.081533e+000 -5.769844e+000 198 148 126
1.105429e+000 -1.316833e+000 -6.287539e+000 213 190 172
1.624803e+000 -1.848394e+000 -5.851319e+000 110 86 83
1.626927e+000 -1.847110e+000 -5.857242e+000 110 86 83
5.117260e-001 -1.089157e+000 -7.344996e+000 102 46 48
1.450946e+000 -1.682447e+000 -6.285186e+000 181 79 47
1.586709e+000 -1.934387e+000 -5.936692e+000 218 192 180
1.590213e+000 -1.952970e+000 -5.945088e+000 200 122 67
1.545587e+000 -1.962268e+000 -5.946157e+000 214 192 174
1.567929e+000 -1.951975e+000 -5.966218e+000 131 109 105
1.571772e+000 -1.965928e+000 -5.978734e+000 224 208 172
1.619543e+000 -2.073040e+000 -5.613373e+000 252 216 156
1.508635e+000 -2.004967e+000 -6.081261e+000 239 218 200
1.400406e+000 -2.000306e+000 -6.302393e+000 199 125 52
1.398908e+000 -2.112106e+000 -6.281327e+000 223 169 108
1.295112e+000 -2.125755e+000 -6.573813e+000 208 139 80
1.375217e+000 -2.159084e+000 -6.285856e+000 120 101 93
1.379603e+000 -2.157197e+000 -6.297639e+000 120 101 93
1.351658e+000 -2.179970e+000 -6.382101e+000 219 206 182
1.337513e+000 -2.247109e+000 -6.423841e+000 128 119 114
1.337513e+000 -2.247109e+000 -6.423841e+000 128 119 114
1.316134e+000 -2.277924e+000 -6.438892e+000 217 186 181
1.409288e+000 1.470150e+000 -5.566503e+000 185 174 130
2.134862e+000 3.127733e-001 -5.009104e+000 197 117 51
1.335373e+000 1.051924e+000 -5.689191e+000 197 186 138
2.079163e+000 3.131916e-001 -5.295488e+000 142 99 82
2.112123e+000 3.284113e-001 -5.317006e+000 133 86 69
2.180360e+000 -9.379236e-002 -4.924512e+000 255 230 204
2.803338e+000 -2.492672e-001 -5.294688e+000 148 129 114
1.961772e+000 -2.734744e-002 -5.410966e+000 117 77 77
2.088928e+000 -6.883091e-001 -4.802484e+000 231 198 173
2.146010e+000 -6.464164e-001 -4.822464e+000 108 84 77
2.129117e+000 -7.104393e-001 -4.863917e+000 135 115 112
2.775831e+000 -6.391264e-001 -5.367395e+000 85 66 49
1.883241e+000 -4.600283e-001 -5.507193e+000 120 75 69
1.894728e+000 -4.705159e-001 -5.514577e+000 97 49 42
1.941662e+000 -6.470626e-001 -5.296000e+000 144 117 106
3.092111e-001 -1.128044e-001 -5.691654e+000 219 217 205
1.878248e+000 -5.559237e-001 -5.544588e+000 103 40 39
1.887153e+000 -6.475554e-001 -5.506057e+000 114 63 39
1.976572e+000 -7.210923e-001 -5.480209e+000 169 135 121
2.665567e+000 -8.965982e-001 -5.354049e+000 100 75 58
1.028332e-001 -2.977173e-001 -5.686607e+000 131 115 102
1.814743e+000 -7.856171e-001 -5.682243e+000 103 38 37
1.865823e+000 -8.519117e-001 -5.445400e+000 157 95 52
2.151479e+000 -1.110949e+000 -5.344044e+000 214 130 52
2.754238e+000 -1.058867e+000 -5.556530e+000 41 28 27
-1.436511e+000 -1.216042e-001 -5.598071e+000 200 193 183
-1.436511e+000 -1.216042e-001 -5.598071e+000 200 193 183
-6.430499e-001 -3.074517e-001 -5.501308e+000 217 153 115
-6.418442e-001 -3.259212e-001 -5.471251e+000 217 153 115
1.575121e+000 -8.455493e-001 -5.516738e+000 122 94 70
1.833708e+000 -8.721748e-001 -5.607053e+000 169 121 65
1.823784e+000 -9.257296e-001 -5.611761e+000 185 167 155
1.855318e+000 -9.985604e-001 -5.497460e+000 195 131 55
1.818150e+000 -9.534603e-001 -5.632371e+000 190 181 178
2.830270e+000 -1.090403e+000 -5.649822e+000 65 37 34
-1.753713e+000 -1.849789e-001 -5.648160e+000 130 81 81
-9.712896e-001 -3.443582e-001 -5.657201e+000 223 161 119
1.056583e-001 -4.984552e-001 -5.942560e+000 67 52 33
1.798977e+000 -9.885318e-001 -5.685293e+000 187 187 169
1.796028e+000 -1.045734e+000 -5.674943e+000 83 96 70
1.834226e+000 -1.113101e+000 -5.512776e+000 161 155 144
1.792891e+000 -1.153236e+000 -5.654502e+000 94 105 79
1.857651e+000 -1.271339e+000 -5.346992e+000 223 175 103
-1.001852e+000 -4.087097e-001 -5.720462e+000 166 93 66
-4.296378e-001 -6.808179e-001 -5.661800e+000 197 130 75
1.742068e+000 -1.164905e+000 -5.760873e+000 137 148 121
1.780027e+000 -1.194769e+000 -5.646473e+000 196 203 178
1.723754e+000 -1.268107e+000 -5.780817e+000 186 189 170
1.733875e+000 -1.299077e+000 -5.705375e+000 106 115 88
1.802451e+000 -1.339665e+000 -5.515444e+000 203 127 61
1.806288e+000 -1.450850e+000 -5.455863e+000 221 200 185
1.811187e+000 -1.447889e+000 -5.464398e+000 221 200 185
-1.919917e+000 -5.484012e-001 -5.618508e+000 140 98 80
1.690480e+000 -1.258317e+000 -5.838523e+000 78 65 56
1.714206e+000 -1.282120e+000 -5.781951e+000 183 185 178
1.727166e+000 -1.356111e+000 -5.756006e+000 217 210 193
1.745990e+000 -1.351679e+000 -5.697920e+000 225 218 199
-1.665486e+000 -7.187643e-001 -5.538719e+000 203 105 60
-1.680270e+000 -7.930840e-001 -5.534375e+000 126 71 65
-1.118732e+000 -8.835668e-001 -5.757647e+000 193 108 71
-7.957130e-001 -9.274383e-001 -5.791750e+000 154 68 41
1.364867e+000 -1.382586e+000 -6.037100e+000 162 53 44
1.641816e+000 -1.350144e+000 -6.018629e+000 98 35 27
1.743689e+000 -1.544347e+000 -5.603349e+000 169 87 63
1.742389e+000 -1.543899e+000 -5.605314e+000 169 87 63
1.731973e+000 -1.630758e+000 -5.649271e+000 231 204 201
1.718273e+000 -1.666723e+000 -5.641569e+000 227 204 185
1.948412e+000 -1.731460e+000 -5.527017e+000 97 71 54
-1.139597e+000 -8.837720e-001 -5.776033e+000 159 79 55
1.657819e+000 -1.774061e+000 -5.749001e+000 228 204 192
1.263031e-001 -8.207011e-001 -7.203614e+000 206 200 188
