ply
format ascii 1.0
element face 0
property list uchar int vertex_indices
element vertex 869
property float x
property float y
property float z
property uchar diffuse_red
property uchar diffuse_green
property uchar diffuse_blue
end_header
2.752219e+000 -1.195310e+000 -5.637323e+000 83 56 48
-1.253115e+000 -8.418377e-001 -5.762611e+000 139 77 62
1.720308e+000 -1.162985e+000 -5.884281e+000 67 45 35
1.702059e+000 -1.192968e+000 -5.886079e+000 103 81 70
1.702246e+000 -1.192665e+000 -5.887017e+000 103 81 70
1.721278e+000 -1.402252e+000 -5.745852e+000 205 205 202
1.755283e+000 -1.409043e+000 -5.634689e+000 221 197 171
1.775720e+000 -1.466834e+000 -5.574950e+000 212 165 82
1.685523e+000 -1.528329e+000 -5.828736e+000 216 155 77
1.694132e+000 -1.555891e+000 -5.780415e+000 226 176 92
1.782162e+000 -1.542240e+000 -5.518487e+000 215 188 174
1.736625e+000 -1.590924e+000 -5.594094e+000 196 175 167
1.665871e+000 -1.758059e+000 -5.752279e+000 121 99 93
1.483882e+000 -1.788340e+000 -6.229634e+000 224 148 70
1.640385e+000 -1.789025e+000 -5.809143e+000 131 107 105
1.617617e+000 -1.840253e+000 -5.875201e+000 115 92 89
1.565937e+000 -1.964114e+000 -5.953392e+000 122 106 99
1.467004e+000 -2.099492e+000 -6.143923e+000 128 119 113
1.467004e+000 -2.099492e+000 -6.143923e+000 128 119 113
-1.044162e+000 -9.921206e-002 -5.855634e+000 198 122 79
1.878361e+000 -6.293108e-001 -5.539436e+000 131 95 90
-1.623045e+000 -4.008811e-001 -5.481663e+000 154 80 59
1.734084e+000 -9.280424e-001 -5.789091e+000 83 41 43
1.779042e+000 -9.955795e-001 -5.752209e+000 58 40 31
-1.638295e+000 -8.201283e-001 -5.585260e+000 185 107 68
-8.729126e-001 -1.066447e+000 -5.883967e+000 165 73 39
2.125706e-001 -1.025412e+000 -7.565639e+000 205 200 189
-6.929157e-001 -1.207536e+000 -5.999381e+000 171 90 64
8.945062e-001 -1.511024e+000 -7.140225e+000 223 211 201
1.434497e+000 -1.655439e+000 -6.373536e+000 128 63 35
1.641557e+000 -1.719661e+000 -5.811378e+000 215 139 71
1.609745e+000 -1.897174e+000 -5.857841e+000 223 188 170
1.421777e+000 -1.950560e+000 -6.314950e+000 203 113 54
1.683937e+000 9.544243e-001 -5.150304e+000 203 186 174
1.571892e+000 -3.534102e-002 -4.536514e+000 222 213 201
2.214791e+000 -3.026856e-001 -4.781114e+000 159 141 128
2.501912e-001 -4.028139e-001 -5.918654e+000 132 122 112
2.600836e+000 -8.674568e-001 -5.299477e+000 139 110 90
-3.658705e-001 -7.088544e-001 -5.639890e+000 176 112 69
-1.202957e+000 -8.343189e-001 -5.737287e+000 122 59 41
-1.202957e+000 -8.343189e-001 -5.737287e+000 122 59 41
1.625441e+000 -1.372055e+000 -6.012583e+000 124 66 46
1.703877e+000 -1.475329e+000 -5.734246e+000 196 109 71
2.075296e+000 -1.785625e-002 -5.092426e+000 230 225 220
2.194143e+000 -4.544111e-001 -5.289116e+000 173 95 28
1.262174e-001 -2.761923e-001 -5.722183e+000 152 142 132
-1.462089e-002 -5.088229e-001 -5.843668e+000 102 83 69
-1.636257e+000 -5.784708e-001 -5.452112e+000 173 88 58
-1.312821e+000 -7.513300e-001 -5.622732e+000 130 69 44
1.768398e+000 -1.030544e+000 -5.755212e+000 54 40 31
1.598669e+000 -1.883871e+000 -5.892430e+000 225 196 162
1.909832e+000 -6.835226e-001 -5.465528e+000 120 75 46
1.909832e+000 -6.835226e-001 -5.465528e+000 120 75 46
-4.994566e-001 -5.281567e-001 -5.445613e+000 197 141 102
-1.941709e+000 1.299848e+001 -2.485363e+001 162 176 210
-8.523191e-001 -3.187065e-002 -5.568613e+000 217 220 215
-9.610786e-001 -4.564329e-001 -5.622559e+000 139 62 41
1.497773e+000 -1.844957e+000 -6.165005e+000 229 179 80
1.551475e+000 -1.928061e+000 -6.029566e+000 241 185 94
-1.631684e+000 1.376705e+001 -2.463392e+001 146 160 206
-1.708487e+000 1.316251e+001 -2.418915e+001 151 166 210
-4.774213e+000 1.478361e+001 -3.073004e+001 145 142 133
2.137472e+000 2.731303e-001 -4.975594e+000 202 121 55
1.431467e+000 2.544478e-001 -5.404225e+000 224 218 207
-1.107265e+000 -3.152243e-001 -5.679410e+000 157 72 49
8.644741e-001 2.639023e+000 -7.994235e+000 215 89 92
8.644741e-001 2.639023e+000 -7.994235e+000 215 89 92
-2.069051e+000 1.286494e+001 -2.554507e+001 59 90 171
-2.069051e+000 1.286494e+001 -2.554507e+001 59 90 171
9.071451e-001 2.010493e+000 -7.776748e+000 249 243 239
8.074457e-001 -1.738434e+000 -7.180095e+000 186 65 69
1.005467e+000 2.257455e+000 -7.642882e+000 254 251 242
1.322606e+000 1.307908e+000 -5.872175e+000 123 114 85
2.055145e+000 2.341024e-002 -5.155801e+000 197 128 117
-1.046265e+000 -6.029806e-002 -5.885720e+000 169 120 95
1.901445e+000 -5.713116e-001 -5.496213e+000 122 79 76
1.901445e+000 -5.713116e-001 -5.496213e+000 122 79 76
-5.120793e-001 -4.384715e-001 -5.459054e+000 182 114 80
2.869178e+000 -8.181325e-001 -5.507794e+000 44 27 25
1.818648e+000 -1.152862e+000 -5.579411e+000 85 99 83
1.793836e+000 -1.312029e+000 -5.569082e+000 140 136 129
1.822519e+000 -1.357927e+000 -5.461738e+000 221 158 69
1.677751e+000 -1.355763e+000 -5.867683e+000 199 189 183
1.692723e+000 -1.377953e+000 -5.842889e+000 208 205 202
1.789044e+000 -1.510622e+000 -5.500260e+000 213 195 192
1.439181e+000 -1.675613e+000 -6.363029e+000 151 73 32
1.617061e+000 -1.653004e+000 -5.956132e+000 188 103 64
1.695350e+000 -1.714934e+000 -5.658975e+000 214 203 204
1.700377e+000 -1.714617e+000 -5.673447e+000 214 203 204
-1.783270e+000 1.305033e+001 -2.441462e+001 98 114 174
-1.772341e+000 1.296727e+001 -2.427534e+001 98 114 174
7.620124e-001 -5.961403e-001 -5.888966e+000 194 79 78
1.802983e+000 -1.104185e+000 -5.634419e+000 196 202 178
1.453128e+000 -1.693653e+000 -6.329093e+000 186 92 51
1.581810e+000 -1.825528e+000 -5.923097e+000 239 174 92
2.041122e+000 -6.648467e-001 -5.058834e+000 177 98 24
2.014715e+000 -7.380437e-001 -5.095286e+000 189 133 38
-2.093227e+000 -5.331115e-001 -5.777323e+000 128 118 109
-1.136595e+000 -8.222991e-001 -5.710580e+000 168 85 52
2.768234e+000 -1.189977e+000 -5.697118e+000 40 24 20
3.061966e+000 5.386062e-001 -5.475845e+000 170 153 148
1.118266e+000 -6.306181e-001 -5.954412e+000 190 134 83
1.118314e+000 -6.309891e-001 -5.953309e+000 190 134 83
1.592999e+000 -1.767348e+000 -5.993564e+000 232 163 76
-9.791498e-001 -1.191428e+000 -5.989004e+000 143 70 44
-9.791498e-001 -1.191428e+000 -5.989004e+000 143 70 44
1.792169e+000 -1.396177e+000 -5.542519e+000 161 75 59
2.049175e+000 2.907844e-001 -5.201198e+000 127 86 63
5.715097e-001 1.945809e+000 -8.340665e+000 212 133 128
1.924446e+000 -6.171170e-001 -5.411269e+000 121 58 54
2.997068e+000 -8.033265e-001 -5.546462e+000 71 43 37
-4.621151e-001 -4.492854e-001 -5.380725e+000 230 156 126
8.748669e-001 -5.007049e-001 -5.857263e+000 175 70 67
1.857021e+000 -6.985034e-001 -5.590243e+000 107 48 37
5.132716e-001 -5.187758e-001 -6.064583e+000 152 142 133
7.606044e-001 -5.941648e-001 -5.893672e+000 204 84 81
1.857321e+000 -1.107846e+000 -5.456475e+000 186 108 74
2.759044e+000 -1.157667e+000 -5.592350e+000 46 30 25
-1.622381e+000 -8.078555e-001 -5.576773e+000 168 102 70
8.282296e-001 -9.299115e-001 -6.028971e+000 176 82 70
1.705615e+000 -1.207359e+000 -5.878132e+000 115 86 80
1.783596e+000 -1.223850e+000 -5.642642e+000 131 138 120
1.720674e+000 -1.257124e+000 -5.781196e+000 84 94 65
-1.169486e+000 -8.636561e-001 -5.766349e+000 173 98 69
-7.901225e-001 -9.283370e-001 -5.834505e+000 151 71 40
1.741506e+000 -1.318486e+000 -5.714013e+000 202 215 187
1.742128e+000 -1.362007e+000 -5.674267e+000 217 212 193
1.826645e+000 -1.390855e+000 -5.443692e+000 227 164 74
1.368498e+000 -1.386318e+000 -6.041302e+000 165 55 44
6.740445e-001 -1.237096e+000 -7.483201e+000 143 101 100
1.490239e+000 -1.699666e+000 -6.251292e+000 222 135 68
1.372960e+000 -1.909848e+000 -6.423953e+000 129 65 41
1.347525e+000 -2.024952e+000 -6.463284e+000 145 87 46
1.427743e+000 -2.109795e+000 -6.234878e+000 136 117 111
1.448537e+000 -2.081533e+000 -6.165319e+000 93 80 74
1.455388e+000 -2.080672e+000 -6.186429e+000 93 80 74
1.507151e+000 -2.079911e+000 -6.083753e+000 174 91 78
1.182304e+000 -2.082193e+000 -6.906846e+000 178 122 71
1.425258e+000 -2.125874e+000 -6.242926e+000 213 207 196
1.443881e+000 -2.140774e+000 -6.184312e+000 194 132 97
1.452664e+000 -2.132348e+000 -6.172587e+000 241 221 192
1.363975e+000 1.126009e+000 -5.663752e+000 230 225 172
1.505853e+000 -1.880412e-001 -4.519622e+000 130 117 96
1.924261e+000 -1.473258e-001 -5.459091e+000 102 58 53
2.026743e+000 -2.548520e-001 -5.046271e+000 162 127 83
1.909255e+000 -4.676086e-001 -5.584674e+000 109 61 58
1.308727e+000 -3.157459e-001 -6.276494e+000 119 74 52
1.828988e+000 -5.541144e-001 -5.629910e+000 92 46 43
1.946814e+000 -6.253773e-001 -5.328321e+000 113 44 44
2.704064e+000 -9.795923e-001 -5.329954e+000 151 128 110
2.694542e+000 -9.994283e-001 -5.317462e+000 76 56 43
2.794718e+000 -1.124677e+000 -5.605999e+000 80 54 43
2.937407e+000 -1.127535e+000 -5.710270e+000 66 35 34
-1.758044e+000 -6.209532e-001 -5.568333e+000 213 122 75
3.653536e-001 -6.942208e-001 -6.022255e+000 133 121 112
1.800076e+000 -1.106663e+000 -5.626835e+000 206 212 196
2.770544e+000 -1.175283e+000 -5.644548e+000 70 31 24
-1.715272e+000 -7.092669e-001 -5.589893e+000 172 87 56
-1.476573e+000 -7.098367e-001 -5.517076e+000 140 70 47
-1.299248e+000 -7.336368e-001 -5.586377e+000 147 90 67
1.695996e+000 -1.143333e+000 -5.896872e+000 65 40 35
1.758544e+000 -1.197351e+000 -5.726913e+000 75 92 62
-1.059229e+000 -8.641460e-001 -5.753876e+000 191 98 64
-1.090276e+000 -9.737074e-001 -6.097710e+000 143 70 51
-8.906031e-001 -1.055513e+000 -5.849243e+000 166 76 45
1.714156e+000 -1.534825e+000 -5.721824e+000 213 133 82
1.559648e+000 -1.559677e+000 -6.142489e+000 170 73 46
1.592479e+000 -1.789784e+000 -5.905152e+000 224 151 78
1.592479e+000 -1.789784e+000 -5.905152e+000 224 151 78
1.657581e+000 -1.755125e+000 -5.771426e+000 232 212 202
1.538028e+000 -1.864933e+000 -6.077336e+000 233 158 77
1.610374e+000 -1.896014e+000 -5.861164e+000 228 196 181
1.469150e+000 -2.132267e+000 -6.135024e+000 218 176 92
1.336878e+000 -2.155074e+000 -6.483749e+000 240 188 94
1.333936e+000 1.138917e+000 -5.629944e+000 159 149 109
1.274114e+000 7.916061e-001 -5.703582e+000 177 172 135
1.972689e+000 -1.006441e-001 -5.329642e+000 213 177 176
1.892327e+000 -6.297289e-001 -5.500815e+000 139 94 86
1.891995e+000 -6.296876e-001 -5.500865e+000 139 94 86
1.922162e+000 -6.963356e-001 -5.384142e+000 133 87 81
-6.186261e-001 -4.097341e-001 -5.497740e+000 206 118 68
1.892130e-001 -3.567779e-001 -5.782303e+000 146 136 126
-1.603555e+000 -3.920505e-001 -5.472671e+000 148 75 60
-2.111566e-001 -6.634789e-001 -5.451925e+000 161 150 132
-1.895084e-001 -7.111170e-001 -5.584219e+000 171 68 62
-1.467282e+000 -7.364727e-001 -5.509168e+000 128 56 34
1.833851e+000 -1.306464e+000 -5.412654e+000 197 124 57
-8.560325e-001 -9.164760e-001 -5.843407e+000 123 46 29
-7.855647e-002 -9.519044e-001 -6.454386e+000 111 67 63
1.690263e+000 -1.355515e+000 -5.846722e+000 151 139 134
1.816355e+000 -1.357893e+000 -5.487282e+000 197 118 57
1.785114e+000 -1.412503e+000 -5.552552e+000 213 134 70
-6.390840e-001 -1.192348e+000 -6.007187e+000 151 79 55
1.381367e+000 -2.021087e+000 -6.397751e+000 189 126 53
1.426307e+000 -2.160312e+000 -6.216726e+000 242 222 211
1.427198e+000 -2.159128e+000 -6.221600e+000 242 222 211
1.438374e+000 -2.164562e+000 -6.176341e+000 192 111 77
1.461433e+000 -2.161989e+000 -6.175760e+000 232 185 95
1.481680e+000 -2.135110e+000 -6.115197e+000 240 188 98
-8.413978e-001 -2.290929e-002 -5.595170e+000 216 206 206
-1.521149e+000 -7.036604e-002 -5.624881e+000 203 198 195
-3.121100e-001 -2.156476e-001 -5.463591e+000 200 199 186
1.884250e+000 -5.235090e-001 -5.574122e+000 113 72 70
1.882816e+000 -5.268653e-001 -5.566857e+000 113 72 70
-5.924783e-001 -4.093826e-001 -5.439256e+000 222 134 89
-1.359384e+000 -5.054339e-001 -5.559067e+000 79 61 49
7.351533e-001 -6.858727e-001 -6.037137e+000 90 63 51
1.733944e+000 -9.016106e-001 -5.755600e+000 74 34 32
-1.328366e+000 -5.703358e-001 -5.487297e+000 220 186 139
3.729034e-002 -6.528145e-001 -6.039156e+000 50 40 33
1.817982e+000 -1.318971e+000 -5.483769e+000 178 93 74
1.756783e+000 -1.326323e+000 -5.675523e+000 88 110 75
1.698650e+000 -1.358128e+000 -5.807725e+000 214 204 195
1.701847e+000 -1.559748e+000 -5.747014e+000 232 194 109
-6.656467e-001 -1.201262e+000 -5.977601e+000 130 54 40
-6.643662e-001 -1.233179e+000 -6.012439e+000 163 86 59
-6.643662e-001 -1.233179e+000 -6.012439e+000 163 86 59
1.431848e+000 -1.758975e+000 -6.360163e+000 172 86 46
1.426541e+000 -1.989881e+000 -6.307648e+000 232 164 74
2.763515e+000 -9.876139e-001 -5.428753e+000 70 50 38
2.789227e+000 -1.204002e+000 -5.729504e+000 44 26 24
-1.462221e+000 -7.789402e-001 -5.549537e+000 131 59 37
1.687768e+000 -1.160990e+000 -5.896519e+000 62 44 30
-3.076072e-001 -1.112982e+000 -5.965736e+000 147 82 60
1.219562e+000 -1.313447e+000 -6.218810e+000 111 46 43
1.649383e+000 -1.539950e+000 -5.923066e+000 230 169 88
1.550571e+000 -1.702337e+000 -6.052013e+000 230 160 69
1.417575e+000 -2.077617e+000 -6.273077e+000 205 114 70
1.507052e+000 -2.090901e+000 -6.059029e+000 185 91 82
1.506282e+000 -2.090473e+000 -6.057912e+000 185 91 82
2.036794e+000 1.093858e+000 -5.134065e+000 166 61 59
1.307304e+000 1.654422e+000 -6.050885e+000 176 163 123
1.307304e+000 1.654422e+000 -6.050885e+000 176 163 123
7.852452e-001 2.540250e+000 -8.046032e+000 224 224 224
-2.496106e-001 -1.070046e-001 -5.598728e+000 207 205 193
-2.477582e-001 -1.361868e-001 -5.535088e+000 207 205 193
-1.312939e-001 -1.907427e-001 -5.518667e+000 135 120 101
2.688438e+000 -9.211634e-001 -5.351112e+000 167 146 127
-1.928174e+000 -3.901879e-001 -5.719437e+000 68 27 28
1.619368e+000 -8.701356e-001 -5.618299e+000 130 37 35
-8.948582e-001 1.455244e+001 -2.246834e+001 71 98 169
9.419102e-001 2.760446e+000 -7.865542e+000 232 222 227
-9.338912e-001 -4.973026e-001 -5.735743e+000 163 110 78
-2.355034e-003 -8.643392e-001 -6.006175e+000 164 150 138
1.683414e+000 -1.590026e+000 -5.817114e+000 236 186 104
1.316387e+000 9.818683e-001 -5.776291e+000 170 161 125
-1.610765e+000 -4.740763e-001 -5.482666e+000 106 35 28
-1.610765e+000 -4.740763e-001 -5.482666e+000 106 35 28
1.556923e+000 -8.225884e-001 -5.549597e+000 111 84 60
1.688540e+000 -1.360810e+000 -5.846172e+000 157 145 138
1.492346e+000 -4.841880e-001 -6.114495e+000 113 89 58
2.795019e+000 -1.260449e+000 -5.689076e+000 43 25 23
2.795019e+000 -1.260449e+000 -5.689076e+000 43 25 23
1.325077e+000 -1.458612e+000 -6.291350e+000 211 67 67
1.688073e+000 -1.558395e+000 -5.825737e+000 221 166 85
4.298202e-001 -1.131011e+000 -7.339628e+000 207 197 188
1.288869e+000 6.672719e-001 -5.668727e+000 248 246 236
1.770436e+000 9.687250e-001 -5.066613e+000 160 64 62
1.095582e-001 -7.918189e-001 -6.210327e+000 151 139 127
1.463250e+000 2.683013e+000 -6.973010e+000 244 240 231
1.865707e+000 4.328899e-001 -4.977869e+000 246 242 230
2.150408e+000 2.118448e-001 -4.841467e+000 216 136 82
2.907039e+000 6.271344e-001 -5.419561e+000 191 175 162
2.980176e+000 5.720188e-001 -5.439138e+000 187 173 162
2.151062e+000 2.272566e-001 -5.039325e+000 236 173 66
2.154450e+000 2.841551e-003 -4.842410e+000 222 160 110
2.025056e+000 2.209563e-001 -5.293443e+000 106 71 59
1.955231e+000 -1.070766e-001 -5.333603e+000 126 92 90
1.877651e+000 -4.974739e-001 -5.544163e+000 97 49 47
1.876376e+000 -5.165343e-001 -5.517594e+000 114 69 63
1.949252e+000 -6.254307e-001 -5.356642e+000 145 84 80
1.954728e+000 -6.413015e-001 -5.381594e+000 148 101 90
2.770603e+000 -6.941453e-001 -5.395018e+000 90 63 47
2.648870e+000 -7.619706e-001 -5.359498e+000 91 57 58
1.193200e+000 -3.044642e-001 -5.842787e+000 136 92 67
1.870335e+000 -5.670419e-001 -5.616989e+000 111 53 54
-7.136623e-001 -1.648281e-001 -5.413025e+000 198 80 78
-5.952301e-001 -2.917998e-001 -5.369706e+000 218 100 93
1.601448e+000 -5.460779e-001 -5.688445e+000 97 75 51
2.777839e+000 -1.089048e+000 -5.606360e+000 79 56 48
-7.882045e-001 -2.806399e-001 -5.479726e+000 199 155 108
-4.688221e-001 -4.233369e-001 -5.351809e+000 231 109 98
1.229366e+000 -5.978355e-001 -5.975605e+000 178 127 79
1.806943e+000 -9.080871e-001 -5.699154e+000 121 100 99
2.764454e+000 -1.157165e+000 -5.636490e+000 80 60 53
2.878251e+000 -1.104761e+000 -5.677725e+000 65 39 34
-1.385725e+000 -3.036592e-001 -5.597459e+000 99 63 50
-1.031428e+000 -3.722137e-001 -5.624188e+000 195 120 82
-9.759342e-001 -3.833734e-001 -5.621241e+000 173 99 62
1.495468e+000 -7.656150e-001 -6.139271e+000 133 97 70
1.746681e+000 -1.018563e+000 -5.805669e+000 60 35 31
1.814880e+000 -1.028717e+000 -5.637110e+000 185 191 174
1.801806e+000 -1.085444e+000 -5.661851e+000 121 133 102
1.793413e+000 -1.137491e+000 -5.641975e+000 106 118 90
1.803095e+000 -1.169436e+000 -5.618213e+000 143 144 124
1.803095e+000 -1.169436e+000 -5.618213e+000 143 144 124
2.797358e+000 -1.271677e+000 -5.780427e+000 68 39 30
2.785746e+000 -1.276333e+000 -5.765765e+000 68 39 30
2.828340e+000 -1.286358e+000 -5.766084e+000 82 58 54
-1.704252e+000 -4.270241e-001 -5.462801e+000 233 138 86
-1.445410e+000 -5.301204e-001 -5.480582e+000 144 106 79
-1.397105e+000 -5.642636e-001 -5.501842e+000 148 134 139
-1.382344e-001 -7.133692e-001 -5.610466e+000 117 66 53
-7.109197e-002 -6.976310e-001 -5.962238e+000 98 75 59
9.667409e-002 -5.540337e-001 -6.005700e+000 92 77 59
2.801738e-001 -6.886451e-001 -6.035856e+000 70 42 39
7.574915e-001 -9.469745e-001 -5.790568e+000 169 64 55
1.742805e+000 -1.104029e+000 -5.829111e+000 80 61 50
1.729825e+000 -1.121068e+000 -5.849395e+000 103 82 71
1.730042e+000 -1.120251e+000 -5.849320e+000 103 82 71
1.702721e+000 -1.157338e+000 -5.885845e+000 91 69 58
1.699562e+000 -1.160408e+000 -5.879571e+000 91 69 58
1.770101e+000 -1.181490e+000 -5.658865e+000 143 162 127
1.774017e+000 -1.241036e+000 -5.656804e+000 121 130 104
1.796904e+000 -1.309736e+000 -5.575356e+000 159 149 136
1.747658e+000 -1.285533e+000 -5.708401e+000 193 200 181
1.755452e+000 -1.289103e+000 -5.690634e+000 93 107 89
1.783401e+000 -1.350782e+000 -5.611095e+000 208 199 190
-1.971698e+000 -3.678192e-001 -5.695907e+000 173 150 102
-1.995494e+000 -4.821528e-001 -5.672698e+000 171 150 98
-1.870689e+000 -5.909924e-001 -5.585925e+000 105 56 52
8.193629e-001 -9.866843e-001 -6.029068e+000 185 69 67
1.755547e+000 -1.370656e+000 -5.675988e+000 151 154 142
1.782111e+000 -1.483823e+000 -5.541667e+000 120 97 84
1.765412e+000 -1.494805e+000 -5.562994e+000 220 166 91
1.372974e+000 -1.379234e+000 -6.021505e+000 209 108 96
1.373305e+000 -1.380033e+000 -6.021127e+000 209 108 96
1.665137e+000 -1.383309e+000 -5.895477e+000 127 64 61
1.714877e+000 -1.640020e+000 -5.653691e+000 117 94 94
1.736946e+000 -1.693484e+000 -5.615978e+000 225 147 69
-1.607038e+000 -8.612429e-001 -5.608689e+000 193 115 70
-9.358051e-001 -1.020792e+000 -5.868374e+000 199 104 65
-9.336003e-001 -1.030628e+000 -5.845372e+000 199 104 65
-5.187004e-001 -1.077904e+000 -5.778977e+000 198 148 126
-5.174932e-001 -1.082209e+000 -5.771270e+000 198 148 126
1.105965e+000 -1.320192e+000 -6.290768e+000 213 190 172
1.629827e+000 -1.854887e+000 -5.853693e+000 110 86 83
1.631813e+000 -1.853669e+000 -5.859298e+000 110 86 83
5.074559e-001 -1.092407e+000 -7.347842e+000 102 46 48
1.453508e+000 -1.688046e+000 -6.288551e+000 181 79 47
1.591250e+000 -1.941440e+000 -5.938858e+000 218 192 180
1.594777e+000 -1.960132e+000 -5.947287e+000 200 122 67
1.550148e+000 -1.969268e+000 -5.948876e+000 214 192 174
1.572433e+000 -1.959063e+000 -5.968776e+000 131 109 105
1.576154e+000 -1.973142e+000 -5.981006e+000 224 208 172
1.626026e+000 -2.080394e+000 -5.615881e+000 252 216 156
1.512564e+000 -2.012357e+000 -6.084039e+000 239 218 200
1.403076e+000 -2.007682e+000 -6.305392e+000 199 125 52
1.402371e+000 -2.119789e+000 -6.285799e+000 223 169 108
1.297184e+000 -2.133625e+000 -6.578595e+000 208 139 80
1.378284e+000 -2.167197e+000 -6.289479e+000 120 101 93
1.382550e+000 -2.165357e+000 -6.301008e+000 120 101 93
1.354264e+000 -2.188280e+000 -6.385645e+000 219 206 182
1.339981e+000 -2.255870e+000 -6.427340e+000 128 119 114
1.339981e+000 -2.255870e+000 -6.427340e+000 128 119 114
1.318866e+000 -2.287247e+000 -6.442649e+000 217 186 181
1.410804e+000 1.473896e+000 -5.566289e+000 185 174 130
2.144146e+000 3.176311e-001 -5.011047e+000 197 117 51
1.336917e+000 1.055928e+000 -5.691245e+000 197 186 138
2.086414e+000 3.166640e-001 -5.297590e+000 142 99 82
2.118965e+000 3.311625e-001 -5.318287e+000 133 86 69
2.189722e+000 -9.157511e-002 -4.924747e+000 255 230 204
2.814196e+000 -2.486676e-001 -5.296628e+000 148 129 114
1.968014e+000 -2.547365e-002 -5.413156e+000 117 77 77
2.099146e+000 -6.881082e-001 -4.802569e+000 231 198 173
2.156396e+000 -6.461027e-001 -4.822639e+000 108 84 77
2.139567e+000 -7.102512e-001 -4.864612e+000 135 115 112
2.787068e+000 -6.399120e-001 -5.370046e+000 85 66 49
1.888281e+000 -4.605504e-001 -5.508399e+000 120 75 69
1.899353e+000 -4.714415e-001 -5.515252e+000 97 49 42
1.948688e+000 -6.475461e-001 -5.297455e+000 144 117 106
3.074977e-001 -1.117288e-001 -5.692471e+000 219 217 205
1.882381e+000 -5.576023e-001 -5.544637e+000 103 40 39
1.891182e+000 -6.497993e-001 -5.505637e+000 114 63 39
1.983317e+000 -7.220605e-001 -5.482385e+000 169 135 121
2.676618e+000 -8.984563e-001 -5.356497e+000 100 75 58
1.009448e-001 -2.961155e-001 -5.688836e+000 131 115 102
1.819394e+000 -7.873199e-001 -5.684086e+000 103 38 37
1.872297e+000 -8.532433e-001 -5.447487e+000 157 95 52
2.160387e+000 -1.113521e+000 -5.346010e+000 214 130 52
2.764855e+000 -1.061859e+000 -5.559473e+000 41 28 27
-1.443477e+000 -1.200552e-001 -5.596062e+000 200 193 183
-1.443477e+000 -1.200552e-001 -5.596062e+000 200 193 183
-6.468333e-001 -3.065940e-001 -5.500260e+000 217 153 115
-6.455828e-001 -3.244832e-001 -5.471119e+000 217 153 115
1.579656e+000 -8.467046e-001 -5.518846e+000 122 94 70
1.839130e+000 -8.739611e-001 -5.609134e+000 169 121 65
1.829427e+000 -9.275796e-001 -5.614184e+000 185 167 155
1.861645e+000 -1.000628e+000 -5.499542e+000 195 131 55
1.823642e+000 -9.554930e-001 -5.634731e+000 190 181 178
2.840640e+000 -1.093719e+000 -5.652909e+000 65 37 34
-1.762609e+000 -1.830973e-001 -5.646507e+000 130 81 81
-9.764278e-001 -3.431729e-001 -5.656911e+000 223 161 119
1.031598e-001 -4.981943e-001 -5.944062e+000 67 52 33
1.804284e+000 -9.907160e-001 -5.687858e+000 187 187 169
1.800990e+000 -1.048420e+000 -5.676851e+000 83 96 70
1.840494e+000 -1.115742e+000 -5.514765e+000 161 155 144
1.798469e+000 -1.156156e+000 -5.656852e+000 94 105 79
1.865220e+000 -1.274341e+000 -5.348986e+000 223 175 103
-1.007183e+000 -4.081385e-001 -5.719547e+000 166 93 66
-4.330565e-001 -6.809391e-001 -5.661590e+000 197 130 75
1.746971e+000 -1.167945e+000 -5.763387e+000 137 148 121
1.785679e+000 -1.197803e+000 -5.648879e+000 196 203 178
1.728725e+000 -1.271554e+000 -5.783499e+000 186 189 170
1.739246e+000 -1.302599e+000 -5.707903e+000 106 115 88
1.808873e+000 -1.343378e+000 -5.517339e+000 203 127 61
1.813327e+000 -1.454914e+000 -5.457916e+000 221 200 185
1.818158e+000 -1.451969e+000 -5.466379e+000 221 200 185
-1.930025e+000 -5.478029e-001 -5.616459e+000 140 98 80
1.695042e+000 -1.261744e+000 -5.841295e+000 78 65 56
1.719149e+000 -1.285621e+000 -5.784630e+000 183 185 178
1.732402e+000 -1.359947e+000 -5.758633e+000 217 210 193
1.751544e+000 -1.355453e+000 -5.700440e+000 225 218 199
-1.674102e+000 -7.186616e-001 -5.536925e+000 203 105 60
-1.688800e+000 -7.936634e-001 -5.531940e+000 126 71 65
-1.124861e+000 -8.840501e-001 -5.757512e+000 193 108 71
-8.006018e-001 -9.279498e-001 -5.792286e+000 154 68 41
1.367297e+000 -1.386416e+000 -6.039891e+000 162 53 44
1.645648e+000 -1.354117e+000 -6.021708e+000 98 35 27
1.750004e+000 -1.548958e+000 -5.605822e+000 169 87 63
1.748572e+000 -1.548548e+000 -5.607555e+000 169 87 63
1.737825e+000 -1.636103e+000 -5.651036e+000 231 204 201
1.724374e+000 -1.672031e+000 -5.643833e+000 227 204 185
1.955941e+000 -1.737449e+000 -5.528534e+000 97 71 54
-1.145768e+000 -8.845010e-001 -5.775423e+000 159 79 55
1.663587e+000 -1.779884e+000 -5.751901e+000 228 204 192
1.213308e-001 -8.230380e-001 -7.205341e+000 206 200 188
1.583930e+000 -1.662491e+000 -6.069318e+000 190 105 55
1.629309e+000 -1.746792e+000 -5.868041e+000 183 74 53
1.637993e+000 -1.807569e+000 -5.816743e+000 229 201 194
1.617943e+000 -1.828231e+000 -5.862854e+000 225 201 190
1.655519e+000 -1.776224e+000 -5.773882e+000 114 93 92
1.650868e+000 -1.785150e+000 -5.789933e+000 226 204 190
1.701631e+000 -2.012634e+000 -5.556077e+000 106 76 56
9.543319e-001 -1.439421e+000 -6.907733e+000 225 219 207
1.627474e+000 -2.090326e+000 -5.636491e+000 213 132 76
1.481282e+000 -1.927331e+000 -6.193319e+000 235 188 83
1.370421e+000 -1.996664e+000 -6.231840e+000 178 108 45
1.536523e+000 -1.984553e+000 -6.044216e+000 234 216 202
1.543292e+000 -2.006529e+000 -5.992401e+000 232 214 199
1.494898e+000 -2.067301e+000 -6.073715e+000 234 216 205
1.396781e+000 -2.149015e+000 -6.264752e+000 111 101 92
1.412618e+000 -2.165037e+000 -6.237135e+000 111 99 85
1.407997e+000 -2.168092e+000 -6.223177e+000 111 99 85
1.376947e+000 -2.183823e+000 -6.327312e+000 242 223 217
1.376265e+000 -2.222522e+000 -6.320032e+000 233 215 214
1.336336e+000 -2.288436e+000 -6.430397e+000 181 104 82
1.310423e+000 -2.309825e+000 -6.416530e+000 169 92 84
9.655069e-001 -2.140408e+000 -7.301627e+000 192 113 84
2.948135e+000 6.353298e-001 -5.437356e+000 159 142 128
2.157703e+000 -3.956778e-001 -4.774681e+000 217 139 82
2.122876e+000 -6.852882e-001 -4.811597e+000 106 84 72
8.166769e-001 2.609551e+000 -8.356647e+000 186 120 78
1.955981e+000 -6.124954e-001 -5.323095e+000 143 111 105
1.930330e+000 -5.998823e-001 -5.408581e+000 117 41 45
2.633596e+000 -7.219098e-001 -5.305568e+000 70 44 37
2.633596e+000 -7.219098e-001 -5.305568e+000 70 44 37
1.927690e+000 -6.914146e-001 -5.395508e+000 129 87 81
2.694414e+000 -9.388494e-001 -5.376070e+000 105 81 56
1.789719e+000 -7.164409e-001 -5.782852e+000 77 30 31
2.720949e+000 -1.069573e+000 -5.509927e+000 117 105 99
7.881323e-001 -5.789469e-001 -5.871689e+000 190 73 65
1.870072e+000 -9.882575e-001 -5.510907e+000 195 129 55
2.295095e+000 -1.290344e+000 -5.404422e+000 76 51 39
-1.330214e+000 -3.115339e-001 -5.603118e+000 67 44 38
1.790132e+000 -9.667640e-001 -5.819684e+000 89 59 54
1.804059e+000 -1.172121e+000 -5.553032e+000 104 115 87
-1.414994e+000 -5.837042e-001 -5.500131e+000 77 58 48
-1.348288e+000 -5.286258e-001 -5.501864e+000 99 69 57
-1.986564e-001 -7.099526e-001 -5.651383e+000 137 89 74
1.750495e+000 -1.183718e+000 -5.780102e+000 72 92 58
1.750495e+000 -1.183718e+000 -5.780102e+000 72 92 58
-1.998836e+000 -3.486300e-001 -5.750924e+000 165 149 97
-1.956816e+000 -4.275670e-001 -5.688711e+000 187 156 116
-6.989638e-001 -8.573642e-001 -5.596222e+000 163 92 54
3.316133e-001 -8.212000e-001 -6.042327e+000 174 166 154
1.179340e+000 -1.181589e+000 -6.025601e+000 223 174 117
1.179340e+000 -1.181589e+000 -6.025601e+000 223 174 117
1.670336e+000 -1.231605e+000 -5.936149e+000 114 80 72
1.677622e+000 -1.312843e+000 -5.902662e+000 126 98 94
-1.563011e+000 -7.921449e-001 -5.643880e+000 154 78 52
-1.508416e+000 -7.952353e-001 -5.604233e+000 149 74 43
-1.584543e+000 -8.784460e-001 -5.577899e+000 153 73 36
-1.219823e+000 -8.641434e-001 -5.780837e+000 130 62 43
-1.029597e+000 -9.642069e-001 -5.781746e+000 212 114 76
1.643557e+000 -1.595387e+000 -5.863100e+000 224 141 69
1.722947e+000 -1.667398e+000 -5.704551e+000 224 206 187
1.621098e+000 -1.797174e+000 -5.883442e+000 174 77 67
1.593627e+000 -1.847546e+000 -5.931444e+000 216 133 60
-7.710473e-001 -1.200824e+000 -6.129241e+000 190 99 62
9.142308e-001 -1.341961e+000 -7.085169e+000 203 194 177
1.577024e+000 -1.989142e+000 -5.898372e+000 238 183 90
1.653633e+000 -2.045648e+000 -5.577735e+000 255 226 187
8.600005e-001 -1.552575e+000 -7.071195e+000 163 84 86
1.431983e+000 -1.846603e+000 -6.317917e+000 174 91 47
1.471170e+000 -1.984373e+000 -6.172385e+000 207 139 50
1.490833e+000 -2.051992e+000 -6.138078e+000 241 219 198
1.358887e+000 -2.022791e+000 -6.526946e+000 202 159 80
1.290034e+000 -2.075954e+000 -6.761692e+000 202 129 76
1.284093e+000 -2.053054e+000 -6.627772e+000 129 64 44
1.306035e+000 -2.153054e+000 -6.527908e+000 235 176 99
1.365873e+000 -2.235209e+000 -6.346843e+000 235 219 214
9.644314e-001 -2.017088e+000 -7.283213e+000 206 137 76
1.141029e+000 -2.126167e+000 -7.103259e+000 229 151 97
1.191713e+000 -2.133818e+000 -6.934438e+000 198 113 79
1.274911e+000 -2.146463e+000 -6.771486e+000 187 110 86
1.231782e+000 -2.264307e+000 -6.668860e+000 210 136 87
1.304019e+000 -2.328077e+000 -6.443312e+000 233 173 94
1.304019e+000 -2.328077e+000 -6.443312e+000 233 173 94
2.959806e+000 7.267476e-001 -5.475983e+000 165 149 133
2.026344e+000 2.024994e-001 -5.313649e+000 136 100 88
2.609223e+000 -7.337249e-001 -5.309277e+000 94 64 62
2.584396e+000 -8.707215e-001 -5.284843e+000 161 135 120
-2.367058e-001 -1.440171e-001 -5.532282e+000 204 197 187
3.843060e-001 -9.672781e-002 -5.731926e+000 204 202 189
-2.114751e-001 -2.412966e-001 -5.468134e+000 141 133 123
1.766595e+000 -6.571293e-001 -5.662892e+000 83 39 32
-1.520840e+000 -7.396028e-002 -5.615866e+000 197 189 187
-1.536219e+000 -1.014494e-001 -5.635194e+000 94 48 49
1.940335e-002 -3.442691e-001 -5.829288e+000 95 76 62
1.622322e+000 -8.430789e-001 -5.784852e+000 116 31 28
1.876860e+000 -1.008770e+000 -5.473834e+000 218 169 76
1.087948e-001 -4.991966e-001 -5.936979e+000 69 53 36
6.576480e-001 -6.433506e-001 -5.967362e+000 148 59 55
7.260108e-001 -6.260524e-001 -5.956939e+000 199 78 76
1.135020e+000 -6.897797e-001 -6.024232e+000 184 114 63
1.855326e+000 -1.256255e+000 -5.417632e+000 235 182 88
-1.738966e+000 -5.076751e-001 -5.482353e+000 223 122 77
-1.673398e+000 -5.225943e-001 -5.488758e+000 236 150 110
-1.594176e-001 -7.597338e-001 -5.702170e+000 131 98 81
6.870914e-001 -7.817525e-001 -6.001760e+000 225 214 198
2.040480e+000 -1.433134e+000 -5.437884e+000 196 130 70
-1.962256e+000 -3.353684e-001 -5.738743e+000 204 181 129
-1.452352e+000 -8.295445e-001 -5.623366e+000 141 68 46
-1.087654e+000 -8.166331e-001 -5.723221e+000 192 99 66
-9.141690e-001 -8.842099e-001 -5.784755e+000 132 49 31
-6.263551e-001 -9.310127e-001 -5.919196e+000 113 57 46
5.678502e-002 -8.834902e-001 -6.155796e+000 145 127 116
1.654063e+000 -1.457238e+000 -5.937466e+000 151 54 46
1.537068e+000 -1.818426e+000 -6.100514e+000 237 163 69
1.618845e+000 -1.999245e+000 -6.010414e+000 208 121 50
1.322018e+000 -2.106204e+000 -6.494849e+000 225 179 68
1.243907e+000 -2.151879e+000 -6.754200e+000 219 147 105
9.217168e-001 -2.116511e+000 -7.441621e+000 165 85 73
9.638042e-001 -2.100256e+000 -7.317263e+000 157 60 56
1.281116e+000 7.692192e-001 -5.718829e+000 244 240 229
2.152431e+000 -5.305111e-001 -4.773183e+000 110 85 74
2.152431e+000 -5.305111e-001 -4.773183e+000 110 85 74
2.132262e+000 -6.487994e-001 -4.800125e+000 90 71 58
3.043084e+000 -3.365350e-001 -5.510108e+000 140 129 123
7.837813e-001 1.230937e+000 -6.808764e+000 222 219 210
2.037483e+000 -6.525284e-001 -5.264890e+000 153 103 43
2.564613e+000 -8.307345e-001 -5.320278e+000 91 70 67
2.564613e+000 -8.307345e-001 -5.320278e+000 91 70 67
1.897187e+000 -5.961914e-001 -5.495575e+000 118 44 41
-5.656720e-001 -5.010467e-001 -5.449826e+000 200 105 62
1.231914e-001 -3.545984e-001 -5.829971e+000 114 99 89
-1.170679e+000 -4.444524e-001 -5.498091e+000 173 125 89
1.472927e+000 -7.334385e-001 -6.138928e+000 102 69 42
1.602320e+000 -8.451079e-001 -5.979919e+000 196 62 59
1.336508e-002 -6.627095e-001 -5.915094e+000 116 99 84
-1.573509e+000 -8.541825e-001 -5.564267e+000 134 57 32
-1.579217e+000 -8.345940e-001 -5.599848e+000 134 57 32
-1.398764e+000 -8.119559e-001 -5.606981e+000 120 49 28
1.510373e+000 -1.347059e+000 -5.917262e+000 214 69 66
1.685731e+000 -1.506676e+000 -5.798359e+000 228 166 78
-1.243037e+000 -8.632715e-001 -5.828896e+000 146 80 59
-5.950477e-001 -1.044444e+000 -5.975784e+000 97 36 28
1.656964e+000 -1.619819e+000 -5.845904e+000 211 91 63
1.676259e+000 -1.743194e+000 -5.728907e+000 226 207 177
1.685317e+000 -1.778602e+000 -5.698375e+000 185 81 57
-9.387606e-001 -1.129962e+000 -6.021624e+000 207 119 79
1.146439e-001 -7.405893e-001 -7.215882e+000 185 174 161
-8.069687e-001 -1.227758e+000 -6.246904e+000 169 90 60
1.440663e+000 -1.996539e+000 -6.248068e+000 207 120 46
3.459242e-001 -1.185316e+000 -8.005468e+000 243 243 233
1.393036e+000 -2.048341e+000 -6.335370e+000 221 158 67
1.375449e+000 -2.255583e+000 -6.303789e+000 197 100 78
9.441339e-001 -2.122031e+000 -7.378598e+000 230 179 100
1.970665e+000 -2.209663e-003 -5.389656e+000 89 41 39
2.597011e+000 -8.482888e-001 -5.352715e+000 73 37 36
-1.423699e+000 -6.808795e-002 -5.572961e+000 195 195 197
1.455852e+000 -5.754665e-001 -6.106960e+000 100 75 46
1.455852e+000 -5.754665e-001 -6.106960e+000 100 75 46
1.841469e+000 -1.020821e+000 -5.551089e+000 216 206 204
1.894983e-001 -4.494294e-001 -5.970083e+000 91 73 56
1.588311e+000 -8.076038e-001 -6.006591e+000 99 32 31
1.533544e+000 -8.547508e-001 -6.053237e+000 197 59 56
1.724667e+000 -9.929127e-001 -5.752264e+000 58 36 31
1.780249e+000 -1.051074e+000 -5.710391e+000 110 118 96
1.798862e+000 -1.067101e+000 -5.651746e+000 163 170 139
2.111746e+000 -1.397683e+000 -5.153680e+000 135 115 100
-2.036699e+000 -2.838221e-001 -5.806562e+000 63 54 58
-2.041263e+000 -2.777732e-001 -5.813350e+000 63 54 58
3.064352e-001 -8.227362e-001 -6.017465e+000 169 156 144
-1.677400e+000 -7.461557e-001 -5.540993e+000 210 122 85
-1.021161e-001 -8.609423e-001 -6.144988e+000 125 104 83
-7.081744e-002 -8.920420e-001 -6.169839e+000 155 137 123
1.529863e+000 -1.904109e+000 -6.073510e+000 241 187 88
1.528882e+000 -1.943929e+000 -5.963181e+000 232 179 98
2.235363e-001 -1.002000e+000 -7.779774e+000 242 240 232
1.326343e+000 -2.129667e+000 -6.508932e+000 147 87 68
9.052023e-001 -2.025696e+000 -7.461894e+000 144 67 52
9.968336e-001 -2.120057e+000 -7.096497e+000 175 70 66
1.219309e+000 -2.209771e+000 -6.575827e+000 206 119 99
8.136664e-001 -2.044638e+000 -7.499043e+000 115 47 40
1.607730e+000 -3.268624e-002 -4.594125e+000 98 82 68
1.180291e+000 3.005579e+000 -7.393782e+000 218 219 215
1.278794e+000 1.130337e+001 -1.682653e+001 201 200 196
1.278794e+000 1.130337e+001 -1.682653e+001 201 200 196
7.872520e-001 2.576923e+000 -8.090923e+000 212 210 207
2.034378e+000 -4.234159e-001 -5.342403e+000 130 80 45
1.639011e+000 -3.198403e-001 -5.586095e+000 99 65 44
1.600560e+000 -4.668020e-001 -5.483780e+000 105 85 53
1.840692e+000 -9.722003e-001 -5.595033e+000 167 158 152
-6.049509e-001 -5.054444e-001 -5.422122e+000 244 202 152
3.490491e-001 -4.473096e-001 -6.020128e+000 85 70 63
6.353426e-001 -6.004122e-001 -6.007092e+000 210 205 189
-1.220453e+000 -6.965846e-001 -5.698932e+000 87 33 21
-6.401643e-001 -7.894699e-001 -5.795357e+000 210 162 116
1.691628e+000 -1.272862e+000 -5.872855e+000 66 67 47
-4.655771e-001 -1.037022e+000 -5.800671e+000 194 179 164
-2.104183e-002 -8.945618e-001 -6.074420e+000 131 109 97
1.635553e+000 -1.451078e+000 -5.979066e+000 213 147 62
-1.546192e-003 -9.107867e-001 -9.273618e+000 231 224 218
9.364659e-001 -2.072166e+000 -7.383442e+000 216 163 76
9.761015e-001 1.446025e+000 -6.556421e+000 233 230 223
1.244979e+000 1.094882e+000 -6.112655e+000 239 237 225
1.580356e+000 -3.095960e-001 -6.019586e+000 93 39 34
-4.591508e-001 -4.711118e-001 -5.424657e+000 245 206 159
2.593175e-001 -4.225416e-001 -5.973370e+000 65 52 43
2.987662e-001 -4.504283e-001 -6.199307e+000 82 63 56
1.858575e+000 -1.215753e+000 -5.405975e+000 214 141 74
-3.403311e-001 -7.631217e-001 -5.648891e+000 216 163 116
-7.560509e-001 -7.118765e-001 -5.727805e+000 172 113 75
-1.028247e-002 -8.596805e-001 -6.006322e+000 161 146 133
-1.564842e+000 -7.963009e-001 -5.575163e+000 116 42 29
-6.951841e-001 -8.200057e-001 -5.796053e+000 220 170 124
1.173190e+000 -1.248091e+000 -6.188581e+000 243 204 146
-5.382380e-001 -1.111742e+000 -5.927063e+000 212 122 73
-6.306983e-001 -1.094048e+000 -5.976094e+000 192 97 64
1.510255e+000 -1.770776e+000 -6.167088e+000 236 186 97
1.171516e+000 -2.051772e+000 -6.917152e+000 150 96 58
1.318084e+000 -2.197801e+000 -6.450374e+000 235 182 98
9.937594e-001 -2.059133e+000 -7.324227e+000 171 68 63
1.090898e+000 -2.112054e+000 -7.063224e+000 156 90 74
1.209749e+000 -2.106901e+000 -6.839023e+000 222 178 88
2.147759e+000 -8.056139e-001 -4.972469e+000 173 134 100
-4.244291e-001 -1.708543e-001 -5.449904e+000 189 182 172
1.585039e+000 -2.294190e-001 -6.295960e+000 83 52 35
5.108300e-002 -4.986792e-001 -5.881651e+000 125 112 96
1.852937e+000 -1.399469e+000 -5.238983e+000 200 123 56
1.305213e+000 -1.025988e+000 -5.973735e+000 116 41 36
-9.090180e-001 -7.237788e-001 -5.739548e+000 99 41 30
1.696937e+000 -1.349378e+000 -5.872576e+000 174 161 156
1.609943e+000 -1.444562e+000 -6.121805e+000 127 45 37
-1.049291e+000 -1.057605e+000 -6.090068e+000 216 215 213
1.326182e+000 -2.063128e+000 -6.502137e+000 208 160 76
1.624983e+000 -4.328599e-001 -5.391134e+000 185 168 117
1.635884e+000 -4.051733e-001 -5.428576e+000 185 168 117
2.311201e+000 -8.791403e-001 -5.070787e+000 155 135 126
2.209517e+000 -8.666372e-001 -5.510026e+000 206 119 48
-1.563922e+000 -6.120126e-002 -5.572317e+000 188 182 182
-8.706106e-001 -4.754544e-001 -5.605509e+000 156 78 49
-1.597192e+000 -4.936442e-001 -5.437436e+000 123 45 27
1.808109e+000 -1.495004e+000 -5.546998e+000 221 199 195
-1.102498e-001 -9.550164e-001 -6.272549e+000 98 56 44
-9.629848e-001 -1.180664e+000 -6.200039e+000 221 216 213
2.729008e-001 -9.815249e-001 -7.628680e+000 204 190 179
1.388271e+000 -1.868293e+000 -6.346255e+000 105 46 37
1.363933e+000 -1.883530e+000 -6.288286e+000 105 46 37
1.376147e+000 -2.102355e+000 -6.426973e+000 242 194 85
1.497423e+000 -2.207697e+000 -6.192637e+000 208 127 57
1.211599e+000 7.951116e-001 -5.786322e+000 140 133 104
-6.290315e-001 -5.112531e-001 -5.540299e+000 244 202 153
1.295046e+000 -1.714326e+000 -6.267014e+000 87 40 34
5.895680e-001 -1.284573e+000 -7.529852e+000 217 205 189
8.381223e-002 -8.919924e-001 -9.224333e+000 245 237 230
6.962372e-001 -1.893039e+000 -7.330153e+000 218 83 87
1.176073e+000 -2.189807e+000 -6.845067e+000 241 207 115
1.730668e+000 -5.762049e-001 -5.353802e+000 100 52 47
1.744841e+000 -5.632572e-001 -5.378149e+000 100 52 47
6.311911e-001 -5.396028e-001 -5.925505e+000 222 218 206
6.224736e-001 -5.564189e-001 -5.895140e+000 222 218 206
-1.289419e+000 -4.841657e-001 -5.521490e+000 239 203 153
1.230339e+000 -2.025149e+000 -6.595559e+000 106 53 41
1.351534e+000 -2.147476e+000 -6.341441e+000 230 186 81
8.689768e-001 -1.976580e+000 -7.317729e+000 122 61 49
-8.792701e-001 -2.628990e-001 -5.585009e+000 245 205 154
6.859925e-001 -8.399011e-001 -6.074543e+000 224 218 206
6.204341e-001 -1.028331e+000 -6.330166e+000 164 145 130
1.707473e+000 -1.592070e+000 -5.859005e+000 230 184 91
-7.404847e-001 -1.214581e+000 -6.263387e+000 155 77 55
1.564510e+000 -1.779561e-001 -5.775070e+000 105 41 39
-3.013452e-001 -1.130215e+000 -6.178210e+000 99 49 39
1.682210e+000 -1.895143e+000 -6.197076e+000 225 200 192
-1.112990e+000 -6.516930e-001 -5.866150e+000 142 58 32
9.917403e-001 -1.773348e+000 -6.487154e+000 239 231 220
2.149429e+000 2.409148e-001 -4.834132e+000 246 191 144
2.147059e+000 6.435049e-002 -4.830230e+000 246 193 150
2.078990e+000 -2.960626e-002 -5.064179e+000 220 173 91
3.544402e+000 3.822632e-001 -5.743582e+000 161 138 127
2.111699e+000 -5.818252e-001 -4.713970e+000 120 101 92
2.116030e+000 -6.993506e-001 -4.769812e+000 142 122 112
2.050751e+000 -8.567300e-001 -4.777897e+000 118 95 88
2.891403e+000 -6.988137e-001 -5.452649e+000 81 65 64
2.698741e+000 -8.230284e-001 -5.359286e+000 122 97 82
2.696470e+000 -8.337289e-001 -5.366768e+000 93 65 53
-8.185609e-001 -7.573846e-002 -5.505042e+000 141 78 75
-5.763872e-001 -4.010187e-001 -5.368689e+000 199 109 83
-2.676161e-001 -4.645889e-001 -5.267622e+000 170 162 151
-1.112253e+000 -3.165547e-001 -5.626979e+000 182 115 81
1.340020e+000 -6.980238e-001 -6.022301e+000 93 63 36
-8.965273e-001 -7.082917e-001 -5.657879e+000 166 83 57
1.758191e+000 -1.368959e+000 -5.681873e+000 165 158 153
-1.809285e+000 -6.520954e-001 -5.587011e+000 136 86 81
1.663023e+000 -1.244648e+000 -5.954509e+000 108 68 65
1.795080e+000 -1.491179e+000 -5.519197e+000 133 104 103
1.711044e+000 -1.661413e+000 -5.808188e+000 180 98 67
1.645301e+000 -1.797355e+000 -5.954780e+000 205 128 94
1.364340e+000 -2.109462e+000 -6.535504e+000 229 180 79
1.565424e+000 -2.213980e+000 -5.916488e+000 207 143 91
1.263049e+000 -2.177709e+000 -6.878150e+000 214 149 92
1.358892e+000 -2.223206e+000 -6.556697e+000 129 115 115
2.127662e+000 2.939161e-001 -4.799957e+000 206 130 81
2.881156e+000 4.886264e-001 -5.334550e+000 148 132 116
1.279516e+000 9.927014e-001 -5.583637e+000 190 180 137
1.416955e+000 -3.323029e-001 -4.562350e+000 119 106 89
2.102844e+000 -5.622044e-001 -4.749104e+000 215 145 89
2.129246e+000 -5.538238e-001 -4.763394e+000 112 89 82
2.140345e+000 -6.080629e-001 -4.752391e+000 97 78 64
1.917998e+000 -3.191340e-001 -5.414218e+000 112 71 67
1.882235e+000 -7.024437e-001 -5.344467e+000 137 105 92
9.736092e-002 -1.657488e-001 -5.612135e+000 185 176 169
5.854783e-002 -3.744264e-001 -5.790775e+000 56 42 31
-8.146842e-001 -7.105695e-001 -5.685808e+000 176 95 61
8.815382e-001 -9.470088e-001 -6.168100e+000 182 155 131
1.724461e-001 -7.988359e-001 -7.415322e+000 205 199 187
1.667772e+000 -1.775422e+000 -5.832165e+000 217 194 188
1.498730e+000 -1.596366e+000 -6.309383e+000 186 107 54
1.648269e+000 -1.906937e+000 -5.925944e+000 212 133 71
1.550536e+000 -1.867456e+000 -6.060458e+000 216 125 61
1.574865e+000 -1.855957e+000 -6.123753e+000 216 125 61
-1.318519e-001 -8.051380e-001 -9.139444e+000 212 208 198
1.303948e+000 1.000774e+000 -5.586596e+000 202 189 143
1.895400e+000 -6.192305e-001 -5.436374e+000 137 104 89
2.659128e+000 -8.692929e-001 -5.376596e+000 143 116 98
2.659128e+000 -8.692929e-001 -5.376596e+000 143 116 98
2.616975e+000 -9.201397e-001 -5.308102e+000 154 126 111
-7.572984e-001 -9.441333e-002 -5.422275e+000 224 95 92
1.886710e+000 -1.131409e+000 -5.387981e+000 213 156 88
1.872330e+000 -1.189291e+000 -5.404725e+000 194 118 48
-1.913162e-001 -7.159549e-001 -5.573619e+000 171 68 61
-8.494584e-001 -6.971393e-001 -5.667341e+000 211 126 88
1.679282e+000 -1.189950e+000 -5.997774e+000 83 40 39
1.729946e+000 -1.453866e+000 -5.813783e+000 196 104 61
-7.188037e-001 -1.114183e+000 -5.855092e+000 135 63 48
-7.963544e-001 -1.148728e+000 -5.900657e+000 165 73 36
1.690110e+000 -2.046971e+000 -5.615435e+000 126 94 69
1.505019e+000 -2.149392e+000 -6.217696e+000 216 136 69
1.939212e+000 -6.947433e-001 -5.360912e+000 143 117 106
1.763244e+000 -6.950523e-001 -5.691649e+000 75 31 28
2.194230e+000 -9.239390e-001 -5.553782e+000 222 148 92
-2.080677e+000 -4.470934e-001 -5.795041e+000 101 82 52
-1.932028e+000 -5.766716e-001 -5.634322e+000 193 169 110
-9.490177e-001 -1.108486e+000 -6.070300e+000 197 115 74
2.869589e+000 -6.837602e-001 -5.412507e+000 64 49 46
2.756170e+000 -7.729908e-001 -5.372931e+000 170 149 132
-2.119186e-001 -1.230712e-001 -5.543810e+000 168 160 149
-1.494125e+000 -1.602625e-001 -5.580003e+000 193 188 185
-1.494125e+000 -1.602625e-001 -5.580003e+000 193 188 185
-8.113961e-002 -8.416697e-001 -6.034985e+000 119 98 80
-4.731833e-002 -8.475471e-001 -6.060127e+000 155 139 126
1.311549e+000 -1.338630e+000 -6.136002e+000 137 43 34
1.817456e+000 -6.598878e-001 -5.651668e+000 80 35 30
7.697819e-001 -1.009163e+000 -6.019222e+000 208 204 188
-1.878759e+000 -5.891166e-001 -5.634738e+000 79 43 37
-1.819430e+000 -6.610142e-001 -5.547298e+000 143 120 124
-1.819430e+000 -6.610142e-001 -5.547298e+000 143 120 124
1.482533e+000 -1.810857e+000 -6.246324e+000 186 77 44
1.954531e+000 1.801575e-001 -5.210711e+000 94 57 44
-2.562025e-002 -3.338434e-001 -5.652293e+000 107 89 75
-6.895923e-002 -6.281784e-001 -5.847086e+000 124 101 86
-1.277565e-001 -1.168589e+000 -6.379312e+000 137 83 62
1.449618e+000 -1.877932e+000 -6.263234e+000 233 189 91
2.142649e+000 -4.239875e-001 -5.321326e+000 145 100 33
-1.074868e+000 -2.297085e-001 -5.723834e+000 194 193 190
1.510102e+000 -9.469723e-001 -6.139358e+000 153 42 39
1.291778e+000 -2.095958e+000 -6.624799e+000 217 170 82
2.201689e+000 3.056472e-001 -4.890656e+000 227 154 108
2.065850e+000 -3.546908e-003 -4.964527e+000 251 204 75
2.209078e+000 -1.140814e+000 -6.173094e+000 223 172 82
1.856004e+000 -6.833770e-001 -5.507161e+000 127 78 39
-1.358491e+000 -2.878810e-001 -5.590131e+000 137 101 79
1.310883e+000 -1.046583e+000 -5.950716e+000 122 38 38
-6.317527e-001 -5.000865e-001 -5.563028e+000 243 202 150
2.151663e-001 2.088392e-002 -5.886113e+000 212 207 199
4.399826e-001 -5.872427e-001 -6.050487e+000 65 39 40
2.424755e+000 -2.061675e+000 -7.296042e+000 91 56 37
2.019740e+000 1.172354e+000 -6.285497e+000 247 243 233
1.249967e+000 -5.846408e-001 -4.174748e+000 124 106 84
2.188312e+000 -4.504783e-002 -4.906175e+000 247 224 188
2.062011e+000 1.154008e-002 -5.112152e+000 189 155 112
2.063227e+000 1.449061e-002 -5.113005e+000 189 155 112
1.081756e+000 5.596532e-001 -5.680680e+000 146 140 116
2.165469e+000 -5.794094e-001 -4.801234e+000 103 87 75
1.878479e+000 -5.767330e-001 -5.550742e+000 114 55 56
1.851615e+000 -5.630547e-001 -5.722854e+000 83 35 34
2.042261e+000 -8.837065e-001 -5.249445e+000 195 116 52
2.751418e+000 -1.017189e+000 -5.332257e+000 133 117 113
2.748482e+000 -1.086549e+000 -5.340112e+000 131 116 109
-7.296719e-001 -9.683220e-002 -5.483902e+000 194 86 81
-6.707471e-001 -1.730142e-001 -5.431015e+000 226 105 97
-1.503539e+000 -7.000343e-002 -5.679348e+000 84 50 49
-4.426026e-001 -4.515052e-001 -5.398168e+000 224 159 128
-1.489475e+000 -1.410869e-001 -5.646495e+000 121 71 61
-1.278410e+000 -1.607981e-001 -5.750456e+000 186 178 170
-9.599824e-001 -3.840270e-001 -5.626267e+000 182 103 68
-5.605483e-001 -5.085299e-001 -5.469837e+000 241 200 144
7.753428e-001 -6.046109e-001 -5.959425e+000 101 72 52
1.687992e+000 -1.045854e+000 -5.723493e+000 71 41 36
1.821700e+000 -1.022672e+000 -5.649113e+000 185 191 174
1.801338e+000 -1.149450e+000 -5.636139e+000 205 210 186
1.814270e+000 -1.150251e+000 -5.602335e+000 176 182 160
-2.043905e+000 -2.329892e-001 -5.797918e+000 166 148 101
-1.868835e+000 -4.114545e-001 -5.592411e+000 134 73 64
9.270608e-001 -7.575121e-001 -6.262603e+000 146 70 55
1.806794e+000 -1.415365e+000 -5.489365e+000 106 88 77
1.817818e+000 -1.439375e+000 -5.460979e+000 118 103 98
-2.077479e+000 -4.088677e-001 -5.799610e+000 162 141 92
-2.026683e+000 -3.992586e-001 -5.773367e+000 114 94 44
-2.026683e+000 -3.992586e-001 -5.773367e+000 114 94 44
-1.877413e+000 -6.028050e-001 -5.553791e+000 81 28 28
-1.449155e+000 -7.139814e-001 -5.495229e+000 140 64 50
1.720593e+000 -1.295075e+000 -5.800154e+000 77 89 74
1.764351e+000 -1.567968e+000 -5.544042e+000 136 116 114
-1.941165e+000 -5.897149e-001 -5.628128e+000 99 75 46
-1.734856e+000 -7.970298e-001 -5.420073e+000 139 84 80
-1.691407e+000 -8.325555e-001 -5.545607e+000 121 64 56
1.727275e+000 -1.700417e+000 -5.597966e+000 225 147 69
-9.427340e-001 -1.044798e+000 -5.788137e+000 202 105 66
1.660598e+000 -1.666388e+000 -5.787625e+000 217 152 72
1.694602e+000 -1.698223e+000 -5.697618e+000 202 183 171
1.677157e+000 -1.722753e+000 -5.716457e+000 114 88 84
1.497223e+000 -1.739569e+000 -6.133753e+000 229 166 62
1.507759e+000 -1.754599e+000 -6.038061e+000 216 129 58
1.591232e+000 -1.795872e+000 -5.912773e+000 224 136 66
1.608613e+000 -1.846713e+000 -5.855644e+000 101 80 71
1.597627e+000 -1.865191e+000 -5.873776e+000 118 94 90
1.594422e+000 -1.867340e+000 -5.867003e+000 118 94 90
1.106321e+000 -1.696043e+000 -6.113846e+000 207 186 170
1.411105e+000 -1.705409e+000 -6.389782e+000 149 76 34
1.571619e+000 -1.916954e+000 -5.913847e+000 121 96 91
1.578698e+000 -1.915726e+000 -5.874165e+000 120 94 94
1.574884e+000 -1.927540e+000 -5.885177e+000 194 179 170
1.569784e+000 -1.954145e+000 -5.892518e+000 218 192 180
1.431686e+000 -1.926075e+000 -6.266408e+000 230 157 63
1.525251e+000 -1.979939e+000 -6.005871e+000 130 110 104
1.367584e+000 -1.943235e+000 -6.446110e+000 128 69 39
1.322947e+000 -1.996966e+000 -6.535412e+000 133 76 43
1.333039e+000 -2.077835e+000 -6.365532e+000 214 164 75
1.472245e+000 -2.162199e+000 -6.131386e+000 217 136 64
1.424147e+000 -2.189786e+000 -6.157400e+000 233 170 89
1.507616e+000 -2.228825e+000 -5.764715e+000 253 194 132
1.213464e+000 -2.141183e+000 -6.691777e+000 208 138 101
1.360879e+000 -2.205972e+000 -6.248206e+000 154 139 131
1.330979e+000 -2.232599e+000 -6.358833e+000 126 110 105
1.344426e+000 -2.231259e+000 -6.413554e+000 220 210 200
1.307103e+000 -2.247440e+000 -6.402295e+000 115 97 94
