ply
format ascii 1.0
element face 0
property list uchar int vertex_indices
element vertex 873
property float x
property float y
property float z
property uchar diffuse_red
property uchar diffuse_green
property uchar diffuse_blue
end_header
-1.583726e+000 -5.707483e-001 -5.388158e+000 218 134 95
2.090901e+000 9.906825e-001 -5.194833e+000 175 90 49
-1.686538e-001 -1.712274e-001 -5.492109e+000 203 201 188
2.004916e+000 -6.237278e-002 -5.185137e+000 223 213 212
1.231725e+000 -9.776249e-001 -6.000804e+000 108 41 44
1.993829e+000 9.764347e-001 -5.175621e+000 191 76 76
2.040131e+000 7.745726e-001 -5.137254e+000 200 142 42
1.901661e+000 7.610227e-001 -5.121487e+000 81 46 44
1.947404e+000 -4.908694e-001 -5.128594e+000 115 75 24
1.570148e+000 -7.870775e-001 -5.910403e+000 95 65 42
-1.393423e+000 -3.102026e-001 -5.510965e+000 128 90 75
-1.357348e+000 -2.814339e-001 -5.568983e+000 77 47 37
1.943291e+000 -8.078004e-002 -5.372438e+000 133 98 94
1.901873e+000 -6.209344e-001 -5.355434e+000 109 45 42
-1.423674e+000 -5.302096e-001 -5.435756e+000 139 92 72
1.719860e+000 -1.174268e+000 -5.752723e+000 72 85 61
1.765370e+000 -1.222814e+000 -5.523370e+000 103 120 88
3.011033e+000 6.776837e-001 -5.550645e+000 122 103 97
-1.314097e+000 -4.965757e-001 -5.456336e+000 107 84 69
1.112229e+000 -6.375390e-001 -5.962434e+000 193 145 96
1.550563e-001 -5.726766e-002 -5.730471e+000 190 183 172
7.442454e-001 -4.047068e-001 -5.794358e+000 225 218 208
-9.217781e-001 -3.612662e-001 -5.593233e+000 152 75 52
1.816372e+000 -1.005339e+000 -5.537696e+000 210 199 197
-9.380568e-001 -1.146083e+000 -5.949682e+000 211 202 205
-1.200657e-001 -1.723299e-001 -5.511651e+000 128 115 98
-1.909477e-001 -2.120369e-001 -5.493547e+000 132 118 107
-1.287309e+000 -2.970061e-001 -5.565211e+000 66 40 45
-1.205692e+000 -3.056622e-001 -5.552344e+000 209 170 127
2.058231e+000 9.418201e-001 -5.209973e+000 81 41 42
5.055789e-002 -5.476177e-001 -5.957817e+000 124 108 95
1.654403e+000 8.031997e-001 -5.160155e+000 236 232 220
1.577706e+000 4.364539e-001 -5.286203e+000 242 238 229
-6.869723e-001 2.248890e-001 -5.917552e+000 188 103 69
-1.527089e+000 -4.795372e-001 -5.428727e+000 124 58 42
8.110782e-001 -7.324656e-001 -6.022331e+000 170 131 108
1.112229e+000 -6.375390e-001 -5.962434e+000 193 145 96
-1.348321e+000 -5.495677e-001 -5.453107e+000 52 31 24
1.100839e+000 -6.964343e-001 -6.005628e+000 194 140 93
1.073410e+000 3.859213e-001 -5.577447e+000 222 218 206
1.810017e+000 -9.604186e-001 -5.576839e+000 193 185 183
1.660855e+000 -1.326706e+000 -5.847581e+000 206 188 188
1.330966e+000 1.603296e+000 -6.047867e+000 180 168 128
6.213076e-001 1.915073e+000 -8.435769e+000 238 230 217
5.279335e-001 3.936195e-001 -6.033578e+000 186 178 165
-5.587742e-001 2.073556e-001 -5.988327e+000 108 57 53
2.930185e+000 -2.863268e-001 -5.431875e+000 48 31 24
-1.300799e+000 -3.237809e-001 -5.542005e+000 53 42 38
-1.610787e+000 -4.188456e-001 -5.423320e+000 163 83 59
-1.874097e+000 -2.446485e-001 -5.678352e+000 102 77 49
-1.279399e+000 -2.591911e-001 -5.595232e+000 200 183 174
2.947290e+000 5.698044e-001 -5.460529e+000 127 107 100
1.100839e+000 -6.964343e-001 -6.005628e+000 194 140 93
-1.350974e+000 -2.391242e-001 -5.602924e+000 134 94 72
-6.548786e-001 -9.214357e-001 -5.831874e+000 165 86 42
-6.334042e-001 -1.147667e+000 -5.914562e+000 129 55 39
1.080371e+000 1.264435e+000 -6.378452e+000 218 210 200
1.080371e+000 1.264435e+000 -6.378452e+000 218 210 200
1.512127e+000 -8.559576e-001 -6.070482e+000 181 55 53
1.890039e+000 -9.420953e-001 -5.583554e+000 180 117 54
1.117911e+000 2.341998e-001 -5.495346e+000 227 223 214
-1.578536e+000 -4.452048e-001 -5.413664e+000 102 34 24
1.749006e+000 9.270973e-001 -5.181877e+000 99 48 50
7.210494e-001 -7.949130e-001 -5.975897e+000 219 210 195
1.272573e+000 9.722439e-001 -5.826498e+000 124 114 87
1.908129e+000 7.920522e-002 -5.241851e+000 84 43 44
-7.839302e-001 -7.986439e-002 -5.468467e+000 190 166 140
2.557874e+000 -8.211941e-001 -5.332734e+000 72 35 26
1.759405e+000 -1.153839e+000 -5.615982e+000 81 99 70
1.892230e+000 -6.769669e-001 -5.390828e+000 111 82 64
1.907450e+000 -7.205303e-001 -5.376691e+000 120 39 38
2.532071e+000 -8.422949e-001 -5.321910e+000 69 30 24
1.591408e+000 -1.509393e+000 -5.998242e+000 197 111 60
1.464192e+000 3.275567e-001 -5.381747e+000 225 221 210
1.464192e+000 3.275567e-001 -5.381747e+000 225 221 210
1.796711e+000 -1.182334e+000 -5.494236e+000 209 206 196
1.931870e+000 -6.299785e-002 -5.411001e+000 73 39 35
-1.141198e+000 -4.239336e-001 -5.459711e+000 164 108 78
5.177929e-001 -7.035355e-001 -6.039103e+000 165 153 141
2.078397e+000 8.860110e-001 -5.244531e+000 178 121 54
1.959172e-001 6.855367e-002 -5.855971e+000 175 172 154
-1.051011e+000 -6.790625e-002 -5.838313e+000 187 107 70
-1.051011e+000 -6.790625e-002 -5.838313e+000 187 107 70
-1.669358e+000 -3.101693e-001 -5.508029e+000 218 129 89
9.880151e-001 -8.628103e-001 -6.071870e+000 240 198 150
1.369699e+000 -8.379075e-001 -6.024256e+000 106 36 36
1.388465e+000 1.344546e+000 -5.646372e+000 214 200 144
-7.853969e-001 1.352041e-001 -5.863427e+000 191 96 62
9.488184e-002 2.265297e-001 -6.191908e+000 219 217 205
1.932431e+000 -8.825345e-002 -5.374039e+000 168 135 130
-1.353514e+000 -3.145532e-001 -5.543489e+000 77 47 36
-1.310670e+000 -3.102266e-001 -5.553464e+000 152 145 143
-1.271469e+000 -3.219467e-001 -5.533987e+000 102 70 54
1.736252e+000 -1.057711e+000 -5.772592e+000 81 65 58
1.749856e+000 -1.098279e+000 -5.687284e+000 84 98 72
-1.301421e-001 -2.407501e-001 -5.539748e+000 126 114 98
2.938410e+000 -2.985255e-001 -5.426397e+000 84 65 63
-1.868547e+000 -2.842079e-001 -5.664627e+000 197 171 130
-1.915652e+000 -3.635695e-001 -5.661786e+000 225 196 154
-1.927267e+000 -3.749954e-001 -5.640598e+000 134 112 68
2.614070e+000 -8.861025e-001 -5.328759e+000 155 130 104
1.783808e+000 -1.064668e+000 -5.611666e+000 106 110 91
1.710810e+000 -1.184008e+000 -5.776028e+000 122 124 108
1.699228e+000 -1.250361e+000 -5.773223e+000 86 93 77
1.716576e+000 -1.303968e+000 -5.678721e+000 178 196 177
-6.004078e-001 -2.147584e-002 -5.500289e+000 157 150 133
-8.619895e-001 -1.097687e-001 -5.496681e+000 203 189 168
-8.619895e-001 -1.097687e-001 -5.496681e+000 203 189 168
-7.839302e-001 -7.986439e-002 -5.468467e+000 190 166 140
-1.562538e+000 -2.992593e-001 -5.423306e+000 181 101 66
-1.297004e+000 -2.294100e-001 -5.628515e+000 150 111 85
-1.393423e+000 -3.102026e-001 -5.510965e+000 128 90 75
-1.163328e+000 -2.845882e-001 -5.650920e+000 166 109 79
-1.260751e+000 -2.842343e-001 -5.567317e+000 66 40 33
-1.647696e+000 -4.515869e-001 -5.435829e+000 164 80 55
2.998358e+000 -5.457781e-001 -5.524056e+000 78 61 57
-1.624169e+000 -5.873658e-001 -5.412046e+000 204 109 67
-1.298658e+000 -5.454423e-001 -5.419052e+000 216 179 134
-1.434704e+000 -6.644506e-001 -5.432428e+000 116 42 22
-1.580316e+000 -8.354688e-001 -5.501058e+000 84 36 25
1.186527e+000 -9.749320e-001 -5.966756e+000 202 147 103
1.833700e+000 -1.166975e+000 -5.372289e+000 178 113 45
1.848352e+000 -1.107488e+000 -5.359061e+000 200 145 82
1.568746e+000 -1.539162e+000 -6.095476e+000 176 83 58
2.072257e+000 9.137458e-001 -5.178826e+000 111 41 45
2.072257e+000 9.137458e-001 -5.178826e+000 111 41 45
-1.516699e-001 1.085915e-001 -6.240898e+000 226 223 211
1.954700e+000 -4.648448e-002 -5.305703e+000 144 51 51
1.256643e+000 -4.758597e-001 -4.468513e+000 76 57 33
-1.589602e+000 -5.498931e-001 -5.407042e+000 169 83 50
8.736752e-001 -9.524236e-001 -6.123439e+000 202 188 179
2.532071e+000 -8.422949e-001 -5.321910e+000 69 30 24
1.915583e+000 1.468083e+000 -5.131385e+000 172 97 90
1.387068e+000 1.474043e+000 -5.657960e+000 193 178 130
2.907144e+000 6.662668e-001 -5.448330e+000 170 152 141
3.096387e+000 7.143756e-001 -5.640518e+000 179 163 154
2.948733e+000 5.398388e-001 -5.479039e+000 153 139 126
1.907946e-001 -2.938402e-002 -5.746439e+000 225 219 211
2.928311e+000 -5.176568e-001 -5.466994e+000 64 50 45
2.928311e+000 -5.176568e-001 -5.466994e+000 64 50 45
1.054507e+000 -7.868551e-001 -6.100706e+000 94 42 30
1.660855e+000 -1.326706e+000 -5.847581e+000 206 188 188
1.600144e+000 1.640525e+000 -5.713434e+000 223 214 199
1.235593e+000 1.113095e+000 -6.232165e+000 241 235 226
-4.907224e-001 -4.561590e-002 -5.496751e+000 176 173 153
1.960893e+000 -8.125985e-002 -5.292819e+000 142 50 60
-8.692386e-001 -1.387137e-001 -5.492252e+000 73 71 83
2.718548e+000 -2.396969e-001 -5.273766e+000 70 30 30
-1.857330e+000 -4.052535e-001 -5.560228e+000 70 31 30
8.063096e-001 -1.001636e+000 -6.030038e+000 177 73 76
1.273008e+000 1.920878e+000 -6.515452e+000 211 203 193
1.448375e+000 1.631367e+000 -5.737522e+000 241 229 181
2.134591e+000 1.248503e+000 -4.958224e+000 181 158 145
1.647651e+000 1.000681e+000 -5.259435e+000 171 147 131
2.004916e+000 -6.237278e-002 -5.185137e+000 223 213 212
-9.964533e-003 -3.347402e-001 -5.732460e+000 102 86 73
-1.090017e+000 -3.686544e-001 -5.745551e+000 104 37 27
2.595836e+000 -5.250565e-001 -5.244877e+000 76 54 32
2.298634e-001 9.773095e-001 -9.616538e+000 240 235 231
1.764433e-001 3.178418e-001 -6.409046e+000 198 193 184
1.986371e+000 -2.237353e-003 -5.188756e+000 153 61 59
1.881436e-001 1.905171e-003 -5.790235e+000 221 217 208
-7.296664e-001 -2.251489e-001 -5.477721e+000 193 137 102
-1.088059e+000 -4.261234e-001 -5.438096e+000 176 134 94
-1.470497e+000 -5.128845e-001 -5.393857e+000 111 46 28
6.378859e-001 1.639710e+000 -8.832182e+000 245 243 233
6.601818e-001 -5.750606e-001 -5.885062e+000 218 217 207
-1.366963e+000 -5.051796e-001 -5.461509e+000 58 48 46
1.525007e+000 -1.393690e+000 -5.880028e+000 114 42 33
1.601570e+000 -1.323926e+000 -5.876672e+000 95 36 28
1.943279e+000 1.550749e-001 -5.289523e+000 90 54 52
4.200955e-003 -1.109949e-001 -5.705985e+000 186 179 171
1.570624e+000 1.450909e+000 -5.606483e+000 242 235 225
2.183713e+000 7.151519e-001 -5.139832e+000 195 113 57
-1.654759e+000 -5.550705e-001 -5.423304e+000 232 136 92
-1.083036e+000 -2.957055e-001 -5.823829e+000 136 64 44
2.218353e+000 9.605824e-001 -5.113511e+000 209 138 89
2.196792e-001 -5.708411e-001 -5.963300e+000 53 42 40
2.196792e-001 -5.708411e-001 -5.963300e+000 53 42 40
1.436187e+000 1.658886e+000 -5.623526e+000 161 149 109
1.028339e+000 7.290910e-001 -6.461748e+000 224 220 207
3.172209e+000 5.906143e-001 -5.611118e+000 178 158 149
9.325657e-002 1.978105e-001 -6.188329e+000 211 207 198
-8.631119e-001 -9.511733e-002 -5.515316e+000 89 73 70
3.005526e+000 -2.350761e-001 -5.463584e+000 86 72 67
3.045740e+000 -1.802186e-001 -5.468759e+000 61 46 40
-1.913718e+000 -3.901563e-001 -5.666892e+000 185 158 122
2.996047e+000 -3.439866e-001 -5.468390e+000 75 61 57
2.913615e+000 -4.194010e-001 -5.437885e+000 84 66 57
3.265955e+000 -4.627670e-001 -5.661472e+000 76 58 60
-1.928926e+000 -4.765144e-001 -5.634981e+000 88 55 35
-1.878098e-001 -4.460583e-001 -5.354329e+000 147 135 120
1.328305e+000 -5.446050e-001 -6.009409e+000 94 67 39
1.899720e+000 -5.882336e-001 -5.372915e+000 112 51 50
1.889347e+000 -6.338371e-001 -5.408340e+000 115 54 53
2.478070e+000 -7.065669e-001 -5.237767e+000 84 45 45
2.845914e+000 -6.871821e-001 -5.461743e+000 57 38 32
1.731258e+000 -1.147129e+000 -5.708664e+000 78 91 64
6.285178e-001 -2.500442e+000 -8.122008e+000 197 122 67
6.741137e-001 -2.439683e+000 -8.086692e+000 200 132 82
3.545328e+000 1.160443e+000 -6.175871e+000 174 149 140
3.148734e+000 6.600566e-001 -5.632978e+000 174 155 146
1.103716e-001 2.151970e-001 -6.189329e+000 207 202 193
1.992199e+000 9.573780e-002 -5.243736e+000 195 89 73
2.044910e+000 6.524522e-002 -5.131516e+000 185 140 70
-5.483721e-001 -8.419574e-002 -5.500806e+000 169 161 150
1.515609e-001 -7.841995e-002 -5.705251e+000 189 182 173
2.037865e+000 -3.637981e-002 -5.056360e+000 212 166 87
-8.586558e-002 -1.657863e-001 -5.533872e+000 170 158 145
3.179922e+000 -2.841316e-001 -5.581655e+000 97 70 66
-2.738221e-001 -3.389774e-001 -5.302728e+000 194 185 176
1.131510e-001 -4.676671e-001 -5.912003e+000 88 77 59
2.983778e+000 -4.387475e-001 -5.483688e+000 69 40 33
1.891632e+000 -5.101498e-001 -5.444446e+000 118 90 79
1.898896e+000 -5.703089e-001 -5.369292e+000 130 104 91
-1.579341e+000 -5.942212e-001 -5.403802e+000 172 83 49
-1.098981e+000 -7.540806e-001 -5.659764e+000 162 77 49
1.879488e+000 -6.048244e-001 -5.456114e+000 121 91 83
1.879488e+000 -6.048244e-001 -5.456114e+000 121 91 83
1.866931e+000 -6.349673e-001 -5.442753e+000 133 99 96
1.866931e+000 -6.349673e-001 -5.442753e+000 133 99 96
1.913026e+000 -5.977520e-001 -5.346561e+000 101 44 42
1.909590e+000 -6.510327e-001 -5.327207e+000 108 46 43
1.763464e+000 -9.924132e-001 -5.678757e+000 86 90 69
1.723036e+000 -1.177852e+000 -5.761214e+000 72 85 61
3.426802e+000 1.192912e+000 -6.131882e+000 180 157 149
2.137795e+000 8.451833e-001 -4.910058e+000 210 139 89
1.109437e+000 7.762067e-001 -6.198358e+000 217 212 201
2.088726e+000 6.854790e-001 -5.105199e+000 214 151 54
3.121536e+000 8.446920e-001 -5.710573e+000 156 140 132
-6.720415e-001 -7.811544e-002 -5.406888e+000 191 183 168
2.028664e+000 -1.183359e-001 -5.089875e+000 181 136 74
3.009851e+000 -2.918297e-001 -5.480777e+000 79 63 59
3.009851e+000 -2.918297e-001 -5.480777e+000 79 63 59
-1.566990e+000 -3.662543e-001 -5.422846e+000 154 80 62
8.157323e-002 -3.677704e-001 -5.775360e+000 57 45 33
1.288928e-001 -3.084118e-001 -5.761998e+000 120 107 97
1.080056e+000 -3.619095e-001 -5.746681e+000 189 176 162
-1.664242e+000 -4.846255e-001 -5.434562e+000 172 78 50
3.316119e+000 -9.576380e-001 -5.876577e+000 56 34 20
1.698919e+000 -1.267985e+000 -5.757931e+000 198 196 184
1.698919e+000 -1.267985e+000 -5.757931e+000 198 196 184
1.823274e+000 -1.227108e+000 -5.406929e+000 220 172 81
2.085086e+000 6.339491e-001 -5.042180e+000 186 106 48
6.570360e-001 5.429177e-001 -6.508580e+000 201 197 186
7.005777e-001 4.862048e-001 -6.470312e+000 205 203 192
5.960926e-001 2.970736e-001 -5.723702e+000 240 237 228
1.990506e+000 1.243602e-001 -5.310442e+000 101 71 54
-3.748460e-001 -2.570177e-002 -5.575613e+000 154 147 131
-1.350974e+000 -2.391242e-001 -5.602924e+000 134 94 72
3.083355e+000 -1.821067e-001 -5.496495e+000 94 70 61
-1.598309e+000 -2.896464e-001 -5.456344e+000 166 79 50
3.082427e+000 -5.769973e-001 -5.570530e+000 57 34 27
-1.625596e+000 -7.543943e-001 -5.480004e+000 75 24 26
-1.431189e+000 -7.515061e-001 -5.495894e+000 129 56 38
1.835676e+000 -1.121821e+000 -5.392366e+000 219 168 86
6.075968e-001 -2.389682e+000 -8.248640e+000 209 150 121
6.075968e-001 -2.389682e+000 -8.248640e+000 209 150 121
1.034375e+000 2.285634e+000 -7.584802e+000 222 215 205
2.980395e+000 9.530313e-001 -5.647827e+000 133 117 117
1.038991e+000 3.433749e-001 -5.576648e+000 214 210 198
3.013329e+000 3.359224e-001 -5.459248e+000 152 132 125
2.963590e+000 -2.281314e-001 -5.433134e+000 84 60 58
8.993172e-001 -6.526312e-001 -6.049725e+000 162 118 90
3.739635e-001 -2.367110e+000 -8.420750e+000 205 74 79
3.739635e-001 -2.367110e+000 -8.420750e+000 205 74 79
4.706310e-001 -2.521588e+000 -8.434920e+000 185 102 50
5.794314e-001 -2.417223e+000 -8.153445e+000 194 104 54
2.989058e+000 4.000347e-001 -5.467856e+000 120 105 100
1.152773e-001 9.112267e-002 -6.047108e+000 176 170 157
1.152773e-001 9.112267e-002 -6.047108e+000 176 170 157
2.692590e+000 -3.746425e-001 -5.275882e+000 71 35 28
-1.450012e+000 -5.040953e-001 -5.443173e+000 110 47 32
-1.392853e+000 -6.656100e-001 -5.446297e+000 113 46 32
8.763899e-001 -6.897495e-001 -6.138031e+000 160 142 129
1.727704e+000 -1.226597e+000 -5.682685e+000 79 97 71
4.217076e-001 -2.611207e+000 -8.512915e+000 186 104 57
1.703754e+000 1.693740e+000 -5.642760e+000 211 202 186
-6.945848e-001 7.416868e-004 -5.553161e+000 181 167 156
-6.945848e-001 7.416868e-004 -5.553161e+000 181 167 156
2.969359e+000 -3.744757e-001 -5.454336e+000 49 33 33
2.968733e+000 -3.748013e-001 -5.452635e+000 49 33 33
1.355378e+000 -9.557541e-001 -5.964514e+000 220 164 123
1.355378e+000 -9.557541e-001 -5.964514e+000 220 164 123
4.501554e-001 4.935086e-001 -6.657419e+000 233 232 222
-7.446823e-001 -4.020364e-001 -5.559089e+000 191 102 62
1.808595e-001 -2.227524e+000 -8.249763e+000 233 223 213
1.866416e+000 1.338382e+000 -5.101773e+000 153 71 66
3.319133e-001 2.055486e+000 -9.047646e+000 205 214 205
1.939322e+000 9.638850e-001 -5.225456e+000 184 70 70
2.050556e-001 1.180531e+000 -9.533671e+000 219 97 96
1.303927e+000 -1.051877e+000 -5.929189e+000 113 37 38
1.389635e+000 1.460769e+000 -5.588173e+000 216 207 147
1.398594e+000 1.283715e+000 -5.657236e+000 183 170 119
1.404094e+000 1.307420e+000 -5.615557e+000 118 103 72
1.352230e+000 1.166127e+000 -5.593617e+000 195 184 136
1.268500e+000 7.588516e-001 -5.637357e+000 240 234 220
4.580733e-001 6.471376e-001 -6.680141e+000 213 213 205
2.150224e+000 5.060260e-001 -4.773479e+000 203 130 84
3.055201e+000 5.564292e-001 -5.529230e+000 173 158 153
2.981327e+000 4.627454e-001 -5.487714e+000 138 116 104
9.425423e-002 2.241480e-001 -6.164184e+000 219 217 205
1.266083e+000 1.852626e-001 -5.471766e+000 230 225 219
2.004119e+000 2.230423e-001 -5.317493e+000 110 77 62
2.004119e+000 2.230423e-001 -5.317493e+000 110 77 62
-5.466285e-001 1.086825e-001 -6.026657e+000 199 161 147
-1.063823e-001 9.611296e-002 -6.160654e+000 213 212 200
-1.394810e+000 -5.215224e-002 -5.526961e+000 194 195 189
-1.723479e+000 -1.928169e-001 -5.563714e+000 107 58 55
-1.535563e+000 -2.644381e-001 -5.480981e+000 162 85 58
-6.303434e-001 -2.443516e-001 -5.508981e+000 181 99 70
-4.706648e-001 -1.315845e-001 -5.359629e+000 206 198 187
2.777509e+000 -1.701145e-001 -5.297719e+000 112 87 65
2.977002e+000 -1.463408e-001 -5.418735e+000 93 71 73
2.926368e+000 -2.231670e-001 -5.403717e+000 71 51 43
3.063688e+000 -1.697414e-001 -5.501302e+000 94 71 68
3.064336e+000 -2.531760e-001 -5.500043e+000 89 64 60
-1.948433e+000 -2.981601e-001 -5.688573e+000 161 144 114
-1.919611e+000 -3.001516e-001 -5.653099e+000 204 177 125
-1.700304e+000 -3.813879e-001 -5.451274e+000 216 125 76
-1.395164e+000 -3.291878e-001 -5.490701e+000 120 66 45
-1.324361e+000 -2.978703e-001 -5.461010e+000 89 70 66
-1.304964e+000 -3.096240e-001 -5.528723e+000 152 145 143
-1.021168e+000 -3.393797e-001 -5.578853e+000 179 105 78
-5.258861e-001 -3.241819e-001 -5.408059e+000 214 88 86
-5.258861e-001 -3.241819e-001 -5.408059e+000 214 88 86
-4.810807e-001 -3.981953e-001 -5.381857e+000 184 84 66
9.442956e-001 -4.560639e-001 -5.854655e+000 179 77 62
-1.644649e+000 -4.696226e-001 -5.420701e+000 191 106 78
-1.644649e+000 -4.696226e-001 -5.420701e+000 191 106 78
-1.390524e+000 -4.713342e-001 -5.461234e+000 85 48 29
-1.290641e+000 -5.612941e-001 -5.391932e+000 154 100 62
-1.152654e+000 -5.928201e-001 -5.482915e+000 132 63 33
-2.844402e-002 -4.743055e-001 -5.858171e+000 104 83 68
9.822536e-002 -4.918433e-001 -5.906165e+000 71 57 44
1.812183e+000 -5.197552e-001 -5.587082e+000 80 36 32
1.850784e+000 -5.333925e-001 -5.597315e+000 82 39 32
1.903271e+000 -5.048635e-001 -5.504859e+000 101 49 47
2.754998e+000 -5.921061e-001 -5.372787e+000 84 59 39
2.967310e+000 -5.290373e-001 -5.490857e+000 43 29 27
2.947138e+000 -5.327087e-001 -5.488310e+000 72 58 55
-1.547229e+000 -6.566546e-001 -5.403264e+000 171 86 51
-3.097416e-001 -6.988860e-001 -5.592145e+000 165 111 77
-1.851439e-002 -6.533765e-001 -5.926785e+000 98 64 54
7.217865e-001 -6.959573e-001 -6.078678e+000 122 96 81
1.834218e+000 -6.297145e-001 -5.546021e+000 123 78 75
1.850216e+000 -6.192718e-001 -5.568643e+000 108 51 51
1.873348e+000 -6.341335e-001 -5.486627e+000 126 91 81
1.873348e+000 -6.341335e-001 -5.486627e+000 126 91 81
1.903053e+000 -6.615053e-001 -5.368399e+000 134 99 87
1.922834e+000 -6.413373e-001 -5.376287e+000 140 97 88
2.546709e+000 -6.371535e-001 -5.293659e+000 61 32 28
2.467867e+000 -7.032546e-001 -5.218983e+000 84 45 45
2.576711e+000 -7.064965e-001 -5.326567e+000 68 38 35
2.696260e+000 -5.956465e-001 -5.362568e+000 69 40 24
2.988662e+000 -6.763741e-001 -5.592543e+000 70 51 50
-1.014897e+000 -9.373803e-001 -5.744293e+000 205 115 73
-7.907012e-001 -9.564280e-001 -5.804351e+000 134 58 35
-5.466846e-001 -8.184786e-001 -5.653943e+000 232 190 141
1.825649e+000 -8.990138e-001 -5.577997e+000 153 88 40
2.948324e+000 -8.127014e-001 -5.607435e+000 61 35 31
2.948324e+000 -8.127014e-001 -5.607435e+000 61 35 31
-5.417406e-001 -1.064078e+000 -5.904625e+000 189 102 58
1.704628e+000 -1.119072e+000 -5.871799e+000 72 45 38
1.697336e+000 -1.143147e+000 -5.880153e+000 73 44 35
1.736062e+000 -1.057493e+000 -5.771252e+000 81 65 58
1.750396e+000 -1.054240e+000 -5.764644e+000 62 59 48
2.560469e+000 -1.003022e+000 -5.430832e+000 154 128 105
1.118017e+000 -1.252479e+000 -6.311183e+000 165 109 96
1.067117e+000 -1.320727e+000 -6.054039e+000 201 171 158
1.207033e+000 -1.320174e+000 -6.194238e+000 127 63 39
1.689147e+000 -1.229794e+000 -5.848895e+000 118 88 79
1.797384e+000 -1.102618e+000 -5.606466e+000 167 181 162
1.772469e+000 -1.136578e+000 -5.613252e+000 162 177 152
1.772469e+000 -1.136578e+000 -5.613252e+000 162 177 152
1.752879e+000 -1.201394e+000 -5.526628e+000 83 105 82
1.734998e+000 -1.248963e+000 -5.648141e+000 110 124 91
1.738807e+000 -1.251227e+000 -5.659681e+000 110 124 91
1.786334e+000 -1.288963e+000 -5.474721e+000 155 80 64
1.811614e+000 -1.275520e+000 -5.400967e+000 186 123 48
1.128434e+000 -1.658367e+000 -6.347409e+000 214 194 179
1.468615e+000 -1.612738e+000 -6.288138e+000 170 70 42
1.428969e+000 -1.688711e+000 -6.368714e+000 156 86 38
1.595101e+000 -1.650856e+000 -6.011134e+000 201 119 59
1.655075e+000 -1.600062e+000 -5.929999e+000 210 139 71
1.759481e+000 -1.463469e+000 -5.529466e+000 101 86 81
1.749723e+000 -1.527276e+000 -5.538350e+000 198 179 174
1.774983e+000 -1.398828e+000 -5.488506e+000 200 181 170
1.774983e+000 -1.398828e+000 -5.488506e+000 200 181 170
1.781636e+000 -1.413038e+000 -5.469769e+000 184 166 156
1.793632e+000 -1.405604e+000 -5.481992e+000 116 101 95
1.776547e+000 -1.441085e+000 -5.468812e+000 198 179 175
1.797467e+000 -1.435609e+000 -5.463781e+000 208 188 181
1.556210e+000 -1.726855e+000 -6.031383e+000 198 114 49
1.621132e+000 -1.762887e+000 -5.748622e+000 187 165 159
1.701067e+000 -1.655677e+000 -5.614937e+000 217 195 190
1.753307e+000 -1.581154e+000 -5.530100e+000 197 122 55
1.720379e+000 -1.618475e+000 -5.583410e+000 208 189 181
1.665591e+000 -1.708228e+000 -5.676380e+000 192 175 170
1.661194e+000 -1.734596e+000 -5.673230e+000 214 191 178
1.347988e+000 1.176874e+000 -5.646334e+000 184 171 125
1.844902e+000 1.140130e+000 -4.936922e+000 185 73 68
3.579694e+000 1.197910e+000 -6.251934e+000 146 122 110
3.607954e+000 1.145608e+000 -6.222531e+000 172 146 132
2.170442e+000 7.743260e-001 -4.882085e+000 205 121 73
2.141645e+000 7.158660e-001 -4.832867e+000 235 166 114
3.091255e+000 7.641122e-001 -5.637806e+000 163 138 131
2.162469e+000 4.475887e-001 -4.793817e+000 212 131 79
2.920041e+000 5.536023e-001 -5.445654e+000 151 135 128
3.146451e+000 4.727688e-001 -5.577688e+000 130 106 101
-7.720628e-001 1.267418e-001 -5.869312e+000 191 104 74
-7.646817e-001 1.534230e-001 -5.875419e+000 175 87 62
-7.260144e-001 1.620406e-001 -5.923951e+000 169 93 68
2.146724e+000 3.404598e-002 -4.786164e+000 245 204 159
-1.412398e+000 -3.909595e-002 -5.544100e+000 90 63 62
-1.412398e+000 -3.909595e-002 -5.544100e+000 90 63 62
-7.611709e-001 -5.572756e-002 -5.463505e+000 187 132 112
-2.889204e-001 -2.046504e-002 -5.580477e+000 154 143 135
7.359042e-002 1.294052e-002 -5.951811e+000 185 183 170
1.946326e+000 -2.806525e-002 -5.434223e+000 116 71 72
2.030066e+000 -7.244295e-002 -5.057522e+000 196 154 84
-1.955571e+000 -2.612985e-001 -5.697072e+000 217 193 124
-1.610077e+000 -1.684369e-001 -5.615299e+000 150 71 54
-9.951782e-001 -2.623943e-001 -5.711191e+000 171 86 51
1.875594e+000 -2.628799e-001 -5.457894e+000 92 62 56
1.951306e+000 -2.595879e-001 -5.227931e+000 141 54 59
2.037508e+000 -1.507123e-001 -5.115617e+000 172 135 84
2.141366e+000 -2.557917e-001 -5.451333e+000 141 110 77
3.072806e+000 -1.568063e-001 -5.492366e+000 77 46 41
-1.922406e+000 -3.743278e-001 -5.624122e+000 134 112 68
-5.622636e-001 -3.373245e-001 -5.384409e+000 186 105 77
-5.103596e-001 -3.779897e-001 -5.377541e+000 182 105 72
2.557534e-001 -4.260859e-001 -5.907468e+000 71 58 49
2.348418e-001 -4.580657e-001 -6.004653e+000 68 54 42
3.575094e-001 -4.725118e-001 -5.848972e+000 69 43 41
1.877403e+000 -4.467220e-001 -5.547922e+000 114 71 65
7.365282e-001 -6.228382e-001 -5.893857e+000 193 79 78
1.875537e+000 -4.854946e-001 -5.490800e+000 118 74 71
2.112127e+000 -3.996956e-001 -4.802925e+000 228 184 130
2.089228e+000 -4.531418e-001 -4.781564e+000 223 168 115
2.105403e+000 -4.102567e-001 -4.704868e+000 124 101 87
2.976469e+000 -4.594547e-001 -5.481953e+000 79 62 60
-1.606106e+000 -7.292747e-001 -5.452383e+000 191 108 78
-1.511191e+000 -7.287830e-001 -5.450091e+000 162 89 61
-1.433312e+000 -6.841128e-001 -5.442015e+000 142 70 48
-1.414225e+000 -6.755661e-001 -5.427357e+000 131 64 45
-1.295961e+000 -7.427218e-001 -5.538436e+000 135 79 47
-1.217180e+000 -6.007895e-001 -5.451883e+000 154 90 52
-1.106010e+000 -5.944476e-001 -5.445120e+000 154 83 49
7.000107e-001 -6.936236e-001 -6.057887e+000 191 174 158
1.014726e+000 -7.913001e-001 -6.119284e+000 120 74 51
1.872827e+000 -7.021669e-001 -5.541313e+000 113 59 29
2.571007e+000 -6.876541e-001 -5.300668e+000 83 51 51
2.661914e+000 -7.136708e-001 -5.362832e+000 66 32 21
2.716249e+000 -7.231173e-001 -5.414171e+000 72 43 29
2.958824e+000 -6.332357e-001 -5.545239e+000 63 38 36
-1.565528e+000 -8.507419e-001 -5.509471e+000 156 92 54
-1.103775e+000 -8.146167e-001 -5.647768e+000 157 73 43
-9.878076e-001 -8.418780e-001 -5.710023e+000 159 68 37
-7.483751e-001 -9.074062e-001 -5.750560e+000 166 82 53
8.606437e-001 -8.856513e-001 -6.213246e+000 190 81 76
1.237419e+000 -9.452198e-001 -6.022907e+000 208 151 104
1.577930e+000 -8.391167e-001 -5.723030e+000 112 73 55
1.800376e+000 -8.052819e-001 -5.655863e+000 119 76 70
1.800376e+000 -8.052819e-001 -5.655863e+000 119 76 70
2.557755e+000 -8.104700e-001 -5.354005e+000 87 59 54
2.543078e+000 -8.178849e-001 -5.305689e+000 72 35 26
2.612005e+000 -8.858429e-001 -5.327915e+000 155 130 104
2.759673e+000 -8.313243e-001 -5.498251e+000 125 103 86
2.661693e+000 -8.958030e-001 -5.357266e+000 145 121 95
1.784258e+000 -1.092552e+000 -5.636631e+000 185 193 169
2.689563e+000 -9.459493e-001 -5.392683e+000 85 62 43
1.189007e+000 -1.213442e+000 -6.097623e+000 242 201 150
1.269045e+000 -1.351711e+000 -6.156238e+000 227 162 133
1.724793e+000 -1.158564e+000 -5.751587e+000 128 141 115
1.766496e+000 -1.182774e+000 -5.602965e+000 108 123 95
1.712935e+000 -1.258057e+000 -5.812770e+000 86 93 77
1.767119e+000 -1.235145e+000 -5.644963e+000 189 198 189
1.783045e+000 -1.116172e+000 -5.562506e+000 181 197 172
1.783045e+000 -1.116172e+000 -5.562506e+000 181 197 172
1.823366e+000 -1.095974e+000 -5.339484e+000 215 161 85
1.497066e+000 -1.551748e+000 -6.143827e+000 163 70 39
1.735683e+000 -1.410747e+000 -5.625054e+000 177 86 72
1.106353e+000 -1.672950e+000 -6.162122e+000 203 183 166
1.409231e+000 -1.722828e+000 -6.240468e+000 208 133 74
1.409231e+000 -1.722828e+000 -6.240468e+000 208 133 74
1.473619e+000 -1.586994e+000 -6.204633e+000 170 72 36
1.723976e+000 -1.535135e+000 -5.730159e+000 167 83 60
1.772110e+000 -1.457714e+000 -5.507099e+000 212 192 194
1.551171e+000 -1.817510e+000 -5.990000e+000 206 135 61
1.657763e+000 -1.670344e+000 -5.867081e+000 227 174 87
1.593198e+000 -1.774013e+000 -5.947145e+000 205 124 60
1.741186e+000 -1.577352e+000 -5.567255e+000 121 73 65
-7.508087e-001 1.669405e-001 -5.925985e+000 170 82 58
-7.390301e-001 1.404228e-001 -5.820953e+000 183 102 74
1.987930e+000 1.736357e-001 -5.323685e+000 123 100 89
2.146194e+000 1.510352e-001 -4.786810e+000 243 201 152
2.146194e+000 1.510352e-001 -4.786810e+000 243 201 152
-8.486586e-001 -7.203097e-002 -5.533904e+000 74 56 55
-8.445268e-001 -7.166833e-002 -5.500746e+000 74 56 55
3.300978e-001 -1.310017e-001 -5.698606e+000 198 193 182
-1.706461e+000 -1.781193e-001 -5.559463e+000 107 63 60
-1.706461e+000 -1.781193e-001 -5.559463e+000 107 63 60
-1.542765e+000 -2.756060e-001 -5.451801e+000 172 93 62
-1.349590e+000 -2.169507e-001 -5.611927e+000 98 46 34
-1.305950e-001 -2.407133e-001 -5.531243e+000 126 114 98
-1.968516e+000 -3.186929e-001 -5.682480e+000 104 84 76
-1.954029e+000 -4.257204e-001 -5.653967e+000 225 202 141
-1.811103e+000 -3.455818e-001 -5.530995e+000 83 38 32
-5.710812e-001 -3.039414e-001 -5.435090e+000 222 157 124
-1.649500e+000 -4.518517e-001 -5.440240e+000 164 80 55
7.713543e-001 -5.811705e-001 -5.809236e+000 188 73 73
1.237731e+000 -4.778944e-001 -4.467302e+000 143 129 100
1.828907e+000 -5.896256e-001 -5.696850e+000 74 33 31
1.874643e+000 -4.892158e-001 -5.486572e+000 114 74 67
1.849502e+000 -6.083347e-001 -5.610103e+000 117 71 66
1.871407e+000 -5.333462e-001 -5.539706e+000 117 79 79
2.905935e+000 -4.806948e-001 -5.452390e+000 45 29 30
2.886288e+000 -5.733060e-001 -5.516032e+000 42 31 28
-1.638308e+000 -6.587646e-001 -5.494328e+000 188 90 53
-1.609975e+000 -7.004141e-001 -5.394241e+000 194 104 69
-1.558633e+000 -6.963896e-001 -5.418623e+000 188 100 65
-1.142937e+000 -6.053915e-001 -5.476684e+000 158 82 48
-1.142937e+000 -6.053915e-001 -5.476684e+000 158 82 48
-1.105575e+000 -7.519382e-001 -5.630837e+000 156 76 48
-1.091480e+000 -7.749737e-001 -5.670937e+000 144 58 31
-2.439417e-001 -6.019656e-001 -5.359084e+000 175 175 154
1.111546e+000 -7.544816e-001 -6.020727e+000 193 138 92
1.458051e+000 -7.652923e-001 -6.180029e+000 127 103 75
1.866602e+000 -6.190989e-001 -5.506386e+000 125 91 79
2.636815e+000 -7.042619e-001 -5.346739e+000 85 55 36
2.873569e+000 -7.096233e-001 -5.510920e+000 45 27 20
2.974561e+000 -6.627639e-001 -5.540613e+000 50 32 28
2.970762e+000 -6.614511e-001 -5.534271e+000 50 32 28
2.938062e+000 -7.141819e-001 -5.500933e+000 47 27 27
2.938062e+000 -7.141819e-001 -5.500933e+000 47 27 27
-9.028990e-001 -8.609454e-001 -5.713401e+000 135 52 31
-9.232583e-001 -1.117710e+000 -5.839287e+000 213 197 193
2.692310e+000 -9.274426e-001 -5.395414e+000 117 94 77
1.693140e+000 -1.174501e+000 -5.896289e+000 69 41 37
1.784089e+000 -1.117025e+000 -5.617157e+000 89 105 82
1.803523e+000 -1.112519e+000 -5.547137e+000 84 100 72
1.822240e+000 -1.193497e+000 -5.424880e+000 189 115 56
3.592190e+000 -1.391944e+000 -6.323725e+000 88 61 52
1.558659e+000 -1.529282e+000 -6.062940e+000 176 83 58
1.707923e+000 -1.371773e+000 -5.651059e+000 213 208 199
1.730739e+000 -1.351170e+000 -5.593455e+000 214 205 208
1.760014e+000 -1.363646e+000 -5.536636e+000 160 75 56
1.808046e+000 -1.296093e+000 -5.441908e+000 208 149 74
1.786259e+000 -1.332509e+000 -5.460700e+000 182 108 47
1.402353e+000 -1.815053e+000 -6.475849e+000 120 54 37
1.456558e+000 -1.726399e+000 -6.200542e+000 168 72 41
1.579411e+000 -1.542923e+000 -6.034238e+000 165 72 39
1.483126e+000 -1.758654e+000 -6.216540e+000 196 96 51
1.483126e+000 -1.758654e+000 -6.216540e+000 196 96 51
1.565892e+000 -1.667678e+000 -6.033980e+000 178 86 45
1.600288e+000 -1.553662e+000 -5.979265e+000 194 112 56
1.600288e+000 -1.553662e+000 -5.979265e+000 194 112 56
1.596575e+000 -1.600629e+000 -5.987869e+000 220 145 78
1.671107e+000 -1.530413e+000 -5.777211e+000 174 93 49
1.700297e+000 -1.468506e+000 -5.736522e+000 186 101 69
1.750932e+000 -1.459299e+000 -5.727856e+000 191 111 62
1.696053e+000 -1.562373e+000 -5.659392e+000 225 185 95
7.850242e-001 -2.241206e+000 -7.811834e+000 194 119 62
1.521060e+000 -1.826224e+000 -6.069472e+000 229 159 80
1.599040e+000 -1.790119e+000 -5.847834e+000 170 82 56
1.655775e+000 -1.750655e+000 -5.659989e+000 171 79 61
5.085277e-001 2.023177e+000 -9.149119e+000 215 147 114
1.088759e+000 7.998434e-001 -6.240727e+000 220 216 204
3.135787e+000 7.396834e-001 -5.655635e+000 141 116 110
5.427756e-001 6.909991e-001 -6.827477e+000 237 234 223
3.013122e+000 5.939301e-001 -5.478244e+000 163 144 139
3.013122e+000 5.939301e-001 -5.478244e+000 163 144 139
2.037183e+000 3.033362e-001 -5.190809e+000 136 103 86
2.951658e+000 2.585338e-001 -5.418287e+000 158 141 134
1.351822e+000 6.915771e-002 -5.406796e+000 205 201 188
-1.429450e+000 -1.101384e-001 -5.600820e+000 196 190 190
-5.702030e-001 -5.366773e-002 -5.458403e+000 162 153 138
2.043672e+000 -2.914664e-003 -5.126943e+000 233 220 220
-1.289951e+000 -2.090525e-001 -5.625041e+000 106 40 30
-9.249384e-001 -1.600016e-001 -5.642062e+000 227 200 157
-6.506154e-001 -2.172223e-001 -5.513233e+000 215 150 116
-2.033436e-001 -1.533295e-001 -5.521093e+000 155 145 135
-3.485799e-002 -2.167281e-001 -5.563373e+000 171 160 156
1.657454e+000 -2.578985e-001 -5.444149e+000 182 61 63
2.699285e+000 -2.707531e-001 -5.284811e+000 84 58 37
-1.130801e+000 -2.988049e-001 -5.694802e+000 133 51 37
-1.064525e+000 -4.288564e-001 -5.632009e+000 122 62 39
-6.007994e-001 -3.600270e-001 -5.406231e+000 216 130 83
-5.727237e-001 -3.023395e-001 -5.430136e+000 219 156 123
2.974020e+000 -4.222956e-001 -5.500039e+000 76 58 52
5.207721e-002 -6.441685e-001 -6.046639e+000 53 38 30
1.870438e+000 -5.870995e-001 -5.494347e+000 113 42 42
1.870438e+000 -5.870995e-001 -5.494347e+000 113 42 42
1.896012e+000 -5.678354e-001 -5.411144e+000 127 98 87
1.056938e+000 -7.890685e-001 -6.108992e+000 94 42 30
1.264877e+000 -7.676573e-001 -6.045552e+000 100 44 28
1.264877e+000 -7.676573e-001 -6.045552e+000 100 44 28
1.847762e+000 -6.850847e-001 -5.616065e+000 97 48 31
2.487030e+000 -6.832455e-001 -5.238784e+000 82 61 57
2.479795e+000 -6.812375e-001 -5.226105e+000 82 61 57
3.210179e+000 -6.934786e-001 -5.697042e+000 85 58 47
-6.457952e-001 -8.372751e-001 -5.799316e+000 219 168 123
1.802098e+000 -8.444217e-001 -5.618467e+000 113 53 31
2.824133e+000 -8.345918e-001 -5.570102e+000 51 31 29
-7.024983e-001 -1.114813e+000 -6.039980e+000 121 51 37
8.657732e-001 -1.490034e+000 -7.047966e+000 217 209 201
1.652179e+000 -1.276189e+000 -5.894152e+000 120 88 79
1.715074e+000 -1.139703e+000 -5.779324e+000 71 57 46
1.727172e+000 -1.193883e+000 -5.733612e+000 73 89 60
1.766168e+000 -1.123701e+000 -5.712533e+000 70 84 60
1.771598e+000 -1.161373e+000 -5.649541e+000 82 100 71
1.709394e+000 -1.349294e+000 -5.657195e+000 215 209 203
1.751423e+000 -1.397452e+000 -5.535416e+000 207 143 64
5.534285e-001 -2.354255e+000 -8.279751e+000 207 127 101
1.133372e+000 -1.677397e+000 -6.189120e+000 201 170 155
1.403806e+000 -1.649335e+000 -6.318597e+000 118 42 34
1.560683e+000 -1.574823e+000 -6.066045e+000 204 124 65
1.560683e+000 -1.574823e+000 -6.066045e+000 204 124 65
1.662561e+000 -1.527826e+000 -5.922975e+000 169 85 53
1.645184e+000 -1.615069e+000 -5.851324e+000 196 83 50
1.721806e+000 -1.476497e+000 -5.685702e+000 181 98 63
1.704667e+000 -1.514109e+000 -5.607274e+000 212 155 74
1.704667e+000 -1.514109e+000 -5.607274e+000 212 155 74
1.789002e+000 -1.494341e+000 -5.463038e+000 189 112 53
1.555055e+000 -1.785090e+000 -6.095624e+000 226 151 79
1.472910e+000 -1.811508e+000 -5.980579e+000 186 98 53
1.743998e+000 -1.590608e+000 -5.568260e+000 114 65 56
1.743998e+000 -1.590608e+000 -5.568260e+000 114 65 56
1.732053e+000 -1.608989e+000 -5.544751e+000 138 74 57
1.329672e+000 1.328430e+000 -5.631054e+000 201 189 145
4.351994e+000 1.821654e+000 -7.627557e+000 139 119 107
1.248010e+000 1.204324e+000 -6.235314e+000 242 235 223
2.978143e+000 8.485738e-001 -5.594383e+000 128 113 110
2.972650e+000 7.712470e-001 -5.560557e+000 123 105 103
2.907047e+000 6.666730e-001 -5.450810e+000 170 152 141
2.913064e+000 6.542251e-001 -5.511395e+000 145 122 90
3.079399e+000 6.200756e-001 -5.547043e+000 147 128 121
3.139473e+000 5.022805e-001 -5.593127e+000 167 150 143
2.265016e-002 3.107747e-001 -6.331581e+000 223 215 212
1.035701e-001 3.323321e-001 -6.394635e+000 204 195 189
1.987652e+000 2.347471e-001 -5.297253e+000 102 65 48
1.969008e+000 1.869051e-001 -5.235781e+000 129 99 90
2.035620e+000 1.898686e-001 -5.202762e+000 213 193 185
-1.351925e+000 -9.390893e-002 -5.527944e+000 75 46 40
1.920186e+000 -1.187398e-001 -5.436076e+000 84 35 38
2.020479e+000 -2.104954e-002 -5.159950e+000 226 214 214
-1.510453e+000 -2.311163e-001 -5.476398e+000 164 89 63
-9.857741e-001 -2.946156e-001 -5.713972e+000 135 56 31
-1.690173e-001 -1.711571e-001 -5.488457e+000 203 201 188
-1.124735e-001 -2.767166e-001 -5.492671e+000 158 144 133
2.092919e+000 -1.649201e-001 -5.057608e+000 196 128 81
-1.839439e+000 -2.904345e-001 -5.566359e+000 216 188 145
-1.087580e+000 -3.197655e-001 -5.612807e+000 122 49 34
1.124415e-001 -3.453448e-001 -5.801778e+000 121 107 94
1.919403e-001 -4.424886e-001 -5.935066e+000 94 78 55
3.402629e-001 -4.445095e-001 -5.875744e+000 187 184 173
1.645319e+000 -3.424420e-001 -5.477724e+000 129 64 55
1.839709e+000 -4.013339e-001 -5.499744e+000 84 44 36
2.118811e+000 -3.283799e-001 -5.054528e+000 210 130 62
2.909202e+000 -4.417657e-001 -5.422987e+000 47 32 35
-4.568552e-001 -4.495567e-001 -5.397630e+000 241 196 155
1.613471e-001 -5.075911e-001 -5.985100e+000 93 75 58
5.615764e-001 -5.675763e-001 -6.052412e+000 201 197 188
-1.565767e+000 -6.044678e-001 -5.409199e+000 170 79 48
-8.024922e-001 -6.674512e-001 -5.738439e+000 160 105 76
2.578605e+000 -6.493575e-001 -5.283398e+000 72 30 31
2.906640e+000 -6.106781e-001 -5.492079e+000 74 51 48
2.884932e+000 -6.537006e-001 -5.486954e+000 44 28 24
-1.655302e+000 -7.847779e-001 -5.477800e+000 106 55 51
1.575319e+000 -8.254361e-001 -5.784642e+000 106 67 49
2.522412e+000 -7.873277e-001 -5.362321e+000 85 61 58
8.864920e-001 -1.347262e+000 -6.842097e+000 202 192 178
1.729071e+000 -1.094470e+000 -5.898342e+000 57 37 30
1.593587e+000 -1.172586e+000 -5.737063e+000 210 74 63
1.784165e+000 -1.204012e+000 -5.565050e+000 114 140 110
2.744612e+000 -1.120145e+000 -5.619332e+000 54 35 31
1.535930e+000 -1.528730e+000 -6.105039e+000 132 48 34
1.752935e+000 -1.309373e+000 -5.571986e+000 212 208 198
1.708885e+000 -1.437721e+000 -5.699005e+000 150 60 52
1.827058e+000 -1.241790e+000 -5.414747e+000 217 170 72
1.540585e+000 -1.606784e+000 -6.092859e+000 159 69 51
1.546722e+000 -1.701690e+000 -6.060793e+000 225 157 76
1.565938e+000 -1.667162e+000 -5.938465e+000 221 146 63
1.620086e+000 -1.530040e+000 -5.901077e+000 226 159 83
1.666502e+000 -1.499861e+000 -5.803042e+000 219 160 71
1.666502e+000 -1.499861e+000 -5.803042e+000 219 160 71
1.685211e+000 -1.546376e+000 -5.746104e+000 226 174 87
8.856649e-001 -2.101871e+000 -7.330267e+000 211 157 87
1.517743e+000 -1.777925e+000 -6.080825e+000 182 87 48
1.560543e+000 -1.763582e+000 -5.927625e+000 233 175 87
1.456659e+000 1.717360e+000 -5.655986e+000 161 149 118
1.677127e+000 1.612319e+000 -5.567366e+000 238 230 219
1.001980e+000 1.568374e+000 -6.764837e+000 226 221 215
7.726578e-001 1.245161e+000 -6.703458e+000 221 216 210
1.220700e+000 6.485275e-001 -5.723958e+000 235 236 224
2.982805e+000 4.998942e-001 -5.484275e+000 108 90 84
2.682761e+000 3.305498e-001 -5.250424e+000 147 117 112
3.098987e+000 4.267486e-001 -5.568405e+000 158 139 134
7.913513e-002 2.668539e-001 -6.171762e+000 230 227 218
2.005279e+000 2.007828e-001 -5.224736e+000 139 65 55
1.946427e+000 8.391835e-002 -5.329551e+000 92 43 41
-4.904939e-001 -4.564152e-002 -5.490105e+000 176 173 153
-1.488181e-001 -7.821326e-002 -5.540686e+000 159 150 139
1.943634e+000 -7.966443e-003 -5.396519e+000 88 41 38
-1.728903e+000 -1.669791e-001 -5.531081e+000 67 32 30
-6.878119e-001 -2.347387e-001 -5.479210e+000 183 123 87
1.927543e+000 -1.491204e-001 -5.380470e+000 206 180 187
1.669107e-001 -3.735435e-001 -5.873401e+000 70 59 47
2.148384e+000 -3.584379e-001 -5.224026e+000 175 101 37
2.134161e+000 -3.161450e-001 -4.749612e+000 89 64 54
2.654014e+000 -3.350987e-001 -5.259040e+000 86 60 43
-8.445864e-001 -4.542901e-001 -5.600421e+000 159 90 57
2.682187e+000 -4.799509e-001 -5.304163e+000 71 30 31
2.695315e+000 -5.861944e-001 -5.377596e+000 70 31 24
-1.392574e+000 -6.645230e-001 -5.440523e+000 113 46 32
1.866433e+000 -6.740851e-001 -5.468036e+000 113 65 36
2.560769e+000 -6.706825e-001 -5.316421e+000 77 60 53
2.560769e+000 -6.706825e-001 -5.316421e+000 77 60 53
2.716953e+000 -6.655035e-001 -5.401793e+000 71 37 27
-1.531454e+000 -7.499179e-001 -5.445422e+000 107 38 23
-1.569865e+000 -7.848658e-001 -5.368487e+000 69 26 23
8.060873e-001 -1.001209e+000 -6.027259e+000 177 73 76
1.256356e+000 -8.684262e-001 -6.045099e+000 102 41 34
2.511290e+000 -8.101903e-001 -5.316486e+000 82 65 58
2.911896e+000 -8.053842e-001 -5.574275e+000 64 39 34
1.093886e+000 -1.168754e+000 -6.154829e+000 108 52 43
1.093886e+000 -1.168754e+000 -6.154829e+000 108 52 43
1.781681e+000 -1.046738e+000 -5.760811e+000 84 86 78
2.686621e+000 -1.046929e+000 -5.425993e+000 89 69 56
-1.008348e+000 -1.175062e+000 -5.918018e+000 218 212 209
-4.460887e-001 -1.172584e+000 -5.957518e+000 194 115 78
6.549380e-001 -1.591384e+000 -7.667058e+000 182 70 73
1.484384e+000 -1.429516e+000 -5.943815e+000 199 74 66
1.454965e+000 -1.666232e+000 -6.320983e+000 189 109 53
1.515616e+000 -1.589628e+000 -6.168266e+000 212 140 79
1.550874e+000 -1.645673e+000 -6.088370e+000 223 152 73
1.711277e+000 -1.510852e+000 -5.698323e+000 164 77 53
1.364865e+000 -1.879563e+000 -6.481470e+000 143 87 54
1.636484e+000 -1.674085e+000 -5.768165e+000 226 177 93
1.641184e+000 -1.708135e+000 -5.718011e+000 213 184 132
1.273559e+000 1.527712e+000 -6.298907e+000 240 237 232
1.273661e+000 1.419332e+000 -6.262140e+000 239 236 229
8.740117e-001 1.290504e+000 -6.579884e+000 218 214 205
3.979893e-001 1.243146e+000 -9.340423e+000 241 237 230
4.367185e-002 2.214702e-001 -6.171991e+000 202 198 189
1.901907e+000 -4.339426e-001 -5.391242e+000 110 69 60
2.635598e+000 -4.268874e-001 -5.275691e+000 81 58 37
5.695003e-001 -5.492438e-001 -5.995991e+000 206 202 193
2.718802e+000 -5.819926e-001 -5.311007e+000 82 58 38
2.974323e+000 -5.839438e-001 -5.523750e+000 43 29 28
-7.348685e-001 -6.672858e-001 -5.756210e+000 167 113 79
6.503759e-001 -6.566851e-001 -5.999497e+000 92 79 66
9.078800e-001 -7.633501e-001 -6.136117e+000 168 148 133
1.815409e+000 -6.394861e-001 -5.687474e+000 78 34 29
2.912277e+000 -7.508869e-001 -5.545489e+000 48 28 27
-7.132252e-001 -9.568744e-001 -5.786090e+000 83 29 33
1.488960e+000 -9.859232e-001 -6.080384e+000 146 44 42
2.437566e+000 -8.204099e-001 -5.269319e+000 74 40 38
6.293941e-001 -1.345223e+000 -7.097735e+000 116 48 45
2.632507e+000 -8.943103e-001 -5.323633e+000 142 118 92
-8.666802e-001 -1.187308e+000 -6.062908e+000 151 62 43
7.765907e-001 -1.369314e+000 -6.884712e+000 215 205 194
1.641590e+000 -1.221852e+000 -5.783032e+000 64 46 36
1.664324e+000 -1.235709e+000 -5.857424e+000 64 46 36
1.833941e+000 -1.183429e+000 -5.398200e+000 185 113 54
1.507843e+000 -1.646846e+000 -6.165082e+000 137 57 39
1.672183e+000 -1.577515e+000 -5.787821e+000 214 165 75
1.435643e+000 -1.779126e+000 -6.266138e+000 221 159 86
1.499284e+000 -1.787507e+000 -6.171480e+000 224 180 91
1.687851e+000 1.794576e+000 -5.816415e+000 225 218 203
2.164616e+000 8.915022e-001 -5.055493e+000 194 112 56
1.146024e+000 8.288594e-001 -6.217649e+000 238 235 227
1.370098e+000 4.234415e-001 -5.512387e+000 226 221 210
1.370098e+000 4.234415e-001 -5.512387e+000 226 221 210
5.401908e-001 2.400080e-001 -5.757830e+000 239 239 229
-1.241318e+000 -2.083676e-001 -5.692850e+000 115 55 43
1.931469e+000 -2.003254e-001 -5.519168e+000 112 42 45
2.984804e+000 -1.872663e-001 -5.440124e+000 54 35 39
2.432658e-001 -3.621763e-001 -5.807147e+000 184 177 169
2.258715e+000 -3.992087e-001 -4.992175e+000 77 51 39
-6.945175e-001 -5.578086e-001 -5.650314e+000 196 149 108
-1.678826e-001 -5.529566e-001 -5.388373e+000 125 107 93
1.228668e+000 -6.422994e-001 -5.978981e+000 87 59 46
1.839291e+000 -5.560399e-001 -5.629709e+000 83 38 35
2.854564e+000 -5.479771e-001 -5.425056e+000 46 30 30
-8.419847e-001 -6.350594e-001 -5.726539e+000 112 55 38
-7.278452e-001 -7.787378e-001 -5.680387e+000 120 55 40
2.135747e+000 -8.943528e-001 -5.533828e+000 176 109 33
1.386823e+000 -1.047641e+000 -5.793853e+000 201 55 50
5.932403e-001 -1.614253e+000 -7.715301e+000 105 43 48
5.446865e-001 -1.751886e+000 -7.760066e+000 227 218 205
1.604618e+000 -1.327720e+000 -5.894525e+000 95 36 28
2.760921e+000 -1.244402e+000 -5.716116e+000 64 39 34
2.760921e+000 -1.244402e+000 -5.716116e+000 64 39 34
1.346668e+000 -1.585666e+000 -6.307464e+000 207 72 73
1.421562e+000 -1.358366e+000 -6.023845e+000 154 45 40
1.648268e+000 -1.432365e+000 -5.856033e+000 141 55 48
1.597030e+000 -1.706066e+000 -5.910598e+000 181 87 63
1.597030e+000 -1.706066e+000 -5.910598e+000 181 87 63
1.572124e+000 -1.780503e+000 -5.942773e+000 232 172 85
2.118492e+000 1.225505e+000 -5.023051e+000 100 47 40
7.865218e-001 6.067053e-001 -6.381162e+000 241 237 226
1.153698e+000 5.694209e-001 -5.700778e+000 229 227 215
2.484168e-001 4.042909e-001 -6.511527e+000 245 245 238
2.484168e-001 4.042909e-001 -6.511527e+000 245 245 238
4.701307e-001 2.773289e-001 -5.900638e+000 171 161 142
-1.068694e-001 7.214626e-002 -6.098075e+000 224 217 205
-1.068694e-001 7.214626e-002 -6.098075e+000 224 217 205
1.970643e+000 7.201120e-003 -5.154270e+000 162 60 56
-9.123051e-002 -2.117851e-001 -5.552377e+000 124 108 92
1.434706e+000 -4.875934e-001 -6.073010e+000 112 89 62
2.065099e+000 -3.087414e-001 -4.803957e+000 206 115 50
-2.394045e-001 -6.925221e-001 -5.563835e+000 126 61 47
-9.524691e-001 -1.078927e+000 -5.829726e+000 133 54 36
1.968633e+000 1.249349e+000 -4.936171e+000 188 72 72
2.014811e+000 3.154436e-001 -5.107462e+000 127 81 46
-4.090274e-001 -1.940189e-001 -5.364987e+000 181 172 161
-7.365282e-001 -4.016146e-001 -5.540306e+000 189 100 61
-2.689358e-001 -2.856629e-001 -5.359776e+000 181 171 160
1.389468e-001 -3.952487e-001 -5.873806e+000 77 64 50
1.892161e+000 -2.972725e-001 -5.716071e+000 96 64 40
2.764021e+000 -3.137510e-001 -5.308414e+000 101 81 56
-1.368232e+000 -5.041389e-001 -5.460215e+000 58 48 47
-7.887306e-001 -5.311303e-001 -5.640466e+000 213 169 126
-1.671694e-001 -4.874179e-001 -5.344727e+000 124 107 91
6.628446e-001 -5.688438e-001 -5.933888e+000 221 215 205
6.643161e-001 -5.735297e-001 -5.917937e+000 221 215 205
-9.833838e-001 -7.749863e-001 -5.601630e+000 168 73 43
-8.714789e-001 -9.069714e-001 -5.725037e+000 125 53 38
2.553331e+000 -7.593113e-001 -5.297208e+000 69 31 29
8.842685e-001 -1.666937e+000 -6.978993e+000 237 230 222
1.716730e+000 -1.471513e+000 -5.664776e+000 180 97 64
1.716730e+000 -1.471513e+000 -5.664776e+000 180 97 64
1.106533e+000 6.720104e-001 -5.875287e+000 152 143 110
-1.147353e+000 -1.464381e-001 -5.864686e+000 204 206 204
1.681657e+000 -2.438304e-001 -5.407670e+000 210 73 72
1.681657e+000 -2.438304e-001 -5.407670e+000 210 73 72
1.987285e+000 -1.767858e-001 -5.230408e+000 149 58 57
-6.393173e-001 -9.729756e-001 -5.876599e+000 79 30 28
1.641388e+000 -1.564287e+000 -5.716731e+000 223 177 87
1.361093e+000 1.780172e+000 -6.072619e+000 122 114 82
4.637977e-001 1.648485e+000 -8.293053e+000 216 94 93
2.132473e+000 4.631180e-001 -5.131913e+000 149 88 37
-9.277314e-001 5.041113e-002 -5.656572e+000 211 207 206
-6.192322e-002 1.451222e-001 -6.098922e+000 212 209 204
3.243531e-001 6.727874e-002 -5.678388e+000 229 226 219
-7.590824e-001 -5.123529e-002 -5.422928e+000 172 132 113
-8.607977e-001 -2.536918e-001 -5.609159e+000 230 190 141
2.126914e+000 -2.704687e-001 -5.303705e+000 191 150 75
-1.070592e+000 -2.956407e-001 -5.787019e+000 136 64 44
1.093185e+000 -4.423388e-001 -5.773345e+000 85 64 51
4.502340e-001 -6.013578e-001 -6.025101e+000 75 48 47
1.295377e+000 -1.275700e+000 -6.059059e+000 231 175 127
1.285664e+000 -1.266783e+000 -6.011350e+000 231 175 127
6.594534e-001 1.382990e+000 -8.073735e+000 244 241 234
-1.393768e+000 -2.294874e-001 -5.615020e+000 105 53 39
1.474572e+000 -2.924737e-001 -5.566656e+000 90 42 42
-1.262035e+000 -4.485787e-001 -5.483038e+000 238 200 150
-1.254032e+000 -4.466473e-001 -5.441511e+000 238 200 150
1.082317e+000 -9.497105e-001 -5.969853e+000 242 202 151
1.275707e+000 -1.691162e+000 -6.326070e+000 93 40 33
1.285524e+000 6.097083e-001 -5.437675e+000 241 238 229
1.855276e+000 4.735529e-001 -4.998901e+000 242 235 225
7.075952e-001 2.314302e-001 -5.745143e+000 243 240 231
6.711256e-001 -1.532987e+000 -7.034608e+000 167 62 61
1.683483e+000 1.412344e+000 -5.496070e+000 240 232 223
1.830230e+000 -7.453987e-001 -5.700110e+000 98 32 30
-7.480845e-001 -1.057059e+000 -6.010824e+000 124 52 40
8.138457e-001 -1.425894e+000 -5.534964e+000 234 225 216
2.300271e-001 -1.285282e+000 -6.727832e+000 246 242 231
1.952768e+000 -1.021784e+000 -5.404098e+000 212 181 163
1.956806e+000 -1.023588e+000 -5.416474e+000 212 181 163
