ply
format ascii 1.0
element face 0
property list uchar int vertex_indices
element vertex 870
property float x
property float y
property float z
property uchar diffuse_red
property uchar diffuse_green
property uchar diffuse_blue
end_header
2.163817e+000 4.700505e-001 -5.087275e+000 149 88 37
-9.601817e-001 4.500449e-002 -5.691289e+000 211 207 206
-7.119878e-002 1.549130e-001 -6.085762e+000 212 209 204
3.166686e-001 6.869603e-002 -5.680630e+000 229 226 219
-7.931611e-001 -6.416512e-002 -5.455444e+000 172 132 113
-8.865700e-001 -2.697528e-001 -5.624984e+000 230 190 141
2.155048e+000 -2.729264e-001 -5.257057e+000 191 150 75
-1.099048e+000 -3.048377e-001 -5.820862e+000 136 64 44
1.102485e+000 -4.427799e-001 -5.778969e+000 85 64 51
4.587224e-001 -6.000926e-001 -6.070041e+000 75 48 47
1.311913e+000 -1.278887e+000 -6.095917e+000 231 175 127
1.308152e+000 -1.282450e+000 -6.067290e+000 231 175 127
6.460603e-001 1.399226e+000 -7.844541e+000 244 241 234
-1.436273e+000 -2.445730e-001 -5.657768e+000 105 53 39
1.495611e+000 -2.952317e-001 -5.575146e+000 90 42 42
-1.306393e+000 -4.746312e-001 -5.538525e+000 238 200 150
-1.299029e+000 -4.717125e-001 -5.493371e+000 238 200 150
1.136516e+000 -9.601931e-001 -6.065983e+000 242 202 151
1.312279e+000 -1.697114e+000 -6.408671e+000 93 40 33
1.312970e+000 6.315154e-001 -5.468609e+000 241 238 229
1.893020e+000 4.788719e-001 -4.975671e+000 242 235 225
7.175473e-001 2.443900e-001 -5.792729e+000 243 240 231
7.041440e-001 -1.520350e+000 -7.188950e+000 167 62 61
1.700760e+000 1.449376e+000 -5.455161e+000 240 232 223
1.799975e+000 -7.576243e-001 -5.554006e+000 98 32 30
-7.623936e-001 -1.073153e+000 -6.099046e+000 124 52 40
8.267874e-001 -1.459636e+000 -5.581943e+000 234 225 216
2.389510e-001 -1.262020e+000 -6.758854e+000 246 242 231
2.032156e+000 -1.061834e+000 -5.542572e+000 212 181 163
1.995030e+000 -1.046369e+000 -5.432516e+000 212 181 163
1.945922e+000 1.064987e+000 -5.042717e+000 159 58 56
-1.258941e+000 1.536538e-001 -5.815757e+000 208 205 204
7.264946e-001 -7.439527e-002 -5.731471e+000 230 227 220
7.264946e-001 -7.439527e-002 -5.731471e+000 230 227 220
1.590051e+000 -5.328174e-001 -5.626759e+000 103 86 60
1.203004e+000 2.561280e+000 -7.306529e+000 243 192 174
1.038848e+000 1.779162e+000 -6.672921e+000 225 221 212
1.469138e+000 1.780799e+000 -5.584478e+000 160 145 112
1.335867e+000 1.073247e+000 -5.629025e+000 177 165 116
3.102766e+000 8.382011e-001 -5.597853e+000 128 109 105
3.155718e+000 8.474763e-001 -5.665056e+000 148 130 126
3.123180e+000 6.431818e-001 -5.522776e+000 110 95 90
-8.144159e-001 1.558350e-001 -5.898917e+000 224 142 97
-6.935014e-001 1.831276e-001 -5.881869e+000 157 85 66
3.151916e+000 4.187802e-001 -5.502564e+000 153 135 131
3.083424e+000 3.614157e-001 -5.453222e+000 159 143 138
-1.751405e-001 -3.208387e-003 -6.162604e+000 131 116 94
2.004840e+000 2.288188e-001 -5.176791e+000 135 92 83
-1.948578e+000 -2.198099e-001 -5.804709e+000 128 86 63
-1.095256e+000 -1.610743e-001 -6.003321e+000 207 179 162
-1.018145e+000 -2.477083e-001 -5.808136e+000 194 105 63
-9.321679e-001 -1.274105e-001 -5.612735e+000 97 86 86
-7.940131e-001 -1.073240e-001 -5.478629e+000 123 108 98
-1.995101e+000 -3.211865e-001 -5.769836e+000 226 206 144
-1.351608e+000 -3.278372e-001 -5.591393e+000 171 154 158
2.000454e+000 -1.437526e-001 -5.295955e+000 211 172 172
2.000454e+000 -1.437526e-001 -5.295955e+000 211 172 172
2.185401e+000 5.497719e-002 -4.699657e+000 223 156 99
2.175193e+000 8.647339e-003 -4.730103e+000 244 175 109
2.166258e+000 -2.744010e-002 -4.707288e+000 244 184 121
3.067956e+000 -1.247881e-001 -5.436737e+000 86 66 62
-1.455497e+000 -5.002689e-001 -5.512389e+000 159 114 94
-1.409355e+000 -5.580779e-001 -5.496831e+000 158 146 145
-4.954901e-001 -4.293842e-001 -5.366217e+000 230 143 117
2.734929e+000 -2.139981e-001 -5.232575e+000 87 57 39
3.365225e+000 -2.583621e-001 -5.653368e+000 85 72 70
-3.510322e-001 -6.102330e-001 -5.381073e+000 200 136 110
8.265460e-001 -7.645674e-001 -6.018172e+000 157 57 53
1.935501e+000 -4.915053e-001 -5.434390e+000 125 91 82
3.413709e+000 -4.594869e-001 -5.716084e+000 79 61 59
-1.736373e+000 -7.682527e-001 -5.492883e+000 105 58 52
-7.854277e-001 -9.446545e-001 -5.842730e+000 141 58 27
1.954801e+000 -6.012050e-001 -5.328586e+000 124 106 96
-6.089340e-001 -1.047676e+000 -5.965016e+000 131 35 28
-6.089340e-001 -1.047676e+000 -5.965016e+000 131 35 28
-1.107510e-001 -1.226509e+000 -6.243071e+000 221 213 211
1.036522e+000 -1.070056e+000 -6.048713e+000 201 173 155
1.771424e+000 -1.001981e+000 -5.771559e+000 79 58 54
1.785905e+000 -9.941713e-001 -5.759459e+000 61 47 39
2.943484e+000 -7.146516e-001 -5.503118e+000 89 65 59
1.222604e+000 -1.260813e+000 -6.165809e+000 232 180 132
1.716183e+000 -1.224681e+000 -5.901254e+000 113 83 71
1.740471e+000 -1.177040e+000 -5.800216e+000 82 75 57
1.740471e+000 -1.177040e+000 -5.800216e+000 82 75 57
1.824457e+000 -9.540193e-001 -5.624408e+000 167 157 154
1.808074e+000 -1.019271e+000 -5.671638e+000 112 117 95
1.994370e+000 -8.996621e-001 -5.195070e+000 196 166 148
6.259352e-001 -2.251611e+000 -8.248501e+000 210 122 81
6.259352e-001 -2.251611e+000 -8.248501e+000 210 122 81
1.747854e+000 -1.323726e+000 -5.709151e+000 181 193 176
1.780831e+000 -1.203373e+000 -5.676393e+000 91 111 84
1.868629e+000 -1.073667e+000 -5.463381e+000 168 90 52
1.544872e+000 -1.549671e+000 -6.147981e+000 181 95 51
1.590422e+000 -1.560848e+000 -6.105458e+000 166 73 39
1.700917e+000 -1.387068e+000 -5.805416e+000 202 192 185
1.849296e+000 -1.235886e+000 -5.444213e+000 213 152 80
1.683049e+000 1.739801e+000 -5.638716e+000 197 187 172
1.825307e+000 1.700967e+000 -5.372735e+000 221 212 198
3.353128e+000 1.425534e+000 -6.123616e+000 172 145 127
3.558509e+000 1.370277e+000 -6.222155e+000 168 143 136
3.617835e+000 1.384781e+000 -6.295792e+000 136 114 107
3.594573e+000 1.359759e+000 -6.237574e+000 172 150 139
1.346370e+000 1.039269e+000 -5.613417e+000 175 163 116
3.435939e+000 1.211640e+000 -6.009722e+000 148 115 106
1.327045e+000 1.008724e+000 -5.476726e+000 135 124 105
2.208689e+000 1.019648e+000 -4.920050e+000 191 114 61
2.193658e+000 8.836109e-001 -4.868460e+000 254 206 168
2.193658e+000 8.836109e-001 -4.868460e+000 254 206 168
3.151449e+000 9.475518e-001 -5.681427e+000 120 108 106
3.041456e+000 8.317145e-001 -5.548991e+000 156 139 131
3.347350e+000 7.349139e-001 -5.711090e+000 149 122 107
3.259795e+000 6.841318e-001 -5.625129e+000 169 147 134
2.971213e+000 6.092936e-001 -5.418650e+000 152 133 122
3.030350e+000 5.968592e-001 -5.438235e+000 162 145 138
-4.152936e-001 5.729509e-002 -6.135081e+000 113 63 59
5.757491e-001 3.039409e-001 -5.743061e+000 238 236 225
2.149025e+000 3.843019e-001 -5.010866e+000 193 112 52
2.730187e+000 3.540776e-001 -5.202112e+000 142 115 110
3.095404e+000 4.588458e-001 -5.496941e+000 145 126 120
-1.500305e+000 -7.443394e-002 -5.593221e+000 130 82 80
2.011789e+000 1.793530e-001 -5.284412e+000 128 97 92
-1.952471e+000 -2.591862e-001 -5.749302e+000 205 184 129
-1.748367e+000 -1.833520e-001 -5.637983e+000 116 68 66
-8.010265e-001 -8.110443e-002 -5.507096e+000 72 52 53
3.916661e-001 -8.269956e-002 -5.727860e+000 222 218 210
1.952843e+000 -2.664926e-002 -5.351847e+000 123 78 75
-1.985283e+000 -4.187630e-001 -5.716668e+000 244 215 158
-1.325336e+000 -2.747757e-001 -5.636683e+000 204 184 180
-1.026081e+000 -3.408024e-001 -5.791497e+000 105 32 16
2.073340e+000 -3.158358e-002 -5.112053e+000 128 112 115
2.073340e+000 -3.158358e-002 -5.112053e+000 128 112 115
2.051177e+000 -8.982786e-002 -5.136779e+000 208 198 197
2.051177e+000 -8.982786e-002 -5.136779e+000 208 198 197
-1.958850e+000 -5.205239e-001 -5.653310e+000 101 56 50
-1.623434e+000 -4.300557e-001 -5.453422e+000 147 72 50
3.053338e+000 -2.474607e-001 -5.450415e+000 72 43 41
2.969052e+000 -3.255217e-001 -5.407356e+000 54 35 28
2.971190e+000 -3.261724e-001 -5.411187e+000 54 35 28
3.084675e+000 -2.803483e-001 -5.472412e+000 53 32 29
-1.192544e+000 -6.329278e-001 -5.524501e+000 165 87 51
-2.472204e-002 -6.658847e-001 -6.001172e+000 94 59 49
3.312576e+000 -5.488782e-001 -5.689349e+000 77 59 48
-1.717608e+000 -7.841881e-001 -5.522488e+000 73 23 23
1.910473e+000 -5.786000e-001 -5.461278e+000 102 43 39
1.914930e+000 -6.359712e-001 -5.456519e+000 113 38 41
1.960679e+000 -6.463450e-001 -5.341278e+000 109 48 47
2.052332e+000 -6.496964e-001 -5.363588e+000 119 79 29
1.066606e+000 -1.083323e+000 -6.117463e+000 182 136 108
1.948353e+000 -7.267211e-001 -5.362417e+000 117 55 55
1.719817e+000 -1.179415e+000 -5.889674e+000 73 46 41
1.776254e+000 -1.176033e+000 -5.704231e+000 62 82 54
1.776698e+000 -1.176361e+000 -5.705047e+000 62 82 54
1.663623e+000 -1.471279e+000 -5.975478e+000 144 64 53
2.143385e+000 1.977108e+000 -5.024519e+000 217 174 162
7.887884e-001 1.224164e+000 -6.741426e+000 223 220 213
3.583812e+000 1.320690e+000 -6.210817e+000 166 146 132
2.183715e+000 9.901518e-001 -4.890624e+000 236 168 121
2.200167e+000 9.624004e-001 -4.898854e+000 255 198 154
2.200167e+000 9.624004e-001 -4.898854e+000 255 198 154
2.265654e+000 9.807293e-001 -4.937129e+000 163 140 128
3.443336e+000 9.241518e-001 -5.850070e+000 151 119 108
2.965818e+000 5.251206e-001 -5.407191e+000 124 103 82
3.082493e+000 5.506420e-001 -5.469986e+000 167 152 147
3.271518e+000 5.649974e-001 -5.589178e+000 177 162 154
3.234558e-001 1.908414e-001 -6.093898e+000 206 203 191
-2.076652e-001 -4.612439e-002 -5.666243e+000 160 151 141
6.692832e-002 2.465793e-002 -5.992450e+000 187 183 171
2.050704e+000 2.602524e-001 -5.126699e+000 155 125 105
-1.306708e+000 -2.150380e-001 -5.690777e+000 147 85 67
2.189555e+000 1.902212e-001 -4.712886e+000 210 131 65
2.189555e+000 1.902212e-001 -4.712886e+000 210 131 65
-1.000268e+000 -4.053478e-001 -5.612529e+000 203 121 86
-6.847120e-001 -2.266401e-001 -5.490451e+000 212 135 107
-8.256231e-002 -2.781431e-001 -5.609474e+000 117 102 87
7.794023e-002 -3.727127e-001 -5.803795e+000 61 45 32
-2.036645e+000 -5.250408e-001 -5.710922e+000 153 127 76
-1.426025e+000 -5.474858e-001 -5.476610e+000 55 38 38
-1.424416e+000 -5.464896e-001 -5.472752e+000 55 38 38
-1.237000e+000 -4.202472e-001 -5.490030e+000 204 158 109
1.886066e+000 -5.580588e-001 -5.534592e+000 97 39 38
2.624215e+000 -3.418647e-001 -5.150687e+000 87 55 47
3.144811e+000 -3.887218e-001 -5.537690e+000 68 45 34
-1.081178e+000 -7.758867e-001 -5.722729e+000 176 86 52
-9.415170e-001 -8.258827e-001 -5.750438e+000 147 59 29
-9.407950e-001 -8.244639e-001 -5.745763e+000 147 59 29
8.338572e-001 -8.022807e-001 -5.986182e+000 204 93 82
1.886755e+000 -6.130771e-001 -5.576298e+000 104 39 39
1.928464e+000 -5.810841e-001 -5.420553e+000 133 103 90
2.890227e+000 -5.282920e-001 -5.406215e+000 50 29 35
2.890227e+000 -5.282920e-001 -5.406215e+000 50 29 35
3.053220e+000 -5.470383e-001 -5.520109e+000 79 58 54
3.139600e+000 -5.455056e-001 -5.576073e+000 83 56 47
-5.938011e-001 -1.159658e+000 -5.960659e+000 152 74 47
1.761289e+000 -1.032833e+000 -5.724009e+000 56 51 37
1.784219e+000 -1.092097e+000 -5.717169e+000 68 81 57
1.363119e+000 -1.316591e+000 -5.942102e+000 185 71 55
1.803014e+000 -1.219561e+000 -5.579669e+000 81 107 82
3.266229e+000 -1.274917e+000 -6.069265e+000 99 70 56
7.817990e-001 2.668680e+000 -8.248511e+000 220 220 214
1.273488e+000 2.032063e+000 -6.537069e+000 237 233 222
1.694846e+000 1.907517e+000 -5.711063e+000 200 188 172
2.041533e+000 1.792249e+000 -4.969655e+000 178 157 139
3.476990e+000 1.430415e+000 -6.227394e+000 141 106 102
3.547882e+000 1.446413e+000 -6.302123e+000 170 149 138
2.208159e+000 9.204780e-001 -4.910978e+000 237 171 124
2.922175e+000 6.933276e-001 -5.417522e+000 140 114 91
2.922175e+000 6.933276e-001 -5.417522e+000 140 114 91
3.127825e+000 7.923761e-001 -5.587260e+000 166 143 135
-8.598659e-001 8.325375e-002 -5.928331e+000 228 135 83
1.110122e-001 2.122658e-001 -6.154404e+000 199 192 182
2.697878e+000 3.722701e-001 -5.194914e+000 167 144 138
-4.738661e-002 -4.153294e-002 -5.760389e+000 194 185 178
-1.983256e+000 -2.958247e-001 -5.736017e+000 255 235 175
-1.372776e+000 -2.478366e-001 -5.646444e+000 145 104 80
-8.517907e-001 -7.301640e-002 -5.540135e+000 184 163 135
-8.517907e-001 -7.301640e-002 -5.540135e+000 184 163 135
-8.226802e-001 -6.771170e-002 -5.540553e+000 74 58 64
2.005319e+000 -1.203340e-001 -5.272737e+000 215 189 193
2.005319e+000 -1.203340e-001 -5.272737e+000 215 189 193
-1.668655e+000 -5.426131e-001 -5.449860e+000 208 119 87
-5.506979e-001 -3.855861e-001 -5.455616e+000 201 99 77
2.741144e+000 -2.098051e-001 -5.236527e+000 86 60 37
2.772104e+000 -2.187720e-001 -5.293214e+000 86 60 37
-5.396802e-002 -7.086507e-001 -5.914561e+000 108 46 44
-5.396802e-002 -7.086507e-001 -5.914561e+000 108 46 44
8.740068e-001 -5.931666e-001 -6.015935e+000 176 135 105
-6.723351e-001 -9.380221e-001 -5.879337e+000 172 90 55
-6.523170e-001 -7.804267e-001 -5.778186e+000 208 159 115
2.118215e+000 -5.260202e-001 -5.174286e+000 179 127 40
2.118215e+000 -5.260202e-001 -5.174286e+000 179 127 40
-9.235385e-001 -1.139692e+000 -5.979256e+000 146 60 35
-6.215916e-001 -1.061967e+000 -5.933596e+000 182 85 47
1.973450e+000 -6.825277e-001 -5.305164e+000 137 107 97
1.737686e+000 -1.095820e+000 -5.861722e+000 64 40 37
1.777857e+000 -1.126849e+000 -5.685048e+000 74 90 66
4.154557e-001 2.099538e+000 -8.758827e+000 221 218 220
1.416746e+000 1.637126e+000 -5.751871e+000 197 189 143
3.449956e+000 1.158737e+000 -5.989939e+000 141 115 102
7.369114e-001 6.622327e-001 -6.582254e+000 220 217 202
1.203895e+000 8.177786e-001 -5.952188e+000 197 187 152
3.177411e+000 7.718550e-001 -5.619272e+000 146 123 117
3.027778e+000 5.198170e-001 -5.448962e+000 109 96 93
3.196272e+000 6.160888e-001 -5.561111e+000 176 159 151
3.196272e+000 6.160888e-001 -5.561111e+000 176 159 151
-6.334998e-001 8.610898e-002 -6.096004e+000 111 51 46
1.251208e-001 2.549756e-002 -5.869976e+000 158 146 130
-8.911234e-001 -8.975894e-002 -5.567252e+000 66 60 67
2.725699e+000 -6.495937e-002 -5.236932e+000 84 60 43
3.178494e+000 -2.701970e-001 -5.541689e+000 59 34 34
-1.512095e+000 -5.952370e-001 -5.455378e+000 147 71 48
-8.293076e-001 -6.857694e-001 -5.798504e+000 156 98 66
-1.438460e+000 -7.405513e-001 -5.519319e+000 155 80 58
-1.438460e+000 -7.405513e-001 -5.519319e+000 155 80 58
9.232119e-001 -7.948507e-001 -6.111718e+000 148 96 62
1.865733e+000 -6.753796e-001 -5.587977e+000 104 48 32
1.890282e+000 -5.882636e-001 -5.462636e+000 113 41 42
2.694178e+000 -5.833091e-001 -5.271394e+000 72 36 24
2.694178e+000 -5.833091e-001 -5.271394e+000 72 36 24
1.633506e+000 -1.074109e+000 -5.657636e+000 221 77 74
1.814592e+000 -1.101495e+000 -5.618688e+000 140 144 134
1.815830e+000 -1.103188e+000 -5.624373e+000 140 144 134
1.388282e+000 -1.297776e+000 -5.973887e+000 223 164 128
1.582964e+000 -1.247574e+000 -5.796271e+000 211 78 72
1.395590e+000 -1.695797e+000 -6.453163e+000 113 50 34
1.494961e+000 1.834319e+000 -5.614651e+000 149 137 99
1.990204e+000 1.391811e+000 -5.200830e+000 110 51 47
1.881982e+000 1.194933e+000 -4.870956e+000 209 94 88
1.183415e+000 9.366576e-001 -6.210162e+000 216 210 196
3.937640e-001 5.990602e-001 -6.756242e+000 221 218 212
1.283019e+000 7.403054e-001 -5.736540e+000 237 234 228
5.671251e-001 3.274572e-001 -5.762164e+000 194 188 174
-3.743637e-001 -4.910281e-003 -5.622147e+000 220 217 208
-1.764830e-001 -7.659024e-002 -5.664889e+000 158 148 137
1.914078e+000 -1.180619e-004 -5.340036e+000 203 78 81
1.924952e+000 -4.608334e-003 -5.375996e+000 203 78 81
2.023225e+000 9.918052e-002 -5.278776e+000 201 182 177
-2.037950e+000 -3.303358e-001 -5.793199e+000 117 87 80
-6.469464e-001 -3.144192e-001 -5.508751e+000 225 172 127
-6.365528e-001 -3.087693e-001 -5.483783e+000 225 172 127
-3.242015e-001 -2.148498e-001 -5.470632e+000 205 197 186
-5.576898e-002 -2.728132e-001 -5.640970e+000 118 101 86
3.045662e+000 -1.298201e-001 -5.428176e+000 71 47 44
3.045662e+000 -1.298201e-001 -5.428176e+000 71 47 44
-2.744497e-002 -4.648280e-001 -5.831621e+000 107 89 75
1.679694e+000 -3.004068e-001 -5.372697e+000 226 85 82
1.653858e+000 -3.527643e-001 -5.406614e+000 109 56 43
-7.553007e-001 -6.845239e-001 -5.809314e+000 173 116 84
5.925555e-001 -6.195016e-001 -6.026290e+000 90 71 59
1.469803e+000 -6.549518e-001 -6.146359e+000 131 110 83
2.672785e+000 -3.316554e-001 -5.180813e+000 83 59 41
-1.584460e+000 -7.806755e-001 -5.521573e+000 113 36 26
3.272424e-001 -8.543369e-001 -5.983751e+000 207 199 188
1.301148e+000 -8.238620e-001 -6.074417e+000 199 147 99
1.295117e+000 -8.222088e-001 -6.066451e+000 199 147 99
-5.278994e-001 -9.934329e-001 -5.761510e+000 158 58 44
2.756587e+000 -1.016770e+000 -5.499950e+000 84 62 51
1.540270e+000 -1.595257e+000 -6.221371e+000 211 144 67
1.336117e+000 1.944412e+000 -6.269819e+000 229 225 216
-7.639983e-001 3.036991e+000 -1.949915e+001 200 192 193
1.596633e+000 1.191682e+000 -5.417662e+000 231 226 215
1.936508e+000 8.767604e-001 -5.163542e+000 178 65 61
6.011172e-001 4.861793e-001 -6.448088e+000 172 165 155
8.735748e-001 5.848786e-001 -6.195193e+000 205 199 187
9.345022e-001 5.654590e-001 -6.149551e+000 228 229 221
-2.077670e-001 6.764369e-002 -6.262538e+000 107 84 71
-2.299845e-002 -3.363655e-001 -5.736095e+000 110 92 78
1.352044e-002 -7.089874e-001 -5.986454e+000 122 108 95
1.333914e+000 -7.302841e-001 -6.072859e+000 195 139 95
1.336255e+000 -7.251841e-001 -6.054724e+000 195 139 95
2.963000e+000 -4.636133e-001 -5.413702e+000 50 33 33
-5.836452e-001 -1.099348e+000 -5.939102e+000 221 122 76
1.791860e+000 -8.429405e-001 -5.684331e+000 92 50 36
2.503404e+000 -8.527578e-001 -5.298456e+000 77 46 43
1.643350e+000 -1.471455e+000 -6.011827e+000 212 146 83
1.159341e+000 2.469560e+000 -7.177300e+000 239 223 214
1.716508e+000 1.736015e+000 -5.595115e+000 217 205 188
5.330223e-001 1.492947e+000 -8.885654e+000 235 231 220
1.324329e+000 1.203685e+000 -5.751686e+000 157 147 111
1.553512e+000 1.266390e+000 -5.617204e+000 232 226 214
3.501252e-002 2.437113e-001 -6.275055e+000 202 198 187
2.211165e+000 3.118080e-001 -5.237567e+000 226 175 53
2.192279e+000 -3.176176e-001 -5.300840e+000 193 147 57
-2.551793e-001 -6.996917e-001 -5.485218e+000 175 78 74
1.498212e+000 -9.839713e-001 -6.087699e+000 147 42 42
2.890238e+000 -9.581499e-001 -5.575530e+000 67 41 40
1.359103e+000 -1.573727e+000 -6.325950e+000 208 70 73
8.898009e-001 2.332736e+000 -7.695519e+000 239 234 230
8.948417e-001 2.333583e+000 -7.710916e+000 239 234 230
2.168614e+000 1.005820e+000 -5.159263e+000 185 105 50
7.945620e-001 6.526690e-001 -6.435749e+000 239 238 228
3.181776e+000 5.739691e-001 -5.593232e+000 170 155 148
2.047469e+000 3.356411e-001 -5.036222e+000 136 87 44
1.510873e+000 1.364328e+000 -5.693908e+000 108 95 78
2.020911e+000 1.281483e+000 -4.897281e+000 191 73 71
1.072286e+000 -4.540890e-001 -5.868657e+000 90 64 50
8.907731e-001 -8.846536e-001 -6.195627e+000 149 88 70
3.205457e+000 9.019825e-001 -5.825082e+000 149 131 127
-8.853774e-001 -2.565608e-001 -5.578763e+000 236 196 147
-1.814036e+000 -4.467289e-001 -5.343237e+000 80 33 27
2.018001e+000 -1.990617e-001 -5.244128e+000 150 51 54
4.800935e-001 -5.974887e-001 -6.007636e+000 76 57 50
2.050974e+000 1.731955e+000 -5.013263e+000 193 71 70
1.878926e+000 1.558448e+000 -5.083266e+000 240 230 221
1.574833e-001 5.016052e-001 -6.562437e+000 241 238 229
-8.263052e-001 -6.432268e-002 -5.560616e+000 67 54 51
-1.112548e+000 -2.992945e-001 -5.838141e+000 138 59 41
6.667133e-001 2.470760e-001 -5.539443e+000 244 241 234
-4.484017e-001 -1.762794e-001 -5.662749e+000 188 180 167
1.450712e+000 1.873686e+000 -5.651673e+000 129 118 88
1.453396e+000 1.876647e+000 -5.673079e+000 129 118 88
1.528884e+000 -5.428313e-001 -5.444283e+000 108 86 62
-7.950213e-001 -1.075035e-001 -5.477714e+000 124 107 107
-1.351117e+000 -3.534502e-001 -5.577109e+000 197 185 179
2.032313e+000 -4.809403e-001 -5.427197e+000 125 91 82
1.883734e+000 -5.877933e-001 -5.557078e+000 101 46 47
1.937353e+000 -7.215329e-001 -5.305674e+000 150 123 112
-1.701525e+000 -7.800885e-001 -5.521169e+000 101 60 60
1.806903e+000 -9.925522e-001 -5.693065e+000 160 166 140
1.806903e+000 -9.925522e-001 -5.693065e+000 160 166 140
1.792831e+000 -1.049803e+000 -5.702305e+000 96 105 84
1.794166e+000 -1.048741e+000 -5.712352e+000 96 105 84
1.801296e+000 -1.076680e+000 -5.681311e+000 88 103 79
1.781329e+000 -1.112344e+000 -5.713495e+000 78 92 66
1.829073e+000 -1.041641e+000 -5.626363e+000 75 91 68
2.751705e+000 -1.025249e+000 -5.330280e+000 118 99 93
1.737893e+000 -1.267165e+000 -5.766661e+000 87 96 64
1.347423e+000 -1.386144e+000 -6.060648e+000 229 159 133
6.351411e-001 -2.218999e+000 -8.114098e+000 191 106 59
-8.016609e-001 -8.092736e-002 -5.510994e+000 75 53 55
-7.538577e-001 -1.227686e-001 -5.459537e+000 198 129 107
1.983293e+000 -2.773867e-001 -5.284071e+000 140 52 58
-1.414737e+000 -3.240927e-001 -5.592806e+000 135 99 83
-1.414737e+000 -3.240927e-001 -5.592806e+000 135 99 83
-1.619457e+000 -3.908255e-001 -5.474138e+000 153 82 66
1.922510e+000 -5.675163e-001 -5.448060e+000 130 98 91
1.891772e+000 -5.931016e-001 -5.538155e+000 125 84 80
1.081543e+000 -7.298917e-001 -6.082353e+000 180 125 80
1.933878e+000 -7.424417e-001 -5.318727e+000 158 131 117
1.817175e+000 -9.002156e-001 -5.673202e+000 157 137 127
1.816212e+000 -8.997864e-001 -5.669295e+000 157 137 127
1.759268e+000 -9.980059e-001 -5.821138e+000 71 48 42
-6.489564e-001 -1.200643e+000 -5.976498e+000 152 79 60
-6.489564e-001 -1.200643e+000 -5.976498e+000 152 79 60
3.166868e+000 9.563911e-001 -5.681267e+000 173 157 151
-6.767296e-001 2.384837e-001 -5.913809e+000 172 95 67
2.217934e+000 -3.441320e-001 -5.325594e+000 186 136 61
1.880294e+000 -6.066668e-001 -5.547521e+000 101 40 38
1.869815e+000 -6.140232e-001 -5.586691e+000 117 75 68
1.264675e-001 2.342868e-001 -6.117551e+000 228 226 214
-8.275894e-001 -1.261503e-001 -5.477526e+000 213 186 153
-8.276345e-001 -1.265867e-001 -5.478715e+000 213 186 153
2.254689e+000 -3.640779e-001 -5.350545e+000 172 98 35
-1.069125e+000 -7.997420e-001 -5.723147e+000 157 66 38
-7.481681e-001 -1.385610e-001 -5.476477e+000 192 145 112
-7.483134e-001 -1.382742e-001 -5.482219e+000 192 145 112
-1.655067e+000 -3.504541e-001 -5.479238e+000 187 107 73
-3.539164e-001 -6.191753e-001 -5.400013e+000 195 158 118
-9.397725e-001 -5.076578e-001 -5.714929e+000 163 109 79
-1.471730e+000 -6.574993e-001 -5.465804e+000 157 80 53
-1.471730e+000 -6.574993e-001 -5.465804e+000 157 80 53
3.672125e-002 -2.425622e-001 -5.668316e+000 128 111 96
1.060213e-001 -2.474334e-001 -5.681802e+000 159 148 139
3.781620e-001 -1.680242e-001 -5.715393e+000 212 209 202
2.622824e-002 -7.139058e-001 -6.017326e+000 116 94 86
4.465379e-001 1.843424e+000 -9.083131e+000 213 96 96
1.958096e+000 -8.989347e-002 -5.385664e+000 143 107 103
-1.954344e+000 -5.177817e-001 -5.679405e+000 68 23 25
-1.995979e-001 -4.870190e-001 -5.359736e+000 124 110 97
3.883091e-001 -4.970153e-001 -5.958449e+000 148 138 129
7.778561e-001 -5.613090e-001 -5.856984e+000 158 66 63
2.569113e+000 -8.054509e-001 -5.298807e+000 66 31 31
2.964894e+000 -9.160767e-001 -5.616950e+000 64 37 36
1.835103e+000 -9.898972e-001 -5.585790e+000 192 184 180
1.740360e+000 -1.444305e+000 -5.710377e+000 144 72 67
1.773782e+000 -1.402059e+000 -5.618804e+000 217 190 177
1.775803e+000 -1.411724e+000 -5.600081e+000 191 119 70
1.633344e+000 -1.592602e+000 -5.950669e+000 208 122 74
1.767653e+000 -1.586266e+000 -5.546466e+000 210 188 189
1.576248e+000 -1.776445e+000 -6.026899e+000 203 126 56
1.620591e+000 -1.885418e+000 -5.835337e+000 211 184 181
1.644685e+000 -1.840522e+000 -5.779081e+000 216 180 176
7.870541e-001 1.958600e-001 -5.500234e+000 216 213 204
-1.641218e+000 -4.055198e-001 -5.480365e+000 167 87 66
5.418335e-002 -3.804115e-001 -5.851396e+000 100 88 74
1.871255e+000 -8.486504e-001 -5.546205e+000 132 84 46
1.763981e+000 -1.181844e+000 -5.728041e+000 126 142 115
1.712019e+000 -1.475072e+000 -5.765338e+000 184 99 66
1.701802e+000 -1.519872e+000 -5.756664e+000 214 145 75
8.310620e-001 -2.161061e+000 -7.653082e+000 180 102 62
1.733464e+000 -1.689321e+000 -5.612160e+000 180 104 55
1.603200e+000 -1.860294e+000 -5.950999e+000 211 144 72
-1.228240e+000 -2.337818e-001 -5.697169e+000 178 107 80
1.977000e+000 -3.913636e-001 -5.301642e+000 111 67 32
-1.601938e+000 -6.763060e-001 -5.461721e+000 202 118 84
1.824183e+000 -1.363337e+000 -5.494639e+000 182 108 47
1.805703e+000 -1.418881e+000 -5.546513e+000 156 69 42
1.480210e+000 -1.764760e+000 -6.250287e+000 220 155 72
1.638238e+000 -1.821451e+000 -5.930017e+000 170 82 56
-2.205545e-001 -1.622742e-001 -5.495325e+000 155 145 135
2.797573e+000 -7.164630e-001 -5.390690e+000 79 52 35
-9.900843e-001 -8.391708e-001 -5.731753e+000 181 87 49
-9.900843e-001 -8.391708e-001 -5.731753e+000 181 87 49
1.884419e+000 -8.501457e-001 -5.494288e+000 143 87 39
1.496743e+000 -1.703396e+000 -6.233704e+000 203 121 63
1.495190e+000 -1.703840e+000 -6.232475e+000 203 121 63
1.667531e+000 -1.524605e+000 -5.886275e+000 169 85 53
1.472047e+000 -1.916386e+000 -6.196423e+000 178 88 43
1.696269e+000 -1.683746e+000 -5.769664e+000 174 83 59
1.623532e+000 -1.767979e+000 -5.919782e+000 208 129 69
4.435482e-001 2.069516e+000 -8.689786e+000 212 219 213
1.343362e+000 1.058677e-002 -5.424598e+000 203 197 185
-1.622008e+000 -6.372720e-001 -5.465862e+000 170 79 48
2.059095e+000 -5.676931e-003 -5.114987e+000 234 216 217
1.646543e+000 -1.658021e+000 -5.896517e+000 221 158 75
1.783300e+000 -1.465782e+000 -5.547794e+000 205 156 74
1.735344e+000 -1.571169e+000 -5.647125e+000 222 181 93
1.751808e+000 -1.237785e+000 -5.703085e+000 77 96 67
1.958399e+000 1.112678e+000 -5.044884e+000 171 60 57
1.562222e+000 -1.684332e+000 -6.079845e+000 209 129 64
1.427339e+000 1.559028e+000 -5.590155e+000 221 210 158
1.406191e+000 1.338859e+000 -5.600979e+000 191 178 128
1.360179e+000 1.141835e+000 -5.709228e+000 211 197 145
2.014319e+000 9.082980e-001 -5.152453e+000 75 40 35
1.796849e+000 7.506158e-001 -4.986094e+000 179 140 132
2.128048e+000 5.941697e-001 -5.011560e+000 185 105 46
2.945489e+000 5.487341e-001 -5.411840e+000 137 115 94
2.187737e+000 1.834753e-001 -5.339344e+000 188 131 63
2.071287e+000 1.693135e-002 -5.105296e+000 184 135 84
2.071287e+000 1.693135e-002 -5.105296e+000 184 135 84
2.050952e+000 -6.856496e-003 -5.130784e+000 226 212 201
2.183623e+000 -3.998889e-002 -4.718495e+000 225 161 110
2.183623e+000 -3.998889e-002 -4.718495e+000 225 161 110
2.047767e+000 -9.466937e-002 -5.164305e+000 100 100 95
-1.475640e+000 -8.176752e-002 -5.592570e+000 111 75 73
9.667517e-001 -4.421134e-001 -5.839505e+000 175 75 70
-1.965481e+000 -5.011211e-001 -5.722490e+000 67 25 26
-1.902597e+000 -4.605433e-001 -5.616147e+000 82 37 34
-1.378266e+000 -5.108600e-001 -5.522290e+000 88 70 74
-1.188377e+000 -4.495594e-001 -5.457738e+000 162 105 83
1.951565e+000 -6.293806e-001 -5.350046e+000 136 81 78
1.969631e+000 -6.420349e-001 -5.325710e+000 130 106 98
-1.959754e+000 -5.257638e-001 -5.659578e+000 104 64 53
-1.409614e+000 -5.622279e-001 -5.510832e+000 119 105 105
-1.381349e+000 -5.945141e-001 -5.494241e+000 179 155 145
-3.074719e-001 -6.528947e-001 -5.466971e+000 173 108 90
1.944062e+000 -7.181922e-001 -5.343815e+000 124 77 72
-1.454404e+000 -7.210081e-001 -5.519333e+000 122 54 36
-1.251685e+000 -7.465228e-001 -5.640661e+000 113 47 29
3.002427e+000 -9.162290e-001 -5.626684e+000 64 41 36
-8.248679e-001 -9.030879e-001 -5.803185e+000 145 61 37
8.342744e-001 -1.000510e+000 -6.144763e+000 180 78 68
1.762787e+000 -9.986110e-001 -5.778718e+000 63 35 34
1.787433e+000 -1.111411e+000 -5.689931e+000 141 155 129
1.753451e+000 -1.151822e+000 -5.766759e+000 80 85 63
1.732601e+000 -1.277027e+000 -5.779192e+000 187 192 160
1.820066e+000 -1.116890e+000 -5.597188e+000 166 178 163
1.854204e+000 -1.110580e+000 -5.507017e+000 188 186 173
1.854204e+000 -1.110580e+000 -5.507017e+000 188 186 173
1.921664e+000 -1.136691e+000 -5.185229e+000 199 116 57
1.645026e+000 -1.517324e+000 -5.936744e+000 193 114 58
1.625885e+000 -1.612101e+000 -5.966247e+000 200 118 63
1.666235e+000 -1.598402e+000 -5.857363e+000 206 123 57
1.770166e+000 -1.480247e+000 -5.583524e+000 205 142 61
1.798368e+000 -1.467059e+000 -5.510228e+000 63 44 37
1.824534e+000 -1.430580e+000 -5.461615e+000 204 188 185
1.774324e+000 -1.520439e+000 -5.563544e+000 95 77 69
1.788214e+000 -1.516600e+000 -5.523840e+000 109 87 89
1.768543e+000 -1.554177e+000 -5.566508e+000 113 97 93
1.116155e+000 -1.680999e+000 -6.135799e+000 204 178 158
1.456772e+000 -1.702583e+000 -6.408782e+000 166 83 43
1.575099e+000 -1.731429e+000 -6.048802e+000 200 114 51
1.748128e+000 -1.594598e+000 -5.610571e+000 192 173 167
1.390849e+000 -1.925654e+000 -6.486206e+000 122 64 37
1.644853e+000 -1.794596e+000 -5.815860e+000 115 92 89
1.669217e+000 -1.784960e+000 -5.762374e+000 201 180 180
1.690263e+000 -1.748472e+000 -5.704796e+000 81 63 60
1.690263e+000 -1.748472e+000 -5.704796e+000 81 63 60
4.380548e+000 2.375131e+000 -7.405786e+000 199 186 178
1.416059e+000 1.461312e+000 -5.581366e+000 229 213 157
1.173798e+000 1.357685e+000 -5.724097e+000 219 212 193
1.317201e+000 1.009665e+000 -5.453055e+000 134 122 92
4.336647e-001 1.835540e+000 -9.194137e+000 211 91 93
2.183603e+000 6.813313e-001 -4.780942e+000 245 180 133
2.082655e+000 2.628301e-001 -5.147839e+000 146 103 51
2.164583e+000 -7.416925e-002 -4.742244e+000 217 150 97
1.847710e-001 4.180175e-002 -5.837871e+000 226 222 212
2.183968e+000 -1.749649e-001 -4.751953e+000 212 132 68
-1.030543e+000 -1.413058e-001 -5.787508e+000 190 113 74
-1.040420e+000 -1.793686e-001 -5.830166e+000 211 122 78
2.173938e+000 -3.545340e-001 -4.695614e+000 105 82 68
-1.947666e+000 -2.568657e-001 -5.734447e+000 198 178 119
-1.417744e+000 -3.115083e-001 -5.606899e+000 124 87 72
-1.083417e-001 -2.919670e-001 -5.521238e+000 152 136 121
1.903596e+000 -4.732576e-001 -5.511114e+000 84 39 36
2.781405e+000 -4.785608e-001 -5.315604e+000 102 84 60
2.970053e+000 -4.199881e-001 -5.436588e+000 85 67 56
2.967018e+000 -5.026153e-001 -5.448445e+000 82 64 61
-2.266803e-002 -5.112064e-001 -5.818391e+000 102 86 71
-2.266803e-002 -5.112064e-001 -5.818391e+000 102 86 71
-1.232973e+000 -6.242493e-001 -5.508207e+000 144 77 46
-1.202982e+000 -8.204632e-001 -5.718443e+000 153 80 58
-8.566056e-001 -9.002298e-001 -5.828212e+000 151 71 48
-8.095987e-001 -9.200521e-001 -5.819423e+000 148 66 42
-8.425407e-001 -9.449148e-001 -5.847877e+000 126 50 31
1.813515e+000 -1.080301e+000 -5.620314e+000 70 83 64
1.809504e+000 -1.106928e+000 -5.638653e+000 191 191 174
1.852884e+000 -9.967815e-001 -5.559069e+000 208 203 198
-7.671995e-001 -1.161431e+000 -5.955775e+000 174 95 64
1.881631e+000 -1.203684e+000 -5.383881e+000 215 156 84
1.473136e+000 -1.666973e+000 -6.291231e+000 192 108 57
1.549417e+000 -1.686348e+000 -6.101734e+000 186 97 40
1.615354e+000 -1.646982e+000 -5.976247e+000 215 136 74
3.433370e+000 -2.089272e+000 -7.170840e+000 170 148 125
1.624824e+000 -1.807141e+000 -5.999952e+000 211 134 62
1.215578e+000 1.107730e+000 -5.047768e+000 180 168 118
4.269915e-001 1.864909e+000 -8.989893e+000 216 144 115
4.194050e-001 1.873950e+000 -9.187571e+000 216 150 115
3.110626e-001 1.735147e+000 -9.317720e+000 196 135 107
2.190192e+000 3.560774e-001 -4.739918e+000 243 171 121
2.943564e+000 5.190358e-001 -5.375313e+000 124 106 85
2.074614e+000 -3.475198e-002 -5.111014e+000 93 79 74
2.074614e+000 -3.475198e-002 -5.111014e+000 93 79 74
-1.303803e+000 -2.163659e-001 -5.680939e+000 144 88 72
2.956876e+000 -4.876848e-001 -5.446601e+000 44 29 33
-1.737588e+000 -3.865660e-001 -5.516754e+000 205 116 72
-1.366647e+000 -3.757307e-001 -5.563036e+000 203 163 120
-1.363632e+000 -5.213727e-001 -5.517550e+000 96 73 62
-1.645537e+000 -5.821938e-001 -5.467321e+000 172 83 52
-2.704438e-001 -6.875426e-001 -5.541881e+000 164 104 86
1.903350e+000 -7.280679e-001 -5.464276e+000 130 102 92
2.804211e+000 -6.784709e-001 -5.371727e+000 127 106 85
2.782952e+000 -7.443528e-001 -5.392892e+000 129 107 84
-1.046816e+000 -8.760571e-001 -5.803136e+000 184 94 60
-8.009827e-001 -9.614776e-001 -5.844752e+000 157 83 48
-8.020630e-001 -9.630105e-001 -5.883473e+000 157 83 48
-8.500906e-001 -1.081365e+000 -5.879939e+000 180 99 62
2.776495e+000 -1.200912e+000 -5.692840e+000 54 33 32
1.634056e+000 -1.517327e+000 -5.989450e+000 192 105 60
1.667886e+000 -1.526702e+000 -5.882434e+000 171 83 52
1.645604e+000 -1.583628e+000 -5.925319e+000 174 86 46
1.718279e+000 -1.572233e+000 -5.711997e+000 166 73 38
1.715905e+000 -1.572842e+000 -5.706501e+000 166 73 38
1.386686e+000 1.456662e+000 -5.580317e+000 193 180 127
2.023917e+000 -6.153649e-002 -5.268915e+000 145 56 56
2.054619e+000 -7.892631e-002 -5.150379e+000 228 221 219
1.934371e+000 -2.671617e-001 -5.458606e+000 197 178 182
-5.552513e-001 -3.819042e-001 -5.410895e+000 184 103 75
-2.013381e+000 -5.664911e-001 -5.713257e+000 66 49 34
-1.979475e+000 -5.680668e-001 -5.703449e+000 152 127 116
-2.058579e-001 -7.327061e-001 -5.728804e+000 135 90 78
3.054754e-002 -6.123332e-001 -6.040019e+000 121 105 90
2.628315e+000 -8.207398e-001 -5.304546e+000 87 55 39
2.628315e+000 -8.207398e-001 -5.304546e+000 87 55 39
-1.064180e+000 -7.735214e-001 -5.716167e+000 170 85 51
-1.127610e+000 -7.994737e-001 -5.728414e+000 146 59 36
-1.026800e+000 -8.313780e-001 -5.736349e+000 185 93 54
-6.013576e-001 -1.015778e+000 -5.968059e+000 180 59 54
3.479671e-001 -1.169717e+000 -7.833696e+000 210 204 194
1.765418e+000 -1.034775e+000 -5.739183e+000 57 42 35
1.718796e+000 -1.108371e+000 -5.684976e+000 59 50 37
8.925008e-001 -1.517596e+000 -7.096245e+000 223 210 203
1.723871e+000 -1.374640e+000 -5.756652e+000 213 207 189
1.419467e+000 -1.643308e+000 -6.364713e+000 107 43 33
1.599292e+000 -1.609741e+000 -6.041477e+000 166 74 41
1.356184e+000 -1.932240e+000 -6.506551e+000 140 81 41
1.418491e+000 -1.937003e+000 -6.479821e+000 146 91 50
2.923395e+000 6.089295e-001 -5.391009e+000 139 117 93
2.021459e+000 1.349771e-001 -5.292252e+000 99 62 56
1.983244e+000 -5.743835e-002 -5.347434e+000 213 186 190
-1.475125e+000 -5.694785e-002 -5.606220e+000 79 43 47
2.180485e+000 -3.840967e-001 -4.750897e+000 88 70 60
1.071821e-001 -5.025743e-001 -5.937643e+000 72 58 47
9.021964e-001 -6.445900e-001 -6.079288e+000 153 109 80
8.419020e-001 -7.486835e-001 -6.033995e+000 149 61 54
1.769130e+000 -1.080784e+000 -5.746530e+000 56 59 45
-4.695169e-001 -1.048611e+000 -5.788952e+000 210 197 181
1.201169e+000 -1.230616e+000 -6.178426e+000 208 146 99
1.767113e+000 -1.362143e+000 -5.642585e+000 218 206 204
1.873404e+000 -1.247438e+000 -5.382310e+000 208 150 66
1.542115e+000 -1.758901e+000 -6.098904e+000 184 82 52
1.180297e+000 2.499236e+000 -7.287444e+000 237 224 213
1.268203e+000 1.635191e+000 -5.954748e+000 180 171 129
3.077688e+000 4.969113e-001 -5.453695e+000 118 103 98
2.026164e+000 1.014129e-001 -5.311486e+000 201 176 173
2.591637e-001 -1.339354e-001 -5.722250e+000 215 215 206
2.591637e-001 -1.339354e-001 -5.722250e+000 215 215 206
-1.423603e+000 -6.382478e-001 -5.461909e+000 151 79 54
1.470651e+000 -6.588595e-001 -6.121751e+000 121 96 65
1.862395e+000 -6.761353e-001 -5.578714e+000 97 44 27
1.862946e+000 -6.762580e-001 -5.579224e+000 97 44 27
1.883658e+000 -8.603459e-001 -5.489271e+000 148 87 42
1.517519e+000 -1.311961e+000 -5.861922e+000 212 78 75
1.485028e+000 -1.820752e+000 -6.245547e+000 187 79 53
2.167335e+000 1.163207e+000 -4.999710e+000 174 92 49
2.160201e+000 -2.745167e-002 -4.688946e+000 240 178 130
-1.485700e+000 -7.208104e-002 -5.630391e+000 100 63 63
-2.031559e+000 -4.780019e-001 -5.763872e+000 189 167 116
2.517548e+000 -6.528345e-001 -5.216643e+000 75 42 39
-9.508277e-001 -7.773282e-001 -5.731541e+000 159 72 42
4.225971e-001 -8.505387e-001 -6.001187e+000 172 160 146
9.979449e-001 -1.007107e+000 -6.170911e+000 187 165 144
-5.902562e-001 -1.106777e+000 -5.975011e+000 232 141 99
-4.535805e-001 -1.108828e+000 -5.925433e+000 116 53 43
1.834653e+000 -1.303164e+000 -5.479903e+000 163 83 62
1.489857e+000 -1.640057e+000 -6.254070e+000 192 117 50
1.642016e+000 -1.747812e+000 -5.854410e+000 178 74 58
1.846385e-001 6.137253e-003 -5.796863e+000 220 214 205
2.076494e+000 -3.646405e-001 -5.241543e+000 170 127 59
2.900591e+000 -5.541604e-001 -5.414403e+000 47 33 32
-3.374612e-001 -7.706996e-001 -5.631473e+000 204 154 109
1.177620e+000 -8.897315e-001 -5.982332e+000 230 179 129
1.653531e+000 -9.280370e-001 -5.661899e+000 203 71 66
-7.873151e-001 -9.353578e-001 -5.778646e+000 147 63 33
-1.973672e+000 -2.752736e-001 -5.763580e+000 219 199 137
-1.635239e+000 -4.711293e-001 -5.492503e+000 106 33 24
6.424279e-001 -5.691258e-001 -5.882372e+000 219 215 204
7.392175e-001 -7.966174e-001 -6.041714e+000 216 209 193
8.963608e-001 2.597542e+000 -7.894697e+000 207 85 89
2.054979e+000 -5.055533e-001 -5.289436e+000 116 74 25
1.266272e+000 1.176583e+000 -5.498319e+000 146 136 100
1.266272e+000 1.176583e+000 -5.498319e+000 146 136 100
1.035932e+000 -1.655988e+000 -6.769911e+000 235 227 216
2.325432e+000 -1.489039e-001 -5.224424e+000 209 125 62
3.892114e-001 -4.936742e-001 -5.962371e+000 159 148 139
7.923784e-001 -3.801713e-001 -5.774735e+000 225 218 210
-1.554724e+000 -6.020195e-001 -5.440491e+000 167 87 60
1.445567e+000 1.651238e+000 -5.622114e+000 178 165 119
2.180388e+000 1.034757e+000 -5.039749e+000 243 191 148
1.417234e+000 1.336313e+000 -5.666136e+000 162 149 105
1.344455e+000 1.129408e+000 -5.640434e+000 208 196 145
2.218313e+000 4.398340e-001 -4.821037e+000 221 144 99
2.967366e+000 5.501355e-001 -5.418039e+000 169 153 139
2.997614e+000 5.935008e-001 -5.434898e+000 147 130 120
3.042587e+000 5.498041e-001 -5.465894e+000 170 153 146
1.576582e+000 -6.075928e-002 -4.530995e+000 131 115 96
2.196939e+000 -2.654533e-003 -4.741374e+000 211 136 81
2.162798e+000 -2.107407e-001 -4.778635e+000 229 177 136
1.956353e+000 -1.141210e-001 -5.396685e+000 122 82 79
2.104477e+000 -1.851735e-001 -5.182503e+000 163 130 87
2.168776e+000 -2.896033e-001 -4.758497e+000 217 159 105
2.029188e+000 -3.066299e-001 -5.242768e+000 124 86 67
2.069747e+000 -4.943691e-001 -4.619532e+000 229 186 149
2.147500e+000 -4.594931e-001 -4.771518e+000 243 190 148
2.216281e+000 -4.247927e-001 -4.815396e+000 139 115 104
-7.934884e-001 -8.292339e-002 -5.513341e+000 66 48 36
-4.865389e-001 -1.522383e-001 -5.499772e+000 206 200 188
8.067215e-001 -2.647101e-001 -5.700201e+000 205 198 188
1.921402e+000 -5.229891e-001 -5.447941e+000 132 92 84
1.868427e+000 -5.756005e-001 -5.605362e+000 107 54 52
1.950326e+000 -6.705250e-001 -5.335614e+000 116 69 64
1.994276e+000 -6.392583e-001 -5.349539e+000 130 98 91
2.935380e+000 -6.823360e-001 -5.497931e+000 79 61 57
-1.824900e+000 -2.435149e-001 -5.644160e+000 94 51 49
-1.063424e+000 -1.249983e-001 -5.870287e+000 199 120 78
-5.885770e-001 -3.626946e-001 -5.430725e+000 195 109 84
-5.341764e-001 -4.554465e-001 -5.441106e+000 188 108 78
-2.507364e-001 -4.415531e-001 -5.346517e+000 153 145 132
1.522914e-001 -3.294322e-001 -5.788700e+000 121 109 97
1.863960e+000 -5.882249e-001 -5.617706e+000 88 34 32
2.802932e+000 -8.303107e-001 -5.456390e+000 51 31 27
2.704503e+000 -9.028774e-001 -5.378513e+000 112 87 64
2.862643e+000 -8.520318e-001 -5.525319e+000 71 53 51
-1.719208e+000 -4.074900e-001 -5.489791e+000 217 128 83
-1.397361e+000 -3.346031e-001 -5.585783e+000 77 44 35
-1.384524e+000 -5.017476e-001 -5.505107e+000 220 202 194
9.192495e-002 -5.174020e-001 -5.963117e+000 76 60 45
2.751575e+000 -9.994292e-001 -5.336334e+000 102 88 79
-1.888500e+000 -5.032441e-001 -5.699639e+000 81 33 29
-1.686195e+000 -5.036299e-001 -5.474151e+000 170 90 68
-1.665138e+000 -5.224219e-001 -5.453615e+000 149 73 50
-1.660880e+000 -5.369740e-001 -5.454292e+000 207 126 96
-2.632670e-001 -7.420445e-001 -5.587676e+000 167 63 59
-2.402840e-001 -7.746816e-001 -5.583427e+000 155 120 108
1.808714e+000 -1.036871e+000 -5.666761e+000 170 178 160
1.808789e+000 -1.037249e+000 -5.667537e+000 170 178 160
2.753206e+000 -1.173655e+000 -5.643085e+000 48 29 24
-1.764951e+000 -6.641029e-001 -5.566168e+000 173 89 53
-1.615149e+000 -6.588820e-001 -5.467783e+000 175 88 55
8.154191e-001 -9.490742e-001 -5.971947e+000 181 79 72
8.411256e-001 -9.709339e-001 -6.160895e+000 180 72 67
1.788106e+000 -1.111353e+000 -5.690532e+000 143 153 125
1.808704e+000 -1.150294e+000 -5.609514e+000 133 138 104
1.808522e+000 -1.150076e+000 -5.609202e+000 133 138 104
1.817745e+000 -1.199209e+000 -5.680574e+000 119 125 100
-1.701627e+000 -7.915156e-001 -5.528524e+000 103 61 55
-1.674147e+000 -8.074701e-001 -5.538753e+000 86 47 42
1.744191e+000 -1.218214e+000 -5.763273e+000 74 87 57
1.735251e+000 -1.280966e+000 -5.761404e+000 192 196 173
1.746364e+000 -1.322889e+000 -5.713208e+000 211 224 198
1.744842e+000 -1.323583e+000 -5.707451e+000 211 224 198
1.764385e+000 -1.284792e+000 -5.677038e+000 189 207 181
1.816652e+000 -1.341404e+000 -5.487571e+000 210 131 78
1.813748e+000 -1.345776e+000 -5.522650e+000 203 130 75
-1.006032e+000 -1.097413e+000 -5.765071e+000 209 117 72
1.653805e+000 -1.460322e+000 -5.953516e+000 148 55 42
1.736906e+000 -1.405366e+000 -5.696238e+000 212 210 204
1.768939e+000 -1.456456e+000 -5.619388e+000 209 132 74
1.798241e+000 -1.454324e+000 -5.492621e+000 187 167 166
1.821601e+000 -1.445336e+000 -5.456840e+000 119 97 96
1.817624e+000 -1.445743e+000 -5.446341e+000 119 97 96
1.811376e+000 -1.454986e+000 -5.478801e+000 90 77 67
1.793649e+000 -1.515529e+000 -5.497808e+000 224 203 201
1.781006e+000 -1.521697e+000 -5.538986e+000 216 197 194
1.780031e+000 -1.523176e+000 -5.535827e+000 216 197 194
-8.968351e-001 -1.234836e+000 -6.248864e+000 174 95 66
1.589399e+000 -1.557238e+000 -6.102237e+000 172 83 49
1.776099e+000 -1.535542e+000 -5.537677e+000 78 67 59
1.771406e+000 -1.571775e+000 -5.543671e+000 122 108 109
1.745283e+000 -1.613847e+000 -5.607389e+000 115 96 92
1.109953e+000 -1.545152e+000 -6.209434e+000 211 191 170
1.109953e+000 -1.545152e+000 -6.209434e+000 211 191 170
1.458180e+000 -1.699787e+000 -6.335828e+000 190 100 55
1.575243e+000 -1.731076e+000 -6.050399e+000 201 113 48
1.697461e+000 -1.688296e+000 -5.706715e+000 216 195 180
1.712308e+000 -1.672674e+000 -5.675063e+000 229 210 200
1.683356e+000 -1.739263e+000 -5.725096e+000 208 195 193
1.694117e+000 -1.732700e+000 -5.703561e+000 199 193 189
1.544757e+000 -1.879963e+000 -6.032547e+000 214 125 63
1.615143e+000 -1.930501e+000 -5.834055e+000 202 128 73
1.502116e+000 -1.959583e+000 -6.066982e+000 207 108 61
1.567989e+000 -1.952357e+000 -5.966488e+000 140 118 118
1.578246e+000 -1.947258e+000 -5.931793e+000 226 211 202
1.698409e+000 1.681169e+000 -5.555346e+000 243 236 225
1.343341e+000 1.154977e+000 -5.638513e+000 164 152 109
1.327592e+000 1.094903e+000 -5.711091e+000 204 191 147
2.023373e+000 1.769377e-001 -5.313334e+000 127 95 86
2.020054e+000 1.730676e-001 -5.305118e+000 127 95 86
2.088553e+000 2.633420e-001 -5.221372e+000 157 126 114
3.065992e+000 1.986824e-001 -5.524126e+000 130 113 107
2.180449e+000 -1.372807e-001 -4.799054e+000 255 229 185
2.175514e+000 -1.651649e-001 -4.760558e+000 248 220 174
2.178019e+000 -2.037506e-001 -4.751162e+000 215 140 87
2.191031e+000 -2.535704e-001 -4.768760e+000 225 181 151
2.157116e+000 -2.790792e-001 -4.731036e+000 211 135 85
1.949832e+000 -1.345634e-001 -5.410449e+000 98 52 49
2.175091e+000 -3.041932e-001 -4.754294e+000 230 207 173
2.154244e+000 -4.271277e-001 -4.770127e+000 232 182 149
2.127380e+000 -5.834055e-001 -4.792624e+000 213 152 99
2.802334e+000 -5.824986e-001 -5.347709e+000 147 125 101
-8.998597e-001 -1.170658e-001 -5.549825e+000 192 184 168
-8.195546e-001 -9.083545e-002 -5.503842e+000 184 166 138
-1.466656e-001 -2.484278e-001 -5.569667e+000 127 113 98
1.436038e+000 -3.267203e-001 -6.159582e+000 115 79 60
1.898644e+000 -5.657401e-001 -5.509952e+000 106 37 39
1.957397e+000 -6.440739e-001 -5.331423e+000 122 52 51
-1.418862e+000 -3.111108e-001 -5.614543e+000 131 98 83
-1.302417e+000 -3.018650e-001 -5.607590e+000 88 59 55
-1.204974e+000 -2.482973e-001 -5.686084e+000 183 116 87
1.319675e+000 -5.338791e-001 -5.985647e+000 74 46 34
2.715244e+000 -7.871032e-001 -5.408687e+000 72 39 27
-1.632520e+000 -3.277360e-001 -5.493779e+000 176 94 63
-1.423515e+000 -3.510513e-001 -5.564172e+000 109 69 53
-1.110742e+000 -4.042609e-001 -5.765694e+000 107 43 23
-2.821585e-001 -6.070961e-001 -5.380766e+000 189 177 166
5.514257e-001 -5.675177e-001 -6.038355e+000 176 166 157
2.724498e+000 -9.549479e-001 -5.365438e+000 99 75 53
-1.973970e+000 -3.807052e-001 -5.727043e+000 180 155 117
-1.978904e+000 -4.122554e-001 -5.717542e+000 187 163 120
7.056952e-001 -6.913347e-001 -6.057899e+000 202 181 167
2.769196e+000 -1.084612e+000 -5.584638e+000 63 37 29
2.842775e+000 -1.097407e+000 -5.645130e+000 68 34 25
2.960518e+000 -1.124922e+000 -5.731762e+000 61 31 31
-1.839426e+000 -6.026533e-001 -5.554484e+000 121 76 68
-1.718190e+000 -7.518895e-001 -5.555720e+000 189 114 72
-1.399234e+000 -7.793057e-001 -5.567417e+000 108 46 31
1.726994e+000 -1.072680e+000 -5.861921e+000 64 35 26
1.804864e+000 -1.088111e+000 -5.664072e+000 90 106 76
1.808153e+000 -1.107366e+000 -5.635198e+000 208 216 194
1.810438e+000 -1.215887e+000 -5.592512e+000 92 109 82
-1.084223e+000 -8.659127e-001 -5.748566e+000 186 95 60
-1.069254e+000 -9.419764e-001 -5.797382e+000 205 115 78
-1.032602e+000 -9.318802e-001 -5.761515e+000 199 109 72
-8.432002e-001 -8.855798e-001 -5.797430e+000 135 54 27
-7.413990e-001 -9.546222e-001 -5.827048e+000 147 69 51
-5.073510e-002 -9.149407e-001 -6.235662e+000 130 99 83
1.757015e+000 -1.272869e+000 -5.700915e+000 209 215 176
1.847627e+000 -1.306812e+000 -5.428664e+000 202 135 58
1.834907e+000 -1.394502e+000 -5.449896e+000 217 155 62
-9.258570e-001 -1.039054e+000 -5.831824e+000 171 80 48
-9.883186e-001 -1.232259e+000 -5.933867e+000 165 106 88
-9.824973e-001 -1.234784e+000 -5.889711e+000 165 106 88
-6.393468e-001 -1.210973e+000 -5.989777e+000 151 81 59
-5.984502e-001 -1.244586e+000 -6.008236e+000 133 58 41
1.744979e+000 -1.641598e+000 -5.600221e+000 226 201 198
1.375904e+000 -1.647184e+000 -6.384881e+000 91 36 29
1.630639e+000 -1.862721e+000 -5.811742e+000 226 211 200
1.621074e+000 -1.883748e+000 -5.840296e+000 232 208 204
1.613561e+000 -1.906646e+000 -5.853625e+000 223 188 170
1.607131e+000 -1.921285e+000 -5.860092e+000 192 107 70
1.608259e+000 -1.921236e+000 -5.862638e+000 192 107 70
2.127632e+000 9.577259e-001 -5.185479e+000 121 59 48
2.221695e+000 4.835142e-001 -4.841380e+000 227 148 106
3.142204e+000 4.880130e-001 -5.567934e+000 158 138 133
3.051855e+000 3.529352e-001 -5.435994e+000 157 142 137
2.174422e+000 -1.277246e-001 -4.737959e+000 252 224 191
1.361379e+000 2.313778e-001 -5.557893e+000 219 215 203
1.361379e+000 2.313778e-001 -5.557893e+000 219 215 203
2.864243e+000 -6.045264e-001 -5.413541e+000 68 44 33
-5.048063e-001 -4.384951e-001 -5.418027e+000 215 161 122
-5.048063e-001 -4.384951e-001 -5.418027e+000 215 161 122
7.014478e-002 -3.549825e-001 -5.862645e+000 59 44 37
1.656821e-001 -3.355922e-001 -5.744687e+000 145 135 122
1.950912e+000 -7.213836e-001 -5.369637e+000 109 40 32
2.778800e+000 -7.759068e-001 -5.393730e+000 139 117 96
-1.590384e+000 -3.707724e-001 -5.479767e+000 147 76 58
-1.561960e+000 -3.499720e-001 -5.484529e+000 142 72 57
3.942434e-001 -4.952586e-001 -5.974380e+000 156 148 133
6.908836e-001 -6.464525e-001 -6.000039e+000 190 76 69
7.845223e-001 -5.824842e-001 -5.875002e+000 192 76 75
-2.022751e+000 -4.322829e-001 -5.706346e+000 82 59 27
-1.866209e+000 -5.346144e-001 -5.576917e+000 127 75 70
-1.866209e+000 -5.346144e-001 -5.576917e+000 127 75 70
-5.480154e-002 -6.791665e-001 -5.874936e+000 110 90 73
6.867191e-001 -7.345063e-001 -6.017278e+000 182 165 148
1.791415e+000 -9.778808e-001 -5.823962e+000 80 51 45
2.789310e+000 -1.177410e+000 -5.650122e+000 69 33 26
-2.047251e+000 -5.888382e-001 -5.726498e+000 73 58 41
-1.864893e+000 -6.240665e-001 -5.599877e+000 136 119 120
-1.699345e+000 -7.001846e-001 -5.530001e+000 215 123 86
-1.669335e+000 -7.631919e-001 -5.557265e+000 194 119 88
1.805054e+000 -1.054178e+000 -5.668737e+000 78 89 72
1.804353e+000 -1.055101e+000 -5.662144e+000 78 89 72
-1.142771e+000 -8.429834e-001 -5.730049e+000 151 72 42
-7.769460e-001 -9.300879e-001 -5.832097e+000 173 90 59
1.164196e+000 -1.152165e+000 -6.059160e+000 230 188 133
-8.561914e-001 -1.102260e+000 -5.875154e+000 161 71 38
-8.516685e-001 -1.106758e+000 -5.833018e+000 161 71 38
1.715972e+000 -1.494033e+000 -5.791355e+000 141 60 53
1.481583e+000 -1.690911e+000 -6.264394e+000 176 82 45
1.494435e+000 -1.679853e+000 -6.236543e+000 217 133 73
