ply
format ascii 1.0
element face 0
property list uchar int vertex_indices
element vertex 870
property float x
property float y
property float z
property uchar diffuse_red
property uchar diffuse_green
property uchar diffuse_blue
end_header
-6.101498e-001 -1.155687e+000 -5.917255e+000 152 74 47
1.752025e+000 -1.033333e+000 -5.703671e+000 56 51 37
1.775427e+000 -1.093476e+000 -5.698629e+000 68 81 57
1.349181e+000 -1.321601e+000 -5.905310e+000 185 71 55
1.794919e+000 -1.216761e+000 -5.559447e+000 81 107 82
3.236090e+000 -1.288185e+000 -6.053223e+000 99 70 56
7.678404e-001 2.570619e+000 -8.302675e+000 220 220 214
1.274526e+000 2.006249e+000 -6.614759e+000 237 233 222
1.714261e+000 1.917371e+000 -5.838404e+000 200 188 172
2.061441e+000 1.821261e+000 -5.067379e+000 178 157 139
3.459834e+000 1.395935e+000 -6.305571e+000 141 106 102
3.527966e+000 1.408230e+000 -6.379613e+000 170 149 138
2.224337e+000 9.483209e-001 -4.974601e+000 237 171 124
2.924302e+000 6.964746e-001 -5.477188e+000 140 114 91
2.924302e+000 6.964746e-001 -5.477188e+000 140 114 91
3.125165e+000 7.875972e-001 -5.650662e+000 166 143 135
-8.779794e-001 8.531283e-002 -5.990479e+000 228 135 83
1.040225e-001 2.085366e-001 -6.152105e+000 199 192 182
2.703403e+000 3.849851e-001 -5.241845e+000 167 144 138
-5.387235e-002 -3.237074e-002 -5.760134e+000 194 185 178
-1.994165e+000 -2.720482e-001 -5.715771e+000 255 235 175
-1.389051e+000 -2.310584e-001 -5.657212e+000 145 104 80
-8.645719e-001 -5.432498e-002 -5.553460e+000 184 163 135
-8.645719e-001 -5.432498e-002 -5.553460e+000 184 163 135
-8.334827e-001 -4.650233e-002 -5.541417e+000 74 58 64
2.011005e+000 -1.064137e-001 -5.293134e+000 215 189 193
2.011005e+000 -1.064137e-001 -5.293134e+000 215 189 193
-1.676522e+000 -5.084626e-001 -5.409904e+000 208 119 87
-5.600397e-001 -3.647735e-001 -5.443476e+000 201 99 77
2.770692e+000 -2.099198e-001 -5.318606e+000 86 60 37
2.770692e+000 -2.099198e-001 -5.318606e+000 86 60 37
-6.575217e-002 -7.073089e-001 -5.891572e+000 108 46 44
-6.575217e-002 -7.073089e-001 -5.891572e+000 108 46 44
8.656348e-001 -5.999834e-001 -6.001710e+000 176 135 105
-6.867675e-001 -9.312014e-001 -5.844071e+000 172 90 55
-6.660970e-001 -7.705910e-001 -5.750108e+000 208 159 115
2.119904e+000 -5.104226e-001 -5.180925e+000 179 127 40
2.119904e+000 -5.104226e-001 -5.180925e+000 179 127 40
-9.403219e-001 -1.133273e+000 -5.933556e+000 146 60 35
-6.374376e-001 -1.057165e+000 -5.893993e+000 182 85 47
1.966487e+000 -6.663657e-001 -5.287710e+000 137 107 97
1.726074e+000 -1.100329e+000 -5.837197e+000 64 40 37
1.768017e+000 -1.125870e+000 -5.661975e+000 74 90 66
3.964038e-001 1.990895e+000 -8.780763e+000 221 218 220
1.425915e+000 1.642060e+000 -5.827255e+000 197 189 143
3.436599e+000 1.135007e+000 -6.062619e+000 141 115 102
7.304544e-001 6.401690e-001 -6.604011e+000 220 217 202
1.206146e+000 8.155506e-001 -5.990053e+000 197 187 152
3.173410e+000 7.655570e-001 -5.681956e+000 146 123 117
3.027041e+000 5.211984e-001 -5.502926e+000 109 96 93
3.191981e+000 6.120754e-001 -5.618924e+000 176 159 151
3.191981e+000 6.120754e-001 -5.618924e+000 176 159 151
-6.442762e-001 8.838025e-002 -6.093595e+000 111 51 46
1.192786e-001 2.528733e-002 -5.908509e+000 158 146 130
-9.009947e-001 -6.849652e-002 -5.561494e+000 66 60 67
2.712178e+000 -4.981996e-002 -5.240846e+000 84 60 43
3.168306e+000 -2.714566e-001 -5.567796e+000 59 34 34
-1.533738e+000 -5.718311e-001 -5.448963e+000 147 71 48
-8.432944e-001 -6.748827e-001 -5.772038e+000 156 98 66
-1.443685e+000 -7.071812e-001 -5.460057e+000 155 80 58
-1.443685e+000 -7.071812e-001 -5.460057e+000 155 80 58
9.123287e-001 -8.050859e-001 -6.089680e+000 148 96 62
1.861525e+000 -6.724394e-001 -5.582795e+000 104 48 32
1.888493e+000 -5.813656e-001 -5.462063e+000 113 41 42
2.690460e+000 -5.731067e-001 -5.283564e+000 72 36 24
2.690460e+000 -5.731067e-001 -5.283564e+000 72 36 24
1.625065e+000 -1.072155e+000 -5.635611e+000 221 77 74
1.806900e+000 -1.099816e+000 -5.601025e+000 140 144 134
1.806939e+000 -1.100552e+000 -5.603389e+000 140 144 134
1.375433e+000 -1.304052e+000 -5.940757e+000 223 164 128
1.571023e+000 -1.249059e+000 -5.765703e+000 211 78 72
1.371143e+000 -1.712559e+000 -6.392854e+000 113 50 34
1.506926e+000 1.843865e+000 -5.700923e+000 149 137 99
2.005595e+000 1.412109e+000 -5.279075e+000 110 51 47
1.900974e+000 1.228216e+000 -4.941610e+000 209 94 88
1.183281e+000 9.253823e-001 -6.249734e+000 216 210 196
3.845444e-001 5.729704e-001 -6.771245e+000 221 218 212
1.287520e+000 7.450956e-001 -5.774133e+000 237 234 228
5.662816e-001 3.345988e-001 -5.777990e+000 194 188 174
-3.820655e-001 9.877500e-003 -5.632856e+000 220 217 208
-1.804589e-001 -6.580901e-002 -5.689270e+000 158 148 137
1.929127e+000 6.060736e-003 -5.396677e+000 203 78 81
1.929127e+000 6.060736e-003 -5.396677e+000 203 78 81
2.032352e+000 1.104854e-001 -5.319708e+000 201 182 177
-2.048835e+000 -3.080048e-001 -5.770909e+000 117 87 80
-6.460879e-001 -2.878078e-001 -5.473263e+000 225 172 127
-6.460879e-001 -2.878078e-001 -5.473263e+000 225 172 127
-3.312109e-001 -1.950474e-001 -5.466360e+000 205 197 186
-6.279153e-002 -2.608918e-001 -5.634241e+000 118 101 86
3.021140e+000 -1.201422e-001 -5.424222e+000 71 47 44
3.021140e+000 -1.201422e-001 -5.424222e+000 71 47 44
-3.697537e-002 -4.602498e-001 -5.817634e+000 107 89 75
1.681926e+000 -2.891549e-001 -5.380276e+000 226 85 82
1.647913e+000 -3.361467e-001 -5.382508e+000 109 56 43
-7.691423e-001 -6.746291e-001 -5.783447e+000 173 116 84
5.830507e-001 -6.252311e-001 -6.009070e+000 90 71 59
1.459751e+000 -6.686209e-001 -6.132730e+000 131 110 83
2.672879e+000 -3.185424e-001 -5.202113e+000 83 59 41
-1.598884e+000 -7.501747e-001 -5.475573e+000 113 36 26
3.155761e-001 -8.577042e-001 -5.957499e+000 207 199 188
1.288541e+000 -8.351335e-001 -6.055396e+000 199 147 99
1.284531e+000 -8.322743e-001 -6.045555e+000 199 147 99
-5.421353e-001 -9.843094e-001 -5.727165e+000 158 58 44
2.744438e+000 -1.012964e+000 -5.495602e+000 84 62 51
1.519266e+000 -1.606851e+000 -6.170776e+000 211 144 67
1.340090e+000 1.929109e+000 -6.349369e+000 229 225 216
-8.220919e-001 2.466674e+000 -1.875462e+001 200 192 193
1.586934e+000 1.202172e+000 -5.397212e+000 231 226 215
1.954232e+000 8.989477e-001 -5.231662e+000 178 65 61
6.023806e-001 4.661771e-001 -6.524630e+000 172 165 155
8.728257e-001 5.749187e-001 -6.237251e+000 205 199 187
9.324815e-001 5.573243e-001 -6.173923e+000 228 229 221
-2.181516e-001 6.126355e-002 -6.260931e+000 107 84 71
-2.855327e-002 -3.294752e-001 -5.734608e+000 110 92 78
1.466604e-003 -7.103409e-001 -5.963177e+000 122 108 95
1.324137e+000 -7.409254e-001 -6.055986e+000 195 139 95
1.324137e+000 -7.409254e-001 -6.055986e+000 195 139 95
2.955349e+000 -4.591403e-001 -5.431406e+000 50 33 33
-5.996020e-001 -1.095007e+000 -5.898453e+000 221 122 76
1.784807e+000 -8.425346e-001 -5.670959e+000 92 50 36
2.497826e+000 -8.422132e-001 -5.298060e+000 77 46 43
1.625965e+000 -1.478157e+000 -5.970292e+000 212 146 83
1.154451e+000 2.415417e+000 -7.256491e+000 239 223 214
1.728294e+000 1.744140e+000 -5.680220e+000 217 205 188
5.087954e-001 1.384482e+000 -8.888802e+000 235 231 220
1.331281e+000 1.208863e+000 -5.807644e+000 157 147 111
1.555879e+000 1.274683e+000 -5.652220e+000 232 226 214
2.661745e-002 2.359876e-001 -6.280675e+000 202 198 187
2.219109e+000 3.261315e-001 -5.276319e+000 226 175 53
2.193843e+000 -3.063160e-001 -5.314403e+000 193 147 57
-2.647599e-001 -6.835275e-001 -5.465095e+000 175 78 74
1.485921e+000 -9.892288e-001 -6.047565e+000 147 42 42
2.876235e+000 -9.572857e-001 -5.573868e+000 67 41 40
1.337810e+000 -1.588172e+000 -6.273158e+000 208 70 73
8.774972e-001 2.251162e+000 -7.715730e+000 239 234 230
8.846006e-001 2.261102e+000 -7.770732e+000 239 234 230
2.200286e+000 1.026353e+000 -5.262933e+000 185 105 50
7.963906e-001 6.343145e-001 -6.510011e+000 239 238 228
3.177088e+000 5.690072e-001 -5.649121e+000 170 155 148
2.086412e+000 3.522336e-001 -5.141359e+000 136 87 44
1.512577e+000 1.368891e+000 -5.751769e+000 108 95 78
2.039895e+000 1.312697e+000 -4.973644e+000 191 73 71
1.067029e+000 -4.568318e-001 -5.862026e+000 90 64 50
8.782116e-001 -9.026422e-001 -6.188160e+000 149 88 70
3.198679e+000 8.876695e-001 -5.890268e+000 149 131 127
-9.004034e-001 -2.415287e-001 -5.594089e+000 236 196 147
-1.825426e+000 -4.118387e-001 -5.322988e+000 80 33 27
2.022063e+000 -1.848635e-001 -5.260111e+000 150 51 54
4.722546e-001 -6.091774e-001 -6.018010e+000 76 57 50
2.070209e+000 1.759205e+000 -5.108531e+000 193 71 70
1.890467e+000 1.581731e+000 -5.162243e+000 240 230 221
1.487619e-001 4.837963e-001 -6.574639e+000 241 238 229
-8.357169e-001 -4.314973e-002 -5.555944e+000 67 54 51
-1.125417e+000 -2.862360e-001 -5.821997e+000 138 59 41
6.681054e-001 2.609374e-001 -5.554661e+000 244 241 234
-4.588252e-001 -1.654906e-001 -5.677828e+000 188 180 167
1.460197e+000 1.878837e+000 -5.716481e+000 129 118 88
1.460197e+000 1.878837e+000 -5.716481e+000 129 118 88
1.528357e+000 -5.339378e-001 -5.441907e+000 108 86 62
-8.035187e-001 -8.336560e-002 -5.468156e+000 124 107 107
-1.361668e+000 -3.301365e-001 -5.554871e+000 197 185 179
2.032360e+000 -4.738427e-001 -5.434801e+000 125 91 82
1.881040e+000 -5.842249e-001 -5.556711e+000 101 46 47
1.945032e+000 -7.120448e-001 -5.318709e+000 150 123 112
-1.715964e+000 -7.527835e-001 -5.490214e+000 101 60 60
1.799446e+000 -9.933657e-001 -5.678713e+000 160 166 140
1.799446e+000 -9.933657e-001 -5.678713e+000 160 166 140
1.786048e+000 -1.049851e+000 -5.694884e+000 96 105 84
1.785993e+000 -1.050092e+000 -5.695972e+000 96 105 84
1.791757e+000 -1.076773e+000 -5.659612e+000 88 103 79
1.772655e+000 -1.113683e+000 -5.695210e+000 78 92 66
1.822184e+000 -1.040558e+000 -5.612029e+000 75 91 68
2.746570e+000 -1.018614e+000 -5.336163e+000 118 99 93
1.727095e+000 -1.269655e+000 -5.741772e+000 87 96 64
1.337341e+000 -1.399015e+000 -6.030833e+000 229 159 133
5.914734e-001 -2.271092e+000 -7.987266e+000 191 106 59
-8.100332e-001 -5.765579e-002 -5.500855e+000 75 53 55
-7.620194e-001 -9.830742e-002 -5.448671e+000 198 129 107
1.984290e+000 -2.648581e-001 -5.295679e+000 140 52 58
-1.429144e+000 -3.005658e-001 -5.583270e+000 135 99 83
-1.429144e+000 -3.005658e-001 -5.583270e+000 135 99 83
-1.631514e+000 -3.614449e-001 -5.453206e+000 153 82 66
1.921743e+000 -5.607165e-001 -5.450888e+000 130 98 91
1.889167e+000 -5.889078e-001 -5.537145e+000 125 84 80
1.064582e+000 -7.378452e-001 -6.066257e+000 180 125 80
1.933244e+000 -7.316680e-001 -5.316808e+000 158 131 117
1.810170e+000 -9.001433e-001 -5.659764e+000 157 137 127
1.809814e+000 -8.998695e-001 -5.657978e+000 157 137 127
1.749956e+000 -1.002476e+000 -5.803917e+000 71 48 42
-6.657567e-001 -1.196639e+000 -5.931230e+000 152 79 60
-6.657567e-001 -1.196639e+000 -5.931230e+000 152 79 60
3.164372e+000 9.476035e-001 -5.752484e+000 173 157 151
-6.851513e-001 2.484285e-001 -5.910291e+000 172 95 67
2.224634e+000 -3.344759e-001 -5.348784e+000 186 136 61
1.877025e+000 -6.039908e-001 -5.546415e+000 101 40 38
1.866734e+000 -6.114632e-001 -5.585522e+000 117 75 68
1.198402e-001 2.318349e-001 -6.118101e+000 228 226 214
-8.333120e-001 -1.007531e-001 -5.443399e+000 213 186 153
-8.360060e-001 -1.024041e-001 -5.466801e+000 213 186 153
2.255999e+000 -3.553352e-001 -5.366003e+000 172 98 35
-1.083798e+000 -7.840614e-001 -5.689835e+000 157 66 38
-7.565757e-001 -1.147154e-001 -5.468582e+000 192 145 112
-7.568898e-001 -1.147260e-001 -5.471499e+000 192 145 112
-1.666900e+000 -3.208054e-001 -5.459411e+000 187 107 73
-3.642825e-001 -5.989930e-001 -5.396017e+000 195 158 118
-9.465712e-001 -4.928407e-001 -5.686122e+000 163 109 79
-1.485287e+000 -6.300071e-001 -5.438347e+000 157 80 53
-1.485287e+000 -6.300071e-001 -5.438347e+000 157 80 53
3.075533e-002 -2.336627e-001 -5.640454e+000 128 111 96
1.001365e-001 -2.375550e-001 -5.665593e+000 159 148 139
3.769385e-001 -1.619008e-001 -5.699427e+000 212 209 202
1.386078e-002 -7.149424e-001 -5.980492e+000 116 94 86
4.209317e-001 1.720436e+000 -9.061022e+000 213 96 96
1.960631e+000 -7.992060e-002 -5.402611e+000 143 107 103
-1.966228e+000 -4.925592e-001 -5.650290e+000 68 23 25
-2.065485e-001 -4.649965e-001 -5.345076e+000 124 110 97
3.797352e-001 -4.979150e-001 -5.943205e+000 148 138 129
7.713620e-001 -5.615165e-001 -5.844198e+000 158 66 63
2.564444e+000 -7.965556e-001 -5.302428e+000 66 31 31
2.949357e+000 -9.180810e-001 -5.616652e+000 64 37 36
1.829354e+000 -9.875120e-001 -5.573869e+000 192 184 180
1.729150e+000 -1.445257e+000 -5.683213e+000 144 72 67
1.770650e+000 -1.401854e+000 -5.612836e+000 217 190 177
1.766182e+000 -1.409369e+000 -5.574774e+000 191 119 70
1.620020e+000 -1.601550e+000 -5.916896e+000 208 122 74
1.758542e+000 -1.582964e+000 -5.517147e+000 210 188 189
1.553522e+000 -1.783898e+000 -5.972108e+000 203 126 56
1.603214e+000 -1.887696e+000 -5.787020e+000 211 184 181
1.628564e+000 -1.841929e+000 -5.737899e+000 216 180 176
7.893378e-001 2.109559e-001 -5.513437e+000 216 213 204
-1.653146e+000 -3.761757e-001 -5.458069e+000 167 87 66
4.565341e-002 -3.752884e-001 -5.838660e+000 100 88 74
1.868297e+000 -8.451517e-001 -5.541390e+000 132 84 46
1.755494e+000 -1.183912e+000 -5.712070e+000 126 142 115
1.699424e+000 -1.477049e+000 -5.734506e+000 184 99 66
1.690371e+000 -1.522068e+000 -5.727602e+000 214 145 75
7.917492e-001 -2.205333e+000 -7.551738e+000 180 102 62
1.721831e+000 -1.688009e+000 -5.583610e+000 180 104 55
1.584407e+000 -1.865643e+000 -5.904547e+000 211 144 72
-1.239798e+000 -2.140619e-001 -5.680519e+000 178 107 80
1.978999e+000 -3.794761e-001 -5.310879e+000 111 67 32
-1.615887e+000 -6.475948e-001 -5.432916e+000 202 118 84
1.816674e+000 -1.358399e+000 -5.473496e+000 182 108 47
1.796345e+000 -1.414815e+000 -5.520759e+000 156 69 42
1.451749e+000 -1.775923e+000 -6.184174e+000 220 155 72
1.620014e+000 -1.826513e+000 -5.885430e+000 170 82 56
-2.262585e-001 -1.425803e-001 -5.487672e+000 155 145 135
2.789238e+000 -7.111931e-001 -5.397046e+000 79 52 35
-1.004993e+000 -8.245035e-001 -5.698246e+000 181 87 49
-1.004993e+000 -8.245035e-001 -5.698246e+000 181 87 49
1.880918e+000 -8.449601e-001 -5.487800e+000 143 87 39
1.477414e+000 -1.718348e+000 -6.193908e+000 203 121 63
1.477414e+000 -1.718348e+000 -6.193908e+000 203 121 63
1.655111e+000 -1.530697e+000 -5.858944e+000 169 85 53
1.452353e+000 -1.928509e+000 -6.146072e+000 178 88 43
1.681532e+000 -1.685139e+000 -5.732238e+000 174 83 59
1.606397e+000 -1.773406e+000 -5.878499e+000 208 129 69
4.178705e-001 1.953479e+000 -8.663727e+000 212 219 213
1.343758e+000 2.569657e-002 -5.439841e+000 203 197 185
-1.637064e+000 -6.081049e-001 -5.441550e+000 170 79 48
2.065307e+000 1.294436e-002 -5.137749e+000 234 216 217
1.630456e+000 -1.665146e+000 -5.863697e+000 221 158 75
1.773939e+000 -1.461891e+000 -5.521760e+000 205 156 74
1.720058e+000 -1.570726e+000 -5.610261e+000 222 181 93
1.743413e+000 -1.238795e+000 -5.684292e+000 77 96 67
1.968680e+000 1.135033e+000 -5.100282e+000 171 60 57
1.533891e+000 -1.691971e+000 -6.019092e+000 209 129 64
1.431234e+000 1.560690e+000 -5.637542e+000 221 210 158
1.410403e+000 1.343343e+000 -5.646023e+000 191 178 128
1.363744e+000 1.144974e+000 -5.751118e+000 211 197 145
2.023006e+000 9.267421e-001 -5.202555e+000 75 40 35
1.807730e+000 7.766921e-001 -5.028434e+000 179 140 132
2.137109e+000 6.165146e-001 -5.053807e+000 185 105 46
2.941806e+000 5.501620e-001 -5.457604e+000 137 115 94
2.190317e+000 1.934364e-001 -5.365348e+000 188 131 63
2.077467e+000 3.563205e-002 -5.128353e+000 184 135 84
2.077467e+000 3.563205e-002 -5.128353e+000 184 135 84
2.056456e+000 1.091272e-002 -5.151982e+000 226 212 201
2.193724e+000 -9.232176e-003 -4.742962e+000 225 161 110
2.193724e+000 -9.232176e-003 -4.742962e+000 225 161 110
2.052645e+000 -7.815696e-002 -5.183078e+000 100 100 95
-1.486076e+000 -5.642008e-002 -5.580328e+000 111 75 73
9.614544e-001 -4.426560e-001 -5.830314e+000 175 75 70
-1.977824e+000 -4.772075e-001 -5.693907e+000 67 25 26
-1.914474e+000 -4.336517e-001 -5.589665e+000 82 37 34
-1.391305e+000 -4.854334e-001 -5.498344e+000 88 70 74
-1.200489e+000 -4.233442e-001 -5.436899e+000 162 105 83
1.948065e+000 -6.196756e-001 -5.343206e+000 136 81 78
1.965424e+000 -6.313032e-001 -5.319062e+000 130 106 98
-1.972321e+000 -4.999082e-001 -5.631195e+000 104 64 53
-1.422882e+000 -5.361384e-001 -5.492782e+000 119 105 105
-1.395857e+000 -5.682105e-001 -5.472781e+000 179 155 145
-3.168128e-001 -6.345841e-001 -5.444915e+000 173 108 90
1.942172e+000 -7.082110e-001 -5.339706e+000 124 77 72
-1.468743e+000 -6.955244e-001 -5.489054e+000 122 54 36
-1.266020e+000 -7.265742e-001 -5.607910e+000 113 47 29
2.985043e+000 -9.185606e-001 -5.624643e+000 64 41 36
-8.398853e-001 -8.921372e-001 -5.767773e+000 145 61 37
8.216926e-001 -1.011045e+000 -6.116134e+000 180 78 68
1.754071e+000 -1.001854e+000 -5.762528e+000 63 35 34
1.779089e+000 -1.112087e+000 -5.672252e+000 141 155 129
1.743734e+000 -1.154662e+000 -5.746531e+000 80 85 63
1.722533e+000 -1.280227e+000 -5.756762e+000 187 192 160
1.812983e+000 -1.114909e+000 -5.581020e+000 166 178 163
1.848100e+000 -1.105883e+000 -5.491660e+000 188 186 173
1.848100e+000 -1.105883e+000 -5.491660e+000 188 186 173
1.920084e+000 -1.122602e+000 -5.173868e+000 199 116 57
1.629608e+000 -1.524024e+000 -5.901777e+000 193 114 58
1.609075e+000 -1.619050e+000 -5.926745e+000 200 118 63
1.653394e+000 -1.604027e+000 -5.830785e+000 206 123 57
1.761041e+000 -1.477872e+000 -5.558335e+000 205 142 61
1.789968e+000 -1.462988e+000 -5.480582e+000 63 44 37
1.816944e+000 -1.424682e+000 -5.439248e+000 204 188 185
1.764144e+000 -1.517071e+000 -5.535812e+000 95 77 69
1.778125e+000 -1.511946e+000 -5.496375e+000 109 87 89
1.756431e+000 -1.550469e+000 -5.533819e+000 113 97 93
1.104094e+000 -1.694150e+000 -6.109658e+000 204 178 158
1.433737e+000 -1.721009e+000 -6.357915e+000 166 83 43
1.555015e+000 -1.739768e+000 -5.999193e+000 200 114 51
1.736994e+000 -1.592556e+000 -5.580966e+000 192 173 167
1.364681e+000 -1.944317e+000 -6.425648e+000 122 64 37
1.626226e+000 -1.795872e+000 -5.768264e+000 115 92 89
1.654145e+000 -1.786378e+000 -5.724274e+000 201 180 180
1.676369e+000 -1.748513e+000 -5.668898e+000 81 63 60
1.676369e+000 -1.748513e+000 -5.668898e+000 81 63 60
4.301105e+000 2.258208e+000 -7.449282e+000 199 186 178
1.421508e+000 1.467007e+000 -5.633551e+000 229 213 157
1.178260e+000 1.361287e+000 -5.770584e+000 219 212 193
1.323786e+000 1.023058e+000 -5.494051e+000 134 122 92
4.071066e-001 1.706314e+000 -9.160813e+000 211 91 93
2.196255e+000 7.117011e-001 -4.829713e+000 245 180 133
2.088749e+000 2.802370e-001 -5.176952e+000 146 103 51
2.174224e+000 -4.419983e-002 -4.765121e+000 217 150 97
1.797833e-001 4.803360e-002 -5.837525e+000 226 222 212
2.191695e+000 -1.461832e-001 -4.769347e+000 212 132 68
-1.041452e+000 -1.259559e-001 -5.771917e+000 190 113 74
-1.051506e+000 -1.654566e-001 -5.813387e+000 211 122 78
2.182539e+000 -3.238959e-001 -4.710091e+000 105 82 68
-1.958421e+000 -2.331903e-001 -5.712553e+000 198 178 119
-1.432969e+000 -2.844802e-001 -5.606718e+000 124 87 72
-1.145427e-001 -2.748179e-001 -5.511265e+000 152 136 121
1.900134e+000 -4.695777e-001 -5.505353e+000 84 39 36
2.776137e+000 -4.712221e-001 -5.330008e+000 102 84 60
2.960922e+000 -4.175150e-001 -5.453140e+000 85 67 56
2.957327e+000 -5.004369e-001 -5.461567e+000 82 64 61
-3.205980e-002 -5.053066e-001 -5.799497e+000 102 86 71
-3.205980e-002 -5.053066e-001 -5.799497e+000 102 86 71
-1.246384e+000 -5.999874e-001 -5.481530e+000 144 77 46
-1.219931e+000 -8.037376e-001 -5.692462e+000 153 80 58
-8.732909e-001 -8.894570e-001 -5.791270e+000 151 71 48
-8.247303e-001 -9.097523e-001 -5.783370e+000 148 66 42
-8.509442e-001 -9.371237e-001 -5.789913e+000 126 50 31
1.804532e+000 -1.078732e+000 -5.604974e+000 70 83 64
1.801631e+000 -1.106076e+000 -5.621293e+000 191 191 174
1.846329e+000 -9.933922e-001 -5.544229e+000 208 203 198
-7.840978e-001 -1.155827e+000 -5.910997e+000 174 95 64
1.871476e+000 -1.196297e+000 -5.356782e+000 215 156 84
1.451661e+000 -1.682401e+000 -6.243757e+000 192 108 57
1.531736e+000 -1.697599e+000 -6.065818e+000 186 97 40
1.598518e+000 -1.654481e+000 -5.937494e+000 215 136 74
3.361517e+000 -2.123006e+000 -7.089723e+000 170 148 125
1.605488e+000 -1.814032e+000 -5.953763e+000 211 134 62
1.227618e+000 1.137601e+000 -5.096579e+000 180 168 118
4.025333e-001 1.743088e+000 -8.963677e+000 216 144 115
3.941876e-001 1.745076e+000 -9.157813e+000 216 150 115
2.857979e-001 1.604385e+000 -9.281065e+000 196 135 107
2.202012e+000 3.871567e-001 -4.777689e+000 243 171 121
2.939836e+000 5.217786e-001 -5.420728e+000 124 106 85
2.076499e+000 -1.773550e-002 -5.124955e+000 93 79 74
2.076499e+000 -1.773550e-002 -5.124955e+000 93 79 74
-1.315290e+000 -1.956610e-001 -5.664582e+000 144 88 72
2.947405e+000 -4.853600e-001 -5.461017e+000 44 29 33
-1.750011e+000 -3.576397e-001 -5.500122e+000 205 116 72
-1.378922e+000 -3.512347e-001 -5.542721e+000 203 163 120
-1.374701e+000 -4.967642e-001 -5.489075e+000 96 73 62
-1.658989e+000 -5.530051e-001 -5.440841e+000 172 83 52
-2.802577e-001 -6.719859e-001 -5.519652e+000 164 104 86
1.900601e+000 -7.218703e-001 -5.460347e+000 130 102 92
2.796417e+000 -6.727610e-001 -5.379815e+000 127 106 85
2.774614e+000 -7.390893e-001 -5.398827e+000 129 107 84
-1.062287e+000 -8.632025e-001 -5.766703e+000 184 94 60
-8.156554e-001 -9.523210e-001 -5.808739e+000 157 83 48
-8.176651e-001 -9.547753e-001 -5.845248e+000 157 83 48
-8.664308e-001 -1.072796e+000 -5.838039e+000 180 99 62
2.757903e+000 -1.205125e+000 -5.681404e+000 54 33 32
1.617311e+000 -1.526902e+000 -5.946194e+000 192 105 60
1.653437e+000 -1.532121e+000 -5.849279e+000 171 83 52
1.625301e+000 -1.589327e+000 -5.877424e+000 174 86 46
1.700294e+000 -1.572375e+000 -5.664696e+000 166 73 38
1.700294e+000 -1.572375e+000 -5.664696e+000 166 73 38
1.392337e+000 1.462964e+000 -5.633033e+000 193 180 127
2.019390e+000 -5.138208e-002 -5.264755e+000 145 56 56
2.059787e+000 -6.185502e-002 -5.170044e+000 228 221 219
1.926956e+000 -2.616650e-001 -5.450177e+000 197 178 182
-5.639374e-001 -3.585938e-001 -5.393524e+000 184 103 75
-2.025543e+000 -5.419023e-001 -5.682206e+000 66 49 34
-1.991773e+000 -5.434613e-001 -5.672532e+000 152 127 116
-2.169863e-001 -7.236308e-001 -5.703162e+000 135 90 78
2.119532e-002 -6.143717e-001 -6.019580e+000 121 105 90
2.621450e+000 -8.120267e-001 -5.305636e+000 87 55 39
2.621450e+000 -8.120267e-001 -5.305636e+000 87 55 39
-1.079599e+000 -7.575610e-001 -5.686445e+000 170 85 51
-1.142544e+000 -7.834804e-001 -5.694725e+000 146 59 36
-1.041659e+000 -8.165639e-001 -5.702441e+000 185 93 54
-6.172380e-001 -1.011784e+000 -5.928119e+000 180 59 54
3.184952e-001 -1.226479e+000 -7.738806e+000 210 204 194
1.756478e+000 -1.036616e+000 -5.720639e+000 57 42 35
1.710582e+000 -1.108577e+000 -5.666066e+000 59 50 37
8.690195e-001 -1.556991e+000 -7.059721e+000 223 210 203
1.711435e+000 -1.376532e+000 -5.726319e+000 213 207 189
1.395654e+000 -1.659771e+000 -6.296495e+000 107 43 33
1.576927e+000 -1.617677e+000 -5.991911e+000 166 74 41
1.329956e+000 -1.951408e+000 -6.445618e+000 140 81 41
1.392133e+000 -1.955446e+000 -6.419122e+000 146 91 50
2.919050e+000 6.106525e-001 -5.436963e+000 139 117 93
2.024126e+000 1.473132e-001 -5.312652e+000 99 62 56
1.989665e+000 -4.222346e-002 -5.378386e+000 213 186 190
-1.485099e+000 -3.211451e-002 -5.593289e+000 79 43 47
2.188074e+000 -3.553902e-001 -4.764179e+000 88 70 60
9.746633e-002 -5.013255e-001 -5.918254e+000 72 58 47
8.925697e-001 -6.529237e-001 -6.060194e+000 153 109 80
8.331174e-001 -7.554431e-001 -6.016934e+000 149 61 54
1.758916e+000 -1.082901e+000 -5.726815e+000 56 59 45
-4.820163e-001 -1.041739e+000 -5.740336e+000 210 197 181
1.186457e+000 -1.243635e+000 -6.145206e+000 208 146 99
1.758000e+000 -1.360584e+000 -5.624978e+000 218 206 204
1.868401e+000 -1.239323e+000 -5.366146e+000 208 150 66
1.519480e+000 -1.768250e+000 -6.042870e+000 184 82 52
1.168213e+000 2.427427e+000 -7.329350e+000 237 224 213
1.268790e+000 1.624617e+000 -5.999317e+000 180 171 129
3.070929e+000 4.958808e-001 -5.498779e+000 118 103 98
2.029564e+000 1.127126e-001 -5.330431e+000 201 176 173
2.543997e-001 -1.226103e-001 -5.744145e+000 215 215 206
2.543997e-001 -1.226103e-001 -5.744145e+000 215 215 206
-1.441386e+000 -6.100741e-001 -5.447820e+000 151 79 54
1.454640e+000 -6.712965e-001 -6.096226e+000 121 96 65
1.857950e+000 -6.729812e-001 -5.574348e+000 97 44 27
1.857950e+000 -6.729812e-001 -5.574348e+000 97 44 27
1.879026e+000 -8.548494e-001 -5.479311e+000 148 87 42
1.495358e+000 -1.313674e+000 -5.780294e+000 212 78 75
1.452475e+000 -1.832720e+000 -6.165080e+000 187 79 53
2.176232e+000 1.184184e+000 -5.057666e+000 174 92 49
2.171374e+000 4.593524e-003 -4.714562e+000 240 178 130
-1.495837e+000 -4.803855e-002 -5.616678e+000 100 63 63
-2.043272e+000 -4.548150e-001 -5.734978e+000 189 167 116
2.515484e+000 -6.410852e-001 -5.224584e+000 75 42 39
-9.657009e-001 -7.627575e-001 -5.697925e+000 159 72 42
4.118457e-001 -8.547730e-001 -5.960167e+000 172 160 146
9.818622e-001 -1.018588e+000 -6.126200e+000 187 165 144
-6.066173e-001 -1.103162e+000 -5.932125e+000 232 141 99
-4.696810e-001 -1.105295e+000 -5.835904e+000 116 53 43
1.825185e+000 -1.297918e+000 -5.452593e+000 163 83 62
1.466315e+000 -1.653113e+000 -6.213930e+000 192 117 50
1.620320e+000 -1.752366e+000 -5.785268e+000 178 74 58
1.788823e-001 1.267968e-002 -5.787970e+000 220 214 205
2.077730e+000 -3.514330e-001 -5.250071e+000 170 127 59
2.891709e+000 -5.503928e-001 -5.426387e+000 47 33 32
-3.471644e-001 -7.603136e-001 -5.572698e+000 204 154 109
1.167741e+000 -8.967504e-001 -5.960514e+000 230 179 129
1.646838e+000 -9.271179e-001 -5.646057e+000 203 71 66
-8.005201e-001 -9.240158e-001 -5.731533e+000 147 63 33
-1.984531e+000 -2.523464e-001 -5.741237e+000 219 199 137
-1.647480e+000 -4.424912e-001 -5.467421e+000 106 33 24
6.384405e-001 -5.695710e-001 -5.874058e+000 219 215 204
7.209562e-001 -8.021687e-001 -6.003304e+000 216 209 193
8.809511e-001 2.500620e+000 -7.916189e+000 207 85 89
2.050993e+000 -4.943293e-001 -5.284798e+000 116 74 25
1.272809e+000 1.188628e+000 -5.543817e+000 146 136 100
1.272809e+000 1.188628e+000 -5.543817e+000 146 136 100
1.009720e+000 -1.682855e+000 -6.708000e+000 235 227 216
2.327374e+000 -1.361182e-001 -5.243972e+000 209 125 62
3.801978e-001 -4.950616e-001 -5.944046e+000 159 148 139
7.865934e-001 -3.758145e-001 -5.767816e+000 225 218 210
-1.567707e+000 -5.728838e-001 -5.413533e+000 167 87 60
1.434557e+000 1.623794e+000 -5.624882e+000 178 165 119
2.187531e+000 1.053163e+000 -5.091118e+000 243 191 148
1.418134e+000 1.333023e+000 -5.700305e+000 162 149 105
1.346045e+000 1.129895e+000 -5.670599e+000 208 196 145
2.229728e+000 4.683798e-001 -4.862152e+000 221 144 99
2.960777e+000 5.497531e-001 -5.459227e+000 169 153 139
2.971775e+000 5.802421e-001 -5.446810e+000 147 130 120
3.033788e+000 5.468716e-001 -5.506469e+000 170 153 146
1.594679e+000 -1.682099e-002 -4.558541e+000 131 115 96
2.209913e+000 2.886797e-002 -4.772823e+000 211 136 81
2.174030e+000 -1.813335e-001 -4.802457e+000 229 177 136
1.968990e+000 -9.624414e-002 -5.436566e+000 122 82 79
2.109060e+000 -1.693480e-001 -5.200697e+000 163 130 87
2.190019e+000 -2.548027e-001 -4.800074e+000 217 159 105
2.048129e+000 -2.849107e-001 -5.290684e+000 124 86 67
2.082056e+000 -4.605640e-001 -4.634897e+000 229 186 149
2.157206e+000 -4.309848e-001 -4.787276e+000 243 190 148
2.225227e+000 -3.979214e-001 -4.832668e+000 139 115 104
-8.037771e-001 -5.534892e-002 -5.521540e+000 66 48 36
-5.003062e-001 -1.114323e-001 -5.561958e+000 206 200 188
8.031374e-001 -2.599158e-001 -5.692967e+000 205 198 188
1.935929e+000 -5.093379e-001 -5.493289e+000 132 92 84
1.864257e+000 -5.737870e-001 -5.602185e+000 107 54 52
1.945343e+000 -6.621329e-001 -5.324757e+000 116 69 64
1.994181e+000 -6.293563e-001 -5.351818e+000 130 98 91
2.924596e+000 -6.809534e-001 -5.507017e+000 79 61 57
-1.835874e+000 -2.177942e-001 -5.624178e+000 94 51 49
-1.072618e+000 -1.144939e-001 -5.845446e+000 199 120 78
-5.970667e-001 -3.404524e-001 -5.412348e+000 195 109 84
-5.409582e-001 -4.412389e-001 -5.384851e+000 188 108 78
-2.573449e-001 -4.190764e-001 -5.329994e+000 153 145 132
1.450837e-001 -3.235917e-001 -5.773716e+000 121 109 97
1.861195e+000 -5.858033e-001 -5.619844e+000 88 34 32
2.793460e+000 -8.268772e-001 -5.460510e+000 51 31 27
2.696442e+000 -8.967653e-001 -5.380069e+000 112 87 64
2.834384e+000 -8.544562e-001 -5.498012e+000 71 53 51
-1.739303e+000 -3.734480e-001 -5.493534e+000 217 128 83
-1.412308e+000 -3.066943e-001 -5.583788e+000 77 44 35
-1.397543e+000 -4.755822e-001 -5.481793e+000 220 202 194
8.186234e-002 -5.171287e-001 -5.941765e+000 76 60 45
2.743258e+000 -9.919660e-001 -5.336874e+000 102 88 79
-1.901498e+000 -4.790657e-001 -5.672500e+000 81 33 29
-1.699727e+000 -4.732877e-001 -5.455536e+000 170 90 68
-1.678518e+000 -4.921594e-001 -5.430279e+000 149 73 50
-1.673864e+000 -5.072175e-001 -5.428556e+000 207 126 96
-2.737427e-001 -7.283861e-001 -5.561486e+000 167 63 59
-2.506200e-001 -7.610044e-001 -5.558216e+000 155 120 108
1.804011e+000 -1.036338e+000 -5.659497e+000 170 178 160
1.801141e+000 -1.037143e+000 -5.652624e+000 170 178 160
2.706253e+000 -1.179400e+000 -5.574095e+000 48 29 24
-1.779005e+000 -6.371540e-001 -5.536267e+000 173 89 53
-1.629096e+000 -6.302065e-001 -5.439315e+000 175 88 55
8.047010e-001 -9.541219e-001 -5.945161e+000 181 79 72
8.281410e-001 -9.817352e-001 -6.131315e+000 180 72 67
1.777200e+000 -1.112394e+000 -5.667012e+000 143 153 125
1.804408e+000 -1.147608e+000 -5.601482e+000 133 138 104
1.804408e+000 -1.147608e+000 -5.601482e+000 133 138 104
1.807610e+000 -1.199768e+000 -5.657981e+000 119 125 100
-1.713426e+000 -7.649200e-001 -5.485127e+000 103 61 55
-1.689353e+000 -7.806963e-001 -5.506451e+000 86 47 42
1.734994e+000 -1.220816e+000 -5.745929e+000 74 87 57
1.721443e+000 -1.283465e+000 -5.730438e+000 192 196 173
1.733444e+000 -1.324601e+000 -5.680192e+000 211 224 198
1.733444e+000 -1.324601e+000 -5.680192e+000 211 224 198
1.753407e+000 -1.285135e+000 -5.649520e+000 189 207 181
1.802347e+000 -1.336680e+000 -5.448077e+000 210 131 78
1.800888e+000 -1.342283e+000 -5.488345e+000 203 130 75
-1.022740e+000 -1.084090e+000 -5.726486e+000 209 117 72
1.636712e+000 -1.467833e+000 -5.916812e+000 148 55 42
1.724975e+000 -1.405917e+000 -5.666839e+000 212 210 204
1.758955e+000 -1.454572e+000 -5.593428e+000 209 132 74
1.788643e+000 -1.449177e+000 -5.465103e+000 187 167 166
1.808739e+000 -1.439335e+000 -5.419859e+000 119 97 96
1.808739e+000 -1.439335e+000 -5.419859e+000 119 97 96
1.799318e+000 -1.449499e+000 -5.445353e+000 90 77 67
1.774103e+000 -1.509866e+000 -5.444870e+000 224 203 201
1.771989e+000 -1.520307e+000 -5.509268e+000 216 197 194
1.771989e+000 -1.520307e+000 -5.509268e+000 216 197 194
-9.101916e-001 -1.241070e+000 -6.151290e+000 174 95 66
1.570644e+000 -1.568327e+000 -6.060898e+000 172 83 49
1.765199e+000 -1.531488e+000 -5.507298e+000 78 67 59
1.756506e+000 -1.567674e+000 -5.501928e+000 122 108 109
1.728407e+000 -1.610453e+000 -5.564061e+000 115 96 92
1.085442e+000 -1.557709e+000 -6.135198e+000 211 191 170
1.085442e+000 -1.557709e+000 -6.135198e+000 211 191 170
1.430513e+000 -1.715894e+000 -6.270182e+000 190 100 55
1.551385e+000 -1.739614e+000 -5.989763e+000 201 113 48
1.681331e+000 -1.687959e+000 -5.664883e+000 216 195 180
1.693307e+000 -1.671489e+000 -5.625747e+000 229 210 200
1.659759e+000 -1.739088e+000 -5.660543e+000 208 195 193
1.677155e+000 -1.732281e+000 -5.659240e+000 199 193 189
1.528797e+000 -1.888577e+000 -5.997873e+000 214 125 63
1.564494e+000 -1.924035e+000 -5.685052e+000 202 128 73
1.478828e+000 -1.967076e+000 -6.006822e+000 207 108 61
1.539223e+000 -1.955770e+000 -5.888386e+000 140 118 118
1.550719e+000 -1.949945e+000 -5.856672e+000 226 211 202
1.698643e+000 1.675126e+000 -5.601327e+000 243 236 225
1.346191e+000 1.157955e+000 -5.674409e+000 164 152 109
1.330260e+000 1.095119e+000 -5.743829e+000 204 191 147
2.035339e+000 1.958877e-001 -5.357476e+000 127 95 86
2.035339e+000 1.958877e-001 -5.357476e+000 127 95 86
2.104818e+000 2.861692e-001 -5.277146e+000 157 126 114
3.055838e+000 1.955305e-001 -5.555662e+000 130 113 107
2.194502e+000 -1.071525e-001 -4.829511e+000 255 229 185
2.187312e+000 -1.349673e-001 -4.786272e+000 248 220 174
2.187512e+000 -1.747054e-001 -4.771184e+000 215 140 87
2.205539e+000 -2.228541e-001 -4.798598e+000 225 181 151
2.168792e+000 -2.483092e-001 -4.753270e+000 211 135 85
1.951075e+000 -1.259962e-001 -5.423525e+000 98 52 49
2.187937e+000 -2.735969e-001 -4.779057e+000 230 207 173
2.164193e+000 -3.984433e-001 -4.787038e+000 232 182 149
2.134164e+000 -5.567137e-001 -4.800735e+000 213 152 99
2.796222e+000 -5.760332e-001 -5.359993e+000 147 125 101
-9.090866e-001 -9.469089e-002 -5.538106e+000 192 184 168
-8.262667e-001 -7.003244e-002 -5.484620e+000 184 166 138
-1.530420e-001 -2.332662e-001 -5.556242e+000 127 113 98
1.426436e+000 -3.407269e-001 -6.149728e+000 115 79 60
1.893518e+000 -5.601587e-001 -5.507469e+000 106 37 39
1.968770e+000 -6.289169e-001 -5.364080e+000 122 52 51
-1.428162e+000 -2.889707e-001 -5.586062e+000 131 98 83
-1.313962e+000 -2.792721e-001 -5.588140e+000 88 59 55
-1.215698e+000 -2.295579e-001 -5.664738e+000 183 116 87
1.311413e+000 -5.416750e-001 -5.972212e+000 74 46 34
2.707908e+000 -7.819164e-001 -5.413925e+000 72 39 27
-1.644201e+000 -2.987537e-001 -5.473793e+000 176 94 63
-1.433235e+000 -3.278442e-001 -5.539754e+000 109 69 53
-1.125978e+000 -3.863076e-001 -5.752988e+000 107 43 23
-2.902872e-001 -5.875925e-001 -5.351755e+000 189 177 166
5.418309e-001 -5.726265e-001 -6.018022e+000 176 166 157
2.723757e+000 -9.469837e-001 -5.380185e+000 99 75 53
-1.982007e+000 -3.592368e-001 -5.692885e+000 180 155 117
-1.991884e+000 -3.872059e-001 -5.695570e+000 187 163 120
6.925894e-001 -6.990471e-001 -6.023418e+000 202 181 167
2.756684e+000 -1.084425e+000 -5.581122e+000 63 37 29
2.821468e+000 -1.099786e+000 -5.632756e+000 68 34 25
2.941652e+000 -1.129520e+000 -5.724919e+000 61 31 31
-1.853780e+000 -5.740973e-001 -5.530681e+000 121 76 68
-1.733209e+000 -7.247548e-001 -5.528299e+000 189 114 72
-1.412833e+000 -7.566301e-001 -5.530954e+000 108 46 31
1.715650e+000 -1.078052e+000 -5.841275e+000 64 35 26
1.796451e+000 -1.088206e+000 -5.645115e+000 90 106 76
1.802177e+000 -1.105733e+000 -5.624772e+000 208 216 194
1.801560e+000 -1.214753e+000 -5.570922e+000 92 109 82
-1.099372e+000 -8.514194e-001 -5.703249e+000 186 95 60
-1.081717e+000 -9.319562e-001 -5.729503e+000 205 115 78
-1.049468e+000 -9.174547e-001 -5.729042e+000 199 109 72
-8.580338e-001 -8.736688e-001 -5.772150e+000 135 54 27
-7.566948e-001 -9.450337e-001 -5.792800e+000 147 69 51
-6.592898e-002 -9.225662e-001 -6.201477e+000 130 99 83
1.743261e+000 -1.273667e+000 -5.669898e+000 209 215 176
1.837185e+000 -1.300578e+000 -5.397678e+000 202 135 58
1.827949e+000 -1.388065e+000 -5.428863e+000 217 155 62
-9.429239e-001 -1.027781e+000 -5.813075e+000 171 80 48
-1.002359e+000 -1.224168e+000 -5.864129e+000 165 106 88
-1.000494e+000 -1.225399e+000 -5.847448e+000 165 106 88
-6.553409e-001 -1.208538e+000 -5.944964e+000 151 81 59
-6.142635e-001 -1.242601e+000 -5.950617e+000 133 58 41
1.726539e+000 -1.640363e+000 -5.545132e+000 226 201 198
1.353246e+000 -1.664954e+000 -6.334358e+000 91 36 29
1.607823e+000 -1.864805e+000 -5.746531e+000 226 211 200
1.595700e+000 -1.886723e+000 -5.765568e+000 232 208 204
1.587869e+000 -1.908336e+000 -5.782523e+000 223 188 170
1.582106e+000 -1.923364e+000 -5.791373e+000 192 107 70
1.582106e+000 -1.923364e+000 -5.791373e+000 192 107 70
2.141266e+000 9.786571e-001 -5.249019e+000 121 59 48
2.234294e+000 5.124665e-001 -4.886009e+000 227 148 106
3.129625e+000 4.807088e-001 -5.605292e+000 158 138 133
3.058889e+000 3.577171e-001 -5.492862e+000 157 142 137
2.186674e+000 -9.664998e-002 -4.764779e+000 252 224 191
1.362764e+000 2.386239e-001 -5.571064e+000 219 215 203
1.362764e+000 2.386239e-001 -5.571064e+000 219 215 203
2.861733e+000 -5.987745e-001 -5.434780e+000 68 44 33
-5.127278e-001 -4.153816e-001 -5.406288e+000 215 161 122
-5.127278e-001 -4.153816e-001 -5.406288e+000 215 161 122
6.140956e-002 -3.494658e-001 -5.853092e+000 59 44 37
1.641963e-001 -3.197447e-001 -5.773969e+000 145 135 122
1.982861e+000 -6.992832e-001 -5.451494e+000 109 40 32
2.776236e+000 -7.691720e-001 -5.410351e+000 139 117 96
-1.600413e+000 -3.440288e-001 -5.452033e+000 147 76 58
-1.562086e+000 -3.282782e-001 -5.425385e+000 142 72 57
3.865327e-001 -4.924957e-001 -5.984401e+000 156 148 133
6.838095e-001 -6.480330e-001 -5.995653e+000 190 76 69
7.762138e-001 -5.848072e-001 -5.850603e+000 192 76 75
-2.032158e+000 -4.081603e-001 -5.672492e+000 82 59 27
-1.877804e+000 -5.076563e-001 -5.548098e+000 127 75 70
-1.877804e+000 -5.076563e-001 -5.548098e+000 127 75 70
-6.573800e-002 -6.754078e-001 -5.850586e+000 110 90 73
6.708203e-001 -7.433051e-001 -5.955254e+000 182 165 148
1.781117e+000 -9.827598e-001 -5.805299e+000 80 51 45
2.773798e+000 -1.179869e+000 -5.638506e+000 69 33 26
-2.060372e+000 -5.641253e-001 -5.696971e+000 73 58 41
-1.880460e+000 -5.965061e-001 -5.572682e+000 136 119 120
-1.711103e+000 -6.742399e-001 -5.490364e+000 215 123 86
-1.681572e+000 -7.387065e-001 -5.515244e+000 194 119 88
1.796836e+000 -1.054846e+000 -5.646391e+000 78 89 72
1.796836e+000 -1.054846e+000 -5.646391e+000 78 89 72
-1.156890e+000 -8.307007e-001 -5.667063e+000 151 72 42
-7.895436e-001 -9.224849e-001 -5.783507e+000 173 90 59
1.155093e+000 -1.159606e+000 -6.052666e+000 230 188 133
-8.682492e-001 -1.096761e+000 -5.794283e+000 161 71 38
-8.682492e-001 -1.096761e+000 -5.794283e+000 161 71 38
1.702033e+000 -1.497014e+000 -5.758384e+000 141 60 53
1.459608e+000 -1.706212e+000 -6.209890e+000 176 82 45
1.473248e+000 -1.694525e+000 -6.186463e+000 217 133 73
1.611694e+000 -1.808772e+000 -5.850081e+000 173 85 63
1.616084e+000 1.688715e+000 -5.742670e+000 228 219 203
2.946297e+000 6.837351e-001 -5.504876e+000 155 133 111
2.110090e+000 3.435880e-001 -5.269818e+000 148 110 89
3.132548e+000 4.824839e-001 -5.610623e+000 158 137 132
3.143956e+000 4.462190e-001 -5.578574e+000 170 149 143
2.185812e+000 -1.637068e-001 -4.806345e+000 253 239 208
2.185812e+000 -1.637068e-001 -4.806345e+000 253 239 208
2.180623e+000 -2.179913e-001 -4.817218e+000 254 249 230
1.326861e+000 6.932829e-002 -5.306356e+000 221 213 202
1.306436e+000 -4.812208e-001 -4.483394e+000 71 52 35
-4.981092e-001 2.672021e-002 -5.610122e+000 209 209 197
-8.358151e-001 -1.027712e-001 -5.467869e+000 213 191 151
-3.417675e-001 -3.329789e-001 -5.334599e+000 174 164 154
-2.605534e-002 -1.901611e-001 -5.630509e+000 145 132 120
2.804408e+000 -6.351827e-001 -5.399614e+000 82 60 39
2.813946e+000 -7.033826e-001 -5.445283e+000 81 57 34
-1.540924e+000 -2.995039e-001 -5.486218e+000 128 65 50
-5.097229e-001 -3.932427e-001 -5.395862e+000 171 77 59
6.991937e-002 -3.749021e-001 -5.926782e+000 50 40 30
-1.890075e+000 -3.794831e-001 -5.603670e+000 111 62 56
-1.295741e+000 -3.258496e-001 -5.544727e+000 214 184 139
-2.698295e-001 -6.053102e-001 -5.384659e+000 186 172 159
1.885493e+000 -1.002199e+000 -5.485060e+000 216 165 75
-1.886754e+000 -5.780751e-001 -5.564929e+000 70 31 27
-1.577051e+000 -7.436903e-001 -5.495979e+000 166 94 65
-1.017272e-001 -8.539553e-001 -6.032677e+000 120 101 86
-7.268988e-002 -8.719019e-001 -6.030723e+000 152 136 123
1.843263e+000 -1.121565e+000 -5.589100e+000 74 92 65
1.677116e+000 -1.180360e+000 -5.846449e+000 60 41 32
1.738372e+000 -1.257738e+000 -5.713890e+000 83 97 65
8.669289e-001 -1.410654e+000 -6.949721e+000 202 189 172
1.481785e+000 -1.566303e+000 -6.081639e+000 119 46 37
1.558130e+000 -1.546028e+000 -6.039348e+000 179 87 56
1.540057e+000 -1.564809e+000 -6.062909e+000 147 64 50
1.589396e+000 -1.614740e+000 -5.931418e+000 225 158 79
1.425458e+000 -1.627084e+000 -6.216933e+000 109 39 26
1.464133e+000 -1.597315e+000 -6.161112e+000 116 43 28
1.597412e+000 -1.641164e+000 -5.860907e+000 194 105 60
1.649729e+000 -1.743770e+000 -5.648204e+000 230 214 197
1.662577e+000 -1.760359e+000 -5.671677e+000 232 205 176
1.662577e+000 -1.760359e+000 -5.671677e+000 232 205 176
1.344746e+000 -1.876142e+000 -6.381147e+000 146 88 62
1.624560e+000 -1.867351e+000 -5.707021e+000 174 100 70
1.607992e+000 -1.909567e+000 -5.762515e+000 165 89 73
1.617291e+000 1.727747e+000 -5.739706e+000 134 120 103
1.256347e+000 7.207164e-001 -5.653065e+000 243 240 232
3.223309e+000 4.903052e-001 -5.627439e+000 126 106 99
5.735602e-001 1.820194e+000 -8.403084e+000 194 88 88
2.080758e+000 -8.190613e-002 -5.200101e+000 88 81 78
1.978647e+000 -3.345755e-001 -5.331963e+000 102 60 38
2.985470e+000 -4.033055e-001 -5.485025e+000 74 56 54
1.009640e-001 5.529343e-002 -5.904846e+000 181 177 165
-6.631083e-001 -2.183371e-001 -5.484350e+000 208 154 118
-2.942351e-001 -1.715579e-001 -5.493519e+000 158 149 140
-1.810811e+000 -1.552226e-001 -5.636155e+000 70 35 33
-1.756139e+000 -2.218114e-001 -5.562988e+000 81 39 35
6.651322e-001 -4.323701e-001 -5.858556e+000 224 220 208
6.651322e-001 -4.323701e-001 -5.858556e+000 224 220 208
1.954292e+000 -6.980667e-001 -5.260173e+000 143 113 102
2.810683e+000 -8.196863e-001 -5.471081e+000 48 33 33
2.587818e+000 -8.516364e-001 -5.338272e+000 62 30 20
2.703570e+000 -8.558750e-001 -5.414785e+000 85 53 40
1.441993e-001 -5.096841e-001 -5.969348e+000 89 77 55
8.144499e-001 -5.914270e-001 -5.908471e+000 75 66 55
8.331486e-001 -6.123209e-001 -5.982099e+000 166 127 93
8.331486e-001 -6.123209e-001 -5.982099e+000 166 127 93
5.179498e-001 -7.025316e-001 -6.031356e+000 171 161 149
-1.740435e+000 -7.465619e-001 -5.496106e+000 62 32 36
-1.683114e+000 -6.623431e-001 -5.473637e+000 189 91 55
5.083506e-001 -8.257730e-001 -5.931438e+000 222 216 207
1.868578e+000 -1.144549e+000 -5.401707e+000 230 181 89
-1.653154e+000 -7.990699e-001 -5.527845e+000 176 102 68
-1.688772e+000 -8.468385e-001 -5.501374e+000 127 111 111
-5.967165e-001 -9.747569e-001 -5.886513e+000 61 32 32
-6.144618e-001 -1.011563e+000 -5.907281e+000 197 68 63
1.363113e+000 -1.305234e+000 -5.878208e+000 234 160 135
1.363113e+000 -1.305234e+000 -5.878208e+000 234 160 135
1.780274e+000 -1.396292e+000 -5.500393e+000 163 74 50
1.632192e+000 -1.644900e+000 -5.861861e+000 230 168 81
1.636948e+000 -1.693759e+000 -5.707397e+000 243 191 110
1.528870e+000 -1.898951e+000 -5.929797e+000 213 104 65
1.367173e+000 -1.933285e+000 -6.305866e+000 149 88 45
1.448960e+000 -1.928005e+000 -6.136141e+000 180 82 44
1.502466e+000 -1.924807e+000 -5.970871e+000 241 186 97
2.052822e+000 2.271531e-001 -5.357931e+000 136 100 91
1.997644e+000 1.034062e-001 -5.376418e+000 93 42 42
-8.179157e-001 -3.452566e-002 -5.474338e+000 132 61 58
2.723540e+000 -5.789314e-001 -5.351967e+000 70 35 31
-1.416252e+000 -7.981484e-002 -5.582987e+000 80 49 45
-9.227987e-001 -1.219588e-001 -5.536385e+000 79 77 85
-1.360475e+000 -1.804056e-001 -5.686104e+000 107 51 40
2.564192e+000 -8.199583e-001 -5.329798e+000 80 63 55
2.721969e+000 -9.083378e-001 -5.398563e+000 162 139 113
2.939479e+000 -8.095296e-001 -5.554341e+000 66 40 37
2.107821e-001 -4.723904e-001 -6.014852e+000 63 49 41
3.443678e-001 -4.714585e-001 -5.965219e+000 64 44 38
6.293598e-001 -6.096728e-001 -5.991110e+000 212 205 190
-8.614370e-001 -6.461110e-001 -5.714585e+000 138 77 51
1.283650e+000 -8.319255e-001 -6.043619e+000 207 152 103
2.777490e+000 -1.131536e+000 -5.630775e+000 39 22 20
8.750413e-001 -9.716653e-001 -6.129045e+000 176 163 147
2.806871e+000 -1.208474e+000 -5.688439e+000 83 54 29
2.913608e+000 -1.250310e+000 -5.748198e+000 80 65 61
-7.002450e-001 -8.870685e-001 -5.833310e+000 114 52 40
1.625704e+000 -1.268383e+000 -5.899786e+000 88 45 43
1.828336e+000 -1.412973e+000 -5.406782e+000 224 183 129
3.514905e-001 -1.181670e+000 -7.551257e+000 227 218 211
3.514905e-001 -1.181670e+000 -7.551257e+000 227 218 211
1.705461e+000 -1.525878e+000 -5.639878e+000 172 87 59
1.506631e+000 -1.601019e+000 -6.123243e+000 215 147 72
1.457894e+000 -1.955637e+000 -6.059136e+000 235 198 102
1.457894e+000 -1.955637e+000 -6.059136e+000 235 198 102
1.485402e+000 -1.958888e+000 -5.997452e+000 224 128 80
7.601542e-001 2.503584e+000 -8.144958e+000 226 223 222
1.503761e+000 4.948111e-001 -5.479582e+000 225 221 206
1.925200e+000 -3.431972e-001 -5.512333e+000 147 103 98
1.983555e+000 -4.654903e-001 -5.343326e+000 138 109 110
2.091378e+000 -4.365976e-001 -5.214496e+000 143 96 27
3.622010e-002 -1.340390e-001 -5.673660e+000 189 185 174
-1.478922e+000 -1.005563e-001 -5.641771e+000 205 196 197
-1.478922e+000 -1.005563e-001 -5.641771e+000 205 196 197
-4.804534e-001 -4.587632e-001 -5.356126e+000 237 203 153
7.327111e-002 -3.887010e-001 -5.788794e+000 65 54 45
-9.943369e-001 -4.417573e-001 -5.608550e+000 140 68 43
2.674819e-001 -4.720330e-001 -6.136991e+000 80 65 58
1.008964e+000 -7.742780e-001 -6.082294e+000 90 46 40
-4.711468e-001 -1.185941e+000 -5.923263e+000 192 112 71
1.531482e+000 -1.541198e+000 -6.088058e+000 121 45 37
9.887288e-001 1.492330e+000 -6.679558e+000 230 227 218
5.576569e-001 2.668342e-001 -5.813068e+000 245 244 239
-7.600608e-001 -2.167623e-001 -5.504960e+000 187 133 95
-1.043294e+000 -2.665587e-001 -5.674771e+000 165 62 36
-7.260017e-001 -2.880926e-001 -5.514356e+000 228 182 133
-7.260017e-001 -2.880926e-001 -5.514356e+000 228 182 133
-1.141508e+000 -4.204538e-001 -5.493139e+000 172 132 97
-9.070562e-001 -5.840145e-001 -5.691994e+000 135 79 54
-3.560010e-001 -7.568274e-001 -5.626138e+000 204 155 108
-1.693376e-001 -6.578278e-001 -5.515328e+000 139 120 106
-1.466671e-001 -7.186992e-001 -5.668524e+000 126 53 47
6.493715e-001 -6.611500e-001 -6.018169e+000 69 47 42
-1.694877e+000 -7.122322e-001 -5.488293e+000 198 114 78
-1.454708e+000 -6.726336e-001 -5.464009e+000 106 46 32
-1.454708e+000 -6.726336e-001 -5.464009e+000 106 46 32
-1.359862e+000 -7.147644e-001 -5.574399e+000 120 61 42
-1.380951e-001 -7.795581e-001 -5.780825e+000 126 100 81
-7.368364e-002 -8.103231e-001 -5.891754e+000 111 90 79
1.479559e+000 -9.887924e-001 -6.028646e+000 150 42 40
-1.702360e+000 -7.853428e-001 -5.534069e+000 82 43 36
2.121614e-001 -1.059606e+000 -7.427747e+000 203 192 180
1.322226e+000 -1.362017e+000 -5.984164e+000 235 183 138
1.477750e+000 -1.445052e+000 -5.912576e+000 210 68 64
1.672884e+000 -1.369108e+000 -5.799994e+000 145 143 131
-6.939494e-001 -1.160066e+000 -5.911947e+000 126 56 38
-6.939494e-001 -1.160066e+000 -5.911947e+000 126 56 38
2.427734e-001 -1.138338e+000 -7.570072e+000 241 238 226
1.628603e+000 -1.679400e+000 -5.745944e+000 230 176 90
8.719007e-001 -2.014634e+000 -7.187243e+000 137 67 57
5.093816e-001 2.075105e+000 -8.156775e+000 222 222 218
1.498517e+000 1.930941e-001 -5.425000e+000 225 219 206
1.498517e+000 1.930941e-001 -5.425000e+000 225 219 206
2.237025e+000 -2.713135e-001 -5.059654e+000 205 125 60
1.928533e+000 -1.854447e-001 -5.468570e+000 89 39 40
-1.132839e-001 -2.051850e-001 -5.538530e+000 116 99 84
1.482025e+000 -2.846253e-001 -5.992144e+000 153 108 78
-1.127094e+000 -1.627145e-001 -5.800859e+000 213 209 208
-8.931973e-002 -3.956283e-001 -5.600354e+000 138 123 103
2.920620e+000 -8.514158e-001 -5.604671e+000 48 29 29
8.253463e-001 -5.487953e-001 -5.911739e+000 161 65 55
-6.272890e-001 -5.936130e-001 -5.656869e+000 205 158 112
-6.272890e-001 -5.936130e-001 -5.656869e+000 205 158 112
4.270818e-001 -7.316776e-001 -6.031190e+000 161 149 137
1.628039e+000 -9.307440e-001 -5.607434e+000 211 69 66
-3.796712e-001 -7.677427e-001 -5.616548e+000 214 165 120
9.769754e-001 -8.657528e-001 -6.035259e+000 243 202 152
1.265668e+000 -1.006182e+000 -5.992470e+000 110 40 33
1.667056e+000 -1.242798e+000 -5.840951e+000 59 42 34
7.521555e-001 -1.355166e+000 -6.828640e+000 221 206 196
1.445362e+000 1.278921e+000 -5.538661e+000 120 110 88
2.068395e+000 -1.873056e-001 -5.044042e+000 211 164 83
-7.918679e-001 -3.833382e-002 -5.488604e+000 157 76 69
-4.392180e-001 -1.912880e-001 -5.365781e+000 176 168 157
5.103132e-001 -3.403390e-001 -5.815710e+000 190 183 173
1.381085e+000 -8.426034e-001 -6.051849e+000 98 34 32
1.271476e+000 -1.037565e+000 -5.903734e+000 114 42 34
-9.822693e-001 -1.098942e+000 -5.852737e+000 128 49 37
1.552096e+000 -1.846646e+000 -5.822955e+000 222 150 81
1.552096e+000 -1.846646e+000 -5.822955e+000 222 150 81
6.839785e-001 -1.945345e+000 -7.332933e+000 215 80 84
1.659235e+000 1.918854e+000 -6.049647e+000 119 102 86
1.586416e+000 1.482810e+000 -5.602133e+000 248 241 231
2.233067e+000 1.064307e+000 -5.182467e+000 192 112 68
