ply
format ascii 1.0
element face 0
property list uchar int vertex_indices
element vertex 868
property float x
property float y
property float z
property uchar diffuse_red
property uchar diffuse_green
property uchar diffuse_blue
end_header
2.110842e+000 -6.871148e-001 -4.820168e+000 106 84 72
8.166232e-001 2.582801e+000 -8.345241e+000 186 120 78
1.945450e+000 -6.150535e-001 -5.327081e+000 143 111 105
1.920259e+000 -6.023027e-001 -5.412176e+000 117 41 45
2.616528e+000 -7.239490e-001 -5.309733e+000 70 44 37
2.616528e+000 -7.239490e-001 -5.309733e+000 70 44 37
1.917321e+000 -6.932375e-001 -5.398600e+000 129 87 81
2.676713e+000 -9.387896e-001 -5.379322e+000 105 81 56
1.780411e+000 -7.182709e-001 -5.782004e+000 77 30 31
2.703041e+000 -1.068272e+000 -5.511996e+000 117 105 99
7.889249e-001 -5.817362e-001 -5.869193e+000 190 73 65
1.860017e+000 -9.871455e-001 -5.512318e+000 195 129 55
2.280814e+000 -1.286477e+000 -5.406538e+000 76 51 39
-1.307058e+000 -3.165055e-001 -5.600479e+000 67 44 38
1.780631e+000 -9.661377e-001 -5.818020e+000 89 59 54
1.794437e+000 -1.169249e+000 -5.553437e+000 104 115 87
-1.390647e+000 -5.860408e-001 -5.497602e+000 77 58 48
-1.324711e+000 -5.312281e-001 -5.500015e+000 99 69 57
-1.873454e-001 -7.111703e-001 -5.649184e+000 137 89 74
1.741273e+000 -1.180885e+000 -5.778311e+000 72 92 58
1.741273e+000 -1.180885e+000 -5.778311e+000 72 92 58
-1.969285e+000 -3.535023e-001 -5.745345e+000 165 149 97
-1.927619e+000 -4.313738e-001 -5.684063e+000 187 156 116
-6.822581e-001 -8.570068e-001 -5.593425e+000 163 92 54
3.367929e-001 -8.216618e-001 -6.037021e+000 174 166 154
1.175677e+000 -1.178711e+000 -6.020846e+000 223 174 117
1.175677e+000 -1.178711e+000 -6.020846e+000 223 174 117
1.661790e+000 -1.228375e+000 -5.932746e+000 114 80 72
1.669124e+000 -1.308634e+000 -5.899735e+000 126 98 94
-1.537467e+000 -7.923158e-001 -5.639638e+000 154 78 52
-1.483305e+000 -7.954127e-001 -5.600321e+000 149 74 43
-1.558566e+000 -8.777699e-001 -5.573942e+000 153 73 36
-1.198037e+000 -8.637677e-001 -5.775559e+000 130 62 43
-1.009765e+000 -9.628430e-001 -5.776520e+000 212 114 76
1.635165e+000 -1.588439e+000 -5.859594e+000 224 141 69
1.713804e+000 -1.659610e+000 -5.702450e+000 224 206 187
1.612365e+000 -1.788615e+000 -5.878237e+000 174 77 67
1.584881e+000 -1.838441e+000 -5.925656e+000 216 133 60
-7.546080e-001 -1.197192e+000 -6.121188e+000 190 99 62
9.122880e-001 -1.338451e+000 -7.070664e+000 203 194 177
1.568938e+000 -1.978389e+000 -5.893160e+000 238 183 90
1.645217e+000 -2.033786e+000 -5.576139e+000 255 226 187
8.584966e-001 -1.547083e+000 -7.056088e+000 163 84 86
1.425340e+000 -1.837588e+000 -6.309460e+000 174 91 47
1.463620e+000 -1.973734e+000 -6.164688e+000 207 139 50
1.483628e+000 -2.040767e+000 -6.130820e+000 241 219 198
1.352790e+000 -2.012319e+000 -6.516154e+000 202 159 80
1.284437e+000 -2.065283e+000 -6.748663e+000 202 129 76
1.280050e+000 -2.041528e+000 -6.619229e+000 129 64 44
1.300343e+000 -2.141342e+000 -6.516475e+000 235 176 99
1.359733e+000 -2.222519e+000 -6.336869e+000 235 219 214
9.616853e-001 -2.007536e+000 -7.265829e+000 206 137 76
1.136672e+000 -2.115462e+000 -7.087151e+000 229 151 97
1.186947e+000 -2.122799e+000 -6.919733e+000 198 113 79
1.269501e+000 -2.135085e+000 -6.758414e+000 187 110 86
1.226881e+000 -2.251616e+000 -6.656421e+000 210 136 87
1.298527e+000 -2.314487e+000 -6.432663e+000 233 173 94
1.298527e+000 -2.314487e+000 -6.432663e+000 233 173 94
2.942703e+000 7.125697e-001 -5.483009e+000 165 149 133
2.015793e+000 1.918685e-001 -5.318958e+000 136 100 88
2.592684e+000 -7.353819e-001 -5.313795e+000 94 64 62
2.567897e+000 -8.710818e-001 -5.289265e+000 161 135 120
-2.247919e-001 -1.510590e-001 -5.531875e+000 204 197 187
3.895142e-001 -1.042934e-001 -5.730784e+000 204 202 189
-1.997172e-001 -2.472786e-001 -5.468291e+000 141 133 123
1.757590e+000 -6.594953e-001 -5.663170e+000 83 39 32
-1.495864e+000 -8.130358e-002 -5.613102e+000 197 189 187
-1.511116e+000 -1.085894e-001 -5.632102e+000 94 48 49
2.824041e-002 -3.491707e-001 -5.826584e+000 95 76 62
1.614587e+000 -8.435283e-001 -5.783632e+000 116 31 28
1.866904e+000 -1.007276e+000 -5.475834e+000 218 169 76
1.165478e-001 -5.026046e-001 -5.933239e+000 69 53 36
6.596711e-001 -6.454908e-001 -5.963788e+000 148 59 55
7.272760e-001 -6.285339e-001 -5.953293e+000 199 78 76
1.132040e+000 -6.917853e-001 -6.020410e+000 184 114 63
1.845176e+000 -1.252470e+000 -5.419148e+000 235 182 88
-1.711369e+000 -5.106159e-001 -5.479818e+000 223 122 77
-1.646404e+000 -5.255462e-001 -5.485993e+000 236 150 110
-1.485894e-001 -7.601995e-001 -5.699908e+000 131 98 81
6.886023e-001 -7.827681e-001 -5.997185e+000 225 214 198
2.028395e+000 -1.427726e+000 -5.439001e+000 196 130 70
-1.933059e+000 -3.403109e-001 -5.733464e+000 204 181 129
-1.427836e+000 -8.293905e-001 -5.619259e+000 141 68 46
-1.067133e+000 -8.166470e-001 -5.718906e+000 192 99 66
-8.955502e-001 -8.837095e-001 -5.779750e+000 132 49 31
-6.110006e-001 -9.301485e-001 -5.913310e+000 113 57 46
6.464985e-002 -8.833410e-001 -6.148964e+000 145 127 116
1.645585e+000 -1.451755e+000 -5.933575e+000 151 54 46
1.530345e+000 -1.809763e+000 -6.094326e+000 237 163 69
1.610451e+000 -1.988464e+000 -6.004595e+000 208 121 50
1.316312e+000 -2.094823e+000 -6.484232e+000 225 179 68
1.238743e+000 -2.140442e+000 -6.741005e+000 219 147 105
9.192509e-001 -2.106250e+000 -7.422901e+000 165 85 73
9.610309e-001 -2.089974e+000 -7.299537e+000 157 60 56
1.278156e+000 7.541700e-001 -5.721471e+000 244 240 229
2.140128e+000 -5.340446e-001 -4.782173e+000 110 85 74
2.140128e+000 -5.340446e-001 -4.782173e+000 110 85 74
2.120169e+000 -6.510038e-001 -4.808861e+000 90 71 58
3.022752e+000 -3.426266e-001 -5.513347e+000 140 129 123
7.846117e-001 1.211838e+000 -6.802398e+000 222 219 210
2.026057e+000 -6.548535e-001 -5.269141e+000 153 103 43
2.548193e+000 -8.315739e-001 -5.324206e+000 91 70 67
2.548193e+000 -8.315739e-001 -5.324206e+000 91 70 67
1.887416e+000 -5.986294e-001 -5.498413e+000 118 44 41
-5.501359e-001 -5.042676e-001 -5.449273e+000 200 105 62
1.309739e-001 -3.594101e-001 -5.827448e+000 114 99 89
-1.148898e+000 -4.480835e-001 -5.496437e+000 173 125 89
1.466523e+000 -7.351462e-001 -6.134546e+000 102 69 42
1.594899e+000 -8.453509e-001 -5.977514e+000 196 62 59
2.202945e-002 -6.647243e-001 -5.910578e+000 116 99 84
-1.547608e+000 -8.537473e-001 -5.560467e+000 134 57 32
-1.553398e+000 -8.343037e-001 -5.595920e+000 134 57 32
-1.374762e+000 -8.119746e-001 -5.603139e+000 120 49 28
1.503386e+000 -1.342565e+000 -5.913617e+000 214 69 66
1.677116e+000 -1.500479e+000 -5.795948e+000 228 166 78
-1.221138e+000 -8.628707e-001 -5.823286e+000 146 80 59
-5.801197e-001 -1.042403e+000 -5.969329e+000 97 36 28
1.648486e+000 -1.612577e+000 -5.842622e+000 211 91 63
1.666616e+000 -1.735426e+000 -5.724609e+000 226 207 177
1.676439e+000 -1.769738e+000 -5.695872e+000 185 81 57
-9.203312e-001 -1.127157e+000 -6.013899e+000 207 119 79
1.205558e-001 -7.424047e-001 -7.201038e+000 185 174 161
-7.903571e-001 -1.224056e+000 -6.237405e+000 169 90 60
1.433840e+000 -1.986044e+000 -6.239620e+000 207 120 46
3.484574e-001 -1.184044e+000 -7.983563e+000 243 243 233
1.386624e+000 -2.037408e+000 -6.326011e+000 221 158 67
1.369257e+000 -2.242592e+000 -6.294281e+000 197 100 78
9.415017e-001 -2.111633e+000 -7.360359e+000 230 179 100
1.960394e+000 -1.091341e-002 -5.393838e+000 89 41 39
2.580237e+000 -8.490257e-001 -5.356283e+000 73 37 36
-1.399601e+000 -7.549714e-002 -5.570755e+000 195 195 197
1.449736e+000 -5.786737e-001 -6.103172e+000 100 75 46
1.449736e+000 -5.786737e-001 -6.103172e+000 100 75 46
1.831597e+000 -1.019450e+000 -5.551933e+000 216 206 204
1.964550e-001 -4.526221e-001 -5.967289e+000 91 73 56
1.580791e+000 -8.085713e-001 -6.003330e+000 99 32 31
1.526528e+000 -8.552146e-001 -6.049480e+000 197 59 56
1.715834e+000 -9.919276e-001 -5.751116e+000 58 36 31
1.770859e+000 -1.049507e+000 -5.709581e+000 110 118 96
1.789317e+000 -1.065334e+000 -5.651479e+000 163 170 139
2.099303e+000 -1.392339e+000 -5.157902e+000 135 115 100
-2.007078e+000 -2.890824e-001 -5.800963e+000 63 54 58
-2.011515e+000 -2.833011e-001 -5.807371e+000 63 54 58
3.131723e-001 -8.211420e-001 -6.016144e+000 169 156 144
-1.650415e+000 -7.470151e-001 -5.537154e+000 210 122 85
-9.260225e-002 -8.610479e-001 -6.137905e+000 125 104 83
-6.162101e-002 -8.916267e-001 -6.163052e+000 155 137 123
1.522346e+000 -1.894300e+000 -6.067153e+000 241 187 88
1.521478e+000 -1.933535e+000 -5.957905e+000 232 179 98
2.275333e-001 -1.002136e+000 -7.759599e+000 242 240 232
1.320462e+000 -2.118195e+000 -6.497670e+000 147 87 68
9.028835e-001 -2.016289e+000 -7.443147e+000 144 67 52
9.939019e-001 -2.109269e+000 -7.080448e+000 175 70 66
1.214550e+000 -2.197449e+000 -6.564166e+000 206 119 99
8.121859e-001 -2.035072e+000 -7.479861e+000 115 47 40
1.601429e+000 -4.098166e-002 -4.605268e+000 98 82 68
1.178760e+000 2.976240e+000 -7.390103e+000 218 219 215
1.279137e+000 1.133574e+001 -1.690005e+001 201 200 196
1.279137e+000 1.133574e+001 -1.690005e+001 201 200 196
7.877179e-001 2.550747e+000 -8.081510e+000 212 210 207
2.023151e+000 -4.280295e-001 -5.346363e+000 130 80 45
1.631586e+000 -3.253706e-001 -5.587673e+000 99 65 44
1.593458e+000 -4.708449e-001 -5.485968e+000 105 85 53
1.830618e+000 -9.719868e-001 -5.594691e+000 167 158 152
-5.889616e-001 -5.086904e-001 -5.421645e+000 244 202 152
3.542281e-001 -4.513593e-001 -6.015952e+000 85 70 63
6.374904e-001 -6.031423e-001 -6.002892e+000 210 205 189
-1.198521e+000 -6.978146e-001 -5.694771e+000 87 33 21
-6.244433e-001 -7.898750e-001 -5.791002e+000 210 162 116
1.682711e+000 -1.269749e+000 -5.869081e+000 66 67 47
-4.517136e-001 -1.035021e+000 -5.795885e+000 194 179 164
-1.225324e-002 -8.942115e-001 -6.068221e+000 131 109 97
1.627159e+000 -1.445532e+000 -5.974996e+000 213 147 62
2.486459e-003 -9.127622e-001 -9.244825e+000 231 224 218
9.339062e-001 -2.062230e+000 -7.365235e+000 216 163 76
9.756381e-001 1.425271e+000 -6.552915e+000 233 230 223
1.242156e+000 1.076657e+000 -6.112081e+000 239 237 225
1.573207e+000 -3.153815e-001 -6.017204e+000 93 39 34
-4.447050e-001 -4.746598e-001 -5.424532e+000 245 206 159
2.654419e-001 -4.268946e-001 -5.969359e+000 65 52 43
3.042210e-001 -4.545540e-001 -6.193421e+000 82 63 56
1.848488e+000 -1.212328e+000 -5.407808e+000 214 141 74
-3.275189e-001 -7.637594e-001 -5.646429e+000 216 163 116
-7.389981e-001 -7.129677e-001 -5.724148e+000 172 113 75
-1.526771e-003 -8.597462e-001 -6.000581e+000 161 146 133
-1.540075e+000 -7.965181e-001 -5.570801e+000 116 42 29
-6.788908e-001 -8.201874e-001 -5.791399e+000 220 170 124
1.169428e+000 -1.244697e+000 -6.182160e+000 243 204 146
-5.238286e-001 -1.108912e+000 -5.921178e+000 212 122 73
-6.154186e-001 -1.091358e+000 -5.969863e+000 192 97 64
1.499240e+000 -1.765112e+000 -6.152936e+000 236 186 97
1.169770e+000 -2.039531e+000 -6.910341e+000 150 96 58
1.311317e+000 -2.185793e+000 -6.437958e+000 235 182 98
9.906500e-001 -2.049292e+000 -7.306367e+000 171 68 63
1.087755e+000 -2.100782e+000 -7.049803e+000 156 90 74
1.204801e+000 -2.096059e+000 -6.824865e+000 222 178 88
2.135257e+000 -8.063409e-001 -4.979247e+000 173 134 100
-4.103894e-001 -1.774849e-001 -5.450066e+000 189 182 172
1.577709e+000 -2.361539e-001 -6.291231e+000 83 52 35
5.945830e-002 -5.022233e-001 -5.877970e+000 125 112 96
1.842891e+000 -1.394013e+000 -5.242054e+000 200 123 56
1.300354e+000 -1.024708e+000 -5.969845e+000 116 41 36
-8.903897e-001 -7.247785e-001 -5.735444e+000 99 41 30
1.687383e+000 -1.347089e+000 -5.866221e+000 174 161 156
1.601169e+000 -1.439318e+000 -6.115917e+000 127 45 37
-1.029879e+000 -1.055543e+000 -6.081789e+000 216 215 213
1.320332e+000 -2.052256e+000 -6.491182e+000 208 160 76
1.616857e+000 -4.370312e-001 -5.394141e+000 185 168 117
1.628521e+000 -4.098128e-001 -5.431433e+000 185 168 117
2.297162e+000 -8.791883e-001 -5.076773e+000 155 135 126
2.196212e+000 -8.670321e-001 -5.511821e+000 206 119 48
-1.538424e+000 -6.865118e-002 -5.569920e+000 188 182 182
-8.521463e-001 -4.790292e-001 -5.602969e+000 156 78 49
-1.570908e+000 -4.967291e-001 -5.435563e+000 123 45 27
1.798286e+000 -1.488850e+000 -5.546840e+000 221 199 195
-1.008269e-001 -9.541339e-001 -6.264429e+000 98 56 44
-9.446724e-001 -1.177487e+000 -6.190601e+000 221 216 213
2.767876e-001 -9.814902e-001 -7.610691e+000 204 190 179
1.381867e+000 -1.859195e+000 -6.337006e+000 105 46 37
1.357966e+000 -1.874068e+000 -6.279916e+000 105 46 37
1.369969e+000 -2.090946e+000 -6.417052e+000 242 194 85
1.490052e+000 -2.195093e+000 -6.184389e+000 208 127 57
1.209142e+000 7.795811e-001 -5.788063e+000 140 133 104
-6.129668e-001 -5.142279e-001 -5.539121e+000 244 202 153
1.289806e+000 -1.706479e+000 -6.259004e+000 87 40 34
5.902980e-001 -1.282019e+000 -7.511294e+000 217 205 189
8.719619e-002 -8.941077e-001 -9.195901e+000 245 237 230
6.960509e-001 -1.884576e+000 -7.312294e+000 218 83 87
1.171401e+000 -2.178203e+000 -6.830507e+000 241 207 115
1.722239e+000 -5.792002e-001 -5.357064e+000 100 52 47
1.736257e+000 -5.664276e-001 -5.381175e+000 100 52 47
6.334870e-001 -5.429011e-001 -5.922142e+000 222 218 206
6.258994e-001 -5.570857e-001 -5.896042e+000 222 218 206
-1.266447e+000 -4.874521e-001 -5.519246e+000 239 203 153
1.223254e+000 -2.017526e+000 -6.575279e+000 106 53 41
1.345595e+000 -2.135510e+000 -6.332019e+000 230 186 81
8.671230e-001 -1.967398e+000 -7.300061e+000 122 61 49
-8.607156e-001 -2.685756e-001 -5.583061e+000 245 205 154
6.874192e-001 -8.403823e-001 -6.069191e+000 224 218 206
6.222128e-001 -1.027092e+000 -6.322093e+000 164 145 130
1.698461e+000 -1.585188e+000 -5.855643e+000 230 184 91
-7.245742e-001 -1.211094e+000 -6.253717e+000 155 77 55
1.557908e+000 -1.846953e-001 -5.775419e+000 105 41 39
-2.898269e-001 -1.127541e+000 -6.170124e+000 99 49 39
1.673193e+000 -1.885665e+000 -6.189983e+000 225 200 192
-1.092547e+000 -6.533352e-001 -5.861016e+000 142 58 32
9.893765e-001 -1.765033e+000 -6.476678e+000 239 231 220
2.137390e+000 2.291113e-001 -4.842883e+000 246 191 144
2.134857e+000 5.431210e-002 -4.838798e+000 246 193 150
2.067779e+000 -3.808161e-002 -5.071329e+000 220 173 91
3.520655e+000 3.692393e-001 -5.746082e+000 161 138 127
2.099235e+000 -5.852134e-001 -4.722706e+000 120 101 92
2.103472e+000 -7.014648e-001 -4.777939e+000 142 122 112
2.038776e+000 -8.570972e-001 -4.785766e+000 118 95 88
2.871602e+000 -7.016204e-001 -5.455033e+000 81 65 64
2.680584e+000 -8.244107e-001 -5.362215e+000 122 97 82
2.678325e+000 -8.350063e-001 -5.369611e+000 93 65 53
-8.004737e-001 -8.302712e-002 -5.504672e+000 141 78 75
-5.605715e-001 -4.049870e-001 -5.369548e+000 199 109 83
-2.549189e-001 -4.679347e-001 -5.269784e+000 170 162 151
-1.091375e+000 -3.213877e-001 -5.624720e+000 182 115 81
1.335149e+000 -6.998293e-001 -6.019181e+000 93 63 36
-8.779032e-001 -7.091529e-001 -5.655161e+000 166 83 57
1.748840e+000 -1.364185e+000 -5.680618e+000 165 158 153
-1.781206e+000 -6.535816e-001 -5.583254e+000 136 86 81
1.654604e+000 -1.241271e+000 -5.951025e+000 108 68 65
1.785351e+000 -1.485046e+000 -5.519224e+000 133 104 103
1.701957e+000 -1.653799e+000 -5.805087e+000 180 98 67
1.636739e+000 -1.788512e+000 -5.949951e+000 205 128 94
1.358102e+000 -2.098186e+000 -6.524320e+000 229 180 79
1.557464e+000 -2.200915e+000 -5.910800e+000 207 143 91
1.257544e+000 -2.166262e+000 -6.863667e+000 214 149 92
1.352624e+000 -2.210886e+000 -6.544933e+000 129 115 115
2.115888e+000 2.815653e-001 -4.809045e+000 206 130 81
2.862932e+000 4.747416e-001 -5.340135e+000 148 132 116
1.276655e+000 9.748668e-001 -5.586928e+000 190 180 137
1.412041e+000 -3.378752e-001 -4.572690e+000 119 106 89
2.090534e+000 -5.657497e-001 -4.757617e+000 215 145 89
2.116694e+000 -5.574596e-001 -4.771821e+000 112 89 82
2.127566e+000 -6.111980e-001 -4.760736e+000 97 78 64
1.907815e+000 -3.249035e-001 -5.417337e+000 112 71 67
1.872155e+000 -7.043058e-001 -5.347598e+000 137 105 92
1.057663e-001 -1.723077e-001 -5.612031e+000 185 176 169
6.707493e-002 -3.788890e-001 -5.788762e+000 56 42 31
-7.969621e-001 -7.114296e-001 -5.682959e+000 176 95 61
8.810294e-001 -9.462550e-001 -6.162714e+000 182 155 131
1.775630e-001 -8.001491e-001 -7.399345e+000 205 199 187
1.659039e+000 -1.766670e+000 -5.828510e+000 217 194 188
1.491567e+000 -1.589800e+000 -6.301761e+000 186 107 54
1.639626e+000 -1.896982e+000 -5.921083e+000 212 133 71
1.542859e+000 -1.857975e+000 -6.054440e+000 216 125 61
1.566895e+000 -1.846698e+000 -6.117170e+000 216 125 61
-1.264896e-001 -8.076787e-001 -9.111977e+000 212 208 198
1.300854e+000 9.828606e-001 -5.589894e+000 202 189 143
1.885216e+000 -6.219785e-001 -5.438811e+000 137 104 89
2.641385e+000 -8.701339e-001 -5.379405e+000 143 116 98
2.641385e+000 -8.701339e-001 -5.379405e+000 143 116 98
2.599491e+000 -9.204679e-001 -5.311273e+000 154 126 111
-7.396878e-001 -1.015296e-001 -5.422712e+000 224 95 92
1.876279e+000 -1.128931e+000 -5.389940e+000 213 156 88
1.862128e+000 -1.186142e+000 -5.406641e+000 194 118 48
-1.799627e-001 -7.170164e-001 -5.572205e+000 171 68 61
-8.313404e-001 -6.981239e-001 -5.664626e+000 211 126 88
1.670714e+000 -1.187162e+000 -5.994033e+000 83 40 39
1.720758e+000 -1.448358e+000 -5.811067e+000 196 104 61
-7.024064e-001 -1.111064e+000 -5.850132e+000 135 63 48
-7.792001e-001 -1.145486e+000 -5.894515e+000 165 73 36
1.681108e+000 -2.035247e+000 -5.613147e+000 126 94 69
1.497537e+000 -2.137363e+000 -6.209354e+000 216 136 69
1.928529e+000 -6.967583e-001 -5.363872e+000 143 117 106
1.754288e+000 -6.970085e-001 -5.691695e+000 75 31 28
2.180841e+000 -9.239184e-001 -5.554744e+000 222 148 92
-2.050551e+000 -4.507479e-001 -5.789196e+000 101 82 52
-1.902877e+000 -5.789616e-001 -5.629993e+000 193 169 110
-9.306710e-001 -1.105615e+000 -6.063007e+000 197 115 74
2.850026e+000 -6.866617e-001 -5.415303e+000 64 49 46
2.737533e+000 -7.749206e-001 -5.375851e+000 170 149 132
-2.001913e-001 -1.299805e-001 -5.543963e+000 168 160 149
-1.469309e+000 -1.666562e-001 -5.577664e+000 193 188 185
-1.469309e+000 -1.666562e-001 -5.577664e+000 193 188 185
-7.165461e-002 -8.417600e-001 -6.029217e+000 119 98 80
-3.817323e-002 -8.473738e-001 -6.054788e+000 155 139 126
1.306508e+000 -1.334254e+000 -6.130399e+000 137 43 34
1.807984e+000 -6.622264e-001 -5.652132e+000 80 35 30
7.705093e-001 -1.007646e+000 -6.014863e+000 208 204 188
-1.850129e+000 -5.912739e-001 -5.630494e+000 79 43 37
-1.791144e+000 -6.624010e-001 -5.543851e+000 143 120 124
-1.791144e+000 -6.624010e-001 -5.543851e+000 143 120 124
1.475334e+000 -1.802199e+000 -6.238375e+000 186 77 44
1.944462e+000 1.694110e-001 -5.216344e+000 94 57 44
-1.607393e-002 -3.388885e-001 -5.651002e+000 107 89 75
-5.923933e-002 -6.300648e-001 -5.844028e+000 124 101 86
-1.183250e-001 -1.165496e+000 -6.370387e+000 137 83 62
1.442772e+000 -1.868582e+000 -6.255071e+000 233 189 91
2.130205e+000 -4.288286e-001 -5.325233e+000 145 100 33
-1.054582e+000 -2.354323e-001 -5.720902e+000 194 193 190
1.503285e+000 -9.465638e-001 -6.134745e+000 153 42 39
1.286186e+000 -2.084932e+000 -6.612652e+000 217 170 82
2.189209e+000 2.932169e-001 -4.899018e+000 227 154 108
2.054451e+000 -1.272391e-002 -4.971930e+000 251 204 75
2.195420e+000 -1.139009e+000 -6.168469e+000 223 172 82
1.846146e+000 -6.854801e-001 -5.508828e+000 127 78 39
-1.335038e+000 -2.929854e-001 -5.587804e+000 137 101 79
1.306128e+000 -1.044922e+000 -5.947425e+000 122 38 38
-6.157035e-001 -5.030699e-001 -5.561896e+000 243 202 150
2.220676e-001 1.248312e-002 -5.884125e+000 212 207 199
4.442182e-001 -5.897844e-001 -6.046334e+000 65 39 40
2.408316e+000 -2.052934e+000 -7.279909e+000 91 56 37
2.010120e+000 1.153719e+000 -6.284976e+000 247 243 233
1.247200e+000 -5.871364e-001 -4.188952e+000 124 106 84
2.176850e+000 -5.252541e-002 -4.915802e+000 247 224 188
2.050893e+000 1.743456e-003 -5.118291e+000 189 155 112
2.051888e+000 4.307344e-003 -5.118741e+000 189 155 112
1.080549e+000 5.463246e-001 -5.682828e+000 146 140 116
2.153411e+000 -5.820498e-001 -4.810471e+000 103 87 75
1.868677e+000 -5.795643e-001 -5.552785e+000 114 55 56
1.841949e+000 -5.662227e-001 -5.723166e+000 83 35 34
2.030885e+000 -8.834474e-001 -5.253867e+000 195 116 52
2.733842e+000 -1.015980e+000 -5.336590e+000 133 117 113
2.730866e+000 -1.084702e+000 -5.344208e+000 131 116 109
-7.124875e-001 -1.042076e-001 -5.483373e+000 194 86 81
-6.540785e-001 -1.796558e-001 -5.430905e+000 226 105 97
-1.478884e+000 -7.739624e-002 -5.676071e+000 84 50 49
-4.283010e-001 -4.552702e-001 -5.398340e+000 224 159 128
-1.464856e+000 -1.478049e-001 -5.643384e+000 121 71 61
-1.256111e+000 -1.674433e-001 -5.746615e+000 186 178 170
-9.406280e-001 -3.885619e-001 -5.623517e+000 182 103 68
-5.451023e-001 -5.118677e-001 -5.468840e+000 241 200 144
7.760521e-001 -6.074020e-001 -5.955695e+000 101 72 52
1.679500e+000 -1.044305e+000 -5.722449e+000 71 41 36
1.811993e+000 -1.021327e+000 -5.649043e+000 185 191 174
1.791789e+000 -1.146781e+000 -5.635977e+000 205 210 186
1.804574e+000 -1.147599e+000 -5.602419e+000 176 182 160
-2.014245e+000 -2.387112e-001 -5.792502e+000 166 148 101
-1.840236e+000 -4.154544e-001 -5.588707e+000 134 73 64
9.258428e-001 -7.590711e-001 -6.255952e+000 146 70 55
1.797063e+000 -1.409969e+000 -5.489917e+000 106 88 77
1.807999e+000 -1.433692e+000 -5.461808e+000 118 103 98
-2.047400e+000 -4.129388e-001 -5.793738e+000 162 141 92
-1.996963e+000 -4.035186e-001 -5.767686e+000 114 94 44
-1.996963e+000 -4.035186e-001 -5.767686e+000 114 94 44
-1.848536e+000 -6.049306e-001 -5.550022e+000 81 28 28
-1.424488e+000 -7.146429e-001 -5.493057e+000 140 64 50
1.711609e+000 -1.291102e+000 -5.797962e+000 77 89 74
1.754906e+000 -1.561079e+000 -5.543646e+000 136 116 114
-1.911856e+000 -5.919996e-001 -5.623604e+000 99 75 46
-1.706979e+000 -7.971727e-001 -5.417364e+000 139 84 80
-1.664186e+000 -8.325878e-001 -5.541417e+000 121 64 56
1.718170e+000 -1.692163e+000 -5.596864e+000 225 147 69
-9.237935e-001 -1.042780e+000 -5.782512e+000 202 105 66
1.651970e+000 -1.658722e+000 -5.784519e+000 217 152 72
1.685703e+000 -1.690148e+000 -5.695374e+000 202 183 171
1.668464e+000 -1.714382e+000 -5.714100e+000 114 88 84
1.490037e+000 -1.731440e+000 -6.127176e+000 229 166 62
1.500528e+000 -1.746201e+000 -6.032361e+000 216 129 58
1.583139e+000 -1.787037e+000 -5.908046e+000 224 136 66
1.600492e+000 -1.837213e+000 -5.851653e+000 101 80 71
1.589470e+000 -1.855623e+000 -5.869265e+000 118 94 90
1.586430e+000 -1.857637e+000 -5.862845e+000 118 94 90
1.103030e+000 -1.688159e+000 -6.106801e+000 207 186 170
1.404616e+000 -1.697894e+000 -6.380833e+000 149 76 34
1.563817e+000 -1.906799e+000 -5.909127e+000 121 96 91
1.570852e+000 -1.905533e+000 -5.869834e+000 120 94 94
1.566914e+000 -1.917358e+000 -5.880359e+000 194 179 170
1.562003e+000 -1.943590e+000 -5.887916e+000 218 192 180
1.424899e+000 -1.916330e+000 -6.257836e+000 230 157 63
1.517846e+000 -1.969246e+000 -6.000114e+000 130 110 104
1.361748e+000 -1.933301e+000 -6.436596e+000 128 69 39
1.317162e+000 -1.986772e+000 -6.524412e+000 133 76 43
1.327303e+000 -2.066563e+000 -6.356048e+000 214 164 75
1.465322e+000 -2.149823e+000 -6.124169e+000 217 136 64
1.417440e+000 -2.177307e+000 -6.149199e+000 233 170 89
1.500559e+000 -2.215258e+000 -5.760835e+000 253 194 132
1.208715e+000 -2.129706e+000 -6.679247e+000 208 138 101
1.354970e+000 -2.193268e+000 -6.239665e+000 154 139 131
1.325309e+000 -2.219784e+000 -6.349248e+000 126 110 105
1.338656e+000 -2.218612e+000 -6.403306e+000 220 210 200
1.301644e+000 -2.234533e+000 -6.392275e+000 115 97 94
1.330581e+000 -2.231153e+000 -6.332579e+000 211 196 197
1.400517e+000 -2.349208e+000 -5.971902e+000 245 180 118
1.445446e+000 -2.287182e+000 -5.865282e+000 246 192 136
1.430356e+000 -2.310654e+000 -5.836011e+000 217 155 97
1.452151e+000 -2.313917e+000 -5.955445e+000 220 158 102
1.459715e+000 -2.314855e+000 -5.936991e+000 235 184 131
1.210193e+000 -2.163915e+000 -6.672498e+000 228 158 106
1.305550e+000 -2.281590e+000 -6.453996e+000 225 195 192
2.148973e+000 4.746520e-001 -5.066138e+000 170 101 51
2.158787e+000 -2.957749e-002 -4.897502e+000 241 216 181
1.076978e+000 6.188764e-001 -5.766180e+000 124 117 98
1.076978e+000 6.188764e-001 -5.766180e+000 124 117 98
2.187909e+000 -5.038491e-001 -4.820931e+000 166 149 136
2.165893e+000 -7.769193e-001 -4.954853e+000 140 118 106
2.708937e+000 -6.682345e-001 -5.319470e+000 151 128 110
1.918172e+000 -5.894538e-001 -5.396795e+000 140 107 97
2.635234e+000 -8.917066e-001 -5.364850e+000 157 130 112
-7.966871e-001 -7.178568e-002 -5.542919e+000 195 174 149
-7.966871e-001 -7.178568e-002 -5.542919e+000 195 174 149
1.680633e+000 -7.981434e-001 -5.605382e+000 114 44 36
2.839425e+000 -9.860388e-001 -5.598285e+000 79 61 59
2.726223e+000 -1.019142e+000 -5.518879e+000 69 51 38
-5.662149e-001 -3.800658e-001 -5.437778e+000 170 85 58
-5.448188e-001 -3.632825e-001 -5.452792e+000 196 110 83
-1.748988e+000 -1.535600e-001 -5.695461e+000 130 81 81
-2.083055e-001 -6.902406e-001 -5.580089e+000 129 53 39
3.201325e-001 -4.380577e-001 -5.954840e+000 133 123 113
6.022252e-001 -6.005324e-001 -6.034212e+000 133 116 103
1.605691e+000 -8.767242e-001 -5.787338e+000 206 76 72
1.776090e+000 -1.143453e+000 -5.692461e+000 87 101 76
-4.499463e-001 -6.606878e-001 -5.688153e+000 201 136 82
-2.205087e-001 -7.678631e-001 -5.615514e+000 152 128 114
-6.420902e-002 -6.708704e-001 -5.787128e+000 125 100 82
-2.080224e+000 -3.590636e-001 -5.859165e+000 137 119 71
-2.076314e+000 -4.341143e-001 -5.800192e+000 165 146 88
-1.990992e+000 -4.653752e-001 -5.725576e+000 177 156 102
1.742831e+000 -1.376506e+000 -5.738281e+000 224 216 205
1.835551e+000 -1.632337e+000 -5.227017e+000 206 164 126
-1.645306e+000 -7.284322e-001 -5.518086e+000 203 105 60
-1.086007e+000 -8.999407e-001 -5.738966e+000 201 112 72
-8.149692e-001 -8.704335e-001 -5.812600e+000 145 61 33
-3.023426e-002 -8.780720e-001 -6.033557e+000 125 104 93
1.714989e+000 -1.639062e+000 -5.621268e+000 231 204 201
1.710354e+000 -1.838619e+000 -5.122137e+000 109 84 67
-8.955824e-001 -1.050198e+000 -5.791644e+000 180 86 48
1.569502e+000 -1.660712e+000 -6.047559e+000 190 105 55
1.563764e+000 -1.830014e+000 -5.902673e+000 232 168 68
-2.357402e-001 -1.185515e+000 -6.478909e+000 142 98 90
1.632457e+000 -2.046121e+000 -5.577647e+000 206 132 76
1.620485e+000 -2.056135e+000 -5.583256e+000 253 209 156
1.618489e+000 -2.099524e+000 -5.640856e+000 221 161 107
1.357317e+000 -1.878371e+000 -6.438173e+000 135 72 47
1.510200e+000 -1.986288e+000 -5.995599e+000 234 216 202
1.534968e+000 -1.993906e+000 -5.986361e+000 232 214 199
1.490403e+000 -2.041274e+000 -5.975439e+000 240 217 208
1.491810e+000 -2.050955e+000 -6.076347e+000 234 216 205
1.540314e+000 -2.186287e+000 -5.776073e+000 213 143 79
1.429959e+000 -2.081479e+000 -6.135534e+000 114 90 80
1.255491e+000 -2.095277e+000 -6.700751e+000 199 121 77
1.354396e+000 -2.219864e+000 -6.267036e+000 233 215 214
1.268579e+000 -2.209823e+000 -6.508820e+000 203 128 81
2.158359e+000 -2.944221e-001 -4.743505e+000 121 100 92
2.149671e+000 -3.674990e-001 -4.779974e+000 213 135 79
1.984357e+000 -2.628424e-002 -5.372417e+000 232 186 187
2.103119e+000 -6.273655e-001 -4.774593e+000 100 80 71
1.413691e+000 -4.559823e-001 -4.843841e+000 119 96 76
3.037460e+000 -6.800470e-001 -5.606549e+000 58 42 44
2.481033e-001 -1.321945e-001 -5.697507e+000 233 229 218
1.876058e+000 -5.876107e-001 -5.533513e+000 135 96 90
-7.377826e-001 -6.664589e-002 -5.478975e+000 217 98 98
-1.449872e+000 -3.744386e-002 -5.632792e+000 71 39 37
-6.366373e-001 -2.454622e-001 -5.562253e+000 191 121 85
-5.041602e-001 -3.842763e-001 -5.450009e+000 190 110 77
1.818509e+000 -1.036844e+000 -5.544479e+000 217 211 210
-1.235354e+000 -3.228783e-001 -5.576387e+000 217 180 136
-1.184646e+000 -3.990184e-001 -5.524971e+000 179 122 101
-1.013433e+000 -2.403215e-001 -5.768714e+000 215 126 70
-8.690944e-001 -4.510438e-001 -5.668394e+000 168 98 69
-8.690944e-001 -4.510438e-001 -5.668394e+000 168 98 69
1.743771e+000 -1.064887e+000 -5.734938e+000 59 53 38
-1.847630e+000 -3.771886e-001 -5.610022e+000 108 49 42
-1.373118e+000 -5.859693e-001 -5.522360e+000 159 92 68
-4.683087e-001 -6.506180e-001 -5.695834e+000 202 138 86
7.130877e-001 -6.916552e-001 -6.055254e+000 210 194 181
-1.384983e+000 -6.412558e-001 -5.452419e+000 164 88 63
-1.444784e+000 -7.074028e-001 -5.486778e+000 123 46 27
-1.080284e+000 -7.590171e-001 -5.636045e+000 141 62 43
-8.303494e-001 -7.257012e-001 -5.609757e+000 211 123 88
-6.873138e-001 -7.848100e-001 -5.680607e+000 206 155 113
-1.995102e+000 -5.648027e-001 -5.716371e+000 178 161 117
-1.522852e+000 -7.541710e-001 -5.508658e+000 161 76 45
-1.088597e+000 -8.184900e-001 -5.675083e+000 153 59 32
-2.027823e-001 -1.005519e+000 -6.008427e+000 124 94 81
1.702697e+000 -1.470112e+000 -5.743189e+000 197 99 64
1.692110e+000 -1.509234e+000 -5.754481e+000 231 153 77
-1.076197e+000 -9.270445e-001 -5.813608e+000 187 91 57
-1.076452e+000 -9.313626e-001 -5.805246e+000 187 91 57
-5.407299e-001 -1.082655e+000 -5.850886e+000 192 138 119
-5.405263e-001 -1.080833e+000 -5.904557e+000 134 69 49
1.892582e+000 -1.780435e+000 -5.552995e+000 120 92 78
-7.800931e-001 -1.176300e+000 -6.132327e+000 137 59 49
1.491766e+000 -2.259442e+000 -5.646433e+000 121 85 62
1.212285e+000 -2.117790e+000 -6.647994e+000 163 91 67
1.350975e+000 -2.142992e+000 -6.322334e+000 234 181 83
9.577207e-001 -2.080256e+000 -7.058443e+000 158 61 52
1.351425e+000 -2.388480e+000 -6.026797e+000 222 144 79
1.237770e+000 -2.366962e+000 -6.506598e+000 199 109 58
1.240036e+000 -2.364567e+000 -6.517935e+000 199 109 58
2.748580e+000 -6.653518e-001 -5.392988e+000 78 50 40
2.623098e+000 -8.312814e-001 -5.327972e+000 85 57 43
7.558691e-001 -4.090241e-001 -5.782623e+000 229 224 213
2.733134e+000 -1.030495e+000 -5.430551e+000 87 68 59
8.697720e-002 -3.388932e-001 -5.874110e+000 55 43 31
1.762754e+000 -9.150890e-001 -5.757936e+000 92 59 54
2.107264e+000 -1.271397e+000 -5.275258e+000 97 73 61
-1.284955e+000 -2.822624e-001 -5.643164e+000 221 188 137
-1.234637e+000 -4.095106e-001 -5.481198e+000 192 147 98
2.213489e+000 -1.364823e+000 -5.511246e+000 81 58 43
-1.818797e+000 -2.703319e-001 -5.633302e+000 119 67 63
-1.818797e+000 -2.703319e-001 -5.633302e+000 119 67 63
-1.651992e+000 -3.627544e-001 -5.543691e+000 175 70 41
4.082001e-001 -7.304487e-001 -6.084816e+000 164 154 139
7.973367e-001 -7.676920e-001 -5.966284e+000 198 188 160
1.005864e+000 -7.724288e-001 -6.022670e+000 196 138 93
1.732514e+000 -1.200185e+000 -5.748586e+000 73 93 62
-1.808233e+000 -5.692799e-001 -5.501642e+000 144 84 80
-1.832371e+000 -5.787370e-001 -5.620570e+000 68 26 24
-1.779424e+000 -6.512724e-001 -5.525436e+000 153 102 95
1.701906e+000 -1.265727e+000 -5.810804e+000 203 194 184
-2.075330e+000 -4.490539e-001 -5.830246e+000 61 48 47
-1.897275e+000 -5.824378e-001 -5.630189e+000 189 169 105
1.812162e+000 -1.716847e+000 -5.329862e+000 225 160 98
-8.166508e-001 -1.204379e+000 -6.217644e+000 164 86 62
1.205708e+000 -2.050391e+000 -6.672518e+000 122 63 44
2.105246e+000 -7.110705e-002 -5.046537e+000 227 181 54
2.047370e+000 -3.903128e-001 -4.968396e+000 175 104 48
-1.935047e-001 -1.200525e-001 -5.561845e+000 169 160 152
2.783938e+000 -9.024125e-001 -5.427610e+000 55 39 42
-8.855386e-001 -1.356075e-001 -5.561858e+000 84 78 90
2.773437e+000 -1.087319e+000 -5.601833e+000 69 48 43
-5.861881e-001 -3.519068e-001 -5.456805e+000 185 94 70
1.834390e+000 -1.169620e+000 -5.380989e+000 226 178 85
-1.336169e+000 -1.334621e-001 -5.733055e+000 197 197 193
8.861969e-001 -6.679535e-001 -6.139745e+000 67 49 32
1.716743e+000 -1.368212e+000 -5.769872e+000 222 215 210
-1.682783e+000 -7.786534e-001 -5.523432e+000 79 32 27
1.736028e+000 -1.608609e+000 -5.535649e+000 152 92 76
-1.596949e+000 -8.641897e-001 -5.580273e+000 72 31 31
-2.049014e-001 -1.173817e+000 -6.339121e+000 236 232 228
1.512803e+000 -1.581287e+000 -6.227400e+000 216 147 64
1.468963e+000 -1.623335e+000 -6.301576e+000 197 117 51
9.204952e-001 -1.986363e+000 -7.135395e+000 128 61 44
1.261888e+000 -2.202844e+000 -6.596728e+000 231 166 102
2.909863e+000 -4.990160e-001 -5.408697e+000 128 114 109
1.654208e+000 -3.210212e-001 -5.810441e+000 171 59 57
-8.350811e-001 3.593636e-002 -5.617755e+000 149 165 206
-8.350811e-001 3.593636e-002 -5.617755e+000 149 165 206
-4.890734e-001 -2.207233e-001 -5.412135e+000 195 188 178
2.188081e+000 -1.204802e+000 -5.265400e+000 136 115 102
2.188081e+000 -1.204802e+000 -5.265400e+000 136 115 102
-1.339955e+000 -2.752747e-001 -5.664721e+000 71 56 58
-1.145285e-002 -4.636537e-001 -5.847809e+000 101 79 66
1.717510e+000 -1.050691e+000 -5.798106e+000 61 38 32
1.577833e+000 -1.214895e+000 -5.764992e+000 217 82 76
1.781901e+000 -1.292242e+000 -5.522556e+000 221 216 209
-9.263620e-001 -7.806504e-001 -5.719751e+000 169 85 49
5.070864e-001 -8.376128e-001 -6.037448e+000 226 222 210
8.881152e-001 -9.654278e-001 -6.135059e+000 181 153 129
4.915424e-003 -8.956742e-001 -6.083250e+000 130 108 97
-2.822620e-001 -1.077240e+000 -5.938108e+000 104 54 40
-1.839088e-001 -1.121602e+000 -6.006261e+000 134 75 57
1.273126e+000 -1.333648e+000 -6.159725e+000 237 170 130
-1.003442e+000 -1.031723e+000 -5.933971e+000 226 139 86
-1.228014e-001 -1.235896e+000 -6.213086e+000 126 75 54
-1.228014e-001 -1.235896e+000 -6.213086e+000 126 75 54
9.142038e-001 -1.272613e+000 -6.899961e+000 202 194 173
1.519755e+000 -2.292253e+000 -5.926724e+000 134 94 64
1.229764e+000 -2.331770e+000 -6.612582e+000 235 189 100
2.598983e+000 -4.853740e-001 -5.252551e+000 138 113 108
1.921090e+000 -6.234509e-001 -5.211044e+000 145 122 111
2.772134e+000 -1.059000e+000 -5.561983e+000 46 28 32
1.808963e+000 -9.209337e-001 -5.665238e+000 191 166 168
-1.110385e+000 -4.128167e-001 -5.576204e+000 193 149 112
-2.033264e+000 -5.137963e-001 -5.790775e+000 177 156 106
-2.033264e+000 -5.137963e-001 -5.790775e+000 177 156 106
-1.629663e+000 -8.338656e-001 -5.524105e+000 66 30 29
-6.257399e-001 -1.100096e+000 -5.940762e+000 189 96 60
-2.052961e-001 -1.221266e+000 -6.245584e+000 235 233 222
8.848059e-001 -1.444592e+000 -7.076824e+000 226 218 207
1.046955e+000 -2.049483e+000 -6.455523e+000 215 197 177
1.151036e+000 -2.113866e+000 -6.964446e+000 243 204 119
1.134187e+000 -2.127670e+000 -6.904271e+000 243 204 119
1.171282e+000 -2.278202e+000 -6.600296e+000 246 207 120
1.252571e+000 -2.487117e+000 -6.040124e+000 233 152 85
2.229035e+000 -6.031305e-002 -4.975298e+000 214 145 109
2.815476e+000 -6.707512e-001 -5.406839e+000 145 126 109
2.119889e+000 -1.057322e+000 -5.078073e+000 74 50 38
-9.065312e-001 -9.776985e-002 -5.591532e+000 115 119 177
2.373703e+000 -1.062447e+000 -5.440854e+000 140 118 105
-1.065745e+000 -2.168673e-001 -5.731176e+000 204 199 193
1.836786e+000 -1.355108e+000 -5.404855e+000 230 185 83
-4.694589e-001 -1.087177e+000 -5.842948e+000 118 59 47
1.701108e+000 -1.702289e+000 -5.633693e+000 217 179 124
2.010490e+000 -1.884263e-001 -5.340908e+000 146 55 54
2.019060e+000 -1.741183e-001 -5.357950e+000 146 55 54
2.121644e+000 -9.497541e-001 -5.060833e+000 168 140 123
2.119810e+000 -1.182887e+000 -5.208721e+000 77 49 38
-1.970038e+000 -2.044197e-001 -5.816217e+000 165 144 105
-9.389458e-001 -5.331952e-001 -5.670551e+000 161 108 74
1.964276e+000 -1.541633e+000 -5.319227e+000 80 54 39
7.478649e-001 -9.939540e-001 -6.010291e+000 210 203 188
1.280884e+000 -2.297957e+000 -6.538027e+000 252 204 120
2.198662e+000 2.125078e-001 -4.793204e+000 218 136 79
1.370669e+000 -4.597068e-001 -4.609127e+000 92 69 55
-6.464100e-001 -1.664550e-002 -5.451112e+000 208 206 207
1.467099e+000 -2.630831e-001 -6.018165e+000 157 110 77
1.628369e+000 -9.379892e-001 -5.660045e+000 209 67 62
2.231890e+000 -1.234036e+000 -5.548943e+000 74 46 32
-1.843394e+000 -4.653511e-001 -5.618015e+000 125 61 53
1.091354e-001 -7.002435e-001 -6.936948e+000 174 159 148
1.608513e+000 -1.728142e+000 -5.871671e+000 206 106 64
-4.674049e-001 -1.274800e+000 -6.028036e+000 117 66 52
-1.285803e+000 -1.237848e-001 -5.657361e+000 202 198 197
9.374410e-001 -7.409808e-001 -6.109948e+000 65 44 40
9.363049e-001 -7.417864e-001 -6.109005e+000 65 44 40
1.759100e+000 2.170579e-001 -4.734795e+000 244 240 229
2.735073e+000 -6.443635e-001 -5.454946e+000 72 44 38
1.036285e+000 -4.524291e-001 -5.870467e+000 121 68 47
4.674853e-001 -5.934987e-001 -6.050761e+000 69 40 41
4.674853e-001 -5.934987e-001 -6.050761e+000 69 40 41
-1.679591e+000 -5.734877e-001 -5.471089e+000 229 133 83
1.681824e+000 -1.492456e-001 -4.931823e+000 123 89 65
-2.686510e-001 2.699663e-001 -5.660457e+000 216 218 215
1.203780e+000 -1.345768e-001 -4.687113e+000 250 246 235
2.900653e+000 7.188553e-001 -5.468700e+000 195 178 163
2.042223e+000 -2.042198e-001 -5.410197e+000 137 52 57
1.914543e+000 -2.609301e-001 -5.507258e+000 99 65 61
1.940484e+000 -6.087881e-001 -5.375886e+000 117 52 48
1.939785e+000 -6.273900e-001 -5.361704e+000 145 87 80
8.874413e-001 -4.815247e-001 -5.894741e+000 177 70 64
1.836799e+000 -1.108771e+000 -5.499706e+000 196 195 177
1.718936e+000 -1.065744e+000 -5.864424e+000 65 36 33
-8.474203e-001 -7.510669e-001 -5.662424e+000 128 57 27
1.709854e+000 -1.263068e+000 -5.793115e+000 126 130 107
1.709854e+000 -1.263068e+000 -5.793115e+000 126 130 107
1.763512e+000 -1.485031e+000 -5.522163e+000 109 89 85
1.763135e+000 -1.522578e+000 -5.550629e+000 122 100 92
1.765633e+000 -1.521546e+000 -5.554216e+000 122 100 92
-1.092164e+000 -8.932344e-001 -5.780543e+000 166 79 50
-1.116070e+000 -8.977518e-001 -5.786691e+000 189 105 74
1.720068e+000 -1.604616e+000 -5.637128e+000 117 104 96
1.665918e+000 -1.768749e+000 -5.721261e+000 214 154 124
1.501937e+000 -1.691736e+000 -6.146922e+000 195 92 53
1.538152e+000 -1.981419e+000 -5.974262e+000 140 117 114
1.223818e+000 -2.051771e+000 -6.786102e+000 147 82 55
1.336841e+000 -1.992972e+000 -6.485810e+000 130 70 41
1.389347e+000 -2.136896e+000 -6.253281e+000 111 90 88
1.425955e+000 -2.116415e+000 -6.171008e+000 209 143 101
1.347577e+000 -2.178362e+000 -6.314998e+000 140 122 117
1.825363e-001 -9.758181e-002 -5.710084e+000 203 197 189
1.826309e+000 -5.504078e-001 -5.644084e+000 95 47 49
1.877253e+000 -6.332035e-001 -5.522883e+000 133 95 82
9.529210e-001 -4.330725e-001 -5.824852e+000 164 68 57
2.743587e+000 -1.080180e+000 -5.588294e+000 66 39 31
-1.386047e+000 -3.590865e-001 -5.557458e+000 115 79 55
-1.188332e+000 -4.092218e-001 -5.532666e+000 185 119 108
-2.680959e-001 -6.198059e-001 -5.391276e+000 153 76 67
-1.307253e+000 -6.152341e-001 -5.453602e+000 157 100 59
1.732952e+000 -1.313376e+000 -5.714776e+000 201 207 184
1.820320e+000 -1.350604e+000 -5.476922e+000 228 168 74
-1.145739e+000 -8.157862e-001 -5.677487e+000 134 56 29
1.717841e+000 -1.529980e+000 -5.693137e+000 193 113 66
1.678731e+000 -1.630822e+000 -5.744198e+000 192 105 53
-9.259716e-001 -1.047735e+000 -5.865694e+000 185 91 55
1.653591e+000 -1.772505e+000 -5.745709e+000 224 200 195
1.357716e+000 -1.939153e+000 -6.428855e+000 128 70 39
1.257132e+000 -2.157844e+000 -6.553461e+000 206 137 80
1.328140e+000 -2.292659e+000 -6.371593e+000 222 148 87
2.756736e+000 -5.827968e-001 -5.351800e+000 106 85 69
1.853237e+000 -8.159911e-001 -5.620401e+000 149 103 88
-1.333066e+000 -6.175871e-001 -5.486792e+000 142 65 42
1.798006e+000 -1.508757e+000 -5.466940e+000 211 138 70
-8.120378e-001 -1.117000e+000 -5.862174e+000 167 75 37
1.604006e+000 -1.553688e+000 -5.988879e+000 203 118 62
1.257704e+000 -2.315435e+000 -6.458508e+000 250 202 118
5.787963e-002 -3.718302e-001 -5.867578e+000 115 99 87
-2.627684e-001 -6.924018e-001 -5.667481e+000 110 48 30
-1.593946e+000 -7.297339e-001 -5.499106e+000 211 113 74
-1.391090e+000 -8.434784e-001 -5.588953e+000 169 98 68
-9.957010e-001 -9.318029e-001 -5.749862e+000 205 113 73
1.654348e+000 -1.651328e+000 -5.838313e+000 240 182 85
-1.896515e+000 -1.824352e-001 -5.778960e+000 47 45 51
1.753469e+000 -1.136086e+000 -5.734590e+000 143 153 126
1.047112e+000 -2.215231e+000 -6.867861e+000 175 96 87
3.494399e-001 -2.154716e-001 -5.719238e+000 172 164 150
1.747158e+000 -1.149661e+000 -5.734110e+000 119 128 104
1.744846e+000 -1.220468e+000 -5.727734e+000 87 102 73
2.114761e+000 3.168900e-001 -5.048871e+000 230 175 52
2.028368e+000 -1.464490e+000 -5.144094e+000 115 92 77
1.927355e+000 7.243569e-001 -5.032240e+000 80 50 48
1.299770e+000 3.000084e+000 -7.363552e+000 225 97 99
-1.449546e-001 -6.823808e-001 -5.507700e+000 140 118 103
4.527326e+000 1.197450e+000 -6.655515e+000 165 149 136
-5.219938e-001 -3.398631e-001 -5.386356e+000 224 101 102
1.540857e+000 -4.374934e-001 -5.933373e+000 126 103 75
-1.356826e+000 -7.596707e-002 -5.595550e+000 191 188 184
3.635745e-001 -4.625984e-001 -5.868093e+000 158 149 139
1.701509e+000 -1.167181e+000 -5.853774e+000 76 58 47
1.704745e+000 -1.660238e+000 -5.613050e+000 133 113 102
1.686616e+000 -1.698998e+000 -5.657336e+000 131 109 99
2.066021e+000 -1.588013e-001 -5.110900e+000 171 129 68
1.856510e+000 -5.509814e-001 -5.570758e+000 94 37 36
-5.693435e-001 -2.914995e-001 -5.422808e+000 191 70 67
9.151099e-001 -4.735619e-001 -5.843711e+000 185 72 64
-5.639343e-001 -1.011918e+000 -5.894319e+000 204 75 58
1.855891e+000 -9.909988e-001 -5.505922e+000 195 129 55
-1.146524e+000 -6.261312e-001 -5.523489e+000 163 87 53
-1.541708e+000 -7.072690e-001 -5.585217e+000 161 76 45
-7.097613e-001 -1.260378e+000 -6.028222e+000 136 55 30
-7.097613e-001 -1.260378e+000 -6.028222e+000 136 55 30
2.058756e+000 -4.762064e-002 -5.119736e+000 94 85 80
7.831648e-001 2.544663e+000 -8.449300e+000 193 122 77
1.734761e+000 -1.105510e+000 -5.768830e+000 58 51 37
-1.174003e+000 -8.465107e-001 -5.715844e+000 132 59 45
1.559360e-001 -7.588503e-001 -7.380882e+000 202 195 185
-1.905437e-001 -3.603977e-001 -9.935635e+000 225 226 220
1.584631e+000 1.095097e+001 -1.546285e+001 189 188 186
3.921553e-001 1.531706e+001 -2.048871e+001 136 154 204
3.921553e-001 1.531706e+001 -2.048871e+001 136 154 204
-8.500243e-003 1.555498e+001 -2.155156e+001 159 171 210
-2.148078e-001 1.544133e+001 -2.213217e+001 163 177 213
2.186088e+000 -1.826346e-001 -5.431762e+000 182 141 79
-7.497246e-001 -8.998554e-001 -5.861773e+000 169 86 52
1.843057e+000 1.139590e+001 -1.517427e+001 200 199 198
5.430151e-001 1.563393e+001 -2.007435e+001 175 186 218
-6.522551e-001 1.375617e+001 -2.166642e+001 166 181 212
-1.870402e+000 -5.198450e-001 -5.601269e+000 70 26 23
1.593284e+000 -1.717967e+000 -5.957267e+000 181 80 58
1.270176e-001 -7.127084e-001 -8.642652e+000 223 219 208
1.270176e-001 -7.127084e-001 -8.642652e+000 223 219 208
1.513223e+000 1.459714e+000 -5.735825e+000 130 115 94
1.331303e+000 1.843335e+000 -6.132446e+000 135 124 94
1.326319e+000 1.165894e+000 -6.002457e+000 188 178 142
2.028636e+000 1.030700e-002 -5.212154e+000 167 68 62
-7.534360e-001 1.824872e+001 -2.415633e+001 111 110 106
2.959265e-001 -1.073537e+000 -7.786100e+000 240 237 228
1.594815e+000 -2.044412e+000 -5.985782e+000 202 118 46
-1.658828e-001 -2.160412e-001 -9.718452e+000 231 92 91
2.127539e-001 -1.011182e+000 -7.886034e+000 240 237 231
1.386313e+000 -2.295516e+000 -6.471275e+000 216 136 72
4.253183e+000 1.000180e+000 -6.375500e+000 180 163 152
1.362664e+000 1.437761e+000 -5.949436e+000 125 115 88
1.614787e+000 1.615190e+000 -5.632387e+000 219 212 202
1.422863e+000 1.383449e+000 -5.646048e+000 155 145 109
1.598013e+000 -2.007989e-003 -4.596614e+000 201 194 184
2.951035e+000 6.247502e-001 -5.475288e+000 196 180 167
2.925075e+000 5.682024e-001 -5.420909e+000 172 154 142
2.097216e+000 -1.461008e-001 -4.811835e+000 245 218 185
1.275645e+000 -5.762800e-001 -4.513110e+000 88 69 54
2.027325e+000 -7.491034e-001 -4.734977e+000 221 171 131
1.587059e+000 -3.799011e-001 -5.423434e+000 152 134 96
1.850461e+000 -5.115271e-001 -5.545974e+000 107 54 54
1.986196e+000 -7.272801e-001 -5.642431e+000 157 106 61
-4.288500e-001 -4.621578e-001 -5.366757e+000 209 93 80
-1.399587e+000 -1.049457e-001 -5.580204e+000 144 95 95
1.815790e+000 -1.152396e+000 -5.545374e+000 120 133 110
1.667857e+000 -1.169470e+000 -5.927833e+000 71 33 26
1.748520e+000 -1.176495e+000 -5.726183e+000 142 156 130
1.732401e+000 -1.313425e+000 -5.713786e+000 190 207 173
1.741613e+000 -1.419388e+000 -5.559071e+000 203 132 75
1.802967e+000 -1.449682e+000 -5.459113e+000 225 204 196
1.707290e+000 -1.286422e+000 -5.775758e+000 180 183 175
1.743219e+000 -1.368845e+000 -5.666892e+000 140 136 127
1.745039e+000 -1.537310e+000 -5.569036e+000 91 65 61
1.772100e+000 -1.584152e+000 -5.542630e+000 223 146 82
1.628082e+000 -1.383703e+000 -5.961459e+000 133 58 45
1.721117e+000 -1.591656e+000 -5.613206e+000 95 73 75
1.718692e+000 -1.605847e+000 -5.634221e+000 92 66 65
1.708160e+000 -1.664459e+000 -5.634778e+000 233 214 204
1.708160e+000 -1.664459e+000 -5.634778e+000 233 214 204
-2.007188e+000 -5.638771e-001 -5.756464e+000 83 63 31
-5.921911e-001 -9.995096e-001 -5.944381e+000 137 53 48
-5.491297e-001 -1.040047e+000 -5.903850e+000 187 87 71
1.134873e+000 -1.239725e+000 -6.342798e+000 165 117 106
1.606884e+000 -1.578865e+000 -5.968419e+000 200 114 60
1.668632e+000 -1.721325e+000 -5.632720e+000 231 212 200
1.639059e+000 -1.791525e+000 -5.741213e+000 112 89 91
1.639059e+000 -1.791525e+000 -5.741213e+000 112 89 91
1.474657e+000 -1.606493e+000 -6.258332e+000 196 115 50
-8.664577e-001 -1.226741e+000 -6.237970e+000 185 105 66
1.561027e+000 -2.014048e+000 -6.023248e+000 226 144 63
1.519909e+000 -2.009868e+000 -6.025615e+000 148 129 127
1.424034e+000 -2.096695e+000 -6.226634e+000 119 91 88
1.273859e+000 -2.099499e+000 -6.642089e+000 225 163 83
1.158017e+000 -2.148005e+000 -6.820474e+000 190 124 63
1.929678e+000 6.213019e-001 -4.997682e+000 191 137 65
2.124305e+000 -2.485672e-001 -4.885709e+000 253 234 199
1.901972e+000 -5.951423e-001 -5.442788e+000 115 42 42
2.532565e+000 -8.984086e-001 -5.300566e+000 82 46 36
1.890241e+000 -6.289552e-001 -5.485545e+000 117 43 44
1.848829e+000 -6.078687e-001 -5.617049e+000 122 75 70
1.966548e+000 -8.827499e-001 -5.158913e+000 186 129 54
2.650518e+000 -1.003206e+000 -5.291043e+000 168 151 143
1.839030e+000 -7.335695e-001 -5.565276e+000 133 93 88
-5.914803e-001 -2.791135e-001 -5.417034e+000 194 75 68
9.212599e-001 -5.011306e-001 -5.762020e+000 190 72 64
-5.258290e-001 -4.892970e-001 -5.464162e+000 238 185 137
1.736048e+000 -1.009172e+000 -5.789982e+000 85 57 54
1.839620e+000 -1.295335e+000 -5.438173e+000 204 133 56
-1.575888e+000 -4.099812e-001 -5.457807e+000 175 89 66
-1.413342e-001 -6.465242e-001 -5.815041e+000 130 86 70
6.984189e-001 -7.268731e-001 -6.038438e+000 194 182 164
1.773474e+000 -1.432614e+000 -5.469746e+000 227 211 203
-1.918694e+000 -5.071723e-001 -5.679139e+000 152 107 85
1.617757e+000 -1.520615e+000 -5.896878e+000 207 117 58
-1.008469e+000 -9.180358e-001 -5.813933e+000 191 98 57
-7.976632e-001 -9.088334e-001 -5.790866e+000 149 65 37
1.561250e+000 -1.762900e+000 -6.013652e+000 195 109 54
1.609578e+000 -1.864179e+000 -5.837346e+000 223 208 200
1.426523e+000 -1.663680e+000 -6.350537e+000 146 68 38
1.501890e+000 -1.817233e+000 -6.137372e+000 231 161 83
3.425518e-001 -1.138512e+000 -7.997957e+000 218 209 200
1.256855e+000 -2.082354e+000 -6.656679e+000 202 131 74
1.315372e+000 -2.258884e+000 -6.392576e+000 226 214 213
1.203498e+000 -2.294695e+000 -6.797014e+000 203 128 90
2.070737e+000 -5.103848e-001 -5.069238e+000 174 98 40
2.822755e+000 -3.589957e-001 -5.372509e+000 137 118 104
8.378875e-001 2.382501e+000 -7.763216e+000 228 108 108
1.911200e+000 -5.848966e-001 -5.428945e+000 136 111 103
2.566733e+000 -8.384882e-001 -5.294167e+000 76 46 40
1.634230e+000 -8.397456e-001 -5.571755e+000 107 40 33
1.840247e+000 -1.059731e+000 -5.518506e+000 222 214 206
1.116137e+000 -6.375243e-001 -5.945245e+000 196 142 90
1.788372e+000 -9.793880e-001 -5.785127e+000 57 48 36
-4.366398e-001 -6.920857e-001 -5.675051e+000 247 191 136
-1.572647e-001 -7.376879e-001 -5.638100e+000 117 46 37
1.681363e+000 -1.472940e+000 -5.739429e+000 201 102 69
-2.067032e+000 -3.860183e-001 -5.873059e+000 112 91 53
-1.065779e+000 -7.848642e-001 -5.767940e+000 199 105 64
1.637311e+000 -1.477545e+000 -5.938353e+000 217 139 57
1.712826e+000 -1.636937e+000 -5.620722e+000 229 205 199
1.713781e+000 -1.636814e+000 -5.622022e+000 229 205 199
-1.152721e+000 -8.764323e-001 -5.767723e+000 140 67 44
-9.627455e-001 -8.718655e-001 -5.783409e+000 176 82 48
-9.627455e-001 -8.718655e-001 -5.783409e+000 176 82 48
1.638629e+000 -1.710180e+000 -5.823212e+000 219 136 70
-8.483471e-001 -1.058615e+000 -5.886772e+000 170 78 41
1.604428e+000 -2.117071e+000 -5.663498e+000 232 167 102
1.345511e+000 -2.202433e+000 -6.325192e+000 233 217 207
1.382105e+000 -2.178809e+000 -6.418832e+000 233 217 207
