ply
format ascii 1.0
element face 0
property list uchar int vertex_indices
element vertex 867
property float x
property float y
property float z
property uchar diffuse_red
property uchar diffuse_green
property uchar diffuse_blue
end_header
1.620574e+000 -2.077678e+000 -5.611100e+000 252 216 156
1.504818e+000 -2.011968e+000 -6.073434e+000 239 218 200
1.394610e+000 -2.008287e+000 -6.291557e+000 199 125 52
1.388574e+000 -2.122435e+000 -6.258662e+000 223 169 108
1.283887e+000 -2.136579e+000 -6.551174e+000 208 139 80
1.370114e+000 -2.166697e+000 -6.276182e+000 120 101 93
1.373952e+000 -2.165084e+000 -6.286647e+000 120 101 93
1.345259e+000 -2.188243e+000 -6.369885e+000 219 206 182
1.330764e+000 -2.255567e+000 -6.410989e+000 128 119 114
1.330764e+000 -2.255567e+000 -6.410989e+000 128 119 114
1.302214e+000 -2.292072e+000 -6.400104e+000 217 186 181
1.409656e+000 1.462663e+000 -5.567997e+000 185 174 130
2.138076e+000 3.094801e-001 -5.012573e+000 197 117 51
1.334093e+000 1.044155e+000 -5.688966e+000 197 186 138
2.080065e+000 3.077769e-001 -5.297421e+000 142 99 82
2.111867e+000 3.211594e-001 -5.316962e+000 133 86 69
2.183184e+000 -9.814666e-002 -4.925494e+000 255 230 204
2.801804e+000 -2.572267e-001 -5.294932e+000 148 129 114
1.962048e+000 -3.267892e-002 -5.411732e+000 117 77 77
2.094343e+000 -6.900120e-001 -4.804618e+000 231 198 173
2.151030e+000 -6.485374e-001 -4.824457e+000 108 84 77
2.133789e+000 -7.128256e-001 -4.865506e+000 135 115 112
2.774726e+000 -6.460722e-001 -5.367790e+000 85 66 49
1.881109e+000 -4.661967e-001 -5.504624e+000 120 75 69
1.896238e+000 -4.730918e-001 -5.517565e+000 97 49 42
1.943071e+000 -6.510928e-001 -5.296078e+000 144 117 106
3.163607e-001 -9.285618e-002 -5.720708e+000 219 217 205
1.877585e+000 -5.612302e-001 -5.543768e+000 103 40 39
1.887463e+000 -6.520542e-001 -5.506211e+000 114 63 39
1.976476e+000 -7.264508e-001 -5.479072e+000 169 135 121
2.665233e+000 -9.028802e-001 -5.354041e+000 100 75 58
1.030804e-001 -2.985221e-001 -5.684823e+000 131 115 102
1.824105e+000 -7.797960e-001 -5.703476e+000 103 38 37
1.866608e+000 -8.562829e-001 -5.444901e+000 157 95 52
2.152954e+000 -1.115457e+000 -5.343857e+000 214 130 52
2.752236e+000 -1.065938e+000 -5.555808e+000 41 28 27
-1.437511e+000 -1.176227e-001 -5.594556e+000 200 193 183
-1.437511e+000 -1.176227e-001 -5.594556e+000 200 193 183
-6.421966e-001 -3.056202e-001 -5.498405e+000 217 153 115
-6.408421e-001 -3.234581e-001 -5.469214e+000 217 153 115
1.575509e+000 -8.495232e-001 -5.515616e+000 122 94 70
1.832358e+000 -8.780389e-001 -5.604086e+000 169 121 65
1.823079e+000 -9.310748e-001 -5.609795e+000 185 167 155
1.854985e+000 -1.003656e+000 -5.495211e+000 195 131 55
1.817516e+000 -9.586113e-001 -5.630741e+000 190 181 178
2.827558e+000 -1.098066e+000 -5.648849e+000 65 37 34
-1.756284e+000 -1.798034e-001 -5.644958e+000 130 81 81
-9.716242e-001 -3.417884e-001 -5.654522e+000 223 161 119
1.043901e-001 -5.007361e-001 -5.938868e+000 67 52 33
1.797785e+000 -9.941335e-001 -5.682868e+000 187 187 169
1.797105e+000 -1.050059e+000 -5.675677e+000 83 96 70
1.834970e+000 -1.117678e+000 -5.511578e+000 161 155 144
1.792279e+000 -1.158338e+000 -5.652494e+000 94 105 79
1.859603e+000 -1.275024e+000 -5.346440e+000 223 175 103
-1.002634e+000 -4.065251e-001 -5.717192e+000 166 93 66
-4.295351e-001 -6.797991e-001 -5.659200e+000 197 130 75
1.740304e+000 -1.170665e+000 -5.757575e+000 137 148 121
1.778913e+000 -1.200216e+000 -5.643337e+000 196 203 178
1.722030e+000 -1.273858e+000 -5.777349e+000 186 189 170
1.732798e+000 -1.304407e+000 -5.702408e+000 106 115 88
1.803041e+000 -1.344125e+000 -5.513824e+000 203 127 61
1.806805e+000 -1.455592e+000 -5.452976e+000 221 200 185
1.812604e+000 -1.451885e+000 -5.463518e+000 221 200 185
-1.923611e+000 -5.431186e-001 -5.614727e+000 140 98 80
1.688202e+000 -1.264423e+000 -5.834338e+000 78 65 56
1.712654e+000 -1.287753e+000 -5.778715e+000 183 185 178
1.725843e+000 -1.361643e+000 -5.752789e+000 217 210 193
1.745200e+000 -1.356896e+000 -5.695255e+000 225 218 199
-1.668232e+000 -7.135031e-001 -5.536072e+000 203 105 60
-1.683196e+000 -7.879472e-001 -5.531727e+000 126 71 65
-1.120541e+000 -8.810947e-001 -5.754638e+000 193 108 71
-7.969986e-001 -9.257883e-001 -5.789130e+000 154 68 41
1.361692e+000 -1.388625e+000 -6.031652e+000 162 53 44
1.638421e+000 -1.356890e+000 -6.013381e+000 98 35 27
1.749665e+000 -1.544742e+000 -5.613921e+000 169 87 63
1.742752e+000 -1.548475e+000 -5.603445e+000 169 87 63
1.731635e+000 -1.635814e+000 -5.646264e+000 231 204 201
1.718339e+000 -1.671538e+000 -5.639084e+000 227 204 185
1.948961e+000 -1.736397e+000 -5.524885e+000 97 71 54
-1.141427e+000 -8.813448e-001 -5.772982e+000 159 79 55
1.657090e+000 -1.779256e+000 -5.745729e+000 228 204 192
1.174197e-001 -8.317951e-001 -7.185433e+000 206 200 188
1.576322e+000 -1.663907e+000 -6.059706e+000 190 105 55
1.622418e+000 -1.746935e+000 -5.860473e+000 183 74 53
1.631449e+000 -1.807068e+000 -5.810066e+000 229 201 194
1.611158e+000 -1.827863e+000 -5.855420e+000 225 201 190
1.643848e+000 -1.777945e+000 -5.759664e+000 114 93 92
1.643731e+000 -1.784847e+000 -5.782661e+000 226 204 190
1.696245e+000 -2.009931e+000 -5.552458e+000 106 76 56
9.463724e-001 -1.445474e+000 -6.887880e+000 225 219 207
1.621990e+000 -2.087523e+000 -5.631927e+000 213 132 76
1.473206e+000 -1.927866e+000 -6.181479e+000 235 188 83
1.362631e+000 -1.996957e+000 -6.219126e+000 178 108 45
1.528919e+000 -1.984144e+000 -6.034218e+000 234 216 202
1.535968e+000 -2.005783e+000 -5.983050e+000 232 214 199
1.487277e+000 -2.066571e+000 -6.063131e+000 234 216 205
1.388672e+000 -2.148521e+000 -6.251834e+000 111 101 92
1.404512e+000 -2.164344e+000 -6.224542e+000 111 99 85
1.399868e+000 -2.167405e+000 -6.210335e+000 111 99 85
1.371536e+000 -2.181741e+000 -6.322633e+000 242 223 217
1.361782e+000 -2.226072e+000 -6.288206e+000 233 215 214
1.326927e+000 -2.288036e+000 -6.413404e+000 181 104 82
1.301828e+000 -2.308949e+000 -6.401397e+000 169 92 84
9.530751e-001 -2.144896e+000 -7.267981e+000 192 113 84
2.935906e+000 6.226087e-001 -5.438255e+000 159 142 128
2.152304e+000 -3.994809e-001 -4.776740e+000 217 139 82
2.117271e+000 -6.878985e-001 -4.812656e+000 106 84 72
8.071406e-001 2.574374e+000 -8.329312e+000 186 120 78
1.950105e+000 -6.162379e-001 -5.321527e+000 143 111 105
1.933428e+000 -5.947152e-001 -5.421026e+000 117 41 45
2.623470e+000 -7.264560e-001 -5.304663e+000 70 44 37
2.623470e+000 -7.264560e-001 -5.304663e+000 70 44 37
1.921565e+000 -6.952428e-001 -5.393054e+000 129 87 81
2.682489e+000 -9.433776e-001 -5.372974e+000 105 81 56
1.783043e+000 -7.216840e-001 -5.777236e+000 77 30 31
2.708981e+000 -1.073269e+000 -5.506793e+000 117 105 99
7.921588e-001 -5.740096e-001 -5.881512e+000 190 73 65
1.863414e+000 -9.912554e-001 -5.506740e+000 195 129 55
2.286608e+000 -1.291713e+000 -5.401957e+000 76 51 39
-1.324696e+000 -3.088760e-001 -5.601475e+000 67 44 38
1.783228e+000 -9.707193e-001 -5.813852e+000 89 59 54
1.798192e+000 -1.173904e+000 -5.549323e+000 104 115 87
-1.409514e+000 -5.790080e-001 -5.499945e+000 77 58 48
-1.344198e+000 -5.199097e-001 -5.509281e+000 99 69 57
-1.956721e-001 -7.093664e-001 -5.648716e+000 137 89 74
1.743874e+000 -1.186363e+000 -5.774355e+000 72 92 58
1.743874e+000 -1.186363e+000 -5.774355e+000 72 92 58
-1.992816e+000 -3.441036e-001 -5.749875e+000 165 149 97
-1.950341e+000 -4.235872e-001 -5.686428e+000 187 156 116
-6.948555e-001 -8.545049e-001 -5.594800e+000 163 92 54
3.315871e-001 -8.235186e-001 -6.036171e+000 174 166 154
1.175156e+000 -1.184342e+000 -6.018030e+000 223 174 117
1.175156e+000 -1.184342e+000 -6.018030e+000 223 174 117
1.663100e+000 -1.234747e+000 -5.928383e+000 114 80 72
1.670680e+000 -1.315036e+000 -5.895960e+000 126 98 94
-1.557611e+000 -7.876730e-001 -5.642169e+000 154 78 52
-1.503170e+000 -7.903767e-001 -5.603369e+000 149 74 43
-1.579142e+000 -8.731047e-001 -5.577143e+000 153 73 36
-1.215401e+000 -8.607379e-001 -5.778714e+000 130 62 43
-1.025515e+000 -9.611272e-001 -5.779261e+000 212 114 76
1.636714e+000 -1.596281e+000 -5.855798e+000 224 141 69
1.716539e+000 -1.667184e+000 -5.699190e+000 224 206 187
1.615667e+000 -1.796369e+000 -5.878897e+000 174 77 67
1.578383e+000 -1.851431e+000 -5.907864e+000 216 133 60
-7.686525e-001 -1.199715e+000 -6.122844e+000 190 99 62
9.056717e-001 -1.349519e+000 -7.062793e+000 203 194 177
1.567253e+000 -1.989883e+000 -5.884022e+000 238 183 90
1.648310e+000 -2.042941e+000 -5.573485e+000 255 226 187
8.515017e-001 -1.558736e+000 -7.048458e+000 163 84 86
1.423617e+000 -1.848070e+000 -6.304736e+000 174 91 47
1.455776e+000 -1.987881e+000 -6.146921e+000 207 139 50
1.482811e+000 -2.051623e+000 -6.126619e+000 241 219 198
1.349630e+000 -2.024044e+000 -6.510948e+000 202 159 80
1.279295e+000 -2.078276e+000 -6.740163e+000 202 129 76
1.272285e+000 -2.056211e+000 -6.602573e+000 129 64 44
1.296808e+000 -2.153589e+000 -6.511308e+000 235 176 99
1.350243e+000 -2.238629e+000 -6.313732e+000 235 219 214
9.526834e-001 -2.022014e+000 -7.252418e+000 206 137 76
1.129210e+000 -2.129311e+000 -7.076878e+000 229 151 97
1.180425e+000 -2.136533e+000 -6.909569e+000 198 113 79
1.263801e+000 -2.148514e+000 -6.748789e+000 187 110 86
1.221591e+000 -2.264978e+000 -6.648220e+000 210 136 87
1.295145e+000 -2.327228e+000 -6.427499e+000 233 173 94
1.295145e+000 -2.327228e+000 -6.427499e+000 233 173 94
2.948018e+000 7.140650e-001 -5.477593e+000 165 149 133
2.021039e+000 1.949856e-001 -5.314061e+000 136 100 88
2.598902e+000 -7.383696e-001 -5.307969e+000 94 64 62
2.573431e+000 -8.748933e-001 -5.282500e+000 161 135 120
-2.331039e-001 -1.458601e-001 -5.528642e+000 204 197 187
3.853706e-001 -1.011905e-001 -5.727175e+000 204 202 189
-2.077272e-001 -2.424496e-001 -5.464975e+000 141 133 123
1.760468e+000 -6.622288e-001 -5.658054e+000 83 39 32
-1.514875e+000 -7.154934e-002 -5.614218e+000 197 189 187
-1.530363e+000 -9.870653e-002 -5.633845e+000 94 48 49
2.025564e-002 -3.492379e-001 -5.820248e+000 95 76 62
1.616382e+000 -8.474469e-001 -5.778817e+000 116 31 28
1.878779e+000 -1.003649e+000 -5.484985e+000 218 169 76
1.099666e-001 -5.018603e-001 -5.931495e+000 69 53 36
6.566282e-001 -6.469641e-001 -5.961249e+000 148 59 55
7.246968e-001 -6.300147e-001 -5.950577e+000 199 78 76
1.131336e+000 -6.948290e-001 -6.016846e+000 184 114 63
1.849783e+000 -1.256991e+000 -5.415250e+000 235 182 88
-1.732611e+000 -5.028007e-001 -5.481579e+000 223 122 77
-1.667532e+000 -5.171937e-001 -5.488919e+000 236 150 110
-1.549227e-001 -7.510833e-001 -5.715106e+000 131 98 81
6.859420e-001 -7.849157e-001 -5.995654e+000 225 214 198
2.033496e+000 -1.433406e+000 -5.435112e+000 196 130 70
-1.956176e+000 -3.310788e-001 -5.737438e+000 204 181 129
-1.447271e+000 -8.249056e-001 -5.622373e+000 141 68 46
-1.083277e+000 -8.135046e-001 -5.721175e+000 192 99 66
-9.101675e-001 -8.814316e-001 -5.782813e+000 132 49 31
-6.233477e-001 -9.296837e-001 -5.915544e+000 113 57 46
5.724713e-002 -8.853997e-001 -6.149110e+000 145 127 116
1.647001e+000 -1.459088e+000 -5.929827e+000 151 54 46
1.529355e+000 -1.823358e+000 -6.081016e+000 237 163 69
1.610812e+000 -1.998728e+000 -6.000602e+000 208 121 50
1.312652e+000 -2.107123e+000 -6.477613e+000 225 179 68
1.233359e+000 -2.153670e+000 -6.732467e+000 219 147 105
9.087835e-001 -2.121836e+000 -7.405051e+000 165 85 73
9.514119e-001 -2.105082e+000 -7.283700e+000 157 60 56
1.278264e+000 7.591430e-001 -5.715992e+000 244 240 229
2.147107e+000 -5.335277e-001 -4.775185e+000 110 85 74
2.147107e+000 -5.335277e-001 -4.775185e+000 110 85 74
2.126557e+000 -6.516568e-001 -4.801193e+000 90 71 58
3.030618e+000 -3.441609e-001 -5.509664e+000 140 129 123
7.793498e-001 1.212342e+000 -6.794686e+000 222 219 210
2.031386e+000 -6.562716e-001 -5.263719e+000 153 103 43
2.554581e+000 -8.348731e-001 -5.318706e+000 91 70 67
2.554581e+000 -8.348731e-001 -5.318706e+000 91 70 67
1.896664e+000 -5.943794e-001 -5.502672e+000 118 44 41
-5.611405e-001 -4.997362e-001 -5.447729e+000 200 105 62
1.247539e-001 -3.574179e-001 -5.825114e+000 114 99 89
-1.165254e+000 -4.414141e-001 -5.496827e+000 173 125 89
1.467012e+000 -7.392438e-001 -6.130983e+000 102 69 42
1.591915e+000 -8.516041e-001 -5.967839e+000 196 62 59
1.507018e-002 -6.644628e-001 -5.910017e+000 116 99 84
-1.568177e+000 -8.487403e-001 -5.563915e+000 134 57 32
-1.573736e+000 -8.297339e-001 -5.598461e+000 134 57 32
-1.393682e+000 -8.073354e-001 -5.606223e+000 120 49 28
1.504583e+000 -1.349069e+000 -5.910321e+000 214 69 66
1.679728e+000 -1.506575e+000 -5.794541e+000 228 166 78
-1.238646e+000 -8.603765e-001 -5.825697e+000 146 80 59
-5.922192e-001 -1.043145e+000 -5.971931e+000 97 36 28
1.650078e+000 -1.620176e+000 -5.839323e+000 211 91 63
1.663173e+000 -1.747727e+000 -5.709536e+000 226 207 177
1.673967e+000 -1.781595e+000 -5.682461e+000 185 81 57
-9.354162e-001 -1.127428e+000 -6.018481e+000 207 119 79
1.108340e-001 -7.493944e-001 -7.196970e+000 185 174 161
-8.046921e-001 -1.226922e+000 -6.240231e+000 169 90 60
1.431358e+000 -1.997726e+000 -6.232369e+000 207 120 46
3.364532e-001 -1.198492e+000 -7.967404e+000 243 243 233
1.384611e+000 -2.048699e+000 -6.321720e+000 221 158 67
1.364998e+000 -2.255749e+000 -6.284548e+000 197 100 78
9.314278e-001 -2.127009e+000 -7.343446e+000 230 179 100
1.964396e+000 -1.010647e-002 -5.387539e+000 89 41 39
2.586156e+000 -8.528535e-001 -5.350246e+000 73 37 36
-1.417767e+000 -6.571263e-002 -5.571570e+000 195 195 197
1.450369e+000 -5.817399e-001 -6.099666e+000 100 75 46
1.450369e+000 -5.817399e-001 -6.099666e+000 100 75 46
1.835072e+000 -1.023588e+000 -5.546937e+000 216 206 204
1.933276e-001 -4.440140e-001 -5.978883e+000 91 73 56
1.582042e+000 -8.128093e-001 -5.999327e+000 99 32 31
1.527492e+000 -8.595645e-001 -6.045985e+000 197 59 56
1.718459e+000 -9.962783e-001 -5.747017e+000 58 36 31
1.773640e+000 -1.054236e+000 -5.705086e+000 110 118 96
1.792377e+000 -1.069972e+000 -5.646899e+000 163 170 139
2.105819e+000 -1.397089e+000 -5.153309e+000 135 115 100
-2.030262e+000 -2.804022e-001 -5.803975e+000 63 54 58
-2.035199e+000 -2.735825e-001 -5.811989e+000 63 54 58
3.138450e-001 -8.184250e-001 -6.026399e+000 169 156 144
-1.670844e+000 -7.289841e-001 -5.562422e+000 210 122 85
-1.009365e-001 -8.622605e-001 -6.139243e+000 125 104 83
-7.013995e-002 -8.938161e-001 -6.162809e+000 155 137 123
1.520321e+000 -1.906262e+000 -6.057021e+000 241 187 88
1.522093e+000 -1.943240e+000 -5.954743e+000 232 179 98
2.165755e-001 -1.013357e+000 -7.751138e+000 242 240 232
1.314972e+000 -2.131603e+000 -6.486349e+000 147 87 68
8.925311e-001 -2.031728e+000 -7.425774e+000 144 67 52
9.856200e-001 -2.123629e+000 -7.067668e+000 175 70 66
1.209782e+000 -2.210436e+000 -6.556467e+000 206 119 99
8.014726e-001 -2.050604e+000 -7.462161e+000 115 47 40
1.605790e+000 -3.726130e-002 -4.596059e+000 98 82 68
1.180901e+000 3.000808e+000 -7.406994e+000 218 219 215
1.254218e+000 1.124445e+001 -1.681597e+001 201 200 196
1.254218e+000 1.124445e+001 -1.681597e+001 201 200 196
7.805340e-001 2.553210e+000 -8.078095e+000 212 210 207
2.028043e+000 -4.286956e-001 -5.340799e+000 130 80 45
1.634514e+000 -3.254491e-001 -5.583029e+000 99 65 44
1.596213e+000 -4.716873e-001 -5.480442e+000 105 85 53
1.837524e+000 -9.754064e-001 -5.592850e+000 167 158 152
-6.002879e-001 -5.039576e-001 -5.420089e+000 244 202 152
3.544308e-001 -4.388462e-001 -6.035297e+000 85 70 63
6.343880e-001 -6.044525e-001 -6.000644e+000 210 205 189
-1.215741e+000 -6.932519e-001 -5.697353e+000 87 33 21
-6.366286e-001 -7.880852e-001 -5.792444e+000 210 162 116
1.686119e+000 -1.276870e+000 -5.864654e+000 66 67 47
-4.623779e-001 -1.035288e+000 -5.797854e+000 194 179 164
-2.004121e-002 -8.957584e-001 -6.068664e+000 131 109 97
1.629202e+000 -1.451353e+000 -5.974746e+000 213 147 62
-1.379885e-002 -9.347270e-001 -9.205154e+000 231 224 218
9.239440e-001 -2.077489e+000 -7.348717e+000 216 163 76
9.717163e-001 1.427214e+000 -6.545177e+000 233 230 223
1.240555e+000 1.079311e+000 -6.104805e+000 239 237 225
1.574262e+000 -3.172462e-001 -6.012760e+000 93 39 34
-4.547486e-001 -4.702344e-001 -5.422378e+000 245 206 159
2.600036e-001 -4.259718e-001 -5.967824e+000 65 52 43
2.984796e-001 -4.548326e-001 -6.192213e+000 82 63 56
1.852513e+000 -1.217056e+000 -5.402592e+000 214 141 74
-3.370335e-001 -7.618493e-001 -5.646604e+000 216 163 116
-7.521553e-001 -7.100878e-001 -5.725305e+000 172 113 75
-8.821267e-003 -8.609206e-001 -6.000976e+000 161 146 133
-1.563889e+000 -7.914832e-001 -5.571886e+000 116 42 29
-6.915170e-001 -8.182472e-001 -5.793465e+000 220 170 124
1.168147e+000 -1.251403e+000 -6.179087e+000 243 204 146
-5.356097e-001 -1.110259e+000 -5.922905e+000 212 122 73
-6.280959e-001 -1.092675e+000 -5.971448e+000 192 97 64
1.477158e+000 -1.790390e+000 -6.102151e+000 236 186 97
1.166894e+000 -2.051257e+000 -6.909631e+000 150 96 58
1.300347e+000 -2.200651e+000 -6.417236e+000 235 182 98
9.817136e-001 -2.063998e+000 -7.292695e+000 171 68 63
1.076359e+000 -2.117097e+000 -7.026976e+000 156 90 74
1.199283e+000 -2.108951e+000 -6.817805e+000 222 178 88
2.142050e+000 -8.076055e-001 -4.973391e+000 173 134 100
-4.200637e-001 -1.714689e-001 -5.447090e+000 189 182 172
1.577116e+000 -2.400427e-001 -6.284616e+000 83 52 35
5.278219e-002 -5.009611e-001 -5.876719e+000 125 112 96
1.848513e+000 -1.398531e+000 -5.238525e+000 200 123 56
1.300844e+000 -1.029244e+000 -5.967186e+000 116 41 36
-9.048588e-001 -7.215747e-001 -5.737211e+000 99 41 30
1.684710e+000 -1.361811e+000 -5.846621e+000 174 161 156
1.587375e+000 -1.457084e+000 -6.084105e+000 127 45 37
-1.045923e+000 -1.056066e+000 -6.084484e+000 216 215 213
1.317059e+000 -2.064094e+000 -6.486027e+000 208 160 76
1.620971e+000 -4.298483e-001 -5.397226e+000 185 168 117
1.631998e+000 -4.096816e-001 -5.426601e+000 185 168 117
2.304630e+000 -8.809790e-001 -5.071938e+000 155 135 126
2.200978e+000 -8.707788e-001 -5.506522e+000 206 119 48
-1.557468e+000 -5.891187e-002 -5.570421e+000 188 182 182
-8.659588e-001 -4.736581e-001 -5.603466e+000 156 78 49
-1.590936e+000 -4.889544e-001 -5.436877e+000 123 45 27
1.801932e+000 -1.495233e+000 -5.542863e+000 221 199 195
-1.097754e-001 -9.569483e-001 -6.264802e+000 98 56 44
-9.601247e-001 -1.179515e+000 -6.193349e+000 221 216 213
2.571007e-001 -1.006189e+000 -7.560012e+000 204 190 179
1.364813e+000 -1.879484e+000 -6.297841e+000 105 46 37
1.356124e+000 -1.884603e+000 -6.275423e+000 105 46 37
1.366995e+000 -2.102920e+000 -6.411286e+000 242 194 85
1.488840e+000 -2.206789e+000 -6.180081e+000 208 127 57
1.209251e+000 7.854080e-001 -5.783616e+000 140 133 104
-6.246563e-001 -5.100083e-001 -5.537928e+000 244 202 153
1.288453e+000 -1.715752e+000 -6.256087e+000 87 40 34
5.811329e-001 -1.293730e+000 -7.503189e+000 217 205 189
7.105653e-002 -9.157681e-001 -9.157670e+000 245 237 230
6.864079e-001 -1.898846e+000 -7.298944e+000 218 83 87
1.165868e+000 -2.191155e+000 -6.824154e+000 241 207 115
1.725985e+000 -5.803045e-001 -5.351428e+000 100 52 47
1.740082e+000 -5.674796e-001 -5.375738e+000 100 52 47
6.305502e-001 -5.435802e-001 -5.919542e+000 222 218 206
6.305502e-001 -5.435802e-001 -5.919542e+000 222 218 206
-1.283960e+000 -4.806656e-001 -5.520378e+000 239 203 153
1.192831e+000 -2.050173e+000 -6.484342e+000 106 53 41
1.342812e+000 -2.147487e+000 -6.326345e+000 230 186 81
8.576610e-001 -1.982096e+000 -7.285436e+000 122 61 49
-8.744592e-001 -2.618047e-001 -5.582760e+000 245 205 154
6.845489e-001 -8.431269e-001 -6.067906e+000 224 218 206
6.181101e-001 -1.031733e+000 -6.321432e+000 164 145 130
1.700532e+000 -1.592863e+000 -5.852313e+000 230 184 91
-7.382494e-001 -1.213855e+000 -6.257180e+000 155 77 55
1.559570e+000 -1.849127e-001 -5.770513e+000 105 41 39
-2.998430e-001 -1.130488e+000 -6.172091e+000 99 49 39
1.672487e+000 -1.896212e+000 -6.184651e+000 225 200 192
-1.108780e+000 -6.500726e-001 -5.862373e+000 142 58 32
9.853448e-001 -1.775442e+000 -6.472568e+000 239 231 220
2.145597e+000 2.350987e-001 -4.838644e+000 246 191 144
2.142977e+000 5.923456e-002 -4.834257e+000 246 193 150
2.073947e+000 -3.538545e-002 -5.065706e+000 220 173 91
3.530576e+000 3.702176e-001 -5.745679e+000 161 138 127
2.107034e+000 -5.838966e-001 -4.716723e+000 120 101 92
2.111189e+000 -7.009540e-001 -4.772217e+000 142 122 112
2.046178e+000 -8.574391e-001 -4.779987e+000 118 95 88
2.880155e+000 -7.040302e-001 -5.452241e+000 81 65 64
2.688853e+000 -8.269300e-001 -5.359061e+000 122 97 82
2.686534e+000 -8.376179e-001 -5.366433e+000 93 65 53
-8.132061e-001 -7.542945e-002 -5.502802e+000 141 78 75
-5.714266e-001 -3.997133e-001 -5.366934e+000 199 109 83
-2.631296e-001 -4.635484e-001 -5.266149e+000 170 162 151
-1.106944e+000 -3.151318e-001 -5.624162e+000 182 115 81
1.335838e+000 -7.027429e-001 -6.016591e+000 93 63 36
-8.921294e-001 -7.061971e-001 -5.655003e+000 166 83 57
1.751972e+000 -1.370155e+000 -5.677112e+000 165 158 153
-1.803049e+000 -6.476017e-001 -5.584653e+000 136 86 81
1.656362e+000 -1.247524e+000 -5.947554e+000 108 68 65
1.789345e+000 -1.491027e+000 -5.515980e+000 133 104 103
1.704144e+000 -1.661704e+000 -5.801716e+000 180 98 67
1.637885e+000 -1.797559e+000 -5.946526e+000 205 128 94
1.354936e+000 -2.110410e+000 -6.519027e+000 229 180 79
1.557983e+000 -2.211829e+000 -5.907554e+000 207 143 91
1.251929e+000 -2.179840e+000 -6.855290e+000 214 149 92
1.348904e+000 -2.223699e+000 -6.538605e+000 129 115 115
2.124109e+000 2.880421e-001 -4.804764e+000 206 130 81
2.872925e+000 4.793168e-001 -5.339025e+000 148 132 116
1.279290e+000 9.846297e-001 -5.585593e+000 190 180 137
1.417084e+000 -3.333828e-001 -4.565695e+000 119 106 89
2.098401e+000 -5.642610e-001 -4.752047e+000 215 145 89
2.124731e+000 -5.559189e-001 -4.766487e+000 112 89 82
2.135321e+000 -6.102415e-001 -4.754820e+000 97 78 64
1.913336e+000 -3.239810e-001 -5.413938e+000 112 71 67
1.877640e+000 -7.052251e-001 -5.344033e+000 137 105 92
9.989464e-002 -1.681979e-001 -5.608892e+000 185 176 169
6.044935e-002 -3.767375e-001 -5.786386e+000 56 42 31
-8.105233e-001 -7.088882e-001 -5.682529e+000 176 95 61
8.784878e-001 -9.507272e-001 -6.160139e+000 182 155 131
1.674885e-001 -8.085608e-001 -7.393978e+000 205 199 187
1.660723e+000 -1.775270e+000 -5.824920e+000 217 194 188
1.490611e+000 -1.599136e+000 -6.297367e+000 186 107 54
1.640745e+000 -1.906494e+000 -5.917585e+000 212 133 71
1.542865e+000 -1.867760e+000 -6.050432e+000 216 125 61
1.566869e+000 -1.856583e+000 -6.113355e+000 216 125 61
-1.420791e-001 -8.256792e-001 -9.086435e+000 212 208 198
1.303608e+000 9.925780e-001 -5.588559e+000 202 189 143
1.890407e+000 -6.228730e-001 -5.435266e+000 137 104 89
2.649840e+000 -8.726693e-001 -5.376819e+000 143 116 98
2.649840e+000 -8.726693e-001 -5.376819e+000 143 116 98
2.607595e+000 -9.232614e-001 -5.307868e+000 154 126 111
-7.518212e-001 -9.391853e-002 -5.420349e+000 224 95 92
1.881253e+000 -1.132602e+000 -5.386148e+000 213 156 88
1.869191e+000 -1.188548e+000 -5.406409e+000 194 118 48
-1.881209e-001 -7.151387e-001 -5.571237e+000 171 68 61
-8.451620e-001 -6.953013e-001 -5.664254e+000 211 126 88
1.672372e+000 -1.193342e+000 -5.990434e+000 83 40 39
1.722900e+000 -1.455405e+000 -5.806980e+000 196 104 61
-7.157214e-001 -1.112109e+000 -5.850875e+000 135 63 48
-7.931784e-001 -1.146389e+000 -5.896868e+000 165 73 36
1.683716e+000 -2.044492e+000 -5.610099e+000 126 94 69
1.496352e+000 -2.148864e+000 -6.205082e+000 216 136 69
1.934014e+000 -6.979356e-001 -5.359992e+000 143 117 106
1.758079e+000 -6.991230e-001 -5.688639e+000 75 31 28
2.186429e+000 -9.274148e-001 -5.551069e+000 222 148 92
-2.074481e+000 -4.432964e-001 -5.791938e+000 101 82 52
-1.925680e+000 -5.722586e-001 -5.631825e+000 193 169 110
-9.460867e-001 -1.107053e+000 -6.064193e+000 197 115 74
2.858905e+000 -6.886809e-001 -5.412771e+000 64 49 46
2.746015e+000 -7.772450e-001 -5.372883e+000 170 149 132
-2.082080e-001 -1.245116e-001 -5.541085e+000 168 160 149
-1.487863e+000 -1.579174e-001 -5.577938e+000 193 188 185
-1.487863e+000 -1.579174e-001 -5.577938e+000 193 188 185
-7.986167e-002 -8.428074e-001 -6.029466e+000 119 98 80
-4.639722e-002 -8.491022e-001 -6.053650e+000 155 139 126
1.305848e+000 -1.341432e+000 -6.126918e+000 137 43 34
1.812099e+000 -6.641122e-001 -5.648890e+000 80 35 30
7.676657e-001 -1.011813e+000 -6.012127e+000 208 204 188
-1.872469e+000 -5.848693e-001 -5.632085e+000 79 43 37
-1.813027e+000 -6.563721e-001 -5.544977e+000 143 120 124
-1.813027e+000 -6.563721e-001 -5.544977e+000 143 120 124
1.471551e+000 -1.812925e+000 -6.230102e+000 186 77 44
1.951142e+000 1.743007e-001 -5.213358e+000 94 57 44
-2.295309e-002 -3.354119e-001 -5.648929e+000 107 89 75
-6.704710e-002 -6.293984e-001 -5.842456e+000 124 101 86
-1.279954e-001 -1.170403e+000 -6.369668e+000 137 83 62
1.441427e+000 -1.878930e+000 -6.250911e+000 233 189 91
2.137081e+000 -4.282769e-001 -5.322079e+000 145 100 33
-1.069841e+000 -2.291319e-001 -5.720424e+000 194 193 190
1.503757e+000 -9.519842e-001 -6.130868e+000 153 42 39
1.282048e+000 -2.097236e+000 -6.606825e+000 217 170 82
2.197474e+000 2.992362e-001 -4.895049e+000 227 154 108
2.062008e+000 -8.409336e-003 -4.967832e+000 251 204 75
2.198746e+000 -1.145743e+000 -6.165503e+000 223 172 82
1.850812e+000 -6.870541e-001 -5.505194e+000 127 78 39
-1.352637e+000 -2.855531e-001 -5.587933e+000 137 101 79
1.306498e+000 -1.049687e+000 -5.944314e+000 122 38 38
-6.273892e-001 -4.991113e-001 -5.560243e+000 243 202 150
2.166111e-001 1.650467e-002 -5.881851e+000 212 207 199
4.395335e-001 -5.908455e-001 -6.044130e+000 65 39 40
2.402046e+000 -2.067930e+000 -7.265223e+000 91 56 37
2.014692e+000 1.159833e+000 -6.285766e+000 247 243 233
1.249486e+000 -5.872663e-001 -4.174599e+000 124 106 84
2.182062e+000 -5.134278e-002 -4.907650e+000 247 224 188
2.085263e+000 3.822116e-002 -5.151630e+000 189 155 112
2.076812e+000 2.811383e-002 -5.139154e+000 189 155 112
1.081278e+000 5.537073e-001 -5.680658e+000 146 140 116
2.158603e+000 -5.837028e-001 -4.801109e+000 103 87 75
1.922834e+000 -5.257836e-001 -5.637367e+000 114 55 56
1.845394e+000 -5.680990e-001 -5.719234e+000 83 35 34
2.036454e+000 -8.858585e-001 -5.248754e+000 195 116 52
2.739901e+000 -1.020769e+000 -5.330288e+000 133 117 113
2.736841e+000 -1.089879e+000 -5.337824e+000 131 116 109
-7.247559e-001 -9.606660e-002 -5.482387e+000 194 86 81
-6.658421e-001 -1.720624e-001 -5.429556e+000 226 105 97
-1.497660e+000 -6.786717e-002 -5.677528e+000 84 50 49
-4.382447e-001 -4.505648e-001 -5.396126e+000 224 159 128
-1.483620e+000 -1.385929e-001 -5.644873e+000 121 71 61
-1.273242e+000 -1.592492e-001 -5.748217e+000 186 178 170
-9.552427e-001 -3.821438e-001 -5.624455e+000 182 103 68
-5.561493e-001 -5.069176e-001 -5.468240e+000 241 200 144
7.738234e-001 -6.091373e-001 -5.952647e+000 101 72 52
1.682493e+000 -1.048451e+000 -5.719124e+000 71 41 36
1.815517e+000 -1.025433e+000 -5.645085e+000 185 191 174
1.794308e+000 -1.152265e+000 -5.630404e+000 205 210 186
1.808136e+000 -1.152326e+000 -5.598282e+000 176 182 160
-2.037171e+000 -2.299337e-001 -5.795025e+000 166 148 101
-1.862310e+000 -4.071782e-001 -5.590865e+000 134 73 64
9.243678e-001 -7.614121e-001 -6.256305e+000 146 70 55
1.799871e+000 -1.416676e+000 -5.483747e+000 106 88 77
1.811688e+000 -1.439879e+000 -5.456915e+000 118 103 98
-2.070818e+000 -4.052750e-001 -5.796580e+000 162 141 92
-2.020244e+000 -3.953741e-001 -5.770963e+000 114 94 44
-2.020244e+000 -3.953741e-001 -5.770963e+000 114 94 44
-1.870995e+000 -5.977581e-001 -5.552512e+000 81 28 28
-1.445999e+000 -7.022974e-001 -5.505717e+000 140 64 50
1.713352e+000 -1.297635e+000 -5.792989e+000 77 89 74
1.757437e+000 -1.568631e+000 -5.537844e+000 136 116 114
-1.934724e+000 -5.849604e-001 -5.626334e+000 99 75 46
-1.728774e+000 -7.907803e-001 -5.420223e+000 139 84 80
-1.686159e+000 -8.257239e-001 -5.547085e+000 121 64 56
1.721023e+000 -1.699967e+000 -5.592639e+000 225 147 69
-9.387999e-001 -1.041850e+000 -5.785384e+000 202 105 66
1.653430e+000 -1.667098e+000 -5.779742e+000 217 152 72
1.681314e+000 -1.704134e+000 -5.677273e+000 202 183 171
1.670626e+000 -1.722584e+000 -5.710057e+000 114 88 84
1.489795e+000 -1.740702e+000 -6.123490e+000 229 166 62
1.500896e+000 -1.755167e+000 -6.029101e+000 216 129 58
1.583882e+000 -1.796249e+000 -5.903717e+000 224 136 66
1.601773e+000 -1.846338e+000 -5.847900e+000 101 80 71
1.590400e+000 -1.865071e+000 -5.865000e+000 118 94 90
1.587596e+000 -1.866889e+000 -5.859121e+000 118 94 90
1.101586e+000 -1.696786e+000 -6.104435e+000 207 186 170
1.402992e+000 -1.707637e+000 -6.376988e+000 149 76 34
1.564565e+000 -1.916463e+000 -5.905247e+000 121 96 91
1.571881e+000 -1.915049e+000 -5.866119e+000 120 94 94
1.567697e+000 -1.927132e+000 -5.876181e+000 194 179 170
1.562590e+000 -1.953532e+000 -5.883573e+000 218 192 180
1.411238e+000 -1.937434e+000 -6.219023e+000 230 157 63
1.517845e+000 -1.979492e+000 -5.996004e+000 130 110 104
1.379441e+000 -1.929535e+000 -6.485211e+000 128 69 39
1.314087e+000 -1.998124e+000 -6.520015e+000 133 76 43
1.324685e+000 -2.078146e+000 -6.351112e+000 214 164 75
1.464410e+000 -2.161147e+000 -6.120044e+000 217 136 64
1.416637e+000 -2.188578e+000 -6.146118e+000 233 170 89
1.501551e+000 -2.226143e+000 -5.757240e+000 253 194 132
1.204028e+000 -2.142268e+000 -6.673044e+000 208 138 101
1.352931e+000 -2.205097e+000 -6.235125e+000 154 139 131
1.322543e+000 -2.231977e+000 -6.344259e+000 126 110 105
1.324578e+000 -2.238097e+000 -6.369855e+000 220 210 200
1.298525e+000 -2.246896e+000 -6.387045e+000 115 97 94
1.327942e+000 -2.243335e+000 -6.327735e+000 211 196 197
1.399913e+000 -2.361183e+000 -5.968114e+000 245 180 118
1.445532e+000 -2.298697e+000 -5.861424e+000 246 192 136
1.430679e+000 -2.322144e+000 -5.832607e+000 217 155 97
1.451761e+000 -2.325741e+000 -5.951377e+000 220 158 102
1.459495e+000 -2.326624e+000 -5.933055e+000 235 184 131
1.205335e+000 -2.176692e+000 -6.665797e+000 228 158 106
1.282458e+000 -2.306971e+000 -6.390614e+000 225 195 192
2.154169e+000 4.789131e-001 -5.059762e+000 170 101 51
2.164053e+000 -2.811684e-002 -4.889385e+000 241 216 181
1.077348e+000 6.260725e-001 -5.763938e+000 124 117 98
1.077348e+000 6.260725e-001 -5.763938e+000 124 117 98
2.193209e+000 -5.051045e-001 -4.811752e+000 166 149 136
2.172205e+000 -7.786153e-001 -4.947917e+000 140 118 106
2.714139e+000 -6.717671e-001 -5.312377e+000 151 128 110
1.929651e+000 -5.829549e-001 -5.403068e+000 140 107 97
2.641405e+000 -8.955296e-001 -5.359245e+000 157 130 112
-8.097123e-001 -6.334848e-002 -5.542455e+000 195 174 149
-8.097123e-001 -6.334848e-002 -5.542455e+000 195 174 149
1.684001e+000 -8.006075e-001 -5.601536e+000 114 44 36
2.844783e+000 -9.912922e-001 -5.592721e+000 79 61 59
2.731490e+000 -1.024399e+000 -5.512909e+000 69 51 38
-5.773433e-001 -3.740453e-001 -5.436748e+000 170 85 58
-5.557668e-001 -3.572569e-001 -5.451760e+000 196 110 83
-1.769958e+000 -1.440949e-001 -5.697486e+000 130 81 81
-2.165811e-001 -6.877055e-001 -5.579888e+000 129 53 39
3.151682e-001 -4.375833e-001 -5.952789e+000 133 123 113
5.991383e-001 -6.010517e-001 -6.033490e+000 133 116 103
1.607382e+000 -8.808468e-001 -5.782509e+000 206 76 72
1.779314e+000 -1.148317e+000 -5.688684e+000 87 101 76
-4.604720e-001 -6.576891e-001 -5.688947e+000 201 136 82
-2.289680e-001 -7.660147e-001 -5.615610e+000 152 128 114
-7.157979e-002 -6.691592e-001 -5.787662e+000 125 100 82
-2.103746e+000 -3.512540e-001 -5.862148e+000 137 119 71
-2.099934e+000 -4.266260e-001 -5.803023e+000 165 146 88
-2.015111e+000 -4.557938e-001 -5.731398e+000 177 156 102
1.745467e+000 -1.382916e+000 -5.734308e+000 224 216 205
1.840080e+000 -1.639185e+000 -5.221409e+000 206 164 126
-1.666335e+000 -7.223733e-001 -5.520595e+000 203 105 60
-1.101394e+000 -8.921580e-001 -5.751683e+000 201 112 72
-8.289446e-001 -8.685023e-001 -5.815153e+000 145 61 33
-4.251123e-002 -8.981426e-001 -5.996821e+000 125 104 93
1.717773e+000 -1.646629e+000 -5.617085e+000 231 204 201
1.714508e+000 -1.846530e+000 -5.116026e+000 109 84 67
-9.103451e-001 -1.049433e+000 -5.794489e+000 180 86 48
1.563138e+000 -1.674178e+000 -6.029554e+000 190 105 55
1.564705e+000 -1.839209e+000 -5.899002e+000 232 168 68
-2.459400e-001 -1.190166e+000 -6.480330e+000 142 98 90
1.634375e+000 -2.056263e+000 -5.572416e+000 206 132 76
1.622589e+000 -2.065999e+000 -5.578811e+000 253 209 156
1.620435e+000 -2.109652e+000 -5.636746e+000 221 161 107
1.355155e+000 -1.888908e+000 -6.434581e+000 135 72 47
1.510300e+000 -1.996525e+000 -5.991784e+000 234 216 202
1.512720e+000 -2.019430e+000 -5.930170e+000 232 214 199
1.490193e+000 -2.051908e+000 -5.971033e+000 240 217 208
1.482018e+000 -2.068305e+000 -6.051312e+000 234 216 205
1.541291e+000 -2.197117e+000 -5.772151e+000 213 143 79
1.428924e+000 -2.092526e+000 -6.131429e+000 114 90 80
1.259825e+000 -2.101102e+000 -6.719581e+000 199 121 77
1.352196e+000 -2.231858e+000 -6.262419e+000 233 215 214
1.264749e+000 -2.222359e+000 -6.503040e+000 203 128 81
2.163603e+000 -2.944720e-001 -4.734018e+000 121 100 92
2.155359e+000 -3.674316e-001 -4.771268e+000 213 135 79
1.988311e+000 -2.492923e-002 -5.366498e+000 232 186 187
2.108427e+000 -6.288870e-001 -4.765296e+000 100 80 71
1.417325e+000 -4.544999e-001 -4.836027e+000 119 96 76
3.043590e+000 -6.837968e-001 -5.601723e+000 58 42 44
2.462617e-001 -1.135679e-001 -5.714498e+000 233 229 218
1.878774e+000 -5.907724e-001 -5.526395e+000 135 96 90
-7.502800e-001 -5.886331e-002 -5.476969e+000 217 98 98
-1.468592e+000 -2.697931e-002 -5.634549e+000 71 39 37
-6.484372e-001 -2.386315e-001 -5.561948e+000 191 121 85
-5.147633e-001 -3.785813e-001 -5.448793e+000 190 110 77
1.821865e+000 -1.041192e+000 -5.539361e+000 217 211 210
-1.252401e+000 -3.151939e-001 -5.577400e+000 217 180 136
-1.201325e+000 -3.917664e-001 -5.525840e+000 179 122 101
-1.028653e+000 -2.331458e-001 -5.770310e+000 215 126 70
-8.831712e-001 -4.453824e-001 -5.669578e+000 168 98 69
-8.831712e-001 -4.453824e-001 -5.669578e+000 168 98 69
1.746544e+000 -1.069626e+000 -5.730821e+000 59 53 38
-1.869623e+000 -3.689109e-001 -5.611913e+000 108 49 42
-1.391660e+000 -5.794898e-001 -5.524143e+000 159 92 68
-4.789979e-001 -6.474866e-001 -5.696750e+000 202 138 86
7.105658e-001 -6.933264e-001 -6.054004e+000 210 194 181
-1.403675e+000 -6.349172e-001 -5.453974e+000 164 88 63
-1.467347e+000 -6.887813e-001 -5.508238e+000 123 46 27
-1.096438e+000 -7.550333e-001 -5.638045e+000 141 62 43
-8.442275e-001 -7.219378e-001 -5.611162e+000 211 123 88
-6.999969e-001 -7.821577e-001 -5.682050e+000 206 155 113
-2.019459e+000 -5.557932e-001 -5.722574e+000 178 161 117
-1.543578e+000 -7.498059e-001 -5.508384e+000 161 76 45
-1.104900e+000 -8.145425e-001 -5.678471e+000 153 59 32
-2.116611e-001 -1.006687e+000 -6.010663e+000 124 94 81
1.714546e+000 -1.468125e+000 -5.758185e+000 197 99 64
1.701956e+000 -1.509898e+000 -5.766406e+000 231 153 77
-1.092568e+000 -9.244625e-001 -5.817676e+000 187 91 57
-1.092568e+000 -9.244625e-001 -5.817676e+000 187 91 57
-5.521817e-001 -1.083176e+000 -5.853596e+000 192 138 119
-5.520332e-001 -1.081522e+000 -5.907444e+000 134 69 49
1.896061e+000 -1.788717e+000 -5.548388e+000 120 92 78
-7.940592e-001 -1.177603e+000 -6.136897e+000 137 59 49
1.493680e+000 -2.270114e+000 -5.643823e+000 121 85 62
1.207722e+000 -2.130278e+000 -6.641793e+000 163 91 67
1.349031e+000 -2.154507e+000 -6.318788e+000 234 181 83
9.503646e-001 -2.093624e+000 -7.049830e+000 158 61 52
1.350415e+000 -2.400692e+000 -6.023212e+000 222 144 79
1.233766e+000 -2.380015e+000 -6.501049e+000 199 109 58
1.236630e+000 -2.377245e+000 -6.514332e+000 199 109 58
2.755024e+000 -6.681356e-001 -5.387747e+000 78 50 40
2.627907e+000 -8.354048e-001 -5.320759e+000 85 57 43
7.715741e-001 -3.704686e-001 -5.839231e+000 229 224 213
2.738939e+000 -1.035486e+000 -5.424615e+000 87 68 59
8.058889e-002 -3.362795e-001 -5.873022e+000 55 43 31
1.765476e+000 -9.190903e-001 -5.753741e+000 92 59 54
2.112019e+000 -1.276850e+000 -5.268804e+000 97 73 61
-1.302414e+000 -2.743731e-001 -5.644590e+000 221 188 137
-1.251735e+000 -4.020746e-001 -5.481929e+000 192 147 98
2.217443e+000 -1.371508e+000 -5.505040e+000 81 58 43
-1.840480e+000 -2.612675e-001 -5.635365e+000 119 67 63
-1.840480e+000 -2.612675e-001 -5.635365e+000 119 67 63
-1.672547e+000 -3.542279e-001 -5.545425e+000 175 70 41
4.036673e-001 -7.318441e-001 -6.084383e+000 164 154 139
7.955469e-001 -7.696976e-001 -5.964715e+000 198 188 160
1.005036e+000 -7.749626e-001 -6.020923e+000 196 138 93
1.735027e+000 -1.205796e+000 -5.744314e+000 73 93 62
-1.830384e+000 -5.616357e-001 -5.503973e+000 144 84 80
-1.854874e+000 -5.712392e-001 -5.623931e+000 68 26 24
-1.801416e+000 -6.444662e-001 -5.527859e+000 153 102 95
1.708147e+000 -1.265845e+000 -5.818460e+000 203 194 184
-2.098954e+000 -4.417679e-001 -5.833235e+000 61 48 47
-1.919378e+000 -5.777893e-001 -5.628774e+000 189 169 105
1.815788e+000 -1.724623e+000 -5.323948e+000 225 160 98
-8.310142e-001 -1.206768e+000 -6.220775e+000 164 86 62
1.200998e+000 -2.062762e+000 -6.666000e+000 122 63 44
2.110348e+000 -6.978514e-002 -5.039298e+000 227 181 54
2.052415e+000 -3.905764e-001 -4.960433e+000 175 104 48
-2.016533e-001 -1.146740e-001 -5.558878e+000 169 160 152
2.789546e+000 -9.070543e-001 -5.421328e+000 55 39 42
-8.993983e-001 -1.274139e-001 -5.561812e+000 84 78 90
2.778685e+000 -1.092969e+000 -5.596289e+000 69 48 43
-5.975364e-001 -3.462051e-001 -5.455107e+000 185 94 70
1.837668e+000 -1.174837e+000 -5.374379e+000 226 178 85
-1.353888e+000 -1.248894e-001 -5.734554e+000 197 197 193
8.846018e-001 -6.696931e-001 -6.139036e+000 67 49 32
1.719267e+000 -1.374570e+000 -5.766152e+000 222 215 210
-1.704152e+000 -7.729919e-001 -5.525982e+000 79 32 27
1.739056e+000 -1.615949e+000 -5.530933e+000 152 92 76
-1.621320e+000 -8.519535e-001 -5.595340e+000 72 31 31
-2.144372e-001 -1.177485e+000 -6.341753e+000 236 232 228
1.505534e+000 -1.596387e+000 -6.206268e+000 216 147 64
1.459273e+000 -1.639002e+000 -6.279537e+000 197 117 51
9.127354e-001 -1.999712e+000 -7.126178e+000 128 61 44
1.244184e+000 -2.224094e+000 -6.556047e+000 231 166 102
2.914757e+000 -5.024559e-001 -5.401598e+000 128 114 109
1.656109e+000 -3.220953e-001 -5.805734e+000 171 59 57
-8.484116e-001 4.495089e-002 -5.617621e+000 149 165 206
-8.484116e-001 4.495089e-002 -5.617621e+000 149 165 206
-4.956843e-001 -1.716401e-001 -5.469154e+000 195 188 178
2.193080e+000 -1.209947e+000 -5.258876e+000 136 115 102
2.193080e+000 -1.209947e+000 -5.258876e+000 136 115 102
-1.357965e+000 -2.671269e-001 -5.666506e+000 71 56 58
-1.845155e-002 -4.607788e-001 -5.848208e+000 101 79 66
1.719998e+000 -1.055410e+000 -5.794252e+000 61 38 32
1.579812e+000 -1.220415e+000 -5.761095e+000 217 82 76
1.785300e+000 -1.297779e+000 -5.517753e+000 221 216 209
-9.412099e-001 -7.774754e-001 -5.721916e+000 169 85 49
5.033377e-001 -8.396887e-001 -6.036900e+000 226 222 210
8.861815e-001 -9.695358e-001 -6.133505e+000 181 153 129
-2.483356e-003 -8.967319e-001 -6.085012e+000 130 108 97
-2.908923e-001 -1.070172e+000 -5.956274e+000 104 54 40
-1.927407e-001 -1.123576e+000 -6.008647e+000 134 75 57
1.272746e+000 -1.340379e+000 -6.157623e+000 237 170 130
-1.019160e+000 -1.030388e+000 -5.939052e+000 226 139 86
-1.316635e-001 -1.239973e+000 -6.214714e+000 126 75 54
-1.316635e-001 -1.239973e+000 -6.214714e+000 126 75 54
9.092489e-001 -1.281337e+000 -6.896977e+000 202 194 173
1.519981e+000 -2.303814e+000 -5.923042e+000 134 94 64
1.214912e+000 -2.352079e+000 -6.576676e+000 235 189 100
2.605576e+000 -4.867125e-001 -5.247000e+000 138 113 108
1.925109e+000 -6.254287e-001 -5.203756e+000 145 122 111
2.776423e+000 -1.065190e+000 -5.554898e+000 46 28 32
1.813589e+000 -9.250487e-001 -5.660953e+000 191 166 168
-1.126528e+000 -4.059227e-001 -5.577324e+000 193 149 112
-2.056958e+000 -5.064144e-001 -5.794418e+000 177 156 106
-2.056958e+000 -5.064144e-001 -5.794418e+000 177 156 106
-1.650690e+000 -8.286428e-001 -5.526874e+000 66 30 29
-6.375847e-001 -1.094675e+000 -5.955570e+000 189 96 60
-2.149128e-001 -1.225511e+000 -6.246658e+000 235 233 222
8.804806e-001 -1.452129e+000 -7.079633e+000 226 218 207
1.042485e+000 -2.061489e+000 -6.449559e+000 215 197 177
1.144810e+000 -2.126868e+000 -6.957149e+000 243 204 119
1.128867e+000 -2.140089e+000 -6.899498e+000 243 204 119
1.165758e+000 -2.291684e+000 -6.591658e+000 246 207 120
1.251582e+000 -2.499548e+000 -6.038168e+000 233 152 85
2.234020e+000 -5.946723e-002 -4.967211e+000 214 145 109
2.821843e+000 -6.738010e-001 -5.401431e+000 145 126 109
2.125339e+000 -1.061167e+000 -5.070986e+000 74 50 38
-9.205635e-001 -8.934388e-002 -5.591655e+000 115 119 177
2.378632e+000 -1.067366e+000 -5.434880e+000 140 118 105
-1.081360e+000 -2.092485e-001 -5.732677e+000 204 199 193
1.840684e+000 -1.360805e+000 -5.399590e+000 230 185 83
-4.802809e-001 -1.088029e+000 -5.845181e+000 118 59 47
1.703272e+000 -1.710607e+000 -5.628609e+000 217 179 124
2.014533e+000 -1.883269e-001 -5.334453e+000 146 55 54
2.014533e+000 -1.883269e-001 -5.334453e+000 146 55 54
2.127224e+000 -9.529041e-001 -5.053801e+000 168 140 123
2.125272e+000 -1.187373e+000 -5.202714e+000 77 49 38
-1.992762e+000 -1.952743e-001 -5.819147e+000 165 144 105
-9.536692e-001 -5.280658e-001 -5.671933e+000 161 108 74
1.968987e+000 -1.548136e+000 -5.313948e+000 80 54 39
7.445047e-001 -9.899247e-001 -6.020997e+000 210 203 188
1.269291e+000 -2.315945e+000 -6.511419e+000 252 204 120
2.203324e+000 2.143201e-001 -4.783858e+000 218 136 79
1.373161e+000 -4.595881e-001 -4.597671e+000 92 69 55
-6.580763e-001 -8.816478e-003 -5.448530e+000 208 206 207
1.467796e+000 -2.641951e-001 -6.014132e+000 157 110 77
1.631387e+000 -9.413160e-001 -5.656522e+000 209 67 62
2.236488e+000 -1.239655e+000 -5.543895e+000 74 46 32
-1.865803e+000 -4.570636e-001 -5.621049e+000 125 61 53
1.008120e-001 -7.039870e-001 -6.938108e+000 174 159 148
1.610464e+000 -1.736287e+000 -5.869256e+000 206 106 64
-4.787363e-001 -1.277727e+000 -6.030475e+000 117 66 52
-1.303075e+000 -1.149236e-001 -5.658481e+000 202 198 197
9.359266e-001 -7.436962e-001 -6.108146e+000 65 44 40
9.374445e-001 -7.416399e-001 -6.112276e+000 65 44 40
1.762778e+000 2.203824e-001 -4.725205e+000 244 240 229
2.742035e+000 -6.459015e-001 -5.451194e+000 72 44 38
1.035512e+000 -4.535973e-001 -5.866351e+000 121 68 47
4.632608e-001 -5.947101e-001 -6.048833e+000 69 40 41
4.632608e-001 -5.947101e-001 -6.048833e+000 69 40 41
-1.700656e+000 -5.661812e-001 -5.472868e+000 229 133 83
1.685106e+000 -1.482684e-001 -4.922650e+000 123 89 65
-2.774504e-001 2.773206e-001 -5.657212e+000 216 218 215
1.205479e+000 -1.320988e-001 -4.676478e+000 250 246 235
2.905568e+000 7.201011e-001 -5.462788e+000 195 178 163
2.046393e+000 -2.044893e-001 -5.404005e+000 137 52 57
1.918183e+000 -2.614644e-001 -5.501468e+000 99 65 61
1.944999e+000 -6.103296e-001 -5.370441e+000 117 52 48
1.944372e+000 -6.289547e-001 -5.356275e+000 145 87 80
8.860623e-001 -4.820577e-001 -5.891912e+000 177 70 64
1.844551e+000 -1.109722e+000 -5.501392e+000 196 195 177
1.721092e+000 -1.070942e+000 -5.860393e+000 65 36 33
-8.614822e-001 -7.476689e-001 -5.664143e+000 128 57 27
1.712460e+000 -1.268725e+000 -5.789479e+000 126 130 107
1.712460e+000 -1.268725e+000 -5.789479e+000 126 130 107
1.767100e+000 -1.491329e+000 -5.518047e+000 109 89 85
1.769116e+000 -1.528122e+000 -5.550241e+000 122 100 92
1.769116e+000 -1.528122e+000 -5.550241e+000 122 100 92
-1.108617e+000 -8.906411e-001 -5.783740e+000 166 79 50
-1.122530e+000 -8.981107e-001 -5.789800e+000 189 105 74
1.721517e+000 -1.613001e+000 -5.630235e+000 117 104 96
1.659748e+000 -1.782417e+000 -5.701496e+000 214 154 124
1.501530e+000 -1.700996e+000 -6.142832e+000 195 92 53
1.538466e+000 -1.991562e+000 -5.970483e+000 140 117 114
1.218082e+000 -2.064846e+000 -6.777267e+000 147 82 55
1.322870e+000 -2.010580e+000 -6.456565e+000 130 70 41
1.387310e+000 -2.148590e+000 -6.248388e+000 111 90 88
1.424896e+000 -2.127631e+000 -6.167305e+000 209 143 101
1.345040e+000 -2.190371e+000 -6.309950e+000 140 122 117
1.770556e-001 -9.343109e-002 -5.707369e+000 203 197 189
1.829606e+000 -5.523824e-001 -5.639265e+000 95 47 49
1.881150e+000 -6.352258e-001 -5.517891e+000 133 95 82
9.520934e-001 -4.331971e-001 -5.821701e+000 164 68 57
2.748368e+000 -1.086113e+000 -5.581985e+000 66 39 31
-1.404371e+000 -3.512294e-001 -5.558753e+000 115 79 55
-1.204999e+000 -4.020848e-001 -5.533608e+000 185 119 108
-2.765863e-001 -6.161463e-001 -5.389850e+000 153 76 67
-1.325190e+000 -6.088880e-001 -5.454996e+000 157 100 59
1.736711e+000 -1.318659e+000 -5.712405e+000 201 207 184
1.824383e+000 -1.356034e+000 -5.472713e+000 228 168 74
-1.162508e+000 -8.123289e-001 -5.679722e+000 134 56 29
1.720643e+000 -1.536932e+000 -5.689519e+000 193 113 66
1.677999e+000 -1.640897e+000 -5.734083e+000 192 105 53
-9.410691e-001 -1.047245e+000 -5.868615e+000 185 91 55
1.653279e+000 -1.782462e+000 -5.737546e+000 224 200 195
1.341637e+000 -1.959683e+000 -6.384741e+000 128 70 39
1.252799e+000 -2.170515e+000 -6.546630e+000 206 137 80
1.319238e+000 -2.308278e+000 -6.352698e+000 222 148 87
2.762535e+000 -5.858258e-001 -5.345361e+000 106 85 69
1.856143e+000 -8.196032e-001 -5.614839e+000 149 103 88
-1.351243e+000 -6.113478e-001 -5.488353e+000 142 65 42
1.802074e+000 -1.514949e+000 -5.462994e+000 211 138 70
-8.261732e-001 -1.117216e+000 -5.865141e+000 167 75 37
1.604769e+000 -1.561789e+000 -5.984813e+000 203 118 62
1.253775e+000 -2.328400e+000 -6.452371e+000 250 202 118
5.477855e-002 -3.591938e-001 -5.883028e+000 115 99 87
-2.715478e-001 -6.906601e-001 -5.666921e+000 110 48 30
-1.614550e+000 -7.237666e-001 -5.501393e+000 211 113 74
-1.410282e+000 -8.385864e-001 -5.592701e+000 169 98 68
-1.011276e+000 -9.297919e-001 -5.752443e+000 205 113 73
1.656312e+000 -1.659254e+000 -5.835095e+000 240 182 85
-1.918735e+000 -1.732346e-001 -5.781451e+000 47 45 51
1.755766e+000 -1.141512e+000 -5.729658e+000 143 153 126
1.040031e+000 -2.229096e+000 -6.857793e+000 175 96 87
3.455413e-001 -2.083776e-001 -5.722608e+000 172 164 150
1.770991e+000 -1.135334e+000 -5.774713e+000 119 128 104
1.747070e+000 -1.226345e+000 -5.722799e+000 87 102 73
2.119310e+000 3.201963e-001 -5.041663e+000 230 175 52
2.034936e+000 -1.469390e+000 -5.139894e+000 115 92 77
1.931247e+000 7.302157e-001 -5.025314e+000 80 50 48
1.295611e+000 3.006279e+000 -7.360950e+000 225 97 99
-1.525911e-001 -6.798562e-001 -5.506764e+000 140 118 103
4.528546e+000 1.194765e+000 -6.652419e+000 165 149 136
-5.327155e-001 -3.341259e-001 -5.383918e+000 224 101 102
1.547780e+000 -4.315112e-001 -5.940957e+000 126 103 75
-1.374675e+000 -6.650673e-002 -5.596142e+000 191 188 184
3.628438e-001 -4.515167e-001 -5.882405e+000 158 149 139
1.703537e+000 -1.172820e+000 -5.849761e+000 76 58 47
1.707451e+000 -1.667914e+000 -5.608809e+000 133 113 102
1.689081e+000 -1.706964e+000 -5.653250e+000 131 109 99
2.070506e+000 -1.578984e-001 -5.103623e+000 171 129 68
1.859988e+000 -5.527341e-001 -5.565640e+000 94 37 36
-5.804917e-001 -2.853734e-001 -5.420650e+000 191 70 67
9.475489e-001 -4.134814e-001 -5.932504e+000 185 72 64
-5.755922e-001 -1.012103e+000 -5.896971e+000 204 75 58
1.861739e+000 -9.929163e-001 -5.504158e+000 195 129 55
-1.163227e+000 -6.203351e-001 -5.525148e+000 163 87 53
-1.562111e+000 -7.009302e-001 -5.588760e+000 161 76 45
-7.232588e-001 -1.264747e+000 -6.026667e+000 136 55 30
-7.232588e-001 -1.264747e+000 -6.026667e+000 136 55 30
2.063267e+000 -4.640989e-002 -5.112426e+000 94 85 80
7.760004e-001 2.549042e+000 -8.449802e+000 193 122 77
1.737229e+000 -1.110606e+000 -5.764611e+000 58 51 37
-1.191169e+000 -8.426310e-001 -5.719798e+000 132 59 45
1.417257e-001 -7.798232e-001 -7.346688e+000 202 195 185
-2.073182e-001 -3.842682e-001 -9.892745e+000 225 226 220
1.557596e+000 1.085451e+001 -1.537777e+001 189 188 186
3.655013e-001 1.511515e+001 -2.030015e+001 136 154 204
3.655013e-001 1.511515e+001 -2.030015e+001 136 154 204
-3.320536e-002 1.532153e+001 -2.132118e+001 159 171 210
-2.383782e-001 1.519008e+001 -2.187353e+001 163 177 213
2.190201e+000 -1.826832e-001 -5.425795e+000 182 141 79
-7.631634e-001 -8.982148e-001 -5.865008e+000 169 86 52
1.819131e+000 1.132211e+001 -1.511556e+001 200 199 198
5.138304e-001 1.540503e+001 -1.986744e+001 175 186 218
-6.726473e-001 1.355836e+001 -2.144998e+001 166 181 212
-1.893145e+000 -5.118385e-001 -5.604341e+000 70 26 23
1.587706e+000 -1.730069e+000 -5.944174e+000 181 80 58
1.137062e-001 -7.270500e-001 -8.626283e+000 223 219 208
1.137062e-001 -7.270500e-001 -8.626283e+000 223 219 208
1.514335e+000 1.468817e+000 -5.732227e+000 130 115 94
1.329774e+000 1.849913e+000 -6.127087e+000 135 124 94
1.326264e+000 1.172963e+000 -5.999065e+000 188 178 142
