ply
format ascii 1.0
element face 0
property list uchar int vertex_indices
element vertex 867
property float x
property float y
property float z
property uchar diffuse_red
property uchar diffuse_green
property uchar diffuse_blue
end_header
1.640367e+000 -1.456947e+000 -5.980345e+000 213 147 62
-2.635684e-003 -9.114211e-001 -9.296182e+000 231 224 218
9.387073e-001 -2.080480e+000 -7.395712e+000 216 163 76
9.773948e-001 1.458438e+000 -6.562172e+000 233 230 223
1.247468e+000 1.105386e+000 -6.115666e+000 239 237 225
1.585010e+000 -3.076588e-001 -6.021867e+000 93 39 34
-4.681575e-001 -4.707736e-001 -5.424864e+000 245 206 159
2.556095e-001 -4.216386e-001 -5.976443e+000 65 52 43
2.955757e-001 -4.496479e-001 -6.203745e+000 82 63 56
1.864409e+000 -1.219784e+000 -5.404106e+000 214 141 74
-3.483174e-001 -7.646391e-001 -5.650355e+000 216 163 116
-7.665570e-001 -7.129784e-001 -5.730378e+000 172 113 75
-1.566818e-002 -8.615415e-001 -6.010026e+000 161 146 133
-1.578109e+000 -7.983820e-001 -5.578106e+000 116 42 29
-7.052208e-001 -8.218319e-001 -5.798916e+000 220 170 124
1.175534e+000 -1.252117e+000 -6.192488e+000 243 204 146
-5.471114e-001 -1.115189e+000 -5.931083e+000 212 122 73
-6.400815e-001 -1.097410e+000 -5.980389e+000 192 97 64
1.517509e+000 -1.776742e+000 -6.174661e+000 236 186 97
1.172470e+000 -2.062463e+000 -6.919864e+000 150 96 58
1.323100e+000 -2.207106e+000 -6.458762e+000 235 182 98
9.961794e-001 -2.067484e+000 -7.335640e+000 171 68 63
1.094002e+000 -2.121445e+000 -7.072614e+000 156 90 74
1.213190e+000 -2.115795e+000 -6.847858e+000 222 178 88
2.154975e+000 -8.071019e-001 -4.967402e+000 173 134 100
-4.331409e-001 -1.685736e-001 -5.450241e+000 189 182 172
1.589900e+000 -2.269873e-001 -6.299795e+000 83 52 35
4.594418e-002 -4.982956e-001 -5.884388e+000 125 112 96
1.858526e+000 -1.404844e+000 -5.235878e+000 200 123 56
1.308118e+000 -1.028702e+000 -5.975991e+000 116 41 36
-9.204628e-001 -7.249818e-001 -5.742318e+000 99 41 30
1.703019e+000 -1.349689e+000 -5.879046e+000 174 161 156
1.612990e+000 -1.453120e+000 -6.119712e+000 127 45 37
-1.061152e+000 -1.060644e+000 -6.095634e+000 216 215 213
1.329940e+000 -2.072000e+000 -6.508484e+000 208 160 76
1.631551e+000 -4.325507e-001 -5.390060e+000 185 168 117
1.640227e+000 -4.040572e-001 -5.426904e+000 185 168 117
2.319513e+000 -8.810801e-001 -5.066166e+000 155 135 126
2.217532e+000 -8.683455e-001 -5.508391e+000 206 119 48
-1.579437e+000 -5.850306e-002 -5.574428e+000 188 182 182
-8.819660e-001 -4.751878e-001 -5.607241e+000 156 78 49
-1.613228e+000 -4.936742e-001 -5.438738e+000 123 45 27
1.813730e+000 -1.500830e+000 -5.546044e+000 221 199 195
-1.159133e-001 -9.573098e-001 -6.278258e+000 98 56 44
-9.741585e-001 -1.184389e+000 -6.206350e+000 221 216 213
2.727552e-001 -9.784467e-001 -7.652941e+000 204 190 179
1.392059e+000 -1.876172e+000 -6.350925e+000 105 46 37
1.367613e+000 -1.891430e+000 -6.292935e+000 105 46 37
1.380096e+000 -2.111519e+000 -6.432698e+000 242 194 85
1.501936e+000 -2.217695e+000 -6.196767e+000 208 127 57
1.213558e+000 8.036283e-001 -5.787214e+000 140 133 104
-6.389792e-001 -5.111438e-001 -5.541450e+000 244 202 153
1.298274e+000 -1.721199e+000 -6.271536e+000 87 40 34
5.899143e-001 -1.288029e+000 -7.543308e+000 217 205 189
8.313890e-002 -8.925401e-001 -9.246565e+000 245 237 230
6.969136e-001 -1.900362e+000 -7.342132e+000 218 83 87
1.179396e+000 -2.199172e+000 -6.854235e+000 241 207 115
1.735574e+000 -5.761524e-001 -5.351628e+000 100 52 47
1.749827e+000 -5.631419e-001 -5.376068e+000 100 52 47
6.298028e-001 -5.393616e-001 -5.928020e+000 222 218 206
6.198353e-001 -5.616622e-001 -5.890353e+000 222 218 206
-1.303495e+000 -4.839839e-001 -5.523149e+000 239 203 153
1.244188e+000 -2.022507e+000 -6.633136e+000 106 53 41
1.355206e+000 -2.157019e+000 -6.346557e+000 230 186 81
8.707115e-001 -1.984385e+000 -7.329544e+000 122 61 49
-8.906678e-001 -2.612994e-001 -5.586590e+000 245 205 154
6.851541e-001 -8.414572e-001 -6.078117e+000 224 218 206
6.194927e-001 -1.030952e+000 -6.335573e+000 164 145 130
1.712780e+000 -1.598358e+000 -5.860245e+000 230 184 91
-7.501744e-001 -1.218532e+000 -6.269750e+000 155 77 55
1.568802e+000 -1.752749e-001 -5.775773e+000 105 41 39
-3.083697e-001 -1.133696e+000 -6.183480e+000 99 49 39
1.687872e+000 -1.903074e+000 -6.200974e+000 225 200 192
-1.125493e+000 -6.523784e-001 -5.869991e+000 142 58 32
9.933278e-001 -1.780472e+000 -6.493552e+000 239 231 220
2.156579e+000 2.464369e-001 -4.828536e+000 246 191 144
2.154236e+000 6.873280e-002 -4.824603e+000 246 193 150
2.085871e+000 -2.587229e-002 -5.060073e+000 220 173 91
3.560674e+000 3.886881e-001 -5.742169e+000 161 138 127
2.118746e+000 -5.816841e-001 -4.707613e+000 120 101 92
2.123154e+000 -6.999949e-001 -4.763802e+000 142 122 112
2.057476e+000 -8.584420e-001 -4.771986e+000 118 95 88
2.903868e+000 -6.992486e-001 -5.450242e+000 81 65 64
2.709960e+000 -8.243109e-001 -5.356490e+000 122 97 82
2.707681e+000 -8.350791e-001 -5.364023e+000 93 65 53
-8.297060e-001 -7.285843e-002 -5.506191e+000 141 78 75
-5.862390e-001 -4.001825e-001 -5.368769e+000 199 109 83
-2.756251e-001 -4.641670e-001 -5.266694e+000 170 162 151
-1.125087e+000 -3.151312e-001 -5.629384e+000 182 115 81
1.343031e+000 -6.987711e-001 -6.024443e+000 93 63 36
-9.080273e-001 -7.092924e-001 -5.660408e+000 166 83 57
1.763668e+000 -1.373875e+000 -5.681943e+000 165 158 153
-1.826564e+000 -6.526734e-001 -5.590333e+000 136 86 81
1.668084e+000 -1.248703e+000 -5.956268e+000 108 68 65
1.800694e+000 -1.496941e+000 -5.518257e+000 133 104 103
1.716370e+000 -1.668151e+000 -5.809197e+000 180 98 67
1.650347e+000 -1.804897e+000 -5.956812e+000 205 128 94
1.368158e+000 -2.118665e+000 -6.541480e+000 229 180 79
1.569986e+000 -2.224251e+000 -5.918491e+000 207 143 91
1.266555e+000 -2.187113e+000 -6.886266e+000 214 149 92
1.362702e+000 -2.233109e+000 -6.562842e+000 129 115 115
2.134640e+000 2.997843e-001 -4.794169e+000 206 130 81
2.893075e+000 4.956754e-001 -5.331328e+000 148 132 116
1.281474e+000 1.002272e+000 -5.582970e+000 190 180 137
1.419253e+000 -3.306710e-001 -4.555519e+000 119 106 89
2.109834e+000 -5.619439e-001 -4.742964e+000 215 145 89
2.136409e+000 -5.535072e-001 -4.757315e+000 112 89 82
2.147611e+000 -6.080862e-001 -4.746264e+000 97 78 64
1.924081e+000 -3.173958e-001 -5.412248e+000 112 71 67
1.888123e+000 -7.031618e-001 -5.342150e+000 137 105 92
9.212857e-002 -1.634239e-001 -5.612818e+000 185 176 169
5.329879e-002 -3.733706e-001 -5.792697e+000 56 42 31
-8.256252e-001 -7.115742e-001 -5.688425e+000 176 95 61
8.819248e-001 -9.492939e-001 -6.171787e+000 182 155 131
1.699316e-001 -7.998839e-001 -7.426954e+000 205 199 187
1.672866e+000 -1.782885e+000 -5.833421e+000 217 194 188
1.503132e+000 -1.602482e+000 -6.313644e+000 186 107 54
1.653329e+000 -1.915197e+000 -5.927839e+000 212 133 71
1.555113e+000 -1.875393e+000 -6.063327e+000 216 125 61
1.579614e+000 -1.863788e+000 -6.126922e+000 216 125 61
-1.339172e-001 -8.057286e-001 -9.159689e+000 212 208 198
1.306057e+000 1.010400e+000 -5.585931e+000 202 189 143
1.901417e+000 -6.194025e-001 -5.434598e+000 137 104 89
2.670085e+000 -8.708921e-001 -5.373916e+000 143 116 98
2.670085e+000 -8.708921e-001 -5.373916e+000 143 116 98
2.627674e+000 -9.220773e-001 -5.305071e+000 154 126 111
-7.681843e-001 -9.164568e-002 -5.422845e+000 224 95 92
1.892753e+000 -1.134866e+000 -5.386048e+000 213 156 88
1.878200e+000 -1.193164e+000 -5.402779e+000 194 118 48
-1.984269e-001 -7.170662e-001 -5.574669e+000 171 68 61
-8.606453e-001 -6.980670e-001 -5.669870e+000 211 126 88
1.684467e+000 -1.193645e+000 -5.999754e+000 83 40 39
1.735369e+000 -1.459269e+000 -5.814748e+000 196 104 61
-7.289248e-001 -1.117629e+000 -5.859012e+000 135 63 48
-8.069149e-001 -1.152406e+000 -5.904856e+000 165 73 36
1.695221e+000 -2.056328e+000 -5.615379e+000 126 94 69
1.509439e+000 -2.159043e+000 -6.221610e+000 216 136 69
1.945485e+000 -6.953820e-001 -5.358681e+000 143 117 106
1.768609e+000 -6.957260e-001 -5.691492e+000 75 31 28
2.202297e+000 -9.259400e-001 -5.552603e+000 222 148 92
-2.099142e+000 -4.463668e-001 -5.799890e+000 101 82 52
-1.949943e+000 -5.767658e-001 -5.638065e+000 193 169 110
-9.602708e-001 -1.111793e+000 -6.075869e+000 197 115 74
2.881884e+000 -6.841154e-001 -5.409853e+000 64 49 46
2.767750e+000 -7.739397e-001 -5.370158e+000 170 149 132
-2.191923e-001 -1.204911e-001 -5.544428e+000 168 160 149
-1.509350e+000 -1.578581e-001 -5.582598e+000 193 188 185
-1.509350e+000 -1.578581e-001 -5.582598e+000 193 188 185
-8.692669e-002 -8.433571e-001 -6.039082e+000 119 98 80
-5.287433e-002 -8.493058e-001 -6.064222e+000 155 139 126
1.314617e+000 -1.343263e+000 -6.139286e+000 137 43 34
1.823129e+000 -6.603259e-001 -5.651235e+000 80 35 30
7.693326e-001 -1.011885e+000 -6.022188e+000 208 204 188
-1.896357e+000 -5.892892e-001 -5.638423e+000 79 43 37
-1.836848e+000 -6.616479e-001 -5.550406e+000 143 120 124
-1.836848e+000 -6.616479e-001 -5.550406e+000 143 120 124
1.486808e+000 -1.818405e+000 -6.250252e+000 186 77 44
1.960613e+000 1.850965e-001 -5.207482e+000 94 57 44
-3.155658e-002 -3.325244e-001 -5.653512e+000 107 89 75
-7.493397e-002 -6.286604e-001 -5.849693e+000 124 101 86
-1.333935e-001 -1.172170e+000 -6.385805e+000 137 83 62
1.453838e+000 -1.885806e+000 -6.267673e+000 233 189 91
2.150124e+000 -4.228500e-001 -5.318657e+000 145 100 33
-1.087302e+000 -2.277468e-001 -5.726743e+000 194 193 190
1.514319e+000 -9.491593e-001 -6.142222e+000 153 42 39
1.295472e+000 -2.104954e+000 -6.632045e+000 217 170 82
2.209191e+000 3.115832e-001 -4.885377e+000 227 154 108
2.072572e+000 3.358859e-004 -4.959773e+000 251 204 75
2.217601e+000 -1.144039e+000 -6.175572e+000 223 172 82
1.861835e+000 -6.839586e-001 -5.505859e+000 127 78 39
-1.372898e+000 -2.862752e-001 -5.592627e+000 137 101 79
1.313728e+000 -1.049483e+000 -5.952684e+000 122 38 38
-6.416888e-001 -4.998274e-001 -5.564483e+000 243 202 150
2.109951e-001 2.434416e-002 -5.888227e+000 212 207 199
4.374524e-001 -5.874168e-001 -6.053697e+000 65 39 40
2.435438e+000 -2.069950e+000 -7.304987e+000 91 56 37
2.026528e+000 1.182682e+000 -6.287910e+000 247 243 233
1.250902e+000 -5.845924e-001 -4.165564e+000 124 106 84
2.196060e+000 -4.102017e-002 -4.901384e+000 247 224 188
2.068908e+000 1.552779e-002 -5.108439e+000 189 155 112
2.070122e+000 1.846802e-002 -5.109287e+000 189 155 112
1.082673e+000 5.664022e-001 -5.680622e+000 146 140 116
2.172967e+000 -5.790766e-001 -4.795538e+000 103 87 75
1.884564e+000 -5.765093e-001 -5.549855e+000 114 55 56
1.857611e+000 -5.627988e-001 -5.722935e+000 83 35 34
2.049060e+000 -8.855936e-001 -5.246356e+000 195 116 52
2.762866e+000 -1.019795e+000 -5.329069e+000 133 117 113
2.759915e+000 -1.089626e+000 -5.336945e+000 131 116 109
-7.402647e-001 -9.409055e-002 -5.484784e+000 194 86 81
-6.810568e-001 -1.707546e-001 -5.431501e+000 226 105 97
-1.518583e+000 -6.710821e-002 -5.682376e+000 84 50 49
-4.515407e-001 -4.510803e-001 -5.398124e+000 224 159 128
-1.504509e+000 -1.386270e-001 -5.649320e+000 121 71 61
-1.292034e+000 -1.583262e-001 -5.753841e+000 186 178 170
-9.718812e-001 -3.829162e-001 -5.628611e+000 182 103 68
-5.701487e-001 -5.082664e-001 -5.470688e+000 241 200 144
7.749824e-001 -6.046315e-001 -5.962225e+000 101 72 52
1.693007e+000 -1.048726e+000 -5.723751e+000 71 41 36
1.827470e+000 -1.025393e+000 -5.648770e+000 185 191 174
1.807026e+000 -1.152965e+000 -5.635817e+000 205 210 186
1.819955e+000 -1.153816e+000 -5.601701e+000 176 182 160
-2.061941e+000 -2.311960e-001 -5.802189e+000 166 148 101
-1.886268e+000 -4.107702e-001 -5.595265e+000 134 73 64
9.280138e-001 -7.583467e-001 -6.267294e+000 146 70 55
1.812394e+000 -1.420655e+000 -5.488117e+000 106 88 77
1.823406e+000 -1.444884e+000 -5.459430e+000 118 103 98
-2.095773e+000 -4.081273e-001 -5.803984e+000 162 141 92
-2.044715e+000 -3.985396e-001 -5.777368e+000 114 94 44
-2.044715e+000 -3.985396e-001 -5.777368e+000 114 94 44
-1.895027e+000 -6.033026e-001 -5.556464e+000 81 28 28
-1.464182e+000 -7.158168e-001 -5.496014e+000 140 64 50
1.725952e+000 -1.299470e+000 -5.801006e+000 77 89 74
1.769734e+000 -1.574242e+000 -5.543194e+000 136 116 114
-1.959026e+000 -5.901090e-001 -5.631343e+000 99 75 46
-1.751911e+000 -7.987614e-001 -5.421804e+000 139 84 80
-1.707973e+000 -8.345722e-001 -5.547907e+000 121 64 56
1.732435e+000 -1.707576e+000 -5.597429e+000 225 147 69
-9.544159e-001 -1.047647e+000 -5.792099e+000 202 105 66
1.665583e+000 -1.673190e+000 -5.788515e+000 217 152 72
1.699612e+000 -1.705321e+000 -5.697725e+000 202 183 171
1.682133e+000 -1.729986e+000 -5.716786e+000 114 88 84
1.501553e+000 -1.746644e+000 -6.137150e+000 229 166 62
1.512039e+000 -1.761844e+000 -6.040779e+000 216 129 58
1.595931e+000 -1.803439e+000 -5.914619e+000 224 136 66
1.613320e+000 -1.854664e+000 -5.857022e+000 101 80 71
1.602319e+000 -1.873235e+000 -5.875352e+000 118 94 90
1.599056e+000 -1.875417e+000 -5.868481e+000 118 94 90
1.108232e+000 -1.702893e+000 -6.117641e+000 207 186 170
1.415205e+000 -1.712089e+000 -6.395035e+000 149 76 34
1.576171e+000 -1.925318e+000 -5.915697e+000 121 96 91
1.583246e+000 -1.924113e+000 -5.875726e+000 120 94 94
1.579449e+000 -1.935982e+000 -5.886873e+000 194 179 170
1.574315e+000 -1.962758e+000 -5.894256e+000 218 192 180
1.435582e+000 -1.934407e+000 -6.270338e+000 230 157 63
1.529631e+000 -1.988641e+000 -6.008444e+000 130 110 104
1.370866e+000 -1.951902e+000 -6.450556e+000 128 69 39
1.326853e+000 -2.005281e+000 -6.542310e+000 133 76 43
1.336662e+000 -2.086896e+000 -6.370900e+000 214 164 75
1.476469e+000 -2.171977e+000 -6.134984e+000 217 136 64
1.428132e+000 -2.199729e+000 -6.161297e+000 233 170 89
1.511658e+000 -2.239333e+000 -5.765746e+000 253 194 132
1.216746e+000 -2.150383e+000 -6.699602e+000 208 138 101
1.364558e+000 -2.215944e+000 -6.252799e+000 154 139 131
1.334610e+000 -2.242649e+000 -6.364263e+000 126 110 105
1.348013e+000 -2.241352e+000 -6.418888e+000 220 210 200
1.310643e+000 -2.257549e+000 -6.408076e+000 115 97 94
1.339934e+000 -2.254243e+000 -6.347328e+000 211 196 197
1.410355e+000 -2.375088e+000 -5.980849e+000 245 180 118
1.455838e+000 -2.312253e+000 -5.872240e+000 246 192 136
1.440442e+000 -2.336209e+000 -5.842557e+000 217 155 97
1.462800e+000 -2.339205e+000 -5.963900e+000 220 158 102
1.470451e+000 -2.340199e+000 -5.945115e+000 235 184 131
1.218240e+000 -2.185155e+000 -6.692827e+000 228 158 106
1.314410e+000 -2.305175e+000 -6.470593e+000 225 195 192
2.166828e+000 4.939084e-001 -5.052688e+000 170 101 51
2.177642e+000 -1.773135e-002 -4.882771e+000 241 216 181
1.079165e+000 6.400576e-001 -5.765093e+000 124 117 98
1.079165e+000 6.400576e-001 -5.765093e+000 124 117 98
2.207911e+000 -4.995713e-001 -4.805946e+000 166 149 136
2.185760e+000 -7.773901e-001 -4.942172e+000 140 118 106
2.737329e+000 -6.663946e-001 -5.311197e+000 151 128 110
1.936518e+000 -5.846869e-001 -5.394017e+000 140 107 97
2.662700e+000 -8.935688e-001 -5.357705e+000 157 130 112
-8.256741e-001 -6.114562e-002 -5.545433e+000 195 174 149
-8.256741e-001 -6.114562e-002 -5.545433e+000 195 174 149
1.693779e+000 -7.986431e-001 -5.604253e+000 114 44 36
2.870118e+000 -9.890939e-001 -5.594364e+000 79 61 59
2.755322e+000 -1.022829e+000 -5.514189e+000 69 51 38
-5.917069e-001 -3.743514e-001 -5.438800e+000 170 85 58
-5.698920e-001 -3.572720e-001 -5.453971e+000 196 110 83
-1.792929e+000 -1.446261e-001 -5.702854e+000 130 81 81
-2.271591e-001 -6.893841e-001 -5.583427e+000 129 53 39
3.113092e-001 -4.326958e-001 -5.962049e+000 133 123 113
5.984760e-001 -5.974828e-001 -6.042666e+000 133 116 103
1.618001e+000 -8.783945e-001 -5.789428e+000 206 76 72
1.791154e+000 -1.149500e+000 -5.693252e+000 87 101 76
-4.726615e-001 -6.592460e-001 -5.693884e+000 201 136 82
-2.394601e-001 -7.682526e-001 -5.619705e+000 152 128 114
-7.995827e-002 -6.694030e-001 -5.793521e+000 125 100 82
-2.128763e+000 -3.533733e-001 -5.870354e+000 137 119 71
-2.125115e+000 -4.296455e-001 -5.810647e+000 165 146 88
-2.039087e+000 -4.609609e-001 -5.735401e+000 177 156 102
1.757592e+000 -1.386360e+000 -5.740444e+000 224 216 205
1.851170e+000 -1.647218e+000 -5.221153e+000 206 164 126
-1.688799e+000 -7.287253e-001 -5.523922e+000 203 105 60
-1.119366e+000 -9.036844e-001 -5.745715e+000 201 112 72
-8.435843e-001 -8.723762e-001 -5.821923e+000 145 61 33
-4.477350e-002 -8.808475e-001 -6.042368e+000 125 104 93
1.729227e+000 -1.653536e+000 -5.622141e+000 231 204 201
1.723836e+000 -1.857382e+000 -5.115141e+000 109 84 67
-9.256910e-001 -1.055169e+000 -5.801342e+000 180 86 48
1.581937e+000 -1.675033e+000 -6.055390e+000 190 105 55
1.576090e+000 -1.847267e+000 -5.908976e+000 232 168 68
-2.523121e-001 -1.191505e+000 -6.498611e+000 142 98 90
1.645610e+000 -2.067426e+000 -5.579362e+000 206 132 76
1.633241e+000 -2.077807e+000 -5.584604e+000 253 209 156
1.631294e+000 -2.121813e+000 -5.643219e+000 221 161 107
1.367529e+000 -1.895285e+000 -6.454386e+000 135 72 47
1.521847e+000 -2.005989e+000 -6.003892e+000 234 216 202
1.547564e+000 -2.012513e+000 -5.996450e+000 232 214 199
1.501722e+000 -2.061937e+000 -5.983623e+000 240 217 208
1.502980e+000 -2.071342e+000 -6.086426e+000 234 216 205
1.552085e+000 -2.209800e+000 -5.781070e+000 213 143 79
1.440567e+000 -2.102502e+000 -6.146537e+000 114 90 80
1.263288e+000 -2.115998e+000 -6.718990e+000 199 121 77
1.364017e+000 -2.242912e+000 -6.280649e+000 233 215 214
1.277258e+000 -2.232171e+000 -6.526507e+000 203 128 81
2.177544e+000 -2.866953e-001 -4.727015e+000 121 100 92
2.168754e+000 -3.610884e-001 -4.764057e+000 213 135 79
2.000654e+000 -1.512737e-002 -5.364447e+000 232 186 187
2.121682e+000 -6.253919e-001 -4.758979e+000 100 80 71
1.420886e+000 -4.514360e-001 -4.830312e+000 119 96 76
3.070481e+000 -6.782721e-001 -5.601472e+000 58 42 44
2.371144e-001 -1.229659e-001 -5.698886e+000 233 229 218
1.891716e+000 -5.851407e-001 -5.529685e+000 135 96 90
-7.659560e-001 -5.621760e-002 -5.479945e+000 217 98 98
-1.489214e+000 -2.657395e-002 -5.638212e+000 71 39 37
-6.629076e-001 -2.374801e-001 -5.565175e+000 191 121 85
-5.285444e-001 -3.785904e-001 -5.451103e+000 190 110 77
1.834035e+000 -1.041213e+000 -5.542703e+000 217 211 210
-1.271651e+000 -3.163685e-001 -5.581207e+000 217 180 136
-1.220335e+000 -3.937581e-001 -5.529022e+000 179 122 101
-1.045334e+000 -2.321991e-001 -5.775954e+000 215 126 70
-8.990098e-001 -4.463250e-001 -5.674242e+000 168 98 69
-8.990098e-001 -4.463250e-001 -5.674242e+000 168 98 69
1.758376e+000 -1.069558e+000 -5.736395e+000 59 53 38
-1.893658e+000 -3.718773e-001 -5.616852e+000 108 49 42
-1.412052e+000 -5.838174e-001 -5.527300e+000 159 92 68
-4.913167e-001 -6.490082e-001 -5.701707e+000 202 138 86
7.112217e-001 -6.901849e-001 -6.063724e+000 210 194 181
-1.424410e+000 -6.400994e-001 -5.456353e+000 164 88 63
-1.484852e+000 -7.085017e-001 -5.489731e+000 123 46 27
-1.114000e+000 -7.594381e-001 -5.642706e+000 141 62 43
-8.598880e-001 -7.255324e-001 -5.615291e+000 211 123 88
-7.141655e-001 -7.854779e-001 -5.687174e+000 206 155 113
-2.043402e+000 -5.619650e-001 -5.726336e+000 178 161 117
-1.565638e+000 -7.514812e-001 -5.518190e+000 161 76 45
-1.122256e+000 -8.202934e-001 -5.681789e+000 153 59 32
-2.203215e-001 -1.009774e+000 -6.018864e+000 124 94 81
1.716721e+000 -1.481688e+000 -5.745459e+000 197 99 64
1.706025e+000 -1.521415e+000 -5.757080e+000 231 153 77
-1.109195e+000 -9.304693e-001 -5.822764e+000 187 91 57
-1.109382e+000 -9.353898e-001 -5.813341e+000 187 91 57
-5.645602e-001 -1.088605e+000 -5.859573e+000 192 138 119
-5.641796e-001 -1.086662e+000 -5.914133e+000 134 69 49
1.909556e+000 -1.797279e+000 -5.552497e+000 120 92 78
-8.070583e-001 -1.183251e+000 -6.146712e+000 137 59 49
1.502495e+000 -2.284559e+000 -5.649485e+000 121 85 62
1.220321e+000 -2.138344e+000 -6.667854e+000 163 91 67
1.360981e+000 -2.164450e+000 -6.337537e+000 234 181 83
9.624687e-001 -2.099362e+000 -7.085252e+000 158 61 52
1.360557e+000 -2.414918e+000 -6.036858e+000 222 144 79
1.245923e+000 -2.391893e+000 -6.524601e+000 199 109 58
1.248692e+000 -2.389180e+000 -6.537365e+000 199 109 58
2.777427e+000 -6.635468e-001 -5.385501e+000 78 50 40
2.650435e+000 -8.320782e-001 -5.320362e+000 85 57 43
7.548017e-001 -4.005368e-001 -5.788455e+000 229 224 213
2.762228e+000 -1.034470e+000 -5.424477e+000 87 68 59
7.395701e-002 -3.320803e-001 -5.880327e+000 55 43 31
1.777633e+000 -9.172349e-001 -5.759434e+000 92 59 54
2.127091e+000 -1.279855e+000 -5.268861e+000 97 73 61
-1.321799e+000 -2.750674e-001 -5.649084e+000 221 188 137
-1.271320e+000 -4.044927e-001 -5.484659e+000 192 147 98
2.235311e+000 -1.374456e+000 -5.508556e+000 81 58 43
-1.864178e+000 -2.633183e-001 -5.640150e+000 119 67 63
-1.864178e+000 -2.633183e-001 -5.640150e+000 119 67 63
-1.695190e+000 -3.571659e-001 -5.548984e+000 175 70 41
4.012635e-001 -7.297350e-001 -6.094534e+000 164 154 139
7.967143e-001 -7.675493e-001 -5.973293e+000 198 188 160
1.008899e+000 -7.721312e-001 -6.030220e+000 196 138 93
1.747061e+000 -1.207072e+000 -5.750616e+000 73 93 62
-1.854250e+000 -5.671234e-001 -5.507104e+000 144 84 80
-1.878278e+000 -5.767256e-001 -5.627812e+000 68 26 24
-1.824966e+000 -6.503782e-001 -5.531459e+000 153 102 95
1.716860e+000 -1.273599e+000 -5.814460e+000 203 194 184
-2.124008e+000 -4.447795e-001 -5.841220e+000 61 48 47
-1.943874e+000 -5.813268e-001 -5.636393e+000 189 169 105
1.827587e+000 -1.733037e+000 -5.325907e+000 225 160 98
-8.439500e-001 -1.211210e+000 -6.234628e+000 164 86 62
1.213695e+000 -2.069793e+000 -6.692677e+000 122 63 44
2.123460e+000 -6.000051e-002 -5.034196e+000 227 181 54
2.065087e+000 -3.842844e-001 -4.955665e+000 175 104 48
-2.121996e-001 -1.100158e-001 -5.563208e+000 169 160 152
2.813692e+000 -9.042619e-001 -5.421181e+000 55 39 42
-9.159748e-001 -1.259882e-001 -5.565083e+000 84 78 90
2.803286e+000 -1.092025e+000 -5.598343e+000 69 48 43
-6.119403e-001 -3.460384e-001 -5.457686e+000 185 94 70
1.849998e+000 -1.176402e+000 -5.376785e+000 226 178 85
-1.373416e+000 -1.238763e-001 -5.740146e+000 197 197 193
8.874364e-001 -6.658599e-001 -6.149199e+000 67 49 32
1.731130e+000 -1.377900e+000 -5.772587e+000 222 215 210
-1.726895e+000 -7.797732e-001 -5.529568e+000 79 32 27
1.750478e+000 -1.622687e+000 -5.535034e+000 152 92 76
-1.639302e+000 -8.674189e-001 -5.585969e+000 72 31 31
-2.214791e-001 -1.180293e+000 -6.355388e+000 236 232 228
1.524782e+000 -1.593904e+000 -6.238365e+000 216 147 64
1.479695e+000 -1.637442e+000 -6.312087e+000 197 117 51
9.248128e-001 -2.003805e+000 -7.163309e+000 128 61 44
1.270449e+000 -2.224955e+000 -6.615535e+000 231 166 102
2.940993e+000 -4.943827e-001 -5.400957e+000 128 114 109
1.666798e+000 -3.138109e-001 -5.811319e+000 171 59 57
-8.644195e-001 4.830139e-002 -5.621301e+000 149 165 206
-8.644195e-001 4.830139e-002 -5.621301e+000 149 165 206
-5.132492e-001 -2.136550e-001 -5.410494e+000 195 188 178
2.209104e+000 -1.212097e+000 -5.258524e+000 136 115 102
2.209104e+000 -1.212097e+000 -5.258524e+000 136 115 102
-1.377526e+000 -2.683879e-001 -5.670488e+000 71 56 58
-2.616545e-002 -4.587220e-001 -5.854475e+000 101 79 66
1.731830e+000 -1.055037e+000 -5.800672e+000 61 38 32
1.589982e+000 -1.222057e+000 -5.767818e+000 217 82 76
1.796962e+000 -1.300940e+000 -5.521039e+000 221 216 209
-9.571780e-001 -7.812545e-001 -5.727547e+000 169 85 49
5.017428e-001 -8.386812e-001 -6.046435e+000 226 222 210
8.894779e-001 -9.682782e-001 -6.145044e+000 181 153 129
-8.752565e-003 -8.975041e-001 -6.095002e+000 130 108 97
-3.014727e-001 -1.083356e+000 -5.946720e+000 104 54 40
-2.010213e-001 -1.127346e+000 -6.017882e+000 134 75 57
1.281082e+000 -1.342327e+000 -6.170018e+000 237 170 130
-1.034823e+000 -1.036698e+000 -5.945158e+000 226 139 86
-1.382275e-001 -1.243165e+000 -6.228331e+000 126 75 54
-1.382275e-001 -1.243165e+000 -6.228331e+000 126 75 54
9.177967e-001 -1.279162e+000 -6.922712e+000 202 194 173
1.531425e+000 -2.317198e+000 -5.934413e+000 134 94 64
1.237509e+000 -2.355985e+000 -6.631565e+000 235 189 100
2.625327e+000 -4.808190e-001 -5.242951e+000 138 113 108
1.937397e+000 -6.212208e-001 -5.202832e+000 145 122 111
2.802090e+000 -1.063169e+000 -5.558077e+000 46 28 32
1.828846e+000 -9.164185e-001 -5.673682e+000 191 166 168
-1.144585e+000 -4.081429e-001 -5.580288e+000 193 149 112
-2.081612e+000 -5.104729e-001 -5.801283e+000 177 156 106
-2.081612e+000 -5.104729e-001 -5.801283e+000 177 156 106
-1.672956e+000 -8.358626e-001 -5.530293e+000 66 30 29
-6.510951e-001 -1.108632e+000 -5.947114e+000 189 96 60
-2.220399e-001 -1.228219e+000 -6.261608e+000 235 233 222
8.869746e-001 -1.455077e+000 -7.098570e+000 226 218 207
1.052001e+000 -2.069452e+000 -6.472971e+000 215 197 177
1.158971e+000 -2.133418e+000 -6.990221e+000 243 204 119
1.141948e+000 -2.147518e+000 -6.929749e+000 243 204 119
1.178600e+000 -2.301473e+000 -6.619966e+000 246 207 120
1.260085e+000 -2.515250e+000 -6.050842e+000 233 152 85
2.248861e+000 -4.928452e-002 -4.961302e+000 214 145 109
2.845309e+000 -6.689865e-001 -5.399430e+000 145 126 109
2.139519e+000 -1.062368e+000 -5.068077e+000 74 50 38
-9.372013e-001 -8.754356e-002 -5.595187e+000 115 119 177
2.397629e+000 -1.067089e+000 -5.435994e+000 140 118 105
-1.098631e+000 -2.084442e-001 -5.737848e+000 204 199 193
1.852572e+000 -1.364998e+000 -5.401395e+000 230 185 83
-4.920932e-001 -1.093188e+000 -5.851363e+000 118 59 47
1.715294e+000 -1.717703e+000 -5.635211e+000 217 179 124
2.027742e+000 -1.792510e-001 -5.333409e+000 146 55 54
2.036860e+000 -1.642229e-001 -5.351296e+000 146 55 54
2.141178e+000 -9.530107e-001 -5.050344e+000 168 140 123
2.139624e+000 -1.189975e+000 -5.200959e+000 77 49 38
-2.016961e+000 -1.963505e-001 -5.826009e+000 165 144 105
-9.699950e-001 -5.302505e-001 -5.676180e+000 161 108 74
1.981976e+000 -1.554773e+000 -5.314272e+000 80 54 39
7.459763e-001 -9.989028e-001 -6.016258e+000 210 203 188
1.289308e+000 -2.321744e+000 -6.555730e+000 252 204 120
2.217775e+000 2.283776e-001 -4.776579e+000 218 136 79
1.376991e+000 -4.549373e-001 -4.592278e+000 92 69 55
-6.731238e-001 -5.384044e-003 -5.451314e+000 208 206 207
1.477123e+000 -2.547421e-001 -6.022750e+000 157 110 77
1.640888e+000 -9.407458e-001 -5.660257e+000 209 67 62
2.253868e+000 -1.241508e+000 -5.546401e+000 74 46 32
-1.889377e+000 -4.615653e-001 -5.624927e+000 125 61 53
9.940867e-002 -6.982394e-001 -6.960154e+000 174 159 148
1.621422e+000 -1.743766e+000 -5.877003e+000 206 106 64
-4.893487e-001 -1.283086e+000 -6.041270e+000 117 66 52
-1.322502e+000 -1.140980e-001 -5.663071e+000 202 198 197
9.394727e-001 -7.401511e-001 -6.118874e+000 65 44 40
9.372682e-001 -7.436657e-001 -6.113826e+000 65 44 40
1.770806e+000 2.323685e-001 -4.717467e+000 244 240 229
2.762978e+000 -6.428913e-001 -5.447387e+000 72 44 38
1.039300e+000 -4.471056e-001 -5.874656e+000 121 68 47
4.614367e-001 -5.905270e-001 -6.059507e+000 69 40 41
4.614367e-001 -5.905270e-001 -6.059507e+000 69 40 41
-1.723693e+000 -5.713554e-001 -5.475799e+000 229 133 83
1.693423e+000 -1.392701e-001 -4.918944e+000 123 89 65
-2.883319e-001 2.861964e-001 -5.662689e+000 216 218 215
1.206991e+000 -1.245078e-001 -4.671201e+000 250 246 235
2.930010e+000 7.422141e-001 -5.459783e+000 195 178 163
2.060367e+000 -1.948622e-001 -5.404235e+000 137 52 57
1.930868e+000 -2.525096e-001 -5.503150e+000 99 65 61
1.957344e+000 -6.061458e-001 -5.370282e+000 117 52 48
1.956629e+000 -6.250686e-001 -5.355907e+000 145 87 80
8.879725e-001 -4.768139e-001 -5.899570e+000 177 70 64
1.852747e+000 -1.114137e+000 -5.497575e+000 196 195 177
1.733335e+000 -1.070292e+000 -5.867981e+000 65 36 33
-8.770550e-001 -7.516489e-001 -5.668309e+000 128 57 27
1.724686e+000 -1.270338e+000 -5.797172e+000 126 130 107
1.724686e+000 -1.270338e+000 -5.797172e+000 126 130 107
1.778350e+000 -1.497014e+000 -5.521038e+000 109 89 85
1.777903e+000 -1.535199e+000 -5.549868e+000 122 100 92
1.780551e+000 -1.534106e+000 -5.553641e+000 122 100 92
-1.125526e+000 -8.961956e-001 -5.789049e+000 166 79 50
-1.150729e+000 -8.995575e-001 -5.796453e+000 189 105 74
1.734289e+000 -1.618527e+000 -5.638032e+000 117 104 96
1.678663e+000 -1.785571e+000 -5.723161e+000 214 154 124
1.513627e+000 -1.706273e+000 -6.156995e+000 195 92 53
1.550225e+000 -2.001053e+000 -5.982141e+000 140 117 114
1.232239e+000 -2.070970e+000 -6.807724e+000 147 82 55
1.344934e+000 -2.012681e+000 -6.499674e+000 130 70 41
1.399518e+000 -2.158582e+000 -6.266421e+000 111 90 88
1.436738e+000 -2.137841e+000 -6.183109e+000 209 143 101
1.357183e+000 -2.200613e+000 -6.329326e+000 140 122 117
1.705966e-001 -8.698067e-002 -5.712831e+000 203 197 189
1.841683e+000 -5.466797e-001 -5.642809e+000 95 47 49
1.893330e+000 -6.308982e-001 -5.519763e+000 133 95 82
9.543576e-001 -4.276139e-001 -5.828287e+000 164 68 57
2.773354e+000 -1.084564e+000 -5.585110e+000 66 39 31
-1.424866e+000 -3.535223e-001 -5.562013e+000 115 79 55
-1.224028e+000 -4.044068e-001 -5.536461e+000 185 119 108
-2.886058e-001 -6.182793e-001 -5.390981e+000 153 76 67
-1.345313e+000 -6.139304e-001 -5.456835e+000 157 100 59
1.747433e+000 -1.322319e+000 -5.716276e+000 201 207 184
1.835913e+000 -1.360361e+000 -5.474598e+000 228 168 74
-1.180364e+000 -8.175023e-001 -5.684483e+000 134 56 29
1.732195e+000 -1.542498e+000 -5.694943e+000 193 113 66
1.694805e+000 -1.643226e+000 -5.751197e+000 192 105 53
-9.562854e-001 -1.052999e+000 -5.875847e+000 185 91 55
1.667781e+000 -1.788381e+000 -5.750464e+000 224 200 195
1.367492e+000 -1.957318e+000 -6.444090e+000 128 70 39
1.265693e+000 -2.179264e+000 -6.571719e+000 206 137 80
1.337292e+000 -2.316610e+000 -6.387055e+000 222 148 87
2.786053e+000 -5.793059e-001 -5.344095e+000 106 85 69
1.869186e+000 -8.167157e-001 -5.619098e+000 149 103 88
-1.371429e+000 -6.162958e-001 -5.490639e+000 142 65 42
1.813298e+000 -1.521223e+000 -5.464810e+000 211 138 70
-8.404433e-001 -1.123403e+000 -5.872188e+000 167 75 37
1.617094e+000 -1.566142e+000 -5.995950e+000 203 118 62
1.266123e+000 -2.339626e+000 -6.475663e+000 250 202 118
4.421395e-002 -3.662794e-001 -5.872775e+000 115 99 87
-2.823473e-001 -6.918773e-001 -5.671806e+000 110 48 30
-1.636589e+000 -7.303539e-001 -5.504035e+000 211 113 74
-1.430129e+000 -8.458468e-001 -5.595064e+000 169 98 68
-1.027580e+000 -9.353185e-001 -5.757980e+000 205 113 73
1.667948e+000 -1.665675e+000 -5.842879e+000 240 182 85
-1.942387e+000 -1.742016e-001 -5.787689e+000 47 45 51
1.768270e+000 -1.141970e+000 -5.736123e+000 143 153 126
1.052873e+000 -2.236951e+000 -6.891628e+000 175 96 87
3.401571e-001 -2.081934e-001 -5.720068e+000 172 164 150
1.761548e+000 -1.156101e+000 -5.735004e+000 119 128 104
1.759593e+000 -1.227724e+000 -5.729454e+000 87 102 73
2.132357e+000 3.336838e-001 -5.035393e+000 230 175 52
2.046820e+000 -1.476527e+000 -5.135946e+000 115 92 77
1.941247e+000 7.469916e-001 -5.017883e+000 80 50 48
1.305228e+000 3.047277e+000 -7.373392e+000 225 97 99
-1.629712e-001 -6.817558e-001 -5.509182e+000 140 118 103
4.573556e+000 1.223284e+000 -6.653524e+000 165 149 136
-5.468560e-001 -3.338121e-001 -5.385915e+000 224 101 102
1.550887e+000 -4.335457e-001 -5.934511e+000 126 103 75
-1.394780e+000 -6.598886e-002 -5.599797e+000 191 188 184
3.550406e-001 -4.584899e-001 -5.872635e+000 158 149 139
1.715764e+000 -1.173351e+000 -5.857599e+000 76 58 47
1.718901e+000 -1.675030e+000 -5.614029e+000 133 113 102
1.700569e+000 -1.714374e+000 -5.659185e+000 131 109 99
2.083485e+000 -1.496135e-001 -5.099197e+000 171 129 68
1.872205e+000 -5.473960e-001 -5.568154e+000 94 37 36
-5.948926e-001 -2.846596e-001 -5.422959e+000 191 70 67
9.157553e-001 -4.693078e-001 -5.846843e+000 185 72 64
-5.879997e-001 -1.016550e+000 -5.903720e+000 204 75 58
1.871468e+000 -9.950676e-001 -5.502630e+000 195 129 55
-1.181605e+000 -6.249897e-001 -5.527296e+000 163 87 53
-1.583145e+000 -7.074165e-001 -5.591297e+000 161 76 45
-7.359248e-001 -1.269290e+000 -6.040033e+000 136 55 30
-7.359248e-001 -1.269290e+000 -6.040033e+000 136 55 30
2.076148e+000 -3.640449e-002 -5.108280e+000 94 85 80
7.855008e-001 2.588505e+000 -8.476650e+000 193 122 77
1.749358e+000 -1.110772e+000 -5.771042e+000 58 51 37
-1.208954e+000 -8.486738e-001 -5.723575e+000 132 59 45
1.480010e-001 -7.574669e-001 -7.409834e+000 202 195 185
-1.962011e-001 -3.492830e-001 -9.997642e+000 225 226 220
1.594665e+000 1.096393e+001 -1.542986e+001 189 188 186
4.096954e-001 1.521836e+001 -2.033820e+001 136 154 204
4.096954e-001 1.521836e+001 -2.033820e+001 136 154 204
1.458364e-002 1.544878e+001 -2.138812e+001 159 171 210
-1.885354e-001 1.533761e+001 -2.196693e+001 163 177 213
2.205829e+000 -1.737766e-001 -5.424661e+000 182 141 79
-7.770361e-001 -9.026993e-001 -5.870845e+000 169 86 52
1.851147e+000 1.140025e+001 -1.513173e+001 200 199 198
5.594429e-001 1.554681e+001 -1.993929e+001 175 186 218
-6.245248e-001 1.367192e+001 -2.151627e+001 166 181 212
-1.916939e+000 -5.169200e-001 -5.608143e+000 70 26 23
1.606022e+000 -1.733339e+000 -5.963883e+000 181 80 58
1.223261e-001 -7.081689e-001 -8.690033e+000 223 219 208
1.223261e-001 -7.081689e-001 -8.690033e+000 223 219 208
1.520366e+000 1.490800e+000 -5.729657e+000 130 115 94
1.336449e+000 1.880078e+000 -6.132026e+000 135 124 94
1.332155e+000 1.194270e+000 -6.002387e+000 188 178 142
2.045619e+000 2.244375e-002 -5.202071e+000 167 68 62
-7.107750e-001 1.761101e+001 -2.342521e+001 111 110 106
2.913459e-001 -1.076074e+000 -7.821739e+000 240 237 228
1.608068e+000 -2.064857e+000 -5.994359e+000 202 118 46
-1.716880e-001 -2.027097e-001 -9.779147e+000 231 92 91
2.075119e-001 -1.012009e+000 -7.924777e+000 240 237 231
1.397169e+000 -2.319068e+000 -6.489115e+000 216 136 72
4.296578e+000 1.023608e+000 -6.371216e+000 180 163 152
1.368317e+000 1.469087e+000 -5.947178e+000 125 115 88
1.622322e+000 1.646699e+000 -5.622911e+000 219 212 202
1.428623e+000 1.413487e+000 -5.639005e+000 155 145 109
1.607271e+000 9.937300e-003 -4.577897e+000 201 194 184
2.977496e+000 6.420415e-001 -5.461829e+000 196 180 167
2.951335e+000 5.848663e-001 -5.407024e+000 172 154 142
2.114807e+000 -1.366179e-001 -4.795579e+000 245 218 185
1.279856e+000 -5.743398e-001 -4.494224e+000 88 69 54
2.044655e+000 -7.493228e-001 -4.718953e+000 221 171 131
1.598031e+000 -3.738355e-001 -5.418652e+000 152 134 96
1.866124e+000 -5.072074e-001 -5.543090e+000 107 54 54
2.003898e+000 -7.268391e-001 -5.640454e+000 157 106 61
-4.522118e-001 -4.583897e-001 -5.365683e+000 209 93 80
-1.438278e+000 -9.572956e-002 -5.584042e+000 144 95 95
1.831289e+000 -1.158767e+000 -5.543730e+000 120 133 110
1.681650e+000 -1.175714e+000 -5.932738e+000 71 33 26
1.763164e+000 -1.183222e+000 -5.727436e+000 142 156 130
1.746597e+000 -1.322637e+000 -5.714831e+000 190 207 173
1.756199e+000 -1.430159e+000 -5.558598e+000 203 132 75
1.818383e+000 -1.461043e+000 -5.456926e+000 225 204 196
1.723059e+000 -1.292926e+000 -5.780761e+000 180 183 175
1.757947e+000 -1.378634e+000 -5.668000e+000 140 136 127
1.759802e+000 -1.549977e+000 -5.569087e+000 91 65 61
1.787252e+000 -1.597641e+000 -5.542248e+000 223 146 82
1.641563e+000 -1.393251e+000 -5.967884e+000 133 58 45
1.735566e+000 -1.605203e+000 -5.614125e+000 95 73 75
1.733142e+000 -1.619600e+000 -5.635523e+000 92 66 65
1.722488e+000 -1.679180e+000 -5.636296e+000 233 214 204
1.722488e+000 -1.679180e+000 -5.636296e+000 233 214 204
-2.055387e+000 -5.612903e-001 -5.766578e+000 83 63 31
-6.166258e-001 -1.004352e+000 -5.953807e+000 137 53 48
-5.729734e-001 -1.045615e+000 -5.912606e+000 187 87 71
1.140875e+000 -1.246658e+000 -6.356102e+000 165 117 106
1.620086e+000 -1.591705e+000 -5.975366e+000 200 114 60
1.682321e+000 -1.737081e+000 -5.634371e+000 231 212 200
1.652520e+000 -1.808231e+000 -5.744998e+000 112 89 91
1.652520e+000 -1.808231e+000 -5.744998e+000 112 89 91
1.486283e+000 -1.619335e+000 -6.270425e+000 196 115 50
-8.940836e-001 -1.236204e+000 -6.251633e+000 185 105 66
1.573857e+000 -2.033890e+000 -6.032578e+000 226 144 63
1.531567e+000 -2.029989e+000 -6.034143e+000 148 129 127
1.434575e+000 -2.117773e+000 -6.239092e+000 119 91 88
1.281228e+000 -2.120741e+000 -6.658442e+000 225 163 83
1.166106e+000 -2.168276e+000 -6.844890e+000 190 124 63
1.943469e+000 6.420159e-001 -4.982716e+000 191 137 65
2.142640e+000 -2.406128e-001 -4.870841e+000 253 234 199
1.922248e+000 -5.920776e-001 -5.440349e+000 115 42 42
2.558663e+000 -9.003178e-001 -5.292956e+000 82 46 36
1.906987e+000 -6.245575e-001 -5.483289e+000 117 43 44
1.864312e+000 -6.055172e-001 -5.614836e+000 122 75 70
1.983684e+000 -8.848888e-001 -5.150186e+000 186 129 54
2.678647e+000 -1.006583e+000 -5.283494e+000 168 151 143
1.865705e+000 -7.193425e-001 -5.580195e+000 133 93 88
-6.174342e-001 -2.723667e-001 -5.416782e+000 194 75 68
9.222462e-001 -4.966107e-001 -5.765070e+000 190 72 64
-5.505183e-001 -4.856073e-001 -5.465477e+000 238 185 137
1.750714e+000 -1.012767e+000 -5.792412e+000 85 57 54
1.855509e+000 -1.304121e+000 -5.435203e+000 204 133 56
-1.617900e+000 -4.066324e-001 -5.459637e+000 175 89 66
-1.584494e-001 -6.452897e-001 -5.820980e+000 130 86 70
6.962444e-001 -7.261017e-001 -6.046612e+000 194 182 164
1.788409e+000 -1.443741e+000 -5.467710e+000 227 211 203
-1.965929e+000 -5.033249e-001 -5.688329e+000 152 107 85
1.630963e+000 -1.532619e+000 -5.902467e+000 207 117 58
-1.040305e+000 -9.218207e-001 -5.822022e+000 191 98 57
-8.260480e-001 -9.121967e-001 -5.798537e+000 149 65 37
1.573943e+000 -1.778642e+000 -6.022108e+000 195 109 54
1.622388e+000 -1.882373e+000 -5.842433e+000 223 208 200
1.437596e+000 -1.677282e+000 -6.364459e+000 146 68 38
1.513670e+000 -1.834011e+000 -6.147411e+000 231 161 83
3.395687e-001 -1.141171e+000 -8.037843e+000 218 209 200
1.271508e+000 -2.096905e+000 -6.689830e+000 202 131 74
1.325133e+000 -2.281963e+000 -6.409744e+000 226 214 213
1.212242e+000 -2.317339e+000 -6.821234e+000 203 128 90
2.088666e+000 -5.067839e-001 -5.057633e+000 174 98 40
2.852095e+000 -3.525444e-001 -5.363718e+000 137 118 104
8.395613e-001 2.425079e+000 -7.783369e+000 228 108 108
1.927121e+000 -5.825778e-001 -5.423205e+000 136 111 103
2.593027e+000 -8.396038e-001 -5.285960e+000 76 46 40
1.646627e+000 -8.410253e-001 -5.570279e+000 107 40 33
1.856013e+000 -1.064604e+000 -5.516139e+000 222 214 206
1.120375e+000 -6.358173e-001 -5.949808e+000 196 142 90
1.803536e+000 -9.828240e-001 -5.786694e+000 57 48 36
-4.592368e-001 -6.920207e-001 -5.679266e+000 247 191 136
-1.754133e-001 -7.371575e-001 -5.642608e+000 117 46 37
1.695333e+000 -1.484335e+000 -5.742244e+000 201 102 69
-2.115510e+000 -3.805084e-001 -5.884729e+000 112 91 53
-1.098685e+000 -7.864926e-001 -5.775192e+000 199 105 64
1.650495e+000 -1.489161e+000 -5.943643e+000 217 139 57
1.727205e+000 -1.651219e+000 -5.621937e+000 229 205 199
1.728170e+000 -1.651087e+000 -5.623255e+000 229 205 199
-1.187089e+000 -8.799537e-001 -5.774818e+000 140 67 44
-9.939160e-001 -8.748310e-001 -5.790949e+000 176 82 48
-9.939160e-001 -8.748310e-001 -5.790949e+000 176 82 48
1.651855e+000 -1.725653e+000 -5.827508e+000 219 136 70
-8.772939e-001 -1.064543e+000 -5.896059e+000 170 78 41
1.617252e+000 -2.139464e+000 -5.666764e+000 232 167 102
1.355558e+000 -2.224778e+000 -6.340860e+000 233 217 207
1.392895e+000 -2.200495e+000 -6.435822e+000 233 217 207
1.333795e+000 1.010395e+000 -5.700755e+000 200 187 142
1.273154e+000 8.066056e-001 -5.689941e+000 161 150 117
2.061739e+000 -1.356102e-001 -5.100050e+000 235 226 218
2.007684e+000 -2.193782e-001 -4.982855e+000 177 132 68
2.114948e+000 -4.005036e-001 -5.097190e+000 186 133 59
2.041686e+000 -6.954225e-001 -5.108447e+000 194 140 37
2.748715e+000 -7.874288e-001 -5.353041e+000 182 161 150
1.916210e+000 -5.048450e-001 -5.572863e+000 121 85 75
-1.446291e-002 -1.832013e-001 -5.638576e+000 155 146 137
7.252049e-001 -5.820042e-001 -6.100986e+000 200 70 67
8.485016e-001 -8.004744e-001 -6.000360e+000 192 79 63
1.233104e+000 -1.136159e+000 -5.991569e+000 132 50 41
1.233104e+000 -1.136159e+000 -5.991569e+000 132 50 41
1.727334e+000 -1.499937e+000 -5.668813e+000 199 104 65
-1.331179e+000 -7.599797e-001 -5.612250e+000 137 72 45
-1.059777e+000 -7.982988e-001 -5.674217e+000 181 93 54
-4.794704e-002 -8.271963e-001 -6.101729e+000 157 139 125
-1.190711e+000 -9.081142e-001 -5.826803e+000 173 91 62
3.031111e-002 -7.118769e-001 -6.889269e+000 176 162 153
-7.429560e-001 -1.068210e+000 -5.914364e+000 137 69 47
1.596343e+000 -1.969270e+000 -5.858045e+000 173 81 40
1.642432e+000 -2.136436e+000 -5.659911e+000 122 89 71
3.897100e-001 -1.202957e+000 -7.848154e+000 230 223 211
1.266494e+000 -2.394919e+000 -6.433653e+000 214 134 68
1.853879e+000 7.578820e-001 -5.017459e+000 188 80 78
6.271669e-001 1.974584e-001 -5.644026e+000 232 230 218
6.271669e-001 1.974584e-001 -5.644026e+000 232 230 218
1.902012e+000 -5.988215e-001 -5.491318e+000 119 45 42
1.877286e+000 -8.711956e-001 -5.481452e+000 154 95 39
1.576583e+000 -7.640371e-001 -6.030882e+000 112 81 50
1.866919e+000 -1.215745e+000 -5.445597e+000 206 127 70
-1.072328e+000 -2.872631e-001 -5.908839e+000 137 53 32
1.540280e-001 -4.990113e-001 -6.019783e+000 87 73 56
-1.306966e+000 -6.407727e-001 -5.519097e+000 169 86 54
-7.289331e-001 -8.466019e-001 -5.633062e+000 158 84 49
-4.502803e-001 -1.077517e+000 -5.810001e+000 168 152 143
-3.149869e-001 -1.131667e+000 -5.940561e+000 149 84 56
1.611949e+000 -1.596070e+000 -6.007316e+000 227 159 83
-9.087897e-001 -1.210964e+000 -6.064857e+000 206 117 71
1.574325e+000 -1.852843e+000 -6.006760e+000 243 179 88
1.280247e+000 -2.255993e+000 -6.577184e+000 197 112 67
1.060490e+000 -2.141734e+000 -7.175666e+000 227 148 92
1.275984e+000 1.282631e+000 -6.057700e+000 139 130 99
1.566292e+000 -8.447629e-001 -5.314183e+000 120 94 59
-1.928579e+000 -3.810653e-001 -5.678364e+000 69 23 21
7.652494e-001 -1.018352e+000 -6.013449e+000 213 200 184
-1.328262e+000 -7.887189e-001 -5.624848e+000 174 139 97
-7.407499e-002 -9.019143e-001 -6.155730e+000 160 138 127
9.000685e-003 -7.373288e-001 -6.666884e+000 159 142 133
2.114542e+000 -2.840028e-001 -5.298663e+000 181 137 77
1.468266e+000 -6.681845e-001 -6.108663e+000 143 115 76
-1.494473e+000 -4.709509e-001 -5.486539e+000 219 181 131
-4.652859e-001 -1.105434e+000 -6.009735e+000 103 49 41
1.496926e+000 -2.321232e+000 -6.029119e+000 251 205 153
9.510178e-001 -1.955857e+000 -7.323280e+000 135 64 44
1.631576e+000 1.679121e+000 -5.765240e+000 235 228 219
1.199033e+000 8.207613e-001 -5.917478e+000 147 137 113
1.199033e+000 8.207613e-001 -5.917478e+000 147 137 113
-7.588808e-001 -2.476059e-001 -5.495005e+000 198 140 102
-5.452624e-001 -4.319342e-001 -5.464084e+000 163 76 45
-1.187103e+000 -5.686990e-001 -5.523882e+000 145 92 60
3.458920e-001 -7.250069e-001 -6.027001e+000 159 147 135
-4.797914e-002 -1.247545e-001 -9.538412e+000 253 245 240
1.487020e+000 -2.282843e+000 -5.804260e+000 228 162 103
1.219073e+000 -2.117582e+000 -6.849606e+000 222 174 89
1.302763e+000 3.034328e+000 -7.362428e+000 224 97 98
2.138153e+000 4.166924e-001 -5.218138e+000 143 95 48
2.029295e+000 -5.736269e-001 -5.235419e+000 130 86 34
2.026423e+000 -5.747798e-001 -5.231698e+000 130 86 34
1.762308e+000 -8.862226e-001 -5.687164e+000 82 37 27
-1.378677e+000 -2.446824e-001 -5.657084e+000 141 92 75
-1.378677e+000 -2.446824e-001 -5.657084e+000 141 92 75
-2.661885e-001 -7.084219e-001 -5.661740e+000 164 65 65
5.459951e-001 -6.490590e-001 -6.030874e+000 62 42 43
5.530941e-001 -6.056287e-001 -6.090852e+000 62 42 43
1.733608e+000 -1.505456e+000 -5.600666e+000 163 63 48
-9.946543e-001 -7.799919e-001 -5.765614e+000 171 77 43
8.054239e-001 -1.965271e+000 -7.405193e+000 90 42 37
8.880304e-001 1.918629e+000 -7.719402e+000 248 248 237
2.366013e+000 -9.489000e-001 -5.209376e+000 152 133 120
-8.321225e-001 -1.111163e+000 -5.937903e+000 175 75 41
1.424530e+000 -2.283130e+000 -6.322491e+000 207 127 56
2.944558e+000 -3.380894e-002 -5.477138e+000 162 140 127
-6.297102e-001 -5.087254e-001 -5.555523e+000 244 204 152
-2.080476e+000 -3.997872e-001 -5.845826e+000 174 151 92
7.129596e-001 -1.878848e+000 -7.433661e+000 220 83 85
7.900887e-001 -1.743374e+000 -7.155808e+000 183 61 61
1.397935e+000 1.524441e+000 -6.000803e+000 123 118 89
1.156465e+000 -1.893668e+000 -6.268208e+000 245 236 227
2.129352e+000 -4.350869e-001 -4.851662e+000 197 116 51
7.489970e-001 -1.375709e+000 -7.300183e+000 118 46 48
-6.462286e-001 -1.070351e+000 -6.207415e+000 143 65 46
2.265935e+000 -3.125353e-001 -4.862922e+000 139 119 103
1.253867e+000 1.682695e+000 -6.061040e+000 210 204 181
1.374220e+000 -3.849361e-001 -4.610715e+000 135 118 102
1.374910e+000 -5.168505e-001 -4.762420e+000 123 71 58
2.333998e+000 5.836331e-002 -5.573239e+000 134 103 78
2.871677e+000 -6.728153e-001 -5.470728e+000 109 90 75
2.871677e+000 -6.728153e-001 -5.470728e+000 109 90 75
1.917105e+000 -7.758997e-001 -5.646173e+000 153 105 102
-6.998033e-001 -8.061399e-002 -5.510416e+000 217 99 98
-6.371817e-001 -1.847598e-001 -5.464818e+000 230 108 95
-4.322582e-001 -4.474503e-001 -5.399774e+000 215 94 85
1.849607e+000 -1.022097e+000 -5.645336e+000 85 100 75
1.841247e+000 -1.111935e+000 -5.533376e+000 199 196 185
1.790067e+000 -1.039114e+000 -5.825361e+000 93 77 67
1.790140e+000 -1.225328e+000 -5.644110e+000 122 127 108
1.809492e+000 -1.341524e+000 -5.673335e+000 200 195 191
1.828389e+000 -1.333207e+000 -5.509049e+000 209 135 87
-1.451312e+000 -5.021685e-001 -5.483634e+000 167 122 91
1.783193e+000 -1.446101e+000 -5.605981e+000 197 124 53
1.767166e+000 -1.579385e+000 -5.579579e+000 136 82 76
1.582456e+000 -1.362309e+000 -6.003451e+000 100 43 29
1.665639e+000 -1.377487e+000 -6.031007e+000 134 64 40
1.733828e+000 -1.636341e+000 -5.675368e+000 108 85 80
1.625583e+000 -1.789621e+000 -5.754874e+000 194 166 157
1.413343e+000 -1.748571e+000 -6.260132e+000 182 83 43
1.475153e+000 -2.004549e+000 -6.134219e+000 234 193 82
1.311384e+000 -2.120588e+000 -6.304658e+000 212 166 71
1.426012e+000 -2.379586e+000 -5.948919e+000 223 154 100
1.230176e+000 -2.145845e+000 -6.568340e+000 190 121 65
1.264324e+000 -2.539511e+000 -6.182025e+000 210 139 85
1.761080e+000 1.157938e+000 -5.241172e+000 208 181 164
1.494626e+000 1.707348e+000 -5.717198e+000 165 155 120
1.677369e+000 9.929878e-002 -4.681122e+000 119 107 93
2.275199e+000 -2.187709e-001 -4.845134e+000 146 123 113
1.998589e+000 1.896247e-001 -5.174868e+000 136 102 81
2.210942e+000 -6.010638e-001 -4.900041e+000 128 108 98
2.588335e+000 -8.377898e-001 -5.356174e+000 74 47 43
2.791293e+000 -7.615327e-001 -5.428514e+000 90 68 52
1.905587e+000 -4.382616e-001 -5.552329e+000 120 71 66
1.988978e+000 -5.691365e-001 -5.464115e+000 148 105 96
2.588859e+000 -9.897976e-001 -5.354328e+000 201 181 157
6.786211e-002 -3.365065e-001 -5.839118e+000 109 93 78
-1.051704e+000 -3.966391e-001 -5.707126e+000 167 78 52
-1.486750e+000 -5.920839e-001 -5.422392e+000 154 87 60
-1.349965e+000 -6.215792e-001 -5.458648e+000 165 104 63
1.770625e+000 -1.621169e+000 -5.639040e+000 225 206 198
1.704117e+000 -1.607715e+000 -5.771965e+000 201 125 46
1.544986e+000 -1.693390e+000 -6.098214e+000 197 123 48
1.578103e+000 -1.729745e+000 -6.052379e+000 204 125 56
1.597432e+000 -1.945932e+000 -5.800978e+000 213 134 59
1.464030e+000 -1.728787e+000 -6.325695e+000 196 101 53
1.537911e+000 -2.009702e+000 -5.820662e+000 196 115 61
1.583596e+000 -1.976792e+000 -5.975945e+000 223 197 165
1.319571e+000 -2.040828e+000 -6.455729e+000 181 130 76
1.059616e+000 -2.110366e+000 -6.612732e+000 185 148 122
1.180310e+000 -2.357546e+000 -6.523395e+000 236 186 97
2.200523e+000 4.425168e-001 -5.069318e+000 196 119 56
2.129029e+000 3.337146e-001 -5.315271e+000 130 69 57
2.247394e+000 -3.619183e-001 -4.883895e+000 209 130 73
2.219841e+000 -5.710298e-001 -4.863942e+000 168 152 140
1.233029e+000 1.061527e+000 -5.961888e+000 151 140 110
2.010732e+000 -3.901055e-002 -5.286137e+000 216 177 175
2.230266e+000 -5.507181e-001 -4.901129e+000 111 87 77
2.230266e+000 -5.507181e-001 -4.901129e+000 111 87 77
1.685278e+000 -2.903127e-001 -5.436285e+000 147 90 64
2.772273e+000 -6.829928e-001 -5.416658e+000 83 53 48
1.667812e+000 -3.346287e-001 -5.679646e+000 159 68 63
1.913782e+000 -6.078412e-001 -5.460620e+000 145 110 99
2.675336e+000 -8.862941e-001 -5.385616e+000 83 55 40
1.845269e+000 -7.101000e-001 -5.624970e+000 131 85 76
-7.056740e-001 -1.077533e-001 -5.506813e+000 193 86 79
1.692802e+000 -8.151473e-001 -5.610679e+000 128 47 46
1.777548e+000 -9.885108e-001 -5.779663e+000 97 67 62
1.876526e+000 -1.284802e+000 -5.466121e+000 206 147 78
1.742800e+000 -1.287974e+000 -5.640005e+000 94 102 71
1.828385e+000 -1.506981e+000 -5.483443e+000 203 129 66
8.660032e-001 -7.744794e-001 -6.046364e+000 186 80 70
-1.681004e+000 -5.614521e-001 -5.480543e+000 211 122 82
-1.681004e+000 -5.614521e-001 -5.480543e+000 211 122 82
