ply
format ascii 1.0
element face 0
property list uchar int vertex_indices
element vertex 873
property float x
property float y
property float z
property uchar diffuse_red
property uchar diffuse_green
property uchar diffuse_blue
end_header
-1.110980e-001 -2.112688e-001 -5.507476e+000 203 201 188
1.978577e+000 -1.071559e-001 -5.210201e+000 223 213 212
1.237459e+000 -9.641051e-001 -5.996046e+000 108 41 44
1.969491e+000 8.950450e-001 -5.195519e+000 191 76 76
1.995338e+000 6.934144e-001 -5.113371e+000 200 142 42
1.878977e+000 6.798810e-001 -5.111491e+000 81 46 44
1.959881e+000 -5.323316e-001 -5.256293e+000 115 75 24
1.565167e+000 -7.872317e-001 -5.933418e+000 95 65 42
-1.285672e+000 -3.507108e-001 -5.542423e+000 128 90 75
-1.250216e+000 -3.203159e-001 -5.584439e+000 77 47 37
1.916294e+000 -1.211339e-001 -5.390126e+000 133 98 94
1.878922e+000 -6.404812e-001 -5.387444e+000 109 45 42
-1.315871e+000 -5.643037e-001 -5.471306e+000 139 92 72
1.697395e+000 -1.156959e+000 -5.767918e+000 72 85 61
1.751770e+000 -1.216769e+000 -5.573216e+000 103 120 88
2.914519e+000 6.118305e-001 -5.524371e+000 122 103 97
-1.211583e+000 -5.306592e-001 -5.489734e+000 107 84 69
1.112818e+000 -6.371149e-001 -5.939587e+000 193 145 96
1.988265e-001 -9.543875e-002 -5.725297e+000 190 183 172
7.625340e-001 -4.222743e-001 -5.780905e+000 225 218 208
-8.347104e-001 -3.957517e-001 -5.621842e+000 152 75 52
1.791893e+000 -1.001844e+000 -5.561373e+000 210 199 197
-8.414047e-001 -1.136158e+000 -5.973791e+000 211 202 205
-6.428452e-002 -2.122503e-001 -5.525360e+000 128 115 98
-1.335684e-001 -2.506645e-001 -5.504263e+000 132 118 107
-1.181297e+000 -3.351713e-001 -5.582348e+000 66 40 45
-1.110472e+000 -3.432612e-001 -5.570657e+000 209 170 127
2.023797e+000 8.595463e-001 -5.214001e+000 81 41 42
9.949768e-002 -5.511045e-001 -5.894931e+000 124 108 95
1.647521e+000 7.237110e-001 -5.176390e+000 236 232 220
1.547955e+000 3.694285e-001 -5.240805e+000 242 238 229
-6.044040e-001 1.759992e-001 -5.879854e+000 188 103 69
-1.416954e+000 -5.160150e-001 -5.462724e+000 124 58 42
8.273973e-001 -7.279051e-001 -6.003579e+000 170 131 108
1.112418e+000 -6.369880e-001 -5.938889e+000 193 145 96
-1.243338e+000 -5.816018e-001 -5.487093e+000 52 31 24
1.105995e+000 -6.949729e-001 -5.995967e+000 194 140 93
1.080837e+000 3.279835e-001 -5.593903e+000 222 218 206
1.785476e+000 -9.579290e-001 -5.598864e+000 193 185 183
1.639859e+000 -1.297705e+000 -5.856998e+000 206 188 188
1.310451e+000 1.499057e+000 -5.985002e+000 180 168 128
6.237614e-001 1.796382e+000 -8.121208e+000 238 230 217
5.478743e-001 3.450269e-001 -6.052013e+000 186 178 165
-4.840698e-001 1.599568e-001 -5.959289e+000 108 57 53
2.850943e+000 -3.112993e-001 -5.446141e+000 48 31 24
-1.196372e+000 -3.616364e-001 -5.562000e+000 53 42 38
-1.498290e+000 -4.594606e-001 -5.464929e+000 163 83 59
-1.746141e+000 -2.847586e-001 -5.696394e+000 102 77 49
-1.174194e+000 -2.980168e-001 -5.609303e+000 200 183 174
2.869103e+000 5.079637e-001 -5.462251e+000 127 107 100
1.104817e+000 -6.950275e-001 -5.997650e+000 194 140 93
-1.246527e+000 -2.797614e-001 -5.623406e+000 134 94 72
-5.731795e-001 -9.231019e-001 -5.849718e+000 165 86 42
-5.508797e-001 -1.135836e+000 -5.930495e+000 129 55 39
1.069265e+000 1.176326e+000 -6.288207e+000 218 210 200
1.069265e+000 1.176326e+000 -6.288207e+000 218 210 200
1.492951e+000 -8.422018e-001 -6.054504e+000 181 55 53
1.851252e+000 -9.318490e-001 -5.573598e+000 180 117 54
1.121020e+000 1.810713e-001 -5.494626e+000 227 223 214
-1.466000e+000 -4.842210e-001 -5.452144e+000 102 34 24
1.720450e+000 8.391096e-001 -5.153429e+000 99 48 50
7.421365e-001 -7.921981e-001 -5.980261e+000 219 210 195
1.257695e+000 8.931093e-001 -5.785062e+000 124 114 87
1.866512e+000 3.170557e-002 -5.222087e+000 84 43 44
-7.028978e-001 -1.280442e-001 -5.491403e+000 190 166 140
2.494654e+000 -8.243207e-001 -5.348682e+000 72 35 26
1.740844e+000 -1.145038e+000 -5.651228e+000 81 99 70
1.866321e+000 -6.918064e-001 -5.413775e+000 111 82 64
1.874400e+000 -7.298745e-001 -5.381970e+000 120 39 38
2.476756e+000 -8.479099e-001 -5.351763e+000 69 30 24
1.572789e+000 -1.467652e+000 -6.007484e+000 197 111 60
1.452562e+000 2.695877e-001 -5.380393e+000 225 221 210
1.452562e+000 2.695877e-001 -5.380393e+000 225 221 210
1.778296e+000 -1.176089e+000 -5.536736e+000 209 206 196
1.899281e+000 -1.021273e-001 -5.413704e+000 73 39 35
-1.044128e+000 -4.598545e-001 -5.488511e+000 164 108 78
5.469697e-001 -7.024491e-001 -6.030313e+000 165 153 141
2.038081e+000 8.037249e-001 -5.230076e+000 178 121 54
2.361238e-001 2.911279e-002 -5.815113e+000 175 172 154
-9.532666e-001 -1.083722e-001 -5.842154e+000 187 107 70
-9.532666e-001 -1.083722e-001 -5.842154e+000 187 107 70
-1.555016e+000 -3.523614e-001 -5.541506e+000 218 129 89
9.979374e-001 -8.545729e-001 -6.076550e+000 240 198 150
1.358629e+000 -8.277980e-001 -6.016032e+000 106 36 36
1.373878e+000 1.247942e+000 -5.612906e+000 214 200 144
-7.002296e-001 8.777608e-002 -5.853757e+000 191 96 62
1.407145e-001 1.852745e-001 -6.155649e+000 219 217 205
1.904038e+000 -1.279965e-001 -5.387485e+000 168 135 130
-1.246936e+000 -3.529019e-001 -5.562928e+000 77 47 36
-1.205692e+000 -3.483178e-001 -5.572229e+000 152 145 143
-1.168305e+000 -3.599350e-001 -5.553932e+000 102 70 54
1.713328e+000 -1.045048e+000 -5.786838e+000 81 65 58
1.727712e+000 -1.086674e+000 -5.707527e+000 84 98 72
-7.383884e-002 -2.774624e-001 -5.555517e+000 126 114 98
2.861484e+000 -3.234451e-001 -5.444808e+000 84 65 63
-1.738980e+000 -3.224820e-001 -5.678996e+000 197 171 130
-1.783902e+000 -3.987611e-001 -5.678567e+000 225 196 154
-1.795410e+000 -4.103330e-001 -5.658877e+000 134 112 68
2.557612e+000 -8.905169e-001 -5.366734e+000 155 130 104
1.761140e+000 -1.056976e+000 -5.635430e+000 106 110 91
1.689456e+000 -1.165705e+000 -5.793345e+000 122 124 108
1.678667e+000 -1.229236e+000 -5.792414e+000 86 93 77
1.696770e+000 -1.283788e+000 -5.704921e+000 178 196 177
-5.257650e-001 -7.008222e-002 -5.514544e+000 157 150 133
-7.764874e-001 -1.558389e-001 -5.513298e+000 203 189 168
-7.764874e-001 -1.558389e-001 -5.513298e+000 203 189 168
-7.019743e-001 -1.275740e-001 -5.485956e+000 190 166 140
-1.449773e+000 -3.423308e-001 -5.449492e+000 181 101 66
-1.191767e+000 -2.687879e-001 -5.641453e+000 150 111 85
-1.285810e+000 -3.497876e-001 -5.532277e+000 128 90 75
-1.062968e+000 -3.205437e-001 -5.662972e+000 166 109 79
-1.157665e+000 -3.228216e-001 -5.584601e+000 66 40 33
-1.530763e+000 -4.885456e-001 -5.465173e+000 164 80 55
2.916355e+000 -5.566425e-001 -5.543476e+000 78 61 57
-1.507986e+000 -6.194883e-001 -5.445452e+000 204 109 67
-1.195258e+000 -5.777699e-001 -5.449861e+000 216 179 134
-1.325299e+000 -6.921385e-001 -5.465658e+000 116 42 22
-1.463367e+000 -8.546628e-001 -5.535639e+000 84 36 25
1.186166e+000 -9.617398e-001 -5.969347e+000 202 147 103
1.812877e+000 -1.162976e+000 -5.412013e+000 178 113 45
1.826943e+000 -1.106344e+000 -5.397925e+000 200 145 82
1.550999e+000 -1.493407e+000 -6.102394e+000 176 83 58
2.038517e+000 8.309585e-001 -5.181697e+000 111 41 45
2.038517e+000 8.309585e-001 -5.181697e+000 111 41 45
-9.326905e-002 7.330615e-002 -6.205174e+000 226 223 211
1.926435e+000 -8.952878e-002 -5.321770e+000 144 51 51
1.266802e+000 -5.288921e-001 -4.530067e+000 76 57 33
-1.475047e+000 -5.835446e-001 -5.439779e+000 169 83 50
8.866279e-001 -9.362117e-001 -6.116749e+000 202 188 179
2.479764e+000 -8.493819e-001 -5.358303e+000 69 30 24
1.887688e+000 1.363568e+000 -5.128135e+000 172 97 90
1.371602e+000 1.371483e+000 -5.619941e+000 193 178 130
2.828549e+000 5.996900e-001 -5.444015e+000 170 152 141
3.001466e+000 6.492155e-001 -5.623067e+000 179 163 154
2.867504e+000 4.794272e-001 -5.475321e+000 153 139 126
2.329076e-001 -6.867750e-002 -5.744900e+000 225 219 211
2.851472e+000 -5.318457e-001 -5.488548e+000 64 50 45
2.851472e+000 -5.318457e-001 -5.488548e+000 64 50 45
1.058384e+000 -7.785262e-001 -6.090828e+000 94 42 30
1.641269e+000 -1.299625e+000 -5.864286e+000 206 188 188
1.573981e+000 1.531829e+000 -5.668685e+000 223 214 199
1.221325e+000 1.032501e+000 -6.163412e+000 241 235 226
-4.204777e-001 -9.290169e-002 -5.511532e+000 176 173 153
1.932717e+000 -1.232132e-001 -5.310347e+000 142 50 60
-7.833758e-001 -1.837379e-001 -5.509660e+000 73 71 83
2.656634e+000 -2.723248e-001 -5.298006e+000 70 30 30
-1.729904e+000 -4.413468e-001 -5.583328e+000 70 31 30
8.232349e-001 -9.864866e-001 -6.030353e+000 177 73 76
1.250263e+000 1.800542e+000 -6.403756e+000 211 203 193
1.428589e+000 1.522692e+000 -5.691111e+000 241 229 181
2.102210e+000 1.150726e+000 -4.969116e+000 181 158 145
1.628991e+000 9.143140e-001 -5.255234e+000 171 147 131
1.976761e+000 -1.075863e-001 -5.207642e+000 223 213 212
4.205475e-002 -3.617662e-001 -5.739192e+000 102 86 73
-9.913623e-001 -3.981514e-001 -5.755077e+000 104 37 27
2.541289e+000 -5.473079e-001 -5.277165e+000 76 54 32
2.647167e-001 9.443453e-001 -9.199097e+000 240 235 231
2.179720e-001 2.768704e-001 -6.354139e+000 198 193 184
1.958700e+000 -4.976940e-002 -5.209682e+000 153 61 59
2.302577e-001 -3.771771e-002 -5.785298e+000 221 217 208
-6.492780e-001 -2.664988e-001 -5.497848e+000 193 137 102
-9.930608e-001 -4.618150e-001 -5.464655e+000 176 134 94
-1.361044e+000 -5.479848e-001 -5.426245e+000 111 46 28
6.390345e-001 1.546310e+000 -8.491381e+000 245 243 233
6.829786e-001 -5.845505e-001 -5.885552e+000 218 217 207
-1.260389e+000 -5.381402e-001 -5.489457e+000 58 48 46
1.511442e+000 -1.362928e+000 -5.896412e+000 114 42 33
1.584393e+000 -1.296245e+000 -5.891835e+000 95 36 28
1.915224e+000 1.035711e-001 -5.302225e+000 90 54 52
5.474786e-002 -1.484214e-001 -5.709503e+000 186 179 171
1.548090e+000 1.349602e+000 -5.572404e+000 242 235 225
2.146657e+000 6.396194e-001 -5.148572e+000 195 113 57
-1.537272e+000 -5.882465e-001 -5.455438e+000 232 136 92
-9.839322e-001 -3.261955e-001 -5.827192e+000 136 64 44
2.179605e+000 8.753573e-001 -5.119426e+000 209 138 89
2.624488e-001 -5.798533e-001 -5.960696e+000 53 42 40
2.624488e-001 -5.798533e-001 -5.960696e+000 53 42 40
1.419441e+000 1.548946e+000 -5.587227e+000 161 149 109
1.025350e+000 6.709264e-001 -6.395359e+000 224 220 207
3.078138e+000 5.308351e-001 -5.606057e+000 178 158 149
1.395414e-001 1.575654e-001 -6.158000e+000 211 207 198
-7.771697e-001 -1.411160e-001 -5.529091e+000 89 73 70
2.925378e+000 -2.618936e-001 -5.481518e+000 86 72 67
2.963285e+000 -2.091508e-001 -5.485837e+000 61 46 40
-1.781311e+000 -4.237988e-001 -5.682408e+000 185 158 122
2.916538e+000 -3.660748e-001 -5.488769e+000 75 61 57
2.839417e+000 -4.394528e-001 -5.461089e+000 84 66 57
3.167188e+000 -4.727553e-001 -5.677218e+000 76 58 60
-1.796188e+000 -5.074477e-001 -5.654421e+000 88 55 35
-1.291716e-001 -4.792300e-001 -5.380950e+000 147 135 120
1.319812e+000 -5.500487e-001 -6.002014e+000 94 67 39
1.874306e+000 -6.077601e-001 -5.398023e+000 112 51 50
1.863997e+000 -6.505129e-001 -5.432861e+000 115 54 53
2.430075e+000 -7.224463e-001 -5.275387e+000 84 45 45
2.775459e+000 -6.953398e-001 -5.490472e+000 57 38 32
1.710405e+000 -1.133371e+000 -5.731104e+000 78 91 64
6.534953e-001 -2.329051e+000 -8.015695e+000 197 122 67
6.960950e-001 -2.273258e+000 -7.981522e+000 200 132 82
3.412257e+000 1.082471e+000 -6.127434e+000 174 149 140
3.055227e+000 5.975047e-001 -5.624818e+000 174 155 146
1.556855e-001 1.741334e-001 -6.158437e+000 207 202 193
1.962844e+000 4.573361e-002 -5.259158e+000 195 89 73
2.015350e+000 1.402998e-002 -5.152817e+000 185 140 70
-4.754947e-001 -1.298803e-001 -5.515336e+000 169 161 150
1.955054e-001 -1.169138e-001 -5.708331e+000 189 182 173
2.010040e+000 -8.551334e-002 -5.083112e+000 212 166 87
-3.168015e-002 -2.055183e-001 -5.547604e+000 170 158 145
3.087797e+000 -3.049469e-001 -5.596633e+000 97 70 66
-2.123403e-001 -3.782260e-001 -5.329733e+000 194 185 176
1.604828e-001 -4.834865e-001 -5.911777e+000 88 77 59
2.904931e+000 -4.562174e-001 -5.505678e+000 69 40 33
1.865225e+000 -5.309473e-001 -5.464349e+000 118 90 79
1.873467e+000 -5.906523e-001 -5.394019e+000 130 104 91
-1.464232e+000 -6.254772e-001 -5.434515e+000 172 83 49
-9.991416e-001 -7.691095e-001 -5.679664e+000 162 77 49
1.853782e+000 -6.213649e-001 -5.477672e+000 121 91 83
1.853782e+000 -6.213649e-001 -5.477672e+000 121 91 83
1.841993e+000 -6.507469e-001 -5.465751e+000 133 99 96
1.841993e+000 -6.507469e-001 -5.465751e+000 133 99 96
1.887392e+000 -6.175529e-001 -5.372934e+000 101 44 42
1.884616e+000 -6.692778e-001 -5.355960e+000 108 46 43
1.741024e+000 -9.862158e-001 -5.698758e+000 86 90 69
1.701929e+000 -1.161086e+000 -5.781888e+000 72 85 61
3.302110e+000 1.112726e+000 -6.084071e+000 180 157 149
2.107126e+000 7.610304e-001 -4.928137e+000 210 139 89
1.104379e+000 7.117519e-001 -6.147968e+000 217 212 201
2.056435e+000 6.102068e-001 -5.115840e+000 214 151 54
3.027377e+000 7.750837e-001 -5.694297e+000 156 140 132
-5.949962e-001 -1.268580e-001 -5.425375e+000 191 183 168
2.000872e+000 -1.635131e-001 -5.116900e+000 181 136 74
2.929398e+000 -3.157312e-001 -5.499486e+000 79 63 59
2.929398e+000 -3.157312e-001 -5.499486e+000 79 63 59
-1.453036e+000 -4.061990e-001 -5.447566e+000 154 80 62
1.297892e-001 -3.918792e-001 -5.780383e+000 57 45 33
1.746916e-001 -3.354353e-001 -5.766772e+000 120 107 97
1.084291e+000 -3.836422e-001 -5.750407e+000 189 176 162
-1.545769e+000 -5.197499e-001 -5.461827e+000 172 78 50
3.210597e+000 -9.378201e-001 -5.893793e+000 56 34 20
1.679333e+000 -1.247433e+000 -5.781021e+000 198 196 184
1.679333e+000 -1.247433e+000 -5.781021e+000 198 196 184
1.802641e+000 -1.219767e+000 -5.447404e+000 220 172 81
2.054169e+000 5.595264e-001 -5.056506e+000 186 106 48
6.735544e-001 4.938181e-001 -6.445924e+000 201 197 186
7.152541e-001 4.394580e-001 -6.411721e+000 205 203 192
6.193970e-001 2.442294e-001 -5.716171e+000 240 237 228
1.960160e+000 7.472242e-002 -5.322452e+000 101 71 54
-3.088776e-001 -7.140021e-002 -5.585178e+000 154 147 131
-1.243541e+000 -2.788055e-001 -5.615970e+000 134 94 72
2.998223e+000 -2.100925e-001 -5.512492e+000 94 70 61
-1.482958e+000 -3.318975e-001 -5.478183e+000 166 79 50
2.996647e+000 -5.853668e-001 -5.592682e+000 57 34 27
-1.506808e+000 -7.770108e-001 -5.511126e+000 75 24 26
-1.319909e+000 -7.729205e-001 -5.524730e+000 129 56 38
1.814341e+000 -1.119222e+000 -5.430465e+000 219 168 86
6.330706e-001 -2.219753e+000 -8.127730e+000 209 150 121
6.330706e-001 -2.219753e+000 -8.127730e+000 209 150 121
1.015560e+000 2.146955e+000 -7.379713e+000 222 215 205
2.895221e+000 8.774296e-001 -5.632312e+000 133 117 117
1.043851e+000 2.870771e-001 -5.573779e+000 214 210 198
2.932298e+000 2.840562e-001 -5.466127e+000 152 132 125
2.886423e+000 -2.563626e-001 -5.452321e+000 84 60 58
9.107304e-001 -6.533672e-001 -6.043787e+000 162 118 90
4.139878e-001 -2.192295e+000 -8.283216e+000 205 74 79
4.139878e-001 -2.192295e+000 -8.283216e+000 205 74 79
5.050608e-001 -2.336177e+000 -8.301267e+000 185 102 50
6.070630e-001 -2.249675e+000 -8.041847e+000 194 104 54
2.908718e+000 3.455071e-001 -5.472152e+000 120 105 100
1.607233e-001 5.290178e-002 -6.027755e+000 176 170 157
1.607233e-001 5.290178e-002 -6.027755e+000 176 170 157
2.632918e+000 -4.019612e-001 -5.304486e+000 71 35 28
-1.339764e+000 -5.373177e-001 -5.469175e+000 110 47 32
-1.284106e+000 -6.918342e-001 -5.475080e+000 113 46 32
8.885916e-001 -6.862048e-001 -6.127731e+000 160 142 129
1.707637e+000 -1.210283e+000 -5.708651e+000 79 97 71
4.595810e-001 -2.417035e+000 -8.374871e+000 186 104 57
1.675456e+000 1.583482e+000 -5.606087e+000 211 202 186
-6.156132e-001 -4.777343e-002 -5.563677e+000 181 167 156
-6.156132e-001 -4.777343e-002 -5.563677e+000 181 167 156
2.891688e+000 -3.956055e-001 -5.476004e+000 49 33 33
2.891011e+000 -3.960696e-001 -5.474233e+000 49 33 33
1.347677e+000 -9.435406e-001 -5.968572e+000 220 164 123
1.347677e+000 -9.435406e-001 -5.968572e+000 220 164 123
4.771951e-001 4.489859e-001 -6.586614e+000 233 232 222
-6.620555e-001 -4.336052e-001 -5.576765e+000 191 102 62
2.328598e-001 -2.069030e+000 -8.124052e+000 233 223 213
1.841830e+000 1.238497e+000 -5.102209e+000 153 71 66
3.568462e-001 1.934061e+000 -8.697719e+000 205 214 205
1.910105e+000 8.794515e-001 -5.224655e+000 184 70 70
2.431118e-001 1.131901e+000 -9.158121e+000 219 97 96
1.299259e+000 -1.036597e+000 -5.937438e+000 113 37 38
1.374263e+000 1.357395e+000 -5.552013e+000 216 207 147
1.382127e+000 1.188175e+000 -5.618933e+000 183 170 119
1.388268e+000 1.210921e+000 -5.580834e+000 118 103 72
1.339456e+000 1.075308e+000 -5.563477e+000 195 184 136
1.259752e+000 6.855379e-001 -5.612089e+000 240 234 220
4.800527e-001 5.896597e-001 -6.560971e+000 213 213 205
2.125383e+000 4.326577e-001 -4.811548e+000 203 130 84
2.969874e+000 4.965497e-001 -5.529082e+000 173 158 153
2.900930e+000 4.059575e-001 -5.490206e+000 138 116 104
1.392089e-001 1.806234e-001 -6.111890e+000 219 217 205
1.262104e+000 1.338597e-001 -5.472592e+000 230 225 219
1.972751e+000 1.696970e-001 -5.327012e+000 110 77 62
1.972751e+000 1.696970e-001 -5.327012e+000 110 77 62
-4.702716e-001 6.621084e-002 -5.996172e+000 199 161 147
-5.055349e-002 5.967972e-002 -6.128945e+000 213 212 200
-1.296035e+000 -1.001154e-001 -5.575594e+000 194 195 189
-1.602320e+000 -2.368415e-001 -5.581004e+000 107 58 55
-1.422788e+000 -3.069212e-001 -5.502416e+000 162 85 58
-5.542847e-001 -2.835946e-001 -5.533686e+000 181 99 70
-4.017981e-001 -1.785566e-001 -5.383367e+000 206 198 187
2.713934e+000 -2.050402e-001 -5.323121e+000 112 87 65
2.901026e+000 -1.784066e-001 -5.440059e+000 93 71 73
2.853528e+000 -2.525599e-001 -5.427003e+000 71 51 43
2.981141e+000 -1.983447e-001 -5.519136e+000 94 71 68
2.982261e+000 -2.781760e-001 -5.520545e+000 89 64 60
-1.814853e+000 -3.355648e-001 -5.702146e+000 161 144 114
-1.790124e+000 -3.382375e-001 -5.674611e+000 204 177 125
-1.584424e+000 -4.210438e-001 -5.489152e+000 216 125 76
-1.289845e+000 -3.685759e-001 -5.522588e+000 120 66 45
-1.242083e+000 -3.387415e-001 -5.579573e+000 89 70 66
-1.202268e+000 -3.483832e-001 -5.556513e+000 152 145 143
-9.284622e-001 -3.744345e-001 -5.602155e+000 179 105 78
-4.545981e-001 -3.625806e-001 -5.442321e+000 214 88 86
-4.545981e-001 -3.625806e-001 -5.442321e+000 214 88 86
-4.089189e-001 -4.338417e-001 -5.398857e+000 184 84 66
9.523871e-001 -4.706570e-001 -5.844686e+000 179 77 62
-1.531522e+000 -5.066267e-001 -5.463563e+000 191 106 78
-1.531522e+000 -5.066267e-001 -5.463563e+000 191 106 78
-1.286634e+000 -5.071478e-001 -5.503211e+000 85 48 29
-1.200906e+000 -5.973198e-001 -5.480303e+000 154 100 62
-1.053415e+000 -6.201002e-001 -5.508302e+000 132 63 33
2.493915e-002 -4.916367e-001 -5.857304e+000 104 83 68
1.462688e-001 -5.068439e-001 -5.907658e+000 71 57 44
1.785028e+000 -5.360350e-001 -5.593521e+000 80 36 32
1.821872e+000 -5.486277e-001 -5.603632e+000 82 39 32
1.859723e+000 -5.221383e-001 -5.479371e+000 101 49 47
2.685646e+000 -6.065434e-001 -5.392658e+000 84 59 39
2.880857e+000 -5.414548e-001 -5.499064e+000 43 29 27
2.868898e+000 -5.455083e-001 -5.509036e+000 72 58 55
-1.437536e+000 -6.868411e-001 -5.452017e+000 171 86 51
-2.444199e-001 -7.160326e-001 -5.622307e+000 165 111 77
3.521074e-002 -6.604638e-001 -5.925750e+000 98 64 54
7.343733e-001 -6.903391e-001 -6.013443e+000 122 96 81
1.814056e+000 -6.443005e-001 -5.579564e+000 123 78 75
1.819063e+000 -6.305680e-001 -5.569770e+000 108 51 51
1.843707e+000 -6.478596e-001 -5.496082e+000 126 91 81
1.843707e+000 -6.478596e-001 -5.496082e+000 126 91 81
1.878114e+000 -6.781868e-001 -5.395991e+000 134 99 87
1.886103e+000 -6.568386e-001 -5.378198e+000 140 97 88
2.468286e+000 -6.505088e-001 -5.275122e+000 61 32 28
2.422277e+000 -7.202853e-001 -5.260219e+000 84 45 45
2.519145e+000 -7.185529e-001 -5.353368e+000 68 38 35
2.630626e+000 -6.106330e-001 -5.383337e+000 69 40 24
2.897753e+000 -6.785833e-001 -5.595914e+000 70 51 50
-9.184457e-001 -9.426512e-001 -5.772434e+000 205 115 73
-7.054674e-001 -9.578426e-001 -5.831956e+000 134 58 35
-4.700166e-001 -8.284622e-001 -5.673274e+000 232 190 141
1.797218e+000 -8.987130e-001 -5.584657e+000 153 88 40
2.859577e+000 -8.080719e-001 -5.612991e+000 61 35 31
2.859577e+000 -8.080719e-001 -5.612991e+000 61 35 31
-4.630280e-001 -1.055756e+000 -5.919263e+000 189 102 58
1.678344e+000 -1.098819e+000 -5.869655e+000 72 45 38
1.671173e+000 -1.121400e+000 -5.877447e+000 73 44 35
1.712887e+000 -1.044714e+000 -5.784284e+000 81 65 58
1.727940e+000 -1.042724e+000 -5.782104e+000 62 59 48
2.500630e+000 -9.984535e-001 -5.456489e+000 154 128 105
1.118190e+000 -1.213887e+000 -6.294230e+000 165 109 96
1.072976e+000 -1.289323e+000 -6.059860e+000 201 171 158
1.201066e+000 -1.279717e+000 -6.172367e+000 127 63 39
1.658825e+000 -1.204392e+000 -5.837044e+000 118 88 79
1.772302e+000 -1.092536e+000 -5.625053e+000 167 181 162
1.749787e+000 -1.125072e+000 -5.633732e+000 162 177 152
1.749564e+000 -1.124968e+000 -5.632598e+000 162 177 152
1.731807e+000 -1.190162e+000 -5.553796e+000 83 105 82
1.711924e+000 -1.231235e+000 -5.668960e+000 110 124 91
1.711707e+000 -1.231806e+000 -5.668716e+000 110 124 91
1.768497e+000 -1.277889e+000 -5.516896e+000 155 80 64
1.791855e+000 -1.266133e+000 -5.442221e+000 186 123 48
1.126100e+000 -1.594796e+000 -6.321054e+000 214 194 179
1.447604e+000 -1.551507e+000 -6.259597e+000 170 70 42
1.410163e+000 -1.620326e+000 -6.334371e+000 156 86 38
1.572579e+000 -1.598968e+000 -6.008266e+000 201 119 59
1.609375e+000 -1.538961e+000 -5.863383e+000 210 139 71
1.732662e+000 -1.436682e+000 -5.544251e+000 101 86 81
1.723534e+000 -1.497265e+000 -5.555752e+000 198 179 174
1.749218e+000 -1.377270e+000 -5.505355e+000 200 181 170
1.749222e+000 -1.377023e+000 -5.506864e+000 200 181 170
1.755982e+000 -1.391559e+000 -5.490085e+000 184 166 156
1.760796e+000 -1.380749e+000 -5.484425e+000 116 101 95
1.755604e+000 -1.421105e+000 -5.504563e+000 198 179 175
1.764826e+000 -1.409810e+000 -5.470796e+000 208 188 181
1.535524e+000 -1.670412e+000 -6.028749e+000 198 114 49
1.604101e+000 -1.717992e+000 -5.774027e+000 187 165 159
1.680506e+000 -1.619775e+000 -5.643349e+000 217 195 190
1.721790e+000 -1.545325e+000 -5.532129e+000 197 122 55
1.691466e+000 -1.581958e+000 -5.593600e+000 208 189 181
1.645722e+000 -1.667436e+000 -5.701611e+000 192 175 170
1.636931e+000 -1.690830e+000 -5.691900e+000 214 191 178
1.334350e+000 1.085812e+000 -5.611380e+000 184 171 125
1.822276e+000 1.044277e+000 -4.943846e+000 185 73 68
3.443461e+000 1.119516e+000 -6.199738e+000 146 122 110
3.471403e+000 1.069648e+000 -6.174802e+000 172 146 132
2.140311e+000 6.932207e-001 -4.907187e+000 205 121 73
2.111034e+000 6.347037e-001 -4.854279e+000 235 166 114
3.000627e+000 6.969871e-001 -5.627492e+000 163 138 131
2.136860e+000 3.765616e-001 -4.831914e+000 212 131 79
2.831934e+000 4.892079e-001 -5.428115e+000 151 135 128
3.054968e+000 4.176942e-001 -5.576901e+000 130 106 101
-6.875118e-001 7.989228e-002 -5.859438e+000 191 104 74
-6.798479e-001 1.048475e-001 -5.857025e+000 175 87 62
-6.422623e-001 1.140790e-001 -5.899705e+000 169 93 68
2.123597e+000 -2.327822e-002 -4.833961e+000 245 204 159
-1.311084e+000 -8.746053e-002 -5.585790e+000 90 63 62
-1.311084e+000 -8.746053e-002 -5.585790e+000 90 63 62
-6.809121e-001 -1.042492e-001 -5.485334e+000 187 132 112
-2.267840e-001 -6.601743e-002 -5.589641e+000 154 143 135
1.203806e-001 -2.446973e-002 -5.925851e+000 185 183 170
1.915195e+000 -6.888739e-002 -5.440548e+000 116 71 72
2.015380e+000 -1.186068e-001 -5.115439e+000 196 154 84
-1.822512e+000 -2.999917e-001 -5.711421e+000 217 193 124
-1.493738e+000 -2.118096e-001 -5.632845e+000 150 71 54
-9.113523e-001 -2.974528e-001 -5.795391e+000 171 86 51
1.847839e+000 -2.935564e-001 -5.468234e+000 92 62 56
1.941506e+000 -2.956684e-001 -5.296923e+000 141 54 59
2.007601e+000 -1.936818e-001 -5.138480e+000 172 135 84
2.101119e+000 -2.858998e-001 -5.459324e+000 141 110 77
2.989982e+000 -1.861569e-001 -5.510711e+000 77 46 41
-1.793442e+000 -4.101993e-001 -5.650052e+000 134 112 68
-4.902302e-001 -3.762862e-001 -5.447469e+000 186 105 77
-4.396640e-001 -4.151021e-001 -5.414465e+000 182 105 72
2.958428e-001 -4.431185e-001 -5.899263e+000 71 58 49
2.758340e-001 -4.708823e-001 -5.988739e+000 68 54 42
3.931780e-001 -4.886945e-001 -5.845329e+000 69 43 41
1.840094e+000 -4.665409e-001 -5.531318e+000 114 71 65
7.561947e-001 -6.299761e-001 -5.896465e+000 193 79 78
1.849045e+000 -5.059219e-001 -5.507350e+000 118 74 71
2.090983e+000 -4.420841e-001 -4.859329e+000 228 184 130
2.064209e+000 -4.940497e-001 -4.827509e+000 223 168 115
2.083710e+000 -4.549983e-001 -4.760160e+000 124 101 87
2.900359e+000 -4.764487e-001 -5.508269e+000 79 62 60
-1.489904e+000 -7.545962e-001 -5.488933e+000 191 108 78
-1.401482e+000 -7.545776e-001 -5.497012e+000 162 89 61
-1.324149e+000 -7.108669e-001 -5.477071e+000 142 70 48
-1.309738e+000 -7.049820e-001 -5.482099e+000 131 64 45
-1.199047e+000 -7.654536e-001 -5.599470e+000 135 79 47
-1.115791e+000 -6.289462e-001 -5.479383e+000 154 90 52
-1.011935e+000 -6.238522e-001 -5.488022e+000 154 83 49
7.191774e-001 -6.917646e-001 -6.040205e+000 191 174 158
1.020050e+000 -7.821634e-001 -6.106621e+000 120 74 51
1.830934e+000 -7.096307e-001 -5.516968e+000 113 59 29
2.514268e+000 -7.013417e-001 -5.328548e+000 83 51 51
2.604923e+000 -7.250636e-001 -5.399424e+000 66 32 21
2.647959e+000 -7.306627e-001 -5.433942e+000 72 43 29
2.871555e+000 -6.391954e-001 -5.551948e+000 63 38 36
-1.449334e+000 -8.691252e-001 -5.545175e+000 156 92 54
-1.011019e+000 -8.309456e-001 -5.700606e+000 157 73 43
-8.917790e-001 -8.510211e-001 -5.728397e+000 159 68 37
-6.629372e-001 -9.124865e-001 -5.775919e+000 166 82 53
8.321405e-001 -8.479401e-001 -5.927219e+000 190 81 76
1.231399e+000 -9.301721e-001 -6.009091e+000 208 151 104
1.560216e+000 -8.379188e-001 -5.728814e+000 112 73 55
1.774501e+000 -8.071082e-001 -5.669063e+000 119 76 70
1.775440e+000 -8.073005e-001 -5.670268e+000 119 76 70
2.469736e+000 -8.112672e-001 -5.319480e+000 87 59 54
2.487576e+000 -8.251998e-001 -5.333986e+000 72 35 26
2.556305e+000 -8.904189e-001 -5.366699e+000 155 130 104
2.686645e+000 -8.309258e-001 -5.514560e+000 125 103 86
2.605672e+000 -8.998869e-001 -5.400580e+000 145 121 95
1.761235e+000 -1.082694e+000 -5.658964e+000 185 193 169
2.623510e+000 -9.442009e-001 -5.419966e+000 85 62 43
1.188554e+000 -1.185287e+000 -6.098944e+000 242 201 150
1.262339e+000 -1.310646e+000 -6.137843e+000 227 162 133
1.700804e+000 -1.140616e+000 -5.759157e+000 128 141 115
1.743475e+000 -1.169714e+000 -5.626304e+000 108 123 95
1.687638e+000 -1.233256e+000 -5.817955e+000 86 93 77
1.733421e+000 -1.213286e+000 -5.638407e+000 189 198 189
1.762064e+000 -1.108458e+000 -5.592121e+000 181 197 172
1.767489e+000 -1.112703e+000 -5.609959e+000 181 197 172
1.802909e+000 -1.095917e+000 -5.377586e+000 215 161 85
1.477318e+000 -1.500084e+000 -6.128703e+000 163 70 39
1.707923e+000 -1.384310e+000 -5.630615e+000 177 86 72
1.107556e+000 -1.616764e+000 -6.152828e+000 203 183 166
1.411772e+000 -1.674464e+000 -6.295375e+000 208 133 74
1.410415e+000 -1.673843e+000 -6.291292e+000 208 133 74
1.454029e+000 -1.530936e+000 -6.184467e+000 170 72 36
1.700197e+000 -1.500209e+000 -5.747636e+000 167 83 60
1.741803e+000 -1.430457e+000 -5.516125e+000 212 192 194
1.530421e+000 -1.755641e+000 -5.982102e+000 206 135 61
1.613095e+000 -1.607119e+000 -5.807543e+000 227 174 87
1.571887e+000 -1.718363e+000 -5.951520e+000 205 124 60
1.719787e+000 -1.547085e+000 -5.598084e+000 121 73 65
-6.670409e-001 1.195446e-001 -5.915392e+000 170 82 58
-6.559989e-001 9.145072e-002 -5.807925e+000 183 102 74
1.948587e+000 1.204849e-001 -5.312942e+000 123 100 89
2.122721e+000 8.981698e-002 -4.832053e+000 243 201 152
2.122721e+000 8.981698e-002 -4.832053e+000 243 201 152
-7.635377e-001 -1.185531e-001 -5.548890e+000 74 56 55
-7.605325e-001 -1.189532e-001 -5.520850e+000 74 56 55
3.660426e-001 -1.667379e-001 -5.697415e+000 198 193 182
-1.599531e+000 -2.217645e-001 -5.622837e+000 107 63 60
-1.588077e+000 -2.228338e-001 -5.583373e+000 107 63 60
-1.430139e+000 -3.184289e-001 -5.474925e+000 172 93 62
-1.242580e+000 -2.573418e-001 -5.625952e+000 98 46 34
-7.444103e-002 -2.776411e-001 -5.549819e+000 126 114 98
-1.836172e+000 -3.553919e-001 -5.702475e+000 104 84 76
-1.820659e+000 -4.584442e-001 -5.672593e+000 225 202 141
-1.687111e+000 -3.848166e-001 -5.556262e+000 83 38 32
-4.978746e-001 -3.425659e-001 -5.466882e+000 222 157 124
-1.533089e+000 -4.887924e-001 -5.471806e+000 164 80 55
7.886994e-001 -5.920514e-001 -5.808750e+000 188 73 73
1.246995e+000 -5.296371e-001 -4.524179e+000 143 129 100
1.798468e+000 -5.993806e-001 -5.695449e+000 74 33 31
1.848876e+000 -5.097293e-001 -5.501134e+000 114 74 67
1.812479e+000 -6.187248e-001 -5.597208e+000 117 71 66
1.832246e+000 -5.488944e-001 -5.524587e+000 117 79 79
2.834227e+000 -4.979767e-001 -5.480069e+000 45 29 30
2.804209e+000 -5.834804e-001 -5.523142e+000 42 31 28
-1.520657e+000 -6.858369e-001 -5.528119e+000 188 90 53
-1.497746e+000 -7.294362e-001 -5.443980e+000 194 104 69
-1.447873e+000 -7.245983e-001 -5.466763e+000 188 100 65
-1.044132e+000 -6.323028e-001 -5.502670e+000 158 82 48
-1.044132e+000 -6.323028e-001 -5.502670e+000 158 82 48
-1.007963e+000 -7.691862e-001 -5.664122e+000 156 76 48
-9.916783e-001 -7.885947e-001 -5.689869e+000 144 58 31
-1.823903e-001 -6.296251e-001 -5.393511e+000 175 175 154
1.113933e+000 -7.506776e-001 -6.018331e+000 193 138 92
1.436906e+000 -7.527973e-001 -6.143872e+000 127 103 75
1.839374e+000 -6.333225e-001 -5.521602e+000 125 91 79
2.575245e+000 -7.153496e-001 -5.371723e+000 85 55 36
2.792328e+000 -7.135576e-001 -5.521540e+000 45 27 20
2.893825e+000 -6.679944e-001 -5.561814e+000 50 32 28
2.894744e+000 -6.683034e-001 -5.563810e+000 50 32 28
2.864510e+000 -7.198594e-001 -5.533501e+000 47 27 27
2.864510e+000 -7.198594e-001 -5.533501e+000 47 27 27
-8.119375e-001 -8.715446e-001 -5.752075e+000 135 52 31
-8.286828e-001 -1.111424e+000 -5.863878e+000 213 197 193
2.625471e+000 -9.263159e-001 -5.420948e+000 117 94 77
1.666841e+000 -1.150604e+000 -5.892620e+000 69 41 37
1.759391e+000 -1.105951e+000 -5.635183e+000 89 105 82
1.781378e+000 -1.104782e+000 -5.574814e+000 84 100 72
1.801756e+000 -1.186046e+000 -5.459222e+000 189 115 56
3.464522e+000 -1.334965e+000 -6.334769e+000 88 61 52
1.545331e+000 -1.488669e+000 -6.082200e+000 176 83 58
1.689913e+000 -1.350411e+000 -5.682814e+000 213 208 199
1.711565e+000 -1.331790e+000 -5.624968e+000 214 205 208
1.739938e+000 -1.344994e+000 -5.569053e+000 160 75 56
1.785739e+000 -1.283750e+000 -5.474236e+000 208 149 74
1.763252e+000 -1.317883e+000 -5.491310e+000 182 108 47
1.369531e+000 -1.723505e+000 -6.382277e+000 120 54 37
1.446553e+000 -1.669737e+000 -6.209565e+000 168 72 41
1.558557e+000 -1.496544e+000 -6.031520e+000 165 72 39
1.456683e+000 -1.687836e+000 -6.175245e+000 196 96 51
1.455717e+000 -1.688496e+000 -6.172784e+000 196 96 51
1.542548e+000 -1.612535e+000 -6.021328e+000 178 86 45
1.577917e+000 -1.508088e+000 -5.977084e+000 194 112 56
1.584963e+000 -1.514257e+000 -6.007281e+000 194 112 56
1.574327e+000 -1.552320e+000 -5.985972e+000 220 145 78
1.643348e+000 -1.491510e+000 -5.775722e+000 174 93 49
1.666553e+000 -1.431817e+000 -5.727031e+000 186 101 69
1.698268e+000 -1.411878e+000 -5.659634e+000 191 111 62
1.671835e+000 -1.527361e+000 -5.673261e+000 225 185 95
7.963709e-001 -2.086990e+000 -7.689372e+000 194 119 62
1.498442e+000 -1.761286e+000 -6.054637e+000 229 159 80
1.593055e+000 -1.750874e+000 -5.911225e+000 170 82 56
1.650968e+000 -1.720557e+000 -5.729943e+000 171 79 61
5.097828e-001 1.874353e+000 -8.661164e+000 215 147 114
1.079288e+000 7.307933e-001 -6.160833e+000 220 216 204
3.021814e+000 6.681540e-001 -5.610055e+000 141 116 110
5.615970e-001 6.379231e-001 -6.719792e+000 237 234 223
2.916086e+000 5.276910e-001 -5.454450e+000 163 144 139
2.916086e+000 5.276910e-001 -5.454450e+000 163 144 139
2.007436e+000 2.445125e-001 -5.207525e+000 136 103 86
2.875435e+000 2.090667e-001 -5.429375e+000 158 141 134
1.346533e+000 2.168983e-002 -5.417813e+000 205 201 188
-1.321245e+000 -1.555133e-001 -5.619121e+000 196 190 190
-4.974576e-001 -1.016994e-001 -5.479571e+000 162 153 138
2.012698e+000 -5.185464e-002 -5.137323e+000 233 220 220
-1.186130e+000 -2.492756e-001 -5.642128e+000 106 40 30
-8.356532e-001 -2.004381e-001 -5.654947e+000 227 200 157
-5.666558e-001 -2.577532e-001 -5.508154e+000 215 150 116
-1.431541e-001 -1.916506e-001 -5.496562e+000 155 145 135
1.707925e-002 -2.535421e-001 -5.580674e+000 171 160 156
1.639487e+000 -2.899760e-001 -5.456615e+000 182 61 63
2.635671e+000 -3.020077e-001 -5.304390e+000 84 58 37
-1.031425e+000 -3.327671e-001 -5.706236e+000 133 51 37
-9.690710e-001 -4.589251e-001 -5.654263e+000 122 62 39
-5.280464e-001 -3.977400e-001 -5.470514e+000 216 130 83
-4.995026e-001 -3.411682e-001 -5.462222e+000 219 156 123
2.876130e+000 -4.391296e-001 -5.485301e+000 76 58 52
9.628848e-002 -6.470018e-001 -6.031475e+000 53 38 30
1.842119e+000 -6.030929e-001 -5.504906e+000 113 42 42
1.843099e+000 -6.030302e-001 -5.509387e+000 113 42 42
1.867216e+000 -5.862589e-001 -5.428003e+000 127 98 87
1.061236e+000 -7.811211e-001 -6.102025e+000 94 42 30
1.256176e+000 -7.602905e-001 -6.024283e+000 100 44 28
1.256329e+000 -7.600726e-001 -6.024072e+000 100 44 28
1.809720e+000 -6.913009e-001 -5.597323e+000 97 48 31
2.436849e+000 -6.996559e-001 -5.271868e+000 82 61 57
2.433476e+000 -6.988791e-001 -5.266452e+000 82 61 57
3.117682e+000 -6.927494e-001 -5.721388e+000 85 58 47
-5.644153e-001 -8.432029e-001 -5.818763e+000 219 168 123
1.778384e+000 -8.465764e-001 -5.642558e+000 113 53 31
2.744648e+000 -8.311537e-001 -5.579836e+000 51 31 29
-5.982729e-001 -1.077441e+000 -5.915701e+000 121 51 37
8.799748e-001 -1.417066e+000 -7.004633e+000 217 209 201
1.627625e+000 -1.248194e+000 -5.894972e+000 120 88 79
1.687614e+000 -1.120602e+000 -5.776370e+000 71 57 46
1.701559e+000 -1.174321e+000 -5.740577e+000 73 89 60
1.731431e+000 -1.105691e+000 -5.692976e+000 70 84 60
1.741918e+000 -1.145175e+000 -5.649994e+000 82 100 71
1.695950e+000 -1.333667e+000 -5.703749e+000 215 209 203
1.730777e+000 -1.377786e+000 -5.566130e+000 207 143 64
5.784435e-001 -2.172846e+000 -8.113009e+000 207 127 101
1.122377e+000 -1.608209e+000 -6.127932e+000 201 170 155
1.385464e+000 -1.588795e+000 -6.312560e+000 118 42 34
1.539155e+000 -1.526223e+000 -6.061201e+000 204 124 65
1.538823e+000 -1.524736e+000 -6.057086e+000 204 124 65
1.618068e+000 -1.473256e+000 -5.862693e+000 169 85 53
1.614318e+000 -1.565429e+000 -5.833746e+000 196 83 50
1.687295e+000 -1.439546e+000 -5.672721e+000 181 98 63
1.684396e+000 -1.485537e+000 -5.634498e+000 212 155 74
1.686273e+000 -1.486243e+000 -5.634843e+000 212 155 74
1.755105e+000 -1.466704e+000 -5.471080e+000 189 112 53
1.519732e+000 -1.711970e+000 -6.038180e+000 226 151 79
1.482090e+000 -1.778095e+000 -6.077330e+000 186 98 53
1.708514e+000 -1.551212e+000 -5.558850e+000 114 65 56
1.708841e+000 -1.550107e+000 -5.558759e+000 114 65 56
1.709131e+000 -1.576935e+000 -5.572887e+000 138 74 57
1.316719e+000 1.230797e+000 -5.594619e+000 201 189 145
4.111772e+000 1.718146e+000 -7.442919e+000 139 119 107
1.235323e+000 1.121576e+000 -6.173693e+000 242 235 223
2.888598e+000 7.756728e-001 -5.573460e+000 128 113 110
2.884856e+000 7.014074e-001 -5.543726e+000 123 105 103
2.818371e+000 5.968560e-001 -5.429454e+000 170 152 141
2.822815e+000 5.861221e-001 -5.486306e+000 145 122 90
2.974871e+000 5.534393e-001 -5.515719e+000 147 128 121
3.048348e+000 4.462140e-001 -5.591374e+000 167 150 143
7.110100e-002 2.656108e-001 -6.261460e+000 223 215 212
1.475473e-001 2.871366e-001 -6.314873e+000 204 195 189
1.957317e+000 1.804391e-001 -5.307655e+000 102 65 48
1.941280e+000 1.332055e-001 -5.251910e+000 129 99 90
2.007090e+000 1.357217e-001 -5.221616e+000 213 193 185
-1.254598e+000 -1.402430e-001 -5.569445e+000 75 46 40
1.889308e+000 -1.555476e-001 -5.440304e+000 84 35 38
1.991641e+000 -6.912319e-002 -5.179382e+000 226 214 214
-1.398951e+000 -2.749991e-001 -5.497554e+000 164 89 63
-8.926053e-001 -3.277030e-001 -5.725551e+000 135 56 31
-1.111493e-001 -2.105800e-001 -5.509279e+000 203 201 188
-6.265185e-002 -3.130362e-001 -5.505610e+000 158 144 133
2.065559e+000 -2.089309e-001 -5.092994e+000 196 128 81
-1.715592e+000 -3.309653e-001 -5.594085e+000 216 188 145
-9.917903e-001 -3.549527e-001 -5.633428e+000 122 49 34
1.602788e-001 -3.692625e-001 -5.800214e+000 121 107 94
2.347791e-001 -4.587672e-001 -5.954687e+000 94 78 55
3.726756e-001 -4.598809e-001 -5.812300e+000 187 184 173
1.626749e+000 -3.701260e-001 -5.487493e+000 129 64 55
1.812967e+000 -4.251533e-001 -5.510128e+000 84 44 36
2.090798e+000 -3.662920e-001 -5.093580e+000 210 130 62
2.828078e+000 -4.605272e-001 -5.433894e+000 47 32 35
-3.826603e-001 -4.830555e-001 -5.413096e+000 241 196 155
2.064854e-001 -5.190463e-001 -5.979306e+000 93 75 58
5.798699e-001 -5.679395e-001 -5.989296e+000 201 197 188
-1.455684e+000 -6.364442e-001 -5.449050e+000 170 79 48
-7.097893e-001 -6.825282e-001 -5.740190e+000 160 105 76
2.521186e+000 -6.638714e-001 -5.311333e+000 72 30 31
2.830902e+000 -6.201783e-001 -5.514608e+000 74 51 48
2.804245e+000 -6.595921e-001 -5.501647e+000 44 28 24
-1.535286e+000 -8.063061e-001 -5.509844e+000 106 55 51
1.556291e+000 -8.227374e-001 -5.784528e+000 106 67 49
2.467140e+000 -7.951539e-001 -5.389099e+000 85 61 58
8.913491e-001 -1.282240e+000 -6.765601e+000 202 192 178
1.679909e+000 -1.065610e+000 -5.830755e+000 57 37 30
1.577802e+000 -1.156494e+000 -5.755311e+000 210 74 63
1.760437e+000 -1.190178e+000 -5.588731e+000 114 140 110
2.667780e+000 -1.101599e+000 -5.631149e+000 54 35 31
1.514441e+000 -1.479443e+000 -6.091407e+000 132 48 34
1.732679e+000 -1.292007e+000 -5.599360e+000 212 208 198
1.680446e+000 -1.406489e+000 -5.696308e+000 150 60 52
1.798319e+000 -1.229595e+000 -5.432924e+000 217 170 72
1.520959e+000 -1.554489e+000 -6.089905e+000 159 69 51
1.531447e+000 -1.651018e+000 -6.080310e+000 225 157 76
1.552984e+000 -1.621740e+000 -5.953815e+000 221 146 63
1.604718e+000 -1.491616e+000 -5.907278e+000 226 159 83
1.637967e+000 -1.460380e+000 -5.790536e+000 219 160 71
1.638051e+000 -1.460665e+000 -5.793158e+000 219 160 71
1.666635e+000 -1.513210e+000 -5.775363e+000 226 174 87
8.878258e-001 -1.967579e+000 -7.209292e+000 211 157 87
1.499403e+000 -1.718224e+000 -6.077945e+000 182 87 48
1.561158e+000 -1.727660e+000 -6.006624e+000 233 175 87
1.435410e+000 1.602132e+000 -5.606741e+000 161 149 118
1.648384e+000 1.502331e+000 -5.527687e+000 238 230 219
9.884679e-001 1.460211e+000 -6.616267e+000 226 221 215
7.739762e-001 1.154133e+000 -6.566964e+000 221 216 210
1.222581e+000 5.870764e-001 -5.721258e+000 235 236 224
2.891088e+000 4.401871e-001 -5.470089e+000 108 90 84
2.618109e+000 2.729240e-001 -5.257032e+000 147 117 112
3.010627e+000 3.734388e-001 -5.568447e+000 158 139 134
1.246686e-001 2.210901e-001 -6.116417e+000 230 227 218
1.976869e+000 1.471532e-001 -5.242684e+000 139 65 55
1.928201e+000 3.643677e-002 -5.370560e+000 92 43 41
-4.204335e-001 -9.303082e-002 -5.507067e+000 176 173 153
-9.246667e-002 -1.218048e-001 -5.552876e+000 159 150 139
1.905331e+000 -4.948346e-002 -5.392434e+000 88 41 38
-1.610607e+000 -2.129197e-001 -5.557619e+000 67 32 30
-6.088363e-001 -2.756471e-001 -5.504878e+000 183 123 87
1.898400e+000 -1.874980e-001 -5.388906e+000 206 180 187
2.113144e-001 -3.942868e-001 -5.872180e+000 70 59 47
2.152927e+000 -3.883888e-001 -5.340675e+000 175 101 37
2.112980e+000 -3.627338e-001 -4.806589e+000 89 64 54
2.597932e+000 -3.648764e-001 -5.289771e+000 86 60 43
-7.606151e-001 -4.846125e-001 -5.603609e+000 159 90 57
2.622464e+000 -5.019341e-001 -5.333229e+000 71 30 31
2.629123e+000 -6.011504e-001 -5.396669e+000 70 31 24
-1.284005e+000 -6.910300e-001 -5.469956e+000 113 46 32
1.841318e+000 -6.873280e-001 -5.490224e+000 113 65 36
2.479364e+000 -6.813778e-001 -5.297908e+000 77 60 53
2.504120e+000 -6.846928e-001 -5.342712e+000 77 60 53
2.634361e+000 -6.741445e-001 -5.393994e+000 71 37 27
-1.421090e+000 -7.751673e-001 -5.493538e+000 107 38 23
-1.459701e+000 -8.115518e-001 -5.423060e+000 69 26 23
8.234393e-001 -9.862890e-001 -6.027855e+000 177 73 76
1.250980e+000 -8.567899e-001 -6.031594e+000 102 41 34
2.460800e+000 -8.190724e-001 -5.349373e+000 82 65 58
2.825803e+000 -8.023521e-001 -5.581153e+000 64 39 34
1.097321e+000 -1.141139e+000 -6.152152e+000 108 52 43
1.097321e+000 -1.141139e+000 -6.152152e+000 108 52 43
1.737775e+000 -1.028328e+000 -5.718590e+000 84 86 78
2.619663e+000 -1.039366e+000 -5.453186e+000 89 69 56
-8.972423e-001 -1.152960e+000 -5.865813e+000 218 212 209
-3.711351e-001 -1.157564e+000 -5.971093e+000 194 115 78
6.753623e-001 -1.490487e+000 -7.568544e+000 182 70 73
1.468401e+000 -1.392374e+000 -5.943247e+000 199 74 66
1.434391e+000 -1.600837e+000 -6.291030e+000 189 109 53
1.495206e+000 -1.536912e+000 -6.160416e+000 212 140 79
1.524948e+000 -1.588205e+000 -6.064402e+000 223 152 73
1.676088e+000 -1.472715e+000 -5.687537e+000 164 77 53
1.354520e+000 -1.803597e+000 -6.474372e+000 143 87 54
1.616233e+000 -1.631134e+000 -5.785266e+000 226 177 93
1.636628e+000 -1.677819e+000 -5.788518e+000 213 184 132
1.251930e+000 1.422729e+000 -6.200319e+000 240 237 232
1.254050e+000 1.321509e+000 -6.174851e+000 239 236 229
8.708741e-001 1.197224e+000 -6.457470e+000 218 214 205
4.161273e-001 1.180977e+000 -8.924269e+000 241 237 230
9.122599e-002 1.780650e-001 -6.119314e+000 202 198 189
1.879489e+000 -4.600408e-001 -5.417313e+000 110 69 60
2.563285e+000 -4.511567e-001 -5.275461e+000 81 58 37
5.872959e-001 -5.569727e-001 -6.002775e+000 206 202 193
2.653451e+000 -5.989495e-001 -5.335548e+000 82 58 38
2.898009e+000 -5.944352e-001 -5.551447e+000 43 29 28
-6.506687e-001 -6.822478e-001 -5.774642e+000 167 113 79
6.756254e-001 -6.601959e-001 -6.004723e+000 92 79 66
9.170381e-001 -7.547505e-001 -6.117476e+000 168 148 133
1.786164e+000 -6.473520e-001 -5.688561e+000 78 34 29
2.827756e+000 -7.515025e-001 -5.554688e+000 48 28 27
-6.286595e-001 -9.583971e-001 -5.809293e+000 83 29 33
1.469269e+000 -9.656894e-001 -6.059632e+000 146 44 42
2.389031e+000 -8.303537e-001 -5.303237e+000 74 40 38
6.477665e-001 -1.271309e+000 -6.994970e+000 116 48 45
2.577514e+000 -8.989693e-001 -5.364850e+000 142 118 92
-7.636565e-001 -1.177391e+000 -6.111427e+000 151 62 43
7.908440e-001 -1.305035e+000 -6.828017e+000 215 205 194
1.629487e+000 -1.207497e+000 -5.843703e+000 64 46 36
1.640491e+000 -1.210520e+000 -5.858790e+000 64 46 36
1.813492e+000 -1.179110e+000 -5.443131e+000 185 113 54
1.490401e+000 -1.592227e+000 -6.170515e+000 137 57 39
1.650531e+000 -1.540357e+000 -5.812072e+000 214 165 75
1.418465e+000 -1.712495e+000 -6.258871e+000 221 159 86
1.473593e+000 -1.717124e+000 -6.137869e+000 224 180 91
1.652020e+000 1.675852e+000 -5.751189e+000 225 218 203
2.129454e+000 8.081647e-001 -5.066458e+000 194 112 56
1.133613e+000 7.580779e-001 -6.138233e+000 238 235 227
1.361348e+000 3.636398e-001 -5.508885e+000 226 221 210
1.361348e+000 3.636398e-001 -5.508885e+000 226 221 210
5.690533e-001 1.904186e-001 -5.754748e+000 239 239 229
-1.133301e+000 -2.462221e-001 -5.684042e+000 115 55 43
1.865226e+000 -2.317042e-001 -5.451374e+000 112 42 45
2.907979e+000 -2.170031e-001 -5.461121e+000 54 35 39
2.855521e-001 -3.854823e-001 -5.830760e+000 184 177 169
2.226534e+000 -4.355369e-001 -5.036969e+000 77 51 39
-6.166867e-001 -5.807354e-001 -5.686612e+000 196 149 108
-1.094119e-001 -5.807345e-001 -5.416127e+000 125 107 93
1.210018e+000 -6.406676e-001 -5.961257e+000 87 59 46
1.809889e+000 -5.693127e-001 -5.633093e+000 83 38 35
2.786262e+000 -5.634253e-001 -5.455584e+000 46 30 30
-7.538495e-001 -6.528184e-001 -5.747532e+000 112 55 38
-6.463762e-001 -7.880465e-001 -5.681664e+000 120 55 40
2.095913e+000 -8.943244e-001 -5.551925e+000 176 109 33
1.421714e+000 -1.054667e+000 -5.989951e+000 201 55 50
6.122402e-001 -1.501869e+000 -7.570150e+000 105 43 48
5.683634e-001 -1.637937e+000 -7.655155e+000 227 218 205
1.586629e+000 -1.298831e+000 -5.906659e+000 95 36 28
2.694460e+000 -1.221602e+000 -5.751974e+000 64 39 34
2.694460e+000 -1.221602e+000 -5.751974e+000 64 39 34
1.344891e+000 -1.537405e+000 -6.333056e+000 207 72 73
1.395221e+000 -1.316751e+000 -5.985545e+000 154 45 40
1.626031e+000 -1.397711e+000 -5.860887e+000 141 55 48
1.576502e+000 -1.656772e+000 -5.922655e+000 181 87 63
1.576502e+000 -1.656772e+000 -5.922655e+000 181 87 63
1.558418e+000 -1.728585e+000 -5.957431e+000 232 172 85
2.084231e+000 1.128597e+000 -5.028341e+000 100 47 40
7.921168e-001 5.485111e-001 -6.292203e+000 241 237 226
1.162446e+000 5.129052e-001 -5.712994e+000 229 227 215
2.863088e-001 3.610142e-001 -6.454956e+000 245 245 238
2.863088e-001 3.610142e-001 -6.454956e+000 245 245 238
4.958711e-001 2.293581e-001 -5.889780e+000 171 161 142
-5.110760e-002 3.544171e-002 -6.071690e+000 224 217 205
-5.110760e-002 3.544171e-002 -6.071690e+000 224 217 205
1.960884e+000 -3.864984e-002 -5.217869e+000 162 60 56
-3.675346e-002 -2.492222e-001 -5.568243e+000 124 108 92
1.429162e+000 -4.933470e-001 -6.074757e+000 112 89 62
2.045523e+000 -3.544316e-001 -4.858044e+000 206 115 50
-1.723580e-001 -7.125006e-001 -5.587984e+000 126 61 47
-8.560698e-001 -1.074087e+000 -5.848420e+000 133 54 36
1.942446e+000 1.151123e+000 -4.947128e+000 188 72 72
1.988034e+000 2.545040e-001 -5.129507e+000 127 81 46
-3.428495e-001 -2.381841e-001 -5.396555e+000 181 172 161
-6.592390e-001 -4.344603e-001 -5.575388e+000 189 100 61
-2.024026e-001 -3.262522e-001 -5.433731e+000 181 171 160
1.896123e-001 -4.156373e-001 -5.859300e+000 77 64 50
1.856874e+000 -3.195442e-001 -5.704912e+000 96 64 40
2.695974e+000 -3.421983e-001 -5.327010e+000 101 81 56
-1.250206e+000 -5.395763e-001 -5.493229e+000 58 48 47
-7.105800e-001 -5.555573e-001 -5.688051e+000 213 169 126
-1.068564e-001 -5.209870e-001 -5.393809e+000 124 107 91
6.668168e-001 -5.757649e-001 -5.873011e+000 221 215 205
6.867393e-001 -5.821040e-001 -5.916244e+000 221 215 205
-8.947922e-001 -7.972033e-001 -5.685017e+000 168 73 43
-7.887575e-001 -9.188576e-001 -5.796826e+000 125 53 38
2.502927e+000 -7.714138e-001 -5.337666e+000 69 31 29
8.885721e-001 -1.576418e+000 -6.889463e+000 237 230 222
1.683184e+000 -1.437667e+000 -5.651934e+000 180 97 64
1.685671e+000 -1.438478e+000 -5.664839e+000 180 97 64
1.103410e+000 6.065497e-001 -5.840547e+000 152 143 110
-1.045500e+000 -1.827092e-001 -5.861313e+000 204 206 204
1.662918e+000 -2.773838e-001 -5.420977e+000 210 73 72
1.662918e+000 -2.773838e-001 -5.420977e+000 210 73 72
1.960022e+000 -2.163978e-001 -5.254787e+000 149 58 57
-5.627084e-001 -9.736234e-001 -5.919492e+000 79 30 28
1.573992e+000 -1.496264e+000 -5.592818e+000 223 177 87
1.347284e+000 1.684281e+000 -6.048313e+000 122 114 82
4.973951e-001 1.558194e+000 -8.062251e+000 216 94 93
2.089437e+000 3.944789e-001 -5.128295e+000 149 88 37
-8.386359e-001 1.387036e-003 -5.663309e+000 211 207 206
-8.843243e-003 1.038357e-001 -6.056170e+000 212 209 204
3.597374e-001 2.215368e-002 -5.672434e+000 229 226 219
-6.794975e-001 -1.008547e-001 -5.448319e+000 172 132 113
-7.698446e-001 -2.938781e-001 -5.606451e+000 230 190 141
2.080475e+000 -2.996660e-001 -5.287032e+000 191 150 75
-9.727799e-001 -3.270492e-001 -5.793328e+000 136 64 44
1.095799e+000 -4.594075e-001 -5.771010e+000 85 64 51
4.888018e-001 -6.075770e-001 -6.039279e+000 75 48 47
1.287689e+000 -1.245257e+000 -6.065674e+000 231 175 127
1.288898e+000 -1.248375e+000 -6.073353e+000 231 175 127
6.566330e-001 1.287755e+000 -7.761704e+000 244 241 234
-1.286281e+000 -2.695042e-001 -5.635143e+000 105 53 39
1.463918e+000 -3.206511e-001 -5.578023e+000 90 42 42
-1.163843e+000 -4.844879e-001 -5.522816e+000 238 200 150
-1.154620e+000 -4.823352e-001 -5.479589e+000 238 200 150
1.107797e+000 -9.414805e-001 -6.022010e+000 242 202 151
1.284703e+000 -1.639344e+000 -6.357030e+000 93 40 33
1.295215e+000 5.479797e-001 -5.478817e+000 241 238 229
1.837919e+000 4.034571e-001 -5.022414e+000 242 235 225
7.351955e-001 1.863534e-001 -5.779427e+000 243 240 231
7.092321e-001 -1.480738e+000 -7.097074e+000 167 62 61
1.656895e+000 1.311136e+000 -5.466547e+000 240 232 223
1.758396e+000 -7.473487e-001 -5.595243e+000 98 32 30
-6.603472e-001 -1.050537e+000 -6.053645e+000 124 52 40
8.349524e-001 -1.409595e+000 -5.573240e+000 234 225 216
2.744105e-001 -1.233729e+000 -6.685755e+000 246 242 231
1.948981e+000 -1.038155e+000 -5.513949e+000 212 181 163
1.930516e+000 -1.023945e+000 -5.452319e+000 212 181 163
1.885352e+000 9.492077e-001 -5.081151e+000 159 58 56
-1.122310e+000 1.041416e-001 -5.786943e+000 208 205 204
