ply
format ascii 1.0
element face 0
property list uchar int vertex_indices
element vertex 391
property float x
property float y
property float z
property uchar diffuse_red
property uchar diffuse_green
property uchar diffuse_blue
end_header
1.813037e+000 -9.893297e-001 -5.609789e+000 74 85 57
1.764153e+000 -9.793897e-001 -5.731973e+000 77 49 46
1.326727e+000 -1.368878e+000 -5.985294e+000 236 183 142
3.491246e-001 -3.962625e-001 -5.778122e+000 191 186 179
1.027178e+000 -6.206508e-001 -5.950990e+000 221 178 132
1.807511e+000 -1.056293e+000 -5.588112e+000 180 187 169
1.805818e+000 -1.026787e+000 -5.621776e+000 177 176 166
1.796733e+000 -1.045087e+000 -5.601263e+000 84 93 73
1.792268e+000 -1.187902e+000 -5.561137e+000 173 185 170
1.761952e+000 -1.262504e+000 -5.604471e+000 198 202 195
1.715547e+000 -1.259938e+000 -5.820068e+000 105 94 78
1.901937e+000 -6.436376e-001 -5.418479e+000 130 100 95
1.742733e+000 -1.213353e+000 -5.723700e+000 73 89 60
2.784316e-001 -1.386346e-001 -5.675498e+000 158 145 131
2.036796e+000 -6.398888e-002 -5.121544e+000 227 217 219
1.994734e+000 -2.806426e-002 -5.254715e+000 212 187 180
1.911717e+000 -6.382797e-001 -5.388454e+000 115 54 53
1.796168e+000 -1.158142e+000 -5.550105e+000 176 183 169
1.815883e+000 -9.288663e-001 -5.651019e+000 172 155 156
1.812865e-001 -2.975364e-001 -5.730618e+000 145 132 123
1.951972e+000 -7.725521e-002 -5.345044e+000 168 135 130
1.918413e+000 -6.094455e-001 -5.349719e+000 131 84 76
1.975112e+000 -4.322060e-002 -5.347458e+000 206 183 179
1.801074e+000 -1.283164e+000 -5.519183e+000 205 204 201
1.933304e+000 -5.840064e-001 -5.329109e+000 120 103 88
1.946405e+000 -6.474552e-001 -5.287380e+000 133 104 96
1.854534e+000 -1.184666e+000 -5.347510e+000 178 113 45
1.930894e+000 -6.801584e-001 -5.305612e+000 135 114 105
1.826567e+000 -1.136459e+000 -5.466875e+000 208 208 199
1.808371e+000 -1.086346e+000 -5.570570e+000 168 177 161
1.743318e+000 -1.274158e+000 -5.662974e+000 176 187 160
2.067489e+000 2.423362e-001 -5.171855e+000 134 97 57
1.779448e+000 -1.219052e+000 -5.566518e+000 195 203 183
-8.059451e-001 -1.133614e-001 -5.435603e+000 59 52 59
5.809038e-001 -6.941256e-001 -6.054096e+000 195 185 175
5.373082e-001 -8.328763e-001 -5.953897e+000 179 165 152
1.439044e+000 -1.693643e+000 -6.329805e+000 187 110 50
1.949299e+000 -3.901433e-001 -5.319709e+000 135 104 102
1.858698e+000 -1.073217e+000 -5.411649e+000 179 105 64
1.933072e+000 -6.253673e-001 -5.308673e+000 112 46 43
1.711655e+000 -1.333437e+000 -5.723853e+000 77 94 60
1.628105e+000 -1.484427e+000 -5.962436e+000 208 143 71
9.852126e-001 -8.773932e-001 -6.078708e+000 240 198 150
8.679500e-001 -8.979941e-001 -6.158227e+000 140 87 66
1.175811e+000 -1.401202e+000 -6.149568e+000 115 42 45
-5.580772e-001 -3.902761e-001 -5.346109e+000 171 88 58
-7.973154e-001 -4.093890e-001 -5.554006e+000 189 100 61
2.054946e+000 8.827591e-003 -4.998208e+000 226 182 76
1.834566e+000 -1.071890e+000 -5.486095e+000 212 205 203
-1.553193e+000 -4.598183e-001 -5.459128e+000 217 175 132
1.962679e+000 -1.894047e-002 -5.340236e+000 135 82 82
1.918413e+000 -6.094455e-001 -5.349719e+000 131 84 76
1.878002e+000 -6.075408e-001 -5.496273e+000 115 35 35
-1.465950e+000 -4.665940e-001 -5.448470e+000 176 131 107
1.796733e+000 -1.045087e+000 -5.601263e+000 84 93 73
1.994734e+000 -2.806426e-002 -5.254715e+000 212 187 180
6.343894e-001 1.600557e-001 -5.613565e+000 224 221 212
4.419260e-001 -1.525215e-001 -5.711028e+000 199 195 183
-5.609834e-001 -5.039989e-001 -5.458159e+000 240 200 151
-1.496272e+000 -6.015743e-001 -5.401796e+000 112 41 30
7.781186e-001 -6.543159e-001 -5.973501e+000 100 71 60
1.342787e+000 1.557972e-001 -5.435072e+000 213 205 193
1.705159e+000 -1.273828e+000 -5.788596e+000 186 180 170
1.982564e+000 -6.957972e-002 -5.261827e+000 142 50 60
7.467359e-001 2.054963e+000 -8.440293e+000 238 229 219
5.924460e-001 1.977889e+000 -8.544676e+000 238 230 217
-1.368727e+000 -6.155548e-001 -5.419674e+000 131 60 35
6.334133e-001 -1.510326e+000 -6.842254e+000 167 62 61
-5.425756e-001 -7.752758e-001 -5.631671e+000 244 202 152
-1.001727e+000 -1.180895e+000 -5.978912e+000 211 202 205
1.293182e+000 2.886665e-001 -5.462475e+000 210 207 192
-1.292728e+000 -3.906717e-001 -5.429698e+000 172 121 77
6.343894e-001 1.600557e-001 -5.613565e+000 224 221 212
1.895878e+000 -5.476162e-001 -5.441696e+000 126 94 83
-3.029015e-001 -1.873597e-001 -5.441310e+000 148 138 126
-1.337452e+000 -6.748960e-001 -5.440621e+000 172 97 71
-1.803252e+000 -4.142452e-001 -5.486276e+000 244 154 99
-1.221612e+000 -4.120621e-001 -5.449980e+000 170 108 89
-6.668844e-001 -4.568486e-001 -5.493354e+000 239 197 149
-1.553193e+000 -4.598183e-001 -5.459128e+000 217 175 132
1.775984e+000 -1.199973e+000 -5.611708e+000 158 173 145
1.918205e+000 -5.915389e-001 -5.362070e+000 108 38 38
-1.397712e+000 -3.315189e-001 -5.548792e+000 75 58 63
1.792268e+000 -1.187902e+000 -5.561137e+000 173 185 170
1.735142e+000 1.073821e+000 -5.263934e+000 221 199 186
-1.663878e+000 -5.864005e-001 -5.379830e+000 218 134 95
2.110984e+000 1.028294e+000 -5.152659e+000 175 90 49
-2.028820e-001 -1.691911e-001 -5.480204e+000 203 201 188
2.028734e+000 -5.127759e-002 -5.155661e+000 223 213 212
1.234513e+000 -9.943959e-001 -6.002827e+000 108 41 44
2.021557e+000 1.014756e+000 -5.155949e+000 191 76 76
2.071092e+000 8.074305e-001 -5.120735e+000 200 142 42
1.927699e+000 7.931293e-001 -5.104747e+000 81 46 44
1.976579e+000 -4.934034e-001 -5.106635e+000 115 75 24
1.582959e+000 -7.978102e-001 -5.915399e+000 95 65 42
-1.468306e+000 -3.164968e-001 -5.509646e+000 128 90 75
-1.429224e+000 -2.866050e-001 -5.564040e+000 77 47 37
1.962237e+000 -6.906569e-002 -5.341378e+000 133 98 94
1.923210e+000 -6.235570e-001 -5.328707e+000 109 45 42
-1.497622e+000 -5.436041e-001 -5.426023e+000 139 92 72
1.739852e+000 -1.196885e+000 -5.752226e+000 72 85 61
1.784717e+000 -1.242980e+000 -5.506567e+000 103 120 88
3.060095e+000 7.097453e-001 -5.543702e+000 122 103 97
-1.383761e+000 -5.086195e-001 -5.446640e+000 107 84 69
1.114956e+000 -6.437821e-001 -5.963374e+000 193 145 96
1.293232e-001 -5.160933e-002 -5.730976e+000 190 183 172
7.364586e-001 -4.068268e-001 -5.793160e+000 225 218 208
-9.788654e-001 -3.679164e-001 -5.586243e+000 152 75 52
1.833732e+000 -1.017093e+000 -5.512936e+000 210 199 197
-1.001727e+000 -1.180895e+000 -5.978912e+000 211 202 205
-1.530428e-001 -1.704936e-001 -5.501557e+000 128 115 98
-2.258914e-001 -2.108802e-001 -5.479763e+000 132 118 107
-1.357912e+000 -3.025341e-001 -5.558982e+000 66 40 45
-1.270504e+000 -3.099799e-001 -5.540242e+000 209 170 127
2.087092e+000 9.792520e-001 -5.191148e+000 81 41 42
2.111325e-002 -5.586365e-001 -5.979592e+000 124 108 95
1.669999e+000 8.363462e-001 -5.141141e+000 236 232 220
1.596088e+000 4.604060e-001 -5.275185e+000 242 238 229
-7.390507e-001 2.376781e-001 -5.916010e+000 188 103 69
-1.607127e+000 -4.930500e-001 -5.427317e+000 124 58 42
8.033260e-001 -7.445403e-001 -6.034401e+000 170 131 108
1.114956e+000 -6.437821e-001 -5.963374e+000 193 145 96
-1.418553e+000 -5.626009e-001 -5.440824e+000 52 31 24
1.098844e+000 -7.054779e-001 -6.010029e+000 194 140 93
1.072816e+000 4.069369e-001 -5.562726e+000 222 218 206
1.827950e+000 -9.717994e-001 -5.555941e+000 193 185 183
1.676073e+000 -1.350664e+000 -5.842975e+000 206 188 188
1.329199e+000 1.654535e+000 -6.038894e+000 180 168 128
5.924460e-001 1.977889e+000 -8.544676e+000 238 230 217
5.104095e-001 4.151239e-001 -6.014194e+000 186 178 165
-6.048282e-001 2.194683e-001 -5.987441e+000 108 57 53
2.974537e+000 -2.782456e-001 -5.410649e+000 48 31 24
-1.370366e+000 -3.304828e-001 -5.537289e+000 53 42 38
-1.687239e+000 -4.273750e-001 -5.405077e+000 163 83 59
-1.964818e+000 -2.503697e-001 -5.681008e+000 102 77 49
-1.349561e+000 -2.636561e-001 -5.591101e+000 200 183 174
2.992247e+000 5.988084e-001 -5.442307e+000 127 107 100
1.098844e+000 -7.054779e-001 -6.010029e+000 194 140 93
-1.421492e+000 -2.418580e-001 -5.591842e+000 134 94 72
-7.048199e-001 -9.452674e-001 -5.838785e+000 165 86 42
-6.830984e-001 -1.178531e+000 -5.926896e+000 129 55 39
1.080683e+000 1.312037e+000 -6.424117e+000 218 210 200
1.080683e+000 1.312037e+000 -6.424117e+000 218 210 200
1.522368e+000 -8.694208e-001 -6.079289e+000 181 55 53
1.911570e+000 -9.544688e-001 -5.568634e+000 180 117 54
1.124392e+000 2.484975e-001 -5.504605e+000 227 223 214
-1.655311e+000 -4.539874e-001 -5.397041e+000 102 34 24
1.770618e+000 9.636047e-001 -5.165376e+000 99 48 50
7.103720e-001 -8.067042e-001 -5.973033e+000 219 210 195
1.275148e+000 1.007531e+000 -5.813798e+000 124 114 87
1.941419e+000 9.235116e-002 -5.239049e+000 84 43 44
-8.369916e-001 -7.693335e-002 -5.458056e+000 190 166 140
2.598276e+000 -8.297788e-001 -5.314430e+000 72 35 26
1.778058e+000 -1.172005e+000 -5.601818e+000 81 99 70
1.913817e+000 -6.831059e-001 -5.373151e+000 111 82 64
1.919412e+000 -7.189056e-001 -5.322600e+000 120 39 38
2.565614e+000 -8.465794e-001 -5.288843e+000 69 30 24
1.600647e+000 -1.533489e+000 -5.984712e+000 197 111 60
1.474905e+000 3.477278e-001 -5.361627e+000 225 221 210
1.474905e+000 3.477278e-001 -5.361627e+000 225 221 210
1.816222e+000 -1.200726e+000 -5.474860e+000 209 206 196
1.954655e+000 -5.260333e-002 -5.390589e+000 73 39 35
-1.203849e+000 -4.317877e-001 -5.443824e+000 164 108 78
5.024750e-001 -7.163189e-001 -6.052006e+000 165 153 141
2.108026e+000 9.211757e-001 -5.229889e+000 178 121 54
1.710959e-001 8.021508e-002 -5.834237e+000 175 172 154
-1.113619e+000 -6.498977e-002 -5.837039e+000 187 107 70
-1.113619e+000 -6.498977e-002 -5.837039e+000 187 107 70
-1.749814e+000 -3.167626e-001 -5.497147e+000 218 129 89
9.852126e-001 -8.773932e-001 -6.078708e+000 240 198 150
1.373944e+000 -8.473756e-001 -6.016731e+000 106 36 36
7.639991e+001 8.808472e+000 1.504079e+002 134 124 125
7.501928e+001 -1.170674e+001 1.497719e+002 129 121 120
6.769866e+001 1.738537e-001 1.344998e+002 133 123 122
1.398723e+000 1.393843e+000 -5.650315e+000 214 200 144
-8.376186e-001 1.466376e-001 -5.852058e+000 191 96 62
6.440267e-002 2.397590e-001 -6.201837e+000 219 217 205
1.951972e+000 -7.725521e-002 -5.345044e+000 168 135 130
-1.426438e+000 -3.215082e-001 -5.541601e+000 77 47 36
-1.381263e+000 -3.162991e-001 -5.548120e+000 152 145 143
-1.341818e+000 -3.289405e-001 -5.531491e+000 102 70 54
1.753647e+000 -1.073890e+000 -5.765318e+000 81 65 58
1.767487e+000 -1.115714e+000 -5.675804e+000 84 98 72
-1.626226e-001 -2.411259e-001 -5.529071e+000 126 114 98
2.981934e+000 -2.900606e-001 -5.403179e+000 84 65 63
-1.960201e+000 -2.917097e-001 -5.669910e+000 197 171 130
-2.007284e+000 -3.730700e-001 -5.662191e+000 225 196 154
-2.016721e+000 -3.840602e-001 -5.634717e+000 134 112 68
2.656435e+000 -8.951635e-001 -5.306815e+000 155 130 104
1.801318e+000 -1.079344e+000 -5.594223e+000 106 110 91
1.724761e+000 -1.200037e+000 -5.757933e+000 122 124 108
1.712950e+000 -1.268130e+000 -5.755822e+000 86 93 77
1.731217e+000 -1.322800e+000 -5.657410e+000 178 196 177
-6.512641e-001 -1.821191e-002 -5.513590e+000 157 150 133
-9.172867e-001 -1.084483e-001 -5.489102e+000 203 189 168
-9.172867e-001 -1.084483e-001 -5.489102e+000 203 189 168
-8.369916e-001 -7.693335e-002 -5.458056e+000 190 166 140
-1.640683e+000 -3.052810e-001 -5.413641e+000 181 101 66
-1.368819e+000 -2.325073e-001 -5.624232e+000 150 111 85
-1.468306e+000 -3.164968e-001 -5.509646e+000 128 90 75
-1.229299e+000 -2.919018e-001 -5.659698e+000 166 109 79
-1.329596e+000 -2.894995e-001 -5.562626e+000 66 40 33
-1.726894e+000 -4.628013e-001 -5.421279e+000 164 80 55
3.042523e+000 -5.431236e-001 -5.502461e+000 78 61 57
-1.704754e+000 -6.020060e-001 -5.397924e+000 204 109 67
-1.367176e+000 -5.574670e-001 -5.400986e+000 216 179 134
-1.508519e+000 -6.816978e-001 -5.419085e+000 116 42 22
-1.659273e+000 -8.615667e-001 -5.496486e+000 84 36 25
1.184890e+000 -9.867158e-001 -5.953681e+000 202 147 103
1.854534e+000 -1.184666e+000 -5.347510e+000 178 113 45
1.865468e+000 -1.119580e+000 -5.321594e+000 200 145 82
1.579050e+000 -1.566341e+000 -6.097157e+000 176 83 58
2.104649e+000 9.503454e-001 -5.164471e+000 111 41 45
2.104649e+000 9.503454e-001 -5.164471e+000 111 41 45
-1.890755e-001 1.183355e-001 -6.257596e+000 226 223 211
1.975783e+000 -3.466859e-002 -5.275302e+000 144 51 51
1.268980e+000 -4.788316e-001 -4.418440e+000 76 57 33
-1.667681e+000 -5.640889e-001 -5.394300e+000 169 83 50
8.708078e-001 -9.753320e-001 -6.150971e+000 202 188 179
2.565614e+000 -8.465794e-001 -5.288843e+000 69 30 24
1.931884e+000 1.517360e+000 -5.086876e+000 172 97 90
1.398051e+000 1.527942e+000 -5.672686e+000 193 178 130
2.952866e+000 6.977690e-001 -5.432648e+000 170 152 141
3.154397e+000 7.490912e-001 -5.652547e+000 179 163 154
2.992830e+000 5.678331e-001 -5.461019e+000 153 139 126
1.661576e-001 -2.277225e-002 -5.745978e+000 225 219 211
2.973530e+000 -5.152772e-001 -5.446656e+000 64 50 45
2.973530e+000 -5.152772e-001 -5.446656e+000 64 50 45
1.056837e+000 -8.011843e-001 -6.115990e+000 94 42 30
1.676073e+000 -1.350664e+000 -5.842975e+000 206 188 188
1.614904e+000 1.698114e+000 -5.719197e+000 223 214 199
1.236439e+000 1.154129e+000 -6.253886e+000 241 235 226
-5.351447e-001 -4.061001e-002 -5.486127e+000 176 173 153
1.982564e+000 -6.957972e-002 -5.261827e+000 142 50 60
-9.248072e-001 -1.385481e-001 -5.485884e+000 73 71 83
2.757364e+000 -2.306442e-001 -5.243686e+000 70 30 30
-1.941042e+000 -4.144219e-001 -5.540980e+000 70 31 30
7.983547e-001 -1.019919e+000 -6.034705e+000 177 73 76
1.272821e+000 1.986493e+000 -6.554695e+000 211 203 193
1.458321e+000 1.689565e+000 -5.748033e+000 241 229 181
2.166491e+000 1.294652e+000 -4.928335e+000 181 158 145
1.670147e+000 1.040252e+000 -5.260644e+000 171 147 131
2.028734e+000 -5.127759e-002 -5.155661e+000 223 213 212
-4.081354e-002 -3.389170e-001 -5.735838e+000 102 86 73
-1.158323e+000 -3.765257e-001 -5.752203e+000 104 37 27
2.627760e+000 -5.217345e-001 -5.205288e+000 76 54 32
6.369193e+001 2.273724e+001 1.205221e+002 114 108 110
1.834899e-001 1.009967e+000 -9.755142e+000 240 235 231
1.510468e-001 3.323031e-001 -6.451724e+000 198 193 184
2.020289e+000 7.589941e-003 -5.184156e+000 153 61 59
1.644171e-001 9.618966e-003 -5.789272e+000 221 217 208
-7.815808e-001 -2.267313e-001 -5.465886e+000 193 137 102
-1.153558e+000 -4.372645e-001 -5.440055e+000 176 134 94
-1.546214e+000 -5.250257e-001 -5.376429e+000 111 46 28
6.063666e-001 1.694204e+000 -8.953588e+000 245 243 233
6.501498e-001 -5.802234e-001 -5.878539e+000 218 217 207
-1.439378e+000 -5.175785e-001 -5.452692e+000 58 48 46
1.465735e+002 5.916131e+001 4.022102e+002 127 116 115
1.547321e+000 -1.431976e+000 -5.911950e+000 114 42 33
1.608462e+000 -1.336194e+000 -5.839431e+000 95 36 28
1.963799e+000 1.720172e-001 -5.253744e+000 90 54 52
-2.770803e-002 -1.060994e-001 -5.697629e+000 186 179 171
7.603386e+001 1.686523e+001 1.474598e+002 133 123 122
1.584699e+000 1.502202e+000 -5.603730e+000 242 235 225
2.226240e+000 7.493817e-001 -5.145646e+000 195 113 57
-1.739242e+000 -5.722735e-001 -5.424813e+000 232 136 92
-1.149741e+000 -3.012002e-001 -5.828603e+000 136 64 44
2.260636e+000 1.001860e+000 -5.118065e+000 209 138 89
1.952502e-001 -5.779009e-001 -5.952859e+000 53 42 40
1.952502e-001 -5.779009e-001 -5.952859e+000 53 42 40
1.445408e+000 1.718087e+000 -5.622697e+000 161 149 109
1.020934e+000 7.576774e-001 -6.476004e+000 224 220 207
3.221750e+000 6.201832e-001 -5.599243e+000 178 158 149
6.265101e-002 2.113062e-001 -6.196191e+000 211 207 198
-9.173603e-001 -9.178488e-002 -5.500974e+000 89 73 70
3.054580e+000 -2.267540e-001 -5.451128e+000 86 72 67
3.095003e+000 -1.703625e-001 -5.453849e+000 61 46 40
-2.001970e+000 -3.990356e-001 -5.656708e+000 185 158 122
3.044677e+000 -3.381959e-001 -5.453330e+000 75 61 57
2.960392e+000 -4.156947e-001 -5.421304e+000 84 66 57
3.320317e+000 -4.596489e-001 -5.653433e+000 76 58 60
-2.017229e+000 -4.876148e-001 -5.624514e+000 88 55 35
-2.213541e-001 -4.525830e-001 -5.337759e+000 147 135 120
1.333980e+000 -5.489967e-001 -6.012875e+000 94 67 39
1.922470e+000 -5.914700e-001 -5.351875e+000 112 51 50
1.911717e+000 -6.382797e-001 -5.388454e+000 115 54 53
2.516559e+000 -7.107023e-001 -5.213930e+000 84 45 45
2.891409e+000 -6.905463e-001 -5.446045e+000 57 38 32
1.748612e+000 -1.165295e+000 -5.697914e+000 78 91 64
6.066902e-001 -2.554078e+000 -8.186093e+000 197 122 67
6.535386e-001 -2.491903e+000 -8.150219e+000 200 132 82
3.597907e+000 1.204670e+000 -6.183469e+000 174 149 140
3.198066e+000 6.914991e-001 -5.624208e+000 174 155 146
8.029966e-002 2.293048e-001 -6.197003e+000 207 202 193
2.017506e+000 1.106752e-001 -5.219716e+000 195 89 73
2.072068e+000 7.954407e-002 -5.103265e+000 185 140 70
-5.935433e-001 -8.041284e-002 -5.485880e+000 169 161 150
1.257194e-001 -7.267818e-002 -5.698124e+000 189 182 173
2.065326e+000 -2.475891e-002 -5.025136e+000 212 166 87
-1.182914e-001 -1.627852e-001 -5.523267e+000 170 158 145
3.232257e+000 -2.765330e-001 -5.572561e+000 97 70 66
-3.098998e-001 -3.423083e-001 -5.283147e+000 194 185 176
8.592179e-002 -4.743993e-001 -5.914504e+000 88 77 59
3.031770e+000 -4.354065e-001 -5.466640e+000 69 40 33
1.913697e+000 -5.114326e-001 -5.425653e+000 118 90 79
1.921510e+000 -5.733797e-001 -5.346743e+000 130 104 91
-1.655471e+000 -6.083570e-001 -5.385455e+000 172 83 49
-1.161365e+000 -7.722411e-001 -5.653411e+000 162 77 49
1.901504e+000 -6.083828e-001 -5.438075e+000 121 91 83
1.901504e+000 -6.083828e-001 -5.438075e+000 121 91 83
1.888487e+000 -6.395502e-001 -5.423572e+000 133 99 96
1.888487e+000 -6.395502e-001 -5.423572e+000 133 99 96
1.936841e+000 -6.009031e-001 -5.322352e+000 101 44 42
1.932658e+000 -6.560881e-001 -5.304549e+000 108 46 43
1.782194e+000 -1.006129e+000 -5.668760e+000 86 90 69
1.739852e+000 -1.196885e+000 -5.752226e+000 72 85 61
3.478417e+000 1.238139e+000 -6.140171e+000 180 157 149
2.168505e+000 8.809279e-001 -4.876932e+000 210 139 89
1.104985e+000 8.067531e-001 -6.204830e+000 217 212 201
2.117182e+000 7.167916e-001 -5.079262e+000 214 151 54
3.170282e+000 8.815502e-001 -5.705870e+000 156 140 132
-7.210825e-001 -7.428547e-002 -5.388808e+000 191 183 168
2.056151e+000 -1.086362e-001 -5.058884e+000 181 136 74
3.058631e+000 -2.844408e-001 -5.465719e+000 79 63 59
3.058631e+000 -2.844408e-001 -5.465719e+000 79 63 59
-1.643169e+000 -3.733331e-001 -5.404699e+000 154 80 62
5.440841e-002 -3.707266e-001 -5.773175e+000 57 45 33
1.025867e-001 -3.097942e-001 -5.759419e+000 120 107 97
1.080435e+000 -3.619718e-001 -5.741196e+000 189 176 162
-1.744517e+000 -4.953004e-001 -5.418154e+000 172 78 50
3.372709e+000 -9.674910e-001 -5.879440e+000 56 34 20
1.715519e+000 -1.289098e+000 -5.748002e+000 198 196 184
1.715519e+000 -1.289098e+000 -5.748002e+000 198 196 184
1.844749e+000 -1.247237e+000 -5.386344e+000 220 172 81
2.113817e+000 6.636926e-001 -5.013279e+000 186 106 48
6.396395e-001 5.670290e-001 -6.525588e+000 201 197 186
6.847774e-001 5.076084e-001 -6.484274e+000 205 203 192
5.804366e-001 3.144092e-001 -5.715588e+000 240 237 228
2.014971e+000 1.399183e-001 -5.289092e+000 101 71 54
-4.156475e-001 -1.952467e-002 -5.563661e+000 154 147 131
-1.421492e+000 -2.418580e-001 -5.591842e+000 134 94 72
3.133562e+000 -1.719402e-001 -5.482509e+000 94 70 61
-1.675079e+000 -2.940168e-001 -5.439509e+000 166 79 50
3.133229e+000 -5.770445e-001 -5.559477e+000 57 34 27
-1.703637e+000 -7.735066e-001 -5.464979e+000 75 24 26
-1.501831e+000 -7.702978e-001 -5.480504e+000 129 56 38
1.857327e+000 -1.139126e+000 -5.371094e+000 219 168 86
5.845651e-001 -2.441409e+000 -8.318992e+000 209 150 121
5.845651e-001 -2.441409e+000 -8.318992e+000 209 150 121
1.023440e+000 2.360921e+000 -7.663216e+000 222 215 205
3.026559e+000 9.922603e-001 -5.642257e+000 133 117 117
1.037318e+000 3.631691e-001 -5.562208e+000 214 210 198
3.060959e+000 3.592337e-001 -5.444803e+000 152 132 125
3.011235e+000 -2.193780e-001 -5.416323e+000 84 60 58
8.938720e-001 -6.615943e-001 -6.056228e+000 162 118 90
3.437142e-001 -2.420111e+000 -8.500390e+000 205 74 79
3.437142e-001 -2.420111e+000 -8.500390e+000 205 74 79
4.433463e-001 -2.576337e+000 -8.509599e+000 185 102 50
5.561725e-001 -2.469469e+000 -8.219788e+000 194 104 54
3.035772e+000 4.243780e-001 -5.450478e+000 120 105 100
8.640106e-002 1.014303e-001 -6.050177e+000 176 170 157
8.640106e-002 1.014303e-001 -6.050177e+000 176 170 157
2.734836e+000 -3.699847e-001 -5.251855e+000 71 35 28
-1.521988e+000 -5.150146e-001 -5.426485e+000 110 47 32
-1.463648e+000 -6.814994e-001 -5.430730e+000 113 46 32
8.704226e-001 -6.995822e-001 -6.148892e+000 160 142 129
1.745257e+000 -1.246664e+000 -5.670266e+000 79 97 71
3.929029e-001 -2.667781e+000 -8.588797e+000 186 104 57
1.720208e+000 1.753349e+000 -5.645204e+000 211 202 186
-7.444631e-001 6.929699e-003 -5.539571e+000 181 167 156
-7.444631e-001 6.929699e-003 -5.539571e+000 181 167 156
3.017035e+000 -3.699156e-001 -5.437321e+000 49 33 33
3.017035e+000 -3.699156e-001 -5.437321e+000 49 33 33
1.362964e+000 -9.707724e-001 -5.963598e+000 220 164 123
1.362964e+000 -9.707724e-001 -5.963598e+000 220 164 123
6.368795e+001 2.683401e+001 1.203465e+002 134 124 125
4.257638e-001 5.166988e-001 -6.682704e+000 233 232 222
-7.953869e-001 -4.081628e-001 -5.548986e+000 191 102 62
1.464199e-001 -2.278519e+000 -8.319223e+000 233 223 213
7.692964e+001 2.907107e+001 1.419070e+002 169 165 168
1.458231e+002 6.440848e+001 2.687884e+002 171 163 164
1.889700e+000 1.387959e+000 -5.079301e+000 153 71 66
2.897275e-001 2.122521e+000 -9.175118e+000 205 214 205
1.962705e+000 1.001787e+000 -5.206857e+000 184 70 70
1.602385e-001 1.221469e+000 -9.660182e+000 219 97 96
1.310173e+000 -1.069937e+000 -5.923407e+000 113 37 38
7.147540e+001 3.211608e+001 1.379752e+002 134 124 123
-4.194923e-002 -1.009884e-002 -9.180059e-002 0 255 0
-4.161800e-002 -9.989029e-003 -1.417994e-001 255 255 0
2.039346e-002 9.841664e-001 -1.976689e-001 255 0 0
2.114522e-002 9.792022e-001 -2.474162e-001 255 255 0
