ply
format ascii 1.0
element face 0
property list uchar int vertex_indices
element vertex 871
property float x
property float y
property float z
property uchar diffuse_red
property uchar diffuse_green
property uchar diffuse_blue
end_header
2.532840e+000 -8.298630e-001 -5.329158e+000 82 65 58
2.915759e+000 -8.117233e-001 -5.567971e+000 64 39 34
1.102343e+000 -1.161486e+000 -6.182011e+000 108 52 43
1.102343e+000 -1.161486e+000 -6.182011e+000 108 52 43
1.771193e+000 -1.046067e+000 -5.720359e+000 84 86 78
2.700772e+000 -1.061087e+000 -5.437708e+000 89 69 56
-9.820615e-001 -1.174074e+000 -5.888952e+000 218 212 209
-4.318212e-001 -1.177673e+000 -5.995748e+000 194 115 78
6.709077e-001 -1.521299e+000 -7.674885e+000 182 70 73
1.489431e+000 -1.425359e+000 -5.955722e+000 199 74 66
1.454427e+000 -1.640814e+000 -6.316601e+000 189 109 53
1.518677e+000 -1.575642e+000 -6.183517e+000 212 140 79
1.550156e+000 -1.630369e+000 -6.084470e+000 223 152 73
1.708463e+000 -1.512563e+000 -5.690427e+000 164 77 53
1.372433e+000 -1.852024e+000 -6.510252e+000 143 87 54
1.645977e+000 -1.677995e+000 -5.792679e+000 226 177 93
1.667576e+000 -1.727081e+000 -5.795980e+000 213 184 132
1.262693e+000 1.514207e+000 -6.225263e+000 240 237 232
1.262866e+000 1.406472e+000 -6.191832e+000 239 236 229
8.640288e-001 1.274265e+000 -6.485959e+000 218 214 205
4.056868e-001 1.247687e+000 -9.026222e+000 241 237 230
5.094408e-002 2.137746e-001 -6.135790e+000 202 198 189
1.920252e+000 -4.529055e-001 -5.402785e+000 110 69 60
2.640359e+000 -4.438692e-001 -5.250576e+000 81 58 37
5.633334e-001 -5.500642e-001 -6.017109e+000 206 202 193
2.735829e+000 -5.989960e-001 -5.313699e+000 82 58 38
2.985501e+000 -5.928323e-001 -5.525272e+000 43 29 28
-7.244364e-001 -6.821712e-001 -5.789154e+000 167 113 79
6.596140e-001 -6.581762e-001 -6.024133e+000 92 79 66
9.122328e-001 -7.566778e-001 -6.141105e+000 168 148 133
1.820055e+000 -6.472149e-001 -5.685638e+000 78 34 29
2.918162e+000 -7.585067e-001 -5.540808e+000 48 28 27
-7.015139e-001 -9.703391e-001 -5.826221e+000 83 29 33
1.488241e+000 -9.777449e-001 -6.072820e+000 146 44 42
2.457698e+000 -8.418540e-001 -5.282261e+000 74 40 38
6.347061e-001 -1.289239e+000 -7.039995e+000 116 48 45
2.656127e+000 -9.138987e-001 -5.344814e+000 142 118 92
-8.401867e-001 -1.198021e+000 -6.144229e+000 151 62 43
7.852975e-001 -1.328229e+000 -6.887079e+000 215 205 194
1.658805e+000 -1.231862e+000 -5.862083e+000 64 46 36
1.669039e+000 -1.235702e+000 -5.865755e+000 64 46 36
1.851286e+000 -1.206122e+000 -5.431344e+000 185 113 54
1.516591e+000 -1.633737e+000 -6.202596e+000 137 57 39
1.681471e+000 -1.582402e+000 -5.819720e+000 214 165 75
1.440027e+000 -1.759133e+000 -6.291478e+000 221 159 86
1.497000e+000 -1.765079e+000 -6.161827e+000 224 180 91
1.684960e+000 1.787184e+000 -5.763719e+000 225 218 203
2.185397e+000 8.790089e-001 -5.038573e+000 194 112 56
1.135980e+000 8.181998e-001 -6.151954e+000 238 235 227
1.374622e+000 4.095486e-001 -5.504154e+000 226 221 210
1.374622e+000 4.095486e-001 -5.504154e+000 226 221 210
5.471683e-001 2.282626e-001 -5.766130e+000 239 239 229
-1.229307e+000 -2.278453e-001 -5.699504e+000 115 55 43
1.903213e+000 -2.130407e-001 -5.438671e+000 112 42 45
2.996212e+000 -1.978304e-001 -5.431124e+000 54 35 39
2.518412e-001 -3.721130e-001 -5.845109e+000 184 177 169
2.286952e+000 -4.278272e-001 -5.005301e+000 77 51 39
-6.902311e-001 -5.766246e-001 -5.700193e+000 196 149 108
-1.628674e-001 -5.771451e-001 -5.415435e+000 125 107 93
1.216506e+000 -6.381438e-001 -5.975711e+000 87 59 46
1.844920e+000 -5.658009e-001 -5.627722e+000 83 38 35
2.868535e+000 -5.605673e-001 -5.426151e+000 46 30 30
-8.323287e-001 -6.516585e-001 -5.761468e+000 112 55 38
-7.213483e-001 -7.931867e-001 -5.695423e+000 120 55 40
2.147454e+000 -9.071786e-001 -5.543230e+000 176 109 33
1.439543e+000 -1.071297e+000 -6.005416e+000 201 55 50
6.015511e-001 -1.526765e+000 -7.643610e+000 105 43 48
5.571878e-001 -1.668042e+000 -7.735186e+000 227 218 205
1.613645e+000 -1.328243e+000 -5.918798e+000 95 36 28
2.772309e+000 -1.248528e+000 -5.737241e+000 64 39 34
2.772309e+000 -1.248528e+000 -5.737241e+000 64 39 34
1.361404e+000 -1.574360e+000 -6.363348e+000 207 72 73
1.412907e+000 -1.345831e+000 -6.001281e+000 154 45 40
1.655342e+000 -1.432343e+000 -5.870779e+000 141 55 48
1.604242e+000 -1.703565e+000 -5.935807e+000 181 87 63
1.604242e+000 -1.703565e+000 -5.935807e+000 181 87 63
1.586096e+000 -1.778998e+000 -5.973904e+000 232 172 85
2.129657e+000 1.210879e+000 -4.980102e+000 100 47 40
7.801442e-001 5.987386e-001 -6.309830e+000 241 237 226
1.166232e+000 5.642454e-001 -5.713940e+000 229 227 215
2.575257e-001 4.059043e-001 -6.508781e+000 245 245 238
2.575257e-001 4.059043e-001 -6.508781e+000 245 245 238
4.713717e-001 2.686996e-001 -5.905216e+000 171 161 142
-9.704224e-002 6.674231e-002 -6.102459e+000 224 217 205
-9.704224e-002 6.674231e-002 -6.102459e+000 224 217 205
2.004634e+000 -1.099194e-002 -5.194629e+000 162 60 56
-8.615912e-002 -2.308467e-001 -5.571090e+000 124 108 92
1.445759e+000 -4.847449e-001 -6.089775e+000 112 89 62
2.096390e+000 -3.428623e-001 -4.819226e+000 206 115 50
-2.263736e-001 -7.152176e-001 -5.591466e+000 126 61 47
-9.387133e-001 -1.091445e+000 -5.869193e+000 133 54 36
1.990001e+000 1.240658e+000 -4.916808e+000 188 72 72
2.034211e+000 2.966300e-001 -5.103429e+000 127 81 46
-4.068883e-001 -2.196437e-001 -5.395365e+000 181 172 161
-7.379526e-001 -4.232688e-001 -5.586679e+000 189 100 61
-2.599684e-001 -3.114672e-001 -5.434685e+000 181 171 160
1.529804e-001 -4.046181e-001 -5.872309e+000 77 64 50
1.893228e+000 -3.044804e-001 -5.700685e+000 96 64 40
2.780458e+000 -3.294376e-001 -5.304539e+000 101 81 56
-1.351543e+000 -5.355867e-001 -5.503832e+000 58 48 47
-7.889269e-001 -5.500498e-001 -5.708828e+000 213 169 126
-1.601437e-001 -5.149135e-001 -5.394417e+000 124 107 91
6.494815e-001 -5.707222e-001 -5.886101e+000 221 215 205
6.712757e-001 -5.773530e-001 -5.935529e+000 221 215 205
-9.811580e-001 -8.029437e-001 -5.701531e+000 168 73 43
-8.691159e-001 -9.295180e-001 -5.816319e+000 125 53 38
2.571822e+000 -7.786760e-001 -5.305971e+000 69 31 29
8.854856e-001 -1.608619e+000 -6.934639e+000 237 230 222
1.715713e+000 -1.476003e+000 -5.652831e+000 180 97 64
1.718377e+000 -1.476777e+000 -5.666508e+000 180 97 64
1.105179e+000 6.624363e-001 -5.850606e+000 152 143 110
-1.134571e+000 -1.616088e-001 -5.878624e+000 204 206 204
1.690457e+000 -2.607797e-001 -5.407778e+000 210 73 72
1.690457e+000 -2.607797e-001 -5.407778e+000 210 73 72
2.003941e+000 -1.972594e-001 -5.233665e+000 149 58 57
-6.379318e-001 -9.850674e-001 -5.935901e+000 79 30 28
1.601138e+000 -1.537671e+000 -5.591908e+000 223 177 87
1.361980e+000 1.788486e+000 -6.064083e+000 122 114 82
4.833737e-001 1.635995e+000 -8.124881e+000 216 94 93
2.140517e+000 4.433952e-001 -5.099643e+000 149 88 37
-9.227430e-001 3.058227e-002 -5.684060e+000 211 207 206
-5.346671e-002 1.366963e-001 -6.071733e+000 212 209 204
3.275961e-001 5.201666e-002 -5.675041e+000 229 226 219
-7.577380e-001 -7.642987e-002 -5.450342e+000 172 132 113
-8.504991e-001 -2.776663e-001 -5.616566e+000 230 190 141
2.130340e+000 -2.846325e-001 -5.265415e+000 191 150 75
-1.059722e+000 -3.120329e-001 -5.808426e+000 136 64 44
1.096415e+000 -4.498322e-001 -5.774948e+000 85 64 51
4.647290e-001 -6.032847e-001 -6.058757e+000 75 48 47
1.300099e+000 -1.270130e+000 -6.084642e+000 231 175 127
1.301707e+000 -1.273402e+000 -6.093877e+000 231 175 127
6.455527e-001 1.357783e+000 -7.813154e+000 244 241 234
-1.389516e+000 -2.525194e-001 -5.646939e+000 105 53 39
1.482942e+000 -3.057748e-001 -5.577359e+000 90 42 42
-1.261886e+000 -4.777995e-001 -5.529854e+000 238 200 150
-1.254299e+000 -4.749578e-001 -5.485626e+000 238 200 150
1.121257e+000 -9.527497e-001 -6.056680e+000 242 202 151
1.299264e+000 -1.681109e+000 -6.390638e+000 93 40 33
1.305099e+000 6.021522e-001 -5.471665e+000 241 238 229
1.874569e+000 4.519998e-001 -4.988358e+000 242 235 225
7.200776e-001 2.235267e-001 -5.787590e+000 243 240 231
7.008722e-001 -1.508239e+000 -7.159675e+000 167 62 61
1.688140e+000 1.404620e+000 -5.462444e+000 240 232 223
1.783529e+000 -7.567985e-001 -5.564032e+000 98 32 30
-7.323232e-001 -1.065627e+000 -6.082193e+000 124 52 40
8.259434e-001 -1.445328e+000 -5.577956e+000 234 225 216
2.466103e-001 -1.254195e+000 -6.741979e+000 246 242 231
2.007947e+000 -1.057838e+000 -5.543188e+000 212 181 163
1.971950e+000 -1.042403e+000 -5.435044e+000 212 181 163
1.928379e+000 1.026870e+000 -5.056661e+000 159 58 56
-1.215834e+000 1.372303e-001 -5.802768e+000 208 205 204
7.284994e-001 -8.854221e-002 -5.726898e+000 230 227 220
7.284994e-001 -8.854221e-002 -5.726898e+000 230 227 220
1.574473e+000 -5.387566e-001 -5.625826e+000 103 86 60
1.199937e+000 2.504913e+000 -7.298215e+000 243 192 174
1.035934e+000 1.729952e+000 -6.658411e+000 225 221 212
1.459919e+000 1.728522e+000 -5.583930e+000 160 145 112
1.327035e+000 1.034749e+000 -5.626156e+000 177 165 116
3.061786e+000 8.032199e-001 -5.602182e+000 128 109 105
3.113992e+000 8.123461e-001 -5.668774e+000 148 130 126
3.081177e+000 6.118734e-001 -5.528016e+000 110 95 90
-7.815230e-001 1.384048e-001 -5.896749e+000 224 142 97
-6.619666e-001 1.655563e-001 -5.873418e+000 157 85 66
3.108766e+000 3.918281e-001 -5.507860e+000 153 135 131
3.041441e+000 3.356567e-001 -5.459024e+000 159 143 138
-1.554923e-001 -1.772070e-002 -6.153474e+000 131 116 94
1.982804e+000 2.070252e-001 -5.184137e+000 135 92 83
-1.893772e+000 -2.281009e-001 -5.789922e+000 128 86 63
-1.050281e+000 -1.673356e-001 -5.959224e+000 207 179 162
-9.807142e-001 -2.563822e-001 -5.800008e+000 194 105 63
-8.951238e-001 -1.384147e-001 -5.607554e+000 97 86 86
-7.595368e-001 -1.185757e-001 -5.474145e+000 123 108 98
-1.939405e+000 -3.274545e-001 -5.755182e+000 226 206 144
-1.308101e+000 -3.357547e-001 -5.590119e+000 171 154 158
1.981283e+000 -1.596202e-001 -5.312618e+000 211 172 172
1.981283e+000 -1.596202e-001 -5.312618e+000 211 172 172
2.159657e+000 3.666917e-002 -4.714717e+000 223 156 99
2.149638e+000 -8.666536e-003 -4.744684e+000 244 175 109
2.140853e+000 -4.396183e-002 -4.722258e+000 244 184 121
3.025687e+000 -1.409317e-001 -5.443002e+000 86 66 62
-1.407687e+000 -5.029829e-001 -5.503045e+000 159 114 94
-1.360507e+000 -5.589379e-001 -5.485272e+000 158 146 145
-4.649774e-001 -4.311536e-001 -5.349594e+000 230 143 117
2.698767e+000 -2.278141e-001 -5.240949e+000 87 57 39
3.317560e+000 -2.724334e-001 -5.657925e+000 85 72 70
-3.255417e-001 -6.119391e-001 -5.382699e+000 200 136 110
8.260550e-001 -7.656466e-001 -6.014621e+000 157 57 53
1.914188e+000 -4.986259e-001 -5.438153e+000 125 91 82
3.366677e+000 -4.699494e-001 -5.721810e+000 79 61 59
-1.684329e+000 -7.656427e-001 -5.483069e+000 105 58 52
-7.534348e-001 -9.389993e-001 -5.830457e+000 141 58 27
1.921941e+000 -5.993779e-001 -5.303989e+000 124 106 96
-5.817114e-001 -1.041787e+000 -5.956994e+000 131 35 28
-5.817114e-001 -1.041787e+000 -5.956994e+000 131 35 28
-9.444567e-002 -1.218675e+000 -6.234444e+000 221 213 211
1.031639e+000 -1.065713e+000 -6.044101e+000 201 173 155
1.752786e+000 -9.993459e-001 -5.770069e+000 79 58 54
1.766797e+000 -9.915479e-001 -5.757692e+000 61 47 39
2.903393e+000 -7.192436e-001 -5.508686e+000 89 65 59
1.213881e+000 -1.253550e+000 -6.159632e+000 232 180 132
1.698357e+000 -1.218016e+000 -5.897697e+000 113 83 71
1.722056e+000 -1.170889e+000 -5.797433e+000 82 75 57
1.722056e+000 -1.170889e+000 -5.797433e+000 82 75 57
1.804891e+000 -9.520757e-001 -5.624774e+000 167 157 154
1.787784e+000 -1.015971e+000 -5.669343e+000 112 117 95
1.971718e+000 -8.982777e-001 -5.201644e+000 196 166 148
6.224413e-001 -2.236455e+000 -8.229002e+000 210 122 81
6.224413e-001 -2.236455e+000 -8.229002e+000 210 122 81
1.729251e+000 -1.314538e+000 -5.707131e+000 181 193 176
1.760716e+000 -1.195354e+000 -5.670009e+000 91 111 84
1.848025e+000 -1.069003e+000 -5.465334e+000 168 90 52
1.529865e+000 -1.537467e+000 -6.140904e+000 181 95 51
1.574567e+000 -1.548336e+000 -6.098711e+000 166 73 39
1.683313e+000 -1.377043e+000 -5.802532e+000 202 192 185
1.828958e+000 -1.227925e+000 -5.446065e+000 213 152 80
1.669846e+000 1.688682e+000 -5.638499e+000 197 187 172
1.809635e+000 1.649776e+000 -5.376872e+000 221 212 198
3.309964e+000 1.380287e+000 -6.122345e+000 172 145 127
3.510718e+000 1.325775e+000 -6.218747e+000 168 143 136
3.569179e+000 1.340104e+000 -6.291677e+000 136 114 107
3.545933e+000 1.315392e+000 -6.233798e+000 172 150 139
1.337281e+000 1.001443e+000 -5.610808e+000 175 163 116
3.389705e+000 1.169785e+000 -6.008782e+000 148 115 106
1.318416e+000 9.713384e-001 -5.475872e+000 135 124 105
2.183973e+000 9.809280e-001 -4.931401e+000 191 114 61
2.168923e+000 8.476766e-001 -4.880549e+000 254 206 168
2.168923e+000 8.476766e-001 -4.880549e+000 254 206 168
3.109982e+000 9.105358e-001 -5.684892e+000 120 108 106
3.001570e+000 7.968714e-001 -5.553872e+000 156 139 131
3.301042e+000 7.017269e-001 -5.713573e+000 149 122 107
3.215174e+000 6.519530e-001 -5.628969e+000 169 147 134
2.925548e+000 5.791844e-001 -5.410799e+000 152 133 122
2.989398e+000 5.666447e-001 -5.443150e+000 162 145 138
-3.906652e-001 4.188163e-002 -6.125039e+000 113 63 59
5.815550e-001 2.824483e-001 -5.739381e+000 238 236 225
2.124929e+000 3.589684e-001 -5.022093e+000 193 112 52
2.694821e+000 3.287870e-001 -5.210950e+000 142 115 110
3.053784e+000 4.311492e-001 -5.502742e+000 145 126 120
-1.454416e+000 -8.701853e-002 -5.593025e+000 130 82 80
1.989593e+000 1.585675e-001 -5.290341e+000 128 97 92
-1.897273e+000 -2.666693e-001 -5.735172e+000 205 184 129
-1.704503e+000 -1.966917e-001 -5.657532e+000 116 68 66
-7.658323e-001 -9.292211e-002 -5.502698e+000 72 52 53
4.020480e-001 -9.326059e-002 -5.704564e+000 222 218 210
1.921185e+000 -4.016526e-002 -5.330565e+000 123 78 75
-1.929563e+000 -4.231040e-001 -5.702719e+000 244 215 158
-1.281044e+000 -2.824411e-001 -5.628418e+000 204 184 180
-9.885964e-001 -3.476406e-001 -5.783618e+000 105 32 16
2.035950e+000 -4.280921e-002 -5.087414e+000 128 112 115
2.035950e+000 -4.280921e-002 -5.087414e+000 128 112 115
2.026542e+000 -1.051694e-001 -5.142565e+000 208 198 197
2.026542e+000 -1.051694e-001 -5.142565e+000 208 198 197
-1.903352e+000 -5.228453e-001 -5.640303e+000 101 56 50
-1.572583e+000 -4.341518e-001 -5.445185e+000 147 72 50
3.007849e+000 -2.597297e-001 -5.448927e+000 72 43 41
2.930678e+000 -3.382402e-001 -5.417812e+000 54 35 28
2.930678e+000 -3.382402e-001 -5.417812e+000 54 35 28
3.032559e+000 -2.903012e-001 -5.461143e+000 53 32 29
-1.150852e+000 -6.334694e-001 -5.518297e+000 165 87 51
-8.344834e-003 -6.678525e-001 -5.996418e+000 94 59 49
3.266068e+000 -5.574597e-001 -5.693928e+000 77 59 48
-1.673134e+000 -7.872676e-001 -5.536158e+000 73 23 23
1.889569e+000 -5.839360e-001 -5.464385e+000 102 43 39
1.893825e+000 -6.406634e-001 -5.461311e+000 113 38 41
1.935210e+000 -6.484319e-001 -5.338476e+000 109 48 47
2.047448e+000 -6.650957e-001 -5.416898e+000 119 79 29
1.061039e+000 -1.078969e+000 -6.112220e+000 182 136 108
1.938093e+000 -7.381156e-001 -5.402091e+000 117 55 55
1.701944e+000 -1.173563e+000 -5.886306e+000 73 46 41
1.749775e+000 -1.162588e+000 -5.679453e+000 62 82 54
1.756882e+000 -1.169744e+000 -5.701657e+000 62 82 54
1.646562e+000 -1.460127e+000 -5.970430e+000 144 64 53
2.121497e+000 1.918923e+000 -5.032951e+000 217 174 162
7.888956e-001 1.184865e+000 -6.722872e+000 223 220 213
3.535324e+000 1.277010e+000 -6.207480e+000 166 146 132
2.159366e+000 9.520151e-001 -4.902280e+000 236 168 121
2.175456e+000 9.248456e-001 -4.910440e+000 255 198 154
2.175456e+000 9.248456e-001 -4.910440e+000 255 198 154
2.239862e+000 9.428154e-001 -4.948559e+000 163 140 128
3.395656e+000 8.873755e-001 -5.850712e+000 151 119 108
2.926923e+000 4.962086e-001 -5.414595e+000 124 103 82
3.040814e+000 5.211602e-001 -5.475486e+000 167 152 147
3.226198e+000 5.350937e-001 -5.593288e+000 177 162 154
3.354125e-001 1.700559e-001 -6.113625e+000 206 203 191
-1.854314e-001 -5.955849e-002 -5.663831e+000 160 151 141
8.243353e-002 8.629066e-003 -6.001437e+000 187 183 171
2.027919e+000 2.377242e-001 -5.135029e+000 155 125 105
-1.263117e+000 -2.252726e-001 -5.689506e+000 147 85 67
2.163824e+000 1.690066e-001 -4.727611e+000 210 131 65
2.163824e+000 1.690066e-001 -4.727611e+000 210 131 65
-9.619177e-001 -4.102267e-001 -5.603521e+000 203 121 86
-6.522160e-001 -2.358354e-001 -5.488752e+000 212 135 107
-6.066056e-002 -2.878784e-001 -5.615497e+000 117 102 87
9.137321e-002 -3.814717e-001 -5.809076e+000 61 45 32
-1.980192e+000 -5.273070e-001 -5.696787e+000 153 127 76
-1.375437e+000 -5.465348e-001 -5.456324e+000 55 38 38
-1.375437e+000 -5.465348e-001 -5.456324e+000 55 38 38
-1.193892e+000 -4.244208e-001 -5.482836e+000 204 158 109
1.865489e+000 -5.638424e-001 -5.536712e+000 97 39 38
2.590015e+000 -3.528877e-001 -5.160123e+000 87 55 47
3.101186e+000 -3.999363e-001 -5.543286e+000 68 45 34
-1.043064e+000 -7.740734e-001 -5.714618e+000 176 86 52
-9.053016e-001 -8.230366e-001 -5.741791e+000 147 59 29
-9.053016e-001 -8.230366e-001 -5.741791e+000 147 59 29
8.332648e-001 -8.026048e-001 -5.982953e+000 204 93 82
1.866267e+000 -6.178648e-001 -5.577927e+000 104 39 39
1.907183e+000 -5.863752e-001 -5.424415e+000 133 103 90
2.851149e+000 -5.362972e-001 -5.412869e+000 50 29 35
2.851149e+000 -5.362972e-001 -5.412869e+000 50 29 35
3.011144e+000 -5.550285e-001 -5.525636e+000 79 58 54
3.096112e+000 -5.537636e-001 -5.581388e+000 83 56 47
-5.670404e-001 -1.151680e+000 -5.952374e+000 152 74 47
1.742832e+000 -1.029470e+000 -5.722969e+000 56 51 37
1.764772e+000 -1.087254e+000 -5.714963e+000 68 81 57
1.351907e+000 -1.307779e+000 -5.937785e+000 185 71 55
1.783503e+000 -1.212165e+000 -5.579635e+000 81 107 82
3.221585e+000 -1.271113e+000 -6.070252e+000 99 70 56
7.831838e-001 2.615735e+000 -8.237351e+000 220 220 214
1.267849e+000 1.978792e+000 -6.527664e+000 237 233 222
1.691061e+000 1.861444e+000 -5.747577e+000 200 188 172
2.021681e+000 1.737905e+000 -4.979508e+000 178 157 139
3.431593e+000 1.385111e+000 -6.224871e+000 141 106 102
3.501265e+000 1.400872e+000 -6.298676e+000 170 149 138
2.183273e+000 8.838176e-001 -4.922518e+000 237 171 124
2.884126e+000 6.611775e-001 -5.423974e+000 140 114 91
2.884126e+000 6.611775e-001 -5.423974e+000 140 114 91
3.086160e+000 7.582312e-001 -5.591652e+000 166 143 135
-8.328296e-001 6.265664e-002 -5.983434e+000 228 135 83
1.253157e-001 1.929479e-001 -6.141511e+000 199 192 182
2.663183e+000 3.466442e-001 -5.203828e+000 167 144 138
-2.883225e-002 -5.526843e-002 -5.757145e+000 194 185 178
-1.927483e+000 -3.025626e-001 -5.721865e+000 255 235 175
-1.331750e+000 -2.599728e-001 -5.662653e+000 145 104 80
-8.190828e-001 -8.779607e-002 -5.554507e+000 184 163 135
-8.190828e-001 -8.779607e-002 -5.554507e+000 184 163 135
-7.887688e-001 -8.039241e-002 -5.542300e+000 74 58 64
1.984048e+000 -1.343135e-001 -5.280056e+000 215 189 193
1.984048e+000 -1.343135e-001 -5.280056e+000 215 189 193
-1.612414e+000 -5.405693e-001 -5.424320e+000 208 119 87
-5.210626e-001 -3.916972e-001 -5.455350e+000 201 99 77
2.735301e+000 -2.325862e-001 -5.300754e+000 86 60 37
2.735301e+000 -2.325862e-001 -5.300754e+000 86 60 37
-3.675386e-002 -7.096438e-001 -5.910702e+000 108 46 44
-3.675386e-002 -7.096438e-001 -5.910702e+000 108 46 44
8.726825e-001 -5.974940e-001 -6.012364e+000 176 135 105
-6.425967e-001 -9.338670e-001 -5.871670e+000 172 90 55
-6.228803e-001 -7.791434e-001 -5.772675e+000 208 159 115
2.093414e+000 -5.324122e-001 -5.181696e+000 179 127 40
2.093414e+000 -5.324122e-001 -5.181696e+000 179 127 40
-8.905786e-001 -1.131777e+000 -5.968686e+000 146 60 35
-5.939993e-001 -1.055714e+000 -5.925760e+000 182 85 47
1.945186e+000 -6.818350e-001 -5.294470e+000 137 107 97
1.719570e+000 -1.091535e+000 -5.858945e+000 64 40 37
1.759033e+000 -1.121605e+000 -5.684266e+000 74 90 66
4.187088e-001 2.053429e+000 -8.735571e+000 221 218 220
1.408310e+000 1.588226e+000 -5.750668e+000 197 189 143
3.403328e+000 1.117810e+000 -5.989349e+000 141 115 102
7.376217e-001 6.336687e-001 -6.566393e+000 220 217 202
1.196826e+000 7.850471e-001 -5.945131e+000 197 187 152
3.134744e+000 7.380809e-001 -5.623232e+000 146 123 117
2.987291e+000 4.909860e-001 -5.454944e+000 109 96 93
3.152683e+000 5.852546e-001 -5.565718e+000 176 159 151
3.152683e+000 5.852546e-001 -5.565718e+000 176 159 151
-6.043526e-001 7.037615e-002 -6.085417e+000 111 51 46
1.401274e-001 6.645534e-003 -5.901415e+000 158 146 130
-8.545799e-001 -1.015369e-001 -5.562878e+000 66 60 67
2.674903e+000 -7.859946e-002 -5.218482e+000 84 60 43
3.134220e+000 -2.837235e-001 -5.547056e+000 59 34 34
-1.472112e+000 -6.000527e-001 -5.465095e+000 147 71 48
-7.963508e-001 -6.861562e-001 -5.791769e+000 156 98 66
-1.383781e+000 -7.314619e-001 -5.481313e+000 155 80 58
-1.383781e+000 -7.314619e-001 -5.481313e+000 155 80 58
9.206240e-001 -7.956461e-001 -6.107110e+000 148 96 62
1.845588e+000 -6.789115e-001 -5.589330e+000 104 48 32
1.869798e+000 -5.933985e-001 -5.465813e+000 113 41 42
2.658584e+000 -5.897443e-001 -5.279345e+000 72 36 24
2.658584e+000 -5.897443e-001 -5.279345e+000 72 36 24
1.617524e+000 -1.069592e+000 -5.657290e+000 221 77 74
1.794746e+000 -1.096387e+000 -5.618023e+000 140 144 134
1.796340e+000 -1.098340e+000 -5.624469e+000 140 144 134
1.377863e+000 -1.289442e+000 -5.972329e+000 223 164 128
1.567715e+000 -1.239975e+000 -5.793773e+000 211 78 72
1.382924e+000 -1.681824e+000 -6.442721e+000 113 50 34
1.485454e+000 1.781199e+000 -5.614079e+000 149 137 99
1.970584e+000 1.346140e+000 -5.207537e+000 110 51 47
1.863668e+000 1.152570e+000 -4.881524e+000 209 94 88
1.176438e+000 9.018235e-001 -6.199158e+000 216 210 196
4.007084e-001 5.722506e-001 -6.737921e+000 221 218 212
1.274581e+000 7.088956e-001 -5.732658e+000 237 234 228
5.730804e-001 3.054853e-001 -5.758092e+000 194 188 174
-3.489434e-001 -2.004751e-002 -5.630615e+000 220 217 208
-1.521612e-001 -9.079121e-002 -5.688582e+000 158 148 137
1.904122e+000 -2.148020e-002 -5.380365e+000 203 78 81
1.904122e+000 -2.148020e-002 -5.380365e+000 203 78 81
2.003942e+000 7.820844e-002 -5.299104e+000 201 182 177
-1.981687e+000 -3.364185e-001 -5.778018e+000 117 87 80
-6.051579e-001 -3.163574e-001 -5.482561e+000 225 172 127
-6.051579e-001 -3.163574e-001 -5.482561e+000 225 172 127
-2.989228e-001 -2.245163e-001 -5.472457e+000 205 197 186
-3.689586e-002 -2.818667e-001 -5.640226e+000 118 101 86
2.984363e+000 -1.403646e-001 -5.399886e+000 71 47 44
2.984363e+000 -1.403646e-001 -5.399886e+000 71 47 44
-1.011533e-002 -4.703609e-001 -5.828794e+000 107 89 75
1.663457e+000 -3.108687e-001 -5.377122e+000 226 85 82
1.630486e+000 -3.567445e-001 -5.381245e+000 109 56 43
-7.238300e-001 -6.850212e-001 -5.802911e+000 173 116 84
5.967287e-001 -6.230006e-001 -6.022355e+000 90 71 59
1.456771e+000 -6.591164e-001 -6.141289e+000 131 110 83
2.637640e+000 -3.429673e-001 -5.189841e+000 83 59 41
-1.536000e+000 -7.742196e-001 -5.497189e+000 113 36 26
3.365557e-001 -8.531562e-001 -5.980091e+000 207 199 188
1.289338e+000 -8.252074e-001 -6.071392e+000 199 147 99
1.284853e+000 -8.223168e-001 -6.059785e+000 199 147 99
-5.011885e-001 -9.881563e-001 -5.756331e+000 158 58 44
2.719948e+000 -1.015334e+000 -5.505349e+000 84 62 51
1.525253e+000 -1.582465e+000 -6.213429e+000 211 144 67
1.329307e+000 1.891523e+000 -6.262216e+000 229 225 216
-8.012110e-001 3.028619e+000 -1.961833e+001 200 192 193
1.561697e+000 1.142261e+000 -5.337678e+000 231 226 215
1.921781e+000 8.432559e-001 -5.182810e+000 178 65 61
6.126972e-001 4.601704e-001 -6.494712e+000 172 165 155
8.742548e-001 5.574357e-001 -6.202418e+000 205 199 187
9.321288e-001 5.383187e-001 -6.139757e+000 228 229 221
-1.877698e-001 5.177054e-002 -6.251627e+000 107 84 71
-2.850629e-003 -3.453507e-001 -5.741928e+000 110 92 78
2.914391e-002 -7.101713e-001 -5.982011e+000 122 108 95
1.323479e+000 -7.326989e-001 -6.068448e+000 195 139 95
1.323479e+000 -7.326989e-001 -6.068448e+000 195 139 95
2.922272e+000 -4.728798e-001 -5.419929e+000 50 33 33
-5.568619e-001 -1.092417e+000 -5.931202e+000 221 122 76
1.772894e+000 -8.431669e-001 -5.683946e+000 92 50 36
2.471107e+000 -8.534870e-001 -5.305056e+000 77 46 43
1.626649e+000 -1.460383e+000 -6.006384e+000 212 146 83
1.156621e+000 2.413437e+000 -7.167889e+000 239 223 214
1.702858e+000 1.684789e+000 -5.596113e+000 217 205 188
5.329317e-001 1.454288e+000 -8.856047e+000 235 231 220
1.315838e+000 1.162739e+000 -5.747048e+000 157 147 111
1.533960e+000 1.222690e+000 -5.588004e+000 232 226 214
5.033196e-002 2.241246e-001 -6.263590e+000 202 198 187
2.185775e+000 2.879620e-001 -5.245486e+000 226 175 53
2.166215e+000 -3.285035e-001 -5.306602e+000 193 147 57
-2.322330e-001 -6.998862e-001 -5.485756e+000 175 78 74
1.484518e+000 -9.764269e-001 -6.067362e+000 147 42 42
2.851279e+000 -9.582202e-001 -5.580392e+000 67 41 40
1.347359e+000 -1.561448e+000 -6.317114e+000 208 70 73
8.868973e-001 2.277920e+000 -7.671449e+000 239 234 230
8.944882e-001 2.280938e+000 -7.695725e+000 239 234 230
2.163492e+000 9.706017e-001 -5.205850e+000 185 105 50
8.014392e-001 6.248806e-001 -6.472503e+000 239 238 228
3.138775e+000 5.439951e-001 -5.597753e+000 170 155 148
2.053177e+000 3.080712e-001 -5.112770e+000 136 87 44
1.492421e+000 1.318316e+000 -5.683685e+000 108 95 78
2.000188e+000 1.237338e+000 -4.908025e+000 191 73 71
1.067398e+000 -4.611330e-001 -5.866801e+000 90 64 50
8.887783e-001 -8.886041e-001 -6.209247e+000 149 88 70
3.163978e+000 8.660306e-001 -5.827987e+000 149 131 127
-8.533938e-001 -2.690169e-001 -5.600840e+000 236 196 147
-1.758897e+000 -4.502323e-001 -5.335308e+000 80 33 27
1.995351e+000 -2.120426e-001 -5.250575e+000 150 51 54
4.884570e-001 -6.074312e-001 -6.031139e+000 76 57 50
2.030762e+000 1.678921e+000 -5.022334e+000 193 71 70
1.855363e+000 1.505972e+000 -5.085332e+000 240 230 221
1.696201e-001 4.768621e-001 -6.546287e+000 241 238 229
-7.909825e-001 -7.668651e-002 -5.556736e+000 67 54 51
-1.073576e+000 -3.068933e-001 -5.829029e+000 138 59 41
6.710993e-001 2.266317e-001 -5.539392e+000 244 241 234
-4.228754e-001 -1.896851e-001 -5.681181e+000 188 180 167
1.439738e+000 1.815708e+000 -5.628511e+000 129 118 88
1.439738e+000 1.815708e+000 -5.628511e+000 129 118 88
1.515496e+000 -5.482699e-001 -5.447783e+000 108 86 62
-7.598389e-001 -1.187512e-001 -5.472805e+000 124 107 107
-1.304315e+000 -3.598962e-001 -5.565318e+000 197 185 179
2.009159e+000 -4.884381e-001 -5.431276e+000 125 91 82
1.863063e+000 -5.929943e-001 -5.558690e+000 101 46 47
1.923297e+000 -7.248047e-001 -5.323241e+000 150 123 112
-1.649490e+000 -7.768585e-001 -5.509033e+000 101 60 60
1.787339e+000 -9.898403e-001 -5.692013e+000 160 166 140
1.787339e+000 -9.898403e-001 -5.692013e+000 160 166 140
1.773197e+000 -1.045039e+000 -5.701788e+000 96 105 84
1.774785e+000 -1.044947e+000 -5.710894e+000 96 105 84
1.779864e+000 -1.071930e+000 -5.674329e+000 88 103 79
1.762136e+000 -1.107288e+000 -5.711835e+000 78 92 66
1.809083e+000 -1.037869e+000 -5.626071e+000 75 91 68
2.714746e+000 -1.023073e+000 -5.337491e+000 118 99 93
1.718839e+000 -1.258852e+000 -5.762504e+000 87 96 64
1.335503e+000 -1.376162e+000 -6.046421e+000 229 159 133
6.313990e-001 -2.202513e+000 -8.091441e+000 191 106 59
-7.664946e-001 -9.276086e-002 -5.506081e+000 75 53 55
-7.194638e-001 -1.337454e-001 -5.455586e+000 198 129 107
1.958720e+000 -2.889018e-001 -5.287569e+000 140 52 58
-1.370634e+000 -3.306198e-001 -5.592494e+000 135 99 83
-1.370634e+000 -3.306198e-001 -5.592494e+000 135 99 83
-1.568173e+000 -3.955280e-001 -5.464471e+000 153 82 66
1.901318e+000 -5.730862e-001 -5.451478e+000 130 98 91
1.870921e+000 -5.981862e-001 -5.540048e+000 125 84 80
1.074769e+000 -7.313111e-001 -6.071808e+000 180 125 80
1.912340e+000 -7.443190e-001 -5.323722e+000 158 131 117
1.797132e+000 -8.991601e-001 -5.671863e+000 157 137 127
1.796569e+000 -8.988670e-001 -5.668798e+000 157 137 127
1.740522e+000 -9.953610e-001 -5.818422e+000 71 48 42
-6.208799e-001 -1.190658e+000 -5.963043e+000 152 79 60
-6.208799e-001 -1.190658e+000 -5.963043e+000 152 79 60
3.125875e+000 9.193797e-001 -5.686508e+000 173 157 151
-6.458020e-001 2.197733e-001 -5.902213e+000 172 95 67
2.191673e+000 -3.546565e-001 -5.332345e+000 186 136 61
1.858769e+000 -6.125159e-001 -5.546176e+000 101 40 38
1.849500e+000 -6.187442e-001 -5.588068e+000 117 75 68
1.403396e-001 2.147712e-001 -6.108690e+000 228 226 214
-7.889606e-001 -1.367045e-001 -5.450293e+000 213 186 153
-7.916137e-001 -1.374954e-001 -5.472280e+000 213 186 153
2.227522e+000 -3.742501e-001 -5.356297e+000 172 98 35
-1.030636e+000 -7.967631e-001 -5.711680e+000 157 66 38
-7.141332e-001 -1.491552e-001 -5.471922e+000 192 145 112
-7.141468e-001 -1.489216e-001 -5.477478e+000 192 145 112
-1.603065e+000 -3.559528e-001 -5.469249e+000 187 107 73
-3.282525e-001 -6.200062e-001 -5.397631e+000 195 158 118
-9.034163e-001 -5.106215e-001 -5.704486e+000 163 109 79
-1.423579e+000 -6.568315e-001 -5.456392e+000 157 80 53
-1.423579e+000 -6.568315e-001 -5.456392e+000 157 80 53
5.524337e-002 -2.547032e-001 -5.655408e+000 128 111 96
1.211146e-001 -2.569025e-001 -5.676356e+000 159 148 139
3.893261e-001 -1.808234e-001 -5.708731e+000 212 209 202
4.122630e-002 -7.139612e-001 -6.005007e+000 116 94 86
4.458154e-001 1.796755e+000 -9.038761e+000 213 96 96
1.937009e+000 -1.051275e-001 -5.391478e+000 143 107 103
-1.898526e+000 -5.198277e-001 -5.664901e+000 68 23 25
-1.769173e-001 -4.907884e-001 -5.358776e+000 124 110 97
3.961963e-001 -5.020524e-001 -5.948521e+000 148 138 129
7.779815e-001 -5.654763e-001 -5.850022e+000 158 66 63
2.536146e+000 -8.072703e-001 -5.306577e+000 66 31 31
2.924453e+000 -9.169580e-001 -5.620312e+000 64 37 36
1.814733e+000 -9.869981e-001 -5.585579e+000 192 184 180
1.721101e+000 -1.432466e+000 -5.706297e+000 144 72 67
1.753952e+000 -1.390907e+000 -5.616205e+000 217 190 177
1.756087e+000 -1.400348e+000 -5.598075e+000 191 119 70
1.615099e+000 -1.578116e+000 -5.940648e+000 208 122 74
1.747972e+000 -1.571321e+000 -5.544547e+000 210 188 189
1.557556e+000 -1.758583e+000 -6.012295e+000 203 126 56
1.602752e+000 -1.864979e+000 -5.826513e+000 211 184 181
1.626734e+000 -1.820937e+000 -5.772088e+000 216 180 176
7.889746e-001 1.760008e-001 -5.500367e+000 216 213 204
-1.589731e+000 -4.098150e-001 -5.470926e+000 167 87 66
6.965548e-002 -3.873290e-001 -5.842563e+000 100 88 74
1.850289e+000 -8.485766e-001 -5.546959e+000 132 84 46
1.744258e+000 -1.175211e+000 -5.724110e+000 126 142 115
1.693153e+000 -1.462680e+000 -5.760101e+000 184 99 66
1.683021e+000 -1.506541e+000 -5.751265e+000 214 145 75
8.242625e-001 -2.141523e+000 -7.623241e+000 180 102 62
1.713486e+000 -1.672800e+000 -5.606463e+000 180 104 55
1.585763e+000 -1.840764e+000 -5.941189e+000 211 144 72
-1.185633e+000 -2.421844e-001 -5.685868e+000 178 107 80
1.955305e+000 -4.004321e-001 -5.308453e+000 111 67 32
-1.551407e+000 -6.751105e-001 -5.452252e+000 202 118 84
1.803852e+000 -1.352828e+000 -5.494839e+000 182 108 47
1.785530e+000 -1.407310e+000 -5.545439e+000 156 69 42
1.462654e+000 -1.747022e+000 -6.232675e+000 220 155 72
1.620206e+000 -1.802677e+000 -5.920777e+000 170 82 56
-1.976381e-001 -1.731377e-001 -5.491936e+000 155 145 135
2.760512e+000 -7.205659e-001 -5.397754e+000 79 52 35
-9.532018e-001 -8.354058e-001 -5.720061e+000 181 87 49
-9.532018e-001 -8.354058e-001 -5.720061e+000 181 87 49
1.863474e+000 -8.500033e-001 -5.496255e+000 143 87 39
1.480448e+000 -1.687155e+000 -6.218249e+000 203 121 63
1.479889e+000 -1.687871e+000 -6.216962e+000 203 121 63
1.649023e+000 -1.511382e+000 -5.878251e+000 169 85 53
1.456501e+000 -1.896116e+000 -6.180330e+000 178 88 43
1.677536e+000 -1.667294e+000 -5.763626e+000 174 83 59
1.605785e+000 -1.750133e+000 -5.910740e+000 208 129 69
4.437978e-001 2.018782e+000 -8.648712e+000 212 219 213
1.333954e+000 -5.897820e-003 -5.428016e+000 203 197 185
-1.571056e+000 -6.368126e-001 -5.456627e+000 170 79 48
2.036862e+000 -2.256626e-002 -5.126121e+000 234 216 217
1.627742e+000 -1.643027e+000 -5.883797e+000 221 158 75
1.763500e+000 -1.453245e+000 -5.546540e+000 205 156 74
1.714734e+000 -1.557023e+000 -5.640361e+000 222 181 93
1.732430e+000 -1.229985e+000 -5.699689e+000 77 96 67
1.940500e+000 1.073458e+000 -5.058146e+000 171 60 57
1.544904e+000 -1.668210e+000 -6.066820e+000 209 129 64
1.419033e+000 1.511948e+000 -5.593041e+000 221 210 158
1.397757e+000 1.295745e+000 -5.603062e+000 191 178 128
1.351847e+000 1.102425e+000 -5.708825e+000 211 197 145
1.994432e+000 8.728805e-001 -5.163283e+000 75 40 35
1.781148e+000 7.184916e-001 -4.999399e+000 179 140 132
2.105701e+000 5.649787e-001 -5.025089e+000 185 105 46
2.907901e+000 5.197412e-001 -5.420868e+000 137 115 94
2.163034e+000 1.624908e-001 -5.347155e+000 188 131 63
2.048928e+000 -4.169753e-004 -5.116735e+000 184 135 84
2.048928e+000 -4.169753e-004 -5.116735e+000 184 135 84
2.028867e+000 -2.371790e-002 -5.141667e+000 226 212 201
2.159616e+000 -5.610575e-002 -4.736949e+000 225 161 110
2.159616e+000 -5.610575e-002 -4.736949e+000 225 161 110
2.025522e+000 -1.097638e-001 -5.174400e+000 100 100 95
-1.427414e+000 -9.299202e-002 -5.582085e+000 111 75 73
9.632732e-001 -4.490455e-001 -5.833536e+000 175 75 70
-1.909375e+000 -5.036200e-001 -5.706700e+000 67 25 26
-1.846889e+000 -4.637715e-001 -5.602244e+000 82 37 34
-1.332048e+000 -5.132878e-001 -5.512943e+000 88 70 74
-1.145486e+000 -4.533080e-001 -5.450636e+000 162 105 83
1.929923e+000 -6.336240e-001 -5.355376e+000 136 81 78
1.947639e+000 -6.460332e-001 -5.331389e+000 130 106 98
-1.903369e+000 -5.277033e-001 -5.644823e+000 104 64 53
-1.362961e+000 -5.634724e-001 -5.502089e+000 119 105 105
-1.335007e+000 -5.951947e-001 -5.485181e+000 179 155 145
-2.831237e-001 -6.531756e-001 -5.463298e+000 173 108 90
1.922384e+000 -7.206059e-001 -5.348783e+000 124 77 72
-1.406963e+000 -7.191044e-001 -5.509212e+000 122 54 36
-1.208954e+000 -7.443904e-001 -5.629457e+000 113 47 29
2.961210e+000 -9.172122e-001 -5.629784e+000 64 41 36
-7.916954e-001 -8.983024e-001 -5.790390e+000 145 61 37
8.319802e-001 -9.963980e-001 -6.131962e+000 180 78 68
1.743279e+000 -9.957165e-001 -5.774710e+000 63 35 34
1.767555e+000 -1.106185e+000 -5.687219e+000 141 155 129
1.734000e+000 -1.145863e+000 -5.762466e+000 80 85 63
1.713351e+000 -1.268582e+000 -5.774185e+000 187 192 160
1.799782e+000 -1.111460e+000 -5.596220e+000 166 178 163
1.833482e+000 -1.105187e+000 -5.507810e+000 188 186 173
1.833482e+000 -1.105187e+000 -5.507810e+000 188 186 173
1.900367e+000 -1.130338e+000 -5.192113e+000 199 116 57
1.626906e+000 -1.504345e+000 -5.927946e+000 193 114 58
1.607965e+000 -1.597306e+000 -5.956457e+000 200 118 63
1.647758e+000 -1.583703e+000 -5.849548e+000 206 123 57
1.750402e+000 -1.467483e+000 -5.581268e+000 205 142 61
1.778342e+000 -1.454491e+000 -5.509496e+000 63 44 37
1.804176e+000 -1.418669e+000 -5.462105e+000 204 188 185
1.754574e+000 -1.506854e+000 -5.561698e+000 95 77 69
1.768422e+000 -1.502636e+000 -5.523730e+000 109 87 89
1.748780e+000 -1.539911e+000 -5.564305e+000 113 97 93
1.107572e+000 -1.664173e+000 -6.121144e+000 204 178 158
1.441021e+000 -1.686846e+000 -6.391196e+000 166 83 43
1.557654e+000 -1.714402e+000 -6.036437e+000 200 114 51
1.728747e+000 -1.579612e+000 -5.607570e+000 192 173 167
1.376021e+000 -1.905903e+000 -6.466574e+000 122 64 37
1.626667e+000 -1.775930e+000 -5.807812e+000 115 92 89
1.650851e+000 -1.766467e+000 -5.755795e+000 201 180 180
1.671653e+000 -1.730586e+000 -5.699420e+000 81 63 60
1.671653e+000 -1.730586e+000 -5.699420e+000 81 63 60
4.324150e+000 2.315744e+000 -7.394235e+000 199 186 178
1.407778e+000 1.415890e+000 -5.583959e+000 229 213 157
1.169391e+000 1.314233e+000 -5.722971e+000 219 212 193
1.310037e+000 9.727015e-001 -5.456675e+000 134 122 92
4.322513e-001 1.788189e+000 -9.145706e+000 211 91 93
2.160660e+000 6.502296e-001 -4.798573e+000 245 180 133
2.060392e+000 2.404268e-001 -5.158818e+000 146 103 51
2.140853e+000 -8.956177e-002 -4.760185e+000 217 150 97
1.979703e-001 2.584204e-002 -5.829690e+000 226 222 212
2.160016e+000 -1.882442e-001 -4.770061e+000 212 132 68
-9.921085e-001 -1.519287e-001 -5.775503e+000 190 113 74
-1.002146e+000 -1.892249e-001 -5.817291e+000 211 122 78
2.149678e+000 -3.640539e-001 -4.714034e+000 105 82 68
-1.891712e+000 -2.642214e-001 -5.718976e+000 198 178 119
-1.371342e+000 -3.178885e-001 -5.596986e+000 124 87 72
-8.803170e-002 -3.001974e-001 -5.517700e+000 152 136 121
1.882214e+000 -4.810639e-001 -5.512786e+000 84 39 36
2.745031e+000 -4.872468e-001 -5.324359e+000 102 84 60
2.930276e+000 -4.302739e-001 -5.443826e+000 85 67 56
2.927146e+000 -5.113095e-001 -5.455257e+000 82 64 61
-5.661909e-003 -5.152595e-001 -5.809382e+000 102 86 71
-5.661909e-003 -5.152595e-001 -5.809382e+000 102 86 71
-1.189694e+000 -6.244245e-001 -5.499634e+000 144 77 46
-1.161652e+000 -8.169805e-001 -5.705542e+000 153 80 58
-8.228741e-001 -8.955070e-001 -5.814775e+000 151 71 48
-7.768410e-001 -9.149628e-001 -5.806365e+000 148 66 42
-8.092267e-001 -9.393388e-001 -5.834106e+000 126 50 31
1.792715e+000 -1.075820e+000 -5.617799e+000 70 83 64
1.789314e+000 -1.101746e+000 -5.636953e+000 191 191 174
1.832122e+000 -9.937277e-001 -5.559059e+000 208 203 198
-7.363218e-001 -1.151814e+000 -5.939817e+000 174 95 64
1.860536e+000 -1.196274e+000 -5.386655e+000 215 156 84
1.457322e+000 -1.651607e+000 -6.275507e+000 192 108 57
1.532511e+000 -1.670291e+000 -6.089045e+000 186 97 40
1.597615e+000 -1.631545e+000 -5.966258e+000 215 136 74
3.383210e+000 -2.073709e+000 -7.150240e+000 170 148 125
1.606721e+000 -1.788722e+000 -5.988987e+000 211 134 62
1.211662e+000 1.068478e+000 -5.057773e+000 180 168 118
4.264838e-001 1.816912e+000 -8.943710e+000 216 144 115
4.180303e-001 1.825569e+000 -9.137600e+000 216 150 115
3.106875e-001 1.688927e+000 -9.264542e+000 196 135 107
2.166648e+000 3.316994e-001 -4.758268e+000 243 171 121
2.905497e+000 4.904355e-001 -5.384152e+000 124 106 85
2.051880e+000 -5.108586e-002 -5.122089e+000 93 79 74
2.051880e+000 -5.108586e-002 -5.122089e+000 93 79 74
-1.259541e+000 -2.250741e-001 -5.669474e+000 144 88 72
2.917194e+000 -4.966386e-001 -5.453486e+000 44 29 33
-1.684328e+000 -3.912689e-001 -5.506013e+000 205 116 72
-1.320709e+000 -3.809873e-001 -5.553225e+000 203 163 120
-1.317974e+000 -5.234077e-001 -5.509127e+000 96 73 62
-1.593949e+000 -5.829349e-001 -5.457509e+000 172 83 52
-2.472164e-001 -6.872585e-001 -5.536700e+000 164 104 86
1.882236e+000 -7.303794e-001 -5.467117e+000 130 102 92
2.767091e+000 -6.833238e-001 -5.379201e+000 127 106 85
2.745984e+000 -7.479291e-001 -5.399516e+000 129 107 84
-1.009195e+000 -8.716946e-001 -5.789794e+000 184 94 60
-7.685363e-001 -9.556044e-001 -5.830939e+000 157 83 48
-7.698408e-001 -9.571756e-001 -5.869209e+000 157 83 48
-8.170521e-001 -1.073133e+000 -5.865194e+000 180 99 62
2.738345e+000 -1.196143e+000 -5.692441e+000 54 33 32
1.613922e+000 -1.505559e+000 -5.973889e+000 192 105 60
1.649460e+000 -1.513476e+000 -5.874621e+000 171 83 52
1.626051e+000 -1.569400e+000 -5.914014e+000 174 86 46
1.697895e+000 -1.558182e+000 -5.704279e+000 166 73 38
1.696767e+000 -1.558400e+000 -5.701419e+000 166 73 38
1.378935e+000 1.411272e+000 -5.582643e+000 193 180 127
2.001899e+000 -7.736466e-002 -5.277026e+000 145 56 56
2.032305e+000 -9.432980e-002 -5.160785e+000 228 221 219
1.913257e+000 -2.788395e-001 -5.462633e+000 197 178 182
-5.250204e-001 -3.875806e-001 -5.407886e+000 184 103 75
-1.956420e+000 -5.676632e-001 -5.696961e+000 66 49 34
-1.923071e+000 -5.692136e-001 -5.687505e+000 152 127 116
-1.848487e-001 -7.318379e-001 -5.720725e+000 135 90 78
4.542305e-002 -6.146826e-001 -6.026868e+000 121 105 90
2.594057e+000 -8.223634e-001 -5.312059e+000 87 55 39
2.594057e+000 -8.223634e-001 -5.312059e+000 87 55 39
-1.025537e+000 -7.710627e-001 -5.704066e+000 170 85 51
-1.087829e+000 -7.964764e-001 -5.715893e+000 146 59 36
-9.891241e-001 -8.277995e-001 -5.724065e+000 185 93 54
-5.736619e-001 -1.009201e+000 -5.953084e+000 180 59 54
3.487843e-001 -1.165212e+000 -7.787932e+000 210 204 194
1.745881e+000 -1.031089e+000 -5.735648e+000 57 42 35
1.700224e+000 -1.103037e+000 -5.682199e+000 59 50 37
8.855955e-001 -1.505777e+000 -7.066323e+000 223 210 203
1.704744e+000 -1.364216e+000 -5.751677e+000 213 207 189
1.404175e+000 -1.628382e+000 -6.346411e+000 107 43 33
1.581427e+000 -1.595094e+000 -6.029598e+000 166 74 41
1.341953e+000 -1.912354e+000 -6.486477e+000 140 81 41
1.403153e+000 -1.917090e+000 -6.460342e+000 146 91 50
2.886231e+000 5.787622e-001 -5.400236e+000 139 117 93
1.999720e+000 1.158329e-001 -5.301323e+000 99 62 56
1.962157e+000 -7.216730e-002 -5.356223e+000 213 186 190
-1.427025e+000 -6.867581e-002 -5.595612e+000 79 43 47
2.155974e+000 -3.930670e-001 -4.768256e+000 88 70 60
1.210325e-001 -5.071372e-001 -5.926887e+000 72 58 47
8.990575e-001 -6.475979e-001 -6.068402e+000 153 109 80
8.400090e-001 -7.494282e-001 -6.023416e+000 149 61 54
1.749462e+000 -1.076221e+000 -5.742861e+000 56 59 45
-4.436443e-001 -1.041141e+000 -5.777362e+000 210 197 181
1.191272e+000 -1.222743e+000 -6.165303e+000 208 146 99
1.747246e+000 -1.351614e+000 -5.640073e+000 218 206 204
1.852469e+000 -1.239124e+000 -5.385001e+000 208 150 66
1.525098e+000 -1.741408e+000 -6.085288e+000 184 82 52
1.174424e+000 2.439726e+000 -7.268024e+000 237 224 213
1.262078e+000 1.587087e+000 -5.951180e+000 180 171 129
3.037017e+000 4.685453e-001 -5.461400e+000 118 103 98
2.004252e+000 8.224580e-002 -5.319057e+000 201 176 173
2.710883e-001 -1.461833e-001 -5.716503e+000 215 215 206
2.710883e-001 -1.461833e-001 -5.716503e+000 215 215 206
-1.376379e+000 -6.379288e-001 -5.453471e+000 151 79 54
1.455949e+000 -6.627024e-001 -6.111190e+000 121 96 65
1.841690e+000 -6.795775e-001 -5.579279e+000 97 44 27
1.842003e+000 -6.796740e-001 -5.579615e+000 97 44 27
1.862633e+000 -8.599813e-001 -5.491041e+000 148 87 42
1.501905e+000 -1.302551e+000 -5.854004e+000 212 78 75
1.465525e+000 -1.802528e+000 -6.223753e+000 187 79 53
2.145639e+000 1.122744e+000 -5.014179e+000 174 92 49
2.136950e+000 -4.372492e-002 -4.708292e+000 240 178 130
-1.437546e+000 -8.350773e-002 -5.619274e+000 100 63 63
-1.974436e+000 -4.809769e-001 -5.746690e+000 189 167 116
2.485813e+000 -6.574673e-001 -5.226059e+000 75 42 39
-9.145362e-001 -7.748963e-001 -5.719659e+000 159 72 42
4.308674e-001 -8.483478e-001 -5.991274e+000 172 160 146
9.922393e-001 -1.003193e+000 -6.157747e+000 187 165 144
-5.629456e-001 -1.098414e+000 -5.959710e+000 232 141 99
-4.286994e-001 -1.100438e+000 -5.911153e+000 116 53 43
1.814104e+000 -1.293838e+000 -5.480389e+000 163 83 62
1.471893e+000 -1.624698e+000 -6.236845e+000 192 117 50
1.621554e+000 -1.731553e+000 -5.838403e+000 178 74 58
1.979816e-001 -9.026712e-003 -5.789572e+000 220 214 205
2.053071e+000 -3.743524e-001 -5.249657e+000 170 127 59
2.861870e+000 -5.616746e-001 -5.421621e+000 47 33 32
-3.133505e-001 -7.687371e-001 -5.624258e+000 204 154 109
1.169031e+000 -8.881544e-001 -5.973427e+000 230 179 129
1.636408e+000 -9.261091e-001 -5.659730e+000 203 71 66
-7.547691e-001 -9.299122e-001 -5.766165e+000 147 63 33
-1.917302e+000 -2.823106e-001 -5.746941e+000 219 199 137
-1.583831e+000 -4.741645e-001 -5.482316e+000 106 33 24
6.452937e-001 -5.730032e-001 -5.874239e+000 219 215 204
7.392392e-001 -7.963910e-001 -6.029712e+000 216 209 193
8.933723e-001 2.538070e+000 -7.867788e+000 207 85 89
2.031698e+000 -5.124147e-001 -5.296434e+000 116 74 25
1.260333e+000 1.136326e+000 -5.500923e+000 146 136 100
1.260333e+000 1.136326e+000 -5.500923e+000 146 136 100
1.027212e+000 -1.641151e+000 -6.745534e+000 235 227 216
2.297852e+000 -1.633460e-001 -5.234018e+000 209 125 62
3.974180e-001 -4.986046e-001 -5.954671e+000 159 148 139
7.927530e-001 -3.869860e-001 -5.772055e+000 225 218 210
-1.504878e+000 -6.024105e-001 -5.431841e+000 167 87 60
1.437097e+000 1.602953e+000 -5.625292e+000 178 165 119
2.158339e+000 9.970669e-001 -5.053895e+000 243 191 148
1.408380e+000 1.293465e+000 -5.667500e+000 162 149 105
1.336592e+000 1.090450e+000 -5.641615e+000 208 196 145
2.194755e+000 4.139277e-001 -4.838756e+000 221 144 99
2.929386e+000 5.210652e-001 -5.426978e+000 169 153 139
2.959130e+000 5.635334e-001 -5.443615e+000 147 130 120
3.003255e+000 5.206613e-001 -5.474243e+000 170 153 146
1.565183e+000 -7.548184e-002 -4.552016e+000 131 115 96
2.172986e+000 -1.959361e-002 -4.759711e+000 211 136 81
2.139080e+000 -2.233344e-001 -4.795955e+000 229 177 136
1.935150e+000 -1.288981e-001 -5.402145e+000 122 82 79
2.081054e+000 -1.984713e-001 -5.192396e+000 163 130 87
2.144935e+000 -3.005280e-001 -4.776186e+000 217 159 105
2.006782e+000 -3.174430e-001 -5.251002e+000 124 86 67
2.047740e+000 -5.007366e-001 -4.639262e+000 229 186 149
2.123709e+000 -4.668943e-001 -4.788538e+000 243 190 148
2.191145e+000 -4.330781e-001 -4.831798e+000 139 115 104
-7.586439e-001 -9.467275e-002 -5.507783e+000 66 48 36
-4.581125e-001 -1.628112e-001 -5.495793e+000 206 200 188
8.071868e-001 -2.749055e-001 -5.696594e+000 205 198 188
1.900183e+000 -5.294623e-001 -5.451555e+000 132 92 84
1.847795e+000 -5.810907e-001 -5.605965e+000 107 54 52
1.928592e+000 -6.739725e-001 -5.340877e+000 116 69 64
1.971859e+000 -6.433442e-001 -5.355108e+000 130 98 91
2.895634e+000 -6.876006e-001 -5.503199e+000 79 61 57
-1.770690e+000 -2.511192e-001 -5.631031e+000 94 51 49
-1.025008e+000 -1.358650e-001 -5.857009e+000 199 120 78
-5.577979e-001 -3.687885e-001 -5.426899e+000 195 109 84
-5.047030e-001 -4.596258e-001 -5.437241e+000 188 108 78
-2.268027e-001 -4.462495e-001 -5.345540e+000 153 145 132
1.659625e-001 -3.374631e-001 -5.781127e+000 121 109 97
1.843356e+000 -5.934710e-001 -5.618028e+000 88 34 32
2.765529e+000 -8.323065e-001 -5.462003e+000 51 31 27
2.668647e+000 -9.032098e-001 -5.384670e+000 112 87 64
2.823870e+000 -8.539037e-001 -5.529488e+000 71 53 51
-1.666391e+000 -4.116021e-001 -5.480266e+000 217 128 83
-1.351210e+000 -3.404451e-001 -5.576435e+000 77 44 35
-1.338073e+000 -5.043439e-001 -5.495993e+000 220 202 194
1.059426e-001 -5.216791e-001 -5.951728e+000 76 60 45
2.714817e+000 -9.978847e-001 -5.343161e+000 102 88 79
-1.833598e+000 -5.057404e-001 -5.684516e+000 81 33 29
-1.633757e+000 -5.059484e-001 -5.464185e+000 170 90 68
-1.613009e+000 -5.243526e-001 -5.443992e+000 149 73 50
-1.608784e+000 -5.386506e-001 -5.444526e+000 207 126 96
-2.404665e-001 -7.407360e-001 -5.581345e+000 167 63 59
-2.179848e-001 -7.727345e-001 -5.577048e+000 155 120 108
1.788441e+000 -1.033135e+000 -5.664573e+000 170 178 160
1.788537e+000 -1.033513e+000 -5.665416e+000 170 178 160
2.715306e+000 -1.169407e+000 -5.643152e+000 48 29 24
-1.711635e+000 -6.633282e-001 -5.553433e+000 173 89 53
-1.564096e+000 -6.581497e-001 -5.457596e+000 175 88 55
8.140388e-001 -9.456659e-001 -5.961720e+000 181 79 72
8.385983e-001 -9.674618e-001 -6.147385e+000 180 72 67
1.768071e+000 -1.106157e+000 -5.687591e+000 143 153 125
1.788366e+000 -1.144240e+000 -5.607849e+000 133 138 104
1.788232e+000 -1.144018e+000 -5.607627e+000 133 138 104
1.797165e+000 -1.192298e+000 -5.677849e+000 119 125 100
-1.649452e+000 -7.881446e-001 -5.516492e+000 103 61 55
-1.622502e+000 -8.038352e-001 -5.526465e+000 86 47 42
1.724689e+000 -1.210952e+000 -5.758509e+000 74 87 57
1.715902e+000 -1.272431e+000 -5.756554e+000 192 196 173
1.726806e+000 -1.313481e+000 -5.708918e+000 211 224 198
1.725458e+000 -1.314113e+000 -5.703599e+000 211 224 198
1.744701e+000 -1.276072e+000 -5.673847e+000 189 207 181
1.796351e+000 -1.331299e+000 -5.487776e+000 210 131 78
1.793360e+000 -1.335668e+000 -5.522022e+000 203 130 75
-9.691101e-001 -1.088625e+000 -5.750780e+000 209 117 72
1.635277e+000 -1.448533e+000 -5.944073e+000 148 55 42
1.717612e+000 -1.394250e+000 -5.692256e+000 212 210 204
1.749248e+000 -1.444223e+000 -5.616913e+000 209 132 74
1.778184e+000 -1.441948e+000 -5.492294e+000 187 167 166
1.801163e+000 -1.433115e+000 -5.457244e+000 119 97 96
1.797307e+000 -1.433483e+000 -5.446947e+000 119 97 96
1.791039e+000 -1.442608e+000 -5.478590e+000 90 77 67
1.773639e+000 -1.501951e+000 -5.497108e+000 224 203 201
1.760375e+000 -1.509799e+000 -5.533835e+000 216 197 194
1.760515e+000 -1.509671e+000 -5.534293e+000 216 197 194
-8.647511e-001 -1.224384e+000 -6.226191e+000 174 95 66
1.571858e+000 -1.543754e+000 -6.090287e+000 172 83 49
1.756272e+000 -1.521611e+000 -5.536138e+000 78 67 59
1.751593e+000 -1.557132e+000 -5.541838e+000 122 108 109
1.726630e+000 -1.597829e+000 -5.606552e+000 115 96 92
1.101343e+000 -1.531127e+000 -6.193751e+000 211 191 170
1.101343e+000 -1.531127e+000 -6.193751e+000 211 191 170
1.441909e+000 -1.683970e+000 -6.317155e+000 190 100 55
