ply
format ascii 1.0
element face 0
property list uchar int vertex_indices
element vertex 872
property float x
property float y
property float z
property uchar diffuse_red
property uchar diffuse_green
property uchar diffuse_blue
end_header
3.523991e-001 -3.942753e-001 -5.830721e+000 191 186 179
1.021456e+000 -6.106653e-001 -5.955391e+000 221 178 132
1.812394e+000 -1.052942e+000 -5.618549e+000 180 187 169
1.806043e+000 -1.018081e+000 -5.647555e+000 177 176 166
1.803564e+000 -1.041168e+000 -5.641722e+000 84 93 73
1.798586e+000 -1.185419e+000 -5.607167e+000 173 185 170
1.767769e+000 -1.257263e+000 -5.657218e+000 198 202 195
1.709302e+000 -1.237744e+000 -5.824608e+000 105 94 78
1.905978e+000 -6.521864e-001 -5.441369e+000 130 100 95
1.743465e+000 -1.196746e+000 -5.759505e+000 73 89 60
2.991035e-001 -1.479531e-001 -5.692873e+000 158 145 131
2.039521e+000 -8.571277e-002 -5.147845e+000 227 217 219
1.996773e+000 -4.650736e-002 -5.283356e+000 212 187 180
1.913510e+000 -6.464948e-001 -5.419547e+000 115 54 53
1.803260e+000 -1.157951e+000 -5.598727e+000 176 183 169
1.813017e+000 -9.202615e-001 -5.663269e+000 172 155 156
2.047264e-001 -2.988649e-001 -5.740090e+000 145 132 123
1.958729e+000 -9.416262e-002 -5.378238e+000 168 135 130
1.925197e+000 -6.216028e-001 -5.393646e+000 131 84 76
1.972165e+000 -5.826554e-002 -5.352795e+000 206 183 179
1.802224e+000 -1.277976e+000 -5.557857e+000 205 204 201
1.933311e+000 -5.945941e-001 -5.366230e+000 120 103 88
1.950752e+000 -6.615393e-001 -5.326072e+000 133 104 96
1.860361e+000 -1.189982e+000 -5.396580e+000 178 113 45
1.937492e+000 -6.937448e-001 -5.337661e+000 135 114 105
1.832967e+000 -1.139231e+000 -5.517820e+000 208 208 199
1.811801e+000 -1.081964e+000 -5.607605e+000 168 177 161
1.748184e+000 -1.264039e+000 -5.701040e+000 176 187 160
2.065788e+000 2.202668e-001 -5.186777e+000 134 97 57
1.786609e+000 -1.217803e+000 -5.622155e+000 195 203 183
-7.729844e-001 -1.342272e-001 -5.473465e+000 59 52 59
6.031448e-001 -6.770608e-001 -6.048070e+000 195 185 175
5.619720e-001 -8.177507e-001 -5.982356e+000 179 165 152
1.447151e+000 -1.646342e+000 -6.343709e+000 187 110 50
1.952810e+000 -4.037864e-001 -5.343799e+000 135 104 102
1.866711e+000 -1.080406e+000 -5.465393e+000 179 105 64
1.938761e+000 -6.383735e-001 -5.354561e+000 112 46 43
1.718047e+000 -1.322518e+000 -5.760026e+000 77 94 60
1.625869e+000 -1.449657e+000 -5.967984e+000 208 143 71
9.816767e-001 -8.487146e-001 -6.060077e+000 240 198 150
8.867483e-001 -8.708905e-001 -6.150650e+000 140 87 66
1.170979e+000 -1.362231e+000 -6.178219e+000 115 42 45
-5.309015e-001 -4.103504e-001 -5.407468e+000 171 88 58
-7.587076e-001 -4.204398e-001 -5.592343e+000 189 100 61
2.054805e+000 -9.504144e-003 -5.040980e+000 226 182 76
1.838457e+000 -1.073133e+000 -5.529164e+000 212 205 203
-1.495924e+000 -4.699673e-001 -5.506314e+000 217 175 132
1.963835e+000 -3.626025e-002 -5.363084e+000 135 82 82
1.923550e+000 -6.215282e-001 -5.389431e+000 131 84 76
1.878419e+000 -6.134716e-001 -5.521259e+000 115 35 35
-1.423044e+000 -4.855312e-001 -5.517276e+000 176 131 107
1.802007e+000 -1.041823e+000 -5.637194e+000 84 93 73
1.995350e+000 -4.695394e-002 -5.278888e+000 212 187 180
6.483862e-001 1.426325e-001 -5.619815e+000 224 221 212
4.577639e-001 -1.578724e-001 -5.714964e+000 199 195 183
-5.299081e-001 -5.110740e-001 -5.460119e+000 240 200 151
-1.455642e+000 -6.186344e-001 -5.470926e+000 112 41 30
7.790336e-001 -6.457442e-001 -6.001757e+000 100 71 60
1.347034e+000 1.391761e-001 -5.444938e+000 213 205 193
1.708839e+000 -1.258998e+000 -5.824135e+000 186 180 170
1.982450e+000 -8.820024e-002 -5.290838e+000 142 50 60
7.640866e-001 1.996146e+000 -8.119730e+000 238 229 219
6.199256e-001 1.923136e+000 -8.218757e+000 238 230 217
-1.326442e+000 -6.337255e-001 -5.492652e+000 131 60 35
6.966956e-001 -1.508840e+000 -7.096508e+000 167 62 61
-5.196434e-001 -7.877431e-001 -5.744916e+000 244 202 152
-9.442854e-001 -1.162031e+000 -6.031234e+000 211 202 205
1.290420e+000 2.702822e-001 -5.462037e+000 210 207 192
-1.251048e+000 -4.105385e-001 -5.479375e+000 172 121 77
6.476628e-001 1.430007e-001 -5.618376e+000 224 221 212
1.896204e+000 -5.556499e-001 -5.474854e+000 126 94 83
-2.764062e-001 -2.032610e-001 -5.472872e+000 148 138 126
-1.294579e+000 -6.895383e-001 -5.513669e+000 172 97 71
-1.761836e+000 -4.319437e-001 -5.562453e+000 244 154 99
-1.180733e+000 -4.307211e-001 -5.507929e+000 170 108 89
-6.209674e-001 -4.602067e-001 -5.500673e+000 239 197 149
-1.497718e+000 -4.716454e-001 -5.509038e+000 217 175 132
1.780724e+000 -1.193226e+000 -5.652703e+000 158 173 145
1.921359e+000 -6.024513e-001 -5.399163e+000 108 38 38
-1.348442e+000 -3.464746e-001 -5.585905e+000 75 58 63
1.798673e+000 -1.185134e+000 -5.610041e+000 173 185 170
1.727397e+000 1.044798e+000 -5.243311e+000 221 199 186
-1.619165e+000 -6.058091e-001 -5.451345e+000 218 134 95
2.110621e+000 9.975635e-001 -5.155130e+000 175 90 49
-1.780556e-001 -1.853759e-001 -5.509829e+000 203 201 188
2.033117e+000 -7.096010e-002 -5.180095e+000 223 213 212
1.251145e+000 -9.745489e-001 -6.024143e+000 108 41 44
2.016556e+000 9.856034e-001 -5.147895e+000 191 76 76
2.046569e+000 7.761737e-001 -5.071009e+000 200 142 42
1.923157e+000 7.615837e-001 -5.070594e+000 81 46 44
2.012803e+000 -5.220840e-001 -5.227911e+000 115 75 24
1.598248e+000 -7.881092e-001 -5.946347e+000 95 65 42
-1.418542e+000 -3.339826e-001 -5.562744e+000 128 90 75
-1.379693e+000 -3.019448e-001 -5.602408e+000 77 47 37
1.964030e+000 -8.650560e-002 -5.365131e+000 133 98 94
1.927696e+000 -6.359417e-001 -5.368808e+000 109 45 42
-1.453069e+000 -5.600098e-001 -5.491900e+000 139 92 72
1.738863e+000 -1.180375e+000 -5.773864e+000 72 85 61
1.795933e+000 -1.245491e+000 -5.568693e+000 103 120 88
3.024036e+000 6.923405e-001 -5.494093e+000 122 103 97
-1.339344e+000 -5.245701e-001 -5.499014e+000 107 84 69
1.119856e+000 -6.302367e-001 -5.955981e+000 193 145 96
1.524479e-001 -6.016604e-002 -5.739307e+000 190 183 172
7.481391e-001 -4.046807e-001 -5.792030e+000 225 218 208
-9.406514e-001 -3.807755e-001 -5.639057e+000 152 75 52
1.838101e+000 -1.017629e+000 -5.555888e+000 210 199 197
-9.414309e-001 -1.160184e+000 -6.014977e+000 211 202 205
-1.276220e-001 -1.854657e-001 -5.531732e+000 128 115 98
-1.978830e-001 -2.253053e-001 -5.516253e+000 132 118 107
-1.316758e+000 -3.173274e-001 -5.603242e+000 66 40 45
-1.228899e+000 -3.257785e-001 -5.590196e+000 209 170 127
2.075660e+000 9.505379e-001 -5.172225e+000 81 41 42
5.145049e-002 -5.393895e-001 -5.933064e+000 124 108 95
1.677942e+000 8.075153e-001 -5.141935e+000 236 232 220
1.573523e+000 4.322244e-001 -5.212439e+000 242 238 229
-6.949486e-001 2.232775e-001 -5.901926e+000 188 103 69
-1.558747e+000 -5.094118e-001 -5.481072e+000 124 58 42
8.181092e-001 -7.261250e-001 -6.027566e+000 170 131 108
1.119491e+000 -6.301078e-001 -5.955185e+000 193 145 96
-1.373976e+000 -5.782550e-001 -5.504148e+000 52 31 24
1.112293e+000 -6.909967e-001 -6.015819e+000 194 140 93
1.084160e+000 3.891104e-001 -5.592053e+000 222 218 206
1.830616e+000 -9.708807e-001 -5.593615e+000 193 185 183
1.678889e+000 -1.328661e+000 -5.869016e+000 206 188 188
1.324991e+000 1.625127e+000 -5.995538e+000 180 168 128
6.195871e-001 1.926049e+000 -8.219697e+000 238 230 217
5.229101e-001 4.057608e-001 -6.076915e+000 186 178 165
-5.663959e-001 2.082425e-001 -5.990584e+000 108 57 53
2.959034e+000 -2.859080e-001 -5.415305e+000 48 31 24
-1.324776e+000 -3.452730e-001 -5.580777e+000 53 42 38
-1.644320e+000 -4.498606e-001 -5.480232e+000 163 83 59
-1.903284e+000 -2.649552e-001 -5.737096e+000 102 77 49
-1.302166e+000 -2.780641e-001 -5.627846e+000 200 183 174
2.974370e+000 5.814447e-001 -5.425702e+000 127 107 100
1.111042e+000 -6.910522e-001 -6.016881e+000 194 140 93
-1.375854e+000 -2.586463e-001 -5.647269e+000 134 94 72
-6.602569e-001 -9.355427e-001 -5.879034e+000 165 86 42
-6.353062e-001 -1.159556e+000 -5.965504e+000 129 55 39
1.073097e+000 1.281346e+000 -6.310475e+000 218 210 200
1.077852e+000 1.283584e+000 -6.320373e+000 218 210 200
1.523726e+000 -8.469683e-001 -6.096762e+000 181 55 53
1.900027e+000 -9.433857e-001 -5.566015e+000 180 117 54
1.124914e+000 2.331725e-001 -5.487444e+000 227 223 214
-1.608357e+000 -4.759627e-001 -5.469811e+000 102 34 24
1.754925e+000 9.298960e-001 -5.116385e+000 99 48 50
7.316089e-001 -7.938522e-001 -5.999746e+000 219 210 195
1.269128e+000 9.857875e-001 -5.788304e+000 124 114 87
1.911865e+000 7.519526e-002 -5.190406e+000 84 43 44
-8.036079e-001 -9.853283e-002 -5.492048e+000 190 166 140
2.581472e+000 -8.305674e-001 -5.318207e+000 72 35 26
1.784956e+000 -1.168972e+000 -5.652730e+000 81 99 70
1.914472e+000 -6.901727e-001 -5.395883e+000 111 82 64
1.922345e+000 -7.307972e-001 -5.362640e+000 120 39 38
2.562538e+000 -8.555665e-001 -5.321806e+000 69 30 24
1.608961e+000 -1.506859e+000 -6.027840e+000 197 111 60
1.473795e+000 3.266185e-001 -5.361725e+000 225 221 210
1.473795e+000 3.266185e-001 -5.361725e+000 225 221 210
1.823325e+000 -1.202403e+000 -5.528821e+000 209 206 196
1.947506e+000 -6.559598e-002 -5.390149e+000 73 39 35
-1.164227e+000 -4.492430e-001 -5.503596e+000 164 108 78
5.233482e-001 -6.992302e-001 -6.052492e+000 165 153 141
2.090555e+000 8.930204e-001 -5.194246e+000 178 121 54
1.880394e-001 6.998915e-002 -5.816748e+000 175 172 154
-1.062989e+000 -7.617278e-002 -5.873794e+000 187 107 70
-1.062989e+000 -7.617278e-002 -5.873794e+000 187 107 70
-1.703567e+000 -3.362574e-001 -5.565293e+000 218 129 89
1.000199e+000 -8.590406e-001 -6.101238e+000 240 198 150
1.372375e+000 -8.295709e-001 -6.015957e+000 106 36 36
1.390068e+000 1.361292e+000 -5.604509e+000 214 200 144
-7.963113e-001 1.314135e-001 -5.882493e+000 191 96 62
9.555992e-002 2.357282e-001 -6.173512e+000 219 217 205
1.952506e+000 -9.325444e-002 -5.364998e+000 168 135 130
-1.378056e+000 -3.358663e-001 -5.581642e+000 77 47 36
-1.333666e+000 -3.310862e-001 -5.592842e+000 152 145 143
-1.294444e+000 -3.433792e-001 -5.572556e+000 102 70 54
1.754946e+000 -1.061496e+000 -5.791828e+000 81 65 58
1.772009e+000 -1.107407e+000 -5.715217e+000 84 98 72
-1.389459e-001 -2.542288e-001 -5.561759e+000 126 114 98
2.969891e+000 -2.986170e-001 -5.412155e+000 84 65 63
-1.892646e+000 -3.036714e-001 -5.709446e+000 197 171 130
-1.942977e+000 -3.851231e-001 -5.712737e+000 225 196 154
-1.954969e+000 -3.973125e-001 -5.690358e+000 134 112 68
2.647713e+000 -9.002103e-001 -5.334396e+000 155 130 104
1.805755e+000 -1.075659e+000 -5.634472e+000 106 110 91
1.730116e+000 -1.189121e+000 -5.799506e+000 122 124 108
1.721331e+000 -1.258023e+000 -5.807037e+000 86 93 77
1.737779e+000 -1.314824e+000 -5.706632e+000 178 196 177
-6.167798e-001 -3.608577e-002 -5.523621e+000 157 150 133
-8.815653e-001 -1.271710e-001 -5.525325e+000 203 189 168
-8.758616e-001 -1.259499e-001 -5.515258e+000 203 189 168
-8.033094e-001 -9.726841e-002 -5.495623e+000 190 166 140
-1.593495e+000 -3.258077e-001 -5.466614e+000 181 101 66
-1.317988e+000 -2.465654e-001 -5.661335e+000 150 111 85
-1.419037e+000 -3.329755e-001 -5.551756e+000 128 90 75
-1.181309e+000 -3.011147e-001 -5.686090e+000 166 109 79
-1.281094e+000 -3.028535e-001 -5.598392e+000 66 40 33
-1.678905e+000 -4.804327e-001 -5.483875e+000 164 80 55
3.028049e+000 -5.451283e-001 -5.515270e+000 78 61 57
-1.654922e+000 -6.189167e-001 -5.462915e+000 204 109 67
-1.324328e+000 -5.741992e-001 -5.464283e+000 216 179 134
-1.461288e+000 -6.952511e-001 -5.482532e+000 116 42 22
-1.606696e+000 -8.675338e-001 -5.561726e+000 84 36 25
1.197346e+000 -9.737429e-001 -5.995250e+000 202 147 103
1.858915e+000 -1.189212e+000 -5.395264e+000 178 113 45
1.873619e+000 -1.129324e+000 -5.380154e+000 200 145 82
1.586386e+000 -1.533055e+000 -6.127488e+000 176 83 58
2.091772e+000 9.218581e-001 -5.141297e+000 111 41 45
2.091653e+000 9.217406e-001 -5.140528e+000 111 41 45
-1.507175e-001 1.182112e-001 -6.242961e+000 226 223 211
1.977290e+000 -5.339667e-002 -5.300408e+000 144 51 51
1.272762e+000 -5.233170e-001 -4.465170e+000 76 57 33
-1.621505e+000 -5.805210e-001 -5.455786e+000 169 83 50
8.875866e-001 -9.421687e-001 -6.132550e+000 202 188 179
2.564970e+000 -8.567272e-001 -5.327145e+000 69 30 24
1.930414e+000 1.485524e+000 -5.083315e+000 172 97 90
1.387147e+000 1.491541e+000 -5.610626e+000 193 178 130
2.938815e+000 6.807870e-001 -5.420205e+000 170 152 141
3.115810e+000 7.320332e-001 -5.595468e+000 179 163 154
2.973743e+000 5.518265e-001 -5.441979e+000 153 139 126
1.890776e-001 -3.216399e-002 -5.758985e+000 225 219 211
2.959054e+000 -5.192194e-001 -5.458319e+000 64 50 45
2.959054e+000 -5.192194e-001 -5.458319e+000 64 50 45
1.063882e+000 -7.785063e-001 -6.114860e+000 94 42 30
1.679910e+000 -1.330230e+000 -5.875231e+000 206 188 188
1.596480e+000 1.655915e+000 -5.642010e+000 223 214 199
1.231281e+000 1.126735e+000 -6.146467e+000 241 235 226
-5.063087e-001 -5.937442e-002 -5.515961e+000 176 173 153
1.982614e+000 -8.842734e-002 -5.283252e+000 142 50 60
-8.888382e-001 -1.566830e-001 -5.521592e+000 73 71 83
2.756518e+000 -2.460243e-001 -5.269127e+000 70 30 30
-1.884754e+000 -4.298946e-001 -5.602806e+000 70 31 30
8.156516e-001 -9.987202e-001 -6.054438e+000 177 73 76
1.263088e+000 1.940550e+000 -6.431637e+000 211 203 193
1.447302e+000 1.651015e+000 -5.683523e+000 241 229 181
2.147172e+000 1.254773e+000 -4.888600e+000 181 158 145
1.669181e+000 1.017180e+000 -5.281221e+000 171 147 131
2.034670e+000 -7.234367e-002 -5.183812e+000 223 213 212
-1.330999e-002 -3.422883e-001 -5.753497e+000 102 86 73
-1.113002e+000 -3.826051e-001 -5.788874e+000 104 37 27
2.629497e+000 -5.370657e-001 -5.240155e+000 76 54 32
2.534497e-001 1.027446e+000 -9.265270e+000 240 235 231
1.783700e-001 3.337810e-001 -6.397194e+000 198 193 184
2.022618e+000 -1.045747e-002 -5.199931e+000 153 61 59
1.785856e-001 -4.728585e-004 -5.786986e+000 221 217 208
-7.471168e-001 -2.439616e-001 -5.507527e+000 193 137 102
-1.110563e+000 -4.511646e-001 -5.477155e+000 176 134 94
-1.508448e+000 -5.444782e-001 -5.450849e+000 111 46 28
6.397883e-001 1.664619e+000 -8.605670e+000 245 243 233
6.705971e-001 -5.729600e-001 -5.880865e+000 218 217 207
-1.389655e+000 -5.313526e-001 -5.501349e+000 58 48 46
1.542958e+000 -1.397002e+000 -5.910607e+000 114 42 33
1.619971e+000 -1.326525e+000 -5.905077e+000 95 36 28
1.963523e+000 1.516232e-001 -5.274124e+000 90 54 52
-3.909096e-004 -1.170140e-001 -5.711816e+000 186 179 171
1.568713e+000 1.466543e+000 -5.548484e+000 242 235 225
2.204484e+000 7.193241e-001 -5.104357e+000 195 113 57
-1.685757e+000 -5.858885e-001 -5.473699e+000 232 136 92
-1.095177e+000 -3.061471e-001 -5.858051e+000 136 64 44
2.234007e+000 9.662345e-001 -5.058514e+000 209 138 89
2.245596e-001 -5.714344e-001 -5.989857e+000 53 42 40
2.223157e-001 -5.709224e-001 -5.984254e+000 53 42 40
1.436550e+000 1.678868e+000 -5.572857e+000 161 149 109
1.024232e+000 7.487899e-001 -6.407336e+000 224 220 207
3.197641e+000 6.069315e-001 -5.576173e+000 178 158 149
9.294884e-002 2.083132e-001 -6.141947e+000 211 207 198
-8.773146e-001 -1.101667e-001 -5.529160e+000 89 73 70
3.036508e+000 -2.330921e-001 -5.448314e+000 86 72 67
3.076898e+000 -1.771995e-001 -5.452361e+000 61 46 40
-1.939731e+000 -4.114339e-001 -5.715286e+000 185 158 122
3.027459e+000 -3.433324e-001 -5.456493e+000 75 61 57
2.945699e+000 -4.212796e-001 -5.428851e+000 84 66 57
3.293454e+000 -4.550909e-001 -5.649732e+000 76 58 60
-1.955825e+000 -4.999585e-001 -5.685916e+000 88 55 35
-1.973086e-001 -4.675919e-001 -5.368550e+000 147 135 120
1.338844e+000 -5.376134e-001 -6.018601e+000 94 67 39
1.923801e+000 -6.013761e-001 -5.380622e+000 112 51 50
1.915996e+000 -6.479444e-001 -5.426529e+000 115 54 53
2.511365e+000 -7.225793e-001 -5.239394e+000 84 45 45
2.878123e+000 -6.921152e-001 -5.460803e+000 57 38 32
1.751786e+000 -1.155349e+000 -5.733440e+000 78 91 64
6.591199e-001 -2.394384e+000 -8.139463e+000 197 122 67
7.007032e-001 -2.327996e+000 -8.077683e+000 200 132 82
3.551305e+000 1.191428e+000 -6.119323e+000 174 149 140
3.172867e+000 6.774440e-001 -5.595926e+000 174 155 146
1.106472e-001 2.247883e-001 -6.193151e+000 207 202 193
2.019937e+000 9.008565e-002 -5.244041e+000 195 89 73
2.069354e+000 5.659622e-002 -5.115266e+000 185 140 70
-5.602674e-001 -9.672116e-002 -5.484982e+000 169 161 150
1.476462e-001 -8.341314e-002 -5.720256e+000 189 182 173
2.063757e+000 -4.912657e-002 -5.041932e+000 212 166 87
-9.380837e-002 -1.781557e-001 -5.552235e+000 170 158 145
3.209345e+000 -2.780195e-001 -5.567154e+000 97 70 66
-2.888117e-001 -3.680249e-001 -5.368294e+000 194 185 176
1.127278e-001 -4.696858e-001 -5.932315e+000 88 77 59
3.015065e+000 -4.387646e-001 -5.474133e+000 69 40 33
1.912791e+000 -5.194772e-001 -5.448252e+000 118 90 79
1.926204e+000 -5.850410e-001 -5.387202e+000 130 104 91
-1.608759e+000 -6.252550e-001 -5.450715e+000 172 83 49
-1.112717e+000 -7.746690e-001 -5.704116e+000 162 77 49
1.900964e+000 -6.151265e-001 -5.462803e+000 121 91 83
1.900964e+000 -6.151265e-001 -5.462803e+000 121 91 83
1.888523e+000 -6.463127e-001 -5.450461e+000 133 99 96
1.888523e+000 -6.463127e-001 -5.450461e+000 133 99 96
1.936046e+000 -6.116133e-001 -5.351566e+000 101 44 42
1.937361e+000 -6.681487e-001 -5.343841e+000 108 46 43
1.783631e+000 -9.999045e-001 -5.698591e+000 86 90 69
1.743147e+000 -1.184284e+000 -5.787222e+000 72 85 61
3.433358e+000 1.222865e+000 -6.074158e+000 180 157 149
2.164137e+000 8.482972e-001 -4.872112e+000 210 139 89
1.107228e+000 7.911849e-001 -6.139133e+000 217 212 201
2.111102e+000 6.881573e-001 -5.072761e+000 214 151 54
3.142406e+000 8.652584e-001 -5.668682e+000 156 140 132
-6.911489e-001 -9.657506e-002 -5.429966e+000 191 183 168
2.058435e+000 -1.325510e-001 -5.087511e+000 181 136 74
3.040994e+000 -2.900467e-001 -5.467521e+000 79 63 59
3.040994e+000 -2.900467e-001 -5.467521e+000 79 63 59
-1.598174e+000 -3.942818e-001 -5.472636e+000 154 80 62
8.229835e-002 -3.737684e-001 -5.797174e+000 57 45 33
1.270808e-001 -3.141561e-001 -5.780530e+000 120 107 97
1.087925e+000 -3.635520e-001 -5.755570e+000 189 176 162
-1.693280e+000 -5.128913e-001 -5.477311e+000 172 78 50
3.339376e+000 -9.454048e-001 -5.876491e+000 56 34 20
1.722000e+000 -1.277610e+000 -5.794495e+000 198 196 184
1.722000e+000 -1.277610e+000 -5.794495e+000 198 196 184
1.848006e+000 -1.248746e+000 -5.432074e+000 220 172 81
2.100671e+000 6.327109e-001 -4.996910e+000 186 106 48
6.592445e-001 5.633843e-001 -6.489631e+000 201 197 186
6.984046e-001 5.052820e-001 -6.421552e+000 205 203 192
5.955306e-001 2.988114e-001 -5.724227e+000 240 237 228
2.011246e+000 1.212052e-001 -5.295193e+000 101 71 54
-3.865650e-001 -3.681353e-002 -5.595143e+000 154 147 131
-1.373060e+000 -2.576161e-001 -5.639134e+000 134 94 72
3.114023e+000 -1.780431e-001 -5.479881e+000 94 70 61
-1.628492e+000 -3.146886e-001 -5.496974e+000 166 79 50
3.112527e+000 -5.748937e-001 -5.563837e+000 57 34 27
-1.655878e+000 -7.871727e-001 -5.543917e+000 75 24 26
-1.455001e+000 -7.800387e-001 -5.544359e+000 129 56 38
1.860158e+000 -1.142476e+000 -5.414203e+000 219 168 86
6.338639e-001 -2.269696e+000 -8.225313e+000 209 150 121
6.338639e-001 -2.269696e+000 -8.225313e+000 209 150 121
1.022888e+000 2.284010e+000 -7.378729e+000 222 215 205
3.001416e+000 9.731245e-001 -5.604326e+000 133 117 117
1.046822e+000 3.481028e-001 -5.562617e+000 214 210 198
3.048150e+000 3.453461e-001 -5.439684e+000 152 132 125
2.995408e+000 -2.273613e-001 -5.418748e+000 84 60 58
9.074891e-001 -6.470531e-001 -6.065984e+000 162 118 90
4.059218e-001 -2.228778e+000 -8.352746e+000 205 74 79
4.103715e-001 -2.247364e+000 -8.415955e+000 205 74 79
5.063520e-001 -2.398332e+000 -8.435700e+000 185 102 50
6.104418e-001 -2.310549e+000 -8.165644e+000 194 104 54
3.017695e+000 4.101101e-001 -5.438012e+000 120 105 100
1.146846e-001 9.665878e-002 -6.055744e+000 176 170 157
1.146846e-001 9.665878e-002 -6.055744e+000 176 170 157
2.726277e+000 -3.826891e-001 -5.266962e+000 71 35 28
-1.476114e+000 -5.316335e-001 -5.486478e+000 110 47 32
-1.414755e+000 -6.948923e-001 -5.493185e+000 113 46 32
8.849037e-001 -6.811499e-001 -6.154410e+000 160 142 129
1.748940e+000 -1.236883e+000 -5.709927e+000 79 97 71
4.597099e-001 -2.482464e+000 -8.513409e+000 186 104 57
1.697428e+000 1.708394e+000 -5.561587e+000 211 202 186
-7.110669e-001 -1.247427e-002 -5.576207e+000 181 167 156
-7.169237e-001 -1.455470e-002 -5.599825e+000 181 167 156
3.000889e+000 -3.747426e-001 -5.442966e+000 49 33 33
3.000282e+000 -3.751735e-001 -5.441388e+000 49 33 33
1.369052e+000 -9.532472e-001 -5.985572e+000 220 164 123
1.369052e+000 -9.532472e-001 -5.985572e+000 220 164 123
4.604836e-001 5.228493e-001 -6.627159e+000 233 232 222
-7.590115e-001 -4.201253e-001 -5.590630e+000 191 102 62
2.186734e-001 -2.119849e+000 -8.251110e+000 233 223 213
1.880457e+000 1.352559e+000 -5.054242e+000 153 71 66
3.460962e-001 2.067157e+000 -8.815775e+000 205 214 205
1.955547e+000 9.728700e-001 -5.188081e+000 184 70 70
2.287046e-001 1.229932e+000 -9.325007e+000 219 97 96
1.324358e+000 -1.059282e+000 -5.988117e+000 113 37 38
1.391081e+000 1.478495e+000 -5.543748e+000 216 207 147
1.397847e+000 1.297120e+000 -5.607021e+000 183 170 119
1.405984e+000 1.323062e+000 -5.573309e+000 118 103 72
1.354156e+000 1.179217e+000 -5.555053e+000 195 184 136
1.270332e+000 7.663753e-001 -5.606440e+000 240 234 220
4.557422e-001 6.633862e-001 -6.606426e+000 213 213 205
2.185485e+000 5.002840e-001 -4.752105e+000 203 130 84
3.080764e+000 5.699575e-001 -5.493589e+000 173 158 153
3.007756e+000 4.738848e-001 -5.454245e+000 138 116 104
9.255946e-002 2.312887e-001 -6.141349e+000 219 217 205
1.272673e+000 1.827929e-001 -5.460373e+000 230 225 219
2.024658e+000 2.218230e-001 -5.299256e+000 110 77 62
2.024658e+000 2.218230e-001 -5.299256e+000 110 77 62
-5.511621e-001 1.091872e-001 -6.026517e+000 199 161 147
-1.069792e-001 1.038084e-001 -6.165165e+000 213 212 200
-1.428986e+000 -6.909644e-002 -5.596621e+000 194 195 189
-1.753708e+000 -2.141306e-001 -5.609299e+000 107 58 55
-1.565079e+000 -2.881968e-001 -5.524306e+000 162 85 58
-6.460897e-001 -2.617473e-001 -5.544115e+000 181 99 70
-4.873894e-001 -1.510295e-001 -5.385688e+000 206 198 187
2.810713e+000 -1.737776e-001 -5.282801e+000 112 87 65
3.009253e+000 -1.448467e-001 -5.402757e+000 93 71 73
2.958874e+000 -2.234644e-001 -5.389833e+000 71 51 43
3.093899e+000 -1.654971e-001 -5.484205e+000 94 71 68
3.095177e+000 -2.499760e-001 -5.485577e+000 89 64 60
-1.974826e+000 -3.181812e-001 -5.736915e+000 161 144 114
-1.948396e+000 -3.211489e-001 -5.704633e+000 204 177 125
-1.734902e+000 -4.090986e-001 -5.508509e+000 216 125 76
-1.423077e+000 -3.529329e-001 -5.540387e+000 120 66 45
-1.371769e+000 -3.211136e-001 -5.601308e+000 89 70 66
-1.329990e+000 -3.312784e-001 -5.575062e+000 152 145 143
-1.040011e+000 -3.580809e-001 -5.620169e+000 179 105 78
-5.420033e-001 -3.454504e-001 -5.447619e+000 214 88 86
-5.420033e-001 -3.454504e-001 -5.447619e+000 214 88 86
-4.943640e-001 -4.209574e-001 -5.403843e+000 184 84 66
9.490464e-001 -4.551617e-001 -5.855672e+000 179 77 62
-1.679306e+000 -4.995702e-001 -5.481061e+000 191 106 78
-1.679306e+000 -4.995702e-001 -5.481061e+000 191 106 78
-1.419254e+000 -4.998026e-001 -5.517061e+000 85 48 29
-1.330079e+000 -5.948410e-001 -5.498208e+000 154 100 62
-1.173639e+000 -6.185334e-001 -5.526239e+000 132 63 33
-2.980207e-002 -4.788465e-001 -5.877800e+000 104 83 68
9.911698e-002 -4.945764e-001 -5.932225e+000 71 57 44
1.828300e+000 -5.242503e-001 -5.584501e+000 80 36 32
1.867444e+000 -5.374645e-001 -5.594940e+000 82 39 32
1.905802e+000 -5.102805e-001 -5.461584e+000 101 49 47
2.785070e+000 -5.991601e-001 -5.363852e+000 84 59 39
2.992920e+000 -5.293973e-001 -5.473909e+000 43 29 27
2.976923e+000 -5.335031e-001 -5.478679e+000 72 58 55
-1.580014e+000 -6.899477e-001 -5.468721e+000 171 86 51
-3.168044e-001 -7.176437e-001 -5.635865e+000 165 111 77
-1.782840e-002 -6.565700e-001 -5.949827e+000 98 64 54
7.209970e-001 -6.865279e-001 -6.037212e+000 122 96 81
1.860135e+000 -6.386203e-001 -5.572885e+000 123 78 75
1.864435e+000 -6.242629e-001 -5.560533e+000 108 51 51
1.890977e+000 -6.431291e-001 -5.483215e+000 126 91 81
1.890977e+000 -6.431291e-001 -5.483215e+000 126 91 81
1.926711e+000 -6.757624e-001 -5.376505e+000 134 99 87
1.935956e+000 -6.530704e-001 -5.359410e+000 140 97 88
2.554188e+000 -6.467035e-001 -5.243042e+000 61 32 28
2.501775e+000 -7.200492e-001 -5.220952e+000 84 45 45
2.608268e+000 -7.182973e-001 -5.324997e+000 68 38 35
2.726350e+000 -6.035764e-001 -5.354492e+000 69 40 24
3.011024e+000 -6.741460e-001 -5.576129e+000 70 51 50
-1.025665e+000 -9.570228e-001 -5.800275e+000 205 115 73
-8.005682e-001 -9.726199e-001 -5.864482e+000 134 58 35
-5.541060e-001 -8.366081e-001 -5.693282e+000 232 190 141
1.841876e+000 -9.096171e-001 -5.573706e+000 153 88 40
2.970850e+000 -8.113052e-001 -5.595105e+000 61 35 31
2.970850e+000 -8.113052e-001 -5.595105e+000 61 35 31
-5.427901e-001 -1.074579e+000 -5.950337e+000 189 102 58
1.718425e+000 -1.117689e+000 -5.878946e+000 72 45 38
1.710931e+000 -1.141503e+000 -5.887267e+000 73 44 35
1.754584e+000 -1.061189e+000 -5.789275e+000 81 65 58
1.770573e+000 -1.059155e+000 -5.787147e+000 62 59 48
2.590030e+000 -1.014488e+000 -5.435856e+000 154 128 105
1.129777e+000 -1.236443e+000 -6.330991e+000 165 109 96
1.080727e+000 -1.318397e+000 -6.087085e+000 201 171 158
1.216716e+000 -1.307118e+000 -6.204667e+000 127 63 39
1.698759e+000 -1.229983e+000 -5.847812e+000 118 88 79
1.817292e+000 -1.113127e+000 -5.622132e+000 167 181 162
1.793794e+000 -1.147708e+000 -5.632021e+000 162 177 152
1.793710e+000 -1.147641e+000 -5.631019e+000 162 177 152
1.774719e+000 -1.217304e+000 -5.548868e+000 83 105 82
1.754271e+000 -1.259924e+000 -5.670302e+000 110 124 91
1.754096e+000 -1.260487e+000 -5.670182e+000 110 124 91
1.813801e+000 -1.310811e+000 -5.509622e+000 155 80 64
1.836945e+000 -1.298198e+000 -5.427234e+000 186 123 48
1.138922e+000 -1.637908e+000 -6.359123e+000 214 194 179
1.477806e+000 -1.592615e+000 -6.291739e+000 170 70 42
1.440118e+000 -1.665600e+000 -6.375986e+000 156 86 38
1.609445e+000 -1.645858e+000 -6.029953e+000 201 119 59
1.646799e+000 -1.584133e+000 -5.875294e+000 210 139 71
1.777143e+000 -1.479027e+000 -5.541281e+000 101 86 81
1.767869e+000 -1.543290e+000 -5.554381e+000 198 179 174
1.794258e+000 -1.416335e+000 -5.499466e+000 200 181 170
1.794487e+000 -1.415382e+000 -5.502674e+000 200 181 170
1.800969e+000 -1.431335e+000 -5.482728e+000 184 166 156
1.806275e+000 -1.420191e+000 -5.476668e+000 116 101 95
1.801194e+000 -1.462920e+000 -5.499414e+000 198 179 175
1.810918e+000 -1.451276e+000 -5.463642e+000 208 188 181
1.570719e+000 -1.721364e+000 -6.052619e+000 198 114 49
1.643304e+000 -1.775305e+000 -5.787435e+000 187 165 159
1.723029e+000 -1.672396e+000 -5.647946e+000 217 195 190
1.766222e+000 -1.594551e+000 -5.529548e+000 197 122 55
1.734280e+000 -1.632748e+000 -5.594608e+000 208 189 181
1.686604e+000 -1.722344e+000 -5.709993e+000 192 175 170
1.677659e+000 -1.747390e+000 -5.700272e+000 214 191 178
1.349038e+000 1.190222e+000 -5.605495e+000 184 171 125
1.859351e+000 1.146591e+000 -4.886827e+000 185 73 68
3.580054e+000 1.229242e+000 -6.188165e+000 146 122 110
3.610260e+000 1.176835e+000 -6.162152e+000 172 146 132
2.201645e+000 7.771708e-001 -4.853297e+000 205 121 73
2.167033e+000 7.137456e-001 -4.791565e+000 235 166 114
3.112505e+000 7.820756e-001 -5.595564e+000 163 138 131
2.197773e+000 4.407584e-001 -4.773639e+000 212 131 79
2.939754e+000 5.631763e-001 -5.398530e+000 151 135 128
3.171162e+000 4.867355e-001 -5.542623e+000 130 106 101
-7.799997e-001 1.248475e-001 -5.895740e+000 191 104 74
-7.743756e-001 1.492458e-001 -5.883728e+000 175 87 62
-7.341159e-001 1.591837e-001 -5.928256e+000 169 93 68
2.184378e+000 1.629092e-002 -4.777249e+000 245 204 159
-1.444696e+000 -5.572290e-002 -5.607429e+000 90 63 62
-1.444696e+000 -5.572290e-002 -5.607429e+000 90 63 62
-7.809630e-001 -7.263116e-002 -5.494606e+000 187 132 112
-2.997462e-001 -3.104560e-002 -5.599068e+000 154 143 135
7.088037e-002 1.450230e-002 -5.947370e+000 185 183 170
1.964389e+000 -3.052472e-002 -5.420088e+000 116 71 72
2.070127e+000 -8.409908e-002 -5.076648e+000 196 154 84
-1.983163e+000 -2.805835e-001 -5.747183e+000 217 193 124
-1.636722e+000 -1.872339e-001 -5.658412e+000 150 71 54
-1.018716e+000 -2.759608e-001 -5.823861e+000 171 86 51
1.893715e+000 -2.682532e-001 -5.450988e+000 92 62 56
1.992791e+000 -2.710824e-001 -5.270160e+000 141 54 59
2.061877e+000 -1.636769e-001 -5.101230e+000 172 135 84
2.161924e+000 -2.597941e-001 -5.438193e+000 141 110 77
3.103315e+000 -1.526240e-001 -5.475117e+000 77 46 41
-1.952287e+000 -3.972551e-001 -5.679005e+000 134 112 68
-5.796482e-001 -3.599881e-001 -5.454830e+000 186 105 77
-5.265633e-001 -4.010859e-001 -5.418760e+000 182 105 72
2.564280e-001 -4.269601e-001 -5.918792e+000 71 58 49
2.363406e-001 -4.558246e-001 -6.012461e+000 68 54 42
3.586744e-001 -4.751668e-001 -5.861791e+000 69 43 41
1.886586e+000 -4.510074e-001 -5.519186e+000 114 71 65
7.432310e-001 -6.235802e-001 -5.914781e+000 193 79 78
1.895869e+000 -4.927831e-001 -5.493705e+000 118 74 71
2.151215e+000 -4.282475e-001 -4.806827e+000 228 184 130
2.122883e+000 -4.836431e-001 -4.773528e+000 223 168 115
2.141735e+000 -4.424761e-001 -4.698443e+000 124 101 87
3.008401e+000 -4.599294e-001 -5.473919e+000 79 62 60
-1.635012e+000 -7.615292e-001 -5.509740e+000 191 108 78
-1.540972e+000 -7.611914e-001 -5.515899e+000 162 89 61
-1.460102e+000 -7.150626e-001 -5.495669e+000 142 70 48
-1.445036e+000 -7.089037e-001 -5.501697e+000 131 64 45
-1.325807e+000 -7.718132e-001 -5.624424e+000 135 79 47
-1.240059e+000 -6.281683e-001 -5.496490e+000 154 90 52
-1.129699e+000 -6.223510e-001 -5.501849e+000 154 83 49
7.049174e-001 -6.877546e-001 -6.063004e+000 191 174 158
1.023709e+000 -7.823935e-001 -6.132973e+000 120 74 51
1.877487e+000 -7.085732e-001 -5.504567e+000 113 59 29
2.602929e+000 -7.002011e-001 -5.298592e+000 83 51 51
2.695545e+000 -7.240033e-001 -5.364665e+000 66 32 21
2.745335e+000 -7.305276e-001 -5.408368e+000 72 43 29
2.983202e+000 -6.326998e-001 -5.530167e+000 63 38 36
-1.590846e+000 -8.821281e-001 -5.568619e+000 156 92 54
-1.125391e+000 -8.400126e-001 -5.728818e+000 157 73 43
-9.988161e-001 -8.609369e-001 -5.756847e+000 159 68 37
-7.560731e-001 -9.247496e-001 -5.801533e+000 166 82 53
8.237848e-001 -8.533363e-001 -5.947761e+000 190 81 76
1.245967e+000 -9.388205e-001 -6.027400e+000 208 151 104
1.591954e+000 -8.430032e-001 -5.730882e+000 112 73 55
1.819600e+000 -8.101642e-001 -5.669043e+000 119 76 70
1.819573e+000 -8.108021e-001 -5.667642e+000 119 76 70
2.556466e+000 -8.169743e-001 -5.290789e+000 87 59 54
2.575682e+000 -8.316622e-001 -5.306104e+000 72 35 26
2.645692e+000 -8.999720e-001 -5.333381e+000 155 130 104
2.787085e+000 -8.362987e-001 -5.493815e+000 125 103 86
2.695812e+000 -9.087529e-001 -5.363724e+000 145 121 95
1.805264e+000 -1.102305e+000 -5.656814e+000 185 193 169
2.720818e+000 -9.572602e-001 -5.395747e+000 85 62 43
1.202877e+000 -1.208098e+000 -6.126791e+000 242 201 150
1.281305e+000 -1.340074e+000 -6.167796e+000 227 162 133
1.742467e+000 -1.163215e+000 -5.763934e+000 128 141 115
1.787233e+000 -1.195069e+000 -5.624533e+000 108 123 95
1.728734e+000 -1.260438e+000 -5.826041e+000 86 93 77
1.777773e+000 -1.240548e+000 -5.640324e+000 189 198 189
1.805513e+000 -1.129861e+000 -5.585351e+000 181 197 172
1.812087e+000 -1.134686e+000 -5.606141e+000 181 197 172
1.849235e+000 -1.118891e+000 -5.362196e+000 215 161 85
1.508551e+000 -1.539764e+000 -6.155048e+000 163 70 39
1.751308e+000 -1.422675e+000 -5.632059e+000 177 86 72
1.118499e+000 -1.663181e+000 -6.184838e+000 203 183 166
1.442623e+000 -1.723626e+000 -6.336186e+000 208 133 74
1.442339e+000 -1.723204e+000 -6.335408e+000 208 133 74
1.484269e+000 -1.571765e+000 -6.213545e+000 170 72 36
1.743386e+000 -1.544171e+000 -5.755446e+000 167 83 60
1.785214e+000 -1.473722e+000 -5.505094e+000 212 192 194
1.566055e+000 -1.813221e+000 -6.002739e+000 206 135 61
1.652299e+000 -1.657204e+000 -5.821375e+000 227 174 87
1.609261e+000 -1.773194e+000 -5.972334e+000 205 124 60
1.764159e+000 -1.595704e+000 -5.599283e+000 121 73 65
-7.607147e-001 1.652396e-001 -5.950350e+000 170 82 58
-7.499472e-001 1.350257e-001 -5.831990e+000 183 102 74
1.999307e+000 1.696887e-001 -5.285400e+000 123 100 89
2.183169e+000 1.363257e-001 -4.774798e+000 243 201 152
2.183169e+000 1.363257e-001 -4.774798e+000 243 201 152
-8.676470e-001 -8.763809e-002 -5.565123e+000 74 56 55
-8.644763e-001 -8.820117e-002 -5.532677e+000 74 56 55
3.278884e-001 -1.359533e-001 -5.706266e+000 198 193 182
-1.748781e+000 -1.979921e-001 -5.650377e+000 107 63 60
-1.737199e+000 -1.992701e-001 -5.607047e+000 107 63 60
-1.567788e+000 -3.000584e-001 -5.503052e+000 172 93 62
-1.372494e+000 -2.349315e-001 -5.652591e+000 98 46 34
-1.389544e-001 -2.545069e-001 -5.556445e+000 126 114 98
-1.996379e+000 -3.392224e-001 -5.734261e+000 104 84 76
-1.982281e+000 -4.483616e-001 -5.707921e+000 225 202 141
-1.843634e+000 -3.706270e-001 -5.582533e+000 83 38 32
-5.874056e-001 -3.242584e-001 -5.473744e+000 222 157 124
-1.681541e+000 -4.807108e-001 -5.492064e+000 164 80 55
7.761681e-001 -5.838170e-001 -5.820306e+000 188 73 73
1.250993e+000 -5.237897e-001 -4.457257e+000 143 129 100
1.842984e+000 -5.906292e-001 -5.691444e+000 74 33 31
1.897405e+000 -4.968472e-001 -5.489193e+000 114 74 67
1.857943e+000 -6.117448e-001 -5.589293e+000 117 71 66
1.878593e+000 -5.382203e-001 -5.512914e+000 117 79 79
2.938479e+000 -4.829671e-001 -5.445830e+000 45 29 30
2.910792e+000 -5.738157e-001 -5.499586e+000 42 31 28
-1.666893e+000 -6.886511e-001 -5.551241e+000 188 90 53
-1.643936e+000 -7.351896e-001 -5.461648e+000 194 104 69
-1.590686e+000 -7.298064e-001 -5.484738e+000 188 100 65
-1.163890e+000 -6.314456e-001 -5.520193e+000 158 82 48
-1.163890e+000 -6.314456e-001 -5.520193e+000 158 82 48
-1.122183e+000 -7.747529e-001 -5.686724e+000 156 76 48
-1.105097e+000 -7.954275e-001 -5.717337e+000 144 58 31
-2.543910e-001 -6.275971e-001 -5.394260e+000 175 175 154
1.122459e+000 -7.498389e-001 -6.040856e+000 193 138 92
1.463020e+000 -7.503416e-001 -6.164560e+000 127 103 75
1.886081e+000 -6.275445e-001 -5.509226e+000 125 91 79
2.667979e+000 -7.147501e-001 -5.343663e+000 85 55 36
2.898748e+000 -7.117279e-001 -5.498653e+000 45 27 20
3.003455e+000 -6.628470e-001 -5.533707e+000 50 32 28
3.002234e+000 -6.624979e-001 -5.531681e+000 50 32 28
2.969760e+000 -7.171213e-001 -5.499144e+000 47 27 27
2.969760e+000 -7.171213e-001 -5.499144e+000 47 27 27
-9.142270e-001 -8.822070e-001 -5.780829e+000 135 52 31
-9.292342e-001 -1.134342e+000 -5.895967e+000 213 197 193
2.722520e+000 -9.382128e-001 -5.396129e+000 117 94 77
1.706506e+000 -1.172258e+000 -5.903363e+000 69 41 37
1.803690e+000 -1.127258e+000 -5.632976e+000 89 105 82
1.826832e+000 -1.126675e+000 -5.569323e+000 84 100 72
1.848470e+000 -1.213847e+000 -5.447920e+000 189 115 56
3.600541e+000 -1.358643e+000 -6.322244e+000 88 61 52
1.580803e+000 -1.528688e+000 -6.107798e+000 176 83 58
1.730027e+000 -1.385038e+000 -5.681670e+000 213 208 199
1.753082e+000 -1.366250e+000 -5.621751e+000 214 205 208
1.783869e+000 -1.381383e+000 -5.565040e+000 160 75 56
1.831858e+000 -1.318046e+000 -5.460929e+000 208 149 74
1.808746e+000 -1.353423e+000 -5.484089e+000 182 108 47
1.398008e+000 -1.774168e+000 -6.427338e+000 120 54 37
1.478546e+000 -1.719340e+000 -6.245820e+000 168 72 41
1.594583e+000 -1.537580e+000 -6.054762e+000 165 72 39
1.488940e+000 -1.738813e+000 -6.209800e+000 196 96 51
1.487950e+000 -1.739505e+000 -6.207385e+000 196 96 51
1.578426e+000 -1.660515e+000 -6.046069e+000 178 86 45
1.614480e+000 -1.549910e+000 -5.996226e+000 194 112 56
1.622391e+000 -1.556321e+000 -6.028818e+000 194 112 56
1.610959e+000 -1.596680e+000 -6.006091e+000 220 145 78
1.685126e+000 -1.534620e+000 -5.791557e+000 174 93 49
1.707718e+000 -1.472039e+000 -5.734420e+000 186 101 69
1.739576e+000 -1.452837e+000 -5.655849e+000 191 111 62
1.713624e+000 -1.573989e+000 -5.678753e+000 225 185 95
8.047881e-001 -2.141939e+000 -7.792815e+000 194 119 62
1.532280e+000 -1.817797e+000 -6.083528e+000 229 159 80
1.631913e+000 -1.808319e+000 -5.930848e+000 170 82 56
1.692805e+000 -1.778520e+000 -5.740594e+000 171 79 61
5.063533e-001 2.006429e+000 -8.781859e+000 215 147 114
1.083451e+000 8.135584e-001 -6.183462e+000 220 216 204
3.143371e+000 7.541435e-001 -5.590717e+000 141 116 110
5.435920e-001 7.152755e-001 -6.776351e+000 237 234 223
3.029878e+000 6.043946e-001 -5.425878e+000 163 144 139
3.029878e+000 6.043946e-001 -5.425878e+000 163 144 139
2.061063e+000 3.009170e-001 -5.172725e+000 136 103 86
2.981478e+000 2.653295e-001 -5.391571e+000 158 141 134
1.362201e+000 6.418518e-002 -5.402773e+000 205 201 188
-1.454675e+000 -1.275531e-001 -5.640998e+000 196 190 190
-5.872105e-001 -6.961449e-002 -5.486586e+000 162 153 138
2.067894e+000 -1.401786e-002 -5.098197e+000 233 220 220
-1.311551e+000 -2.262015e-001 -5.664413e+000 106 40 30
-9.414128e-001 -1.739392e-001 -5.673871e+000 227 200 157
-6.597251e-001 -2.345517e-001 -5.519587e+000 215 150 116
-2.122628e-001 -1.639786e-001 -5.501910e+000 155 145 135
-4.162429e-002 -2.288548e-001 -5.588355e+000 171 160 156
1.672989e+000 -2.648625e-001 -5.441115e+000 182 61 63
2.730891e+000 -2.767584e-001 -5.270144e+000 84 58 37
-1.147823e+000 -3.138979e-001 -5.734671e+000 133 51 37
-1.081825e+000 -4.471249e-001 -5.675274e+000 122 62 39
-6.193018e-001 -3.826383e-001 -5.480307e+000 216 130 83
-5.891987e-001 -3.228051e-001 -5.468878e+000 219 156 123
2.987311e+000 -4.209838e-001 -5.458668e+000 76 58 52
4.783169e-002 -6.417497e-001 -6.062701e+000 53 38 30
1.888870e+000 -5.957392e-001 -5.491522e+000 113 42 42
1.889846e+000 -5.955460e-001 -5.496064e+000 113 42 42
1.915252e+000 -5.783049e-001 -5.410626e+000 127 98 87
1.067510e+000 -7.815209e-001 -6.129223e+000 94 42 30
1.271690e+000 -7.593272e-001 -6.041771e+000 100 44 28
1.272316e+000 -7.592528e-001 -6.043926e+000 100 44 28
1.855434e+000 -6.885245e-001 -5.590328e+000 97 48 31
2.520683e+000 -6.988529e-001 -5.239993e+000 82 61 57
2.513697e+000 -6.973507e-001 -5.227532e+000 82 61 57
3.248210e+000 -6.889677e-001 -5.708582e+000 85 58 47
-6.515333e-001 -8.511079e-001 -5.844768e+000 219 168 123
1.823131e+000 -8.536241e-001 -5.636805e+000 113 53 31
2.848506e+000 -8.360128e-001 -5.561533e+000 51 31 29
-6.857880e-001 -1.098620e+000 -5.952585e+000 121 51 37
8.849611e-001 -1.444681e+000 -7.078448e+000 217 209 201
1.666236e+000 -1.275873e+000 -5.909484e+000 120 88 79
1.728608e+000 -1.141773e+000 -5.783058e+000 71 57 46
1.743472e+000 -1.198965e+000 -5.745649e+000 73 89 60
1.774797e+000 -1.126979e+000 -5.693238e+000 70 84 60
1.785749e+000 -1.168839e+000 -5.649656e+000 82 100 71
1.736989e+000 -1.368784e+000 -5.701919e+000 215 209 203
1.774909e+000 -1.416299e+000 -5.563940e+000 207 143 64
5.804220e-001 -2.227072e+000 -8.233356e+000 207 127 101
1.134582e+000 -1.655161e+000 -6.162687e+000 201 170 155
1.413203e+000 -1.632109e+000 -6.356003e+000 118 42 34
1.574850e+000 -1.568668e+000 -6.088160e+000 204 124 65
1.573450e+000 -1.566636e+000 -6.080149e+000 204 124 65
1.658506e+000 -1.514957e+000 -5.879692e+000 169 85 53
1.652684e+000 -1.612869e+000 -5.845083e+000 196 83 50
1.729527e+000 -1.480777e+000 -5.677121e+000 181 98 63
1.726321e+000 -1.529917e+000 -5.637124e+000 212 155 74
1.728563e+000 -1.530724e+000 -5.637615e+000 212 155 74
1.800887e+000 -1.511660e+000 -5.464064e+000 189 112 53
1.552813e+000 -1.766682e+000 -6.054600e+000 226 151 79
1.515454e+000 -1.833555e+000 -6.114385e+000 186 98 53
1.751581e+000 -1.600422e+000 -5.555775e+000 114 65 56
1.752497e+000 -1.599319e+000 -5.557465e+000 114 65 56
1.753061e+000 -1.627681e+000 -5.573028e+000 138 74 57
1.330315e+000 1.343883e+000 -5.588593e+000 201 189 145
4.279008e+000 1.857609e+000 -7.473937e+000 139 119 107
1.248155e+000 1.226745e+000 -6.197208e+000 242 235 223
2.995080e+000 8.653592e-001 -5.543187e+000 128 113 110
2.991281e+000 7.867531e-001 -5.512170e+000 123 105 103
2.925589e+000 6.774504e-001 -5.400495e+000 170 152 141
2.930243e+000 6.660912e-001 -5.460675e+000 145 122 90
3.093048e+000 6.321032e-001 -5.490890e+000 147 128 121
3.164215e+000 5.169389e-001 -5.558301e+000 167 150 143
2.242142e-002 3.209788e-001 -6.297985e+000 223 215 212
1.035322e-001 3.439193e-001 -6.353157e+000 204 195 189
2.008163e+000 2.331102e-001 -5.278873e+000 102 65 48
1.991116e+000 1.829472e-001 -5.220506e+000 129 99 90
2.060327e+000 1.855546e-001 -5.187035e+000 213 193 185
-1.385330e+000 -1.114918e-001 -5.589033e+000 75 46 40
1.937381e+000 -1.228441e-001 -5.419366e+000 84 35 38
2.045022e+000 -3.165049e-002 -5.143747e+000 226 214 214
-1.540034e+000 -2.544201e-001 -5.518912e+000 164 89 63
-1.000098e+000 -3.081086e-001 -5.748569e+000 135 56 31
-1.777756e-001 -1.830046e-001 -5.519253e+000 203 201 188
-1.269904e-001 -2.920677e-001 -5.511648e+000 158 144 133
2.123574e+000 -1.798333e-001 -5.052728e+000 196 128 81
-1.871398e+000 -3.136902e-001 -5.619478e+000 216 188 145
-1.106342e+000 -3.374759e-001 -5.653399e+000 122 49 34
1.097342e-001 -3.503823e-001 -5.811291e+000 121 107 94
1.928329e-001 -4.432491e-001 -5.980508e+000 94 78 55
3.368000e-001 -4.450028e-001 -5.829559e+000 187 184 173
1.659678e+000 -3.495427e-001 -5.473577e+000 129 64 55
1.857285e+000 -4.073499e-001 -5.496045e+000 84 44 36
2.150956e+000 -3.466388e-001 -5.053897e+000 210 130 62
2.936136e+000 -4.439865e-001 -5.404823e+000 47 32 35
-4.662252e-001 -4.729492e-001 -5.417743e+000 241 196 155
1.633868e-001 -5.068316e-001 -6.005812e+000 93 75 58
5.573614e-001 -5.577222e-001 -6.013408e+000 201 197 188
-1.599763e+000 -6.368742e-001 -5.467809e+000 170 79 48
-8.066889e-001 -6.824201e-001 -5.766014e+000 160 105 76
2.610030e+000 -6.607862e-001 -5.279546e+000 72 30 31
2.936729e+000 -6.125706e-001 -5.485305e+000 74 51 48
2.911066e+000 -6.549017e-001 -5.476654e+000 44 28 24
-1.682650e+000 -8.162505e-001 -5.532727e+000 106 55 51
1.587922e+000 -8.265430e-001 -5.788967e+000 106 67 49
2.553373e+000 -7.993366e-001 -5.364014e+000 85 61 58
8.943142e-001 -1.304623e+000 -6.824600e+000 202 192 178
1.720216e+000 -1.083055e+000 -5.839256e+000 57 37 30
1.611857e+000 -1.179830e+000 -5.760775e+000 210 74 63
1.805168e+000 -1.217084e+000 -5.584999e+000 114 140 110
2.768065e+000 -1.122394e+000 -5.618070e+000 54 35 31
1.547511e+000 -1.518285e+000 -6.115458e+000 132 48 34
1.776340e+000 -1.325571e+000 -5.594614e+000 212 208 198
1.722293e+000 -1.445730e+000 -5.699489e+000 150 60 52
1.845358e+000 -1.260282e+000 -5.421739e+000 217 170 72
1.558254e+000 -1.596065e+000 -6.131459e+000 159 69 51
1.566730e+000 -1.700378e+000 -6.107058e+000 225 157 76
1.591332e+000 -1.671397e+000 -5.979806e+000 221 146 63
1.642330e+000 -1.538712e+000 -5.902508e+000 226 159 83
1.677840e+000 -1.501700e+000 -5.801781e+000 219 160 71
1.677918e+000 -1.501970e+000 -5.804508e+000 219 160 71
1.708103e+000 -1.557737e+000 -5.785289e+000 226 174 87
8.948908e-001 -2.019561e+000 -7.282065e+000 211 157 87
1.529739e+000 -1.771974e+000 -6.096081e+000 182 87 48
1.598319e+000 -1.782501e+000 -6.030646e+000 233 175 87
1.453387e+000 1.734563e+000 -5.592183e+000 161 149 118
1.671246e+000 1.625268e+000 -5.490393e+000 238 230 219
9.908372e-001 1.582330e+000 -6.663025e+000 226 221 215
7.646165e-001 1.258893e+000 -6.611903e+000 221 216 210
1.231586e+000 6.619331e-001 -5.720676e+000 235 236 224
3.000171e+000 5.108191e-001 -5.438636e+000 108 90 84
2.710990e+000 3.326671e-001 -5.218589e+000 147 117 112
3.124256e+000 4.398107e-001 -5.535010e+000 158 139 134
7.722448e-002 2.739481e-001 -6.146374e+000 230 227 218
2.028921e+000 1.977871e-001 -5.210538e+000 139 65 55
1.977775e+000 8.074244e-002 -5.346308e+000 92 43 41
-5.055304e-001 -6.013357e-002 -5.515923e+000 176 173 153
-1.582377e-001 -8.984816e-002 -5.559461e+000 159 150 139
1.950937e+000 -1.222829e-002 -5.359698e+000 88 41 38
-1.761462e+000 -1.889527e-001 -5.579968e+000 67 32 30
-7.039001e-001 -2.537910e-001 -5.515255e+000 183 123 87
1.947593e+000 -1.550507e-001 -5.368710e+000 206 180 187
1.670327e-001 -3.757064e-001 -5.893023e+000 70 59 47
2.217566e+000 -3.688086e-001 -5.314119e+000 175 101 37
2.174088e+000 -3.442215e-001 -4.749899e+000 89 64 54
2.688045e+000 -3.433894e-001 -5.250197e+000 86 60 43
-8.627028e-001 -4.750308e-001 -5.615435e+000 159 90 57
2.715339e+000 -4.885685e-001 -5.297539e+000 71 30 31
2.724554e+000 -5.934290e-001 -5.368299e+000 70 31 24
-1.417957e+000 -6.941745e-001 -5.488409e+000 113 46 32
1.888135e+000 -6.849018e-001 -5.476447e+000 113 65 36
2.566130e+000 -6.793002e-001 -5.267165e+000 77 60 53
2.591973e+000 -6.824462e-001 -5.313475e+000 77 60 53
2.731003e+000 -6.709218e-001 -5.366355e+000 71 37 27
-1.561717e+000 -7.830109e-001 -5.512446e+000 107 38 23
-1.603966e+000 -8.220668e-001 -5.439302e+000 69 26 23
8.159442e-001 -9.987520e-001 -6.053555e+000 177 73 76
1.266934e+000 -8.613120e-001 -6.052096e+000 102 41 34
2.547096e+000 -8.250563e-001 -5.322408e+000 82 65 58
2.934508e+000 -8.054191e-001 -5.561189e+000 64 39 34
1.106873e+000 -1.161210e+000 -6.183455e+000 108 52 43
1.106873e+000 -1.161210e+000 -6.183455e+000 108 52 43
1.781096e+000 -1.044498e+000 -5.721069e+000 84 86 78
2.717298e+000 -1.058026e+000 -5.431566e+000 89 69 56
-1.002137e+000 -1.178821e+000 -5.902671e+000 218 212 209
-4.452086e-001 -1.181905e+000 -6.007417e+000 194 115 78
6.760326e-001 -1.518478e+000 -7.671320e+000 182 70 73
1.497892e+000 -1.427788e+000 -5.960589e+000 199 74 66
1.464232e+000 -1.644438e+000 -6.325190e+000 189 109 53
1.528556e+000 -1.578905e+000 -6.191171e+000 212 140 79
1.560032e+000 -1.634307e+000 -6.092138e+000 223 152 73
1.717887e+000 -1.515829e+000 -5.693213e+000 164 77 53
1.382187e+000 -1.857139e+000 -6.520998e+000 143 87 54
1.655268e+000 -1.682704e+000 -5.797187e+000 226 177 93
1.677268e+000 -1.732275e+000 -5.801098e+000 213 184 132
1.265798e+000 1.545072e+000 -6.225991e+000 240 237 232
1.266823e+000 1.436894e+000 -6.194834e+000 239 236 229
8.657331e-001 1.304873e+000 -6.496986e+000 218 214 205
4.125293e-001 1.282497e+000 -9.057555e+000 241 237 230
4.207960e-002 2.285118e-001 -6.149586e+000 202 198 189
1.929531e+000 -4.453731e-001 -5.398089e+000 110 69 60
2.654385e+000 -4.351632e-001 -5.241006e+000 81 58 37
5.588819e-001 -5.458787e-001 -6.019706e+000 206 202 193
2.750918e+000 -5.914875e-001 -5.304056e+000 82 58 38
3.005853e+000 -5.844866e-001 -5.519164e+000 43 29 28
-7.434561e-001 -6.816445e-001 -5.798692e+000 167 113 79
6.588788e-001 -6.548708e-001 -6.028874e+000 92 79 66
9.149109e-001 -7.535284e-001 -6.144915e+000 168 148 133
1.830156e+000 -6.414192e-001 -5.684790e+000 78 34 29
2.936807e+000 -7.517470e-001 -5.533717e+000 48 28 27
-7.193263e-001 -9.729281e-001 -5.836441e+000 83 29 33
1.497557e+000 -9.756215e-001 -6.078130e+000 146 44 42
2.470418e+000 -8.373315e-001 -5.274475e+000 74 40 38
6.391293e-001 -1.290237e+000 -7.056385e+000 116 48 45
2.671670e+000 -9.096932e-001 -5.337787e+000 142 118 92
-8.573507e-001 -1.202370e+000 -6.159420e+000 151 62 43
7.893700e-001 -1.328293e+000 -6.891779e+000 215 205 194
1.665815e+000 -1.229482e+000 -5.871178e+000 64 46 36
1.678825e+000 -1.236009e+000 -5.868925e+000 64 46 36
1.860687e+000 -1.206565e+000 -5.430475e+000 185 113 54
1.525192e+000 -1.639466e+000 -6.204088e+000 137 57 39
1.691306e+000 -1.586130e+000 -5.824204e+000 214 165 75
1.449859e+000 -1.764078e+000 -6.302262e+000 221 159 86
1.506595e+000 -1.770133e+000 -6.170130e+000 224 180 91
1.687330e+000 1.817325e+000 -5.753670e+000 225 218 203
2.190344e+000 8.990655e-001 -5.021978e+000 194 112 56
1.140560e+000 8.424770e-001 -6.159269e+000 238 235 227
1.373332e+000 4.242727e-001 -5.482115e+000 226 221 210
1.373332e+000 4.242727e-001 -5.482115e+000 226 221 210
5.426121e-001 2.420157e-001 -5.765843e+000 239 239 229
-1.255091e+000 -2.226334e-001 -5.709671e+000 115 55 43
1.912052e+000 -2.028709e-001 -5.433213e+000 112 42 45
3.016523e+000 -1.855993e-001 -5.424682e+000 54 35 39
2.448479e-001 -3.665096e-001 -5.849162e+000 184 177 169
2.295729e+000 -4.202043e-001 -4.993162e+000 77 51 39
-7.092751e-001 -5.750519e-001 -5.708249e+000 196 149 108
-1.769101e-001 -5.755896e-001 -5.416786e+000 125 107 93
1.221965e+000 -6.332966e-001 -5.979194e+000 87 59 46
1.854816e+000 -5.591840e-001 -5.625837e+000 83 38 35
2.887571e+000 -5.523937e-001 -5.420561e+000 46 30 30
-8.527777e-001 -6.509138e-001 -5.771042e+000 112 55 38
-7.405034e-001 -7.942006e-001 -5.704545e+000 120 55 40
2.159359e+000 -9.034659e-001 -5.540289e+000 176 109 33
1.447745e+000 -1.070353e+000 -6.010267e+000 201 55 50
