ply
format ascii 1.0
element face 0
property list uchar int vertex_indices
element vertex 888
property float x
property float y
property float z
property uchar diffuse_red
property uchar diffuse_green
property uchar diffuse_blue
end_header
1.099234e+000 -1.333460e+000 -7.525183e+000 177 133 92
1.105855e+000 -1.280375e+000 -7.476187e+000 123 78 41
3.363853e-002 -1.823317e+000 -7.950470e+000 118 114 118
1.479930e-001 -1.858435e+000 -7.900875e+000 58 36 26
9.876632e-001 -1.481862e+000 -7.520778e+000 201 163 115
1.217174e+000 -1.395419e+000 -7.438734e+000 196 163 122
9.977134e-001 2.792195e+000 -9.222991e+000 106 79 50
1.017028e+000 2.824775e+000 -9.252512e+000 153 129 93
4.043581e+000 3.360063e+000 -1.184926e+001 30 20 18
4.020788e+000 3.322907e+000 -1.145090e+001 38 21 21
9.229571e-001 2.615245e+000 -8.605188e+000 165 119 69
3.423301e+000 3.084712e+000 -1.138964e+001 74 60 57
4.145266e+000 3.178867e+000 -1.131790e+001 91 76 76
4.227119e+000 3.234245e+000 -1.133950e+001 52 34 32
5.193803e-001 2.391927e+000 -8.924420e+000 182 166 140
8.973523e-001 2.511999e+000 -8.567537e+000 63 30 15
8.973523e-001 2.511999e+000 -8.567537e+000 63 30 15
3.441303e+000 2.869422e+000 -1.141546e+001 27 16 21
3.754967e+000 2.939127e+000 -1.098401e+001 117 105 83
3.357813e+000 2.645510e+000 -1.123815e+001 55 46 44
4.001379e+000 2.710102e+000 -1.070039e+001 75 57 45
4.117493e+000 2.712851e+000 -1.073082e+001 92 73 67
-2.319694e-001 1.997358e+000 -1.019435e+001 60 32 18
-2.564041e-001 1.905349e+000 -1.020885e+001 71 39 14
-3.990480e-002 1.918435e+000 -1.021988e+001 53 35 11
7.313680e-001 2.154237e+000 -8.375941e+000 161 123 92
3.987024e+000 2.550099e+000 -1.049202e+001 47 33 26
4.319068e+000 2.643686e+000 -1.080488e+001 20 10 9
-3.641206e-001 1.764910e+000 -1.009474e+001 99 62 27
5.577902e-001 1.929192e+000 -9.022168e+000 64 48 34
8.640624e-001 2.109398e+000 -8.379418e+000 111 78 63
8.574806e-001 2.034921e+000 -8.350484e+000 144 109 89
3.545771e+000 2.287332e+000 -1.070194e+001 32 21 19
4.441551e+000 2.439543e+000 -1.046350e+001 35 21 20
4.537083e+000 2.567336e+000 -1.033159e+001 35 27 25
4.665343e+000 2.498451e+000 -1.021362e+001 79 60 58
-4.968110e-001 1.557468e+000 -1.014579e+001 76 41 13
-5.164190e-001 1.492272e+000 -1.009038e+001 113 78 51
-4.456638e-001 1.500193e+000 -9.970849e+000 142 103 66
5.422436e-001 1.904272e+000 -8.811529e+000 107 89 79
8.273472e-001 1.928560e+000 -8.477951e+000 160 126 96
1.024942e+000 1.970903e+000 -8.239761e+000 27 14 10
1.185855e+000 1.990768e+000 -8.284072e+000 37 25 18
4.151834e+000 2.255828e+000 -1.013953e+001 43 29 29
9.806841e-001 1.863392e+000 -8.247592e+000 154 137 108
9.792094e-001 1.864096e+000 -8.241773e+000 154 137 108
1.038022e+000 1.790079e+000 -8.226038e+000 145 127 105
1.866003e+000 1.950739e+000 -8.704560e+000 89 68 34
3.973847e+000 2.108615e+000 -1.039024e+001 29 17 18
3.957135e+000 2.039695e+000 -1.030932e+001 30 18 18
-4.511697e-001 1.182703e+000 -9.933044e+000 166 137 97
-2.418099e-001 1.277093e+000 -9.909325e+000 132 113 83
-2.008507e-001 1.228728e+000 -1.003434e+001 73 56 29
8.938548e-001 1.601671e+000 -8.605518e+000 109 96 77
1.017421e+000 1.695175e+000 -8.283193e+000 40 25 19
9.967572e-001 1.619429e+000 -8.365866e+000 107 91 79
4.168156e+000 1.942151e+000 -1.005030e+001 28 17 15
-6.269903e-001 1.062378e+000 -1.002568e+001 85 57 31
1.497783e+000 1.615921e+000 -8.300344e+000 83 48 25
1.580192e+000 1.695056e+000 -8.176555e+000 132 92 55
1.817646e+000 1.686289e+000 -8.239790e+000 151 125 87
1.791379e+000 1.613376e+000 -8.312499e+000 82 51 22
4.529899e+000 1.975107e+000 -9.634601e+000 94 76 65
4.529899e+000 1.975107e+000 -9.634601e+000 94 76 65
-1.952170e+000 6.146831e-001 -9.654423e+000 111 91 67
-1.131347e+000 6.696121e-001 -1.024429e+001 161 152 135
-2.312342e-001 8.481200e-001 -1.000106e+001 43 30 21
1.235891e+000 1.472213e+000 -8.311613e+000 115 86 57
1.440650e+000 1.466254e+000 -8.250819e+000 121 95 69
4.464405e+000 1.710196e+000 -9.742229e+000 29 22 22
-3.415787e+000 1.629334e-001 -9.644704e+000 63 49 44
-2.946100e+000 3.613082e-001 -9.328215e+000 65 41 13
-4.993788e-001 6.840957e-001 -9.613441e+000 106 106 80
-4.993788e-001 6.840957e-001 -9.613441e+000 106 106 80
-3.955745e-001 7.042388e-001 -9.612379e+000 32 25 19
-2.652903e-001 7.359165e-001 -9.637522e+000 26 21 17
-2.685519e-001 7.296010e-001 -9.662078e+000 26 21 17
3.079766e-002 7.859429e-001 -9.972292e+000 50 44 44
-3.182058e+000 1.689979e-001 -8.997509e+000 193 167 128
-3.108591e+000 2.094767e-001 -9.448535e+000 134 111 79
-2.357629e+000 5.048105e-001 -8.777915e+000 172 134 89
-1.785905e+000 5.299413e-001 -8.771330e+000 67 32 12
-1.653157e+000 5.327531e-001 -8.919943e+000 83 55 30
-1.540445e+000 5.068723e-001 -8.922612e+000 114 86 65
-1.333697e+000 3.953033e-001 -9.890178e+000 117 108 97
-1.281320e+000 4.091783e-001 -9.665436e+000 29 21 15
-6.976157e-001 6.233768e-001 -9.505109e+000 107 101 87
-6.506898e-001 6.313008e-001 -9.520074e+000 31 27 18
-6.506898e-001 6.313008e-001 -9.520074e+000 31 27 18
-2.131540e-001 6.507147e-001 -9.429535e+000 93 83 74
4.501587e+000 1.398014e+000 -9.308898e+000 67 53 52
-1.927502e+000 4.084212e-001 -8.734602e+000 54 25 17
-1.589498e+000 3.773217e-001 -8.822142e+000 39 15 12
-2.055471e-003 5.876131e-001 -9.402499e+000 22 15 12
-2.932106e+000 6.521513e-002 -8.713222e+000 185 143 95
-2.919847e+000 -8.567659e-003 -8.570375e+000 132 93 54
-2.708810e+000 1.198262e-001 -8.484947e+000 175 129 77
-2.331373e+000 2.570599e-001 -8.418102e+000 88 49 16
-2.146546e+000 2.591214e-001 -8.353926e+000 137 103 75
-2.251346e+000 2.188994e-001 -8.340564e+000 175 142 99
-2.149637e+000 2.748767e-001 -8.495037e+000 152 118 95
-2.024704e+000 2.423833e-001 -8.338132e+000 98 71 51
-1.714335e+000 2.884314e-001 -8.633566e+000 42 22 19
-1.718956e+000 2.834641e-001 -8.647300e+000 42 22 19
-1.296720e+000 3.354944e-001 -8.838168e+000 51 29 18
1.530572e+000 1.036876e+000 -7.495368e+000 161 128 88
-2.818519e+000 -6.920814e-002 -8.302869e+000 128 86 45
-2.500157e+000 8.315464e-002 -8.335176e+000 126 87 46
-2.159719e+000 9.584735e-002 -8.304845e+000 71 39 12
-2.055875e+000 1.590651e-001 -8.332008e+000 60 31 13
-1.040679e+000 5.278427e-002 -8.892491e+000 39 30 25
-4.641407e-001 2.384294e-001 -8.919796e+000 139 132 106
1.323645e-001 2.957894e-001 -8.797118e+000 79 74 67
1.492780e+000 9.741003e-001 -7.572688e+000 110 72 35
1.492780e+000 9.741003e-001 -7.572688e+000 110 72 35
1.497318e+000 9.243863e-001 -7.527212e+000 112 71 34
1.524916e+000 1.007120e+000 -7.406403e+000 170 127 85
1.957063e+000 1.008492e+000 -7.413168e+000 68 44 17
2.355795e+000 1.043774e+000 -7.824476e+000 75 55 49
-3.085154e+000 -2.647904e-001 -8.646627e+000 151 121 99
-2.570421e+000 -1.803590e-001 -8.423014e+000 125 84 40
-2.578996e+000 -1.974263e-001 -8.316989e+000 157 118 75
-2.318366e+000 1.143366e-002 -8.223714e+000 167 133 95
-2.052472e+000 -4.636384e-002 -8.226705e+000 75 44 15
-1.316296e+000 1.262982e-001 -8.128506e+000 43 27 4
-1.104238e+000 1.236505e-001 -8.309448e+000 122 102 77
-3.648890e-001 9.793259e-002 -8.737997e+000 152 144 107
-2.452648e-001 1.454287e-001 -8.753610e+000 150 139 109
1.320259e+000 7.164735e-001 -7.669432e+000 54 48 43
1.325024e+000 7.892234e-001 -7.584415e+000 49 43 39
1.724411e+000 8.776032e-001 -7.368237e+000 113 74 45
-2.590094e+000 -2.345927e-001 -8.318702e+000 104 64 28
-2.300832e+000 -1.088387e-001 -8.141956e+000 178 146 105
-2.068855e+000 -1.402671e-001 -8.057635e+000 158 129 86
1.427151e+000 7.763272e-001 -7.211264e+000 121 76 34
-2.947113e+000 -5.608985e-001 -8.388981e+000 98 71 52
-2.395738e+000 -4.142731e-001 -8.199035e+000 160 127 89
-2.395738e+000 -4.142731e-001 -8.199035e+000 160 127 89
-1.763315e+000 -3.036457e-001 -8.147387e+000 70 43 22
-1.087113e+000 -2.260319e-001 -8.388108e+000 133 110 79
1.291558e+000 2.207828e-001 -8.344275e+000 50 41 36
1.372048e+000 6.017126e-001 -7.232333e+000 137 93 44
1.569037e+000 6.942038e-001 -7.099727e+000 198 160 121
1.654832e+000 6.822749e-001 -7.096536e+000 182 150 101
-2.790055e+000 -6.783015e-001 -8.258916e+000 163 122 78
-2.163349e+000 -3.937532e-001 -7.993880e+000 156 126 88
-2.729393e+000 -6.866113e-001 -8.131768e+000 174 136 95
-2.590753e+000 -6.971945e-001 -8.027924e+000 181 147 107
-2.508072e+000 -6.897993e-001 -8.017630e+000 150 117 76
-1.973035e+000 -5.767538e-001 -7.870931e+000 83 45 19
-1.678083e+000 -4.807534e-001 -8.022818e+000 120 96 72
4.349040e-001 -3.253848e-001 -8.540276e+000 177 163 133
1.215959e+000 -1.197779e-001 -8.337530e+000 41 33 28
1.267879e+000 -1.861182e-001 -8.289427e+000 71 62 57
1.250477e+000 -1.499924e-001 -8.197560e+000 71 62 57
-2.654976e+000 -7.983918e-001 -8.045190e+000 177 139 103
-2.547400e+000 -8.145365e-001 -7.991642e+000 178 146 108
-2.499418e+000 -8.442543e-001 -7.923570e+000 182 148 114
-2.181566e+000 -6.095989e-001 -7.823075e+000 154 121 86
-2.008245e+000 -7.346601e-001 -7.976465e+000 75 38 11
-1.724938e+000 -5.806638e-001 -7.887184e+000 124 89 61
-1.724938e+000 -5.806638e-001 -7.887184e+000 124 89 61
-1.372650e+000 -6.516132e-001 -8.040049e+000 93 58 30
-1.334276e+000 -6.281585e-001 -7.937845e+000 126 91 59
-1.263630e+000 -7.040191e-001 -8.212901e+000 80 44 20
-8.825487e-001 -6.937526e-001 -8.335502e+000 21 12 19
9.282979e-001 -4.442332e-001 -8.560480e+000 14 8 13
1.755210e+000 3.895422e-001 -6.891554e+000 114 71 28
-2.544515e+000 -9.686538e-001 -7.940522e+000 177 138 97
-2.081159e+000 -8.095796e-001 -7.912338e+000 105 62 36
-1.993544e+000 -7.814734e-001 -7.935328e+000 111 67 40
-1.971620e+000 -8.845983e-001 -7.897091e+000 81 36 17
-1.857247e+000 -8.523667e-001 -7.841629e+000 90 51 24
-1.112644e+000 -7.979696e-001 -8.258582e+000 95 62 29
-9.041426e-001 -8.504941e-001 -8.385336e+000 25 15 8
1.025653e+000 -4.936603e-001 -8.315350e+000 20 15 19
1.799128e+000 2.961674e-001 -6.794669e+000 102 59 40
2.314134e+000 2.805089e-001 -6.896830e+000 69 45 21
2.722610e+000 1.465437e-001 -7.314622e+000 19 7 10
-2.414143e+000 -1.141006e+000 -7.998993e+000 129 93 70
-2.019676e+000 -9.854727e-001 -7.940166e+000 119 77 52
-1.730539e+000 -9.194047e-001 -7.849717e+000 112 71 41
-1.691988e+000 -9.048592e-001 -7.880454e+000 76 38 15
-1.708822e+000 -1.006758e+000 -7.909446e+000 115 75 49
-1.691360e+000 -9.636216e-001 -7.827760e+000 115 75 49
-9.569085e-001 -9.501512e-001 -8.310744e+000 104 82 62
1.467225e+000 -1.032974e-001 -7.208250e+000 184 156 131
1.757672e+000 1.359748e-001 -6.776089e+000 203 152 97
1.911655e+000 1.598198e-001 -6.814202e+000 99 56 16
2.726508e+000 1.298905e-001 -7.282808e+000 69 57 58
-2.321665e+000 -1.295998e+000 -7.963172e+000 87 52 32
-1.878073e+000 -1.093419e+000 -7.861326e+000 105 69 47
-2.008183e+000 -1.256488e+000 -8.014780e+000 85 62 49
-1.720148e+000 -1.157061e+000 -7.911541e+000 83 56 35
-8.009846e-001 -1.266197e+000 -8.654417e+000 33 32 37
-7.097509e-001 -1.290468e+000 -8.495656e+000 53 58 65
-7.097509e-001 -1.290468e+000 -8.495656e+000 53 58 65
-6.956611e-001 -1.321101e+000 -8.475070e+000 175 178 183
1.745815e+000 3.351356e-002 -6.816585e+000 158 102 53
1.755443e+000 6.626485e-002 -6.782749e+000 202 149 95
-1.282061e+000 -1.295372e+000 -8.105596e+000 32 16 14
-1.054934e+000 -1.368736e+000 -8.426784e+000 73 46 35
4.437795e-001 -8.868528e-001 -7.869571e+000 72 40 19
7.154832e-001 -8.228938e-001 -7.673453e+000 74 37 18
8.035676e-001 -8.125010e-001 -7.685651e+000 112 81 56
-1.929700e+000 -1.562617e+000 -8.018217e+000 50 32 25
-1.859961e+000 -1.667506e+000 -8.118704e+000 88 71 66
-1.249842e+000 -1.654388e+000 -8.348712e+000 22 13 15
-3.833148e-001 -1.537170e+000 -8.378885e+000 127 122 127
1.714424e-002 -1.310779e+000 -8.086629e+000 28 14 13
2.752785e-001 -1.131848e+000 -7.932987e+000 136 103 76
3.486601e-001 -1.152431e+000 -7.835147e+000 70 36 15
3.486601e-001 -1.152431e+000 -7.835147e+000 70 36 15
5.030601e-001 -9.215279e-001 -7.711274e+000 120 82 59
4.693089e-001 -1.100822e+000 -7.756601e+000 77 40 21
6.650579e-001 -9.781745e-001 -7.692768e+000 94 58 41
1.994959e-001 -1.352240e+000 -7.844908e+000 36 13 7
-5.112788e-002 -1.760663e+000 -8.161267e+000 29 19 18
2.239177e-001 -1.400991e+000 -7.817891e+000 39 18 12
2.484257e-001 -1.362897e+000 -7.802877e+000 136 110 91
2.461880e-001 -1.336414e+000 -7.758481e+000 136 110 91
4.228537e-001 -1.380251e+000 -7.643301e+000 142 101 69
5.814914e-001 -1.244763e+000 -7.571758e+000 116 69 35
7.985891e-001 -1.060301e+000 -7.472886e+000 162 119 85
8.403905e-001 -1.126841e+000 -7.479783e+000 169 123 89
8.882422e-001 -1.045004e+000 -7.415179e+000 102 56 22
2.364655e-001 -1.582392e+000 -7.809257e+000 165 133 107
2.143438e-001 -1.699223e+000 -7.860884e+000 88 57 29
4.521128e-001 -1.421200e+000 -7.578775e+000 130 85 45
4.533126e-001 -1.523445e+000 -7.660595e+000 186 144 96
6.890183e-001 -1.358823e+000 -7.506689e+000 188 141 95
6.890183e-001 -1.358823e+000 -7.506689e+000 188 141 95
8.151990e-001 -1.194299e+000 -7.392392e+000 98 50 12
8.799994e-001 -1.154276e+000 -7.386009e+000 188 144 103
8.942406e-001 -1.207377e+000 -7.475141e+000 188 144 103
9.943441e-001 -1.217830e+000 -7.382894e+000 123 76 45
1.356837e+000 -1.247750e+000 -7.469217e+000 123 98 72
9.458882e-001 -1.526685e+000 -7.481933e+000 184 142 99
1.359385e+000 -1.278816e+000 -7.458804e+000 156 131 103
4.087484e+000 3.389457e+000 -1.162247e+001 87 67 58
3.985645e+000 3.122575e+000 -1.131710e+001 83 70 64
5.349914e-001 2.508618e+000 -8.909540e+000 85 70 59
7.234121e-001 2.536009e+000 -8.539236e+000 175 131 86
3.959763e+000 3.008005e+000 -1.110171e+001 35 21 20
4.213842e+000 2.971565e+000 -1.102281e+001 37 26 24
4.384094e+000 2.975353e+000 -1.109658e+001 39 25 24
7.085049e-001 2.357855e+000 -8.482755e+000 157 111 76
3.406246e+000 2.677333e+000 -1.110574e+001 54 42 42
4.391556e+000 2.775317e+000 -1.071544e+001 36 25 23
4.517866e+000 2.822675e+000 -1.077745e+001 73 56 49
4.517866e+000 2.822675e+000 -1.077745e+001 73 56 49
-6.094003e-001 1.713437e+000 -1.027106e+001 143 99 57
-2.251090e-001 1.773345e+000 -1.006798e+001 57 34 18
7.702367e-001 1.999253e+000 -8.488150e+000 94 63 43
3.636106e+000 2.299676e+000 -1.070396e+001 34 20 20
-8.203759e-001 1.563689e+000 -1.031297e+001 141 103 58
8.776436e-001 1.921146e+000 -8.415459e+000 76 49 30
3.849954e+000 2.223974e+000 -1.057264e+001 29 18 24
-3.125707e-001 1.384029e+000 -9.991007e+000 54 33 17
9.221010e-001 1.830111e+000 -8.366444e+000 60 38 27
1.054681e+000 1.818204e+000 -8.217852e+000 35 20 17
-7.551292e-001 1.187541e+000 -1.020145e+001 167 131 96
-7.551292e-001 1.187541e+000 -1.020145e+001 167 131 96
1.482044e+000 1.775742e+000 -8.239975e+000 119 80 49
1.798995e+000 1.848056e+000 -8.412674e+000 39 22 20
4.955810e-001 1.230945e+000 -9.651052e+000 50 45 41
8.636108e-001 1.338477e+000 -9.110815e+000 37 32 28
2.051149e+000 1.705972e+000 -8.554994e+000 19 13 17
-2.245895e+000 6.301800e-001 -9.484509e+000 118 98 71
1.714873e+000 1.577580e+000 -8.265706e+000 81 47 19
4.245628e+000 1.692958e+000 -9.837776e+000 60 48 45
4.271561e+000 1.633865e+000 -9.553057e+000 60 49 46
4.468416e+000 1.777127e+000 -9.738151e+000 25 17 15
-7.747099e-001 5.908919e-001 -9.972545e+000 105 99 83
3.469857e-002 7.258114e-001 -9.780606e+000 55 48 44
3.328012e-001 8.746920e-001 -9.682882e+000 44 40 41
6.119588e-001 1.005639e+000 -9.244117e+000 66 58 54
-1.978867e+000 5.324555e-001 -8.645764e+000 78 42 21
-1.964197e+000 5.302023e-001 -8.769104e+000 108 74 47
-9.697472e-001 5.623187e-001 -9.458192e+000 34 29 26
-9.697472e-001 5.623187e-001 -9.458192e+000 34 29 26
-3.026993e-001 6.672589e-001 -9.496180e+000 114 108 92
-2.227810e-002 6.945839e-001 -9.707926e+000 66 62 50
1.952682e-001 6.414904e-001 -9.484758e+000 23 15 17
2.242896e-001 7.170655e-001 -9.290382e+000 128 121 102
2.242896e-001 7.170655e-001 -9.290382e+000 128 121 102
4.362997e+000 1.390770e+000 -9.304150e+000 22 14 12
-3.007979e+000 1.464468e-001 -8.930800e+000 160 128 83
-2.992017e+000 1.603450e-001 -8.887762e+000 160 128 83
-3.012151e+000 1.618809e-001 -9.034864e+000 177 149 111
-2.529340e+000 2.798267e-001 -8.594393e+000 163 124 81
-2.197736e+000 4.023977e-001 -8.459949e+000 163 129 94
-2.118166e+000 4.272069e-001 -8.484720e+000 137 103 75
-1.131662e+000 3.911342e-001 -9.487014e+000 26 20 18
-1.068557e+000 2.934833e-001 -9.330900e+000 18 11 18
-1.480686e-001 5.474812e-001 -9.209936e+000 29 22 26
-1.480686e-001 5.474812e-001 -9.209936e+000 29 22 26
2.945790e-001 5.382222e-001 -9.189471e+000 15 11 11
-2.082060e+000 2.536730e-001 -8.339198e+000 64 35 19
-2.115717e+000 2.098030e-001 -8.472649e+000 64 35 19
2.244586e-001 4.967251e-001 -9.136239e+000 22 17 15
2.215702e-001 4.957183e-001 -9.138574e+000 22 17 15
1.573905e+000 1.094183e+000 -7.762874e+000 123 91 54
2.324537e+000 1.076116e+000 -7.827907e+000 32 24 27
-2.512669e+000 7.104312e-002 -8.243272e+000 172 134 86
-1.940996e+000 1.527578e-001 -8.267012e+000 47 19 21
-1.855146e+000 1.471695e-001 -8.350025e+000 48 24 12
-1.855565e+000 1.446957e-001 -8.357938e+000 48 24 12
-1.870015e+000 1.215951e-001 -8.285777e+000 91 63 42
-1.104973e+000 2.573844e-001 -8.679310e+000 55 34 17
-1.073338e+000 1.592975e-001 -9.017227e+000 73 52 37
1.412572e+000 6.880467e-001 -8.244125e+000 66 59 56
1.625627e+000 1.003374e+000 -7.444003e+000 45 21 15
2.005649e+000 1.051958e+000 -7.628920e+000 54 32 19
2.390479e+000 1.034710e+000 -7.808268e+000 26 16 21
-2.403324e+000 -6.006076e-002 -8.141160e+000 168 136 92
-1.899896e+000 -2.604000e-002 -8.317794e+000 47 16 6
-1.560613e+000 1.493239e-001 -8.131685e+000 76 58 43
-5.566727e-001 5.975482e-002 -8.767793e+000 141 129 102
4.614203e-001 2.095548e-001 -8.686999e+000 77 70 52
1.316403e+000 4.319814e-001 -8.364599e+000 56 49 42
1.422925e+000 8.502926e-001 -7.363721e+000 108 60 23
-2.791661e+000 -2.461586e-001 -8.272104e+000 114 75 42
-2.329174e+000 -1.519443e-001 -8.167715e+000 130 99 56
-2.099385e+000 -2.186321e-001 -8.137803e+000 116 84 50
-9.831693e-001 -1.399322e-001 -8.753131e+000 47 38 31
-7.502910e-001 -1.146656e-001 -8.764354e+000 69 60 52
-8.521243e-001 -1.143130e-001 -8.469934e+000 72 63 55
1.321640e+000 5.583564e-001 -7.717170e+000 66 62 55
1.443708e+000 6.777803e-001 -7.307871e+000 103 56 20
1.553315e+000 8.014551e-001 -7.224498e+000 183 138 74
1.781960e+000 8.459992e-001 -7.145466e+000 161 136 103
-1.702540e+000 -2.486156e-001 -8.061062e+000 128 98 70
-1.702540e+000 -2.486156e-001 -8.061062e+000 128 98 70
-1.645775e+000 -2.656324e-001 -8.144337e+000 70 41 25
1.188410e+000 1.496833e-001 -8.244375e+000 96 88 76
1.491873e+000 6.518709e-001 -7.130746e+000 150 105 63
1.837320e+000 7.214099e-001 -7.047254e+000 184 164 111
-2.039588e+000 -4.094935e-001 -7.902146e+000 121 91 53
-1.843291e+000 -4.089145e-001 -8.022938e+000 76 47 29
-1.690052e+000 -3.626412e-001 -8.182213e+000 35 18 16
-1.658321e+000 -3.953039e-001 -8.023885e+000 19 15 18
-9.748073e-001 -4.279664e-001 -8.397445e+000 36 18 16
-2.809817e+000 -7.654684e-001 -8.238848e+000 160 121 88
-1.956935e+000 -4.543705e-001 -7.867198e+000 141 108 75
-1.919816e+000 -5.468994e-001 -7.917251e+000 92 56 27
-8.832749e-001 -5.540751e-001 -8.453120e+000 21 15 17
-1.965582e+000 -6.099229e-001 -7.823840e+000 144 109 81
-8.963878e-001 -7.712653e-001 -8.372040e+000 18 12 14
-1.698356e+000 -8.206784e-001 -7.827360e+000 136 97 63
-1.464626e+000 -8.710675e-001 -7.974485e+000 121 86 58
-1.173598e+000 -8.254348e-001 -8.057979e+000 134 101 70
-9.459387e-001 -8.270984e-001 -8.333739e+000 104 87 62
-1.033509e+000 -8.347186e-001 -8.153764e+000 138 105 74
1.649598e+000 2.194504e-001 -6.925951e+000 119 71 31
1.939893e+000 2.769623e-001 -6.814676e+000 183 150 105
2.243832e+000 3.059909e-001 -6.832528e+000 141 117 81
-2.102208e+000 -9.663072e-001 -7.903341e+000 72 34 13
-2.102208e+000 -9.663072e-001 -7.903341e+000 72 34 13
-2.186288e+000 -1.086615e+000 -7.982150e+000 60 27 10
-1.806420e+000 -9.292935e-001 -7.878725e+000 129 88 58
-7.768939e-001 -1.121224e+000 -8.509514e+000 28 26 26
5.290212e-001 -9.737095e-001 -8.682328e+000 13 8 13
-1.350199e+000 -1.188972e+000 -8.070019e+000 36 16 18
-1.070164e+000 -1.142811e+000 -8.314604e+000 67 41 26
1.087356e-001 -1.075538e+000 -8.436532e+000 53 47 41
1.646798e+000 -1.167776e-002 -6.866756e+000 134 81 44
2.562744e+000 -5.720234e-002 -7.046160e+000 102 81 68
2.578460e+000 -2.913687e-002 -7.055344e+000 31 19 19
-2.421821e+000 -1.569086e+000 -8.059110e+000 153 129 102
-2.399809e+000 -1.572985e+000 -8.266757e+000 99 73 48
-1.642627e+000 -1.189384e+000 -7.859148e+000 35 20 22
1.914639e+000 5.710733e-003 -6.651183e+000 199 162 121
-1.960034e+000 -1.528309e+000 -7.985233e+000 112 94 74
8.214648e-002 -1.242281e+000 -8.028835e+000 129 103 69
8.024760e-002 -1.204587e+000 -7.961009e+000 129 103 69
4.344786e-001 -9.649911e-001 -7.768343e+000 69 33 17
-1.950955e+000 -1.812100e+000 -8.179087e+000 125 104 90
-1.686036e+000 -1.829089e+000 -8.285606e+000 31 20 24
1.578815e-001 -1.306099e+000 -7.947065e+000 64 38 26
5.622059e-001 -1.055910e+000 -7.665287e+000 74 31 13
7.570827e-001 -1.014508e+000 -7.599541e+000 82 40 25
8.691556e-001 -9.662454e-001 -7.487325e+000 123 82 49
3.848298e-001 -1.340941e+000 -7.667513e+000 128 91 62
8.003187e-001 -1.109522e+000 -7.466202e+000 90 44 18
7.741045e-001 -1.132312e+000 -7.418325e+000 173 126 99
1.613898e-001 -1.563824e+000 -7.771661e+000 125 94 73
5.525607e-001 -1.437388e+000 -7.665416e+000 129 80 41
9.341701e-001 -1.217145e+000 -7.470638e+000 114 65 33
1.059536e+000 -1.237323e+000 -7.496836e+000 116 70 34
1.236189e+000 -1.228502e+000 -7.369433e+000 188 156 115
1.057088e-001 -1.776994e+000 -7.898089e+000 133 103 74
3.127489e+000 2.979103e+000 -1.165783e+001 51 40 36
3.127489e+000 2.979103e+000 -1.165783e+001 51 40 36
7.356310e-001 2.440501e+000 -8.642251e+000 106 62 27
3.605786e+000 2.929357e+000 -1.092377e+001 65 46 39
3.350601e+000 2.698990e+000 -1.122201e+001 24 18 19
7.921147e-001 2.219811e+000 -8.386186e+000 129 98 72
7.921147e-001 2.219811e+000 -8.386186e+000 129 98 72
4.440155e+000 2.749901e+000 -1.069653e+001 95 76 69
-6.785007e-001 1.708346e+000 -1.021324e+001 162 122 78
-6.785007e-001 1.708346e+000 -1.021324e+001 162 122 78
6.227467e-001 2.009455e+000 -8.576784e+000 67 47 23
6.187182e-001 2.009266e+000 -8.568392e+000 67 47 23
7.522386e-001 2.070395e+000 -8.534856e+000 93 59 32
3.513861e+000 2.351683e+000 -1.085526e+001 31 19 21
3.838801e+000 2.485001e+000 -1.038849e+001 83 70 61
9.660858e-001 1.983735e+000 -8.249821e+000 41 24 17
3.713530e+000 2.139388e+000 -1.025066e+001 46 35 31
4.593519e+000 2.364336e+000 -1.029204e+001 22 12 15
8.188117e-001 1.780272e+000 -8.632321e+000 40 22 22
1.031968e+000 1.895712e+000 -8.259886e+000 27 12 13
3.744167e+000 2.102018e+000 -1.046938e+001 35 24 23
-8.460310e-001 1.185114e+000 -1.024613e+001 135 95 60
8.177834e-001 1.670559e+000 -8.669780e+000 131 108 82
1.123774e+000 1.753121e+000 -8.206213e+000 85 66 59
1.288022e+000 1.815333e+000 -8.241104e+000 33 20 14
1.092757e+000 1.602357e+000 -8.399785e+000 39 24 17
-2.464796e+000 5.625315e-001 -9.444880e+000 139 111 75
1.087791e+000 1.386536e+000 -8.672847e+000 37 32 28
1.495423e+000 1.504613e+000 -8.373798e+000 120 83 57
3.704933e-002 8.144338e-001 -1.010919e+001 24 19 16
-3.061245e+000 2.971786e-001 -9.236933e+000 60 36 34
-3.078195e+000 1.725377e-001 -9.150720e+000 109 82 56
-1.187425e+000 5.103080e-001 -9.536499e+000 40 30 28
-1.191640e+000 5.023563e-001 -9.567136e+000 40 30 28
-1.121491e+000 5.530170e-001 -9.508264e+000 163 155 126
-1.119153e+000 5.547144e-001 -9.504423e+000 163 155 126
-1.094376e+000 5.066196e-001 -9.442847e+000 33 29 20
-1.094294e+000 5.068285e-001 -9.441934e+000 33 29 20
-1.220541e+000 3.805198e-001 -9.583623e+000 18 15 14
-1.156401e+000 4.533734e-001 -9.497620e+000 133 126 85
-1.063696e+000 4.571476e-001 -9.364177e+000 150 139 109
-1.029498e+000 5.452026e-001 -9.441222e+000 160 157 117
-1.027816e+000 5.473573e-001 -9.433435e+000 160 157 117
-1.006745e+000 4.825685e-001 -9.421387e+000 37 29 26
-9.316728e-001 5.349788e-001 -9.358436e+000 142 135 99
-7.796703e-001 5.745390e-001 -9.415851e+000 115 108 83
-8.572193e-001 5.570732e-001 -9.388380e+000 25 19 19
-7.549486e-001 5.407538e-001 -9.306876e+000 29 25 21
-6.976496e-001 5.959994e-001 -9.418936e+000 21 16 15
-6.748279e-001 5.606179e-001 -9.332969e+000 131 122 93
-6.742365e-001 5.649503e-001 -9.315527e+000 131 122 93
-5.973337e-001 5.836216e-001 -9.331171e+000 29 21 18
-4.179557e-001 5.748956e-001 -9.309274e+000 111 102 85
-4.179557e-001 5.748956e-001 -9.309274e+000 111 102 85
1.034229e-001 7.034168e-001 -9.788946e+000 15 10 14
-2.121331e+000 3.544320e-001 -8.467518e+000 139 104 81
-1.040647e+000 3.949820e-001 -9.333566e+000 27 22 26
-1.020919e+000 3.277785e-001 -9.327776e+000 132 127 91
-9.526626e-001 3.840887e-001 -9.261000e+000 34 29 26
-9.535565e-001 3.804075e-001 -9.273183e+000 34 29 26
-9.331220e-001 3.192893e-001 -9.238498e+000 147 138 102
-9.331220e-001 3.192893e-001 -9.238498e+000 147 138 102
-8.605422e-001 3.600030e-001 -9.217483e+000 34 29 27
-8.605422e-001 3.600030e-001 -9.217483e+000 34 29 27
-7.336012e-001 4.761071e-001 -9.298025e+000 131 121 98
-5.517115e-001 4.856980e-001 -9.208562e+000 26 20 20
-3.137512e-001 5.645538e-001 -9.232009e+000 124 117 92
-3.138173e-001 5.640018e-001 -9.233715e+000 124 117 92
-2.401376e-001 5.820256e-001 -9.240053e+000 25 20 17
-2.181477e-001 5.429794e-001 -9.169160e+000 118 112 91
-2.181477e-001 5.429794e-001 -9.169160e+000 118 112 91
-2.749393e-001 4.683357e-001 -9.123341e+000 132 127 98
-1.983550e-001 5.000575e-001 -9.105136e+000 25 19 20
-1.201890e-001 5.161224e-001 -9.116954e+000 114 101 83
-1.190154e-001 5.152373e-001 -9.120543e+000 114 101 83
2.562607e-001 6.160856e-001 -9.461403e+000 128 122 109
-2.570725e+000 7.349998e-002 -8.474533e+000 164 125 76
-1.930881e+000 2.072984e-001 -8.596546e+000 68 41 30
-9.937182e-001 2.775195e-001 -9.247315e+000 19 17 17
-7.596690e-001 3.414809e-001 -9.162064e+000 32 31 29
-8.366383e-001 3.142411e-001 -9.137655e+000 126 121 91
-6.364872e-001 2.791513e-001 -9.011726e+000 131 123 95
-5.596042e-001 3.050037e-001 -9.021863e+000 25 22 25
-4.803371e-001 3.316257e-001 -9.034301e+000 147 141 117
-4.064930e-001 3.651538e-001 -9.032488e+000 36 30 30
-2.539511e-001 4.273889e-001 -9.035154e+000 26 22 23
-1.392847e-002 4.860812e-001 -9.071941e+000 105 100 78
-1.424930e-002 4.857153e-001 -9.072795e+000 105 100 78
6.510451e-002 4.916007e-001 -9.090735e+000 21 18 12
8.459051e-002 4.555695e-001 -9.021009e+000 102 95 76
2.282308e+000 1.078267e+000 -7.931684e+000 80 62 38
-2.840781e-001 2.984441e-001 -8.909140e+000 148 135 107
-2.688893e-001 2.552463e-001 -8.852455e+000 31 26 23
8.371906e-001 4.820750e-001 -8.852227e+000 29 25 26
1.680310e+000 9.992614e-001 -7.485052e+000 131 96 70
1.491144e+000 8.482788e-001 -7.239940e+000 190 150 101
1.570523e+000 8.833535e-001 -7.293736e+000 165 128 81
1.865548e+000 9.496217e-001 -7.259563e+000 74 46 34
2.469710e+000 9.101377e-001 -7.899437e+000 64 46 34
-2.600196e+000 -2.324421e-001 -8.171447e+000 111 71 36
-2.065145e+000 -2.705147e-001 -8.050287e+000 112 78 43
-1.900251e+000 -1.928494e-001 -8.103242e+000 71 39 18
-1.893408e+000 -1.794857e-001 -8.069264e+000 71 39 18
1.635304e+000 6.475408e-001 -7.173437e+000 117 74 42
1.769228e+000 6.776185e-001 -7.043044e+000 171 145 107
-2.267507e+000 -4.477533e-001 -7.983532e+000 168 136 97
-1.709126e+000 -5.382486e-001 -7.890070e+000 118 84 57
6.856877e-001 -3.893750e-001 -8.604979e+000 25 21 16
-2.433501e+000 -7.240108e-001 -7.952728e+000 171 142 103
-1.506508e+000 -5.729876e-001 -7.989006e+000 116 81 51
-1.532415e+000 -6.411774e-001 -8.137529e+000 116 81 51
-2.454149e+000 -9.208484e-001 -7.897729e+000 121 80 44
-2.407562e+000 -9.437669e-001 -7.834364e+000 154 112 80
-2.227721e+000 -9.356856e-001 -7.911262e+000 132 91 63
-9.765030e-001 -8.860619e-001 -8.302354e+000 133 102 74
6.203357e-001 -7.076641e-001 -8.593413e+000 17 11 17
6.203357e-001 -7.076641e-001 -8.593413e+000 17 11 17
6.484416e-001 -8.234069e-001 -8.702573e+000 42 38 39
6.987660e-001 -7.225552e-001 -8.688909e+000 68 63 59
7.452207e-001 -6.306307e-001 -8.663648e+000 84 81 70
7.219975e-001 -8.018179e-001 -8.715965e+000 10 8 12
1.857003e+000 2.494386e-001 -6.835663e+000 80 38 23
2.160281e+000 3.211496e-001 -6.853732e+000 68 40 29
2.145142e+000 3.363057e-001 -6.814463e+000 68 40 29
-2.563879e+000 -1.136172e+000 -8.085409e+000 165 127 87
-1.948249e+000 -9.381147e-001 -7.884370e+000 124 83 58
-1.508584e+000 -8.858486e-001 -7.940077e+000 62 29 12
-9.693094e-001 -1.209525e+000 -8.616540e+000 73 56 43
-6.508122e-001 -1.120380e+000 -8.444939e+000 155 156 148
2.969508e-001 -9.447868e-001 -8.487875e+000 14 7 15
4.346443e-001 -8.695555e-001 -8.499628e+000 16 9 15
6.677805e-001 -8.962256e-001 -8.724256e+000 12 10 13
7.365451e-001 -8.784907e-001 -8.739194e+000 36 31 35
1.455769e+000 -8.548679e-002 -7.321719e+000 182 148 122
1.784833e+000 1.505570e-001 -6.844882e+000 111 63 35
-6.990617e-001 -1.152052e+000 -8.451064e+000 33 32 36
-6.994587e-001 -1.159239e+000 -8.464683e+000 33 32 36
-6.195370e-001 -1.193491e+000 -8.417049e+000 39 36 40
-1.540946e+000 -1.215965e+000 -7.903506e+000 34 23 27
1.128353e-001 -1.078186e+000 -8.087855e+000 76 68 58
1.417648e-001 -1.131178e+000 -8.092348e+000 37 22 15
1.483444e-001 -1.205938e+000 -8.232095e+000 37 22 15
1.942411e+000 -2.934284e-001 -7.040189e+000 184 162 132
3.701112e-001 -1.047094e+000 -7.890906e+000 135 98 76
-2.081177e+000 -1.867453e+000 -8.166411e+000 30 17 23
9.361027e-002 -1.383400e+000 -7.961075e+000 26 16 17
1.372340e-001 -1.317680e+000 -7.826912e+000 36 20 18
3.624109e-001 -1.190198e+000 -7.774494e+000 120 80 60
3.624109e-001 -1.190198e+000 -7.774494e+000 120 80 60
8.397940e-001 -1.642129e+000 -7.593072e+000 200 160 120
-5.244011e-001 2.082292e+000 -1.030793e+001 147 112 70
-6.165959e-001 1.998630e+000 -1.034255e+001 146 113 72
4.333558e+000 2.671478e+000 -1.036415e+001 38 25 23
4.386413e+000 2.670860e+000 -1.047593e+001 38 25 23
4.324707e+000 2.598151e+000 -1.034516e+001 94 76 72
4.593023e+000 2.730781e+000 -1.056719e+001 84 69 62
4.715787e+000 2.533722e+000 -1.047291e+001 31 17 17
8.085977e-001 1.937223e+000 -8.451541e+000 163 131 100
1.247743e+000 1.880977e+000 -8.235809e+000 66 46 40
-8.995950e-002 1.192079e+000 -1.008078e+001 62 43 28
8.078258e-001 1.481197e+000 -9.344113e+000 76 69 61
3.981153e+000 1.859401e+000 -1.018338e+001 28 16 20
4.510905e-001 1.155229e+000 -9.972614e+000 26 20 21
1.527224e+000 1.666557e+000 -8.238011e+000 148 105 71
1.527224e+000 1.666557e+000 -8.238011e+000 148 105 71
4.052008e+000 1.760659e+000 -1.006927e+001 49 38 36
-2.868941e+000 4.188436e-001 -9.805077e+000 27 25 26
1.004424e-001 1.015458e+000 -1.014634e+001 38 25 23
-2.826512e+000 4.318601e-001 -9.465215e+000 178 160 128
-2.413187e+000 5.405971e-001 -8.907589e+000 101 62 34
-2.069245e+000 5.796951e-001 -8.832441e+000 88 51 25
5.501436e-001 1.047659e+000 -9.362691e+000 58 52 49
4.192109e+000 1.527533e+000 -9.621397e+000 35 24 26
-2.199638e+000 4.305831e-001 -8.583293e+000 77 42 18
2.825103e-001 7.084223e-001 -9.526439e+000 27 25 22
-1.383358e+000 3.720791e-001 -8.782029e+000 50 27 14
-2.602558e+000 1.327209e-001 -8.547390e+000 106 63 21
-2.496562e+000 2.485546e-001 -8.418267e+000 175 133 90
-2.496562e+000 2.485546e-001 -8.418267e+000 175 133 90
-2.460622e+000 2.185461e-001 -8.577775e+000 126 87 48
-2.182521e+000 3.033584e-001 -8.442664e+000 79 44 23
1.700283e+000 1.143270e+000 -7.537185e+000 40 22 22
1.990774e+000 1.190559e+000 -7.680907e+000 81 51 43
4.565610e+000 1.145898e+000 -9.330839e+000 25 16 17
-4.024390e-001 2.355813e-001 -8.881149e+000 93 83 53
1.954966e+000 1.023807e+000 -7.526541e+000 147 125 85
1.309280e+000 5.421488e-001 -8.459277e+000 58 51 46
-2.847361e+000 -5.236507e-001 -8.381257e+000 164 122 82
-2.847361e+000 -5.236507e-001 -8.381257e+000 164 122 82
-2.418709e+000 -4.003096e-001 -8.080028e+000 115 79 43
-1.953210e-001 -1.258760e-001 -8.602213e+000 23 19 22
3.587033e-002 -3.545192e-002 -8.619852e+000 142 127 104
-1.312384e-002 -1.388456e-001 -8.592590e+000 150 140 106
1.805493e+000 7.116424e-001 -7.059619e+000 78 50 38
1.805493e+000 7.116424e-001 -7.059619e+000 78 50 38
-2.090241e+000 -3.805817e-001 -7.981816e+000 160 129 91
-2.143499e-001 -2.992879e-001 -8.542780e+000 142 130 97
-1.838168e-001 -3.703744e-001 -8.516394e+000 25 21 17
-2.950035e-002 -3.073519e-001 -8.523942e+000 29 26 17
2.004855e-001 -2.306759e-001 -8.592610e+000 130 113 84
3.068216e-001 -2.801642e-001 -8.603590e+000 151 137 102
1.662916e+000 5.866126e-001 -7.093228e+000 129 89 49
1.811814e+000 6.633577e-001 -7.015370e+000 68 40 30
1.798252e+000 6.797077e-001 -6.973048e+000 68 40 30
-4.120969e-001 -4.733526e-001 -8.521695e+000 149 138 110
1.074747e-003 -3.828162e-001 -8.514299e+000 142 128 93
7.690053e-002 -3.508956e-001 -8.516836e+000 21 20 25
3.109197e-002 -4.566880e-001 -8.493156e+000 27 26 19
1.066502e-001 -4.265056e-001 -8.505112e+000 130 119 89
2.593309e-001 -3.819652e-001 -8.572937e+000 122 108 78
3.342878e-001 -3.569013e-001 -8.592124e+000 31 22 25
1.733494e+000 4.636518e-001 -6.970302e+000 128 86 44
1.922903e+000 4.691315e-001 -6.876546e+000 180 150 110
-3.976980e-001 -7.166433e-001 -8.439058e+000 142 130 107
-3.210105e-001 -6.810356e-001 -8.430846e+000 31 25 22
-2.752343e-001 -5.739133e-001 -8.452208e+000 27 21 22
1.362620e-001 -5.089149e-001 -8.506682e+000 30 21 25
1.656918e-001 -5.764050e-001 -8.470341e+000 130 115 85
2.697542e-001 -6.350605e-001 -8.511023e+000 108 94 78
1.792347e+000 3.715501e-001 -6.789110e+000 137 93 54
-5.457530e-001 -7.851841e-001 -8.444871e+000 153 146 118
-5.858514e-001 -8.936500e-001 -8.427338e+000 146 138 116
-5.154730e-001 -8.572214e-001 -8.417527e+000 27 24 19
-5.145079e-001 -8.529036e-001 -8.408717e+000 27 24 19
-3.655091e-001 -7.819601e-001 -8.396393e+000 23 22 18
2.228364e-001 -7.347799e-001 -8.486137e+000 143 130 90
-2.132566e+000 -1.108552e+000 -7.929329e+000 116 81 59
-5.543416e-001 -9.569594e-001 -8.386266e+000 30 29 25
-5.543416e-001 -9.569594e-001 -8.386266e+000 30 29 25
-4.860236e-001 -9.200146e-001 -8.373088e+000 153 144 126
-4.860236e-001 -9.200146e-001 -8.373088e+000 153 144 126
-3.817532e-001 -9.536866e-001 -8.341133e+000 146 132 103
-2.285336e-001 -8.926566e-001 -8.356538e+000 151 136 102
-2.277640e-001 -8.836173e-001 -8.338144e+000 151 136 102
2.890492e-002 -8.903250e-001 -8.412525e+000 118 104 76
-4.737795e-002 -9.017597e-001 -8.364942e+000 31 26 25
7.669881e-001 -9.516978e-001 -8.751629e+000 15 10 15
1.525322e+000 -9.508355e-003 -6.919978e+000 190 146 102
1.691236e+000 8.381411e-002 -6.847674e+000 147 91 54
2.673313e+000 1.136655e-001 -7.187122e+000 28 15 19
-4.284226e-001 -1.056678e+000 -8.318014e+000 151 143 107
6.080213e-001 -8.500268e-001 -7.866168e+000 58 29 21
4.342213e-001 -1.074157e+000 -7.873273e+000 80 42 23
7.818234e-001 -9.337316e-001 -7.648392e+000 108 67 42
-4.223778e-001 -1.669846e+000 -8.497655e+000 201 200 204
-4.223778e-001 -1.669846e+000 -8.497655e+000 201 200 204
4.898371e-001 -1.136158e+000 -7.706209e+000 82 43 26
4.898371e-001 -1.136158e+000 -7.706209e+000 82 43 26
9.212675e-001 -9.623335e-001 -7.537486e+000 68 32 8
-2.137561e-001 -1.800761e+000 -8.260648e+000 60 50 46
4.220776e-001 -1.289257e+000 -7.676017e+000 100 60 38
1.047131e+000 -1.025317e+000 -7.382073e+000 114 71 37
-2.366266e-001 -1.925172e+000 -8.332554e+000 133 151 178
1.153643e+000 -1.242033e+000 -7.458468e+000 178 146 99
4.757535e-001 -1.619894e+000 -7.678781e+000 179 137 90
4.757535e-001 -1.619894e+000 -7.678781e+000 179 137 90
9.051511e-001 -1.497429e+000 -7.500880e+000 223 182 139
1.153109e+000 -1.319922e+000 -7.466756e+000 132 87 47
3.580000e+000 3.246842e+000 -1.153199e+001 112 94 80
4.151044e+000 3.277652e+000 -1.141704e+001 56 38 34
9.380916e-001 2.561532e+000 -8.699809e+000 91 53 34
3.081513e+000 2.876288e+000 -1.139692e+001 25 14 12
4.884249e-001 2.329865e+000 -8.953851e+000 72 59 52
-2.734255e-001 2.010051e+000 -1.012234e+001 64 37 22
5.418214e-003 2.023070e+000 -1.038650e+001 32 18 18
4.490399e+000 2.749986e+000 -1.059319e+001 37 23 20
4.490399e+000 2.749986e+000 -1.059319e+001 37 23 20
5.718629e-001 2.032381e+000 -8.721760e+000 166 140 105
4.035659e+000 2.440992e+000 -1.038657e+001 51 37 37
4.035659e+000 2.440992e+000 -1.038657e+001 51 37 37
4.412707e+000 2.524442e+000 -1.034667e+001 30 19 17
9.809255e-001 1.783703e+000 -8.332211e+000 32 20 20
1.178985e+000 1.830692e+000 -8.283275e+000 29 17 19
-9.175760e-001 1.026238e+000 -1.038334e+001 171 163 143
1.902153e+000 1.854904e+000 -8.646820e+000 21 12 13
9.052919e-001 1.371267e+000 -8.998734e+000 72 65 59
1.436601e+000 1.599126e+000 -8.287933e+000 61 34 26
1.432739e+000 1.600607e+000 -8.276109e+000 61 34 26
1.711438e+000 1.679386e+000 -8.220391e+000 165 122 88
6.102178e-001 1.103676e+000 -1.012980e+001 26 20 20
1.200830e+000 1.476557e+000 -8.351881e+000 119 93 60
1.621167e+000 1.466167e+000 -8.370593e+000 119 88 67
1.711684e+000 1.507959e+000 -8.353677e+000 122 91 57
1.812174e+000 1.508598e+000 -8.413526e+000 109 79 51
4.115118e+000 1.671229e+000 -9.902579e+000 37 27 26
-9.988005e-001 6.000955e-001 -9.775525e+000 113 108 89
2.097720e-001 8.154544e-001 -1.014294e+001 18 12 16
-3.100015e+000 5.648949e-002 -8.972858e+000 178 145 101
-2.741108e+000 1.579846e-001 -8.499131e+000 187 145 95
-1.974434e+000 2.635618e-001 -8.421481e+000 49 21 15
-1.199157e+000 3.179768e-001 -8.804537e+000 46 26 15
1.895787e+000 1.057793e+000 -7.572531e+000 46 26 20
4.680650e+000 1.029269e+000 -9.006403e+000 22 13 18
5.438999e-001 3.219114e-001 -8.824985e+000 115 110 88
1.221266e+000 3.400540e-001 -8.645166e+000 76 71 68
1.306956e+000 3.998454e-001 -8.799688e+000 10 9 15
4.679143e+000 9.004263e-001 -8.912164e+000 27 17 25
1.807697e+000 8.548951e-001 -7.101574e+000 60 32 20
-2.447907e+000 -3.011098e-001 -8.059469e+000 166 132 87
1.352433e+000 4.339839e-001 -7.660901e+000 196 165 133
1.432398e+000 4.743734e-001 -7.151687e+000 165 110 69
1.338364e+000 -6.196756e-002 -8.014600e+000 90 78 65
1.663030e+000 4.697780e-001 -6.970385e+000 183 147 99
1.025421e+000 -4.252336e-001 -8.460443e+000 48 43 39
2.441861e+000 4.883175e-001 -7.042636e+000 131 106 78
-1.065650e+000 -1.374167e+000 -8.572971e+000 46 27 21
5.193470e-001 -9.263395e-001 -8.208580e+000 104 79 57
-1.514619e+000 -1.190974e+000 -7.890737e+000 34 22 26
4.672174e-001 -9.618685e-001 -7.842199e+000 68 30 17
2.971802e-001 -1.281752e+000 -7.843197e+000 72 39 26
6.738501e-001 -1.068044e+000 -7.621783e+000 60 23 14
7.311756e-001 -1.154465e+000 -7.543143e+000 95 49 26
1.267227e-002 -1.912108e+000 -8.000011e+000 131 140 169
1.275258e+000 -1.283193e+000 -7.424231e+000 176 147 108
9.209093e-001 2.765402e+000 -9.220600e+000 174 143 103
-8.162204e-001 1.695356e+000 -1.041374e+001 178 144 102
5.630771e-001 2.044710e+000 -8.649549e+000 170 144 109
3.500199e+000 2.401232e+000 -1.081103e+001 26 14 14
3.669538e+000 2.231120e+000 -1.059662e+001 35 26 29
1.201193e+000 1.670265e+000 -8.346557e+000 44 25 24
2.901586e-001 1.118992e+000 -9.685562e+000 24 18 22
-1.905947e-001 7.993221e-001 -9.923757e+000 30 20 21
-1.956896e+000 4.846417e-001 -8.592139e+000 57 29 17
3.230375e-001 7.709003e-001 -9.749791e+000 11 9 15
-1.388585e+000 3.812186e-001 -8.795214e+000 45 20 11
-2.694523e+000 -4.634883e-001 -8.197390e+000 155 107 67
-1.862227e+000 -2.796820e-001 -8.128026e+000 85 57 35
1.347052e+000 4.381319e-001 -7.650086e+000 199 168 138
1.418755e+000 6.386646e-001 -7.248744e+000 133 84 41
1.410110e+000 6.546068e-001 -7.202883e+000 133 84 41
-1.596689e+000 -4.338305e-001 -7.945652e+000 97 74 51
1.338296e+000 2.314646e-001 -7.336687e+000 186 153 110
1.611511e+000 1.206103e-001 -6.958141e+000 89 43 20
-1.144137e+000 -1.021044e+000 -8.129866e+000 147 113 86
3.515728e-001 -9.113462e-001 -7.939510e+000 139 100 65
3.010421e-001 -1.085280e+000 -8.045720e+000 44 19 14
2.382146e+000 -3.120379e-001 -7.087536e+000 32 22 30
3.827199e+000 2.812730e+000 -1.077522e+001 97 78 61
3.867552e+000 2.811570e+000 -1.087515e+001 97 78 61
7.716203e-001 1.362256e+000 -9.400413e+000 36 31 27
7.716203e-001 1.362256e+000 -9.400413e+000 36 31 27
-4.948051e-002 1.042386e+000 -9.858442e+000 83 66 50
1.750748e+000 1.408127e+000 -8.377069e+000 12 10 16
-2.329280e+000 4.801986e-001 -8.776216e+000 135 97 52
1.837843e+000 9.850210e-001 -7.415466e+000 165 142 103
1.540227e+000 8.226380e-001 -7.298700e+000 140 96 50
1.291659e+000 5.002216e-001 -7.778960e+000 86 76 74
-2.044234e+000 -3.577197e-001 -7.964491e+000 144 112 74
1.509113e+000 -9.505242e-001 -8.427614e+000 25 22 32
6.822537e-001 -8.858725e-001 -7.592372e+000 62 29 20
-4.801512e-002 2.044799e+000 -1.045302e+001 33 17 14
-1.605697e+000 3.553443e-001 -8.838638e+000 54 30 27
4.255484e-002 4.944808e-001 -8.801222e+000 95 88 73
1.241370e+000 4.001742e-002 -8.164579e+000 92 84 64
1.615143e+000 5.769583e-001 -7.045979e+000 155 118 68
1.599025e+000 5.883799e-001 -7.001473e+000 155 118 68
1.765879e+000 5.702809e-001 -6.984982e+000 184 153 106
-1.776485e+000 -6.529305e-001 -7.765673e+000 119 84 52
1.927806e+000 3.351917e-001 -6.823071e+000 183 150 99
7.782055e-001 -1.309858e+000 -7.654855e+000 109 59 34
1.252385e+000 -1.110920e+000 -7.562616e+000 80 53 38
3.283255e+000 2.751510e+000 -1.115978e+001 47 37 35
1.285952e+000 1.059967e+000 -8.739823e+000 36 32 29
-9.899336e-001 1.303443e-001 -8.839031e+000 23 15 13
1.255512e+000 3.195146e-001 -8.531233e+000 55 45 43
7.932942e-001 -4.325834e-001 -8.644489e+000 67 59 49
-1.776999e+000 -6.641930e-001 -7.775585e+000 125 90 58
1.967722e-001 -7.574523e-001 -8.480325e+000 142 126 87
1.555328e+000 -1.198631e-001 -7.337427e+000 183 145 109
-6.854396e-001 -1.208243e+000 -8.561278e+000 33 29 26
5.312250e-001 3.321704e-001 -8.321683e+000 70 64 51
-1.795099e+000 -1.093101e+000 -7.970196e+000 136 93 61
-1.984183e+000 -1.304340e+000 -7.923281e+000 44 28 27
-2.141262e+000 -1.689001e+000 -8.050150e+000 157 136 105
1.729120e+000 1.593527e+000 -8.381627e+000 126 90 54
1.580457e+000 8.604687e-001 -7.914944e+000 127 86 50
3.353041e+000 2.768411e+000 -1.112173e+001 22 14 15
-1.083436e-001 1.660690e+000 -1.003735e+001 137 115 78
4.269301e+000 1.659861e+000 -9.597340e+000 28 16 16
-1.325243e+000 -2.860999e-001 -8.120171e+000 163 139 96
-1.325243e+000 -2.860999e-001 -8.120171e+000 163 139 96
4.958997e-001 -2.156601e-001 -8.878207e+000 156 147 118
4.944784e-001 -2.228542e-001 -8.895754e+000 156 147 118
1.994870e+000 1.535048e+000 -7.763061e+000 25 20 26
2.759127e+000 6.155280e-001 -6.961629e+000 25 16 21
1.993622e+000 3.544604e-001 -7.613744e+000 186 156 106
-4.432006e-001 1.942792e+000 -1.013075e+001 159 119 77
-4.423494e-001 1.923788e+000 -1.022024e+001 168 127 83
-9.252908e-002 1.893762e+000 -1.016589e+001 54 37 13
-6.216571e-001 1.111798e-001 -8.856300e+000 97 85 71
-6.967314e-001 -2.430446e-001 -8.679005e+000 88 79 62
-5.754027e-001 -6.577178e-001 -8.482004e+000 152 147 127
-1.347978e+001 -9.386686e+000 -2.955379e+001 62 67 100
-8.638773e+000 -8.027401e+000 -2.299248e+001 206 194 177
1.166653e+000 2.232561e+000 -8.270536e+000 76 48 23
-3.627854e-001 -2.115173e-001 -8.576603e+000 26 14 17
-1.100191e+001 -7.167287e+000 -2.626761e+001 50 53 80
3.651622e+000 2.826574e+000 -1.095412e+001 47 32 28
3.054056e+000 3.248761e+000 -1.174329e+001 33 22 18
3.055476e+000 3.249267e+000 -1.174356e+001 33 22 18
-1.389866e+001 -1.052047e+001 -2.845586e+001 73 64 67
3.205002e+000 3.036619e+000 -1.152603e+001 26 14 17
1.137652e+000 2.249379e+000 -8.282953e+000 167 142 101
1.868639e+000 2.221277e+000 -8.586073e+000 128 109 84
1.897042e+000 2.165529e+000 -8.633511e+000 97 87 59
1.381734e+000 2.046734e+000 -8.228149e+000 159 137 101
9.514185e-001 1.882807e+000 -8.268485e+000 75 53 38
3.898003e+000 1.863135e+000 -1.022070e+001 94 80 78
4.463889e+000 1.936909e+000 -9.789743e+000 37 23 23
-2.453380e+000 5.222252e-001 -8.854116e+000 108 70 34
-1.668820e+000 2.667255e-001 -8.682049e+000 54 32 21
-5.751479e-001 1.963612e-001 -8.916805e+000 127 121 97
-3.206616e-001 2.395572e-001 -8.864494e+000 135 124 104
-1.048658e-001 3.368432e-001 -8.883856e+000 160 149 118
1.760117e-001 3.077533e-001 -8.802529e+000 79 70 63
-9.634043e-001 1.575537e-001 -8.507205e+000 44 39 33
1.382282e+000 5.617023e-001 -8.391465e+000 63 58 55
-1.373917e+000 4.097036e-002 -8.073709e+000 50 32 17
-9.688552e-002 8.645656e-002 -8.674972e+000 115 37 45
-2.490532e+000 -3.605758e-001 -8.026534e+000 172 135 92
-3.533745e-001 -2.448081e-001 -8.569605e+000 141 133 90
-3.533745e-001 -2.448081e-001 -8.569605e+000 141 133 90
-2.382031e-001 -8.413442e-002 -8.615857e+000 149 137 99
-2.382031e-001 -8.413442e-002 -8.615857e+000 149 137 99
-1.800596e-001 -9.290909e-002 -8.610515e+000 22 13 18
-1.418836e+001 -1.005207e+001 -2.868116e+001 80 72 83
-9.139591e-001 -5.776238e-001 -8.417778e+000 66 57 50
-4.734529e-001 -4.675975e-001 -8.512147e+000 31 22 7
2.929060e-002 -5.209527e-001 -8.485835e+000 144 133 104
-1.328944e+001 -1.112576e+001 -2.726596e+001 75 69 81
-6.827474e-001 -9.321553e-001 -8.480008e+000 40 35 29
-6.827474e-001 -9.321553e-001 -8.480008e+000 40 35 29
9.342131e-001 -5.948747e-001 -8.641572e+000 66 62 59
2.762127e+000 1.418638e-001 -7.401147e+000 68 52 53
1.071324e+000 -1.007987e+000 -7.450738e+000 173 133 97
1.071324e+000 -1.007987e+000 -7.450738e+000 173 133 97
3.408496e+000 2.978087e+000 -1.126477e+001 30 20 19
3.250739e+000 2.823391e+000 -1.133645e+001 29 19 20
3.790029e+000 2.977308e+000 -1.102517e+001 59 42 34
-7.578442e-001 1.877513e+000 -1.043562e+001 66 49 37
3.660105e+000 2.491269e+000 -1.080563e+001 29 17 17
3.745230e+000 2.270117e+000 -1.073847e+001 23 13 14
-1.574454e+000 5.178790e-001 -8.942376e+000 78 50 29
-1.574454e+000 5.178790e-001 -8.942376e+000 78 50 29
6.997153e-001 8.278411e-001 -9.225758e+000 43 37 39
-2.449365e+000 3.178224e-001 -8.464625e+000 160 123 78
9.228430e-001 4.770377e-001 -8.840963e+000 52 48 46
-1.028499e+001 -6.946454e+000 -2.653684e+001 149 145 143
-7.338375e-001 -1.570253e-001 -8.721424e+000 80 72 62
1.223652e+000 2.502985e-001 -8.487384e+000 80 73 65
7.118537e-001 -3.357633e-002 -8.658082e+000 19 12 9
1.411908e+000 5.352620e-001 -7.232112e+000 125 77 29
-1.540443e+001 -1.034753e+001 -2.870082e+001 73 62 60
-9.731478e-001 -7.161711e-001 -8.308418e+000 84 60 34
-1.317654e+001 -1.220331e+001 -2.821645e+001 31 29 43
-1.556054e+000 -1.048087e+000 -7.888657e+000 77 43 31
-2.235018e+000 -1.374206e+000 -8.045876e+000 75 49 33
-1.000888e+001 -1.226857e+001 -2.469840e+001 76 77 93
9.303210e-001 2.415381e+000 -8.415850e+000 71 45 28
1.269836e+000 2.152735e+000 -8.236578e+000 182 155 108
4.057133e+000 2.215976e+000 -1.025721e+001 37 24 28
-1.439897e-001 1.383662e+000 -1.007500e+001 116 97 68
4.738953e-001 1.084488e+000 -9.438101e+000 61 55 52
4.232179e+000 1.696110e+000 -9.815835e+000 60 48 45
-2.789818e+000 -2.489093e-001 -8.280268e+000 114 75 42
-1.810736e+000 -9.810374e-002 -8.084489e+000 47 18 2
-9.718572e+000 -7.670111e+000 -2.593124e+001 126 129 154
-7.097171e-001 -1.860245e-001 -8.673959e+000 20 15 9
-1.181215e+001 -8.878832e+000 -2.710597e+001 120 131 169
1.212987e+000 4.285083e-002 -8.311441e+000 95 86 71
-1.360613e+001 -1.073602e+001 -2.753951e+001 124 115 118
-2.237070e+000 -1.411240e+000 -8.030953e+000 137 112 83
1.101559e+000 2.316229e+000 -8.304282e+000 70 49 26
4.050804e+000 2.270529e+000 -1.026876e+001 64 52 52
1.907091e-001 6.281610e-001 -9.531269e+000 24 15 17
-1.386538e+001 -8.584029e+000 -2.985160e+001 42 39 49
-1.829268e+000 -7.277183e-001 -7.795958e+000 101 60 36
-1.459974e+001 -1.190464e+001 -2.722585e+001 123 111 120
1.870605e+000 1.442818e-001 -6.812434e+000 179 136 82
-1.481100e+001 -1.229418e+001 -2.711424e+001 58 47 60
-3.100256e-001 -1.088897e+000 -8.325922e+000 120 110 94
5.406513e-001 -1.213718e+000 -7.663303e+000 96 50 25
3.310317e+000 3.028025e+000 -1.133900e+001 36 24 24
-1.952544e+000 4.074453e-001 -8.558030e+000 109 76 57
1.817662e+000 9.051267e-001 -7.211876e+000 177 152 111
4.710076e+000 9.812359e-001 -8.935278e+000 50 41 40
-1.182990e-001 -9.582622e-002 -8.609117e+000 145 139 107
-3.205636e-001 -2.571009e-001 -8.561306e+000 146 132 104
-2.911905e-001 -3.311821e-001 -8.537996e+000 25 22 19
-1.371806e-001 -2.702034e-001 -8.552009e+000 23 22 18
-4.578638e-001 -5.742774e-001 -8.486270e+000 158 143 113
-3.073367e-001 -5.067262e-001 -8.486186e+000 155 143 114
-4.276111e-001 -6.470068e-001 -8.464790e+000 29 23 23
-3.527438e-001 -6.084061e-001 -8.459046e+000 151 136 104
-1.589982e-002 -5.629107e-001 -8.474524e+000 35 22 23
2.020506e+000 3.990730e-001 -6.841599e+000 63 39 35
