ply
format ascii 1.0
element face 0
property list uchar int vertex_indices
element vertex 882
property float x
property float y
property float z
property uchar diffuse_red
property uchar diffuse_green
property uchar diffuse_blue
end_header
7.400799e-001 -1.035827e+000 -7.675871e+000 100 56 28
7.572828e-001 -1.032170e+000 -7.705364e+000 185 141 109
9.646919e-001 -9.543899e-001 -7.721478e+000 134 101 70
-3.030323e-001 -1.454391e+000 -8.551374e+000 160 160 161
-3.030323e-001 -1.454391e+000 -8.551374e+000 160 160 161
1.409996e-001 -1.220312e+000 -7.986288e+000 134 107 98
3.164772e-001 -1.304678e+000 -7.934853e+000 174 141 110
3.406824e-001 -1.286458e+000 -7.904119e+000 95 59 33
3.406824e-001 -1.286458e+000 -7.904119e+000 95 59 33
3.655196e-001 -1.258065e+000 -7.881927e+000 178 143 109
6.336344e-001 -1.154515e+000 -7.764324e+000 199 154 121
1.008241e+000 -1.138263e+000 -7.766306e+000 175 138 102
1.607862e-001 -1.431475e+000 -8.007322e+000 47 20 10
1.607862e-001 -1.431475e+000 -8.007322e+000 47 20 10
3.813063e-001 -1.442215e+000 -8.070967e+000 130 91 50
7.202359e-001 -1.291792e+000 -7.872330e+000 168 124 78
1.033013e+000 -1.230765e+000 -7.766988e+000 204 172 134
-2.733119e-002 -1.719522e+000 -8.378180e+000 64 53 57
8.563290e-002 -1.558532e+000 -8.185370e+000 58 41 33
5.631426e-001 -1.473150e+000 -7.954829e+000 137 102 70
7.475123e-001 -1.454726e+000 -7.951346e+000 207 168 125
9.589394e-001 -1.562373e+000 -8.030492e+000 199 166 133
2.978799e-001 -1.711413e+000 -8.264883e+000 133 108 84
3.829255e-001 1.841571e+000 -8.918039e+000 87 73 62
8.650666e-001 1.889642e+000 -8.350370e+000 170 146 110
5.261092e-001 1.733020e+000 -8.620655e+000 92 53 23
5.261092e-001 1.733020e+000 -8.620655e+000 92 53 23
5.677987e-001 1.640031e+000 -8.591135e+000 63 35 21
5.677987e-001 1.640031e+000 -8.591135e+000 63 35 21
7.673153e-001 1.608317e+000 -8.332684e+000 92 70 56
1.012706e+000 1.583929e+000 -8.361228e+000 38 29 24
6.485094e-001 1.426545e+000 -8.795444e+000 131 117 104
8.485476e-001 1.449204e+000 -8.271113e+000 137 122 102
7.505735e-001 1.387691e+000 -8.456575e+000 111 84 55
7.331432e-001 1.295859e+000 -8.626846e+000 118 103 84
8.367768e-001 1.367184e+000 -8.336947e+000 40 26 24
1.687162e+000 1.381553e+000 -8.552180e+000 14 8 12
8.390262e-001 1.246043e+000 -8.835288e+000 42 38 35
1.157979e+000 1.186245e+000 -8.358552e+000 68 40 28
1.600970e+000 1.227822e+000 -8.549535e+000 68 56 52
1.600970e+000 1.227822e+000 -8.549535e+000 68 56 52
4.993103e-001 8.004989e-001 -9.179561e+000 63 58 54
1.626586e+000 8.466445e-001 -7.696546e+000 45 19 18
1.680056e+000 8.417042e-001 -7.727038e+000 61 38 22
-1.461606e+000 4.921213e-001 -9.040012e+000 133 101 68
-3.651207e-002 5.527092e-001 -9.484750e+000 65 60 57
1.620548e-002 5.655070e-001 -9.658289e+000 56 53 48
1.262383e+000 7.882307e-001 -7.604013e+000 176 137 94
1.554944e+000 7.485597e-001 -7.524988e+000 73 49 23
-1.542758e+000 3.719110e-001 -8.600364e+000 143 108 76
-1.542758e+000 3.719110e-001 -8.600364e+000 143 108 76
-1.484257e+000 3.522082e-001 -8.944489e+000 76 45 20
-1.315269e+000 3.600925e-001 -8.586339e+000 116 89 64
-1.277684e+000 4.065675e-001 -8.832700e+000 105 77 55
-9.535430e-001 4.103974e-001 -9.420250e+000 168 162 132
-8.051530e-001 4.375304e-001 -9.248434e+000 37 29 21
-6.309092e-001 4.495731e-001 -9.247054e+000 118 112 96
-4.324913e-001 4.881553e-001 -9.257984e+000 28 24 10
-5.046253e-001 4.747365e-001 -9.307402e+000 119 112 102
-4.436537e-001 4.586997e-001 -9.207584e+000 111 104 95
-3.929028e-001 4.924761e-001 -9.301874e+000 113 110 95
-2.942481e-001 4.592197e-001 -9.199700e+000 33 29 22
-2.942481e-001 4.592197e-001 -9.199700e+000 33 29 22
-2.283948e-001 4.763147e-001 -9.196753e+000 122 116 99
-2.259902e-001 4.777199e-001 -9.182393e+000 122 116 99
-2.104658e-001 4.456765e-001 -9.135341e+000 29 24 20
-1.306966e-001 4.241767e-001 -9.083637e+000 27 19 13
3.985885e-001 5.564789e-001 -9.293931e+000 26 23 20
-2.355425e+000 1.980424e-001 -8.728168e+000 122 93 63
-2.263899e+000 2.600859e-001 -8.718956e+000 176 143 102
-2.119246e+000 2.064573e-001 -8.503864e+000 181 147 101
-1.905142e+000 2.176414e-001 -8.445756e+000 103 67 33
-1.104303e-001 3.922695e-001 -9.032214e+000 115 109 94
6.753332e-002 3.718708e-001 -9.020012e+000 24 19 15
1.269176e-001 3.504818e-001 -8.959962e+000 23 19 20
5.986859e-002 3.445252e-001 -8.945528e+000 104 101 84
2.532238e-001 3.554919e-001 -9.020044e+000 16 15 11
2.280849e-001 3.293556e-001 -8.911795e+000 20 14 17
4.072695e-001 3.070275e-001 -8.804208e+000 120 114 102
1.104734e+000 4.579316e-001 -7.898047e+000 198 177 140
1.140319e+000 5.083619e-001 -7.683364e+000 185 148 103
1.159672e+000 4.521817e-001 -7.446094e+000 173 131 81
-2.533715e+000 9.274705e-002 -8.900831e+000 185 162 125
-2.493053e+000 1.263358e-001 -8.855526e+000 128 101 68
-1.777361e+000 1.085009e-001 -8.362275e+000 79 48 22
-1.641512e+000 1.998037e-001 -8.370445e+000 45 17 5
-1.647710e+000 1.224000e-001 -8.364272e+000 73 42 24
-1.518470e+000 1.199651e-001 -8.346569e+000 81 58 44
-1.405559e+000 1.524453e-001 -8.520269e+000 38 20 10
5.107715e-001 2.376517e-001 -8.701490e+000 50 43 37
1.526609e+000 4.312025e-001 -7.310724e+000 172 147 107
-1.917524e+000 -1.874799e-002 -8.146110e+000 169 137 96
-1.776277e+000 8.677946e-002 -8.225172e+000 102 66 39
-1.522212e+000 1.350242e-002 -8.241436e+000 109 78 58
-1.035717e+000 8.926655e-002 -8.209428e+000 134 113 81
1.544834e-001 1.089849e-001 -8.687429e+000 98 89 74
1.070094e+000 1.218603e-001 -8.323580e+000 49 40 33
-2.060725e+000 -1.576826e-001 -8.189763e+000 156 118 77
-2.006078e+000 -1.635791e-001 -8.077033e+000 126 88 51
-1.991739e+000 -1.735621e-001 -8.122708e+000 172 138 100
-1.736642e+000 -1.179718e-001 -8.046421e+000 173 143 105
-1.678844e+000 -9.638351e-002 -8.056312e+000 165 139 104
-3.670046e-001 -1.414254e-001 -8.615906e+000 125 61 60
-2.106100e+000 -2.951736e-001 -8.047764e+000 126 83 47
-2.106568e+000 -2.748905e-001 -8.109606e+000 172 131 87
-2.068075e+000 -2.510888e-001 -8.121513e+000 166 124 84
-2.056114e+000 -2.996861e-001 -8.134539e+000 144 102 60
-1.881145e+000 -1.983972e-001 -8.066746e+000 170 136 99
-1.867097e+000 -2.283178e-001 -8.084441e+000 106 67 28
-1.867097e+000 -2.283178e-001 -8.084441e+000 106 67 28
1.038262e+000 -9.092552e-002 -8.331085e+000 66 56 45
1.058867e+000 -6.053519e-002 -8.273507e+000 95 85 73
1.123908e+000 5.848684e-002 -7.644810e+000 146 117 95
1.439318e+000 6.069208e-002 -7.088078e+000 157 105 63
1.530029e+000 1.158904e-001 -7.156656e+000 100 55 24
1.646420e+000 1.002982e-001 -7.070655e+000 114 77 50
-2.332678e+000 -4.619323e-001 -8.233602e+000 134 100 74
-1.329084e+000 -2.862296e-001 -8.113456e+000 87 67 43
1.243038e+000 -8.628561e-002 -7.616915e+000 156 116 85
1.255338e+000 -1.913720e-001 -8.044369e+000 15 6 7
1.334455e+000 -5.068432e-002 -7.216052e+000 191 142 101
1.522693e+000 -5.685112e-002 -7.164274e+000 146 95 63
1.645357e+000 -2.180681e-002 -7.090971e+000 197 158 117
1.789766e+000 2.271585e-002 -7.244463e+000 161 128 96
-1.728649e+000 -4.818058e-001 -7.837997e+000 141 114 84
-1.197271e+000 -4.481076e-001 -8.151305e+000 84 53 28
-1.187598e+000 -4.972978e-001 -8.122773e+000 68 36 15
-8.166957e-001 -5.226815e-001 -8.358930e+000 53 30 19
1.385746e+000 -1.698841e-001 -7.254890e+000 157 105 65
1.511198e+000 -1.760703e-001 -7.346577e+000 152 100 60
1.619566e+000 -6.117745e-002 -7.084640e+000 196 157 116
-2.275173e+000 -6.392190e-001 -8.189369e+000 163 131 93
-2.275173e+000 -6.392190e-001 -8.189369e+000 163 131 93
-2.076186e+000 -6.347933e-001 -7.953002e+000 189 158 120
-1.963881e+000 -6.186370e-001 -8.008571e+000 176 144 110
-1.597862e+000 -6.044749e-001 -7.899413e+000 88 45 20
-1.009839e+000 -5.914743e-001 -8.169488e+000 78 46 23
-5.049337e-001 -6.686909e-001 -8.486066e+000 153 146 127
1.438093e+000 -2.924185e-001 -7.434985e+000 179 146 118
1.922407e+000 -2.891550e-001 -7.405719e+000 34 18 19
-1.884389e+000 -7.004484e-001 -7.835255e+000 166 122 93
-1.569906e+000 -7.454250e-001 -7.901751e+000 78 37 19
-1.202826e+000 -7.356507e-001 -8.042284e+000 69 36 18
-9.171103e-001 -7.093127e-001 -8.207396e+000 78 46 25
-8.264958e-001 -7.019051e-001 -8.242120e+000 93 65 37
-8.264958e-001 -7.019051e-001 -8.242120e+000 93 65 37
-2.358054e+000 -9.070611e-001 -8.214210e+000 161 123 83
-2.011034e+000 -9.559387e-001 -8.073614e+000 84 46 25
-1.682208e+000 -8.200566e-001 -7.928234e+000 78 37 18
-1.111889e+000 -7.919622e-001 -8.073318e+000 75 40 21
-5.569446e-002 -9.096968e-001 -8.423227e+000 52 47 43
-2.319926e+000 -1.102304e+000 -8.155361e+000 172 139 100
-2.086473e+000 -9.644115e-001 -7.991474e+000 102 61 31
-2.086473e+000 -9.644115e-001 -7.991474e+000 102 61 31
-1.462462e+000 -8.776085e-001 -7.871080e+000 126 86 54
-1.462462e+000 -8.776085e-001 -7.871080e+000 126 86 54
-1.341444e+000 -9.326025e-001 -7.944564e+000 124 90 68
-1.221840e+000 -9.225368e-001 -7.970508e+000 45 19 12
-8.801390e-001 -1.067516e+000 -8.271529e+000 80 63 53
-8.801390e-001 -1.067516e+000 -8.271529e+000 80 63 53
-7.293268e-001 -1.021178e+000 -8.460411e+000 110 106 105
-6.469885e-001 -1.064071e+000 -8.604221e+000 27 24 31
-3.011104e-001 -9.639031e-001 -8.354806e+000 140 136 125
1.437960e-001 -9.782404e-001 -8.180963e+000 56 43 33
4.569962e-001 -8.421603e-001 -7.881944e+000 95 58 35
5.186039e-001 -7.741699e-001 -7.860191e+000 65 27 15
-1.845778e+000 -1.134860e+000 -7.996692e+000 108 77 58
-1.047191e+000 -1.137291e+000 -8.228733e+000 30 14 15
-1.053619e+000 -1.157164e+000 -8.184821e+000 56 44 44
-9.293218e-001 -1.110736e+000 -8.287590e+000 78 62 49
1.126011e-001 -1.100382e+000 -8.151387e+000 51 23 11
1.563660e-001 -1.000878e+000 -8.042521e+000 124 95 65
2.606987e-001 -1.045656e+000 -8.123285e+000 60 32 20
2.117968e-001 -1.045471e+000 -7.959823e+000 112 87 65
3.190446e-001 -9.661582e-001 -8.001836e+000 131 97 71
5.052392e-001 -8.932463e-001 -7.853546e+000 135 98 69
5.342740e-001 -9.657347e-001 -7.831706e+000 66 28 8
9.503244e-001 -8.991994e-001 -7.853339e+000 69 41 20
8.995417e-001 -8.657544e-001 -7.664499e+000 165 130 100
-2.200754e+000 -1.227849e+000 -7.967093e+000 181 157 132
-1.921391e+000 -1.294699e+000 -7.980764e+000 145 123 100
-1.769109e+000 -1.263584e+000 -8.155632e+000 110 87 74
-1.725221e+000 -1.253087e+000 -8.125293e+000 59 42 39
-1.648957e+000 -1.221513e+000 -8.084101e+000 38 27 28
-1.536785e+000 -1.293216e+000 -7.975307e+000 49 35 32
3.854806e-001 -1.075976e+000 -7.785853e+000 97 56 36
4.675237e-001 -1.032112e+000 -7.867602e+000 83 42 20
5.149193e-001 -1.076851e+000 -7.794573e+000 112 63 50
6.984490e-001 -1.020798e+000 -7.804901e+000 90 45 23
6.773435e-001 -1.044820e+000 -7.824153e+000 161 119 96
8.345685e-001 -1.056906e+000 -7.711567e+000 173 135 99
8.825770e-001 -9.569894e-001 -7.657485e+000 150 111 73
8.798163e-001 -9.491008e-001 -7.633084e+000 150 111 73
-1.736842e-001 -1.486965e+000 -8.386189e+000 43 34 34
5.884203e-001 -1.160446e+000 -7.787896e+000 106 57 27
5.973228e-001 -1.203631e+000 -7.813741e+000 173 128 90
5.973228e-001 -1.203631e+000 -7.813741e+000 173 128 90
6.291996e-001 -1.197798e+000 -7.823274e+000 137 91 57
7.149822e-001 -1.103322e+000 -7.770666e+000 89 45 20
7.961743e-001 -1.151188e+000 -7.707163e+000 189 145 103
1.799688e+000 -1.325978e+000 -8.645790e+000 167 148 113
4.000053e-001 -1.355368e+000 -7.894991e+000 176 132 93
5.088058e-001 -1.361440e+000 -7.910487e+000 142 99 55
6.035842e-001 -1.277461e+000 -7.779177e+000 151 104 62
8.566419e-001 -1.484869e+000 -8.005246e+000 174 134 96
8.466090e-001 -1.515383e+000 -7.997274e+000 210 172 135
1.056101e+000 -1.494174e+000 -8.025665e+000 139 112 85
1.008391e+000 -1.515066e+000 -7.997365e+000 156 124 90
8.548388e-001 -1.673038e+000 -8.170164e+000 190 160 134
5.446176e-001 1.826804e+000 -8.547620e+000 172 134 98
5.052512e-001 1.803084e+000 -8.475251e+000 141 102 69
6.872329e-001 1.828035e+000 -8.483247e+000 73 45 34
6.819009e-001 1.679203e+000 -8.350979e+000 70 36 26
6.039963e-001 1.643530e+000 -8.533269e+000 163 132 106
6.339018e-001 1.621208e+000 -8.577981e+000 88 60 39
1.527209e+000 1.593012e+000 -8.547604e+000 109 94 73
9.969138e-001 1.480824e+000 -8.245890e+000 28 16 16
9.305580e-001 1.403634e+000 -8.284800e+000 83 66 58
6.661460e-001 1.358279e+000 -8.591251e+000 138 118 103
6.661460e-001 1.358279e+000 -8.591251e+000 138 118 103
7.739833e-001 1.281954e+000 -8.575374e+000 43 38 35
8.987912e-001 1.299481e+000 -8.409880e+000 36 18 18
1.472224e+000 1.305663e+000 -8.348484e+000 64 32 19
1.535674e+000 1.322897e+000 -8.319338e+000 84 59 44
9.454345e-001 1.177810e+000 -8.662030e+000 44 36 40
1.240368e+000 1.282867e+000 -8.283160e+000 132 97 71
9.814301e-001 1.058552e+000 -8.686717e+000 32 28 29
1.310914e+000 1.114080e+000 -8.585164e+000 21 16 20
4.368561e-001 7.884473e-001 -9.276846e+000 28 22 25
-1.667782e+000 4.908385e-001 -9.036089e+000 95 63 43
-9.046337e-002 5.644060e-001 -9.530878e+000 18 12 12
8.043956e-002 5.489035e-001 -9.652886e+000 16 11 10
5.567812e-001 6.745308e-001 -9.139961e+000 40 36 37
-1.924347e+000 3.712680e-001 -8.623568e+000 170 136 91
-1.691457e+000 4.427851e-001 -8.716333e+000 104 64 29
-9.507084e-001 3.491011e-001 -9.261579e+000 153 144 111
-9.041018e-001 3.853389e-001 -9.241891e+000 49 42 31
-9.041018e-001 3.853389e-001 -9.241891e+000 49 42 31
-8.641967e-001 4.116679e-001 -9.311630e+000 164 158 132
-5.048422e-001 4.460321e-001 -9.200715e+000 35 26 24
-4.201548e-001 4.285794e-001 -9.147619e+000 26 20 17
-1.879537e-001 4.150261e-001 -9.041772e+000 124 117 106
-1.879537e-001 4.150261e-001 -9.041772e+000 124 117 106
1.725217e-001 4.983524e-001 -9.332113e+000 19 14 8
-2.114507e+000 2.717701e-001 -8.567637e+000 137 99 61
-1.567298e+000 3.037242e-001 -8.437527e+000 122 90 65
-1.642292e+000 2.542102e-001 -8.427220e+000 79 45 33
-1.516605e+000 3.301064e-001 -8.572946e+000 76 45 24
-1.165184e+000 3.301265e-001 -9.140122e+000 101 79 55
-8.412413e-001 2.432487e-001 -9.138029e+000 133 129 110
-8.596449e-002 3.602461e-001 -8.964522e+000 29 20 24
-8.668806e-004 3.384374e-001 -8.917021e+000 24 18 22
-2.264330e-003 3.385892e-001 -8.912347e+000 24 18 22
2.521167e-001 4.213969e-001 -8.973186e+000 31 27 22
1.089476e+000 4.238351e-001 -7.882125e+000 33 23 22
1.521993e+000 5.428856e-001 -7.276637e+000 191 168 133
-2.024858e+000 1.696539e-001 -8.336121e+000 184 151 102
-2.026984e+000 1.009561e-001 -8.357325e+000 151 114 69
-1.718815e+000 1.490149e-001 -8.393471e+000 67 36 16
-1.360097e+000 2.105776e-001 -8.650449e+000 48 25 15
-8.234325e-001 1.957271e-001 -9.141179e+000 29 23 20
-7.450482e-001 1.981911e-001 -9.044604e+000 52 50 38
-7.773113e-001 1.093211e-001 -9.056121e+000 48 43 39
-1.849968e+000 8.033026e-002 -8.201760e+000 120 84 50
-1.600503e+000 6.672671e-002 -8.330389e+000 53 23 13
-1.465128e+000 9.869033e-002 -8.179129e+000 37 13 9
-1.469198e+000 7.564864e-002 -8.343101e+000 98 64 45
-1.469198e+000 7.564864e-002 -8.343101e+000 98 64 45
-4.222899e-001 4.889097e-002 -8.652717e+000 34 28 27
1.118770e+000 2.686920e-001 -7.630976e+000 128 89 60
1.146834e+000 2.574228e-001 -7.535121e+000 203 173 133
1.492570e+000 3.078172e-001 -7.195988e+000 140 103 64
1.558145e+000 2.753980e-001 -7.156109e+000 198 167 123
-2.260008e+000 -1.892572e-001 -8.242602e+000 117 75 35
-1.468662e+000 -1.360029e-001 -8.130376e+000 61 34 13
-5.154932e-001 -1.434132e-001 -8.679389e+000 98 90 67
-3.150820e-001 -8.871098e-002 -8.623850e+000 25 17 28
1.486799e+000 2.469285e-001 -7.195730e+000 110 70 36
-1.745460e+000 -2.518076e-001 -8.018627e+000 170 144 107
-1.673974e+000 -2.593104e-001 -8.064038e+000 107 74 41
-1.610261e+000 -2.355350e-001 -8.061212e+000 160 132 97
-1.431631e+000 -1.671858e-001 -8.111172e+000 148 120 95
1.096820e+000 -1.031284e-001 -8.313899e+000 92 83 74
1.136582e+000 1.730214e-002 -7.646950e+000 173 143 99
1.238596e+000 8.352078e-002 -7.332956e+000 187 145 105
1.508566e+000 1.535112e-001 -7.132241e+000 156 115 72
-1.950601e+000 -3.653409e-001 -8.056457e+000 112 76 42
-1.759872e+000 -3.270294e-001 -8.024930e+000 109 72 43
-1.759872e+000 -3.270294e-001 -8.024930e+000 109 72 43
1.213799e+000 -1.990819e-001 -8.120876e+000 75 66 59
1.315107e+000 -9.600668e-002 -7.379004e+000 191 149 110
1.460392e+000 2.406710e-002 -7.099849e+000 199 149 103
1.443392e+000 -3.536007e-002 -7.173830e+000 190 139 96
2.249245e+000 -2.451452e-002 -7.536385e+000 57 49 47
1.394780e+000 -8.521314e-002 -7.213305e+000 127 74 34
2.049605e+000 -1.560707e-001 -7.356705e+000 30 19 20
-2.035444e+000 -6.296091e-001 -7.966061e+000 186 157 117
-1.854103e+000 -5.444876e-001 -7.929344e+000 160 131 99
-1.344940e+000 -5.912071e-001 -7.955056e+000 73 39 12
-1.244248e+000 -5.073580e-001 -7.952713e+000 85 52 21
-9.747198e-001 -6.255867e-001 -8.172248e+000 84 47 24
1.393278e+000 -2.560460e-001 -7.387411e+000 186 158 117
1.702546e+000 -1.767588e-001 -7.206026e+000 207 175 137
1.935396e+000 -2.612356e-001 -7.387813e+000 146 121 101
-2.259730e+000 -7.815924e-001 -8.095919e+000 169 126 85
-1.807607e+000 -7.496161e-001 -7.959924e+000 117 76 51
-2.101801e+000 -8.340854e-001 -7.960946e+000 183 144 104
-1.943007e+000 -8.953655e-001 -7.986085e+000 70 32 16
-1.484742e+000 -7.743331e-001 -7.836251e+000 84 48 25
-6.356201e-001 -9.890315e-001 -8.577277e+000 21 19 21
1.411154e-001 -8.518236e-001 -8.478098e+000 19 14 18
8.720577e-001 -6.591485e-001 -8.058153e+000 78 63 49
-5.424007e-001 -1.050762e+000 -8.474736e+000 145 149 152
-2.180623e-001 -1.024122e+000 -8.558782e+000 33 28 25
2.536325e-001 -1.015927e+000 -8.098697e+000 67 37 23
2.536325e-001 -1.015927e+000 -8.098697e+000 67 37 23
3.673983e-001 -1.004558e+000 -7.870467e+000 143 104 79
6.053768e-001 -9.362826e-001 -7.948643e+000 57 24 14
8.664333e-001 -9.407491e-001 -7.861946e+000 83 45 21
9.729404e-001 -8.662560e-001 -7.672395e+000 103 76 55
4.741318e-001 -1.115358e+000 -7.883325e+000 106 60 36
-1.521693e+000 -1.403647e+000 -8.181031e+000 49 34 31
-1.399430e+000 -1.446274e+000 -8.176264e+000 55 33 24
1.470888e-001 -1.261960e+000 -8.007181e+000 31 16 20
2.468060e-001 -1.264072e+000 -7.942856e+000 67 44 33
4.087562e-001 -1.192403e+000 -7.813541e+000 69 34 12
5.171947e-001 -1.189688e+000 -7.789531e+000 161 115 81
5.171947e-001 -1.189688e+000 -7.789531e+000 161 115 81
1.130160e+000 -1.113102e+000 -7.827861e+000 93 69 45
1.097826e+000 -1.188915e+000 -7.746217e+000 169 140 106
1.798353e+000 -1.274910e+000 -8.483314e+000 89 76 74
-1.561467e+000 -1.497473e+000 -8.134154e+000 114 96 81
1.036229e-001 -1.415382e+000 -8.126664e+000 39 24 23
7.947460e-001 -1.400048e+000 -7.940162e+000 217 179 141
1.092825e+000 -1.275693e+000 -7.812255e+000 167 136 105
1.021444e-001 -1.565305e+000 -8.140781e+000 120 92 73
1.983348e-001 -1.568342e+000 -8.141043e+000 153 121 102
4.935228e-001 -1.672301e+000 -8.138268e+000 174 146 119
6.390286e-001 1.677580e+000 -8.319553e+000 133 97 72
5.157382e-001 1.633850e+000 -8.841032e+000 94 63 43
5.157382e-001 1.633850e+000 -8.841032e+000 94 63 43
1.383733e+000 1.592888e+000 -8.159884e+000 149 125 96
1.546316e+000 1.568345e+000 -8.489952e+000 15 9 19
6.413630e-001 1.452085e+000 -9.362528e+000 41 35 33
1.256122e+000 1.351022e+000 -8.301206e+000 144 105 71
1.300626e+000 1.400336e+000 -8.276624e+000 139 101 63
1.078067e+000 1.199147e+000 -8.469120e+000 46 26 21
9.126856e-001 1.101292e+000 -8.756010e+000 49 40 42
9.886299e-001 1.137938e+000 -8.552666e+000 43 34 35
1.088191e+000 1.104178e+000 -8.688247e+000 33 25 28
4.450617e-001 7.398700e-001 -9.261064e+000 61 52 52
1.858061e+000 8.653098e-001 -7.966498e+000 76 54 40
2.168814e-001 5.896994e-001 -9.205763e+000 35 29 31
1.118148e+000 6.869213e-001 -7.784835e+000 26 22 23
1.203713e+000 7.593805e-001 -7.815082e+000 170 134 89
1.301704e+000 6.910372e-001 -7.533062e+000 149 108 62
-9.860971e-001 3.909568e-001 -9.333444e+000 48 40 27
-8.299964e-001 3.749118e-001 -9.206133e+000 49 43 33
-8.299964e-001 3.749118e-001 -9.206133e+000 49 43 33
-7.068869e-001 4.351540e-001 -9.171254e+000 33 26 24
-6.914171e-001 3.862765e-001 -9.188796e+000 145 136 108
-6.914171e-001 3.862765e-001 -9.188796e+000 145 136 108
-6.290422e-001 4.108023e-001 -9.179247e+000 29 22 25
-5.422475e-001 3.898119e-001 -9.130528e+000 28 23 22
-4.790378e-001 4.097955e-001 -9.153645e+000 123 115 94
1.493163e+000 6.013444e-001 -7.337384e+000 185 162 119
1.493163e+000 6.013444e-001 -7.337384e+000 185 162 119
-8.110537e-001 3.260281e-001 -9.170443e+000 166 161 140
-7.568202e-001 3.556051e-001 -9.198415e+000 39 39 31
-7.568202e-001 3.556051e-001 -9.198415e+000 39 39 31
-7.308206e-001 3.116352e-001 -9.122008e+000 149 142 114
-7.308206e-001 3.116352e-001 -9.122008e+000 149 142 114
-7.132688e-001 2.648632e-001 -9.092541e+000 38 36 39
-7.132688e-001 2.648632e-001 -9.092541e+000 38 36 39
-7.691539e-001 2.351822e-001 -9.076232e+000 154 149 117
-7.691539e-001 2.351822e-001 -9.076232e+000 154 149 117
-6.612724e-001 3.467472e-001 -9.045770e+000 44 37 32
-6.612724e-001 3.467472e-001 -9.045770e+000 44 37 32
-6.053277e-001 3.686292e-001 -9.111718e+000 137 131 109
-5.874920e-001 3.214638e-001 -9.083631e+000 29 24 26
-5.874920e-001 3.214638e-001 -9.083631e+000 29 24 26
-6.477148e-001 2.968627e-001 -9.072429e+000 149 143 115
-6.477148e-001 2.968627e-001 -9.072429e+000 149 143 115
-6.215511e-001 2.567025e-001 -8.964159e+000 41 35 31
-5.645057e-001 2.776245e-001 -9.022499e+000 144 136 109
-5.645057e-001 2.776245e-001 -9.022499e+000 144 136 109
-5.208902e-001 3.463626e-001 -9.066741e+000 132 125 99
-4.567678e-001 3.692274e-001 -9.072234e+000 28 27 23
-4.567678e-001 3.692274e-001 -9.072234e+000 28 27 23
-4.983238e-001 3.041768e-001 -9.001204e+000 18 16 19
-2.898948e-001 3.374264e-001 -8.977273e+000 30 23 20
-3.569588e-001 3.080746e-001 -8.992321e+000 137 129 107
-3.364336e-001 2.674008e-001 -8.953797e+000 32 26 32
-3.364336e-001 2.674008e-001 -8.953797e+000 32 26 32
-2.740587e-001 2.944299e-001 -8.956857e+000 146 142 116
-2.740587e-001 2.944299e-001 -8.956857e+000 146 142 116
-2.266386e-001 3.607028e-001 -8.976923e+000 136 129 111
-2.266386e-001 3.607028e-001 -8.976923e+000 136 129 111
-2.097842e-001 3.205305e-001 -8.945907e+000 32 27 22
-1.905209e-001 2.813162e-001 -8.904035e+000 147 143 107
-1.905209e-001 2.813162e-001 -8.904035e+000 147 143 107
2.836417e-001 3.631209e-001 -8.990911e+000 43 37 40
5.196342e-001 4.350601e-001 -9.053301e+000 10 8 10
5.276040e-001 3.129281e-001 -8.897751e+000 55 51 51
-9.456953e-001 2.219315e-001 -8.611635e+000 76 55 34
-9.220418e-001 1.360308e-001 -9.268594e+000 80 70 69
-6.860979e-001 2.270368e-001 -8.991739e+000 146 136 102
-6.926180e-001 2.222048e-001 -9.040952e+000 146 136 102
-6.097298e-001 2.082483e-001 -8.986563e+000 142 138 114
-5.446941e-001 2.352900e-001 -8.967757e+000 28 24 24
-5.446941e-001 2.352900e-001 -8.967757e+000 28 24 24
-4.622724e-001 2.166779e-001 -8.924293e+000 27 27 27
-4.622724e-001 2.166779e-001 -8.924293e+000 27 27 27
-5.237008e-001 1.955496e-001 -8.909434e+000 132 128 98
-5.258977e-001 1.927093e-001 -8.939147e+000 132 128 98
-3.937475e-001 2.438895e-001 -8.902078e+000 152 147 125
-3.973320e-001 2.396883e-001 -8.947227e+000 152 147 125
-4.442283e-001 1.752540e-001 -8.894043e+000 126 120 93
-4.442283e-001 1.752540e-001 -8.894043e+000 126 120 93
-3.780011e-001 1.996638e-001 -8.891636e+000 34 29 35
-3.780011e-001 1.996638e-001 -8.891636e+000 34 29 35
-2.541648e-001 2.550816e-001 -8.893736e+000 35 32 28
-2.548711e-001 2.553247e-001 -8.889929e+000 35 32 28
-2.343370e-001 2.129738e-001 -8.843896e+000 150 143 114
1.180095e+000 4.082158e-001 -7.447911e+000 145 91 47
1.227363e+000 3.783265e-001 -7.358401e+000 212 175 128
-2.047955e+000 1.208446e-002 -8.232697e+000 166 127 83
1.090325e+000 1.909107e-001 -7.907369e+000 28 24 27
1.367456e+000 1.879215e-001 -7.211460e+000 188 141 99
1.991098e+000 1.900420e-001 -7.331169e+000 144 118 91
1.991098e+000 1.900420e-001 -7.331169e+000 144 118 91
2.228590e+000 1.704944e-001 -7.748881e+000 24 15 17
-2.186123e+000 -2.032880e-001 -8.152403e+000 186 148 105
-2.164815e+000 -2.475297e-001 -8.165210e+000 106 65 28
1.877484e+000 1.745947e-001 -7.226207e+000 145 123 87
1.877484e+000 1.745947e-001 -7.226207e+000 145 123 87
-1.828514e+000 -3.284709e-001 -8.115301e+000 168 139 107
-1.565758e+000 -2.937950e-001 -7.969746e+000 106 75 46
-1.565758e+000 -2.937950e-001 -7.969746e+000 106 75 46
-1.662424e+000 -3.261487e-001 -7.924642e+000 170 145 105
-3.128396e-001 -2.765883e-001 -8.557741e+000 28 23 29
4.169242e-001 -3.320584e-001 -8.560826e+000 131 121 91
5.152041e-001 -3.680221e-001 -8.608744e+000 118 106 83
1.065910e+000 -2.200787e-001 -8.194939e+000 65 58 49
1.215868e+000 -1.091293e-001 -7.599115e+000 185 160 131
-1.548757e+000 -4.811841e-001 -7.935817e+000 102 60 38
-1.575649e+000 -4.208709e-001 -8.061705e+000 82 51 21
1.338702e+000 -9.058868e-002 -7.257637e+000 140 90 47
1.539579e+000 -1.604234e-001 -7.199765e+000 154 108 70
1.539579e+000 -1.604234e-001 -7.199765e+000 154 108 70
1.734470e+000 -1.048721e-001 -7.119268e+000 133 94 70
-1.882978e+000 -6.275636e-001 -7.964846e+000 168 141 112
5.122503e-001 -5.819501e-001 -8.650758e+000 62 59 55
5.139536e-001 -5.948781e-001 -8.709071e+000 62 59 55
3.951822e-001 -6.356737e-001 -8.590975e+000 60 52 47
4.520886e-001 -6.083106e-001 -8.609655e+000 18 13 19
4.520886e-001 -6.083106e-001 -8.609655e+000 18 13 19
5.869386e-001 -6.268706e-001 -8.694449e+000 71 66 62
5.249534e-001 -6.404547e-001 -8.655901e+000 15 10 13
5.249534e-001 -6.404547e-001 -8.655901e+000 15 10 13
6.424577e-001 -6.037428e-001 -8.646035e+000 16 14 19
1.660015e+000 -3.253796e-001 -7.466830e+000 189 165 142
-7.197967e-001 -7.262993e-001 -8.343281e+000 21 15 17
-4.722780e-001 -7.791066e-001 -8.462529e+000 142 136 113
1.775123e-001 -7.834167e-001 -8.488749e+000 20 12 14
2.368951e-001 -7.584608e-001 -8.505558e+000 88 70 69
3.554093e-001 -7.106239e-001 -8.523924e+000 44 38 37
2.961749e-001 -7.383891e-001 -8.527029e+000 14 8 16
3.699470e-001 -7.654870e-001 -8.526367e+000 14 9 14
4.134951e-001 -6.921516e-001 -8.595914e+000 19 13 17
4.677016e-001 -6.659669e-001 -8.620316e+000 47 40 40
4.321902e-001 -7.767908e-001 -8.713912e+000 36 31 35
6.033088e-001 -7.036440e-001 -8.758440e+000 16 11 17
1.633259e+000 -3.562179e-001 -7.481220e+000 23 17 25
1.803172e+000 -3.640326e-001 -7.485880e+000 34 24 31
-2.042555e+000 -9.181240e-001 -7.968008e+000 171 127 90
-1.748602e+000 -8.846073e-001 -7.932147e+000 79 44 32
-1.488817e+000 -8.278296e-001 -7.877429e+000 115 79 52
-8.717275e-001 -7.670291e-001 -8.090203e+000 128 98 72
-5.489917e-001 -9.039000e-001 -8.483126e+000 24 22 27
-4.435813e-001 -8.278064e-001 -8.406508e+000 25 24 22
-4.735734e-001 -9.222755e-001 -8.421557e+000 27 24 25
-4.215381e-001 -8.903348e-001 -8.409290e+000 144 141 122
-5.213394e-003 -8.448510e-001 -8.429123e+000 120 111 90
3.150809e-001 -8.203449e-001 -8.627853e+000 51 42 43
5.048872e-001 -7.022472e-001 -7.938068e+000 67 47 34
7.599302e-001 -6.096269e-001 -7.872085e+000 126 111 88
-2.171160e+000 -1.037254e+000 -8.085453e+000 115 67 31
-1.079937e-001 -1.019198e+000 -8.389371e+000 122 115 107
3.169718e-001 -8.937587e-001 -8.012087e+000 138 97 69
1.121457e-001 -1.022846e+000 -8.186561e+000 44 29 21
7.007699e-001 -8.626605e-001 -7.685106e+000 82 44 23
7.007699e-001 -8.626605e-001 -7.685106e+000 82 44 23
-1.118080e+000 -1.257834e+000 -8.122278e+000 28 16 17
-8.927692e-001 -1.312632e+000 -8.465955e+000 158 141 133
7.126915e-001 -1.232753e+000 -7.835138e+000 212 169 124
5.796735e-001 -1.375185e+000 -7.821600e+000 209 173 131
-7.075637e-002 -1.696045e+000 -8.342047e+000 135 139 169
7.182105e-001 -1.418905e+000 -7.858806e+000 210 173 129
8.321925e-001 -1.577396e+000 -8.065743e+000 142 99 64
8.321925e-001 -1.577396e+000 -8.065743e+000 142 99 64
4.227389e-001 1.834880e+000 -8.787367e+000 183 157 127
6.627060e-001 1.565143e+000 -8.447084e+000 164 137 107
6.656030e-001 1.567592e+000 -8.466848e+000 164 137 107
1.077562e+000 1.525868e+000 -8.265079e+000 52 35 28
1.497589e+000 1.351542e+000 -8.323073e+000 133 102 74
1.507517e+000 1.202434e+000 -8.446374e+000 79 57 43
5.007056e-001 1.133695e+000 -8.874134e+000 70 66 59
4.467884e-001 8.421099e-001 -9.207008e+000 56 51 47
-2.000992e+000 3.367110e-001 -8.421444e+000 146 109 66
-2.034911e+000 3.947959e-001 -8.900463e+000 141 101 63
-1.592245e+000 4.329523e-001 -8.530568e+000 133 97 65
-1.822794e+000 2.361385e-001 -8.341019e+000 149 115 80
-1.823100e+000 2.857048e-001 -8.446421e+000 156 123 82
-1.823726e+000 2.859183e-001 -8.450091e+000 156 123 82
-1.765238e+000 2.688897e-001 -8.513558e+000 134 105 70
-1.076300e+000 2.820610e-001 -9.215503e+000 196 186 163
-1.076300e+000 2.820610e-001 -9.215503e+000 196 186 163
1.509449e+000 5.182170e-001 -7.343437e+000 65 41 31
1.128856e+000 3.098673e-001 -7.906680e+000 193 168 134
1.630616e-001 -1.493290e-002 -8.629042e+000 135 130 101
1.223969e-001 -9.963944e-002 -8.609877e+000 136 126 99
4.395805e-001 1.957092e-002 -8.642693e+000 23 17 23
-2.005525e+000 -3.004542e-001 -8.132560e+000 163 134 94
-1.941359e-001 -2.231227e-001 -8.567127e+000 27 21 19
-1.298472e-001 -1.975500e-001 -8.574508e+000 144 133 105
5.927458e-002 -1.230418e-001 -8.593876e+000 23 19 20
5.705639e-001 -1.429817e-001 -8.590302e+000 24 18 21
5.946700e-001 -2.067616e-001 -8.582258e+000 114 108 79
6.599832e-001 -1.866345e-001 -8.595856e+000 21 16 25
1.369545e+000 1.010538e-001 -7.136208e+000 207 165 119
1.597787e+000 1.235198e-001 -7.154668e+000 101 64 37
1.575542e+000 8.882398e-002 -7.077042e+000 193 148 106
-1.733915e+000 -3.076478e-001 -8.000147e+000 120 80 49
-1.770613e+000 -3.299815e-001 -8.110210e+000 120 80 49
-2.318550e-001 -3.083139e-001 -8.540144e+000 20 18 19
-2.682980e-001 -3.927370e-001 -8.504926e+000 28 22 21
-1.691155e-001 -2.820589e-001 -8.545126e+000 148 138 103
4.692065e-002 -2.649967e-001 -8.539165e+000 135 125 98
8.787632e-003 -3.478214e-001 -8.511019e+000 137 125 103
1.329236e-001 -3.019137e-001 -8.530165e+000 123 114 87
1.964336e-001 -2.839289e-001 -8.577176e+000 25 22 16
1.584217e-001 -3.675909e-001 -8.548212e+000 20 19 21
2.591985e-001 -2.611167e-001 -8.593562e+000 146 132 111
5.525284e-001 -2.869195e-001 -8.586933e+000 143 134 109
9.638404e-001 -2.531980e-001 -8.451171e+000 58 52 52
1.455765e+000 -4.956421e-002 -7.093702e+000 200 155 113
2.256609e+000 2.072317e-002 -7.555226e+000 18 12 14
-3.311237e-001 -4.229123e-001 -8.518292e+000 142 132 110
-3.676998e-001 -5.107436e-001 -8.500682e+000 148 136 114
-3.676964e-001 -5.106468e-001 -8.499936e+000 148 136 114
-3.039102e-001 -4.764231e-001 -8.469609e+000 26 19 24
-2.162960e-001 -5.086211e-001 -8.462055e+000 29 23 33
-9.167678e-002 -4.599865e-001 -8.487725e+000 23 19 27
-2.865320e-002 -4.334837e-001 -8.486843e+000 134 123 101
3.431993e-002 -4.115459e-001 -8.505982e+000 21 19 23
-2.949087e-003 -4.963200e-001 -8.485071e+000 23 23 24
9.650253e-002 -3.892030e-001 -8.525886e+000 127 116 94
1.823434e-001 -4.290051e-001 -8.536489e+000 121 106 90
1.213249e-001 -4.508898e-001 -8.514155e+000 20 18 16
2.697800e-001 -4.691082e-001 -8.551372e+000 122 115 88
5.898094e-001 -4.136722e-001 -8.609773e+000 155 144 116
1.109776e+000 -3.106380e-001 -8.395088e+000 58 50 48
-2.448820e+000 -6.650065e-001 -8.302390e+000 168 138 109
-1.843017e+000 -5.605326e-001 -7.958620e+000 158 129 97
-9.588775e-001 -5.457948e-001 -8.279134e+000 95 63 38
-4.039538e-001 -5.999120e-001 -8.484830e+000 145 137 113
-3.406599e-001 -5.655663e-001 -8.460895e+000 23 23 21
-3.146019e-001 -6.194210e-001 -8.428184e+000 140 127 110
-3.773298e-001 -6.567020e-001 -8.460754e+000 23 19 20
-1.891009e-001 -5.611947e-001 -8.419751e+000 141 130 106
-1.658163e-001 -6.267542e-001 -8.428159e+000 23 21 24
-1.418386e-002 -6.401169e-001 -8.453680e+000 110 101 83
2.310685e-001 -5.516240e-001 -8.510263e+000 113 100 83
2.312160e-001 -5.524615e-001 -8.514793e+000 113 100 83
1.081392e-001 -5.972670e-001 -8.487963e+000 144 134 98
6.839588e-001 -5.080071e-001 -8.288851e+000 75 72 67
1.734664e+000 -3.211551e-001 -7.436737e+000 173 145 121
-2.068559e+000 -8.063211e-001 -8.022285e+000 172 135 98
-7.423030e-001 -8.287819e-001 -8.440450e+000 18 14 13
-4.393807e-001 -6.873102e-001 -8.469457e+000 139 134 107
-3.512621e-001 -7.089117e-001 -8.419053e+000 126 121 102
-3.850525e-001 -7.888724e-001 -8.370708e+000 143 138 119
-3.850525e-001 -7.888724e-001 -8.370708e+000 143 138 119
-3.266437e-001 -7.652214e-001 -8.395091e+000 26 24 26
-3.266437e-001 -7.652214e-001 -8.395091e+000 26 24 26
-1.748658e-001 -7.644526e-001 -8.369836e+000 142 129 105
-5.038054e-002 -7.233492e-001 -8.416898e+000 118 113 84
8.126754e-001 -5.922868e-001 -7.898457e+000 30 30 30
-1.237896e+000 -8.032841e-001 -8.096087e+000 56 26 17
-3.627019e-001 -8.542948e-001 -8.385681e+000 26 26 21
-3.014901e-001 -8.239961e-001 -8.381570e+000 141 129 113
-2.122576e-001 -8.536504e-001 -8.368715e+000 128 123 91
-8.887862e-002 -8.083943e-001 -8.403681e+000 130 118 99
2.455954e-001 -8.953780e-001 -8.417463e+000 17 11 17
2.567016e-001 -8.287295e-001 -8.542037e+000 16 12 13
4.236484e-001 -7.349021e-001 -8.068028e+000 110 79 56
-7.944549e-001 -1.116621e+000 -8.689569e+000 42 33 32
-1.954174e+000 -1.199421e+000 -8.109460e+000 136 107 85
-4.107923e-001 -1.095466e+000 -8.392177e+000 129 122 112
-2.751387e-001 -1.232210e+000 -8.440489e+000 37 36 34
-1.379106e+000 -1.245855e+000 -8.078902e+000 29 18 23
-1.212632e+000 -1.387390e+000 -8.299897e+000 73 49 42
6.318207e-001 -1.061291e+000 -7.897642e+000 83 42 24
7.160383e-001 -1.061952e+000 -7.728330e+000 113 68 45
-1.491711e+000 -1.402394e+000 -8.209174e+000 41 25 25
-1.270854e+000 -1.521811e+000 -8.347864e+000 187 165 146
8.905445e-001 -1.098670e+000 -7.601016e+000 155 115 78
8.905445e-001 -1.098670e+000 -7.601016e+000 155 115 78
1.832923e+000 -1.362771e+000 -8.484643e+000 78 73 78
-2.216810e-001 -1.557619e+000 -8.517258e+000 181 178 179
8.012576e-001 -1.656136e+000 -8.149101e+000 195 162 129
9.072807e-001 -1.621106e+000 -8.104593e+000 196 162 131
9.204415e-001 -1.751875e+000 -8.291983e+000 124 119 125
4.695906e-001 2.014804e+000 -8.636818e+000 190 165 132
8.445856e-001 1.677736e+000 -8.256603e+000 35 26 25
1.335361e+000 1.180868e+000 -8.443125e+000 116 85 64
1.384087e+000 1.110367e+000 -8.714836e+000 28 24 27
2.549310e-001 8.787708e-001 -9.633863e+000 29 25 26
2.549310e-001 8.787708e-001 -9.633863e+000 29 25 26
3.647255e-001 9.008570e-001 -9.263583e+000 67 62 56
4.488887e-001 9.682965e-001 -9.381642e+000 19 15 14
1.665266e+000 8.579084e-001 -7.756215e+000 67 39 33
-1.593874e+000 3.576589e-001 -8.525857e+000 75 38 25
1.327887e+000 5.762393e-001 -7.410585e+000 90 55 30
-2.192850e+000 2.789511e-001 -8.789976e+000 145 107 67
3.603689e-001 2.086066e-001 -8.788358e+000 19 14 20
1.189861e+000 3.565337e-001 -7.392519e+000 147 96 53
-1.378032e+000 5.142470e-002 -8.010503e+000 57 30 21
-8.227607e-001 7.995707e-002 -8.729051e+000 19 15 16
1.293555e+000 2.828078e-001 -7.324894e+000 205 162 117
-4.414349e-001 -7.888314e-002 -8.661638e+000 29 24 28
-4.414349e-001 -7.888314e-002 -8.661638e+000 29 24 28
1.176574e+000 -1.976964e-001 -8.117112e+000 64 55 50
1.478334e+000 -1.561540e-001 -7.305383e+000 166 113 72
2.091275e+000 -1.592233e-001 -7.399448e+000 24 15 20
-2.097291e+000 -6.592610e-001 -8.067224e+000 178 148 110
-2.399171e+000 -7.819976e-001 -8.229085e+000 187 157 129
-1.196282e+000 -6.692137e-001 -7.981364e+000 81 46 27
3.079241e-001 -8.138586e-001 -8.118217e+000 142 107 74
-3.554356e-001 -1.230986e+000 -8.447997e+000 173 168 172
5.800379e-001 -9.260177e-001 -7.928624e+000 64 32 23
2.643984e-001 -1.094263e+000 -7.997156e+000 76 43 34
2.631642e-001 -1.081254e+000 -7.957256e+000 76 43 34
2.479897e+000 -7.043137e-001 -7.133813e+000 97 84 78
-1.436195e+000 -1.459601e+000 -8.338465e+000 59 41 39
1.818852e+000 -1.446800e+000 -8.482897e+000 225 197 152
9.045754e-001 1.975617e+000 -8.347881e+000 185 161 125
1.443214e+000 1.542012e+000 -8.416078e+000 136 115 86
1.537509e+000 1.504214e+000 -8.514685e+000 30 19 26
8.289981e-001 1.026726e+000 -8.913400e+000 83 76 70
1.481500e-001 5.987911e-001 -9.458845e+000 135 126 108
3.938734e-001 4.981955e-001 -9.077202e+000 120 114 100
1.383671e+000 6.743496e-001 -7.598977e+000 64 25 17
1.140138e+000 4.759958e-001 -7.979030e+000 196 174 142
-1.955539e+000 4.762148e-002 -8.352505e+000 105 66 33
1.942648e-001 8.738465e-002 -8.677954e+000 95 89 70
1.566758e+000 3.099021e-001 -7.166238e+000 193 164 123
-2.139855e+000 -3.788815e-001 -8.045333e+000 151 106 67
1.189675e+000 -1.008517e-001 -7.818435e+000 68 61 55
-1.622676e+000 -4.392085e-001 -7.896393e+000 147 118 83
5.635091e-001 -7.363626e-001 -7.959300e+000 116 81 59
1.519550e+000 -8.539564e-001 -8.671550e+000 17 14 23
9.254297e-001 -7.862083e-001 -8.044484e+000 89 69 46
2.543729e+000 -6.200020e-001 -7.234994e+000 95 81 74
-6.158253e-002 -1.209166e+000 -8.265752e+000 127 116 98
1.968218e-001 -1.270627e+000 -7.965207e+000 39 27 23
1.277123e-001 -1.690812e+000 -8.262938e+000 59 49 46
8.164079e-001 1.692990e+000 -8.324134e+000 34 22 21
9.530194e-001 1.693014e+000 -8.284812e+000 183 161 122
-5.205109e-001 1.676619e+000 -9.604688e+000 44 36 38
1.284281e+000 1.542126e+000 -8.296100e+000 159 132 95
1.139678e+000 1.203625e+000 -8.329382e+000 106 75 55
1.233014e+000 1.119895e+000 -8.401315e+000 39 33 35
1.229535e+000 6.664672e-001 -7.282342e+000 157 114 72
-2.267451e+000 1.205929e-001 -8.481848e+000 184 151 109
1.136917e+000 3.391162e-001 -7.709870e+000 190 157 126
1.236400e+000 4.158885e-001 -7.315643e+000 195 153 111
-1.342076e+000 4.874195e-002 -8.217283e+000 164 144 114
-2.213839e+000 -7.163008e-001 -8.094257e+000 138 102 68
1.422355e+000 -7.033867e-001 -8.406153e+000 46 44 49
5.927814e-001 -8.253269e-001 -7.923065e+000 59 29 21
2.043633e+000 -1.518902e+000 -8.336604e+000 131 122 113
1.771987e+000 1.278662e+000 -8.977964e+000 20 15 22
1.127994e+000 5.508253e-001 -8.443311e+000 14 12 23
1.403529e+000 6.166126e-001 -7.312404e+000 182 160 119
-1.444718e+000 1.686501e-001 -8.380022e+000 29 19 20
-6.953065e-002 1.027644e-001 -8.698706e+000 20 17 24
1.929406e+000 7.187918e-002 -7.294505e+000 154 133 104
-1.454733e+000 -6.065761e-001 -7.911214e+000 115 80 49
-1.264457e+000 -7.137966e-001 -8.057110e+000 89 51 37
-1.264457e+000 -7.137966e-001 -8.057110e+000 89 51 37
1.868229e-001 -8.978763e-001 -8.481405e+000 17 15 21
8.054126e-001 -6.866474e-001 -7.979818e+000 79 56 35
1.081202e+000 -1.015440e+000 -7.959518e+000 76 53 39
7.491795e-001 -1.277303e+000 -7.804116e+000 198 157 113
-1.219240e+000 3.308727e-001 -8.843557e+000 98 71 50
-1.189619e+000 1.853960e-002 -8.209742e+000 58 40 38
-8.325851e-001 8.836138e-003 -9.037069e+000 40 33 25
1.287305e+000 -1.149060e-001 -7.540484e+000 177 143 106
7.452861e-001 -1.266513e+000 -7.772410e+000 195 154 110
6.934157e-001 1.879769e+000 -8.220682e+000 104 73 58
1.221063e+000 7.006094e-001 -7.658340e+000 168 131 87
-1.373308e+000 -3.479644e-001 -8.124972e+000 24 14 22
3.753596e-001 -1.485137e+000 -8.045819e+000 145 106 67
9.829672e-001 1.480522e+000 -8.357344e+000 41 31 32
1.393504e+000 1.286816e+000 -8.254932e+000 108 73 44
4.461579e-001 -6.766819e-001 -8.501341e+000 47 43 44
4.419196e-001 -6.498991e-001 -8.389631e+000 47 43 44
1.749870e+000 1.698739e+000 -8.827012e+000 17 14 21
-1.603411e-001 5.939642e-001 -9.233276e+000 85 80 74
-1.061771e+000 -2.634382e-001 -8.112086e+000 162 138 100
-1.061771e+000 -2.634382e-001 -8.112086e+000 162 138 100
-1.893075e+000 -1.094287e+000 -8.155257e+000 61 41 42
7.901217e-001 -1.403690e+000 -7.913631e+000 210 174 136
8.816995e-001 4.374025e-001 -8.675722e+000 35 30 34
1.756409e+000 1.241399e+000 -8.193465e+000 17 12 18
-3.851079e-001 1.213877e+000 -9.732233e+000 143 106 64
2.693077e-001 -1.652543e-001 -8.617672e+000 142 137 117
-4.045527e-001 -4.790510e-001 -8.509736e+000 27 24 16
5.613611e-001 -4.710386e-001 -8.640263e+000 120 113 102
7.321228e-001 -4.637979e-001 -8.489524e+000 32 28 29
-1.267543e+001 -8.651478e+000 -2.809011e+001 78 81 114
6.954314e-001 -9.989447e-002 -8.627340e+000 113 109 98
6.954314e-001 -9.989447e-002 -8.627340e+000 113 109 98
6.770649e-001 -1.234190e-001 -8.618177e+000 20 16 13
5.223711e-001 6.987386e-001 -9.142488e+000 52 48 47
1.426083e+000 2.678169e-001 -7.203458e+000 103 68 37
-1.568337e+001 2.247648e-001 -3.611027e+001 208 205 201
-1.441364e+000 6.283515e-002 -8.398919e+000 26 17 18
5.153760e-001 -3.664841e-001 -8.605493e+000 116 109 91
-1.054381e+001 -6.783407e+000 -2.624997e+001 77 82 114
1.476790e-001 -1.611410e-001 -8.599220e+000 25 22 23
-2.121918e-001 -8.551227e-001 -8.373167e+000 138 131 108
-9.635354e+000 -6.603950e+000 -2.507491e+001 255 252 253
-9.531864e+000 -6.817729e+000 -2.504619e+001 140 120 105
-9.411398e+000 -6.698338e+000 -2.528936e+001 58 54 54
-8.865702e+000 -6.992337e+000 -2.407256e+001 69 60 64
2.397268e+000 2.512137e+000 -1.111606e+001 39 23 26
2.642514e+000 2.536696e+000 -1.110659e+001 31 20 19
2.710811e+000 2.247587e+000 -1.083444e+001 51 41 43
3.725196e+000 2.199775e+000 -1.014527e+001 37 22 19
3.725485e+000 2.200114e+000 -1.014501e+001 37 22 19
1.090215e+000 1.722536e+000 -8.274812e+000 183 160 126
8.910494e-001 1.547116e+000 -8.282958e+000 74 64 52
1.940128e+000 1.677483e+000 -8.370274e+000 86 76 65
3.944005e+000 1.855482e+000 -9.743783e+000 44 30 30
3.182948e+000 1.803026e+000 -1.017361e+001 40 28 31
3.491153e+000 1.721880e+000 -9.784789e+000 65 54 52
-6.041586e-001 1.062180e+000 -9.859607e+000 180 148 119
-5.026007e-001 1.096738e+000 -9.760859e+000 78 47 25
3.817152e+000 1.319714e+000 -9.282467e+000 37 23 23
-6.345843e-001 8.771505e-001 -9.842332e+000 116 84 52
-6.345843e-001 8.771505e-001 -9.842332e+000 116 84 52
-2.511844e+000 2.144058e-001 -8.941899e+000 144 123 95
-1.407228e+000 2.815281e-001 -8.637461e+000 57 29 17
3.509230e-001 3.105985e-001 -8.869778e+000 125 122 105
1.599425e-002 2.713072e-001 -8.825369e+000 24 17 9
1.641313e-002 2.714933e-001 -8.825146e+000 24 17 9
2.649642e-002 1.850529e-001 -8.720083e+000 133 126 99
5.758114e-002 1.976288e-001 -8.728323e+000 97 92 81
4.678769e-001 2.476059e-001 -8.705561e+000 123 118 105
-1.554802e+000 -2.086458e-002 -8.188903e+000 131 104 74
-4.111813e-001 8.516747e-002 -8.785912e+000 32 24 17
-3.443318e-002 5.412113e-002 -8.652947e+000 117 43 46
7.558766e-001 8.365902e-002 -8.643893e+000 45 41 40
-1.098962e+000 -1.646579e-002 -8.138213e+000 138 119 80
6.450093e-001 1.756737e-003 -8.674859e+000 122 116 102
-3.425512e-001 -2.243218e-001 -8.591521e+000 107 27 27
-3.472827e-001 -2.678424e-001 -8.571215e+000 138 129 108
6.600304e-001 -5.185619e-001 -8.611002e+000 16 15 13
-2.121465e-001 -9.066458e-001 -8.367161e+000 26 20 20
-1.200952e+000 -9.215924e-001 -8.077838e+000 54 26 14
-1.145657e+000 -9.673162e-001 -8.074607e+000 58 30 17
-1.597063e+001 -8.828368e+000 -3.043586e+001 82 83 104
-1.579081e+001 -8.705915e+000 -3.011076e+001 82 83 104
9.382153e-001 -9.149665e-001 -7.667925e+000 137 103 76
9.382153e-001 -9.149665e-001 -7.667925e+000 137 103 76
-1.216189e+001 -7.927115e+000 -2.740142e+001 88 100 144
-1.693185e+001 -9.845108e+000 -3.091825e+001 176 160 157
-1.329996e+001 -9.072905e+000 -2.793620e+001 21 17 31
-1.658749e+000 -1.638570e+000 -8.219502e+000 95 88 86
3.348002e+000 2.578428e+000 -1.072255e+001 36 22 20
2.657779e+000 2.393875e+000 -1.087452e+001 68 56 51
2.941863e+000 2.549056e+000 -1.077551e+001 113 96 78
2.808466e+000 2.226760e+000 -1.073784e+001 67 58 53
2.815997e+000 2.193790e+000 -1.066885e+001 34 22 22
3.917696e+000 1.895573e+000 -9.808026e+000 48 32 32
-1.615854e-001 1.482154e+000 -9.851419e+000 73 52 23
-1.615854e-001 1.482154e+000 -9.851419e+000 73 52 23
3.458607e+000 1.741977e+000 -9.830837e+000 70 61 56
3.426865e+000 1.567645e+000 -9.827383e+000 30 18 18
3.426865e+000 1.567645e+000 -9.827383e+000 30 18 18
3.485252e+000 1.537662e+000 -9.721501e+000 65 54 52
3.483415e+000 1.535612e+000 -9.720714e+000 65 54 52
3.498340e+000 1.500258e+000 -9.711873e+000 30 19 17
3.496526e+000 1.501639e+000 -9.709153e+000 30 19 17
3.651977e+000 1.549964e+000 -9.533295e+000 43 31 31
3.475265e+000 1.432578e+000 -9.635526e+000 34 24 23
3.679727e+000 1.371557e+000 -9.425085e+000 30 18 22
-4.429946e-001 1.096635e+000 -9.757820e+000 145 119 89
3.831614e-003 1.063943e+000 -9.888017e+000 41 25 14
3.706238e+000 1.269732e+000 -9.403237e+000 27 12 16
-9.898399e+000 5.380615e-001 -3.973369e+001 45 40 49
3.725470e+000 1.148073e+000 -9.224578e+000 66 52 52
-1.184205e-002 2.216504e-001 -8.792899e+000 97 91 69
5.422272e-001 1.992395e-001 -8.714465e+000 51 44 35
-2.006729e+000 4.970285e-002 -8.313569e+000 155 117 78
-2.604115e+000 -4.066626e-001 -8.685738e+000 148 128 121
-1.739767e+000 -2.149490e-001 -8.114491e+000 161 127 90
-1.581313e+000 -1.571095e-001 -8.074760e+000 145 114 86
-5.500466e-001 -2.025379e-001 -8.656764e+000 100 91 76
9.386119e-001 -1.803912e-001 -8.491214e+000 68 63 62
-2.034900e+001 -6.457458e+000 -3.772175e+001 198 186 174
-2.132116e+001 -7.296838e+000 -3.962558e+001 151 133 111
-2.359415e+001 -8.277556e+000 -4.360715e+001 151 133 111
-7.726600e-001 -5.116814e-001 -8.438966e+000 39 21 17
-4.179311e-001 -5.194858e-001 -8.498187e+000 26 16 16
-2.155190e+001 -8.839235e+000 -4.131651e+001 118 102 79
-1.036279e+000 -1.007791e+000 -8.164811e+000 87 61 44
-5.538010e-002 -9.467388e-001 -8.429477e+000 26 21 17
-1.056189e+001 -7.437939e+000 -2.575137e+001 93 97 133
-9.028069e+000 -6.910804e+000 -2.397146e+001 185 173 160
-1.400971e+001 -9.074182e+000 -2.835156e+001 110 110 128
-1.345727e+000 -1.555259e+000 -8.378846e+000 182 164 147
-3.852852e-001 -1.485327e+000 -8.697448e+000 163 164 168
-1.343080e+001 -9.055215e+000 -2.795477e+001 52 48 62
-1.378209e+001 -1.154090e+001 -2.613128e+001 110 104 118
2.844776e+000 2.567358e+000 -1.087111e+001 39 24 21
2.775568e+000 2.527769e+000 -1.088166e+001 75 61 60
2.848235e+000 2.422673e+000 -1.077205e+001 36 25 24
2.578124e+000 2.371234e+000 -1.086325e+001 73 62 58
2.965401e+000 2.233961e+000 -1.061857e+001 50 41 37
3.388379e+000 2.233450e+000 -1.019111e+001 102 85 80
3.620916e+000 2.286295e+000 -1.027941e+001 102 88 79
3.793336e+000 2.166183e+000 -1.005273e+001 98 79 72
3.164115e+000 1.987187e+000 -1.032307e+001 25 14 18
3.714017e+000 1.819809e+000 -9.803835e+000 77 63 55
-1.352524e-001 1.521050e+000 -9.914590e+000 140 121 88
3.531615e+000 1.672807e+000 -9.765752e+000 67 53 50
3.496945e+000 1.580209e+000 -9.720404e+000 40 30 31
-2.736053e-001 1.115803e+000 -9.773033e+000 67 44 25
3.638012e+000 1.254177e+000 -9.356834e+000 66 54 54
-9.847124e+000 2.781785e-001 -4.025297e+001 122 114 104
-9.775738e+000 9.561815e-002 -4.063440e+001 77 66 49
-1.833500e-001 7.546878e-001 -9.756477e+000 102 86 71
8.127230e-001 6.364631e-001 -8.950174e+000 41 36 40
2.264799e-002 3.045371e-001 -8.867363e+000 112 109 90
-5.021780e-001 1.550446e-001 -8.891231e+000 33 23 31
3.812886e-001 2.881474e-001 -8.874050e+000 59 55 44
-3.486455e-001 5.094011e-002 -8.725515e+000 158 149 117
4.949133e-001 2.521085e-002 -8.645750e+000 127 119 103
-2.599997e+000 -4.371398e-001 -8.633048e+000 37 26 31
-2.541906e+000 -6.011440e-001 -8.561292e+000 162 138 112
-9.820021e+000 -5.385966e+000 -2.445199e+001 88 90 106
-1.543907e+001 -8.449931e+000 -3.016405e+001 82 76 76
-2.029533e+000 -1.185346e+000 -8.147942e+000 112 87 62
-4.956283e-001 -1.105760e+000 -8.418454e+000 168 164 162
-1.423979e+000 -1.559954e+000 -8.382442e+000 182 165 151
-1.407978e+001 -9.288151e+000 -2.759839e+001 109 97 99
-1.413194e+001 -9.226884e+000 -2.829110e+001 109 101 99
-1.509723e+001 -9.924835e+000 -2.730618e+001 131 123 134
-1.295310e+001 -1.018956e+001 -2.631524e+001 103 93 104
2.725426e+000 2.522818e+000 -1.090499e+001 46 34 34
2.890388e+000 2.160545e+000 -1.057333e+001 32 22 20
3.198893e+000 2.024399e+000 -1.008265e+001 43 31 31
1.415144e+000 1.617531e+000 -8.361602e+000 149 125 96
3.466575e+000 1.613734e+000 -9.791235e+000 73 58 55
3.613838e+000 1.595260e+000 -9.556844e+000 63 49 44
-3.813780e-001 1.139829e+000 -9.747317e+000 71 45 31
-2.178138e-001 1.131122e+000 -9.796559e+000 129 105 74
-1.830082e-001 1.045464e+000 -9.744047e+000 128 109 78
3.822349e+000 1.264866e+000 -9.286328e+000 39 25 24
3.829197e+000 1.265225e+000 -9.300839e+000 39 25 24
-5.536187e-001 9.082112e-001 -9.854024e+000 70 39 11
3.700051e+000 1.165056e+000 -9.292267e+000 34 21 25
-1.141951e+001 2.028921e-001 -3.947027e+001 120 109 91
-2.495510e+000 2.052638e-001 -8.976464e+000 53 35 14
-8.138313e-001 3.250015e-001 -9.185862e+000 166 161 140
-2.396735e-001 -1.112800e-001 -8.611856e+000 25 22 28
-1.105661e-001 -6.407466e-002 -8.618286e+000 25 23 23
1.145113e+000 8.009128e-002 -7.568368e+000 133 92 55
