ply
format ascii 1.0
element face 0
property list uchar int vertex_indices
element vertex 881
property float x
property float y
property float z
property uchar diffuse_red
property uchar diffuse_green
property uchar diffuse_blue
end_header
-2.581466e+000 6.564127e-002 -8.480650e+000 182 140 95
-1.967200e+000 1.504699e-001 -8.310527e+000 123 93 70
-1.768996e+000 2.673605e-002 -8.325155e+000 60 33 21
-1.292869e+000 3.849073e-002 -8.141024e+000 138 118 94
-1.271243e+000 6.253083e-002 -8.184658e+000 73 54 35
-1.179178e+000 8.270698e-002 -8.243346e+000 123 106 80
-1.174906e+000 5.364022e-002 -8.233364e+000 51 33 12
-1.174906e+000 5.364022e-002 -8.233364e+000 51 33 12
-1.097275e+000 1.470545e-002 -8.294018e+000 118 102 80
-1.066872e+000 1.318705e-002 -8.320395e+000 119 103 79
-5.917365e-001 8.188828e-002 -8.872357e+000 157 135 110
-5.668944e-001 1.369507e-001 -8.924845e+000 117 107 91
2.662346e-001 6.349045e-002 -8.700693e+000 24 20 7
1.836661e+000 1.392533e-002 -6.912199e+000 106 68 31
2.605986e+000 4.263175e-002 -7.451750e+000 73 63 64
2.605986e+000 4.263175e-002 -7.451750e+000 73 63 64
-2.238768e+000 -7.456645e-002 -8.201966e+000 174 144 109
-2.025907e+000 -7.890564e-002 -8.157941e+000 155 129 96
-2.021164e+000 -7.817250e-002 -8.141069e+000 155 129 96
-1.943639e+000 -6.475528e-002 -8.164233e+000 78 47 20
-1.349209e+000 -9.927134e-002 -8.080609e+000 158 142 109
-1.597164e-001 -2.128476e-002 -8.683296e+000 78 40 41
6.389884e-001 -4.697604e-002 -8.685712e+000 107 103 89
5.479689e-001 -1.047376e-001 -8.653228e+000 24 18 19
1.891265e+000 -8.515862e-003 -6.862661e+000 167 128 92
-9.921596e-001 -2.187732e-001 -9.251541e+000 51 45 43
-7.315433e-001 -2.495392e-001 -8.741022e+000 76 73 57
-4.786874e-001 -1.874740e-001 -8.648766e+000 130 117 98
-4.117392e-001 -2.067998e-001 -8.636248e+000 116 42 37
1.260265e+001 1.943074e+000 2.803421e+001 122 113 96
-1.944601e+000 -3.712416e-001 -7.988560e+000 143 114 81
-1.848420e+000 -5.378994e-001 -8.013114e+000 141 112 82
-1.733430e+000 -5.246340e-001 -8.031557e+000 79 53 28
-1.676150e+000 -5.148448e-001 -8.011351e+000 96 77 60
-1.607641e+000 -4.939729e-001 -8.056248e+000 125 109 84
-8.849106e-001 -5.934527e-001 -8.431247e+000 55 44 43
-4.802900e-002 -6.175316e-001 -8.508729e+000 28 25 18
-1.738583e+000 -6.706191e-001 -7.923258e+000 97 63 35
-1.294666e+000 -6.723688e-001 -8.042350e+000 127 92 70
-1.067796e+000 -7.172119e-001 -8.192344e+000 127 100 71
-4.248651e-001 -8.018714e-001 -8.465340e+000 135 132 113
-1.333213e+000 -8.003791e-001 -8.028688e+000 125 90 68
-9.841261e-001 -9.255961e-001 -8.337643e+000 75 50 28
-2.418011e+000 -9.038205e-001 -7.961685e+000 173 140 107
-1.777703e+000 -9.261721e-001 -7.940900e+000 77 41 19
-1.662109e+000 -1.029161e+000 -7.946962e+000 74 36 17
-1.435921e-002 -1.034522e+000 -8.469227e+000 12 10 13
8.213547e-001 -9.141721e-001 -7.638571e+000 72 39 20
9.651143e-001 -1.008355e+000 -7.633051e+000 85 49 24
-1.701131e+001 -5.828386e+000 -3.806379e+001 180 172 161
-2.633079e+000 -1.184908e+000 -8.121293e+000 169 122 80
-1.707508e+000 -1.187673e+000 -8.039739e+000 48 26 15
-1.588375e+000 -1.174956e+000 -7.996768e+000 73 54 41
-1.398097e+000 -1.180082e+000 -8.020843e+000 113 91 78
-1.397524e+000 -1.179090e+000 -8.017938e+000 113 91 78
-7.907719e-001 -1.192423e+000 -8.644296e+000 132 129 134
-1.420587e-001 -1.126157e+000 -8.403132e+000 37 31 25
6.645071e-001 -1.060800e+000 -7.618340e+000 156 124 105
-2.114336e+000 -1.253060e+000 -8.072369e+000 36 23 19
-1.433848e+000 -1.238637e+000 -8.036304e+000 31 16 15
-1.376104e+000 -1.298634e+000 -8.086724e+000 59 45 44
-1.306022e+000 -1.264685e+000 -8.092846e+000 28 15 15
-1.096195e+000 -1.276961e+000 -8.335844e+000 43 26 19
-5.656111e-001 -1.305118e+000 -8.441759e+000 132 127 124
-1.550126e+000 -1.586054e+000 -8.207717e+000 37 22 19
-2.243256e-002 -1.669966e+000 -8.126248e+000 29 20 27
7.013865e-002 -1.524457e+000 -7.987797e+000 34 24 23
1.824803e-001 -1.595600e+000 -7.941844e+000 53 35 28
1.009003e+000 -1.512774e+000 -7.706876e+000 169 126 84
2.410609e-001 -1.780540e+000 -8.050370e+000 61 37 22
6.426418e-001 2.197051e+000 -8.426795e+000 166 124 87
1.144154e+000 2.013735e+000 -8.283804e+000 73 56 30
1.144154e+000 2.013735e+000 -8.283804e+000 73 56 30
3.053655e+000 2.769090e+000 -1.117554e+001 78 69 64
8.258602e-001 1.873059e+000 -8.310161e+000 65 41 27
1.279150e+000 1.916213e+000 -8.285613e+000 61 44 16
1.432926e+000 1.884133e+000 -8.293767e+000 167 152 113
7.833102e-001 1.849990e+000 -8.525083e+000 83 56 38
8.600395e-001 1.728094e+000 -8.351288e+000 104 81 69
1.579694e+000 1.818517e+000 -8.383137e+000 66 40 22
1.578288e+000 1.818076e+000 -8.382659e+000 66 40 22
3.963768e+000 2.071920e+000 -1.007497e+001 81 67 58
9.554504e-001 1.654639e+000 -8.232523e+000 121 107 91
4.169925e+000 1.842516e+000 -9.894404e+000 43 32 30
4.244042e+000 1.792621e+000 -9.737407e+000 43 29 29
-3.899808e+000 3.926963e+000 -2.126760e+001 95 94 101
-2.992811e+000 3.272116e+000 -1.894918e+001 152 151 147
-3.293070e-001 1.793453e+000 -1.006553e+001 108 72 41
8.617199e-001 1.503068e+000 -8.453971e+000 127 112 93
1.445709e+000 1.482873e+000 -8.273921e+000 70 36 11
4.273963e+000 1.547148e+000 -9.496801e+000 42 30 29
4.399123e+000 1.577841e+000 -9.398519e+000 89 76 68
4.558930e+000 1.534108e+000 -9.352110e+000 107 97 88
-3.771782e-001 1.620709e+000 -1.004556e+001 105 75 38
-5.025169e-001 1.551653e+000 -1.003863e+001 108 70 33
4.588652e+000 1.383870e+000 -9.250783e+000 41 29 29
-3.640515e+000 2.194846e+000 -1.888418e+001 158 161 169
-4.297648e-001 1.133659e+000 -9.889666e+000 115 87 50
-1.924645e-001 1.235743e+000 -9.990910e+000 59 42 21
-1.924006e-001 1.235769e+000 -9.990226e+000 59 42 21
-2.144103e-001 1.126484e+000 -9.954859e+000 82 64 42
6.061934e-001 8.644749e-001 -9.191271e+000 63 58 56
1.676639e+000 7.460788e-001 -7.240760e+000 159 143 107
6.858778e-001 6.735461e-001 -9.116593e+000 22 17 23
-6.919562e-001 5.226160e-001 -9.360978e+000 31 26 19
1.362759e+000 4.793176e-001 -7.245696e+000 210 171 127
-2.033249e+000 3.510251e-001 -8.511881e+000 159 126 89
-1.970168e+000 3.512307e-001 -8.508036e+000 143 108 80
-1.892631e+000 3.152311e-001 -8.517434e+000 87 51 27
-2.352677e-002 4.130519e-001 -9.061329e+000 98 98 88
-1.209108e-001 4.010165e-001 -9.052144e+000 30 21 26
7.740721e-002 3.486425e-001 -8.953901e+000 28 24 13
3.681906e-001 4.778265e-001 -8.952219e+000 72 67 60
4.590660e-001 3.777322e-001 -8.855432e+000 59 55 46
8.901152e-001 4.139744e-001 -8.871239e+000 39 37 40
1.560112e+000 2.894961e-001 -7.095469e+000 129 84 43
1.772038e+000 2.716509e-001 -6.919699e+000 167 138 95
-1.997100e+000 3.096326e-001 -8.541300e+000 85 49 23
-2.007495e+000 1.736551e-001 -8.407112e+000 78 45 26
-1.687838e+000 2.596061e-001 -8.586522e+000 75 53 40
-6.924915e-001 1.920251e-001 -9.024887e+000 30 27 22
-4.326064e-002 2.825259e-001 -8.879645e+000 138 132 117
4.894367e-001 2.946792e-001 -8.799890e+000 130 123 113
5.351769e-001 2.939787e-001 -8.811346e+000 58 53 46
1.654899e+000 2.446938e-001 -6.955956e+000 200 162 115
1.656395e+000 2.445676e-001 -6.959788e+000 200 162 115
1.644382e+000 1.620127e-001 -6.978212e+000 130 82 43
1.644382e+000 1.620127e-001 -6.978212e+000 130 82 43
-1.781174e+000 1.800063e-002 -8.227716e+000 111 83 59
-1.309979e+000 8.910180e-002 -8.183611e+000 127 107 83
-1.149682e+000 2.415214e-002 -8.231040e+000 129 109 83
1.128849e+000 5.809844e-002 -8.366487e+000 104 100 91
1.735569e+000 1.148658e-001 -6.979674e+000 102 60 36
-1.897797e+000 -6.712024e-002 -8.126043e+000 156 127 97
-1.895902e+000 -6.614213e-002 -8.124315e+000 156 127 97
-1.797337e+000 -3.655797e-002 -8.209607e+000 65 37 15
-7.277810e-001 -1.687093e-001 -8.760103e+000 78 76 65
-2.140534e-001 -4.188887e-002 -8.684137e+000 18 22 24
1.481276e+000 -4.345708e-002 -7.024890e+000 158 112 76
1.848373e+000 -6.217131e-002 -6.903951e+000 136 100 68
1.848373e+000 -6.217131e-002 -6.903951e+000 136 100 68
2.565263e+000 -5.193627e-002 -7.395497e+000 65 56 53
-2.200077e+000 -1.511402e-001 -8.162287e+000 168 140 106
1.319033e+000 -2.814927e-001 -8.158796e+000 72 69 62
2.318854e+000 -1.964791e-001 -7.219281e+000 31 15 15
-1.948190e+000 -3.386080e-001 -8.019914e+000 160 131 101
-1.815828e+000 -3.142410e-001 -8.084450e+000 64 36 12
-1.817394e+000 -3.152505e-001 -8.094979e+000 64 36 12
-1.565365e+000 -3.559146e-001 -8.240776e+000 64 42 19
-1.681282e+001 -2.838988e+000 -3.808518e+001 193 185 162
-2.265902e+000 -5.441523e-001 -7.994620e+000 172 149 112
-1.695082e+000 -4.704877e-001 -8.057794e+000 32 21 18
-1.452710e+000 -5.231098e-001 -8.136177e+000 112 83 57
-1.637406e+000 -6.276144e-001 -7.960235e+000 92 59 33
-1.052343e+000 -6.532219e-001 -8.301438e+000 109 84 54
-9.191801e-001 -6.779937e-001 -8.363104e+000 64 48 24
-8.982753e-001 -7.873929e-001 -8.353253e+000 89 74 59
-2.043707e+000 -7.461002e-001 -7.906092e+000 137 103 76
-1.550131e+000 -7.730980e-001 -8.014300e+000 105 70 48
-1.172182e+000 -8.576459e-001 -8.118882e+000 83 47 25
-2.449789e+000 -9.276695e-001 -7.952101e+000 148 114 79
-2.412677e+000 -9.414524e-001 -7.920557e+000 178 142 106
-1.955084e+000 -9.719245e-001 -7.873087e+000 127 86 64
-1.493261e+000 -9.567138e-001 -7.968451e+000 94 62 44
-1.040837e+000 -1.058574e+000 -8.244772e+000 73 46 25
-1.798208e-001 -1.115440e+000 -8.384953e+000 79 73 68
5.608599e-001 -9.130365e-001 -7.801719e+000 76 40 18
7.888855e-001 -9.056855e-001 -7.604156e+000 132 100 73
-1.324289e+000 -1.082978e+000 -8.079116e+000 49 27 14
-1.323044e+000 -1.080421e+000 -8.072363e+000 49 27 14
-1.172438e+000 -1.084788e+000 -8.183734e+000 67 38 24
-1.036713e+000 -1.139970e+000 -8.365409e+000 60 37 24
-1.036713e+000 -1.139970e+000 -8.365409e+000 60 37 24
-1.048535e+000 -1.227408e+000 -8.382138e+000 39 20 16
-1.079485e-001 -1.139250e+000 -8.378442e+000 94 87 77
5.741497e-001 -1.120851e+000 -7.721022e+000 84 46 23
-1.497556e+000 -1.273825e+000 -7.999190e+000 43 35 32
-2.661548e-002 -1.317244e+000 -8.206452e+000 115 105 95
9.246365e-001 -1.156857e+000 -7.559306e+000 145 104 74
1.494858e-001 -1.430954e+000 -7.924704e+000 136 111 95
2.685972e-001 -1.428007e+000 -7.842849e+000 171 145 123
6.077293e-001 -1.482940e+000 -7.675377e+000 209 167 129
8.916442e-002 -1.721866e+000 -8.049861e+000 53 36 27
-1.058190e+001 -6.182881e+000 -2.599879e+001 43 45 63
-9.612968e+000 -8.042530e+000 -2.568124e+001 165 157 154
3.144747e+000 2.901907e+000 -1.122160e+001 36 25 25
3.151801e+000 2.904900e+000 -1.123004e+001 36 25 25
3.248901e+000 2.880780e+000 -1.116744e+001 30 19 13
1.023572e+000 2.148970e+000 -8.341952e+000 80 58 35
1.047320e+000 2.100046e+000 -8.330929e+000 180 161 122
1.047320e+000 2.100046e+000 -8.330929e+000 180 161 122
1.087487e+000 2.066795e+000 -8.313139e+000 67 48 18
3.471775e+000 2.691075e+000 -1.088984e+001 53 44 37
1.310118e+000 1.878085e+000 -8.277339e+000 161 145 112
1.484944e+000 1.843021e+000 -8.298487e+000 157 136 104
3.860608e+000 2.072401e+000 -1.027578e+001 24 15 19
8.699025e-001 1.609585e+000 -8.429314e+000 118 98 72
1.361174e+000 1.680882e+000 -8.288959e+000 70 43 24
3.816585e+000 2.030029e+000 -1.026190e+001 55 43 43
4.332590e+000 1.729701e+000 -9.513972e+000 39 29 27
4.626434e+000 1.736492e+000 -9.527081e+000 40 28 32
-4.130180e+000 3.486495e+000 -2.005390e+001 248 252 253
-3.657371e-001 1.821824e+000 -9.928069e+000 157 121 83
1.350145e+000 1.516893e+000 -8.290976e+000 105 78 51
4.114119e+000 1.693048e+000 -9.731421e+000 57 43 40
4.368540e+000 1.642748e+000 -9.518647e+000 31 21 20
4.349462e+000 1.638283e+000 -9.477244e+000 31 21 20
4.314498e+000 1.640923e+000 -9.582321e+000 74 63 57
1.296647e+000 1.289888e+000 -8.529836e+000 25 17 16
4.464265e+000 1.353042e+000 -9.201094e+000 30 21 20
4.638988e+000 1.231300e+000 -9.079494e+000 27 16 17
-4.177252e-001 1.243177e+000 -9.893364e+000 152 134 95
1.584612e+000 8.941421e-001 -7.606699e+000 130 96 61
4.608570e+000 1.106510e+000 -8.918437e+000 28 16 18
6.129210e-001 9.208073e-001 -9.207202e+000 37 35 40
4.445436e-001 8.577090e-001 -9.414256e+000 52 47 51
4.441094e-001 8.580489e-001 -9.437672e+000 52 47 51
1.349434e+000 6.664758e-001 -7.338363e+000 148 106 60
-1.652750e+001 1.638453e+000 -3.151493e+001 59 71 123
2.767584e-002 6.721026e-001 -9.851373e+000 33 29 30
1.388310e+000 5.313951e-001 -7.202703e+000 214 181 136
-2.076796e+000 3.653415e-001 -8.514258e+000 106 72 35
-1.759530e+000 3.840415e-001 -8.566762e+000 93 59 34
-1.116581e+000 3.894482e-001 -9.454555e+000 151 146 121
-5.684527e-001 4.608587e-001 -9.267974e+000 124 119 99
-1.889063e-001 3.825477e-001 -9.043151e+000 133 132 102
-1.887543e-001 3.828533e-001 -9.032922e+000 133 132 102
-9.261227e-002 3.635379e-001 -8.990404e+000 117 112 93
-6.180470e-002 3.204180e-001 -8.933229e+000 20 17 13
1.821270e-001 3.681162e-001 -8.978359e+000 136 134 116
1.204740e+000 3.434732e-001 -7.735237e+000 28 22 23
-2.070636e+000 2.281948e-001 -8.403719e+000 88 57 26
-9.603905e-001 2.204701e-001 -9.225056e+000 35 31 27
-7.857369e-001 2.065662e-001 -9.084638e+000 39 32 26
-5.990765e-001 1.696429e-001 -8.965836e+000 26 23 18
1.603528e+000 2.121404e-001 -7.044960e+000 138 94 55
2.086756e+000 2.214241e-001 -6.994992e+000 61 38 32
2.086756e+000 2.214241e-001 -6.994992e+000 61 38 32
-2.951978e+000 5.126357e-002 -8.900028e+000 185 157 126
-2.425580e+000 6.019297e-002 -8.376542e+000 174 140 95
1.084935e+000 1.371700e-001 -8.634540e+000 57 53 52
1.854293e+000 1.050362e-001 -6.914905e+000 98 66 42
-1.877506e+000 -3.399417e-003 -8.191210e+000 133 105 76
-7.328908e-001 -1.322722e-001 -8.830590e+000 22 18 16
-2.046095e-002 -3.546694e-002 -8.666174e+000 19 13 12
-2.355612e+000 -2.403153e-001 -8.124181e+000 165 131 91
-2.302170e+000 -3.679292e-001 -8.169631e+000 128 94 59
-2.070717e+000 -3.031150e-001 -8.061920e+000 175 146 114
1.489814e+000 -3.355934e-001 -7.562915e+000 119 99 82
-2.149955e+000 -4.552926e-001 -7.956078e+000 175 152 121
-1.885601e+000 -4.985805e-001 -7.952970e+000 147 118 86
8.773573e-001 -5.422805e-001 -8.581469e+000 14 12 15
-2.275451e+000 -7.326005e-001 -7.962535e+000 142 116 83
-1.890188e+000 -6.131703e-001 -7.954770e+000 97 64 31
-1.270374e+000 -6.281044e-001 -8.193357e+000 76 45 17
-2.515219e+000 -8.001346e-001 -8.066155e+000 173 143 109
-7.606613e-001 -1.138609e+000 -8.584636e+000 17 15 21
-2.283617e+000 -1.082511e+000 -7.965398e+000 126 94 69
-2.279689e+000 -1.080127e+000 -7.952061e+000 126 94 69
-1.369769e+000 -1.182866e+000 -8.067094e+000 42 21 18
-5.226691e-001 -1.221430e+000 -8.414473e+000 152 147 141
3.397836e-001 -1.168706e+000 -7.823617e+000 138 105 71
5.155067e-001 -1.062293e+000 -7.751314e+000 75 31 22
9.039836e-002 -1.330069e+000 -7.959880e+000 37 23 20
-2.386758e+000 -1.388098e+000 -8.096524e+000 123 102 76
-1.972278e+000 -1.475509e+000 -8.120804e+000 100 85 72
-1.632234e+000 -1.467018e+000 -8.082203e+000 25 14 14
2.156007e-001 -1.348075e+000 -7.884515e+000 137 105 84
-1.795113e+001 -8.013954e+000 -3.961832e+001 122 115 99
-1.908528e+000 -1.548017e+000 -8.141190e+000 108 92 74
-7.285104e-002 -1.643047e+000 -8.183741e+000 25 19 23
2.231909e+000 -1.659134e+000 -8.188194e+000 61 57 56
-2.193234e+001 -1.002073e+001 -4.322420e+001 84 71 65
-1.000081e+001 -5.527361e+000 -2.495607e+001 36 35 53
2.332175e-001 -1.693392e+000 -7.958148e+000 150 120 96
4.888347e-001 -1.723827e+000 -7.854927e+000 167 131 96
-1.250981e+001 -7.269366e+000 -2.758372e+001 120 129 163
-1.244710e+001 -7.657839e+000 -2.788336e+001 19 16 47
-1.242781e+001 -7.644301e+000 -2.784086e+001 19 16 47
-1.316893e+001 -8.151149e+000 -2.874782e+001 48 38 55
-9.575298e+000 -7.136322e+000 -2.432309e+001 208 194 193
-9.034073e+000 -6.735995e+000 -2.387948e+001 173 159 140
-1.671894e+001 -9.378752e+000 -3.065006e+001 146 129 111
-1.386097e+001 -8.970847e+000 -2.887335e+001 38 35 44
-1.320934e+001 -8.836957e+000 -2.836367e+001 72 73 93
-1.290724e+001 -8.936343e+000 -2.796459e+001 68 66 86
6.864069e-001 2.204348e+000 -8.355034e+000 93 56 33
3.404042e+000 2.735095e+000 -1.085739e+001 69 57 48
4.638784e-001 1.889243e+000 -8.739960e+000 92 79 66
5.121292e-001 1.846980e+000 -8.725567e+000 146 119 94
3.843831e+000 2.171101e+000 -1.023938e+001 39 29 29
-4.324241e+000 3.777594e+000 -2.013928e+001 195 195 198
8.670095e-001 1.679814e+000 -8.327280e+000 41 27 24
1.003413e+000 1.584026e+000 -8.258487e+000 30 19 16
4.457321e+000 1.774225e+000 -9.580606e+000 79 66 60
-4.151301e+000 3.819407e+000 -2.120065e+001 106 108 113
-4.137991e+000 3.809091e+000 -2.114054e+001 106 108 113
-3.960741e+000 3.603541e+000 -2.145721e+001 82 82 84
-2.924631e-001 1.850854e+000 -1.006859e+001 90 58 33
4.544051e+000 1.601424e+000 -9.344949e+000 42 36 30
1.436028e+000 1.342282e+000 -8.443187e+000 44 27 23
-8.060849e+000 4.488896e+000 -3.370618e+001 17 12 19
-7.006028e-001 1.453675e+000 -1.001707e+001 139 97 59
-7.724742e-001 1.288422e+000 -1.024814e+001 97 66 38
1.003539e+000 1.091578e+000 -8.981941e+000 67 61 61
-1.529632e+001 4.465519e+000 -4.304364e+001 37 39 53
1.715231e+000 7.539562e-001 -7.256862e+000 72 51 46
1.741566e+000 4.604695e-001 -7.060498e+000 66 46 41
1.572436e+000 3.255970e-001 -7.057586e+000 191 150 103
-2.313534e+000 1.735115e-001 -8.483863e+000 122 82 47
1.798752e+000 1.310464e-001 -6.921171e+000 108 72 46
2.031124e+000 2.513332e-001 -6.987625e+000 67 45 31
2.203925e+000 1.841133e-001 -7.082707e+000 46 28 24
-2.453985e+000 1.111975e-001 -8.430902e+000 133 91 49
-2.453985e+000 1.111975e-001 -8.430902e+000 133 91 49
-2.042512e+000 4.560140e-002 -8.300332e+000 79 48 28
1.752521e+000 4.091174e-002 -6.946416e+000 90 49 24
-2.268407e+000 -7.686435e-002 -8.175856e+000 136 104 64
-2.268407e+000 -7.686435e-002 -8.175856e+000 136 104 64
-2.175840e+000 -8.334213e-002 -8.181841e+000 175 147 110
-2.047165e+000 -1.137546e-001 -8.141957e+000 124 95 61
-1.323719e-001 -1.437238e-001 -8.637997e+000 137 130 102
6.067038e-001 -1.101307e-001 -8.651636e+000 114 102 91
6.984742e-001 -1.641777e-001 -8.653522e+000 91 88 73
1.753529e+000 -2.445631e-002 -6.899646e+000 143 98 62
1.753529e+000 -2.445631e-002 -6.899646e+000 143 98 62
-1.571655e+000 -3.010205e-001 -8.152240e+000 92 67 44
-3.475009e-001 -2.279212e-001 -8.615020e+000 20 24 23
2.717805e-001 -3.161397e-001 -8.631385e+000 139 132 106
5.128074e-001 -2.983449e-001 -8.613686e+000 132 126 104
-2.234433e+000 -3.597040e-001 -8.132810e+000 165 136 103
-1.762329e+000 -3.257681e-001 -8.191960e+000 66 42 19
-4.283478e-001 -4.297935e-001 -8.557006e+000 26 25 20
3.933430e-001 -4.303351e-001 -8.600456e+000 33 28 29
5.651220e-001 -4.374786e-001 -8.625670e+000 116 109 91
-2.662963e+000 -4.960505e-001 -8.225035e+000 168 129 94
-2.215213e+000 -5.134059e-001 -7.994219e+000 164 142 103
-1.638565e+000 -5.138892e-001 -8.036928e+000 39 26 20
-5.158897e-001 -6.333241e-001 -8.517087e+000 29 23 22
-4.714839e-001 -5.321570e-001 -8.536420e+000 23 21 18
-4.713038e-001 -5.321344e-001 -8.536354e+000 23 21 18
1.799870e-001 -5.048751e-001 -8.542650e+000 119 112 98
4.703392e-001 -6.479211e-001 -8.624431e+000 57 52 48
4.703392e-001 -6.479211e-001 -8.624431e+000 57 52 48
5.190110e-001 -5.398697e-001 -8.629894e+000 52 48 45
5.194976e-001 -5.405080e-001 -8.636178e+000 52 48 45
6.060593e-001 -5.866364e-001 -8.679533e+000 90 83 64
5.400810e-001 -6.163740e-001 -8.667647e+000 13 12 17
6.267811e-001 -6.623367e-001 -8.707648e+000 17 15 14
6.257459e-001 -6.604198e-001 -8.694569e+000 17 15 14
7.341846e-001 -5.517590e-001 -8.626065e+000 118 113 112
6.886113e-001 -6.416846e-001 -8.678478e+000 102 98 95
-1.349876e+000 -6.718124e-001 -8.102247e+000 81 46 24
2.858875e-001 -7.973131e-001 -8.541811e+000 87 80 61
4.017004e-001 -6.718444e-001 -8.579455e+000 11 9 10
3.569998e-001 -7.690245e-001 -8.563476e+000 19 17 20
-1.822089e+000 -7.922152e-001 -7.917081e+000 78 40 20
-6.604444e-001 -8.831230e-001 -8.512661e+000 155 150 130
-6.390218e-001 -9.426306e-001 -8.492733e+000 26 22 30
-6.050175e-001 -8.373589e-001 -8.494731e+000 26 25 23
-5.774705e-001 -9.089659e-001 -8.490051e+000 134 129 110
-1.196917e+000 -1.047841e+000 -8.152506e+000 70 39 23
-9.799984e-001 -1.090932e+000 -8.283026e+000 97 72 52
-6.654958e-001 -1.049860e+000 -8.503967e+000 24 20 19
-6.386636e-001 -1.114980e+000 -8.488112e+000 139 139 135
-6.080181e-001 -1.009373e+000 -8.471228e+000 132 131 126
-6.080181e-001 -1.009373e+000 -8.471228e+000 132 131 126
-5.186182e-001 -1.031815e+000 -8.409735e+000 138 134 123
-5.800197e-001 -1.073124e+000 -8.437693e+000 24 22 22
-3.708478e-002 -9.878737e-001 -8.445858e+000 127 114 85
8.749776e-001 -9.982685e-001 -7.689595e+000 72 37 18
-2.295934e+000 -1.199870e+000 -8.119141e+000 53 30 20
-6.069502e-001 -1.182391e+000 -8.452210e+000 24 23 26
3.847346e-001 -1.171092e+000 -7.787380e+000 149 113 79
-2.377434e+000 -1.318881e+000 -8.171929e+000 85 60 41
8.823988e-001 -1.255103e+000 -7.664974e+000 89 47 25
-7.365265e-001 -1.573588e+000 -8.905235e+000 185 189 198
6.082877e-001 -1.326034e+000 -7.594711e+000 107 56 35
1.085200e+000 -1.342992e+000 -7.636674e+000 98 60 37
-1.685302e+000 -1.540296e+000 -8.102705e+000 61 47 47
4.405793e-001 -1.656482e+000 -7.851909e+000 168 127 93
-1.592142e+001 -8.661711e+000 -3.006405e+001 70 63 78
-1.558097e+001 -8.807145e+000 -2.999305e+001 54 52 67
-1.293072e+001 -8.713467e+000 -2.841628e+001 72 79 117
-1.729802e+001 -9.568242e+000 -3.023443e+001 179 159 134
3.302828e+000 2.820562e+000 -1.107272e+001 76 63 59
3.534476e+000 2.612816e+000 -1.079060e+001 46 35 31
4.234827e+000 2.356223e+000 -1.047873e+001 34 23 21
7.055525e-001 1.735187e+000 -8.579854e+000 35 25 22
1.343017e+000 1.467316e+000 -8.337941e+000 50 30 17
4.412954e+000 1.617211e+000 -9.423972e+000 86 73 65
-1.159676e+001 5.742024e+000 -3.547444e+001 17 14 21
6.355547e-001 1.471632e+000 -9.339957e+000 41 39 37
-2.531120e-001 1.387714e+000 -9.918325e+000 130 109 80
-1.505310e+001 5.064254e+000 -4.268713e+001 45 50 57
-8.694670e-002 1.171295e+000 -1.003665e+001 100 84 67
-1.375495e+001 4.290407e+000 -4.411800e+001 34 29 23
-3.452809e+000 1.912689e+000 -1.919295e+001 30 30 35
1.313343e+000 7.974529e-001 -7.673725e+000 169 136 102
1.691672e+000 5.906547e-001 -7.093216e+000 69 46 30
1.326968e+000 4.596902e-001 -7.280003e+000 155 108 62
1.625604e+000 3.830675e-001 -7.081912e+000 126 83 44
-2.302587e+000 1.443813e-002 -8.265925e+000 120 80 44
-2.318726e+000 1.057694e-002 -8.310347e+000 120 80 44
2.340366e-001 -3.469181e-003 -8.680384e+000 26 20 22
-2.055393e-001 -1.714843e-001 -8.630752e+000 29 28 19
-2.049634e-001 -1.710274e-001 -8.628427e+000 29 28 19
-5.953992e-002 -1.140750e-001 -8.642241e+000 27 21 22
1.459153e-002 -8.552926e-002 -8.649366e+000 131 121 100
1.144070e-001 -1.275640e-001 -8.643473e+000 124 116 93
3.348873e-001 -4.886547e-002 -8.677518e+000 23 25 22
3.349508e-001 -4.888522e-002 -8.677211e+000 23 25 22
2.611468e-001 -7.615984e-002 -8.670076e+000 137 130 104
1.877003e-001 -1.013223e-001 -8.656315e+000 26 22 20
2.162350e-001 -1.732595e-001 -8.650105e+000 123 115 93
2.893759e-001 -1.474745e-001 -8.659894e+000 24 21 23
4.081049e-001 -2.036538e-002 -8.682501e+000 140 131 116
4.341622e-001 -9.084029e-002 -8.659245e+000 29 25 28
4.341622e-001 -9.084029e-002 -8.659245e+000 29 25 28
3.626969e-001 -1.189423e-001 -8.663052e+000 142 135 106
4.599540e-001 -1.594228e-001 -8.638256e+000 144 142 117
4.597048e-001 -1.593609e-001 -8.636468e+000 144 142 117
5.054730e-001 -6.297383e-002 -8.657830e+000 137 130 103
5.061303e-001 -6.294948e-002 -8.659209e+000 137 130 103
5.328237e-001 -1.326569e-001 -8.634928e+000 30 28 26
1.150359e+000 -6.366736e-002 -8.317217e+000 91 82 73
1.812263e+000 -3.370702e-002 -6.887659e+000 195 167 128
1.813991e+000 -3.462283e-002 -6.894546e+000 195 167 128
2.223055e+000 -7.024238e-002 -7.243463e+000 29 19 18
-2.576285e+000 -1.728576e-001 -8.289393e+000 125 81 39
-2.781106e-001 -2.005481e-001 -8.627134e+000 136 130 107
-1.772163e-001 -2.396204e-001 -8.613566e+000 135 131 101
-2.513002e-001 -2.680755e-001 -8.600375e+000 24 22 25
-3.156570e-002 -1.825318e-001 -8.621635e+000 136 131 106
-7.646725e-002 -2.800782e-001 -8.593737e+000 134 127 108
-7.646725e-002 -2.800782e-001 -8.593737e+000 134 127 108
-1.500178e-001 -3.082963e-001 -8.590025e+000 30 29 24
1.428612e-001 -1.990000e-001 -8.633532e+000 25 22 23
2.545428e-002 -3.217450e-001 -8.590698e+000 135 123 107
9.759541e-002 -2.963657e-001 -8.607774e+000 26 21 24
9.732202e-002 -2.958223e-001 -8.601543e+000 26 21 24
2.427924e-001 -2.453886e-001 -8.640856e+000 25 20 16
3.146082e-001 -2.191932e-001 -8.645188e+000 142 136 110
3.875954e-001 -1.898736e-001 -8.643196e+000 28 24 24
3.875954e-001 -1.898736e-001 -8.643196e+000 28 24 24
4.842977e-001 -2.296622e-001 -8.616050e+000 27 22 26
4.849330e-001 -2.294391e-001 -8.616164e+000 27 22 26
3.420970e-001 -2.891119e-001 -8.629405e+000 23 21 22
3.424949e-001 -2.895755e-001 -8.632504e+000 23 21 22
4.139082e-001 -2.598759e-001 -8.623351e+000 153 145 126
4.134880e-001 -2.595802e-001 -8.620483e+000 153 145 126
4.362509e-001 -3.300441e-001 -8.602999e+000 25 21 18
4.355852e-001 -3.302685e-001 -8.602982e+000 25 21 18
5.581178e-001 -2.051940e-001 -8.614918e+000 124 115 92
5.582537e-001 -2.050719e-001 -8.613368e+000 124 115 92
-2.358903e+000 -3.501345e-001 -8.157847e+000 160 130 97
-1.524545e+000 -4.141910e-001 -8.148342e+000 48 30 25
-3.677301e-001 -3.969071e-001 -8.565703e+000 131 129 107
-2.958910e-001 -3.667503e-001 -8.577672e+000 25 26 28
-2.235546e-001 -3.372084e-001 -8.583444e+000 139 133 109
-2.674975e-001 -4.347420e-001 -8.551550e+000 139 132 104
-2.674975e-001 -4.347420e-001 -8.551550e+000 139 132 104
-1.637419e-001 -4.729808e-001 -8.534575e+000 138 130 109
-1.636127e-001 -4.727091e-001 -8.532233e+000 138 130 109
-4.778466e-002 -3.484045e-001 -8.570177e+000 26 20 24
5.369309e-002 -3.918346e-001 -8.569547e+000 21 21 22
1.982390e-001 -3.433115e-001 -8.621040e+000 21 20 16
2.268369e-001 -4.136222e-001 -8.609407e+000 124 116 95
2.264213e-001 -4.128902e-001 -8.602335e+000 124 116 95
2.977901e-001 -3.886893e-001 -8.618987e+000 25 22 24
3.260460e-001 -4.593564e-001 -8.607072e+000 143 136 109
2.533618e-001 -4.852073e-001 -8.592224e+000 26 21 25
3.685106e-001 -3.604806e-001 -8.615990e+000 151 147 124
3.685106e-001 -3.604806e-001 -8.615990e+000 151 147 124
5.343375e-001 -3.723888e-001 -8.624597e+000 22 17 19
-1.814480e+001 -2.765749e+000 -3.545822e+001 212 203 195
-1.770991e+000 -5.582977e-001 -7.958704e+000 138 107 79
-4.119721e-001 -4.985440e-001 -8.554540e+000 149 138 120
-3.828167e-001 -5.662071e-001 -8.522993e+000 27 22 25
-1.070570e-001 -6.120182e-001 -8.493705e+000 132 121 97
3.805680e-002 -5.603875e-001 -8.519486e+000 134 124 100
3.795207e-002 -5.613246e-001 -8.525898e+000 134 124 100
1.103163e-001 -5.344122e-001 -8.544946e+000 23 17 26
6.616924e-002 -6.311604e-001 -8.514029e+000 25 20 17
1.376822e-001 -6.088760e-001 -8.535355e+000 128 118 94
1.380290e-001 -6.078775e-001 -8.529411e+000 128 118 94
2.089762e-001 -5.799607e-001 -8.551958e+000 19 15 20
2.093355e-001 -5.795018e-001 -8.550246e+000 19 15 20
3.081518e-001 -6.274120e-001 -8.570019e+000 24 18 22
3.524246e-001 -5.310351e-001 -8.596190e+000 31 27 23
3.527286e-001 -5.308643e-001 -8.595566e+000 31 27 23
-5.390090e-001 -8.033759e-001 -8.500962e+000 141 137 112
-4.253670e-001 -6.664342e-001 -8.500899e+000 24 24 23
-3.247934e-001 -7.008703e-001 -8.479662e+000 27 26 25
-4.664537e-001 -7.667111e-001 -8.479205e+000 27 26 22
-3.970009e-001 -7.322069e-001 -8.476599e+000 138 130 114
-3.671739e-001 -7.989642e-001 -8.450810e+000 24 24 23
-2.959043e-001 -7.663011e-001 -8.449099e+000 132 131 102
-1.925876e-001 -8.041755e-001 -8.432358e+000 131 122 93
-1.925787e-001 -8.034074e-001 -8.427139e+000 131 122 93
-7.871793e-002 -6.812381e-001 -8.479940e+000 32 29 28
-7.841391e-002 -6.812704e-001 -8.480642e+000 32 29 28
-1.505927e-001 -7.068253e-001 -8.459778e+000 126 118 95
-1.504622e-001 -7.066228e-001 -8.459126e+000 126 118 95
-5.918930e-003 -6.559539e-001 -8.503383e+000 134 124 101
-1.214844e-001 -7.765704e-001 -8.442695e+000 26 21 25
-1.214844e-001 -7.765704e-001 -8.442695e+000 26 21 25
-4.818111e-002 -7.514252e-001 -8.473292e+000 110 104 84
2.085824e-002 -7.270446e-001 -8.493366e+000 23 16 19
1.200243e-001 -7.740169e-001 -8.508394e+000 27 22 29
1.207936e-001 -7.753668e-001 -8.517632e+000 27 22 29
1.929171e-001 -7.499512e-001 -8.528238e+000 138 128 98
1.928503e-001 -7.486401e-001 -8.521017e+000 138 128 98
3.366877e-001 -6.967974e-001 -8.562220e+000 104 97 72
-4.387610e-001 -8.316401e-001 -8.450452e+000 130 124 102
-1.643483e-001 -8.730890e-001 -8.412461e+000 27 24 25
-1.642407e-001 -8.730415e-001 -8.412748e+000 27 24 25
-2.366160e-001 -9.017957e-001 -8.413228e+000 140 132 111
-3.091035e-001 -9.297799e-001 -8.392264e+000 25 23 27
-9.083992e-002 -8.471907e-001 -8.429919e+000 128 118 97
-2.083966e-002 -8.230390e-001 -8.456354e+000 21 19 18
-6.480411e-002 -9.182437e-001 -8.428058e+000 23 20 22
7.719361e-002 -8.700932e-001 -8.479210e+000 21 18 24
7.750983e-002 -8.694717e-001 -8.477023e+000 21 18 24
1.486177e-001 -8.462122e-001 -8.507004e+000 116 105 82
7.712802e-003 -8.954483e-001 -8.447023e+000 117 109 89
1.028787e-001 -9.421474e-001 -8.483449e+000 97 87 64
2.163571e-001 -8.201418e-001 -8.524150e+000 17 18 21
-2.236387e+000 -9.729171e-001 -7.932019e+000 135 91 64
-1.502820e+000 -1.025827e+000 -8.011127e+000 56 27 22
-4.888143e-001 -1.100587e+000 -8.389245e+000 34 31 32
-4.523958e-001 -9.954606e-001 -8.395074e+000 29 25 23
-3.824597e-001 -9.604797e-001 -8.389133e+000 136 131 113
6.957063e-001 -1.291204e+000 -7.678923e+000 85 46 26
-2.614559e+000 -1.418852e+000 -8.085109e+000 235 219 194
-2.618373e+000 -1.421355e+000 -8.096556e+000 235 219 194
1.058848e+000 -1.391301e+000 -7.588284e+000 203 170 137
-2.017459e+001 -7.824394e+000 -3.815504e+001 165 152 130
8.516896e-001 -1.535338e+000 -7.682127e+000 209 175 137
-1.027497e+001 -5.666890e+000 -2.508534e+001 98 99 119
-1.524310e+001 -8.618147e+000 -3.016115e+001 109 103 106
-1.585024e+001 -8.942540e+000 -2.970078e+001 67 58 76
-1.658775e+001 -9.511315e+000 -3.059374e+001 196 183 168
1.083782e+000 2.115903e+000 -8.219319e+000 180 160 127
1.539529e+000 1.650962e+000 -8.318074e+000 75 47 23
-1.097711e+001 5.441474e+000 -3.697642e+001 15 12 19
6.347851e-001 1.037018e+000 -9.391879e+000 71 64 57
8.468052e-001 1.118320e+000 -9.014856e+000 37 31 33
9.234744e-001 1.046811e+000 -8.934210e+000 40 34 31
7.105286e-001 8.391226e-001 -9.062870e+000 76 71 65
8.107740e-001 7.724026e-001 -9.066371e+000 54 50 49
1.328043e+000 4.076476e-001 -7.157336e+000 150 103 58
1.696673e+000 4.114077e-001 -7.055320e+000 179 153 116
1.572359e+000 3.731983e-001 -7.124635e+000 194 156 110
-1.886133e+000 1.995152e-001 -8.441463e+000 50 21 17
-1.883888e+000 1.998792e-001 -8.437593e+000 50 21 17
-1.533930e+000 3.148474e-001 -8.722663e+000 55 31 19
-2.158170e+000 1.534293e-001 -8.382180e+000 154 124 86
-8.524861e-001 -1.523501e-001 -9.015469e+000 75 70 60
-2.314056e+000 -2.041383e-001 -8.164025e+000 178 148 110
2.377822e+000 -2.022545e-001 -7.207010e+000 20 10 19
2.047601e+000 -3.659091e-001 -7.224511e+000 155 133 113
-1.833711e+001 -2.786699e+000 -3.589699e+001 213 204 195
-9.041702e-001 -1.421673e+000 -9.007635e+000 163 169 182
-3.667415e-001 -1.306423e+000 -8.373213e+000 137 134 127
7.914319e-001 -1.252298e+000 -7.659008e+000 104 62 40
-1.817107e+001 -7.840373e+000 -3.900207e+001 139 131 112
6.780709e-001 -1.557374e+000 -7.755737e+000 138 91 49
1.014120e+000 -1.497713e+000 -7.702095e+000 157 114 72
-2.004605e+000 -1.830528e+000 -8.216585e+000 42 36 32
-1.270785e+001 -7.149946e+000 -2.816794e+001 22 14 30
-1.569908e+001 -9.168471e+000 -3.001230e+001 110 102 118
1.874973e+000 2.251443e+000 -9.060103e+000 31 19 28
8.275282e-001 1.602989e+000 -8.413780e+000 122 94 64
1.700241e+000 8.445119e-001 -7.435929e+000 172 153 121
-3.392134e+000 2.089276e+000 -1.916809e+001 182 190 200
-3.468811e-002 2.412487e-001 -8.813028e+000 97 90 75
-2.276564e+000 6.098755e-002 -8.352246e+000 109 71 37
-2.442347e+000 -9.420740e-001 -7.978246e+000 181 145 109
6.427176e-001 -9.467188e-001 -7.780384e+000 66 34 22
7.715754e-001 -9.525205e-001 -7.641771e+000 111 75 51
-1.307037e+001 -8.375417e+000 -2.833902e+001 27 25 35
-3.792329e+000 2.491401e+000 -1.931556e+001 222 221 219
-5.955732e-002 9.148815e-001 -9.983010e+000 81 66 47
-1.198319e+000 -1.169887e+000 -8.155664e+000 82 56 41
-1.479915e+001 -8.777734e+000 -3.021983e+001 30 27 34
-4.455257e-001 1.913614e+000 -1.019187e+001 148 116 76
9.780679e-001 1.529729e+000 -8.291823e+000 48 37 33
-1.023805e+001 4.549368e+000 -3.566028e+001 22 19 30
2.189550e+000 -1.216255e-001 -7.176302e+000 47 32 27
-7.001950e-001 -1.247900e+000 -8.664528e+000 119 124 127
-2.247616e+000 -1.790241e+000 -8.180863e+000 205 193 179
2.206807e+000 5.885787e-002 -7.143876e+000 146 126 102
-1.503335e+000 -8.183459e-001 -8.012918e+000 76 43 27
-1.075344e+000 -1.012225e+000 -8.258948e+000 70 43 20
-1.425811e+000 -2.338181e-001 -8.100617e+000 171 151 116
-1.897433e+001 -8.981588e+000 -3.973877e+001 19 16 25
4.167898e-001 -7.744643e-002 -8.054808e+000 25 22 26
7.286154e-001 2.044951e+000 -8.348271e+000 145 115 97
4.667507e-001 2.015751e+000 -8.820641e+000 162 145 117
8.630759e-001 1.788827e+000 -8.349836e+000 52 34 24
4.630634e+000 1.824678e+000 -9.550897e+000 82 70 72
4.706537e+000 1.676586e+000 -9.369479e+000 46 33 27
-3.926714e-001 1.115839e+000 -9.864632e+000 150 125 92
-3.566583e-001 1.097142e+000 -9.882305e+000 107 82 51
6.311335e-001 8.095060e-001 -9.226339e+000 28 24 25
1.695572e+000 5.395935e-001 -7.097441e+000 177 157 119
-1.635748e+001 1.637348e+000 -3.103706e+001 56 69 118
2.551895e-001 3.356301e-001 -8.941795e+000 97 90 81
8.111296e-001 3.867073e-001 -8.851028e+000 61 57 54
1.623662e+000 2.773997e-001 -7.061960e+000 95 56 24
1.825816e+000 3.794339e-001 -6.970131e+000 170 148 107
-2.009751e+000 2.088119e-001 -8.400705e+000 124 92 67
-1.406116e-001 3.126200e-001 -8.945777e+000 154 149 119
1.631694e+000 1.835967e-001 -7.006002e+000 165 120 78
5.885594e-001 1.419892e-001 -8.755270e+000 54 48 35
2.612853e+000 6.551113e-002 -7.462343e+000 19 9 12
-1.034970e+000 -9.011063e-003 -8.338447e+000 110 95 74
-3.585032e-001 -1.390058e-001 -8.666114e+000 132 122 105
-9.149634e-001 -3.182508e-001 -8.687446e+000 44 36 36
8.327068e-001 -4.595720e-001 -8.589595e+000 78 73 76
1.253720e-001 -6.348162e-001 -8.525121e+000 136 129 101
-7.177910e-001 -1.066898e+000 -8.561711e+000 128 129 122
-2.937215e-001 -1.031486e+000 -8.387307e+000 137 132 113
-1.226317e+001 -8.002195e+000 -2.746624e+001 91 104 149
-1.704098e+001 -9.495246e+000 -3.050326e+001 157 140 124
-1.317683e+001 -8.847917e+000 -2.810906e+001 32 33 52
3.086448e+000 2.885563e+000 -1.131601e+001 69 58 52
1.409047e+000 1.859379e+000 -8.277792e+000 70 49 25
5.815529e-001 1.790014e+000 -8.601101e+000 157 133 105
4.118769e+000 2.050015e+000 -9.981260e+000 63 50 42
3.981589e+000 1.997079e+000 -9.999469e+000 36 24 25
1.154050e+000 1.347719e+000 -8.315234e+000 99 77 53
-2.830153e-001 1.460115e+000 -9.971026e+000 58 35 16
-2.830153e-001 1.460115e+000 -9.971026e+000 58 35 16
-4.249646e-001 1.127754e+000 -9.826990e+000 115 87 50
2.928411e-001 1.536414e-001 -8.750579e+000 104 98 85
1.401184e+000 2.582889e-001 -7.258842e+000 139 96 54
-1.100790e+000 4.069591e-002 -8.289811e+000 47 30 14
-3.866552e-001 8.228619e-002 -8.799158e+000 36 34 16
-3.887613e-001 7.955304e-002 -8.809796e+000 36 34 16
-3.183867e-001 -1.567470e-001 -8.643877e+000 21 18 15
-3.188190e-001 -1.565540e-001 -8.643280e+000 21 18 15
1.388575e+000 -1.007175e-001 -7.419886e+000 150 111 85
5.243480e-001 -2.758821e-001 -8.602680e+000 145 138 119
5.243480e-001 -2.758821e-001 -8.602680e+000 145 138 119
-1.801709e+000 -3.532838e-001 -8.088998e+000 120 94 69
8.762498e-001 -4.384209e-001 -8.726996e+000 11 9 15
-1.801774e+000 -6.389420e-001 -7.965615e+000 95 56 33
-1.755939e+000 -6.403222e-001 -7.930927e+000 146 112 84
-2.146372e+000 -7.940808e-001 -7.894344e+000 84 49 22
-2.325945e+000 -9.637270e-001 -7.938335e+000 164 123 91
-2.579115e-001 -1.087686e+000 -8.395157e+000 115 110 104
5.093125e-002 -1.057001e+000 -8.513705e+000 27 23 21
-2.040352e+000 -1.145439e+000 -7.983692e+000 62 40 29
-1.522811e+000 -1.130752e+000 -8.070616e+000 86 55 40
-1.424429e+000 -1.092830e+000 -8.089377e+000 51 28 18
-1.497682e+000 -1.276874e+000 -8.000671e+000 43 35 32
-1.243991e+001 -7.814228e+000 -2.814469e+001 122 131 164
-1.629117e+001 -9.491496e+000 -2.974645e+001 175 165 156
9.056261e-001 1.845394e+000 -8.353740e+000 46 33 25
1.296401e+000 1.614756e+000 -8.258062e+000 50 30 19
4.523052e+000 1.382161e+000 -9.225738e+000 75 60 57
-3.879600e+000 2.596638e+000 -1.917509e+001 231 228 223
4.636741e+000 1.230383e+000 -9.077562e+000 27 16 17
-5.081217e-001 1.187612e+000 -9.888730e+000 73 49 21
1.734756e+000 6.121120e-001 -7.133798e+000 189 169 134
1.902472e+000 3.583778e-001 -6.962323e+000 170 146 112
-1.008146e+000 3.241600e-001 -9.311633e+000 50 48 39
1.991317e-001 1.218014e-001 -8.717518e+000 93 88 72
2.072540e-001 4.802278e-002 -8.693700e+000 126 120 99
1.069057e+000 1.187575e-002 -8.517846e+000 71 66 63
-6.603467e-001 -1.014639e-001 -8.784739e+000 106 99 88
-2.384761e-001 -5.862744e-002 -8.677721e+000 23 19 27
1.192117e+000 -2.502937e-001 -8.239571e+000 61 56 55
1.567524e+000 -1.795940e-001 -7.098894e+000 174 126 85
1.567524e+000 -1.795940e-001 -7.098894e+000 174 126 85
-2.641036e+000 -3.241370e-001 -8.255848e+000 195 158 121
-8.498552e-001 -3.681513e-001 -8.753263e+000 72 68 56
-2.338382e+000 -9.255159e-001 -7.957678e+000 121 78 46
-2.471857e+000 -1.102793e+000 -8.065376e+000 165 127 88
-2.492873e+000 -1.206101e+000 -8.101864e+000 168 137 104
-1.126527e+000 -1.222850e+000 -8.343108e+000 57 38 32
-4.210239e-001 -1.223433e+000 -8.347342e+000 135 132 123
-2.472189e-001 -1.176247e+000 -8.409602e+000 97 93 84
-2.155522e-001 -1.553898e+000 -8.196505e+000 41 36 32
-1.281740e+001 -8.863871e+000 -2.777263e+001 68 66 86
4.705447e+000 1.385548e+000 -9.060992e+000 43 27 28
1.189760e-001 1.165542e+000 -1.018606e+001 44 34 32
6.692691e-001 7.728090e-001 -9.185065e+000 24 19 24
3.584958e-001 6.245401e-001 -9.427014e+000 94 89 82
1.729464e+000 4.073409e-001 -7.041142e+000 173 149 115
1.743792e+000 4.584587e-001 -7.068126e+000 66 46 41
1.540112e+000 3.081221e-001 -7.112505e+000 138 92 51
1.685742e+000 2.852502e-001 -6.942187e+000 90 55 17
-5.441389e-001 -1.950233e-002 -8.758495e+000 131 122 103
8.974511e-001 -1.420457e-001 -8.670702e+000 51 47 48
-9.605768e-001 -4.882832e-001 -8.508468e+000 35 20 24
-1.054198e+000 -6.162221e-001 -8.342498e+000 66 41 19
6.080017e-001 -5.923849e-001 -8.713080e+000 90 83 64
-6.035094e-001 -8.345423e-001 -8.482410e+000 26 25 23
-5.464346e-001 -9.673942e-001 -8.433108e+000 28 26 23
-1.838285e-001 -1.034707e+000 -8.396452e+000 119 107 91
-1.614782e+001 -8.868193e+000 -3.003479e+001 126 126 143
1.002649e+000 2.260834e+000 -8.369715e+000 177 157 122
1.002649e+000 2.260834e+000 -8.369715e+000 177 157 122
3.614362e+000 2.651386e+000 -1.080015e+001 113 99 86
3.935386e+000 2.090409e+000 -1.000858e+001 78 63 58
1.229290e+000 1.558444e+000 -8.303067e+000 47 28 18
4.594225e+000 1.648485e+000 -9.316095e+000 94 78 71
1.716001e+000 6.846130e-001 -7.172780e+000 179 159 125
-1.291546e+000 1.163290e-001 -8.208951e+000 143 121 95
3.813577e-001 4.927254e-002 -8.700695e+000 21 18 19
4.143018e-002 -1.544616e-001 -8.628732e+000 22 19 22
2.164130e-001 -1.729244e-001 -8.646995e+000 123 115 93
2.894638e-001 -1.474799e-001 -8.659642e+000 24 21 23
2.428371e-001 -2.457018e-001 -8.641470e+000 25 20 16
3.144075e-001 -2.196221e-001 -8.647906e+000 142 136 110
1.708601e-001 -2.701136e-001 -8.623019e+000 123 118 99
-3.396467e-001 -4.661182e-001 -8.545221e+000 20 20 18
7.006031e-001 -4.049401e-001 -8.618605e+000 144 137 110
-3.542840e-001 -6.320199e-001 -8.496749e+000 132 127 103
-1.800803e-001 -6.400089e-001 -8.484974e+000 24 22 25
-1.800803e-001 -6.400089e-001 -8.484974e+000 24 22 25
-1.071253e-001 -6.123004e-001 -8.494079e+000 132 121 97
-4.967058e-001 -7.008496e-001 -8.506315e+000 138 132 113
-5.389369e-001 -8.022053e-001 -8.490818e+000 141 137 112
5.119271e-002 -7.968933e-001 -8.487235e+000 107 100 73
5.119271e-002 -7.968933e-001 -8.487235e+000 107 100 73
-2.365470e-001 -9.005745e-001 -8.403697e+000 140 132 111
-3.090968e-001 -9.300600e-001 -8.393624e+000 25 23 27
-2.492796e+000 -9.934346e-001 -8.030625e+000 171 136 98
-2.492796e+000 -9.934346e-001 -8.030625e+000 171 136 98
7.089804e-001 5.876156e-001 -8.924367e+000 66 64 65
3.500752e-001 1.333020e-001 -8.742620e+000 95 89 72
7.192509e-001 7.224798e-001 -9.085200e+000 18 16 19
-1.767132e+000 -2.724688e-001 -8.057205e+000 75 48 27
6.897062e-001 2.340092e+000 -8.446062e+000 122 75 33
6.149690e-001 1.921792e+000 -8.592568e+000 101 64 38
8.345112e-001 1.952251e+000 -8.359721e+000 47 23 19
1.163244e+000 1.739162e+000 -8.159850e+000 82 69 53
6.658205e-001 1.715227e+000 -8.780039e+000 44 30 21
8.498458e-001 1.648829e+000 -8.490140e+000 151 126 96
9.805104e-001 1.729066e+000 -8.300103e+000 32 19 12
1.137069e+000 1.667879e+000 -8.356979e+000 61 45 45
1.129441e+000 1.663659e+000 -8.304052e+000 61 45 45
1.641977e+000 1.685810e+000 -8.440352e+000 75 47 33
1.034089e+000 1.534760e+000 -8.353380e+000 78 64 59
1.556141e+000 1.493217e+000 -8.335845e+000 91 52 21
1.591370e+000 1.035409e+000 -7.794918e+000 125 97 76
-3.729434e-001 6.008472e-001 -9.510140e+000 128 124 115
-3.355176e-001 6.138532e-001 -9.477282e+000 25 22 15
-3.355176e-001 6.138532e-001 -9.477282e+000 25 22 15
-2.987816e-001 6.209139e-001 -9.506856e+000 31 26 22
-4.476305e-002 6.870108e-001 -9.802693e+000 67 61 57
1.324149e+000 8.063764e-001 -7.615181e+000 185 145 107
1.673633e+000 8.385579e-001 -7.653687e+000 54 39 25
1.772778e+000 8.678719e-001 -7.477739e+000 158 139 103
-2.413056e+000 4.340444e-001 -8.875261e+000 143 101 61
-1.999361e+000 4.018965e-001 -8.608944e+000 150 114 82
-1.690577e+000 4.610389e-001 -8.674853e+000 96 61 33
-1.608165e+000 5.242666e-001 -9.529413e+000 210 215 235
-1.468573e+000 4.311036e-001 -8.860540e+000 129 102 79
-1.023977e+000 5.039938e-001 -9.469344e+000 36 29 19
-6.201095e-001 5.369104e-001 -9.343513e+000 111 104 94
-6.201095e-001 5.369104e-001 -9.343513e+000 111 104 94
-4.560127e-001 5.848367e-001 -9.534921e+000 35 27 21
-3.918856e-001 5.692822e-001 -9.424745e+000 34 27 18
-3.918856e-001 5.692822e-001 -9.424745e+000 34 27 18
-3.536832e-001 5.790460e-001 -9.416654e+000 27 23 13
-3.182838e-001 5.899184e-001 -9.423436e+000 119 118 100
-3.182838e-001 5.899184e-001 -9.423436e+000 119 118 100
-2.704659e-001 5.644743e-001 -9.418449e+000 22 17 13
-2.244107e-001 5.695642e-001 -9.416751e+000 96 90 84
-4.368794e-002 5.816062e-001 -9.650619e+000 23 20 13
8.945753e-002 5.662341e-001 -9.577564e+000 26 19 11
1.076639e-001 5.383275e-001 -9.516384e+000 92 85 75
1.972114e-001 5.271494e-001 -9.375398e+000 74 75 64
1.255849e+000 6.761955e-001 -7.737587e+000 28 21 31
1.360487e+000 7.218568e-001 -7.312555e+000 148 105 62
1.360487e+000 7.218568e-001 -7.312555e+000 148 105 62
4.547131e+000 8.472431e-001 -8.645198e+000 66 55 57
-2.571640e+000 2.848031e-001 -8.718279e+000 178 146 105
-2.190679e+000 3.158020e-001 -8.545908e+000 99 63 28
-2.116243e+000 2.562271e-001 -8.348676e+000 158 125 90
-2.180545e+000 3.492525e-001 -8.617352e+000 185 150 110
-2.028889e+000 2.783348e-001 -8.323163e+000 84 50 22
-1.979353e+000 2.615071e-001 -8.409170e+000 121 90 69
-1.888628e+000 2.763267e-001 -8.504178e+000 113 78 59
-1.655426e+000 2.976411e-001 -8.670128e+000 81 55 45
-1.541208e+000 2.631442e-001 -8.743000e+000 43 21 8
-1.194088e+000 3.009711e-001 -8.914176e+000 90 72 50
-7.342749e-002 4.394572e-001 -9.195119e+000 34 25 26
2.303805e-001 4.506685e-001 -9.213623e+000 13 11 12
2.506165e-001 4.219554e-001 -9.181330e+000 71 67 62
2.878989e-001 4.193009e-001 -9.180760e+000 80 76 73
1.394637e+000 6.139561e-001 -7.196011e+000 201 164 122
1.394637e+000 6.139561e-001 -7.196011e+000 201 164 122
-2.032527e+000 2.038858e-001 -8.300591e+000 140 108 83
-2.016442e+000 2.492763e-001 -8.345377e+000 148 118 90
-2.016442e+000 2.492763e-001 -8.345377e+000 148 118 90
-1.117408e+000 2.225654e-001 -8.579816e+000 127 107 82
-4.093613e-001 1.516672e-001 -8.864287e+000 158 148 122
1.280802e+000 4.966994e-001 -7.303312e+000 154 112 63
1.399053e+000 4.911130e-001 -7.346303e+000 158 117 73
1.398709e+000 4.180170e-001 -7.182095e+000 224 186 139
-2.786447e+000 -2.258687e-002 -8.457813e+000 199 161 116
-2.191337e+000 -4.114533e-002 -8.142493e+000 131 101 62
-2.090885e+000 1.380088e-002 -8.209644e+000 101 68 35
-2.139084e+000 -1.341403e-002 -8.233722e+000 111 79 41
-1.932768e+000 9.526468e-002 -8.305940e+000 68 36 11
-1.240775e+000 7.137210e-002 -8.192636e+000 86 62 37
-1.241376e+000 7.010789e-002 -8.196988e+000 86 62 37
-5.775552e-001 1.063182e-001 -8.919768e+000 113 38 50
-1.976822e-001 1.150375e-001 -8.764482e+000 158 157 125
-1.988312e-001 1.125017e-001 -8.773426e+000 158 157 125
7.120251e-001 5.357516e-002 -8.707048e+000 45 38 31
1.343753e+000 3.667265e-001 -7.327953e+000 146 91 50
1.544397e+000 3.839926e-001 -7.225380e+000 97 54 12
1.601765e+000 3.635507e-001 -6.942613e+000 132 95 51
-2.292702e+000 -1.031312e-001 -8.144867e+000 182 148 108
-2.292702e+000 -1.031312e-001 -8.144867e+000 182 148 108
-1.937520e+000 -3.655004e-002 -8.034237e+000 159 130 98
-1.975901e+000 -8.402152e-002 -7.973866e+000 110 80 44
-1.983879e+000 -1.467002e-001 -8.063975e+000 117 89 52
-1.768917e+000 -5.640700e-002 -8.107086e+000 122 96 72
-4.198163e-001 -1.386059e-001 -8.655013e+000 139 111 95
2.554714e-001 -1.344740e-001 -8.658061e+000 31 31 24
1.422409e+000 2.197331e-001 -7.250479e+000 189 144 102
1.655235e+000 1.928153e-001 -6.952682e+000 159 114 73
2.531044e+000 1.690766e-001 -7.500647e+000 57 47 46
2.648354e+000 1.432034e-001 -7.744745e+000 62 52 51
-2.111989e+000 -1.950480e-001 -8.088301e+000 182 150 112
-2.117407e+000 -2.837015e-001 -8.000890e+000 161 134 97
-1.946390e+000 -2.126326e-001 -8.064463e+000 163 131 100
-1.961502e+000 -2.408974e-001 -8.068881e+000 108 73 43
-1.669314e+000 -2.601266e-001 -8.137895e+000 59 32 12
-1.601214e+000 -2.552337e-001 -8.066028e+000 73 49 25
-1.601214e+000 -2.552337e-001 -8.066028e+000 73 49 25
-9.695710e-001 -1.182019e-001 -7.968449e+000 125 104 79
1.572460e+000 1.524566e-001 -6.956073e+000 151 104 62
1.646427e+000 8.057229e-002 -6.883087e+000 200 152 108
1.688750e+000 6.399035e-002 -6.907547e+000 200 153 110
1.750263e+000 1.340311e-001 -7.012786e+000 153 111 73
1.761556e+000 1.319917e-001 -6.968695e+000 144 103 64
2.639928e+000 1.318857e-001 -7.486354e+000 60 51 50
2.639928e+000 1.318857e-001 -7.486354e+000 60 51 50
-2.497868e+000 -4.384572e-001 -8.021117e+000 150 105 66
-2.492452e+000 -4.860496e-001 -8.017122e+000 187 146 101
-2.170919e+000 -4.000474e-001 -8.096315e+000 171 143 110
-1.811677e+000 -3.491568e-001 -7.965954e+000 145 116 87
-1.765656e+000 -4.607935e-001 -8.113925e+000 73 47 30
-1.550077e+000 -3.588650e-001 -8.090168e+000 74 56 49
-1.541611e+000 -4.172908e-001 -8.026928e+000 95 78 63
-3.829424e-001 -4.290083e-001 -8.578088e+000 138 132 110
-3.829424e-001 -4.290083e-001 -8.578088e+000 138 132 110
7.945649e-001 -3.153797e-001 -8.598380e+000 33 29 17
7.943094e-001 -3.154540e-001 -8.597878e+000 33 29 17
8.319136e-001 -4.048146e-001 -8.590631e+000 87 80 74
2.121243e+000 -4.913407e-002 -7.180401e+000 89 61 38
-2.572864e+000 -5.931459e-001 -8.068526e+000 108 70 32
-1.315407e+000 -6.031621e-001 -8.135750e+000 81 45 23
-9.896266e-001 -5.719405e-001 -8.227709e+000 94 69 54
-8.932197e-001 -5.494863e-001 -8.433741e+000 62 48 44
1.819166e+000 -1.352643e-001 -6.970249e+000 171 131 96
1.957372e+000 -2.086463e-001 -7.031498e+000 138 99 60
-2.119049e+000 -6.467970e-001 -7.821749e+000 167 138 106
-2.130837e+000 -7.525314e-001 -7.933686e+000 152 115 89
-1.216032e+000 -7.190861e-001 -8.104333e+000 88 52 28
-9.097028e-001 -6.464693e-001 -8.376240e+000 100 89 59
-5.653976e-001 -6.753221e-001 -8.512900e+000 155 148 129
2.234095e+000 -3.177482e-001 -7.221995e+000 44 29 34
2.235286e+000 -3.187706e-001 -7.225683e+000 44 29 34
-2.883005e+000 -9.111650e-001 -8.368762e+000 167 143 123
-2.321169e+000 -8.298922e-001 -7.885814e+000 139 103 71
-2.131236e+000 -7.864078e-001 -7.953990e+000 87 52 24
-1.574313e+000 -7.933935e-001 -7.969076e+000 72 35 16
-1.224273e+000 -8.045279e-001 -8.010910e+000 136 103 72
-1.224273e+000 -8.045279e-001 -8.010910e+000 136 103 72
-1.237827e+000 -8.186553e-001 -8.197545e+000 74 39 17
-8.563993e-001 -9.702372e-001 -8.469497e+000 90 84 75
