ply
format ascii 1.0
element face 0
property list uchar int vertex_indices
element vertex 880
property float x
property float y
property float z
property uchar diffuse_red
property uchar diffuse_green
property uchar diffuse_blue
end_header
3.292830e+000 2.232260e+000 -1.070462e+001 26 16 14
3.057893e+000 1.641560e+000 -1.084344e+001 21 12 10
9.166674e-001 1.942318e+000 -8.311684e+000 42 27 20
-1.395585e+000 -2.520930e-001 -8.084170e+000 168 137 83
-2.405052e+000 -8.917209e-001 -7.987411e+000 165 129 77
9.395851e-001 -1.090468e+000 -8.713647e+000 116 120 120
4.642216e+000 4.806349e-001 -8.228155e+000 27 17 16
5.969259e-001 1.632781e+000 -8.559529e+000 36 27 20
3.301070e+000 1.345275e+000 -1.032764e+001 20 12 11
-4.769731e-001 -9.830804e-001 -8.461721e+000 154 132 93
1.355947e+000 6.702205e-001 -8.109228e+000 39 30 26
1.102206e+000 -1.165392e+000 -8.572806e+000 119 123 126
-2.949110e+000 3.645164e-002 -9.196324e+000 90 64 36
6.762498e-001 1.816980e+000 -8.598254e+000 138 106 59
-2.346574e+000 -6.792474e-001 -8.001664e+000 153 119 71
-9.155807e-001 -1.477817e+000 -8.396669e+000 18 13 17
4.259129e+000 2.658368e-001 -8.607505e+000 34 24 23
-1.801003e-001 1.474183e+000 -1.004076e+001 136 105 56
-3.311636e-001 1.002431e+000 -9.928172e+000 118 89 47
7.652881e-001 2.217014e+000 -8.392931e+000 76 46 34
4.330712e+000 8.106166e-001 -9.893077e+000 81 63 41
3.443304e+000 2.257041e+000 -1.052944e+001 35 24 22
3.443304e+000 2.257041e+000 -1.052944e+001 35 24 22
-1.387725e+000 1.784381e-001 -8.544966e+000 129 102 58
-8.272154e-001 -2.216432e-001 -8.736020e+000 67 58 37
2.024844e+000 1.714251e+000 -8.651474e+000 16 12 13
-1.193197e+000 1.542031e-001 -9.298098e+000 26 17 17
9.244363e-001 1.011301e+000 -8.161611e+000 15 13 15
4.261005e+000 2.626095e+000 -1.045933e+001 155 134 115
4.284675e+000 2.603515e+000 -1.043482e+001 59 38 17
-4.865551e+000 3.982356e+000 -2.025673e+001 50 45 39
8.224093e-001 1.673273e+000 -8.399003e+000 159 133 99
-3.010023e+000 2.856361e+000 -1.916158e+001 17 16 21
-7.326426e-001 1.216982e+000 -1.010032e+001 132 101 71
-3.922882e-001 1.107469e+000 -9.830299e+000 150 125 92
-2.398250e-001 8.764970e-001 -9.915888e+000 61 44 24
2.499073e-002 8.405791e-001 -9.964607e+000 73 60 56
4.145398e-001 3.354071e-001 -8.908297e+000 64 56 53
-4.604305e-001 1.692942e-001 -8.920648e+000 136 130 114
-6.166143e-001 -1.708609e-001 -8.715488e+000 107 102 87
-2.235232e+000 -3.208043e-001 -8.126585e+000 121 82 51
-1.867815e+000 -6.400206e-001 -8.000346e+000 140 108 79
-2.246464e+000 -1.084562e+000 -8.008414e+000 129 95 76
-1.812844e+000 -1.412467e+000 -8.099922e+000 25 15 16
-1.812844e+000 -1.412467e+000 -8.099922e+000 25 15 16
3.319893e+000 2.824605e+000 -1.094338e+001 99 86 69
3.319893e+000 2.824605e+000 -1.094338e+001 99 86 69
-3.407442e+000 4.177073e+000 -2.095891e+001 55 57 64
1.042178e+000 1.578655e+000 -8.179138e+000 94 81 72
-4.572053e-001 1.748507e+000 -1.012723e+001 104 66 29
1.022418e+000 1.531566e+000 -8.281999e+000 76 62 55
1.011487e+000 1.472871e+000 -8.368746e+000 31 17 14
1.243470e+000 1.413810e+000 -8.204012e+000 72 44 30
1.471026e+000 3.699623e-001 -7.096759e+000 141 98 53
-2.114840e-001 2.079424e-001 -8.832276e+000 135 130 108
-2.321610e+000 -5.526087e-002 -8.241302e+000 163 129 84
1.727659e+000 -6.702136e-002 -6.879872e+000 182 143 104
-1.685462e+000 -2.004167e-001 -8.099703e+000 157 133 109
1.592435e+000 -1.519589e-001 -7.070235e+000 122 69 36
-1.786843e+000 -4.917342e-001 -8.000732e+000 123 96 67
-2.409890e+000 -7.418102e-001 -8.028567e+000 192 164 126
-1.941705e+000 -8.344875e-001 -7.973400e+000 119 83 51
-1.930492e+000 -8.915687e-001 -7.935568e+000 122 86 54
-1.746388e+000 -1.144110e+000 -8.002066e+000 106 70 54
-1.500883e+000 -1.130683e+000 -8.159871e+000 35 15 8
-1.318791e+000 -1.455831e+000 -8.215795e+000 69 53 54
9.485897e-001 -1.877645e+000 -8.015289e+000 154 113 83
3.628770e+000 3.200907e+000 -1.139072e+001 73 58 51
3.628770e+000 3.200907e+000 -1.139072e+001 73 58 51
3.292302e+000 2.969429e+000 -1.106245e+001 112 94 84
1.092140e+000 2.063751e+000 -8.311123e+000 67 48 18
6.289484e-001 1.864538e+000 -8.591944e+000 60 34 12
1.605918e+000 1.818994e+000 -8.289914e+000 147 127 95
1.666972e+000 1.477341e+000 -8.287387e+000 65 38 19
1.533445e+000 8.943232e-001 -7.516901e+000 83 49 36
1.263438e+000 7.648615e-001 -7.628002e+000 20 22 24
-9.445299e-001 3.603346e-001 -9.268365e+000 165 162 132
-9.445299e-001 3.603346e-001 -9.268365e+000 165 162 132
-7.378829e-001 4.568046e-001 -9.263575e+000 28 24 13
1.619258e+000 2.906188e-001 -7.043133e+000 103 68 37
-9.007075e-001 2.561964e-001 -9.176097e+000 152 148 122
1.576569e+000 -1.048749e-001 -7.047640e+000 115 65 40
-2.659361e+000 -3.707236e-001 -8.276459e+000 128 92 60
-1.785257e+000 -4.133174e-001 -8.121561e+000 71 44 25
-1.469560e+000 -4.430986e-001 -8.188251e+000 136 113 81
2.161313e+000 -2.811822e-001 -7.127743e+000 53 30 18
-1.599912e+000 -4.787675e-001 -8.018412e+000 109 97 80
-1.086429e+000 -8.664112e-001 -8.265094e+000 81 52 31
-2.441280e+000 -1.054509e+000 -8.073541e+000 118 77 45
-1.856160e+000 -1.036337e+000 -7.960006e+000 114 80 61
-2.531152e+000 -1.200757e+000 -8.093648e+000 107 67 35
-2.476171e+000 -1.157351e+000 -8.085343e+000 101 66 36
-2.476171e+000 -1.157351e+000 -8.085343e+000 101 66 36
-1.292334e+000 -1.220620e+000 -8.120861e+000 36 19 22
-1.530039e-001 -1.187289e+000 -8.356728e+000 122 118 105
2.984999e-001 -1.473879e+000 -7.878338e+000 41 21 15
-2.634792e+000 -1.811872e+000 -8.359834e+000 64 54 53
9.378858e-001 -1.698438e+000 -7.850402e+000 171 131 95
-4.339974e+000 4.345281e+000 -2.035125e+001 148 149 153
-4.209103e+000 3.294487e+000 -2.047032e+001 199 207 220
-7.058332e-001 1.448677e+000 -1.000675e+001 139 97 59
4.718295e-001 1.204335e+000 -9.597519e+000 26 21 18
-7.199583e-001 1.037751e+000 -1.002466e+001 163 127 95
1.514604e+000 4.247912e-001 -7.112365e+000 123 84 55
4.015387e-001 3.754609e-001 -8.884616e+000 123 122 111
-8.359023e-001 1.546549e-001 -9.081829e+000 109 101 90
-1.871033e+000 5.711413e-002 -8.286160e+000 54 22 13
-2.205741e+000 -1.687746e-002 -8.212198e+000 170 142 105
-3.876009e-001 -3.339016e-001 -8.593346e+000 26 21 25
1.605002e+000 -2.017469e-001 -7.114465e+000 170 126 87
-2.588928e+000 -5.106189e-001 -8.171175e+000 132 91 53
-1.854307e+000 -6.812590e-001 -7.986961e+000 87 49 30
-1.611170e+000 -7.118796e-001 -8.004637e+000 80 46 19
-5.633856e-001 -7.435415e-001 -8.516284e+000 29 25 13
-8.925605e-001 -9.744998e-001 -8.492587e+000 23 11 21
-1.833380e+000 -9.830466e-001 -7.930096e+000 79 46 30
-1.217808e+000 -9.536279e-001 -8.129585e+000 80 50 35
-6.668913e-001 -1.057777e+000 -8.515912e+000 24 20 19
-5.803420e-001 -1.080576e+000 -8.449847e+000 24 22 22
-3.889202e-002 -9.951179e-001 -8.456024e+000 127 114 85
-2.441458e+000 -1.104140e+000 -8.097039e+000 161 126 88
-1.661055e+000 -1.122870e+000 -8.011885e+000 73 40 34
-2.599443e+000 -1.282925e+000 -8.125149e+000 205 174 145
-2.278191e+000 -1.513177e+000 -8.248198e+000 95 75 51
2.041262e-001 -1.421415e+000 -7.940903e+000 27 19 15
7.322209e-001 -1.443759e+000 -7.701358e+000 130 77 39
8.362346e-001 -1.369072e+000 -7.608540e+000 137 94 52
-2.325318e+000 -1.627531e+000 -8.209861e+000 63 45 31
7.668220e-002 -1.625340e+000 -8.005876e+000 29 18 14
7.817696e-001 -1.536629e+000 -7.715485e+000 199 160 120
9.219162e-002 -1.799108e+000 -8.034742e+000 108 82 67
5.885002e-001 -1.793252e+000 -7.902811e+000 85 57 50
5.651084e-001 -1.880000e+000 -7.970398e+000 65 42 36
8.710410e-001 1.900687e+000 -8.321525e+000 44 31 25
-4.188394e+000 4.657496e+000 -2.087901e+001 31 29 35
-3.454167e+000 4.441614e+000 -2.165268e+001 219 220 231
-4.189715e+000 4.240984e+000 -2.092363e+001 63 63 71
1.087680e+000 1.547667e+000 -8.271733e+000 28 12 12
7.978014e-001 1.524999e+000 -8.494729e+000 47 36 29
-3.390404e+000 2.905942e+000 -1.980698e+001 53 53 51
-6.369437e-001 1.027846e+000 -1.001473e+001 77 47 20
-5.298812e-001 9.845960e-001 -9.907723e+000 153 119 75
1.698418e+000 5.933085e-001 -7.118456e+000 69 46 30
1.375838e+000 4.166169e-001 -7.108538e+000 216 182 139
1.561490e+000 1.845077e-001 -7.036677e+000 176 131 89
1.716547e+000 2.410564e-001 -6.891616e+000 196 164 122
-1.785749e+000 1.492300e-002 -8.177475e+000 106 79 52
-1.687866e+000 1.175548e-001 -8.472658e+000 21 16 17
4.806600e-001 3.409833e-003 -8.673435e+000 25 19 26
-2.572259e+000 -2.496599e-001 -8.232316e+000 184 145 101
6.073290e-001 -3.521530e-001 -8.618130e+000 140 134 112
-1.343398e-001 -9.494272e-001 -8.407939e+000 136 123 95
-1.362807e+000 -9.640514e-001 -8.113016e+000 71 38 21
3.204469e-001 -9.590428e-001 -8.111909e+000 156 124 85
7.862722e-001 -1.040506e+000 -7.608888e+000 78 41 24
9.113002e-001 -1.806034e+000 -7.880280e+000 132 91 59
9.113002e-001 -1.806034e+000 -7.880280e+000 132 91 59
-3.672338e+000 4.575776e+000 -2.110473e+001 52 53 58
9.232532e-001 1.151730e+000 -8.975646e+000 67 61 58
2.408575e+000 -2.083371e-001 -7.276939e+000 20 10 19
-1.876521e+000 -1.284748e+000 -8.042253e+000 38 24 24
-2.333633e+000 -1.553186e+000 -8.163225e+000 142 125 99
1.685674e+000 1.533415e+000 -8.234341e+000 127 100 73
5.632258e-001 5.749093e-001 -9.137302e+000 24 21 25
1.934867e-001 -1.491470e+000 -7.962875e+000 33 21 21
1.934867e-001 -1.491470e+000 -7.962875e+000 33 21 21
-1.677396e+000 -1.660158e+000 -8.228184e+000 58 40 40
1.195939e-001 -1.966966e+000 -8.264907e+000 40 27 27
-3.420249e+000 4.674786e+000 -2.094672e+001 185 187 201
-4.376443e+000 3.579630e+000 -2.060047e+001 192 196 206
-1.084096e-001 1.034287e-001 -8.761619e+000 20 18 23
9.060255e-001 -9.695234e-001 -7.747163e+000 78 46 25
-6.371371e-001 1.032633e-002 -8.777136e+000 102 96 82
1.416739e+000 -1.540627e-001 -7.426388e+000 184 155 127
-7.439380e-001 -9.380643e-001 -8.591507e+000 121 112 103
8.878664e-001 -8.031652e-001 -7.855645e+000 61 42 34
3.950126e-001 -1.905435e+000 -8.188982e+000 166 131 100
-4.547497e+000 3.822929e+000 -2.016514e+001 218 219 224
-5.082443e-001 -1.574608e+000 -8.731580e+000 175 174 179
3.241093e-002 1.188061e+000 -1.011653e+001 36 23 13
3.353265e-002 1.187303e+000 -1.010528e+001 36 23 13
6.529491e-002 1.177454e+000 -1.014872e+001 78 66 53
8.577266e-001 -4.667213e-001 -8.584886e+000 13 12 16
-1.107760e+000 -8.583651e-001 -8.166607e+000 113 79 55
-1.917938e+000 -1.098962e+000 -7.975235e+000 106 73 58
-2.874057e-001 1.837875e+000 -1.002959e+001 69 40 17
9.481780e-001 1.593427e+000 -8.264035e+000 64 49 40
-4.971593e-001 1.081594e+000 -9.892489e+000 131 97 57
-3.292581e-001 9.578675e-001 -9.925960e+000 80 54 29
4.881915e-001 3.372432e-001 -8.781203e+000 66 60 50
-4.283883e-001 1.129445e+000 -9.845722e+000 118 86 48
3.810536e-001 4.630855e-002 -8.698747e+000 23 18 21
-1.649262e+000 -6.973505e-001 -7.945594e+000 119 86 53
-1.484333e+001 1.221486e+000 -3.375792e+001 59 72 115
-8.159346e-001 -7.133216e-001 -8.385654e+000 102 90 75
1.088915e+000 2.007306e+000 -8.292286e+000 179 157 111
-6.415179e-001 -9.526050e-001 -8.511893e+000 32 26 28
-3.138435e+000 -3.961862e+000 -1.693457e+001 141 137 138
-3.138435e+000 -3.961862e+000 -1.693457e+001 141 137 138
1.169332e+000 1.270101e+000 -8.664715e+000 56 55 53
-1.017356e-002 1.198469e+000 -1.007697e+001 40 25 20
5.752100e-001 1.979908e-001 -8.781593e+000 130 124 110
5.371470e-001 -7.856900e-002 -8.648743e+000 125 119 102
-4.632102e-001 -2.297404e-001 -8.629681e+000 130 113 92
4.362204e-001 -4.747465e-001 -8.592170e+000 151 146 123
4.362204e-001 -4.747465e-001 -8.592170e+000 151 146 123
-5.926269e-001 -8.126826e-001 -8.512408e+000 26 21 17
-5.926269e-001 -8.126826e-001 -8.512408e+000 26 21 17
-5.765699e-001 -1.136854e+000 -8.445411e+000 147 143 138
1.694254e-001 -1.734465e+000 -8.043139e+000 115 91 67
-1.253384e+001 6.745828e+000 -2.244108e+001 126 121 103
1.305892e+000 3.623447e-001 -7.293231e+000 217 180 140
-2.555194e-001 -1.092821e+000 -8.392486e+000 115 110 104
6.260366e-002 -1.018236e+000 -8.486965e+000 61 57 55
-1.686769e+001 3.748905e-001 -3.339858e+001 216 214 210
-1.502063e+000 -1.238866e+000 -8.040173e+000 24 14 13
1.376306e-001 -1.612345e+000 -7.994661e+000 109 90 80
-1.501420e+001 7.946957e+000 -2.727071e+001 112 106 97
-1.508904e+001 7.971544e+000 -2.734974e+001 112 106 97
1.025916e+000 1.242296e+000 -8.745985e+000 42 36 38
2.128345e+000 1.857796e-001 -7.016206e+000 137 120 91
2.823047e-001 -5.617788e-001 -8.578337e+000 116 110 87
-6.409682e-001 -9.507060e-001 -8.507403e+000 26 22 30
-2.055859e+000 -1.028195e+000 -7.933414e+000 72 39 20
-1.532022e+001 7.929698e+000 -2.717567e+001 107 100 91
4.973646e-001 9.477415e-001 -9.300215e+000 63 54 55
1.880443e-001 -1.054681e-001 -8.653620e+000 26 22 20
9.441103e-002 -7.075220e-001 -8.513638e+000 138 130 100
8.873745e-001 1.658659e+000 -8.348321e+000 34 23 20
-1.184964e+001 9.523870e+000 -3.461559e+001 21 16 20
-1.105202e+001 8.737587e+000 -3.082268e+001 84 74 70
-1.105202e+001 8.737587e+000 -3.082268e+001 84 74 70
7.439288e-001 2.020014e+000 -8.430591e+000 67 33 21
9.185608e-001 1.522156e+000 -8.395362e+000 58 46 35
1.583431e+000 1.405709e+000 -8.391936e+000 86 54 31
-4.726063e-001 1.875886e+000 -1.016199e+001 176 139 95
-4.892773e-001 1.446452e+000 -1.003561e+001 97 58 26
-4.001395e+000 4.050924e+000 -2.087655e+001 98 102 107
-1.254186e-001 1.219271e+000 -9.999531e+000 70 53 25
1.371474e+000 4.887429e-001 -7.291176e+000 209 175 129
-7.469968e-002 4.137605e-002 -8.720509e+000 124 37 50
-2.375391e+000 3.137069e-002 -8.331771e+000 139 102 58
-1.978562e+000 -4.266969e-002 -8.188111e+000 161 133 96
-1.942248e+000 -6.574632e-002 -8.160870e+000 101 72 40
-1.859471e+000 -1.842041e-001 -8.063317e+000 149 120 86
-7.456759e-001 -1.479929e-001 -8.810903e+000 36 31 25
-1.953225e+000 -3.439523e-001 -8.062782e+000 161 137 103
-9.074550e-001 -6.554967e-001 -8.382509e+000 88 75 59
-2.180477e+000 -7.556247e-001 -7.927470e+000 126 91 59
8.878605e-001 -1.077380e+000 -7.535930e+000 85 48 21
1.048130e+000 -1.128929e+000 -7.527935e+000 102 68 40
-2.014969e+000 -1.219996e+000 -7.988952e+000 51 34 29
3.634598e-001 -1.386628e+000 -7.799047e+000 97 58 31
-2.621890e+000 -1.401869e+000 -8.006326e+000 201 172 141
-3.400262e-001 -1.473739e+000 -8.341420e+000 149 148 144
4.545229e-001 -1.468743e+000 -7.782352e+000 127 93 68
7.017844e-001 2.075335e+000 -8.446839e+000 96 54 30
4.897635e-001 1.949067e+000 -8.908246e+000 87 72 62
9.058728e-001 1.835620e+000 -8.335470e+000 39 24 17
8.765459e-001 1.795618e+000 -8.518102e+000 103 84 70
1.457293e+000 1.489046e+000 -8.274889e+000 73 38 10
1.831699e+000 1.548948e+000 -8.395465e+000 73 57 41
1.417153e+000 1.487283e+000 -8.297371e+000 124 91 63
1.529077e+000 1.498265e+000 -8.331671e+000 98 60 37
-2.735777e-001 1.718339e+000 -9.951731e+000 83 49 17
-3.212271e-001 1.277233e+000 -1.002378e+001 62 38 16
-2.622346e-001 1.133049e+000 -9.912321e+000 131 107 78
1.367324e+000 3.430958e-001 -7.290782e+000 143 101 59
1.716597e+000 3.317628e-001 -6.989415e+000 168 140 101
9.163205e-001 3.875780e-001 -8.845972e+000 16 11 15
-6.683945e-002 3.253781e-001 -8.963876e+000 22 19 12
-5.223356e-002 2.713668e-001 -8.859387e+000 134 130 103
-2.275171e+000 1.532098e-001 -8.412489e+000 126 91 49
-2.120980e+000 2.203568e-001 -8.385625e+000 163 133 95
-2.065109e+000 2.371926e-001 -8.422178e+000 111 79 41
-9.741540e-001 2.282141e-001 -9.309541e+000 37 33 30
-2.153401e+000 -4.562049e-002 -8.246448e+000 120 90 54
-4.360014e-001 3.427893e-002 -8.784228e+000 152 146 120
-1.077725e+000 -2.189094e-001 -8.221211e+000 67 47 23
-1.768474e+000 -3.736700e-001 -8.090539e+000 107 76 55
-1.645799e+000 -3.623294e-001 -8.140969e+000 90 71 51
-2.401130e+000 -3.965532e-001 -8.148659e+000 170 136 98
-8.958263e-001 -5.507702e-001 -8.483209e+000 54 44 39
-9.804711e-001 -6.105540e-001 -8.404008e+000 53 33 22
-9.660914e-001 -6.553797e-001 -8.345536e+000 114 90 72
-9.142456e-001 -6.050864e-001 -8.422618e+000 48 34 19
-9.162218e-001 -6.909266e-001 -8.380927e+000 51 38 25
-2.277316e+000 -9.568615e-001 -7.904409e+000 149 109 73
-1.948040e+000 -9.390449e-001 -7.922916e+000 79 42 24
-1.322011e+000 -8.998170e-001 -8.096341e+000 124 92 67
-8.944722e-001 -1.065012e+000 -8.515326e+000 24 14 15
8.649075e-001 -1.061738e+000 -7.554559e+000 140 105 77
-1.620415e+000 -1.165506e+000 -8.012213e+000 49 22 15
-1.434401e+000 -1.158907e+000 -8.075868e+000 41 22 15
-1.033720e+000 -1.146272e+000 -8.336943e+000 57 35 23
-9.267391e-001 -1.075646e+000 -8.470472e+000 66 47 41
-8.048363e-001 -1.134608e+000 -8.645542e+000 117 114 115
-4.234292e-001 -1.231646e+000 -8.402001e+000 131 127 119
1.321826e+000 -1.304265e+000 -7.581901e+000 51 39 32
-1.583705e+000 -1.175050e+000 -7.990810e+000 82 55 43
-1.376110e+000 -1.190325e+000 -8.097712e+000 37 20 13
-1.092530e+000 -1.321766e+000 -8.257692e+000 58 44 41
2.580201e-001 -1.478099e+000 -7.846735e+000 55 38 34
3.549982e-001 -1.491112e+000 -7.791905e+000 68 46 34
-1.619506e+000 -1.512901e+000 -8.134366e+000 52 43 42
-4.856148e-001 -1.749967e+000 -8.776439e+000 168 165 174
9.819954e-002 -1.860983e+000 -8.005330e+000 44 27 20
3.221265e-001 -1.858079e+000 -7.975371e+000 176 146 118
1.096305e+000 2.074287e+000 -8.329115e+000 85 64 33
4.897630e-001 1.972876e+000 -8.831428e+000 151 128 103
7.144395e-001 1.766278e+000 -8.697684e+000 32 18 20
1.349623e+000 1.527702e+000 -8.301292e+000 98 69 51
1.220446e-001 1.976387e+000 -1.051951e+001 54 37 35
-8.527394e-001 1.069922e+000 -1.023708e+001 159 122 90
1.256597e+000 5.238663e-001 -7.851797e+000 191 169 141
1.443887e+000 3.856349e-001 -7.183848e+000 205 167 122
1.589846e+000 2.125120e-001 -7.000215e+000 149 105 66
1.661141e+000 1.462056e-002 -6.909450e+000 182 136 87
1.674532e+000 -2.111780e-002 -6.940205e+000 115 69 36
-1.102267e+000 4.830294e-001 -9.523354e+000 162 158 140
-9.201086e-001 4.572804e-001 -9.393609e+000 143 138 118
-8.475626e-001 4.865527e-001 -9.371134e+000 33 29 20
-4.458234e-001 2.175327e-001 -8.953816e+000 36 28 26
1.043037e+000 -2.211445e-001 -8.412687e+000 74 68 65
-2.295315e+000 -7.719151e-002 -8.288102e+000 133 98 52
-2.077176e+000 -1.539101e-001 -8.151331e+000 167 138 102
-6.797444e-001 -1.001982e-001 -8.831606e+000 113 107 95
-3.586964e-001 -1.618361e-001 -8.657821e+000 130 127 99
-2.663572e+000 -2.359515e-001 -8.310715e+000 122 82 46
1.708612e+000 -5.420874e-001 -8.051709e+000 49 47 52
-2.408247e+000 -8.393441e-001 -7.985829e+000 181 150 119
-1.963506e+000 -9.824843e-001 -7.920859e+000 124 89 61
-1.487473e+000 -9.620387e-001 -7.966410e+000 91 58 40
-2.353269e+000 -1.124399e+000 -8.064615e+000 83 53 38
-7.615622e-001 -1.151846e+000 -8.580325e+000 21 19 24
1.055775e+000 -1.271516e+000 -7.580765e+000 105 64 36
1.229922e+000 -1.272249e+000 -7.604528e+000 91 70 49
1.727339e-001 -1.280084e+000 -7.907545e+000 121 95 72
-2.584560e+000 -1.280599e+000 -8.084024e+000 215 182 140
-7.356859e-002 -1.472653e+000 -8.301101e+000 36 26 26
3.170575e-001 -1.513149e+000 -7.841397e+000 151 127 100
6.959789e-001 -1.535400e+000 -7.601994e+000 131 82 42
-1.876727e+000 -1.571372e+000 -8.179303e+000 46 32 33
1.189582e+000 -1.669408e+000 -7.828009e+000 160 130 104
-1.918518e+000 -1.694489e+000 -8.343804e+000 68 43 35
1.871938e-001 -1.818134e+000 -8.063327e+000 132 107 85
9.186456e-001 -1.736974e+000 -7.849257e+000 183 144 104
2.887666e-001 -1.871502e+000 -8.089101e+000 34 22 17
4.784875e-001 -1.861628e+000 -7.847172e+000 100 71 48
5.224553e-001 -1.930858e+000 -7.951233e+000 150 121 102
-2.120218e-001 4.446688e+000 -1.244290e+001 20 16 25
7.746389e-001 1.986273e+000 -8.444976e+000 58 31 20
1.391183e+000 1.821961e+000 -8.296644e+000 160 142 106
1.007779e+000 1.600559e+000 -8.301853e+000 34 19 21
1.205806e+000 1.374809e+000 -8.348577e+000 49 32 24
-1.380441e-001 1.102172e+000 -1.004068e+001 78 61 35
1.125089e-001 1.165308e+000 -1.025290e+001 45 36 26
1.125089e-001 1.165308e+000 -1.025290e+001 45 36 26
9.743083e-001 5.355669e-001 -8.985840e+000 42 37 41
1.536863e+000 1.536329e-001 -7.050214e+000 150 107 65
1.572033e+000 1.913558e-001 -7.074871e+000 190 148 105
1.801630e+000 1.410501e-001 -6.956248e+000 106 71 41
1.765411e+000 8.638487e-002 -6.923767e+000 169 130 89
1.762764e+000 -2.690616e-002 -6.922286e+000 132 84 51
2.453829e+000 -1.419706e-001 -7.275341e+000 87 70 63
8.513592e-001 7.500947e-002 -8.723834e+000 43 38 42
-2.312313e-001 -1.158789e-001 -8.654937e+000 127 119 104
6.955941e-001 -1.695240e-001 -8.633920e+000 92 88 79
6.955394e-001 -1.679251e-001 -8.644533e+000 92 88 79
1.609584e+000 -2.697713e-001 -7.198291e+000 155 111 72
-2.042097e-001 -1.750169e-001 -8.634889e+000 21 15 22
5.102457e-001 -3.021770e-001 -8.587513e+000 120 113 95
-4.272624e-001 -4.364636e-001 -8.551037e+000 22 19 12
-1.543681e+000 -4.553204e-001 -8.051556e+000 114 94 70
3.522402e-001 -5.357905e-001 -8.586055e+000 29 24 30
-1.164807e+000 -7.448311e-001 -8.187812e+000 77 41 17
-6.070092e-001 -8.484150e-001 -8.491676e+000 25 24 31
7.781187e-002 -8.766242e-001 -8.471136e+000 19 15 16
7.781187e-002 -8.766242e-001 -8.471136e+000 19 15 16
8.656804e-001 -1.007768e+000 -7.556812e+000 82 50 29
-6.979228e-001 -9.920803e-001 -8.529949e+000 127 125 112
-5.180506e-001 -1.040161e+000 -8.412090e+000 128 126 114
-4.502862e-001 -1.001551e+000 -8.396274e+000 27 25 24
-1.136509e-001 -1.020347e+000 -8.412659e+000 19 15 21
-1.598620e+000 -1.090643e+000 -7.944277e+000 95 64 43
-2.723807e-001 -1.155001e+000 -8.363636e+000 28 23 20
5.800073e-001 -1.305744e+000 -7.600293e+000 164 123 94
1.227039e+000 -1.314649e+000 -7.563486e+000 160 133 103
1.228705e+000 -1.398686e+000 -7.609260e+000 160 135 105
-2.559260e+000 -1.345892e+000 -8.067611e+000 178 150 115
1.323116e-001 -1.435767e+000 -7.921898e+000 119 96 78
1.256839e+000 -1.531684e+000 -7.695404e+000 152 131 106
-1.652234e+000 -1.598640e+000 -8.180906e+000 29 15 18
2.253181e-001 -1.581993e+000 -7.905403e+000 135 113 100
2.272767e-001 -1.583060e+000 -7.881595e+000 135 113 100
-3.724806e-001 -1.738184e+000 -8.613846e+000 134 134 142
8.846768e-001 1.702837e+000 -8.433396e+000 40 27 23
1.579426e+000 9.909480e-001 -7.591587e+000 122 90 60
-2.492408e-001 1.176888e+000 -9.901954e+000 137 113 85
-8.752342e-002 1.178844e+000 -1.004072e+001 115 98 70
1.342182e+000 4.499591e-001 -7.287868e+000 155 108 66
-2.030954e+000 4.019214e-002 -8.280898e+000 92 62 28
-8.855961e-001 9.682699e-002 -9.161696e+000 40 35 32
-9.554984e-001 -1.551418e-002 -8.947976e+000 20 15 11
-2.586636e+000 -1.707199e-001 -8.330824e+000 143 96 57
-2.171267e+000 -9.573760e-002 -8.179961e+000 180 152 115
-1.971779e+000 -1.483477e-001 -8.131675e+000 165 139 106
-1.854341e+000 -1.493007e-001 -8.126965e+000 148 119 85
-2.338577e+000 -3.534971e-001 -8.109621e+000 164 133 95
-2.006811e+000 -2.887578e-001 -8.114625e+000 136 103 72
-2.296506e+000 -6.162041e-001 -8.031593e+000 172 146 111
-1.076365e+000 -7.050511e-001 -8.244216e+000 130 100 72
-2.163402e+000 -8.262506e-001 -7.954716e+000 99 55 26
-1.848310e+000 -7.403566e-001 -7.946393e+000 140 104 72
-8.719393e-001 -7.784915e-001 -8.449081e+000 18 15 14
-8.824071e-001 -8.757616e-001 -8.462073e+000 21 15 15
7.321064e-003 -9.026930e-001 -8.437400e+000 107 101 79
-1.456357e+000 -9.322401e-001 -8.051491e+000 50 18 5
-4.239972e-001 -1.065966e+000 -8.368550e+000 136 131 110
-3.509697e-001 -1.037547e+000 -8.363068e+000 25 21 18
-3.959137e-002 -9.964656e-001 -8.437873e+000 110 101 85
-4.865614e-001 -1.108789e+000 -8.374192e+000 28 29 33
3.625853e-001 -1.253724e+000 -7.841420e+000 73 37 18
-9.450620e-001 -1.238647e+000 -8.652813e+000 31 26 22
-6.510272e-001 -1.336836e+000 -8.499658e+000 168 168 168
-1.917625e-002 -1.407092e+000 -8.194594e+000 37 32 29
4.252321e-001 -1.278357e+000 -7.726877e+000 136 97 66
4.256330e-001 -1.280601e+000 -7.723324e+000 136 97 66
-1.495607e+000 -1.593891e+000 -8.179820e+000 71 56 51
1.867393e-001 -1.644469e+000 -7.940304e+000 48 31 20
6.385031e-001 -1.814468e+000 -7.829882e+000 156 121 83
9.863159e-001 1.486678e+000 -8.322650e+000 37 23 20
-8.614924e-001 1.365996e+000 -1.038525e+001 183 151 113
1.568793e+000 3.766929e-001 -7.084228e+000 197 159 110
4.445224e-001 5.451353e-001 -9.128568e+000 122 118 107
1.973674e+000 1.768570e-002 -7.020092e+000 113 79 46
1.667288e+000 -2.011004e-001 -7.073493e+000 151 104 67
1.667288e+000 -2.011004e-001 -7.073493e+000 151 104 67
-2.286407e+000 -2.134797e-001 -8.118213e+000 171 139 104
-2.061801e+000 -2.144395e-001 -8.063947e+000 169 141 101
-3.016757e+000 -1.689513e-001 -8.784150e+000 214 195 179
1.124158e+000 -1.129010e+000 -7.616015e+000 86 61 41
4.880290e-001 -1.235039e+000 -7.721716e+000 77 39 18
-1.531419e+000 -1.176286e+000 -7.985843e+000 71 43 29
-8.471245e-001 -1.279830e+000 -8.658621e+000 133 131 134
1.060854e+000 -1.404387e+000 -7.542552e+000 187 153 118
-2.094352e+000 -1.435514e+000 -8.232943e+000 39 25 21
-1.051289e+000 -1.513554e+000 -9.135002e+000 171 153 133
6.845437e-001 -1.551011e+000 -7.680775e+000 133 85 43
2.781699e-001 -1.775790e+000 -7.909975e+000 53 34 30
4.892105e-001 2.036752e+000 -8.672843e+000 165 146 111
8.368002e-001 1.621839e+000 -8.488844e+000 107 81 54
1.626599e+000 3.449554e-001 -7.040538e+000 132 88 51
-9.494216e-001 6.654269e-001 -9.827456e+000 147 139 126
1.400951e+000 -3.613762e-001 -8.090924e+000 50 46 46
-1.414260e+000 -1.034061e+000 -8.061300e+000 99 66 51
6.794346e-001 -1.258519e+000 -7.658054e+000 86 46 37
-3.905539e-001 -1.315682e+000 -8.345949e+000 138 134 131
-2.464916e+000 -1.351387e+000 -8.075586e+000 124 100 72
1.752198e+000 1.685264e-001 -6.941938e+000 103 62 37
7.819914e-001 4.344064e-001 -8.880719e+000 43 39 38
6.516380e-001 3.560446e-001 -8.993984e+000 15 14 15
-8.732077e-001 -1.617522e+000 -9.045807e+000 77 64 56
3.650165e+000 1.044261e+000 -9.034851e+000 40 30 31
-3.744947e+000 1.026051e+001 -3.037516e+001 148 146 149
1.405714e+000 1.530274e+000 -8.262605e+000 92 58 32
-4.711758e-001 1.190491e+000 -9.881925e+000 175 151 117
7.947734e-001 4.103930e-001 -8.845556e+000 28 24 24
-7.710935e+000 1.100058e+001 -2.569518e+001 75 76 86
-1.476146e+001 1.062129e+001 -2.688214e+001 62 55 52
-1.476146e+001 1.062129e+001 -2.688214e+001 62 55 52
-1.505931e+001 1.039348e+001 -2.735760e+001 60 53 47
-1.518690e+001 1.049369e+001 -2.758492e+001 60 53 47
-1.509970e+001 1.043041e+001 -2.766643e+001 207 200 194
1.054555e+000 2.208442e+000 -8.401356e+000 191 169 132
1.253877e+000 1.897686e+000 -8.290900e+000 160 139 108
-1.834858e+001 1.030098e+001 -3.122354e+001 181 161 100
-1.821510e+001 1.009014e+001 -3.108102e+001 60 48 48
1.652355e+000 3.309740e-001 -7.043027e+000 132 89 47
1.313586e+000 -1.519243e-001 -8.032927e+000 77 70 62
8.052372e-001 -4.376516e-001 -8.616231e+000 46 42 39
-1.374952e+000 -5.819613e-001 -8.125431e+000 97 68 37
-1.374952e+000 -5.819613e-001 -8.125431e+000 97 68 37
-1.847749e+001 1.214653e+000 -3.190547e+001 98 92 95
6.661711e-001 -1.066859e+000 -7.596936e+000 135 104 81
-1.446430e+000 -1.123373e+000 -8.071886e+000 74 54 45
-4.087196e-001 6.171784e+000 -1.669348e+001 21 17 26
-1.470190e+001 1.072503e+001 -2.702303e+001 209 202 203
-1.346059e+001 1.054180e+001 -2.740051e+001 205 197 200
-1.379300e+001 1.050389e+001 -2.796669e+001 198 191 186
1.148403e+000 2.035671e+000 -8.323146e+000 116 95 66
1.148403e+000 2.035671e+000 -8.323146e+000 116 95 66
1.320279e+000 1.900223e+000 -8.307506e+000 167 147 114
-2.743945e+000 9.063216e+000 -2.865969e+001 164 156 145
-8.377537e-001 -8.925402e-001 -8.497387e+000 94 86 78
-2.778516e-001 -1.226107e+000 -8.324056e+000 97 94 87
-2.287847e+000 -1.298295e+000 -8.132513e+000 61 36 26
-3.837893e-001 -1.485580e+000 -8.399561e+000 77 77 77
-2.285492e+000 1.092165e+001 -2.852183e+001 166 165 159
-1.487083e+001 1.051652e+001 -2.718324e+001 204 197 193
-1.487083e+001 1.051652e+001 -2.718324e+001 204 197 193
-1.391691e+001 1.063183e+001 -2.851188e+001 33 24 25
2.134129e+000 1.966300e-001 -7.015885e+000 138 117 85
1.208345e+000 -3.011141e-001 -8.234541e+000 62 57 53
-1.778631e+001 1.242193e+000 -3.108955e+001 219 216 240
-2.314569e+000 -7.167339e-001 -7.975078e+000 179 150 118
-1.235595e+000 -1.175354e+000 -8.142884e+000 92 67 47
-1.320786e+001 1.087670e+001 -3.453886e+001 91 83 72
-1.179996e+001 9.333151e+000 -3.142752e+001 92 85 79
-5.697536e-001 1.196873e+000 -1.002026e+001 85 55 27
-5.697536e-001 1.196873e+000 -1.002026e+001 85 55 27
1.985350e+000 -3.167733e-001 -7.101353e+000 122 92 68
-1.909123e+000 -4.141891e-001 -8.045832e+000 150 126 92
-8.830031e-001 -8.758512e-001 -8.460895e+000 21 15 15
5.940908e-001 -1.479167e+000 -7.678954e+000 187 144 112
-1.816839e+001 1.023579e+001 -3.130269e+001 209 194 166
-1.399139e+001 9.674550e+000 -3.142254e+001 28 25 31
-1.301050e+001 8.389580e+000 -2.928654e+001 24 18 30
-1.896335e+000 -2.884282e-001 -8.064471e+000 157 132 101
-7.460304e+000 9.624809e+000 -2.643707e+001 108 101 83
-9.174638e-001 -1.079297e+000 -8.556491e+000 35 23 23
3.007595e-001 -1.683411e+000 -7.882267e+000 162 132 102
7.665989e-001 1.934458e+000 -8.414196e+000 64 34 20
7.665989e-001 1.934458e+000 -8.414196e+000 64 34 20
1.280600e+000 1.738451e+000 -8.271580e+000 134 115 85
7.197487e-001 1.838322e+000 -8.541646e+000 78 47 27
7.197487e-001 1.838322e+000 -8.541646e+000 78 47 27
1.052912e+000 1.606668e+000 -8.278734e+000 96 84 78
1.738454e+000 1.571488e+000 -8.264413e+000 26 12 5
1.299963e+000 1.479877e+000 -8.295176e+000 62 34 13
1.901620e+000 3.175142e-001 -6.949848e+000 56 32 4
1.244793e+000 6.231675e-001 -7.747453e+000 39 28 15
1.316442e+000 3.930921e-001 -7.295563e+000 168 123 72
1.608927e+000 1.928029e-001 -6.944680e+000 149 105 58
1.608927e+000 1.928029e-001 -6.944680e+000 149 105 58
1.623110e+000 1.680549e-001 -6.948723e+000 164 120 75
-5.736482e-001 1.248134e+000 -9.923967e+000 78 50 24
-4.651246e-001 1.272388e+000 -9.943201e+000 72 43 21
1.824610e+000 7.485294e-002 -6.880495e+000 200 163 124
1.847653e+000 -1.021228e-002 -6.821206e+000 119 81 40
-4.336353e-001 1.134945e+000 -9.900040e+000 129 97 59
-1.190956e-002 1.202843e+000 -1.009155e+001 36 26 16
-6.778115e-002 9.824455e-001 -9.920334e+000 107 92 71
1.653324e+000 -6.949507e-002 -6.900904e+000 190 151 110
1.817756e+000 -4.104727e-002 -6.872604e+000 193 163 125
1.365944e+000 -5.851016e-002 -7.390528e+000 177 140 100
2.181597e+000 -2.435107e-001 -7.087913e+000 135 108 93
-2.001592e-001 3.587527e-001 -8.978445e+000 125 124 97
4.314553e-001 2.170483e-001 -8.814548e+000 19 15 5
1.117118e+000 1.842638e-001 -8.526021e+000 61 57 48
-1.948768e+000 6.379035e-002 -8.293584e+000 136 103 70
-4.600568e-001 1.645396e-001 -8.909862e+000 142 136 122
-2.133748e-001 -3.949087e-002 -8.702342e+000 25 20 20
1.679956e+000 -4.109352e-001 -7.606840e+000 54 44 32
1.740039e+000 -4.552715e-001 -7.548995e+000 41 35 33
-1.077507e+000 -2.236334e-001 -8.206553e+000 51 29 13
-1.981736e+000 -2.859091e-001 -8.136181e+000 128 99 63
-2.662977e+000 -2.405592e-001 -8.399565e+000 190 147 105
-2.567059e+000 -2.881685e-001 -8.332845e+000 67 26 0
-2.107998e+000 -4.129819e-001 -8.096805e+000 117 88 49
-1.651002e+000 -4.672166e-001 -8.139673e+000 44 31 25
-1.545038e+000 -4.643713e-001 -8.116402e+000 123 97 70
-1.991306e+000 -5.820167e-001 -8.022828e+000 157 128 94
-1.859274e+000 -5.997943e-001 -8.110619e+000 135 100 70
-1.326126e+000 -6.127624e-001 -8.150745e+000 136 105 73
-9.944125e-001 -5.696292e-001 -8.463556e+000 55 38 13
-1.064160e+000 -6.502587e-001 -8.399661e+000 118 91 60
-8.778331e-001 -6.113402e-001 -8.399502e+000 54 45 40
8.152569e-001 -1.099667e+000 -7.523575e+000 159 119 87
8.102725e-001 -1.149824e+000 -7.548786e+000 99 60 29
-2.048959e+000 -8.081809e-001 -7.946955e+000 159 120 88
-2.038041e+000 -9.226721e-001 -7.955120e+000 85 45 20
-1.732399e+000 -9.143675e-001 -7.963097e+000 132 93 64
-1.099001e+000 -1.019060e+000 -8.167481e+000 137 111 81
-6.947856e-001 -9.557826e-001 -8.601747e+000 143 137 122
9.073005e-001 -1.304900e+000 -7.518678e+000 181 138 101
-2.814617e+000 -8.759095e-001 -8.373294e+000 127 90 63
-2.520127e+000 -9.544641e-001 -8.078128e+000 174 134 98
-2.422622e+000 -9.325322e-001 -8.141996e+000 113 72 42
-2.232504e+000 -1.082406e+000 -7.975299e+000 122 91 70
-2.243605e+000 -1.077130e+000 -8.015574e+000 122 91 70
-1.872220e+000 -1.005252e+000 -8.092950e+000 112 74 51
6.872594e-001 -1.328684e+000 -7.591483e+000 195 156 125
6.915984e-001 -1.418791e+000 -7.670810e+000 180 133 103
6.874028e-001 -1.421914e+000 -7.634678e+000 180 133 103
7.827468e-001 -1.348461e+000 -7.595570e+000 104 64 23
1.136570e+000 -1.415004e+000 -7.538089e+000 185 152 121
1.218358e+000 -1.469329e+000 -7.629398e+000 162 133 103
1.383153e+000 -1.410211e+000 -7.763858e+000 37 22 17
-2.837694e+000 -1.036550e+000 -8.455584e+000 125 88 60
-2.291031e+000 -1.130125e+000 -8.007421e+000 71 45 30
-1.716718e+000 -1.170007e+000 -8.107311e+000 46 19 10
-1.727891e+000 -1.178788e+000 -8.016132e+000 86 59 41
1.038359e-001 -1.373310e+000 -7.908440e+000 115 90 79
7.886677e-002 -1.398631e+000 -7.932419e+000 52 34 27
9.395191e-002 -1.445037e+000 -7.977185e+000 34 21 16
5.430022e-001 -1.464272e+000 -7.797178e+000 103 62 37
5.861993e-001 -1.442300e+000 -7.694398e+000 174 133 93
6.666368e-001 -1.446715e+000 -7.672148e+000 116 67 35
5.666473e-001 -1.497225e+000 -7.752550e+000 113 70 36
1.002761e+000 -1.517094e+000 -7.677539e+000 162 117 78
-2.540326e-001 -1.550259e+000 -8.301717e+000 121 112 103
-2.030943e-001 -1.524482e+000 -8.241894e+000 126 112 109
8.935143e-001 -1.661270e+000 -7.766136e+000 194 155 111
8.742984e-001 -1.671747e+000 -7.779578e+000 130 84 47
-1.233801e+000 -1.550666e+000 -8.353209e+000 93 77 68
3.298719e-001 -1.769025e+000 -8.047286e+000 84 56 34
1.045057e+000 -1.801764e+000 -7.789817e+000 206 176 140
-1.776217e+000 -1.623455e+000 -8.224758e+000 21 9 9
-1.390001e+000 -1.655269e+000 -8.472907e+000 138 103 83
-1.322095e+000 -1.663863e+000 -8.531998e+000 147 115 103
-4.959503e-001 -1.837238e+000 -8.892436e+000 83 67 65
1.704094e-001 -1.859851e+000 -8.103939e+000 45 25 10
-1.634236e+000 -1.783394e+000 -8.348053e+000 125 94 70
-1.553643e+000 -1.761046e+000 -8.413631e+000 163 131 106
7.208281e-001 2.120482e+000 -8.300629e+000 76 45 26
8.702028e-001 1.838941e+000 -8.337828e+000 85 65 53
9.587876e-001 1.803245e+000 -8.302360e+000 28 18 13
1.302337e+000 1.593573e+000 -8.187363e+000 66 42 28
1.708962e+000 1.625585e+000 -8.286154e+000 25 15 12
1.545313e+000 1.437936e+000 -8.270807e+000 140 106 73
1.072729e+000 1.389706e+000 -8.369313e+000 50 31 22
-1.576173e-001 1.845662e+000 -1.014021e+001 43 20 14
1.388941e+000 5.773716e-001 -7.221062e+000 167 131 83
2.043432e+000 2.687197e-001 -6.945901e+000 157 135 95
-4.124859e-001 1.485266e+000 -9.845251e+000 105 65 29
1.473131e+000 3.712890e-001 -7.114323e+000 144 97 55
-4.302736e-001 1.307744e+000 -9.928216e+000 65 37 15
1.243317e+000 4.682533e-001 -7.819322e+000 33 25 20
1.258056e+000 3.576895e-001 -7.719180e+000 199 179 151
1.553380e+000 8.830520e-002 -7.038987e+000 133 83 45
-4.838247e-001 1.047071e+000 -9.731643e+000 139 110 70
-4.534416e-001 1.101093e+000 -9.946235e+000 173 144 103
1.569782e+000 -7.473391e-002 -6.961273e+000 181 137 103
4.169815e-001 4.312771e-001 -8.921357e+000 84 77 67
7.750872e-001 3.993191e-001 -8.908290e+000 27 24 24
7.750872e-001 3.993191e-001 -8.908290e+000 27 24 24
1.410505e+000 -1.082323e-001 -7.285393e+000 129 87 57
1.582838e+000 -1.594552e-001 -7.143718e+000 159 109 76
1.598215e+000 -1.602397e-001 -7.090722e+000 85 39 6
1.949430e+000 -1.739616e-001 -6.943292e+000 163 120 85
2.028015e+000 -2.314883e-001 -6.979020e+000 168 142 120
4.501381e-001 3.324143e-001 -8.837316e+000 136 129 113
3.845055e-001 3.548940e-001 -8.985477e+000 134 128 118
2.163361e+000 -2.892511e-001 -7.170779e+000 36 14 3
2.151272e+000 -3.891600e-001 -7.207846e+000 112 94 84
-1.014875e+000 4.789941e-001 -9.464704e+000 163 162 134
-1.059855e+000 4.519976e-001 -9.480950e+000 63 57 41
-8.848449e-001 3.813650e-001 -9.247012e+000 38 33 29
-7.433846e-001 4.413153e-001 -9.240362e+000 33 26 15
-7.433846e-001 4.413153e-001 -9.240362e+000 33 26 15
-7.128615e-001 4.363016e-001 -9.322725e+000 133 129 106
-7.128615e-001 4.363016e-001 -9.322725e+000 133 129 106
-7.625998e-001 3.427285e-001 -9.234067e+000 141 136 115
-4.152644e-001 1.600563e-001 -8.883911e+000 154 149 116
-1.450921e-001 2.795790e-001 -8.886120e+000 160 156 117
5.454990e-001 1.324596e-002 -8.689016e+000 128 121 105
1.517305e+000 -3.628867e-001 -7.524576e+000 37 27 21
-9.046754e-001 2.826060e-001 -9.277112e+000 148 144 117
-8.789068e-001 2.316073e-001 -9.215743e+000 38 34 23
1.934948e+000 -4.416672e-001 -7.637949e+000 138 114 102
-2.327489e+000 2.807007e-002 -8.384318e+000 120 78 39
-2.236752e+000 7.784247e-003 -8.319881e+000 188 156 117
-2.108825e+000 -4.725133e-002 -8.217464e+000 172 140 99
-1.917884e+000 -5.363351e-002 -8.203705e+000 159 134 93
-1.824558e+000 -1.612382e-002 -8.207899e+000 144 114 80
-3.175801e+000 5.779503e-002 -9.137541e+000 56 64 101
-1.707105e+000 -1.827570e-001 -8.194449e+000 157 127 101
-2.934537e+000 -2.645170e-001 -8.640037e+000 119 89 61
-2.492962e+000 -2.302183e-001 -8.362220e+000 120 86 41
-2.354483e+000 -3.359640e-001 -8.339601e+000 124 86 47
-1.965975e+000 -4.463114e-001 -8.111114e+000 97 69 32
-1.726614e+000 -4.481750e-001 -8.213702e+000 37 24 22
-1.620325e+000 -4.526771e-001 -8.081059e+000 108 93 67
9.061235e-001 -7.900213e-001 -7.790260e+000 109 94 56
-1.182830e+000 -6.814922e-001 -8.258898e+000 131 98 67
7.039913e-001 -9.902591e-001 -7.668516e+000 72 36 15
-1.809639e+000 -8.198759e-001 -7.964484e+000 92 49 24
-1.431556e+000 -7.615804e-001 -8.127220e+000 82 46 22
8.299861e-001 -1.065735e+000 -7.559039e+000 77 35 10
9.280514e-001 -1.187068e+000 -7.482304e+000 146 105 70
-2.576435e+000 -7.345770e-001 -8.231221e+000 108 73 35
-1.984265e+000 -9.073290e-001 -7.945106e+000 127 88 60
1.852954e-001 -1.194721e+000 -8.058684e+000 84 50 22
-2.822303e+000 -9.505758e-001 -8.410798e+000 116 81 55
-2.055176e+000 -1.064193e+000 -8.013706e+000 106 69 50
-1.199242e+000 -1.129405e+000 -8.299763e+000 92 65 49
-1.053158e+000 -1.070779e+000 -8.260838e+000 62 38 14
-1.099394e+000 -1.163049e+000 -8.344070e+000 33 15 6
4.117378e-002 -1.291987e+000 -8.151826e+000 44 26 16
4.055710e-001 -1.334308e+000 -7.715478e+000 94 54 28
4.816485e-001 -1.365461e+000 -7.711520e+000 163 120 86
5.659374e-001 -1.344606e+000 -7.662998e+000 97 52 23
6.265743e-001 -1.359293e+000 -7.658833e+000 89 41 23
8.756005e-001 -1.342914e+000 -7.579831e+000 183 140 97
9.366355e-001 -1.418781e+000 -7.555837e+000 182 145 106
1.031008e+000 -1.464394e+000 -7.696504e+000 193 156 120
1.125109e+000 -1.433577e+000 -7.584285e+000 96 61 35
1.198242e+000 -1.435478e+000 -7.612800e+000 122 88 61
-1.606870e+000 -1.164745e+000 -8.098839e+000 78 50 38
-1.389329e+000 -1.259777e+000 -8.046219e+000 25 11 8
-1.138455e+000 -1.215552e+000 -8.350630e+000 48 30 20
-1.069306e+000 -1.255286e+000 -8.412841e+000 70 51 43
7.319011e-003 -1.342240e+000 -8.167437e+000 45 33 27
2.639937e-001 -1.436796e+000 -7.903172e+000 158 134 112
7.082045e-001 -1.495227e+000 -7.658904e+000 204 160 118
7.761029e-001 -1.486150e+000 -7.713633e+000 136 91 49
7.547512e-001 -1.557852e+000 -7.772209e+000 126 77 37
1.357744e+000 -1.553425e+000 -7.733057e+000 132 121 108
-2.579859e+000 -1.231525e+000 -8.115860e+000 138 86 47
-9.537300e-001 -1.374064e+000 -8.847878e+000 36 31 36
-9.831456e-001 -1.429192e+000 -8.863278e+000 21 16 22
-7.118467e-001 -1.461910e+000 -8.683959e+000 185 190 196
4.486684e-001 -1.568779e+000 -7.759303e+000 111 66 38
7.378317e-001 -1.709660e+000 -7.858145e+000 173 131 89
1.193331e+000 -1.739197e+000 -7.861272e+000 150 133 114
2.228257e-001 -1.695284e+000 -7.938210e+000 162 131 112
2.159398e-001 -1.722354e+000 -7.980610e+000 62 35 21
2.835335e-001 -1.710648e+000 -7.899316e+000 156 133 107
5.413834e-001 -1.815762e+000 -7.805509e+000 148 122 89
6.617008e-001 -1.724699e+000 -7.755274e+000 179 136 96
9.795106e-001 -1.802484e+000 -7.817179e+000 203 165 128
9.385700e-001 -1.880284e+000 -7.882424e+000 152 109 77
8.648221e-002 -1.790319e+000 -8.050533e+000 112 90 69
1.783082e-001 -1.890942e+000 -8.117296e+000 115 93 79
1.756197e+000 1.538832e+000 -8.283053e+000 109 91 74
9.316784e-001 1.444714e+000 -8.426487e+000 29 18 22
1.294927e+000 1.371177e+000 -8.356295e+000 53 31 17
1.683873e+000 6.713702e-001 -7.161607e+000 182 160 121
3.286658e-002 1.805115e+000 -1.019301e+001 35 18 13
1.342761e+000 5.688794e-001 -7.345998e+000 133 93 42
2.088830e+000 2.458784e-001 -6.948810e+000 149 127 94
2.022059e+000 2.431309e-001 -6.939225e+000 63 40 21
2.011170e+000 2.299532e-001 -6.903036e+000 63 40 21
2.222080e+000 1.930365e-001 -7.033811e+000 136 117 85
-5.402417e-001 1.313226e+000 -9.982963e+000 87 51 39
1.497833e+000 1.413534e-001 -7.050589e+000 188 145 94
-6.393996e-001 1.286710e+000 -1.011225e+001 169 131 94
1.620380e+000 -2.939512e-002 -6.938734e+000 163 114 71
1.921579e-001 6.333869e-001 -9.264298e+000 149 140 123
1.279086e+000 1.902837e-002 -7.528616e+000 177 135 99
1.626477e+000 -2.300115e-001 -7.048910e+000 140 91 51
2.229754e+000 -2.792025e-001 -7.113796e+000 58 37 30
4.299998e-001 3.019128e-001 -8.845475e+000 62 54 41
1.193851e+000 9.970944e-002 -8.212932e+000 67 60 49
2.039652e+000 -3.315573e-001 -7.108809e+000 149 118 90
1.368671e+000 -2.397069e-001 -8.033917e+000 76 69 63
-1.911012e+000 1.313672e-001 -8.383889e+000 126 91 64
-1.902101e+000 6.517996e-002 -8.326115e+000 94 61 30
-1.809604e+000 1.172693e-001 -8.429072e+000 117 89 63
-1.725482e+000 1.510030e-001 -8.634207e+000 26 12 17
-2.367669e+000 7.824540e-002 -8.412752e+000 170 133 88
-1.781623e+000 -1.286736e-001 -8.176270e+000 126 97 58
-2.038476e+000 -2.853269e-001 -8.145961e+000 130 97 59
-1.897847e+000 -2.095854e-001 -8.138638e+000 118 94 58
-1.843659e+000 -2.728578e-001 -8.086962e+000 149 120 86
-1.694167e+000 -2.587803e-001 -8.185277e+000 70 40 17
-1.777618e+000 -3.110548e-001 -8.288045e+000 76 41 22
-1.777618e+000 -3.110548e-001 -8.288045e+000 76 41 22
1.115564e+000 -4.958300e-001 -8.338283e+000 46 40 40
-2.456935e+000 -3.309892e-001 -8.267085e+000 147 111 68
-2.059120e+000 -3.592335e-001 -8.126515e+000 123 89 52
-2.059120e+000 -3.592335e-001 -8.126515e+000 123 89 52
-1.613776e+000 -3.969937e-001 -8.158139e+000 31 14 12
-1.649123e+000 -5.098511e-001 -8.102979e+000 37 26 15
-1.053769e+000 -6.118172e-001 -8.411577e+000 61 33 19
-2.546309e+000 -6.077931e-001 -8.213153e+000 190 153 109
-2.258602e+000 -6.622030e-001 -8.020022e+000 142 114 79
-1.886880e+000 -7.743920e-001 -8.002527e+000 82 38 13
-1.593391e+000 -7.570278e-001 -8.048487e+000 120 85 57
-1.279756e+000 -8.417259e-001 -8.061654e+000 91 57 29
-1.081337e+000 -8.608103e-001 -8.266449e+000 84 50 23
-6.576563e-001 -8.899923e-001 -8.511347e+000 143 135 120
8.637506e-001 -1.099621e+000 -7.537757e+000 88 50 27
9.297000e-001 -1.125197e+000 -7.599999e+000 100 56 30
-2.530497e+000 -7.939332e-001 -8.117704e+000 170 140 104
-2.044913e+000 -8.395805e-001 -7.973757e+000 85 45 20
-9.297052e-001 -9.755100e-001 -8.359963e+000 100 84 61
3.206865e-001 -1.106967e+000 -7.937301e+000 137 100 67
1.336682e+000 -1.342844e+000 -7.629624e+000 129 116 109
-2.210998e+000 -9.650560e-001 -7.903399e+000 136 97 66
-1.140483e+000 -1.146677e+000 -8.227154e+000 84 61 43
2.632781e-001 -1.220939e+000 -8.036458e+000 46 21 14
4.478625e-001 -1.282889e+000 -7.652552e+000 133 92 60
5.498890e-001 -1.382791e+000 -7.678939e+000 140 96 58
6.288415e-001 -1.335255e+000 -7.622615e+000 86 41 19
6.015183e-001 -1.418258e+000 -7.662174e+000 95 47 25
-2.756097e+000 -1.084638e+000 -8.309571e+000 182 141 107
-2.300849e+000 -1.098022e+000 -8.007823e+000 120 85 65
-2.321737e+000 -1.088525e+000 -8.082954e+000 120 85 65
-7.769646e-001 -1.245671e+000 -8.663817e+000 23 18 25
-3.459504e-001 -1.423470e+000 -8.349964e+000 51 47 47
3.160820e-001 -1.513317e+000 -7.821139e+000 141 114 87
3.962574e-001 -1.518250e+000 -7.835929e+000 190 156 125
4.180940e-001 -1.479443e+000 -7.829851e+000 52 21 4
4.180940e-001 -1.479443e+000 -7.829851e+000 52 21 4
9.626665e-001 -1.525610e+000 -7.663304e+000 127 80 42
9.065794e-001 -1.560560e+000 -7.689357e+000 111 68 29
1.146336e+000 -1.555640e+000 -7.666282e+000 107 73 45
1.146336e+000 -1.555640e+000 -7.666282e+000 107 73 45
1.431225e+000 -1.536895e+000 -7.819694e+000 95 88 84
-2.133385e+000 -1.266937e+000 -8.123777e+000 25 13 15
-1.828504e+000 -1.408107e+000 -8.131397e+000 24 14 15
-1.166344e+000 -1.479221e+000 -8.309425e+000 28 18 19
-1.034946e+000 -1.402394e+000 -8.680248e+000 38 26 26
-9.810747e-001 -1.475046e+000 -9.157780e+000 32 31 32
2.449250e-001 -1.649804e+000 -7.898846e+000 71 48 40
6.291075e-001 -1.595725e+000 -7.700945e+000 190 157 116
-1.810023e+000 -1.448923e+000 -8.129714e+000 44 34 35
-1.384760e+000 -1.617311e+000 -8.483270e+000 69 40 33
-4.323481e-001 -1.653357e+000 -8.736967e+000 188 189 194
1.843871e-001 -1.767699e+000 -8.054284e+000 66 43 27
4.918814e-001 -1.968238e+000 -8.034394e+000 60 35 30
7.833132e-001 -1.923967e+000 -7.914758e+000 172 141 113
1.704225e+000 1.740482e+000 -8.430585e+000 113 98 70
7.828651e-001 1.732522e+000 -8.495455e+000 105 77 56
5.150447e-001 1.857663e+000 -8.819043e+000 145 116 86
1.386546e+000 1.402215e+000 -8.237471e+000 124 89 67
-3.025998e-002 1.788404e+000 -1.020675e+001 131 112 88
2.350518e+000 2.250187e-001 -7.170898e+000 107 91 67
1.767497e+000 9.025532e-002 -6.936335e+000 192 149 107
1.724450e+000 -8.750040e-002 -6.968714e+000 120 73 43
1.849616e+000 -5.896667e-002 -6.807578e+000 181 145 106
-3.023446e-001 8.456879e-001 -9.931166e+000 132 112 87
1.575123e+000 -3.050797e-001 -7.213494e+000 176 146 110
1.720094e+000 -2.636214e-001 -7.034386e+000 173 129 92
1.022163e+000 8.103144e-003 -8.577206e+000 14 9 13
1.123539e+000 -8.669314e-002 -8.202485e+000 84 75 68
2.138387e+000 -4.043939e-001 -7.297907e+000 40 25 25
1.628536e-001 -3.458648e-002 -8.667747e+000 131 126 99
1.632338e-001 -3.376238e-002 -8.671617e+000 131 126 99
2.346559e-001 -7.855667e-003 -8.675102e+000 25 21 22
1.150533e-001 -1.270367e-001 -8.656211e+000 136 126 98
2.598237e-001 -8.673900e-002 -8.636316e+000 146 139 111
3.335423e-001 -5.807154e-002 -8.649962e+000 31 26 23
4.077964e-001 -2.135217e-002 -8.684820e+000 136 132 102
5.046532e-001 -6.552438e-002 -8.657106e+000 129 123 100
5.038965e-001 -6.971846e-002 -8.640700e+000 129 123 100
5.777020e-001 -4.523268e-002 -8.664460e+000 20 16 13
5.308868e-001 -1.399818e-001 -8.614763e+000 25 24 20
6.064770e-001 -1.133693e-001 -8.647775e+000 103 95 82
6.314403e-001 -1.850917e-001 -8.629805e+000 24 13 18
1.709733e+000 -4.171900e-001 -7.545340e+000 148 120 88
1.832047e+000 -4.483698e-001 -7.522690e+000 152 127 97
-2.048498e+000 5.682701e-002 -8.335873e+000 98 68 32
-2.773894e-001 -2.030664e-001 -8.631594e+000 137 127 102
-2.042426e-001 -1.741692e-001 -8.637353e+000 20 21 14
-1.314483e-001 -1.458090e-001 -8.641614e+000 144 132 109
-5.857568e-002 -1.183765e-001 -8.640697e+000 26 20 17
4.131274e-001 -2.664759e-001 -8.596973e+000 152 146 121
4.837305e-001 -2.326290e-001 -8.605309e+000 24 20 18
5.563984e-001 -2.116947e-001 -8.593806e+000 133 127 105
4.392280e-001 -3.307506e-001 -8.604440e+000 27 22 26
6.564894e-001 -2.573117e-001 -8.617450e+000 125 117 100
-2.951464e-001 -3.691578e-001 -8.577685e+000 24 18 14
-2.516308e-001 -2.695664e-001 -8.614261e+000 22 23 15
3.693871e-001 -3.613895e-001 -8.619941e+000 149 144 115
3.260058e-001 -4.644277e-001 -8.602486e+000 146 138 110
4.542069e-001 -4.014606e-001 -8.592483e+000 134 124 101
6.269128e-001 -4.329004e-001 -8.596492e+000 24 22 25
6.961551e-001 -4.151479e-001 -8.577245e+000 144 140 119
-1.515756e+000 -4.503235e-001 -8.231484e+000 57 39 15
3.949515e-002 -5.676167e-001 -8.509866e+000 136 128 112
1.112140e-001 -5.417771e-001 -8.517810e+000 21 18 13
5.172518e-001 -5.470599e-001 -8.624964e+000 65 59 51
4.029371e-001 -6.810863e-001 -8.542679e+000 24 18 21
5.383095e-001 -6.168446e-001 -8.670521e+000 18 14 20
5.983588e-001 -6.029310e-001 -8.597415e+000 114 104 83
-2.615320e+000 -4.963266e-001 -8.266289e+000 130 87 45
-1.911527e+000 -5.004703e-001 -8.058662e+000 144 115 81
-1.868150e+000 -5.713500e-001 -8.049023e+000 89 56 23
-1.671128e+000 -5.671106e-001 -8.085595e+000 110 80 46
-5.645211e-001 -7.394017e-001 -8.532087e+000 26 26 27
3.374957e-001 -7.062789e-001 -8.533024e+000 123 117 93
8.630552e-001 -1.012359e+000 -7.530780e+000 86 51 23
-1.504385e+000 -7.288000e-001 -8.103344e+000 113 79 52
-5.756510e-001 -9.126152e-001 -8.467512e+000 130 126 108
-1.896535e-002 -8.312178e-001 -8.444160e+000 22 16 18
1.478438e-001 -8.606838e-001 -8.444608e+000 116 111 88
-3.049904e+000 -5.848162e-001 -8.864676e+000 141 115 99
