ply
format ascii 1.0
element face 0
property list uchar int vertex_indices
element vertex 867
property float x
property float y
property float z
property uchar diffuse_red
property uchar diffuse_green
property uchar diffuse_blue
end_header
-1.996230e-001 1.058799e+000 -7.697468e+000 159 28 33
-8.715993e-001 -2.350911e-001 -6.460484e+000 137 115 96
-2.328155e-001 8.625096e-003 -6.872912e+000 186 172 152
-3.173121e-001 1.149953e+000 -7.633053e+000 157 30 34
6.959053e-001 -3.517119e-001 -6.627427e+000 157 143 122
1.631306e-001 9.644523e-001 -7.263916e+000 187 181 164
1.540436e+000 -1.203050e+000 -6.052049e+000 143 138 142
1.526869e+000 -1.201288e+000 -5.992730e+000 190 185 189
1.641371e+000 -1.313447e+000 -5.915460e+000 175 170 176
1.721429e+000 -1.366994e+000 -5.900569e+000 175 170 176
1.577530e+000 -1.183940e+000 -5.895020e+000 194 189 195
1.598724e+000 -4.595516e-001 -5.860610e+000 141 136 142
8.373320e-001 3.962116e-001 -6.457839e+000 225 207 189
1.924129e+000 -6.867408e-001 -5.532175e+000 147 144 150
1.786596e+000 -4.716874e-001 -5.669150e+000 140 133 141
6.195722e-001 1.302527e+000 -6.775340e+000 85 76 74
2.797169e+000 -1.506439e+000 -4.638648e+000 185 183 188
1.973906e+000 -3.309048e-001 -5.425425e+000 151 145 149
-2.352184e-001 1.227523e-001 -8.010044e+000 17 16 17
-3.203694e-001 2.880904e-002 -7.866098e+000 206 76 78
-2.663700e-001 2.096767e-001 -8.006226e+000 202 72 74
-7.873702e-001 -2.569639e-001 -7.077667e+000 181 89 58
-7.938115e-001 -1.967243e-001 -7.091413e+000 171 97 65
-1.753722e-002 -3.567361e-001 -7.478937e+000 243 223 166
-2.170568e-001 6.513354e-001 -7.653492e+000 162 151 133
-3.493225e-001 5.964506e-003 -6.923816e+000 89 55 48
-3.529792e-001 9.382321e-002 -7.038625e+000 81 50 40
-2.982590e-001 8.954930e-002 -7.046918e+000 77 30 22
-2.652420e-001 1.188717e-001 -7.015957e+000 100 82 72
-7.861234e-001 -2.844519e-001 -6.460727e+000 71 49 28
6.708906e-001 -6.195780e-001 -6.670713e+000 238 235 223
6.873088e-002 5.904391e-001 -7.227438e+000 180 167 150
4.972691e-001 1.421374e-001 -6.835423e+000 141 126 107
1.590556e+000 -1.194133e+000 -5.964421e+000 136 131 136
1.347913e+000 -8.060726e-001 -6.227757e+000 163 157 161
1.034445e+000 -4.563523e-001 -6.304862e+000 243 221 180
8.982817e-001 -2.215154e-001 -6.478533e+000 156 143 124
1.280980e+000 -4.406490e-001 -6.139089e+000 145 138 146
1.427023e+000 -4.585617e-001 -6.173442e+000 211 192 149
9.638130e-001 2.682746e-001 -6.426678e+000 230 96 94
1.191815e+000 4.737927e-002 -6.204586e+000 159 146 155
7.690437e-001 5.941470e-001 -6.594643e+000 222 202 188
7.690437e-001 5.941470e-001 -6.594643e+000 222 202 188
2.754335e+000 -1.366079e+000 -4.661666e+000 187 184 191
-3.462527e-001 2.980126e-001 -7.995343e+000 210 78 82
-5.148791e-001 -2.739328e-001 -7.294977e+000 74 22 12
-4.207423e-001 -1.372066e-001 -7.249854e+000 107 87 76
-4.256700e-001 -1.330745e-001 -7.249264e+000 107 87 76
-3.560224e-001 1.037947e+000 -7.817647e+000 157 34 36
-5.507706e-001 -4.588598e-002 -6.893688e+000 45 6 6
3.923104e-002 6.780249e-001 -7.288306e+000 222 214 203
2.874292e-001 3.946432e-002 -6.816191e+000 181 170 150
2.921384e-001 3.283059e-001 -7.052240e+000 151 140 122
3.663352e-001 3.157651e-001 -7.028843e+000 187 176 158
8.048347e-001 -3.584091e-001 -6.559266e+000 93 78 57
2.710444e-001 7.143267e-001 -7.152600e+000 188 178 160
2.594528e-001 7.160357e-001 -7.147884e+000 188 178 160
2.446466e-001 9.189650e-001 -7.202981e+000 154 145 130
1.891403e+000 -4.801249e-001 -5.465371e+000 162 156 160
-5.030194e-001 -3.334620e-001 -7.274361e+000 253 247 185
1.296860e-001 -4.394507e-001 -7.526598e+000 64 5 8
-4.223072e-001 -1.770547e-001 -7.240690e+000 61 23 21
-2.081867e-001 3.063241e-001 -7.583779e+000 144 129 110
-8.184284e-001 -4.338483e-001 -6.740371e+000 116 41 30
-3.263678e-001 -2.506018e-002 -7.256953e+000 102 85 74
-3.917285e-001 -5.496492e-002 -7.138519e+000 42 10 11
-2.789930e-001 1.641225e-002 -6.940654e+000 123 105 91
-2.864402e-001 2.264631e-002 -6.940788e+000 123 105 91
1.156341e+000 -6.484943e-001 -6.348640e+000 159 36 43
5.713773e-001 5.607789e-003 -6.653474e+000 198 190 171
3.706987e-001 1.189826e+000 -6.997858e+000 220 79 80
8.233776e-001 5.404826e-001 -6.557716e+000 176 41 45
4.694992e-001 1.232042e+000 -6.885363e+000 66 45 50
1.998200e+000 -4.658542e-001 -5.459081e+000 177 171 175
-7.461097e-002 3.437624e-001 -7.294543e+000 178 164 145
3.626125e-001 4.553917e-001 -7.124312e+000 180 171 155
-6.920616e-002 1.136506e+000 -7.451909e+000 181 47 48
1.372804e+000 -2.291588e-001 -6.161852e+000 18 8 8
1.218421e+000 8.284227e-002 -6.131631e+000 142 136 140
5.736749e-001 6.588053e-001 -6.854469e+000 227 220 204
9.795235e-001 2.495970e-001 -6.460394e+000 234 227 213
-2.479961e-001 2.013745e-001 -7.825152e+000 128 19 24
-6.435346e-001 -2.963217e-001 -6.599049e+000 92 34 18
-2.842812e-001 -3.756362e-002 -6.861858e+000 68 23 20
-4.848046e-001 -2.647864e-001 -6.612693e+000 143 141 142
-1.647261e-001 9.278082e-001 -7.139278e+000 210 201 184
-5.858482e+000 -8.428633e+000 -1.689445e+001 106 105 113
-3.836893e+000 -6.990655e+000 -1.462759e+001 78 77 87
-8.583576e+000 -9.211267e+000 -2.243348e+001 97 90 82
-8.583576e+000 -9.211267e+000 -2.243348e+001 97 90 82
-6.712361e-001 5.415669e-002 -6.650063e+000 84 20 12
-8.107816e-001 -2.086609e-001 -6.935502e+000 106 46 35
-2.108545e-001 3.137572e-001 -7.503774e+000 153 140 123
-1.345471e-001 9.577644e-001 -7.686643e+000 218 180 164
1.799535e+000 -1.368035e+000 -5.700468e+000 168 163 170
2.347367e-001 -1.405717e+000 -7.679417e+000 151 148 141
3.112461e-001 -1.066217e+000 -7.600831e+000 156 156 148
-7.554602e-002 -4.656721e-001 -7.687987e+000 143 46 23
-3.881068e-001 9.399863e-002 -7.851139e+000 143 28 29
-3.742988e-001 8.542198e-001 -7.792486e+000 217 58 58
1.700336e+000 -1.156342e+000 -5.811001e+000 194 189 195
1.476545e+000 -5.908893e-001 -5.998625e+000 171 167 171
-4.018395e-001 7.688866e-001 -7.869009e+000 161 146 127
-4.018395e-001 7.688866e-001 -7.869009e+000 161 146 127
-1.382944e-001 1.081187e+000 -7.493288e+000 130 95 81
3.963720e-001 -1.284489e+000 -7.461345e+000 135 134 129
-2.026763e-001 1.900630e-001 -7.575902e+000 136 110 97
-9.373259e-001 -1.820793e-001 -6.430039e+000 72 45 28
-9.373259e-001 -1.820793e-001 -6.430039e+000 72 45 28
1.833213e-001 -7.809884e-001 -7.595062e+000 26 10 13
-9.614193e-001 -3.609327e-001 -6.698530e+000 129 44 20
-9.742344e-001 -2.928933e-001 -6.612004e+000 198 109 75
1.382414e+000 -1.105270e+000 -6.114379e+000 201 196 202
3.289584e-001 -1.265877e+000 -7.563985e+000 139 139 131
-5.309680e-001 -1.076611e-001 -7.276188e+000 66 27 15
-3.335928e-001 1.502447e-001 -7.108551e+000 138 116 102
-2.513364e-001 1.911843e-001 -7.195984e+000 151 132 115
-2.513364e-001 1.911843e-001 -7.195984e+000 151 132 115
-1.896291e-001 7.462754e-001 -7.601553e+000 208 200 179
1.428676e+000 -1.156140e+000 -6.096232e+000 172 167 173
6.421253e-001 -1.638632e+000 -7.207936e+000 141 143 138
-5.409470e-001 -2.700719e-002 -7.012785e+000 77 33 28
-2.428520e-001 3.585491e-001 -7.502458e+000 156 143 122
-2.335447e-001 1.285049e-001 -7.016130e+000 159 142 124
4.729154e-001 -1.184783e-001 -6.702625e+000 213 200 176
3.173429e-001 -1.141098e+000 -7.582300e+000 174 170 167
-2.301537e-001 1.800044e-001 -7.321442e+000 122 105 89
-7.708070e-002 2.859739e-001 -7.247332e+000 175 160 139
1.131727e+000 -4.252423e-001 -6.247892e+000 166 163 168
6.260789e-001 6.229649e-001 -6.784139e+000 186 176 156
-8.167241e-001 -2.246305e-001 -6.918273e+000 121 51 42
6.708594e-001 -1.138429e-001 -6.584317e+000 248 243 227
1.393723e+000 -4.356994e-001 -6.084924e+000 169 167 175
-2.187854e-001 1.836372e-001 -7.690792e+000 138 33 40
-3.046486e-001 -1.256913e-001 -7.316452e+000 143 121 101
-2.625309e-001 4.252573e-002 -7.392145e+000 161 142 127
3.119355e-001 1.375978e-001 -6.821366e+000 228 214 195
-1.989996e-001 1.332550e-001 -7.536750e+000 166 149 131
1.349932e-001 2.949280e-001 -7.075607e+000 154 139 120
-3.183256e-001 2.013425e-002 -7.928076e+000 18 12 14
3.158744e-001 1.280152e+000 -7.066009e+000 218 63 67
1.272992e-002 8.812205e-001 -7.306685e+000 188 175 156
5.973840e-001 -1.642022e+000 -7.245513e+000 111 113 108
1.439703e+000 -1.098968e+000 -6.123510e+000 209 203 207
2.098313e+000 -1.258130e+000 -5.330263e+000 166 164 169
1.604542e+000 -5.778868e-001 -5.853210e+000 192 189 192
4.644978e-001 -1.271253e+000 -7.367120e+000 134 133 132
4.096391e+000 -7.868539e+000 -4.129973e+000 64 61 68
-9.812883e-001 -3.082484e-001 -6.591784e+000 246 165 136
-5.199162e-001 -2.490811e-002 -7.004388e+000 78 35 29
-2.324513e-002 2.030699e-001 -7.163372e+000 159 142 126
4.453555e-001 -3.181532e-004 -6.725238e+000 189 174 153
1.113350e+000 -5.953874e-001 -6.323343e+000 188 187 190
1.457891e+000 -5.620129e-001 -6.090903e+000 184 179 183
1.970359e+000 -1.209164e+000 -5.444059e+000 149 147 151
8.728011e-001 5.526470e-001 -6.543029e+000 232 81 86
-8.917500e-001 -3.723906e-001 -6.781789e+000 159 50 37
-7.697840e-001 -1.760055e-001 -6.968698e+000 98 30 17
-2.169287e-001 6.177302e-001 -7.521116e+000 145 128 108
-1.123498e-001 5.269500e-001 -7.411930e+000 194 181 162
9.305837e-001 -1.024764e-001 -6.484694e+000 254 251 237
1.261320e+000 -2.250840e-001 -6.109082e+000 184 172 172
6.804232e-001 6.315196e-001 -6.598014e+000 230 219 190
6.651964e-001 6.581881e-001 -6.632943e+000 165 130 110
-1.226309e-001 2.581810e-001 -7.216894e+000 166 151 130
-3.062915e-001 1.059562e+000 -7.695766e+000 176 35 41
2.570156e+000 -1.420469e+000 -4.758448e+000 211 208 215
6.888599e+000 -5.872784e+000 -3.221566e-003 75 73 75
-4.060553e-001 5.884895e-002 -7.080197e+000 85 48 40
-1.366343e-001 4.434132e-001 -7.408612e+000 156 137 120
-3.641463e-002 1.260244e+000 -7.417513e+000 169 29 32
-1.427213e-001 -2.627818e-001 -7.597664e+000 171 154 129
-7.423409e-001 -1.283592e-001 -7.008763e+000 86 26 15
3.348931e-001 -1.178201e+000 -7.478083e+000 255 254 210
-1.812566e-001 1.189943e+000 -7.619417e+000 221 75 78
-1.917590e-001 8.356065e-001 -7.581393e+000 236 227 210
-5.144253e-001 5.816618e-001 -8.193277e+000 224 70 72
4.228190e-001 -1.335631e+000 -7.439658e+000 175 176 169
4.365043e-001 -4.484859e-002 -6.728306e+000 211 200 178
-2.456844e-001 -1.022584e-002 -7.784096e+000 162 92 81
-2.306152e-001 -7.126145e-002 -7.600018e+000 146 123 107
-1.654685e-001 7.755035e-001 -7.599605e+000 188 181 159
-2.425558e-001 1.060120e+000 -7.756845e+000 189 43 46
2.670174e-002 2.310634e-001 -7.059772e+000 168 155 138
5.110676e-001 5.336450e-001 -6.917753e+000 170 159 139
-2.876755e-001 -2.400927e-001 -7.820469e+000 222 211 192
-1.913571e-001 -1.827576e-002 -7.659062e+000 143 101 89
-1.318114e-001 7.200917e-001 -7.442829e+000 180 165 146
6.864743e-001 9.465790e-001 -6.682068e+000 215 69 72
5.806198e-001 -1.580062e+000 -7.255167e+000 160 162 157
5.272226e-001 -1.447934e+000 -7.316046e+000 151 147 144
-7.715121e-001 -1.687087e-001 -7.162075e+000 128 54 37
-1.104716e-001 5.699460e-002 -7.775936e+000 199 49 51
-2.012695e-001 5.774397e-001 -7.561901e+000 145 133 111
-1.650956e-001 5.042918e-001 -7.471014e+000 175 160 139
5.554814e-003 1.170530e+000 -7.345036e+000 234 184 169
-6.446909e-001 5.694971e-001 -8.233623e+000 76 59 55
-9.630546e-001 -2.940142e-001 -6.609017e+000 197 108 76
-3.301808e-001 9.180243e-002 -6.982606e+000 129 97 85
-5.109170e-001 -5.155692e-001 -6.312177e+000 197 192 195
-1.007074e+000 -3.579800e-001 -6.684776e+000 156 151 144
-1.853205e-001 4.888868e-001 -7.467404e+000 202 187 166
-2.123707e-001 3.629383e-001 -7.463668e+000 173 156 136
-2.036280e-001 6.330976e-001 -7.591407e+000 193 180 161
-1.852546e-001 4.322888e-001 -7.616372e+000 150 133 113
5.192488e-001 5.813757e-001 -6.921129e+000 238 231 214
6.281607e-001 6.618602e-001 -6.738672e+000 242 233 216
7.274414e-001 3.117220e-001 -6.664573e+000 184 171 152
6.382104e+000 -6.183285e+000 -4.729128e-001 28 23 29
-3.080767e-001 -9.654381e-002 -7.909153e+000 221 213 195
2.028044e-001 -1.156110e+000 -7.754901e+000 163 161 162
3.159304e-001 -1.001373e+000 -7.611459e+000 134 129 132
1.081303e+000 -2.114926e+000 -6.707738e+000 200 198 201
-2.462504e-002 -5.511542e-001 -7.560469e+000 111 14 5
-3.152763e-001 -3.280970e-002 -7.975502e+000 78 65 49
6.466805e-001 -1.175154e+000 -7.160604e+000 133 130 131
5.095696e-001 -9.946559e-001 -7.282147e+000 179 174 176
-8.371473e-002 -4.500087e-001 -7.572612e+000 243 195 141
5.699750e-001 -1.006385e+000 -7.257919e+000 172 158 161
5.440481e-001 -9.914702e-001 -7.258478e+000 172 158 161
1.201355e+000 -1.884245e+000 -6.520167e+000 173 170 177
1.191351e+000 -1.837970e+000 -6.488235e+000 181 178 185
1.191351e+000 -1.837970e+000 -6.488235e+000 181 178 185
-7.730504e-001 -2.688253e-001 -7.086279e+000 167 67 35
-7.856799e-001 -2.232320e-001 -7.091708e+000 182 93 61
-5.581377e-001 -1.959074e-001 -7.258401e+000 170 170 149
-9.613858e-001 -3.657074e-001 -6.736699e+000 143 48 32
-9.169189e-001 -3.829574e-001 -6.733949e+000 231 233 233
-8.396303e-001 -2.817413e-001 -6.906146e+000 134 47 37
-8.124498e-001 -2.702722e-001 -6.965182e+000 148 62 40
-1.716273e-001 1.494563e-001 -7.696651e+000 111 8 15
1.808385e+000 -2.445685e+000 -5.824787e+000 221 214 221
-9.756827e-001 -3.033248e-001 -6.598852e+000 142 45 36
-2.104007e-001 3.032544e-001 -7.507302e+000 172 156 135
-3.629913e-001 8.279323e-002 -7.023939e+000 96 58 48
-3.629913e-001 8.279323e-002 -7.023939e+000 96 58 48
8.859327e-003 1.087230e-001 -6.993044e+000 137 123 105
1.105708e+000 -5.256786e-001 -6.295112e+000 220 99 90
2.366146e+000 -1.592402e+000 -5.023863e+000 171 172 176
8.006395e-001 5.891501e-001 -6.526114e+000 226 71 75
7.978152e-001 6.022027e-001 -6.513039e+000 217 64 69
8.329416e-001 7.165834e-001 -6.502240e+000 67 36 29
2.243601e-001 -1.442240e+000 -7.679436e+000 120 119 117
6.758087e-001 -1.595471e+000 -7.143383e+000 135 130 136
4.464309e-001 -1.219617e+000 -7.392566e+000 168 154 137
1.449087e+000 -2.668971e+000 -6.310798e+000 210 208 211
1.449087e+000 -2.668971e+000 -6.310798e+000 210 208 211
7.400806e-001 -1.518233e+000 -7.103263e+000 183 178 180
6.875570e-001 -1.414861e+000 -7.105170e+000 189 184 188
4.862373e-001 -1.128783e+000 -7.307330e+000 133 121 107
1.781982e-001 -7.274743e-001 -7.586644e+000 255 115 123
1.011725e+000 -1.758841e+000 -6.758462e+000 161 157 163
1.011725e+000 -1.758841e+000 -6.758462e+000 161 157 163
-6.326004e-001 -4.211262e-001 -7.080263e+000 191 51 41
-2.321290e-001 -2.620925e-002 -7.763276e+000 167 137 119
-5.782145e-001 -2.117221e-001 -7.244240e+000 213 208 186
8.562604e-002 -3.748824e-001 -7.406998e+000 106 37 9
-5.446572e-001 -1.568508e-001 -7.232118e+000 47 16 10
-9.999973e-001 -3.234060e-001 -6.585124e+000 204 195 200
-1.021010e+000 -2.328695e-001 -6.493605e+000 217 207 206
-1.020768e+000 -2.325467e-001 -6.493485e+000 217 207 206
-1.032474e+000 -2.181232e-001 -6.472673e+000 83 60 50
-2.997446e-001 1.871762e-001 -7.213976e+000 155 136 120
-8.668794e-001 -2.254629e-001 -6.450197e+000 185 181 178
1.506402e+000 -1.109317e+000 -5.978950e+000 181 177 181
7.819986e-001 -4.355993e-001 -6.584648e+000 243 235 214
4.863390e-002 1.065413e-001 -6.976081e+000 252 245 227
1.783960e+000 -1.382463e+000 -5.691333e+000 200 198 203
1.752565e+000 -1.174470e+000 -5.698972e+000 162 160 163
1.805933e+000 -1.175947e+000 -5.701596e+000 197 194 201
1.916982e+000 -1.163127e+000 -5.479942e+000 207 205 210
2.277585e+000 -1.465069e+000 -5.101210e+000 181 180 186
2.144218e+000 -1.297408e+000 -5.240833e+000 210 208 213
1.605811e+000 -5.896020e-001 -5.887662e+000 138 133 137
9.376518e-001 2.311394e-001 -6.437280e+000 234 218 197
5.932487e-001 6.310560e-001 -6.820024e+000 227 216 198
9.125455e-001 6.159755e-001 -6.479285e+000 189 40 42
9.104845e-001 6.163983e-001 -6.456745e+000 213 68 76
5.488872e-001 9.735933e-001 -6.850606e+000 245 81 86
1.747466e-001 -1.361633e+000 -7.673814e+000 171 170 167
3.065104e-001 -1.211886e+000 -7.482328e+000 253 248 190
3.065104e-001 -1.211886e+000 -7.482328e+000 253 248 190
9.308067e-001 -1.723936e+000 -6.826492e+000 198 195 200
5.670876e-001 -1.091460e+000 -7.237321e+000 134 128 130
2.783925e-001 -7.954523e-001 -7.356443e+000 188 46 48
-3.198596e-001 2.874973e-002 -7.869266e+000 234 95 96
-2.431827e-001 -5.934362e-002 -7.742670e+000 207 196 174
7.799800e-001 -3.084159e+000 -4.997167e+000 60 57 64
-7.989949e-001 -2.596815e-001 -6.973028e+000 119 30 14
-7.662711e-001 -1.652308e-001 -6.953906e+000 120 53 37
-2.591724e-001 9.885022e-002 -7.271075e+000 147 128 111
-3.819842e-001 8.289765e-002 -7.101837e+000 72 26 19
-3.544215e-001 8.959626e-002 -7.088076e+000 100 73 60
-2.064344e-001 2.587701e-001 -7.416271e+000 181 165 142
-3.221752e-001 3.352082e-001 -7.452849e+000 139 121 101
-2.136872e-001 3.347051e-001 -7.491472e+000 169 152 132
-3.325413e-001 1.137078e-001 -7.048418e+000 94 34 22
-8.895228e-002 9.170360e-002 -6.966759e+000 202 194 175
-6.349803e-002 1.076056e-001 -6.975673e+000 141 126 110
-1.232274e-001 5.321440e-001 -7.414476e+000 189 176 159
1.817709e+000 -1.262314e+000 -5.736323e+000 202 200 205
1.619251e+000 -1.034957e+000 -5.863235e+000 162 160 165
1.403157e+000 -4.979255e-001 -6.112622e+000 149 144 148
6.331813e-001 2.361842e-002 -6.655210e+000 172 157 134
6.599562e-001 2.394612e-001 -6.768038e+000 244 237 219
9.028142e-001 5.005688e-001 -6.406827e+000 152 29 32
4.033822e-001 1.092310e+000 -7.009377e+000 233 215 193
3.290882e-001 1.151034e+000 -7.085174e+000 225 68 67
8.748060e-001 6.553805e-001 -6.487984e+000 234 87 88
2.764881e-001 -1.471664e+000 -7.719419e+000 175 174 172
6.621950e-001 -1.669842e+000 -7.270329e+000 155 153 158
1.614111e-002 -6.330752e-001 -7.689803e+000 252 99 106
-7.576844e-001 -2.296602e-001 -7.109355e+000 115 32 17
-9.200191e-001 -2.953244e-001 -6.764770e+000 156 80 54
-9.261318e-001 -2.932548e-001 -6.762935e+000 156 80 54
-9.956303e-001 -3.068523e-001 -6.576224e+000 55 13 19
-2.047463e-001 2.283306e-001 -7.523311e+000 152 137 118
-1.087190e+000 -2.343709e-001 -6.501869e+000 204 197 205
-4.546406e-001 1.339271e-002 -7.086883e+000 58 14 15
-2.097497e-001 3.492345e-001 -7.604885e+000 221 209 187
-3.943924e-001 7.869424e-001 -7.876950e+000 221 201 184
-8.524319e-001 -2.257153e-001 -6.473327e+000 73 49 26
-3.329011e-001 4.132757e-002 -6.940296e+000 134 117 97
-3.329011e-001 4.132757e-002 -6.940296e+000 134 117 97
5.920156e-006 1.839276e-001 -7.050575e+000 241 229 212
1.814226e+000 -1.217715e+000 -5.612229e+000 205 203 208
4.210045e-001 3.074451e-001 -6.997996e+000 164 153 133
-1.440667e-001 8.116821e-001 -7.432451e+000 193 180 161
-1.444037e-001 8.117432e-001 -7.432312e+000 193 180 161
7.515512e-001 8.339143e-001 -6.595246e+000 108 15 22
3.897535e-001 1.207681e+000 -6.990374e+000 232 76 77
-2.700696e-001 -2.630973e-001 -7.960370e+000 91 82 84
2.203439e-001 -8.151914e-001 -7.645982e+000 145 137 136
-9.101509e-002 -3.984662e-001 -7.496215e+000 176 117 73
-2.686525e-001 -1.105123e-001 -7.446392e+000 185 170 149
-8.047882e-001 -2.011646e-001 -6.966532e+000 97 25 11
-3.651557e-001 7.556201e-002 -7.059787e+000 66 23 21
-1.015224e+000 -1.987270e-001 -6.448723e+000 104 75 50
-2.729320e-001 1.038684e+000 -7.743326e+000 216 70 71
-2.729320e-001 1.038684e+000 -7.743326e+000 216 70 71
1.061408e+000 -2.609250e-001 -6.317264e+000 120 105 67
1.028133e-001 6.022163e-001 -7.180196e+000 169 154 133
2.567000e-001 6.985140e-001 -7.189787e+000 228 221 203
2.126104e-001 1.022909e+000 -7.212455e+000 214 204 192
1.262975e-001 1.352145e+000 -7.350840e+000 31 6 16
3.981918e-001 1.051861e+000 -6.954573e+000 235 222 203
7.114026e-001 9.244562e-001 -6.649310e+000 212 61 66
4.187318e-001 1.258047e+000 -6.976183e+000 217 57 60
3.146324e-001 -1.142978e+000 -7.539163e+000 30 23 24
4.747616e-001 -1.149312e+000 -7.334862e+000 255 255 220
4.375172e-001 -1.127966e+000 -7.340372e+000 255 255 220
2.803363e-001 -8.858628e-001 -7.397422e+000 255 254 208
1.927283e-001 -7.206885e-001 -7.450097e+000 221 194 133
-1.713939e-002 -3.528867e-001 -7.519733e+000 85 15 16
-9.153518e-001 -3.484755e-001 -6.758553e+000 146 45 27
-2.814269e-001 2.988798e-001 -7.820246e+000 220 204 188
-3.884731e-001 -7.241466e-003 -7.189925e+000 71 27 22
-1.031582e+000 -2.573576e-001 -6.514578e+000 74 42 27
-1.051606e+000 -2.455305e-001 -6.520126e+000 74 42 27
-1.753218e-001 3.643207e-001 -7.635565e+000 169 154 131
3.604617e-001 1.371745e-002 -6.765348e+000 223 215 194
-7.715111e-002 7.210586e-001 -7.359745e+000 247 240 224
9.086795e-001 -1.988673e-001 -6.456534e+000 248 243 226
6.228347e-001 2.680026e-001 -6.831882e+000 243 236 220
3.128365e-001 4.742773e-001 -7.119326e+000 200 192 171
8.890956e-001 4.493164e-001 -6.394589e+000 233 85 85
1.838895e-001 -8.261918e-001 -7.531571e+000 255 248 189
-4.930529e-002 -5.520423e-001 -7.723151e+000 182 50 48
-5.321057e-001 -4.038258e-002 -7.056126e+000 53 16 15
8.244882e-001 -1.033409e-001 -6.546607e+000 189 176 154
5.086607e-001 2.617648e-001 -6.911986e+000 232 225 212
1.320983e+000 -2.003163e-001 -6.172133e+000 12 7 5
8.832860e-001 5.899720e-002 -6.381942e+000 243 227 211
9.988350e-001 2.030432e-001 -6.384177e+000 211 50 61
5.375528e-001 9.494588e-001 -6.818968e+000 232 76 80
4.230221e-001 -1.226529e+000 -7.361561e+000 144 139 140
1.022410e-001 -6.385982e-001 -7.641314e+000 254 183 152
-4.827786e-001 5.135977e-001 -7.929243e+000 187 172 151
-9.769754e-001 -3.485081e-001 -6.704067e+000 151 46 27
-9.852293e-001 -2.640950e-001 -6.647236e+000 225 136 92
-3.562192e-001 8.087232e-001 -7.803599e+000 221 212 195
1.187519e-001 2.480432e-001 -6.999537e+000 241 232 215
1.578583e-002 1.196354e+000 -7.344269e+000 206 69 67
-2.497568e-001 2.181902e-001 -7.812732e+000 152 28 36
6.477103e-001 -1.687680e-001 -6.593150e+000 243 238 219
2.962871e-002 8.774270e-001 -7.302352e+000 184 171 154
8.305000e-001 4.771981e-001 -6.604322e+000 249 242 226
8.356727e-001 5.150963e-001 -6.500248e+000 154 28 31
-2.679980e-001 -4.124461e-001 -7.833695e+000 235 228 210
-2.746427e-001 -4.102634e-001 -7.834891e+000 235 228 210
-1.542062e-001 -2.307131e-001 -8.048631e+000 49 39 40
-3.035261e-001 1.732810e-002 -7.934107e+000 12 8 9
-4.937601e-001 5.423805e-001 -8.057829e+000 205 188 168
-8.032230e-001 -3.988381e-001 -6.842018e+000 217 210 218
-2.043329e-001 4.329843e-001 -7.574817e+000 154 136 114
7.992988e-001 4.758145e-001 -6.609768e+000 248 241 225
-9.738275e-001 -2.323351e-001 -6.526078e+000 50 21 13
8.686357e-001 2.608218e-002 -6.466858e+000 250 244 229
6.805205e-001 8.130615e-001 -6.865841e+000 242 235 219
-4.050694e-001 5.988962e-001 -7.842164e+000 233 224 207
1.094544e+000 -2.244998e+000 -6.654584e+000 178 175 182
1.317614e+000 -2.422027e+000 -6.463932e+000 195 190 197
6.291061e-001 -1.259253e+000 -7.208217e+000 178 169 172
2.156187e-001 -7.782917e-001 -7.641351e+000 149 138 136
1.111943e+000 -1.981789e+000 -6.650774e+000 208 207 213
1.526593e+000 -2.289876e+000 -6.166807e+000 194 189 196
1.362372e+000 -2.152048e+000 -6.359526e+000 189 186 193
1.134536e+000 -1.826894e+000 -6.548207e+000 216 211 218
8.305547e-001 -1.367782e+000 -6.926886e+000 202 195 202
-5.448761e-001 -3.233253e-001 -7.232949e+000 66 26 15
-9.457426e-002 -1.829994e-001 -7.592654e+000 201 190 167
-9.933280e-001 -3.357249e-001 -6.673037e+000 223 136 107
-4.757075e-001 -2.529485e-002 -7.167929e+000 88 53 49
-3.983222e-001 -3.094587e-002 -7.190789e+000 100 67 60
-8.685275e-001 -2.202571e-001 -6.508012e+000 215 205 204
2.196453e+000 -1.332592e+000 -5.265885e+000 177 176 181
1.858418e+000 -1.177791e+000 -5.413588e+000 197 197 201
1.855273e+000 -1.159440e+000 -5.445466e+000 159 158 163
1.222420e+000 -2.398695e+000 -6.609756e+000 202 199 206
6.369321e-001 -1.502350e+000 -7.246489e+000 177 171 175
5.158331e-001 -1.304981e+000 -7.342636e+000 173 167 171
1.624095e+000 -2.667554e+000 -6.074810e+000 223 218 225
1.407301e+000 -2.376308e+000 -6.290557e+000 223 218 225
1.375600e+000 -2.335837e+000 -6.241230e+000 203 198 205
1.568083e+000 -2.340033e+000 -6.137917e+000 225 220 227
1.258694e+000 -2.059140e+000 -6.462552e+000 201 196 203
1.502779e+000 -2.207446e+000 -6.133501e+000 223 218 224
-6.952332e-001 -3.598559e-001 -7.088994e+000 184 28 26
-5.741865e-001 -1.702063e-001 -7.253486e+000 61 21 14
-6.293300e-001 -6.004777e-002 -6.879063e+000 110 45 34
-1.224866e-001 1.541619e-001 -7.182402e+000 155 140 119
1.866840e+000 -1.165448e+000 -5.480464e+000 146 144 149
2.339016e-001 5.424880e-002 -6.820096e+000 211 199 183
8.405257e-001 -1.782375e-001 -6.513750e+000 178 160 129
2.245348e+000 -1.316205e+000 -5.033758e+000 206 204 209
4.172536e-001 -1.235016e+000 -7.570097e+000 161 155 159
6.698843e-001 -1.551263e+000 -7.240864e+000 147 140 147
8.295176e-001 -1.813250e+000 -6.989351e+000 174 169 175
5.420222e-001 -1.148699e+000 -7.255931e+000 188 179 182
1.228570e+000 -1.985594e+000 -6.407724e+000 198 193 200
1.228570e+000 -1.985594e+000 -6.407724e+000 198 193 200
1.084023e+000 -1.720978e+000 -6.659606e+000 177 172 178
1.068526e+000 -1.711399e+000 -6.662854e+000 177 172 178
1.726661e+000 -2.533373e+000 -5.928236e+000 202 195 202
-2.061405e-001 -9.634813e-002 -7.733217e+000 207 199 179
-5.870597e-001 -2.905768e-002 -7.029328e+000 84 37 31
-3.844447e-001 5.470620e-002 -7.152469e+000 100 73 63
-4.372977e-001 2.245412e-001 -7.227981e+000 160 139 122
-1.242821e-001 4.662369e-001 -7.413760e+000 202 189 170
5.574656e-003 9.310116e-002 -6.946281e+000 221 209 190
1.070266e+000 -4.655311e-001 -6.339544e+000 203 183 138
8.835202e-001 -1.496056e-001 -6.474243e+000 199 184 165
7.212167e-001 -1.550484e+000 -7.129127e+000 194 188 192
1.677450e+000 -2.758114e+000 -6.087119e+000 215 210 217
5.329109e-001 -1.063986e+000 -7.271274e+000 178 167 171
-3.390592e-001 1.874365e-001 -7.981523e+000 22 4 17
1.109641e+000 2.629484e-001 -6.266397e+000 63 46 46
8.838061e-001 7.177434e-001 -6.548032e+000 159 26 31
8.837478e-001 -1.872465e+000 -6.929913e+000 197 193 200
2.639766e-001 -8.674350e-001 -7.398382e+000 255 253 206
6.743043e-001 -1.119616e+000 -7.162350e+000 171 164 171
-1.368614e-001 5.056023e-001 -7.430463e+000 218 207 186
4.668542e-001 3.918940e-001 -7.044312e+000 223 216 200
-9.382029e-002 8.219061e-001 -7.500200e+000 212 201 183
3.922540e-002 8.529715e-001 -7.257860e+000 236 228 210
1.126225e+000 1.067352e-001 -6.265584e+000 231 82 88
-1.458625e-001 3.736269e-001 -7.625781e+000 167 152 131
1.075968e+000 4.903683e-002 -6.291482e+000 139 13 20
-1.729557e-001 1.816354e-001 -7.286305e+000 134 117 99
1.821933e-001 6.362862e-001 -7.133127e+000 236 229 213
2.996688e-001 7.993450e-001 -7.222053e+000 238 230 213
7.259968e-001 3.195611e-001 -6.643476e+000 186 171 148
-1.812235e-001 1.011263e+000 -7.467775e+000 151 129 115
3.849738e-001 1.228900e+000 -6.976772e+000 211 50 55
2.176170e-001 1.282165e+000 -7.084223e+000 218 63 67
5.004706e-001 5.481895e-002 -6.712878e+000 161 151 126
4.635457e-001 -1.086405e+000 -7.431386e+000 255 254 213
-2.343881e-001 4.643298e-001 -7.580539e+000 146 131 110
-1.753192e-001 3.357977e-002 -7.598527e+000 69 7 13
-1.058847e-002 3.846554e-001 -7.194345e+000 155 140 121
-2.092050e-001 -1.946754e-001 -7.794903e+000 193 179 160
-4.728816e+000 -6.490551e+000 -1.513501e+001 120 118 129
7.249304e-001 -1.539517e+000 -7.084516e+000 181 179 182
4.964485e-001 -1.193140e+000 -7.314535e+000 152 148 138
7.805579e-001 -1.511980e+000 -6.996088e+000 190 185 189
-2.098890e-001 7.617943e-001 -7.609336e+000 183 171 151
-3.150032e-001 1.204545e-001 -7.115278e+000 131 114 96
-2.083188e-001 3.497159e-001 -7.604747e+000 221 209 187
2.168276e-001 -8.633841e-001 -7.551722e+000 255 240 180
2.863432e-001 -8.138716e-001 -7.371568e+000 250 238 175
3.090573e-001 -7.367558e-001 -7.347382e+000 185 45 46
-5.541152e-002 1.325379e+000 -7.430116e+000 94 10 14
-7.711629e-001 -1.757045e-001 -6.967799e+000 90 20 7
2.113914e-001 6.413334e-002 -6.845101e+000 242 235 217
7.046581e-001 -1.394471e+000 -7.169286e+000 192 186 188
-2.506573e-001 6.795124e-001 -7.687018e+000 181 165 146
2.101207e-001 1.022512e+000 -7.211730e+000 212 205 189
-4.335541e-001 7.297833e-001 -7.928455e+000 204 191 172
-1.702374e-001 8.446820e-001 -7.564303e+000 225 217 198
2.703095e-001 -8.068091e-001 -7.372690e+000 251 244 175
-4.324971e-001 -5.844631e-001 -6.869824e+000 180 157 157
-4.808502e-001 -5.397436e-001 -6.835300e+000 223 83 30
-5.176355e-001 -2.044118e-001 -7.256667e+000 120 94 79
-3.708990e-001 1.016883e-001 -6.987884e+000 117 89 71
-6.327291e-002 -5.448861e-001 -7.656252e+000 247 183 130
2.875499e-001 -8.180045e-001 -7.323444e+000 224 116 123
-6.735170e-001 -4.293616e-001 -6.952887e+000 190 52 22
-6.168326e-001 -3.473824e-001 -7.156573e+000 158 89 74
7.124459e-002 -5.693280e-001 -7.255430e+000 197 174 152
-7.537563e-001 -3.363813e-001 -6.898114e+000 195 93 54
-4.793165e-001 -1.797919e-001 -7.203534e+000 97 62 56
-7.923636e-001 -2.481792e-001 -6.426072e+000 193 193 193
7.791373e-001 -1.612299e-001 -6.524852e+000 185 169 148
-1.428795e-001 4.818185e-001 -7.431293e+000 172 160 143
-1.556387e-001 -4.788650e-001 -7.922300e+000 101 91 92
2.920390e-001 -7.133394e-001 -7.331743e+000 245 101 101
-5.697483e-001 -4.512070e-001 -7.073405e+000 184 41 41
-5.697483e-001 -4.512070e-001 -7.073405e+000 184 41 41
-2.329244e-001 -4.077399e-001 -7.309322e+000 235 231 211
-4.655261e-001 -5.425134e-001 -6.811766e+000 227 164 148
-2.843511e-001 -6.075756e-002 -7.229440e+000 79 28 23
-1.048332e-001 7.987329e-002 -7.276522e+000 124 105 88
-2.218564e-001 1.638932e-001 -7.229570e+000 127 108 91
-2.118750e-001 1.619565e-001 -7.228910e+000 127 108 91
-3.301767e-001 8.382726e-002 -7.029586e+000 105 72 63
-2.491231e-001 6.235994e-001 -7.679023e+000 179 168 150
1.177968e+000 -6.963730e-003 -6.185309e+000 54 51 47
2.517373e-001 -8.340243e-001 -7.420875e+000 170 150 90
2.638648e-001 -7.127025e-001 -7.398728e+000 202 173 115
-7.865557e-001 -2.490543e-001 -7.076539e+000 189 92 57
-8.837262e-001 -4.249439e-001 -6.646106e+000 192 192 194
2.777294e-001 1.035638e-001 -6.841083e+000 198 185 166
1.538742e-001 5.612862e-001 -7.156681e+000 227 217 198
7.760037e-001 5.576403e-001 -6.608033e+000 250 236 217
1.983919e-001 1.335179e+000 -7.217129e+000 208 45 49
-6.855433e-001 5.952431e-001 -8.235929e+000 231 78 77
-2.195052e-001 1.079654e-001 -7.575294e+000 79 13 17
-5.010074e-001 4.422999e-001 -7.918758e+000 223 209 185
-3.385840e-001 9.747220e-002 -7.078549e+000 111 83 71
-7.471012e-002 3.066519e-001 -7.273159e+000 135 120 101
1.309203e-002 1.365561e+000 -7.349760e+000 38 24 30
2.369206e-001 -7.468128e-001 -7.451535e+000 214 188 127
-5.161600e-001 -1.979507e-001 -7.228223e+000 54 15 13
1.446490e+000 -4.598107e-001 -6.116306e+000 235 221 172
9.740056e-001 -1.579112e-001 -6.485708e+000 194 179 160
1.090262e+000 -5.463614e-002 -6.251433e+000 249 104 107
-3.961672e-001 -3.655554e-001 -7.256960e+000 226 215 200
4.747592e-003 -3.524764e-001 -7.449436e+000 218 187 133
-9.728746e-001 -3.227592e-001 -6.519690e+000 194 192 197
-2.906939e-001 -3.316667e-002 -7.274083e+000 126 102 91
-2.406651e-001 -9.498393e-002 -7.299085e+000 23 4 6
-6.156576e-001 -2.834920e-001 -7.189634e+000 67 17 14
-2.307808e-001 8.097814e-001 -7.666432e+000 148 130 110
-6.226946e-002 1.259055e+000 -7.481241e+000 174 41 42
-6.685426e-002 -5.092436e-001 -7.474104e+000 255 237 178
-1.723932e-002 -5.862627e-001 -7.326351e+000 190 48 50
-1.723932e-002 -5.862627e-001 -7.326351e+000 190 48 50
-2.051995e-001 -1.400623e-001 -7.577183e+000 216 207 184
5.831038e-001 1.379269e-001 -6.666666e+000 230 221 204
1.120924e+000 7.312930e-001 -6.259684e+000 39 27 26
7.731711e-001 -1.547006e+000 -7.024222e+000 204 198 202
-8.115632e-001 -2.272037e-001 -6.909826e+000 135 65 52
-2.121788e-001 1.073464e+000 -7.703267e+000 229 78 83
-1.734375e-001 4.874546e-001 -7.466673e+000 205 193 171
9.357484e-001 6.860119e-002 -6.462988e+000 253 247 231
-1.466546e-001 1.207564e+000 -7.567685e+000 153 16 23
5.202653e-001 5.671299e-001 -6.927195e+000 230 223 205
1.069507e+000 -1.801436e+000 -6.730732e+000 201 193 204
1.097775e+000 -1.811348e+000 -6.641485e+000 195 193 198
1.083037e+000 -1.778515e+000 -6.667078e+000 206 199 206
-1.722313e-001 5.178643e-001 -7.471713e+000 189 174 155
-3.068858e-001 -4.590282e-001 -7.887021e+000 108 97 95
-7.634423e-001 -2.715908e-001 -7.084438e+000 164 57 26
-2.895395e-002 2.316963e-001 -7.130064e+000 176 161 140
-3.609176e-001 8.563541e-002 -7.898400e+000 133 17 24
-7.233855e-001 -2.046775e-001 -7.166596e+000 71 12 6
8.868234e-001 7.141764e-001 -6.485023e+000 54 34 36
-2.319715e-001 7.483330e-001 -7.585705e+000 200 192 173
-2.480795e-001 4.451991e-002 -7.392707e+000 163 146 128
-2.515878e-001 1.110662e+000 -7.716715e+000 225 68 67
-2.218453e-001 -2.019076e-003 -7.765804e+000 151 87 77
-7.601073e-002 5.560019e-001 -7.585422e+000 172 158 138
1.083974e+000 2.645668e-002 -6.233920e+000 207 66 65
-2.223663e-001 1.099945e+000 -7.664802e+000 172 31 35
-7.955100e-001 -2.975500e-001 -7.037132e+000 194 85 52
-4.266454e-001 -9.071632e-002 -7.171393e+000 52 13 10
-4.043192e-001 1.697208e-002 -7.163223e+000 95 62 55
8.148303e-001 4.002170e-001 -6.464095e+000 231 216 195
-7.927724e-001 -2.141372e-001 -6.953999e+000 96 24 12
-4.329405e-001 9.768783e-003 -7.094956e+000 58 12 14
-9.414337e-002 2.342159e-001 -7.235520e+000 157 141 125
-7.054077e-002 2.852523e-001 -7.248134e+000 171 159 137
2.368265e-001 7.454998e-001 -7.217200e+000 210 202 188
2.481699e-001 7.464249e-001 -7.216188e+000 210 202 188
-2.535170e-001 1.070188e+000 -7.747577e+000 183 35 39
-2.774861e-001 8.672033e-001 -7.763409e+000 215 205 194
9.316837e-001 4.524125e-001 -6.391142e+000 238 74 79
4.735347e-001 7.256115e-001 -6.961768e+000 194 187 171
1.004692e+000 2.391484e-002 -6.355083e+000 233 228 210
2.527798e-001 9.659883e-001 -7.201630e+000 241 235 219
-2.146486e-001 1.299205e-001 -7.527884e+000 162 143 128
6.551079e-002 1.353769e+000 -7.485898e+000 20 11 12
1.751856e-001 -7.259664e-001 -7.586864e+000 229 106 99
-3.349961e-001 1.066041e-001 -7.915623e+000 145 23 26
-2.688085e-001 7.122647e-001 -7.720091e+000 239 232 214
-2.726529e-001 3.628436e-002 -7.810204e+000 133 16 23
9.436755e-001 5.292329e-001 -6.357731e+000 201 50 57
3.247877e-001 1.150154e+000 -7.106334e+000 233 189 165
-8.148403e-001 -2.261161e-001 -6.911118e+000 128 59 43
-8.026920e-001 -2.132742e-001 -6.934493e+000 129 58 40
-2.235070e-001 3.404903e-001 -7.510702e+000 153 140 121
4.839320e-001 5.489141e-001 -6.953443e+000 187 184 165
3.522801e-001 1.307955e+000 -7.009770e+000 42 30 28
-1.570066e-001 9.332204e-001 -7.689024e+000 171 159 140
-7.344403e-001 -3.201629e-001 -7.093944e+000 209 98 55
-5.491791e-001 -2.806419e-001 -7.288179e+000 189 177 165
-1.299750e-001 -1.688291e-001 -7.594357e+000 193 180 163
-8.056005e-001 -2.828100e-001 -6.910316e+000 133 51 42
-5.555155e-001 5.424041e-001 -8.131925e+000 232 75 76
1.166992e+000 2.052938e-001 -6.256520e+000 251 75 82
3.634601e-001 1.105925e+000 -7.019647e+000 216 183 172
1.859293e-001 -8.486248e-001 -7.554239e+000 237 225 147
-1.140903e-002 -5.506003e-001 -7.563372e+000 76 6 4
-5.458853e-002 -5.456528e-001 -7.655884e+000 239 190 140
-9.786934e-002 -4.474242e-001 -7.574094e+000 241 196 139
-8.424279e-002 -4.497713e-001 -7.572247e+000 241 196 139
-6.630493e-001 -4.039556e-001 -7.104025e+000 218 199 187
-5.424424e-001 -2.399928e-001 -7.281762e+000 129 101 89
3.743280e-002 -2.552997e-001 -7.365097e+000 71 36 16
3.743280e-002 -2.552997e-001 -7.365097e+000 71 36 16
-7.974152e-001 -2.970405e-001 -6.866176e+000 101 32 22
1.174305e+000 1.914972e-001 -6.238115e+000 53 29 24
9.138668e-001 6.189492e-001 -6.482766e+000 192 37 37
3.758039e-001 1.105208e+000 -7.000333e+000 231 61 61
1.820652e-001 -7.257454e-001 -7.587016e+000 249 104 109
-6.947348e-001 -3.456988e-001 -7.093714e+000 185 30 26
-6.947348e-001 -3.456988e-001 -7.093714e+000 185 30 26
-6.616781e-001 -3.465070e-001 -7.126777e+000 238 131 86
-2.426738e-001 -9.897261e-002 -7.730932e+000 204 196 177
-2.456452e-001 -7.943386e-002 -7.739263e+000 207 199 181
-7.974325e-001 -2.130866e-001 -6.934473e+000 136 60 43
-4.214824e-001 -4.414985e-003 -7.112386e+000 72 39 32
-4.214824e-001 -4.414985e-003 -7.112386e+000 72 39 32
-1.180732e-001 5.822207e-001 -7.370261e+000 200 194 180
8.965777e-001 6.539938e-001 -6.483500e+000 219 64 63
2.843623e-001 -8.421989e-001 -7.404995e+000 161 145 86
-6.471935e-001 -3.846293e-001 -7.117347e+000 137 32 14
-5.364293e-001 4.666357e-001 -8.014469e+000 10 8 7
-3.760060e-002 2.621718e-001 -7.233145e+000 141 128 111
7.227251e-001 8.634142e-001 -6.575989e+000 50 26 28
6.460017e-001 9.173549e-001 -6.664113e+000 211 54 59
3.350619e-001 1.156668e+000 -7.077921e+000 220 59 60
-1.056427e-001 -4.564444e-001 -7.708577e+000 186 33 37
-5.408490e-001 -2.554637e-001 -7.295690e+000 72 18 9
-4.020832e-001 -3.608675e-002 -7.205360e+000 94 67 58
6.442785e-001 6.359944e-001 -6.696237e+000 146 129 111
-2.606397e-001 1.063275e+000 -7.714086e+000 216 56 61
2.879856e-001 1.330105e+000 -7.076060e+000 41 27 29
7.064413e-002 -5.677562e-001 -7.248169e+000 205 196 181
-4.037103e-001 2.881376e-002 -7.160706e+000 99 69 59
-4.901143e-001 4.147346e-001 -7.943039e+000 171 14 28
6.069219e-001 9.576649e-001 -6.707542e+000 216 57 62
-1.522421e-001 1.238650e+000 -7.608130e+000 18 9 11
-9.043328e-001 -2.996515e-001 -6.770103e+000 158 75 43
-3.338284e-001 1.781082e-001 -7.944426e+000 215 58 62
-5.185821e-001 -4.454736e-002 -7.047246e+000 51 13 12
2.446946e-001 6.394478e-001 -7.135025e+000 233 225 212
-9.991129e-002 7.565716e-001 -7.354341e+000 237 231 219
6.088388e+000 1.943204e-001 4.642749e-002 20 12 17
-1.580813e-001 2.631065e-001 -7.363548e+000 141 125 109
5.426092e-002 5.590731e-001 -7.285937e+000 235 228 218
5.907376e-001 8.834924e-001 -6.836422e+000 234 230 218
1.367968e-001 1.198538e+000 -7.248000e+000 215 50 54
-9.414195e-001 -2.527971e-001 -6.535352e+000 42 18 14
-2.154875e-001 4.306627e-001 -7.573065e+000 147 132 113
-4.101435e-001 1.025565e+000 -7.868124e+000 11 5 7
6.120472e+000 2.646131e-001 3.992192e-002 22 13 15
6.378877e-002 7.452185e-001 -7.290531e+000 235 226 216
4.932782e-001 -1.118563e+000 -7.414231e+000 255 244 198
-3.720546e-001 1.450988e-001 -8.033969e+000 27 17 16
5.115383e-001 -1.035561e+000 -7.259165e+000 93 86 88
-2.365027e-002 -5.060762e-001 -7.798465e+000 241 83 90
2.568559e-001 -6.738847e-001 -7.303757e+000 160 31 41
5.105078e-002 -4.905317e-001 -7.456419e+000 224 126 66
-1.912594e-001 -4.154193e-001 -7.296717e+000 253 254 240
-8.442494e-002 -3.486892e-001 -7.442613e+000 140 91 55
-6.422136e-001 -3.697315e-001 -7.097497e+000 231 138 105
-2.719810e-001 -3.949499e-001 -7.189782e+000 198 189 172
-8.899252e-001 -3.813786e-001 -6.774585e+000 201 97 58
-9.678770e-001 -3.525953e-001 -6.747149e+000 169 73 51
-9.055658e-001 -3.506602e-001 -6.744563e+000 148 54 33
-8.052490e-001 -3.392679e-001 -6.838601e+000 172 52 30
-7.811373e-001 -2.037872e-001 -7.104670e+000 163 62 32
-4.543999e-001 -7.893616e-002 -7.203597e+000 104 65 60
-1.686798e-001 -1.959450e-002 -7.353154e+000 113 60 46
-8.868991e-002 1.746094e-001 -7.706319e+000 142 20 31
7.361726e-001 8.693543e-001 -6.598873e+000 181 46 51
5.650730e-001 1.087547e+000 -6.781846e+000 244 71 74
6.300398e-001 -1.057089e+000 -7.197053e+000 77 68 73
1.165901e-001 -6.657767e-001 -7.709360e+000 35 26 28
-8.194618e-003 -4.777844e-001 -7.293704e+000 254 207 160
-6.558771e-001 -4.362427e-001 -6.951721e+000 190 56 25
1.581661e-001 -3.348963e-001 -7.456943e+000 136 83 55
5.064880e-002 -2.412022e-001 -7.376126e+000 179 140 125
5.864494e-002 -2.419363e-001 -7.395078e+000 62 26 10
-1.874021e-001 -1.510726e-001 -7.630428e+000 225 216 199
-9.595812e-001 -3.854268e-001 -6.706543e+000 210 105 77
-7.727172e-001 -2.137562e-001 -7.133528e+000 118 24 13
-3.032190e-001 7.709633e-003 -7.880564e+000 236 66 59
-4.134568e-001 -1.550465e-001 -7.231136e+000 55 14 12
-1.049466e+000 -2.565922e-001 -6.517760e+000 58 35 19
-1.008040e+000 -2.919238e-001 -6.569355e+000 183 155 108
-4.838520e-001 -5.985314e-002 -7.213459e+000 68 29 22
5.920996e-002 1.018363e-001 -7.542701e+000 123 57 41
-1.301755e-001 1.522603e-001 -7.638471e+000 103 4 14
5.024934e-001 5.565806e-001 -6.922431e+000 232 226 214
5.412589e-002 5.661433e-001 -7.227518e+000 195 185 170
7.658806e-001 -9.600424e-001 -6.742612e+000 252 109 114
3.262753e-001 -5.996704e-001 -7.364291e+000 149 33 27
-3.134392e-001 -3.599601e-001 -7.227931e+000 175 160 145
-5.542284e-001 -4.350588e-001 -6.744965e+000 251 211 166
-6.660778e-001 -3.465568e-001 -7.128111e+000 251 133 90
-6.719573e-001 -3.120867e-001 -7.182446e+000 103 23 14
-5.664540e-001 -2.854773e-001 -7.239813e+000 107 27 23
-5.032519e-002 -2.616902e-001 -7.359211e+000 160 125 103
-5.231024e-001 -1.943057e-001 -7.224719e+000 77 28 27
-9.722409e-001 -3.431375e-001 -6.577821e+000 255 185 152
-1.048131e+000 -3.081057e-001 -6.606577e+000 59 14 11
-4.253510e-001 -2.444545e-002 -7.241077e+000 95 37 29
-1.077039e+000 -2.507407e-001 -6.500123e+000 53 45 39
-6.197007e-001 -6.327155e-002 -6.918494e+000 120 53 37
-5.758554e-001 -4.478340e-002 -7.009068e+000 75 28 21
-4.206307e-001 7.138486e-003 -7.131175e+000 90 52 44
-2.908601e-001 1.160730e-001 -7.091792e+000 128 110 96
-4.361974e-002 3.758858e-001 -7.281980e+000 175 164 146
-1.950759e-001 4.936478e-001 -7.492851e+000 164 151 132
-6.592929e-001 6.033625e-001 -8.255595e+000 17 12 12
6.980213e-001 6.331302e-001 -6.592563e+000 240 220 205
1.913072e-001 7.272077e-001 -7.246853e+000 253 253 241
1.330654e-001 8.939187e-001 -7.278359e+000 211 204 189
-5.410363e-002 1.141826e+000 -7.437714e+000 223 62 64
8.183653e-001 -1.203908e+000 -7.315195e+000 221 201 150
3.803150e-001 -9.096145e-001 -7.423849e+000 231 209 152
2.774433e-001 -8.681757e-001 -7.399281e+000 253 254 216
9.559246e-001 -1.127294e+000 -6.773081e+000 92 86 90
9.106668e-001 -1.054136e+000 -6.768947e+000 35 10 16
2.882755e-001 -8.117420e-001 -7.378137e+000 254 254 202
3.601477e-001 -7.508348e-001 -7.349404e+000 196 38 40
-2.208307e-001 -4.828170e-001 -7.832511e+000 33 13 22
9.002907e-001 -9.249457e-001 -6.685670e+000 252 115 117
6.318945e-001 -7.755286e-001 -6.755251e+000 238 235 217
2.572120e-001 -5.436966e-001 -7.362461e+000 120 17 20
-9.795134e-001 -3.620002e-001 -6.694908e+000 64 11 10
-8.644960e-001 -3.476957e-001 -6.794246e+000 140 53 25
-1.024309e+000 -2.624683e-001 -6.532655e+000 50 26 15
-7.452269e-001 -1.311929e-001 -7.019830e+000 90 26 15
-4.498106e-001 -3.715128e-002 -7.215814e+000 105 77 70
2.856756e-002 2.125741e-001 -7.039939e+000 162 150 136
8.917758e-001 3.961090e-001 -6.445466e+000 243 228 207
7.042600e-001 6.325329e-001 -6.591290e+000 238 216 201
-2.178964e-001 9.088066e-001 -7.702347e+000 185 171 155
-2.391074e-001 9.016355e-001 -7.707622e+000 185 171 155
4.348727e-001 1.059921e+000 -6.949832e+000 242 234 218
6.385027e-002 1.343577e+000 -7.310288e+000 222 60 65
-5.105018e-002 1.347602e+000 -7.367300e+000 43 28 32
5.392526e-001 -9.379777e-001 -7.255589e+000 77 69 67
9.622998e-001 -1.078343e+000 -6.713357e+000 253 107 107
9.653016e-001 -1.078997e+000 -6.712340e+000 253 107 107
7.461047e-001 -8.579477e-001 -6.766352e+000 213 57 66
-2.282520e-001 -3.993454e-001 -7.309967e+000 245 238 227
-2.327374e-001 -3.992101e-001 -7.310463e+000 245 238 227
-3.425622e-002 -4.043086e-001 -7.484424e+000 184 121 78
-5.289876e-001 -4.519178e-001 -7.024854e+000 253 230 176
-5.339345e-001 -4.522648e-001 -7.025906e+000 253 230 176
-1.089465e-001 -3.331364e-001 -7.418521e+000 161 141 119
-6.590159e-001 -3.446197e-001 -7.116742e+000 254 143 100
-7.373336e-001 -2.642918e-001 -7.155618e+000 112 24 15
-5.611766e-002 1.789442e-001 -7.069623e+000 235 226 212
1.973996e-001 2.547280e-001 -6.985961e+000 254 250 237
-5.313903e-001 4.666846e-001 -8.022446e+000 22 6 19
-5.687007e-001 5.321112e-001 -8.095015e+000 222 199 188
7.256697e-001 8.089303e-001 -6.727046e+000 239 232 218
1.097981e-001 1.346777e+000 -7.260610e+000 49 25 29
2.478863e-001 -8.975033e-001 -7.471666e+000 225 203 142
1.021780e+000 -1.131481e+000 -6.788021e+000 98 91 93
2.602176e-001 -8.425918e-001 -7.363787e+000 62 59 57
2.975174e-001 -7.621754e-001 -7.355873e+000 199 42 43
-4.864107e-001 -5.003705e-001 -7.027319e+000 157 29 32
-1.209211e-001 -4.456594e-001 -7.286288e+000 166 51 50
-1.221591e-001 -4.455565e-001 -7.287349e+000 166 51 50
-5.458336e-001 -4.410401e-001 -6.852185e+000 254 225 167
-6.418618e-002 -1.767744e-001 -7.426476e+000 155 122 101
-9.073756e-001 -3.471648e-001 -6.761674e+000 128 37 19
-1.078406e-001 3.435979e-001 -7.310748e+000 209 196 180
9.755986e-001 4.003893e-001 -6.426435e+000 232 217 200
-1.536576e-001 6.521391e-001 -7.404104e+000 237 229 216
-1.536576e-001 6.521391e-001 -7.404104e+000 237 229 216
4.768136e-001 -8.800152e-001 -7.234685e+000 28 18 17
3.174954e-001 -7.484900e-001 -7.269904e+000 118 12 22
-1.311083e-002 -5.502873e-001 -7.699395e+000 203 28 43
-6.498171e-001 -3.848344e-001 -7.095836e+000 210 61 46
-2.893287e-001 -3.349126e-001 -7.301601e+000 141 118 100
-8.426110e-001 -3.968747e-001 -6.707320e+000 210 105 67
-5.695430e-001 -2.108318e-001 -7.262684e+000 119 91 77
-2.071417e-001 3.232153e-001 -7.687439e+000 223 216 198
-1.876558e-001 4.446632e-001 -7.457422e+000 175 161 145
1.188403e-001 5.880850e-001 -7.199776e+000 199 191 172
5.985285e-002 -6.509954e-001 -7.658437e+000 255 103 113
-9.144035e-002 -4.529564e-001 -7.362533e+000 253 247 227
7.374739e-003 -2.759097e-001 -7.401795e+000 82 47 27
-8.185810e-001 -2.842754e-001 -7.003495e+000 163 58 36
-1.926923e-001 1.753322e-001 -7.294492e+000 142 125 109
-2.070249e-001 3.113366e-001 -7.486764e+000 146 128 112
-2.267819e-001 3.596715e-001 -7.532168e+000 220 211 193
-9.911180e-003 1.311840e+000 -7.360294e+000 214 49 55
-6.062985e-001 -4.029456e-001 -7.007643e+000 254 227 176
-3.295666e-001 1.845534e-002 -7.928130e+000 12 7 11
-2.814092e-001 5.782385e-002 -7.403533e+000 170 159 140
-2.005400e-001 1.327754e-001 -7.529487e+000 174 154 143
-2.426216e-001 2.205267e-001 -7.798320e+000 163 26 36
-5.362422e-001 5.554387e-001 -8.050771e+000 210 196 183
-3.879478e-001 2.963973e-001 -8.145835e+000 56 38 34
1.039898e-001 4.254888e-001 -7.187271e+000 166 150 134
7.016113e-001 4.760083e-001 -6.652426e+000 255 255 251
5.254989e-001 5.362676e-001 -7.005512e+000 244 241 226
2.032062e-001 -8.280319e-001 -7.472613e+000 255 254 223
4.251433e-001 -8.972237e-001 -7.278831e+000 57 46 45
3.928375e-001 -8.920303e-001 -7.284440e+000 57 46 45
2.647365e-001 -5.988281e-001 -7.305553e+000 117 21 30
-2.643157e-001 -2.976101e-001 -7.991405e+000 41 25 26
-7.104610e-001 -3.004954e-001 -6.546294e+000 225 117 70
-7.961394e-002 -2.095410e-001 -7.761784e+000 230 221 204
-1.278093e-001 6.635673e-001 -7.417773e+000 217 205 191
-1.278093e-001 6.635673e-001 -7.417773e+000 217 205 191
9.834546e-001 -1.120555e+000 -6.695525e+000 246 92 98
8.365477e-001 -1.005615e+000 -6.786981e+000 235 87 93
-9.061690e-001 -3.821629e-001 -6.737902e+000 212 112 79
-7.932165e-001 -2.285227e-001 -6.935825e+000 121 40 23
-7.541003e-001 -1.578976e-001 -7.183108e+000 85 25 19
-9.094524e-001 -2.061544e-001 -6.419648e+000 208 188 130
-9.094524e-001 -2.061544e-001 -6.419648e+000 208 188 130
-1.059085e-001 7.068229e-002 -7.522649e+000 115 47 36
7.454947e-001 5.875414e-001 -6.583039e+000 217 75 70
9.534039e-001 6.240010e-001 -6.424035e+000 54 29 24
9.466250e-002 1.193439e+000 -7.304314e+000 240 223 206
9.637777e-001 -1.100277e+000 -6.736884e+000 51 36 39
-1.171773e-001 -4.280655e-001 -7.209063e+000 233 226 208
-4.984104e-002 -4.652445e-001 -7.283163e+000 61 46 36
-5.049905e-001 -3.435901e-001 -7.232202e+000 198 185 174
-7.569389e-001 -3.924511e-001 -6.754684e+000 174 56 25
-6.765993e-001 -3.729312e-001 -6.770878e+000 197 66 26
-9.689762e-001 -3.708630e-001 -6.661464e+000 234 132 91
-9.250278e-001 -3.697643e-001 -6.738648e+000 154 53 29
-9.078928e-001 -3.542831e-001 -6.709959e+000 123 25 9
-8.796106e-001 -3.358887e-001 -6.737168e+000 103 22 4
-7.828782e-001 -2.686484e-001 -6.931467e+000 107 25 13
-6.835850e-001 -1.212928e-001 -7.074692e+000 79 15 11
-3.485103e-001 7.906155e-002 -7.064011e+000 66 28 19
7.102212e-001 6.608683e-001 -6.617381e+000 167 140 123
-1.375337e-001 -5.710437e-001 -7.598217e+000 243 56 61
-4.557233e-001 -5.161794e-001 -6.827311e+000 234 88 39
-1.307387e-001 -4.517206e-001 -7.228699e+000 214 204 193
-7.509444e-001 -1.714300e-001 -7.177947e+000 153 74 49
-4.345494e-001 -8.922246e-002 -7.173445e+000 55 13 14
-9.599775e-001 -2.299205e-001 -6.430336e+000 148 124 86
-4.438790e-001 1.447564e-002 -7.115125e+000 59 14 9
-3.196303e-001 9.335194e-002 -7.118879e+000 126 111 98
