ply
format ascii 1.0
element face 0
property list uchar int vertex_indices
element vertex 870
property float x
property float y
property float z
property uchar diffuse_red
property uchar diffuse_green
property uchar diffuse_blue
end_header
-5.579700e-001 -2.151341e-001 -6.640884e+000 251 139 101
-1.884587e-001 -3.594789e-001 -6.852187e+000 191 183 174
-1.778829e+000 -3.548052e+000 -1.049986e+001 41 35 37
8.204470e-001 -2.684594e-001 -6.527235e+000 139 122 110
4.549255e-001 -1.109909e+000 -7.303572e+000 241 221 182
-2.104968e-002 1.261761e+000 -7.351506e+000 186 39 40
-3.041501e-001 -2.539894e-002 -7.914018e+000 35 27 26
-3.041501e-001 -2.539894e-002 -7.914018e+000 35 27 26
-5.746937e-001 -4.269345e-002 -6.862608e+000 69 16 8
-5.746937e-001 -4.269345e-002 -6.862608e+000 69 16 8
8.045913e-001 5.326705e-001 -6.576047e+000 214 57 66
-6.616217e-001 -1.758596e-001 -6.567826e+000 147 63 39
4.111087e-001 4.779934e-002 -6.839016e+000 131 119 107
-6.618644e-002 -2.270459e-001 -6.853032e+000 253 250 243
7.732428e-002 -1.998635e-001 -6.895208e+000 232 225 219
-7.128899e-001 -3.329381e-001 -6.560777e+000 43 35 33
-2.391963e-001 -4.066483e-001 -6.845904e+000 232 225 221
3.643273e-001 -4.393925e-001 -6.891482e+000 196 183 131
-1.691391e+000 -3.668029e+000 -1.054682e+001 53 47 47
2.457667e-002 1.124841e+000 -7.336148e+000 203 42 49
-3.209865e-001 -1.949961e-001 -6.719415e+000 227 116 77
-9.346042e-002 -2.014034e-001 -6.826353e+000 227 224 219
-4.638247e-001 4.310618e-001 -7.863262e+000 213 200 191
7.890594e-001 5.057235e-001 -6.583118e+000 174 33 44
4.069939e-002 -5.172734e-002 -6.886633e+000 159 149 140
3.811256e-002 -4.385849e-002 -6.867368e+000 159 149 140
-1.934699e-001 -4.038848e-001 -6.888698e+000 242 236 232
9.966538e-001 1.611535e-001 -6.368783e+000 195 35 45
9.966538e-001 1.611535e-001 -6.368783e+000 195 35 45
4.505010e-001 -3.227133e-001 -6.900088e+000 244 237 231
1.073493e+000 2.071525e-002 -6.248260e+000 229 83 91
6.929904e-001 -8.308173e-001 -6.742237e+000 219 47 59
2.427233e-001 9.066280e-001 -7.226547e+000 223 217 213
-4.896541e-001 -2.127137e-001 -6.700337e+000 249 132 87
5.971182e-001 -5.862787e-001 -6.735813e+000 229 217 208
-6.081260e-001 -1.521017e-001 -6.708054e+000 94 33 26
3.441725e-001 5.217113e-002 -6.829597e+000 199 190 181
4.612992e-001 2.767703e-002 -6.730272e+000 146 134 120
4.612992e-001 2.767703e-002 -6.730272e+000 146 134 120
4.847209e-001 -1.843147e-002 -6.677952e+000 214 207 199
5.215243e-001 -4.241861e-001 -6.725010e+000 178 156 106
8.815668e-002 1.248277e+000 -7.245568e+000 203 48 54
-2.066427e-001 2.446064e-001 -7.563255e+000 184 174 162
-2.937951e-001 4.680543e-002 -7.405461e+000 220 212 205
-1.422259e-001 6.112395e-001 -7.528196e+000 168 162 150
-1.422259e-001 6.112395e-001 -7.528196e+000 168 162 150
5.032484e-001 -7.848507e-001 -6.912391e+000 251 250 245
-6.573256e-001 -1.565907e-001 -6.761820e+000 65 17 12
6.229309e-001 -3.655193e-001 -6.662521e+000 100 85 64
7.249890e-001 -9.267129e-001 -6.713075e+000 50 36 36
-4.139861e-001 2.298874e-001 -7.689993e+000 38 27 27
-3.279564e-001 -1.081889e-001 -6.793752e+000 66 11 8
3.070853e-001 -1.500323e-001 -6.889699e+000 245 242 234
3.076720e-001 -1.490866e-001 -6.887245e+000 245 242 234
-4.574004e-002 -6.758576e-001 -7.031287e+000 35 30 27
-8.790951e+000 -1.027339e+001 -2.353588e+001 23 19 20
-1.921579e+000 -3.291109e+000 -1.071645e+001 38 32 34
6.609909e-001 -1.498718e-001 -6.569265e+000 228 220 210
-4.273721e+000 -6.574874e+000 -1.530449e+001 30 28 33
-4.357216e+000 -6.617195e+000 -1.521105e+001 165 161 175
-5.961060e+000 -8.279992e+000 -1.706074e+001 9 7 10
-5.405519e-002 2.184441e-001 -7.140790e+000 145 132 123
-4.924927e-001 -9.431081e-002 -6.747400e+000 121 37 16
-4.812355e-001 -1.319892e-001 -6.700707e+000 129 34 14
8.067414e-001 -9.918089e-001 -6.778512e+000 48 30 30
3.672542e-001 1.098146e+000 -7.034185e+000 214 50 57
5.649978e-001 5.963890e-001 -6.826866e+000 204 194 185
-5.992970e+000 -7.218201e+000 -1.816340e+001 84 84 92
-5.714879e+000 -8.879620e+000 -1.695502e+001 12 10 16
8.225181e-002 1.116644e+000 -7.253361e+000 232 192 168
1.801481e-001 6.544687e-001 -7.256221e+000 181 174 164
3.078651e-001 1.092289e+000 -7.060081e+000 203 32 40
-5.620715e-002 5.062996e-001 -7.341036e+000 208 197 191
-5.620715e-002 5.062996e-001 -7.341036e+000 208 197 191
7.328342e-002 5.617064e-001 -7.212201e+000 176 167 154
5.313420e-001 5.903618e-001 -6.877457e+000 187 181 170
-8.858406e-002 2.221858e-001 -7.230333e+000 145 135 125
1.775440e-001 2.593824e-001 -7.019234e+000 122 108 97
-4.940879e-001 -7.539195e-002 -6.755534e+000 144 65 43
-2.623426e-001 -5.608902e-002 -6.861192e+000 90 21 15
-6.096458e+000 -7.730057e+000 -1.797119e+001 79 79 80
-4.766003e+000 -6.215342e+000 -1.524929e+001 101 99 108
-4.646113e+000 -6.961987e+000 -1.532608e+001 156 154 168
-3.917995e+000 -7.369764e+000 -1.505640e+001 84 87 96
-1.567164e+000 -4.322152e+000 -1.046806e+001 50 44 48
-1.985954e-001 8.583978e-001 -7.671536e+000 161 147 139
-7.834460e-002 2.486442e-001 -7.227981e+000 130 118 106
2.423040e-001 2.684365e-001 -7.089561e+000 127 115 102
-5.970737e+000 -7.544630e+000 -1.754264e+001 80 79 84
-2.152680e+000 -3.184435e+000 -1.090151e+001 55 50 54
-5.347630e+000 -8.619006e+000 -1.709392e+001 120 121 139
-1.518962e+000 -4.411071e+000 -1.040889e+001 53 48 52
5.617984e-001 5.615583e-001 -6.864260e+000 153 143 133
-2.983842e-001 -1.834208e-002 -6.860760e+000 70 20 17
8.211755e-001 3.700915e-001 -6.470214e+000 252 81 93
7.726929e-001 7.250661e-001 -6.554080e+000 21 1 4
-5.959134e-001 6.344374e-001 -8.165077e+000 38 24 20
2.393204e-001 2.335090e-002 -6.853014e+000 244 240 231
5.548868e-001 9.251843e-002 -6.778777e+000 189 175 165
-4.626952e+000 -6.636158e+000 -1.542951e+001 142 138 153
-4.047289e+000 -7.657100e+000 -1.507592e+001 11 7 14
-5.583262e+000 -7.385277e+000 -1.711037e+001 10 10 12
5.937441e-001 9.953370e-001 -6.728016e+000 186 44 53
-5.970717e+000 -7.394431e+000 -1.748540e+001 80 77 84
-1.618453e-001 1.222015e-001 -6.993701e+000 108 94 83
-1.497464e-001 5.283181e-002 -6.917349e+000 162 147 140
-1.497464e-001 5.283181e-002 -6.917349e+000 162 147 140
-4.220437e+000 -6.322671e+000 -1.529617e+001 47 45 48
2.733285e-001 2.146996e-001 -6.924960e+000 143 130 114
-4.990991e-001 -1.428698e-001 -6.716599e+000 126 37 16
-5.292529e-001 -2.401342e-001 -6.672885e+000 144 27 9
-5.363280e+000 -8.870843e+000 -1.693214e+001 116 124 147
5.089333e-001 -4.006693e-001 -6.796429e+000 147 133 108
9.642849e-001 -2.738438e-001 -6.403436e+000 141 114 76
-5.885425e+000 -7.257817e+000 -1.797279e+001 66 66 74
-4.578268e+000 -6.108307e+000 -1.542547e+001 136 136 146
-2.110189e+000 -2.618196e+000 -1.077983e+001 40 36 37
6.505755e-001 4.804379e-001 -6.678561e+000 235 232 223
6.617934e-001 4.976907e-001 -6.657427e+000 236 231 227
-4.419016e-001 -1.291660e-001 -6.754888e+000 90 20 11
-5.855622e+000 -8.756521e+000 -1.694773e+001 3 4 8
4.273756e-001 -4.237492e-002 -6.733066e+000 199 192 174
-1.723790e+000 -3.761912e+000 -1.058932e+001 28 22 24
4.402623e-001 -1.134668e+000 -7.318515e+000 42 29 20
-1.381677e+000 -5.341138e+000 -1.018399e+001 22 15 17
-1.191083e-001 1.148204e+000 -7.526773e+000 142 21 30
-2.182975e-002 1.287760e+000 -7.312919e+000 33 14 15
-2.477915e-001 4.862420e-001 -7.723368e+000 192 184 173
4.965294e-001 1.109722e+000 -6.856912e+000 185 40 45
7.859244e-002 3.640877e-001 -7.161630e+000 136 124 112
-5.767776e+000 -7.095422e+000 -1.797832e+001 66 66 78
-2.139045e+000 -2.474086e+000 -1.074522e+001 36 30 30
-4.792792e+000 -6.189945e+000 -1.545341e+001 130 130 139
-4.712169e+000 -6.371659e+000 -1.506099e+001 122 120 130
-4.580989e+000 -6.438711e+000 -1.525770e+001 137 137 149
-3.940325e-001 -2.902470e-002 -6.844703e+000 56 15 9
-8.231211e-001 -2.234528e-001 -6.514952e+000 136 109 66
9.786174e-002 2.847241e-002 -6.902817e+000 170 160 148
-5.852471e+000 -8.445006e+000 -1.694649e+001 105 103 115
-2.253935e-001 -2.518008e-001 -6.899922e+000 233 209 149
-1.916072e+000 -3.293521e+000 -1.070627e+001 40 34 38
-1.871617e+000 -3.409745e+000 -1.066701e+001 44 40 41
-4.720695e-001 -4.021607e-001 -6.685237e+000 164 143 123
-3.288736e-001 -4.237582e-001 -6.760946e+000 234 229 225
-2.934967e-001 -4.386351e-001 -6.800467e+000 251 251 246
5.726940e-001 -7.100071e-001 -6.846217e+000 174 161 141
8.058407e-001 -9.610631e-001 -6.820368e+000 235 82 88
-1.333347e+000 -5.341566e+000 -1.020656e+001 111 101 102
-1.333221e+000 -5.317437e+000 -1.018423e+001 111 101 102
3.153892e-001 1.259409e+000 -6.986980e+000 27 10 13
-2.995871e-001 7.818313e-002 -6.962623e+000 78 42 41
-5.968342e+000 -7.995680e+000 -1.700396e+001 11 9 17
-4.801044e+000 -6.433505e+000 -1.534022e+001 118 116 128
-2.329830e-001 -4.400902e-002 -6.893899e+000 112 43 32
-4.490969e+000 -6.706490e+000 -1.504749e+001 109 109 117
-1.956058e+000 -3.148549e+000 -1.071145e+001 49 44 46
-3.198685e-001 -1.993693e-001 -6.726427e+000 228 115 76
-9.122297e-002 -4.584690e-001 -6.968984e+000 40 33 25
5.462696e-002 -2.582005e-001 -6.887762e+000 199 189 179
1.035797e+000 2.952774e-001 -6.329564e+000 32 10 16
1.097431e+000 1.353881e-001 -6.275909e+000 32 18 19
-1.435988e+000 -4.726459e+000 -1.037744e+001 52 46 48
-1.384382e+000 -4.790979e+000 -1.026851e+001 45 40 44
-1.340833e+000 -4.783032e+000 -1.014335e+001 49 43 43
6.681960e-001 -9.135954e-001 -6.804108e+000 234 96 96
-3.987389e-001 6.924850e-001 -7.881720e+000 194 172 166
-1.927060e-001 3.462152e-001 -7.381947e+000 126 114 102
-1.927060e-001 3.462152e-001 -7.381947e+000 126 114 102
4.311682e-001 5.482153e-001 -6.972356e+000 184 177 167
4.311682e-001 5.482153e-001 -6.972356e+000 184 177 167
-5.451805e-001 -1.912704e-001 -6.708681e+000 180 74 42
3.710087e-001 -2.845135e-001 -6.928922e+000 216 210 197
3.739546e-001 -5.064496e-001 -6.921181e+000 251 251 241
-1.318360e+000 -5.250504e+000 -1.023240e+001 19 9 10
-2.323215e-001 1.643217e-002 -7.755396e+000 89 8 9
-5.694553e-001 -2.622889e-001 -6.712410e+000 212 107 66
1.115798e+000 -3.489262e-002 -6.273148e+000 32 11 18
-1.400181e+000 -5.168417e+000 -1.016814e+001 62 51 49
4.356202e-001 1.137552e+000 -6.913013e+000 211 51 56
-1.877098e-001 4.918618e-001 -7.668053e+000 203 195 184
-2.450842e-001 1.180089e-001 -7.842127e+000 132 17 24
5.805886e-001 -7.695069e-001 -6.804185e+000 45 34 32
1.017243e-001 2.986408e-001 -7.079840e+000 132 117 106
-3.877123e+000 -7.527590e+000 -1.533130e+001 15 13 18
9.181831e-001 2.839800e-001 -6.442877e+000 226 61 70
1.779618e-001 -5.004609e-001 -6.971055e+000 71 45 31
1.762490e-001 -4.936834e-001 -6.964930e+000 71 45 31
8.927461e-001 -3.020660e-001 -6.392669e+000 199 176 122
-2.117199e-001 1.072048e+000 -7.619314e+000 201 50 57
1.976949e-001 5.971237e-001 -7.177262e+000 140 128 116
4.751036e-001 -3.772310e-001 -6.876559e+000 99 84 64
7.031658e-001 -2.495944e-001 -6.599054e+000 255 252 247
-3.308494e-001 -1.580947e-001 -7.066674e+000 120 52 33
1.441655e-001 1.010257e+000 -7.263226e+000 219 212 206
8.397974e-001 1.450649e-001 -6.479914e+000 225 214 208
7.253758e-002 1.123013e+000 -7.281169e+000 219 54 62
2.214476e-001 7.120314e-001 -7.192633e+000 200 193 185
6.776759e-002 6.033765e-001 -7.244774e+000 161 147 136
-1.399816e-001 1.792887e-001 -7.155183e+000 140 127 113
5.251593e-001 5.218428e-001 -6.835711e+000 140 128 115
-1.672649e-001 3.703227e-002 -6.959107e+000 125 111 102
-1.368644e-001 1.815259e-002 -6.899336e+000 135 120 112
-9.129089e-001 -2.810155e-001 -6.641162e+000 141 75 51
-3.262498e-001 -1.041209e-001 -6.833344e+000 93 35 28
-8.253547e-001 -2.313292e-001 -6.501839e+000 77 23 21
-7.597450e-001 -2.493740e-001 -6.537947e+000 114 28 9
-3.162600e-001 -4.078883e-001 -6.781690e+000 183 174 167
-1.041886e-002 -3.992077e-001 -6.908010e+000 196 180 165
4.991505e-001 -3.061629e-001 -6.779932e+000 161 145 128
-1.276737e-001 4.358294e-001 -7.457703e+000 164 153 143
5.253179e-002 6.423088e-001 -7.261298e+000 222 212 203
2.396096e-001 6.957500e-001 -7.170969e+000 190 181 172
-7.496081e-001 -1.822757e-001 -7.100846e+000 141 63 46
2.866633e-001 3.231950e-001 -7.036938e+000 162 150 138
7.577194e-001 4.987217e-001 -6.611308e+000 209 201 191
-1.711046e+000 -3.827166e+000 -1.060797e+001 29 25 26
-7.411640e-001 -3.366887e-001 -6.560107e+000 224 114 84
8.789904e-001 -6.908006e-001 -6.488071e+000 249 96 104
-2.153911e-001 9.579427e-001 -7.721192e+000 171 28 35
-2.779711e-001 -7.526535e-002 -6.862163e+000 84 20 11
-8.516660e-001 -3.338852e-001 -6.584224e+000 255 163 129
-3.045391e-001 -1.494004e-001 -6.746297e+000 116 44 32
-3.045391e-001 -1.494004e-001 -6.746297e+000 116 44 32
-1.565128e-001 -2.840001e-001 -6.889422e+000 240 231 226
-1.509811e-001 -1.963653e-001 -6.837003e+000 227 222 216
-6.309381e-002 -1.761854e-001 -6.826524e+000 253 248 242
1.990647e-001 -9.093953e-002 -6.844855e+000 221 214 206
8.541449e-001 5.917408e-001 -6.479971e+000 203 58 66
-4.053974e-001 -3.954519e-001 -6.680176e+000 198 194 187
-4.612147e-002 -4.942495e-001 -7.011267e+000 36 27 22
3.960230e-001 -6.601694e-001 -6.967767e+000 252 252 240
-1.590560e-002 1.253837e+000 -7.378481e+000 190 39 46
5.576480e-001 5.357614e-001 -6.811564e+000 171 159 145
6.883626e-001 5.719441e-001 -6.606068e+000 248 249 240
-3.767426e-001 -3.870329e-001 -6.696011e+000 222 213 207
7.805692e-001 4.254724e-001 -6.534769e+000 184 169 156
4.967729e-001 5.610967e-002 -6.692401e+000 191 181 168
4.304125e-001 -1.225539e-001 -6.718838e+000 217 210 200
5.788101e-001 -7.297059e-001 -6.787946e+000 56 42 40
5.788101e-001 -7.297059e-001 -6.787946e+000 56 42 40
-4.865832e-001 -2.741384e-002 -7.065425e+000 44 12 13
7.195286e-001 7.883717e-001 -6.623857e+000 88 7 15
-5.216241e-001 -3.541674e-001 -6.689728e+000 247 188 154
-6.521586e-002 -1.309488e-001 -6.813899e+000 239 232 229
-1.056060e-001 -3.172373e-001 -6.893032e+000 66 47 26
4.790249e-001 -1.290279e-001 -6.699440e+000 230 226 217
-4.387952e-001 8.121339e-001 -7.976067e+000 195 39 46
4.336629e-001 2.839102e-001 -7.001190e+000 141 129 119
7.807504e-001 6.849278e-001 -6.533419e+000 237 81 90
-8.127167e-001 -1.874321e-001 -6.511475e+000 74 22 10
-1.846652e-001 -9.779057e-002 -6.832345e+000 207 188 180
7.336970e-001 5.358450e-001 -6.596120e+000 253 253 251
-5.484228e-001 -3.475451e-001 -6.733993e+000 247 184 142
-3.917726e-001 -3.914990e-001 -6.700798e+000 190 178 171
-3.447725e-001 -3.271413e-001 -6.719977e+000 167 144 133
4.087467e-001 -3.913592e-001 -6.807685e+000 254 252 203
9.983054e-001 1.896661e-001 -6.355017e+000 207 45 57
-1.741556e-001 3.846547e-001 -7.522311e+000 133 121 109
3.112949e-001 4.510118e-001 -7.114462e+000 187 177 168
4.304313e-001 2.892478e-001 -6.994664e+000 141 130 119
6.906503e-001 7.225163e-001 -6.564826e+000 243 82 92
8.857678e-001 -5.283666e-001 -6.503457e+000 244 230 198
8.286843e-002 1.292075e+000 -7.327022e+000 14 3 9
-4.668968e-001 5.522255e-001 -7.996467e+000 188 177 168
-3.860162e-001 2.669347e-001 -7.976455e+000 42 31 29
1.508445e-001 4.992853e-001 -7.163974e+000 231 222 216
5.099782e-001 -7.719552e-001 -6.888117e+000 254 255 247
1.054269e+000 1.468803e-001 -6.309536e+000 221 60 68
9.992906e-001 -2.175831e-001 -6.387003e+000 77 11 15
-1.431307e-001 6.540553e-001 -7.443302e+000 169 160 145
-1.477488e-001 6.513984e-001 -7.431644e+000 169 160 145
3.303135e-001 -3.773614e-001 -6.927240e+000 80 62 41
8.222944e-001 3.096963e-001 -6.481006e+000 255 251 246
9.258604e-001 -6.171444e-001 -6.488484e+000 172 35 40
5.471379e-001 5.176831e-001 -6.792469e+000 136 122 111
-3.650458e-002 -4.666490e-002 -6.897344e+000 136 119 111
-3.357677e-001 -3.760053e-001 -6.765403e+000 169 151 137
3.288506e-001 -5.259163e-001 -6.854144e+000 254 255 246
9.462911e-001 -7.027863e-002 -6.430785e+000 233 226 218
-6.650462e-001 -1.672342e-001 -6.787878e+000 63 22 19
6.798605e-001 5.085529e-001 -6.612701e+000 255 255 251
-4.731045e-002 2.540285e-002 -7.379949e+000 118 104 93
-4.080446e-001 1.564308e-001 -7.878051e+000 39 30 28
1.948376e-001 -2.617591e-001 -6.940502e+000 243 234 225
-7.148209e+000 -6.276383e+000 -2.241645e+001 135 124 120
-4.485209e+000 -6.693631e+000 -1.504256e+001 111 109 122
-4.736968e+000 -6.567156e+000 -1.509146e+001 165 163 172
-4.322575e-001 -4.430699e-002 -6.823382e+000 117 51 38
-1.304801e-001 1.125094e-002 -6.880885e+000 131 116 109
-1.940754e+000 -3.220608e+000 -1.071378e+001 41 35 39
6.222407e-001 2.148698e-001 -6.771628e+000 184 176 165
1.009778e+000 1.336213e-001 -6.359584e+000 227 69 77
1.010124e+000 1.297443e-001 -6.362342e+000 227 69 77
-5.160627e+000 -1.241934e+001 -1.786782e+001 43 59 116
5.588173e-001 5.651485e-001 -6.850793e+000 157 147 136
3.347927e-001 1.777548e-001 -7.024033e+000 131 115 100
1.065180e+000 1.798855e-001 -6.281510e+000 207 52 57
2.189573e-001 9.653358e-001 -7.209401e+000 203 196 188
2.181364e-001 9.659236e-001 -7.206972e+000 203 196 188
-2.272283e-001 1.260364e-001 -7.098634e+000 129 115 104
-1.878566e-001 6.758617e-002 -6.924515e+000 126 112 103
-1.841780e-001 6.091909e-002 -6.935022e+000 126 112 103
1.586767e-001 1.522214e-001 -6.911218e+000 197 187 175
4.348091e-003 6.189156e-001 -7.314860e+000 210 201 191
2.887613e-001 1.099837e+000 -7.126720e+000 209 42 51
-2.772609e-001 1.306592e-002 -6.934072e+000 108 90 76
-2.770568e-001 1.436234e-002 -6.933064e+000 108 90 76
8.500430e-001 5.923214e-001 -6.476438e+000 203 58 65
-2.167149e-001 8.170982e-001 -7.714648e+000 209 200 191
-1.813639e-001 9.161510e-001 -7.606551e+000 187 175 163
-1.619062e-001 4.790616e-001 -7.446819e+000 157 147 137
-2.629031e-001 -2.021824e-001 -7.676135e+000 202 195 182
-2.211004e-001 1.514815e-001 -7.227389e+000 120 106 95
7.510800e-001 7.886423e-001 -6.580464e+000 122 32 36
-6.787602e-001 -2.855470e-001 -6.551108e+000 49 19 16
8.072962e-001 5.375346e-002 -6.793503e+000 239 233 221
5.507005e-001 -5.971286e-001 -6.832463e+000 246 233 178
-6.000224e-001 5.682418e-001 -8.169750e+000 185 42 46
3.009754e-002 1.284224e+000 -7.352544e+000 81 18 27
-1.409561e-001 6.351138e-001 -7.428836e+000 168 159 145
-2.088407e+000 -2.781052e+000 -1.083749e+001 45 39 41
-2.015292e-001 4.388640e-001 -7.599656e+000 173 165 152
-2.921395e-001 -9.336874e-003 -7.842770e+000 107 58 49
-1.965217e-001 3.292681e-001 -7.482644e+000 156 146 134
2.426684e-001 6.611960e-001 -7.268828e+000 219 215 206
5.145881e-001 1.089535e+000 -6.824008e+000 200 52 61
-2.978875e-001 -1.963697e-001 -7.704763e+000 176 169 155
-2.337373e-001 1.570853e-001 -7.244782e+000 152 138 127
-1.748404e+000 -3.668122e+000 -1.048147e+001 62 56 58
-1.744485e+000 -3.810105e+000 -1.059391e+001 64 58 60
-2.420358e-001 1.136090e-001 -7.014210e+000 101 84 76
-6.011908e-001 -7.586474e-002 -6.753424e+000 104 43 33
-9.273354e-001 -2.899606e-001 -6.637589e+000 48 16 11
-1.565442e-001 4.395728e-002 -6.897672e+000 139 127 116
3.522249e-001 1.791257e-001 -7.044546e+000 150 137 120
5.353934e-001 5.311971e-001 -6.791201e+000 126 114 99
-6.084150e-002 -1.800785e-001 -6.831253e+000 252 247 243
-1.541370e+000 -4.516833e+000 -1.017297e+001 45 41 38
3.961584e-001 8.748391e-002 -6.826597e+000 180 168 154
-1.465368e+000 -4.842893e+000 -1.021319e+001 62 54 52
8.067402e-001 5.155156e-001 -6.559498e+000 166 31 38
1.039442e+000 -4.886887e-001 -6.315571e+000 227 95 99
-2.708776e-001 4.974619e-001 -7.726245e+000 224 217 207
1.203057e-001 9.815092e-001 -7.261884e+000 212 205 197
1.207079e-001 9.770924e-001 -7.263970e+000 212 205 197
-2.097685e+000 -3.015619e+000 -1.063360e+001 60 54 54
-2.428941e-001 2.222572e-001 -7.683746e+000 207 189 185
-1.730952e+000 -3.610351e+000 -1.051121e+001 25 19 21
-3.599308e-002 2.410420e-001 -7.139315e+000 121 112 98
-1.686407e+000 -3.693772e+000 -1.054642e+001 53 49 50
-1.681443e+000 -3.631494e+000 -1.047332e+001 53 49 50
-1.904705e-001 9.746071e-002 -7.043855e+000 154 138 127
4.906656e-001 5.039788e-001 -6.921219e+000 160 150 138
7.259184e-001 8.197089e-001 -6.613694e+000 159 45 49
-3.916926e-001 -1.670547e-001 -6.707970e+000 122 30 17
1.766298e-001 2.565692e-002 -6.867347e+000 194 184 175
8.094171e-001 5.507957e-001 -6.532252e+000 217 71 78
-1.241690e+000 -5.281581e+000 -1.020928e+001 73 68 71
1.038277e+000 -4.448956e-001 -6.301875e+000 153 33 37
-2.991017e-001 1.751250e-001 -7.895530e+000 215 73 82
-1.938146e-001 2.443566e-001 -7.396842e+000 174 161 145
-5.226391e-002 4.266173e-001 -7.282471e+000 148 136 124
-2.369016e-001 -1.390960e-001 -7.682963e+000 174 166 153
-4.561540e-001 3.027623e-003 -7.074013e+000 92 38 33
4.243779e-002 -5.192985e-002 -6.896239e+000 164 154 144
4.243779e-002 -5.192985e-002 -6.896239e+000 164 154 144
4.975008e-001 2.030026e-002 -6.700068e+000 198 188 179
5.291680e-001 1.969500e-002 -6.704021e+000 173 161 149
3.356284e-001 -4.480302e-001 -6.910828e+000 119 102 62
-1.643050e-001 4.348951e-001 -7.544325e+000 148 138 126
-3.131531e-001 2.492298e-002 -6.946868e+000 68 23 18
-7.710024e-001 -2.159908e-001 -6.532866e+000 163 82 52
1.997336e-001 5.671833e-002 -6.870559e+000 171 159 147
5.676478e-001 2.964043e-003 -6.687138e+000 197 187 177
4.344422e-001 -1.088153e+000 -7.295037e+000 245 230 171
4.278751e-001 -5.170606e-001 -6.910274e+000 78 60 27
8.064164e-001 1.969070e-001 -6.504857e+000 254 254 246
-1.648457e-001 2.662471e-001 -7.334156e+000 131 117 101
5.508066e-001 1.560997e-001 -6.892472e+000 158 150 139
4.853503e-001 -4.501308e-001 -6.825104e+000 114 96 56
9.250394e-001 2.521712e-001 -6.451921e+000 232 71 79
3.449672e-001 1.024938e+000 -7.003196e+000 240 236 232
5.478158e-001 9.014632e-001 -6.815542e+000 217 57 64
9.945860e-001 -7.671989e-001 -6.484399e+000 244 88 99
-7.872807e-002 1.245068e+000 -7.464336e+000 24 17 18
1.690588e-001 2.583580e-001 -7.068296e+000 136 124 110
5.661949e-001 -5.356478e-001 -6.801904e+000 232 215 159
5.532656e-001 -5.146478e-001 -6.778550e+000 232 215 159
-1.418517e-001 1.050557e+000 -7.494024e+000 144 26 31
-5.587712e-002 7.321070e-001 -7.323535e+000 222 218 209
-5.587712e-002 7.321070e-001 -7.323535e+000 222 218 209
2.602369e-001 8.262084e-001 -7.094594e+000 155 146 131
6.112225e-001 -1.679151e-001 -6.645259e+000 251 248 243
9.171750e-001 -4.082327e-001 -6.425370e+000 216 197 138
9.976921e-003 1.275927e+000 -7.376957e+000 81 15 23
-1.856690e-001 9.633783e-001 -7.452145e+000 178 159 153
-1.458677e-001 8.361202e-001 -7.419177e+000 198 191 181
-2.067511e-001 3.677665e-001 -7.587129e+000 212 201 189
-1.501574e-001 4.779442e-001 -7.522138e+000 165 153 138
-2.409024e-001 -1.363744e-002 -7.753716e+000 159 85 79
-7.780324e-001 -2.919955e-001 -7.060020e+000 38 28 28
-1.808853e-001 1.013634e-001 -7.109614e+000 107 90 80
-5.178023e-001 -2.185640e-001 -6.703134e+000 236 131 101
-5.266319e-001 -2.460808e-001 -6.664502e+000 126 21 1
-4.442462e-001 -1.241661e-001 -6.696513e+000 120 29 12
2.235650e-002 -2.295036e-002 -6.909001e+000 190 177 168
7.374895e-002 -7.999160e-002 -6.941583e+000 170 157 147
-5.007334e-001 -3.850783e-001 -6.692298e+000 95 90 90
-4.685379e-001 -3.868876e-001 -6.675433e+000 212 200 178
-3.197773e-001 -3.747085e-001 -6.761325e+000 175 150 146
-1.251114e-001 -2.944485e-001 -6.857481e+000 163 146 127
9.370155e-002 -5.329380e-001 -7.055644e+000 155 138 120
3.567946e-001 -7.452953e-002 -6.807050e+000 254 250 241
5.486285e-001 8.016499e-002 -6.763774e+000 192 180 166
2.641443e-001 -4.182555e-001 -6.772123e+000 225 219 207
2.641443e-001 -4.182555e-001 -6.772123e+000 225 219 207
4.906740e-001 -1.120948e-001 -6.716100e+000 222 217 211
-1.127099e-001 7.699266e-001 -7.547768e+000 217 210 200
-1.141440e-001 6.819702e-001 -7.415983e+000 164 153 141
-1.170266e-001 4.375088e-001 -7.433731e+000 168 156 147
-2.256503e-001 -1.615510e-002 -7.720706e+000 155 125 114
-1.868586e-001 3.297444e-001 -7.457165e+000 163 151 141
-3.237923e-001 1.112743e-001 -6.959839e+000 121 63 51
-2.980192e-001 7.447465e-002 -6.984462e+000 83 42 40
-3.086602e-001 2.691574e-002 -6.928899e+000 67 27 25
6.819332e-003 2.678655e-001 -6.990053e+000 161 149 136
-1.325111e-001 4.736720e-002 -6.936634e+000 133 120 110
-9.314454e-002 6.004058e-002 -6.929944e+000 137 124 114
-9.749526e-001 -2.337723e-001 -6.523086e+000 146 128 79
-9.749526e-001 -2.337723e-001 -6.523086e+000 146 128 79
-2.944450e-001 -1.559541e-001 -6.776291e+000 114 54 44
-1.800216e-001 -2.821439e-001 -6.897401e+000 87 68 37
9.474318e-003 -2.227513e-002 -6.918013e+000 140 123 116
-7.394414e-001 -3.339047e-001 -6.562433e+000 213 115 70
3.878618e-001 1.054043e-001 -6.844030e+000 166 150 136
-2.957979e-001 -4.101887e-001 -6.772823e+000 252 250 246
-3.241572e-001 -4.084926e-001 -6.744603e+000 229 220 215
3.642500e-001 -2.361450e-001 -6.925771e+000 254 255 247
4.053812e-001 -9.816448e-002 -6.796689e+000 235 231 222
5.244163e-001 7.384987e-002 -6.731229e+000 185 176 161
4.931150e-001 -4.769722e-001 -6.980442e+000 155 139 123
3.920936e-001 -5.545752e-001 -6.936057e+000 229 225 211
3.640702e-001 -5.072467e-001 -6.891456e+000 229 225 211
5.341795e-001 -4.634482e-001 -6.867638e+000 179 172 146
4.778541e-001 -2.560637e-001 -6.804191e+000 177 171 159
9.802871e-001 4.061947e-001 -6.398450e+000 214 70 78
1.021861e+000 3.860818e-001 -6.379234e+000 75 69 66
9.917451e-001 3.577110e-001 -6.347665e+000 239 89 101
7.794904e-001 -1.786783e-001 -6.158571e+000 205 186 130
1.104277e+000 5.315843e-002 -6.256064e+000 226 85 101
1.115739e+000 1.243701e-001 -6.214742e+000 80 71 72
1.115739e+000 1.243701e-001 -6.214742e+000 80 71 72
1.002288e+000 -4.174042e-001 -6.331113e+000 169 147 98
-2.913015e-002 1.084556e+000 -7.367885e+000 210 201 197
-2.029402e-001 5.927597e-001 -7.639363e+000 168 157 144
2.941949e-001 1.187332e+000 -7.090672e+000 222 62 70
2.941949e-001 1.187332e+000 -7.090672e+000 222 62 70
-9.324062e-001 -2.666454e-001 -6.651267e+000 33 9 12
-2.349671e-001 4.299823e-002 -6.908653e+000 131 119 108
2.531039e-001 3.003315e-001 -6.967086e+000 149 135 124
2.531039e-001 3.003315e-001 -6.967086e+000 149 135 124
-9.411433e-001 -1.819968e-001 -6.459038e+000 117 93 57
-9.131865e-001 -2.182422e-001 -6.511151e+000 55 27 11
5.675258e-001 5.985657e-001 -6.824833e+000 209 204 190
-8.263802e-001 -1.953053e-001 -6.486224e+000 187 159 114
-3.180900e-001 -1.925245e-001 -6.730602e+000 238 123 103
-3.180900e-001 -1.925245e-001 -6.730602e+000 238 123 103
-1.546535e-001 -2.878637e-001 -6.893246e+000 243 236 228
-1.466230e-001 -2.038199e-001 -6.847701e+000 226 221 216
-9.461964e-002 -4.268355e-001 -6.953317e+000 248 241 231
-1.059743e-001 -2.968498e-001 -6.876789e+000 71 53 29
7.418778e-001 6.922544e-001 -6.447817e+000 195 43 55
8.948919e-001 4.950949e-001 -6.629486e+000 181 35 45
8.894212e-001 4.976144e-001 -6.414371e+000 17 7 18
5.616031e-001 -6.878611e-001 -6.810343e+000 177 159 139
6.424623e-001 -3.421118e-001 -6.685345e+000 158 147 129
9.354487e-001 2.005973e-001 -6.433292e+000 232 68 73
9.756315e-001 -5.450092e-001 -6.334441e+000 180 33 44
1.273902e+000 5.685717e-001 -6.004477e+000 71 62 63
-1.272997e-001 1.172397e+000 -7.529457e+000 208 70 75
-2.195479e-001 3.605876e-001 -7.582210e+000 198 190 178
-1.740566e-001 4.441812e-001 -7.465838e+000 177 165 153
-2.308299e-001 -1.242304e-001 -7.525141e+000 194 188 174
-2.130084e-001 -4.863720e-002 -6.859804e+000 145 111 102
2.164330e-001 -1.813852e-001 -6.875629e+000 224 218 206
3.997596e-001 -3.374897e-001 -6.892806e+000 98 81 61
5.243597e-001 -3.060877e-001 -6.797303e+000 253 248 240
5.243597e-001 -3.060877e-001 -6.797303e+000 253 248 240
5.953392e-001 -4.733983e-001 -6.848641e+000 202 196 174
1.048016e+000 -6.344473e-004 -6.254169e+000 181 47 54
1.121710e+000 1.408248e-002 -6.263344e+000 224 90 94
-2.142633e-001 2.693071e-001 -7.688172e+000 154 140 129
-1.819748e-001 3.967415e-001 -7.612172e+000 218 211 197
-1.184341e-001 6.766578e-001 -7.380161e+000 133 119 110
3.191446e-001 1.230085e+000 -7.020374e+000 226 64 74
-2.285829e-001 -1.540397e-001 -7.706185e+000 176 166 154
-6.037406e-001 -2.538662e-001 -6.712917e+000 138 43 34
-8.707290e-001 -1.925353e-001 -6.456899e+000 154 114 87
-8.707290e-001 -1.925353e-001 -6.456899e+000 154 114 87
-5.726060e-001 -3.311534e-001 -6.684242e+000 45 35 34
-9.212021e-002 -2.890120e-001 -6.904059e+000 250 250 243
8.562900e-001 4.929350e-001 -6.400411e+000 243 81 94
9.984627e-001 1.703513e-001 -6.369031e+000 203 52 57
9.688556e-001 -4.178628e-001 -6.395112e+000 204 181 131
-2.219656e-002 1.254464e+000 -7.357331e+000 190 42 46
-1.600371e-001 3.194214e-001 -7.626592e+000 145 133 121
-1.600371e-001 3.194214e-001 -7.626592e+000 145 133 121
-1.875371e-001 3.021446e-001 -7.452972e+000 127 115 103
3.407902e-001 5.434047e-001 -7.356340e+000 205 197 186
-3.591510e-001 -3.450419e-002 -6.866718e+000 53 11 13
-2.199738e-001 -1.591424e-001 -6.825050e+000 209 194 183
-2.199738e-001 -1.591424e-001 -6.825050e+000 209 194 183
-2.665508e-001 -2.174059e-001 -6.756991e+000 102 25 19
4.725997e-001 -4.278931e-001 -6.805779e+000 132 110 69
5.823883e-001 -6.671529e-001 -6.776014e+000 229 217 203
7.570189e-001 -7.699089e-001 -6.676909e+000 255 254 249
9.890787e-001 -2.317603e-001 -6.329741e+000 196 171 115
-5.346738e-001 4.974217e-001 -8.039569e+000 43 31 31
-2.957015e-002 1.261574e+000 -7.338950e+000 192 43 49
-1.688276e-001 9.690651e-001 -7.430820e+000 139 121 111
-1.634489e-001 9.575676e-001 -7.447511e+000 139 121 111
-2.020851e-001 5.075929e-001 -7.621512e+000 213 205 194
-1.386962e-001 5.799620e-001 -7.421209e+000 139 125 114
-1.553146e-001 8.999821e-002 -6.974108e+000 126 109 99
6.125099e-001 9.387918e-001 -6.690653e+000 215 63 71
-4.157363e-001 -1.581578e-001 -6.658128e+000 134 30 21
-7.021604e-002 -2.419880e-001 -6.808586e+000 62 39 29
9.725199e-001 2.107116e-001 -6.191712e+000 221 67 75
1.060806e+000 1.264563e-001 -6.270679e+000 221 67 75
-2.603152e-001 1.663936e-001 -7.527421e+000 76 4 11
-2.130676e-001 2.475640e-001 -7.430023e+000 181 169 157
-1.721914e-001 1.757603e-001 -7.276971e+000 120 106 97
-8.701683e-001 -1.505094e-001 -6.480247e+000 34 11 6
-8.701683e-001 -1.505094e-001 -6.480247e+000 34 11 6
7.824487e-001 7.640671e-002 -6.625655e+000 224 217 209
5.434236e-001 -7.251592e-001 -6.742758e+000 116 106 111
5.462854e-001 -7.323637e-001 -6.747224e+000 116 106 111
6.511323e-001 -4.578128e-001 -6.633646e+000 254 254 203
8.178567e-001 -3.006586e-001 -6.508322e+000 84 67 47
1.064650e+000 -8.178156e-002 -6.287850e+000 249 94 102
-4.739986e-001 5.436986e-001 -7.985457e+000 189 179 167
-6.890410e-002 1.180146e+000 -7.448059e+000 175 38 46
-1.805564e-002 -1.847664e-001 -6.838931e+000 231 223 220
4.606449e-001 -5.313389e-001 -6.816455e+000 145 125 91
1.070702e+000 1.272287e-001 -6.322260e+000 228 73 81
9.055561e-001 -6.003673e-001 -6.470687e+000 166 35 40
-2.131264e-001 9.027285e-001 -7.592610e+000 167 153 140
-1.361758e-001 8.421679e-001 -7.455461e+000 218 214 205
-5.287114e-001 -1.037156e-001 -6.757150e+000 125 32 14
3.459776e-001 -5.725526e-001 -6.908384e+000 228 224 210
7.632195e-001 -1.631033e-001 -6.515890e+000 238 233 227
-1.226001e-001 -2.325882e-001 -6.898632e+000 241 238 233
8.101204e-001 4.728531e-001 -6.499752e+000 148 26 33
-3.411856e-001 -6.617765e-001 -7.048663e+000 161 25 25
3.633647e-001 2.050765e-001 -7.016785e+000 122 109 93
9.771694e-001 8.421181e-002 -6.195765e+000 193 56 64
-3.233826e-001 -1.541667e-001 -7.073605e+000 56 14 15
-1.396693e-001 1.026838e+000 -6.562938e+000 209 200 194
-1.969839e-001 1.756980e-001 -7.161209e+000 137 127 117
-4.549858e+000 -7.662348e+000 -1.574523e+001 129 128 134
-4.766284e-001 -3.677064e-001 -6.582961e+000 99 81 63
-8.848344e+000 -9.558771e+000 -2.260050e+001 110 99 97
3.677701e-003 1.267420e+000 -7.363664e+000 78 8 14
-1.603633e-001 5.317396e-001 -7.576942e+000 155 145 133
-2.565796e-001 -9.209536e-004 -7.816692e+000 87 7 6
-2.422550e-001 -2.890901e-002 -7.856735e+000 87 7 6
-2.705353e-001 -2.205032e-001 -7.770538e+000 211 203 192
-1.632049e-001 4.658092e-002 -6.969592e+000 152 136 128
-3.112047e-001 -7.780821e-002 -6.853024e+000 85 19 7
-5.346324e-001 -2.335226e-001 -6.685142e+000 147 20 3
7.623187e-001 7.601805e-001 -6.557355e+000 221 83 87
3.985554e-001 -6.219021e-001 -6.957602e+000 227 223 210
3.922191e-001 -6.117736e-001 -6.947799e+000 227 223 210
9.041607e-001 2.772370e-001 -6.461386e+000 250 87 97
-3.036714e-001 5.738617e-002 -6.966078e+000 92 43 39
-1.218042e+000 -5.271681e+000 -1.014139e+001 14 10 13
8.552163e-001 5.666126e-001 -6.510903e+000 214 65 75
1.139471e+000 2.756728e-001 -6.221225e+000 92 85 85
8.427159e-001 -6.406121e-001 -6.454957e+000 250 105 111
-3.650215e-001 7.547960e-001 -7.811082e+000 205 189 180
-2.465576e-001 1.010831e+000 -7.706202e+000 175 28 34
-1.681504e+000 -3.659719e+000 -1.050837e+001 49 45 46
-1.697918e+000 -3.964012e+000 -1.058929e+001 59 53 57
3.091290e-003 -1.496294e-002 -6.945803e+000 137 120 112
9.116178e-002 5.883777e-002 -6.933236e+000 200 190 178
2.933825e-001 1.260149e+000 -7.101313e+000 16 2 8
-2.371413e-001 2.165314e-001 -7.692888e+000 206 194 178
-9.287633e-002 3.018204e-001 -6.982419e+000 118 104 93
-3.037933e-001 -4.477619e-002 -6.878759e+000 73 18 22
9.739739e-001 4.760705e-001 -6.405745e+000 67 57 58
-5.755654e-002 1.095242e+000 -7.378840e+000 187 46 45
-1.398749e+000 -5.155633e+000 -1.016038e+001 89 76 67
6.577029e-001 7.497275e-001 -6.722421e+000 207 53 61
5.337539e-001 -3.830351e-001 -6.832301e+000 134 121 104
-3.517448e-001 2.443295e-001 -8.025133e+000 30 36 25
-1.875833e-001 2.983400e-001 -7.454268e+000 127 115 103
-1.240895e+000 -1.157593e+001 -1.050074e+001 57 59 72
-6.016091e-002 1.085765e+000 -7.424196e+000 200 50 59
6.093340e-001 8.174793e-001 -6.770169e+000 220 61 68
6.708050e-001 -7.921990e-001 -6.751397e+000 252 246 237
7.629185e-001 -8.935404e-001 -6.725000e+000 201 64 68
8.549456e-001 -7.714860e-001 -6.597243e+000 253 247 241
1.121982e+000 -1.471467e-001 -6.248623e+000 16 10 14
-2.616295e-001 -1.056087e-001 -7.762518e+000 213 207 195
6.767810e-001 5.091785e-001 -6.609826e+000 254 254 249
-2.765674e-001 -2.349416e-002 -7.821249e+000 171 110 93
-2.055242e-001 -6.731153e-002 -7.682690e+000 197 185 167
6.461935e-002 6.105157e-001 -7.278668e+000 193 185 174
7.276851e-002 6.165478e-001 -7.257088e+000 197 187 175
1.202429e-001 7.520384e-001 -7.137537e+000 181 174 164
-7.411015e-001 -1.712919e-001 -7.082679e+000 122 35 18
-1.438657e+000 -4.802655e+000 -1.032496e+001 29 23 26
-7.101333e-001 -1.960990e-001 -7.074236e+000 99 21 14
-1.552969e-001 1.437353e-001 -7.188019e+000 114 98 85
-8.010947e-002 5.602055e-002 -6.982516e+000 170 157 143
-5.180657e-001 -1.271595e-001 -6.704180e+000 126 31 9
-1.318895e-001 1.420504e-002 -6.879023e+000 135 118 108
2.510995e-001 1.729981e-001 -7.007059e+000 155 141 128
4.077450e-001 -6.227128e-001 -6.934553e+000 252 249 235
4.077450e-001 -6.227128e-001 -6.934553e+000 252 249 235
1.108771e+000 1.221832e-001 -6.285001e+000 32 16 19
9.773464e-001 -6.123355e-001 -6.388511e+000 163 17 27
-1.887284e+000 -3.414896e+000 -1.073293e+001 47 42 46
-1.800757e+000 -3.646041e+000 -1.064364e+001 51 46 50
-1.698180e+000 -3.924620e+000 -1.054971e+001 63 59 60
1.449485e-001 9.509109e-001 -7.280662e+000 208 201 191
5.795086e-002 6.365068e-001 -7.274187e+000 235 226 217
-2.678475e-001 1.124758e-001 -7.099104e+000 128 111 101
-1.368392e+000 -4.904968e+000 -1.028890e+001 69 61 65
-1.220622e+000 -5.232665e+000 -1.020550e+001 43 33 36
-5.418945e-002 5.509449e-002 -6.968735e+000 126 112 99
2.407266e-002 -2.365872e-001 -6.883989e+000 248 244 234
4.664382e-001 1.621346e-001 -6.927292e+000 135 122 105
3.817085e-001 7.793502e-002 -6.811615e+000 191 177 164
3.465746e-001 -3.541449e-002 -6.792134e+000 248 241 231
3.465746e-001 -3.541449e-002 -6.792134e+000 248 241 231
5.880866e-001 -6.886173e-001 -6.822802e+000 231 218 201
1.008692e+000 3.630506e-001 -6.359316e+000 26 10 15
3.922943e-001 -3.746546e+000 -7.794670e+000 179 181 193
1.069853e+000 3.565118e-002 -6.221656e+000 99 87 84
-5.732026e-003 1.285911e+000 -7.303154e+000 70 10 20
-1.489788e-001 6.157151e-001 -7.467598e+000 167 157 146
-1.132311e-001 6.821451e-001 -7.416675e+000 169 157 145
-1.657557e+000 -4.031564e+000 -1.049095e+001 55 49 52
-1.658151e+000 -3.991847e+000 -1.061359e+001 31 25 27
-2.130697e-001 1.772041e-001 -7.326188e+000 155 141 128
-5.934461e-001 -5.289357e-002 -6.901427e+000 101 41 29
-1.286573e+000 -5.267632e+000 -1.035744e+001 78 69 74
-1.335034e+000 -5.302150e+000 -1.017231e+001 124 114 116
-6.032305e-001 -1.097293e-001 -6.698600e+000 114 38 26
5.043476e-001 1.275042e-001 -6.829606e+000 146 133 117
7.090568e-001 8.003532e-001 -6.558123e+000 73 4 9
6.906023e-001 7.486066e-001 -6.553243e+000 250 96 104
6.651319e-001 -1.879246e+000 -7.155636e+000 167 173 175
2.833925e-001 1.103769e+000 -7.111548e+000 211 55 54
4.246930e-001 1.005123e+000 -6.935430e+000 237 75 85
-5.667581e-001 -1.135566e-001 -6.707220e+000 132 42 21
-4.712402e-001 -2.595535e-001 -6.674696e+000 163 22 24
6.960532e-001 7.899097e-002 -6.842463e+000 186 174 162
9.179228e-001 2.112368e-001 -6.451193e+000 253 224 210
9.176901e-001 4.663853e-001 -6.372899e+000 249 97 103
9.548503e-001 -3.521325e-002 -6.348282e+000 236 87 87
9.790470e-001 -4.207702e-001 -6.315387e+000 248 231 179
-4.049462e-001 6.966272e-001 -7.873670e+000 193 183 173
-1.199091e-001 6.873910e-001 -7.575203e+000 200 191 176
2.317331e-001 8.420814e-001 -7.187262e+000 199 191 182
2.319782e-001 8.416508e-001 -7.187773e+000 199 191 182
-3.692481e-001 -1.832478e-001 -6.706051e+000 128 37 22
9.740702e-001 2.374320e-001 -6.437344e+000 241 84 93
6.685203e-003 1.269730e+000 -7.424353e+000 18 8 10
-9.174862e-002 7.186098e-001 -7.533495e+000 171 161 149
-9.174862e-002 7.186098e-001 -7.533495e+000 171 161 149
1.001186e+000 1.269762e-001 -6.351858e+000 228 73 81
3.085564e-002 1.128380e+000 -7.331459e+000 214 48 58
3.734985e-001 1.180536e+000 -6.979933e+000 213 51 62
3.794898e-001 9.376143e-001 -6.995898e+000 218 208 199
3.743481e-001 9.422768e-001 -6.988708e+000 218 208 199
5.537780e-001 8.939824e-001 -6.823491e+000 220 58 66
3.305907e-001 1.687278e-001 -6.862231e+000 152 139 122
6.803616e-001 8.671816e-001 -6.664938e+000 205 60 66
4.284384e-001 -2.854788e-001 -6.885511e+000 254 254 246
-9.877020e-001 -1.129734e+001 -1.021813e+001 45 43 56
1.196122e+000 -1.968533e-001 -6.156114e+000 255 245 192
-2.252706e-001 3.114338e-001 -7.528125e+000 197 184 173
-2.648211e-001 -2.488080e-001 -7.853847e+000 207 197 185
3.321599e-001 9.123613e-002 -6.816760e+000 212 203 190
-1.991075e-001 1.054677e+000 -7.674012e+000 214 63 69
8.998572e-001 4.423900e-001 -6.402856e+000 247 81 93
-3.914505e-001 2.711605e-001 -7.938294e+000 40 28 28
1.150308e+000 -2.625924e-001 -6.186819e+000 254 251 196
-3.283251e-001 5.605646e-001 -7.803828e+000 225 218 207
1.876603e-001 6.654770e-001 -7.152693e+000 197 189 180
-1.004127e+000 -3.644251e-002 -6.398764e+000 44 19 4
-2.371939e-002 1.243356e+000 -7.426838e+000 130 23 33
-9.074654e-001 2.570846e-003 -6.313593e+000 210 134 120
-4.774295e-002 1.085080e+000 -7.656881e+000 150 26 34
-8.971455e-001 3.709634e-002 -6.344176e+000 60 25 15
-1.532720e-002 1.104168e+000 -7.396647e+000 204 45 60
3.810706e-001 1.186677e+000 -7.099292e+000 220 69 78
2.073046e-001 1.224269e+000 -6.050095e+000 63 51 51
-9.061149e-002 5.042016e-001 -7.355625e+000 190 180 168
1.916579e-001 6.808493e-001 -7.234264e+000 190 181 172
-2.266660e-001 1.628143e-001 -7.262997e+000 114 97 88
-2.255849e-001 1.641808e-001 -7.215405e+000 122 106 93
-1.496002e-001 2.063338e-001 -7.096273e+000 111 95 82
1.551699e-002 1.628689e-001 -7.098564e+000 131 114 101
-4.952633e-001 -6.494886e-002 -6.749573e+000 151 67 46
-4.952633e-001 -6.494886e-002 -6.749573e+000 151 67 46
-8.955188e-002 9.366982e-002 -6.961324e+000 132 117 104
1.624573e-001 2.039626e-001 -6.972369e+000 167 151 135
5.616438e-001 6.280803e-001 -6.818497e+000 205 197 184
-4.598442e-003 1.264627e+000 -7.330218e+000 179 35 45
-1.408908e+000 -4.784959e+000 -1.031166e+001 67 58 61
2.322552e-001 9.561115e-001 -7.197519e+000 207 200 192
2.322552e-001 9.561115e-001 -7.197519e+000 207 200 192
-6.993310e-001 -1.089740e-001 -6.993196e+000 75 16 8
7.860829e-001 4.844384e-001 -6.562419e+000 198 52 59
3.129139e-001 1.089717e+000 -7.076436e+000 209 48 56
-1.142250e-001 2.258613e-001 -7.188165e+000 120 107 91
2.498862e-001 2.617023e-001 -7.014405e+000 123 107 92
1.008223e+000 1.374695e-001 -6.357001e+000 235 81 89
-4.526665e-001 -2.408793e-001 -6.695505e+000 239 136 95
-2.742836e-002 1.035255e+000 -7.368944e+000 214 205 198
-1.247342e+000 -5.163180e+000 -1.022825e+001 48 39 42
3.559014e-001 1.210890e+000 -7.001186e+000 175 38 44
-5.101332e-001 -3.553402e-002 -6.772688e+000 139 64 45
-1.647117e-001 1.284899e-001 -6.993361e+000 119 103 90
-5.656576e-001 -1.092246e-001 -6.700165e+000 114 28 13
-4.873413e-001 -3.105407e-002 -6.775308e+000 107 31 15
-3.396134e-001 -3.395407e-002 -6.887502e+000 48 13 12
-1.855416e-001 8.421480e-002 -6.933990e+000 150 133 125
-4.158786e-001 -1.175421e-001 -6.695559e+000 114 27 12
8.484488e-002 9.548862e-002 -6.952581e+000 211 199 187
-5.163280e-001 -3.549808e-001 -6.663318e+000 87 89 104
2.919029e-001 2.367885e-001 -6.929812e+000 133 117 101
5.776525e-001 1.023107e+000 -6.785828e+000 213 61 71
2.412014e-001 -3.185031e+000 -7.954976e+000 151 154 166
3.171916e-001 -3.465631e+000 -7.930825e+000 221 230 238
4.408630e-001 -2.680794e+000 -7.652606e+000 189 199 198
9.821438e-001 1.065020e-001 -6.366519e+000 206 68 72
1.025840e+000 -2.908918e+000 -6.900681e+000 141 142 136
-3.801647e-001 9.607712e-001 -7.769518e+000 168 36 45
-2.514300e-001 8.612658e-001 -7.724556e+000 219 62 70
-1.443042e+000 -4.652247e+000 -1.031606e+001 70 65 69
-1.873223e-001 6.272443e-003 -7.682017e+000 146 93 82
-1.996735e-001 -4.846868e-002 -7.649710e+000 212 204 191
-1.255293e-001 4.433041e-001 -7.397663e+000 183 171 159
-5.849112e-001 -7.975438e-002 -6.724872e+000 102 20 8
-5.027436e-001 -5.167739e-002 -6.762752e+000 112 30 15
-7.381667e-002 5.911606e-002 -6.936922e+000 172 164 151
-8.818697e-001 -1.213745e-002 -6.322696e+000 197 128 114
-4.196808e-002 4.698993e-002 -6.918604e+000 137 125 113
2.731834e-001 2.150786e-001 -6.927237e+000 154 140 120
2.138431e-001 -5.666885e-001 -6.888318e+000 113 111 104
4.004694e-001 6.431816e-002 -6.810441e+000 143 130 114
4.508621e-001 -2.647899e+000 -7.618495e+000 133 142 141
7.553853e-001 1.443344e-001 -6.579063e+000 245 238 228
9.790384e-001 -1.152942e-001 -6.389550e+000 223 82 86
-2.950738e-001 9.821457e-001 -7.744850e+000 165 29 37
-1.979649e-001 6.333743e-001 -7.657186e+000 173 164 149
-1.482250e+000 -4.497775e+000 -1.031663e+001 66 61 65
-1.221405e-001 6.004314e-001 -7.561245e+000 182 170 156
-1.247320e+000 -5.186442e+000 -1.013925e+001 90 84 88
3.059148e-001 1.130940e+000 -7.097840e+000 230 75 82
-7.617637e-001 -4.823322e+000 -9.512814e+000 84 76 77
-3.248423e-001 -1.572725e-002 -6.881444e+000 77 42 36
2.767812e-001 3.292451e-001 -7.054115e+000 172 160 146
-5.630725e-001 -2.384132e-001 -6.665159e+000 198 106 65
-4.397139e-001 -1.191982e-001 -6.738621e+000 88 25 16
6.768449e-002 1.601710e-001 -6.970536e+000 166 150 137
5.106661e-001 1.193302e-001 -6.834177e+000 142 129 113
4.919058e-001 -1.823785e+000 -7.450317e+000 112 118 115
6.748772e-001 1.764196e-001 -6.777181e+000 208 200 185
7.070267e-001 7.573448e-001 -6.560055e+000 107 14 25
8.075379e-001 5.167649e-001 -6.556758e+000 167 33 42
1.094254e+000 -1.722567e+000 -6.650692e+000 178 180 175
-2.042217e-001 9.817692e-001 -7.671492e+000 169 32 39
-2.192732e-001 3.467616e-001 -7.582595e+000 206 196 184
3.644437e-001 1.080422e+000 -7.011158e+000 234 78 82
3.765222e-001 1.009736e+000 -6.987938e+000 211 178 166
-6.736793e-001 -2.801936e-001 -6.534540e+000 64 22 24
9.946484e-002 -8.844601e-002 -6.861690e+000 235 227 214
4.181061e-001 -5.513354e-001 -6.895195e+000 248 244 227
7.863851e-001 7.845003e-001 -6.592874e+000 21 11 12
6.005089e-001 -3.339246e-001 -6.720119e+000 178 165 147
1.000720e+000 1.666288e-001 -6.371392e+000 215 59 70
-4.679311e-001 4.319817e-001 -7.866195e+000 220 209 191
-1.804151e-001 4.022979e-001 -7.614776e+000 215 207 194
-1.833257e-001 4.041494e-001 -7.464578e+000 131 117 106
-2.868247e-001 2.500399e-001 -7.861857e+000 185 46 50
-2.094553e-001 2.719767e-001 -7.682750e+000 157 139 127
-1.943333e-001 2.070049e-001 -7.321691e+000 159 146 130
1.053509e-001 7.284520e-001 -7.233190e+000 182 172 162
4.366350e-001 2.801569e-001 -7.004390e+000 145 136 121
6.026629e-001 6.222145e-001 -6.750581e+000 235 226 211
6.951905e-001 7.999810e-001 -6.599606e+000 89 13 18
9.158046e-001 4.613326e-001 -6.391159e+000 234 78 88
-1.861860e-001 4.912829e-001 -7.650171e+000 228 220 209
-2.250199e-001 1.811287e-002 -7.754084e+000 75 11 16
-1.084454e-001 2.130587e-001 -7.176073e+000 123 111 96
-2.055812e-001 -1.775552e-001 -6.827097e+000 230 220 213
8.387418e-001 9.729763e-002 -6.557160e+000 229 222 211
9.872398e-001 -3.533721e-001 -6.328097e+000 174 151 101
6.539861e-001 -4.828777e-001 -6.660707e+000 254 252 203
7.594426e-001 -2.180214e-001 -6.544112e+000 245 237 228
-3.915684e-001 9.015076e-001 -7.788238e+000 211 63 69
7.170973e-002 4.176450e-001 -7.173231e+000 151 142 127
-6.308375e-001 -1.570266e-001 -6.690354e+000 74 20 18
4.865629e-001 -5.906201e-001 -6.844706e+000 145 122 98
7.659884e-001 -1.529934e-001 -6.515770e+000 231 222 213
1.543171e-001 5.966692e-001 -7.199133e+000 144 132 122
2.617099e-001 -8.122247e-002 -6.827718e+000 252 250 240
3.442600e-001 2.394993e-001 -6.992696e+000 136 123 107
-2.736822e-002 1.275857e+000 -7.369761e+000 85 13 23
-1.624481e-001 5.119142e-001 -7.454797e+000 162 148 134
-2.005125e-001 1.848498e-001 -7.148160e+000 118 103 89
1.544443e-001 6.820206e-001 -7.205808e+000 191 184 174
-5.818568e-001 -8.415464e-002 -6.761747e+000 126 56 44
-4.539174e-001 -1.421831e-001 -6.707851e+000 126 31 15
4.368297e-001 -2.569265e+000 -7.596176e+000 180 193 183
3.885593e-001 -5.463394e-001 -6.931909e+000 232 228 216
-3.888906e-001 7.479085e-001 -7.802643e+000 174 152 139
1.437784e-001 9.449142e-001 -7.260831e+000 205 198 190
-2.501013e-001 1.175486e-001 -7.284916e+000 123 109 96
-3.280826e-001 6.568010e-002 -7.099625e+000 67 24 18
-2.156253e-001 9.418394e-002 -7.053659e+000 140 124 111
-1.056663e-001 1.669149e-001 -7.126204e+000 115 99 86
-6.725984e-002 2.138156e-001 -7.069180e+000 174 165 150
-1.726430e-002 2.064577e-001 -7.138462e+000 161 148 132
-5.907226e-001 -1.138927e-001 -6.743560e+000 81 17 8
-5.451419e-001 -7.238511e-002 -6.779956e+000 86 21 12
1.425423e-001 2.341806e-001 -6.968864e+000 163 147 131
4.729285e-002 -2.431792e-001 -6.874742e+000 209 197 184
5.207793e-001 5.716745e-001 -6.757348e+000 160 148 133
4.226798e-001 -1.422598e-001 -6.772794e+000 238 232 220
4.307723e-001 -4.899601e-002 -6.738650e+000 201 192 177
7.493824e-001 -4.984854e-001 -6.524942e+000 225 212 179
1.174010e+000 -2.240843e+000 -6.520876e+000 169 167 170
-2.377214e-001 2.998379e-001 -7.745170e+000 175 163 149
-2.377214e-001 2.998379e-001 -7.745170e+000 175 163 149
-1.560588e-001 5.937658e-001 -7.526378e+000 148 136 122
-5.079787e-001 -9.137133e-002 -6.733492e+000 180 88 59
-5.079787e-001 -9.137133e-002 -6.733492e+000 180 88 59
1.263688e-001 -2.361710e-002 -6.867126e+000 179 169 156
6.855134e-001 8.826520e-002 -6.717507e+000 208 198 189
8.309963e-001 5.068744e-001 -6.590248e+000 230 84 95
9.354069e-001 4.729708e-001 -6.383701e+000 30 15 15
1.048968e+000 -4.640599e-001 -6.306896e+000 162 56 53
-3.586592e-001 8.312525e-001 -7.720793e+000 224 69 77
-8.446677e-002 2.586165e-001 -7.218504e+000 135 121 108
-2.085366e-001 1.341739e-001 -6.998854e+000 155 139 124
-4.719280e-002 1.014735e-001 -6.980070e+000 128 115 99
3.871835e-001 1.350939e-001 -6.844432e+000 197 183 170
6.917160e-001 1.137146e-001 -6.726102e+000 194 184 172
9.378105e-001 -3.749803e-001 -6.363720e+000 216 193 139
2.279581e-003 3.504953e-002 -6.933887e+000 196 186 176
4.292521e-001 5.474883e-001 -6.973192e+000 193 181 174
5.654230e-001 -7.575101e-001 -6.831543e+000 252 252 242
9.579885e-001 -6.647376e-001 -6.398932e+000 237 98 109
1.240335e+000 -3.902394e-001 -6.162541e+000 255 246 198
1.240335e+000 -3.902394e-001 -6.162541e+000 255 246 198
-4.471111e-001 7.087010e-001 -7.901866e+000 178 38 48
-2.729487e-002 1.254225e+000 -7.354913e+000 200 53 55
1.231632e-001 5.660047e-001 -7.170929e+000 149 137 121
4.012196e-001 6.713104e-001 -6.954003e+000 252 245 237
7.359719e-001 8.478986e-001 -6.631881e+000 40 26 27
6.564198e-001 -6.411910e-001 -6.751183e+000 213 202 182
8.603085e-001 1.922086e-001 -6.493214e+000 175 157 145
9.008502e-001 -2.088907e-001 -6.462552e+000 216 202 193
1.239812e+000 -2.306588e-001 -6.174317e+000 250 242 186
