ply
format ascii 1.0
element face 0
property list uchar int vertex_indices
element vertex 867
property float x
property float y
property float z
property uchar diffuse_red
property uchar diffuse_green
property uchar diffuse_blue
end_header
-2.163578e-001 2.169433e-001 -7.342504e+000 159 146 130
1.007038e-001 7.683470e-001 -7.250672e+000 182 172 162
4.453868e-001 3.013527e-001 -7.003741e+000 145 136 121
6.282834e-001 6.587036e-001 -6.739838e+000 235 226 211
7.269216e-001 8.469984e-001 -6.579380e+000 89 13 18
9.644351e-001 4.860306e-001 -6.361043e+000 234 78 88
-2.083795e-001 5.172322e-001 -7.691310e+000 228 220 209
-2.400507e-001 8.268294e-003 -7.811052e+000 75 11 16
-1.254118e-001 2.236060e-001 -7.188487e+000 123 111 96
-2.267425e-001 -1.898029e-001 -6.818944e+000 230 220 213
8.777974e-001 1.040967e-001 -6.535257e+000 229 222 211
1.042035e+000 -3.779373e-001 -6.297614e+000 174 151 101
6.868994e-001 -5.128168e-001 -6.648155e+000 254 252 203
7.985066e-001 -2.333963e-001 -6.524503e+000 245 237 228
-4.289976e-001 9.531037e-001 -7.837996e+000 211 63 69
7.477620e-002 4.323717e-001 -7.194932e+000 151 142 127
-6.783977e-001 -1.682322e-001 -6.671861e+000 74 20 18
5.086252e-001 -6.253165e-001 -6.841600e+000 145 122 98
8.049302e-001 -1.643032e-001 -6.493971e+000 231 222 213
1.555786e-001 6.266455e-001 -7.216822e+000 144 132 122
2.684809e-001 -8.728047e-002 -6.821344e+000 252 250 240
3.537629e-001 2.513727e-001 -6.994547e+000 136 123 107
-3.984153e-002 1.349317e+000 -7.397569e+000 85 13 23
-1.835693e-001 5.396093e-001 -7.484112e+000 162 148 134
-2.179564e-001 1.877056e-001 -7.163889e+000 118 103 89
1.515983e-001 7.211230e-001 -7.220496e+000 191 184 174
-6.258776e-001 -9.274934e-002 -6.748840e+000 126 56 44
-4.899155e-001 -1.536411e-001 -6.692086e+000 126 31 15
4.582238e-001 -2.688350e+000 -7.630537e+000 180 193 183
4.041738e-001 -5.779053e-001 -6.932758e+000 232 228 216
-4.243100e-001 7.886329e-001 -7.853385e+000 174 152 139
1.395072e-001 1.000091e+000 -7.278980e+000 205 198 190
-2.750843e-001 1.222960e-001 -7.303379e+000 123 109 96
-3.576256e-001 6.717787e-002 -7.107010e+000 67 24 18
-2.382475e-001 9.724313e-002 -7.058940e+000 140 124 111
-1.222093e-001 1.747710e-001 -7.135733e+000 115 99 86
-8.156249e-002 2.243779e-001 -7.075553e+000 174 165 150
-2.897071e-002 2.172910e-001 -7.148539e+000 161 148 132
-6.400726e-001 -1.161521e-001 -6.724164e+000 81 17 8
-5.922355e-001 -7.238975e-002 -6.762549e+000 86 21 12
1.407500e-001 2.464647e-001 -6.969710e+000 163 147 131
4.188989e-002 -2.589416e-001 -6.870658e+000 209 197 184
5.416780e-001 6.043261e-001 -6.746598e+000 160 148 133
4.397759e-001 -1.521362e-001 -6.764241e+000 238 232 220
4.489506e-001 -5.432920e-002 -6.728453e+000 201 192 177
7.878113e-001 -5.290621e-001 -6.504505e+000 225 212 179
1.239976e+000 -2.359241e+000 -6.508020e+000 169 167 170
-2.629659e-001 3.156100e-001 -7.789919e+000 175 163 149
-2.629659e-001 3.156100e-001 -7.789919e+000 175 163 149
-1.770762e-001 6.262555e-001 -7.560138e+000 148 136 122
-5.474962e-001 -1.001336e-001 -6.719029e+000 180 88 59
-5.474962e-001 -1.001336e-001 -6.719029e+000 180 88 59
1.245137e-001 -2.614459e-002 -6.862191e+000 179 169 156
7.195413e-001 8.977084e-002 -6.707320e+000 208 198 189
8.723653e-001 5.351187e-001 -6.571306e+000 230 84 95
9.851363e-001 4.981787e-001 -6.353331e+000 30 15 15
1.106545e+000 -4.936892e-001 -6.275268e+000 162 56 53
-3.925446e-001 8.770453e-001 -7.767200e+000 224 69 77
-9.990741e-002 2.716370e-001 -7.233790e+000 135 121 108
-2.310133e-001 1.396914e-001 -7.000723e+000 155 139 124
-5.988730e-002 1.055939e-001 -6.981191e+000 128 115 99
4.009118e-001 1.415759e-001 -6.839181e+000 197 183 170
7.379230e-001 1.114928e-001 -6.724609e+000 194 184 172
9.887684e-001 -3.992474e-001 -6.335242e+000 216 193 139
-7.397197e-003 3.624370e-002 -6.932314e+000 196 186 176
4.439751e-001 5.787736e-001 -6.974980e+000 193 181 174
5.932149e-001 -8.017952e-001 -6.828743e+000 252 252 242
1.011793e+000 -7.070145e-001 -6.374067e+000 237 98 109
1.311555e+000 -4.174580e-001 -6.123662e+000 255 246 198
1.311555e+000 -4.174580e-001 -6.123662e+000 255 246 198
-4.780721e-001 7.375977e-001 -7.970893e+000 178 38 48
-3.728138e-002 1.323551e+000 -7.382146e+000 200 53 55
1.185294e-001 5.985008e-001 -7.183127e+000 149 137 121
4.139169e-001 7.101427e-001 -6.954368e+000 252 245 237
7.706584e-001 8.974057e-001 -6.614200e+000 40 26 27
6.887228e-001 -6.785550e-001 -6.743456e+000 213 202 182
8.964383e-001 2.078705e-001 -6.467266e+000 175 157 145
9.507880e-001 -2.256540e-001 -6.439935e+000 216 202 193
1.312578e+000 -2.501378e-001 -6.136363e+000 250 242 186
8.954812e-001 8.764386e-002 -6.542379e+000 230 224 212
-2.558916e-001 -3.609381e-001 -7.711930e+000 238 231 220
6.656163e-001 7.657949e-001 -6.730934e+000 216 209 198
-5.686089e-001 -8.934609e-002 -6.727693e+000 117 27 18
8.965776e-001 -2.865888e-001 -6.444187e+000 85 70 54
-2.111855e-001 9.467651e-001 -7.668218e+000 174 158 147
7.186045e-001 5.361712e-001 -6.597271e+000 254 251 244
-2.853718e-001 -1.297037e-001 -7.811400e+000 208 201 185
1.157517e+000 -6.666176e-002 -6.274688e+000 180 46 54
-2.087877e-001 7.385612e-001 -7.638509e+000 224 217 207
-2.087668e-001 4.629159e-002 -7.678633e+000 124 59 57
-1.709050e-001 5.125950e-001 -7.485431e+000 181 168 152
-8.428281e-001 -3.032358e-001 -7.031106e+000 210 139 115
-9.749826e-001 -3.679980e-001 -6.719296e+000 218 193 173
-9.722977e-001 -3.482990e-001 -6.729407e+000 130 47 25
-3.254687e-001 1.079838e-001 -7.057225e+000 81 40 31
2.177894e-001 1.349937e+000 -7.139594e+000 182 42 51
-7.513885e-001 -3.007827e-001 -6.502336e+000 45 15 13
-7.459786e-001 -2.957487e-001 -6.487321e+000 163 160 148
1.944769e-001 1.293373e-001 -6.912812e+000 183 171 156
1.944769e-001 1.293373e-001 -6.912812e+000 183 171 156
3.509677e-001 -3.711645e-002 -6.773775e+000 254 245 236
6.549289e-001 -1.255895e+000 -7.084464e+000 127 126 122
5.088992e-001 -4.725334e-001 -6.903821e+000 154 137 115
7.202632e-001 -1.532609e+000 -7.075222e+000 157 159 156
7.780866e-001 -1.508359e+000 -6.985366e+000 174 176 175
7.989746e-001 7.420513e-001 -6.540799e+000 250 75 85
1.016982e+000 -1.771178e+000 -6.788163e+000 183 183 185
1.108408e+000 -3.039756e+000 -6.805606e+000 162 157 163
1.108408e+000 -3.039756e+000 -6.805606e+000 162 157 163
1.046140e+000 -1.812597e+000 -6.743338e+000 182 181 187
1.005145e+000 -1.166593e+000 -6.664041e+000 171 166 170
9.260322e-001 6.620275e-001 -6.487157e+000 81 68 68
9.992065e-001 -5.276458e-003 -6.318490e+000 232 92 100
1.357964e+000 -6.107932e-001 -6.119736e+000 155 149 153
-3.357004e-001 6.567367e-001 -7.792132e+000 237 233 222
-1.306640e-001 8.297817e-001 -7.431805e+000 212 202 193
-2.515801e-001 -1.433265e-001 -7.636872e+000 178 165 150
1.243175e-001 1.025551e+000 -7.289133e+000 217 210 200
4.583456e-002 6.754536e-001 -7.279081e+000 237 229 218
-9.899233e-001 -3.692917e-001 -6.728719e+000 39 17 15
-2.415756e-001 1.539945e-001 -7.087372e+000 140 124 111
-3.579136e-002 -3.795852e+000 -8.368820e+000 184 192 194
-4.399446e-001 -8.840608e-002 -6.814781e+000 82 18 14
-4.398515e-001 -5.365136e-002 -6.802529e+000 87 23 13
-3.679876e-001 -4.733050e-002 -6.935691e+000 53 13 13
-5.250384e-001 -2.236430e-001 -6.676522e+000 250 148 120
3.178623e-001 2.454747e-001 -6.986299e+000 159 142 126
3.767227e-001 -5.363993e-001 -6.953342e+000 168 148 111
6.578700e-001 9.995355e-001 -6.683904e+000 216 73 82
9.033067e-001 -2.310935e+000 -6.935167e+000 170 170 172
9.040893e-001 -1.368056e+000 -6.885018e+000 169 169 169
6.729304e-001 -3.095195e-001 -6.641389e+000 183 171 159
9.946060e-001 -1.852340e+000 -6.853348e+000 153 154 156
8.502666e-001 7.509947e-001 -6.515779e+000 76 63 64
1.218729e+000 -2.466975e+000 -6.525513e+000 167 165 168
1.038888e+000 -4.404347e-001 -6.303110e+000 191 168 118
1.303477e+000 -2.280157e-001 -6.094541e+000 149 140 141
1.351528e+000 -1.765720e-001 -6.121449e+000 142 138 138
-3.740106e-001 2.899481e-001 -8.031843e+000 56 47 42
-3.335010e-001 6.850897e-002 -7.857686e+000 153 25 32
-1.694724e-001 5.891400e-001 -7.625225e+000 204 194 182
-3.185107e-002 1.132767e+000 -7.426010e+000 223 207 194
1.287286e-003 1.343910e+000 -7.373384e+000 75 8 16
-2.119130e-001 5.284893e-001 -7.460592e+000 147 134 119
3.563238e-002 6.206659e-001 -7.294861e+000 214 205 194
-8.461905e-001 -2.417011e-001 -6.462040e+000 47 11 17
4.840810e-001 1.252665e+000 -6.931977e+000 72 58 55
7.199656e-001 -1.579862e+000 -7.150497e+000 158 163 157
5.494311e-001 -3.307120e-001 -6.835582e+000 180 169 149
6.701367e-001 -1.106888e+000 -7.019030e+000 154 153 149
5.393939e-001 -3.227719e-001 -6.786831e+000 254 250 238
7.308466e-001 9.215191e-001 -6.645971e+000 213 70 78
7.723000e-001 8.826053e-001 -6.598462e+000 23 14 17
9.805504e-001 -1.868862e+000 -6.831316e+000 179 180 182
9.600427e-001 -1.743246e+000 -6.813253e+000 190 190 192
7.156722e-001 -3.938676e-001 -6.500666e+000 231 211 155
1.146936e+000 5.000154e-003 -6.219801e+000 229 103 110
-2.358618e-001 2.842227e-001 -7.393893e+000 177 165 149
3.112442e-001 1.259611e+000 -7.074101e+000 209 49 61
6.088946e-001 -4.989753e-001 -6.835170e+000 214 209 190
8.051383e-001 -7.292443e-001 -6.656841e+000 254 253 249
-5.967788e-001 5.733622e-001 -8.177595e+000 230 75 79
-1.179238e-001 7.487881e-001 -7.478313e+000 136 123 110
-1.195651e-001 7.959035e-001 -7.401275e+000 169 155 143
-4.697272e-001 -1.366497e-001 -7.238630e+000 124 117 119
-4.828429e-001 -1.399742e-002 -7.093136e+000 90 38 25
-4.863631e-001 -8.872870e-003 -7.089341e+000 90 38 25
3.329453e-001 1.297930e+000 -7.041081e+000 229 73 86
-8.547177e-001 -2.459451e-001 -6.506564e+000 51 22 10
1.309889e-001 -5.066316e-002 -6.847676e+000 254 255 243
4.746696e-001 3.628318e-001 -6.978846e+000 211 201 192
6.968210e-001 -9.205434e-001 -6.808824e+000 169 51 49
8.396429e-001 -1.766178e+000 -6.925931e+000 156 158 157
8.329215e-001 -7.572464e-001 -6.630462e+000 220 211 196
1.343190e+000 -4.992207e-001 -6.146619e+000 127 123 124
-2.159899e-001 3.831568e-001 -7.588787e+000 147 134 117
-5.548914e-001 -1.358867e-001 -7.243026e+000 129 127 126
-6.930787e-001 -2.530728e-001 -6.613166e+000 149 70 48
3.575300e-001 1.087753e+000 -7.016584e+000 249 241 239
6.392214e-002 -1.593677e-002 -6.914138e+000 141 128 115
6.392214e-002 -1.593677e-002 -6.914138e+000 141 128 115
4.365526e-001 7.794270e-001 -6.994961e+000 249 245 236
4.007384e-001 -6.425487e-001 -6.881823e+000 228 222 210
5.072669e-001 -2.504437e-001 -6.751304e+000 253 246 236
6.955958e-001 -8.374652e-001 -6.735313e+000 248 237 228
6.797268e-001 -8.159862e-001 -6.725514e+000 248 237 228
6.860371e-001 -1.287230e-001 -6.584156e+000 245 241 232
1.077145e+000 -5.900895e-001 -6.352106e+000 178 35 39
1.154829e+000 3.802218e-002 -6.245399e+000 125 15 24
1.154829e+000 3.802218e-002 -6.245399e+000 125 15 24
1.333164e+000 -4.281015e-001 -6.142136e+000 255 251 205
-3.038561e-001 -3.825032e-001 -7.839340e+000 223 216 205
-2.556573e-001 -1.050982e-001 -6.826798e+000 94 33 32
-3.254472e-001 -2.210937e-001 -6.659679e+000 112 25 18
-3.163509e-001 5.745054e-001 -7.765457e+000 229 222 212
-6.083478e-001 -3.039603e-001 -6.649060e+000 246 208 163
-1.583185e-001 -1.504587e-001 -6.824030e+000 253 246 240
1.359087e-001 2.064343e-001 -6.994980e+000 222 214 203
-4.818036e-001 8.958821e-001 -7.957510e+000 215 62 67
-5.305091e-001 5.626746e-001 -8.042952e+000 194 184 172
-6.258177e-001 6.637653e-001 -8.113376e+000 202 46 50
-2.324430e-001 1.304882e-001 -7.648819e+000 88 17 24
-2.324430e-001 1.304882e-001 -7.648819e+000 88 17 24
-1.619214e-001 9.248203e-001 -7.422995e+000 229 222 212
5.345857e-001 6.094075e-001 -6.927622e+000 233 226 216
1.261410e+000 -3.291171e-001 -6.181677e+000 255 251 203
4.992111e-001 1.217777e-001 -6.751714e+000 154 141 123
9.439443e-001 6.893780e-002 -6.497144e+000 253 246 240
-3.980831e-001 1.043117e+000 -7.911916e+000 21 12 15
1.453781e-001 1.323314e+000 -7.467571e+000 16 7 10
-3.705622e-001 6.361258e-001 -7.826035e+000 226 220 208
-1.391497e+000 -1.201306e+001 -1.092698e+001 96 98 111
7.676928e-001 6.011348e-001 -6.586665e+000 244 76 87
-8.353926e-002 8.159480e-001 -7.607554e+000 222 214 203
-7.404611e-002 3.603758e-001 -7.316360e+000 145 132 115
-1.855441e-001 6.697517e-001 -7.477574e+000 168 155 141
1.053168e+000 -1.025502e+000 -6.581949e+000 142 141 139
5.964271e-001 5.515910e-001 -6.823137e+000 170 158 142
-2.630129e-001 -2.331188e-001 -7.765954e+000 178 166 150
-2.255558e-001 2.834634e-001 -7.582689e+000 175 163 151
-1.258153e-001 7.856485e-001 -7.436085e+000 187 175 161
2.050234e-001 1.175709e+000 -7.221547e+000 216 61 69
1.200118e-001 -3.774553e+000 -8.211612e+000 179 188 183
-6.207513e-001 -7.564891e-002 -6.755916e+000 83 19 10
-3.183467e-001 1.262167e-003 -6.943132e+000 63 23 19
7.252996e-001 -1.620715e+000 -7.127521e+000 116 122 118
-6.622147e-001 6.353820e-001 -8.229602e+000 44 33 30
-4.151623e-001 7.807499e-001 -7.862232e+000 169 155 139
-2.238038e-001 1.463301e-001 -7.227904e+000 152 136 121
-2.238038e-001 1.463301e-001 -7.227904e+000 152 136 121
-2.183818e-001 1.566365e-001 -7.237301e+000 121 105 90
2.370787e-001 2.980749e-001 -7.038935e+000 145 131 118
3.082604e-001 2.535868e-001 -6.985690e+000 159 142 126
6.512514e-001 -9.000570e-002 -6.639542e+000 239 231 220
1.030209e+000 -2.997504e+000 -6.923675e+000 164 162 165
8.683938e-001 5.900918e-001 -6.520704e+000 192 49 57
1.024023e+000 -2.617809e-001 -6.406781e+000 139 113 100
-1.544446e-001 6.064337e-001 -7.613657e+000 191 179 165
-2.016672e-001 3.567107e-001 -7.468986e+000 172 158 145
4.637267e-001 1.730268e-003 -6.725322e+000 177 166 147
8.904406e-001 -2.830079e-001 -6.484125e+000 158 141 129
9.698009e-001 -3.801627e-001 -6.326390e+000 227 205 154
1.038626e+000 -6.481745e-001 -6.342059e+000 235 106 111
8.023197e-002 6.133078e-001 -7.230744e+000 158 145 129
5.154019e-001 5.278970e-001 -6.924583e+000 166 157 144
6.283258e-001 7.659063e-001 -6.788778e+000 193 183 174
1.777018e+000 -1.103138e+001 -6.592063e+000 99 102 133
1.456065e+000 -1.047480e+001 -6.655589e+000 108 113 143
-4.984565e-001 7.574852e-001 -7.947361e+000 179 40 48
2.704546e-001 1.190777e+000 -7.126321e+000 217 62 68
-5.136514e-001 5.620034e-001 -8.045346e+000 195 185 173
2.744531e-001 8.650553e-001 -7.112258e+000 156 144 130
-4.333012e-001 9.937822e-001 -7.831945e+000 177 41 54
-1.765224e-001 -2.189831e+000 -8.308476e+000 153 160 152
-1.873501e-001 1.251143e-001 -7.707831e+000 140 35 37
-8.333094e-001 -3.035093e-001 -7.046409e+000 102 34 16
-3.457999e-002 1.345933e+000 -7.357806e+000 175 36 46
-8.101296e-001 -2.885881e-001 -7.024238e+000 160 166 153
-7.994682e-001 -2.047795e-001 -7.037066e+000 172 80 53
-2.846943e-001 1.289418e-001 -7.287151e+000 123 106 94
-1.384588e-001 1.552784e-001 -7.169009e+000 119 103 88
-8.024406e-002 2.299001e-001 -7.162529e+000 153 137 122
-3.449777e-001 2.514630e-002 -6.908428e+000 107 79 68
-2.010532e-001 8.055687e-002 -6.935733e+000 156 140 127
-5.878301e-002 3.045632e-002 -6.936439e+000 182 168 156
-3.985066e-002 2.548546e-002 -6.913805e+000 143 130 117
2.732182e-002 -2.020362e-001 -6.843837e+000 212 199 184
7.070422e-001 -1.965779e+000 -7.201744e+000 137 137 139
7.569906e-001 -1.993383e+000 -7.196010e+000 132 133 135
6.643956e-001 -1.603876e+000 -7.121724e+000 183 183 183
6.024387e-001 -7.111554e-001 -6.818897e+000 236 219 199
9.165865e-001 -5.011630e-001 -6.602952e+000 172 152 126
1.029279e+000 4.731906e-001 -6.574416e+000 218 75 79
1.109475e+000 -5.497502e-001 -6.316219e+000 203 124 111
1.440364e+000 -1.151380e+000 -6.138822e+000 143 137 137
1.389616e+000 -5.531576e-001 -6.125654e+000 167 161 161
-5.946729e-001 5.954870e-001 -8.091374e+000 238 75 81
-2.651709e-001 -6.025823e-003 -7.789078e+000 169 95 86
-2.261923e-001 -2.486422e+000 -8.432812e+000 155 162 155
-1.571475e-001 -1.649420e+000 -8.175097e+000 165 169 163
-1.602951e-001 -8.851730e-001 -8.046342e+000 140 140 132
-1.602951e-001 -8.851730e-001 -8.046342e+000 140 140 132
-1.736391e-001 5.714541e-001 -7.581016e+000 169 156 140
-1.276926e-001 8.248954e-001 -7.502432e+000 209 199 187
-2.421278e-001 -1.535074e-001 -7.458993e+000 246 242 229
-5.124314e-001 -5.241924e-002 -7.027928e+000 82 41 36
-2.235774e-001 1.975298e-001 -7.178447e+000 155 137 124
1.442957e-001 9.991797e-001 -7.288188e+000 214 205 196
1.420390e-001 1.001870e+000 -7.286542e+000 214 205 196
-1.037317e+000 -2.605523e-001 -6.496914e+000 177 159 132
-2.478015e-001 1.350331e-001 -6.989704e+000 113 95 83
1.888246e-001 2.595225e-001 -7.045252e+000 133 117 101
3.167598e-001 1.291120e+000 -7.060127e+000 201 47 54
3.369420e-001 2.087466e-001 -6.977058e+000 137 119 104
7.323087e-001 -2.658684e+000 -7.316383e+000 188 186 187
1.010132e+000 -2.650873e+000 -6.936379e+000 159 157 162
7.349085e-001 -6.577461e-001 -6.728250e+000 255 255 210
6.854340e-001 6.462220e-001 -6.642061e+000 155 132 116
8.457842e-001 1.029798e-001 -6.601161e+000 247 240 230
1.045358e+000 -1.132589e+000 -6.660002e+000 141 139 142
7.874533e-001 1.005500e+000 -6.555164e+000 67 55 55
8.908895e-001 5.571223e-001 -6.524876e+000 221 74 80
9.799880e-001 -3.901792e-001 -6.334323e+000 226 209 157
9.939408e-001 4.786949e-001 -6.377672e+000 227 75 88
1.100441e+000 -4.896330e-001 -6.270569e+000 175 43 49
1.560737e+000 -1.268317e+000 -6.095888e+000 130 126 125
1.434217e+000 -7.535358e-001 -6.094927e+000 168 164 163
1.273134e+000 -3.058228e-001 -6.100885e+000 155 144 141
1.507820e+000 -1.186823e+000 -6.052805e+000 121 117 114
-2.485143e-001 -2.208916e+000 -8.360131e+000 202 208 204
-1.826734e-001 7.150326e-001 -7.554775e+000 155 146 131
-9.947419e-001 -3.586916e-001 -6.701998e+000 34 8 3
2.046657e-001 9.143435e-001 -7.221965e+000 215 206 196
9.629488e-002 2.905221e-001 -7.026346e+000 145 127 107
1.293222e-001 -9.877914e-002 -6.838833e+000 219 210 194
4.605946e-001 -5.334602e-001 -6.919041e+000 203 186 139
5.013626e-001 -4.384998e-001 -6.803397e+000 145 122 78
8.119021e-001 -1.018979e+000 -6.783697e+000 132 123 124
7.314199e-001 -7.518870e-001 -6.535472e+000 138 136 141
7.775023e-001 -6.914684e-001 -6.641401e+000 253 253 244
8.152971e-001 -6.489211e-001 -6.631649e+000 254 243 184
1.645331e+000 -7.459864e+000 -6.296949e+000 56 54 65
1.058497e+000 -4.713460e-001 -6.292862e+000 252 230 176
1.160067e+000 5.588460e-002 -6.204696e+000 186 118 116
1.395352e+000 -5.335026e-001 -6.103439e+000 169 163 161
1.429626e+000 -7.651033e-001 -6.061847e+000 148 142 142
1.429626e+000 -7.651033e-001 -6.061847e+000 148 142 142
-3.475969e-001 2.337533e-002 -7.903570e+000 78 55 49
-2.310665e-001 1.148667e+000 -7.593535e+000 200 59 64
-3.025814e-001 2.785592e-001 -7.682058e+000 215 196 182
-1.817607e-001 -1.891275e+000 -8.339470e+000 154 159 153
-1.547959e-001 1.325227e-001 -7.726913e+000 130 15 23
-8.296928e-001 -3.223317e-001 -6.991104e+000 169 164 148
-8.006443e-001 -1.731824e-001 -6.975420e+000 97 29 16
-2.110607e-001 1.716096e-001 -7.328135e+000 122 105 94
5.747958e-002 1.191664e+000 -7.307646e+000 229 72 78
-1.036626e+000 -2.514563e-001 -6.513799e+000 62 27 13
-5.996227e-001 -2.684712e-001 -6.649663e+000 196 111 76
-2.266582e-001 -1.363575e-001 -6.824104e+000 95 25 19
4.457509e-001 -5.433116e-001 -6.864017e+000 132 111 77
4.846846e-001 -5.868464e-001 -6.886851e+000 132 111 77
7.153306e-001 7.547482e-001 -6.691061e+000 194 41 51
3.430785e+000 -1.127070e+001 -6.419678e+000 73 71 84
3.019131e+000 -9.262253e+000 -5.931979e+000 91 92 110
1.447489e+000 -7.676913e-001 -6.142000e+000 133 127 127
1.294060e+000 -1.350264e-001 -6.172489e+000 158 153 150
-1.945228e-001 1.084410e+000 -7.655903e+000 191 51 54
-2.034697e-001 4.474361e-001 -7.680963e+000 168 154 135
-2.456557e-001 -1.571739e-001 -6.801828e+000 246 244 229
2.667477e-001 -6.239172e-001 -6.905485e+000 248 247 236
2.667477e-001 -6.239172e-001 -6.905485e+000 248 247 236
7.132126e-001 -1.100751e+000 -6.962883e+000 169 167 169
8.975175e-001 -7.453410e-001 -6.513599e+000 249 242 236
1.059523e+000 4.935561e-001 -6.399049e+000 92 83 81
2.533809e+000 -1.082913e+001 -5.980044e+000 111 112 140
2.995730e+000 -9.445797e+000 -6.097036e+000 17 14 23
3.083460e+000 -9.695154e+000 -6.017789e+000 78 77 91
1.227040e+000 -1.175560e-001 -6.214965e+000 157 145 143
2.996336e+000 -1.034406e+001 -5.794369e+000 91 94 116
3.118482e+000 -1.034784e+001 -5.769077e+000 19 16 26
3.162458e+000 -1.020822e+001 -5.751705e+000 101 105 130
-4.933379e-001 5.188845e-001 -7.927425e+000 185 170 157
-2.799817e-001 5.165731e-001 -7.760167e+000 200 190 178
-2.176201e-001 3.387454e-001 -7.659741e+000 219 212 193
-1.455940e-001 7.201300e-001 -7.605391e+000 198 189 174
-4.192283e-001 -2.546218e-001 -6.690499e+000 144 29 20
4.608141e-001 4.369648e-001 -6.961406e+000 196 184 172
5.606647e-001 1.802687e-001 -6.872516e+000 169 157 143
1.324281e+000 -3.155877e-001 -6.103025e+000 160 153 154
-2.280826e-001 -1.212422e-001 -7.606076e+000 196 185 167
-7.596790e-001 -1.206330e-001 -7.136814e+000 80 23 13
-9.600164e-001 -2.927662e-001 -6.633469e+000 211 122 87
1.658018e-001 3.655597e-001 -7.084320e+000 210 202 187
8.535514e-002 -5.018461e-001 -6.899598e+000 255 255 245
4.527060e-001 1.206219e+000 -6.905628e+000 222 69 74
4.496340e-001 -4.654893e-001 -6.831872e+000 254 251 203
9.482268e-001 4.742770e-001 -6.376340e+000 232 85 86
-8.818497e-002 7.586134e-001 -7.360930e+000 233 225 214
2.432966e-001 -3.062210e-001 -6.866768e+000 101 79 56
-2.387313e-001 1.021832e+000 -7.700213e+000 200 53 60
-2.009784e-001 8.718632e-001 -7.543413e+000 229 221 208
1.284631e-001 5.707569e-002 -6.892367e+000 157 145 129
8.729757e-001 1.917129e-001 -6.549420e+000 252 251 241
-6.122132e-001 6.484573e-001 -8.132826e+000 207 52 56
-1.945403e-001 2.636798e-001 -7.672572e+000 199 187 173
-8.760640e-001 -1.793064e-001 -7.049216e+000 152 157 143
7.021268e-001 7.052957e-001 -6.629280e+000 149 35 40
8.049407e-001 6.901064e-001 -6.543025e+000 242 76 86
1.523838e-001 6.302080e-001 -7.212993e+000 155 140 126
-3.038453e-001 -5.175951e-002 -6.856913e+000 93 34 29
2.774108e-001 8.640643e-001 -7.117774e+000 156 142 129
8.372584e-001 5.196313e-001 -6.470740e+000 152 25 33
-2.848830e-001 1.304208e-001 -7.863849e+000 135 15 28
1.004322e+000 -4.265762e-002 -6.451066e+000 243 236 226
3.734622e-001 6.000738e-001 -7.054843e+000 230 222 211
4.555851e-001 8.739381e-001 -6.896205e+000 241 234 228
-1.210490e-001 1.307585e+000 -7.579028e+000 29 20 23
9.906775e-001 6.881562e-001 -6.579883e+000 83 69 66
-9.009044e-003 9.080656e-001 -7.037268e+000 216 208 195
-1.946303e-001 9.806967e-001 -7.671356e+000 214 207 190
-2.151959e-001 3.138292e-001 -7.508984e+000 163 151 137
-3.504974e-001 7.671781e-001 -7.838299e+000 211 200 188
-9.310206e-001 -3.755248e-001 -6.743285e+000 154 152 151
-1.996891e-001 1.695993e-001 -7.221171e+000 121 105 92
-6.004117e-001 -6.697268e-002 -6.742591e+000 144 70 54
5.853055e-001 7.397758e-001 -6.762008e+000 204 190 178
7.369223e-001 8.290325e-001 -6.551911e+000 167 54 60
1.372189e+000 -1.147293e+000 -6.239812e+000 135 131 132
1.096038e+000 9.808049e-002 -6.346964e+000 224 83 90
-1.728359e-001 6.259635e-001 -7.675132e+000 165 154 138
4.045371e-002 6.798520e-001 -7.278161e+000 229 221 210
-4.050191e-001 -2.040926e-001 -6.679539e+000 132 41 27
1.144898e+000 -8.875898e-001 -6.408961e+000 133 127 128
9.131377e-001 2.324912e-001 -6.475120e+000 249 239 232
-5.551061e-001 -2.220434e-001 -7.274461e+000 58 18 19
-5.551061e-001 -2.220434e-001 -7.274461e+000 58 18 19
4.657568e-001 5.276616e-001 -6.937702e+000 206 194 180
5.168918e-001 5.223482e-001 -6.972840e+000 171 161 149
6.369310e-001 -3.652232e-001 -6.717011e+000 177 165 146
6.765504e-001 8.057165e-001 -6.712182e+000 210 63 73
-3.999910e-001 3.229790e-001 -8.002230e+000 70 56 56
-3.141877e-001 -3.839949e-001 -7.932479e+000 98 88 85
-2.277446e-001 1.062529e-001 -7.085102e+000 110 92 80
-4.722661e-001 -4.178708e-001 -6.651398e+000 110 26 26
6.334774e-001 -8.434530e-001 -6.784600e+000 164 40 44
9.405155e-001 1.700852e-001 -6.441960e+000 246 237 228
9.756720e-001 2.631036e-001 -6.428356e+000 234 90 97
1.347692e+000 -2.700619e-001 -6.137169e+000 255 243 193
-9.600372e-002 4.724484e-001 -7.404625e+000 200 189 179
8.838919e-001 -8.797905e-001 -6.617034e+000 247 238 229
7.405633e-001 -3.010951e-001 -6.592555e+000 248 242 231
-2.620485e-002 1.180250e+000 -7.411488e+000 196 46 48
-9.874327e-001 -3.413454e-001 -6.695260e+000 114 59 47
-7.058282e-001 -2.659946e-001 -6.604671e+000 125 57 35
5.704710e-001 -6.915159e-001 -6.865797e+000 154 137 111
2.763081e+000 -9.418912e+000 -6.250190e+000 17 16 22
1.233401e+000 -9.561426e-002 -6.187735e+000 158 154 153
5.271957e-001 1.131417e+000 -6.835832e+000 216 71 74
1.116765e+000 -4.474080e-001 -6.288229e+000 135 118 82
1.417999e-001 8.287917e-001 -7.240062e+000 236 229 221
6.985533e-001 7.094016e-001 -6.629014e+000 138 38 36
-8.318367e-001 -3.057851e-001 -7.048099e+000 102 34 16
-7.961218e-001 -2.477600e-001 -7.017389e+000 123 32 23
5.065061e-001 1.104701e+000 -6.859107e+000 232 78 85
8.049822e-001 8.791482e-002 -6.630746e+000 240 232 220
1.097125e+000 -5.801933e-001 -6.322431e+000 178 144 145
-3.358371e-001 1.058845e+000 -7.767110e+000 171 32 39
4.282828e-001 2.128508e-001 -6.915827e+000 138 124 108
5.285213e-001 5.554826e-001 -6.845905e+000 146 134 118
8.360919e-001 5.700012e-001 -6.533530e+000 230 85 92
8.797896e-001 -2.809305e-001 -6.486325e+000 158 144 125
1.364031e+000 -1.141139e+000 -6.239944e+000 124 120 119
8.071783e-001 1.008204e+000 -6.541323e+000 63 51 51
1.033400e+000 2.193713e-001 -6.348917e+000 239 90 96
2.554666e+000 -9.249315e+000 -6.219165e+000 73 71 84
-2.018159e-001 1.112166e+000 -7.457623e+000 145 117 104
3.098186e+000 -9.233996e+000 -5.875087e+000 71 72 84
3.448662e-001 3.445344e-001 -7.042185e+000 194 180 167
2.873941e-001 1.176794e+000 -7.130762e+000 217 60 67
-2.929666e-001 -2.337832e-001 -7.816741e+000 213 201 189
-2.547357e-001 -2.655776e-001 -7.779934e+000 209 197 183
-1.930552e-001 -5.691833e-002 -7.686343e+000 131 103 92
7.307757e-002 1.136777e+000 -7.408191e+000 206 43 54
4.292603e-001 -4.516127e-001 -6.847419e+000 209 194 142
8.465468e-001 6.595859e-001 -6.513100e+000 197 53 62
-4.136119e-001 -3.538639e-002 -6.832019e+000 67 19 17
2.379063e-001 -9.786853e-003 -7.278793e+000 166 153 137
-3.400324e-001 7.130752e-001 -7.696652e+000 230 223 213
-2.713653e-001 1.056873e+000 -7.766859e+000 177 33 40
-3.323306e-001 1.127701e-001 -7.047606e+000 78 36 30
2.236022e+000 -9.641260e+000 -6.922200e+000 47 45 50
2.989025e+000 -9.232710e+000 -5.870193e+000 45 44 57
1.149163e+000 -2.802778e-002 -6.216212e+000 168 48 46
-2.194579e-001 6.193419e-001 -7.683932e+000 172 160 148
8.251106e-001 4.447448e-001 -6.515116e+000 185 163 149
3.312409e+000 -9.118828e+000 -5.629718e+000 59 55 64
-5.420157e-001 -1.033071e-001 -6.693344e+000 121 43 32
2.677104e+000 -9.424349e+000 -6.116277e+000 74 77 87
2.945356e+000 -1.023432e+001 -5.787196e+000 87 92 115
2.896629e+000 -9.679812e+000 -6.071826e+000 32 28 42
-2.945974e-001 3.089189e-001 -7.819845e+000 210 198 186
-2.565500e-001 -1.833080e-001 -7.819772e+000 191 179 163
-2.565500e-001 -1.833080e-001 -7.819772e+000 191 179 163
-2.817461e-001 1.348297e+000 -7.168064e+000 215 55 61
-1.188054e-001 5.289874e-001 -7.405598e+000 182 172 160
4.548005e-001 -1.012145e-002 -6.724018e+000 178 165 146
-8.177397e-001 -2.948760e-001 -7.006002e+000 126 28 21
4.604178e-001 5.281130e-001 -6.938752e+000 206 194 180
3.195132e+000 -1.078511e+001 -5.380686e+000 243 247 253
3.007215e+000 -1.092533e+001 -5.651989e+000 25 24 29
2.730983e-001 -3.397904e+000 -8.016644e+000 186 185 183
1.384087e-001 -1.717958e+000 -7.909442e+000 170 169 167
-2.066826e-001 3.666780e-001 -7.680687e+000 216 204 191
4.164108e-001 -2.953641e+000 -7.747048e+000 166 164 167
-7.964067e-002 -4.317096e-001 -7.567709e+000 182 131 86
-1.234310e-001 5.416727e-001 -7.369452e+000 196 186 174
-9.746927e-001 -2.775440e-001 -6.599239e+000 178 112 88
-3.345240e-001 1.169848e-001 -7.052847e+000 82 39 32
2.501810e+000 -9.378281e+000 -6.363360e+000 32 30 41
4.736007e-001 -2.214270e-001 -6.761148e+000 222 214 201
4.311374e-001 -8.826580e-002 -6.737547e+000 224 216 205
1.097506e+000 -1.707385e+000 -6.625427e+000 145 139 139
1.449848e+000 -1.131805e+000 -6.079629e+000 156 158 157
-5.436569e-001 8.058984e-001 -8.097153e+000 15 13 23
-2.113961e-001 -9.762634e-002 -7.733154e+000 198 186 170
-2.277478e-001 3.090595e-001 -7.523994e+000 153 141 127
4.865031e-001 -2.776683e+000 -7.644926e+000 139 137 140
-2.297610e-001 1.684767e-001 -7.253052e+000 146 129 115
-2.184070e-001 1.334685e-001 -6.994656e+000 152 135 121
4.728610e-002 2.200625e-001 -7.057586e+000 165 151 138
1.475382e-001 9.827194e-001 -7.267392e+000 199 192 182
6.413346e-002 9.501530e-002 -6.960557e+000 199 192 176
-6.335270e-001 5.858990e-001 -8.253154e+000 198 56 54
-6.363889e-001 5.878752e-001 -8.251041e+000 198 56 54
-2.000689e-001 6.535401e-001 -7.679424e+000 212 203 190
-3.623415e-001 9.845428e-002 -7.035210e+000 79 48 44
-5.515082e-001 -7.670710e-002 -6.719734e+000 149 62 44
-2.411361e-001 1.672460e-002 -6.876403e+000 192 178 167
-2.059432e-001 7.006142e-002 -6.917067e+000 135 121 108
3.633856e-001 2.348730e-001 -6.959576e+000 128 112 97
3.768646e-001 1.327352e+000 -7.028046e+000 76 64 62
4.793639e-001 -4.711512e-002 -6.689788e+000 184 171 152
9.442324e-001 -1.078207e-001 -6.486121e+000 242 237 230
8.634084e-001 5.529298e-001 -6.558115e+000 233 90 99
-2.545820e-001 -1.582250e-001 -7.545048e+000 166 151 132
-7.604699e-001 -1.602484e-001 -7.016577e+000 118 51 33
-1.132908e-001 7.681102e-001 -7.544517e+000 161 149 137
-3.441570e-001 1.049040e-001 -7.016042e+000 70 21 17
-9.707731e-003 3.888978e-002 -6.931852e+000 197 188 173
2.322651e-001 4.846385e-002 -6.841887e+000 235 230 215
1.963760e-001 1.377406e+000 -7.300051e+000 64 55 56
2.705948e+000 -9.304657e+000 -6.223532e+000 19 18 22
3.741917e-001 1.018198e+000 -6.985758e+000 210 202 186
5.734386e-001 9.365595e-001 -6.816161e+000 230 81 91
-3.095164e-001 5.867580e-001 -7.757258e+000 231 223 212
-2.448017e-001 3.567329e-001 -7.533133e+000 205 196 182
2.126175e-001 5.686537e-001 -7.147414e+000 227 223 211
2.749384e-001 1.808305e-001 -6.889258e+000 208 200 183
4.590827e-001 5.125442e-001 -6.996350e+000 237 229 218
-2.273368e-001 5.567686e-001 -7.665030e+000 218 210 197
-2.276720e-001 2.805340e-001 -7.429046e+000 177 164 148
-2.276720e-001 2.805340e-001 -7.429046e+000 177 164 148
-1.632906e-001 6.150596e-001 -7.445139e+000 136 119 103
2.704466e+000 -1.044423e+001 -5.891364e+000 85 90 112
-2.463350e-001 8.091921e-001 -7.680863e+000 143 124 110
-2.053710e-001 4.253438e-001 -7.576769e+000 143 127 111
-1.839210e-001 8.663113e-001 -7.555065e+000 215 207 194
-1.582294e-001 8.498134e-001 -7.564875e+000 215 207 194
-2.249066e-001 -8.289036e-002 -7.739455e+000 208 200 183
-1.916360e-001 2.684537e-001 -7.679523e+000 198 181 166
-4.931820e-002 5.511013e-001 -7.353180e+000 201 191 179
-4.448871e-002 5.489754e-001 -7.356925e+000 201 191 179
-2.198182e-002 7.393885e-001 -7.323641e+000 219 210 201
6.332383e-001 2.980690e-001 -6.805062e+000 236 228 215
-3.557908e-001 8.360069e-002 -7.841798e+000 149 31 31
-2.462237e-001 -2.454362e-001 -7.749818e+000 167 155 140
-8.200951e-001 -2.542423e-001 -6.927725e+000 89 22 15
2.190193e-001 6.794823e-001 -7.225818e+000 203 194 185
3.285227e+000 -1.075404e+001 -5.608119e+000 100 93 90
9.248809e-001 -7.053756e-001 -6.480594e+000 170 52 45
2.160742e+000 -1.094557e+001 -6.013025e+000 137 132 133
1.133245e+000 -1.848358e+000 -6.700482e+000 148 146 148
3.541760e+000 -8.976076e+000 -5.212265e+000 25 22 29
1.665137e+000 -4.065358e-001 -5.685108e+000 136 133 140
-3.135152e-001 1.292402e-001 -7.052808e+000 100 82 72
5.632797e-002 1.325832e-001 -6.954327e+000 217 207 192
5.044317e-001 -1.541669e-002 -6.666159e+000 216 208 197
4.608150e+000 -1.164402e+001 -3.368687e+000 226 238 245
-1.365429e-001 1.240955e+000 -7.564612e+000 203 67 75
-4.800137e-003 8.942973e-001 -7.326693e+000 189 177 165
-3.739098e-003 8.934266e-001 -7.326904e+000 189 177 165
6.571912e-001 7.207610e-001 -6.733549e+000 190 176 167
-2.131668e-001 2.664169e-001 -7.593814e+000 157 140 125
-1.627768e-001 4.120714e-001 -7.631513e+000 133 120 104
1.260179e-001 4.942284e-002 -6.911957e+000 130 117 101
3.109889e+000 -1.032876e+001 -5.776191e+000 16 15 18
4.327275e+000 -9.150548e+000 -3.146959e+000 102 98 116
-4.925537e-001 7.443480e-001 -7.971149e+000 171 38 43
-1.749304e-001 1.018326e+000 -7.574764e+000 163 145 131
4.177676e+000 -8.263944e+000 -3.474385e+000 77 75 86
-5.888669e-001 7.093370e-001 -8.121831e+000 189 49 52
-2.288997e-001 8.698359e-001 -7.735936e+000 155 139 126
3.185913e+000 -1.079128e+001 -5.331138e+000 236 244 247
4.086132e+000 -9.104831e+000 -3.837442e+000 90 87 108
-5.622458e-001 6.067367e-001 -8.175219e+000 194 51 57
-9.672440e-001 -2.175676e-001 -6.508438e+000 40 19 12
2.738029e-001 8.663736e-001 -7.112833e+000 147 133 120
6.103777e-001 5.238067e-001 -6.800908e+000 128 112 97
-3.543153e-001 8.472745e-001 -7.798786e+000 217 61 70
4.350419e-001 -9.100534e-002 -6.755416e+000 251 244 233
-1.972070e-001 2.908763e-001 -7.214829e+000 144 129 113
-3.259633e-001 -1.074834e-002 -6.925043e+000 99 65 58
-1.362787e-001 1.206309e+000 -7.571717e+000 140 15 24
3.087401e+000 -1.071219e+001 -5.008766e+000 253 254 255
-2.085791e-001 2.904440e-001 -7.502348e+000 119 104 89
-3.031043e-001 1.661675e-001 -7.089479e+000 124 107 97
2.050475e+000 -1.078604e+001 -6.058205e+000 126 120 120
2.144481e+000 -9.431443e+000 -6.898513e+000 41 40 46
-1.630961e-001 4.676410e-001 -7.540923e+000 134 118 103
-5.687293e-001 5.539330e-001 -8.092850e+000 193 162 133
-2.833025e-002 -6.060999e-001 -7.690693e+000 241 92 97
-7.686110e-001 -2.060475e-001 -7.071410e+000 106 29 15
-3.606848e-001 3.944718e-001 -7.460609e+000 154 141 122
-2.490675e-001 1.336058e-001 -7.287532e+000 110 92 78
-1.148732e-001 2.082168e-001 -7.122976e+000 152 139 121
9.306770e-001 -6.999921e-001 -6.497452e+000 193 184 157
1.378027e+000 -1.303983e+000 -6.215488e+000 139 137 140
8.667605e-001 3.656392e-001 -6.440141e+000 236 80 92
-1.943415e-001 -1.819402e+000 -8.220012e+000 174 170 171
-2.465618e-001 -1.553445e+000 -8.141829e+000 177 173 176
-9.230480e-002 -1.697545e+000 -8.042262e+000 182 178 177
-3.071036e-001 -4.316712e-001 -7.898799e+000 130 118 112
-8.970493e-001 -3.667308e-001 -6.777421e+000 129 48 20
-2.838636e-001 1.111385e+000 -7.654377e+000 153 22 27
-1.525928e-001 4.775430e-001 -7.440929e+000 154 141 125
4.738204e-001 -4.565398e-001 -6.812666e+000 223 202 145
1.067404e+000 -4.278177e-001 -6.254316e+000 160 157 156
1.412312e+000 -7.604782e-001 -6.071036e+000 147 145 148
1.382289e+000 -7.131061e-001 -6.129548e+000 134 129 135
1.698454e+000 -1.181327e+000 -5.793932e+000 152 147 153
8.325095e-001 6.763178e-001 -6.508670e+000 191 57 62
8.840926e-001 6.261885e-001 -6.481901e+000 166 37 42
-1.293145e-002 -2.009537e+000 -8.021933e+000 96 92 91
-1.361735e-002 -1.960714e+000 -7.917431e+000 182 178 179
-3.918683e-001 3.223483e-001 -7.972863e+000 211 81 81
-3.079890e-001 2.154550e-001 -7.911338e+000 197 63 66
-6.764294e-002 -5.491115e-001 -7.695566e+000 149 38 43
-7.927099e-002 -5.002317e-001 -7.682612e+000 232 171 124
-3.279627e-001 1.035325e+000 -7.831048e+000 152 31 38
-2.120696e-001 3.079247e-001 -7.584288e+000 145 132 113
-2.143636e-001 6.674834e-001 -7.694321e+000 160 152 133
-9.627934e-001 -3.289981e-001 -6.665601e+000 147 67 38
-4.331483e-001 -4.257605e-003 -7.078556e+000 46 12 11
-2.650601e-001 1.296890e-001 -7.271728e+000 141 125 110
-9.862508e-001 -3.147686e-001 -6.577392e+000 41 13 11
-5.458349e-001 -4.850628e-002 -6.895036e+000 44 4 2
-6.368863e-001 -1.436203e-001 -6.727941e+000 68 18 13
-3.483145e-001 1.110184e-001 -6.960532e+000 94 31 26
-2.790034e-001 4.393934e-002 -6.913914e+000 68 24 15
3.571622e-002 6.205757e-001 -7.294992e+000 201 192 174
4.612177e-002 1.190710e+000 -7.306084e+000 212 67 70
7.698851e-001 -8.503834e-001 -6.683917e+000 238 98 99
1.660806e+000 -1.060181e+000 -5.852086e+000 145 143 148
1.534381e+000 -4.161264e-001 -5.905647e+000 177 170 175
-6.001948e-001 5.680154e-001 -8.184263e+000 226 76 81
-3.234878e-001 1.769902e-001 -7.952657e+000 210 79 84
-1.005018e-001 -4.931661e-001 -7.717492e+000 173 47 44
-2.671961e-001 5.083533e-001 -7.769679e+000 185 176 162
-2.184047e-001 3.464942e-001 -7.605975e+000 202 189 176
-7.817861e-001 -2.112544e-001 -6.973197e+000 85 26 17
-9.435943e-001 -3.192694e-001 -6.738740e+000 114 41 21
3.093058e+000 -9.052141e+000 -5.693702e+000 29 26 35
-5.638453e-002 4.235369e-001 -7.355655e+000 150 138 122
-1.276549e-001 8.290076e-001 -7.502542e+000 199 190 173
-9.973154e-001 -2.071528e-001 -6.443525e+000 64 37 25
7.680786e-001 -3.248838e-001 -6.594152e+000 234 226 209
6.216451e-001 6.224463e-001 -6.792440e+000 169 157 137
3.011468e+000 -9.483176e+000 -6.235150e+000 34 31 38
-1.199139e-001 4.068432e-001 -7.384749e+000 186 173 156
-9.079067e-001 -2.102727e-001 -6.429598e+000 63 37 23
-4.122575e-001 -2.584908e-001 -6.668568e+000 136 32 24
-9.120360e-002 2.663732e-002 -6.906426e+000 123 107 94
2.199090e-001 2.556912e-001 -6.987150e+000 187 171 160
7.790967e-001 -7.167923e-001 -6.674584e+000 240 232 215
3.917697e-001 4.848752e-002 -6.768206e+000 156 143 124
5.858831e-001 2.783684e-001 -6.839884e+000 226 217 202
6.770357e-001 -1.168108e-001 -6.582558e+000 234 222 205
7.210592e-001 -1.311431e-001 -6.542594e+000 148 130 106
1.317572e+000 -3.016687e-001 -6.106504e+000 166 151 163
7.014094e-001 9.282512e-001 -6.649769e+000 194 60 64
9.127641e-001 4.796921e-001 -6.384219e+000 221 86 92
-3.251688e-001 -3.703336e-001 -7.920996e+000 116 105 101
-4.874251e-001 -8.627449e-003 -7.086443e+000 86 36 25
1.123393e-001 5.659303e-001 -7.162996e+000 216 207 190
1.194879e-001 7.056849e-001 -7.262930e+000 228 216 202
1.701186e-001 4.102928e-001 -7.109440e+000 148 135 118
3.326931e-001 1.236829e-001 -6.817383e+000 209 198 180
6.802226e-001 7.116939e-002 -6.724016e+000 145 132 113
1.164586e+000 -5.017638e-001 -6.227811e+000 164 157 164
4.879911e-001 1.199426e+000 -6.836863e+000 57 58 53
1.498999e+000 -2.986548e-001 -6.160588e+000 14 10 10
1.165960e+000 1.692110e-001 -6.233393e+000 163 152 158
1.121005e+000 2.747472e-001 -6.262450e+000 153 142 146
-1.016056e+000 -3.100626e-001 -6.689781e+000 172 91 79
-1.380200e-003 5.661726e-001 -7.300698e+000 207 198 183
-4.252239e-002 5.621438e-002 -6.946859e+000 183 173 155
4.044085e-002 3.164245e-003 -6.880108e+000 149 136 117
3.326535e-001 4.669652e-001 -7.125976e+000 184 172 158
2.341814e-001 9.653986e-001 -7.207360e+000 230 222 211
6.622543e-001 -4.853276e-001 -6.634260e+000 254 241 186
5.737850e-001 2.368382e-001 -6.910644e+000 222 213 199
1.105040e+000 -4.304746e-001 -6.289260e+000 100 85 61
1.226611e+000 -2.352314e-001 -6.165184e+000 254 243 203
1.067572e+000 1.375978e-001 -6.301301e+000 211 76 81
-3.056482e-001 -3.855663e-001 -7.839732e+000 217 210 191
-1.137369e-001 6.516717e-001 -7.379950e+000 208 199 184
4.236208e-002 6.623062e-001 -7.306714e+000 222 213 196
9.450306e-001 -7.783281e-001 -6.549599e+000 221 214 198
6.980190e-001 -5.863964e-002 -6.580365e+000 162 147 127
9.239889e-001 2.902210e-001 -6.471004e+000 237 228 213
7.044635e-001 9.362144e-001 -6.690914e+000 200 63 70
1.004598e+000 2.021931e-001 -6.381750e+000 187 53 57
-2.640779e-001 1.990921e-001 -7.828223e+000 124 17 23
6.904403e-002 1.364149e+000 -7.337649e+000 21 9 14
3.304787e-001 7.313185e-001 -7.061171e+000 237 228 211
1.250129e+000 -3.220104e-001 -6.181540e+000 246 227 184
-1.886925e-001 1.322531e-001 -7.492451e+000 143 126 108
2.483907e-002 8.807997e-001 -7.313525e+000 180 167 151
1.702011e-001 6.181766e-001 -7.216277e+000 145 130 111
5.524495e-001 -1.103496e-001 -6.603753e+000 244 237 221
7.122598e-001 7.182719e-001 -6.637239e+000 124 22 26
2.692301e-001 -4.908380e-002 -6.775337e+000 238 232 213
9.742436e-001 6.620529e-004 -6.468648e+000 242 236 220
3.242051e-001 6.328310e-001 -7.041236e+000 213 204 187
3.007204e-001 6.489929e-001 -7.040417e+000 213 204 187
-3.451331e-001 5.882401e-001 -7.852231e+000 214 207 191
-5.471346e-002 1.255299e+000 -7.623779e+000 17 11 13
-4.649146e-001 -1.847969e-001 -6.983887e+000 79 26 18
2.480993e-001 7.850944e-001 -7.163465e+000 194 182 165
4.316046e-001 -1.881399e+000 -7.463206e+000 118 114 111
-2.726076e-001 -2.258273e-001 -7.776653e+000 181 166 149
-2.193499e-001 -8.718879e-002 -7.731736e+000 198 187 167
2.395566e-001 -8.667060e-001 -7.626786e+000 134 126 124
-8.078377e-002 2.780873e-001 -7.085951e+000 152 139 122
7.207951e-001 -4.621973e-001 -6.553710e+000 175 154 111
1.110508e+000 -6.116057e-001 -6.318523e+000 171 165 169
4.121498e-001 -1.499144e+000 -7.530473e+000 149 146 139
6.421901e-001 -1.997879e+000 -7.367458e+000 156 153 149
-2.030261e-001 -6.808517e-002 -7.653555e+000 135 115 98
-7.766081e-001 -3.300982e-001 -7.010600e+000 123 35 19
-8.784140e-002 2.612048e-001 -7.240109e+000 126 110 94
-1.688977e-001 1.190268e+000 -7.580316e+000 147 26 30
8.333417e-001 -7.504428e-001 -6.632517e+000 211 197 182
8.333417e-001 -7.504428e-001 -6.632517e+000 211 197 182
8.474873e-001 -6.910967e-001 -6.584233e+000 238 230 212
1.032353e+000 -6.480144e-001 -6.335063e+000 159 149 154
7.828781e-001 7.202661e-002 -6.651863e+000 187 179 160
-7.791459e-001 -2.096927e-001 -7.091037e+000 160 79 51
-3.766387e-001 7.625795e-001 -7.821155e+000 167 152 133
-3.885847e-001 7.672206e-001 -7.818202e+000 167 152 133
-1.355476e-001 8.309749e-001 -7.431329e+000 196 188 167
3.670604e-001 6.020839e-001 -6.965158e+000 195 188 172
6.186462e-001 3.621664e-002 -6.661645e+000 156 141 120
5.023651e-001 -1.858220e+000 -7.431863e+000 120 116 115
5.023651e-001 -1.858220e+000 -7.431863e+000 120 116 115
4.810282e-001 -1.735259e+000 -7.437879e+000 147 146 142
-2.362369e-001 2.208617e-001 -7.727767e+000 192 171 154
-4.458349e-001 -1.615647e-001 -7.238257e+000 51 19 14
-2.322146e-003 -3.586014e-001 -7.449203e+000 228 204 154
-3.915889e-001 6.515351e-002 -7.119728e+000 62 18 17
1.117486e+000 -6.997028e-002 -6.244785e+000 240 94 104
9.454750e-002 2.513002e-001 -6.997726e+000 212 205 186
3.820843e-001 -3.250148e-003 -6.758996e+000 218 209 192
-2.279062e-001 3.712129e-001 -7.764536e+000 196 187 170
8.777177e-001 -7.300716e-001 -6.548000e+000 226 217 200
9.490131e-001 -7.148338e-001 -6.342952e+000 166 159 167
8.882124e-001 -3.902787e-001 -6.400543e+000 254 236 196
4.840059e-001 1.118701e-001 -6.741260e+000 150 135 116
7.442638e-002 -2.627473e-001 -6.706158e+000 214 201 184
-1.511190e-001 1.365062e-002 -8.007321e+000 129 22 27
-6.689017e+000 -7.008419e+000 -2.520659e+001 91 83 80
-1.046582e+000 -1.241317e+001 -1.054056e+001 95 100 119
4.953465e-001 -1.813129e+000 -7.407680e+000 108 106 103
-2.726307e-001 2.191465e-001 -7.716662e+000 165 43 47
2.457065e-001 -1.454896e+000 -7.689099e+000 105 101 97
-2.527728e-001 -2.572199e-001 -7.761543e+000 186 173 154
-9.566408e-001 -3.639284e-001 -6.662998e+000 160 85 62
-5.958544e-001 -9.457842e-002 -6.741318e+000 119 49 39
-3.587947e-001 -3.485984e-002 -6.895141e+000 78 42 41
-8.363628e-001 -4.022717e-001 -6.765464e+000 155 136 120
1.358450e+000 -1.128484e+000 -6.237043e+000 139 137 140
-3.319360e-001 2.426932e-001 -7.887552e+000 186 55 60
-4.260213e-001 -1.431894e-001 -7.215822e+000 92 65 59
-1.794224e-001 5.436330e-001 -7.446864e+000 166 151 132
6.555147e-002 7.182370e-002 -6.935776e+000 190 179 160
1.117884e+000 -5.142875e-001 -6.243230e+000 176 171 172
1.893558e-001 2.120945e-001 -6.948035e+000 167 156 138
7.776557e-001 5.897420e-002 -6.694953e+000 196 188 169
4.623362e-001 6.848395e-001 -6.967713e+000 233 225 212
2.987978e-001 1.312775e+000 -7.088706e+000 199 63 66
2.480059e-001 1.011154e+000 -7.216222e+000 211 203 190
3.299544e-001 1.294322e+000 -7.043847e+000 211 68 71
3.386769e-001 1.331937e+000 -7.126888e+000 50 30 31
3.130953e-001 1.332050e+000 -7.058031e+000 71 38 38
5.196667e+000 -6.794129e+000 -1.538866e+000 79 74 80
1.104240e+000 -7.951826e-001 -6.362825e+000 162 151 157
9.748992e-001 -2.296630e-001 -6.451226e+000 206 198 179
3.741222e-001 1.246572e+000 -6.983418e+000 207 64 70
1.236403e-001 3.735642e-001 -7.103403e+000 190 177 162
5.990384e-001 9.419462e-001 -6.812894e+000 210 71 78
-5.385653e-001 4.598506e-001 -7.916778e+000 210 192 171
-8.121807e-002 -4.692744e-001 -7.586352e+000 170 106 60
-8.121807e-002 -4.692744e-001 -7.586352e+000 170 106 60
-6.870881e-002 -4.580835e-001 -7.570536e+000 219 166 119
8.262175e-002 -6.227147e-001 -7.549864e+000 92 25 6
-7.679042e-001 -3.141499e-001 -7.025209e+000 136 49 26
1.969380e-002 -4.166544e-001 -7.473556e+000 117 67 28
-2.098645e-002 -3.789516e-001 -7.444773e+000 254 236 179
-9.696712e-001 -3.384817e-001 -6.595216e+000 62 24 14
-9.714208e-001 -3.180266e-001 -6.613346e+000 141 63 37
-5.434293e-001 -6.912148e-002 -6.825032e+000 88 33 26
-3.054406e-001 1.482543e-003 -6.933121e+000 68 31 22
1.469978e+000 -1.723400e+000 -6.238651e+000 152 152 150
4.787100e-001 -1.149869e-001 -6.722045e+000 233 226 208
-5.995065e-002 1.135481e+000 -7.440892e+000 208 50 58
9.001032e-001 -4.282091e-001 -6.527813e+000 175 160 138
8.930025e-001 -4.250959e-001 -6.529439e+000 175 160 138
-3.979014e-002 1.329871e+000 -7.429093e+000 91 13 17
1.348863e+000 -1.120647e+000 -6.090894e+000 184 179 183
9.095946e-001 -4.304967e-001 -6.298684e+000 188 170 172
1.298266e+000 -1.783781e-001 -6.113720e+000 70 60 49
1.154956e+000 9.809017e-002 -6.226015e+000 152 134 136
1.120739e+000 2.394802e-001 -6.266725e+000 150 137 133
-6.165122e-001 5.906714e-001 -8.271795e+000 72 40 43
-6.531251e-001 -3.722468e-001 -7.142762e+000 153 57 26
-5.190333e-001 -2.586465e-001 -7.318685e+000 255 240 185
-2.091274e-001 -2.336586e-002 -7.680473e+000 139 110 94
-7.781574e-001 -1.821490e-001 -7.133874e+000 145 70 49
-7.743450e-001 -1.840229e-001 -7.134499e+000 145 70 49
-7.265696e-001 -3.308084e-001 -6.949412e+000 93 22 12
-5.137500e-001 -1.653148e-001 -7.215702e+000 114 85 81
-1.003122e+000 -3.725213e-001 -6.713599e+000 131 135 126
-8.833288e-001 -3.792953e-001 -6.779810e+000 127 53 33
-8.276599e-001 -3.804704e-001 -6.782648e+000 110 46 22
-4.406634e-001 1.000810e+000 -7.819888e+000 173 40 54
-3.947964e-001 1.007929e+000 -7.820456e+000 162 40 43
-3.381641e-001 -1.417384e-002 -7.188843e+000 82 58 48
-1.433234e-001 6.319157e-001 -7.611322e+000 153 142 124
-1.361794e-001 6.312670e-001 -7.611465e+000 153 142 124
-3.776752e-001 3.678621e-001 -7.222276e+000 137 121 105
1.205165e-002 3.754423e-001 -7.490409e+000 145 132 113
-2.032326e-001 5.068586e-001 -7.486779e+000 139 124 105
-9.416978e-001 -2.284071e-001 -6.459871e+000 180 161 137
-9.416978e-001 -2.284071e-001 -6.459871e+000 180 161 137
-1.997317e-001 1.058583e+000 -7.697920e+000 159 28 33
-8.716476e-001 -2.348939e-001 -6.460643e+000 137 115 96
-2.329099e-001 8.682756e-003 -6.873143e+000 186 172 152
-3.174136e-001 1.149753e+000 -7.633526e+000 157 30 34
6.957175e-001 -3.515667e-001 -6.627640e+000 157 143 122
1.630287e-001 9.643376e-001 -7.264388e+000 187 181 164
1.540222e+000 -1.202723e+000 -6.052147e+000 143 138 142
1.526575e+000 -1.200889e+000 -5.992850e+000 190 185 189
1.641065e+000 -1.313015e+000 -5.915569e+000 175 170 176
1.721221e+000 -1.366629e+000 -5.900648e+000 175 170 176
1.577248e+000 -1.183526e+000 -5.895155e+000 194 189 195
1.598592e+000 -4.592722e-001 -5.860900e+000 141 136 142
8.372104e-001 3.963163e-001 -6.458257e+000 225 207 189
1.924064e+000 -6.864093e-001 -5.532437e+000 147 144 150
1.786535e+000 -4.713993e-001 -5.669449e+000 140 133 141
6.195614e-001 1.302484e+000 -6.775950e+000 85 76 74
2.797383e+000 -1.506020e+000 -4.638728e+000 185 183 188
1.973938e+000 -3.306075e-001 -5.425764e+000 151 145 149
-2.353800e-001 1.225205e-001 -8.010229e+000 17 16 17
-3.204920e-001 2.861082e-002 -7.866277e+000 206 76 78
-2.665467e-001 2.094518e-001 -8.006426e+000 202 72 74
-7.874319e-001 -2.569457e-001 -7.077789e+000 181 89 58
-7.938953e-001 -1.967024e-001 -7.091547e+000 171 97 65
-1.769552e-002 -3.568063e-001 -7.479044e+000 243 223 166
-2.171670e-001 6.511513e-001 -7.653843e+000 162 151 133
-3.494092e-001 6.009606e-003 -6.924037e+000 89 55 48
-3.530748e-001 9.383694e-002 -7.038861e+000 81 50 40
-2.983510e-001 8.955584e-002 -7.047156e+000 77 30 22
-2.653331e-001 1.188830e-001 -7.016205e+000 100 82 72
-7.861768e-001 -2.842534e-001 -6.460879e+000 71 49 28
6.706917e-001 -6.194174e-001 -6.670854e+000 238 235 223
6.861718e-002 5.903622e-001 -7.227812e+000 180 167 150
4.971357e-001 1.421770e-001 -6.835732e+000 141 126 107
