ply
format ascii 1.0
element vertex 730
property float x
property float y
property float z
property float nx
property float ny
property float nz
property uchar red
property uchar green
property uchar blue
end_header
0.731882 0.380234 -6.17119 -0.528051 0.782202 0.330638 216 213 207
0.805536 0.408353 -6.11154 0.163287 0.47769 0.863221 185 179 169
0.871119 0.45572 -5.92056 -0.54866 0.466447 0.693829 199 190 150
1.30113 0.569284 -5.55853 -0.417937 0.830814 0.367527 239 235 229
1.80326 0.718704 -4.98361 0.448529 0.631543 0.632436 190 173 163
2.04535 0.688124 -5.21826 -0.208145 0.338914 0.917504 136 86 37
2.06142 0.690801 -5.20969 -0.291306 0.285274 0.913105 152 101 38
2.06929 0.699362 -5.18589 -0.976723 -0.100648 0.189428 170 117 39
2.06706 0.703232 -5.16671 -0.983245 -0.0875779 0.159871 175 121 38
2.17741 0.757744 -4.91913 -0.983257 -0.0526287 0.174456 192 112 57
2.66363 0.733167 -5.28464 0.00405372 0.895908 0.44422 165 146 135
-0.07939 0.255726 -6.32605 -0.622157 0.650982 0.434906 215 212 209
0.00882518 0.28273 -6.26511 -0.560747 0.754878 0.340179 194 188 182
0.145434 0.297282 -6.2382 -0.503632 0.795672 0.336543 189 183 174
0.220854 0.301184 -6.2725 -0.384313 0.719627 0.578309 185 179 169
0.222944 0.308098 -6.29525 -0.464576 0.812283 0.352655 184 177 167
0.236912 0.305993 -6.25974 -0.297609 0.890146 0.345063 184 177 168
0.25421 0.307869 -6.24838 -0.492702 0.803646 0.333763 190 183 174
0.267439 0.310008 -6.23009 -0.595494 0.699216 0.395581 212 207 198
0.402066 0.335509 -6.17307 -0.790206 0.379135 0.481489 217 212 203
0.528509 0.355594 -6.1711 0.608458 0.606886 0.51134 164 155 141
0.610631 0.353785 -6.21773 0.354463 0.805327 0.475189 170 163 154
0.713959 0.358191 -6.16098 -0.571658 0.759494 0.310445 209 205 198
0.806865 0.395382 -6.09288 -0.311145 0.690155 0.653356 163 155 143
0.801222 0.383955 -6.07978 -0.0447295 0.527472 0.848394 149 142 129
1.97382 0.686574 -5.10759 0.419073 0.519461 0.744673 106 61 38
2.15924 0.700614 -5.10422 -0.883556 0.0137006 0.468124 178 97 41
2.13137 0.726748 -4.98041 -0.991831 0.0781201 0.100835 187 108 52
2.62022 0.713018 -5.23081 0.354486 0.643365 0.678543 166 148 137
2.69297 0.718931 -5.29334 0.323624 0.676265 0.661765 166 147 133
-0.0897043 0.25715 -6.30301 -0.504414 0.755342 0.418359 220 217 214
-0.00883116 0.274508 -6.24747 -0.185371 0.920506 0.343958 201 195 190
0.202558 0.294585 -6.19983 0.00802481 0.946764 0.321829 193 186 177
0.236817 0.297904 -6.2393 -0.371072 0.864607 0.338764 188 182 172
0.250674 0.294688 -6.23056 -0.545769 0.752587 0.368441 192 186 176
0.400845 0.308439 -6.20966 -0.407205 0.844899 0.346886 209 205 195
0.529034 0.32396 -6.14628 0.224117 0.735417 0.639479 166 157 144
0.698763 0.349931 -6.17136 -0.636906 0.68762 0.34861 206 202 195
0.739506 0.357299 -6.09568 -0.357756 0.709001 0.607723 215 212 205
0.757024 0.368614 -6.09967 -0.289778 0.698949 0.653834 212 208 201
0.774293 0.366054 -6.08785 -0.00406536 0.559104 0.829088 180 174 163
0.768559 0.358999 -6.0713 -0.445429 0.667402 0.596798 162 154 142
0.785827 0.370166 -6.07623 -0.104054 0.542329 0.833698 153 145 132
0.78245 0.362737 -6.05643 -0.310317 0.590909 0.744667 133 125 111
0.792884 0.368883 -6.04282 -0.117555 0.390447 0.913089 125 117 102
0.883008 0.475232 -5.58158 -0.202427 0.903691 0.377314 186 179 169
0.900732 0.482317 -5.58874 -0.202815 0.888629 0.411344 186 178 169
1.04995 0.468603 -5.67239 -0.467952 0.61837 0.631379 196 190 180
2.60369 0.708667 -5.21846 0.377681 0.40091 0.834643 164 146 135
2.66439 0.699261 -5.25994 0.363303 0.494156 0.789823 165 148 135
2.66439 0.699261 -5.25994 0.363303 0.494156 0.789823 165 148 135
-0.183309 0.18409 -6.45038 -0.70899 0.572157 0.412272 207 202 198
-0.139857 0.205688 -6.33974 0.110981 0.937054 0.331079 206 200 197
0.250701 0.281639 -6.21283 -0.641925 0.65317 0.401624 195 189 180
0.394362 0.291436 -6.15369 -0.763711 0.551903 0.334885 220 216 207
0.529732 0.318485 -6.14514 0.228317 0.562798 0.794437 167 158 145
0.724357 0.340885 -6.09443 -0.453571 0.760804 0.464167 214 211 204
0.765952 0.349007 -6.05404 -0.372912 0.66055 0.651621 137 129 114
0.759996 0.344212 -6.03631 -0.536343 0.737193 0.410954 123 114 99
0.775859 0.358283 -6.03855 -0.511601 0.708808 0.485649 122 114 99
0.821138 0.45232 -5.62936 -0.200148 0.922438 0.330224 179 172 158
2.03714 0.659238 -5.07742 -0.0467846 0.320935 0.945945 153 101 37
2.13356 0.671878 -5.09587 -0.338732 0.221373 0.91447 182 113 36
-0.538595 0.229114 -5.97147 0.629861 0.567744 0.53004 122 64 53
-0.519396 0.22858 -5.98757 0.823199 0.317733 0.47052 125 68 58
-0.0164509 0.236952 -6.21412 -0.494528 0.763006 0.416249 213 209 204
0.392619 0.2773 -6.15386 -0.741184 0.583685 0.331601 220 216 207
0.663847 0.302605 -6.11594 -0.432785 0.798928 0.417626 205 200 193
0.666288 0.311365 -6.13821 -0.371994 0.847127 0.379469 206 202 195
0.69493 0.310622 -6.06869 -0.391428 0.734095 0.554877 211 207 200
0.697238 0.318324 -6.09097 -0.461164 0.818945 0.34155 212 208 201
0.708594 0.326277 -6.09067 -0.472112 0.744247 0.472447 214 210 203
0.728887 0.322542 -6.06043 -0.396316 0.68498 0.61134 179 173 163
0.742445 0.331405 -6.03632 -0.456169 0.743206 0.489444 129 120 105
0.75562 0.331837 -6.01905 -0.396358 0.687585 0.608381 111 102 85
0.772542 0.345815 -6.01855 -0.593462 0.669789 0.446301 114 105 87
0.860805 0.453544 -5.5599 -0.157154 0.764329 0.625383 185 177 168
0.982942 0.438174 -5.62045 0.227287 -0.202876 0.952461 189 182 172
-0.507469 0.213851 -6.02512 0.83068 -0.010325 0.556654 129 76 64
-0.169118 0.175511 -6.324 -0.770784 0.47088 0.429144 190 183 179
0.0104339 0.217534 -6.16398 -0.0966697 0.911607 0.399534 208 204 198
0.0272898 0.225792 -6.17867 -0.528634 0.752497 0.392804 200 194 187
0.0709324 0.224275 -6.18581 -0.70297 0.589653 0.39767 195 189 182
0.194222 0.238571 -6.14642 -0.504361 0.785224 0.359225 189 182 173
0.408731 0.275775 -6.07809 -0.826665 0.393916 0.401814 223 219 210
0.392824 0.26304 -6.09877 -0.803136 0.441081 0.400524 229 226 217
0.568611 0.271762 -6.10332 -0.102398 0.733533 0.671896 198 193 183
0.587416 0.279866 -6.11073 -0.00723065 0.761769 0.647808 183 176 165
0.67946 0.295128 -6.0664 -0.367075 0.742818 0.559891 209 205 198
0.681827 0.30331 -6.08628 -0.410279 0.831899 0.373652 210 206 198
0.695905 0.295751 -6.05272 -0.430375 0.775959 0.461156 194 189 179
0.712991 0.308013 -6.05689 -0.465324 0.762296 0.449864 186 180 170
0.709119 0.306051 -6.03056 -0.497621 0.802882 0.328259 143 135 121
0.723897 0.313986 -6.01493 -0.331095 0.810173 0.483731 112 103 87
0.856727 0.43305 -5.55203 -0.135057 0.899817 0.414836 184 176 167
2.82124 0.618754 -5.38606 -0.114234 0.9269 0.357502 170 152 135
-0.761308 0.194781 -5.91279 -0.542845 0.682872 0.488882 218 123 73
0.439377 0.245465 -6.06918 0.202008 0.177992 0.963074 177 169 153
0.530468 0.253445 -6.09394 -0.527609 0.761258 0.376981 207 202 194
0.548124 0.265943 -6.09724 -0.204543 0.895178 0.396004 209 205 196
0.549075 0.262866 -6.09809 -0.142493 0.69963 0.700153 209 204 196
0.547758 0.264216 -6.09713 -0.422568 0.822209 0.381324 209 204 196
0.568841 0.25674 -6.08852 -0.122124 0.68246 0.720649 189 183 172
0.605694 0.258552 -6.08658 -0.0668914 0.730817 0.679288 191 184 173
0.620725 0.259628 -6.07286 -0.36553 0.804505 0.468145 203 197 187
0.624563 0.265975 -6.0941 0.00404373 0.718335 0.695686 198 192 182
0.663136 0.281298 -6.06305 -0.40033 0.77174 0.494118 208 203 196
0.671753 0.354774 -5.68341 -0.796656 0.465315 0.385773 135 125 111
0.74853 0.397744 -5.5415 -0.459482 0.748695 0.477841 222 218 210
1.27924 0.433052 -5.55634 -0.958892 0.0871692 0.270051 228 224 217
1.93017 0.614938 -5.02375 0.182821 0.500547 0.846185 192 170 157
-0.564165 0.172029 -5.95555 0.515339 -0.129876 0.847088 112 54 46
-0.484225 0.172384 -6.00016 0.803756 0.446245 0.3935 105 52 44
-0.246573 0.112611 -6.33639 -0.0258301 0.93964 0.341188 123 93 85
0.232555 0.201592 -6.13491 -0.792767 0.433258 0.428728 196 189 179
0.232555 0.201592 -6.13491 -0.792767 0.433258 0.428728 196 189 179
0.503117 0.243486 -6.07022 0.471178 0.288402 0.833556 203 197 186
0.531934 0.236825 -6.0794 -0.236305 0.634834 0.735626 208 204 194
0.54942 0.247224 -6.08375 -0.184015 0.672785 0.716588 203 197 187
0.548955 0.233083 -6.0688 -0.197496 0.746255 0.635688 192 185 174
0.568631 0.241992 -6.07388 -0.197836 0.72731 0.657177 186 179 167
0.586559 0.251235 -6.07939 -0.214593 0.731679 0.646989 186 179 167
0.585803 0.237883 -6.06164 -0.293147 0.756997 0.583969 195 188 177
0.600208 0.311983 -5.74912 -0.498395 0.782766 0.372667 168 161 151
0.730357 0.388164 -5.54014 -0.536151 0.763213 0.360622 229 225 219
0.748399 0.377299 -5.52999 -0.813581 0.325556 0.481767 222 218 211
1.93925 0.604313 -4.99226 0.436248 0.642084 0.630409 187 162 146
2.229 0.667696 -4.80001 0.17393 0.836997 0.518829 149 129 121
-0.680626 0.160345 -5.90115 0.39483 -0.457933 0.796497 132 61 45
-0.661226 0.157722 -5.91281 0.372096 -0.379542 0.847049 126 59 45
-0.622535 0.14 -5.98256 0.820908 -0.159782 0.548251 133 69 55
-0.608733 0.148124 -5.98067 0.418459 -0.488914 0.765412 125 61 49
-0.578237 0.158169 -5.94982 0.703568 0.439162 0.558684 118 58 48
-0.308502 0.0902369 -6.28496 -0.423282 0.219496 0.879007 94 50 42
-0.295792 0.109374 -6.28632 -0.519656 0.380338 0.765049 108 58 48
-0.0908236 0.151253 -6.16256 -0.218283 0.929597 0.296988 206 201 194
0.444553 0.218839 -6.06181 0.0670355 0.430829 0.89994 174 166 151
0.465841 0.218209 -6.06408 0.400633 0.216639 0.890259 182 174 159
0.56904 0.226868 -6.05875 -0.259069 0.710655 0.654104 190 183 171
-0.7153 0.135891 -5.89899 0.0130451 -0.279542 0.960045 135 59 43
-0.578946 0.138109 -5.96706 -0.185115 -0.54817 0.815624 131 67 53
-0.576011 0.116432 -5.9986 0.162989 -0.560489 0.811965 135 68 52
-0.456741 0.134145 -6.03662 0.856249 0.3344 0.393719 102 52 45
-0.354751 0.0753419 -6.25977 0.551324 0.485822 0.678247 106 56 46
-0.233544 0.0851227 -6.28805 0.551295 0.608984 0.570273 101 75 66
-0.232105 0.0859984 -6.28544 0.529144 0.627731 0.570929 101 76 67
0.477489 0.197274 -6.06322 0.405056 0.236402 0.883201 201 195 182
0.897993 0.358481 -5.54629 0.0834253 0.893429 0.44139 183 174 165
2.23504 0.645698 -4.79446 -0.747218 0.551821 0.370349 157 138 127
-0.782522 0.10179 -5.90455 -0.104776 -0.336346 0.935892 150 62 38
-0.767843 0.116849 -5.90135 0.000197217 -0.344677 0.938721 154 68 44
-0.701193 0.0994388 -5.9379 0.395204 -0.367212 0.842003 127 56 43
-0.641463 0.0925146 -6.00094 0.641561 -0.214542 0.736459 109 46 38
-0.614757 0.105017 -6.00778 0.418982 -0.527333 0.739171 117 52 42
-0.584912 0.105977 -6.00282 0.209234 -0.460513 0.862641 133 63 48
-0.558342 0.0984475 -6.01162 -0.536313 -0.429 0.726861 144 69 51
-0.557567 0.100555 -6.00859 -0.515746 -0.445094 0.73205 145 69 51
-0.464145 0.108856 -6.01867 0.828001 0.312534 0.465551 112 57 48
-0.449617 0.105754 -6.04861 0.864353 0.286739 0.413128 108 56 48
-0.358241 0.060262 -6.23735 0.355741 0.868071 0.346267 90 45 38
-0.242544 0.0553822 -6.28349 0.171609 0.258964 0.95052 90 64 57
-0.242544 0.0553822 -6.28349 0.171609 0.258964 0.95052 90 64 57
0.391699 0.163617 -6.04207 -0.106204 0.287001 0.952025 186 178 165
-0.657212 0.0875148 -5.98801 0.654995 -0.203127 0.72782 109 47 39
-0.623173 0.0788491 -6.0226 0.808921 0.417191 0.414244 110 45 37
-0.357498 0.0451416 -6.21996 0.392961 0.873985 0.285889 85 43 38
-0.327 0.0249753 -6.26797 0.77265 0.519742 0.364528 87 48 44
0.0870161 0.118432 -6.06054 0.46014 0.783296 0.417993 185 178 170
0.360132 0.145691 -6.04227 -0.277927 0.303718 0.911324 214 209 199
0.380358 0.145681 -6.03611 -0.192996 0.5058 0.840785 186 179 165
0.408028 0.142289 -6.03778 0.0835318 0.252611 0.963955 184 176 162
0.438338 0.162805 -6.04316 0.118027 0.357579 0.926395 194 187 175
0.418008 0.160218 -6.04328 0.0615581 0.2879 0.95568 179 171 157
-0.443696 0.0703153 -6.00986 0.418226 0.0960969 0.903245 101 48 42
-0.35936 0.0180081 -6.21491 0.702326 0.380033 0.601924 88 44 40
0.322991 0.122128 -6.03916 -0.227471 0.330907 0.915837 209 203 192
0.399495 0.133691 -6.03256 0.0970847 0.399859 0.911421 184 177 163
1.29205 0.338274 -5.49005 -0.965113 0.059864 0.254897 225 220 213
-0.886036 0.0373283 -5.93245 -0.694967 0.495584 0.520977 238 136 82
-0.388679 0.0102863 -6.14993 0.811413 0.288347 0.508395 100 52 45
-0.109339 0.0459312 -6.11008 -0.491351 0.799104 0.34642 200 190 178
-0.110251 0.0438112 -6.09474 -0.349366 0.874318 0.336915 164 151 127
-0.0927675 0.0467557 -6.08179 -0.270365 0.821762 0.501607 170 158 138
0.267716 0.103151 -6.05279 -0.780135 0.479394 0.40196 215 210 201
0.286067 0.0983564 -6.03535 -0.309149 0.498217 0.810066 205 200 190
0.303921 0.109921 -6.03791 -0.198498 0.543409 0.815662 199 193 183
0.380473 0.167788 -5.7789 -0.423148 0.772723 0.473122 212 207 200
0.39233 0.180038 -5.76017 -0.444495 0.851858 0.277058 212 208 201
0.41044 0.187687 -5.76994 -0.467693 0.834727 0.29068 211 207 200
1.33295 0.342694 -5.44579 0.178539 0.879039 0.442056 236 232 225
2.6189 0.506704 -5.21016 -0.96201 -0.156543 0.223676 161 140 133
-0.816972 0.012579 -5.89874 -0.0262376 0.718584 0.694946 195 94 52
-0.352868 -0.0125459 -6.15336 0.852781 0.313775 0.417505 90 48 43
-0.0643224 0.048379 -6.05481 -0.243351 0.89227 0.380309 161 150 128
0.358851 0.154492 -5.7512 -0.681026 0.605539 0.411736 223 219 213
0.400412 0.151005 -5.75632 -0.527542 0.0175323 0.849348 216 212 205
0.415884 0.167914 -5.75735 -0.261766 0.354843 0.897533 213 209 203
-0.866216 -0.00120064 -5.9149 -0.595381 0.0940047 0.797926 224 114 62
-0.844017 0.00359523 -5.89817 -0.40947 0.155264 0.899015 218 113 63
-0.825791 -0.00499862 -5.89194 0.212658 0.300018 0.929928 193 93 49
-0.805725 -0.00743227 -5.89934 0.343841 0.20635 0.916075 170 76 44
-0.781219 -0.00207178 -5.91304 0.468644 0.135663 0.872908 150 65 41
-0.771193 0.00719392 -5.91098 0.619046 -0.0639859 0.782744 138 57 37
-0.674103 -0.00875657 -5.96385 0.302616 0.26708 0.914927 150 72 46
-0.590219 -0.0142826 -5.99391 0.210184 0.234921 0.949018 156 76 51
-0.590864 -0.0113946 -5.99038 0.15524 0.314463 0.93649 157 77 51
-0.597599 0.00319556 -5.98815 0.177265 0.597602 0.781952 162 82 56
-0.569914 -0.0111956 -5.99377 0.172069 0.0956089 0.980434 157 75 50
-0.549206 -0.00797832 -5.99173 0.0199763 0.177292 0.983956 159 80 55
-0.493011 0.00430067 -6.00703 0.482505 -0.12882 0.866369 124 59 42
-0.484123 0.00465516 -5.98358 -0.267349 -0.0910133 0.959292 100 48 39
-0.485696 -0.00826269 -6.00436 0.0479331 -0.268936 0.961965 102 49 39
-0.373605 -0.0285387 -6.14877 0.772806 -0.123868 0.622437 94 51 44
-0.260527 -0.0607693 -6.30174 -0.684616 -0.184992 0.705038 90 68 59
0.232765 0.0501224 -6.01516 0.574577 0.632045 0.519982 188 181 170
0.249843 0.0617621 -6.01942 0.450165 0.59909 0.66215 202 196 186
0.275532 0.10642 -5.8475 -0.620145 0.726419 0.296201 125 117 106
0.318005 0.117747 -5.79181 -0.541303 0.61279 0.575743 223 220 213
0.330188 0.12506 -5.77142 -0.534167 0.39941 0.745075 225 221 215
0.360353 0.131659 -5.74337 -0.709911 0.615692 0.34198 222 219 213
1.32261 0.299585 -5.46277 -0.367569 0.0934533 0.925289 237 233 227
2.92648 0.43905 -5.39641 -0.0340721 0.811201 0.583774 155 136 115
-0.856921 -0.0253832 -5.87894 -0.320805 0.34673 0.881398 221 120 67
-0.814685 -0.0133221 -5.87907 0.156364 0.203296 0.966551 161 68 38
-0.69722 -0.0258751 -5.95016 0.142095 0.329468 0.933413 162 80 52
-0.663705 -0.0176737 -5.96534 0.190391 0.363454 0.91195 154 76 49
-0.642642 -0.0206023 -5.97093 0.184178 0.31552 0.930874 155 78 52
-0.602187 -0.0249425 -5.98379 0.192646 0.23363 0.95305 146 68 44
-0.569467 -0.0141479 -5.99481 0.047724 0.237178 0.970293 157 75 50
-0.580426 -0.0233162 -5.98242 0.209214 0.241316 0.947627 153 75 50
-0.559477 -0.0260712 -5.98652 0.0442058 0.317745 0.947145 150 74 51
-0.538637 -0.021711 -5.98761 0.0286827 0.122082 0.992105 134 65 44
-0.505164 -0.00899806 -5.99379 0.762201 0.138085 0.632441 116 54 40
-0.496968 -0.0203709 -5.9895 -0.214266 -0.167913 0.962234 91 44 37
-0.472463 -0.0307862 -6.01221 -0.10095 -0.27596 0.955853 90 45 38
-0.460516 -0.0110988 -6.00865 -0.355209 -0.248281 0.901212 91 45 37
-0.437471 -0.0351271 -6.03868 0.839734 0.322506 0.43685 100 51 43
-0.40862 -0.0521051 -6.12747 0.23716 -0.0984889 0.966465 98 51 42
-0.396867 -0.0508961 -6.14677 0.744988 -0.236789 0.623638 97 52 43
-0.381029 -0.0351511 -6.11672 0.700419 0.388607 0.598663 92 48 41
-0.293269 -0.0763084 -6.29721 0.75835 0.517567 0.39627 74 50 45
-0.106735 -0.000319352 -6.06754 -0.172128 0.355181 0.918814 100 86 58
-0.0928403 0.00842525 -6.05078 0.0601073 0.468942 0.881182 104 90 62
0.119585 0.0372338 -5.98033 0.242668 0.413169 0.877727 153 144 131
0.166822 0.0278264 -6.01427 -0.624374 0.374089 0.685722 198 193 183
0.299078 0.107619 -5.7904 -0.598305 0.731714 0.326536 227 224 217
0.317409 0.0963789 -5.77692 -0.474759 0.238865 0.847081 226 222 216
-0.833915 -0.0039537 -5.77577 -0.397978 -0.117804 0.9098 149 60 35
-0.853526 -0.0271958 -5.86525 -0.638704 0.59007 0.493838 206 105 55
-0.854425 -0.0269801 -5.86743 -0.625334 0.587169 0.513994 209 108 57
-0.836158 -0.0246396 -5.87064 -0.310712 0.287885 0.905859 182 84 44
-0.83056 -0.026918 -5.85468 -0.648495 0.535661 0.540852 146 57 32
-0.419971 -0.0644586 -6.1107 0.00625033 -0.116038 0.993225 97 50 41
-0.310807 -0.094302 -6.24115 0.787572 0.497363 0.363815 91 68 64
0.268772 0.0762507 -5.7899 -0.432925 0.445801 0.783478 225 221 215
0.431574 0.102456 -5.72806 -0.855424 0.407539 0.319628 221 217 212
-1.98699 -0.148727 -5.84568 0.147126 0.955248 0.256623 66 32 33
-0.591903 0.0357718 -5.64591 0.0389577 0.845893 0.531928 118 73 60
-0.591918 0.034631 -5.64631 -0.00653409 0.844246 0.535916 119 75 62
-0.592235 0.0198196 -5.6345 0.19506 0.833887 0.516318 158 134 121
-0.180453 -0.00169347 -5.83901 -0.778709 -0.160585 0.606485 86 73 55
-0.164828 -0.0421106 -6.04598 -0.829093 -0.0766093 0.553838 82 68 52
-0.164831 -0.0435611 -6.05134 -0.822085 -0.0878043 0.562554 82 68 52
-0.145892 -0.0565391 -6.05786 -0.247769 0.807197 0.535764 93 79 55
-0.128679 -0.0535415 -6.0402 0.174854 0.776851 0.604921 123 110 81
0.0508924 -0.0150227 -5.953 0.593759 0.445328 0.670174 105 93 71
0.292206 0.0591458 -5.78501 -0.347702 0.14704 0.926004 225 222 215
1.87238 0.403648 -4.99282 -0.98838 0.00385542 0.151957 239 233 225
-1.47008 -0.0500628 -5.59745 -0.380679 0.0627858 0.922573 113 47 42
-0.634695 0.00394602 -5.60966 0.15522 0.841958 0.516734 183 170 157
-0.576747 0.0123131 -5.65776 0.386691 0.775759 0.498666 153 127 115
-0.332845 -0.089353 -6.05034 -0.681042 0.636223 0.362494 63 41 37
1.59713 0.279144 -5.29295 -0.930433 0.129551 0.3428 235 230 225
-1.94347 -0.183746 -5.8375 0.473619 0.86836 0.14709 62 34 33
-1.31798 -0.207059 -6.09062 0.865155 0.295302 0.405343 107 31 34
-0.716835 0.0042314 -5.53803 0.00175089 0.84676 0.531973 173 160 145
-0.694071 0.0116842 -5.53574 0.129077 0.92531 0.356568 168 153 139
-0.677308 0.00891343 -5.52548 0.325278 0.884209 0.335213 171 157 142
-0.662215 0.00524886 -5.52536 0.405437 0.851848 0.331625 169 155 140
-0.67467 0.00742958 -5.54932 0.294973 0.910757 0.288985 166 151 136
-0.646839 0.00525604 -5.54761 0.225193 0.911915 0.343074 158 143 128
-0.326442 -0.111143 -6.03638 -0.173227 0.759482 0.627041 90 72 65
-0.00981571 -0.0296036 -5.87547 -0.105232 0.73648 0.668224 87 74 55
0.0100168 -0.0382072 -5.8706 -0.203036 0.878306 0.432846 87 75 57
0.0460406 -0.029547 -5.86706 -0.27383 0.876757 0.395365 96 85 67
0.0658398 -0.0260748 -5.87757 -0.316302 0.890868 0.326047 88 78 61
0.0638426 -0.0280455 -5.85394 -0.321881 0.852238 0.412412 128 118 105
0.0820718 -0.0197758 -5.86311 -0.439374 0.845744 0.302766 104 95 82
0.164504 0.00435488 -5.78587 -0.478797 0.797035 0.368088 212 208 201
0.202518 0.010737 -5.78643 -0.463731 0.438204 0.77002 216 212 206
-1.88675 -0.179373 -5.78007 -0.257058 0.54004 0.801422 82 39 40
-1.86739 -0.177281 -5.76579 -0.238411 0.825535 0.511519 96 53 49
-1.36764 -0.21309 -6.07552 0.834807 0.298738 0.462442 97 28 31
-1.3679 -0.212694 -6.07604 0.891768 0.298864 0.33975 104 31 33
-1.33229 -0.22683 -6.08711 0.887843 0.290635 0.356745 98 30 33
-1.30918 -0.225248 -6.08598 0.688311 0.246304 0.682321 94 28 29
-0.783291 -0.00408351 -5.5135 -0.43711 0.671724 0.598099 143 45 46
-0.646029 -0.00567292 -5.52541 0.176749 0.537628 0.824449 165 151 136
-0.630112 -0.0017388 -5.53146 0.276756 0.595577 0.754118 164 150 137
-0.613495 -0.0108836 -5.53597 -0.202587 0.867811 0.453721 191 180 169
-0.613487 -0.00911491 -5.53308 0.27171 0.86914 0.413243 191 180 168
-0.613875 -0.00153048 -5.55141 -0.094271 0.756712 0.646916 189 179 169
-0.596285 -0.00372258 -5.54466 0.0510997 0.728191 0.683467 187 179 167
-0.285963 -0.0157454 -5.63606 0.124175 0.934003 0.33499 167 155 145
-0.0263955 -0.0547679 -5.85196 -0.147101 0.934404 0.324423 124 112 100
-0.00803989 -0.0468222 -5.85889 -0.190756 0.921789 0.337517 98 87 72
0.0273757 -0.0423286 -5.83496 -0.232613 0.91997 0.315509 161 152 143
0.113968 -0.0189655 -5.80084 -0.543125 0.755613 0.366148 199 194 186
0.148555 -0.00971909 -5.78649 -0.649842 0.668777 0.361168 209 204 198
1.79484 0.325028 -5.04857 -0.982747 0.0464229 0.179035 232 224 215
-0.28639 -0.0246236 -5.61658 0.197672 0.914401 0.353264 152 139 129
-0.268415 -0.0226345 -5.62824 0.160084 0.819567 0.550166 163 151 141
-0.247512 -0.0305076 -5.64476 0.415213 0.829908 0.372626 157 145 135
-0.22986 -0.0341283 -5.66082 0.148564 0.873942 0.462768 153 141 131
-0.211662 -0.0338855 -5.67233 0.0372269 0.934697 0.353492 171 160 151
-0.212783 -0.0334112 -5.67533 0.0624875 0.930443 0.36107 173 161 153
0.00885017 -0.0486818 -5.82459 -0.203064 0.939984 0.274216 163 153 144
-1.88665 -0.204181 -5.75212 -0.141603 0.418904 0.896921 89 53 49
-0.297819 -0.0394219 -5.57056 0.489382 0.81231 0.317265 162 147 133
-0.286949 -0.0326163 -5.596 0.250922 0.90219 0.350843 147 133 121
-0.248771 -0.0438128 -5.60163 0.298338 0.887144 0.352093 160 148 139
-0.249266 -0.035591 -5.62373 0.412559 0.844597 0.341249 161 150 140
-0.250254 -0.0336544 -5.62399 0.387905 0.849716 0.357087 161 150 140
-0.230929 -0.0382912 -5.63325 0.3772 0.854269 0.357694 154 142 132
-0.230268 -0.0457452 -5.61738 0.507484 0.780882 0.364256 159 148 138
-0.213946 -0.0472361 -5.63224 0.437237 0.823813 0.360773 152 140 130
2.70333 0.319147 -5.22954 0.441464 0.511914 0.736922 139 115 109
-1.95522 -0.243821 -5.77675 -0.575971 0.546977 0.607514 230 207 145
-1.32536 -0.179652 -5.73903 0.255103 0.937192 0.237893 101 37 26
-1.17442 -0.23789 -5.94349 0.0485202 0.783276 0.619777 130 54 33
-0.879139 -0.0970954 -5.54777 -0.564814 0.684199 0.461364 71 63 70
-0.863216 -0.0827536 -5.54828 -0.485377 0.72725 0.4853 94 79 75
-0.861987 -0.0844174 -5.54871 -0.510062 0.726842 0.459932 100 84 79
-0.651582 -0.044466 -5.48269 0.246765 0.667605 0.702432 175 162 148
-0.283591 -0.0462753 -5.56514 0.341355 0.87274 0.349001 157 143 129
-0.21489 -0.0572622 -5.60967 0.515064 0.775954 0.364148 160 148 139
-0.0693948 -0.0660833 -5.70373 0.299496 0.883423 0.360368 157 146 134
-0.0510534 -0.0765899 -5.69882 0.332746 0.87035 0.363003 158 147 137
-1.97135 -0.266841 -5.7762 0.0893896 0.944075 0.317383 233 209 149
-0.250638 -0.0650179 -5.54564 -0.284586 0.913834 0.289687 151 138 126
-0.211595 -0.0670485 -5.59057 0.416935 0.836411 0.355782 162 150 141
-0.180414 -0.0786219 -5.60817 0.572953 0.730811 0.370999 150 137 127
0.294064 -0.0763353 -5.72706 0.341855 0.856132 0.387521 195 188 179
1.74862 0.226073 -5.13429 -0.982272 0.0476998 0.181293 234 228 219
-1.66206 -0.219181 -5.60563 -0.441958 0.797765 0.410176 205 110 68
-1.25015 -0.211066 -5.72719 -0.16788 0.563448 0.808915 126 56 40
-0.161915 -0.0945408 -5.60827 0.490583 0.792568 0.362166 147 134 123
-0.0164051 -0.10315 -5.66802 0.233137 0.905951 0.353413 175 167 159
0.037764 -0.102925 -5.6818 0.17003 0.920134 0.352765 178 170 162
-0.446088 -0.10592 -5.49247 -0.243829 0.902321 0.355477 184 174 163
-0.217131 -0.091451 -5.5451 0.559904 0.744913 0.362784 156 144 133
0.0198508 -0.108191 -5.67318 0.160707 0.922622 0.350632 182 174 166
-1.53598 -0.230312 -5.54221 -0.106022 0.922175 0.371958 156 71 46
-1.48502 -0.232856 -5.56181 0.550434 0.605035 0.575287 115 47 34
-0.320184 -0.108461 -5.50144 0.479887 0.808028 0.341759 184 175 165
-0.210494 -0.121706 -5.5533 0.580976 0.751871 0.3117 160 147 136
-1.55352 -0.239826 -5.53685 -0.311002 0.840927 0.442853 167 78 51
-1.09321 -0.273791 -5.76387 0.911984 0.24356 0.330097 133 51 32
-1.07677 -0.280699 -5.77739 0.870617 0.260947 0.417053 118 41 26
-0.116734 -0.148631 -5.58731 0.340083 0.88329 0.322711 155 143 132
-1.6952 -0.276063 -5.56918 -0.576481 0.573209 0.582324 223 124 76
-1.58465 -0.268146 -5.52036 -0.3783 0.596924 0.70751 172 79 51
-1.20685 -0.264689 -5.65545 0.269786 0.94741 0.172133 155 91 58
-1.06215 -0.300546 -5.81425 0.696975 0.130477 0.705125 115 39 24
-0.137795 -0.154832 -5.55361 0.52822 0.78999 0.311285 155 142 132
2.81806 0.158961 -5.29574 -0.999223 -0.0383611 0.0090005 97 69 50
2.85161 0.174568 -5.31582 0.391002 0.477833 0.786634 108 84 63
-1.58466 -0.281736 -5.50558 -0.467349 0.717422 0.516614 173 81 52
-1.57082 -0.265816 -5.51577 -0.485966 0.639624 0.595582 169 78 50
-1.23129 -0.281832 -5.59425 0.10621 0.946648 0.304265 201 157 114
-0.971778 -0.291004 -5.68435 -0.431554 0.132931 0.892239 206 151 112
-0.908541 -0.233131 -5.543 -0.789907 0.226822 0.569736 236 194 147
2.91066 0.136127 -5.36109 0.444017 0.513745 0.734108 97 72 49
2.90247 0.108385 -5.35365 0.437577 0.502616 0.745589 97 69 47
-1.90405 -0.377238 -5.59837 0.917939 0.379098 0.116935 176 141 101
-1.89874 -0.384054 -5.6159 -0.659593 0.295236 0.691211 135 87 72
-1.74675 -0.345922 -5.57156 -0.694319 0.215187 0.686743 235 135 80
-0.976948 -0.348238 -5.62431 -0.499341 0.78365 0.369529 157 68 43
-0.614472 -0.207208 -5.29288 0.583921 0.785041 0.206755 188 98 76
2.86149 0.058421 -5.31637 -0.976558 -0.140318 0.163234 101 75 53
-1.3187 -0.384764 -5.53218 -0.26066 0.885891 0.383735 220 173 127
-1.13227 -0.385733 -5.56057 0.528745 0.830435 0.175518 167 112 73
-1.3365 -0.3988 -5.5268 -0.364626 0.597751 0.713962 226 181 134
-1.07703 -0.419053 -5.63124 0.901888 0.296543 0.314102 129 62 36
-0.197477 -0.280952 -5.45864 0.471762 0.840426 0.266692 151 138 125
-1.08171 -0.427802 -5.57919 0.924513 0.219302 0.31174 147 83 49
1.53404 -0.125769 -5.35772 -0.61557 0.0683731 0.785111 152 63 63
1.74059 -0.197261 -5.52937 -0.603998 0.792983 0.0797752 166 63 63
1.73454 -0.153596 -5.38001 -0.694356 0.640218 0.328619 163 57 57
-0.550652 -0.355128 -5.39215 -0.81944 0.302328 0.486946 199 88 69
1.71699 -0.192341 -5.45817 -0.713354 0.667621 0.213094 160 59 59
1.77928 -0.14583 -5.33315 -0.138586 -0.352675 0.925427 190 70 71
1.77843 -0.141792 -5.32761 -0.737426 0.423238 0.526376 187 72 74
1.80671 -0.150735 -5.3396 0.21769 -0.314737 0.923879 107 45 44
2.82792 -0.0551031 -5.30868 0.43571 0.369293 0.820841 105 78 56
2.83742 -0.0617151 -5.323 0.464457 0.50437 0.727935 106 78 57
1.6996 -0.210706 -5.44844 -0.966074 0.157465 0.204709 165 61 61
1.73075 -0.163711 -5.34907 -0.515298 0.430761 0.740887 178 64 66
1.79088 -0.163603 -5.33649 -0.397326 -0.220628 0.890761 120 54 53
1.85049 -0.163812 -5.37339 0.0307246 -0.370331 0.928392 104 65 67
1.681 -0.25828 -5.48862 -0.976603 -0.00473937 0.214999 165 61 60
1.6892 -0.245163 -5.47574 -0.978248 0.00657494 0.207334 167 61 61
1.67913 -0.228067 -5.40827 -0.938002 0.329744 0.106867 173 59 58
1.69154 -0.212584 -5.37442 -0.804606 0.531054 0.265688 182 59 61
1.78185 -0.181877 -5.34373 -0.19422 -0.367348 0.909579 104 49 46
1.79481 -0.173723 -5.31844 -0.95894 -0.13337 0.250294 93 52 51
1.7977 -0.173128 -5.32125 -0.944039 -0.173931 0.280246 92 51 51
1.67093 -0.322335 -5.65067 -0.977036 0.0405192 0.209189 182 71 71
1.6818 -0.260538 -5.49026 -0.978493 0.00850349 0.206107 165 61 60
1.76727 -0.200613 -5.34851 -0.0409743 -0.265588 0.963216 106 50 48
1.76817 -0.207904 -5.3287 0.0155759 -0.276668 0.96084 95 50 47
1.6455 -0.338529 -5.5875 -0.738106 0.602181 0.304266 150 66 62
1.63927 -0.327856 -5.57097 -0.645912 0.68382 0.339395 154 66 63
1.66152 -0.247735 -5.39253 -0.933513 0.343223 0.103691 179 60 59
0.20286 -0.680845 -6.15331 0.158039 0.922139 0.353105 87 73 62
1.80709 -0.257295 -5.39907 0.572669 0.570531 0.58868 95 51 46
0.250842 -0.674438 -6.05216 0.0920512 0.970247 0.223936 104 89 78
1.70665 -0.279147 -5.31612 -0.97565 -0.0301119 0.217255 93 47 46
2.56811 -0.201477 -5.14865 -0.646433 0.762235 -0.033486 95 72 61
2.13339 -0.225034 -4.96441 -0.987933 -0.0745889 0.13574 205 116 43
1.0307 -0.802298 -6.03767 0.0116652 0.987631 0.156358 219 168 119
1.38413 -0.786556 -6.06734 0.674286 0.511498 0.532643 112 40 41
1.23464 -0.815147 -6.07846 0.491838 0.796914 0.350746 145 76 59
-0.798574 -0.799026 -5.61848 0.721924 0.662923 0.198392 204 109 70
1.42388 -0.895318 -6.09427 0.538725 0.742552 0.397985 129 43 42
1.5867 -0.709168 -5.69933 -0.950389 0.134183 0.280636 116 90 66
1.55178 -0.767533 -5.80367 -0.131091 0.982752 0.130437 113 72 51
-0.537258 -0.901271 -5.66468 0.617646 0.0635828 0.783882 190 78 61
2.07096 -0.450741 -5.05651 -0.915406 0.396483 0.0695201 171 109 32
-1.05651 -1.06258 -5.80105 0.878692 0.311036 0.362156 98 23 25
1.57163 -0.722755 -5.50565 -0.974613 0.106428 0.196984 114 88 62
-0.990077 -1.09905 -5.85758 -0.149079 -0.262445 0.953362 190 93 52
1.55517 -0.885221 -5.81267 -0.970189 0.112076 0.214877 193 62 61
1.57423 -0.869798 -5.72032 -0.964922 0.157019 0.210407 194 70 69
-0.945879 -1.19557 -5.92051 0.228937 -0.396624 0.888975 107 27 26
1.57519 -0.92907 -5.78484 -0.491407 0.870273 0.0338339 203 63 61
1.51794 -0.820125 -5.53804 -0.818913 0.556909 0.138686 206 68 65
1.57393 -0.907264 -5.73771 -0.563465 0.825864 0.0213655 202 67 65
1.60875 -0.987513 -5.68844 -0.970922 0.0676255 0.229646 207 75 75
0.924537 -1.69632 -6.94879 -0.763159 0.0751875 0.641822 238 231 224
0.71216 -2.0043 -7.43558 -0.913959 0.219519 0.341308 201 103 68
0.815395 -2.16418 -7.53676 -0.902242 0.334163 0.272569 187 110 58
0.815395 -2.16418 -7.53676 -0.902242 0.334163 0.272569 187 110 58
1.14217 -1.48152 -6.2701 -0.463507 0.190219 0.865435 174 133 119
1.01552 2.35281 -7.47565 -0.775489 0.468777 0.422925 229 219 212
1.226 2.33953 -6.95571 -0.705731 0.49045 0.511276 229 223 216
1.56979 2.31392 -5.71039 0.244266 0.0889498 0.96562 200 178 130
1.59206 2.31382 -5.71486 0.296016 0.240267 0.924471 127 92 78
1.67709 2.33194 -5.77067 -0.561803 -0.343438 0.752614 178 95 89
1.89751 2.32146 -5.20921 -0.520425 0.257417 0.814183 201 71 75
2.01892 2.3339 -5.16695 -0.722914 0.299035 0.622875 190 64 67
2.09143 2.3475 -5.11861 -0.486798 0.611838 0.623444 172 66 68
2.10529 2.34618 -5.10712 -0.528517 0.524908 0.667189 173 66 67
2.11488 2.34799 -5.09348 -0.538525 0.550939 0.637539 173 67 69
2.1292 2.34633 -5.08243 -0.504515 0.610767 0.610269 173 66 68
2.12287 2.34422 -5.0782 -0.443793 0.650421 0.616441 175 61 64
2.2345 2.35596 -5.01017 -0.636305 0.0436555 0.770202 171 143 136
2.25137 2.3588 -5.00436 -0.56533 0.298758 0.76886 164 144 138
0.861063 2.3215 -7.64029 -0.549815 -0.421726 0.721007 238 229 222
0.93324 2.3267 -7.55986 -0.764917 0.440793 0.469685 228 219 212
0.999995 2.32954 -7.4455 -0.839542 0.36535 0.402105 220 209 201
1.02074 2.31514 -7.42273 -0.228564 0.800825 0.553569 217 206 198
1.10322 2.32978 -7.35097 -0.721737 0.517992 0.459108 231 223 214
1.20172 2.32909 -6.98608 -0.814615 0.426101 0.393497 230 224 218
1.21485 2.32317 -6.95917 -0.682834 0.386128 0.620196 233 227 221
1.23199 2.31948 -6.94836 -0.263172 0.694431 0.669706 234 228 221
1.3965 2.29367 -5.98625 -0.866892 -0.368264 0.335975 141 129 95
1.46271 2.28857 -5.80119 -0.870722 -0.37815 0.314399 140 127 92
1.48375 2.29728 -5.77567 -0.736218 -0.327579 0.592178 150 137 103
1.50325 2.30122 -5.77185 -0.841645 -0.274331 0.465163 160 148 115
1.51738 2.30582 -5.78896 -0.487101 0.625632 0.609358 163 150 117
1.63159 2.30503 -5.74855 0.397999 0.23217 0.887521 138 105 92
1.63164 2.305 -5.74862 0.400888 0.231793 0.886319 138 105 92
1.66278 2.31889 -5.76683 -0.16222 0.0608913 0.984874 160 125 114
1.69041 2.31116 -5.76883 -0.516324 -0.26066 0.815761 206 172 162
1.70808 2.31109 -5.76082 -0.436385 -0.243187 0.866272 216 163 153
1.69726 2.32723 -5.76194 -0.505685 -0.395718 0.76661 202 96 93
1.71516 2.32779 -5.75271 -0.307033 -0.275483 0.910955 202 78 76
1.73904 2.32626 -5.75251 -0.0528841 -0.164624 0.984938 205 75 72
1.76672 2.318 -5.7501 -0.269978 0.13775 0.952962 204 76 73
1.78744 2.31992 -5.73553 -0.180755 -0.268616 0.946136 207 78 76
1.81439 2.3237 -5.66054 -0.859949 -0.433364 0.269599 210 78 79
1.8019 2.30093 -5.34468 -0.88689 -0.267738 0.376487 214 80 84
1.81398 2.31176 -5.33935 -0.841206 -0.370637 0.393703 218 85 88
1.81429 2.31151 -5.3395 -0.840135 -0.370453 0.396153 218 85 88
1.82034 2.3001 -5.24256 -0.540303 -0.498887 0.677631 216 83 88
1.83399 2.30201 -5.22424 -0.591601 -0.493332 0.637677 211 78 82
1.84492 2.31538 -5.22151 0.123216 -0.733061 0.668909 208 79 82
1.89912 2.3118 -5.19058 -0.135865 0.341763 0.929913 201 70 74
1.91884 2.32244 -5.2122 -0.568271 0.216633 0.793812 203 72 76
1.92884 2.31172 -5.10527 -0.153206 0.370842 0.915972 202 70 74
1.95034 2.31842 -5.14727 0.124568 -0.17472 0.976707 202 71 75
2.00225 2.3256 -5.15718 -0.712874 0.258891 0.651756 194 65 69
2.02231 2.33104 -5.17221 -0.810522 0.208239 0.547439 191 65 68
2.00622 2.32224 -5.16098 -0.815704 0.197739 0.543623 195 66 70
2.02651 2.32184 -5.1567 -0.836453 0.174421 0.519542 192 65 69
2.02047 2.32011 -5.13322 -0.760494 0.179157 0.62414 195 66 70
2.02111 2.31939 -5.14042 -0.787935 0.213884 0.577419 194 66 70
2.04238 2.32482 -5.14831 -0.812129 0.264238 0.520216 191 65 69
2.01826 2.31639 -5.11555 -0.481415 0.166776 0.86048 197 68 72
2.03713 2.32135 -5.12976 -0.618232 0.294964 0.72855 194 66 70
2.05104 2.3203 -5.09844 -0.43875 0.475656 0.762397 198 68 73
2.05341 2.32392 -5.12012 -0.764519 0.399366 0.505982 193 65 70
2.09279 2.33376 -5.10706 -0.507253 0.318253 0.800881 184 64 68
2.10861 2.33111 -5.09715 -0.514804 0.157676 0.842683 184 64 67
2.11923 2.33847 -5.08678 -0.545301 0.484727 0.683876 179 63 66
2.14681 2.34159 -5.0749 -0.542438 0.572739 0.614598 173 62 65
2.14473 2.33783 -5.07461 -0.54962 0.525181 0.649694 177 61 65
2.15036 2.3294 -5.06974 -0.599226 0.386976 0.70084 185 64 69
2.16144 2.33495 -5.06192 -0.63349 0.385678 0.670778 176 61 64
2.17522 2.34297 -5.05568 -0.681203 -0.469067 0.562085 179 66 67
2.22238 2.34776 -5.02202 -0.656453 -0.176734 0.733372 173 106 104
2.22888 2.3348 -4.99854 -0.660828 0.575142 0.482202 189 75 76
1.19484 2.30837 -6.98826 -0.848919 0.107686 0.517436 233 227 221
1.38118 2.27631 -6.18378 -0.944045 -0.0457163 0.326634 220 214 205
1.40019 2.27967 -6.04021 -0.909617 -0.151503 0.386838 145 134 98
1.42516 2.27893 -5.94464 -0.919054 0.208078 0.33473 149 136 100
1.49595 2.27286 -5.79643 -0.893341 -0.166195 0.417517 144 131 97
1.49283 2.27553 -5.77544 -0.75513 -0.318614 0.572944 150 138 103
1.50589 2.28583 -5.76543 -0.566549 -0.277003 0.776074 160 148 116
1.50651 2.28653 -5.7718 -0.424028 -0.232179 0.875382 159 146 115
1.51081 2.26798 -5.7224 -0.58353 -0.384535 0.71528 162 150 112
1.51261 2.27919 -5.61063 0.55371 0.35259 0.754378 195 177 131
1.57679 2.28704 -5.70571 0.502258 0.206411 0.839721 146 117 85
1.68169 2.29488 -5.77317 -0.521587 -0.160364 0.837992 185 158 146
1.69786 2.29542 -5.76223 -0.428162 -0.125834 0.894898 218 194 184
1.72637 2.31082 -5.75266 -0.226415 -0.307406 0.92425 211 130 122
1.74832 2.31006 -5.75144 -0.107812 -0.213299 0.97102 209 102 95
1.77521 2.30701 -5.7257 -0.92176 0.135796 0.363204 207 84 82
1.79836 2.30503 -5.72133 -0.937414 0.0262426 0.347227 202 77 77
1.81058 2.30386 -5.68579 -0.883804 -0.0707438 0.462478 203 76 76
1.81666 2.30601 -5.64308 -0.822892 -0.447122 0.350614 212 81 81
1.80473 2.29409 -5.35682 -0.863176 -0.408435 0.296831 216 81 84
1.8234 2.28753 -5.34308 -0.8889 -0.241312 0.389391 217 84 88
1.84716 2.28578 -5.22338 -0.40381 -0.397957 0.823752 210 76 81
1.93981 2.30241 -5.21105 -0.981839 -0.0805216 0.171783 204 75 78
1.9378 2.29504 -5.10109 -0.0758086 0.139865 0.987264 202 71 75
1.96288 2.29634 -5.11645 0.421369 -0.0536342 0.905302 204 74 77
2.01488 2.30987 -5.1506 -0.769478 0.220471 0.599413 197 68 72
2.00107 2.29965 -5.14249 -0.700264 0.20182 0.684762 200 69 73
2.01218 2.30571 -5.13014 -0.569454 -0.349285 0.744125 201 70 74
2.0243 2.30193 -5.10909 -0.410127 -0.0857809 0.907985 202 70 75
2.04974 2.30391 -5.11534 -0.521298 -0.0165961 0.853213 200 69 74
2.0348 2.3153 -5.11226 -0.502876 0.546312 0.66982 197 67 72
2.04099 2.30519 -5.08581 -0.13701 0.375631 0.916586 203 71 76
2.06121 2.31 -5.09661 -0.396307 0.451992 0.799152 200 70 75
2.07909 2.30961 -5.09163 -0.366143 0.00869668 0.930518 201 71 76
2.10467 2.31384 -5.09781 -0.764141 0.415692 0.493243 196 68 73
2.11011 2.31002 -5.08342 -0.827425 0.399406 0.394769 200 70 75
2.1254 2.3143 -5.08006 -0.625354 0.453988 0.634687 197 69 74
2.13855 2.32639 -5.08057 -0.48204 0.620899 0.61816 193 69 72
1.10321 2.27906 -7.21466 -0.773755 -0.0349866 0.632518 233 228 222
1.09699 2.28239 -7.24848 -0.769843 -0.0629289 0.635123 227 218 213
1.30953 2.2901 -6.81456 -0.91544 -0.0662986 0.396955 235 230 225
1.37653 2.25928 -6.1547 -0.646949 0.116603 0.753566 218 212 202
1.49134 2.25637 -5.77395 -0.804841 -0.0161828 0.59327 154 141 104
1.51215 2.25936 -5.75559 -0.689769 0.00307387 0.724023 164 151 120
1.50613 2.26319 -5.76271 -0.854411 -0.141156 0.500057 164 151 120
1.56182 2.25917 -5.71281 -0.560855 0.18765 0.806368 204 188 135
1.58901 2.26806 -5.70209 0.187256 0.284611 0.940177 126 93 79
1.61702 2.26474 -5.71174 0.213351 0.103827 0.971443 139 110 96
1.67387 2.28063 -5.7774 0.0948525 -0.231296 0.968249 161 130 119
1.65569 2.27747 -5.76703 0.237124 0.0940742 0.966914 139 107 94
1.70753 2.27877 -5.75999 -0.40429 -0.174253 0.897878 221 199 188
1.71798 2.29433 -5.75903 -0.32726 -0.197046 0.924161 217 188 177
1.72297 2.28057 -5.75013 0.185105 -0.0165305 0.98258 221 194 183
1.74649 2.28498 -5.75228 -0.018908 -0.0562943 0.998235 214 175 161
1.76755 2.28476 -5.74962 -0.370679 -0.255473 0.892934 211 166 151
1.77782 2.29984 -5.74564 -0.218222 0.270816 0.93757 208 95 90
1.79817 2.28722 -5.72655 -0.605868 0.143838 0.782454 203 84 82
1.80013 2.29636 -5.70066 -0.945563 0.0739047 0.316935 199 77 77
1.81476 2.28946 -5.66699 -0.877061 -0.342872 0.336456 204 78 79
1.78178 2.27914 -5.38732 -0.9274 -0.166041 0.3352 209 75 77
1.7822 2.27899 -5.38836 -0.929432 -0.208258 0.304607 209 74 77
1.85225 2.27349 -5.30313 -0.832293 -0.0643117 0.550593 212 80 85
1.85116 2.28359 -5.25989 -0.92732 -0.147091 0.344154 206 75 80
1.85201 2.2862 -5.28017 -0.881923 -0.347457 0.318569 209 77 82
1.97524 2.2858 -5.11853 -0.283344 -0.106276 0.953112 204 72 76
1.97307 2.27871 -5.10584 -0.289642 -0.109392 0.950863 202 71 76
2.01528 2.28683 -5.11127 -0.505645 0.108796 0.855854 202 71 75
2.05813 2.30314 -5.08648 -0.255116 -0.0683918 0.964489 206 73 78
2.09236 2.29931 -5.10589 -0.576425 -0.278482 0.768233 208 76 82
2.10574 2.30619 -5.09907 -0.837875 0.259917 0.480009 200 71 76
2.16049 2.29955 -5.06321 -0.925035 -0.365694 0.102853 205 75 80
2.16278 2.2998 -5.04274 -0.596755 -0.360349 0.71696 209 77 82
2.16754 2.30875 -5.04769 -0.596704 -0.431954 0.676284 208 77 81
2.16071 2.3101 -5.02069 -0.51711 0.374937 0.769428 204 73 78
2.17245 2.31239 -5.01033 -0.459117 0.375405 0.80516 204 74 79
2.198 2.30238 -5.02019 -0.701903 -0.420536 0.574876 211 81 85
2.2219 2.3106 -4.9762 -0.971392 0.181876 0.152703 206 79 83
2.2225 2.30948 -4.97698 -0.980404 0.136609 0.141936 207 79 83
2.24118 2.31273 -4.96142 -0.168171 0.462632 0.870454 203 94 93
0.987433 2.2519 -7.36937 -0.693698 0.55838 0.454966 229 222 217
1.47046 2.24673 -5.84909 -0.663711 0.574412 0.479102 139 126 92
1.47995 2.24771 -5.82482 -0.331079 0.807042 0.488948 147 134 96
1.49983 2.24835 -5.7575 -0.714224 -0.152532 0.683095 160 148 114
1.50291 2.24552 -5.76218 -0.494239 0.0828152 0.865372 162 150 115
1.50822 2.23476 -5.7463 -0.811527 -0.0631878 0.580888 165 152 120
1.50746 2.23437 -5.74708 -0.83232 -0.00824663 0.554234 164 151 119
1.79125 2.25531 -5.39648 -0.876744 -0.00499699 0.480932 208 75 77
1.84893 2.26356 -5.26136 -0.67886 -0.101619 0.727202 208 77 82
1.90378 2.27076 -5.27672 -0.0172945 -0.212969 0.976906 209 77 80
1.90378 2.27076 -5.27672 -0.0172945 -0.212969 0.976906 208 76 80
1.98613 2.27034 -5.12103 -0.437232 0.570556 0.695194 207 73 77
2.00756 2.27608 -5.12313 -0.0808877 0.355044 0.931344 203 70 74
2.03413 2.27373 -5.10042 -0.904682 -0.378039 0.196563 205 72 77
2.07484 2.2782 -5.1221 -0.264833 0.0507673 0.962957 211 80 85
2.09395 2.28573 -5.1283 -0.357472 -0.00116149 0.933923 211 78 84
2.11496 2.29082 -5.09356 -0.586238 -0.561267 0.584213 210 78 82
2.14192 2.2832 -5.08834 -0.472193 -0.478695 0.740193 212 79 83
2.15421 2.29597 -5.08781 -0.471295 -0.417109 0.777111 210 78 82
2.15037 2.28607 -5.06678 -0.409485 -0.450896 0.793105 215 83 87
2.18404 2.29152 -5.02532 -0.894237 -0.411882 0.175197 209 77 81
2.21722 2.29588 -5.00994 -0.79764 -0.488599 0.353611 216 84 87
0.991652 2.22531 -7.33032 -0.724674 0.538164 0.430381 240 236 231
1.29218 2.23204 -6.83688 -0.335663 0.436705 0.834637 229 225 218
1.30139 2.23665 -6.83238 -0.479167 0.527049 0.701868 227 223 216
1.31496 2.2507 -6.82844 -0.148168 -0.107647 0.983086 233 229 222
1.39632 2.23323 -6.12361 -0.455808 0.225869 0.860943 127 117 92
1.40792 2.22146 -6.0181 -0.910405 -0.319077 0.263347 150 137 101
1.50354 2.21591 -5.74563 -0.794248 0.0802695 0.602268 162 150 114
1.84748 2.25038 -5.2758 -0.558364 0.0354887 0.828837 211 79 84
1.94856 2.25701 -5.10873 -0.023548 0.787163 0.616295 204 70 74
1.9712 2.25798 -5.1142 -0.246156 0.0252251 0.968902 204 72 76
2.14241 2.26877 -5.10988 -0.630377 -0.557241 0.540469 215 81 85
2.21641 2.27943 -5.02823 -0.342501 -0.570928 0.746147 215 81 84
0.933034 2.19635 -7.50493 -0.926709 -0.106723 0.360307 239 235 229
0.988089 2.19947 -7.33896 -0.932991 0.0445746 0.357129 242 237 232
1.31709 2.23304 -6.8216 -0.512138 -0.333227 0.791627 234 229 223
1.31764 2.22458 -6.80615 -0.829911 -0.245505 0.500975 233 229 223
1.3669 2.21181 -6.13788 -0.486877 0.0135337 0.873366 220 214 205
1.38801 2.20457 -5.9493 -0.931938 -0.269587 0.242518 158 145 107
1.47825 2.20605 -5.85424 0.462421 -0.0887083 0.882212 143 130 97
1.59315 2.2153 -5.68063 0.514538 0.439637 0.736186 122 93 77
1.81581 2.22921 -5.36204 -0.941052 -0.242927 0.235387 214 79 83
1.8553 2.2338 -5.31902 -0.472704 -0.299082 0.828916 216 84 89
1.8553 2.2338 -5.31902 -0.472704 -0.299082 0.828916 216 84 89
1.91711 2.22972 -5.04081 -0.505301 0.768764 0.392012 206 72 76
1.91428 2.23746 -5.04979 -0.384178 0.80511 0.45189 206 71 76
2.14922 2.25404 -5.09715 -0.78324 -0.251188 0.568717 216 81 86
2.15747 2.26838 -5.09507 -0.980904 -0.175644 0.083523 216 82 86
2.16977 2.26051 -5.01982 -0.96689 -0.251282 0.0445114 215 79 83
1.29394 2.2059 -6.84783 -0.851294 -0.116987 0.511481 233 229 222
1.7903 2.21123 -5.38511 -0.889296 -0.226997 0.397021 208 75 77
1.87079 2.22241 -5.34849 -0.937039 -0.154556 0.313163 218 86 90
1.86704 2.21441 -5.29383 -0.537833 0.117557 0.834815 211 79 84
2.15848 2.24664 -5.0753 -0.27602 0.210027 0.937924 216 81 84
2.23038 2.24703 -4.98193 -0.803558 -0.33573 0.491507 205 76 79
2.23524 2.2557 -4.96796 -0.755824 -0.0620566 0.651828 196 76 79
2.24471 2.24756 -4.95023 -0.865807 -0.163329 0.472971 172 145 136
0.888857 2.15722 -7.90031 -0.877522 -0.263908 0.400385 239 226 217
1.38311 2.1784 -6.43636 -0.870997 -0.106422 0.479623 229 224 216
1.83275 2.21313 -5.64626 -0.845963 0.459034 0.271356 204 89 87
1.83382 2.21113 -5.64474 -0.860378 0.400244 0.315522 204 89 87
1.86831 2.20758 -5.29456 -0.549002 0.380801 0.744034 212 80 84
2.23776 2.23509 -4.96464 -0.720929 -0.0842127 0.687873 184 111 107
2.25973 2.23704 -4.92959 -0.858784 -0.240196 0.452543 208 195 191
1.24611 2.16185 -6.96895 -0.916625 -0.156298 0.367926 231 226 220
1.39112 2.14494 -5.9966 -0.754521 -0.218442 0.618854 158 146 108
1.40369 2.15804 -6.05843 -0.861997 -0.336947 0.378718 141 130 98
1.49535 2.14425 -5.73083 -0.864762 -0.329349 0.379099 166 153 110
1.82722 2.18901 -5.62852 -0.853213 0.447237 0.268341 206 143 134
1.79412 2.18546 -5.49341 -0.644375 -0.568343 0.511632 202 87 86
1.85216 2.18828 -5.2464 -0.916382 0.0589602 0.395938 211 78 82
1.13381 2.13515 -7.21015 -0.81664 -0.249934 0.520224 239 234 226
1.39019 2.13213 -5.99328 -0.725558 -0.176739 0.665079 159 148 109
1.39092 2.13167 -6.01904 -0.920595 -0.28742 0.264378 161 149 110
1.39434 2.12829 -5.9569 -0.874962 -0.359836 0.323975 161 149 113
1.59394 2.13949 -5.68303 0.504286 0.453624 0.734793 111 87 71
1.91048 2.17075 -5.18977 -0.526577 0.2909 0.798808 202 70 73
0.839668 2.07664 -8.03948 -0.652422 0.226326 0.723272 239 225 216
0.886334 2.07978 -7.88334 -0.771534 0.154169 0.617225 242 235 226
1.37358 2.10491 -5.96595 -0.799672 -0.408852 0.439734 152 142 107
1.5062 2.11375 -5.61981 -0.025141 0.823389 0.566921 189 173 129
1.77194 2.15115 -5.71161 -0.591132 0.696904 0.406064 205 184 170
1.84968 2.15113 -5.21738 -0.926233 -0.321725 0.196431 211 77 82
0.883265 2.06147 -7.82996 -0.624927 -0.389296 0.676694 242 236 226
1.22086 2.08327 -7.10156 -0.841949 -0.0665376 0.535439 232 227 222
1.39128 2.09279 -6.41108 -0.847348 0.417461 0.328221 224 219 212
1.3919 2.09274 -6.41039 -0.841934 0.420583 0.338019 224 219 212
1.48376 2.08944 -5.75178 -0.798813 -0.00609824 0.601548 169 155 113
0.730898 2.01098 -8.09421 -0.686519 0.5111 0.517174 235 223 216
0.876469 2.04657 -7.96645 -0.410447 0.35842 0.838492 238 231 220
0.892489 2.04504 -7.93803 -0.684987 0.273644 0.675212 241 234 224
0.891996 2.04342 -7.90181 -0.84739 -0.185145 0.497645 241 235 225
1.24978 2.07877 -7.0157 -0.815059 -0.28212 0.506051 231 226 219
1.2717 2.07454 -6.97393 -0.748839 -0.439358 0.496191 233 228 221
1.47642 2.07211 -5.7342 -0.664076 -0.00803095 0.747622 174 161 117
1.48548 2.08727 -5.77411 -0.7599 -0.175087 0.626017 162 149 108
1.74659 2.10225 -5.61551 -0.814463 0.503633 0.288105 226 211 200
1.77046 2.10279 -5.29187 -0.955584 0.221658 0.194234 215 84 87
2.14075 2.14961 -5.02727 -0.759094 -0.456935 0.463667 216 79 82
0.717344 1.99374 -8.09257 -0.633928 0.6229 0.458401 231 220 212
0.949798 2.01692 -7.75039 -0.651707 0.577023 0.492262 240 236 228
1.00124 2.01446 -7.42253 -0.772669 0.0287148 0.634159 244 239 234
1.24507 2.03765 -7.03218 -0.861749 -0.207489 0.462964 230 226 218
1.25961 2.05774 -7.00844 -0.73275 -0.311964 0.604777 231 226 219
1.32229 2.05644 -6.65737 -0.811981 0.0841146 0.577592 221 217 212
1.34111 2.04331 -6.48903 -0.829682 0.440282 0.343191 228 224 219
1.34626 2.05788 -6.0965 -0.3515 0.172062 0.92024 222 218 211
1.38793 2.05623 -6.01507 -0.936611 -0.246743 0.248752 159 147 109
1.3859 2.04622 -5.97232 -0.830274 -0.288275 0.477015 169 157 117
1.38241 2.05272 -5.95908 -0.92402 -0.232052 0.303874 179 167 125
1.48325 2.06848 -5.7196 -0.533993 -0.163388 0.829552 181 166 122
1.47496 2.06294 -5.70875 -0.79865 -0.165489 0.578595 181 167 122
1.60314 2.0834 -5.68775 0.517512 0.45176 0.726701 106 87 71
1.737 2.09926 -5.63272 -0.821802 0.487989 0.294124 221 205 193
0.826574 1.96938 -8.03015 -0.792836 -0.286583 0.53785 236 229 219
0.924887 1.98562 -7.79597 -0.601122 0.629866 0.491855 243 239 230
0.924887 1.98562 -7.79597 -0.601122 0.629866 0.491855 243 238 230
0.97231 2.00305 -7.46203 -0.86299 -0.304515 0.403136 235 231 225
0.986455 2 -7.4383 -0.679078 -0.149116 0.718761 242 238 232
1.31961 2.03579 -6.5509 -0.899341 0.106599 0.424054 224 220 215
1.32074 2.02923 -6.52458 -0.876663 0.345686 0.334609 226 223 218
1.36426 2.02684 -5.96368 -0.967538 0.0210395 0.251849 153 141 106
1.76763 2.0786 -5.34294 -0.731079 0.606945 0.311675 212 87 88
0.60938 1.93451 -8.12811 -0.562108 0.478438 0.674635 233 223 217
0.687729 1.94844 -8.08958 -0.310734 0.758849 0.572357 223 210 203
0.747794 1.95131 -8.05437 -0.297307 0.515962 0.803362 238 230 222
1.30259 1.99872 -6.49646 -0.663586 0.621757 0.416019 210 204 199
1.88969 2.07466 -5.14264 -0.155496 0.0414819 0.986965 203 76 80
2.07535 2.0999 -4.9921 -0.924286 -0.355282 0.139537 217 80 82
2.13663 2.09775 -5.02095 -0.907493 -0.203473 0.367499 213 75 78
0.688694 1.91637 -8.07367 -0.289161 0.725821 0.624155 223 212 205
0.913907 1.94158 -7.82737 -0.840676 0.358128 0.406212 247 243 234
0.984479 1.95272 -7.48868 -0.50622 -0.20522 0.837631 232 228 221
1.29876 1.98762 -6.48038 -0.561456 0.707038 0.42996 208 202 197
1.45322 1.99808 -5.77714 -0.853802 -0.265354 0.447895 179 166 121
1.58787 2.02496 -5.67652 0.436572 0.567871 0.697802 107 89 74
1.64187 2.02502 -5.7118 0.391215 0.577326 0.716691 130 113 96
