ply
format ascii 1.0
element face 0
property list uchar int vertex_indices
element vertex 868
property float x
property float y
property float z
property uchar diffuse_red
property uchar diffuse_green
property uchar diffuse_blue
end_header
-1.675446e-001 1.661101e-001 -6.791550e+000 155 139 124
5.458175e-003 1.324146e-001 -6.774784e+000 128 115 99
4.726150e-001 1.714217e-001 -6.640710e+000 197 183 170
8.146022e-001 1.432227e-001 -6.531283e+000 194 184 172
1.076500e+000 -3.673262e-001 -6.138614e+000 216 193 139
5.950789e-002 6.311847e-002 -6.725831e+000 196 186 176
5.121733e-001 6.110823e-001 -6.782656e+000 193 181 174
6.694312e-001 -7.790337e-001 -6.624748e+000 252 252 242
1.099994e+000 -6.780759e-001 -6.175314e+000 237 98 109
1.406294e+000 -3.829231e-001 -5.931324e+000 255 246 198
1.406294e+000 -3.829231e-001 -5.931324e+000 255 246 198
-4.369445e-001 7.590205e-001 -7.770815e+000 178 38 48
1.705002e-002 1.356855e+000 -7.191296e+000 200 53 55
1.800377e-001 6.280116e-001 -6.986528e+000 149 137 121
4.818829e-001 7.436648e-001 -6.762572e+000 252 245 237
8.475234e-001 9.368534e-001 -6.428167e+000 40 26 27
7.671672e-001 -6.539088e-001 -6.541916e+000 213 202 182
9.789629e-001 2.434201e-001 -6.275767e+000 175 157 145
1.035718e+000 -1.934301e-001 -6.245125e+000 216 202 193
1.406650e+000 -2.143698e-001 -5.945779e+000 250 242 186
9.771146e-001 1.213023e-001 -6.350383e+000 230 224 212
-2.046449e-001 -3.456127e-001 -7.503322e+000 238 231 220
7.397716e-001 8.026751e-001 -6.542615e+000 216 209 198
-5.020376e-001 -6.316925e-002 -6.507644e+000 117 27 18
9.812108e-001 -2.551212e-001 -6.247830e+000 85 70 54
-1.626603e-001 9.736005e-001 -7.472764e+000 174 158 147
7.963976e-001 5.725688e-001 -6.406646e+000 254 251 244
-2.369714e-001 -1.134782e-001 -7.605257e+000 208 201 185
1.246942e+000 -3.098452e-002 -6.083992e+000 180 46 54
-1.590673e-001 7.639311e-001 -7.440808e+000 224 217 207
-1.577320e-001 6.545057e-002 -7.474568e+000 124 59 57
-1.172684e-001 5.376218e-001 -7.285007e+000 181 168 152
-7.836534e-001 -2.826041e-001 -6.806290e+000 210 139 115
-9.107777e-001 -3.453090e-001 -6.488774e+000 218 193 173
-9.083197e-001 -3.255449e-001 -6.499210e+000 130 47 25
-2.637654e-001 1.333299e-001 -6.846405e+000 81 40 31
2.787581e-001 1.386565e+000 -6.951785e+000 182 42 51
-6.814303e-001 -2.747166e-001 -6.274891e+000 45 15 13
-6.756803e-001 -2.695347e-001 -6.259929e+000 163 160 148
2.630823e-001 1.578145e-001 -6.710869e+000 183 171 156
2.630823e-001 1.578145e-001 -6.710869e+000 183 171 156
4.239829e-001 -8.213891e-003 -6.572067e+000 254 245 236
7.280407e-001 -1.239030e+000 -6.879322e+000 127 126 122
5.819876e-001 -4.479928e-001 -6.701985e+000 154 137 115
7.949041e-001 -1.517733e+000 -6.868594e+000 157 159 156
8.548525e-001 -1.492273e+000 -6.779358e+000 174 176 175
8.780000e-001 7.809235e-001 -6.353244e+000 250 75 85
1.100321e+000 -1.754795e+000 -6.582641e+000 183 183 185
1.196039e+000 -3.033839e+000 -6.589840e+000 162 157 163
1.196039e+000 -3.033839e+000 -6.589840e+000 162 157 163
1.130721e+000 -1.796080e+000 -6.537624e+000 182 181 187
1.088817e+000 -1.143931e+000 -6.462995e+000 171 166 170
1.007405e+000 7.010905e-001 -6.300821e+000 81 68 68
1.086366e+000 2.996572e-002 -6.125774e+000 232 92 100
1.453792e+000 -5.777800e-001 -5.926432e+000 155 149 153
-2.897209e-001 6.795785e-001 -7.592492e+000 237 233 222
-7.661850e-002 8.581254e-001 -7.234781e+000 212 202 193
-1.995496e-001 -1.254432e-001 -7.429798e+000 178 165 150
1.826270e-001 1.057660e+000 -7.097674e+000 217 210 200
1.046918e-001 7.044770e-001 -7.082635e+000 237 229 218
-9.260361e-001 -3.467451e-001 -6.497963e+000 39 17 15
-1.798798e-001 1.796552e-001 -6.878855e+000 140 124 111
1.467362e-002 -3.813440e+000 -8.136141e+000 184 192 194
-3.739926e-001 -6.267165e-002 -6.597888e+000 82 18 14
-3.737688e-001 -2.751124e-002 -6.585873e+000 87 23 13
-3.038659e-001 -2.221369e-002 -6.721559e+000 53 13 13
-4.567566e-001 -1.979412e-001 -6.455568e+000 250 148 120
3.857743e-001 2.745274e-001 -6.788456e+000 159 142 126
4.479789e-001 -5.132387e-001 -6.748776e+000 168 148 111
7.322051e-001 1.038840e+000 -6.497299e+000 216 73 82
9.844830e-001 -2.300634e+000 -6.723464e+000 170 170 172
9.834048e-001 -1.349543e+000 -6.681966e+000 169 169 169
7.518912e-001 -2.806564e-001 -6.442105e+000 183 171 159
1.076732e+000 -1.837269e+000 -6.647135e+000 153 154 156
9.301808e-001 7.903316e-001 -6.329080e+000 76 63 64
1.311048e+000 -2.453595e+000 -6.315127e+000 167 165 168
1.127889e+000 -4.085236e-001 -6.106837e+000 191 168 118
1.398343e+000 -1.918041e-001 -5.903687e+000 149 140 141
1.446140e+000 -1.400491e-001 -5.932228e+000 142 138 138
-3.318182e-001 3.072983e-001 -7.829898e+000 56 47 42
-2.869800e-001 8.578379e-002 -7.652931e+000 153 25 32
-1.187264e-001 6.134854e-001 -7.426713e+000 204 194 182
2.224350e-002 1.164024e+000 -7.233766e+000 223 207 194
5.604446e-002 1.377594e+000 -7.183385e+000 75 8 16
-1.581877e-001 5.537686e-001 -7.259339e+000 147 134 119
9.427625e-002 6.490390e-001 -7.097831e+000 214 205 194
-7.764274e-001 -2.150376e-001 -6.233024e+000 47 11 17
5.515197e-001 1.291236e+000 -6.746572e+000 72 58 55
7.932907e-001 -1.566057e+000 -6.944004e+000 158 163 157
6.237548e-001 -3.042616e-001 -6.635340e+000 180 169 149
7.441882e-001 -1.088151e+000 -6.815089e+000 154 153 149
6.145269e-001 -2.957998e-001 -6.586065e+000 254 250 238
8.067610e-001 9.607223e-001 -6.459703e+000 213 70 78
8.495508e-001 9.220780e-001 -6.412199e+000 23 14 17
1.063042e+000 -1.853770e+000 -6.624502e+000 179 180 182
1.042340e+000 -1.727015e+000 -6.607108e+000 190 190 192
7.979970e-001 -3.643011e-001 -6.300275e+000 231 211 155
1.237096e+000 4.178462e-002 -6.029127e+000 229 103 110
-1.803447e-001 3.080376e-001 -7.189261e+000 177 165 149
3.745011e-001 1.296361e+000 -6.886650e+000 209 49 61
6.841995e-001 -4.737243e-001 -6.634435e+000 214 209 190
8.861688e-001 -7.036547e-001 -6.456204e+000 254 253 249
-5.600155e-001 5.909870e-001 -7.975483e+000 230 75 79
-6.441539e-002 7.760311e-001 -7.281129e+000 136 123 110
-6.481028e-002 8.243222e-001 -7.203859e+000 169 155 143
-4.119025e-001 -1.155552e-001 -7.024237e+000 124 117 119
-4.227395e-001 9.502483e-003 -6.878461e+000 90 38 25
-4.262141e-001 1.467158e-002 -6.874636e+000 90 38 25
3.969138e-001 1.335394e+000 -6.854153e+000 229 73 86
-7.858594e-001 -2.197694e-001 -6.277713e+000 51 22 10
2.008774e-001 -2.327193e-002 -6.642283e+000 254 255 243
5.436415e-001 3.934107e-001 -6.785038e+000 211 201 192
7.745866e-001 -8.982402e-001 -6.605501e+000 169 51 49
9.188321e-001 -1.751486e+000 -6.718155e+000 156 158 157
9.146821e-001 -7.314669e-001 -6.429823e+000 220 211 196
1.437839e+000 -4.653783e-001 -5.954248e+000 127 123 124
-1.643152e-001 4.059814e-001 -7.387099e+000 147 134 117
-4.978552e-001 -1.150773e-001 -7.027058e+000 129 127 126
-6.248873e-001 -2.275038e-001 -6.388208e+000 149 70 48
4.227804e-001 1.123705e+000 -6.827889e+000 249 241 239
1.318669e-001 1.094312e-002 -6.708325e+000 141 128 115
1.318669e-001 1.094312e-002 -6.708325e+000 141 128 115
5.037437e-001 8.132040e-001 -6.804607e+000 249 245 236
4.738541e-001 -6.194977e-001 -6.676103e+000 228 222 210
5.826248e-001 -2.226473e-001 -6.550345e+000 253 246 236
7.745186e-001 -8.137954e-001 -6.532170e+000 248 237 228
7.586501e-001 -7.920955e-001 -6.522200e+000 248 237 228
7.656997e-001 -9.780403e-002 -6.386403e+000 245 241 232
1.165775e+000 -5.596036e-001 -6.155457e+000 178 35 39
1.244469e+000 7.485956e-002 -6.055402e+000 125 15 24
1.244469e+000 7.485956e-002 -6.055402e+000 125 15 24
1.427934e+000 -3.939449e-001 -5.950336e+000 255 251 205
-2.554228e-001 -3.686709e-001 -7.630586e+000 223 216 205
-1.883833e-001 -7.906408e-002 -6.613342e+000 94 33 32
-2.551959e-001 -1.946603e-001 -6.442428e+000 112 25 18
-2.694574e-001 5.969679e-001 -7.565162e+000 229 222 212
-5.399635e-001 -2.789621e-001 -6.425548e+000 246 208 163
-9.003988e-002 -1.245230e-001 -6.611987e+000 253 246 240
2.022771e-001 2.345520e-001 -6.793368e+000 222 214 203
-4.409318e-001 9.187744e-001 -7.758781e+000 215 62 67
-4.905987e-001 5.816958e-001 -7.840856e+000 194 184 172
-5.884708e-001 6.828500e-001 -7.910865e+000 202 46 50
-1.813095e-001 1.505941e-001 -7.444846e+000 88 17 24
-1.813095e-001 1.505941e-001 -7.444846e+000 88 17 24
-1.082480e-001 9.539748e-001 -7.226236e+000 229 222 212
6.043365e-001 6.427011e-001 -6.736921e+000 233 226 216
1.354210e+000 -2.944246e-001 -5.989668e+000 255 251 203
5.734200e-001 1.526122e-001 -6.554190e+000 154 141 123
1.026931e+000 1.029890e-001 -6.305534e+000 253 246 240
-3.559866e-001 1.067858e+000 -7.715951e+000 21 12 15
1.996186e-001 1.356325e+000 -7.280915e+000 16 7 10
-3.254698e-001 6.583858e-001 -7.625795e+000 226 220 208
-1.376997e+000 -1.213406e+001 -1.061248e+001 96 98 111
8.459130e-001 6.383211e-001 -6.397512e+000 244 76 87
-3.232655e-002 8.425385e-001 -7.412907e+000 222 214 203
-1.593743e-002 3.860342e-001 -7.114914e+000 145 132 115
-1.323564e-001 6.961465e-001 -7.278323e+000 168 155 141
1.138571e+000 -1.000947e+000 -6.382568e+000 142 141 139
6.688229e-001 5.856019e-001 -6.632182e+000 170 158 142
-2.132823e-001 -2.172374e-001 -7.558834e+000 178 166 150
-1.735362e-001 3.054719e-001 -7.379817e+000 175 163 151
-7.167808e-002 8.135843e-001 -7.238757e+000 187 175 161
2.648507e-001 1.209998e+000 -7.032512e+000 216 61 69
1.746243e-001 -3.789886e+000 -7.980806e+000 179 188 183
-5.551735e-001 -4.983317e-002 -6.535258e+000 83 19 10
-2.540767e-001 2.681157e-002 -6.730504e+000 63 23 19
7.992367e-001 -1.607029e+000 -6.920558e+000 116 122 118
-6.273193e-001 6.530321e-001 -8.027063e+000 44 33 30
-3.715605e-001 8.037510e-001 -7.662867e+000 169 155 139
-1.646031e-001 1.706114e-001 -7.020822e+000 152 136 121
-1.646031e-001 1.706114e-001 -7.020822e+000 152 136 121
-1.593598e-001 1.809437e-001 -7.030482e+000 121 105 90
3.031735e-001 3.268205e-001 -6.840496e+000 145 131 118
3.760773e-001 2.826879e-001 -6.787735e+000 159 142 126
7.294702e-001 -5.940950e-002 -6.441961e+000 239 231 220
1.114639e+000 -2.992252e+000 -6.707670e+000 164 162 165
9.487665e-001 6.281120e-001 -6.332817e+000 192 49 57
1.110361e+000 -2.293864e-001 -6.212778e+000 139 113 100
-1.034052e-001 6.310774e-001 -7.415503e+000 191 179 165
-1.475108e-001 3.805027e-001 -7.266328e+000 172 158 145
5.385036e-001 3.171485e-002 -6.525759e+000 177 166 147
9.741676e-001 -2.518370e-001 -6.287972e+000 158 141 129
1.057587e+000 -3.481496e-001 -6.129560e+000 227 205 154
1.127468e+000 -6.183452e-001 -6.144105e+000 235 106 111
1.404532e-001 6.423920e-001 -7.033943e+000 158 145 129
5.852850e-001 5.604853e-001 -6.732707e+000 166 157 144
7.010709e-001 8.021246e-001 -6.600233e+000 193 183 174
1.897257e+000 -1.108584e+001 -6.309783e+000 99 102 133
1.571046e+000 -1.052676e+001 -6.373237e+000 108 113 143
-4.571363e-001 7.792794e-001 -7.746838e+000 179 40 48
3.325926e-001 1.226304e+000 -6.937881e+000 217 62 68
-4.737427e-001 5.811707e-001 -7.843433e+000 195 185 173
3.377677e-001 8.979715e-001 -6.920586e+000 156 144 130
-3.899492e-001 1.018873e+000 -7.634009e+000 177 41 54
-1.307473e-001 -2.194603e+000 -8.088252e+000 153 160 152
-1.369661e-001 1.447523e-001 -7.505137e+000 140 35 37
-7.743390e-001 -2.830145e-001 -6.821902e+000 102 34 16
2.017707e-002 1.379671e+000 -7.167018e+000 175 36 46
-7.505830e-001 -2.676981e-001 -6.800139e+000 160 166 153
-7.403257e-001 -1.832872e-001 -6.814087e+000 172 80 53
-2.270770e-001 1.523364e-001 -7.079221e+000 123 106 94
-7.747954e-002 1.804681e-001 -6.963133e+000 119 103 88
-1.887672e-002 2.559369e-001 -6.958431e+000 153 137 122
-2.803016e-001 5.110122e-002 -6.695263e+000 107 79 68
-1.358927e-001 1.071520e-001 -6.726052e+000 156 140 127
7.654479e-003 5.707608e-002 -6.728967e+000 182 168 156
2.718546e-002 5.233983e-002 -6.706457e+000 143 130 117
9.691458e-002 -1.762013e-001 -6.635003e+000 212 199 184
7.804376e-001 -1.955657e+000 -6.991708e+000 137 137 139
8.309710e-001 -1.983272e+000 -6.986608e+000 132 133 135
7.379231e-001 -1.590212e+000 -6.913727e+000 183 183 183
6.785848e-001 -6.874727e-001 -6.615840e+000 236 219 199
9.988644e-001 -4.728359e-001 -6.406172e+000 172 152 126
1.110270e+000 5.101889e-001 -6.388911e+000 218 75 79
1.199039e+000 -5.185905e-001 -6.120324e+000 203 124 111
1.537624e+000 -1.122364e+000 -5.941947e+000 143 137 137
1.485055e+000 -5.193074e-001 -5.933451e+000 167 161 161
-5.564743e-001 6.143267e-001 -7.888555e+000 238 75 81
-2.165868e-001 1.151613e-002 -7.584299e+000 169 95 86
-1.822157e-001 -2.495162e+000 -8.209903e+000 155 162 155
-1.101918e-001 -1.648645e+000 -7.959515e+000 165 169 163
-1.131193e-001 -8.770646e-001 -7.837147e+000 140 140 132
-1.131193e-001 -8.770646e-001 -7.837147e+000 140 140 132
-1.220167e-001 5.960449e-001 -7.381902e+000 169 156 140
-7.493796e-002 8.525116e-001 -7.306008e+000 209 199 187
-1.865548e-001 -1.340397e-001 -7.250592e+000 246 242 229
-4.511649e-001 -2.877458e-002 -6.811831e+000 82 41 36
-1.635912e-001 2.227215e-001 -6.971445e+000 155 137 124
2.028597e-001 1.031138e+000 -7.096837e+000 214 205 196
2.006263e-001 1.033847e+000 -7.095175e+000 214 205 196
-9.697037e-001 -2.350524e-001 -6.264408e+000 177 159 132
-1.842393e-001 1.614571e-001 -6.780082e+000 113 95 83
2.545378e-001 2.877288e-001 -6.845586e+000 133 117 101
3.803170e-001 1.328254e+000 -6.873025e+000 201 47 54
4.053062e-001 2.376288e-001 -6.779153e+000 137 119 104
8.057212e-001 -2.655082e+000 -7.101042e+000 188 186 187
1.093020e+000 -2.642813e+000 -6.723381e+000 159 157 162
8.137206e-001 -6.323879e-001 -6.527504e+000 255 255 210
7.617858e-001 6.830208e-001 -6.452234e+000 155 132 116
9.257687e-001 1.361122e-001 -6.408817e+000 247 240 230
1.129258e+000 -1.109421e+000 -6.459998e+000 141 139 142
8.653060e-001 1.046494e+000 -6.370002e+000 67 55 55
9.714311e-001 5.949081e-001 -6.337127e+000 221 74 80
1.067579e+000 -3.581553e-001 -6.137600e+000 226 209 157
1.078378e+000 5.175449e-001 -6.189911e+000 227 75 88
1.190488e+000 -4.574372e-001 -6.074652e+000 175 43 49
1.660422e+000 -1.239782e+000 -5.899913e+000 130 126 125
1.530888e+000 -7.206101e-001 -5.901375e+000 168 164 163
1.367520e+000 -2.701351e-001 -5.908664e+000 155 144 141
1.607670e+000 -1.157366e+000 -5.856247e+000 121 117 114
-2.041407e-001 -2.214795e+000 -8.138917e+000 202 208 204
-1.310466e-001 7.410562e-001 -7.356672e+000 155 146 131
-9.304266e-001 -3.358095e-001 -6.471028e+000 34 8 3
2.652400e-001 9.463924e-001 -7.030394e+000 215 206 196
1.615222e-001 3.188959e-001 -6.825067e+000 145 127 107
1.995267e-001 -7.172672e-002 -6.632884e+000 219 210 194
5.331523e-001 -5.096887e-001 -6.715807e+000 203 186 139
5.762399e-001 -4.127833e-001 -6.600947e+000 145 122 78
8.913555e-001 -9.968980e-001 -6.581406e+000 132 123 124
8.142186e-001 -7.255221e-001 -6.332212e+000 138 136 141
8.584577e-001 -6.654688e-001 -6.440456e+000 253 253 244
8.966230e-001 -6.223697e-001 -6.431753e+000 254 243 184
1.759009e+000 -7.481027e+000 -6.044330e+000 56 54 65
1.147743e+000 -4.393535e-001 -6.096512e+000 252 230 176
1.250447e+000 9.330260e-002 -6.014631e+000 186 118 116
1.491375e+000 -4.993998e-001 -5.911395e+000 169 163 161
1.527419e+000 -7.324464e-001 -5.867902e+000 148 142 142
1.527419e+000 -7.324464e-001 -5.867902e+000 148 142 142
-3.019492e-001 3.980776e-002 -7.698465e+000 78 55 49
-1.819028e-001 1.177907e+000 -7.399015e+000 200 59 64
-2.530769e-001 2.993493e-001 -7.478491e+000 215 196 182
-1.374695e-001 -1.894000e+000 -8.122330e+000 154 159 153
-1.044906e-001 1.520875e-001 -7.525109e+000 130 15 23
-7.695774e-001 -3.014616e-001 -6.766035e+000 169 164 148
-7.404127e-001 -1.508742e-001 -6.752237e+000 97 29 16
-1.537513e-001 1.951868e-001 -7.122346e+000 122 105 94
1.144068e-001 1.224822e+000 -7.116689e+000 229 72 78
-9.693689e-001 -2.260143e-001 -6.281528e+000 62 27 13
-5.312432e-001 -2.432284e-001 -6.426692e+000 196 111 76
-1.589396e-001 -1.105666e-001 -6.610927e+000 95 25 19
5.193307e-001 -5.192053e-001 -6.659996e+000 132 111 77
5.581746e-001 -5.630920e-001 -6.683280e+000 132 111 77
7.907126e-001 7.920598e-001 -6.503264e+000 194 41 51
3.566284e+000 -1.131492e+001 -6.165230e+000 73 71 84
3.155061e+000 -9.288237e+000 -5.685272e+000 91 92 110
1.543882e+000 -7.357573e-001 -5.949033e+000 133 127 127
1.386735e+000 -9.852202e-002 -5.982887e+000 158 153 150
-1.460320e-001 1.112587e+000 -7.461998e+000 191 51 54
-1.536378e-001 4.699446e-001 -7.480898e+000 168 154 135
-1.776047e-001 -1.314007e-001 -6.587908e+000 246 244 229
3.383412e-001 -6.014234e-001 -6.697634e+000 248 247 236
3.383412e-001 -6.014234e-001 -6.697634e+000 248 247 236
7.886834e-001 -1.081337e+000 -6.759376e+000 169 167 169
9.820034e-001 -7.181657e-001 -6.313358e+000 249 242 236
1.144041e+000 5.325270e-001 -6.212850e+000 92 83 81
2.670409e+000 -1.087147e+001 -5.709232e+000 111 112 140
3.128888e+000 -9.474841e+000 -5.849407e+000 17 14 23
3.219862e+000 -9.725816e+000 -5.768823e+000 78 77 91
1.318291e+000 -8.150741e-002 -6.024609e+000 157 145 143
3.138641e+000 -1.037907e+001 -5.535676e+000 91 94 116
3.261704e+000 -1.038104e+001 -5.512463e+000 19 16 26
3.306214e+000 -1.024060e+001 -5.497167e+000 101 105 130
-4.507726e-001 5.387471e-001 -7.724645e+000 185 170 157
-2.324973e-001 5.386844e-001 -7.559975e+000 200 190 178
-1.671678e-001 3.604990e-001 -7.458188e+000 219 212 193
-9.465921e-002 7.458374e-001 -7.408443e+000 198 189 174
-3.501866e-001 -2.291117e-001 -6.471427e+000 144 29 20
5.297538e-001 4.683066e-001 -6.767895e+000 196 184 172
6.329040e-001 2.106025e-001 -6.677715e+000 169 157 143
1.418977e+000 -2.797738e-001 -5.911672e+000 160 153 154
-1.753501e-001 -1.028106e-001 -7.399395e+000 196 185 167
-7.023378e-001 -9.931757e-002 -6.916249e+000 80 23 13
-8.942877e-001 -2.685737e-001 -6.403241e+000 211 122 87
2.302709e-001 3.942081e-001 -6.885562e+000 210 202 187
1.552444e-001 -4.788519e-001 -6.689437e+000 255 255 245
5.205159e-001 1.244557e+000 -6.718960e+000 222 69 74
5.235784e-001 -4.403690e-001 -6.628383e+000 254 251 203
1.032328e+000 5.129639e-001 -6.187659e+000 232 85 86
-3.221353e-002 7.871445e-001 -7.163440e+000 233 225 214
3.144997e-001 -2.808065e-001 -6.661212e+000 101 79 56
-1.912283e-001 1.048894e+000 -7.505265e+000 200 53 60
-1.497697e-001 8.992896e-001 -7.346374e+000 229 221 208
1.971371e-001 8.494811e-002 -6.688319e+000 157 145 129
9.539256e-001 2.261571e-001 -6.358023e+000 252 251 241
-5.751228e-001 6.673103e-001 -7.930520e+000 207 52 56
-1.439160e-001 2.847457e-001 -7.470839e+000 199 187 173
-8.178573e-001 -1.579605e-001 -6.825136e+000 152 157 143
7.787244e-001 7.427437e-001 -6.440246e+000 149 35 40
8.840428e-001 7.285900e-001 -6.355067e+000 242 76 86
2.135184e-001 6.597933e-001 -7.017596e+000 155 140 126
-2.376583e-001 -2.577828e-002 -6.643335e+000 93 34 29
3.407131e-001 8.969042e-001 -6.926232e+000 156 142 129
9.185120e-001 5.574511e-001 -6.281167e+000 152 25 33
-2.382838e-001 1.483114e-001 -7.660644e+000 135 15 28
1.088955e+000 -8.872594e-003 -6.259131e+000 243 236 226
4.395058e-001 6.315838e-001 -6.862048e+000 230 222 211
5.245372e-001 9.095277e-001 -6.706303e+000 241 234 228
-7.109617e-002 1.338610e+000 -7.388094e+000 29 20 23
1.070600e+000 7.268303e-001 -6.395733e+000 83 69 66
5.334131e-002 9.412079e-001 -6.840047e+000 216 208 195
-1.460745e-001 1.007800e+000 -7.476611e+000 214 207 190
-1.618129e-001 3.368655e-001 -7.305962e+000 163 151 137
-3.058147e-001 7.904306e-001 -7.639870e+000 211 200 188
-8.668685e-001 -3.530266e-001 -6.513734e+000 154 152 151
-1.402594e-001 1.942391e-001 -7.014693e+000 121 105 92
-5.344337e-001 -4.090955e-002 -6.522296e+000 144 70 54
6.582996e-001 7.758936e-001 -6.572182e+000 204 190 178
8.149832e-001 8.683558e-001 -6.364099e+000 167 54 60
1.466791e+000 -1.119270e+000 -6.042484e+000 135 131 132
1.182917e+000 1.343804e-001 -6.157229e+000 224 83 90
-1.231654e-001 6.501175e-001 -7.477338e+000 165 154 138
9.929058e-002 7.088942e-001 -7.081666e+000 229 221 210
-3.358563e-001 -1.779428e-001 -6.461098e+000 132 41 27
1.233667e+000 -8.597248e-001 -6.211171e+000 133 127 128
9.957201e-001 2.681076e-001 -6.284266e+000 249 239 232
-4.984694e-001 -2.021816e-001 -7.057863e+000 58 18 19
-4.984694e-001 -2.021816e-001 -7.057863e+000 58 18 19
5.349899e-001 5.599732e-001 -6.744994e+000 206 194 180
5.859091e-001 5.544124e-001 -6.781351e+000 171 161 149
7.142566e-001 -3.375998e-001 -6.517105e+000 177 165 146
7.510527e-001 8.431471e-001 -6.524301e+000 210 63 73
-3.575492e-001 3.408076e-001 -7.799855e+000 70 56 56
-2.676319e-001 -3.710797e-001 -7.724256e+000 98 88 85
-1.657513e-001 1.315764e-001 -6.876371e+000 110 92 80
-4.024762e-001 -3.934363e-001 -6.429393e+000 110 26 26
7.108313e-001 -8.203396e-001 -6.580548e+000 164 40 44
1.024128e+000 2.055863e-001 -6.250753e+000 246 237 228
1.059551e+000 2.996302e-001 -6.238591e+000 234 90 97
1.441695e+000 -2.340597e-001 -5.946961e+000 255 243 193
-4.009302e-002 4.981357e-001 -7.204566e+000 200 189 179
9.666103e-001 -8.546772e-001 -6.416054e+000 247 238 229
8.209537e-001 -2.714728e-001 -6.394232e+000 248 242 231
2.812513e-002 1.212041e+000 -7.219724e+000 196 46 48
-9.229481e-001 -3.182507e-001 -6.464563e+000 114 59 47
-6.375181e-001 -2.405525e-001 -6.379304e+000 125 57 35
6.453428e-001 -6.681503e-001 -6.662675e+000 154 137 111
2.891450e+000 -9.449975e+000 -5.999565e+000 17 16 22
1.325061e+000 -5.902713e-002 -5.997451e+000 158 154 153
5.971615e-001 1.170006e+000 -6.649278e+000 216 71 74
1.206446e+000 -4.149563e-001 -6.093167e+000 135 118 82
2.017620e-001 8.597541e-001 -7.046618e+000 236 229 221
7.751274e-001 7.468695e-001 -6.439953e+000 138 38 36
-7.728839e-001 -2.853120e-001 -6.823605e+000 102 34 16
-7.364616e-001 -2.264030e-001 -6.793881e+000 123 32 23
5.759935e-001 1.142727e+000 -6.672128e+000 232 78 85
8.840964e-001 1.205304e-001 -6.437717e+000 240 232 220
1.186425e+000 -5.492520e-001 -6.126009e+000 178 144 145
-2.905416e-001 1.085312e+000 -7.571238e+000 171 32 39
4.985086e-001 2.426608e-001 -6.719169e+000 138 124 108
5.999420e-001 5.890935e-001 -6.653900e+000 146 134 118
9.160267e-001 6.076113e-001 -6.344957e+000 230 85 92
9.633164e-001 -2.497355e-001 -6.289984e+000 158 144 125
1.458652e+000 -1.113169e+000 -6.042531e+000 124 120 119
8.855492e-001 1.049343e+000 -6.356495e+000 63 51 51
1.119493e+000 2.563993e-001 -6.159203e+000 239 90 96
2.681958e+000 -9.280403e+000 -5.965983e+000 73 71 84
-1.496492e-001 1.142430e+000 -7.262237e+000 145 117 104
3.236131e+000 -9.259822e+000 -5.629744e+000 71 72 84
4.116485e-001 3.739524e-001 -6.846265e+000 194 180 167
3.496674e-001 1.212181e+000 -6.942572e+000 217 60 67
-2.444734e-001 -2.184586e-001 -7.609440e+000 213 201 189
-2.051520e-001 -2.500269e-001 -7.572731e+000 209 197 183
-1.418122e-001 -3.855401e-002 -7.481561e+000 131 103 92
1.284259e-001 1.168514e+000 -7.217867e+000 206 43 54
5.026337e-001 -4.265179e-001 -6.643768e+000 209 194 142
9.267654e-001 6.981481e-001 -6.325434e+000 197 53 62
-3.479421e-001 -9.307667e-003 -6.616281e+000 67 19 17
3.002333e-001 1.420337e-002 -7.079286e+000 166 153 137
-2.923640e-001 7.372307e-001 -7.496761e+000 230 223 213
-2.254276e-001 1.083447e+000 -7.572268e+000 177 33 40
-2.705508e-001 1.382567e-001 -6.836605e+000 78 36 30
2.348216e+000 -9.681958e+000 -6.664591e+000 47 45 50
3.125800e+000 -9.257982e+000 -5.622739e+000 45 44 57
1.239392e+000 8.599280e-003 -6.025212e+000 168 48 46
-1.703162e-001 6.432143e-001 -7.485267e+000 172 160 148
9.055845e-001 4.814917e-001 -6.324950e+000 185 163 149
3.456565e+000 -9.141236e+000 -5.387656e+000 59 55 64
-4.745429e-001 -7.685769e-002 -6.473380e+000 121 43 32
2.807723e+000 -9.455237e+000 -5.862939e+000 74 77 87
3.086803e+000 -1.026791e+001 -5.528527e+000 87 92 115
3.030452e+000 -9.711352e+000 -5.819866e+000 32 28 42
-2.477434e-001 3.286548e-001 -7.617855e+000 210 198 186
-2.079702e-001 -1.674838e-001 -7.613673e+000 191 179 163
-2.079702e-001 -1.674838e-001 -7.613673e+000 191 179 163
-2.254166e-001 1.383142e+000 -6.971033e+000 215 55 61
-6.326749e-002 5.550711e-001 -7.205665e+000 182 172 160
5.295303e-001 1.977956e-002 -6.524144e+000 178 165 146
-7.578950e-001 -2.738796e-001 -6.781546e+000 126 28 21
5.295870e-001 5.604025e-001 -6.745954e+000 206 194 180
3.347898e+000 -1.081861e+001 -5.118164e+000 243 247 253
3.153944e+000 -1.096345e+001 -5.386692e+000 25 24 29
3.317188e-001 -3.408397e+000 -7.790973e+000 186 185 183
1.930538e-001 -1.714383e+000 -7.696661e+000 170 169 167
-1.566169e-001 3.884884e-001 -7.479779e+000 216 204 191
4.799570e-001 -2.957477e+000 -7.526223e+000 166 164 167
-2.418407e-002 -4.149087e-001 -7.360439e+000 182 131 86
-6.727240e-002 5.681914e-001 -7.169260e+000 196 186 174
-9.084600e-001 -2.529642e-001 -6.368609e+000 178 112 88
-2.728125e-001 1.423828e-001 -6.841933e+000 82 39 32
2.626334e+000 -9.411907e+000 -6.109056e+000 32 30 41
5.483496e-001 -1.935359e-001 -6.559887e+000 222 214 201
5.056598e-001 -5.922421e-002 -6.536586e+000 224 216 205
1.184114e+000 -1.688352e+000 -6.420593e+000 145 139 139
1.548157e+000 -1.101947e+000 -5.882624e+000 156 158 157
-5.056301e-001 8.264402e-001 -7.897604e+000 15 13 23
-1.609947e-001 -8.019744e-002 -7.528072e+000 198 186 170
-1.747426e-001 3.318686e-001 -7.320819e+000 153 141 127
5.520394e-001 -2.777918e+000 -7.426331e+000 139 137 140
-1.711987e-001 1.927254e-001 -7.046249e+000 146 129 115
-1.546892e-001 1.599123e-001 -6.785624e+000 152 135 121
1.117119e-001 2.474150e-001 -6.854947e+000 165 151 138
2.065670e-001 1.014750e+000 -7.075772e+000 199 192 182
1.308302e-001 1.223884e-001 -6.756203e+000 199 192 176
-5.984279e-001 6.027143e-001 -8.051173e+000 198 56 54
-6.013106e-001 6.047367e-001 -8.048985e+000 198 56 54
-1.507834e-001 6.778006e-001 -7.481420e+000 212 203 190
-3.004497e-001 1.237697e-001 -6.823447e+000 79 48 44
-4.846616e-001 -5.035903e-002 -6.500086e+000 149 62 44
-1.749909e-001 4.325512e-002 -6.664843e+000 192 178 167
-1.404603e-001 9.676384e-002 -6.707021e+000 135 121 108
4.321933e-001 2.642414e-001 -6.762270e+000 128 112 97
4.413307e-001 1.365351e+000 -6.842121e+000 76 64 62
5.550657e-001 -1.713171e-002 -6.489751e+000 184 171 152
1.027769e+000 -7.499996e-002 -6.292663e+000 242 237 230
9.430632e-001 5.902995e-001 -6.370070e+000 233 90 99
-2.007599e-001 -1.396233e-001 -7.337026e+000 166 151 132
-7.008890e-001 -1.379337e-001 -6.794591e+000 118 51 33
-6.105190e-002 7.948819e-001 -7.348161e+000 161 149 137
-2.818442e-001 1.305926e-001 -6.804503e+000 70 21 17
5.720144e-002 6.576335e-002 -6.725352e+000 197 188 173
3.027469e-001 7.707336e-002 -6.639311e+000 235 230 215
2.540484e-001 1.412667e+000 -7.113464e+000 64 55 56
2.834353e+000 -9.335397e+000 -5.972744e+000 19 18 22
4.403383e-001 1.053923e+000 -6.796446e+000 210 202 186
6.446882e-001 9.738171e-001 -6.628436e+000 230 81 91
-2.624129e-001 6.093826e-001 -7.557178e+000 231 223 212
-1.922434e-001 3.798011e-001 -7.330177e+000 205 196 182
2.756793e-001 5.985288e-001 -6.952026e+000 227 223 211
3.444996e-001 2.101864e-001 -6.689163e+000 208 200 183
5.271359e-001 5.441639e-001 -6.803828e+000 237 229 218
-1.777087e-001 5.802682e-001 -7.465452e+000 218 210 197
-1.727297e-001 3.039864e-001 -7.224832e+000 177 164 148
-1.727297e-001 3.039864e-001 -7.224832e+000 177 164 148
-1.092870e-001 6.414400e-001 -7.245487e+000 136 119 103
2.842773e+000 -1.048156e+001 -5.626869e+000 85 90 112
-1.979003e-001 8.346094e-001 -7.483527e+000 143 124 110
-1.534988e-001 4.486588e-001 -7.375594e+000 143 127 111
-1.327510e-001 8.936057e-001 -7.358418e+000 215 207 194
-1.070321e-001 8.769688e-001 -7.368610e+000 215 207 194
-1.747780e-001 -6.543749e-002 -7.534314e+000 208 200 183
-1.411740e-001 2.895258e-001 -7.477911e+000 198 181 166
7.665091e-003 5.781197e-001 -7.154322e+000 201 191 179
1.239132e-002 5.759921e-001 -7.158150e+000 201 191 179
3.524576e-002 7.683464e-001 -7.126892e+000 219 210 201
7.069908e-001 3.302544e-001 -6.612213e+000 236 228 215
-3.092089e-001 1.010915e-001 -7.636623e+000 149 31 31
-1.959824e-001 -2.294934e-001 -7.542779e+000 167 155 140
-7.588768e-001 -2.321891e-001 -6.702979e+000 89 22 15
2.803037e-001 7.095601e-001 -7.032263e+000 203 194 185
3.433884e+000 -1.078817e+001 -5.349548e+000 100 93 90
1.010082e+000 -6.774529e-001 -6.280970e+000 170 52 45
2.294345e+000 -1.099144e+001 -5.734158e+000 137 132 133
1.219293e+000 -1.831228e+000 -6.495594e+000 148 146 148
3.694939e+000 -8.992133e+000 -4.972728e+000 25 22 29
1.770689e+000 -3.663170e-001 -5.495895e+000 136 133 140
-2.517764e-001 1.549130e-001 -6.842389e+000 100 82 72
1.230934e-001 1.601984e-001 -6.750174e+000 217 207 192
5.807329e-001 1.510473e-002 -6.466714e+000 216 208 197
4.812670e+000 -1.166109e+001 -3.108755e+000 226 238 245
-8.619846e-002 1.271477e+000 -7.372609e+000 203 67 75
5.208750e-002 9.245681e-001 -7.131810e+000 189 177 165
5.315873e-002 9.236882e-001 -7.132036e+000 189 177 165
7.313154e-001 7.572349e-001 -6.544652e+000 190 176 167
-1.611902e-001 2.881999e-001 -7.391101e+000 157 140 125
-1.115439e-001 4.348641e-001 -7.431477e+000 133 120 104
1.943533e-001 7.700574e-002 -6.707959e+000 130 117 101
3.252397e+000 -1.036103e+001 -5.519684e+000 16 15 18
4.527391e+000 -9.148053e+000 -2.903631e+000 102 98 116
-4.516184e-001 7.657987e-001 -7.770853e+000 171 38 43
-1.241616e-001 1.046716e+000 -7.379944e+000 163 145 131
4.367931e+000 -8.258022e+000 -3.239503e+000 77 75 86
-5.515983e-001 7.287289e-001 -7.920760e+000 189 49 52
-1.815572e-001 8.952887e-001 -7.539977e+000 155 139 126
3.339322e+000 -1.082382e+001 -5.068107e+000 236 244 247
4.270693e+000 -9.108463e+000 -3.595862e+000 90 87 108
-5.252524e-001 6.247678e-001 -7.974063e+000 194 51 57
-8.993909e-001 -1.915928e-001 -6.277786e+000 40 19 12
3.371480e-001 8.992787e-001 -6.921200e+000 147 133 120
6.833099e-001 5.578704e-001 -6.609757e+000 128 112 97
-3.091249e-001 8.715579e-001 -7.600758e+000 217 61 70
5.092517e-001 -6.214046e-002 -6.554648e+000 251 244 233
-1.379857e-001 3.165856e-001 -7.009525e+000 144 129 113
-2.613855e-001 1.486171e-002 -6.712000e+000 99 65 58
-8.601976e-002 1.236485e+000 -7.379436e+000 140 15 24
3.246114e+000 -1.074192e+001 -4.741960e+000 253 254 255
-1.549016e-001 3.133286e-001 -7.299194e+000 119 104 89
-2.419746e-001 1.917195e-001 -6.879930e+000 124 107 97
2.181897e+000 -1.083137e+001 -5.779183e+000 126 120 120
2.256429e+000 -9.472330e+000 -6.641087e+000 41 40 46
-1.103247e-001 4.917851e-001 -7.340660e+000 134 118 103
-5.299469e-001 5.722113e-001 -7.890400e+000 193 162 133
2.573749e-002 -5.917851e-001 -7.483728e+000 241 92 97
-7.098709e-001 -1.848006e-001 -6.849282e+000 106 29 15
-3.077923e-001 4.181902e-001 -7.255234e+000 154 141 122
-1.912688e-001 1.572087e-001 -7.080301e+000 110 92 78
-5.307963e-002 2.344349e-001 -6.917660e+000 152 139 121
1.015571e+000 -6.721556e-001 -6.298132e+000 193 184 157
1.473647e+000 -1.277003e+000 -6.016582e+000 139 137 140
9.492396e-001 4.025810e-001 -6.249389e+000 236 80 92
-1.478237e-001 -1.820898e+000 -8.002566e+000 174 170 171
-1.998326e-001 -1.552095e+000 -7.925306e+000 177 173 176
-4.208799e-002 -1.695826e+000 -7.826396e+000 182 178 177
-2.596953e-001 -4.188455e-001 -7.689984e+000 130 118 112
-8.333269e-001 -3.443490e-001 -6.548870e+000 129 48 20
-2.361204e-001 1.139517e+000 -7.459061e+000 153 22 27
-9.786079e-002 5.027594e-001 -7.240143e+000 154 141 125
5.482350e-001 -4.310591e-001 -6.609560e+000 223 202 145
1.157214e+000 -3.949892e-001 -6.058224e+000 160 157 156
1.509474e+000 -7.276363e-001 -5.876830e+000 147 145 148
1.477382e+000 -6.801296e-001 -5.935763e+000 134 129 135
1.804638e+000 -1.148559e+000 -5.598851e+000 152 147 153
9.125903e-001 7.150701e-001 -6.320819e+000 191 57 62
9.652706e-001 6.649189e-001 -6.294326e+000 166 37 42
3.925278e-002 -2.009924e+000 -7.804381e+000 96 92 91
4.035527e-002 -1.959636e+000 -7.699472e+000 182 178 179
-3.487427e-001 3.404201e-001 -7.770437e+000 211 81 81
-2.626813e-001 2.334645e-001 -7.708945e+000 197 63 66
-1.414281e-002 -5.345058e-001 -7.488455e+000 149 38 43
-2.607146e-002 -4.849656e-001 -7.475501e+000 232 171 124
-2.837163e-001 1.060977e+000 -7.635633e+000 152 31 38
-1.600909e-001 3.301916e-001 -7.381894e+000 145 132 113
-1.654943e-001 6.916547e-001 -7.496317e+000 160 152 133
-8.976641e-001 -3.053660e-001 -6.435228e+000 147 67 38
-3.724625e-001 1.967066e-002 -6.864787e+000 46 12 11
-2.070291e-001 1.533248e-001 -7.064038e+000 141 125 110
-9.196986e-001 -2.902427e-001 -6.345976e+000 41 13 11
-4.824302e-001 -2.353274e-002 -6.677197e+000 44 4 2
-5.707546e-001 -1.181056e-001 -6.506086e+000 68 18 13
-2.850623e-001 1.373174e-001 -6.748516e+000 94 31 26
-2.140577e-001 7.030149e-002 -6.702187e+000 68 24 15
9.432972e-002 6.489652e-001 -7.097957e+000 201 192 174
1.030053e-001 1.223838e+000 -7.114888e+000 212 67 70
8.502842e-001 -8.259800e-001 -6.481597e+000 238 98 99
1.765230e+000 -1.027099e+000 -5.657925e+000 145 143 148
1.635001e+000 -3.786822e-001 -5.715682e+000 177 170 175
-5.634441e-001 5.854390e-001 -7.982142e+000 226 76 81
-2.790175e-001 1.942516e-001 -7.749916e+000 210 79 84
-4.784110e-002 -4.784205e-001 -7.510484e+000 173 47 44
-2.197438e-001 5.303703e-001 -7.569704e+000 185 176 162
-1.669809e-001 3.688409e-001 -7.404022e+000 202 189 176
-7.213075e-001 -1.891122e-001 -6.749950e+000 85 26 17
-8.796634e-001 -2.962363e-001 -6.509455e+000 114 41 21
3.232205e+000 -9.071836e+000 -5.448797e+000 29 26 35
8.981015e-004 4.494188e-001 -7.155459e+000 150 138 122
-7.494152e-002 8.566710e-001 -7.306152e+000 199 190 173
-9.286697e-001 -1.804304e-001 -6.211824e+000 64 37 25
8.486792e-001 -2.953661e-001 -6.396131e+000 234 226 209
6.946630e-001 6.574069e-001 -6.602408e+000 169 157 137
3.140966e+000 -9.511440e+000 -5.988567e+000 34 31 38
-6.365059e-002 4.321136e-001 -7.183428e+000 186 173 156
-8.381092e-001 -1.832707e-001 -6.199493e+000 63 37 23
-3.428238e-001 -2.326764e-001 -6.449381e+000 136 32 24
-2.450289e-002 5.345977e-002 -6.698039e+000 123 107 94
2.868286e-001 2.846231e-001 -6.787524e+000 187 171 160
8.593128e-001 -6.911620e-001 -6.473639e+000 240 232 215
4.648739e-001 7.831926e-002 -6.568057e+000 156 143 124
6.583981e-001 3.100295e-001 -6.646210e+000 226 217 202
7.563952e-001 -8.566236e-002 -6.384722e+000 234 222 205
8.017023e-001 -9.967070e-002 -6.345132e+000 148 130 106
1.412097e+000 -2.657679e-001 -5.915168e+000 166 151 163
7.769786e-001 9.674035e-001 -6.463019e+000 194 60 64
9.964062e-001 5.182486e-001 -6.194975e+000 221 86 92
-2.786132e-001 -3.571999e-001 -7.712569e+000 116 105 101
-4.276529e-001 1.524084e-002 -6.871704e+000 86 36 25
1.741821e-001 5.953967e-001 -6.965781e+000 216 207 190
1.791497e-001 7.353449e-001 -7.068045e+000 228 216 202
2.338926e-001 4.391557e-001 -6.911372e+000 148 135 118
4.042498e-001 1.534322e-001 -6.617249e+000 209 198 180
7.565021e-001 1.024251e-001 -6.529204e+000 145 132 113
1.255890e+000 -4.689916e-001 -6.032639e+000 164 157 164
5.576172e-001 1.238397e+000 -6.650236e+000 57 58 53
1.593782e+000 -2.626211e-001 -5.973172e+000 14 10 10
1.255599e+000 2.072793e-001 -6.044730e+000 163 152 158
1.209403e+000 3.132962e-001 -6.074186e+000 153 142 146
-9.518124e-001 -2.867067e-001 -6.458807e+000 172 91 79
5.692961e-002 5.939717e-001 -7.102467e+000 207 198 183
2.362162e-002 8.311193e-002 -6.739998e+000 183 173 155
1.086804e-001 3.051772e-002 -6.673763e+000 149 136 117
3.973629e-001 4.965715e-001 -6.931693e+000 184 172 158
2.950826e-001 9.981152e-001 -7.016699e+000 230 222 211
7.415928e-001 -4.577366e-001 -6.433006e+000 254 241 186
6.451600e-001 2.673478e-001 -6.716931e+000 222 213 199
1.194332e+000 -3.977817e-001 -6.094169e+000 100 85 61
1.318427e+000 -1.992273e-001 -5.973333e+000 254 243 203
1.155065e+000 1.745310e-001 -6.111032e+000 211 76 81
-2.572426e-001 -3.717830e-001 -7.630910e+000 217 210 191
-5.810589e-002 6.790932e-001 -7.181075e+000 208 199 184
1.006999e-001 6.909429e-001 -7.110310e+000 222 213 196
1.029133e+000 -7.514964e-001 -6.350203e+000 221 214 198
7.775557e-001 -2.701065e-002 -6.383471e+000 162 147 127
1.006545e+000 3.264110e-001 -6.280866e+000 237 228 213
7.792855e-001 9.750388e-001 -6.504650e+000 200 63 70
1.089879e+000 2.386856e-001 -6.191565e+000 187 53 57
-2.168136e-001 2.179253e-001 -7.625802e+000 124 17 23
1.249650e-001 1.398566e+000 -7.148834e+000 21 9 14
3.955802e-001 7.637753e-001 -6.868854e+000 237 228 211
1.342697e+000 -2.871787e-001 -5.989348e+000 246 227 184
-1.342586e-001 1.540144e-001 -7.288034e+000 143 126 108
8.223069e-002 9.111809e-001 -7.118960e+000 180 167 151
2.313038e-001 6.477429e-001 -7.021087e+000 145 130 111
6.304688e-001 -7.977267e-002 -6.403785e+000 244 237 221
7.884392e-001 7.558852e-001 -6.448598e+000 124 22 26
3.414634e-001 -2.046749e-002 -6.571976e+000 238 232 213
1.058138e+000 3.458360e-002 -6.276665e+000 242 236 220
3.899872e-001 6.646153e-001 -6.847703e+000 213 204 187
3.662709e-001 6.808547e-001 -6.846583e+000 213 204 187
-3.001003e-001 6.098358e-001 -7.652298e+000 214 207 191
-4.880205e-003 1.285620e+000 -7.433962e+000 17 11 13
-4.021671e-001 -1.615360e-001 -6.766988e+000 79 26 18
3.104977e-001 8.167533e-001 -6.970974e+000 194 182 165
4.969841e-001 -1.873301e+000 -7.250627e+000 118 114 111
-2.231976e-001 -2.100286e-001 -7.569496e+000 181 166 149
-1.691041e-001 -6.962544e-002 -7.526552e+000 198 187 167
2.974776e-001 -8.528558e-001 -7.421749e+000 134 126 124
-1.814184e-002 3.052917e-001 -6.881667e+000 152 139 122
8.018508e-001 -4.333264e-001 -6.353157e+000 175 154 111
1.200008e+000 -5.807813e-001 -6.122019e+000 171 165 169
4.749168e-001 -1.488677e+000 -7.321744e+000 149 146 139
7.113465e-001 -1.989079e+000 -7.156976e+000 156 153 149
-1.512778e-001 -4.952650e-002 -7.448203e+000 135 115 98
-7.164540e-001 -3.092847e-001 -6.786609e+000 123 35 19
-2.826827e-002 2.868384e-001 -7.036772e+000 126 110 94
-1.190108e-001 1.220129e+000 -7.387338e+000 147 26 30
9.147501e-001 -7.244014e-001 -6.431945e+000 211 197 182
9.147501e-001 -7.244014e-001 -6.431945e+000 211 197 182
9.297888e-001 -6.640911e-001 -6.384115e+000 238 230 212
1.120393e+000 -6.174724e-001 -6.136919e+000 159 149 154
8.609809e-001 1.044681e-001 -6.458435e+000 187 179 160
-7.209125e-001 -1.886427e-001 -6.868824e+000 160 79 51
-3.318133e-001 7.858727e-001 -7.622084e+000 167 152 133
-3.437811e-001 7.905318e-001 -7.618930e+000 167 152 133
-8.157300e-002 8.593353e-001 -7.234220e+000 196 188 167
4.346707e-001 6.344968e-001 -6.771508e+000 195 188 172
6.956527e-001 6.764024e-002 -6.464821e+000 156 141 120
5.690127e-001 -1.849599e+000 -7.220645e+000 120 116 115
5.690127e-001 -1.849599e+000 -7.220645e+000 120 116 115
5.470518e-001 -1.725807e+000 -7.227500e+000 147 146 142
-1.869454e-001 2.409488e-001 -7.525238e+000 192 171 154
-3.877886e-001 -1.405507e-001 -7.024040e+000 51 19 14
5.587780e-002 -3.399013e-001 -7.243189e+000 228 204 154
-3.318458e-001 8.955286e-002 -6.907789e+000 62 18 17
1.206785e+000 -3.392595e-002 -6.053031e+000 240 94 104
1.602686e-001 2.797158e-001 -6.795771e+000 212 205 186
4.554008e-001 2.623626e-002 -6.558090e+000 218 209 192
-1.796324e-001 3.921951e-001 -7.563959e+000 196 187 170
9.611619e-001 -7.030120e-001 -6.347789e+000 226 217 200
1.037256e+000 -6.857076e-001 -6.142576e+000 166 159 167
9.736450e-001 -3.590498e-001 -6.202611e+000 254 236 196
5.583090e-001 1.426843e-001 -6.543264e+000 150 135 116
1.469489e-001 -2.357405e-001 -6.496474e+000 214 201 184
-1.058650e-001 2.958762e-002 -7.806662e+000 129 22 27
-1.020379e+000 -1.253667e+001 -1.022687e+001 95 100 119
5.620453e-001 -1.803731e+000 -7.196517e+000 108 106 103
-2.233886e-001 2.392056e-001 -7.513348e+000 165 43 47
3.041322e-001 -1.446252e+000 -7.478935e+000 105 101 97
-2.028759e-001 -2.414356e-001 -7.554308e+000 186 173 154
-8.914155e-001 -3.404286e-001 -6.432392e+000 160 85 62
-5.299387e-001 -6.853526e-002 -6.520812e+000 119 49 39
-2.940061e-001 -9.132320e-003 -6.680973e+000 78 42 41
-7.719488e-001 -3.797405e-001 -6.537615e+000 155 136 120
1.452919e+000 -1.100277e+000 -6.039617e+000 139 137 140
-2.864777e-001 2.611070e-001 -7.684766e+000 186 55 60
-3.674911e-001 -1.217063e-001 -7.001961e+000 92 65 59
-1.252489e-001 5.692916e-001 -7.246253e+000 166 151 132
1.326296e-001 9.934278e-002 -6.731026e+000 190 179 160
1.208656e+000 -4.819539e-001 -6.047181e+000 176 171 172
2.568938e-001 2.409518e-001 -6.747088e+000 167 156 138
8.553365e-001 9.068333e-002 -6.501636e+000 196 188 169
5.302812e-001 7.182260e-001 -6.776669e+000 233 225 212
3.617190e-001 1.349735e+000 -6.901654e+000 199 63 66
3.087569e-001 1.044208e+000 -7.026356e+000 211 203 190
3.940830e-001 1.331641e+000 -6.856829e+000 211 68 71
4.010883e-001 1.368843e+000 -6.941136e+000 50 30 31
3.766196e-001 1.369531e+000 -6.871215e+000 71 38 38
5.430709e+000 -6.757810e+000 -1.320240e+000 79 74 80
1.193263e+000 -7.662097e-001 -6.164794e+000 162 151 157
1.059681e+000 -1.974017e-001 -6.256892e+000 206 198 179
4.397648e-001 1.284238e+000 -6.796308e+000 207 64 70
1.871614e-001 4.020876e-001 -6.904039e+000 190 177 162
6.706750e-001 9.792995e-001 -6.625689e+000 210 71 78
-4.959465e-001 4.791569e-001 -7.712499e+000 210 192 171
-2.618147e-002 -4.528782e-001 -7.378799e+000 170 106 60
-2.618147e-002 -4.528782e-001 -7.378799e+000 170 106 60
-1.330881e-002 -4.413957e-001 -7.363214e+000 219 166 119
1.399118e-001 -6.065459e-001 -7.343603e+000 92 25 6
-7.079269e-001 -2.933984e-001 -6.801664e+000 136 49 26
7.737985e-002 -3.983167e-001 -7.267511e+000 117 67 28
3.687532e-002 -3.601968e-001 -7.238108e+000 254 236 179
-9.033440e-001 -3.142047e-001 -6.364038e+000 62 24 14
-9.055383e-001 -2.937134e-001 -6.382487e+000 141 63 37
-4.787394e-001 -4.353910e-002 -6.606458e+000 88 33 26
-2.411666e-001 2.738148e-002 -6.720631e+000 68 31 22
1.565901e+000 -1.698739e+000 -6.037781e+000 152 152 150
5.536279e-001 -8.566184e-002 -6.521602e+000 233 226 208
-6.367739e-003 1.166534e+000 -7.248265e+000 208 50 58
9.828083e-001 -3.981944e-001 -6.330809e+000 175 160 138
9.757110e-001 -3.951485e-001 -6.332336e+000 175 160 138
1.367799e-002 1.362755e+000 -7.238659e+000 91 13 17
1.445496e+000 -1.090645e+000 -5.892281e+000 184 179 183
9.970450e-001 -3.984246e-001 -6.099978e+000 188 170 172
1.391629e+000 -1.413405e-001 -5.923351e+000 70 60 49
1.244839e+000 1.356112e-001 -6.036398e+000 152 134 136
1.209295e+000 2.776275e-001 -6.078136e+000 150 137 133
-5.816721e-001 6.074108e-001 -8.070314e+000 72 40 43
-5.942570e-001 -3.527648e-001 -6.921802e+000 153 57 26
-4.631003e-001 -2.392230e-001 -7.102757e+000 255 240 185
-1.580717e-001 -4.718374e-003 -7.475671e+000 139 110 94
-7.208395e-001 -1.612733e-001 -6.912325e+000 145 70 49
-7.174033e-001 -1.629255e-001 -6.913062e+000 145 70 49
-6.648546e-001 -3.092548e-001 -6.725857e+000 93 22 12
-4.557841e-001 -1.443500e-001 -6.999986e+000 114 85 81
-9.391286e-001 -3.498539e-001 -6.482438e+000 131 135 126
-8.196021e-001 -3.569331e-001 -6.551411e+000 127 53 33
-7.635305e-001 -3.579709e-001 -6.555314e+000 110 46 22
-3.971055e-001 1.025979e+000 -7.621908e+000 173 40 54
-3.507934e-001 1.033256e+000 -7.623453e+000 162 40 43
-2.788424e-001 8.935743e-003 -6.977680e+000 82 58 48
-9.222785e-002 6.568217e-001 -7.413615e+000 153 142 124
-8.502967e-002 6.561854e-001 -7.413885e+000 153 142 124
-3.204691e-001 3.937203e-001 -7.014345e+000 137 121 105
6.731252e-002 3.999037e-001 -7.292114e+000 145 132 113
-1.500639e-001 5.318289e-001 -7.285659e+000 139 124 105
-8.728648e-001 -2.018436e-001 -6.229162e+000 180 161 137
-8.728648e-001 -2.018436e-001 -6.229162e+000 180 161 137
-1.519671e-001 1.086092e+000 -7.504046e+000 159 28 33
-8.022945e-001 -2.081236e-001 -6.231218e+000 137 115 96
-1.669147e-001 3.542865e-002 -6.661611e+000 186 172 152
-2.697234e-001 1.178350e+000 -7.437773e+000 157 30 34
7.747404e-001 -3.225368e-001 -6.428284e+000 157 143 122
2.223485e-001 9.962654e-001 -7.072857e+000 187 181 164
1.639354e+000 -1.172428e+000 -5.856088e+000 143 138 142
1.626103e+000 -1.169634e+000 -5.796198e+000 190 185 189
1.743230e+000 -1.281501e+000 -5.719436e+000 175 170 176
1.825240e+000 -1.335697e+000 -5.705249e+000 175 170 176
1.679055e+000 -1.151088e+000 -5.698863e+000 194 189 195
1.700498e+000 -4.214545e-001 -5.671416e+000 141 136 142
9.187062e-001 4.333538e-001 -6.267420e+000 225 207 189
2.036132e+000 -6.466289e-001 -5.344177e+000 147 144 150
1.894294e+000 -4.315935e-001 -5.481748e+000 140 133 141
6.920016e-001 1.343127e+000 -6.592288e+000 85 76 74
2.938223e+000 -1.463038e+000 -4.451227e+000 185 183 188
2.088384e+000 -2.871274e-001 -5.240746e+000 151 145 149
-1.910680e-001 1.390020e-001 -7.809115e+000 17 16 17
-2.741976e-001 4.563045e-002 -7.661447e+000 206 76 78
-2.229187e-001 2.267434e-001 -7.805463e+000 202 72 74
-7.287180e-001 -2.363421e-001 -6.854870e+000 181 89 58
-7.364713e-001 -1.752620e-001 -6.869294e+000 171 97 65
3.954568e-002 -3.382527e-001 -7.272930e+000 243 223 166
-1.675286e-001 6.755853e-001 -7.455284e+000 162 151 133
-2.852931e-001 3.187708e-002 -6.710684e+000 89 55 48
-2.913212e-001 1.192389e-001 -6.827238e+000 81 50 40
-2.364904e-001 1.151222e-001 -6.836578e+000 77 30 22
-2.026207e-001 1.450400e-001 -6.806293e+000 100 82 72
-7.159725e-001 -2.576353e-001 -6.232609e+000 71 49 28
7.493024e-001 -5.929209e-001 -6.468787e+000 238 235 223
1.287649e-001 6.192889e-001 -7.030534e+000 180 167 150
5.693677e-001 1.725144e-001 -6.639040e+000 141 126 107
1.691559e+000 -1.162472e+000 -5.768802e+000 136 131 136
1.440879e+000 -7.746825e-001 -6.033399e+000 163 157 161
1.122371e+000 -4.238023e-001 -6.108603e+000 243 221 180
9.814690e-001 -1.893900e-001 -6.283337e+000 156 143 124
1.374569e+000 -4.059382e-001 -5.946298e+000 145 138 146
1.521003e+000 -4.238343e-001 -5.983551e+000 211 192 149
1.046861e+000 3.051556e-001 -6.237210e+000 230 96 94
1.282468e+000 8.494447e-002 -6.015376e+000 159 146 155
8.472100e-001 6.311784e-001 -6.405951e+000 222 202 188
8.472100e-001 6.311784e-001 -6.405951e+000 222 202 188
2.894316e+000 -1.321912e+000 -4.474947e+000 187 184 191
-3.033229e-001 3.155798e-001 -7.793934e+000 210 78 82
-4.581528e-001 -2.547188e-001 -7.078964e+000 74 22 12
-3.629824e-001 -1.159912e-001 -7.036593e+000 107 87 76
-3.678841e-001 -1.118843e-001 -7.035957e+000 107 87 76
-3.119401e-001 1.063447e+000 -7.622040e+000 157 34 36
-4.875426e-001 -2.077262e-002 -6.675969e+000 45 6 6
9.758562e-002 7.069262e-001 -7.092212e+000 222 214 203
3.584236e-001 6.864188e-002 -6.614641e+000 181 170 150
3.579817e-001 3.574249e-001 -6.855548e+000 151 140 122
4.332078e-001 3.452489e-001 -6.833246e+000 187 176 158
8.858312e-001 -3.282865e-001 -6.361594e+000 93 78 57
3.337685e-001 7.455173e-001 -6.960142e+000 188 178 160
3.222942e-001 7.472244e-001 -6.955219e+000 188 178 160
3.057517e-001 9.512364e-001 -7.012462e+000 154 145 130
2.004260e+000 -4.379501e-001 -5.278121e+000 162 156 160
-4.456571e-001 -3.144747e-001 -7.057807e+000 253 247 185
1.870635e-001 -4.215132e-001 -7.322909e+000 64 5 8
-3.642396e-001 -1.560999e-001 -7.026931e+000 61 23 21
-1.567834e-001 3.285968e-001 -7.381624e+000 144 129 110
-7.534191e-001 -4.111287e-001 -6.512446e+000 116 41 30
-2.684965e-001 -2.590344e-003 -7.046632e+000 102 85 74
-3.318882e-001 -3.185726e-002 -6.925720e+000 42 10 11
-2.147919e-001 4.247884e-002 -6.729099e+000 123 105 91
-2.222883e-001 4.871949e-002 -6.729156e+000 123 105 91
1.245055e+000 -6.176139e-001 -6.153137e+000 159 36 43
6.479390e-001 3.689792e-002 -6.455692e+000 198 190 171
4.361389e-001 1.226755e+000 -6.810785e+000 220 79 80
9.019951e-001 5.778572e-001 -6.369335e+000 176 41 45
5.383758e-001 1.270595e+000 -6.699685e+000 66 45 50
2.112113e+000 -4.232405e-001 -5.273939e+000 177 171 175
-1.631637e-002 3.695051e-001 -7.093005e+000 178 164 145
4.273689e-001 4.849988e-001 -6.930813e+000 180 171 155
-1.601793e-002 1.167261e+000 -7.259702e+000 181 47 48
1.466295e+000 -1.928079e-001 -5.973051e+000 18 8 8
1.310559e+000 1.215159e-001 -5.942682e+000 142 136 140
6.447982e-001 6.933345e-001 -6.664813e+000 227 220 204
1.062477e+000 2.858880e-001 -6.271246e+000 234 227 213
-2.008018e-001 2.201595e-001 -7.623218e+000 128 19 24
-5.748593e-001 -2.705015e-001 -6.374675e+000 92 34 18
-2.184625e-001 -1.116973e-002 -6.649029e+000 68 23 20
-4.152245e-001 -2.383421e-001 -6.391773e+000 143 141 142
-1.058157e-001 9.596633e-001 -6.940591e+000 210 201 184
-3.936654e+000 -7.128739e+000 -1.436683e+001 78 77 87
-7.058108e+000 -7.309496e+000 -2.514221e+001 91 83 80
-8.885678e+000 -9.471443e+000 -2.215362e+001 97 90 82
-8.885678e+000 -9.471443e+000 -2.215362e+001 97 90 82
-6.045642e-001 8.221531e-002 -6.428931e+000 84 20 12
-7.499419e-001 -1.861246e-001 -6.711565e+000 106 46 35
-1.575085e-001 3.367418e-001 -7.301066e+000 153 140 123
-8.581707e-002 9.844767e-001 -7.493355e+000 218 180 164
