ply
format ascii 1.0
element face 0
property list uchar int vertex_indices
element vertex 871
property float x
property float y
property float z
property uchar diffuse_red
property uchar diffuse_green
property uchar diffuse_blue
end_header
-2.850303e-001 -2.399189e-001 -6.406706e+000 121 73 56
-2.850303e-001 -2.399189e-001 -6.406706e+000 121 73 56
1.653415e-001 -4.175745e-001 -6.721549e+000 47 30 18
5.774720e-001 -4.370472e-001 -6.770633e+000 102 84 47
5.334054e-001 -5.381694e-001 -6.846626e+000 85 66 41
9.892227e-001 -5.935913e-001 -6.373246e+000 180 158 145
9.955134e-001 -1.048496e+000 -6.481907e+000 224 60 67
9.955134e-001 -1.048496e+000 -6.481907e+000 224 60 67
9.614574e-001 2.248048e-001 -6.248019e+000 158 143 136
6.535017e-001 -2.632879e-002 -6.422219e+000 191 184 175
-6.658803e-001 -3.528570e-001 -6.327193e+000 255 211 172
7.551661e-001 9.294280e-001 -6.420905e+000 194 34 44
9.982087e-001 5.704566e-001 -6.149663e+000 19 0 9
-1.974208e-001 7.264098e-001 -7.499827e+000 223 216 209
2.775303e-001 6.328753e-001 -6.902501e+000 149 139 129
4.839004e-001 5.303898e-001 -6.700448e+000 222 213 208
-3.744075e-001 -6.945272e-002 -6.363846e+000 87 23 15
1.194076e+000 -3.705010e-002 -6.055229e+000 248 77 87
7.318508e-001 -1.026494e-001 -6.405931e+000 241 241 233
9.233178e-001 -2.860163e-001 -6.299954e+000 111 91 67
1.028242e+000 -3.114187e-001 -6.284933e+000 165 141 95
9.134848e-001 -3.633932e-001 -6.328310e+000 188 166 113
6.363526e-001 -5.702488e-001 -6.587515e+000 205 195 184
6.317824e-001 6.834592e-001 -6.519030e+000 209 202 194
-2.093118e-001 -1.991573e-001 -6.729424e+000 93 66 37
5.148415e-001 -2.770212e-001 -6.697758e+000 247 245 241
2.464269e-001 -4.875955e-001 -6.760847e+000 61 39 25
1.105667e+000 -6.997709e-001 -6.297951e+000 255 78 92
3.688050e-001 7.475705e-001 -6.851918e+000 228 221 214
4.326201e-001 -1.130536e+000 -7.288383e+000 144 123 80
-5.696705e-001 -4.958412e-001 -6.686613e+000 45 33 33
1.219356e+000 -5.839468e-001 -6.162053e+000 24 8 11
-7.211484e-002 1.231057e+000 -7.340667e+000 148 23 29
-4.832408e-002 8.234636e-001 -7.223642e+000 212 206 197
8.337200e-001 8.509485e-001 -6.365059e+000 98 12 21
1.274083e-001 6.523084e-001 -7.103976e+000 155 145 135
9.184952e-001 7.288488e-001 -6.318680e+000 188 53 56
-9.999757e-002 4.893346e-001 -7.236754e+000 151 141 131
3.838635e-001 2.673117e-001 -6.786290e+000 143 129 118
-1.028335e-001 6.742432e-002 -6.678196e+000 135 120 113
-1.001070e-002 9.022404e-002 -6.765352e+000 122 110 103
6.104639e-003 5.661084e-002 -6.732424e+000 153 143 133
2.144004e-001 6.575750e-002 -6.520972e+000 156 146 137
-6.069930e-001 -1.783380e-001 -6.492603e+000 156 71 47
-6.069930e-001 -1.783380e-001 -6.492603e+000 156 71 47
-5.109056e-001 -1.355193e-001 -6.475867e+000 176 90 62
-5.183968e-001 -1.405472e-001 -6.521448e+000 176 90 62
-2.627647e-001 -1.547191e-001 -6.506236e+000 145 58 35
-2.952106e-001 -1.791628e-001 -6.443436e+000 196 88 56
5.310329e-001 -1.739915e-002 -6.497744e+000 197 189 181
-5.849723e-001 -2.717545e-001 -6.548335e+000 187 84 56
-5.376882e-001 -2.611478e-001 -6.549426e+000 191 72 37
9.346336e-002 -2.486312e-001 -6.707330e+000 242 236 231
-5.254914e-002 -3.194330e-001 -6.765390e+000 44 33 15
-4.293347e-001 -3.770631e-001 -6.433737e+000 201 179 160
1.883969e-001 -3.701276e-001 -6.754671e+000 141 120 74
5.001542e-001 -6.335227e-001 -6.747589e+000 241 238 228
7.109609e-001 -8.158456e-001 -6.725127e+000 229 79 86
1.105288e+000 -6.459323e-001 -6.149022e+000 180 21 31
1.098072e+000 -6.682489e-001 -6.131279e+000 23 4 1
-3.416195e-001 7.957446e-001 -7.668567e+000 195 186 185
8.777480e-001 8.184159e-001 -6.355191e+000 18 6 10
1.069135e-001 6.926910e-001 -7.092307e+000 212 206 200
1.056067e-001 6.915978e-001 -7.071276e+000 212 206 200
7.954105e-001 5.999295e-001 -6.414175e+000 234 229 226
7.974986e-001 5.995910e-001 -6.424687e+000 234 229 226
1.753150e-001 3.035132e-001 -6.778319e+000 136 120 107
1.911870e-002 2.524036e-001 -6.937670e+000 152 139 130
4.943158e-003 1.202944e-001 -6.780266e+000 128 114 105
3.667645e-001 2.308193e-001 -6.749028e+000 140 127 111
-1.273208e-001 8.657511e-002 -6.702248e+000 123 110 102
-1.273208e-001 8.657511e-002 -6.702248e+000 123 110 102
-5.826164e-002 3.052219e-002 -6.672435e+000 147 134 126
6.759342e-002 -9.854144e-003 -6.677285e+000 125 112 104
7.777439e-002 9.694638e-003 -6.678024e+000 169 160 151
-2.789168e-001 -1.153009e-001 -6.525795e+000 65 4 1
-2.790048e-001 -1.153507e-001 -6.525600e+000 65 4 1
-1.640609e-001 -6.227893e-002 -6.614502e+000 172 87 71
-1.640797e-001 -1.135408e-001 -6.586794e+000 207 180 171
-7.143046e-001 -2.917165e-001 -6.297554e+000 230 112 81
-7.143046e-001 -2.917165e-001 -6.297554e+000 230 112 81
-5.441863e-001 -3.364553e-001 -6.561994e+000 66 24 20
-4.426055e-001 -3.661894e-001 -6.412951e+000 57 54 68
-2.166918e-001 -3.618350e-001 -6.596066e+000 179 166 158
4.537038e-001 -2.226492e-001 -6.694136e+000 230 227 220
-2.601767e-002 -4.465720e-001 -6.771202e+000 254 252 247
-8.787908e-003 -4.872295e-001 -6.867902e+000 46 35 29
7.998565e-001 -5.091040e-001 -6.356376e+000 211 186 130
1.323600e+000 -3.799826e-001 -6.034653e+000 198 175 121
2.775934e-001 -9.287119e-001 -6.976900e+000 41 31 23
4.695576e-001 -1.067450e+000 -7.104303e+000 150 128 79
1.120032e+000 -6.160948e-001 -6.170280e+000 211 46 55
5.958255e-001 1.195231e+000 -6.747950e+000 182 43 46
-3.248037e-001 7.731801e-001 -7.625208e+000 156 140 131
7.682207e-001 8.644451e-001 -6.378766e+000 113 9 17
-5.163319e-001 5.370688e-001 -7.898386e+000 34 24 16
-1.793056e-001 6.558700e-001 -7.518949e+000 205 198 188
-2.330347e-001 5.429547e-001 -7.562050e+000 217 210 200
-1.642483e-001 4.393898e-001 -7.308274e+000 144 131 120
-3.794539e-002 4.301511e-001 -7.176831e+000 172 162 152
7.595749e-001 5.486826e-001 -6.456827e+000 229 226 221
7.600934e-001 5.484294e-001 -6.460078e+000 229 226 221
1.694444e-001 2.477259e-001 -6.803253e+000 175 165 156
-1.577678e-001 1.474333e-001 -6.810318e+000 138 124 115
-6.996084e-003 4.479177e-002 -6.727872e+000 115 102 93
5.128385e-002 2.384014e-002 -6.709707e+000 123 113 104
-1.478228e-001 -9.441904e-002 -6.667154e+000 184 161 155
2.306629e-001 -2.553006e-002 -6.647523e+000 206 197 188
-7.890835e-001 -1.818154e-001 -6.269965e+000 77 22 2
-7.644773e-001 -2.038539e-001 -6.224234e+000 54 5 8
-2.702496e-001 -1.800393e-001 -6.483307e+000 219 97 66
-1.663017e-001 -2.182383e-001 -6.681164e+000 93 69 26
-6.279232e-001 -2.958652e-001 -6.394683e+000 225 183 143
-1.248006e-001 -2.771262e-001 -6.684933e+000 97 79 41
-1.912331e-001 -3.241056e-001 -6.642380e+000 203 193 181
-1.665242e-001 -4.517133e-001 -6.709139e+000 45 36 31
-3.227255e-001 -5.248101e-001 -6.659995e+000 234 233 229
1.193819e+000 -3.173687e-001 -6.079228e+000 152 124 77
6.034518e-001 -6.540655e-001 -6.607733e+000 160 147 126
6.865439e-001 -7.661189e-001 -6.666444e+000 174 33 33
1.086344e+000 -6.181125e-001 -6.154055e+000 214 52 58
-3.428285e-002 1.141317e+000 -7.261627e+000 173 35 41
-2.129053e-001 1.049371e+000 -7.539746e+000 195 44 52
-2.129053e-001 1.049371e+000 -7.539746e+000 195 44 52
-3.170277e-001 8.709544e-001 -7.583051e+000 210 44 53
-1.609671e-001 8.884960e-001 -7.500748e+000 203 195 185
-1.605855e-001 8.886390e-001 -7.500976e+000 203 195 185
-3.507193e-001 8.245615e-001 -7.679674e+000 183 34 41
-3.578554e-001 7.074376e-001 -7.671509e+000 178 166 154
2.724873e-001 7.491076e-001 -7.046903e+000 213 204 198
8.875763e-002 6.454389e-001 -7.086659e+000 195 185 177
3.106411e-001 7.178969e-001 -7.005655e+000 208 201 195
-9.627542e-002 5.212875e-001 -7.236797e+000 193 184 175
9.184398e-001 6.002214e-001 -6.339640e+000 203 45 53
9.385064e-001 6.432565e-001 -6.320230e+000 171 26 33
-2.733796e-001 2.034306e-001 -7.719678e+000 203 52 59
-3.878493e-002 2.385621e-001 -6.975791e+000 124 111 102
1.002095e-002 1.873971e-001 -6.900448e+000 122 114 103
-2.283278e-001 6.928896e-002 -6.737498e+000 130 108 100
7.646430e-001 1.312829e-001 -6.541105e+000 188 179 170
-9.301797e-001 -1.862773e-001 -6.203473e+000 158 135 82
1.157858e+000 1.619910e-001 -6.210679e+000 222 55 65
5.657155e-001 -7.009861e-002 -6.493113e+000 202 197 191
-8.288747e-001 -2.529001e-001 -6.249503e+000 98 31 28
-4.067148e-001 -2.971117e-001 -6.445009e+000 143 9 18
5.913299e-001 -3.049383e-001 -6.650801e+000 165 151 141
5.598614e-001 -4.105323e-001 -6.623160e+000 91 74 38
6.988279e-001 -3.285954e-001 -6.510652e+000 165 152 135
6.624332e-001 -3.614466e-001 -6.508072e+000 148 138 123
1.028673e+000 -2.432241e-001 -6.205845e+000 83 65 39
1.019450e+000 -2.382488e-001 -6.179140e+000 83 65 39
1.205273e+000 -1.933651e-001 -6.079704e+000 140 118 71
1.014761e+000 -5.189096e-001 -6.266049e+000 197 167 159
1.401948e+000 -3.708201e-001 -5.929605e+000 27 14 14
7.184922e-001 -8.145000e-001 -6.542706e+000 39 28 23
8.774305e-001 -8.353780e-001 -6.462614e+000 224 57 65
-3.784397e+000 9.579666e-001 -1.196912e+001 11 7 8
2.908967e-001 9.049554e-001 -7.015166e+000 192 179 173
7.742820e-001 9.443499e-001 -6.463445e+000 183 29 39
-2.452435e-002 5.903370e-001 -7.120271e+000 183 173 163
5.274192e-001 4.376785e-001 -6.758303e+000 183 175 163
-2.444309e-001 2.744290e-001 -7.617709e+000 168 33 38
2.689659e-001 8.995579e-002 -6.685550e+000 159 144 137
-3.517730e-001 -2.557288e-002 -6.611908e+000 123 51 35
4.640651e-001 1.077071e-001 -6.611643e+000 179 171 160
-9.271442e-001 -2.562421e-001 -6.278849e+000 32 23 24
-5.251629e-001 -1.815435e-001 -6.483102e+000 234 122 84
-5.065705e-001 -2.132518e-001 -6.469397e+000 166 35 18
-5.638980e-003 -1.166289e-001 -6.596297e+000 241 236 233
1.205768e+000 9.198921e-002 -6.043924e+000 119 10 23
-4.518403e-001 -4.153327e-001 -6.514839e+000 161 144 133
-2.105772e-001 -4.431877e-001 -6.640623e+000 211 204 198
9.609261e-001 -2.489879e-001 -6.293250e+000 147 129 119
9.476435e-001 -2.961963e-001 -6.214062e+000 174 151 101
7.157893e-001 -5.877405e-001 -6.449710e+000 194 185 174
9.941557e-001 -4.611301e-001 -6.234937e+000 175 151 105
1.388938e+000 -3.930553e-001 -5.939535e+000 206 183 115
1.388938e+000 -3.930553e-001 -5.939535e+000 206 183 115
8.957985e-001 -7.134341e-001 -6.431531e+000 208 200 189
4.168566e-001 -1.125964e+000 -7.215817e+000 134 114 69
5.408484e-001 -1.088033e+000 -7.093293e+000 13 5 8
1.098814e+000 -5.967656e-001 -6.167491e+000 150 2 16
-2.085697e+000 -2.976158e+000 -1.057768e+001 37 31 33
-2.067995e+000 -3.109760e+000 -1.057707e+001 37 31 33
-1.567346e+000 -2.291791e+000 -8.619212e+000 39 33 35
-5.339556e-001 7.228449e-001 -7.886548e+000 191 41 42
-6.321211e-002 6.812323e-001 -7.182713e+000 206 197 188
-4.489943e-001 4.638282e-001 -7.772363e+000 208 194 184
-1.700007e-001 4.908628e-001 -7.314955e+000 202 194 183
5.156408e-001 3.201162e-001 -6.816446e+000 141 133 122
1.699704e-001 1.262170e-001 -6.731588e+000 155 145 136
-8.734316e-001 -1.658821e-001 -6.175125e+000 39 24 28
-1.744405e-001 -1.355042e-001 -6.640005e+000 182 160 154
4.990067e-001 1.976781e-002 -6.547217e+000 220 216 210
4.990882e-001 1.968717e-002 -6.547385e+000 220 216 210
3.045132e-001 -1.128807e-001 -6.670372e+000 255 252 244
6.718834e-001 -2.515020e-002 -6.455453e+000 188 179 172
7.143640e-001 6.180628e-003 -6.447026e+000 213 205 196
7.969626e-001 -2.847248e-002 -6.417192e+000 180 172 160
7.975761e-001 -2.869664e-002 -6.418721e+000 180 172 160
5.854781e-001 -1.308531e-001 -6.540304e+000 226 221 217
5.854781e-001 -1.308531e-001 -6.540304e+000 226 221 217
1.177033e+000 -4.905622e-001 -6.141957e+000 229 58 69
-2.046431e+000 -2.898393e+000 -1.058470e+001 24 18 20
-1.995790e+000 -2.992942e+000 -1.049536e+001 20 14 16
-1.917621e+000 -3.136386e+000 -1.040531e+001 29 23 25
6.696981e-001 1.074046e+000 -6.597167e+000 199 40 48
-1.856029e-001 1.004363e+000 -7.550107e+000 191 41 48
-8.184652e-002 7.508551e-001 -7.194599e+000 177 168 159
-2.505511e-002 7.696706e-001 -7.170665e+000 218 211 201
7.429624e-001 8.047290e-001 -6.412133e+000 189 43 49
-5.292867e-001 5.249515e-001 -7.908985e+000 38 24 21
-1.095575e-001 4.706358e-001 -7.280922e+000 145 133 122
1.648741e-001 4.101434e-001 -6.906462e+000 188 175 166
4.096598e-001 3.643767e-001 -6.848778e+000 170 162 149
6.861709e-001 1.737585e-001 -6.624955e+000 155 145 134
-9.188299e-001 -1.979351e-001 -6.213896e+000 168 147 100
-9.188299e-001 -1.979351e-001 -6.213896e+000 168 147 100
-8.470421e-001 -1.894737e-001 -6.234614e+000 151 127 81
7.117381e-001 9.950005e-003 -6.434083e+000 213 205 196
1.212815e+000 -3.336618e-002 -6.084928e+000 247 80 90
5.120509e-001 -5.140101e-001 -6.706852e+000 81 64 37
6.374697e-001 -5.685814e-001 -6.576499e+000 204 191 182
1.333159e+000 -3.396643e-001 -5.980265e+000 163 139 91
4.617053e-001 -1.176724e+000 -7.155358e+000 41 28 23
-1.829326e+000 -3.097689e+000 -1.041755e+001 68 64 65
-1.115086e-001 9.551482e-001 -7.204715e+000 220 197 200
5.755583e-001 6.071057e-001 -6.734146e+000 210 201 194
1.307836e-001 4.715838e-001 -6.983899e+000 153 141 129
3.770921e-001 4.992223e-001 -6.926129e+000 178 169 160
2.018388e-002 4.080239e-001 -7.116808e+000 140 130 118
1.201835e-001 2.352032e-001 -6.845922e+000 128 116 106
1.943218e-001 2.280753e-001 -6.791645e+000 201 194 184
5.136669e-001 3.312828e-001 -6.830105e+000 151 143 132
8.075766e-001 2.671739e-001 -6.459581e+000 249 245 240
1.375110e-001 -4.364277e-003 -6.689083e+000 127 117 107
-7.270379e-001 -1.822030e-001 -6.305267e+000 155 66 34
3.502678e-002 -2.841093e-001 -6.718953e+000 244 241 236
8.053584e-001 -1.040693e-001 -6.358164e+000 133 119 108
7.176576e-001 -2.437516e-001 -6.481556e+000 234 230 221
5.587642e-001 1.052729e+000 -6.704256e+000 207 41 48
-3.915911e-001 3.528588e-001 -7.724031e+000 37 29 27
1.013027e+000 5.772213e-001 -6.195000e+000 17 7 8
-3.809312e-001 -6.627440e-002 -6.488893e+000 87 27 18
2.534142e-001 -4.800813e-001 -6.721389e+000 63 35 24
1.124217e+000 -1.979668e-001 -6.173224e+000 108 27 33
7.684167e-001 -3.970898e-001 -6.351780e+000 222 197 140
1.009713e+000 -3.045947e-001 -6.192497e+000 175 151 103
9.915941e-001 -5.239522e-001 -6.274166e+000 227 214 206
3.568090e-001 7.415376e-001 -6.737054e+000 230 221 214
6.334290e-001 6.970991e-001 -6.637241e+000 215 208 200
4.651677e-001 5.288059e-001 -6.775393e+000 211 204 196
4.679283e-001 5.284604e-001 -6.781816e+000 211 204 196
8.316138e-001 3.459980e-001 -6.432371e+000 174 159 147
4.208870e-001 1.470663e-001 -6.657166e+000 178 168 159
1.132454e+000 -3.572406e-001 -6.127008e+000 108 88 50
7.802127e-002 7.516969e-001 -7.086751e+000 217 208 201
1.679149e-002 5.404823e-001 -7.170919e+000 186 176 167
6.724559e-002 3.995848e-001 -6.998109e+000 131 121 111
9.414910e-001 3.398910e-001 -6.289081e+000 249 248 244
8.081892e-001 -2.094893e-001 -6.353620e+000 247 240 234
4.273867e-001 -1.118810e+000 -7.219091e+000 140 121 72
1.543993e-001 1.091129e+000 -7.094848e+000 210 201 196
4.326237e-001 6.434298e-001 -6.777263e+000 233 224 217
-2.703300e-001 -8.235255e-002 -6.544549e+000 76 21 19
5.855347e-001 1.353649e-001 -6.569781e+000 138 126 114
6.217876e-001 -4.364145e-001 -6.601993e+000 170 148 100
-2.934279e-001 5.934605e-001 -7.717686e+000 215 206 197
-1.497252e-002 -6.842717e-001 -6.790441e+000 39 31 29
7.739749e-001 4.539485e-001 -6.455144e+000 243 242 237
-2.226868e-001 3.314363e-002 -6.681245e+000 73 25 18
1.931029e-002 3.931317e-002 -6.727157e+000 142 132 122
-1.671074e-001 -3.614868e-001 -6.625130e+000 172 159 150
-2.406289e-001 -3.898408e-001 -6.564111e+000 171 161 150
2.755209e-001 7.221950e-001 -7.054817e+000 175 166 157
2.889863e-001 2.461805e-001 -6.798539e+000 124 113 103
-1.330340e-001 1.498146e-003 -6.676640e+000 149 136 128
-2.572092e-001 -3.028695e-001 -6.594049e+000 168 150 139
8.244978e-001 8.921650e-001 -6.414313e+000 122 32 33
-1.257923e-001 5.241581e-001 -7.306863e+000 164 156 145
-5.231011e-001 -7.260298e-002 -6.517880e+000 108 35 15
-3.685211e-001 -3.574320e-001 -6.398913e+000 168 149 148
1.235419e+000 8.438938e-002 -6.036488e+000 180 41 48
4.943518e-001 -1.046417e-001 -6.610851e+000 253 250 245
-1.435448e-001 -4.334860e-001 -6.730476e+000 240 237 230
6.864931e-001 -7.663464e-001 -6.665729e+000 181 39 35
9.066815e-001 6.860483e-001 -6.336661e+000 189 34 42
7.826461e-001 6.540778e-001 -6.411672e+000 249 64 78
1.115797e+000 2.553431e-001 -6.169386e+000 227 60 68
1.203135e+000 8.973176e-002 -6.055029e+000 121 11 20
-8.251950e+000 -6.004191e+000 -1.821541e+001 106 97 95
-4.337342e-001 9.427218e-001 -7.757371e+000 25 18 16
2.379626e-001 4.391594e-001 -6.920770e+000 134 124 111
1.274989e-003 1.168828e+000 -7.233674e+000 181 36 41
1.352281e+000 -1.691591e-001 -5.940685e+000 190 165 111
1.352281e+000 -1.691591e-001 -5.940685e+000 190 165 111
1.923226e-001 5.672418e-002 -6.693718e+000 132 120 108
-6.142614e-001 -1.235333e-001 -6.465004e+000 69 22 15
5.816545e-001 9.552915e-002 -7.018342e+000 142 132 120
6.496234e-001 6.819163e-001 -6.602152e+000 194 186 177
-1.525877e-001 4.025168e-001 -7.253383e+000 152 140 128
-1.527224e-001 2.038609e-001 -6.964242e+000 137 127 117
-1.117177e-001 1.630980e-001 -6.697481e+000 102 88 79
-7.157567e-001 -1.376564e-001 -6.775017e+000 114 51 31
-4.682919e-001 -2.265391e-001 -6.473542e+000 186 45 12
2.613658e-001 9.304962e-001 -7.043446e+000 195 186 181
-9.183805e-001 -1.676005e-001 -6.140587e+000 140 113 65
-8.935849e-001 -3.525056e-001 -6.446757e+000 51 37 33
-4.912225e-001 -2.073377e-001 -6.389998e+000 146 24 8
-6.477905e-001 -3.334708e-001 -6.325901e+000 220 167 124
-6.188912e-001 -2.924569e-001 -6.286058e+000 82 29 13
-6.188912e-001 -2.924569e-001 -6.286058e+000 82 29 13
-4.160237e-001 9.480859e-001 -7.760741e+000 20 20 18
2.823706e-001 7.303099e-001 -6.745840e+000 209 200 191
6.429199e-001 8.245618e-001 -6.479489e+000 187 177 171
-6.808341e-002 4.845902e-001 -7.203011e+000 180 172 162
-1.847859e-001 4.443189e-002 -6.683070e+000 89 32 21
-6.858379e-001 -3.469960e-001 -6.371955e+000 252 220 167
-6.450181e-001 -3.116893e-001 -6.320446e+000 253 210 175
1.286833e-001 1.910755e-001 -6.767616e+000 162 152 142
-5.835137e-001 -2.953833e-001 -6.508956e+000 160 51 24
-5.357966e-001 -2.852114e-001 -6.485347e+000 239 157 124
-2.715051e-001 -1.737477e-001 -6.456827e+000 218 101 62
4.200802e-001 1.102025e+000 -6.822749e+000 227 214 213
-1.228683e-001 5.352030e-001 -7.297561e+000 165 155 145
7.509120e-001 6.879595e-001 -6.437164e+000 208 52 57
6.756903e-001 6.050202e-001 -6.801124e+000 150 140 128
-8.862205e-001 -1.863642e-001 -6.243336e+000 46 31 24
-2.379907e-001 -1.655928e-001 -6.430690e+000 99 24 18
-6.072281e-001 -3.278921e-001 -6.357343e+000 237 191 148
-4.320070e-001 -3.636174e-001 -6.345238e+000 99 81 63
-8.321103e-001 -1.730626e-001 -6.163655e+000 140 117 76
5.966100e-001 1.146046e+000 -6.659692e+000 196 44 50
-6.537175e-001 -3.316511e-001 -6.327750e+000 232 174 132
-8.458184e-001 -1.425963e-001 -6.344037e+000 137 59 23
-2.923041e-001 -2.084494e-001 -6.406951e+000 227 105 57
3.244867e-001 8.793346e-001 -6.921071e+000 153 142 134
-1.726053e-001 6.866892e-001 -7.492319e+000 171 163 153
-2.051465e+000 -2.667412e+000 -1.050106e+001 58 49 50
9.367228e-001 6.184845e-001 -6.318778e+000 200 52 59
7.568135e-001 -9.139467e-001 -6.569641e+000 230 98 105
-8.841163e+000 -1.020293e+001 -2.276717e+001 23 19 20
2.527600e-001 -4.841720e-001 -6.737628e+000 63 35 24
4.980404e-001 1.251385e+000 -6.718665e+000 174 44 51
1.061265e-001 6.928775e-001 -7.012225e+000 216 207 198
7.615013e-001 8.434490e-001 -6.355547e+000 188 44 48
3.673942e-001 2.635183e-001 -6.760742e+000 121 109 94
2.616650e-001 1.738246e-001 -6.642070e+000 191 178 169
-2.863338e-001 -1.209073e-001 -6.519917e+000 84 16 7
-4.003262e-001 -2.401681e-001 -6.409459e+000 167 86 64
5.038214e-001 -7.048254e-002 -6.530461e+000 214 209 202
5.078975e-001 -1.003774e-001 -6.569409e+000 223 217 211
1.817846e-002 7.016931e-001 -7.159219e+000 205 198 190
8.296916e-001 8.559699e-001 -6.394960e+000 82 12 15
7.576265e-001 8.317275e-001 -6.277585e+000 206 47 61
8.826563e-002 2.572290e-001 -6.841139e+000 152 142 133
-4.063281e-001 -2.318070e-002 -6.581399e+000 118 50 32
-4.063281e-001 -2.318070e-002 -6.581399e+000 118 50 32
-8.028718e-003 6.869055e-002 -6.743087e+000 164 151 143
-2.397272e-001 -5.217644e-002 -6.639188e+000 84 17 11
2.648006e-001 -1.211786e-001 -6.654383e+000 254 254 249
-1.808778e+000 -3.736909e+000 -1.033607e+001 45 39 41
3.579161e-001 1.327232e+000 -6.903416e+000 200 48 52
4.378444e-001 1.161765e+000 -6.895941e+000 214 51 52
4.253167e-001 1.159137e+000 -6.816686e+000 214 51 52
-1.555094e-001 8.991949e-001 -7.484709e+000 203 196 186
-1.949508e-001 6.063438e-001 -7.516468e+000 180 171 162
-1.833051e-001 6.429349e-002 -6.701450e+000 135 120 113
1.176267e+000 -3.290557e-001 -6.076668e+000 170 147 95
1.192909e+000 -3.145690e-001 -6.073391e+000 164 139 85
8.348626e-001 6.141396e-001 -6.351012e+000 245 68 80
7.004042e-001 2.438520e-001 -6.643106e+000 172 163 152
7.420856e-001 -2.623907e-001 -6.474848e+000 229 225 216
-6.395076e+000 -7.549972e+000 -1.746256e+001 31 32 36
-4.695674e+000 -6.642471e+000 -1.494089e+001 131 127 141
-4.466204e+000 -6.931769e+000 -1.505723e+001 21 19 22
-5.929314e+000 -8.719397e+000 -1.670408e+001 110 109 122
3.963832e-001 1.309661e+000 -6.853699e+000 204 47 54
4.443423e-001 1.274449e+000 -6.781100e+000 194 38 42
7.905286e-001 6.240394e-001 -6.414306e+000 250 245 244
1.320065e-001 -5.610627e-002 -6.660364e+000 160 146 135
3.163170e-001 -2.126917e-001 -6.722629e+000 218 209 202
3.163170e-001 -2.126917e-001 -6.722629e+000 218 209 202
4.495471e-001 -2.692692e-001 -6.722735e+000 217 210 200
1.237259e+000 -1.023986e-001 -6.057854e+000 25 9 12
9.008291e-001 -7.714900e-001 -6.469749e+000 210 205 196
1.011392e+000 -7.666630e-001 -6.340845e+000 250 75 86
1.171798e+000 -8.369968e-001 -6.259870e+000 250 86 94
1.171798e+000 -8.369968e-001 -6.259870e+000 250 86 94
-4.529077e+000 -6.894731e+000 -1.488472e+001 134 131 146
-5.462995e+000 -8.607176e+000 -1.677202e+001 51 51 59
1.644321e-001 -4.120999e-001 -6.715238e+000 44 28 15
1.353690e+000 -1.625622e-001 -5.927082e+000 204 174 122
1.353690e+000 -1.625622e-001 -5.927082e+000 204 174 122
1.158077e+000 -8.199284e-001 -6.240698e+000 250 78 90
1.158077e+000 -8.199284e-001 -6.240698e+000 250 78 90
1.092486e+000 4.084475e-001 -6.152977e+000 218 54 65
2.945834e-002 -5.259538e-001 -6.851804e+000 43 34 30
1.164967e+000 -1.475887e-001 -6.160970e+000 228 64 75
5.879410e-001 9.375253e-001 -6.667806e+000 230 219 215
2.703640e-001 6.439127e-001 -7.001647e+000 139 126 117
6.436151e-001 2.743753e-001 -6.685774e+000 209 202 194
-2.304699e-002 -3.339201e-001 -6.708918e+000 125 108 78
-6.211881e+000 -7.660390e+000 -1.718577e+001 115 112 119
-6.122863e+000 -8.027167e+000 -1.694433e+001 133 131 142
-6.122863e+000 -8.027167e+000 -1.694433e+001 133 131 142
5.918108e-001 9.299462e-001 -6.664232e+000 229 221 218
2.572776e-001 -4.915069e-001 -6.755041e+000 66 33 26
-4.789788e+000 -6.735195e+000 -1.545797e+001 167 169 184
-6.244731e+000 -6.362428e+000 -1.790109e+001 19 17 22
-2.923062e-001 5.955549e-001 -7.709352e+000 213 204 195
2.462097e-001 7.366022e-001 -7.162315e+000 177 170 162
8.595340e-001 8.391499e-001 -6.373689e+000 109 22 20
-1.638902e-001 1.341226e-001 -6.796983e+000 107 93 84
-1.255606e-001 1.015932e-001 -6.718309e+000 145 130 123
-3.979916e-001 -4.696299e-002 -6.607832e+000 87 19 8
-7.775552e-002 3.436731e-002 -6.664232e+000 128 114 109
-4.911895e-001 -1.251002e-001 -6.487312e+000 125 31 14
-7.610141e-001 -2.046758e-001 -6.284729e+000 87 29 14
-4.856994e+000 -6.295265e+000 -1.503598e+001 95 90 100
1.100914e+000 -6.635067e-001 -6.168402e+000 243 85 83
-1.237572e-001 9.159774e-001 -7.417354e+000 183 176 168
-5.045337e-001 6.052325e-001 -7.870214e+000 206 40 46
-1.665920e-001 6.350482e-001 -7.484609e+000 166 157 148
3.863007e-001 2.576290e-001 -6.911587e+000 144 130 119
-2.045849e-001 6.844965e-002 -6.709963e+000 79 33 28
-4.417348e-001 -5.326529e-002 -6.555777e+000 139 61 39
-6.180457e-001 -1.440304e-001 -6.448631e+000 74 17 10
3.660513e-001 -3.299924e-001 -6.735594e+000 126 110 95
7.036841e-001 -8.216896e-002 -6.416244e+000 218 214 205
7.036841e-001 -8.216896e-002 -6.416244e+000 218 214 205
-5.669090e+000 -8.770747e+000 -1.655835e+001 156 161 183
8.152475e-001 8.579364e-001 -6.414702e+000 76 7 10
1.649265e-001 2.256916e-001 -6.789099e+000 199 191 180
8.541935e-001 5.480279e-001 -6.420317e+000 207 201 195
1.080644e+000 3.965592e-001 -6.160069e+000 234 67 77
-2.721723e-001 -1.909738e-001 -6.515394e+000 214 102 65
8.879970e-001 -9.393363e-001 -6.559954e+000 226 78 79
-1.408981e+000 -2.795190e+000 -8.615437e+000 25 19 21
-5.508442e-001 5.829412e-001 -7.956956e+000 217 58 56
-1.449517e-001 3.808883e-001 -7.207106e+000 140 127 118
-6.200818e-002 4.588101e-001 -7.195548e+000 140 130 117
6.776555e-001 6.503507e-001 -6.598714e+000 166 156 146
3.229908e-001 2.948444e-001 -6.818336e+000 119 104 94
-2.627579e-001 6.200184e-002 -6.727047e+000 61 12 11
5.037431e-001 2.246875e-001 -6.705806e+000 120 108 94
-2.926160e-001 -6.344254e-002 -6.624189e+000 78 23 16
1.115121e+000 2.564529e-001 -6.169755e+000 242 73 82
-1.817228e-001 -3.819920e-001 -6.652812e+000 169 148 135
-4.948750e+000 -6.618562e+000 -1.488336e+001 9 8 14
-1.483978e+000 -4.965466e+000 -1.035245e+001 46 40 42
4.700332e-001 1.722414e-001 -6.644060e+000 203 195 185
8.157161e-001 9.505246e-002 -6.497403e+000 194 185 178
-6.125273e+000 -7.299359e+000 -1.778410e+001 84 84 92
1.125822e+000 -3.915264e-001 -6.113181e+000 110 86 48
-4.901600e+000 -6.756096e+000 -1.491490e+001 155 153 167
-4.887458e+000 -6.731913e+000 -1.487805e+001 155 153 167
-5.983363e+000 -8.755968e+000 -1.660729e+001 130 131 149
-1.868167e-001 8.698877e-001 -7.493052e+000 202 193 185
4.924614e-001 7.554483e-001 -6.794181e+000 168 157 153
4.905720e-001 7.557427e-001 -6.791477e+000 168 157 153
6.584817e-001 3.558732e-001 -6.641849e+000 194 185 176
9.880482e-001 -1.027078e+000 -6.468878e+000 231 66 80
9.880482e-001 -1.027078e+000 -6.468878e+000 231 66 80
6.645320e-001 1.071735e+000 -6.578414e+000 209 45 56
9.198373e-001 -2.831722e-001 -6.293186e+000 91 74 54
9.535977e-001 -8.648286e-002 -6.313165e+000 164 151 143
1.001101e+000 -2.866688e-001 -6.153411e+000 182 157 108
-4.518439e+000 -6.967368e+000 -1.451252e+001 161 161 173
-5.482728e+000 -8.085762e+000 -1.633208e+001 10 8 12
-5.461532e+000 -8.043074e+000 -1.626854e+001 10 8 12
1.257871e+000 -1.275872e-001 -6.034291e+000 37 26 27
-5.824820e+000 -8.755607e+000 -1.673701e+001 168 173 195
-2.109762e-001 2.615853e-001 -7.373947e+000 122 28 31
-1.321477e-001 1.446922e-001 -6.592579e+000 142 129 120
-1.533277e-001 -3.420810e-002 -6.610416e+000 109 37 21
-1.253509e-001 -2.423045e-001 -6.656979e+000 240 229 226
4.799007e-001 -1.055014e-001 -6.616015e+000 238 235 228
-2.922033e-001 1.090820e+000 -7.597253e+000 29 19 19
-2.125040e-001 8.759123e-001 -7.547925e+000 203 194 185
2.901493e-001 7.632612e-001 -7.013596e+000 190 181 174
2.952655e-001 7.542513e-001 -7.055734e+000 190 181 174
2.131792e-001 2.589273e-001 -6.719917e+000 157 141 126
-4.542911e-001 -5.531252e-002 -6.524295e+000 144 65 43
-8.344853e-002 7.132200e-002 -6.750346e+000 131 116 109
-8.313331e-001 -2.344337e-001 -6.225119e+000 91 24 17
-5.196847e-001 -2.044912e-001 -6.407339e+000 251 139 101
-1.348517e-001 -3.548886e-001 -6.635557e+000 191 183 174
-1.827002e+000 -3.666134e+000 -1.033680e+001 41 35 37
9.313928e-001 -2.535839e-001 -6.318301e+000 139 122 110
5.351949e-001 -1.140906e+000 -7.119667e+000 241 221 182
2.279415e-002 1.343804e+000 -7.184407e+000 186 39 40
-2.783263e-001 -1.096704e-002 -7.743949e+000 35 27 26
-2.783263e-001 -1.096704e-002 -7.743949e+000 35 27 26
-5.424049e-001 -2.569258e-002 -6.642925e+000 69 16 8
-5.424049e-001 -2.569258e-002 -6.642925e+000 69 16 8
9.098129e-001 5.884386e-001 -6.374148e+000 214 57 66
-6.275286e-001 -1.634613e-001 -6.328762e+000 147 63 39
4.925056e-001 7.526613e-002 -6.637815e+000 131 119 107
-7.334581e-003 -2.154634e-001 -6.640094e+000 253 250 243
1.422625e-001 -1.864593e-001 -6.687579e+000 232 225 219
-6.802385e-001 -3.286592e-001 -6.319330e+000 43 35 33
-1.876873e-001 -4.045318e-001 -6.627488e+000 232 225 221
4.449752e-001 -4.366093e-001 -6.689085e+000 196 183 131
-1.736906e+000 -3.789858e+000 -1.038683e+001 53 47 47
7.158365e-002 1.200073e+000 -7.165788e+000 203 42 49
-2.723087e-001 -1.831649e-001 -6.496305e+000 227 116 77
-3.560588e-002 -1.884768e-001 -6.611522e+000 227 224 219
-4.472793e-001 4.651220e-001 -7.695818e+000 213 200 191
8.943231e-001 5.588945e-001 -6.383007e+000 174 33 44
1.033502e-001 -3.163484e-002 -6.679915e+000 159 149 140
1.007703e-001 -2.279943e-002 -6.658495e+000 159 149 140
-1.405455e-001 -4.016441e-001 -6.673425e+000 242 236 232
1.118960e+000 1.994876e-001 -6.159076e+000 195 35 45
1.118960e+000 1.994876e-001 -6.159076e+000 195 35 45
5.345589e-001 -3.136742e-001 -6.700395e+000 244 237 231
1.203139e+000 5.297424e-002 -6.032465e+000 229 83 91
7.966389e-001 -8.476370e-001 -6.541497e+000 219 47 59
3.037289e-001 9.729862e-001 -7.050056e+000 223 217 213
-4.489025e-001 -2.027494e-001 -6.473187e+000 249 132 87
6.940647e-001 -5.900208e-001 -6.531932e+000 229 217 208
-5.740118e-001 -1.398574e-001 -6.479236e+000 94 33 26
4.225498e-001 7.928384e-002 -6.627262e+000 199 190 181
5.477068e-001 5.497505e-002 -6.524860e+000 146 134 120
5.477068e-001 5.497505e-002 -6.524860e+000 146 134 120
5.740071e-001 6.744109e-003 -6.470973e+000 214 207 199
6.137538e-001 -4.196502e-001 -6.518949e+000 178 156 106
1.411035e-001 1.331442e+000 -7.073946e+000 203 48 54
-1.711341e-001 2.737282e-001 -7.384434e+000 184 174 162
-2.583300e-001 6.747676e-002 -7.214939e+000 220 212 205
-1.049164e-001 6.581845e-001 -7.354639e+000 168 162 150
-1.049164e-001 6.581845e-001 -7.354639e+000 168 162 150
5.927500e-001 -7.995583e-001 -6.714110e+000 251 250 245
-6.265605e-001 -1.440757e-001 -6.532266e+000 65 17 12
7.211663e-001 -3.569606e-001 -6.455261e+000 100 85 64
8.319731e-001 -9.491419e-001 -6.512581e+000 50 36 36
-3.906407e-001 2.563787e-001 -7.512321e+000 38 27 27
-2.816648e-001 -9.171033e-002 -6.572975e+000 66 11 8
3.833848e-001 -1.333217e-001 -6.687808e+000 245 242 234
3.840281e-001 -1.323326e-001 -6.685277e+000 245 242 234
1.324334e-002 -6.866773e-001 -6.824487e+000 35 30 27
-1.979310e+000 -3.402271e+000 -1.055776e+001 38 32 34
7.622447e-001 -1.300139e-001 -6.359727e+000 228 220 210
-4.391427e+000 -6.693757e+000 -1.504241e+001 30 28 33
-4.471899e+000 -6.731242e+000 -1.493665e+001 165 161 175
-6.078199e+000 -8.372622e+000 -1.668963e+001 9 7 10
-2.575829e-003 2.493537e-001 -6.947339e+000 145 132 123
-4.535858e-001 -7.882188e-002 -6.523551e+000 121 37 16
-4.406815e-001 -1.180478e-001 -6.474379e+000 129 34 14
9.142660e-001 -1.013306e+000 -6.576649e+000 48 30 30
4.374597e-001 1.177273e+000 -6.850828e+000 214 50 57
6.522281e-001 6.520319e-001 -6.633792e+000 204 194 185
-5.820370e+000 -8.962412e+000 -1.657200e+001 12 10 16
1.334245e-001 1.192783e+000 -7.076165e+000 232 192 168
2.385076e-001 7.075235e-001 -7.076600e+000 181 174 164
3.746131e-001 1.170248e+000 -6.877684e+000 203 32 40
-1.044299e-002 5.501575e-001 -7.159056e+000 208 197 191
-1.044299e-002 5.501575e-001 -7.159056e+000 208 197 191
1.279097e-001 6.096155e-001 -7.028258e+000 176 167 154
6.155443e-001 6.452299e-001 -6.685715e+000 187 181 170
-4.075774e-002 2.529498e-001 -7.039301e+000 145 135 125
2.426534e-001 2.947146e-001 -6.824373e+000 122 108 97
-4.555905e-001 -5.876892e-002 -6.531732e+000 144 65 43
-2.142882e-001 -3.778193e-002 -6.647292e+000 90 21 15
-6.215098e+000 -7.797451e+000 -1.756485e+001 79 79 80
-4.892502e+000 -6.330716e+000 -1.497579e+001 101 99 108
-4.761001e+000 -7.074804e+000 -1.503699e+001 156 154 168
-4.016407e+000 -7.479544e+000 -1.477408e+001 84 87 96
-1.603168e+000 -4.465237e+000 -1.030602e+001 50 44 48
-1.681168e-001 9.157485e-001 -7.507235e+000 161 147 139
-3.005283e-002 2.805917e-001 -7.037820e+000 130 118 106
3.090756e-001 3.041562e-001 -6.899227e+000 127 115 102
-6.092157e+000 -7.622366e+000 -1.715938e+001 80 79 84
-2.219725e+000 -3.289275e+000 -1.073725e+001 55 50 54
-5.441519e+000 -8.671137e+000 -1.668496e+001 120 121 139
-1.548323e+000 -4.538992e+000 -1.022415e+001 53 48 52
6.480166e-001 6.152423e-001 -6.672249e+000 153 143 133
-2.523492e-001 1.592327e-003 -6.646503e+000 70 20 17
9.306244e-001 4.180935e-001 -6.262612e+000 252 81 93
8.770874e-001 7.898082e-001 -6.354016e+000 21 1 4
-5.924888e-001 6.743592e-001 -8.012767e+000 38 24 20
3.113660e-001 5.106915e-002 -6.647717e+000 244 240 231
6.447947e-001 1.231275e-001 -6.578607e+000 189 175 165
-4.744726e+000 -6.744661e+000 -1.514207e+001 142 138 153
-4.143916e+000 -7.765705e+000 -1.478382e+001 11 7 14
-5.699615e+000 -7.460901e+000 -1.673776e+001 10 10 12
6.831859e-001 1.073011e+000 -6.534233e+000 186 44 53
-6.094808e+000 -7.473324e+000 -1.710440e+001 80 77 84
-1.121296e-001 1.482492e-001 -6.791182e+000 108 94 83
-9.759881e-002 7.640584e-002 -6.709885e+000 162 147 140
-9.759881e-002 7.640584e-002 -6.709885e+000 162 147 140
-4.338043e+000 -6.434280e+000 -1.503006e+001 47 45 48
3.456705e-001 2.485140e-001 -6.727981e+000 143 130 114
-4.595829e-001 -1.303572e-001 -6.491648e+000 126 37 16
-4.898203e-001 -2.319752e-001 -6.443726e+000 144 27 9
-5.455230e+000 -8.924982e+000 -1.652523e+001 116 124 147
5.983623e-001 -3.943856e-001 -6.592066e+000 147 133 108
1.084896e+000 -2.570633e-001 -6.190107e+000 141 114 76
-6.013077e+000 -7.332454e+000 -1.758622e+001 66 66 74
-4.704911e+000 -6.220327e+000 -1.515495e+001 136 136 146
-2.180436e+000 -2.711150e+000 -1.062590e+001 40 36 37
7.461591e-001 5.316217e-001 -6.479124e+000 235 232 223
7.581501e-001 5.500705e-001 -6.456958e+000 236 231 227
-4.002177e-001 -1.154386e-001 -6.532368e+000 90 20 11
-5.952397e+000 -8.818086e+000 -1.653715e+001 3 4 8
5.126919e-001 -1.924294e-002 -6.527601e+000 199 192 174
-1.767616e+000 -3.873694e+000 -1.041205e+001 28 22 24
5.182830e-001 -1.163486e+000 -7.129731e+000 42 29 20
-1.395408e+000 -5.476039e+000 -9.976334e+000 22 15 17
-8.353930e-002 1.222357e+000 -7.361314e+000 142 21 30
2.100970e-002 1.372842e+000 -7.132677e+000 33 14 15
-2.187046e-001 5.242352e-001 -7.556328e+000 192 184 173
5.776252e-001 1.191715e+000 -6.668904e+000 185 40 45
1.353687e-001 4.027837e-001 -6.972819e+000 136 124 112
-5.898287e+000 -7.172541e+000 -1.760045e+001 66 66 78
-2.211089e+000 -2.563163e+000 -1.059180e+001 36 30 30
-4.921488e+000 -6.303087e+000 -1.517675e+001 130 130 139
-4.834931e+000 -6.488482e+000 -1.478596e+001 122 120 130
-4.696563e+000 -6.540570e+000 -1.496492e+001 137 137 149
-3.522279e-001 -1.060314e-002 -6.628422e+000 56 15 9
-7.961403e-001 -2.155895e-001 -6.272358e+000 136 109 66
1.626742e-001 5.243443e-002 -6.699100e+000 170 160 148
-5.954936e+000 -8.512636e+000 -1.654599e+001 105 103 115
-1.749395e-001 -2.432990e-001 -6.687324e+000 233 209 149
-1.972586e+000 -3.398638e+000 -1.053785e+001 40 34 38
-1.924648e+000 -3.517575e+000 -1.049806e+001 44 40 41
-4.289035e-001 -4.016155e-001 -6.456474e+000 164 143 123
-2.798142e-001 -4.236455e-001 -6.538429e+000 234 229 225
-2.433441e-001 -4.391562e-001 -6.580379e+000 251 251 246
6.654191e-001 -7.179520e-001 -6.642785e+000 174 161 141
9.113647e-001 -9.791060e-001 -6.618427e+000 235 82 88
-1.346903e+000 -5.482986e+000 -1.000630e+001 111 101 102
-1.345369e+000 -5.446326e+000 -9.973556e+000 111 101 102
3.825053e-001 1.347830e+000 -6.799398e+000 27 10 13
-2.559285e-001 1.013715e-001 -6.755673e+000 78 42 41
-6.079869e+000 -8.071215e+000 -1.661433e+001 11 9 17
-4.925031e+000 -6.546192e+000 -1.505693e+001 118 116 128
-1.840426e-001 -2.544107e-002 -6.682655e+000 112 43 32
-4.600392e+000 -6.809561e+000 -1.475323e+001 109 109 117
-2.015047e+000 -3.250976e+000 -1.054579e+001 49 44 46
-2.710871e-001 -1.884244e-001 -6.504671e+000 228 115 76
-3.434994e-002 -4.594275e-001 -6.760642e+000 40 33 25
1.192104e-001 -2.484193e-001 -6.680245e+000 199 189 179
1.160427e+000 3.410969e-001 -6.119203e+000 32 10 16
1.226742e+000 1.740159e-001 -6.062181e+000 32 18 19
-1.459466e+000 -4.851690e+000 -1.018260e+001 52 46 48
-1.404494e+000 -4.923432e+000 -1.007719e+001 45 40 44
-1.359917e+000 -4.928290e+000 -9.963211e+000 49 43 43
7.673033e-001 -9.301738e-001 -6.598928e+000 234 96 96
-3.811535e-001 7.386415e-001 -7.721229e+000 194 172 166
-1.534704e-001 3.807060e-001 -7.198655e+000 126 114 102
-1.534704e-001 3.807060e-001 -7.198655e+000 126 114 102
5.086470e-001 5.994211e-001 -6.783360e+000 184 177 167
5.086470e-001 5.994211e-001 -6.783360e+000 184 177 167
-5.074787e-001 -1.807289e-001 -6.481152e+000 180 74 42
4.502434e-001 -2.739159e-001 -6.728827e+000 216 210 197
4.545561e-001 -5.059897e-001 -6.718732e+000 251 251 241
-1.331511e+000 -5.379771e+000 -1.002542e+001 19 9 10
-2.003514e-001 3.281190e-002 -7.583773e+000 89 8 9
-5.326811e-001 -2.559981e-001 -6.484729e+000 212 107 66
1.246541e+000 -4.638658e-003 -6.058031e+000 32 11 18
-1.415380e+000 -5.302889e+000 -9.964235e+000 62 51 49
5.122102e-001 1.220166e+000 -6.726917e+000 211 51 56
-1.547455e-001 5.316276e-001 -7.498280e+000 203 195 184
-2.160732e-001 1.386764e-001 -7.674257e+000 132 17 24
6.749033e-001 -7.800427e-001 -6.598489e+000 45 34 32
1.616955e-001 3.347424e-001 -6.887142e+000 132 117 106
-3.971183e+000 -7.620009e+000 -1.502794e+001 15 13 18
1.033681e+000 3.282375e-001 -6.235230e+000 226 61 70
2.480408e-001 -5.011189e-001 -6.767045e+000 71 45 31
2.463430e-001 -4.945026e-001 -6.761116e+000 71 45 31
1.010581e+000 -2.877040e-001 -6.178106e+000 199 176 122
-1.829055e-001 1.141906e+000 -7.447970e+000 201 50 57
2.588488e-001 6.480785e-001 -6.993559e+000 140 128 116
5.609558e-001 -3.700380e-001 -6.675294e+000 99 84 64
8.063319e-001 -2.344296e-001 -6.391116e+000 255 252 247
-2.893338e-001 -1.470758e-001 -6.861623e+000 120 52 33
2.029930e-001 1.078725e+000 -7.094682e+000 219 212 206
9.512256e-001 1.810032e-001 -6.272258e+000 225 214 208
1.234231e-001 1.198693e+000 -7.108157e+000 219 54 62
2.831973e-001 7.684043e-001 -7.012228e+000 200 193 185
1.213725e-001 6.528642e-001 -7.062960e+000 161 147 136
-9.314183e-002 2.085856e-001 -6.958556e+000 140 127 113
6.106279e-001 5.731737e-001 -6.641909e+000 140 128 115
-1.170118e-001 6.024075e-002 -6.751946e+000 125 111 102
-8.360471e-002 4.056567e-002 -6.690545e+000 135 120 112
-8.924384e-001 -2.767326e-001 -6.402106e+000 141 75 51
-2.806045e-001 -8.809198e-002 -6.616019e+000 93 35 28
-7.982833e-001 -2.229211e-001 -6.257415e+000 77 23 21
-7.296717e-001 -2.418646e-001 -6.296988e+000 114 28 9
-2.671646e-001 -4.065244e-001 -6.559957e+000 183 174 167
5.131210e-002 -3.961277e-001 -6.698455e+000 196 180 165
5.885080e-001 -2.961872e-001 -6.576549e+000 161 145 128
-8.744783e-002 4.750235e-001 -7.278598e+000 164 153 143
1.048059e-001 6.935316e-001 -7.080361e+000 222 212 203
3.028215e-001 7.515337e-001 -6.989756e+000 190 181 172
-7.294311e-001 -1.732836e-001 -6.886172e+000 141 63 46
3.563923e-001 3.622485e-001 -6.845342e+000 162 150 138
8.606219e-001 5.513343e-001 -6.411506e+000 209 201 191
-1.753916e+000 -3.937754e+000 -1.042772e+001 29 25 26
-7.099962e-001 -3.332626e-001 -6.319454e+000 224 114 84
9.961642e-001 -6.971332e-001 -6.276320e+000 249 96 104
-1.864190e-001 1.017943e+000 -7.565761e+000 171 28 35
-2.305279e-001 -5.806268e-002 -6.647975e+000 84 20 11
-8.266231e-001 -3.309052e-001 -6.342344e+000 255 163 129
-2.557891e-001 -1.353050e-001 -6.525265e+000 116 44 32
-2.557891e-001 -1.353050e-001 -6.525265e+000 116 44 32
-1.023608e-001 -2.761752e-001 -6.676897e+000 240 231 226
-9.600047e-002 -1.841868e-001 -6.623055e+000 227 222 216
-3.504618e-003 -1.627239e-001 -6.614423e+000 253 248 242
2.708397e-001 -7.202668e-002 -6.639629e+000 221 214 206
9.647554e-001 6.509330e-001 -6.276089e+000 203 58 66
-3.588250e-001 -3.936037e-001 -6.452034e+000 198 194 187
1.221088e-002 -4.961591e-001 -6.804684e+000 36 27 22
4.773534e-001 -6.666401e-001 -6.766436e+000 252 252 240
2.875519e-002 1.333771e+000 -7.214899e+000 190 39 46
6.453236e-001 5.880395e-001 -6.617555e+000 171 159 145
7.873082e-001 6.283995e-001 -6.404827e+000 248 249 240
-3.291514e-001 -3.848000e-001 -6.469302e+000 222 213 207
8.866420e-001 4.751202e-001 -6.330868e+000 184 169 156
5.862590e-001 8.440401e-002 -6.487598e+000 191 181 168
5.168186e-001 -1.036722e-001 -6.512578e+000 217 210 200
6.734548e-001 -7.381923e-001 -6.582048e+000 56 42 40
6.734548e-001 -7.381923e-001 -6.582048e+000 56 42 40
-4.536944e-001 -1.031104e-002 -6.857278e+000 44 12 13
8.186948e-001 8.564572e-001 -6.425574e+000 88 7 15
-4.813858e-001 -3.510552e-001 -6.460044e+000 247 188 154
-5.733189e-003 -1.152542e-001 -6.601564e+000 239 232 229
-4.879294e-002 -3.108157e-001 -6.681533e+000 66 47 26
5.682973e-001 -1.099869e-001 -6.493050e+000 230 226 217
-4.249362e-001 8.607229e-001 -7.827705e+000 195 39 46
5.118918e-001 3.215495e-001 -6.811323e+000 141 129 119
8.860502e-001 7.480734e-001 -6.331738e+000 237 81 90
-7.854755e-001 -1.772963e-001 -6.268769e+000 74 22 10
-1.317470e-001 -8.119559e-002 -6.618713e+000 207 188 180
8.353483e-001 5.907116e-001 -6.395004e+000 253 253 251
-5.104054e-001 -3.444364e-001 -6.505927e+000 247 184 142
-3.450055e-001 -3.895527e-001 -6.473936e+000 190 178 171
-2.964096e-001 -3.219155e-001 -6.495540e+000 167 144 133
4.932223e-001 -3.855142e-001 -6.602428e+000 254 252 203
1.120547e+000 2.298308e-001 -6.144067e+000 207 45 57
-1.371668e-001 4.206683e-001 -7.344592e+000 133 121 109
3.804005e-001 4.952687e-001 -6.929378e+000 187 177 168
5.083945e-001 3.276323e-001 -6.803746e+000 141 130 119
7.902475e-001 7.870928e-001 -6.363061e+000 243 82 92
1.001852e+000 -5.260330e-001 -6.293053e+000 244 230 198
1.322475e-001 1.377158e+000 -7.157439e+000 14 3 9
-4.534580e-001 5.888116e-001 -7.841571e+000 188 177 168
-3.668961e-001 2.923236e-001 -7.814369e+000 42 31 29
2.106622e-001 5.448543e-001 -6.978556e+000 231 222 216
5.991276e-001 -7.827621e-001 -6.684740e+000 254 255 247
1.181395e+000 1.846175e-001 -6.098100e+000 221 60 68
1.122842e+000 -1.990201e-001 -6.175600e+000 77 11 15
-1.089502e-001 7.006633e-001 -7.254822e+000 169 160 145
4.083036e-001 -3.719906e-001 -6.726254e+000 80 62 41
9.324866e-001 3.536179e-001 -6.274678e+000 255 251 246
1.044627e+000 -6.188527e-001 -6.277455e+000 172 35 40
6.454947e-001 5.588482e-001 -6.609773e+000 136 122 111
2.212019e-002 -2.664860e-002 -6.689732e+000 136 119 111
-2.875323e-001 -3.731670e-001 -6.542779e+000 169 151 137
4.091823e-001 -5.275193e-001 -6.648793e+000 254 255 246
1.065364e+000 -4.462899e-002 -6.221394e+000 233 226 218
-6.351616e-001 -1.565047e-001 -6.561844e+000 63 22 19
7.908583e-001 5.484899e-001 -6.423355e+000 255 255 251
3.827690e-004 4.670269e-002 -7.193370e+000 118 104 93
-3.874949e-001 1.767070e-001 -7.710702e+000 39 30 28
2.652515e-001 -2.515225e-001 -6.738130e+000 243 234 225
-7.289733e+000 -6.323515e+000 -2.188953e+001 135 124 120
-4.612244e+000 -6.834057e+000 -1.480160e+001 111 109 122
-4.869711e+000 -6.707672e+000 -1.484734e+001 165 163 172
-3.918904e-001 -2.676112e-002 -6.605253e+000 117 51 38
-7.640445e-002 3.347974e-002 -6.671370e+000 131 116 109
-1.998717e+000 -3.324126e+000 -1.054630e+001 41 35 39
7.153127e-001 2.516504e-001 -6.574086e+000 184 176 165
1.134184e+000 1.692046e-001 -6.150891e+000 227 69 77
1.133022e+000 1.668426e-001 -6.151709e+000 227 69 77
-5.197875e+000 -1.234715e+001 -1.732003e+001 43 59 116
6.458427e-001 6.182725e-001 -6.659626e+000 157 147 136
4.081522e-001 2.095678e-001 -6.832316e+000 131 115 100
1.193057e+000 2.200758e-001 -6.068484e+000 207 52 57
2.791268e-001 1.034434e+000 -7.032660e+000 203 196 188
2.784450e-001 1.035052e+000 -7.030410e+000 203 196 188
-1.830440e-001 1.518356e-001 -6.898647e+000 129 115 104
-1.379156e-001 9.182196e-002 -6.716623e+000 126 112 103
-1.342312e-001 8.493723e-002 -6.727492e+000 126 112 103
2.258529e-001 1.824941e-001 -6.710542e+000 197 187 175
5.334653e-002 6.682636e-001 -7.135445e+000 210 201 191
3.538823e-001 1.177120e+000 -6.949270e+000 209 42 51
-2.316786e-001 3.423267e-002 -6.724189e+000 108 90 76
-2.314538e-001 3.560552e-002 -6.723141e+000 108 90 76
9.603025e-001 6.518107e-001 -6.271948e+000 203 58 65
-1.881373e-001 8.723993e-001 -7.550315e+000 209 200 191
-1.489967e-001 9.768298e-001 -7.441363e+000 187 175 163
-1.229884e-001 5.192207e-001 -7.269033e+000 157 147 137
-2.294222e-001 -1.957235e-001 -7.497834e+000 202 195 182
-1.825885e-001 1.824314e-001 -7.028519e+000 120 106 95
8.535628e-001 8.565875e-001 -6.381617e+000 122 32 36
-6.444592e-001 -2.795906e-001 -6.312260e+000 49 19 16
9.103232e-001 8.263328e-002 -6.600209e+000 239 233 221
6.423310e-001 -5.998537e-001 -6.629195e+000 246 233 178
-5.970033e-001 6.054273e-001 -8.015345e+000 185 42 46
7.647389e-002 1.368368e+000 -7.183528e+000 81 18 27
-1.015738e-001 6.832852e-001 -7.252302e+000 168 159 145
-2.158403e+000 -2.878537e+000 -1.068139e+001 45 39 41
-1.675444e-001 4.762324e-001 -7.426468e+000 173 165 152
-2.643124e-001 4.047778e-003 -7.673984e+000 107 58 49
-1.592105e-001 3.616817e-001 -7.303880e+000 156 146 134
3.041890e-001 7.144083e-001 -7.091949e+000 219 215 206
5.977824e-001 1.170716e+000 -6.635161e+000 200 52 61
-2.664969e-001 -1.900875e-001 -7.527395e+000 176 169 155
-1.919574e-001 1.781480e-001 -7.054611e+000 152 138 127
-1.792630e+000 -3.779704e+000 -1.030412e+001 62 56 58
-1.788981e+000 -3.923247e+000 -1.041494e+001 64 58 60
-2.000502e-001 1.460398e-001 -6.803751e+000 101 84 76
-5.678798e-001 -6.054160e-002 -6.528285e+000 104 43 33
-9.074312e-001 -2.870540e-001 -6.398804e+000 48 16 11
-1.043832e-001 6.770013e-002 -6.688611e+000 139 127 116
4.262430e-001 2.104433e-001 -6.854712e+000 150 137 120
6.224243e-001 5.832107e-001 -6.595731e+000 126 114 99
-1.136233e-003 -1.668915e-001 -6.619511e+000 252 247 243
-1.566969e+000 -4.647395e+000 -9.982495e+000 45 41 38
4.774029e-001 1.160591e-001 -6.626354e+000 180 168 154
-1.486353e+000 -4.978366e+000 -1.001976e+001 62 54 52
9.133061e-001 5.697632e-001 -6.358111e+000 166 31 38
1.168238e+000 -4.834980e-001 -6.099906e+000 227 95 99
-2.431182e-001 5.364283e-001 -7.557866e+000 224 217 207
1.744616e-001 1.050510e+000 -7.086470e+000 212 205 197
1.746124e-001 1.046230e+000 -7.088053e+000 212 205 197
-2.162277e+000 -3.116777e+000 -1.046649e+001 60 54 54
-2.106335e-001 2.466949e-001 -7.513243e+000 207 189 185
-1.775626e+000 -3.720780e+000 -1.033600e+001 25 19 21
1.635184e-002 2.728941e-001 -6.946353e+000 121 112 98
-1.729307e+000 -3.804844e+000 -1.037061e+001 53 49 50
-1.723721e+000 -3.742682e+000 -1.029886e+001 53 49 50
-1.428895e-001 1.217301e-001 -6.842610e+000 154 138 127
5.726085e-001 5.533760e-001 -6.730890e+000 160 150 138
8.267185e-001 8.883607e-001 -6.416816e+000 159 45 49
-3.463300e-001 -1.543517e-001 -6.483606e+000 122 30 17
2.460776e-001 5.021021e-002 -6.663435e+000 194 184 175
9.167213e-001 6.070274e-001 -6.329944e+000 217 71 78
-1.252041e+000 -5.409205e+000 -1.000228e+001 73 68 71
1.167041e+000 -4.374294e-001 -6.085665e+000 153 33 37
-2.734067e-001 1.954970e-001 -7.732656e+000 215 73 82
-1.542270e-001 2.734185e-001 -7.213126e+000 174 161 145
-4.491598e-003 4.662588e-001 -7.098155e+000 148 136 124
-2.025751e-001 -1.297577e-001 -7.506480e+000 174 166 153
-4.218686e-001 2.103547e-002 -6.867993e+000 92 38 33
1.050086e-001 -3.174916e-002 -6.690125e+000 164 154 144
1.050086e-001 -3.174916e-002 -6.690125e+000 164 154 144
5.866739e-001 4.728291e-002 -6.494746e+000 198 188 179
6.198349e-001 4.669623e-002 -6.499537e+000 173 161 149
4.141242e-001 -4.446553e-001 -6.707334e+000 119 102 62
-1.272047e-001 4.720912e-001 -7.370307e+000 148 138 126
-2.695620e-001 4.598584e-002 -6.737370e+000 68 23 18
-7.417054e-001 -2.056440e-001 -6.290916e+000 163 82 52
2.700728e-001 8.309924e-002 -6.667434e+000 171 159 147
6.606350e-001 2.969599e-002 -6.482359e+000 197 187 177
5.123844e-001 -1.113574e+000 -7.104366e+000 245 230 171
5.113951e-001 -5.168859e-001 -6.708581e+000 78 60 27
9.156112e-001 2.348156e-001 -6.298456e+000 254 254 246
-1.227542e-001 2.970144e-001 -7.148317e+000 131 117 101
6.381691e-001 1.882609e-001 -6.699352e+000 158 150 139
5.732815e-001 -4.463494e-001 -6.621401e+000 114 96 56
1.041592e+000 2.936678e-001 -6.245902e+000 232 71 79
4.155029e-001 1.100120e+000 -6.818992e+000 240 236 232
6.335776e-001 9.727149e-001 -6.625043e+000 217 57 64
1.117592e+000 -7.753855e-001 -6.273559e+000 244 88 99
-4.001321e-002 1.325006e+000 -7.299006e+000 24 17 18
2.329237e-001 2.928520e-001 -6.876112e+000 136 124 110
6.592547e-001 -5.358923e-001 -6.598612e+000 232 215 159
6.456273e-001 -5.127203e-001 -6.573107e+000 232 215 159
