ply
format ascii 1.0
element face 0
property list uchar int vertex_indices
element vertex 680
property float x
property float y
property float z
property uchar diffuse_red
property uchar diffuse_green
property uchar diffuse_blue
end_header
5.449476e-001 9.123711e-001 -6.664148e+000 18 10 20
-2.347034e-001 6.055525e-001 -7.489409e+000 166 150 142
5.965565e-001 3.870669e-001 -6.567340e+000 236 235 233
-2.311599e-001 2.206642e-001 -7.500957e+000 54 25 24
3.299543e-001 2.244099e-001 -6.826527e+000 146 133 125
-1.221211e-001 5.744091e-002 -6.689781e+000 82 44 35
-3.584113e-002 1.093334e-001 -6.792949e+000 124 111 102
7.850761e-003 1.045664e-001 -6.740379e+000 166 157 148
1.173409e-001 -3.738080e-003 -6.713190e+000 132 119 111
1.319295e-001 -1.564667e-002 -6.695135e+000 155 142 134
1.035246e+000 3.927588e-002 -6.173211e+000 247 87 98
-1.199884e-001 -1.070232e-001 -6.622243e+000 33 17 4
9.215719e-001 -1.076572e-001 -6.285824e+000 206 50 54
-5.241301e-001 -1.805813e-001 -6.314122e+000 94 23 19
-4.434144e-001 -1.882627e-001 -6.413851e+000 122 38 20
-2.869674e-001 -1.852105e-001 -6.480662e+000 118 12 13
-1.068359e-001 -1.743413e-001 -6.673570e+000 131 107 70
-1.618462e-001 -2.231341e-001 -6.601821e+000 130 109 98
-2.853306e-001 -2.627594e-001 -6.468688e+000 32 12 14
-2.956650e-001 -2.813661e-001 -6.462238e+000 179 154 126
-2.803245e-001 -2.789248e-001 -6.469231e+000 175 116 101
-2.797906e-001 -2.775118e-001 -6.465160e+000 175 116 101
-2.828123e-001 -2.913347e-001 -6.460764e+000 34 17 11
-1.689215e-001 -3.271536e-001 -6.566085e+000 201 196 193
-3.867957e-002 -3.511727e-001 -6.735769e+000 255 251 242
4.348905e-001 -9.243474e-001 -7.078650e+000 162 140 96
-1.603521e-001 7.289605e-001 -7.419108e+000 207 44 50
1.173739e-001 5.649806e-001 -6.995267e+000 194 185 180
-3.157010e+000 7.178579e-001 -1.121315e+001 35 29 31
-2.246363e-001 2.361984e-001 -7.520974e+000 212 52 51
-1.712961e-001 2.387443e-001 -7.479800e+000 207 200 186
2.040434e-001 2.144064e-001 -6.766114e+000 154 140 124
1.003901e+000 1.840727e-001 -6.220491e+000 25 15 23
5.444750e-002 5.281298e-002 -6.736697e+000 118 107 101
7.521347e-004 3.564880e-002 -6.690278e+000 122 107 102
1.024488e+000 3.753583e-002 -6.181014e+000 233 78 82
-9.143913e-002 -5.964811e-002 -6.613479e+000 115 33 22
-7.966923e-002 -7.830484e-002 -6.602157e+000 149 67 49
-7.959060e-002 -7.821749e-002 -6.601137e+000 149 67 49
1.040921e-001 -1.390369e-001 -6.661774e+000 206 201 197
1.982832e-001 -1.358470e-001 -6.656108e+000 234 227 221
2.652865e-001 -1.123363e-001 -6.684832e+000 238 235 229
9.243439e-001 -1.286101e-001 -6.298064e+000 161 38 46
-4.353686e-001 -2.051896e-001 -6.422654e+000 154 52 29
4.395953e-001 -2.562722e-001 -6.711485e+000 211 204 195
-3.229822e-001 -2.737428e-001 -6.454151e+000 50 50 69
-1.696673e-001 -3.039176e-001 -6.547915e+000 163 155 150
-1.266259e-001 -3.031406e-001 -6.593371e+000 174 164 161
-1.270023e-001 -3.036091e-001 -6.601358e+000 174 164 161
-6.474081e-002 -2.895203e-001 -6.664560e+000 185 178 170
2.991743e-001 -3.982415e-001 -6.758873e+000 156 144 127
1.151790e+000 -3.042121e-001 -6.100503e+000 239 225 177
4.932634e-001 -4.999243e-001 -6.655098e+000 158 145 125
5.927043e-001 -5.931454e-001 -6.653606e+000 246 231 218
3.861279e-001 -9.404474e-001 -7.126299e+000 165 149 102
4.595259e-001 -9.148936e-001 -7.046484e+000 233 219 164
7.647280e-002 9.210418e-001 -7.128380e+000 202 190 185
6.961159e-001 7.244380e-001 -6.484131e+000 18 3 6
6.996080e-001 6.624673e-001 -6.433691e+000 167 39 45
8.165770e-001 5.298992e-001 -6.371921e+000 18 7 11
2.999231e-001 5.764434e-001 -6.924498e+000 184 177 167
7.234558e-001 4.652684e-001 -6.423142e+000 222 53 59
-4.889520e-002 4.330377e-001 -7.162299e+000 170 161 154
4.049879e-001 1.164630e-001 -6.641780e+000 154 141 132
-1.645145e-001 4.594908e-002 -6.738074e+000 72 27 22
-8.475855e-002 -9.237102e-003 -6.614881e+000 142 119 110
-2.982670e-001 -4.835709e-002 -6.546610e+000 86 18 7
-1.066800e-001 -6.825216e-002 -6.605967e+000 165 80 59
-4.126801e-001 -1.860189e-001 -6.519620e+000 134 33 10
-1.428411e-001 -2.403675e-001 -6.642736e+000 113 94 79
5.136769e-001 -2.418567e-001 -6.672138e+000 172 163 148
-1.970401e-001 -2.978086e-001 -6.507490e+000 181 172 170
-1.564115e-001 -3.206988e-001 -6.563469e+000 253 254 249
4.128256e-001 -4.433513e-001 -6.725625e+000 229 226 218
4.128256e-001 -4.433513e-001 -6.725625e+000 229 226 218
9.313506e-001 -5.374259e-001 -6.288470e+000 18 1 7
7.254791e-001 6.535981e-001 -6.434345e+000 196 55 61
-3.153006e-001 7.436716e-001 -7.585629e+000 30 16 16
8.085983e-001 5.145336e-001 -6.372966e+000 176 42 37
1.227237e-001 4.964375e-001 -6.982382e+000 186 177 168
4.687612e-001 4.520251e-001 -6.771163e+000 166 157 150
3.004744e-001 2.841384e-001 -6.855689e+000 123 110 99
9.882404e-001 2.094264e-001 -6.216721e+000 25 5 9
8.123289e-002 1.623271e-001 -6.833888e+000 178 169 160
8.123289e-002 1.623271e-001 -6.833888e+000 178 169 160
3.533181e-001 1.654805e-001 -6.668934e+000 142 129 113
6.644181e-001 9.748344e-002 -6.553901e+000 195 188 178
2.340774e-001 4.327481e-002 -6.657101e+000 192 182 172
2.352558e-001 1.514120e-002 -6.661231e+000 203 194 187
1.034343e+000 4.162589e-002 -6.186265e+000 243 79 98
-4.602631e-002 -1.668842e-002 -6.637478e+000 183 173 164
1.015484e+000 -9.318351e-002 -6.210622e+000 249 79 93
-7.082145e-001 -1.776923e-001 -6.341517e+000 135 113 67
-2.732457e+000 -6.519740e-001 -1.077048e+001 44 39 39
-3.404853e-001 -2.307442e-001 -6.488366e+000 188 105 67
5.297644e-001 -2.343740e-001 -6.622635e+000 243 240 231
6.150471e-001 -2.301073e-001 -6.525078e+000 172 158 147
7.588815e-001 -2.149320e-001 -6.404264e+000 158 145 134
-2.175142e-001 -3.131969e-001 -6.507320e+000 236 232 229
2.036247e-002 -3.633960e-001 -6.798062e+000 255 254 249
8.055813e-001 -3.696760e-001 -6.347959e+000 182 159 106
8.278481e-001 -4.624467e-001 -6.416956e+000 169 147 134
4.425436e-001 -9.338981e-001 -7.057292e+000 45 32 34
7.880442e-001 -8.003493e-001 -6.592264e+000 253 82 93
3.746944e-001 8.690845e-001 -6.813359e+000 219 212 209
4.837876e-002 9.180462e-001 -7.156719e+000 192 35 44
7.344683e-001 6.915421e-001 -6.477438e+000 16 12 9
7.873844e-001 5.439841e-001 -6.392593e+000 203 42 57
-2.187231e-001 6.532122e-001 -7.444688e+000 206 191 183
4.449032e-001 4.696831e-001 -6.774746e+000 181 174 166
-4.931997e-002 4.617290e-001 -7.139431e+000 208 199 190
9.105261e-001 3.358870e-001 -6.261220e+000 214 49 60
8.956859e-001 2.462029e-001 -6.326825e+000 235 64 73
9.783015e-001 1.909176e-001 -6.216353e+000 229 58 64
6.286971e-001 1.385706e-001 -6.608486e+000 170 163 153
6.141585e-002 7.520246e-002 -6.751464e+000 179 168 162
8.243995e-002 5.460686e-002 -6.722084e+000 182 171 165
9.898381e-001 5.398359e-002 -6.161448e+000 204 53 62
1.049458e+000 7.573613e-002 -6.192440e+000 29 12 20
6.003853e-001 4.271670e-002 -6.514422e+000 162 150 138
9.742668e-001 3.137893e-002 -6.169498e+000 169 29 40
3.517774e-001 -1.360017e-002 -6.611080e+000 204 194 185
1.122812e-001 -8.535929e-002 -6.644257e+000 177 166 162
4.509216e-001 -8.912197e-002 -6.569529e+000 224 221 214
-5.306524e-001 -1.523455e-001 -6.335468e+000 145 60 38
-4.978482e-002 -1.894308e-001 -6.635773e+000 238 235 230
1.344000e-001 -1.954840e-001 -6.679745e+000 205 191 182
1.344000e-001 -1.954840e-001 -6.679745e+000 205 191 182
8.214851e-001 -1.529890e-001 -6.362879e+000 164 149 141
-3.312486e-002 -2.295618e-001 -6.687336e+000 241 240 237
3.200947e-001 -2.495147e-001 -6.738226e+000 215 208 200
-3.140059e-001 -2.767112e-001 -6.462410e+000 46 42 53
-1.026819e-001 -2.894440e-001 -6.622430e+000 159 143 131
4.050555e-001 -4.159185e-001 -6.736257e+000 254 255 250
4.814000e-001 -4.016001e-001 -6.661956e+000 151 132 94
6.001282e-001 -4.458978e-001 -6.542678e+000 239 233 224
4.193003e-001 -5.542450e-001 -6.793931e+000 254 255 250
8.416405e-001 -6.890442e-001 -6.466767e+000 28 11 12
3.460613e-001 -9.775384e-001 -7.195600e+000 208 191 147
3.573226e-001 9.181264e-001 -6.856617e+000 196 34 40
4.049424e-001 8.818073e-001 -6.788502e+000 206 37 44
7.397852e-001 6.295729e-001 -6.431482e+000 17 1 8
-2.881055e-001 7.733589e-001 -7.520312e+000 193 36 43
5.945890e-001 5.718697e-001 -6.572863e+000 148 124 116
5.872933e-001 5.424480e-001 -6.585655e+000 221 212 203
-4.005743e-002 4.984153e-001 -7.136644e+000 150 141 131
4.175741e-001 2.799726e-001 -6.819246e+000 142 132 119
9.546632e-001 2.505816e-001 -6.241918e+000 232 58 71
4.159905e-001 1.391372e-001 -6.655277e+000 194 184 174
4.227146e-001 5.537007e-002 -6.617448e+000 146 136 127
7.108053e-001 9.430166e-002 -6.498452e+000 188 181 171
-1.171102e-001 3.309463e-002 -6.684609e+000 77 20 13
-8.495881e-002 1.684726e-002 -6.669695e+000 156 144 132
5.352733e-001 4.402926e-002 -6.544249e+000 160 150 141
6.081199e-001 1.205968e-002 -6.488914e+000 209 200 193
-1.738249e-001 -2.260879e-001 -6.558415e+000 169 145 135
4.050797e-001 -2.557945e-001 -6.712257e+000 227 220 210
6.393146e-001 -2.206033e-001 -6.491766e+000 177 166 154
3.074401e-002 -4.007400e-001 -6.838784e+000 50 39 37
-2.967841e-001 -4.098431e-001 -6.628645e+000 40 34 25
4.407232e-001 -4.507533e-001 -6.713422e+000 254 253 249
8.549576e-001 -6.575658e-001 -6.457964e+000 250 255 249
-1.815899e+001 -1.198164e+001 -4.325768e+001 143 130 129
2.736195e-001 7.724389e-001 -6.975322e+000 221 215 212
7.459001e-001 5.904324e-001 -6.435311e+000 227 55 67
4.369974e-001 6.382859e-001 -6.774540e+000 228 223 217
6.398814e-001 5.523210e-001 -6.490456e+000 219 53 65
-1.308703e-001 6.306312e-001 -7.367550e+000 156 143 134
1.613545e-001 5.707864e-001 -7.013308e+000 221 214 208
4.383350e-001 5.535306e-001 -6.792527e+000 240 233 227
9.273571e-002 5.438252e-001 -7.040718e+000 207 198 193
7.376656e-001 4.083846e-001 -6.451317e+000 215 204 198
9.676642e-002 4.489730e-001 -7.021280e+000 204 193 187
7.652164e-001 3.751825e-001 -6.393644e+000 213 45 54
-3.304655e-001 3.580266e-001 -7.547189e+000 212 202 193
2.359737e-001 2.950209e-001 -6.872225e+000 180 169 163
1.339137e-001 1.857072e-001 -6.805172e+000 138 125 116
8.133125e-001 1.849715e-001 -6.369001e+000 158 143 136
3.228135e-001 1.596776e-001 -6.712276e+000 198 190 179
9.978894e-001 1.229754e-001 -6.204923e+000 207 45 51
8.405068e-002 1.087066e-001 -6.787169e+000 129 119 109
1.324033e-001 1.098832e-001 -6.758452e+000 214 207 201
1.023124e+000 9.392614e-003 -6.174473e+000 16 7 3
6.323274e-001 -1.286362e-002 -6.470793e+000 161 149 137
1.907527e-001 -1.109721e-001 -6.675336e+000 195 188 180
-6.164712e-001 -1.849457e-001 -6.330240e+000 122 56 50
9.937984e-001 -1.275795e-001 -6.226282e+000 122 23 36
-2.911446e-001 -2.000015e-001 -6.476963e+000 142 25 26
5.713134e-001 -2.438359e-001 -6.593496e+000 163 151 137
-3.474918e-001 -2.631000e-001 -6.479045e+000 239 188 141
5.322864e-001 -3.359829e-001 -6.581644e+000 161 138 94
4.401308e-001 -4.538869e-001 -6.715756e+000 255 254 250
8.597963e-001 -3.735010e-001 -6.318345e+000 230 217 208
4.455459e-001 -5.990066e-001 -6.819221e+000 225 222 215
6.909283e-001 -7.688387e-001 -6.666872e+000 44 28 34
-1.496043e+001 -1.159705e+001 -4.342776e+001 18 11 9
4.354374e-001 8.144587e-001 -6.762674e+000 223 217 213
2.007438e-002 8.605322e-001 -7.170855e+000 195 185 176
1.476968e-001 7.881478e-001 -7.080511e+000 206 199 193
6.177713e-001 6.279299e-001 -6.604486e+000 203 197 189
2.239672e-001 2.387177e-001 -6.829595e+000 126 113 104
8.942022e-001 1.863960e-001 -6.308907e+000 192 37 42
3.323892e-001 3.975750e-002 -6.649580e+000 160 152 141
1.945834e-001 -3.460840e-002 -6.669333e+000 255 254 250
2.624311e-001 -3.646931e-002 -6.667167e+000 209 198 192
6.807111e-001 -7.560884e-002 -6.422081e+000 145 131 120
9.982494e-001 -7.327080e-002 -6.194304e+000 241 66 78
-5.529850e-001 -1.663715e-001 -6.303822e+000 119 50 49
-5.207573e-001 -1.307332e-001 -6.339690e+000 149 68 39
-6.847553e-002 -2.524107e-001 -6.716273e+000 50 37 18
-6.827797e-002 -2.526786e-001 -6.719409e+000 50 37 18
-2.740916e-001 -2.698211e-001 -6.456134e+000 170 71 60
2.567633e-001 -3.361033e-001 -6.758108e+000 254 245 190
4.252431e-001 -2.884887e-001 -6.702272e+000 112 94 80
6.299255e-001 -4.136238e-001 -6.516407e+000 144 126 78
7.179575e-001 -3.775390e-001 -6.433231e+000 199 174 118
5.475131e-001 -5.147166e-001 -6.640035e+000 145 127 104
9.591694e-001 -6.467450e-001 -6.370762e+000 254 86 97
9.636627e-001 -6.518376e-001 -6.389089e+000 254 86 97
2.928124e-001 6.915447e-001 -6.909797e+000 163 154 145
2.015792e-001 6.603455e-001 -7.025702e+000 219 211 208
7.657982e-001 4.333014e-001 -6.386765e+000 162 31 39
8.327670e-001 4.061720e-001 -6.298385e+000 234 64 75
2.202315e-001 4.446451e-001 -6.934810e+000 214 205 198
8.627785e-001 1.647126e-001 -6.356351e+000 219 210 205
-1.059575e-001 -3.945904e-002 -6.617099e+000 85 24 16
2.501151e-001 -1.148951e-001 -6.672845e+000 254 255 250
1.003829e+000 -5.420091e-002 -6.246237e+000 243 67 77
9.394200e-001 -1.375370e-001 -6.265354e+000 135 32 35
-6.658931e-001 -2.229483e-001 -6.304120e+000 38 28 32
3.096294e-001 -2.174827e-001 -6.718175e+000 231 228 221
7.020943e-001 -2.466507e-001 -6.431984e+000 122 104 81
6.570140e-001 -3.135311e-001 -6.440982e+000 210 186 131
4.991026e-001 -4.565515e-001 -6.745380e+000 110 87 62
1.012759e+000 -3.472353e-001 -6.237853e+000 24 9 8
9.537011e-001 -5.547128e-001 -6.294918e+000 21 9 12
8.116126e-001 -7.776560e-001 -6.515249e+000 230 64 74
8.116126e-001 -7.776560e-001 -6.515249e+000 230 64 74
9.893839e-002 7.106238e-001 -7.055470e+000 170 157 151
9.893839e-002 7.106238e-001 -7.055470e+000 170 157 151
9.368046e-002 5.937556e-001 -7.036055e+000 208 199 194
3.325200e-001 5.910856e-001 -6.836996e+000 228 221 214
9.734259e-001 1.572391e-001 -6.218085e+000 216 46 55
9.256022e-001 7.407720e-002 -6.233810e+000 131 15 23
-5.806267e-001 -2.366280e-001 -6.353661e+000 246 124 75
1.342844e-001 -3.974053e-001 -6.779121e+000 255 255 253
8.067965e-001 -3.294030e-001 -6.348496e+000 154 132 86
5.909126e-001 -6.749232e-001 -6.715138e+000 22 12 13
8.181075e-001 -6.392489e-001 -6.470482e+000 255 255 253
1.040259e+000 -8.140166e-002 -6.151428e+000 42 30 32
-2.234833e-001 -3.633352e-001 -6.581847e+000 233 232 230
8.587378e-001 -4.956398e-001 -6.377391e+000 182 38 45
3.718374e-001 -9.001447e-001 -7.123105e+000 144 123 80
8.982116e-002 -1.368131e-002 -6.695764e+000 132 119 110
-8.015827e-003 -1.385110e-001 -6.666852e+000 248 244 242
6.574501e-001 4.269542e-001 -6.495992e+000 255 255 253
8.522280e-001 6.985515e-003 -6.342264e+000 230 225 221
3.550338e-001 -5.262437e-001 -6.820921e+000 254 254 252
1.068654e+000 -2.224151e-001 -6.158219e+000 198 173 117
1.071708e+000 -2.228825e-001 -6.164229e+000 198 173 117
7.461126e-001 -5.566012e-001 -6.517910e+000 238 231 225
1.088621e+000 6.666634e-002 -6.229999e+000 46 34 34
5.977243e-002 9.031398e-001 -7.159307e+000 199 198 186
6.732059e-001 6.409409e-001 -6.393604e+000 219 51 60
6.877825e-001 6.003384e-001 -6.294399e+000 231 69 82
-1.426980e-001 7.040872e-001 -7.412054e+000 173 157 153
1.241857e-001 5.238724e-001 -7.020140e+000 178 165 159
1.034334e+000 9.897705e-002 -6.190287e+000 30 7 14
4.177742e-002 6.486724e-002 -6.736650e+000 122 107 100
1.050753e+000 4.690782e-002 -6.180910e+000 22 12 11
-5.214234e-002 -4.984693e-003 -6.628237e+000 172 156 148
-8.851595e-002 -4.672956e-002 -6.618234e+000 162 69 54
-3.042653e-001 -1.304394e-001 -6.470029e+000 228 113 68
-1.669704e-001 -8.411422e-002 -6.488706e+000 75 18 11
-5.783381e-001 -1.397049e-001 -6.230194e+000 54 23 1
-7.459629e-002 -1.949176e-001 -6.693323e+000 124 102 57
-4.776803e-001 -1.991086e-001 -6.255802e+000 162 49 30
-3.045680e-001 -2.879091e-001 -6.447433e+000 47 35 45
-1.348682e-001 -3.042037e-001 -6.570698e+000 214 209 203
-1.342801e-001 -3.032878e-001 -6.568744e+000 214 209 203
-3.256438e-001 -3.810612e-001 -6.565142e+000 227 116 60
-4.689724e-002 -3.406011e-001 -6.637272e+000 45 34 30
1.866350e-001 8.192276e-001 -7.056435e+000 188 185 178
7.674576e-001 4.587444e-001 -6.430095e+000 168 32 38
1.599553e-002 2.373818e-001 -6.995766e+000 157 147 137
8.408651e-002 1.983909e-001 -6.831287e+000 156 146 136
1.705573e-001 2.423191e-001 -6.752702e+000 148 134 122
-1.780392e-001 1.140784e-001 -6.650305e+000 114 55 46
-1.780392e-001 1.140784e-001 -6.650305e+000 114 55 46
-6.283975e-002 -1.772850e-001 -6.619375e+000 229 216 214
-4.969220e-001 -2.407518e-001 -6.289965e+000 217 106 79
-4.351176e-001 -2.257688e-001 -6.326414e+000 91 38 22
-1.073049e-001 -2.352437e-001 -6.608503e+000 46 30 11
-1.119209e-001 -2.669824e-001 -6.622570e+000 144 126 115
8.374638e-001 -2.042188e-001 -6.304935e+000 155 133 91
-1.684989e-001 -3.022660e-001 -6.534038e+000 163 155 150
-7.874636e-002 -3.076320e-001 -6.601861e+000 192 189 184
-7.874636e-002 -3.076320e-001 -6.601861e+000 192 189 184
3.397000e-001 9.162788e-001 -6.861701e+000 200 41 45
2.201215e-001 7.877969e-001 -6.989769e+000 225 218 212
9.015445e-001 3.782254e-001 -6.288870e+000 193 34 51
-2.535628e-002 3.981535e-001 -6.965945e+000 193 184 177
-2.038379e-001 1.045579e-001 -6.784572e+000 42 30 30
-6.712789e-002 -1.092518e-002 -6.637435e+000 102 37 22
-1.226242e-001 -1.392476e-001 -6.431319e+000 176 90 69
-4.769868e-001 -2.356455e-001 -6.357110e+000 167 47 36
-1.419257e-001 -2.395865e-001 -6.634906e+000 113 94 79
-5.192284e-001 -2.848096e-001 -6.375453e+000 210 94 65
6.010481e-004 -3.625375e-001 -6.722919e+000 52 41 37
9.984252e-001 -3.860300e-001 -6.284192e+000 248 66 76
3.884549e-001 1.038925e+000 -6.823640e+000 28 16 22
-3.404557e-001 3.536262e-001 -7.560665e+000 219 206 198
8.718793e-001 1.706541e-001 -6.319443e+000 209 192 183
8.828871e-001 1.376867e-001 -6.310346e+000 192 178 168
-1.539378e-001 1.138837e-001 -6.878569e+000 37 25 20
-1.632869e-001 7.789005e-002 -6.772636e+000 47 28 22
5.905337e-001 -3.408488e-002 -6.467411e+000 222 215 209
-8.373515e-002 -1.700544e-001 -6.616842e+000 80 58 21
-4.278605e-001 -2.934777e-001 -6.520057e+000 48 29 27
-1.972226e-001 -2.964069e-001 -6.500285e+000 180 170 168
-8.872654e-002 3.816747e-001 -7.137819e+000 209 202 192
3.403803e-002 2.745920e-001 -6.915437e+000 166 156 146
3.403803e-002 2.745920e-001 -6.915437e+000 166 156 146
4.964171e-001 -5.512733e-002 -6.566937e+000 195 190 184
-6.453039e-001 -1.334952e-001 -6.176230e+000 190 163 108
7.892427e-001 -1.343771e-001 -6.406760e+000 195 188 182
4.240965e-001 -3.492455e-001 -6.694756e+000 183 163 112
8.409676e-001 -3.608845e-001 -6.365723e+000 178 154 106
2.660605e-001 -6.246093e-001 -7.127308e+000 72 62 35
5.734977e-001 8.499383e-001 -6.614266e+000 202 42 51
-3.594235e-002 4.940040e-001 -7.098555e+000 150 141 131
1.710065e-001 3.119243e-001 -6.735126e+000 181 168 159
-5.778183e-001 -9.240127e-002 -6.276861e+000 146 69 42
-1.799233e-001 -1.833067e-001 -6.448655e+000 121 73 56
-1.799233e-001 -1.833067e-001 -6.448655e+000 121 73 56
1.713337e-001 -3.318880e-001 -6.714796e+000 47 30 18
4.984074e-001 -3.492992e-001 -6.763207e+000 102 84 47
4.623095e-001 -4.313809e-001 -6.823739e+000 85 66 41
8.269937e-001 -4.643033e-001 -6.437111e+000 180 158 145
8.324205e-001 -8.295820e-001 -6.530440e+000 224 60 67
8.324205e-001 -8.295820e-001 -6.530440e+000 224 60 67
8.065948e-001 1.840566e-001 -6.344696e+000 158 143 136
5.625715e-001 -1.639843e-002 -6.480501e+000 191 184 175
-4.786138e-001 -2.698896e-001 -6.374546e+000 255 211 172
6.429531e-001 7.374071e-001 -6.493205e+000 194 34 44
8.360649e-001 4.570870e-001 -6.269904e+000 19 0 9
-1.304095e-001 5.684990e-001 -7.371792e+000 223 216 209
2.593267e-001 4.998738e-001 -6.878723e+000 149 139 129
4.257924e-001 4.207161e-001 -6.715296e+000 222 213 208
-2.494990e-001 -4.756336e-002 -6.415370e+000 87 23 15
9.899981e-001 -1.931675e-002 -6.187376e+000 248 77 87
6.242408e-001 -7.652036e-002 -6.465424e+000 241 241 233
7.774158e-001 -2.200115e-001 -6.384117e+000 111 91 67
8.583419e-001 -2.394359e-001 -6.367868e+000 165 141 95
7.675527e-001 -2.811383e-001 -6.400286e+000 188 166 113
5.472128e-001 -4.514494e-001 -6.613667e+000 205 195 184
5.447864e-001 5.432626e-001 -6.569295e+000 209 202 194
-1.262404e-001 -1.576614e-001 -6.718179e+000 93 66 37
4.488396e-001 -2.229159e-001 -6.709959e+000 247 245 241
2.351209e-001 -3.885950e-001 -6.747788e+000 61 39 25
9.201057e-001 -5.473530e-001 -6.380051e+000 255 78 92
3.327263e-001 5.914249e-001 -6.841850e+000 228 221 214
3.757472e-001 -9.165741e-001 -7.186439e+000 144 123 80
-4.113106e-001 -3.912182e-001 -6.670186e+000 45 33 33
1.011296e+000 -4.532951e-001 -6.275023e+000 24 8 11
-2.641775e-002 9.753175e-001 -7.271895e+000 148 23 29
-5.593469e-003 6.488347e-001 -7.152118e+000 212 206 197
7.083336e-001 6.760587e-001 -6.459345e+000 98 12 21
1.366595e-001 5.131683e-001 -7.043118e+000 155 145 135
7.720416e-001 5.796956e-001 -6.406755e+000 188 53 56
-4.747358e-002 3.822006e-001 -7.147220e+000 151 141 131
3.447333e-001 2.106842e-001 -6.778634e+000 143 129 118
-3.972589e-002 5.562454e-002 -6.671083e+000 135 120 113
3.224206e-002 7.308908e-002 -6.737991e+000 122 110 103
4.552339e-002 4.597016e-002 -6.717786e+000 153 143 133
2.136444e-001 5.656359e-002 -6.545096e+000 156 146 137
-4.347194e-001 -1.349196e-001 -6.508165e+000 156 71 47
-4.347194e-001 -1.349196e-001 -6.508165e+000 156 71 47
-3.581177e-001 -1.006848e-001 -6.494215e+000 176 90 62
-3.655160e-001 -1.058258e-001 -6.534230e+000 176 90 62
-1.621365e-001 -1.134823e-001 -6.508118e+000 145 58 35
-1.872055e-001 -1.342618e-001 -6.468266e+000 196 88 56
4.714504e-001 -2.152174e-002 -6.593512e+000 197 189 181
-4.188831e-001 -2.099415e-001 -6.553669e+000 187 84 56
-3.815945e-001 -2.016931e-001 -6.555593e+000 191 72 37
1.149164e-001 -1.967678e-001 -6.700854e+000 242 236 231
-2.199126e-003 -2.538328e-001 -6.745136e+000 44 33 15
-2.930373e-001 -2.903277e-001 -6.457847e+000 201 179 160
1.895531e-001 -2.954306e-001 -6.745047e+000 141 120 74
4.377569e-001 -5.080297e-001 -6.751162e+000 241 238 228
6.061029e-001 -6.532542e-001 -6.735998e+000 229 79 86
9.213117e-001 -5.020743e-001 -6.262103e+000 180 21 31
9.152617e-001 -5.190857e-001 -6.246599e+000 23 4 1
-2.508439e-001 6.225768e-001 -7.523465e+000 195 186 185
7.398249e-001 6.497582e-001 -6.435992e+000 18 6 10
1.203510e-001 5.441736e-001 -7.004683e+000 212 206 200
1.198163e-001 5.448882e-001 -7.017583e+000 212 206 200
6.740065e-001 4.776135e-001 -6.478184e+000 234 229 226
6.740065e-001 4.776135e-001 -6.478184e+000 234 229 226
1.791613e-001 2.404720e-001 -6.762842e+000 136 120 107
5.401864e-002 1.986887e-001 -6.889153e+000 152 139 130
4.290867e-002 9.313239e-002 -6.770901e+000 128 114 105
3.314200e-001 1.827746e-001 -6.743194e+000 140 127 111
-6.018284e-002 6.899772e-002 -6.699370e+000 123 110 102
-6.018284e-002 6.899772e-002 -6.699370e+000 123 110 102
-4.652225e-003 2.741949e-002 -6.663323e+000 147 134 126
9.376396e-002 1.006311e-003 -6.634633e+000 125 112 104
1.031527e-001 9.556793e-003 -6.673811e+000 169 160 151
-1.749213e-001 -8.153474e-002 -6.519501e+000 65 4 1
-1.749213e-001 -8.153474e-002 -6.519501e+000 65 4 1
-8.635191e-002 -4.411339e-002 -6.611242e+000 172 87 71
-8.796168e-002 -8.911621e-002 -6.606513e+000 207 180 171
-5.138121e-001 -2.196269e-001 -6.341210e+000 230 112 81
-5.138121e-001 -2.196269e-001 -6.341210e+000 230 112 81
-3.860182e-001 -2.590554e-001 -6.555200e+000 66 24 20
-3.029522e-001 -2.811391e-001 -6.440061e+000 57 54 68
-1.290290e-001 -2.832569e-001 -6.599866e+000 179 166 158
4.011110e-001 -1.769911e-001 -6.699124e+000 230 227 220
1.874687e-002 -3.561275e-001 -6.753848e+000 254 252 247
3.067648e-002 -3.912800e-001 -6.836722e+000 46 35 29
6.787532e-001 -3.978631e-001 -6.425871e+000 211 186 130
1.092836e+000 -2.897900e-001 -6.173305e+000 198 175 121
2.573747e-001 -7.507361e-001 -6.940938e+000 41 31 23
4.069442e-001 -8.577247e-001 -7.027886e+000 150 128 79
9.329248e-001 -4.793410e-001 -6.280655e+000 211 46 55
5.155894e-001 9.465977e-001 -6.771767e+000 182 43 46
-2.350165e-001 6.051517e-001 -7.482137e+000 156 140 131
6.526403e-001 6.856359e-001 -6.448906e+000 113 9 17
-3.962738e-001 4.126225e-001 -7.729464e+000 34 24 16
-1.165977e-001 5.121485e-001 -7.400463e+000 205 198 188
-1.601203e-001 4.211767e-001 -7.466428e+000 217 210 200
-1.003120e-001 3.415021e-001 -7.214743e+000 144 131 120
3.160844e-003 3.357691e-001 -7.099166e+000 172 162 152
6.454057e-001 4.370834e-001 -6.510062e+000 229 226 221
6.454057e-001 4.370834e-001 -6.510062e+000 229 226 221
1.718576e-001 1.983546e-001 -6.766035e+000 175 165 156
-8.523282e-002 1.183250e-001 -6.771140e+000 138 124 115
3.475136e-002 3.679775e-002 -6.710225e+000 115 102 93
8.149299e-002 2.275596e-002 -6.662873e+000 123 113 104
-7.557214e-002 -7.290500e-002 -6.663196e+000 184 161 155
2.206573e-001 -1.315669e-002 -6.618968e+000 206 197 188
-5.707359e-001 -1.315641e-001 -6.314448e+000 77 22 2
-5.502903e-001 -1.480042e-001 -6.277208e+000 54 5 8
-1.684095e-001 -1.359319e-001 -6.502351e+000 219 97 66
-9.018677e-002 -1.718636e-001 -6.676944e+000 93 69 26
-4.489660e-001 -2.255959e-001 -6.425313e+000 225 183 143
-5.773334e-002 -2.182063e-001 -6.676593e+000 97 79 41
-1.091707e-001 -2.521949e-001 -6.631227e+000 203 193 181
-9.153000e-002 -3.577451e-001 -6.696578e+000 45 36 31
-2.144743e-001 -4.141845e-001 -6.651765e+000 234 233 229
9.888912e-001 -2.398195e-001 -6.202574e+000 152 124 77
5.214304e-001 -5.196811e-001 -6.632512e+000 160 147 126
5.867701e-001 -6.106063e-001 -6.682936e+000 174 33 33
9.060357e-001 -4.799208e-001 -6.265085e+000 214 52 58
7.101240e-003 9.015585e-001 -7.175379e+000 173 35 41
-1.439145e-001 8.284716e-001 -7.435310e+000 195 44 52
-1.439145e-001 8.284716e-001 -7.435310e+000 195 44 52
-2.266766e-001 6.831861e-001 -7.429062e+000 210 44 53
-1.006208e-001 6.983548e-001 -7.382905e+000 203 195 185
-1.006208e-001 6.983548e-001 -7.382905e+000 203 195 185
-2.590971e-001 6.456433e-001 -7.543297e+000 183 34 41
-2.625218e-001 5.522096e-001 -7.518068e+000 178 166 154
2.532205e-001 5.905793e-001 -7.001391e+000 213 204 198
1.060107e-001 5.077904e-001 -7.041258e+000 195 185 177
2.826552e-001 5.672459e-001 -6.942986e+000 208 201 195
-4.097029e-002 4.106992e-001 -7.135576e+000 193 184 175
7.699901e-001 4.778217e-001 -6.419643e+000 203 45 53
7.877827e-001 5.121376e-001 -6.407853e+000 171 26 33
-1.986858e-001 1.447677e-001 -7.566335e+000 203 52 59
5.803681e-003 1.863250e-001 -6.924052e+000 124 111 102
4.586166e-002 1.467945e-001 -6.860857e+000 122 114 103
-1.400167e-001 5.701676e-002 -6.721372e+000 130 108 100
6.454199e-001 1.091005e-001 -6.560508e+000 188 179 170
-6.792576e-001 -1.334652e-001 -6.257123e+000 158 135 82
9.609312e-001 1.346566e-001 -6.315431e+000 222 55 65
4.994391e-001 -6.160867e-002 -6.580594e+000 202 197 191
-6.014932e-001 -1.869482e-001 -6.296564e+000 98 31 28
-2.729368e-001 -2.184414e-001 -6.433706e+000 143 9 18
5.109403e-001 -2.418133e-001 -6.666125e+000 165 151 141
4.886372e-001 -3.311975e-001 -6.662210e+000 91 74 38
5.964763e-001 -2.557745e-001 -6.545749e+000 165 152 135
5.686162e-001 -2.837431e-001 -6.548424e+000 148 138 123
8.611536e-001 -1.864040e-001 -6.312986e+000 83 65 39
8.525130e-001 -1.797712e-001 -6.283798e+000 83 65 39
9.975370e-001 -1.421462e-001 -6.203115e+000 140 118 71
8.490447e-001 -4.039676e-001 -6.356045e+000 197 167 159
1.152314e+000 -2.789660e-001 -6.083867e+000 27 14 14
6.133088e-001 -6.458908e-001 -6.580250e+000 39 28 23
7.400481e-001 -6.611786e-001 -6.518518e+000 224 57 65
-3.285469e+000 7.232490e-001 -1.137182e+001 11 7 8
2.682818e-001 7.138829e-001 -6.968997e+000 192 179 173
6.606599e-001 7.504772e-001 -6.531526e+000 183 29 39
1.501262e-002 4.638840e-001 -7.051043e+000 183 173 163
4.590736e-001 3.460894e-001 -6.758178e+000 183 175 163
-1.712363e-001 2.050991e-001 -7.470521e+000 168 33 38
2.546412e-001 7.229160e-002 -6.686983e+000 159 144 137
-2.363361e-001 -1.824406e-002 -6.619004e+000 123 51 35
4.119916e-001 8.552943e-002 -6.642913e+000 179 171 160
-6.795144e-001 -1.901490e-001 -6.319627e+000 32 23 24
-3.692893e-001 -1.356262e-001 -6.492063e+000 234 122 84
-3.499930e-001 -1.531661e-001 -6.457242e+000 166 35 18
3.806549e-002 -9.085568e-002 -6.614005e+000 241 236 233
9.989383e-001 8.227762e-002 -6.178756e+000 119 10 23
-3.133498e-001 -3.231623e-001 -6.527191e+000 161 144 133
-1.259387e-001 -3.538264e-001 -6.652718e+000 211 204 198
8.067917e-001 -1.992037e-001 -6.396836e+000 147 129 119
7.957713e-001 -2.260184e-001 -6.310310e+000 174 151 101
6.116981e-001 -4.629232e-001 -6.502714e+000 194 185 174
8.328657e-001 -3.575705e-001 -6.330228e+000 175 151 105
1.134669e+000 -2.915966e-001 -6.073565e+000 206 183 115
1.134669e+000 -2.915966e-001 -6.073565e+000 206 183 115
7.582414e-001 -5.661835e-001 -6.504251e+000 208 200 189
3.661854e-001 -9.176216e-001 -7.147562e+000 134 114 69
4.657639e-001 -8.795851e-001 -7.036001e+000 13 5 8
9.159705e-001 -4.635056e-001 -6.276919e+000 150 2 16
-1.793156e+000 -2.579289e+000 -1.007599e+001 37 31 33
-1.761018e+000 -2.662862e+000 -1.001356e+001 37 31 33
-1.270663e+000 -1.894441e+000 -8.278067e+000 39 33 35
-4.069790e-001 5.627657e-001 -7.694554e+000 191 41 42
-1.348064e-002 5.326066e-001 -7.135336e+000 206 197 188
-3.376675e-001 3.554164e-001 -7.594956e+000 208 194 184
-1.049845e-001 3.825447e-001 -7.213905e+000 202 194 183
4.496605e-001 2.521308e-001 -6.808247e+000 141 133 122
1.757955e-001 9.771674e-002 -6.739821e+000 155 145 136
-6.340326e-001 -1.169770e-001 -6.234946e+000 39 24 28
-9.563897e-002 -1.045422e-001 -6.638118e+000 182 160 154
4.383704e-001 1.993673e-002 -6.577193e+000 220 216 210
4.383704e-001 1.993673e-002 -6.577193e+000 220 216 210
2.833803e-001 -8.530959e-002 -6.662364e+000 255 252 244
5.744885e-001 -1.513683e-002 -6.501542e+000 188 179 172
6.101700e-001 1.200182e-002 -6.496096e+000 213 205 196
6.769752e-001 -1.959217e-002 -6.482992e+000 180 172 160
6.769752e-001 -1.959217e-002 -6.482992e+000 180 172 160
5.069841e-001 -1.008906e-001 -6.571950e+000 226 221 217
5.069841e-001 -1.008906e-001 -6.571950e+000 226 221 217
9.772825e-001 -3.788455e-001 -6.257111e+000 229 58 69
-1.764753e+000 -2.520790e+000 -1.009927e+001 24 18 20
-1.696780e+000 -2.558514e+000 -9.941845e+000 20 14 16
-1.646537e+000 -2.710980e+000 -9.929404e+000 29 23 25
5.748691e-001 8.506634e-001 -6.640967e+000 199 40 48
-1.221365e-001 7.920988e-001 -7.442646e+000 191 41 48
-3.193287e-002 5.911470e-001 -7.123549e+000 177 168 159
1.412518e-002 6.061819e-001 -7.097097e+000 218 211 201
6.359417e-001 6.382816e-001 -6.502947e+000 189 43 49
-4.098485e-001 4.020319e-001 -7.747990e+000 38 24 21
-5.571185e-002 3.667982e-001 -7.185023e+000 145 133 122
1.702602e-001 3.214190e-001 -6.876389e+000 188 175 166
3.625879e-001 2.876133e-001 -6.823821e+000 170 162 149
5.883106e-001 1.378413e-001 -6.651573e+000 155 145 134
-6.707179e-001 -1.428510e-001 -6.265847e+000 168 147 100
-6.707179e-001 -1.428510e-001 -6.265847e+000 168 147 100
-6.166308e-001 -1.380267e-001 -6.290999e+000 151 127 81
6.080351e-001 1.216238e-002 -6.488194e+000 213 205 196
1.004964e+000 -1.719881e-002 -6.212809e+000 247 80 90
4.495283e-001 -4.090850e-001 -6.711705e+000 81 64 37
5.485318e-001 -4.507870e-001 -6.606973e+000 204 191 182
1.102498e+000 -2.580061e-001 -6.134295e+000 163 139 91
4.019043e-001 -9.541787e-001 -7.090122e+000 41 28 23
-1.572195e+000 -2.678137e+000 -9.940586e+000 68 64 65
-5.495187e-002 7.532721e-001 -7.127900e+000 220 197 200
4.970966e-001 4.798776e-001 -6.748123e+000 210 201 194
1.421486e-001 3.708318e-001 -6.945925e+000 153 141 129
3.378882e-001 3.931316e-001 -6.896937e+000 178 169 160
4.835437e-002 3.197468e-001 -7.062246e+000 140 130 118
1.344871e-001 1.851231e-001 -6.821659e+000 128 116 106
1.931052e-001 1.779540e-001 -6.783969e+000 201 194 184
4.471331e-001 2.608116e-001 -6.816097e+000 151 143 132
6.834419e-001 2.146904e-001 -6.513717e+000 249 245 240
1.481447e-001 -6.472996e-003 -6.692743e+000 127 117 107
-5.186144e-001 -1.268377e-001 -6.326196e+000 155 66 34
6.837473e-002 -2.251876e-001 -6.709740e+000 244 241 236
6.830512e-001 -7.732614e-002 -6.429447e+000 133 119 108
6.122741e-001 -1.896605e-001 -6.526473e+000 234 230 221
4.857116e-001 8.335233e-001 -6.723352e+000 207 41 48
-2.908445e-001 2.669392e-001 -7.554262e+000 37 29 27
8.546990e-001 4.611653e-001 -6.322736e+000 17 7 8
-2.555605e-001 -4.592760e-002 -6.505451e+000 87 27 18
2.417578e-001 -3.826094e-001 -6.718943e+000 63 35 24
9.393221e-001 -1.422764e-001 -6.278339e+000 108 27 33
6.540235e-001 -3.089757e-001 -6.422024e+000 222 197 140
8.437893e-001 -2.317058e-001 -6.291348e+000 175 151 103
8.246696e-001 -4.008503e-001 -6.337983e+000 227 214 206
3.244402e-001 5.872098e-001 -6.742727e+000 230 221 214
5.443991e-001 5.523215e-001 -6.661945e+000 215 208 200
4.092565e-001 4.188547e-001 -6.760667e+000 211 204 196
4.114056e-001 4.178446e-001 -6.775805e+000 211 204 196
7.041116e-001 2.761768e-001 -6.500367e+000 174 159 147
3.752027e-001 1.179559e-001 -6.664860e+000 178 168 159
9.445627e-001 -2.704241e-001 -6.240491e+000 108 88 50
9.433958e-002 5.936962e-001 -7.047601e+000 217 208 201
5.069256e-002 4.268095e-001 -7.080391e+000 186 176 167
9.147814e-002 3.025284e-001 -6.982024e+000 131 121 111
7.908940e-001 2.740980e-001 -6.377500e+000 249 248 244
6.845833e-001 -1.587325e-001 -6.417195e+000 247 240 234
3.737444e-001 -9.093692e-001 -7.144075e+000 140 121 72
1.589011e-001 8.617599e-001 -7.043734e+000 210 201 196
3.838613e-001 5.089771e-001 -6.775299e+000 233 224 217
-1.697610e-001 -6.047723e-002 -6.556282e+000 76 21 19
5.065065e-001 1.141695e-001 -6.585524e+000 138 126 114
5.353507e-001 -3.465255e-001 -6.629368e+000 170 148 100
-2.162764e-001 4.578181e-001 -7.579812e+000 215 206 197
2.659344e-002 -5.454813e-001 -6.766814e+000 39 31 29
6.569245e-001 3.621562e-001 -6.511344e+000 243 242 237
-1.347251e-001 2.820521e-002 -6.672566e+000 73 25 18
5.633761e-002 2.924338e-002 -6.735297e+000 142 132 122
-9.037325e-002 -2.838079e-001 -6.625380e+000 172 159 150
-1.472504e-001 -3.046313e-001 -6.572618e+000 171 161 150
2.553864e-001 5.688824e-001 -7.005318e+000 175 166 157
2.702465e-001 1.933470e-001 -6.806032e+000 124 113 103
-6.374034e-002 3.036710e-003 -6.670584e+000 149 136 128
-1.608882e-001 -2.362778e-001 -6.597167e+000 168 150 139
6.965303e-001 7.066643e-001 -6.476966e+000 122 32 33
-6.929867e-002 4.093408e-001 -7.209872e+000 164 156 145
-3.685571e-001 -5.187329e-002 -6.529264e+000 108 35 15
-2.446945e-001 -2.747933e-001 -6.432334e+000 168 149 148
1.025059e+000 7.613250e-002 -6.181074e+000 180 41 48
4.343197e-001 -8.142902e-002 -6.630464e+000 253 250 245
-7.389169e-002 -3.436466e-001 -6.714437e+000 240 237 230
5.867919e-001 -6.109098e-001 -6.682958e+000 181 39 35
7.625881e-001 5.450398e-001 -6.421267e+000 189 34 42
6.646392e-001 5.221521e-001 -6.468925e+000 249 64 78
9.317954e-001 2.059952e-001 -6.297777e+000 227 60 68
9.933590e-001 8.260669e-002 -6.172848e+000 121 11 20
-8.117851e+000 -5.987891e+000 -1.805714e+001 106 97 95
-3.256909e-001 7.413154e-001 -7.602133e+000 25 18 16
2.284800e-001 3.442465e-001 -6.907021e+000 134 124 111
3.448000e-002 9.247964e-001 -7.167651e+000 181 36 41
1.114608e+000 -1.213352e-001 -6.096587e+000 190 165 111
1.114608e+000 -1.213352e-001 -6.096587e+000 190 165 111
1.968379e-001 4.545108e-002 -6.704139e+000 132 120 108
-4.390636e-001 -9.084828e-002 -6.482770e+000 69 22 15
4.993558e-001 7.022671e-002 -6.975254e+000 142 132 120
5.573748e-001 5.407116e-001 -6.631526e+000 194 186 177
-8.884885e-002 3.150954e-001 -7.144724e+000 152 140 128
-8.464247e-002 1.592005e-001 -6.910740e+000 137 127 117
-4.704830e-002 1.303421e-001 -6.690911e+000 102 88 79
-5.275408e-001 -1.084351e-001 -6.741014e+000 114 51 31
-3.206112e-001 -1.596065e-001 -6.447832e+000 186 45 12
2.446903e-001 7.346632e-001 -6.973599e+000 195 186 181
-6.706299e-001 -1.208716e-001 -6.216124e+000 140 113 65
-6.599264e-001 -2.725482e-001 -6.466560e+000 51 37 33
-3.408862e-001 -1.568556e-001 -6.426541e+000 146 24 8
-4.627516e-001 -2.547025e-001 -6.369557e+000 220 167 124
-4.388857e-001 -2.214106e-001 -6.337005e+000 82 29 13
-4.388857e-001 -2.214106e-001 -6.337005e+000 82 29 13
-3.101059e-001 7.445343e-001 -7.562240e+000 20 20 18
2.645940e-001 5.784593e-001 -6.740300e+000 209 200 191
5.531702e-001 6.542609e-001 -6.530140e+000 187 177 171
-2.143427e-002 3.795754e-001 -7.102783e+000 180 172 162
-1.071645e-001 3.955479e-002 -6.651777e+000 89 32 21
-4.938188e-001 -2.661210e-001 -6.406253e+000 252 220 167
-4.604350e-001 -2.374952e-001 -6.365479e+000 253 210 175
1.428866e-001 1.490704e-001 -6.764936e+000 162 152 142
-4.164545e-001 -2.281688e-001 -6.521036e+000 160 51 24
-3.782978e-001 -2.199212e-001 -6.503107e+000 239 157 124
-1.690427e-001 -1.320884e-001 -6.486695e+000 218 101 62
3.698379e-001 8.702136e-001 -6.777794e+000 227 214 213
-6.610446e-002 4.187385e-001 -7.197496e+000 165 155 145
6.374842e-001 5.445754e-001 -6.502538e+000 208 52 57
5.758829e-001 4.780309e-001 -6.796170e+000 150 140 128
-6.479984e-001 -1.371958e-001 -6.299459e+000 46 31 24
-1.420534e-001 -1.252927e-001 -6.466113e+000 99 24 18
-4.316440e-001 -2.511323e-001 -6.396578e+000 237 191 148
-2.933097e-001 -2.790210e-001 -6.388733e+000 99 81 63
-6.033430e-001 -1.253532e-001 -6.235367e+000 140 117 76
4.959255e-001 9.013281e-001 -6.570766e+000 196 44 50
-4.675369e-001 -2.534741e-001 -6.371504e+000 232 174 132
-6.186833e-001 -1.042634e-001 -6.381918e+000 137 59 23
-1.843828e-001 -1.580719e-001 -6.443362e+000 227 105 57
2.943698e-001 6.938390e-001 -6.892741e+000 153 142 134
2.036347e-001 2.507577e-002 -3.390737e+000 0 255 0
2.021112e-001 2.458704e-002 -3.440711e+000 255 255 0
4.949148e-002 4.313874e-001 -3.532387e+000 255 0 0
4.996913e-002 4.233816e-001 -3.581740e+000 255 255 0
1.254070e-001 1.459026e-001 -3.520516e+000 0 255 0
1.250674e-001 1.421764e-001 -3.570376e+000 255 255 0
-2.036356e-003 6.913547e-001 -3.479522e+000 255 0 0
-4.964367e-004 6.801804e-001 -3.528233e+000 255 255 0
-6.755684e-002 8.148397e-001 -3.344101e+000 0 255 0
-6.541772e-002 8.004582e-001 -3.391940e+000 255 255 0
