ply
format ascii 1.0
element face 0
property list uchar int vertex_indices
element vertex 867
property float x
property float y
property float z
property uchar diffuse_red
property uchar diffuse_green
property uchar diffuse_blue
end_header
5.797251e-001 -1.905393e+000 -7.266781e+000 112 118 115
7.808081e-001 2.175367e-001 -6.575990e+000 208 200 185
8.183793e-001 8.405033e-001 -6.349874e+000 107 14 25
9.289911e-001 5.815845e-001 -6.348169e+000 167 33 42
1.242239e+000 -1.800300e+000 -6.438558e+000 178 180 175
-1.815181e-001 1.064417e+000 -7.521219e+000 169 32 39
-1.926382e-001 3.874018e-001 -7.416517e+000 206 196 184
4.386907e-001 1.181517e+000 -6.826638e+000 234 78 82
4.524919e-001 1.105991e+000 -6.801372e+000 211 178 166
-6.529280e-001 -2.736913e-001 -6.281161e+000 64 22 24
1.653502e-001 -6.783781e-002 -6.650081e+000 235 227 214
5.082867e-001 -5.602065e-001 -6.690015e+000 248 244 227
9.024106e-001 8.698330e-001 -6.386946e+000 21 11 12
7.053323e-001 -3.264139e-001 -6.509277e+000 178 165 147
1.139328e+000 2.126093e-001 -6.151334e+000 215 59 70
-4.634997e-001 4.723316e-001 -7.716976e+000 220 209 191
-1.501758e-001 4.438175e-001 -7.455387e+000 215 207 194
-1.566830e-001 4.550587e-001 -7.286382e+000 131 117 106
-2.688730e-001 2.798273e-001 -7.713014e+000 185 46 50
-1.840999e-001 3.087026e-001 -7.523622e+000 157 139 127
-1.598011e-001 2.410077e-001 -7.137216e+000 159 146 130
1.601220e-001 7.987257e-001 -7.056020e+000 182 172 162
5.135048e-001 3.311522e-001 -6.808981e+000 145 136 121
7.019846e-001 6.945245e-001 -6.549871e+000 235 226 211
8.039473e-001 8.862681e-001 -6.391747e+000 89 13 18
1.048596e+000 5.249664e-001 -6.172620e+000 234 78 88
-1.591415e-001 5.404099e-001 -7.491992e+000 228 220 209
-1.920117e-001 2.597727e-002 -7.607082e+000 75 11 16
-6.523033e-002 2.494691e-001 -6.983714e+000 123 111 96
-1.593228e-001 -1.639751e-001 -6.605191e+000 230 220 213
9.588845e-001 1.379255e-001 -6.342917e+000 229 222 211
1.130377e+000 -3.454867e-001 -6.101786e+000 174 151 101
7.658852e-001 -4.856649e-001 -6.447120e+000 254 252 203
8.800460e-001 -2.024851e-001 -6.327310e+000 245 237 228
-3.855166e-001 9.779541e-001 -7.640057e+000 211 63 69
1.359219e-001 4.604202e-001 -6.996039e+000 151 142 127
-6.119496e-001 -1.419921e-001 -6.448604e+000 74 20 18
5.827863e-001 -6.014190e-001 -6.637669e+000 145 122 98
8.869417e-001 -1.325275e-001 -6.297336e+000 231 222 213
2.164554e-001 6.563164e-001 -7.021533e+000 144 132 122
3.396265e-001 -5.937048e-002 -6.617962e+000 252 250 240
4.214382e-001 2.806104e-001 -6.797495e+000 136 123 107
1.410823e-002 1.382845e+000 -7.207198e+000 85 13 23
-1.302714e-001 5.650478e-001 -7.283784e+000 162 148 134
-1.579526e-001 2.132491e-001 -6.956839e+000 118 103 89
2.121275e-001 7.515263e-001 -7.026090e+000 191 184 174
-5.606417e-001 -6.651788e-002 -6.527953e+000 126 56 44
-4.223344e-001 -1.269977e-001 -6.472701e+000 126 31 15
5.229488e-001 -2.689764e+000 -7.412278e+000 180 193 183
4.757705e-001 -5.549447e-001 -6.728187e+000 232 228 216
-3.806914e-001 8.120120e-001 -7.653966e+000 174 152 139
1.980571e-001 1.032287e+000 -7.087519e+000 205 198 190
-2.179839e-001 1.457643e-001 -7.095777e+000 123 109 96
-2.973654e-001 9.191231e-002 -6.895685e+000 67 24 18
-1.761816e-001 1.230030e-001 -6.849772e+000 140 124 111
-6.085388e-002 2.007281e-001 -6.930131e+000 115 99 86
-1.887069e-002 2.514364e-001 -6.870716e+000 174 165 150
3.277570e-002 2.437370e-001 -6.945196e+000 161 148 132
-5.744285e-001 -8.990944e-002 -6.502573e+000 81 17 8
-5.270378e-001 -4.603926e-002 -6.542606e+000 86 21 12
2.071860e-001 2.753286e-001 -6.768403e+000 163 147 131
1.107812e-001 -2.335963e-001 -6.661794e+000 209 197 184
6.146572e-001 6.394049e-001 -6.554510e+000 160 148 133
5.136021e-001 -1.237941e-001 -6.563014e+000 238 232 220
5.232430e-001 -2.478007e-002 -6.528044e+000 201 192 177
8.704922e-001 -5.005035e-001 -6.304114e+000 225 212 179
1.331750e+000 -2.345519e+000 -6.298652e+000 169 167 170
-2.154983e-001 3.360163e-001 -7.588389e+000 175 163 149
-2.154983e-001 3.360163e-001 -7.588389e+000 175 163 149
-1.254028e-001 6.517113e-001 -7.361396e+000 148 136 122
-4.810442e-001 -7.344762e-002 -6.499292e+000 180 88 59
-4.810442e-001 -7.344762e-002 -6.499292e+000 180 88 59
1.935567e-001 1.492376e-003 -6.657026e+000 179 169 156
7.960709e-001 1.214162e-001 -6.513250e+000 208 198 189
9.516002e-001 5.721873e-001 -6.383351e+000 230 84 95
1.069559e+000 5.373539e-001 -6.165351e+000 30 15 15
1.196132e+000 -4.618022e-001 -6.079335e+000 162 56 53
-3.472951e-001 9.021216e-001 -7.568501e+000 224 69 77
-4.047231e-002 2.974890e-001 -7.030370e+000 135 121 108
-1.679146e-001 1.664050e-001 -6.791617e+000 155 139 124
5.071952e-003 1.326564e-001 -6.774822e+000 128 115 99
4.722105e-001 1.715297e-001 -6.640688e+000 197 183 170
8.142142e-001 1.431998e-001 -6.531235e+000 194 184 172
1.075893e+000 -3.673696e-001 -6.138457e+000 216 193 139
5.908818e-002 6.335859e-002 -6.725849e+000 196 186 176
5.119135e-001 6.111493e-001 -6.782680e+000 193 181 174
6.687813e-001 -7.790101e-001 -6.624585e+000 252 252 242
1.099287e+000 -6.781125e-001 -6.175098e+000 237 98 109
1.405646e+000 -3.830345e-001 -5.931109e+000 255 246 198
1.405646e+000 -3.830345e-001 -5.931109e+000 255 246 198
-4.369747e-001 7.592501e-001 -7.770944e+000 178 38 48
1.705537e-002 1.357007e+000 -7.191442e+000 200 53 55
1.798192e-001 6.281595e-001 -6.986589e+000 149 137 121
4.816552e-001 7.437427e-001 -6.762618e+000 252 245 237
8.472920e-001 9.368579e-001 -6.428199e+000 40 26 27
7.665198e-001 -6.538784e-001 -6.541743e+000 213 202 182
9.786236e-001 2.433315e-001 -6.275718e+000 175 157 145
1.035165e+000 -1.934636e-001 -6.244991e+000 216 202 193
1.406037e+000 -2.144706e-001 -5.945581e+000 250 242 186
9.766511e-001 1.212848e-001 -6.350290e+000 230 224 212
-2.050232e-001 -3.454198e-001 -7.503318e+000 238 231 220
7.395340e-001 8.026931e-001 -6.542648e+000 216 209 198
-5.025149e-001 -6.271697e-002 -6.507743e+000 117 27 18
9.806198e-001 -2.551158e-001 -6.247683e+000 85 70 54
-1.626985e-001 9.737853e-001 -7.472885e+000 174 158 147
7.960617e-001 5.725999e-001 -6.406638e+000 254 251 244
-2.372655e-001 -1.132929e-001 -7.605284e+000 208 201 185
1.246399e+000 -3.105307e-002 -6.083845e+000 180 46 54
-1.591575e-001 7.641128e-001 -7.440920e+000 224 217 207
-1.580037e-001 6.563100e-002 -7.474604e+000 124 59 57
-1.174573e-001 5.378287e-001 -7.285084e+000 181 168 152
-7.841437e-001 -2.820724e-001 -6.806373e+000 210 139 115
-9.113423e-001 -3.446680e-001 -6.488876e+000 218 193 173
-9.088801e-001 -3.249034e-001 -6.499311e+000 130 47 25
-2.641342e-001 1.336522e-001 -6.846478e+000 81 40 31
2.787482e-001 1.386657e+000 -6.951939e+000 182 42 51
-6.820022e-001 -2.741607e-001 -6.275001e+000 45 15 13
-6.762659e-001 -2.689520e-001 -6.260027e+000 163 160 148
2.626879e-001 1.579818e-001 -6.710874e+000 183 171 156
2.626879e-001 1.579818e-001 -6.710874e+000 183 171 156
4.235171e-001 -8.076571e-003 -6.572031e+000 254 245 236
7.272856e-001 -1.239035e+000 -6.879065e+000 127 126 122
5.814200e-001 -4.479209e-001 -6.701860e+000 154 137 115
7.941167e-001 -1.517833e+000 -6.868324e+000 157 159 156
8.540097e-001 -1.492307e+000 -6.779048e+000 174 176 175
8.777163e-001 7.809291e-001 -6.353254e+000 250 75 85
1.099370e+000 -1.754882e+000 -6.582257e+000 183 183 185
1.194734e+000 -3.033990e+000 -6.589262e+000 162 157 163
1.194734e+000 -3.033990e+000 -6.589262e+000 162 157 163
1.129751e+000 -1.796170e+000 -6.537230e+000 182 181 187
1.088091e+000 -1.144086e+000 -6.462741e+000 171 166 170
1.007089e+000 7.010647e-001 -6.300801e+000 81 68 68
1.085834e+000 2.995190e-002 -6.125653e+000 232 92 100
1.453090e+000 -5.779081e-001 -5.926180e+000 155 149 153
-2.898061e-001 6.797843e-001 -7.592605e+000 237 233 222
-7.673370e-002 8.583232e-001 -7.234886e+000 212 202 193
-1.998899e-001 -1.252275e-001 -7.429807e+000 178 165 150
1.825393e-001 1.057783e+000 -7.097779e+000 217 210 200
1.045088e-001 7.046364e-001 -7.082711e+000 237 229 218
-9.265991e-001 -3.461047e-001 -6.498063e+000 39 17 15
-1.802430e-001 1.799591e-001 -6.878910e+000 140 124 111
1.343949e-002 -3.813574e+000 -8.135699e+000 184 192 194
-3.744562e-001 -6.227241e-002 -6.597965e+000 82 18 14
-3.742243e-001 -2.711128e-002 -6.585955e+000 87 23 13
-3.042996e-001 -2.185535e-002 -6.721623e+000 53 13 13
-4.572814e-001 -1.974897e-001 -6.455645e+000 250 148 120
3.854248e-001 2.746407e-001 -6.788455e+000 159 142 126
4.474000e-001 -5.131265e-001 -6.748660e+000 168 148 111
7.320149e-001 1.038865e+000 -6.497360e+000 216 73 82
9.834044e-001 -2.300715e+000 -6.723022e+000 170 170 172
9.825853e-001 -1.349604e+000 -6.681657e+000 169 169 169
7.513558e-001 -2.806356e-001 -6.442002e+000 183 171 159
1.075771e+000 -1.837361e+000 -6.646744e+000 153 154 156
9.298943e-001 7.903248e-001 -6.329084e+000 76 63 64
1.309856e+000 -2.453722e+000 -6.314611e+000 167 165 168
1.127249e+000 -4.085620e-001 -6.106657e+000 191 168 118
1.397713e+000 -1.918835e-001 -5.903489e+000 149 140 141
1.445530e+000 -1.401490e-001 -5.932029e+000 142 138 138
-3.319602e-001 3.074838e-001 -7.829970e+000 56 47 42
-2.872186e-001 8.598872e-002 -7.652973e+000 153 25 32
-1.188624e-001 6.136605e-001 -7.426802e+000 204 194 182
2.220624e-002 1.164180e+000 -7.233892e+000 223 207 194
5.605470e-002 1.377734e+000 -7.183533e+000 75 8 16
-1.583714e-001 5.539862e-001 -7.259430e+000 147 134 119
9.407990e-002 6.492026e-001 -7.097900e+000 214 205 194
-7.769853e-001 -2.144468e-001 -6.233160e+000 47 11 17
5.514354e-001 1.291279e+000 -6.746676e+000 72 58 55
7.924574e-001 -1.566099e+000 -6.943693e+000 158 163 157
6.232350e-001 -3.042170e-001 -6.635244e+000 180 169 149
7.434623e-001 -1.088149e+000 -6.814850e+000 154 153 149
6.140001e-001 -2.957438e-001 -6.585972e+000 254 250 238
8.065481e-001 9.607284e-001 -6.459746e+000 213 70 78
8.493197e-001 9.220781e-001 -6.412233e+000 23 14 17
1.062071e+000 -1.853854e+000 -6.624111e+000 179 180 182
1.041399e+000 -1.727083e+000 -6.606736e+000 190 190 192
7.973830e-001 -3.642415e-001 -6.300141e+000 231 211 155
1.236591e+000 4.170400e-002 -6.029003e+000 229 103 110
-1.806062e-001 3.082761e-001 -7.189330e+000 177 165 149
3.744537e-001 1.296435e+000 -6.886782e+000 209 49 61
6.836328e-001 -4.736998e-001 -6.634307e+000 214 209 190
8.854868e-001 -7.036447e-001 -6.456004e+000 254 253 249
-5.600744e-001 5.912524e-001 -7.975576e+000 230 75 79
-6.454575e-002 7.762213e-001 -7.281223e+000 136 123 110
-6.490305e-002 8.245018e-001 -7.203971e+000 169 155 143
-4.123067e-001 -1.152059e-001 -7.024293e+000 124 117 119
-4.231439e-001 9.891986e-003 -6.878528e+000 90 38 25
-4.266127e-001 1.505506e-002 -6.874711e+000 90 38 25
3.968654e-001 1.335465e+000 -6.854280e+000 229 73 86
-7.864112e-001 -2.191811e-001 -6.277846e+000 51 22 10
2.004203e-001 -2.306846e-002 -6.642275e+000 254 255 243
5.433388e-001 3.934603e-001 -6.785040e+000 211 201 192
7.738790e-001 -8.982190e-001 -6.605289e+000 169 51 49
9.179063e-001 -1.751535e+000 -6.717801e+000 156 158 157
9.140297e-001 -7.315115e-001 -6.429638e+000 220 211 196
1.437208e+000 -4.655357e-001 -5.954027e+000 127 123 124
-1.645149e-001 4.061824e-001 -7.387170e+000 147 134 117
-4.982584e-001 -1.146968e-001 -7.027124e+000 129 127 126
-6.254279e-001 -2.269848e-001 -6.388310e+000 149 70 48
4.226688e-001 1.123782e+000 -6.827988e+000 249 241 239
1.314322e-001 1.115748e-002 -6.708330e+000 141 128 115
1.314322e-001 1.115748e-002 -6.708330e+000 141 128 115
5.035409e-001 8.132680e-001 -6.804655e+000 249 245 236
4.732577e-001 -6.194161e-001 -6.675990e+000 228 222 210
5.821058e-001 -2.225687e-001 -6.550264e+000 253 246 236
7.738435e-001 -8.137911e-001 -6.531985e+000 248 237 228
7.579540e-001 -7.920521e-001 -6.522005e+000 248 237 228
7.651919e-001 -9.776577e-002 -6.386318e+000 245 241 232
1.165142e+000 -5.597002e-001 -6.155264e+000 178 35 39
1.243978e+000 7.477225e-002 -6.055282e+000 125 15 24
1.243978e+000 7.477225e-002 -6.055282e+000 125 15 24
1.427257e+000 -3.940401e-001 -5.950103e+000 255 251 205
-2.557710e-001 -3.685082e-001 -7.630603e+000 223 216 205
-1.888543e-001 -7.872693e-002 -6.613386e+000 94 33 32
-2.557413e-001 -1.942502e-001 -6.442463e+000 112 25 18
-2.695669e-001 5.971682e-001 -7.565269e+000 229 222 212
-5.405243e-001 -2.784571e-001 -6.425618e+000 246 208 163
-9.052806e-002 -1.242140e-001 -6.612008e+000 253 246 240
2.019163e-001 2.347294e-001 -6.793386e+000 222 214 203
-4.409201e-001 9.190012e-001 -7.758930e+000 215 62 67
-4.906847e-001 5.819583e-001 -7.840948e+000 194 184 172
-5.884830e-001 6.830946e-001 -7.911020e+000 202 46 50
-1.815629e-001 1.507869e-001 -7.444896e+000 88 17 24
-1.815629e-001 1.507869e-001 -7.444896e+000 88 17 24
-1.083370e-001 9.541764e-001 -7.226353e+000 229 222 212
6.040884e-001 6.427387e-001 -6.736945e+000 233 226 216
1.353620e+000 -2.945494e-001 -5.989482e+000 255 251 203
5.730004e-001 1.526958e-001 -6.554158e+000 154 141 123
1.026447e+000 1.029687e-001 -6.305427e+000 253 246 240
-3.559852e-001 1.068088e+000 -7.716060e+000 21 12 15
1.996431e-001 1.356405e+000 -7.281043e+000 16 7 10
-3.255511e-001 6.585950e-001 -7.625913e+000 226 220 208
-1.380339e+000 -1.213591e+001 -1.061169e+001 96 98 111
8.455975e-001 6.383337e-001 -6.397509e+000 244 76 87
-3.240208e-002 8.426817e-001 -7.413011e+000 222 214 203
-1.619189e-002 3.862259e-001 -7.114974e+000 145 132 115
-1.324955e-001 6.963482e-001 -7.278426e+000 168 155 141
1.137838e+000 -1.001063e+000 -6.382314e+000 142 141 139
6.685557e-001 5.856247e-001 -6.632201e+000 170 158 142
-2.136086e-001 -2.170650e-001 -7.558855e+000 178 166 150
-1.737621e-001 3.056750e-001 -7.379881e+000 175 163 151
-7.180079e-002 8.137760e-001 -7.238861e+000 187 175 161
2.647914e-001 1.210098e+000 -7.032626e+000 216 61 69
1.734685e-001 -3.790332e+000 -7.980479e+000 179 188 183
-5.556506e-001 -4.934323e-002 -6.535353e+000 83 19 10
-2.545018e-001 2.715937e-002 -6.730561e+000 63 23 19
7.984385e-001 -1.607150e+000 -6.920281e+000 116 122 118
-6.273152e-001 6.532675e-001 -8.027224e+000 44 33 30
-3.715976e-001 8.039714e-001 -7.662999e+000 169 155 139
-1.649358e-001 1.708766e-001 -7.020875e+000 152 136 121
-1.649358e-001 1.708766e-001 -7.020875e+000 152 136 121
-1.596923e-001 1.812120e-001 -7.030531e+000 121 105 90
3.028473e-001 3.269537e-001 -6.840511e+000 145 131 118
3.757306e-001 2.828042e-001 -6.787738e+000 159 142 126
7.289752e-001 -5.936159e-002 -6.441882e+000 239 231 220
1.113455e+000 -2.992561e+000 -6.707170e+000 164 162 165
9.484465e-001 6.280941e-001 -6.332803e+000 192 49 57
1.109789e+000 -2.294354e-001 -6.212625e+000 139 113 100
-1.035385e-001 6.312488e-001 -7.415592e+000 191 179 165
-1.477443e-001 3.807238e-001 -7.266393e+000 172 158 145
5.380458e-001 3.181578e-002 -6.525716e+000 177 166 147
9.736093e-001 -2.518597e-001 -6.287840e+000 158 141 129
1.056966e+000 -3.481677e-001 -6.129400e+000 227 205 154
1.126781e+000 -6.183950e-001 -6.143898e+000 235 106 111
1.402577e-001 6.425413e-001 -7.034016e+000 158 145 129
5.850050e-001 5.605347e-001 -6.732717e+000 166 157 144
7.008321e-001 8.021528e-001 -6.600262e+000 193 183 174
1.894259e+000 -1.108886e+001 -6.308176e+000 99 102 133
1.568044e+000 -1.052921e+001 -6.371702e+000 108 113 143
-4.571582e-001 7.795093e-001 -7.746985e+000 179 40 48
3.325210e-001 1.226396e+000 -6.937993e+000 217 62 68
-4.737971e-001 5.813887e-001 -7.843566e+000 195 185 173
3.376396e-001 8.980624e-001 -6.920681e+000 156 144 130
-3.899388e-001 1.019104e+000 -7.634161e+000 177 41 54
-1.314307e-001 -2.194844e+000 -8.088173e+000 153 160 152
-1.372039e-001 1.449125e-001 -7.505186e+000 140 35 37
-7.748310e-001 -2.824824e-001 -6.821980e+000 102 34 16
2.017620e-002 1.379834e+000 -7.167166e+000 175 36 46
-7.510763e-001 -2.671682e-001 -6.800217e+000 160 166 153
-7.407938e-001 -1.827627e-001 -6.814172e+000 172 80 53
-2.274065e-001 1.526184e-001 -7.079276e+000 123 106 94
-7.782645e-002 1.807200e-001 -6.963173e+000 119 103 88
-1.920404e-002 2.561680e-001 -6.958473e+000 153 137 122
-2.807340e-001 5.147495e-002 -6.695322e+000 107 79 68
-1.363032e-001 1.074648e-001 -6.726099e+000 156 140 127
7.230384e-003 5.733847e-002 -6.728989e+000 182 168 156
2.675570e-002 5.259931e-002 -6.706477e+000 143 130 117
9.641986e-002 -1.759662e-001 -6.634994e+000 212 199 184
7.796469e-001 -1.955934e+000 -6.991443e+000 137 137 139
8.301779e-001 -1.983572e+000 -6.986334e+000 132 133 135
7.371925e-001 -1.590401e+000 -6.913499e+000 183 183 183
6.779809e-001 -6.874745e-001 -6.615697e+000 236 219 199
9.982934e-001 -4.729128e-001 -6.406014e+000 172 152 126
1.109939e+000 5.101051e-001 -6.388856e+000 218 75 79
1.198410e+000 -5.186893e-001 -6.120128e+000 203 124 111
1.536868e+000 -1.122623e+000 -5.941629e+000 143 137 137
1.484440e+000 -5.195056e-001 -5.933221e+000 167 161 161
-5.565046e-001 6.145590e-001 -7.888708e+000 238 75 81
-2.168422e-001 1.168450e-002 -7.584346e+000 169 95 86
-1.829520e-001 -2.495480e+000 -8.209827e+000 155 162 155
-1.107346e-001 -1.648820e+000 -7.959498e+000 165 169 163
-1.135147e-001 -8.770827e-001 -7.837154e+000 140 140 132
-1.135147e-001 -8.770827e-001 -7.837154e+000 140 140 132
-1.221759e-001 5.962413e-001 -7.381981e+000 169 156 140
-7.504525e-002 8.526993e-001 -7.306109e+000 209 199 187
-1.869134e-001 -1.338230e-001 -7.250622e+000 246 242 229
-4.515943e-001 -2.835932e-002 -6.811899e+000 82 41 36
-1.639258e-001 2.230033e-001 -6.971500e+000 155 137 124
2.027580e-001 1.031259e+000 -7.096931e+000 214 205 196
2.005278e-001 1.033967e+000 -7.095272e+000 214 205 196
-9.702873e-001 -2.343272e-001 -6.264537e+000 177 159 132
-1.846286e-001 1.617832e-001 -6.780137e+000 113 95 83
2.542010e-001 2.878790e-001 -6.845602e+000 133 117 101
3.802575e-001 1.328336e+000 -6.873146e+000 201 47 54
4.049481e-001 2.377346e-001 -6.779147e+000 137 119 104
8.048043e-001 -2.655521e+000 -7.100718e+000 188 186 187
1.092040e+000 -2.643254e+000 -6.722980e+000 159 157 162
8.131198e-001 -6.324206e-001 -6.527350e+000 255 255 210
7.614866e-001 6.830549e-001 -6.452243e+000 155 132 116
9.253416e-001 1.360845e-001 -6.408742e+000 247 240 230
1.128557e+000 -1.109600e+000 -6.459746e+000 141 139 142
8.651267e-001 1.046475e+000 -6.370061e+000 67 55 55
9.711110e-001 5.948774e-001 -6.337107e+000 221 74 80
1.066990e+000 -3.582069e-001 -6.137448e+000 226 209 157
1.078010e+000 5.175043e-001 -6.189866e+000 227 75 88
1.189883e+000 -4.575381e-001 -6.074472e+000 175 43 49
1.659623e+000 -1.240072e+000 -5.899554e+000 130 126 125
1.530348e+000 -7.209660e-001 -5.901117e+000 168 164 163
1.366926e+000 -2.702530e-001 -5.908478e+000 155 144 141
1.606875e+000 -1.157618e+000 -5.855905e+000 121 117 114
-2.048294e-001 -2.215019e+000 -8.138847e+000 202 208 204
-1.311743e-001 7.412595e-001 -7.356766e+000 155 146 131
-9.309895e-001 -3.351647e-001 -6.471132e+000 34 8 3
2.651075e-001 9.465030e-001 -7.030476e+000 215 206 196
1.611907e-001 3.190795e-001 -6.825101e+000 145 127 107
1.990607e-001 -7.152822e-002 -6.632875e+000 219 210 194
5.326004e-001 -5.096396e-001 -6.715701e+000 203 186 139
5.757007e-001 -4.127357e-001 -6.600853e+000 145 122 78
8.906956e-001 -9.970082e-001 -6.581206e+000 132 123 124
8.135591e-001 -7.255273e-001 -6.332047e+000 138 136 141
8.578406e-001 -6.655114e-001 -6.440294e+000 253 253 244
8.960165e-001 -6.224224e-001 -6.431591e+000 254 243 184
1.756936e+000 -7.483014e+000 -6.043166e+000 56 54 65
1.147135e+000 -4.394344e-001 -6.096339e+000 252 230 176
1.249952e+000 9.322204e-002 -6.014510e+000 186 118 116
1.490738e+000 -4.995758e-001 -5.911160e+000 169 163 161
1.526719e+000 -7.326403e-001 -5.867629e+000 148 142 142
1.526719e+000 -7.326403e-001 -5.867629e+000 148 142 142
-3.021736e-001 3.998357e-002 -7.698529e+000 78 55 49
-1.819074e-001 1.178108e+000 -7.399157e+000 200 59 64
-2.532785e-001 2.995555e-001 -7.478570e+000 215 196 182
-1.380282e-001 -1.894269e+000 -8.122334e+000 154 159 153
-1.047157e-001 1.522250e-001 -7.525162e+000 130 15 23
-7.700864e-001 -3.009175e-001 -6.766112e+000 169 164 148
-7.408831e-001 -1.503379e-001 -6.752328e+000 97 29 16
-1.540625e-001 1.954365e-001 -7.122394e+000 122 105 94
1.143632e-001 1.224961e+000 -7.116816e+000 229 72 78
-9.699415e-001 -2.253053e-001 -6.281659e+000 62 27 13
-5.318062e-001 -2.427063e-001 -6.426757e+000 196 111 76
-1.594296e-001 -1.102246e-001 -6.610956e+000 95 25 19
5.187751e-001 -5.191525e-001 -6.659898e+000 132 111 77
5.576051e-001 -5.630497e-001 -6.683165e+000 132 111 77
7.904622e-001 7.920680e-001 -6.503286e+000 194 41 51
3.564177e+000 -1.132008e+001 -6.163363e+000 73 71 84
3.153160e+000 -9.292120e+000 -5.683595e+000 91 92 110
1.543199e+000 -7.359722e-001 -5.948759e+000 133 127 127
1.386200e+000 -9.865479e-002 -5.982721e+000 158 153 150
-1.460396e-001 1.112766e+000 -7.462129e+000 191 51 54
-1.538068e-001 4.701312e-001 -7.480969e+000 168 154 135
-1.781042e-001 -1.310483e-001 -6.587938e+000 246 244 229
3.377643e-001 -6.013118e-001 -6.697549e+000 248 247 236
3.377643e-001 -6.013118e-001 -6.697549e+000 248 247 236
7.880378e-001 -1.081454e+000 -6.759186e+000 169 167 169
9.813520e-001 -7.182301e-001 -6.313171e+000 249 242 236
1.143688e+000 5.324574e-001 -6.212798e+000 92 83 81
2.667862e+000 -1.087549e+001 -5.707423e+000 111 112 140
3.126948e+000 -9.478800e+000 -5.847747e+000 17 14 23
3.217808e+000 -9.729734e+000 -5.767093e+000 78 77 91
1.317760e+000 -8.161882e-002 -6.024454e+000 157 145 143
3.136389e+000 -1.038323e+001 -5.533814e+000 91 94 116
3.259521e+000 -1.038532e+001 -5.510575e+000 19 16 26
3.304034e+000 -1.024475e+001 -5.495284e+000 101 105 130
-4.508962e-001 5.390171e-001 -7.724731e+000 185 170 157
-2.326267e-001 5.388773e-001 -7.560067e+000 200 190 178
-1.673585e-001 3.606802e-001 -7.458262e+000 219 212 193
-9.476593e-002 7.460077e-001 -7.408540e+000 198 189 174
-3.507379e-001 -2.286682e-001 -6.471469e+000 144 29 20
5.294941e-001 4.683509e-001 -6.767918e+000 196 184 172
6.325302e-001 2.106401e-001 -6.677682e+000 169 157 143
1.418410e+000 -2.799316e-001 -5.911484e+000 160 153 154
-1.756813e-001 -1.026126e-001 -7.399417e+000 196 185 167
-7.027609e-001 -9.883136e-002 -6.916339e+000 80 23 13
-8.948478e-001 -2.679239e-001 -6.403353e+000 211 122 87
2.299721e-001 3.943560e-001 -6.885595e+000 210 202 187
1.546879e-001 -4.786607e-001 -6.689388e+000 255 255 245
5.204191e-001 1.244611e+000 -6.719066e+000 222 69 74
5.230245e-001 -4.402957e-001 -6.628286e+000 254 251 203
1.031954e+000 5.129415e-001 -6.187620e+000 232 85 86
-3.236511e-002 7.873419e-001 -7.163534e+000 233 225 214
3.139924e-001 -2.806640e-001 -6.661165e+000 101 79 56
-1.912603e-001 1.049093e+000 -7.505379e+000 200 53 60
-1.498535e-001 8.994917e-001 -7.346490e+000 229 221 208
1.967308e-001 8.513287e-002 -6.688329e+000 157 145 129
9.535128e-001 2.261289e-001 -6.357957e+000 252 251 241
-5.751312e-001 6.675423e-001 -7.930679e+000 207 52 56
-1.441222e-001 2.849140e-001 -7.470904e+000 199 187 173
-8.183132e-001 -1.574108e-001 -6.825235e+000 152 157 143
7.784490e-001 7.427668e-001 -6.440266e+000 149 35 40
8.837445e-001 7.285947e-001 -6.355069e+000 242 76 86
2.133092e-001 6.599284e-001 -7.017654e+000 155 140 126
-2.381223e-001 -2.540974e-002 -6.643380e+000 93 34 29
3.405461e-001 8.970074e-001 -6.926302e+000 156 142 129
9.181786e-001 5.574443e-001 -6.281154e+000 152 25 33
-2.384886e-001 1.484765e-001 -7.660708e+000 135 15 28
1.088468e+000 -8.934704e-003 -6.259015e+000 243 236 226
4.392641e-001 6.316639e-001 -6.862080e+000 230 222 211
5.243537e-001 9.095926e-001 -6.706371e+000 241 234 228
-7.106443e-002 1.338769e+000 -7.388238e+000 29 20 23
1.070325e+000 7.267584e-001 -6.395712e+000 83 69 66
5.316293e-002 9.414273e-001 -6.840156e+000 216 208 195
-1.461067e-001 1.007978e+000 -7.476732e+000 214 207 190
-1.620490e-001 3.370822e-001 -7.306026e+000 163 151 137
-3.058757e-001 7.906469e-001 -7.639980e+000 211 200 188
-8.674405e-001 -3.523912e-001 -6.513823e+000 154 152 151
-1.405931e-001 1.945040e-001 -7.014741e+000 121 105 92
-5.349216e-001 -4.040828e-002 -6.522381e+000 144 70 54
6.580528e-001 7.759382e-001 -6.572217e+000 204 190 178
8.147368e-001 8.683712e-001 -6.364135e+000 167 54 60
1.466052e+000 -1.119520e+000 -6.042179e+000 135 131 132
1.182473e+000 1.342892e-001 -6.157127e+000 224 83 90
-1.232861e-001 6.502901e-001 -7.477426e+000 165 154 138
9.910468e-002 7.090583e-001 -7.081740e+000 229 221 210
-3.364005e-001 -1.774959e-001 -6.461142e+000 132 41 27
1.232990e+000 -8.598851e-001 -6.210932e+000 133 127 128
9.953148e-001 2.680718e-001 -6.284204e+000 249 239 232
-4.988974e-001 -2.017985e-001 -7.057912e+000 58 18 19
-4.988974e-001 -2.017985e-001 -7.057912e+000 58 18 19
5.347141e-001 5.600370e-001 -6.745012e+000 206 194 180
5.856375e-001 5.544535e-001 -6.781359e+000 171 161 149
7.137483e-001 -3.376057e-001 -6.517007e+000 177 165 146
7.508306e-001 8.431590e-001 -6.524340e+000 210 63 73
-3.576810e-001 3.409968e-001 -7.799947e+000 70 56 56
-2.679598e-001 -3.709372e-001 -7.724279e+000 98 88 85
-1.661287e-001 1.318764e-001 -6.876418e+000 110 92 80
-4.030829e-001 -3.929606e-001 -6.429421e+000 110 26 26
7.101801e-001 -8.203446e-001 -6.580382e+000 164 40 44
1.023704e+000 2.055436e-001 -6.250680e+000 246 237 228
1.059151e+000 2.995775e-001 -6.238525e+000 234 90 97
1.441164e+000 -2.342407e-001 -5.946779e+000 255 243 193
-4.031156e-002 4.983324e-001 -7.204630e+000 200 189 179
9.659602e-001 -8.547800e-001 -6.415856e+000 247 238 229
8.204125e-001 -2.714655e-001 -6.394120e+000 248 242 231
2.809458e-002 1.212196e+000 -7.219854e+000 196 46 48
-9.235149e-001 -3.175951e-001 -6.464666e+000 114 59 47
-6.380899e-001 -2.399770e-001 -6.379383e+000 125 57 35
6.447426e-001 -6.681381e-001 -6.662535e+000 154 137 111
2.889446e+000 -9.453798e+000 -5.997981e+000 17 16 22
1.324553e+000 -5.915279e-002 -5.997307e+000 158 154 153
5.970424e-001 1.170043e+000 -6.649371e+000 216 71 74
1.205857e+000 -4.150650e-001 -6.092990e+000 135 118 82
2.016098e-001 8.598856e-001 -7.046698e+000 236 229 221
7.748576e-001 7.468913e-001 -6.439975e+000 138 38 36
-7.733755e-001 -2.847816e-001 -6.823684e+000 102 34 16
-7.369442e-001 -2.258784e-001 -6.793962e+000 123 32 23
5.758555e-001 1.142778e+000 -6.672213e+000 232 78 85
8.836683e-001 1.205126e-001 -6.437646e+000 240 232 220
1.185798e+000 -5.493585e-001 -6.125816e+000 178 144 145
-2.905428e-001 1.085529e+000 -7.571369e+000 171 32 39
4.981430e-001 2.427429e-001 -6.719153e+000 138 124 108
5.996585e-001 5.891485e-001 -6.653916e+000 146 134 118
9.157095e-001 6.075985e-001 -6.344946e+000 230 85 92
9.627740e-001 -2.497684e-001 -6.289858e+000 158 144 125
1.457906e+000 -1.113411e+000 -6.042226e+000 124 120 119
8.853555e-001 1.049329e+000 -6.356548e+000 63 51 51
1.119070e+000 2.563363e-001 -6.159124e+000 239 90 96
2.679816e+000 -9.283790e+000 -5.964441e+000 73 71 84
-1.496905e-001 1.142644e+000 -7.262375e+000 145 117 104
3.234138e+000 -9.263466e+000 -5.628038e+000 71 72 84
4.113389e-001 3.740453e-001 -6.846273e+000 194 180 167
3.495884e-001 1.212268e+000 -6.942679e+000 217 60 67
-2.447853e-001 -2.182921e-001 -7.609470e+000 213 201 189
-2.054790e-001 -2.498684e-001 -7.572752e+000 209 197 183
-1.421048e-001 -3.838956e-002 -7.481591e+000 131 103 92
1.283857e-001 1.168635e+000 -7.217982e+000 206 43 54
5.020798e-001 -4.264337e-001 -6.643673e+000 209 194 142
9.264791e-001 6.981285e-001 -6.325437e+000 197 53 62
-3.484111e-001 -8.886103e-003 -6.616341e+000 67 19 17
2.998736e-001 1.429172e-002 -7.079263e+000 166 153 137
-2.924597e-001 7.374603e-001 -7.496873e+000 230 223 213
-2.254272e-001 1.083640e+000 -7.572396e+000 177 33 40
-2.709367e-001 1.386056e-001 -6.836666e+000 78 36 30
2.345980e+000 -9.685464e+000 -6.663207e+000 47 45 50
3.123875e+000 -9.261808e+000 -5.621044e+000 45 44 57
1.238897e+000 8.505515e-003 -6.025088e+000 168 48 46
-1.704434e-001 6.434088e-001 -7.485354e+000 172 160 148
9.052543e-001 4.814759e-001 -6.324932e+000 185 163 149
3.454593e+000 -9.144821e+000 -5.385870e+000 59 55 64
-4.750561e-001 -7.636122e-002 -6.473453e+000 121 43 32
2.805560e+000 -9.458748e+000 -5.861326e+000 74 77 87
3.084516e+000 -1.027190e+001 -5.526681e+000 87 92 115
3.028325e+000 -9.715144e+000 -5.818176e+000 32 28 42
-2.479313e-001 3.288618e-001 -7.617918e+000 210 198 186
-2.082669e-001 -1.673299e-001 -7.613703e+000 191 179 163
-2.082669e-001 -1.673299e-001 -7.613703e+000 191 179 163
-2.254462e-001 1.383414e+000 -6.971220e+000 215 55 61
-6.347092e-002 5.552757e-001 -7.205737e+000 182 172 160
5.290887e-001 1.986748e-002 -6.524109e+000 178 165 146
-7.583942e-001 -2.733466e-001 -6.781623e+000 126 28 21
5.293107e-001 5.604683e-001 -6.745973e+000 206 194 180
3.345531e+000 -1.082291e+001 -5.116110e+000 243 247 253
3.151486e+000 -1.096773e+001 -5.384708e+000 25 24 29
3.306838e-001 -3.408958e+000 -7.790680e+000 186 185 183
1.923975e-001 -1.714536e+000 -7.696513e+000 170 169 167
-1.568140e-001 3.886820e-001 -7.479840e+000 216 204 191
4.789952e-001 -2.957932e+000 -7.525923e+000 166 164 167
-2.451524e-002 -4.148518e-001 -7.360456e+000 182 131 86
-6.748123e-002 5.684057e-001 -7.169334e+000 196 186 174
-9.090209e-001 -2.523010e-001 -6.368726e+000 178 112 88
-2.731921e-001 1.427273e-001 -6.841996e+000 82 39 32
2.624169e+000 -9.415370e+000 -6.107533e+000 32 30 41
5.478790e-001 -1.934813e-001 -6.559826e+000 222 214 201
5.051968e-001 -5.912811e-002 -6.536542e+000 224 216 205
1.183295e+000 -1.688629e+000 -6.420265e+000 145 139 139
1.547419e+000 -1.102217e+000 -5.882309e+000 156 158 157
-5.056438e-001 8.266920e-001 -7.897722e+000 15 13 23
-1.613005e-001 -8.002350e-002 -7.528091e+000 198 186 170
-1.749679e-001 3.320872e-001 -7.320887e+000 153 141 127
5.511081e-001 -2.778341e+000 -7.426030e+000 139 137 140
-1.715192e-001 1.929910e-001 -7.046304e+000 146 129 115
-1.550748e-001 1.602235e-001 -6.785677e+000 152 135 121
1.113641e-001 2.476169e-001 -6.854975e+000 165 151 138
2.064614e-001 1.014871e+000 -7.075868e+000 199 192 182
1.304750e-001 1.225634e-001 -6.756232e+000 199 192 176
-5.985416e-001 6.030265e-001 -8.051224e+000 198 56 54
-6.014014e-001 6.050371e-001 -8.049053e+000 198 56 54
-1.509070e-001 6.779923e-001 -7.481506e+000 212 203 190
-3.008370e-001 1.241274e-001 -6.823512e+000 79 48 44
-4.851524e-001 -4.987723e-002 -6.500167e+000 149 62 44
-1.754284e-001 4.359364e-002 -6.664889e+000 192 178 167
-1.408767e-001 9.708295e-002 -6.707067e+000 135 121 108
4.318421e-001 2.643399e-001 -6.762266e+000 128 112 97
4.413022e-001 1.365400e+000 -6.842249e+000 76 64 62
5.546002e-001 -1.703946e-002 -6.489706e+000 184 171 152
1.027289e+000 -7.506145e-002 -6.292554e+000 242 237 230
9.427687e-001 5.902610e-001 -6.370058e+000 233 90 99
-2.011185e-001 -1.394013e-001 -7.337044e+000 166 151 132
-7.012757e-001 -1.374986e-001 -6.794670e+000 118 51 33
-6.117133e-002 7.950646e-001 -7.348251e+000 161 149 137
-2.822144e-001 1.309265e-001 -6.804573e+000 70 21 17
5.678308e-002 6.600523e-002 -6.725371e+000 197 188 173
3.023435e-001 7.722054e-002 -6.639311e+000 235 230 215
2.540671e-001 1.412739e+000 -7.113601e+000 64 55 56
2.832267e+000 -9.338947e+000 -5.971167e+000 19 18 22
4.402100e-001 1.053996e+000 -6.796537e+000 210 202 186
6.445202e-001 9.738443e-001 -6.628501e+000 230 81 91
-2.625431e-001 6.096052e-001 -7.557266e+000 231 223 212
-1.924580e-001 3.800261e-001 -7.330250e+000 205 196 182
2.754427e-001 5.986544e-001 -6.952072e+000 227 223 211
3.441345e-001 2.103176e-001 -6.689170e+000 208 200 183
5.268994e-001 5.442075e-001 -6.803857e+000 237 229 218
-1.778606e-001 5.804728e-001 -7.465532e+000 218 210 197
-1.729969e-001 3.042299e-001 -7.224891e+000 177 164 148
-1.729969e-001 3.042299e-001 -7.224891e+000 177 164 148
-1.093693e-001 6.416136e-001 -7.245594e+000 136 119 103
2.840318e+000 -1.048540e+001 -5.625061e+000 85 90 112
-1.979938e-001 8.348229e-001 -7.483625e+000 143 124 110
-1.537010e-001 4.488722e-001 -7.375662e+000 143 127 111
-1.328451e-001 8.938107e-001 -7.358524e+000 215 207 194
-1.071029e-001 8.771541e-001 -7.368726e+000 215 207 194
-1.750801e-001 -6.525861e-002 -7.534336e+000 208 200 183
-1.413789e-001 2.897060e-001 -7.477973e+000 198 181 166
7.485987e-003 5.782939e-001 -7.154403e+000 201 191 179
1.225935e-002 5.761414e-001 -7.158242e+000 201 191 179
3.510614e-002 7.685165e-001 -7.126988e+000 219 210 201
7.066584e-001 3.302678e-001 -6.612194e+000 236 228 215
-3.094516e-001 1.013076e-001 -7.636673e+000 149 31 31
-1.963258e-001 -2.293142e-001 -7.542789e+000 167 155 140
-7.593776e-001 -2.316428e-001 -6.703064e+000 89 22 15
2.801166e-001 7.096680e-001 -7.032322e+000 203 194 185
3.431602e+000 -1.079261e+001 -5.347529e+000 100 93 90
1.009459e+000 -6.775426e-001 -6.280787e+000 170 52 45
2.291563e+000 -1.099501e+001 -5.732412e+000 137 132 133
1.218455e+000 -1.831550e+000 -6.495246e+000 148 146 148
3.693028e+000 -8.995738e+000 -4.970823e+000 25 22 29
1.770125e+000 -3.665889e-001 -5.495648e+000 136 133 140
-2.521009e-001 1.552029e-001 -6.842457e+000 100 82 72
1.227056e-001 1.604121e-001 -6.750195e+000 217 207 192
5.802726e-001 1.519176e-002 -6.466670e+000 216 208 197
4.810296e+000 -1.166604e+001 -3.105838e+000 226 238 245
-8.622617e-002 1.271655e+000 -7.372739e+000 203 67 75
5.197143e-002 9.247366e-001 -7.131914e+000 189 177 165
5.304185e-002 9.238569e-001 -7.132139e+000 189 177 165
7.310753e-001 7.572510e-001 -6.544681e+000 190 176 167
-1.614297e-001 2.884093e-001 -7.391154e+000 157 140 125
-1.117382e-001 4.350503e-001 -7.431538e+000 133 120 104
1.939465e-001 7.719208e-002 -6.707966e+000 130 117 101
3.250272e+000 -1.036540e+001 -5.517802e+000 16 15 18
4.525246e+000 -9.151442e+000 -2.901207e+000 102 98 116
-4.516611e-001 7.660456e-001 -7.770972e+000 171 38 43
-1.244025e-001 1.046929e+000 -7.380054e+000 163 145 131
4.365973e+000 -8.261069e+000 -3.237302e+000 77 75 86
-5.515397e-001 7.289755e-001 -7.920851e+000 189 49 52
-1.816232e-001 8.954864e-001 -7.540078e+000 155 139 126
3.336929e+000 -1.082810e+001 -5.066031e+000 236 244 247
4.268653e+000 -9.111982e+000 -3.593574e+000 90 87 108
-5.253267e-001 6.250342e-001 -7.974144e+000 194 51 57
-8.999598e-001 -1.909090e-001 -6.277908e+000 40 19 12
3.369862e-001 8.993816e-001 -6.921274e+000 147 133 120
6.830855e-001 5.578726e-001 -6.609778e+000 128 112 97
-3.091833e-001 8.717889e-001 -7.600869e+000 217 61 70
5.087878e-001 -6.204609e-002 -6.554602e+000 251 244 233
-1.382880e-001 3.168528e-001 -7.009587e+000 144 129 113
-2.618244e-001 1.522542e-002 -6.712050e+000 99 65 58
-8.601546e-002 1.236653e+000 -7.379571e+000 140 15 24
3.243593e+000 -1.074589e+001 -4.739852e+000 253 254 255
-1.551520e-001 3.135531e-001 -7.299251e+000 119 104 89
-2.423326e-001 1.920453e-001 -6.879995e+000 124 107 97
2.179020e+000 -1.083452e+001 -5.777478e+000 126 120 120
2.254170e+000 -9.475617e+000 -6.639720e+000 41 40 46
-1.105188e-001 4.919871e-001 -7.340731e+000 134 118 103
-5.300728e-001 5.725096e-001 -7.890475e+000 193 162 133
2.534855e-002 -5.917462e-001 -7.483703e+000 241 92 97
-7.103436e-001 -1.842903e-001 -6.849357e+000 106 29 15
-3.080373e-001 4.184882e-001 -7.255313e+000 154 141 122
-1.915603e-001 1.574543e-001 -7.080360e+000 110 92 78
-5.339709e-002 2.346700e-001 -6.917712e+000 152 139 121
1.014958e+000 -6.722568e-001 -6.297947e+000 193 184 157
1.472880e+000 -1.277293e+000 -6.016249e+000 139 137 140
9.488971e-001 4.025483e-001 -6.249356e+000 236 80 92
-1.484328e-001 -1.821058e+000 -8.002488e+000 174 170 171
-2.003901e-001 -1.552178e+000 -7.925249e+000 177 173 176
-4.266174e-002 -1.696005e+000 -7.826317e+000 182 178 177
-2.600490e-001 -4.186900e-001 -7.689993e+000 130 118 112
-8.338896e-001 -3.437448e-001 -6.548954e+000 129 48 20
-2.361292e-001 1.139731e+000 -7.459196e+000 153 22 27
-9.807746e-002 5.029783e-001 -7.240213e+000 154 141 125
5.477209e-001 -4.310257e-001 -6.609468e+000 223 202 145
1.156665e+000 -3.951037e-001 -6.058059e+000 160 157 156
1.508804e+000 -7.278628e-001 -5.876563e+000 147 145 148
1.477048e+000 -6.805750e-001 -5.935473e+000 134 129 135
1.803798e+000 -1.148851e+000 -5.598485e+000 152 147 153
9.123079e-001 7.150545e-001 -6.320828e+000 191 57 62
9.649688e-001 6.648909e-001 -6.294323e+000 166 37 42
3.861341e-002 -2.010200e+000 -7.804271e+000 96 92 91
3.971237e-002 -1.959886e+000 -7.699357e+000 182 178 179
-3.489138e-001 3.406453e-001 -7.770504e+000 211 81 81
-2.628925e-001 2.336709e-001 -7.708995e+000 197 63 66
-1.452331e-002 -5.344436e-001 -7.488437e+000 149 38 43
-2.623713e-002 -4.850157e-001 -7.475585e+000 232 171 124
-2.837179e-001 1.061186e+000 -7.635757e+000 152 31 38
-1.603007e-001 3.303949e-001 -7.381960e+000 145 132 113
-1.656258e-001 6.918610e-001 -7.496400e+000 160 152 133
-8.982129e-001 -3.047384e-001 -6.435335e+000 147 67 38
-3.728569e-001 2.003387e-002 -6.864851e+000 46 12 11
-2.073620e-001 1.536049e-001 -7.064090e+000 141 125 110
-9.202629e-001 -2.895793e-001 -6.346092e+000 41 13 11
-4.828775e-001 -2.308920e-002 -6.677273e+000 44 4 2
-5.712763e-001 -1.175835e-001 -6.506163e+000 68 18 13
-2.854329e-001 1.376603e-001 -6.748587e+000 94 31 26
-2.144691e-001 7.063678e-002 -6.702242e+000 68 24 15
9.413724e-002 6.491305e-001 -7.098028e+000 201 192 174
1.029661e-001 1.223977e+000 -7.115017e+000 212 67 70
8.496767e-001 -8.260782e-001 -6.481418e+000 238 98 99
1.764425e+000 -1.027374e+000 -5.657583e+000 145 143 148
1.634335e+000 -3.788691e-001 -5.715453e+000 177 170 175
-5.635811e-001 5.857509e-001 -7.982198e+000 226 76 81
-2.792093e-001 1.944485e-001 -7.749980e+000 210 79 84
-4.820905e-002 -4.783413e-001 -7.510474e+000 173 47 44
-2.198876e-001 5.305498e-001 -7.569798e+000 185 176 162
-1.671997e-001 3.690564e-001 -7.404084e+000 202 189 176
-7.217893e-001 -1.885888e-001 -6.750031e+000 85 26 17
-8.802297e-001 -2.955985e-001 -6.509547e+000 114 41 21
3.230697e+000 -9.076247e+000 -5.447007e+000 29 26 35
6.613946e-004 4.496109e-001 -7.155518e+000 150 138 122
-7.504711e-002 8.568620e-001 -7.306254e+000 199 190 173
-9.291895e-001 -1.797824e-001 -6.211958e+000 64 37 25
8.481779e-001 -2.954031e-001 -6.396018e+000 234 226 209
6.944077e-001 6.574290e-001 -6.602427e+000 169 157 137
3.139403e+000 -9.516135e+000 -5.986912e+000 34 31 38
-6.389796e-002 4.323304e-001 -7.183487e+000 186 173 156
-8.387114e-001 -1.825793e-001 -6.199610e+000 63 37 23
-3.433808e-001 -2.322383e-001 -6.449419e+000 136 32 24
-2.493369e-002 5.373804e-002 -6.698065e+000 123 107 94
2.865676e-001 2.847239e-001 -6.787554e+000 187 171 160
8.587498e-001 -6.912567e-001 -6.473478e+000 240 232 215
4.644941e-001 7.840240e-002 -6.568038e+000 156 143 124
6.582122e-001 3.099859e-001 -6.646207e+000 226 217 202
7.560355e-001 -8.571217e-002 -6.384648e+000 234 222 205
8.012459e-001 -9.967892e-002 -6.345050e+000 148 130 106
1.411518e+000 -2.659179e-001 -5.914987e+000 166 151 163
7.767909e-001 9.674046e-001 -6.463073e+000 194 60 64
9.960934e-001 5.182035e-001 -6.194953e+000 221 86 92
-2.788691e-001 -3.570971e-001 -7.712624e+000 116 105 101
-4.278251e-001 1.547790e-002 -6.871755e+000 86 36 25
1.740023e-001 5.955319e-001 -6.965853e+000 216 207 190
1.789777e-001 7.354822e-001 -7.068117e+000 228 216 202
2.336449e-001 4.392857e-001 -6.911417e+000 148 135 118
4.038627e-001 1.535513e-001 -6.617243e+000 209 198 180
7.561238e-001 1.024163e-001 -6.529154e+000 145 132 113
1.255335e+000 -4.691495e-001 -6.032451e+000 164 157 164
5.574903e-001 1.238452e+000 -6.650342e+000 57 58 53
1.593321e+000 -2.628988e-001 -5.972966e+000 14 10 10
1.255121e+000 2.072002e-001 -6.044635e+000 163 152 158
1.208964e+000 3.132245e-001 -6.074110e+000 153 142 146
-9.523874e-001 -2.860275e-001 -6.458911e+000 172 91 79
5.673626e-002 5.941437e-001 -7.102540e+000 207 198 183
2.325288e-002 8.333264e-002 -6.740030e+000 183 173 155
1.082921e-001 3.071360e-002 -6.673780e+000 149 136 117
3.971101e-001 4.966524e-001 -6.931719e+000 184 172 158
2.949925e-001 9.982103e-001 -7.016799e+000 230 222 211
7.410913e-001 -4.577805e-001 -6.432888e+000 254 241 186
6.448507e-001 2.673567e-001 -6.716913e+000 222 213 199
1.193906e+000 -3.979915e-001 -6.093985e+000 100 85 61
1.318183e+000 -1.995372e-001 -5.973125e+000 254 243 203
1.154617e+000 1.744589e-001 -6.110942e+000 211 76 81
-2.575972e-001 -3.716136e-001 -7.630921e+000 217 210 191
-5.824590e-002 6.792846e-001 -7.181170e+000 208 199 184
1.005115e-001 6.911079e-001 -7.110382e+000 222 213 196
1.028552e+000 -7.516442e-001 -6.350011e+000 221 214 198
7.771174e-001 -2.700913e-002 -6.383401e+000 162 147 127
1.006194e+000 3.263503e-001 -6.280815e+000 237 228 213
7.791353e-001 9.750200e-001 -6.504707e+000 200 63 70
1.089445e+000 2.386346e-001 -6.191492e+000 187 53 57
-2.170313e-001 2.181176e-001 -7.625852e+000 124 17 23
1.249933e-001 1.398674e+000 -7.148980e+000 21 9 14
3.954327e-001 7.638500e-001 -6.868925e+000 237 228 211
1.342119e+000 -2.873151e-001 -5.989171e+000 246 227 184
-1.345490e-001 1.542293e-001 -7.288075e+000 143 126 108
8.211956e-002 9.113378e-001 -7.119061e+000 180 167 151
2.311773e-001 6.478430e-001 -7.021167e+000 145 130 111
6.300245e-001 -7.972991e-002 -6.403727e+000 244 237 221
7.883087e-001 7.558559e-001 -6.448614e+000 124 22 26
3.410606e-001 -2.034818e-002 -6.571961e+000 238 232 213
1.057676e+000 3.452035e-002 -6.276567e+000 242 236 220
3.897655e-001 6.647102e-001 -6.847752e+000 213 204 187
3.660549e-001 6.809582e-001 -6.846639e+000 213 204 187
-3.002338e-001 6.100712e-001 -7.652377e+000 214 207 191
-4.860759e-003 1.285749e+000 -7.434087e+000 17 11 13
-4.026199e-001 -1.611551e-001 -6.767038e+000 79 26 18
3.103336e-001 8.168555e-001 -6.971044e+000 194 182 165
4.964658e-001 -1.873791e+000 -7.250462e+000 118 114 111
-2.235312e-001 -2.098426e-001 -7.569513e+000 181 166 149
-1.693795e-001 -6.946360e-002 -7.526587e+000 198 187 167
2.971670e-001 -8.530516e-001 -7.421710e+000 134 126 124
-1.845065e-002 3.055258e-001 -6.881722e+000 152 139 122
8.015283e-001 -4.334943e-001 -6.353022e+000 175 154 111
1.199416e+000 -5.809317e-001 -6.121819e+000 171 165 169
4.745495e-001 -1.489138e+000 -7.321640e+000 149 146 139
7.108209e-001 -1.989671e+000 -7.156764e+000 156 153 149
-1.515089e-001 -4.938737e-002 -7.448257e+000 135 115 98
-7.169537e-001 -3.087801e-001 -6.786674e+000 123 35 19
-2.848566e-002 2.870121e-001 -7.036833e+000 126 110 94
-1.190315e-001 1.220311e+000 -7.387465e+000 147 26 30
9.142441e-001 -7.245689e-001 -6.431770e+000 211 197 182
9.142441e-001 -7.245689e-001 -6.431770e+000 211 197 182
9.292786e-001 -6.642418e-001 -6.383944e+000 238 230 212
1.120152e+000 -6.178347e-001 -6.136686e+000 159 149 154
8.608292e-001 1.043205e-001 -6.458365e+000 187 179 160
-7.213523e-001 -1.881602e-001 -6.868904e+000 160 79 51
-3.318973e-001 7.861148e-001 -7.622177e+000 167 152 133
-3.438851e-001 7.907870e-001 -7.619021e+000 167 152 133
-8.167144e-002 8.595304e-001 -7.234328e+000 196 188 167
4.344482e-001 6.345798e-001 -6.771553e+000 195 188 172
6.952738e-001 6.765047e-002 -6.464773e+000 156 141 120
5.683795e-001 -1.849974e+000 -7.220441e+000 120 116 115
5.683795e-001 -1.849974e+000 -7.220441e+000 120 116 115
5.464414e-001 -1.726145e+000 -7.227310e+000 147 146 142
-1.871359e-001 2.411311e-001 -7.525305e+000 192 171 154
-3.881962e-001 -1.402128e-001 -7.024084e+000 51 19 14
5.547899e-002 -3.397861e-001 -7.243168e+000 228 204 154
-3.320129e-001 8.977767e-002 -6.907840e+000 62 18 17
1.206417e+000 -3.408594e-002 -6.052894e+000 240 94 104
1.599762e-001 2.798780e-001 -6.795809e+000 212 205 186
4.550241e-001 2.631234e-002 -6.558066e+000 218 209 192
-1.798227e-001 3.923940e-001 -7.564019e+000 196 187 170
9.606090e-001 -7.031500e-001 -6.347608e+000 226 217 200
1.036556e+000 -6.857577e-001 -6.142386e+000 166 159 167
9.731201e-001 -3.591222e-001 -6.202471e+000 254 236 196
5.579169e-001 1.427560e-001 -6.543240e+000 150 135 116
1.464976e-001 -2.355668e-001 -6.496455e+000 214 201 184
-1.060582e-001 2.968333e-002 -7.806706e+000 129 22 27
-1.023885e+000 -1.253820e+001 -1.022571e+001 95 100 119
5.615597e-001 -1.804236e+000 -7.196352e+000 108 106 103
-2.236123e-001 2.394170e-001 -7.513407e+000 165 43 47
3.037317e-001 -1.446609e+000 -7.478862e+000 105 101 97
-2.031744e-001 -2.412895e-001 -7.554340e+000 186 173 154
-8.919301e-001 -3.398493e-001 -6.432490e+000 160 85 62
-5.303631e-001 -6.809925e-002 -6.520897e+000 119 49 39
-2.943959e-001 -8.799836e-003 -6.681033e+000 78 42 41
-7.724638e-001 -3.792217e-001 -6.537691e+000 155 136 120
1.452230e+000 -1.100576e+000 -6.039312e+000 139 137 140
-2.866684e-001 2.613162e-001 -7.684830e+000 186 55 60
-3.678792e-001 -1.213862e-001 -7.002010e+000 92 65 59
-1.254245e-001 5.695060e-001 -7.246338e+000 166 151 132
1.323660e-001 9.946407e-002 -6.731051e+000 190 179 160
1.208059e+000 -4.820789e-001 -6.046996e+000 176 171 172
2.565925e-001 2.410819e-001 -6.747113e+000 167 156 138
8.549583e-001 9.064101e-002 -6.501572e+000 196 188 169
5.301618e-001 7.182538e-001 -6.776728e+000 233 225 212
3.615824e-001 1.349832e+000 -6.901791e+000 199 63 66
3.086535e-001 1.044301e+000 -7.026450e+000 211 203 190
3.939085e-001 1.331738e+000 -6.856964e+000 211 68 71
4.010191e-001 1.368903e+000 -6.941253e+000 50 30 31
3.765519e-001 1.369609e+000 -6.871342e+000 71 38 38
5.428644e+000 -6.760081e+000 -1.318071e+000 79 74 80
1.192662e+000 -7.664048e-001 -6.164570e+000 162 151 157
1.059189e+000 -1.974904e-001 -6.256765e+000 206 198 179
4.396655e-001 1.284308e+000 -6.796422e+000 207 64 70
1.869877e-001 4.021963e-001 -6.904095e+000 190 177 162
6.704689e-001 9.793326e-001 -6.625750e+000 210 71 78
-4.961368e-001 4.794750e-001 -7.712567e+000 210 192 171
-2.641785e-002 -4.528847e-001 -7.378835e+000 170 106 60
-2.641785e-002 -4.528847e-001 -7.378835e+000 170 106 60
-1.353086e-002 -4.414144e-001 -7.363242e+000 219 166 119
1.397632e-001 -6.067246e-001 -7.343615e+000 92 25 6
-7.084687e-001 -2.928534e-001 -6.801726e+000 136 49 26
7.718231e-002 -3.983670e-001 -7.267525e+000 117 67 28
3.665089e-002 -3.602040e-001 -7.238122e+000 254 236 179
-9.038847e-001 -3.135745e-001 -6.364145e+000 62 24 14
-9.060258e-001 -2.931334e-001 -6.382594e+000 141 63 37
-4.791747e-001 -4.310822e-002 -6.606535e+000 88 33 26
-2.415112e-001 2.767128e-002 -6.720687e+000 68 31 22
1.565441e+000 -1.699464e+000 -6.037328e+000 152 152 150
5.532937e-001 -8.566133e-002 -6.521550e+000 233 226 208
-6.402722e-003 1.166696e+000 -7.248392e+000 208 50 58
9.826326e-001 -3.984843e-001 -6.330640e+000 175 160 138
9.753213e-001 -3.953143e-001 -6.332183e+000 175 160 138
1.366154e-002 1.362903e+000 -7.238796e+000 91 13 17
1.444947e+000 -1.091029e+000 -5.891942e+000 184 179 183
9.965504e-001 -3.985265e-001 -6.099818e+000 188 170 172
1.391337e+000 -1.416029e-001 -5.923144e+000 70 60 49
1.244329e+000 1.355404e-001 -6.036296e+000 152 134 136
1.208785e+000 2.775835e-001 -6.078062e+000 150 137 133
-5.817931e-001 6.077174e-001 -8.070367e+000 72 40 43
-5.947710e-001 -3.523098e-001 -6.921842e+000 153 57 26
-4.634141e-001 -2.389567e-001 -7.102814e+000 255 240 185
-1.582805e-001 -4.582345e-003 -7.475726e+000 139 110 94
-7.212504e-001 -1.608068e-001 -6.912389e+000 145 70 49
-7.175618e-001 -1.626062e-001 -6.913095e+000 145 70 49
-6.653746e-001 -3.087489e-001 -6.725918e+000 93 22 12
-4.562218e-001 -1.439626e-001 -7.000032e+000 114 85 81
-9.396671e-001 -3.492275e-001 -6.482533e+000 131 135 126
-8.201205e-001 -3.563773e-001 -6.551489e+000 127 53 33
-7.640774e-001 -3.574100e-001 -6.555389e+000 110 46 22
-3.971002e-001 1.026223e+000 -7.622034e+000 173 40 54
-3.508380e-001 1.033499e+000 -7.623556e+000 162 40 43
-2.791975e-001 9.231435e-003 -6.977731e+000 82 58 48
-9.235346e-002 6.570026e-001 -7.413700e+000 153 142 124
-8.515488e-002 6.563642e-001 -7.413971e+000 153 142 124
-3.207277e-001 3.940382e-001 -7.014437e+000 137 121 105
6.712312e-002 4.000346e-001 -7.292168e+000 145 132 113
-1.502083e-001 5.320312e-001 -7.285748e+000 139 124 105
-8.733766e-001 -2.012213e-001 -6.229283e+000 180 161 137
-8.733766e-001 -2.012213e-001 -6.229283e+000 180 161 137
-1.519701e-001 1.086268e+000 -7.504165e+000 159 28 33
-8.028083e-001 -2.075281e-001 -6.231332e+000 137 115 96
-1.672805e-001 3.570983e-002 -6.661659e+000 186 172 152
-2.696824e-001 1.178559e+000 -7.437919e+000 157 30 34
7.745307e-001 -3.227322e-001 -6.428162e+000 157 143 122
2.222454e-001 9.963818e-001 -7.072955e+000 187 181 164
1.638781e+000 -1.172885e+000 -5.855705e+000 143 138 142
1.626062e+000 -1.170435e+000 -5.795713e+000 190 185 189
1.743194e+000 -1.282388e+000 -5.718895e+000 175 170 176
1.824590e+000 -1.336205e+000 -5.704808e+000 175 170 176
1.678972e+000 -1.151864e+000 -5.698361e+000 194 189 195
1.699869e+000 -4.216880e-001 -5.671162e+000 141 136 142
9.185132e-001 4.332837e-001 -6.267378e+000 225 207 189
2.035216e+000 -6.468529e-001 -5.343874e+000 147 144 150
