ply
format ascii 1.0
element face 0
property list uchar int vertex_indices
element vertex 871
property float x
property float y
property float z
property uchar diffuse_red
property uchar diffuse_green
property uchar diffuse_blue
end_header
1.084262e+000 -8.206279e-002 -6.136554e+000 241 66 78
-6.427840e-001 -1.794429e-001 -6.294734e+000 119 50 49
-6.067832e-001 -1.396163e-001 -6.334179e+000 149 68 39
-9.429234e-002 -2.677844e-001 -6.708841e+000 50 37 18
-9.472425e-002 -2.702277e-001 -6.724303e+000 50 37 18
-3.287148e-001 -2.956472e-001 -6.469300e+000 170 71 60
2.654081e-001 -3.626987e-001 -6.756553e+000 254 245 190
4.505079e-001 -3.127710e-001 -6.697497e+000 112 94 80
6.749246e-001 -4.539726e-001 -6.490411e+000 144 126 78
7.721707e-001 -4.152780e-001 -6.398234e+000 199 174 118
5.865266e-001 -5.701844e-001 -6.646249e+000 145 127 104
1.037551e+000 -7.150160e-001 -6.321032e+000 254 86 97
1.042435e+000 -7.201764e-001 -6.339920e+000 254 86 97
3.117128e-001 7.763673e-001 -6.909444e+000 163 154 145
2.112897e-001 7.423954e-001 -7.032893e+000 219 211 208
8.241928e-001 4.846338e-001 -6.323882e+000 162 31 39
9.018165e-001 4.541008e-001 -6.240497e+000 234 64 75
2.290759e-001 5.025202e-001 -6.941305e+000 214 205 198
9.329863e-001 1.858494e-001 -6.305106e+000 219 210 205
-1.390679e-001 -3.577316e-002 -6.614709e+000 85 24 16
2.552698e-001 -1.191159e-001 -6.659487e+000 254 255 250
1.080957e+000 -5.625007e-002 -6.159869e+000 243 67 77
1.018792e+000 -1.524495e-001 -6.214674e+000 135 32 35
-7.695620e-001 -2.419011e-001 -6.294058e+000 38 28 32
3.230852e-001 -2.337488e-001 -6.718518e+000 231 228 221
7.547516e-001 -2.699378e-001 -6.396500e+000 122 104 81
7.049402e-001 -3.441506e-001 -6.409321e+000 210 186 131
5.256454e-001 -4.807824e-001 -6.671383e+000 110 87 62
1.099038e+000 -3.860702e-001 -6.181788e+000 24 9 8
1.030905e+000 -6.159047e-001 -6.243589e+000 21 9 12
8.723717e-001 -8.521112e-001 -6.465628e+000 230 64 74
8.737850e-001 -8.546259e-001 -6.471567e+000 230 64 74
1.005307e-001 7.990960e-001 -7.061945e+000 170 157 151
1.008586e-001 7.991707e-001 -7.061473e+000 170 157 151
9.531178e-002 6.694853e-001 -7.032107e+000 208 199 194
3.536196e-001 6.642176e-001 -6.831512e+000 228 221 214
1.058504e+000 1.750772e-001 -6.164201e+000 216 46 55
1.008074e+000 8.243266e-002 -6.189539e+000 131 15 23
-6.731072e-001 -2.567505e-001 -6.346490e+000 246 124 75
1.290807e-001 -4.292221e-001 -6.778126e+000 255 255 253
8.720300e-001 -3.637237e-001 -6.307782e+000 154 132 86
6.328840e-001 -7.386496e-001 -6.699385e+000 22 12 13
8.820428e-001 -7.043971e-001 -6.431994e+000 255 255 253
1.131548e+000 -9.192653e-002 -6.091007e+000 42 30 32
-2.705920e-001 -3.946130e-001 -6.580359e+000 233 232 230
9.273544e-001 -5.475017e-001 -6.333357e+000 182 38 45
3.952138e-001 -9.776807e-001 -7.134868e+000 144 123 80
8.007359e-002 -6.399198e-003 -6.691944e+000 132 119 110
-3.154203e-002 -1.438207e-001 -6.652258e+000 248 244 242
7.089470e-001 4.787109e-001 -6.464744e+000 255 255 253
9.387883e-001 3.761265e-003 -6.354718e+000 230 225 221
3.743100e-001 -5.720697e-001 -6.820725e+000 254 254 252
1.162111e+000 -2.487985e-001 -6.095935e+000 198 173 117
1.163573e+000 -2.486176e-001 -6.097731e+000 198 173 117
8.075476e-001 -6.177856e-001 -6.506645e+000 238 231 225
1.186801e+000 7.400365e-002 -6.173831e+000 46 34 34
5.899230e-002 1.011770e+000 -7.171895e+000 199 198 186
7.270230e-001 7.166801e-001 -6.353197e+000 219 51 60
7.418564e-001 6.701970e-001 -6.243180e+000 231 69 82
-1.602747e-001 7.940601e-001 -7.448019e+000 173 157 153
1.266192e-001 5.919865e-001 -7.031881e+000 178 165 159
1.126497e+000 1.098109e-001 -6.133742e+000 30 7 14
2.902722e-002 8.168374e-002 -6.737175e+000 122 107 100
1.143702e+000 5.145780e-002 -6.121056e+000 22 12 11
-7.747641e-002 2.915827e-003 -6.631004e+000 172 156 148
-1.183641e-001 -4.340472e-002 -6.617614e+000 162 69 54
-3.615710e-001 -1.374153e-001 -6.464568e+000 228 113 68
-2.074580e-001 -8.596878e-002 -6.473816e+000 75 18 11
-6.712086e-001 -1.497801e-001 -6.204056e+000 54 23 1
-1.016698e-001 -2.063041e-001 -6.692544e+000 124 102 57
-5.585265e-001 -2.158529e-001 -6.230855e+000 162 49 30
-3.620944e-001 -3.123529e-001 -6.435730e+000 47 35 45
-1.716418e-001 -3.294284e-001 -6.567764e+000 214 209 203
-1.710772e-001 -3.283483e-001 -6.565408e+000 214 209 203
-3.835790e-001 -4.140450e-001 -6.563980e+000 227 116 60
-7.258837e-002 -3.685382e-001 -6.633770e+000 45 34 30
1.965127e-001 9.166710e-001 -7.054362e+000 188 185 178
8.319351e-001 5.137920e-001 -6.394270e+000 168 32 38
5.408029e-003 2.751556e-001 -7.014885e+000 157 147 137
7.761842e-002 2.298113e-001 -6.834072e+000 156 146 136
1.721107e-001 2.773072e-001 -6.748037e+000 148 134 122
-2.159537e-001 1.355709e-001 -6.645017e+000 114 55 46
-2.159537e-001 1.355709e-001 -6.645017e+000 114 55 46
-8.993398e-002 -1.878205e-001 -6.612880e+000 229 216 214
-5.795846e-001 -2.617371e-001 -6.269225e+000 217 106 79
-5.096990e-001 -2.446744e-001 -6.306962e+000 91 38 22
-1.396285e-001 -2.520444e-001 -6.602995e+000 46 30 11
-1.441197e-001 -2.867890e-001 -6.621429e+000 144 126 115
9.048977e-001 -2.256452e-001 -6.259538e+000 155 133 91
-2.092333e-001 -3.273249e-001 -6.525893e+000 163 155 150
-1.084042e-001 -3.324600e-001 -6.596326e+000 192 189 184
-1.084042e-001 -3.324600e-001 -6.596326e+000 192 189 184
3.645025e-001 1.027873e+000 -6.862103e+000 200 41 45
2.343283e-001 8.864034e-001 -7.019002e+000 225 218 212
9.797175e-001 4.225719e-001 -6.240331e+000 193 34 51
-4.050387e-002 4.529046e-001 -6.981044e+000 193 184 177
-2.419678e-001 1.266261e-001 -6.789260e+000 42 30 30
-9.422754e-002 -2.753904e-003 -6.624878e+000 102 37 22
-1.595861e-001 -1.480204e-001 -6.412376e+000 176 90 69
-5.557441e-001 -2.551138e-001 -6.340864e+000 167 47 36
-1.775265e-001 -2.563959e-001 -6.632175e+000 113 94 79
-6.029446e-001 -3.095752e-001 -6.363128e+000 210 94 65
-1.852602e-002 -3.916035e-001 -6.724054e+000 52 41 37
1.082499e+000 -4.283183e-001 -6.230911e+000 248 66 76
4.190978e-001 1.163413e+000 -6.818897e+000 28 16 22
-3.763823e-001 4.098254e-001 -7.614510e+000 219 206 198
9.461223e-001 1.917979e-001 -6.275976e+000 209 192 183
9.565880e-001 1.542254e-001 -6.260239e+000 192 178 168
-1.849965e-001 1.377905e-001 -6.889502e+000 37 25 20
-1.974250e-001 9.682748e-002 -6.776402e+000 47 28 22
6.340859e-001 -3.419334e-002 -6.448461e+000 222 215 209
-1.130993e-001 -1.797830e-001 -6.610540e+000 80 58 21
-4.978132e-001 -3.172216e-001 -6.516530e+000 48 29 27
-2.417595e-001 -3.212573e-001 -6.490288e+000 180 170 168
-1.076106e-001 4.365915e-001 -7.167370e+000 209 202 192
2.399610e-002 3.151285e-001 -6.923795e+000 166 156 146
2.399610e-002 3.151285e-001 -6.923795e+000 166 156 146
5.289652e-001 -5.526329e-002 -6.544950e+000 195 190 184
-7.473138e-001 -1.433713e-001 -6.146665e+000 190 163 108
8.516031e-001 -1.467377e-001 -6.370830e+000 195 188 182
4.496391e-001 -3.788576e-001 -6.685711e+000 183 163 112
9.088382e-001 -3.988805e-001 -6.325619e+000 178 154 106
2.803917e-001 -6.751670e-001 -7.149241e+000 72 62 35
6.191615e-001 9.499936e-001 -6.584564e+000 202 42 51
-4.963017e-002 5.604613e-001 -7.123673e+000 150 141 131
1.725592e-001 3.541392e-001 -6.727371e+000 181 168 159
-6.691534e-001 -9.647784e-002 -6.253120e+000 146 69 42
-2.230223e-001 -1.964765e-001 -6.432577e+000 121 73 56
-2.230223e-001 -1.964765e-001 -6.432577e+000 121 73 56
1.703071e-001 -3.583321e-001 -6.711511e+000 47 30 18
5.326383e-001 -3.779857e-001 -6.755719e+000 102 84 47
4.933403e-001 -4.677369e-001 -6.822144e+000 85 66 41
8.934179e-001 -5.123827e-001 -6.402099e+000 180 158 145
8.992940e-001 -9.160300e-001 -6.501113e+000 224 60 67
8.992940e-001 -9.160300e-001 -6.501113e+000 224 60 67
8.725539e-001 2.066600e-001 -6.299790e+000 158 143 136
6.013610e-001 -1.365206e-002 -6.450574e+000 191 184 175
-5.575380e-001 -2.930572e-001 -6.361064e+000 255 211 172
6.951514e-001 8.244983e-001 -6.456946e+000 194 34 44
9.064304e-001 5.101306e-001 -6.216495e+000 19 0 9
-1.476621e-001 6.454433e-001 -7.413463e+000 223 216 209
2.734352e-001 5.637889e-001 -6.880932e+000 149 139 129
4.548548e-001 4.738278e-001 -6.701209e+000 222 213 208
-3.003098e-001 -4.604798e-002 -6.395634e+000 87 23 15
1.075078e+000 -2.205876e-002 -6.128647e+000 248 77 87
6.697327e-001 -8.080479e-002 -6.435494e+000 241 241 233
8.376283e-001 -2.416924e-001 -6.343440e+000 111 91 67
9.286694e-001 -2.639853e-001 -6.327051e+000 165 141 95
8.277717e-001 -3.094648e-001 -6.364361e+000 188 166 113
5.842488e-001 -4.934224e-001 -6.594323e+000 205 195 184
5.856169e-001 6.086294e-001 -6.541780e+000 209 202 194
-1.582334e-001 -1.645642e-001 -6.719638e+000 93 66 37
4.785250e-001 -2.371879e-001 -6.696754e+000 247 245 241
2.411865e-001 -4.207939e-001 -6.745891e+000 61 39 25
9.954611e-001 -6.054500e-001 -6.335993e+000 255 78 92
3.544270e-001 6.645725e-001 -6.836996e+000 228 221 214
4.013080e-001 -9.966683e-001 -7.210670e+000 144 123 80
-4.766174e-001 -4.235110e-001 -6.678363e+000 45 33 33
1.095766e+000 -5.028396e-001 -6.218634e+000 24 8 11
-3.365101e-002 1.090663e+000 -7.272969e+000 148 23 29
-1.402146e-002 7.314170e-001 -7.166273e+000 212 206 197
7.625848e-001 7.550344e-001 -6.403839e+000 98 12 21
1.405837e-001 5.803117e-001 -7.058160e+000 155 145 135
8.370494e-001 6.480812e-001 -6.364809e+000 188 53 56
-6.125618e-002 4.370231e-001 -7.176651e+000 151 141 131
3.654650e-001 2.424408e-001 -6.774830e+000 143 129 118
-6.280235e-002 7.011330e-002 -6.674305e+000 135 120 113
1.843113e-002 8.874497e-002 -6.753454e+000 122 110 103
3.259363e-002 5.942991e-002 -6.724203e+000 153 143 133
2.164244e-001 6.842132e-002 -6.537284e+000 156 146 137
-5.058012e-001 -1.417131e-001 -6.507177e+000 156 71 47
-5.058012e-001 -1.417131e-001 -6.507177e+000 156 71 47
-4.208199e-001 -1.042633e-001 -6.492007e+000 176 90 62
-4.280329e-001 -1.092686e-001 -6.533514e+000 176 90 62
-2.033759e-001 -1.226143e-001 -6.520211e+000 145 58 35
-2.315283e-001 -1.432558e-001 -6.464369e+000 196 88 56
4.941809e-001 -5.978846e-003 -6.518098e+000 197 189 181
-4.874341e-001 -2.244889e-001 -6.555987e+000 187 84 56
-4.458364e-001 -2.154056e-001 -6.557234e+000 191 72 37
1.080699e-001 -2.093358e-001 -6.701039e+000 242 236 231
-2.103844e-002 -2.715188e-001 -6.751114e+000 44 33 15
-3.502151e-001 -3.162700e-001 -6.453904e+000 201 179 160
1.908385e-001 -3.173413e-001 -6.743008e+000 141 120 74
4.644160e-001 -5.515723e-001 -6.738594e+000 241 238 228
6.493092e-001 -7.128031e-001 -6.717189e+000 229 79 86
9.958489e-001 -5.566587e-001 -6.207330e+000 180 21 31
9.895737e-001 -5.761440e-001 -6.191869e+000 23 4 1
-2.757250e-001 7.067978e-001 -7.562832e+000 195 186 185
8.015134e-001 7.264884e-001 -6.396854e+000 18 6 10
1.227653e-001 6.160797e-001 -7.048207e+000 212 206 200
1.216755e-001 6.152209e-001 -7.029540e+000 212 206 200
7.283952e-001 5.350640e-001 -6.447674e+000 234 229 226
7.301021e-001 5.347136e-001 -6.456426e+000 234 229 226
1.822365e-001 2.753379e-001 -6.766321e+000 136 120 107
4.403380e-002 2.298367e-001 -6.908106e+000 152 139 130
3.075505e-002 1.138588e-001 -6.766158e+000 128 114 105
3.503047e-001 2.107219e-001 -6.741270e+000 140 127 111
-8.432243e-002 8.681887e-002 -6.695875e+000 123 110 102
-8.432243e-002 8.681887e-002 -6.695875e+000 123 110 102
-2.386729e-002 3.751652e-002 -6.668568e+000 147 134 126
8.654936e-002 1.224271e-003 -6.674844e+000 125 112 104
9.560240e-002 1.833517e-002 -6.675963e+000 169 160 151
-2.173320e-001 -8.789696e-002 -6.536728e+000 65 4 1
-2.175183e-001 -8.820267e-002 -6.537506e+000 65 4 1
-1.169539e-001 -4.324714e-002 -6.617808e+000 172 87 71
-1.170256e-001 -8.782111e-002 -6.592668e+000 207 180 171
-5.985506e-001 -2.383212e-001 -6.331870e+000 230 112 81
-5.985506e-001 -2.383212e-001 -6.331870e+000 230 112 81
-4.516874e-001 -2.812818e-001 -6.566325e+000 66 24 20
-3.616357e-001 -3.063858e-001 -6.435420e+000 57 54 68
-1.646064e-001 -3.059872e-001 -6.599421e+000 179 166 158
4.250474e-001 -1.881163e-001 -6.691213e+000 230 227 220
1.717148e-003 -3.837988e-001 -6.756184e+000 254 252 247
1.621794e-002 -4.210053e-001 -6.842446e+000 46 35 29
7.282676e-001 -4.375552e-001 -6.390555e+000 211 186 130
1.188407e+000 -3.232117e-001 -6.109759e+000 198 175 121
2.663060e-001 -8.142784e-001 -6.939817e+000 41 31 23
4.352528e-001 -9.409680e-001 -7.056354e+000 150 128 79
1.009109e+000 -5.309219e-001 -6.226678e+000 211 46 55
5.557658e-001 1.056968e+000 -6.745440e+000 182 43 46
-2.608967e-001 6.867462e-001 -7.526618e+000 156 140 131
7.051512e-001 7.669528e-001 -6.415400e+000 113 9 17
-4.337937e-001 4.774170e-001 -7.771495e+000 34 24 16
-1.320914e-001 5.827710e-001 -7.430650e+000 205 198 188
-1.802019e-001 4.831969e-001 -7.468161e+000 217 210 200
-1.186432e-001 3.928330e-001 -7.240120e+000 144 131 120
-6.518322e-003 3.849581e-001 -7.122336e+000 172 162 152
6.966649e-001 4.900834e-001 -6.484294e+000 229 226 221
6.970690e-001 4.899247e-001 -6.486810e+000 229 226 221
1.768411e-001 2.261214e-001 -6.788646e+000 175 165 156
-1.114098e-001 1.395091e-001 -6.792368e+000 138 124 115
2.074647e-002 4.907442e-002 -6.718907e+000 115 102 93
7.222793e-002 3.060116e-002 -6.703719e+000 123 113 104
-1.032007e-001 -7.205487e-002 -6.664993e+000 184 161 155
2.302053e-001 -1.542425e-002 -6.655464e+000 206 197 188
-6.628517e-001 -1.409164e-001 -6.306716e+000 77 22 2
-6.409777e-001 -1.598591e-001 -6.266330e+000 54 5 8
-2.098937e-001 -1.445701e-001 -6.499791e+000 219 97 66
-1.200529e-001 -1.809859e-001 -6.676340e+000 93 69 26
-5.239713e-001 -2.437025e-001 -6.419388e+000 225 183 143
-8.385082e-002 -2.328993e-001 -6.679132e+000 97 79 41
-1.422134e-001 -2.733408e-001 -6.640471e+000 203 193 181
-1.215644e-001 -3.866840e-001 -6.699621e+000 45 36 31
-2.590405e-001 -4.497182e-001 -6.654927e+000 234 233 229
1.074443e+000 -2.679698e-001 -6.148550e+000 152 124 77
5.552253e-001 -5.676692e-001 -6.612561e+000 160 147 126
6.278961e-001 -6.676793e-001 -6.664440e+000 174 33 33
9.792794e-001 -5.322389e-001 -6.212050e+000 214 52 58
-2.699385e-004 1.011238e+000 -7.196233e+000 173 35 41
-1.599722e-001 9.305710e-001 -7.450891e+000 195 44 52
-1.599722e-001 9.305710e-001 -7.450891e+000 195 44 52
-2.533015e-001 7.732515e-001 -7.489166e+000 210 44 53
-1.147094e-001 7.883540e-001 -7.415629e+000 203 195 185
-1.142978e-001 7.885878e-001 -7.417568e+000 203 195 185
-2.839654e-001 7.321094e-001 -7.575977e+000 183 34 41
-2.907402e-001 6.285621e-001 -7.568315e+000 178 166 154
2.689656e-001 6.651863e-001 -7.008660e+000 213 204 198
1.065601e-001 5.745764e-001 -7.042909e+000 195 185 177
3.019620e-001 6.388041e-001 -6.964820e+000 208 201 195
-5.649589e-002 4.663908e-001 -7.174966e+000 193 184 175
8.362619e-001 5.351636e-001 -6.381760e+000 203 45 53
8.537434e-001 5.729746e-001 -6.364493e+000 171 26 33
-2.190398e-001 1.813239e-001 -7.612017e+000 203 52 59
-7.196024e-003 2.176205e-001 -6.942046e+000 124 111 102
3.587799e-002 1.729794e-001 -6.874608e+000 122 114 103
-1.720980e-001 7.317743e-002 -6.728368e+000 130 108 100
6.997787e-001 1.231529e-001 -6.558049e+000 188 179 170
-7.857953e-001 -1.433794e-001 -6.247030e+000 158 135 82
1.044793e+000 1.510896e-001 -6.267780e+000 222 55 65
5.244332e-001 -5.240234e-002 -6.513939e+000 202 197 191
-6.979642e-001 -2.028104e-001 -6.288016e+000 98 31 28
-3.299579e-001 -2.462675e-001 -6.464186e+000 143 9 18
5.458017e-001 -2.606914e-001 -6.652726e+000 165 151 141
5.179176e-001 -3.534263e-001 -6.628370e+000 91 74 38
6.401865e-001 -2.796578e-001 -6.527055e+000 165 152 135
6.081275e-001 -3.090114e-001 -6.525647e+000 148 138 123
9.301916e-001 -2.036856e-001 -6.260841e+000 83 65 39
9.217954e-001 -1.988693e-001 -6.236801e+000 83 65 39
1.084791e+000 -1.592651e-001 -6.149670e+000 140 118 71
9.170133e-001 -4.462266e-001 -6.311677e+000 197 167 159
1.256766e+000 -3.143082e-001 -6.017385e+000 27 14 14
6.558477e-001 -7.085653e-001 -6.553840e+000 39 28 23
7.956908e-001 -7.268780e-001 -6.483853e+000 224 57 65
-3.460098e+000 8.558897e-001 -1.155351e+001 11 7 8
2.859023e-001 8.023710e-001 -6.980535e+000 192 179 173
7.103334e-001 8.380594e-001 -6.486364e+000 183 29 39
6.355290e-003 5.263857e-001 -7.072748e+000 183 173 163
4.925281e-001 3.917166e-001 -6.751681e+000 183 175 163
-1.922503e-001 2.450614e-001 -7.518911e+000 168 33 38
2.639044e-001 8.794716e-002 -6.683529e+000 159 144 137
-2.819944e-001 -1.049704e-002 -6.614156e+000 123 51 35
4.356640e-001 1.032054e-001 -6.619311e+000 179 171 160
-7.844241e-001 -2.055663e-001 -6.313177e+000 32 23 24
-4.333826e-001 -1.442980e-001 -6.496862e+000 234 122 84
-4.167268e-001 -1.721161e-001 -6.485267e+000 166 35 18
2.207511e-002 -9.146864e-002 -6.602004e+000 241 236 233
1.086113e+000 9.098806e-002 -6.120381e+000 119 10 23
-3.709802e-001 -3.508937e-001 -6.525791e+000 161 144 133
-1.598739e-001 -3.783272e-001 -6.639175e+000 211 204 198
8.710928e-001 -2.136332e-001 -6.344291e+000 147 129 119
8.585112e-001 -2.496554e-001 -6.266556e+000 174 151 101
6.542766e-001 -5.076623e-001 -6.472965e+000 194 185 174
8.991114e-001 -3.949949e-001 -6.284534e+000 175 151 105
1.245534e+000 -3.339760e-001 -6.026342e+000 206 183 115
1.245534e+000 -3.339760e-001 -6.026342e+000 206 183 115
8.117918e-001 -6.161934e-001 -6.454425e+000 208 200 189
3.887595e-001 -9.962944e-001 -7.159958e+000 134 114 69
4.980225e-001 -9.585429e-001 -7.044281e+000 13 5 8
9.903791e-001 -5.137269e-001 -6.224106e+000 150 2 16
-1.923323e+000 -2.757940e+000 -1.029595e+001 37 31 33
-1.911074e+000 -2.888839e+000 -1.030976e+001 37 31 33
-1.401800e+000 -2.061418e+000 -8.424064e+000 39 33 35
-4.482030e-001 6.424406e-001 -7.759647e+000 191 41 42
-2.472332e-002 6.033617e-001 -7.146244e+000 206 197 188
-3.731154e-001 4.127619e-001 -7.654043e+000 208 194 184
-1.234669e-001 4.382117e-001 -7.246545e+000 202 194 183
4.815866e-001 2.879927e-001 -6.802845e+000 141 133 122
1.769561e-001 1.198351e-001 -6.724539e+000 155 145 136
-7.356223e-001 -1.254594e-001 -6.222332e+000 39 24 28
-1.264699e-001 -1.074795e-001 -6.639116e+000 182 160 154
4.642622e-001 2.906400e-002 -6.554627e+000 220 216 210
4.642622e-001 2.906400e-002 -6.554627e+000 220 216 210
2.944290e-001 -9.060665e-002 -6.670139e+000 255 252 244
6.157706e-001 -1.180268e-002 -6.476248e+000 188 179 172
6.546164e-001 1.784557e-002 -6.468510e+000 213 205 196
7.275608e-001 -1.614135e-002 -6.447576e+000 180 172 160
7.282448e-001 -1.662698e-002 -6.449820e+000 180 172 160
5.414405e-001 -1.063421e-001 -6.555476e+000 226 221 217
5.414405e-001 -1.063421e-001 -6.555476e+000 226 221 217
1.059372e+000 -4.206025e-001 -6.202699e+000 229 58 69
-1.876463e+000 -2.664917e+000 -1.026382e+001 24 18 20
-1.836560e+000 -2.767564e+000 -1.021238e+001 20 14 16
-1.760978e+000 -2.889125e+000 -1.010937e+001 29 23 25
6.201594e-001 9.505981e-001 -6.611313e+000 199 40 48
-1.361298e-001 8.906376e-001 -7.460246e+000 191 41 48
-4.376933e-002 6.677101e-001 -7.139650e+000 177 168 159
6.464899e-003 6.841260e-001 -7.118321e+000 218 211 201
6.826236e-001 7.147415e-001 -6.444248e+000 189 43 49
-4.458505e-001 4.662651e-001 -7.783435e+000 38 24 21
-6.996848e-002 4.202983e-001 -7.214529e+000 145 133 122
1.745736e-001 3.659853e-001 -6.887682e+000 188 175 166
3.879330e-001 3.276843e-001 -6.827321e+000 170 162 149
6.320814e-001 1.588115e-001 -6.635605e+000 155 145 134
-7.760491e-001 -1.537753e-001 -6.256279e+000 168 147 100
-7.760491e-001 -1.537753e-001 -6.256279e+000 168 147 100
-7.141556e-001 -1.475644e-001 -6.277649e+000 151 127 81
6.529178e-001 1.774960e-002 -6.462843e+000 213 205 196
1.092093e+000 -1.922458e-002 -6.155814e+000 247 80 90
4.767107e-001 -4.468053e-001 -6.706585e+000 81 64 37
5.854994e-001 -4.922037e-001 -6.585693e+000 204 191 182
1.196576e+000 -2.871753e-001 -6.061942e+000 163 139 91
4.276316e-001 -1.037827e+000 -7.099160e+000 41 28 23
-1.679687e+000 -2.853603e+000 -1.012034e+001 68 64 65
-6.888487e-002 8.475603e-001 -7.146619e+000 220 197 200
5.354702e-001 5.405214e-001 -6.730639e+000 210 201 194
1.431403e-001 4.219206e-001 -6.950705e+000 153 141 129
3.602264e-001 4.454444e-001 -6.900612e+000 178 169 160
4.307282e-002 3.680140e-001 -7.070650e+000 140 130 118
1.332504e-001 2.149295e-001 -6.827070e+000 128 116 106
1.963264e-001 2.078605e-001 -6.774261e+000 201 194 184
4.798370e-001 2.977145e-001 -6.815141e+000 151 143 132
7.381398e-001 2.428553e-001 -6.487380e+000 249 245 240
1.467657e-001 1.627426e-003 -6.691248e+000 127 117 107
-6.084104e-001 -1.413194e-001 -6.337156e+000 155 66 34
5.646339e-002 -2.403088e-001 -6.710489e+000 244 241 236
7.347818e-001 -8.206248e-002 -6.395389e+000 133 119 108
6.571440e-001 -2.055839e-001 -6.503322e+000 234 230 221
5.232706e-001 9.330194e-001 -6.705114e+000 207 41 48
-3.225575e-001 3.145828e-001 -7.610748e+000 37 29 27
9.246586e-001 5.164508e-001 -6.264202e+000 17 7 8
-3.063480e-001 -4.403506e-002 -6.503952e+000 87 27 18
2.476900e-001 -4.141333e-001 -6.713148e+000 63 35 24
1.016394e+000 -1.597764e-001 -6.230902e+000 108 27 33
7.012091e-001 -3.390809e-001 -6.387738e+000 222 197 140
9.131826e-001 -2.571840e-001 -6.248194e+000 175 151 103
8.969091e-001 -4.508397e-001 -6.319528e+000 227 214 206
3.438790e-001 6.595617e-001 -6.732970e+000 230 221 214
5.867255e-001 6.198044e-001 -6.645500e+000 215 208 200
4.380013e-001 4.720037e-001 -6.765931e+000 211 204 196
4.404568e-001 4.716153e-001 -6.772484e+000 211 204 196
7.591843e-001 3.122170e-001 -6.462442e+000 174 159 147
3.978002e-001 1.375723e-001 -6.660020e+000 178 168 159
1.020813e+000 -3.021636e-001 -6.189389e+000 108 88 50
9.581152e-002 6.696442e-001 -7.032175e+000 217 208 201
4.310193e-002 4.835233e-001 -7.109523e+000 186 176 167
9.031939e-002 3.480902e-001 -6.995875e+000 131 121 111
8.554725e-001 3.073604e-001 -6.336330e+000 249 248 244
7.367414e-001 -1.744832e-001 -6.390416e+000 247 240 234
3.973506e-001 -9.875543e-001 -7.157022e+000 140 121 72
1.663743e-001 9.663127e-001 -7.050131e+000 210 201 196
4.100027e-001 5.728366e-001 -6.768666e+000 233 224 217
-2.098781e-001 -5.947244e-002 -6.554615e+000 76 21 19
5.450204e-001 1.295707e-001 -6.581038e+000 138 126 114
5.722358e-001 -3.761332e-001 -6.609385e+000 170 148 100
-2.347278e-001 5.270790e-001 -7.610295e+000 215 206 197
1.012244e-002 -5.934573e-001 -6.771310e+000 39 31 29
7.093034e-001 4.069128e-001 -6.483934e+000 243 242 237
-1.683295e-001 4.036398e-002 -6.676916e+000 73 25 18
4.410638e-002 4.410045e-002 -6.719694e+000 142 132 122
-1.212148e-001 -3.062924e-001 -6.625582e+000 172 159 150
-1.855318e-001 -3.300464e-001 -6.570473e+000 171 161 150
2.715300e-001 6.415034e-001 -7.016002e+000 175 166 157
2.819392e-001 2.241663e-001 -6.785348e+000 124 113 103
-8.970175e-002 1.214859e-002 -6.673202e+000 149 136 128
-1.998973e-001 -2.539304e-001 -6.597836e+000 168 150 139
7.549354e-001 7.909289e-001 -6.448214e+000 122 32 33
-8.421228e-002 4.674806e-001 -7.238580e+000 164 156 145
-4.315090e-001 -4.944218e-002 -6.529538e+000 108 35 15
-2.965255e-001 -2.988852e-001 -6.423027e+000 168 149 148
1.111908e+000 8.432058e-002 -6.113367e+000 180 41 48
4.613297e-001 -8.359513e-002 -6.617775e+000 253 250 245
-1.014620e-001 -3.710718e-001 -6.719027e+000 240 237 230
6.278344e-001 -6.678911e-001 -6.663900e+000 181 39 35
8.262079e-001 6.100389e-001 -6.380296e+000 189 34 42
7.182259e-001 5.846682e-001 -6.441981e+000 249 64 78
1.010074e+000 2.314510e-001 -6.240160e+000 227 60 68
1.082848e+000 8.938734e-002 -6.127873e+000 121 11 20
-8.318587e+000 -6.074084e+000 -1.828741e+001 106 97 95
-3.571450e-001 8.367031e-001 -7.642975e+000 25 18 16
2.391213e-001 3.921156e-001 -6.900401e+000 134 124 111
3.131191e-002 1.035456e+000 -7.174991e+000 181 36 41
1.213568e+000 -1.374092e-001 -6.028288e+000 190 165 111
1.213568e+000 -1.374092e-001 -6.028288e+000 190 165 111
1.962003e-001 5.876853e-002 -6.690129e+000 132 120 108
-5.113374e-001 -9.314543e-002 -6.482090e+000 69 22 15
5.386728e-001 8.826335e-002 -6.982566e+000 142 132 120
6.006575e-001 6.066435e-001 -6.613306e+000 194 186 177
-1.082055e-001 3.605738e-001 -7.190942e+000 152 140 128
-1.075829e-001 1.881055e-001 -6.928453e+000 137 127 117
-7.023946e-002 1.545580e-001 -6.689368e+000 102 88 79
-6.031936e-001 -1.079081e-001 -6.755742e+000 114 51 31
-3.836063e-001 -1.838148e-001 -6.488099e+000 186 45 12
2.609878e-001 8.244359e-001 -7.013528e+000 195 186 181
-7.741932e-001 -1.258102e-001 -6.189891e+000 140 113 65
-7.574225e-001 -2.921906e-001 -6.461842e+000 51 37 33
-4.028302e-001 -1.655187e-001 -6.412650e+000 146 24 8
-5.402676e-001 -2.747929e-001 -6.354904e+000 220 167 124
-5.143032e-001 -2.384140e-001 -6.319781e+000 82 29 13
-5.143032e-001 -2.384140e-001 -6.319781e+000 82 29 13
-3.417820e-001 8.415579e-001 -7.648779e+000 20 20 18
2.780532e-001 6.500979e-001 -6.737600e+000 209 200 191
5.952436e-001 7.323022e-001 -6.504362e+000 187 177 171
-3.332095e-002 4.316658e-001 -7.149217e+000 180 172 162
-1.368026e-001 4.636207e-002 -6.684085e+000 89 32 21
-5.741748e-001 -2.871295e-001 -6.395709e+000 252 220 167
-5.376393e-001 -2.555984e-001 -6.350093e+000 253 210 175
1.408323e-001 1.767992e-001 -6.756376e+000 162 152 142
-4.853678e-001 -2.439665e-001 -6.518071e+000 160 51 24
-4.432124e-001 -2.349136e-001 -6.497173e+000 239 157 124
-2.106174e-001 -1.379657e-001 -6.473483e+000 218 101 62
4.001062e-001 9.756240e-001 -6.806160e+000 227 214 213
-8.162855e-002 4.772000e-001 -7.231297e+000 165 155 145
6.876114e-001 6.111018e-001 -6.466026e+000 208 52 57
6.237334e-001 5.377875e-001 -6.792663e+000 150 140 128
-7.473720e-001 -1.436535e-001 -6.281150e+000 46 31 24
-1.810323e-001 -1.306958e-001 -6.450540e+000 99 24 18
-5.049642e-001 -2.704571e-001 -6.382942e+000 237 191 148
-3.515253e-001 -3.025434e-001 -6.373057e+000 99 81 63
-6.989538e-001 -1.312357e-001 -6.210604e+000 140 117 76
5.553332e-001 1.013698e+000 -6.662416e+000 196 44 50
-5.454638e-001 -2.731802e-001 -6.356490e+000 232 174 132
-7.128032e-001 -1.066391e-001 -6.370860e+000 137 59 23
-2.287052e-001 -1.678551e-001 -6.429342e+000 227 105 57
3.152939e-001 7.801464e-001 -6.894797e+000 153 142 134
-1.259874e-001 6.100854e-001 -7.407427e+000 171 163 153
-1.882402e+000 -2.461062e+000 -1.020298e+001 58 49 50
8.521857e-001 5.512501e-001 -6.363256e+000 200 52 59
6.898651e-001 -7.981966e-001 -6.580812e+000 230 98 105
-9.587163e+000 -1.106238e+001 -2.406346e+001 23 19 20
2.470702e-001 -4.181007e-001 -6.728188e+000 63 35 24
4.696223e-001 1.106386e+000 -6.715779e+000 174 44 51
1.223108e-001 6.166490e-001 -6.976380e+000 216 207 198
6.974870e-001 7.492239e-001 -6.390439e+000 188 44 48
3.508775e-001 2.393452e-001 -6.751674e+000 121 109 94
2.580469e-001 1.620735e-001 -6.645272e+000 191 178 169
-2.238814e-001 -9.289102e-002 -6.532120e+000 84 16 7
-3.235512e-001 -1.952938e-001 -6.431372e+000 167 86 64
4.699262e-001 -5.262784e-002 -6.546100e+000 214 209 202
4.734441e-001 -7.957194e-002 -6.581473e+000 223 217 211
4.535410e-002 6.249774e-001 -7.107578e+000 205 198 190
7.588731e-001 7.594389e-001 -6.429349e+000 82 12 15
6.955619e-001 7.389813e-001 -6.324922e+000 206 47 61
1.052939e-001 2.345829e-001 -6.821890e+000 152 142 133
-3.291280e-001 -6.873760e-003 -6.585590e+000 118 50 32
-3.291280e-001 -6.873760e-003 -6.585590e+000 118 50 32
2.034581e-002 6.878862e-002 -6.735454e+000 164 151 143
-1.833407e-001 -3.372972e-002 -6.637900e+000 84 17 11
2.594626e-001 -9.731573e-002 -6.654853e+000 254 254 249
-1.672522e+000 -3.459288e+000 -1.007265e+001 45 39 41
3.458663e-001 1.173519e+000 -6.874322e+000 200 48 52
4.162860e-001 1.027784e+000 -6.874273e+000 214 51 52
4.051919e-001 1.025721e+000 -6.801554e+000 214 51 52
-1.095805e-001 7.978171e-001 -7.400360e+000 203 196 186
-1.462761e-001 5.390395e-001 -7.429270e+000 180 171 162
-1.335939e-001 6.769055e-002 -6.694294e+000 135 120 113
1.059593e+000 -2.786186e-001 -6.147637e+000 170 147 95
1.073863e+000 -2.655409e-001 -6.143866e+000 164 139 85
7.626282e-001 5.478839e-001 -6.390189e+000 245 68 80
6.437246e-001 2.215489e-001 -6.648602e+000 172 163 152
6.787409e-001 -2.221811e-001 -6.497980e+000 229 225 216
-6.499105e+000 -7.677489e+000 -1.762969e+001 31 32 36
-4.627107e+000 -6.538909e+000 -1.481214e+001 131 127 141
-4.398562e+000 -6.809946e+000 -1.490452e+001 21 19 22
-6.015659e+000 -8.823077e+000 -1.682518e+001 110 109 122
3.798465e-001 1.157815e+000 -6.832623e+000 204 47 54
4.221870e-001 1.126715e+000 -6.769944e+000 194 38 42
7.238879e-001 5.563806e-001 -6.446167e+000 250 245 244
1.430358e-001 -3.963974e-002 -6.660319e+000 160 146 135
3.043346e-001 -1.792454e-001 -6.716849e+000 218 209 202
3.043346e-001 -1.792454e-001 -6.716849e+000 218 209 202
4.214830e-001 -2.299078e-001 -6.717972e+000 217 210 200
1.113190e+000 -7.953407e-002 -6.131401e+000 25 9 12
8.176392e-001 -6.726060e-001 -6.494700e+000 210 205 196
9.149010e-001 -6.669851e-001 -6.380379e+000 250 75 86
1.055966e+000 -7.291501e-001 -6.309658e+000 250 86 94
1.055966e+000 -7.291501e-001 -6.309658e+000 250 86 94
-4.464585e+000 -6.784020e+000 -1.475529e+001 134 131 146
-5.521690e+000 -8.666046e+000 -1.683293e+001 51 51 59
1.698099e-001 -3.540388e-001 -6.708528e+000 44 28 15
1.214947e+000 -1.316184e-001 -6.016483e+000 204 174 122
1.214947e+000 -1.316184e-001 -6.016483e+000 204 174 122
1.043811e+000 -7.136449e-001 -6.292510e+000 250 78 90
1.043811e+000 -7.136449e-001 -6.292510e+000 250 78 90
9.875576e-001 3.678907e-001 -6.216368e+000 218 54 65
4.985370e-002 -4.556955e-001 -6.829740e+000 43 34 30
1.051150e+000 -1.145230e-001 -6.223039e+000 228 64 75
5.455697e-001 8.341112e-001 -6.660088e+000 230 219 215
2.666707e-001 5.728506e-001 -6.967747e+000 139 126 117
5.929955e-001 2.535882e-001 -6.675100e+000 209 202 194
5.240874e-003 -2.840469e-001 -6.701919e+000 125 108 78
-6.296293e+000 -7.763466e+000 -1.731723e+001 115 112 119
-6.200949e+000 -8.120988e+000 -1.705818e+001 133 131 142
-6.200949e+000 -8.120988e+000 -1.705818e+001 133 131 142
5.507643e-001 8.242338e-001 -6.667872e+000 229 221 218
2.510328e-001 -4.249775e-001 -6.744055e+000 66 33 26
-4.744357e+000 -6.666481e+000 -1.536421e+001 167 169 184
-6.322435e+000 -6.463698e+000 -1.803425e+001 19 17 22
-2.334862e-001 5.293839e-001 -7.600568e+000 213 204 195
2.452204e-001 6.539057e-001 -7.111184e+000 177 170 162
7.849040e-001 7.446833e-001 -6.411356e+000 109 22 20
-1.173062e-001 1.264323e-001 -6.783412e+000 107 93 84
-8.275461e-002 9.982471e-002 -6.710419e+000 145 130 123
-3.220085e-001 -2.811913e-002 -6.609246e+000 87 19 8
-4.083843e-002 4.080453e-002 -6.662994e+000 128 114 109
-4.042372e-001 -9.582549e-002 -6.502193e+000 125 31 14
-6.385399e-001 -1.615250e-001 -6.320287e+000 87 29 14
-4.762306e+000 -6.167970e+000 -1.485527e+001 95 90 100
9.929368e-001 -5.731624e-001 -6.226192e+000 243 85 83
-8.133795e-002 8.128738e-001 -7.338390e+000 183 176 168
-4.231350e-001 5.378760e-001 -7.746637e+000 206 40 46
-1.209195e-001 5.645809e-001 -7.399702e+000 166 157 148
3.672644e-001 2.329276e-001 -6.886637e+000 144 130 119
-1.535524e-001 7.259770e-002 -6.696534e+000 79 33 28
-3.603241e-001 -3.366989e-002 -6.564645e+000 139 61 39
-5.147534e-001 -1.115699e-001 -6.468375e+000 74 17 10
3.475090e-001 -2.828706e-001 -6.727833e+000 126 110 95
6.455625e-001 -6.291299e-002 -6.446370e+000 218 214 205
6.455625e-001 -6.291299e-002 -6.446370e+000 218 214 205
-5.748344e+000 -8.866051e+000 -1.667066e+001 156 161 183
7.503081e-001 7.636028e-001 -6.449916e+000 76 7 10
1.728337e-001 2.067410e-001 -6.776386e+000 199 191 180
7.795474e-001 4.894060e-001 -6.452425e+000 207 201 195
9.766572e-001 3.577672e-001 -6.221221e+000 234 67 77
-2.116851e-001 -1.542718e-001 -6.527208e+000 214 102 65
8.066847e-001 -8.234731e-001 -6.576541e+000 226 78 79
-1.267757e+000 -2.529919e+000 -8.439071e+000 25 19 21
-4.646707e-001 5.185347e-001 -7.822679e+000 217 58 56
-1.013524e-001 3.417369e-001 -7.149453e+000 140 127 118
-2.770842e-002 4.103376e-001 -7.138723e+000 140 130 117
6.224915e-001 5.813295e-001 -6.603808e+000 166 156 146
3.120449e-001 2.666065e-001 -6.803570e+000 119 104 94
-2.037148e-001 6.569117e-002 -6.716938e+000 61 12 11
4.708013e-001 2.050426e-001 -6.703559e+000 120 108 94
-2.291793e-001 -4.250368e-002 -6.623961e+000 78 23 16
1.007072e+000 2.346108e-001 -6.230877e+000 242 73 82
-1.342163e-001 -3.250283e-001 -6.651024e+000 169 148 135
-4.871961e+000 -6.512104e+000 -1.475223e+001 9 8 14
-1.393395e+000 -4.643947e+000 -1.013826e+001 46 40 42
4.411576e-001 1.596427e-001 -6.648311e+000 203 195 185
7.438374e-001 9.236094e-002 -6.518925e+000 194 185 178
-6.237578e+000 -7.442423e+000 -1.797733e+001 84 84 92
1.014965e+000 -3.332353e-001 -6.178436e+000 110 86 48
-4.830938e+000 -6.652611e+000 -1.479048e+001 155 153 167
-4.796483e+000 -6.594595e+000 -1.470370e+001 155 153 167
-6.068032e+000 -8.858002e+000 -1.672678e+001 130 131 149
-1.395547e-001 7.678190e-001 -7.415865e+000 202 193 185
4.637750e-001 6.708705e-001 -6.783518e+000 168 157 153
4.637750e-001 6.708705e-001 -6.783518e+000 168 157 153
6.071923e-001 3.202232e-001 -6.647309e+000 194 185 176
8.950173e-001 -9.008135e-001 -6.496424e+000 231 66 80
8.950173e-001 -9.008135e-001 -6.496424e+000 231 66 80
6.151910e-001 9.495029e-001 -6.590528e+000 209 45 56
8.349505e-001 -2.394366e-001 -6.338092e+000 91 74 54
8.693003e-001 -7.080544e-002 -6.364104e+000 164 151 143
9.060223e-001 -2.413286e-001 -6.214686e+000 182 157 108
-4.426617e+000 -6.805770e+000 -1.432796e+001 161 161 173
-5.508877e+000 -8.103078e+000 -1.634813e+001 10 8 12
-5.496290e+000 -8.077742e+000 -1.631071e+001 10 8 12
1.129872e+000 -1.000767e-001 -6.107753e+000 37 26 27
-5.899497e+000 -8.839849e+000 -1.683128e+001 168 173 195
-1.613146e-001 2.356775e-001 -7.298381e+000 122 28 31
-8.756269e-002 1.385157e-001 -6.599487e+000 142 129 120
-1.071133e-001 -1.914580e-002 -6.615593e+000 109 37 21
-8.384705e-002 -2.030678e-001 -6.656937e+000 240 229 226
4.489727e-001 -8.470058e-002 -6.623365e+000 238 235 228
-2.303494e-001 9.677786e-001 -7.499164e+000 29 19 19
-1.594448e-001 7.792397e-001 -7.451235e+000 203 194 185
2.845279e-001 6.778704e-001 -6.978162e+000 190 181 174
2.846954e-001 6.764775e-001 -6.991737e+000 190 181 174
2.157605e-001 2.361042e-001 -6.715559e+000 157 141 126
-3.710257e-001 -3.431440e-002 -6.534573e+000 144 65 43
-4.598891e-002 7.209864e-002 -6.740852e+000 131 116 109
-7.000279e-001 -1.883368e-001 -6.270063e+000 91 24 17
-4.282169e-001 -1.652413e-001 -6.432977e+000 251 139 101
-9.263842e-002 -3.020581e-001 -6.637651e+000 191 183 174
-1.688831e+000 -3.395209e+000 -1.007485e+001 41 35 37
8.453037e-001 -2.138268e-001 -6.360618e+000 139 122 110
4.925706e-001 -1.005755e+000 -7.069144e+000 241 221 182
5.102661e-002 1.189541e+000 -7.128843e+000 186 39 40
-2.248753e-001 -9.180648e-003 -7.633913e+000 35 27 26
-2.248753e-001 -9.180648e-003 -7.633913e+000 35 27 26
-4.492018e-001 -8.872544e-003 -6.639253e+000 69 16 8
-4.492018e-001 -8.872544e-003 -6.639253e+000 69 16 8
8.291051e-001 5.243446e-001 -6.413440e+000 214 57 66
-5.218625e-001 -1.278763e-001 -6.362883e+000 147 63 39
4.607074e-001 7.404942e-002 -6.643368e+000 131 119 107
2.012125e-002 -1.796393e-001 -6.642277e+000 253 250 243
1.515665e-001 -1.552248e-001 -6.685281e+000 232 225 219
-5.690876e-001 -2.728224e-001 -6.353923e+000 43 35 33
-1.393014e-001 -3.456215e-001 -6.630328e+000 232 225 221
4.168158e-001 -3.769662e-001 -6.687151e+000 196 183 131
-1.604821e+000 -3.499164e+000 -1.010519e+001 53 47 47
9.340485e-002 1.062880e+000 -7.112514e+000 203 42 49
-2.118178e-001 -1.476809e-001 -6.511370e+000 227 116 77
-4.396141e-003 -1.556682e-001 -6.617247e+000 227 224 219
-3.716253e-001 4.146150e-001 -7.588071e+000 213 200 191
8.134343e-001 5.015048e-001 -6.414485e+000 174 33 44
1.178977e-001 -1.823322e-002 -6.677573e+000 159 149 140
1.159943e-001 -1.078936e-002 -6.659883e+000 159 149 140
-9.812908e-002 -3.436440e-001 -6.671123e+000 242 236 232
1.010829e+000 1.842782e-001 -6.222334e+000 195 35 45
1.010829e+000 1.842782e-001 -6.222334e+000 195 35 45
4.984527e-001 -2.739569e-001 -6.706604e+000 244 237 231
1.083565e+000 5.691116e-002 -6.109704e+000 229 83 91
7.244911e-001 -7.379548e-001 -6.553767e+000 219 47 59
2.973269e-001 8.621231e-001 -7.011463e+000 223 217 213
-3.667088e-001 -1.643057e-001 -6.490978e+000 249 132 87
6.354897e-001 -5.110305e-001 -6.547222e+000 229 217 208
-4.763671e-001 -1.088596e-001 -6.496045e+000 94 33 26
3.992030e-001 7.818951e-002 -6.633190e+000 199 190 181
5.093625e-001 5.684539e-002 -6.543424e+000 146 134 120
5.093625e-001 5.684539e-002 -6.543424e+000 146 134 120
5.276556e-001 2.017879e-002 -6.483975e+000 214 207 199
5.655987e-001 -3.607021e-001 -6.536473e+000 178 156 106
1.580352e-001 1.170885e+000 -7.040884e+000 203 48 54
-1.261416e-001 2.462248e-001 -7.307798e+000 184 174 162
-2.030228e-001 6.536674e-002 -7.155789e+000 220 212 205
-6.561343e-002 5.857711e-001 -7.280998e+000 168 162 150
-6.561343e-002 5.857711e-001 -7.280998e+000 168 162 150
5.451279e-001 -6.972978e-001 -6.707202e+000 251 250 245
-5.228302e-001 -1.129539e-001 -6.543545e+000 65 17 12
6.604781e-001 -3.055274e-001 -6.481186e+000 100 85 64
7.548253e-001 -8.263454e-001 -6.526411e+000 50 36 36
-3.211500e-001 2.307151e-001 -7.422650e+000 38 27 27
-2.198888e-001 -6.893882e-002 -6.581836e+000 66 11 8
3.639128e-001 -1.095240e-001 -6.686859e+000 245 242 234
3.644968e-001 -1.086479e-001 -6.684678e+000 245 242 234
3.500620e-002 -5.977721e-001 -6.805585e+000 35 30 27
-1.829863e+000 -3.154577e+000 -1.028168e+001 38 32 34
6.968753e-001 -1.047260e-001 -6.396677e+000 228 220 210
-4.325938e+000 -6.581842e+000 -1.489913e+001 30 28 33
-4.410831e+000 -6.630599e+000 -1.481615e+001 165 161 175
-6.157592e+000 -8.465169e+000 -1.680084e+001 9 7 10
2.482726e-002 2.272473e-001 -6.915958e+000 145 132 123
-3.716182e-001 -5.299145e-002 -6.526037e+000 121 37 16
-3.590322e-001 -8.904354e-002 -6.490225e+000 129 34 14
8.298514e-001 -8.890323e-001 -6.590755e+000 48 30 30
4.155181e-001 1.041534e+000 -6.831378e+000 214 50 57
6.017594e-001 5.807033e-001 -6.637795e+000 204 194 185
-5.908503e+000 -9.069895e+000 -1.669710e+001 12 10 16
1.477967e-001 1.056375e+000 -7.030270e+000 232 192 168
2.364730e-001 6.340755e-001 -7.017327e+000 181 174 164
3.601396e-001 1.035747e+000 -6.854335e+000 203 32 40
1.815237e-002 4.911051e-001 -7.105292e+000 208 197 191
1.815237e-002 4.911051e-001 -7.105292e+000 208 197 191
1.427878e-001 5.394164e-001 -7.002852e+000 176 167 154
5.705599e-001 5.745419e-001 -6.685885e+000 187 181 170
-9.135605e-003 2.299216e-001 -6.998336e+000 145 135 125
2.412116e-001 2.671464e-001 -6.807288e+000 122 108 97
-3.723717e-001 -3.865968e-002 -6.543426e+000 144 65 43
-1.611072e-001 -2.160136e-002 -6.646007e+000 90 21 15
-6.352909e+000 -7.980569e+000 -1.780846e+001 79 79 80
-4.824850e+000 -6.251701e+000 -1.487088e+001 101 99 108
-4.706364e+000 -6.984015e+000 -1.493104e+001 156 154 168
-3.977141e+000 -7.379748e+000 -1.467659e+001 84 87 96
-1.491283e+000 -4.144293e+000 -1.005743e+001 50 44 48
-1.209797e-001 8.135616e-001 -7.414521e+000 161 147 139
-3.399232e-004 2.577438e-001 -6.987589e+000 130 118 106
2.995680e-001 2.744628e-001 -6.874987e+000 127 115 102
-6.192699e+000 -7.756341e+000 -1.733414e+001 80 79 84
-2.056013e+000 -3.059215e+000 -1.045807e+001 55 50 54
-5.557734e+000 -8.844378e+000 -1.689788e+001 120 121 139
-1.437053e+000 -4.191288e+000 -9.958808e+000 53 48 52
5.989419e-001 5.481070e-001 -6.674145e+000 153 143 133
-1.943399e-001 1.330678e-002 -6.644927e+000 70 20 17
8.458495e-001 3.762192e-001 -6.312292e+000 252 81 93
7.931544e-001 7.079311e-001 -6.381011e+000 21 1 4
-5.016074e-001 6.003115e-001 -7.870504e+000 38 24 20
3.010584e-001 3.967085e-002 -6.659884e+000 244 240 231
5.946258e-001 1.161858e-001 -6.590929e+000 189 175 165
-4.686461e+000 -6.658075e+000 -1.503057e+001 142 138 153
-4.112178e+000 -7.678634e+000 -1.470574e+001 11 7 14
-5.746908e+000 -7.523261e+000 -1.681047e+001 10 10 12
6.299765e-001 9.503052e-001 -6.549405e+000 186 44 53
-6.194365e+000 -7.610823e+000 -1.728588e+001 80 77 84
-7.158044e-002 1.411516e-001 -6.773421e+000 108 94 83
-6.072385e-002 8.618357e-002 -6.688419e+000 162 147 140
-6.072385e-002 8.618357e-002 -6.688419e+000 162 147 140
-4.287759e+000 -6.366074e+000 -1.494079e+001 47 45 48
3.315669e-001 2.272805e-001 -6.720944e+000 143 130 114
-3.760451e-001 -9.893411e-002 -6.503850e+000 126 37 16
-4.028253e-001 -1.905463e-001 -6.465644e+000 144 27 9
-5.556306e+000 -9.072624e+000 -1.670023e+001 116 124 147
5.527711e-001 -3.403796e-001 -6.603494e+000 147 133 108
9.810163e-001 -2.177511e-001 -6.249979e+000 141 114 76
-6.139339e+000 -7.507116e+000 -1.782688e+001 66 66 74
-4.650220e+000 -6.161734e+000 -1.507109e+001 136 136 146
-2.010562e+000 -2.518612e+000 -1.034676e+001 40 36 37
6.838149e-001 4.760961e-001 -6.501267e+000 235 232 223
6.948997e-001 4.920096e-001 -6.482842e+000 236 231 227
-3.242287e-001 -8.895317e-002 -6.544775e+000 90 20 11
-6.059204e+000 -8.966105e+000 -1.671301e+001 3 4 8
4.826255e-001 -1.242694e-002 -6.554925e+000 199 192 174
-1.648960e+000 -3.649202e+000 -1.022089e+001 28 22 24
4.804258e-001 -1.032843e+000 -7.088311e+000 42 29 20
-1.314513e+000 -5.185538e+000 -9.843471e+000 22 15 17
-4.459785e-002 1.084453e+000 -7.278426e+000 142 21 30
4.897931e-002 1.215590e+000 -7.076725e+000 33 14 15
-1.657650e-001 4.752259e-001 -7.450422e+000 192 184 173
5.375857e-001 1.054547e+000 -6.667262e+000 185 40 45
1.490835e-001 3.565301e-001 -6.951506e+000 136 124 112
-6.017497e+000 -7.339855e+000 -1.783296e+001 66 66 78
-2.036128e+000 -2.379513e+000 -1.031140e+001 36 30 30
-4.867299e+000 -6.247514e+000 -1.509863e+001 130 130 139
-4.766908e+000 -6.406331e+000 -1.468555e+001 122 120 130
-4.687001e+000 -6.562248e+000 -1.500500e+001 137 137 149
-2.802852e-001 -1.465409e-003 -6.639037e+000 56 15 9
-6.698969e-001 -1.730767e-001 -6.312192e+000 136 109 66
1.704111e-001 5.510714e-002 -6.695755e+000 170 160 148
-6.051129e+000 -8.644959e+000 -1.670679e+001 105 103 115
-1.278094e-001 -2.043831e-001 -6.683897e+000 233 209 149
-1.820811e+000 -3.140768e+000 -1.024841e+001 40 34 38
-1.783574e+000 -3.275565e+000 -1.024577e+001 44 40 41
-3.504320e-001 -3.406772e-001 -6.477508e+000 164 143 123
-2.200845e-001 -3.616235e-001 -6.551011e+000 234 229 225
-1.883506e-001 -3.760015e-001 -6.588572e+000 251 251 246
6.116511e-001 -6.286964e-001 -6.650566e+000 174 161 141
8.292793e-001 -8.629505e-001 -6.632058e+000 235 82 88
-1.264753e+000 -5.134401e+000 -9.820898e+000 111 101 102
-1.264753e+000 -5.134401e+000 -9.820898e+000 111 101 102
3.666481e-001 1.192096e+000 -6.780508e+000 27 10 13
-1.979811e-001 1.011225e-001 -6.740368e+000 78 42 41
-6.167097e+000 -8.190151e+000 -1.676301e+001 11 9 17
-4.871265e+000 -6.484487e+000 -1.497889e+001 118 116 128
-1.347193e-001 -1.197622e-002 -6.679270e+000 112 43 32
-4.558940e+000 -6.760413e+000 -1.470467e+001 109 109 117
-1.864631e+000 -3.026881e+000 -1.028769e+001 49 44 46
-2.110860e-001 -1.515887e-001 -6.517471e+000 228 115 76
-5.535817e-003 -3.958820e-001 -6.748759e+000 40 33 25
1.308511e-001 -2.092015e-001 -6.677668e+000 199 189 179
1.039663e+000 3.156188e-001 -6.174483e+000 32 10 16
1.104563e+000 1.627911e-001 -6.136111e+000 32 18 19
-1.365349e+000 -4.547345e+000 -9.990090e+000 52 46 48
-1.316262e+000 -4.625976e+000 -9.903512e+000 45 40 44
-1.269705e+000 -4.600857e+000 -9.769276e+000 49 43 43
7.017039e-001 -8.179066e-001 -6.613257e+000 234 96 96
-3.116141e-001 6.582524e-001 -7.604951e+000 194 172 166
-1.090070e-001 3.426702e-001 -7.138773e+000 126 114 102
-1.090070e-001 3.426702e-001 -7.138773e+000 126 114 102
4.770122e-001 5.335437e-001 -6.774566e+000 184 177 167
4.770122e-001 5.335437e-001 -6.774566e+000 184 177 167
-4.190918e-001 -1.504558e-001 -6.504836e+000 180 74 42
4.216829e-001 -2.302953e-001 -6.718833e+000 216 210 197
4.232021e-001 -4.449306e-001 -6.717630e+000 251 251 241
-1.259685e+000 -5.135059e+000 -9.925151e+000 19 9 10
-1.542683e-001 3.122393e-002 -7.488498e+000 89 8 9
-4.408262e-001 -2.091228e-001 -6.497419e+000 212 107 66
1.122489e+000 5.059985e-003 -6.133780e+000 32 11 18
-1.330388e+000 -4.957503e+000 -9.769474e+000 62 51 49
4.802908e-001 1.079699e+000 -6.718147e+000 211 51 56
-1.109555e-001 4.745271e-001 -7.407733e+000 203 195 184
-1.703209e-001 1.351575e-001 -7.544521e+000 132 17 24
6.199528e-001 -6.832954e-001 -6.611239e+000 45 34 32
1.678246e-001 3.103382e-001 -6.847897e+000 132 117 106
-3.956457e+000 -7.572957e+000 -1.498906e+001 15 13 18
9.355250e-001 2.977080e-001 -6.287762e+000 226 61 70
2.386180e-001 -4.207514e-001 -6.738497e+000 71 45 31
2.418453e-001 -4.288748e-001 -6.751787e+000 71 45 31
9.209625e-001 -2.521361e-001 -6.249333e+000 199 176 122
-1.328096e-001 1.013088e+000 -7.361572e+000 201 50 57
2.561976e-001 5.776889e-001 -6.957084e+000 140 128 116
5.107455e-001 -3.000170e-001 -6.654692e+000 99 84 64
7.319302e-001 -1.907289e-001 -6.415803e+000 255 252 247
-2.292827e-001 -1.189956e-001 -6.835589e+000 120 52 33
1.967648e-001 9.737414e-001 -7.003141e+000 219 212 206
8.602317e-001 1.805448e-001 -6.309542e+000 225 214 208
1.441355e-001 1.054881e+000 -7.082171e+000 219 54 62
2.516182e-001 7.216253e-001 -6.885301e+000 200 193 185
1.451148e-001 5.655901e-001 -7.052394e+000 161 147 136
-5.491145e-002 1.911880e-001 -6.926536e+000 140 127 113
5.527031e-001 5.276260e-001 -6.614030e+000 140 128 115
-7.534122e-002 6.120556e-002 -6.743421e+000 125 111 102
-3.824440e-002 1.820193e-002 -6.727999e+000 135 120 112
-7.567208e-001 -2.395967e-001 -6.440958e+000 141 75 51
-2.190481e-001 -6.866553e-002 -6.622845e+000 93 35 28
-6.716940e-001 -1.845466e-001 -6.304873e+000 77 23 21
-6.115689e-001 -2.043921e-001 -6.343851e+000 114 28 9
-2.085259e-001 -3.497529e-001 -6.573669e+000 183 174 167
5.947119e-002 -3.013110e-001 -6.644521e+000 196 180 165
5.439134e-001 -2.525322e-001 -6.588313e+000 161 145 128
-5.077429e-002 4.258689e-001 -7.209671e+000 164 153 143
1.343735e-001 5.956617e-001 -7.086829e+000 222 212 203
2.706449e-001 7.052657e-001 -6.864975e+000 190 181 172
-6.171414e-001 -1.450801e-001 -6.862272e+000 141 63 46
3.416293e-001 3.261346e-001 -6.826667e+000 162 150 138
7.869025e-001 4.878942e-001 -6.452694e+000 209 201 191
-1.655169e+000 -3.823898e+000 -1.036595e+001 29 25 26
-5.955284e-001 -2.826795e-001 -6.360087e+000 224 114 84
8.993958e-001 -6.010592e-001 -6.319512e+000 249 96 104
-1.381615e-001 9.067651e-001 -7.457268e+000 171 28 35
-1.727001e-001 -5.180792e-002 -6.665407e+000 84 20 11
-6.982922e-001 -2.806932e-001 -6.380168e+000 255 163 129
-1.968583e-001 -1.097496e-001 -6.542496e+000 116 44 32
-1.968583e-001 -1.097496e-001 -6.542496e+000 116 44 32
-6.358105e-002 -2.355854e-001 -6.677513e+000 240 231 226
-5.724651e-002 -1.538433e-001 -6.629533e+000 227 222 216
2.304532e-002 -1.309885e-001 -6.616464e+000 253 248 242
2.655335e-001 -5.525735e-002 -6.644332e+000 221 214 206
8.688489e-001 5.848105e-001 -6.312508e+000 203 58 66
-2.888377e-001 -3.432782e-001 -6.483282e+000 198 194 187
3.568045e-002 -4.317751e-001 -6.791925e+000 36 27 22
4.388317e-001 -5.680080e-001 -6.739779e+000 252 252 240
5.406834e-002 1.183010e+000 -7.143039e+000 190 39 46
6.031694e-001 5.165873e-001 -6.640490e+000 171 159 145
7.215610e-001 5.585771e-001 -6.439716e+000 248 249 240
-2.623019e-001 -3.296491e-001 -6.493113e+000 222 213 207
8.096987e-001 4.210784e-001 -6.377517e+000 184 169 156
5.431950e-001 8.314658e-002 -6.509820e+000 191 181 168
4.815856e-001 -8.224098e-002 -6.531538e+000 217 210 200
6.178472e-001 -6.414089e-001 -6.591719e+000 56 42 40
6.178472e-001 -6.414089e-001 -6.591719e+000 56 42 40
-3.703027e-001 -1.641622e-002 -6.861599e+000 44 12 13
7.488253e-001 7.598837e-001 -6.455754e+000 88 7 15
-3.957095e-001 -3.046436e-001 -6.490592e+000 247 188 154
2.462293e-002 -9.850755e-002 -6.618858e+000 239 232 229
-1.663303e-002 -2.662849e-001 -6.681703e+000 66 47 26
5.281852e-001 -8.818520e-002 -6.516166e+000 230 226 217
-3.511696e-001 7.691791e-001 -7.691388e+000 195 39 46
4.764215e-001 2.920508e-001 -6.792865e+000 141 129 119
8.023172e-001 6.673149e-001 -6.366398e+000 237 81 90
-6.605510e-001 -1.499313e-001 -6.321500e+000 74 22 10
-8.294618e-002 -7.794213e-002 -6.649030e+000 207 188 180
7.519903e-001 5.371048e-001 -6.408343e+000 253 253 251
-4.209580e-001 -3.045958e-001 -6.538256e+000 247 184 142
-2.762961e-001 -3.339314e-001 -6.497272e+000 190 178 171
-2.333418e-001 -2.743608e-001 -6.516409e+000 167 144 133
4.500446e-001 -3.111794e-001 -6.585041e+000 254 252 203
1.010949e+000 2.122018e-001 -6.207035e+000 207 45 57
-9.524187e-002 3.777420e-001 -7.268830e+000 133 121 109
3.543876e-001 4.572852e-001 -6.870131e+000 187 177 168
4.752581e-001 2.954392e-001 -6.790247e+000 141 130 119
