ply
format ascii 1.0
element face 0
property list uchar int vertex_indices
element vertex 871
property float x
property float y
property float z
property uchar diffuse_red
property uchar diffuse_green
property uchar diffuse_blue
end_header
-1.063852e-001 5.563153e-001 -7.255923e+000 170 161 154
4.591914e-001 1.448780e-001 -6.627160e+000 154 141 132
-2.630582e-001 5.551169e-002 -6.758807e+000 72 27 22
-1.679073e-001 -2.358952e-002 -6.639519e+000 142 119 110
-4.387415e-001 -7.040852e-002 -6.535260e+000 86 18 7
-1.924964e-001 -9.305818e-002 -6.597351e+000 165 80 59
-5.851919e-001 -2.473346e-001 -6.502866e+000 134 33 10
-2.369820e-001 -3.112144e-001 -6.646866e+000 113 94 79
5.973895e-001 -3.089143e-001 -6.659716e+000 172 163 148
-3.100809e-001 -3.895284e-001 -6.485969e+000 181 172 170
-2.562125e-001 -4.162508e-001 -6.552269e+000 253 254 249
4.720525e-001 -5.634943e-001 -6.733344e+000 229 226 218
4.720525e-001 -5.634943e-001 -6.733344e+000 229 226 218
1.125104e+000 -6.956842e-001 -6.173930e+000 18 1 7
8.631410e-001 8.268219e-001 -6.366161e+000 196 55 61
-4.296306e-001 9.524528e-001 -7.750011e+000 30 16 16
9.698927e-001 6.503378e-001 -6.279050e+000 176 42 37
1.100279e-001 6.341185e-001 -7.061848e+000 186 177 168
5.389330e-001 5.752920e-001 -6.755353e+000 166 157 150
3.288010e-001 3.627581e-001 -6.879620e+000 123 110 99
1.200830e+000 2.566606e-001 -6.086482e+000 25 5 9
5.043606e-002 2.068743e-001 -6.858211e+000 178 169 160
5.043606e-002 2.068743e-001 -6.858211e+000 178 169 160
3.943494e-001 2.092761e-001 -6.646004e+000 142 129 113
7.880101e-001 1.196769e-001 -6.510202e+000 195 188 178
2.415482e-001 5.163497e-002 -6.648285e+000 192 182 172
2.432276e-001 1.600969e-002 -6.653429e+000 203 194 187
1.260970e+000 3.992963e-002 -6.050107e+000 243 79 98
-1.149191e-001 -2.624990e-002 -6.628499e+000 183 173 164
1.243690e+000 -1.358127e-001 -6.105928e+000 249 79 93
-9.715287e-001 -2.443930e-001 -6.294076e+000 135 113 67
-3.182396e+000 -6.740948e-001 -1.134869e+001 44 39 39
-4.940499e-001 -3.052740e-001 -6.466998e+000 188 105 67
6.178913e-001 -3.010112e-001 -6.599601e+000 243 240 231
7.266445e-001 -2.979178e-001 -6.483412e+000 172 158 147
9.073895e-001 -2.826631e-001 -6.326182e+000 158 145 134
-3.357837e-001 -4.089205e-001 -6.485125e+000 236 232 229
-2.447381e-002 -4.604854e-001 -6.829255e+000 255 254 249
9.665954e-001 -4.817094e-001 -6.256375e+000 182 159 106
9.903095e-001 -5.922727e-001 -6.325043e+000 169 147 134
5.152959e-001 -1.163219e+000 -7.119408e+000 45 32 34
9.448995e-001 -1.015965e+000 -6.549284e+000 253 82 93
4.202934e-001 1.107232e+000 -6.814446e+000 219 212 209
1.379739e-002 1.171611e+000 -7.237834e+000 192 35 44
8.770996e-001 8.794785e-001 -6.407504e+000 16 12 9
9.439171e-001 6.898868e-001 -6.304097e+000 203 42 57
-3.171363e-001 8.310212e-001 -7.598752e+000 206 191 183
5.101274e-001 5.977518e-001 -6.775027e+000 181 174 166
-1.083022e-001 5.921947e-001 -7.232436e+000 208 199 190
1.100588e+000 4.192937e-001 -6.140734e+000 214 49 60
1.074863e+000 3.042187e-001 -6.200367e+000 235 64 73
1.187042e+000 2.321459e-001 -6.083908e+000 229 58 64
7.426562e-001 1.733524e-001 -6.575043e+000 170 163 153
2.355180e-002 9.444171e-002 -6.759684e+000 179 168 162
5.048056e-002 6.736089e-002 -6.727233e+000 182 171 165
1.206471e+000 5.497563e-002 -6.024579e+000 204 53 62
1.272791e+000 8.516931e-002 -6.039502e+000 29 12 20
7.106128e-001 4.844281e-002 -6.470657e+000 162 150 138
1.183840e+000 2.546912e-002 -6.034633e+000 169 29 40
3.904795e-001 -2.155649e-002 -6.588940e+000 204 194 185
8.694184e-002 -1.129085e-001 -6.638625e+000 177 166 162
5.162220e-001 -1.184328e-001 -6.536574e+000 224 221 214
-7.437273e-001 -2.112321e-001 -6.281264e+000 145 60 38
-1.187847e-001 -2.460689e-001 -6.633432e+000 238 235 230
1.162995e-001 -2.514009e-001 -6.680899e+000 205 191 182
1.162995e-001 -2.514009e-001 -6.680899e+000 205 191 182
9.909373e-001 -2.057343e-001 -6.282938e+000 164 149 141
-9.630829e-002 -2.956078e-001 -6.698440e+000 241 240 237
3.534260e-001 -3.169039e-001 -6.745238e+000 215 208 200
-4.607326e-001 -3.645647e-001 -6.432661e+000 46 42 53
-1.861261e-001 -3.739983e-001 -6.621206e+000 159 143 131
4.614439e-001 -5.269522e-001 -6.739782e+000 254 255 250
5.573948e-001 -5.117625e-001 -6.650413e+000 151 132 94
7.064425e-001 -5.717892e-001 -6.500181e+000 239 233 224
4.808343e-001 -6.957619e-001 -6.796697e+000 254 255 250
1.008953e+000 -8.811430e-001 -6.393421e+000 28 11 12
3.959026e-001 -1.206848e+000 -7.273880e+000 208 191 147
4.004384e-001 1.174078e+000 -6.862300e+000 196 34 40
4.593789e-001 1.129329e+000 -6.791171e+000 206 37 44
8.825405e-001 7.989440e-001 -6.349386e+000 17 1 8
-3.983157e-001 9.885646e-001 -7.669608e+000 193 36 43
7.026179e-001 7.265896e-001 -6.543080e+000 148 124 116
6.909728e-001 6.881980e-001 -6.549943e+000 221 212 203
-1.007351e-001 6.373037e-001 -7.240729e+000 150 141 131
4.797443e-001 3.554403e-001 -6.858980e+000 142 132 119
1.156471e+000 3.103778e-001 -6.111744e+000 232 58 71
4.719638e-001 1.736114e-001 -6.641880e+000 194 184 174
4.807950e-001 6.898967e-002 -6.582852e+000 146 136 127
8.496100e-001 1.092786e-001 -6.461277e+000 188 181 171
-2.032705e-001 3.830369e-002 -6.693947e+000 77 20 13
-1.631227e-001 1.790156e-002 -6.667956e+000 156 144 132
6.209428e-001 5.122978e-002 -6.493708e+000 160 150 141
7.151949e-001 8.734407e-003 -6.432112e+000 209 200 193
-2.788177e-001 -2.959832e-001 -6.544400e+000 169 145 135
4.612436e-001 -3.257914e-001 -6.713415e+000 227 220 210
7.571741e-001 -2.893560e-001 -6.445462e+000 177 166 154
-1.213261e-002 -5.036758e-001 -6.859855e+000 50 39 37
-4.326408e-001 -5.280308e-001 -6.636913e+000 40 34 25
5.069465e-001 -5.725084e-001 -6.714011e+000 254 253 249
1.029871e+000 -8.430616e-001 -6.389772e+000 250 255 249
2.954294e-001 9.849077e-001 -7.013468e+000 221 215 212
8.868838e-001 7.476778e-001 -6.338407e+000 227 55 67
5.050855e-001 8.160537e-001 -6.805730e+000 228 223 217
7.548002e-001 6.998145e-001 -6.424158e+000 219 53 65
-1.965897e-001 8.194499e-001 -7.480085e+000 156 143 134
1.548853e-001 7.294952e-001 -7.078383e+000 221 214 208
5.000418e-001 7.038926e-001 -6.795201e+000 240 233 227
6.896168e-002 6.948175e-001 -7.102442e+000 207 198 193
8.786852e-001 5.146409e-001 -6.377952e+000 215 204 198
7.403574e-002 5.743415e-001 -7.081798e+000 204 193 187
9.156223e-001 4.719361e-001 -6.307350e+000 213 45 54
-4.525851e-001 4.655574e-001 -7.711512e+000 212 202 193
2.453975e-001 3.760570e-001 -6.896859e+000 180 169 163
1.176434e-001 2.318700e-001 -6.820724e+000 138 125 116
9.796874e-001 2.281182e-001 -6.285790e+000 158 143 136
3.551010e-001 2.014433e-001 -6.710894e+000 198 190 179
1.212115e+000 1.447799e-001 -6.068328e+000 207 45 51
5.016782e-002 1.332619e-001 -6.809892e+000 129 119 109
1.127002e-001 1.400437e-001 -6.770391e+000 214 207 201
1.249660e+000 -2.898217e-003 -6.045515e+000 16 7 3
7.444336e-001 -2.723601e-002 -6.414699e+000 161 149 137
1.874978e-001 -1.440509e-001 -6.673367e+000 195 188 180
-8.514583e-001 -2.516458e-001 -6.271283e+000 122 56 50
1.207165e+000 -1.778281e-001 -6.105386e+000 122 23 36
-4.306586e-001 -2.663149e-001 -6.449557e+000 142 25 26
6.697094e-001 -3.128422e-001 -6.558089e+000 163 151 137
-5.040343e-001 -3.488803e-001 -6.469325e+000 239 188 141
6.206774e-001 -4.313542e-001 -6.550990e+000 161 138 94
5.057098e-001 -5.756979e-001 -6.714321e+000 255 254 250
1.035788e+000 -4.875272e-001 -6.218484e+000 230 217 208
5.129030e-001 -7.482638e-001 -6.814312e+000 225 222 215
8.235781e-001 -9.742916e-001 -6.647251e+000 44 28 34
-9.939765e+000 -7.535894e+000 -3.114562e+001 18 11 9
4.971732e-001 1.037416e+000 -6.755873e+000 223 217 213
-2.052137e-002 1.098197e+000 -7.254818e+000 195 185 176
1.390725e-001 1.004817e+000 -7.134385e+000 206 199 193
7.256906e-001 7.969155e-001 -6.551695e+000 203 197 189
2.302019e-001 3.001519e-001 -6.873228e+000 126 113 104
1.078935e+000 2.281422e-001 -6.198938e+000 192 37 42
3.677314e-001 4.997204e-002 -6.630569e+000 160 152 141
1.947875e-001 -4.325232e-002 -6.655027e+000 255 254 250
2.791197e-001 -4.900896e-002 -6.659284e+000 209 198 192
8.081903e-001 -1.056034e-001 -6.352470e+000 145 131 120
1.212803e+000 -1.074416e-001 -6.059432e+000 241 66 78
-7.742937e-001 -2.313034e-001 -6.254496e+000 119 50 49
-7.332015e-001 -1.845464e-001 -6.297281e+000 149 68 39
-1.393939e-001 -3.210617e-001 -6.718567e+000 50 37 18
-1.397252e-001 -3.236319e-001 -6.736316e+000 50 37 18
-4.094320e-001 -3.601091e-001 -6.455861e+000 170 71 60
2.738345e-001 -4.260276e-001 -6.771478e+000 254 245 190
4.850702e-001 -3.680167e-001 -6.700883e+000 112 94 80
7.436130e-001 -5.320490e-001 -6.467855e+000 144 126 78
8.553584e-001 -4.887954e-001 -6.363281e+000 199 174 118
6.424802e-001 -6.621772e-001 -6.643565e+000 145 127 104
1.161746e+000 -8.317142e-001 -6.277171e+000 254 86 97
1.167443e+000 -8.372122e-001 -6.298966e+000 254 86 97
3.186840e-001 8.812927e-001 -6.935851e+000 163 154 145
1.999470e-001 8.461391e-001 -7.053860e+000 219 211 208
9.101338e-001 5.440782e-001 -6.276151e+000 162 31 39
9.994524e-001 5.101504e-001 -6.175466e+000 234 64 75
2.262285e-001 5.670023e-001 -6.974021e+000 214 205 198
1.034241e+000 2.080191e-001 -6.240359e+000 219 210 205
-1.947941e-001 -5.785906e-002 -6.610278e+000 85 24 16
2.600031e-001 -1.486902e-001 -6.659280e+000 254 255 250
1.208586e+000 -7.735582e-002 -6.085483e+000 243 67 77
1.137881e+000 -1.878383e-001 -6.150511e+000 135 32 35
-9.195224e-001 -3.039032e-001 -6.252358e+000 38 28 32
3.386863e-001 -2.783820e-001 -6.725624e+000 231 228 221
8.342551e-001 -3.219810e-001 -6.359198e+000 122 104 81
7.778763e-001 -4.075583e-001 -6.376158e+000 210 186 131
5.721836e-001 -5.599876e-001 -6.671609e+000 110 87 62
1.231442e+000 -4.563954e-001 -6.114757e+000 24 9 8
1.153468e+000 -7.193451e-001 -6.186258e+000 21 9 12
9.713320e-001 -9.853706e-001 -6.438794e+000 230 64 74
9.728359e-001 -9.879542e-001 -6.445170e+000 230 64 74
7.737096e-002 9.068244e-001 -7.109450e+000 170 157 151
7.892899e-002 9.045495e-001 -7.117738e+000 170 157 151
7.359330e-002 7.578472e-001 -7.085174e+000 208 199 194
3.675709e-001 7.526030e-001 -6.849609e+000 228 221 214
1.181629e+000 1.888862e-001 -6.089203e+000 216 46 55
1.121916e+000 9.115944e-002 -6.107528e+000 131 15 23
-8.078027e-001 -3.193260e-001 -6.311437e+000 246 124 75
1.182362e-001 -5.026182e-001 -6.795985e+000 255 255 253
9.696990e-001 -4.302140e-001 -6.258260e+000 154 132 86
6.972904e-001 -8.543125e-001 -6.708779e+000 22 12 13
9.830345e-001 -8.186742e-001 -6.404112e+000 255 255 253
1.267566e+000 -1.191293e-001 -6.007501e+000 42 30 32
-3.416047e-001 -4.702938e-001 -6.576223e+000 233 232 230
1.034432e+000 -6.404043e-001 -6.289906e+000 182 38 45
4.273997e-001 -1.118094e+000 -7.200662e+000 144 123 80
5.830807e-002 -2.042488e-002 -6.696772e+000 132 119 110
-6.880797e-002 -1.793411e-001 -6.652890e+000 248 244 242
7.767269e-001 5.391372e-001 -6.431741e+000 255 255 253
1.043943e+000 -6.652877e-003 -6.307903e+000 230 225 221
4.002793e-001 -6.634889e-001 -6.846079e+000 254 254 252
1.303277e+000 -2.993261e-001 -6.014069e+000 198 173 117
1.304919e+000 -2.990582e-001 -6.015997e+000 198 173 117
8.963727e-001 -7.179652e-001 -6.485984e+000 238 231 225
1.329289e+000 7.360969e-002 -6.099649e+000 46 34 34
2.856627e-002 1.150252e+000 -7.232380e+000 199 198 186
7.960133e-001 8.123743e-001 -6.302576e+000 219 51 60
8.131255e-001 7.577389e-001 -6.175207e+000 231 69 82
-2.182766e-001 9.008403e-001 -7.543472e+000 173 157 153
1.086136e-001 6.694840e-001 -7.077260e+000 178 165 159
1.260171e+000 1.138317e-001 -6.054117e+000 30 7 14
-7.034252e-004 8.084271e-002 -6.747288e+000 122 107 100
1.280310e+000 4.659391e-002 -6.039810e+000 22 12 11
-1.229188e-001 -1.182944e-002 -6.628599e+000 172 156 148
-1.695501e-001 -6.549264e-002 -6.613816e+000 162 69 54
-4.493599e-001 -1.776561e-001 -6.442096e+000 228 113 68
-2.723214e-001 -1.171334e-001 -6.450250e+000 75 18 11
-8.073014e-001 -1.982563e-001 -6.144036e+000 54 23 1
-1.483195e-001 -2.509116e-001 -6.699203e+000 124 102 57
-6.769921e-001 -2.730206e-001 -6.175607e+000 162 49 30
-4.483039e-001 -3.789597e-001 -6.409871e+000 47 35 45
-2.285814e-001 -3.948591e-001 -6.560173e+000 214 209 203
-2.280128e-001 -3.936568e-001 -6.557467e+000 214 209 203
-4.708093e-001 -4.934502e-001 -6.556700e+000 227 116 60
-1.140351e-001 -4.376758e-001 -6.634641e+000 45 34 30
1.862605e-001 1.042156e+000 -7.101111e+000 188 185 178
9.177506e-001 5.797001e-001 -6.349569e+000 168 32 38
-2.771646e-002 3.056344e-001 -7.059097e+000 157 147 137
5.438203e-002 2.522048e-001 -6.854338e+000 156 146 136
1.619336e-001 3.064333e-001 -6.756345e+000 148 134 122
-2.825781e-001 1.395219e-001 -6.642444e+000 114 55 46
-2.825781e-001 1.395219e-001 -6.642444e+000 114 55 46
-1.355426e-001 -2.309307e-001 -6.608706e+000 229 216 214
-7.002886e-001 -3.252878e-001 -6.219843e+000 217 106 79
-6.197327e-001 -3.045131e-001 -6.262570e+000 91 38 22
-1.920856e-001 -3.051417e-001 -6.598386e+000 46 30 11
-1.970717e-001 -3.447742e-001 -6.620311e+000 144 126 115
1.007852e+000 -2.723885e-001 -6.205128e+000 155 133 91
-2.719158e-001 -3.933987e-001 -6.512188e+000 163 155 150
-1.556558e-001 -3.972558e-001 -6.591826e+000 192 189 184
-1.556558e-001 -3.972558e-001 -6.591826e+000 192 189 184
3.768575e-001 1.169292e+000 -6.878763e+000 200 41 45
2.296521e-001 1.007516e+000 -7.060330e+000 225 218 212
1.088936e+000 4.743143e-001 -6.173895e+000 193 34 51
-8.184687e-002 5.082061e-001 -7.018651e+000 193 184 177
-3.110896e-001 1.308665e-001 -6.805252e+000 42 30 30
-1.446166e-001 -2.083253e-002 -6.620412e+000 102 37 22
-2.172720e-001 -1.890162e-001 -6.380982e+000 176 90 69
-6.721507e-001 -3.162857e-001 -6.301525e+000 167 47 36
-2.353025e-001 -3.099306e-001 -6.631656e+000 113 94 79
-7.254731e-001 -3.787647e-001 -6.327161e+000 210 94 65
-5.132853e-002 -4.620309e-001 -6.736972e+000 52 41 37
1.213134e+000 -5.044285e-001 -6.173382e+000 248 66 76
4.391311e-001 1.326399e+000 -6.833692e+000 28 16 22
-4.596312e-001 4.624784e-001 -7.731653e+000 219 206 198
1.053947e+000 2.076890e-001 -6.221250e+000 209 192 183
1.066271e+000 1.651259e-001 -6.202558e+000 192 178 168
-2.451782e-001 1.453770e-001 -6.918278e+000 37 25 20
-2.599487e-001 9.692625e-002 -6.791143e+000 47 28 22
6.941097e-001 -5.138129e-002 -6.417181e+000 222 215 209
-1.621989e-001 -2.219300e-001 -6.606027e+000 80 58 21
-6.030582e-001 -3.840696e-001 -6.501515e+000 48 29 27
-3.095900e-001 -3.873150e-001 -6.471751e+000 180 170 168
-1.571917e-001 4.906440e-001 -7.227992e+000 209 202 192
-7.248295e-003 3.504549e-001 -6.954844e+000 166 156 146
-7.248295e-003 3.504549e-001 -6.954844e+000 166 156 146
5.736286e-001 -7.497779e-002 -6.528200e+000 195 190 184
-8.955650e-001 -1.923733e-001 -6.078636e+000 190 163 108
9.423888e-001 -1.763555e-001 -6.318593e+000 195 188 182
4.851559e-001 -4.445775e-001 -6.692864e+000 183 163 112
1.013432e+000 -4.705609e-001 -6.283347e+000 178 154 106
2.944982e-001 -7.755304e-001 -7.220102e+000 72 62 35
6.699509e-001 1.081406e+000 -6.565730e+000 202 42 51
-9.227115e-002 6.322791e-001 -7.177837e+000 150 141 131
1.617649e-001 3.943398e-001 -6.732277e+000 181 168 159
-8.048148e-001 -1.361617e-001 -6.199526e+000 146 69 42
-2.895887e-001 -2.448525e-001 -6.404506e+000 121 73 56
-2.895887e-001 -2.448525e-001 -6.404506e+000 121 73 56
1.647589e-001 -4.227119e-001 -6.722036e+000 47 30 18
5.802828e-001 -4.416309e-001 -6.771757e+000 102 84 47
5.359678e-001 -5.435020e-001 -6.848439e+000 85 66 41
9.962083e-001 -5.997209e-001 -6.372290e+000 180 158 145
1.002915e+000 -1.058006e+000 -6.481331e+000 224 60 67
1.002915e+000 -1.058006e+000 -6.481331e+000 224 60 67
9.669594e-001 2.255554e-001 -6.244437e+000 158 143 136
6.565522e-001 -2.797257e-002 -6.420207e+000 191 184 175
-6.735279e-001 -3.594920e-001 -6.324457e+000 255 211 172
7.577320e-001 9.362512e-001 -6.417918e+000 194 34 44
1.003637e+000 5.741967e-001 -6.144830e+000 19 0 9
-2.028292e-001 7.310160e-001 -7.504752e+000 223 216 209
2.761845e-001 6.367894e-001 -6.903212e+000 149 139 129
4.845067e-001 5.335437e-001 -6.699772e+000 222 213 208
-3.800012e-001 -7.315716e-002 -6.361094e+000 87 23 15
1.202313e+000 -3.851655e-002 -6.050701e+000 248 77 87
7.357076e-001 -1.048460e-001 -6.403966e+000 241 241 233
9.291743e-001 -2.896404e-001 -6.297336e+000 111 91 67
1.035170e+000 -3.151767e-001 -6.282676e+000 165 141 95
9.194346e-001 -3.676965e-001 -6.326415e+000 188 166 113
6.399658e-001 -5.761875e-001 -6.587423e+000 205 195 184
6.335424e-001 6.879852e-001 -6.516963e+000 209 202 194
-2.132904e-001 -2.030751e-001 -6.729424e+000 93 66 37
5.169215e-001 -2.804930e-001 -6.697973e+000 247 245 241
2.466037e-001 -4.931101e-001 -6.761788e+000 61 39 25
1.113988e+000 -7.068510e-001 -6.296791e+000 255 78 92
3.680663e-001 7.525557e-001 -6.852261e+000 228 221 214
4.350932e-001 -1.139896e+000 -7.294436e+000 144 123 80
-5.761481e-001 -5.028304e-001 -6.686671e+000 45 33 33
1.228673e+000 -5.901058e-001 -6.159631e+000 24 8 11
-7.731152e-002 1.239947e+000 -7.344273e+000 148 23 29
-5.266632e-002 8.288278e-001 -7.226748e+000 212 206 197
8.372468e-001 8.572427e-001 -6.362108e+000 98 12 21
1.247625e-001 6.563878e-001 -7.106271e+000 155 145 135
9.229651e-001 7.341303e-001 -6.315465e+000 188 53 56
-1.042298e-001 4.918630e-001 -7.240187e+000 151 141 131
3.840616e-001 2.682088e-001 -6.787040e+000 143 129 118
-1.064044e-001 6.575810e-002 -6.677985e+000 135 120 113
-1.284465e-002 8.900235e-002 -6.765993e+000 122 110 103
3.461774e-003 5.508796e-002 -6.732821e+000 153 143 133
2.135355e-001 6.432869e-002 -6.519837e+000 156 146 137
-6.144437e-001 -1.831522e-001 -6.491323e+000 156 71 47
-6.144437e-001 -1.831522e-001 -6.491323e+000 156 71 47
-5.176217e-001 -1.398532e-001 -6.474460e+000 176 90 62
-5.251393e-001 -1.448520e-001 -6.520332e+000 176 90 62
-2.673495e-001 -1.588202e-001 -6.505333e+000 145 58 35
-3.000348e-001 -1.835946e-001 -6.441931e+000 196 88 56
5.329918e-001 -1.903316e-002 -6.496434e+000 197 189 181
-5.920637e-001 -2.772279e-001 -6.547595e+000 187 84 56
-5.443948e-001 -2.664561e-001 -6.548696e+000 191 72 37
9.202266e-002 -2.525439e-001 -6.707701e+000 242 236 231
-5.508368e-002 -3.240666e-001 -6.766296e+000 44 33 15
-4.349861e-001 -3.833855e-001 -6.432298e+000 201 179 160
1.879173e-001 -3.747902e-001 -6.755478e+000 141 120 74
5.026013e-001 -6.397386e-001 -6.748315e+000 241 238 228
7.154373e-001 -8.232939e-001 -6.726039e+000 229 79 86
1.113406e+000 -6.526616e-001 -6.145691e+000 180 21 31
1.106085e+000 -6.751135e-001 -6.127535e+000 23 4 1
-3.482358e-001 8.008450e-001 -7.674676e+000 195 186 185
8.817169e-001 8.244752e-001 -6.352163e+000 18 6 10
1.040650e-001 6.970911e-001 -7.094741e+000 212 206 200
1.027399e-001 6.959482e-001 -7.073390e+000 212 206 200
7.988766e-001 6.039377e-001 -6.411732e+000 234 229 226
8.010055e-001 6.036058e-001 -6.422473e+000 234 229 226
1.736827e-001 3.043894e-001 -6.778634e+000 136 120 107
1.626181e-002 2.527960e-001 -6.939412e+000 152 139 130
2.233117e-003 1.194003e-001 -6.781039e+000 128 114 105
3.668371e-001 2.313607e-001 -6.749143e+000 140 127 111
-1.311293e-001 8.500639e-002 -6.702624e+000 123 110 102
-1.311293e-001 8.500639e-002 -6.702624e+000 123 110 102
-6.134292e-002 2.865044e-002 -6.672440e+000 147 134 126
6.558617e-002 -1.193481e-002 -6.677447e+000 125 112 104
7.580990e-002 7.817114e-003 -6.678058e+000 169 160 151
-2.837086e-001 -1.190890e-001 -6.525086e+000 65 4 1
-2.837570e-001 -1.190784e-001 -6.524743e+000 65 4 1
-1.679293e-001 -6.525686e-002 -6.614275e+000 172 87 71
-1.678814e-001 -1.169961e-001 -6.586399e+000 207 180 171
-7.226112e-001 -2.980279e-001 -6.295032e+000 230 112 81
-7.226112e-001 -2.980279e-001 -6.295032e+000 230 112 81
-5.508823e-001 -3.424610e-001 -6.561705e+000 66 24 20
-4.483955e-001 -3.724833e-001 -6.411357e+000 57 54 68
-2.205249e-001 -3.673908e-001 -6.595828e+000 179 166 158
4.552123e-001 -2.258015e-001 -6.694411e+000 230 227 220
-2.813869e-002 -4.521647e-001 -6.772189e+000 254 252 247
-1.071117e-002 -4.929328e-001 -6.869572e+000 46 35 29
8.049311e-001 -5.147309e-001 -6.354536e+000 211 186 130
1.333403e+000 -3.842711e-001 -6.030065e+000 198 175 121
2.786223e-001 -9.371524e-001 -6.979547e+000 41 31 23
4.722119e-001 -1.076257e+000 -7.107570e+000 150 128 79
1.128209e+000 -6.224962e-001 -6.167072e+000 211 46 55
5.965102e-001 1.204524e+000 -6.747495e+000 182 43 46
-3.312624e-001 7.780839e-001 -7.631053e+000 156 140 131
7.711526e-001 8.707716e-001 -6.376028e+000 113 9 17
-5.238112e-001 5.400852e-001 -7.905816e+000 34 24 16
-1.844280e-001 6.599314e-001 -7.523992e+000 205 198 188
-2.383834e-001 5.460775e-001 -7.567601e+000 217 210 200
-1.689169e-001 4.415054e-001 -7.312220e+000 144 131 120
-4.158474e-002 4.322315e-001 -7.179801e+000 172 162 152
7.627900e-001 5.522162e-001 -6.454913e+000 229 226 221
7.633074e-001 5.519695e-001 -6.458161e+000 229 226 221
1.678775e-001 2.481464e-001 -6.804077e+000 175 165 156
-1.619273e-001 1.464827e-001 -6.811399e+000 138 124 115
-9.691624e-003 4.320468e-002 -6.728226e+000 115 102 93
4.907508e-002 2.208700e-002 -6.710072e+000 123 113 104
-1.514961e-001 -9.751579e-002 -6.667072e+000 184 161 155
2.300633e-001 -2.748401e-002 -6.647358e+000 206 197 188
-7.982856e-001 -1.873624e-001 -6.267140e+000 77 22 2
-7.734457e-001 -2.096277e-001 -6.221066e+000 54 5 8
-2.748536e-001 -1.843762e-001 -6.482123e+000 219 97 66
-1.699507e-001 -2.224030e-001 -6.681486e+000 93 69 26
-6.354055e-001 -3.018877e-001 -6.392853e+000 225 183 143
-1.280064e-001 -2.816439e-001 -6.685076e+000 97 79 41
-1.949264e-001 -3.292678e-001 -6.642573e+000 203 193 181
-1.697953e-001 -4.576760e-001 -6.709624e+000 45 36 31
-3.271798e-001 -5.317364e-001 -6.660287e+000 234 233 229
1.202280e+000 -3.212008e-001 -6.074824e+000 152 124 77
6.068633e-001 -6.606392e-001 -6.607703e+000 160 147 126
6.907982e-001 -7.733830e-001 -6.667030e+000 174 33 33
1.094230e+000 -6.245981e-001 -6.150648e+000 214 52 58
-3.899332e-002 1.149505e+000 -7.265147e+000 173 35 41
-2.189440e-001 1.056624e+000 -7.544680e+000 195 44 52
-2.189440e-001 1.056624e+000 -7.544680e+000 195 44 52
-3.235901e-001 8.766186e-001 -7.588460e+000 210 44 53
-1.663264e-001 8.944911e-001 -7.505647e+000 203 195 185
-1.659544e-001 8.946550e-001 -7.506305e+000 203 195 185
-3.574613e-001 8.298938e-001 -7.685832e+000 183 34 41
-3.644626e-001 7.118024e-001 -7.677675e+000 178 166 154
2.709157e-001 7.541832e-001 -7.048854e+000 213 204 198
8.584583e-002 6.493952e-001 -7.089134e+000 195 185 177
3.095101e-001 7.227038e-001 -7.007822e+000 208 201 195
-1.004711e-001 5.238700e-001 -7.241111e+000 193 184 175
9.230517e-001 6.043616e-001 -6.336710e+000 203 45 53
9.432915e-001 6.477896e-001 -6.317164e+000 171 26 33
-2.784632e-001 2.040397e-001 -7.726181e+000 203 52 59
-4.210427e-002 2.388136e-001 -6.977705e+000 124 111 102
7.190424e-003 1.871990e-001 -6.901928e+000 122 114 103
-2.329233e-001 6.758989e-002 -6.737899e+000 130 108 100
7.683903e-001 1.313117e-001 -6.540101e+000 188 179 170
-9.406915e-001 -1.922128e-001 -6.200160e+000 158 135 82
1.165248e+000 1.624808e-001 -6.206933e+000 222 55 65
5.680570e-001 -7.213136e-002 -6.491823e+000 202 197 191
-8.383247e-001 -2.591669e-001 -6.246602e+000 98 31 28
-4.123230e-001 -3.027694e-001 -6.443821e+000 143 9 18
5.941093e-001 -3.086208e-001 -6.650782e+000 165 151 141
5.625515e-001 -4.151519e-001 -6.622990e+000 91 74 38
7.026192e-001 -3.325261e-001 -6.509553e+000 165 152 135
6.660014e-001 -3.657558e-001 -6.507172e+000 148 138 123
1.035456e+000 -2.464591e-001 -6.202431e+000 83 65 39
1.026232e+000 -2.415491e-001 -6.175722e+000 83 65 39
1.213686e+000 -1.961099e-001 -6.075228e+000 140 118 71
1.021779e+000 -5.244518e-001 -6.263491e+000 197 167 159
1.412577e+000 -3.751000e-001 -5.924125e+000 27 14 14
7.231745e-001 -8.223944e-001 -6.542521e+000 39 28 23
8.835072e-001 -8.432938e-001 -6.461635e+000 224 57 65
-3.808566e+000 9.628133e-001 -1.198993e+001 11 7 8
2.892877e-001 9.113901e-001 -7.016974e+000 192 179 173
7.771461e-001 9.514589e-001 -6.461451e+000 183 29 39
-2.829483e-002 5.936900e-001 -7.122942e+000 183 173 163
5.285399e-001 4.402181e-001 -6.758476e+000 183 175 163
-2.494310e-001 2.754997e-001 -7.623468e+000 168 33 38
2.684596e-001 8.908311e-002 -6.685378e+000 159 144 137
-3.572376e-001 -2.841576e-002 -6.611455e+000 123 51 35
4.652348e-001 1.071748e-001 -6.611117e+000 179 171 160
-9.374460e-001 -2.626570e-001 -6.276236e+000 32 23 24
-5.319866e-001 -1.863635e-001 -6.482153e+000 234 122 84
-5.130714e-001 -2.181076e-001 -6.467974e+000 166 35 18
-8.095467e-003 -1.198299e-001 -6.595930e+000 241 236 233
1.213901e+000 9.168059e-002 -6.039020e+000 119 10 23
-4.575787e-001 -4.218651e-001 -6.514074e+000 161 144 133
-2.142405e-001 -4.493383e-001 -6.640819e+000 211 204 198
9.670909e-001 -2.523014e-001 -6.290666e+000 147 129 119
9.538562e-001 -3.000591e-001 -6.211035e+000 174 151 101
7.201573e-001 -5.939131e-001 -6.448470e+000 194 185 174
1.000922e+000 -4.662525e-001 -6.232026e+000 175 151 105
1.399438e+000 -3.975299e-001 -5.934122e+000 206 183 115
1.399438e+000 -3.975299e-001 -5.934122e+000 206 183 115
9.018815e-001 -7.204175e-001 -6.430224e+000 208 200 189
4.190741e-001 -1.134835e+000 -7.219376e+000 134 114 69
5.441264e-001 -1.097027e+000 -7.096859e+000 13 5 8
1.106784e+000 -6.030432e-001 -6.164251e+000 150 2 16
-2.093459e+000 -2.988290e+000 -1.059052e+001 37 31 33
-2.075394e+000 -3.122207e+000 -1.058949e+001 37 31 33
-1.576869e+000 -2.308255e+000 -8.631276e+000 39 33 35
-5.419014e-001 7.272853e-001 -7.893863e+000 191 41 42
-6.736327e-002 6.851695e-001 -7.186646e+000 206 197 188
-4.558719e-001 4.662262e-001 -7.778707e+000 208 194 184
-1.747940e-001 4.933835e-001 -7.318931e+000 202 194 183
5.168315e-001 3.217217e-001 -6.817263e+000 141 133 122
1.685913e-001 1.255190e-001 -6.731955e+000 155 145 136
-8.834791e-001 -1.715887e-001 -6.171546e+000 39 24 28
-1.782950e-001 -1.390972e-001 -6.640094e+000 182 160 154
5.006564e-001 1.847664e-002 -6.546283e+000 220 216 210
5.007557e-001 1.838531e-002 -6.546485e+000 220 216 210
3.046374e-001 -1.154167e-001 -6.670426e+000 255 252 244
6.751126e-001 -2.670260e-002 -6.453875e+000 188 179 172
7.179244e-001 4.932250e-003 -6.445393e+000 213 205 196
8.012867e-001 -2.992751e-002 -6.415356e+000 180 172 160
8.019070e-001 -3.016637e-002 -6.416885e+000 180 172 160
5.880355e-001 -1.332968e-001 -6.539405e+000 226 221 217
5.880355e-001 -1.332968e-001 -6.539405e+000 226 221 217
1.185569e+000 -4.958523e-001 -6.138395e+000 229 58 69
-2.054198e+000 -2.910058e+000 -1.059726e+001 24 18 20
-2.003240e+000 -3.005206e+000 -1.050791e+001 20 14 16
-1.925251e+000 -3.151196e+000 -1.042151e+001 29 23 25
6.712737e-001 1.082260e+000 -6.595644e+000 199 40 48
-1.913469e-001 1.011288e+000 -7.555113e+000 191 41 48
-8.634565e-002 7.555323e-001 -7.197595e+000 177 168 159
-2.911007e-002 7.745821e-001 -7.173617e+000 218 211 201
7.457489e-001 8.104911e-001 -6.409758e+000 189 43 49
-5.368321e-001 5.278635e-001 -7.916472e+000 38 24 21
-1.138502e-001 4.730469e-001 -7.284432e+000 145 133 122
1.630494e-001 4.119369e-001 -6.908223e+000 188 175 166
4.099028e-001 3.662176e-001 -6.849813e+000 170 162 149
6.891459e-001 1.740670e-001 -6.624626e+000 155 145 134
-9.292086e-001 -2.039328e-001 -6.210664e+000 168 147 100
-9.292086e-001 -2.039328e-001 -6.210664e+000 168 147 100
-8.566963e-001 -1.952007e-001 -6.231349e+000 151 127 81
7.152537e-001 8.716815e-003 -6.432342e+000 213 205 196
1.221095e+000 -3.469768e-002 -6.080400e+000 247 80 90
5.144164e-001 -5.193624e-001 -6.707225e+000 81 64 37
6.410658e-001 -5.744590e-001 -6.576145e+000 204 191 182
1.343049e+000 -3.436757e-001 -5.975145e+000 163 139 91
4.644663e-001 -1.186394e+000 -7.159450e+000 41 28 23
-1.836545e+000 -3.112102e+000 -1.043372e+001 68 64 65
-1.165999e-001 9.615184e-001 -7.207644e+000 220 197 200
5.768993e-001 6.111543e-001 -6.734150e+000 210 201 194
1.285064e-001 4.740338e-001 -6.985801e+000 153 141 129
3.768206e-001 5.022387e-001 -6.927549e+000 178 169 160
1.723931e-002 4.093857e-001 -7.120579e+000 140 130 118
1.181834e-001 2.355145e-001 -6.846758e+000 128 116 106
1.930271e-001 2.283406e-001 -6.792486e+000 201 194 184
5.147945e-001 3.330011e-001 -6.830784e+000 151 143 132
8.115338e-001 2.683370e-001 -6.457766e+000 249 245 240
1.361038e-001 -6.187519e-003 -6.689168e+000 127 117 107
-7.356332e-001 -1.875545e-001 -6.302826e+000 155 66 34
3.314887e-002 -2.883596e-001 -6.719305e+000 244 241 236
8.098867e-001 -1.062214e-001 -6.355852e+000 133 119 108
7.215461e-001 -2.470372e-001 -6.480363e+000 234 230 221
5.595683e-001 1.060711e+000 -6.705152e+000 207 41 48
-3.978507e-001 3.544379e-001 -7.730130e+000 37 29 27
1.018716e+000 5.810798e-001 -6.191153e+000 17 7 8
-3.866636e-001 -6.980105e-002 -6.487530e+000 87 27 18
2.536281e-001 -4.855537e-001 -6.721915e+000 63 35 24
1.131851e+000 -2.006754e-001 -6.169675e+000 108 27 33
7.730427e-001 -4.018018e-001 -6.349685e+000 222 197 140
1.016416e+000 -3.084097e-001 -6.189021e+000 175 151 103
9.983717e-001 -5.295084e-001 -6.271501e+000 227 214 206
3.560625e-001 7.463896e-001 -6.736800e+000 230 221 214
6.352043e-001 7.019246e-001 -6.636432e+000 215 208 200
4.656810e-001 5.320470e-001 -6.775850e+000 211 204 196
4.684306e-001 5.317056e-001 -6.782088e+000 211 204 196
8.357422e-001 3.478363e-001 -6.430414e+000 174 159 147
4.215971e-001 1.468552e-001 -6.656907e+000 178 168 159
1.140401e+000 -3.614986e-001 -6.123157e+000 108 88 50
7.492082e-002 7.564540e-001 -7.089806e+000 217 208 201
1.344747e-002 5.435463e-001 -7.174101e+000 186 176 167
6.468827e-002 4.009903e-001 -7.000847e+000 131 121 111
9.467024e-001 3.416837e-001 -6.285982e+000 249 248 244
8.129032e-001 -2.125627e-001 -6.351427e+000 247 240 234
4.297803e-001 -1.127900e+000 -7.223431e+000 140 121 72
1.513163e-001 1.099019e+000 -7.097056e+000 210 201 196
4.326442e-001 6.475949e-001 -6.777407e+000 233 224 217
-2.750733e-001 -8.574777e-002 -6.543614e+000 76 21 19
5.877396e-001 1.351772e-001 -6.568988e+000 138 126 114
6.250502e-001 -4.412034e-001 -6.601727e+000 170 148 100
-2.993145e-001 5.970629e-001 -7.724083e+000 215 206 197
-1.662795e-002 -6.917551e-001 -6.791914e+000 39 31 29
7.773980e-001 4.566765e-001 -6.453159e+000 243 242 237
-2.271968e-001 3.100795e-002 -6.681106e+000 73 25 18
1.682110e-002 3.766423e-002 -6.727556e+000 142 132 122
-1.705237e-001 -3.669040e-001 -6.625080e+000 172 159 150
-2.446238e-001 -3.957256e-001 -6.563639e+000 171 161 150
2.740218e-001 7.270709e-001 -7.056917e+000 175 166 157
2.884016e-001 2.467877e-001 -6.799300e+000 124 113 103
-1.367432e-001 -7.662939e-004 -6.676490e+000 149 136 128
-2.614784e-001 -3.080036e-001 -6.593727e+000 168 150 139
8.278514e-001 8.988647e-001 -6.411776e+000 122 32 33
-1.302955e-001 5.270169e-001 -7.310607e+000 164 156 145
-5.300141e-001 -7.635283e-002 -6.516706e+000 108 35 15
-3.736696e-001 -3.635629e-001 -6.397234e+000 168 149 148
1.243824e+000 8.404639e-002 -6.031509e+000 180 41 48
4.960524e-001 -1.068982e-001 -6.610338e+000 253 250 245
-1.466490e-001 -4.392576e-001 -6.731229e+000 240 237 230
6.907512e-001 -7.736124e-001 -6.666296e+000 181 39 35
9.111112e-001 6.909359e-001 -6.333729e+000 189 34 42
7.859892e-001 6.585267e-001 -6.409437e+000 249 64 78
1.122794e+000 2.564992e-001 -6.165428e+000 227 60 68
1.211262e+000 8.933598e-002 -6.050357e+000 121 11 20
-8.232041e+000 -5.990351e+000 -1.818299e+001 106 97 95
-4.413315e-001 9.489237e-001 -7.763721e+000 25 18 16
2.367052e-001 4.413074e-001 -6.922632e+000 134 124 111
-3.222861e-003 1.177230e+000 -7.236715e+000 181 36 41
1.362213e+000 -1.717308e-001 -5.935212e+000 190 165 111
1.362213e+000 -1.717308e-001 -5.935212e+000 190 165 111
1.912769e-001 5.547101e-002 -6.693839e+000 132 120 108
-6.219092e-001 -1.279485e-001 -6.463511e+000 69 22 15
5.835676e-001 9.567345e-002 -7.020559e+000 142 132 120
6.516071e-001 6.865951e-001 -6.601182e+000 194 186 177
-1.570885e-001 4.042713e-001 -7.257094e+000 152 140 128
-1.569283e-001 2.036984e-001 -6.965617e+000 137 127 117
-1.155311e-001 1.623171e-001 -6.696958e+000 102 88 79
-7.240916e-001 -1.417836e-001 -6.775493e+000 114 51 31
-4.745648e-001 -2.317235e-001 -6.472703e+000 186 45 12
2.595070e-001 9.371183e-001 -7.045663e+000 195 186 181
-9.287369e-001 -1.732553e-001 -6.136056e+000 140 113 65
-9.032190e-001 -3.591937e-001 -6.444862e+000 51 37 33
-4.976737e-001 -2.122633e-001 -6.387562e+000 146 24 8
-6.553930e-001 -3.397959e-001 -6.323034e+000 220 167 124
-6.263233e-001 -2.984398e-001 -6.282784e+000 82 29 13
-6.263233e-001 -2.984398e-001 -6.282784e+000 82 29 13
-4.234741e-001 9.543995e-001 -7.767365e+000 20 20 18
2.810685e-001 7.349549e-001 -6.746088e+000 209 200 191
6.447876e-001 8.303896e-001 -6.477764e+000 187 177 171
-7.198406e-002 4.868934e-001 -7.207042e+000 180 172 162
-1.889532e-001 4.254310e-002 -6.683097e+000 89 32 21
-6.937195e-001 -3.534030e-001 -6.369413e+000 252 220 167
-6.526376e-001 -3.178415e-001 -6.317532e+000 253 210 175
1.268793e-001 1.908995e-001 -6.768278e+000 162 152 142
-5.905549e-001 -3.009686e-001 -6.507422e+000 160 51 24
-5.424639e-001 -2.906906e-001 -6.483679e+000 239 157 124
-2.761296e-001 -1.779252e-001 -6.454838e+000 218 101 62
4.193999e-001 1.110266e+000 -6.823236e+000 227 214 213
-1.273407e-001 5.381262e-001 -7.301593e+000 165 155 145
7.539269e-001 6.926885e-001 -6.435089e+000 208 52 57
6.778390e-001 6.092854e-001 -6.801446e+000 150 140 128
-8.961888e-001 -1.919540e-001 -6.239616e+000 46 31 24
-2.423490e-001 -1.696907e-001 -6.428497e+000 99 24 18
-6.144840e-001 -3.340688e-001 -6.354771e+000 237 191 148
-4.377060e-001 -3.698255e-001 -6.342604e+000 99 81 63
-8.416748e-001 -1.785864e-001 -6.159313e+000 140 117 76
5.974618e-001 1.154859e+000 -6.658868e+000 196 44 50
-6.613786e-001 -3.379814e-001 -6.324939e+000 232 174 132
-8.554501e-001 -1.475907e-001 -6.341071e+000 137 59 23
-2.970526e-001 -2.129955e-001 -6.404501e+000 227 105 57
3.232692e-001 8.855130e-001 -6.922405e+000 153 142 134
-1.777231e-001 6.909923e-001 -7.497316e+000 171 163 153
-2.060116e+000 -2.679225e+000 -1.051529e+001 58 49 50
9.415037e-001 6.227947e-001 -6.315700e+000 200 52 59
7.618385e-001 -9.222923e-001 -6.569089e+000 230 98 105
-8.768091e+000 -1.012130e+001 -2.263543e+001 23 19 20
2.529847e-001 -4.896710e-001 -6.738373e+000 63 35 24
4.977728e-001 1.261000e+000 -6.717852e+000 174 44 51
1.033066e-001 6.971787e-001 -7.014260e+000 216 207 198
7.644644e-001 8.495419e-001 -6.352757e+000 188 44 48
3.674884e-001 2.643298e-001 -6.761254e+000 121 109 94
2.610121e-001 1.735471e-001 -6.641828e+000 191 178 169
-2.911884e-001 -1.247565e-001 -6.519141e+000 84 16 7
-4.060127e-001 -2.454538e-001 -6.408116e+000 167 86 64
5.056477e-001 -7.260989e-002 -6.529637e+000 214 209 202
5.097521e-001 -1.026690e-001 -6.568756e+000 223 217 211
1.472965e-002 7.058723e-001 -7.162956e+000 205 198 190
8.331544e-001 8.623078e-001 -6.392325e+000 82 12 15
7.605601e-001 8.376236e-001 -6.274081e+000 206 47 61
8.600752e-002 2.575955e-001 -6.842469e+000 152 142 133
-4.123626e-001 -2.631214e-002 -6.581074e+000 118 50 32
-4.123626e-001 -2.631214e-002 -6.581074e+000 118 50 32
-1.074593e-002 6.730366e-002 -6.743607e+000 164 151 143
-2.442796e-001 -5.521439e-002 -6.639352e+000 84 17 11
2.646303e-001 -1.239204e-001 -6.654535e+000 254 254 249
-1.813966e+000 -3.751834e+000 -1.034786e+001 45 39 41
3.566104e-001 1.337347e+000 -6.905198e+000 200 48 52
4.371284e-001 1.170582e+000 -6.896568e+000 214 51 52
4.246406e-001 1.167877e+000 -6.817263e+000 214 51 52
-1.608193e-001 9.052593e-001 -7.489783e+000 203 196 186
-2.001075e-001 6.099824e-001 -7.521719e+000 180 171 162
-1.875566e-001 6.242317e-002 -6.701962e+000 135 120 113
1.184585e+000 -3.330201e-001 -6.072259e+000 170 147 95
1.201407e+000 -3.184074e-001 -6.069000e+000 164 139 85
8.387462e-001 6.182500e-001 -6.348316e+000 245 68 80
7.034080e-001 2.448605e-001 -6.642865e+000 172 163 152
7.462133e-001 -2.657759e-001 -6.473535e+000 229 225 216
-6.372416e+000 -7.526263e+000 -1.742356e+001 31 32 36
-4.688211e+000 -6.636587e+000 -1.492887e+001 131 127 141
-4.459061e+000 -6.927010e+000 -1.504795e+001 21 19 22
-5.907955e+000 -8.696565e+000 -1.667256e+001 110 109 122
3.951867e-001 1.319746e+000 -6.854308e+000 204 47 54
4.436105e-001 1.284249e+000 -6.781099e+000 194 38 42
7.939565e-001 6.282319e-001 -6.412090e+000 250 245 244
1.306027e-001 -5.848309e-002 -6.660379e+000 160 146 135
3.166657e-001 -2.159236e-001 -6.723060e+000 218 209 202
3.166657e-001 -2.159236e-001 -6.723060e+000 218 209 202
4.510573e-001 -2.727052e-001 -6.723070e+000 217 210 200
1.245906e+000 -1.043512e-001 -6.053205e+000 25 9 12
9.068454e-001 -7.785680e-001 -6.468180e+000 210 205 196
1.018508e+000 -7.739053e-001 -6.338544e+000 250 75 86
1.180461e+000 -8.447258e-001 -6.256918e+000 250 86 94
1.180461e+000 -8.447258e-001 -6.256918e+000 250 86 94
-4.521745e+000 -6.889584e+000 -1.487439e+001 134 131 146
-5.443133e+000 -8.584517e+000 -1.674137e+001 51 51 59
1.638293e-001 -4.172275e-001 -6.715830e+000 44 28 15
1.363686e+000 -1.651188e-001 -5.921496e+000 204 174 122
1.363686e+000 -1.651188e-001 -5.921496e+000 204 174 122
1.166625e+000 -8.275886e-001 -6.237606e+000 250 78 90
1.166625e+000 -8.275886e-001 -6.237606e+000 250 78 90
1.099134e+000 4.109088e-001 -6.148822e+000 218 54 65
2.790566e-002 -5.319039e-001 -6.853299e+000 43 34 30
1.174838e+000 -1.530585e-001 -6.159165e+000 228 64 75
5.891032e-001 9.443705e-001 -6.667532e+000 230 219 215
2.689953e-001 6.480465e-001 -7.003642e+000 139 126 117
6.460351e-001 2.755955e-001 -6.685722e+000 209 202 194
-2.531811e-002 -3.387556e-001 -6.709503e+000 125 108 78
-6.190722e+000 -7.638185e+000 -1.715004e+001 115 112 119
-6.102093e+000 -8.005495e+000 -1.691133e+001 133 131 142
-6.102093e+000 -8.005495e+000 -1.691133e+001 133 131 142
5.928914e-001 9.367826e-001 -6.663545e+000 229 221 218
2.575487e-001 -4.970434e-001 -6.755945e+000 66 33 26
-4.780596e+000 -6.726452e+000 -1.544252e+001 167 169 184
-6.224573e+000 -6.341201e+000 -1.786099e+001 19 17 22
-2.981866e-001 5.991640e-001 -7.715720e+000 213 204 195
2.444540e-001 7.416594e-001 -7.165193e+000 177 170 162
8.633722e-001 8.453752e-001 -6.370992e+000 109 22 20
-1.680311e-001 1.330638e-001 -6.797946e+000 107 93 84
-1.293592e-001 1.000545e-001 -6.719205e+000 145 130 123
-4.039140e-001 -5.036451e-002 -6.608060e+000 87 19 8
-8.105001e-002 3.234184e-002 -6.664402e+000 128 114 109
-4.977404e-001 -1.293091e-001 -6.486240e+000 125 31 14
-7.699895e-001 -2.104777e-001 -6.282456e+000 87 29 14
-4.850890e+000 -6.290727e+000 -1.502559e+001 95 90 100
1.108809e+000 -6.701213e-001 -6.164768e+000 243 85 83
-1.288761e-001 9.222310e-001 -7.421254e+000 183 176 168
-5.120472e-001 6.088141e-001 -7.877126e+000 206 40 46
-1.715777e-001 6.389520e-001 -7.489503e+000 166 157 148
3.865581e-001 2.585185e-001 -6.913558e+000 144 130 119
-2.089535e-001 6.674802e-002 -6.710235e+000 79 33 28
-4.479953e-001 -5.673049e-002 -6.555229e+000 139 61 39
-6.257237e-001 -1.487203e-001 -6.447383e+000 74 17 10
3.670179e-001 -3.341754e-001 -6.736467e+000 126 110 95
7.072854e-001 -8.426149e-002 -6.414489e+000 218 214 205
7.072854e-001 -8.426149e-002 -6.414489e+000 218 214 205
-5.647414e+000 -8.745958e+000 -1.652529e+001 156 161 183
8.186617e-001 8.642284e-001 -6.412459e+000 76 7 10
1.633621e-001 2.258600e-001 -6.789948e+000 199 191 180
8.583115e-001 5.516452e-001 -6.418193e+000 207 201 195
1.087251e+000 3.988711e-001 -6.156125e+000 234 67 77
-2.767855e-001 -1.955303e-001 -6.514984e+000 214 102 65
8.939256e-001 -9.473090e-001 -6.558668e+000 226 78 79
-1.415970e+000 -2.812346e+000 -8.624345e+000 25 19 21
-5.586490e-001 5.863391e-001 -7.964640e+000 217 58 56
-1.493515e-001 3.823701e-001 -7.210841e+000 140 127 118
-6.584100e-002 4.610602e-001 -7.199054e+000 140 130 117
6.800122e-001 6.546913e-001 -6.598044e+000 166 156 146
3.226404e-001 2.958915e-001 -6.819296e+000 119 104 94
-2.676499e-001 5.998773e-002 -6.727752e+000 61 12 11
5.051252e-001 2.252178e-001 -6.706330e+000 120 108 94
-2.975555e-001 -6.658734e-002 -6.624010e+000 78 23 16
1.122142e+000 2.576082e-001 -6.165825e+000 242 73 82
-1.852419e-001 -3.876101e-001 -6.653123e+000 169 148 135
-4.941808e+000 -6.613766e+000 -1.487241e+001 9 8 14
-1.484744e+000 -4.979884e+000 -1.035914e+001 46 40 42
4.711603e-001 1.723042e-001 -6.643743e+000 203 195 185
8.200093e-001 9.468543e-002 -6.496180e+000 194 185 178
-6.101751e+000 -7.272767e+000 -1.773979e+001 84 84 92
1.133714e+000 -3.959936e-001 -6.109048e+000 110 86 48
-4.894086e+000 -6.750623e+000 -1.490330e+001 155 153 167
-4.880442e+000 -6.727228e+000 -1.486757e+001 155 153 167
-5.961030e+000 -8.731579e+000 -1.657414e+001 130 131 149
-1.923089e-001 8.755388e-001 -7.498713e+000 202 193 185
4.930518e-001 7.605023e-001 -6.795117e+000 168 157 153
4.908072e-001 7.589675e-001 -6.790404e+000 168 157 153
6.610393e-001 3.577070e-001 -6.641761e+000 194 185 176
9.949225e-001 -1.035677e+000 -6.466817e+000 231 66 80
9.949225e-001 -1.035677e+000 -6.466817e+000 231 66 80
6.662194e-001 1.079908e+000 -6.577288e+000 209 45 56
9.256196e-001 -2.867311e-001 -6.290402e+000 91 74 54
9.594617e-001 -8.828552e-002 -6.310607e+000 164 151 143
1.007707e+000 -2.903571e-001 -6.149502e+000 182 157 108
-4.511719e+000 -6.963549e+000 -1.450358e+001 161 161 173
-5.465249e+000 -8.066906e+000 -1.630495e+001 10 8 12
-5.444050e+000 -8.024028e+000 -1.624098e+001 10 8 12
1.266782e+000 -1.298479e-001 -6.029582e+000 37 26 27
-5.802556e+000 -8.730494e+000 -1.670316e+001 168 173 195
-2.157279e-001 2.624207e-001 -7.377980e+000 122 28 31
-1.361324e-001 1.435735e-001 -6.591804e+000 142 129 120
-1.572051e-001 -3.681498e-002 -6.609856e+000 109 37 21
-1.286556e-001 -2.465045e-001 -6.656875e+000 240 229 226
4.814557e-001 -1.076897e-001 -6.615481e+000 238 235 228
-2.988706e-001 1.098248e+000 -7.603925e+000 29 19 19
-2.182223e-001 8.816984e-001 -7.553559e+000 203 194 185
2.887676e-001 7.684600e-001 -7.015550e+000 190 181 174
2.939602e-001 7.593859e-001 -7.058134e+000 190 181 174
2.119077e-001 2.595124e-001 -6.719838e+000 157 141 126
-4.606996e-001 -5.885922e-002 -6.523525e+000 144 65 43
-8.690893e-002 6.994127e-002 -6.750593e+000 131 116 109
-8.409267e-001 -2.406294e-001 -6.222250e+000 91 24 17
-5.264622e-001 -2.095286e-001 -6.405652e+000 251 139 101
-1.380528e-001 -3.600855e-001 -6.635426e+000 191 183 174
-1.832662e+000 -3.681629e+000 -1.034972e+001 41 35 37
9.372102e-001 -2.568151e-001 -6.315665e+000 139 122 110
5.385570e-001 -1.150253e+000 -7.123215e+000 241 221 182
1.839835e-002 1.353682e+000 -7.188488e+000 186 39 40
-2.831052e-001 -1.166446e-002 -7.749781e+000 35 27 26
-2.831052e-001 -1.166446e-002 -7.749781e+000 35 27 26
-5.495824e-001 -2.897421e-002 -6.643067e+000 69 16 8
-5.495824e-001 -2.897421e-002 -6.643067e+000 69 16 8
9.143283e-001 5.925031e-001 -6.371484e+000 214 57 66
-6.353574e-001 -1.684821e-001 -6.326522e+000 147 63 39
4.938834e-001 7.464424e-002 -6.637276e+000 131 119 107
-9.696082e-003 -2.192881e-001 -6.639853e+000 253 250 243
1.410920e-001 -1.897120e-001 -6.687593e+000 232 225 219
-6.882608e-001 -3.352232e-001 -6.317182e+000 43 35 33
-1.912500e-001 -4.102442e-001 -6.627358e+000 232 225 221
4.467167e-001 -4.414631e-001 -6.689341e+000 196 183 131
-1.741732e+000 -3.805035e+000 -1.039916e+001 53 47 47
6.779657e-002 1.208743e+000 -7.169473e+000 203 42 49
-2.769523e-001 -1.874664e-001 -6.495226e+000 227 116 77
-3.824651e-002 -1.921730e-001 -6.611067e+000 227 224 219
-4.541443e-001 4.674781e-001 -7.702071e+000 213 200 191
8.988637e-001 5.625095e-001 -6.380732e+000 174 33 44
1.016574e-001 -3.376248e-002 -6.679967e+000 159 149 140
9.900106e-002 -2.481513e-002 -6.658190e+000 159 149 140
-1.437166e-001 -4.071583e-001 -6.673579e+000 242 236 232
1.126032e+000 2.001878e-001 -6.154975e+000 195 35 45
1.126032e+000 2.001878e-001 -6.154975e+000 195 35 45
5.368298e-001 -3.173848e-001 -6.700600e+000 244 237 231
1.211295e+000 5.230570e-002 -6.027480e+000 229 83 91
8.021109e-001 -8.557821e-001 -6.541276e+000 219 47 59
3.022035e-001 9.799979e-001 -7.052459e+000 223 217 213
-4.549752e-001 -2.073341e-001 -6.471740e+000 249 132 87
6.982540e-001 -5.961471e-001 -6.531351e+000 229 217 208
-5.813079e-001 -1.443208e-001 -6.478108e+000 94 33 26
4.233656e-001 7.854292e-002 -6.626735e+000 199 190 181
5.496493e-001 5.408150e-002 -6.523588e+000 146 134 120
5.496493e-001 5.408150e-002 -6.523588e+000 146 134 120
5.763528e-001 5.373965e-003 -6.469460e+000 214 207 199
6.169965e-001 -4.244783e-001 -6.518097e+000 178 156 106
1.381735e-001 1.341117e+000 -7.077626e+000 203 48 54
-1.755905e-001 2.747348e-001 -7.388517e+000 184 174 162
-2.631685e-001 6.653229e-002 -7.218016e+000 220 212 205
-1.094292e-001 6.622185e-001 -7.358875e+000 168 162 150
-1.094292e-001 6.622185e-001 -7.358875e+000 168 162 150
5.963016e-001 -8.071762e-001 -6.714968e+000 251 250 245
-6.343114e-001 -1.485380e-001 -6.531397e+000 65 17 12
7.251955e-001 -3.610999e-001 -6.453655e+000 100 85 64
8.379437e-001 -9.581888e-001 -6.512303e+000 50 36 36
-3.967651e-001 2.570601e-001 -7.517245e+000 38 27 27
-2.865376e-001 -9.507193e-002 -6.572234e+000 66 11 8
3.841521e-001 -1.357626e-001 -6.687782e+000 245 242 234
3.847893e-001 -1.347678e-001 -6.685222e+000 245 242 234
1.179653e-002 -6.939473e-001 -6.825847e+000 35 30 27
-1.985710e+000 -3.415695e+000 -1.057032e+001 38 32 34
7.664304e-001 -1.324441e-001 -6.357407e+000 228 220 210
-4.384383e+000 -6.688232e+000 -1.503206e+001 30 28 33
-4.464107e+000 -6.724613e+000 -1.492417e+001 165 161 175
-6.057494e+000 -8.351252e+000 -1.665838e+001 9 7 10
-5.568785e-003 2.496406e-001 -6.949395e+000 145 132 123
-4.598741e-001 -8.253435e-002 -6.522728e+000 121 37 16
-4.468659e-001 -1.222522e-001 -6.473382e+000 129 34 14
9.205789e-001 -1.021983e+000 -6.575951e+000 48 30 30
4.367731e-001 1.186267e+000 -6.851272e+000 214 50 57
6.542991e-001 6.564681e-001 -6.633209e+000 204 194 185
-5.797777e+000 -8.936862e+000 -1.653850e+001 12 10 16
1.301006e-001 1.201471e+000 -7.078515e+000 232 192 168
2.367894e-001 7.121999e-001 -7.079159e+000 181 174 164
3.734415e-001 1.178991e+000 -6.878676e+000 203 32 40
-1.398242e-002 5.532083e-001 -7.162329e+000 208 197 191
-1.398242e-002 5.532083e-001 -7.162329e+000 208 197 191
1.255587e-001 6.130427e-001 -7.031018e+000 176 167 154
6.172189e-001 6.496374e-001 -6.685377e+000 187 181 170
-4.410645e-002 2.534520e-001 -7.041673e+000 145 135 125
2.416414e-001 2.956853e-001 -6.825370e+000 122 108 97
-4.619735e-001 -6.225352e-002 -6.530909e+000 144 65 43
-2.186432e-001 -4.055908e-002 -6.647282e+000 90 21 15
-6.190360e+000 -7.769427e+000 -1.752090e+001 79 79 80
-4.885787e+000 -6.325221e+000 -1.496377e+001 101 99 108
-4.752787e+000 -7.068831e+000 -1.502571e+001 156 154 168
-4.007513e+000 -7.472102e+000 -1.476239e+001 84 87 96
-1.606373e+000 -4.483498e+000 -1.031889e+001 50 44 48
-1.735240e-001 9.219174e-001 -7.512487e+000 161 147 139
-3.334317e-002 2.812854e-001 -7.040311e+000 130 118 106
3.085726e-001 3.054224e-001 -6.900665e+000 127 115 102
-6.070410e+000 -7.598448e+000 -1.712148e+001 80 79 84
-2.227285e+000 -3.302172e+000 -1.075007e+001 55 50 54
-5.419026e+000 -8.643192e+000 -1.664765e+001 120 121 139
-1.551254e+000 -4.558078e+000 -1.023714e+001 53 48 52
6.500221e-001 6.194375e-001 -6.671831e+000 153 143 133
-2.570886e-001 -9.353768e-004 -6.646514e+000 70 20 17
9.356878e-001 4.205349e-001 -6.259302e+000 252 81 93
8.812388e-001 7.954426e-001 -6.351398e+000 21 1 4
-6.007302e-001 6.784018e-001 -8.020897e+000 38 24 20
3.113695e-001 4.989948e-002 -6.647514e+000 244 240 231
6.474905e-001 1.230290e-001 -6.577737e+000 189 175 165
-4.737098e+000 -6.738714e+000 -1.513056e+001 142 138 153
-4.134271e+000 -7.757842e+000 -1.477175e+001 11 7 14
-5.682154e+000 -7.442137e+000 -1.670821e+001 10 10 12
6.850171e-001 1.081226e+000 -6.532608e+000 186 44 53
-6.073728e+000 -7.450272e+000 -1.706721e+001 80 77 84
-1.158290e-001 1.471649e-001 -6.792518e+000 108 94 83
-1.010756e-001 7.491645e-002 -6.710170e+000 162 147 140
-1.010756e-001 7.491645e-002 -6.710170e+000 162 147 140
-4.330719e+000 -6.427034e+000 -1.501697e+001 47 45 48
3.456886e-001 2.490059e-001 -6.728543e+000 143 130 114
-4.659080e-001 -1.346382e-001 -6.490741e+000 126 37 16
-4.962333e-001 -2.370755e-001 -6.442285e+000 144 27 9
-5.434024e+000 -8.900145e+000 -1.649294e+001 116 124 147
6.012451e-001 -3.986026e-001 -6.591207e+000 147 133 108
1.092141e+000 -2.602462e-001 -6.186409e+000 141 114 76
-5.989821e+000 -7.305336e+000 -1.754175e+001 66 66 74
-4.697505e+000 -6.212806e+000 -1.514043e+001 136 136 146
-2.189175e+000 -2.722396e+000 -1.063912e+001 40 36 37
