ply
format ascii 1.0
element face 0
property list uchar int vertex_indices
element vertex 871
property float x
property float y
property float z
property uchar diffuse_red
property uchar diffuse_green
property uchar diffuse_blue
end_header
-3.108470e-001 -3.897388e-001 -6.485050e+000 181 172 170
-2.568769e-001 -4.165483e-001 -6.551494e+000 253 254 249
4.727892e-001 -5.644661e-001 -6.732996e+000 229 226 218
4.727892e-001 -5.644661e-001 -6.732996e+000 229 226 218
1.126982e+000 -6.971824e-001 -6.172408e+000 18 1 7
8.652148e-001 8.284362e-001 -6.364946e+000 196 55 61
-4.297553e-001 9.546968e-001 -7.751890e+000 30 16 16
9.720697e-001 6.515655e-001 -6.277630e+000 176 42 37
1.106521e-001 6.356358e-001 -7.062242e+000 186 177 168
5.403183e-001 5.765290e-001 -6.755010e+000 166 157 150
3.297047e-001 3.636693e-001 -6.879604e+000 123 110 99
1.203247e+000 2.570342e-001 -6.084637e+000 25 5 9
5.071252e-002 2.076151e-001 -6.858108e+000 178 169 160
5.071252e-002 2.076151e-001 -6.858108e+000 178 169 160
3.952668e-001 2.098866e-001 -6.645394e+000 142 129 113
7.896365e-001 1.199381e-001 -6.509279e+000 195 188 178
2.420979e-001 5.200550e-002 -6.647727e+000 192 182 172
2.437638e-001 1.630863e-002 -6.652871e+000 203 194 187
1.263401e+000 3.985183e-002 -6.048201e+000 243 79 98
-1.151204e-001 -2.586850e-002 -6.627903e+000 183 173 164
1.246022e+000 -1.362342e-001 -6.104156e+000 249 79 93
-9.735090e-001 -2.439753e-001 -6.292804e+000 135 113 67
-3.186732e+000 -6.738101e-001 -1.135664e+001 44 39 39
-4.951308e-001 -3.052236e-001 -6.466031e+000 188 105 67
6.190125e-001 -3.015145e-001 -6.598922e+000 243 240 231
7.279604e-001 -2.984329e-001 -6.482437e+000 172 158 147
9.090426e-001 -2.832351e-001 -6.324875e+000 158 145 134
-3.366122e-001 -4.091588e-001 -6.484209e+000 236 232 229
-2.466050e-002 -4.610159e-001 -6.829091e+000 255 254 249
9.682650e-001 -4.827008e-001 -6.254945e+000 182 159 106
9.919770e-001 -5.934617e-001 -6.323733e+000 169 147 134
5.158951e-001 -1.165446e+000 -7.120001e+000 45 32 34
9.463338e-001 -1.018060e+000 -6.548647e+000 253 82 93
4.217001e-001 1.109518e+000 -6.814322e+000 219 212 209
1.452760e-002 1.174133e+000 -7.238619e+000 192 35 44
8.792254e-001 8.811720e-001 -6.406419e+000 16 12 9
9.460699e-001 6.912051e-001 -6.302727e+000 203 42 57
-3.171660e-001 8.330306e-001 -7.600367e+000 206 191 183
5.114756e-001 5.990447e-001 -6.774771e+000 181 174 166
-1.080921e-001 5.937028e-001 -7.233212e+000 208 199 190
1.102885e+000 4.200289e-001 -6.138974e+000 214 49 60
1.077075e+000 3.047372e-001 -6.198751e+000 235 64 73
1.189423e+000 2.324800e-001 -6.082058e+000 229 58 64
7.442308e-001 1.737331e-001 -6.574272e+000 170 163 153
2.370160e-002 9.493965e-002 -6.759424e+000 179 168 162
5.066977e-002 6.784654e-002 -6.726819e+000 182 171 165
1.208805e+000 5.495874e-002 -6.022617e+000 204 53 62
1.275262e+000 8.517635e-002 -6.037568e+000 29 12 20
7.120491e-001 4.860842e-002 -6.469651e+000 162 150 138
1.186120e+000 2.540184e-002 -6.032694e+000 169 29 40
3.912788e-001 -2.139287e-002 -6.588236e+000 204 194 185
8.710573e-002 -1.127857e-001 -6.638029e+000 177 166 162
5.172138e-001 -1.185135e-001 -6.535723e+000 224 221 214
-7.452790e-001 -2.108615e-001 -6.279944e+000 145 60 38
-1.190897e-001 -2.461100e-001 -6.632840e+000 238 235 230
1.164650e-001 -2.515715e-001 -6.680409e+000 205 191 182
1.164650e-001 -2.515715e-001 -6.680409e+000 205 191 182
9.927740e-001 -2.061743e-001 -6.281517e+000 164 149 141
-9.657729e-002 -2.957609e-001 -6.697974e+000 241 240 237
3.540377e-001 -3.173245e-001 -6.744866e+000 215 208 200
-4.617905e-001 -3.646486e-001 -6.431639e+000 46 42 53
-1.866227e-001 -3.742553e-001 -6.620581e+000 159 143 131
4.621740e-001 -5.278459e-001 -6.739438e+000 254 255 250
5.583042e-001 -5.126591e-001 -6.649843e+000 151 132 94
7.075980e-001 -5.728634e-001 -6.499300e+000 239 233 224
4.815379e-001 -6.970118e-001 -6.796517e+000 254 255 250
1.010561e+000 -8.829936e-001 -6.392445e+000 28 11 12
3.962867e-001 -1.209095e+000 -7.274784e+000 208 191 147
4.018891e-001 1.176393e+000 -6.861615e+000 196 34 40
4.614184e-001 1.131196e+000 -6.790587e+000 206 37 44
8.846308e-001 8.004902e-001 -6.348153e+000 17 1 8
-3.984049e-001 9.908825e-001 -7.671449e+000 193 36 43
7.042577e-001 7.281935e-001 -6.542118e+000 148 124 116
6.926747e-001 6.896093e-001 -6.549127e+000 221 212 203
-1.004958e-001 6.388897e-001 -7.241541e+000 150 141 131
4.809279e-001 3.562804e-001 -6.858817e+000 142 132 119
1.158832e+000 3.108771e-001 -6.109949e+000 232 58 71
4.730167e-001 1.741145e-001 -6.641263e+000 194 184 174
4.818077e-001 6.928481e-002 -6.582115e+000 146 136 127
8.513428e-001 1.095037e-001 -6.460234e+000 188 181 171
-2.036129e-001 3.874115e-002 -6.693631e+000 77 20 13
-1.634026e-001 1.836867e-002 -6.667476e+000 156 144 132
6.222105e-001 5.143867e-002 -6.492757e+000 160 150 141
7.166194e-001 8.821625e-003 -6.431022e+000 209 200 193
-2.794740e-001 -2.960342e-001 -6.543615e+000 169 145 135
4.620638e-001 -3.262798e-001 -6.712991e+000 227 220 210
7.585545e-001 -2.898812e-001 -6.444438e+000 177 166 154
-1.230511e-002 -5.042991e-001 -6.859762e+000 50 39 37
-4.336801e-001 -5.284673e-001 -6.636341e+000 40 34 25
5.077460e-001 -5.735144e-001 -6.713626e+000 254 253 249
1.031530e+000 -8.448369e-001 -6.388756e+000 250 255 249
2.965700e-001 9.870014e-001 -7.013784e+000 221 215 212
8.889567e-001 7.491269e-001 -6.337123e+000 227 55 67
5.065261e-001 8.177739e-001 -6.805489e+000 228 223 217
7.566122e-001 7.012286e-001 -6.423108e+000 219 53 65
-1.964430e-001 8.214740e-001 -7.481519e+000 156 143 134
1.556417e-001 7.311641e-001 -7.078818e+000 221 214 208
5.014185e-001 7.053905e-001 -6.794960e+000 240 233 227
6.954657e-002 6.964608e-001 -7.102951e+000 207 198 193
8.806422e-001 5.156429e-001 -6.376736e+000 215 204 198
7.457056e-002 5.757550e-001 -7.082249e+000 204 193 187
9.176221e-001 4.728455e-001 -6.305985e+000 213 45 54
-4.530334e-001 4.669010e-001 -7.713400e+000 212 202 193
2.461401e-001 3.770283e-001 -6.896832e+000 180 169 163
1.180314e-001 2.326343e-001 -6.820562e+000 138 125 116
9.817003e-001 2.285253e-001 -6.284375e+000 158 143 136
3.559517e-001 2.020483e-001 -6.710457e+000 198 190 179
1.214500e+000 1.449323e-001 -6.066442e+000 207 45 51
5.040147e-002 1.337959e-001 -6.809763e+000 129 119 109
1.130496e-001 1.405828e-001 -6.770151e+000 214 207 201
1.252052e+000 -3.054003e-003 -6.043601e+000 16 7 3
7.458937e-001 -2.723855e-002 -6.413579e+000 161 149 137
1.878513e-001 -1.440419e-001 -6.672843e+000 195 188 180
-8.532196e-001 -2.512937e-001 -6.269909e+000 122 56 50
1.209413e+000 -1.783144e-001 -6.103623e+000 122 23 36
-4.316115e-001 -2.662275e-001 -6.448576e+000 142 25 26
6.709252e-001 -3.133863e-001 -6.557318e+000 163 151 137
-5.051532e-001 -3.489097e-001 -6.468365e+000 239 188 141
6.217334e-001 -4.321101e-001 -6.550191e+000 161 138 94
5.065015e-001 -5.767086e-001 -6.713928e+000 255 254 250
1.037581e+000 -4.885572e-001 -6.216967e+000 230 217 208
5.136464e-001 -7.496349e-001 -6.814172e+000 225 222 215
8.248017e-001 -9.762442e-001 -6.646766e+000 44 28 34
-9.942818e+000 -7.536782e+000 -3.116173e+001 18 11 9
4.986842e-001 1.039579e+000 -6.755531e+000 223 217 213
-1.989628e-002 1.100621e+000 -7.255752e+000 195 185 176
1.399379e-001 1.007006e+000 -7.135026e+000 206 199 193
7.275094e-001 7.985110e-001 -6.550933e+000 203 197 189
2.308719e-001 3.009840e-001 -6.873144e+000 126 113 104
1.081123e+000 2.285107e-001 -6.197329e+000 192 37 42
3.685186e-001 5.027813e-002 -6.629942e+000 160 152 141
1.951940e-001 -4.305053e-002 -6.654465e+000 255 254 250
2.796949e-001 -4.885362e-002 -6.658717e+000 209 198 192
8.097312e-001 -1.057749e-001 -6.351212e+000 145 131 120
1.215070e+000 -1.077781e-001 -6.057496e+000 241 66 78
-7.759347e-001 -2.309714e-001 -6.253131e+000 119 50 49
-7.347112e-001 -1.841281e-001 -6.295969e+000 149 68 39
-1.397546e-001 -3.212463e-001 -6.718152e+000 50 37 18
-1.400879e-001 -3.238255e-001 -6.735943e+000 50 37 18
-4.103832e-001 -3.602155e-001 -6.454900e+000 170 71 60
2.742426e-001 -4.266289e-001 -6.771172e+000 254 245 190
4.859169e-001 -3.685997e-001 -6.700438e+000 112 94 80
7.448576e-001 -5.330618e-001 -6.466915e+000 144 126 78
8.568241e-001 -4.897601e-001 -6.362087e+000 199 174 118
6.434955e-001 -6.634233e-001 -6.643043e+000 145 127 104
1.163638e+000 -8.334995e-001 -6.275859e+000 254 86 97
1.169341e+000 -8.390056e-001 -6.297674e+000 254 86 97
3.198135e-001 8.831960e-001 -6.935998e+000 163 154 145
2.008431e-001 8.480320e-001 -7.054214e+000 219 211 208
9.121535e-001 5.451325e-001 -6.274723e+000 162 31 39
1.001608e+000 5.111077e-001 -6.173802e+000 234 64 75
2.270345e-001 5.683429e-001 -6.974199e+000 214 205 198
1.036217e+000 2.085429e-001 -6.238680e+000 219 210 205
-1.951760e-001 -5.750809e-002 -6.609657e+000 85 24 16
2.604959e-001 -1.487218e-001 -6.658715e+000 254 255 250
1.210875e+000 -7.764313e-002 -6.083665e+000 243 67 77
1.139987e+000 -1.883077e-001 -6.148780e+000 135 32 35
-9.214351e-001 -3.036164e-001 -6.250952e+000 38 28 32
3.392859e-001 -2.787173e-001 -6.725217e+000 231 228 221
8.357545e-001 -3.226024e-001 -6.357980e+000 122 104 81
7.792250e-001 -4.083217e-001 -6.374961e+000 210 186 131
5.731133e-001 -5.609942e-001 -6.671128e+000 110 87 62
1.233607e+000 -4.574412e-001 -6.113008e+000 24 9 8
1.155399e+000 -7.209151e-001 -6.184800e+000 21 9 12
9.728263e-001 -9.874170e-001 -6.437937e+000 230 64 74
9.743320e-001 -9.899978e-001 -6.444309e+000 230 64 74
7.806481e-002 9.088613e-001 -7.110006e+000 170 157 151
7.962386e-002 9.065957e-001 -7.118258e+000 170 157 151
7.419945e-002 7.596076e-001 -7.085612e+000 208 199 194
3.687194e-001 7.542487e-001 -6.849517e+000 228 221 214
1.183975e+000 1.891399e-001 -6.087348e+000 216 46 55
1.124103e+000 9.124645e-002 -6.105719e+000 131 15 23
-8.095090e-001 -3.191318e-001 -6.310161e+000 246 124 75
1.183103e-001 -5.032988e-001 -6.795758e+000 255 255 253
9.714027e-001 -4.311092e-001 -6.256851e+000 154 132 86
6.983317e-001 -8.559744e-001 -6.708425e+000 22 12 13
9.846087e-001 -8.203697e-001 -6.403086e+000 255 255 253
1.269923e+000 -1.195088e-001 -6.005460e+000 42 30 32
-3.424503e-001 -4.706542e-001 -6.575501e+000 233 232 230
1.036170e+000 -6.417528e-001 -6.288592e+000 182 38 45
4.278640e-001 -1.120204e+000 -7.201452e+000 144 123 80
5.846872e-002 -2.011109e-002 -6.696292e+000 132 119 110
-6.897760e-002 -1.792756e-001 -6.652326e+000 248 244 242
7.785085e-001 5.402300e-001 -6.430664e+000 255 255 253
1.045981e+000 -6.743796e-003 -6.306554e+000 230 225 221
4.008396e-001 -6.646348e-001 -6.845974e+000 254 254 252
1.305635e+000 -3.000870e-001 -6.012106e+000 198 173 117
1.307282e+000 -2.998195e-001 -6.014040e+000 198 173 117
8.978436e-001 -7.194369e-001 -6.485156e+000 238 231 225
1.331851e+000 7.356644e-002 -6.097791e+000 46 34 34
2.930889e-002 1.152745e+000 -7.233214e+000 199 198 186
7.979385e-001 8.139977e-001 -6.301277e+000 219 51 60
8.150317e-001 7.592663e-001 -6.173629e+000 231 69 82
-2.180709e-001 9.029344e-001 -7.544945e+000 173 157 153
1.092541e-001 6.710608e-001 -7.077681e+000 178 165 159
1.262620e+000 1.139077e-001 -6.052163e+000 30 7 14
-6.034164e-004 8.137258e-002 -6.746944e+000 122 107 100
1.282760e+000 4.652908e-002 -6.037811e+000 22 12 11
-1.231209e-001 -1.140836e-002 -6.627986e+000 172 156 148
-1.698714e-001 -6.515176e-002 -6.613193e+000 162 69 54
-4.503060e-001 -1.773826e-001 -6.441103e+000 228 113 68
-2.729087e-001 -1.168298e-001 -6.449366e+000 75 18 11
-8.090020e-001 -1.978165e-001 -6.142469e+000 54 23 1
-1.486796e-001 -2.509617e-001 -6.698858e+000 124 102 57
-6.784806e-001 -2.727946e-001 -6.174099e+000 162 49 30
-4.493626e-001 -3.790818e-001 -6.408867e+000 47 35 45
-2.291819e-001 -3.951295e-001 -6.559415e+000 214 209 203
-2.286103e-001 -3.939265e-001 -6.556708e+000 214 209 203
-4.719368e-001 -4.938012e-001 -6.556014e+000 227 116 60
-1.144263e-001 -4.381041e-001 -6.634117e+000 45 34 30
1.872328e-001 1.044402e+000 -7.101675e+000 188 185 178
9.198111e-001 5.808117e-001 -6.348320e+000 168 32 38
-2.751134e-002 3.065789e-001 -7.059488e+000 157 147 137
5.469057e-002 2.530409e-001 -6.854391e+000 156 146 136
1.624645e-001 3.073379e-001 -6.756163e+000 148 134 122
-2.830298e-001 1.403174e-001 -6.642040e+000 114 55 46
-2.830298e-001 1.403174e-001 -6.642040e+000 114 55 46
-1.358843e-001 -2.309367e-001 -6.608153e+000 229 216 214
-7.018356e-001 -3.251565e-001 -6.218425e+000 217 106 79
-6.211117e-001 -3.043870e-001 -6.261250e+000 91 38 22
-1.925755e-001 -3.052662e-001 -6.597804e+000 46 30 11
-1.975696e-001 -3.449663e-001 -6.619682e+000 144 126 115
1.009683e+000 -2.729713e-001 -6.203535e+000 155 133 91
-2.726194e-001 -3.936484e-001 -6.511403e+000 163 155 150
-1.561181e-001 -3.975792e-001 -6.591212e+000 192 189 184
-1.561181e-001 -3.975792e-001 -6.591212e+000 192 189 184
3.782262e-001 1.171715e+000 -6.878831e+000 200 41 45
2.306834e-001 1.009680e+000 -7.060788e+000 225 218 212
1.091242e+000 4.751571e-001 -6.172216e+000 193 34 51
-8.165678e-002 5.095895e-001 -7.019109e+000 193 184 177
-3.115713e-001 1.316386e-001 -6.805215e+000 42 30 30
-1.448847e-001 -2.046449e-002 -6.619858e+000 102 37 22
-2.177967e-001 -1.888735e-001 -6.379921e+000 176 90 69
-6.736274e-001 -3.161611e-001 -6.300297e+000 167 47 36
-2.358740e-001 -3.100475e-001 -6.631155e+000 113 94 79
-7.270708e-001 -3.787362e-001 -6.325975e+000 210 94 65
-5.158887e-002 -4.625496e-001 -6.736675e+000 52 41 37
1.215224e+000 -5.055518e-001 -6.171663e+000 248 66 76
4.406945e-001 1.329101e+000 -6.833729e+000 28 16 22
-4.600614e-001 4.638307e-001 -7.733517e+000 219 206 198
1.056080e+000 2.080296e-001 -6.219688e+000 209 192 183
1.068319e+000 1.654917e-001 -6.200836e+000 192 178 168
-2.455030e-001 1.461338e-001 -6.918497e+000 37 25 20
-2.603489e-001 9.760901e-002 -6.791068e+000 47 28 22
6.954615e-001 -5.140055e-002 -6.416057e+000 222 215 209
-1.625895e-001 -2.219050e-001 -6.605472e+000 80 58 21
-6.043983e-001 -3.841343e-001 -6.500722e+000 48 29 27
-3.103718e-001 -3.875294e-001 -6.470877e+000 180 170 168
-1.571205e-001 4.920015e-001 -7.228925e+000 209 202 192
-6.997618e-003 3.515023e-001 -6.955142e+000 166 156 146
-6.997618e-003 3.515023e-001 -6.955142e+000 166 156 146
5.747586e-001 -7.500124e-002 -6.527395e+000 195 190 184
-8.974347e-001 -1.918710e-001 -6.076928e+000 190 163 108
9.441529e-001 -1.767215e-001 -6.317259e+000 195 188 182
4.859631e-001 -4.453141e-001 -6.692420e+000 183 163 112
1.015191e+000 -4.715464e-001 -6.281921e+000 178 154 106
2.948604e-001 -7.768885e-001 -7.220855e+000 72 62 35
6.717941e-001 1.083568e+000 -6.565091e+000 202 42 51
-9.201275e-002 6.338871e-001 -7.178649e+000 150 141 131
1.623327e-001 3.954213e-001 -6.732049e+000 181 168 159
-8.064741e-001 -1.356097e-001 -6.198097e+000 146 69 42
-2.902774e-001 -2.447881e-001 -6.403496e+000 121 73 56
-2.902774e-001 -2.447881e-001 -6.403496e+000 121 73 56
1.649438e-001 -4.232557e-001 -6.721691e+000 47 30 18
5.812942e-001 -4.424156e-001 -6.771486e+000 102 84 47
5.368556e-001 -5.444765e-001 -6.848341e+000 85 66 41
9.978849e-001 -6.009619e-001 -6.371058e+000 180 158 145
1.004438e+000 -1.060212e+000 -6.480571e+000 224 60 67
1.004438e+000 -1.060212e+000 -6.480571e+000 224 60 67
9.689461e-001 2.259711e-001 -6.242959e+000 158 143 136
6.578494e-001 -2.792919e-002 -6.419147e+000 191 184 175
-6.750203e-001 -3.594522e-001 -6.323264e+000 255 211 172
7.596505e-001 9.381133e-001 -6.416910e+000 194 34 44
1.005821e+000 5.752793e-001 -6.143138e+000 19 0 9
-2.026877e-001 7.327923e-001 -7.506141e+000 223 216 209
2.771219e-001 6.382681e-001 -6.903361e+000 149 139 129
4.857719e-001 5.347462e-001 -6.699423e+000 222 213 208
-3.807953e-001 -7.270460e-002 -6.360021e+000 87 23 15
1.204589e+000 -3.871100e-002 -6.048741e+000 248 77 87
7.371221e-001 -1.049913e-001 -6.402856e+000 241 241 233
9.308666e-001 -2.902405e-001 -6.296003e+000 111 91 67
1.037046e+000 -3.158658e-001 -6.281255e+000 165 141 95
9.210709e-001 -3.684415e-001 -6.325102e+000 188 166 113
6.410048e-001 -5.772515e-001 -6.586761e+000 205 195 184
6.351351e-001 6.894334e-001 -6.516181e+000 209 202 194
-2.137510e-001 -2.030025e-001 -6.729161e+000 93 66 37
5.178706e-001 -2.809129e-001 -6.697504e+000 247 245 241
2.469250e-001 -4.938372e-001 -6.761520e+000 61 39 25
1.115812e+000 -7.083374e-001 -6.295347e+000 255 78 92
3.692285e-001 7.542188e-001 -6.852286e+000 228 221 214
4.355662e-001 -1.142026e+000 -7.295288e+000 144 123 80
-5.774587e-001 -5.031617e-001 -6.686289e+000 45 33 33
1.230741e+000 -5.913968e-001 -6.157859e+000 24 8 11
-7.671882e-002 1.242638e+000 -7.345480e+000 148 23 29
-5.224054e-002 8.307599e-001 -7.227582e+000 212 206 197
8.392890e-001 8.589222e-001 -6.360945e+000 98 12 21
1.254366e-001 6.579278e-001 -7.106727e+000 155 145 135
9.250883e-001 7.355334e-001 -6.314148e+000 188 53 56
-1.040625e-001 4.931754e-001 -7.240996e+000 151 141 131
3.850038e-001 2.689252e-001 -6.786721e+000 143 129 118
-1.065291e-001 6.631910e-002 -6.677519e+000 135 120 113
-1.276296e-002 8.955816e-002 -6.765669e+000 122 110 103
3.555572e-003 5.557304e-002 -6.732430e+000 153 143 133
2.140138e-001 6.475886e-002 -6.518955e+000 156 146 137
-6.156976e-001 -1.828104e-001 -6.490433e+000 156 71 47
-6.156976e-001 -1.828104e-001 -6.490433e+000 156 71 47
-5.186742e-001 -1.394719e-001 -6.473529e+000 176 90 62
-5.262014e-001 -1.444825e-001 -6.519504e+000 176 90 62
-2.679203e-001 -1.585955e-001 -6.504429e+000 145 58 35
-3.006917e-001 -1.833992e-001 -6.440908e+000 196 88 56
5.340595e-001 -1.892568e-002 -6.495509e+000 197 189 181
-5.933074e-001 -2.770845e-001 -6.546815e+000 187 84 56
-5.455430e-001 -2.663150e-001 -6.547914e+000 191 72 37
9.214470e-002 -2.527048e-001 -6.707247e+000 242 236 231
-5.527632e-002 -3.243007e-001 -6.765963e+000 44 33 15
-4.359964e-001 -3.835178e-001 -6.431276e+000 201 179 160
1.881790e-001 -3.752448e-001 -6.755132e+000 141 120 74
5.033654e-001 -6.408835e-001 -6.748013e+000 241 238 228
7.165314e-001 -8.249069e-001 -6.725718e+000 229 79 86
1.115276e+000 -6.540648e-001 -6.144084e+000 180 21 31
1.107936e+000 -6.765680e-001 -6.125924e+000 23 4 1
-3.483337e-001 8.027780e-001 -7.676568e+000 195 186 185
8.838154e-001 8.260687e-001 -6.350956e+000 18 6 10
1.047109e-001 6.987213e-001 -7.095225e+000 212 206 200
1.033830e-001 6.975810e-001 -7.073816e+000 212 206 200
8.007253e-001 6.051465e-001 -6.410613e+000 234 229 226
8.028601e-001 6.048131e-001 -6.421365e+000 234 229 226
1.742352e-001 3.052733e-001 -6.778389e+000 136 120 107
1.650136e-002 2.536345e-001 -6.939483e+000 152 139 130
2.347535e-003 1.199771e-001 -6.780786e+000 128 114 105
3.677318e-001 2.320131e-001 -6.748816e+000 140 127 111
-1.312908e-001 8.562359e-002 -6.702139e+000 123 110 102
-1.312908e-001 8.562359e-002 -6.702139e+000 123 110 102
-6.141393e-002 2.909397e-002 -6.671951e+000 147 134 126
6.575951e-002 -1.160110e-002 -6.676910e+000 125 112 104
7.601525e-002 8.181823e-003 -6.677537e+000 169 160 151
-2.842881e-001 -1.187768e-001 -6.524215e+000 65 4 1
-2.843482e-001 -1.187845e-001 -6.523917e+000 65 4 1
-1.682501e-001 -6.491375e-002 -6.613619e+000 172 87 71
-1.682262e-001 -1.167479e-001 -6.585677e+000 207 180 171
-7.241509e-001 -2.978293e-001 -6.293692e+000 230 112 81
-7.241509e-001 -2.978293e-001 -6.293692e+000 230 112 81
-5.520680e-001 -3.424609e-001 -6.560945e+000 66 24 20
-4.494302e-001 -3.725850e-001 -6.410289e+000 57 54 68
-2.210878e-001 -3.676108e-001 -6.595133e+000 179 166 158
4.560585e-001 -2.260826e-001 -6.693909e+000 230 227 220
-2.833359e-002 -4.526691e-001 -6.771895e+000 254 252 247
-1.087521e-002 -4.935361e-001 -6.869493e+000 46 35 29
8.062866e-001 -5.157246e-001 -6.353332e+000 211 186 130
1.335766e+000 -3.852108e-001 -6.028114e+000 198 175 121
2.788408e-001 -9.387976e-001 -6.979784e+000 41 31 23
4.727734e-001 -1.078299e+000 -7.108150e+000 150 128 79
1.130117e+000 -6.238450e-001 -6.165498e+000 211 46 55
5.983060e-001 1.206931e+000 -6.747361e+000 182 43 46
-3.313404e-001 7.799768e-001 -7.632805e+000 156 140 131
7.730694e-001 8.725096e-001 -6.374861e+000 113 9 17
-5.243303e-001 5.415668e-001 -7.908175e+000 34 24 16
-1.842872e-001 6.615588e-001 -7.525435e+000 205 198 188
-2.384064e-001 5.475003e-001 -7.569156e+000 217 210 200
-1.688842e-001 4.427433e-001 -7.313137e+000 144 131 120
-4.132799e-002 4.334121e-001 -7.180428e+000 172 162 152
7.645532e-001 5.533393e-001 -6.453880e+000 229 226 221
7.650715e-001 5.530927e-001 -6.457128e+000 229 226 221
1.683887e-001 2.489216e-001 -6.803830e+000 175 165 156
-1.621029e-001 1.472197e-001 -6.811163e+000 138 124 115
-9.641871e-003 4.364238e-002 -6.727872e+000 115 102 93
4.923831e-002 2.248957e-002 -6.709599e+000 123 113 104
-1.517884e-001 -9.724914e-002 -6.666541e+000 184 161 155
2.305478e-001 -2.726691e-002 -6.646777e+000 206 197 188
-7.999196e-001 -1.869095e-001 -6.265754e+000 77 22 2
-7.750509e-001 -2.092234e-001 -6.219572e+000 54 5 8
-2.754551e-001 -1.841987e-001 -6.481185e+000 219 97 66
-1.703308e-001 -2.223720e-001 -6.680980e+000 93 69 26
-6.367702e-001 -3.017531e-001 -6.391734e+000 225 183 143
-1.283316e-001 -2.817594e-001 -6.684618e+000 97 79 41
-1.954091e-001 -3.294262e-001 -6.641973e+000 203 193 181
-1.702780e-001 -4.581212e-001 -6.709229e+000 45 36 31
-3.280108e-001 -5.322389e-001 -6.659773e+000 234 233 229
1.204450e+000 -3.219685e-001 -6.072994e+000 152 124 77
6.078143e-001 -6.618798e-001 -6.607155e+000 160 147 126
6.918630e-001 -7.748826e-001 -6.666589e+000 174 33 33
1.096079e+000 -6.259373e-001 -6.149052e+000 214 52 58
-3.838758e-002 1.152023e+000 -7.266180e+000 173 35 41
-2.186769e-001 1.059004e+000 -7.546259e+000 195 44 52
-2.186769e-001 1.059004e+000 -7.546259e+000 195 44 52
-3.236072e-001 8.787033e-001 -7.590126e+000 210 44 53
-1.660489e-001 8.965500e-001 -7.507113e+000 203 195 185
-1.656733e-001 8.967120e-001 -7.507718e+000 203 195 185
-3.575562e-001 8.318864e-001 -7.687722e+000 183 34 41
-3.646270e-001 7.135793e-001 -7.679522e+000 178 166 154
2.719077e-001 7.558503e-001 -7.049212e+000 213 204 198
8.643094e-002 6.509424e-001 -7.089605e+000 195 185 177
3.105535e-001 7.243031e-001 -7.008059e+000 208 201 195
-1.002972e-001 5.252436e-001 -7.241865e+000 193 184 175
9.251294e-001 6.055175e-001 -6.335428e+000 203 45 53
9.454262e-001 6.490226e-001 -6.315826e+000 171 26 33
-2.786915e-001 2.048139e-001 -7.728007e+000 203 52 59
-4.197508e-002 2.396465e-001 -6.977882e+000 124 111 102
7.379680e-003 1.879187e-001 -6.901923e+000 122 114 103
-2.333008e-001 6.812129e-002 -6.737651e+000 130 108 100
7.699852e-001 1.316032e-001 -6.539236e+000 188 179 170
-9.426003e-001 -1.916923e-001 -6.198641e+000 158 135 82
1.167563e+000 1.626775e-001 -6.205312e+000 222 55 65
5.691674e-001 -7.214440e-002 -6.490884e+000 202 197 191
-8.400664e-001 -2.588286e-001 -6.245168e+000 98 31 28
-4.132462e-001 -3.027467e-001 -6.442789e+000 143 9 18
5.951891e-001 -3.091327e-001 -6.650223e+000 165 151 141
5.635158e-001 -4.158596e-001 -6.622373e+000 91 74 38
7.038849e-001 -3.331214e-001 -6.508682e+000 165 152 135
6.671721e-001 -3.663978e-001 -6.506277e+000 148 138 123
1.037365e+000 -2.470202e-001 -6.200893e+000 83 65 39
1.028108e+000 -2.420773e-001 -6.174065e+000 83 65 39
1.215928e+000 -1.966313e-001 -6.073373e+000 140 118 71
1.023542e+000 -5.255615e-001 -6.262102e+000 197 167 159
1.415107e+000 -3.760670e-001 -5.922021e+000 27 14 14
7.242719e-001 -8.240107e-001 -6.541853e+000 39 28 23
8.848922e-001 -8.450138e-001 -6.460775e+000 224 57 65
-3.811631e+000 9.655396e-001 -1.199642e+001 11 7 8
2.903828e-001 9.133505e-001 -7.017309e+000 192 179 173
7.791298e-001 9.533476e-001 -6.460461e+000 183 29 39
-2.795121e-002 5.951789e-001 -7.123497e+000 183 173 163
5.298426e-001 4.411993e-001 -6.758121e+000 183 175 163
-2.495824e-001 2.764098e-001 -7.625117e+000 168 33 38
2.690858e-001 8.951074e-002 -6.684901e+000 159 144 137
-3.579362e-001 -2.795981e-002 -6.610890e+000 123 51 35
4.662390e-001 1.075554e-001 -6.610430e+000 179 171 160
-9.393630e-001 -2.622775e-001 -6.274857e+000 32 23 24
-5.330809e-001 -1.860595e-001 -6.481209e+000 234 122 84
-5.141792e-001 -2.179382e-001 -6.467113e+000 166 35 18
-8.127109e-003 -1.196649e-001 -6.595221e+000 241 236 233
1.216248e+000 9.173573e-002 -6.037021e+000 119 10 23
-4.586394e-001 -4.220643e-001 -6.513203e+000 161 144 133
-2.148135e-001 -4.497271e-001 -6.640238e+000 211 204 198
9.688609e-001 -2.528229e-001 -6.289271e+000 147 129 119
9.555675e-001 -3.006706e-001 -6.209445e+000 174 151 101
7.213273e-001 -5.950411e-001 -6.447498e+000 194 185 174
1.002666e+000 -4.672339e-001 -6.230560e+000 175 151 105
1.401942e+000 -3.985464e-001 -5.932070e+000 206 183 115
1.401942e+000 -3.985464e-001 -5.932070e+000 206 183 115
9.033184e-001 -7.217819e-001 -6.429108e+000 208 200 189
4.195285e-001 -1.136931e+000 -7.220131e+000 134 114 69
5.448279e-001 -1.099175e+000 -7.097505e+000 13 5 8
1.108663e+000 -6.043430e-001 -6.162669e+000 150 2 16
-2.097543e+000 -2.992329e+000 -1.059773e+001 37 31 33
-2.079441e+000 -3.126349e+000 -1.059650e+001 37 31 33
-1.580248e+000 -2.311326e+000 -8.634702e+000 39 33 35
-5.423759e-001 7.291233e-001 -7.896263e+000 191 41 42
-6.705765e-002 6.868450e-001 -7.187307e+000 206 197 188
-4.562727e-001 4.675773e-001 -7.780561e+000 208 194 184
-1.747497e-001 4.947198e-001 -7.319913e+000 202 194 183
5.180640e-001 3.224719e-001 -6.817020e+000 141 133 122
1.690407e-001 1.260653e-001 -6.731553e+000 155 145 136
-8.852793e-001 -1.710524e-001 -6.169956e+000 39 24 28
-1.786602e-001 -1.388883e-001 -6.639472e+000 182 160 154
5.016805e-001 1.866469e-002 -6.545467e+000 220 216 210
5.017827e-001 1.856580e-002 -6.545677e+000 220 216 210
3.052350e-001 -1.154045e-001 -6.669881e+000 255 252 244
6.764434e-001 -2.666713e-002 -6.452840e+000 188 179 172
7.193521e-001 5.010614e-003 -6.444335e+000 213 205 196
8.028588e-001 -2.995714e-002 -6.414229e+000 180 172 160
8.034805e-001 -3.019361e-002 -6.415767e+000 180 172 160
5.891625e-001 -1.334409e-001 -6.538553e+000 226 221 217
5.891625e-001 -1.334409e-001 -6.538553e+000 226 221 217
1.187639e+000 -4.969669e-001 -6.136727e+000 229 58 69
-2.058152e+000 -2.913920e+000 -1.060436e+001 24 18 20
-2.007162e+000 -3.009230e+000 -1.051482e+001 20 14 16
-1.929174e+000 -3.155553e+000 -1.042835e+001 29 23 25
6.731374e-001 1.084423e+000 -6.595132e+000 199 40 48
-1.910471e-001 1.013571e+000 -7.556699e+000 191 41 48
-8.602443e-002 7.573456e-001 -7.198350e+000 177 168 159
-2.867672e-002 7.764068e-001 -7.174297e+000 218 211 201
7.475909e-001 8.121248e-001 -6.408642e+000 189 43 49
-5.373591e-001 5.293398e-001 -7.918754e+000 38 24 21
-1.136919e-001 4.743238e-001 -7.285256e+000 145 133 122
1.636419e-001 4.130106e-001 -6.908235e+000 188 175 166
4.109528e-001 3.671016e-001 -6.849665e+000 170 162 149
6.906176e-001 1.744813e-001 -6.623937e+000 155 145 134
-9.310996e-001 -2.034414e-001 -6.209166e+000 168 147 100
-9.310996e-001 -2.034414e-001 -6.209166e+000 168 147 100
-8.584560e-001 -1.947363e-001 -6.229921e+000 151 127 81
7.166752e-001 8.805742e-003 -6.431236e+000 213 205 196
1.223407e+000 -3.489703e-002 -6.078498e+000 247 80 90
5.152573e-001 -5.202340e-001 -6.706766e+000 81 64 37
6.421050e-001 -5.755195e-001 -6.575441e+000 204 191 182
1.345475e+000 -3.445598e-001 -5.973164e+000 163 139 91
4.649740e-001 -1.188675e+000 -7.160220e+000 41 28 23
-1.840332e+000 -3.116490e+000 -1.044065e+001 68 64 65
-1.162267e-001 9.637196e-001 -7.208342e+000 220 197 200
5.783715e-001 6.124445e-001 -6.733766e+000 210 201 194
1.290755e-001 4.752405e-001 -6.985994e+000 153 141 129
3.778798e-001 5.033906e-001 -6.927583e+000 178 169 160
1.760800e-002 4.104463e-001 -7.121139e+000 140 130 118
1.186056e-001 2.362835e-001 -6.846628e+000 128 116 106
1.935735e-001 2.290535e-001 -6.792233e+000 201 194 184
5.160355e-001 3.337699e-001 -6.830622e+000 151 143 132
8.132631e-001 2.688846e-001 -6.456724e+000 249 245 240
1.364155e-001 -5.901674e-003 -6.688702e+000 127 117 107
-7.371776e-001 -1.871739e-001 -6.301573e+000 155 66 34
3.314344e-002 -2.885739e-001 -6.718931e+000 244 241 236
8.114382e-001 -1.064073e-001 -6.354626e+000 133 119 108
7.228732e-001 -2.474646e-001 -6.479384e+000 234 230 221
5.611196e-001 1.062900e+000 -6.704312e+000 207 41 48
-3.982074e-001 3.555603e-001 -7.731889e+000 37 29 27
1.020954e+000 5.821594e-001 -6.189541e+000 17 7 8
-3.874286e-001 -6.934719e-002 -6.486625e+000 87 27 18
2.539702e-001 -4.862730e-001 -6.721568e+000 63 35 24
1.133931e+000 -2.011554e-001 -6.168000e+000 108 27 33
7.743883e-001 -4.025565e-001 -6.348468e+000 222 197 140
1.018252e+000 -3.090749e-001 -6.187429e+000 175 151 103
1.000099e+000 -5.306332e-001 -6.270182e+000 227 214 206
3.571689e-001 7.480457e-001 -6.736474e+000 230 221 214
6.368156e-001 7.033730e-001 -6.635848e+000 215 208 200
4.669032e-001 5.332343e-001 -6.775536e+000 211 204 196
4.696627e-001 5.328891e-001 -6.781830e+000 211 204 196
8.375492e-001 3.485314e-001 -6.429306e+000 174 159 147
4.225435e-001 1.473300e-001 -6.656327e+000 178 168 159
1.142445e+000 -3.623216e-001 -6.121457e+000 108 88 50
7.552844e-002 7.582163e-001 -7.090247e+000 217 208 201
1.385236e-002 5.449104e-001 -7.174735e+000 186 176 167
6.511093e-002 4.020435e-001 -7.001118e+000 131 121 111
9.486985e-001 3.423288e-001 -6.284553e+000 249 248 244
8.144079e-001 -2.129538e-001 -6.350177e+000 247 240 234
4.302534e-001 -1.130047e+000 -7.224308e+000 140 121 72
1.522453e-001 1.101368e+000 -7.097522e+000 210 201 196
4.338585e-001 6.490181e-001 -6.777129e+000 233 224 217
-2.756206e-001 -8.538402e-002 -6.542820e+000 76 21 19
5.889889e-001 1.355599e-001 -6.568203e+000 138 126 114
6.261223e-001 -4.419907e-001 -6.601067e+000 170 148 100
-2.994030e-001 5.985872e-001 -7.725989e+000 215 206 197
-1.691222e-002 -6.927390e-001 -6.791676e+000 39 31 29
7.791425e-001 4.576063e-001 -6.452113e+000 243 242 237
-2.275741e-001 3.156019e-002 -6.680637e+000 73 25 18
1.692706e-002 3.810947e-002 -6.727147e+000 142 132 122
-1.709847e-001 -3.671512e-001 -6.624451e+000 172 159 150
-2.452502e-001 -3.959857e-001 -6.562884e+000 171 161 150
2.750070e-001 7.286836e-001 -7.057283e+000 175 166 157
2.891514e-001 2.475040e-001 -6.799025e+000 124 113 103
-1.369595e-001 -3.183774e-004 -6.676005e+000 149 136 128
-2.620942e-001 -3.080870e-001 -6.593031e+000 168 150 139
8.298926e-001 9.006201e-001 -6.410697e+000 122 32 33
-1.301418e-001 5.284028e-001 -7.311527e+000 164 156 145
-5.310539e-001 -7.584769e-002 -6.515878e+000 108 35 15
-3.745609e-001 -3.636761e-001 -6.396104e+000 168 149 148
1.246241e+000 8.406396e-002 -6.029560e+000 180 41 48
4.970237e-001 -1.069549e-001 -6.609677e+000 253 250 245
-1.470787e-001 -4.396703e-001 -6.730836e+000 240 237 230
6.918120e-001 -7.751071e-001 -6.665833e+000 181 39 35
9.132064e-001 6.922683e-001 -6.332425e+000 189 34 42
7.878431e-001 6.598482e-001 -6.408312e+000 249 64 78
1.125076e+000 2.569018e-001 -6.163754e+000 227 60 68
1.213621e+000 8.938164e-002 -6.048446e+000 121 11 20
-8.237890e+000 -5.991323e+000 -1.819328e+001 106 97 95
-4.414800e-001 9.511654e-001 -7.765618e+000 25 18 16
2.374591e-001 4.424088e-001 -6.922658e+000 134 124 111
-2.529271e-003 1.179786e+000 -7.237568e+000 181 36 41
1.364706e+000 -1.722531e-001 -5.933011e+000 190 165 111
1.364706e+000 -1.722531e-001 -5.933011e+000 190 165 111
1.917256e-001 5.586149e-002 -6.693364e+000 132 120 108
-6.231553e-001 -1.274928e-001 -6.462565e+000 69 22 15
5.848610e-001 9.592638e-002 -7.020761e+000 142 132 120
6.532272e-001 6.880150e-001 -6.600457e+000 194 186 177
-1.570681e-001 4.054353e-001 -7.257914e+000 152 140 128
-1.570421e-001 2.045010e-001 -6.965891e+000 137 127 117
-1.156253e-001 1.630590e-001 -6.696591e+000 102 88 79
-7.254877e-001 -1.413569e-001 -6.775302e+000 114 51 31
-4.755693e-001 -2.315283e-001 -6.471720e+000 186 45 12
2.605617e-001 9.391387e-001 -7.046059e+000 195 186 181
-9.306338e-001 -1.727073e-001 -6.134429e+000 140 113 65
-9.050940e-001 -3.590506e-001 -6.443913e+000 51 37 33
-4.987299e-001 -2.120155e-001 -6.386412e+000 146 24 8
-6.568123e-001 -3.397049e-001 -6.321734e+000 220 167 124
-6.276768e-001 -2.982784e-001 -6.281392e+000 82 29 13
-6.276768e-001 -2.982784e-001 -6.281392e+000 82 29 13
-4.236279e-001 9.566338e-001 -7.769513e+000 20 20 18
2.820192e-001 7.366268e-001 -6.745756e+000 209 200 191
6.464314e-001 8.321045e-001 -6.476730e+000 187 177 171
-7.178045e-002 4.881901e-001 -7.207706e+000 180 172 162
-1.892707e-001 4.304339e-002 -6.682681e+000 89 32 21
-6.952104e-001 -3.533297e-001 -6.368235e+000 252 220 167
-6.540432e-001 -3.177091e-001 -6.316220e+000 253 210 175
1.272759e-001 1.915886e-001 -6.767945e+000 162 152 142
-5.918086e-001 -3.008685e-001 -6.506568e+000 160 51 24
-5.436250e-001 -2.905891e-001 -6.482761e+000 239 157 124
-2.767331e-001 -1.777362e-001 -6.453865e+000 218 101 62
4.208191e-001 1.112573e+000 -6.823158e+000 227 214 213
-1.271916e-001 5.395317e-001 -7.302478e+000 165 155 145
7.557335e-001 6.940931e-001 -6.434011e+000 208 52 57
6.795070e-001 6.105138e-001 -6.801186e+000 150 140 128
-8.980163e-001 -1.914705e-001 -6.238218e+000 46 31 24
-2.428870e-001 -1.694983e-001 -6.427462e+000 99 24 18
-6.158186e-001 -3.339904e-001 -6.353539e+000 237 191 148
-4.387224e-001 -3.699004e-001 -6.341326e+000 99 81 63
-8.434051e-001 -1.780859e-001 -6.157704e+000 140 117 76
5.992269e-001 1.157186e+000 -6.658430e+000 196 44 50
-6.628077e-001 -3.378834e-001 -6.323642e+000 232 174 132
-8.571670e-001 -1.470552e-001 -6.339903e+000 137 59 23
-2.977204e-001 -2.128555e-001 -6.403402e+000 227 105 57
3.244022e-001 8.874239e-001 -6.922503e+000 153 142 134
-1.775631e-001 6.926770e-001 -7.498696e+000 171 163 153
-2.064045e+000 -2.682773e+000 -1.052231e+001 58 49 50
9.436240e-001 6.239818e-001 -6.314356e+000 200 52 59
7.629715e-001 -9.241351e-001 -6.568509e+000 230 98 105
-8.774486e+000 -1.012417e+001 -2.264881e+001 23 19 20
2.533218e-001 -4.903852e-001 -6.738006e+000 63 35 24
4.994130e-001 1.263573e+000 -6.717677e+000 174 44 51
1.039340e-001 6.988225e-001 -7.014530e+000 216 207 198
7.663560e-001 8.512530e-001 -6.351512e+000 188 44 48
3.683917e-001 2.650462e-001 -6.760904e+000 121 109 94
2.616507e-001 1.741538e-001 -6.641209e+000 191 178 169
-2.917869e-001 -1.244530e-001 -6.518262e+000 84 16 7
-4.069024e-001 -2.453129e-001 -6.406989e+000 167 86 64
5.066365e-001 -7.259122e-002 -6.528754e+000 214 209 202
5.107472e-001 -1.027208e-001 -6.567993e+000 223 217 211
1.519504e-002 7.075618e-001 -7.163543e+000 205 198 190
8.351944e-001 8.640010e-001 -6.391207e+000 82 12 15
7.624317e-001 8.393255e-001 -6.272689e+000 206 47 61
8.636646e-002 2.584362e-001 -6.842253e+000 152 142 133
-4.131450e-001 -2.576965e-002 -6.580347e+000 118 50 32
-4.131450e-001 -2.576965e-002 -6.580347e+000 118 50 32
-1.068940e-002 6.778586e-002 -6.743271e+000 164 151 143
-2.447351e-001 -5.480529e-002 -6.638713e+000 84 17 11
2.651399e-001 -1.238975e-001 -6.653924e+000 254 254 249
-1.817925e+000 -3.757133e+000 -1.035453e+001 45 39 41
3.580043e-001 1.340153e+000 -6.905225e+000 200 48 52
4.386263e-001 1.172982e+000 -6.896745e+000 214 51 52
4.260971e-001 1.170300e+000 -6.817157e+000 214 51 52
-1.605354e-001 9.073373e-001 -7.491248e+000 203 196 186
-2.000290e-001 6.115218e-001 -7.523120e+000 180 171 162
-1.878392e-001 6.302721e-002 -6.701457e+000 135 120 113
1.186731e+000 -3.338288e-001 -6.070492e+000 170 147 95
1.203594e+000 -3.192010e-001 -6.067242e+000 164 139 85
8.406714e-001 6.194805e-001 -6.347040e+000 245 68 80
7.049385e-001 2.453958e-001 -6.642213e+000 172 163 152
7.475847e-001 -2.662636e-001 -6.472580e+000 229 225 216
-6.379754e+000 -7.531166e+000 -1.743658e+001 31 32 36
-4.695129e+000 -6.642659e+000 -1.494063e+001 131 127 141
-4.465908e+000 -6.933707e+000 -1.506015e+001 21 19 22
-5.915244e+000 -8.702240e+000 -1.668420e+001 110 109 122
3.966728e-001 1.322460e+000 -6.854373e+000 204 47 54
4.451644e-001 1.286882e+000 -6.781004e+000 194 38 42
7.958086e-001 6.294956e-001 -6.410957e+000 250 245 244
1.308832e-001 -5.827446e-002 -6.659820e+000 160 146 135
3.172496e-001 -2.161214e-001 -6.722637e+000 218 209 202
3.172496e-001 -2.161214e-001 -6.722637e+000 218 209 202
4.518842e-001 -2.730846e-001 -6.722663e+000 217 210 200
1.248272e+000 -1.047295e-001 -6.051371e+000 25 9 12
9.083162e-001 -7.801878e-001 -6.467366e+000 210 205 196
1.020180e+000 -7.755548e-001 -6.337448e+000 250 75 86
1.182419e+000 -8.466114e-001 -6.255720e+000 250 86 94
1.182419e+000 -8.466114e-001 -6.255720e+000 250 86 94
-4.528596e+000 -6.896032e+000 -1.488610e+001 134 131 146
-5.450427e+000 -8.591095e+000 -1.675404e+001 51 51 59
1.640235e-001 -4.177509e-001 -6.715417e+000 44 28 15
1.366229e+000 -1.656626e-001 -5.919399e+000 204 174 122
1.366229e+000 -1.656626e-001 -5.919399e+000 204 174 122
1.168561e+000 -8.294311e-001 -6.236361e+000 250 78 90
1.168561e+000 -8.294311e-001 -6.236361e+000 250 78 90
1.101434e+000 4.116272e-001 -6.147095e+000 218 54 65
2.780474e-002 -5.326101e-001 -6.853222e+000 43 34 30
1.176800e+000 -1.531344e-001 -6.157256e+000 228 64 75
5.907440e-001 9.463217e-001 -6.666996e+000 230 219 215
2.699198e-001 6.495207e-001 -7.003855e+000 139 126 117
6.474828e-001 2.762138e-001 -6.685190e+000 209 202 194
-2.546197e-002 -3.390256e-001 -6.709060e+000 125 108 78
-6.198079e+000 -7.643358e+000 -1.716289e+001 115 112 119
-6.109477e+000 -8.010889e+000 -1.692375e+001 133 131 142
-6.109477e+000 -8.010889e+000 -1.692375e+001 133 131 142
5.945404e-001 9.386992e-001 -6.663072e+000 229 221 218
2.578922e-001 -4.977661e-001 -6.755598e+000 66 33 26
-4.787577e+000 -6.732678e+000 -1.545510e+001 167 169 184
-6.232030e+000 -6.346063e+000 -1.787619e+001 19 17 22
-2.982772e-001 6.006854e-001 -7.717643e+000 213 204 195
2.453972e-001 7.432957e-001 -7.165801e+000 177 170 162
8.654542e-001 8.470198e-001 -6.369792e+000 109 22 20
-1.682444e-001 1.337556e-001 -6.797723e+000 107 93 84
-1.295124e-001 1.007191e-001 -6.718684e+000 145 130 123
-4.046804e-001 -4.985467e-002 -6.607333e+000 87 19 8
-8.114730e-002 3.284213e-002 -6.663830e+000 128 114 109
-4.987670e-001 -1.289451e-001 -6.485355e+000 125 31 14
-7.715799e-001 -2.100796e-001 -6.281076e+000 87 29 14
-4.857975e+000 -6.296606e+000 -1.503791e+001 95 90 100
1.110702e+000 -6.716219e-001 -6.163337e+000 243 85 83
-1.285286e-001 9.243320e-001 -7.422607e+000 183 176 168
-5.125072e-001 6.104302e-001 -7.879358e+000 206 40 46
-1.714391e-001 6.405375e-001 -7.490833e+000 166 157 148
3.875031e-001 2.592178e-001 -6.913444e+000 144 130 119
-2.092956e-001 6.730620e-002 -6.709864e+000 79 33 28
-4.488708e-001 -5.623398e-002 -6.554458e+000 139 61 39
-6.269996e-001 -1.483100e-001 -6.446392e+000 74 17 10
3.676356e-001 -3.346027e-001 -6.735999e+000 126 110 95
7.086532e-001 -8.435465e-002 -6.413381e+000 218 214 205
7.086532e-001 -8.435465e-002 -6.413381e+000 218 214 205
-5.654604e+000 -8.751877e+000 -1.653683e+001 156 161 183
8.206805e-001 8.659372e-001 -6.411347e+000 76 7 10
1.638515e-001 2.266020e-001 -6.789655e+000 199 191 180
8.602526e-001 5.527259e-001 -6.417065e+000 207 201 195
1.089541e+000 3.995624e-001 -6.154453e+000 234 67 77
-2.773866e-001 -1.953532e-001 -6.514050e+000 214 102 65
8.953085e-001 -9.492723e-001 -6.558091e+000 226 78 79
-1.419316e+000 -2.816521e+000 -8.628112e+000 25 19 21
-5.592114e-001 5.878981e-001 -7.967185e+000 217 58 56
-1.493360e-001 3.835129e-001 -7.211448e+000 140 127 118
-6.563415e-002 4.623067e-001 -7.199707e+000 140 130 117
6.816803e-001 6.560472e-001 -6.597318e+000 166 156 146
3.234785e-001 2.966888e-001 -6.819067e+000 119 104 94
-2.680935e-001 6.062084e-002 -6.727326e+000 61 12 11
5.062572e-001 2.258201e-001 -6.705764e+000 120 108 94
-2.981349e-001 -6.620498e-002 -6.623412e+000 78 23 16
1.124428e+000 2.580057e-001 -6.164160e+000 242 73 82
-1.857271e-001 -3.878854e-001 -6.652551e+000 169 148 135
-4.948917e+000 -6.619596e+000 -1.488401e+001 9 8 14
-1.488615e+000 -4.987072e+000 -1.036579e+001 46 40 42
4.722087e-001 1.728058e-001 -6.643126e+000 203 195 185
8.216753e-001 9.490675e-002 -6.495202e+000 194 185 178
-6.109115e+000 -7.278140e+000 -1.775403e+001 84 84 92
1.135758e+000 -3.969326e-001 -6.107418e+000 110 86 48
-4.901169e+000 -6.756591e+000 -1.491489e+001 155 153 167
-4.887608e+000 -6.733363e+000 -1.487940e+001 155 153 167
-5.968317e+000 -8.737128e+000 -1.658553e+001 130 131 149
-1.921053e-001 8.775797e-001 -7.500163e+000 202 193 185
4.944294e-001 7.621382e-001 -6.794834e+000 168 157 153
4.920146e-001 7.607681e-001 -6.790002e+000 168 157 153
6.625296e-001 3.584909e-001 -6.641079e+000 194 185 176
9.964662e-001 -1.037887e+000 -6.466117e+000 231 66 80
9.964662e-001 -1.037887e+000 -6.466117e+000 231 66 80
6.680733e-001 1.082088e+000 -6.576580e+000 209 45 56
9.273108e-001 -2.873349e-001 -6.289075e+000 91 74 54
9.612865e-001 -8.848413e-002 -6.309239e+000 164 151 143
1.009550e+000 -2.910079e-001 -6.147901e+000 182 157 108
-4.518700e+000 -6.970181e+000 -1.451500e+001 161 161 173
-5.472582e+000 -8.073185e+000 -1.631736e+001 10 8 12
-5.451291e+000 -8.030134e+000 -1.625310e+001 10 8 12
1.269154e+000 -1.302726e-001 -6.027669e+000 37 26 27
-5.809951e+000 -8.736579e+000 -1.671528e+001 168 173 195
-2.158597e-001 2.632691e-001 -7.379223e+000 122 28 31
-1.362933e-001 1.442950e-001 -6.591141e+000 142 129 120
-1.574838e-001 -3.644303e-002 -6.609238e+000 109 37 21
-1.289612e-001 -2.465679e-001 -6.656374e+000 240 229 226
4.824155e-001 -1.077764e-001 -6.614888e+000 238 235 228
-2.987517e-001 1.100730e+000 -7.605702e+000 29 19 19
-2.180525e-001 8.837366e-001 -7.555205e+000 203 194 185
2.898016e-001 7.701404e-001 -7.015893e+000 190 181 174
2.949999e-001 7.610533e-001 -7.058510e+000 190 181 174
2.125142e-001 2.602717e-001 -6.719482e+000 157 141 126
-4.616018e-001 -5.836143e-002 -6.522691e+000 144 65 43
-8.697676e-002 7.046167e-002 -6.750318e+000 131 116 109
-8.426677e-001 -2.402105e-001 -6.220674e+000 91 24 17
-5.275703e-001 -2.092607e-001 -6.404528e+000 251 139 101
-1.384296e-001 -3.603624e-001 -6.634878e+000 191 183 174
-1.836571e+000 -3.686701e+000 -1.035626e+001 41 35 37
9.389367e-001 -2.573642e-001 -6.314384e+000 139 122 110
5.392496e-001 -1.152520e+000 -7.123926e+000 241 221 182
1.918920e-002 1.356586e+000 -7.189294e+000 186 39 40
-2.834280e-001 -1.139341e-002 -7.751912e+000 35 27 26
-2.834280e-001 -1.139341e-002 -7.751912e+000 35 27 26
-5.506247e-001 -2.838775e-002 -6.642497e+000 69 16 8
-5.506247e-001 -2.838775e-002 -6.642497e+000 69 16 8
9.163831e-001 5.936497e-001 -6.370228e+000 214 57 66
-6.366693e-001 -1.680613e-001 -6.325204e+000 147 63 39
4.949523e-001 7.491348e-002 -6.636719e+000 131 119 107
-9.757210e-003 -2.193554e-001 -6.639313e+000 253 250 243
1.413517e-001 -1.898060e-001 -6.687171e+000 232 225 219
-6.897407e-001 -3.350874e-001 -6.315841e+000 43 35 33
-1.917542e-001 -4.105896e-001 -6.626792e+000 232 225 221
4.474724e-001 -4.422135e-001 -6.688956e+000 196 183 131
-1.745641e+000 -3.810776e+000 -1.040640e+001 53 47 47
6.861521e-002 1.211353e+000 -7.170214e+000 203 42 49
-2.775530e-001 -1.873118e-001 -6.494340e+000 227 116 77
-3.835696e-002 -1.921679e-001 -6.610459e+000 227 224 219
-4.545998e-001 4.687877e-001 -7.704072e+000 213 200 191
9.008867e-001 5.635986e-001 -6.379522e+000 174 33 44
1.018954e-001 -3.350281e-002 -6.679460e+000 159 149 140
9.924537e-002 -2.455614e-002 -6.657691e+000 159 149 140
-1.441185e-001 -4.075309e-001 -6.673123e+000 242 236 232
1.128292e+000 2.004762e-001 -6.153281e+000 195 35 45
1.128292e+000 2.004762e-001 -6.153281e+000 195 35 45
5.378023e-001 -3.178720e-001 -6.700122e+000 244 237 231
1.213636e+000 5.226546e-002 -6.025543e+000 229 83 91
8.033611e-001 -8.575241e-001 -6.540653e+000 219 47 59
3.033618e-001 9.820793e-001 -7.052884e+000 223 217 213
-4.559501e-001 -2.071977e-001 -6.470899e+000 249 132 87
6.994129e-001 -5.973127e-001 -6.530644e+000 229 217 208
-5.824935e-001 -1.439395e-001 -6.477200e+000 94 33 26
4.242833e-001 7.887214e-002 -6.626110e+000 199 190 181
5.507993e-001 5.430214e-002 -6.522761e+000 146 134 120
5.507993e-001 5.430214e-002 -6.522761e+000 146 134 120
5.775073e-001 5.506332e-003 -6.468476e+000 214 207 199
6.180681e-001 -4.252543e-001 -6.517323e+000 178 156 106
1.391437e-001 1.344023e+000 -7.078039e+000 203 48 54
-1.756354e-001 2.755869e-001 -7.389784e+000 184 174 162
-2.635080e-001 6.704461e-002 -7.218872e+000 220 212 205
-1.091749e-001 6.638116e-001 -7.360071e+000 168 162 150
-1.091749e-001 6.638116e-001 -7.360071e+000 168 162 150
5.971941e-001 -8.087343e-001 -6.714701e+000 251 250 245
-6.355806e-001 -1.481211e-001 -6.530570e+000 65 17 12
7.264870e-001 -3.617700e-001 -6.452687e+000 100 85 64
8.392132e-001 -9.601484e-001 -6.511639e+000 50 36 36
-3.972334e-001 2.579601e-001 -7.518815e+000 38 27 27
-2.871030e-001 -9.474226e-002 -6.571523e+000 66 11 8
3.849060e-001 -1.358437e-001 -6.687300e+000 245 242 234
3.855467e-001 -1.348484e-001 -6.684740e+000 245 242 234
1.160233e-002 -6.949903e-001 -6.825779e+000 35 30 27
-1.989767e+000 -3.420403e+000 -1.057739e+001 38 32 34
7.678872e-001 -1.326635e-001 -6.356192e+000 228 220 210
-4.391127e+000 -6.694787e+000 -1.504430e+001 30 28 33
-4.470869e+000 -6.730970e+000 -1.493599e+001 165 161 175
-6.064779e+000 -8.356589e+000 -1.667002e+001 9 7 10
-5.380672e-003 2.504926e-001 -6.949445e+000 145 132 123
-4.608042e-001 -8.209759e-002 -6.521920e+000 121 37 16
-4.477768e-001 -1.218647e-001 -6.472420e+000 129 34 14
9.219756e-001 -1.024078e+000 -6.575369e+000 48 30 30
4.382784e-001 1.188697e+000 -6.851324e+000 214 50 57
6.559277e-001 6.578262e-001 -6.632578e+000 204 194 185
-5.804999e+000 -8.942613e+000 -1.654979e+001 12 10 16
1.310357e-001 1.204053e+000 -7.079094e+000 232 192 168
2.376997e-001 7.137951e-001 -7.079589e+000 181 174 164
3.748131e-001 1.181455e+000 -6.878730e+000 203 32 40
-1.363313e-002 5.546021e-001 -7.162927e+000 208 197 191
-1.363313e-002 5.546021e-001 -7.162927e+000 208 197 191
1.261811e-001 6.145202e-001 -7.031297e+000 176 167 154
6.187811e-001 6.509928e-001 -6.684866e+000 187 181 170
-4.397061e-002 2.542859e-001 -7.041999e+000 145 135 125
2.423213e-001 2.965106e-001 -6.825162e+000 122 108 97
-4.628869e-001 -6.177396e-002 -6.530105e+000 144 65 43
-2.190442e-001 -4.015578e-002 -6.646709e+000 90 21 15
-6.197614e+000 -7.774583e+000 -1.753395e+001 79 79 80
-4.892816e+000 -6.330899e+000 -1.497568e+001 101 99 108
-4.759783e+000 -7.075128e+000 -1.503735e+001 156 154 168
-4.013948e+000 -7.479170e+000 -1.477355e+001 84 87 96
-1.610166e+000 -4.489625e+000 -1.032508e+001 50 44 48
-1.732534e-001 9.240172e-001 -7.514053e+000 161 147 139
-3.317576e-002 2.821676e-001 -7.040633e+000 130 118 106
3.094016e-001 3.062233e-001 -6.900628e+000 127 115 102
-6.077682e+000 -7.603636e+000 -1.713428e+001 80 79 84
-2.231618e+000 -3.306579e+000 -1.075748e+001 55 50 54
-5.426029e+000 -8.649153e+000 -1.665928e+001 120 121 139
-1.554795e+000 -4.563264e+000 -1.024199e+001 53 48 52
6.516335e-001 6.207195e-001 -6.671285e+000 153 143 133
-2.575485e-001 -4.346471e-004 -6.645937e+000 70 20 17
9.376950e-001 4.213444e-001 -6.257812e+000 252 81 93
8.833367e-001 7.969894e-001 -6.350144e+000 21 1 4
-6.013260e-001 6.801268e-001 -8.023650e+000 38 24 20
3.120537e-001 5.020751e-002 -6.646947e+000 244 240 231
6.488548e-001 1.233481e-001 -6.576978e+000 189 175 165
-4.744069e+000 -6.744904e+000 -1.514265e+001 142 138 153
-4.140755e+000 -7.764705e+000 -1.478245e+001 11 7 14
-5.689571e+000 -7.448027e+000 -1.672151e+001 10 10 12
6.868936e-001 1.083403e+000 -6.531790e+000 186 44 53
-6.080977e+000 -7.455334e+000 -1.707998e+001 80 77 84
-1.159381e-001 1.479099e-001 -6.792182e+000 108 94 83
-1.011966e-001 7.544382e-002 -6.709783e+000 162 147 140
-1.011966e-001 7.544382e-002 -6.709783e+000 162 147 140
-4.337316e+000 -6.433268e+000 -1.502913e+001 47 45 48
3.465191e-001 2.497376e-001 -6.728050e+000 143 130 114
-4.668584e-001 -1.342974e-001 -6.489861e+000 126 37 16
-4.972975e-001 -2.369287e-001 -6.441320e+000 144 27 9
-5.440959e+000 -8.905884e+000 -1.650392e+001 116 124 147
6.022833e-001 -3.992770e-001 -6.590506e+000 147 133 108
1.094138e+000 -2.608619e-001 -6.184850e+000 141 114 76
-5.997084e+000 -7.310693e+000 -1.755561e+001 66 66 74
-4.704413e+000 -6.218712e+000 -1.515293e+001 136 136 146
-2.193265e+000 -2.725852e+000 -1.064626e+001 40 36 37
7.510904e-001 5.360317e-001 -6.476605e+000 235 232 223
7.631015e-001 5.547644e-001 -6.453945e+000 236 231 227
-4.068298e-001 -1.189844e-001 -6.530775e+000 90 20 11
-5.937744e+000 -8.799968e+000 -1.651631e+001 3 4 8
5.155060e-001 -2.071842e-002 -6.525594e+000 199 192 174
-1.776116e+000 -3.893556e+000 -1.042981e+001 28 22 24
5.218106e-001 -1.174361e+000 -7.132682e+000 42 29 20
-1.399594e+000 -5.504207e+000 -9.992441e+000 22 15 17
-8.820712e-002 1.233910e+000 -7.366788e+000 142 21 30
