ply
format ascii 1.0
element face 0
property list uchar int vertex_indices
element vertex 300
property float x
property float y
property float z
property uchar diffuse_red
property uchar diffuse_green
property uchar diffuse_blue
end_header
8.959670e-001 1.847466e+000 -6.595639e+000 18 10 20
-6.236942e-001 1.218489e+000 -8.164621e+000 166 150 142
9.968310e-001 7.909014e-001 -6.440375e+000 236 235 233
-6.171867e-001 4.596670e-001 -8.220441e+000 54 25 24
4.639581e-001 4.626872e-001 -6.896400e+000 146 133 125
-4.460470e-001 1.296591e-001 -6.717304e+000 82 44 35
-2.662991e-001 2.362586e-001 -6.888514e+000 124 111 102
-1.817868e-001 2.245497e-001 -6.795993e+000 166 157 148
3.666196e-002 2.518073e-003 -6.852110e+000 132 119 111
6.347399e-002 -1.696157e-002 -6.699984e+000 155 142 134
1.882998e+000 8.347788e-002 -5.656830e+000 247 87 98
-4.495529e-001 -2.038294e-001 -6.611762e+000 33 17 4
1.647403e+000 -2.116337e-001 -5.878339e+000 206 50 54
-1.283740e+000 -3.548789e-001 -6.023922e+000 94 23 19
-1.110790e+000 -3.675450e-001 -6.202874e+000 122 38 20
-7.894874e-001 -3.601051e-001 -6.321866e+000 118 12 13
-4.153377e-001 -3.331672e-001 -6.673531e+000 131 107 70
-5.304586e-001 -4.339484e-001 -6.545192e+000 130 109 98
-7.891743e-001 -5.154804e-001 -6.307393e+000 32 12 14
-8.090638e-001 -5.501859e-001 -6.285229e+000 179 154 126
-7.781439e-001 -5.480545e-001 -6.301541e+000 175 116 101
-7.781439e-001 -5.480545e-001 -6.301541e+000 175 116 101
-7.829566e-001 -5.747024e-001 -6.283975e+000 34 17 11
-5.472787e-001 -6.441099e-001 -6.478515e+000 201 196 193
-2.787151e-001 -6.894363e-001 -6.802031e+000 255 251 242
6.844866e-001 -1.834271e+000 -7.440468e+000 162 140 96
-4.808236e-001 1.461518e+000 -8.036990e+000 207 44 50
4.956279e-002 1.140873e+000 -7.245341e+000 194 185 180
-5.855118e+000 1.415827e+000 -1.472913e+001 35 29 31
-5.971759e-001 4.857138e-001 -8.182613e+000 212 52 51
-5.032532e-001 4.931174e-001 -8.168059e+000 207 200 186
2.087154e-001 4.450035e-001 -6.802549e+000 154 140 124
1.812499e+000 3.797004e-001 -5.730699e+000 25 15 23
-8.824401e-002 1.222448e-001 -6.776995e+000 118 107 101
-1.969591e-001 8.701807e-002 -6.693656e+000 122 107 102
1.858948e+000 8.156957e-002 -5.668056e+000 233 78 82
-3.854334e-001 -1.025436e-001 -6.546256e+000 115 33 22
-3.653883e-001 -1.430658e-001 -6.551015e+000 149 67 49
-3.653883e-001 -1.430658e-001 -6.551015e+000 149 67 49
4.290346e-003 -2.650960e-001 -6.642324e+000 206 201 197
1.947065e-001 -2.585497e-001 -6.626316e+000 234 227 221
3.304873e-001 -2.103943e-001 -6.669257e+000 238 235 229
1.636150e+000 -2.492022e-001 -5.845422e+000 161 38 46
-1.092090e+000 -3.997794e-001 -6.215134e+000 154 52 29
6.797706e-001 -4.988592e-001 -6.715889e+000 211 204 195
-8.662228e-001 -5.408775e-001 -6.283394e+000 50 50 69
-5.482413e-001 -5.957377e-001 -6.434519e+000 163 155 150
-4.608856e-001 -5.957669e-001 -6.542735e+000 174 164 161
-4.608856e-001 -5.957669e-001 -6.542735e+000 174 164 161
-3.321356e-001 -5.685595e-001 -6.674508e+000 185 178 170
3.994288e-001 -7.823243e-001 -6.817440e+000 156 144 127
2.119250e+000 -6.171457e-001 -5.502182e+000 239 225 177
7.888917e-001 -9.952608e-001 -6.619713e+000 158 145 125
9.858186e-001 -1.180344e+000 -6.606740e+000 246 231 218
5.852708e-001 -1.865550e+000 -7.533142e+000 165 149 102
7.322288e-001 -1.816557e+000 -7.379080e+000 233 219 164
-2.459220e-002 1.853887e+000 -7.503130e+000 202 190 185
1.194503e+000 1.475518e+000 -6.261269e+000 18 3 6
1.196315e+000 1.342879e+000 -6.125392e+000 167 39 45
1.434734e+000 1.079947e+000 -6.033588e+000 18 7 11
4.116811e-001 1.170524e+000 -7.148582e+000 184 177 167
1.249750e+000 9.496188e-001 -6.148428e+000 222 53 59
-2.761190e-001 8.803662e-001 -7.577297e+000 170 161 154
6.086225e-001 2.462869e-001 -6.581735e+000 154 141 132
-5.265007e-001 1.087478e-001 -6.796118e+000 72 27 22
-3.728788e-001 -4.130057e-003 -6.565355e+000 142 119 110
-8.100793e-001 -8.074185e-002 -6.452656e+000 86 18 7
-4.193381e-001 -1.222981e-001 -6.565310e+000 165 80 59
-1.041174e+000 -3.607754e-001 -6.403211e+000 134 33 10
-4.888555e-001 -4.666551e-001 -6.620346e+000 113 94 79
8.276135e-001 -4.720439e-001 -6.641018e+000 172 163 148
-6.141461e-001 -5.964196e-001 -6.447759e+000 181 172 170
-5.222551e-001 -6.281002e-001 -6.467686e+000 253 254 249
6.282516e-001 -8.739942e-001 -6.744110e+000 229 226 218
6.282516e-001 -8.739942e-001 -6.744110e+000 229 226 218
1.663207e+000 -1.079187e+000 -5.871918e+000 18 1 7
1.251122e+000 1.328551e+000 -6.150643e+000 196 55 61
-7.762237e-001 1.489650e+000 -8.344437e+000 30 16 16
1.417172e+000 1.047789e+000 -6.030715e+000 176 42 37
5.654039e-002 1.002357e+000 -7.201222e+000 186 177 168
7.406658e-001 9.164734e-001 -6.796169e+000 166 157 150
4.081084e-001 5.829308e-001 -6.994991e+000 123 110 99
1.782835e+000 4.311046e-001 -5.733915e+000 25 5 9
-2.845672e-002 3.414645e-001 -6.937090e+000 178 169 160
-2.845672e-002 3.414645e-001 -6.937090e+000 178 169 160
5.054521e-001 3.444707e-001 -6.641434e+000 142 129 113
1.132881e+000 2.046829e-001 -6.417518e+000 195 188 178
-2.647464e+001 3.909113e-001 -5.841030e+001 101 92 85
2.626379e-001 1.016968e-001 -6.559439e+000 192 182 172
2.693775e-001 4.358061e-002 -6.638815e+000 203 194 187
1.879048e+000 8.879410e-002 -5.677308e+000 243 79 98
-2.970462e-001 -2.009891e-002 -6.646918e+000 183 173 164
1.842546e+000 -1.866291e-001 -5.726902e+000 249 79 93
-1.652229e+000 -3.408198e-001 -6.058048e+000 135 113 67
-5.087021e+000 -1.130606e+000 -1.391148e+001 44 39 39
-9.074227e-001 -4.543736e-001 -6.383673e+000 188 105 67
8.578710e-001 -4.597316e-001 -6.546110e+000 243 240 231
1.032262e+000 -4.582306e-001 -6.379114e+000 172 158 147
1.320200e+000 -4.273342e-001 -6.132535e+000 158 145 134
-6.484509e-001 -6.175836e-001 -6.369325e+000 236 232 229
-1.570254e-001 -7.102909e-001 -6.905692e+000 255 254 249
-3.033520e+001 -8.913085e+000 -6.619385e+001 82 74 71
1.414458e+000 -7.431228e-001 -6.012039e+000 182 159 106
1.467958e+000 -9.329250e-001 -6.160647e+000 169 147 134
6.947742e-001 -1.847776e+000 -7.383475e+000 45 32 34
1.380496e+000 -1.601866e+000 -6.473071e+000 253 82 93
-3.177477e+001 -1.879879e+001 -6.581193e+001 99 82 82
5.572636e-001 1.757665e+000 -6.901017e+000 219 212 209
-8.089848e-002 1.846470e+000 -7.548735e+000 192 35 44
1.264652e+000 1.400737e+000 -6.211929e+000 16 12 9
1.379047e+000 1.108996e+000 -6.083105e+000 203 42 57
-5.970398e-001 1.315383e+000 -8.099774e+000 206 191 183
6.955995e-001 9.547718e-001 -6.832361e+000 181 174 166
-2.751225e-001 9.378229e-001 -7.528411e+000 208 199 190
1.618491e+000 6.861304e-001 -5.793685e+000 214 49 60
1.597288e+000 5.063162e-001 -5.957568e+000 235 64 73
1.760676e+000 3.932843e-001 -5.725257e+000 229 58 64
1.058673e+000 2.892362e-001 -6.514551e+000 170 163 153
-7.401298e-002 1.673302e-001 -6.806076e+000 179 168 162
-3.342368e-002 1.233240e-001 -6.770504e+000 182 171 165
1.791579e+000 1.134976e-001 -5.643842e+000 204 53 62
1.905902e+000 1.590346e-001 -5.677056e+000 29 12 20
9.984870e-001 9.598046e-002 -6.343861e+000 162 150 138
1.752338e+000 6.845912e-002 -5.640116e+000 169 29 40
4.990389e-001 -1.337532e-002 -6.507627e+000 204 194 185
2.075693e-002 -1.531617e-001 -6.568146e+000 177 166 162
6.982813e-001 -1.652766e-001 -6.439236e+000 224 221 214
-1.289267e+000 -2.892776e-001 -6.036249e+000 145 60 38
-3.029931e-001 -3.660459e-001 -6.603826e+000 238 235 230
6.656996e-002 -3.797047e-001 -6.693511e+000 205 191 182
6.656996e-002 -3.797047e-001 -6.693511e+000 205 191 182
1.440380e+000 -2.995112e-001 -6.015453e+000 164 149 141
-2.675633e-001 -4.451726e-001 -6.707349e+000 241 240 237
4.398821e-001 -4.859237e-001 -6.769794e+000 215 208 200
-8.458673e-001 -5.451793e-001 -6.289048e+000 46 42 53
-4.099167e-001 -5.649704e-001 -6.575093e+000 159 143 131
-2.925777e+001 -7.080203e+000 -6.212317e+001 87 77 75
-2.794746e+001 -6.867382e+000 -6.138573e+001 85 78 76
6.142683e-001 -8.222142e-001 -6.783247e+000 254 255 250
7.641782e-001 -7.967225e-001 -6.632357e+000 151 132 94
1.006378e+000 -8.902170e-001 -6.408886e+000 239 233 224
6.433075e-001 -1.094714e+000 -6.884765e+000 254 255 250
1.493824e+000 -1.389614e+000 -6.253246e+000 28 11 12
5.103403e-001 -1.942989e+000 -7.690431e+000 208 191 147
-1.782791e+001 -1.352787e+001 -5.000598e+001 89 77 77
-1.718838e+001 -1.409795e+001 -4.866472e+001 98 88 87
5.220362e-001 1.854922e+000 -6.980993e+000 196 34 40
6.151601e-001 1.783111e+000 -6.845836e+000 206 37 44
1.283395e+000 1.281758e+000 -6.156872e+000 17 1 8
-7.271881e-001 1.552646e+000 -8.236610e+000 193 36 43
9.873757e-001 1.161300e+000 -6.426763e+000 148 124 116
9.742571e-001 1.101969e+000 -6.452401e+000 221 212 203
-2.598775e-001 1.015754e+000 -7.581321e+000 150 141 131
6.370112e-001 5.730983e-001 -6.874179e+000 142 132 119
1.712584e+000 5.137730e-001 -5.778305e+000 232 58 71
6.337023e-001 2.926398e-001 -6.616934e+000 194 184 174
6.417863e-001 1.224015e-001 -6.539820e+000 146 136 127
1.220790e+000 1.996473e-001 -6.286311e+000 188 181 171
-4.358914e-001 8.245288e-002 -6.702971e+000 77 20 13
-3.731946e-001 4.870367e-002 -6.681561e+000 156 144 132
8.680375e-001 9.795384e-002 -6.399403e+000 160 150 141
1.014331e+000 3.385478e-002 -6.287978e+000 209 200 193
-5.559419e-001 -4.374811e-001 -6.454068e+000 169 145 135
6.089982e-001 -4.970476e-001 -6.706118e+000 227 220 210
1.071724e+000 -4.309776e-001 -6.266645e+000 177 166 154
-1.307539e-001 -7.852826e-001 -6.997456e+000 50 39 37
-2.889070e+001 -7.590525e+000 -6.248677e+001 19 13 12
-2.889826e+001 -8.309245e+000 -6.191114e+001 138 129 130
-2.599311e+001 -7.486754e+000 -5.769100e+001 106 101 98
-8.064530e-001 -8.142194e-001 -6.646923e+000 40 34 25
6.835923e-001 -8.915977e-001 -6.736679e+000 254 253 249
-2.955862e+001 -8.736004e+000 -6.197249e+001 62 18 25
-3.298795e+001 -1.073691e+001 -6.895824e+001 133 115 121
1.519786e+000 -1.326340e+000 -6.230958e+000 250 255 249
-2.807117e+001 -1.775749e+001 -6.491644e+001 69 55 54
-2.482169e+001 -1.598562e+001 -5.590171e+001 55 13 23
-2.105172e+001 -1.410727e+001 -4.883665e+001 143 130 129
3.569650e-001 1.554928e+000 -7.183050e+000 221 215 212
1.293664e+000 1.200902e+000 -6.153917e+000 227 55 67
6.798965e-001 1.291748e+000 -6.825408e+000 228 223 217
1.081788e+000 1.124768e+000 -6.284671e+000 219 53 65
-4.293532e-001 1.266746e+000 -7.925754e+000 156 143 134
1.362389e-001 1.152183e+000 -7.259086e+000 221 214 208
6.830970e-001 1.123295e+000 -6.865013e+000 240 233 227
1.898419e-003 1.100685e+000 -7.354888e+000 207 198 193
1.275987e+000 8.326831e-001 -6.188773e+000 215 204 198
8.237372e-003 9.109044e-001 -7.290917e+000 204 193 187
1.332396e+000 7.673493e-001 -6.093500e+000 213 45 54
-8.120323e-001 7.308428e-001 -8.316851e+000 212 202 193
2.782620e-001 6.055384e-001 -7.023620e+000 180 169 163
7.387312e-002 3.878160e-001 -6.914131e+000 138 125 116
1.421764e+000 3.814959e-001 -6.020769e+000 158 143 136
4.465926e-001 3.352871e-001 -6.718883e+000 198 190 179
1.823857e+000 2.538404e-001 -5.772327e+000 207 45 51
-2.653486e-002 2.336709e-001 -6.900983e+000 129 119 109
6.751374e-002 2.364721e-001 -6.812040e+000 214 207 201
1.861963e+000 2.225645e-002 -5.676504e+000 16 7 3
1.064188e+000 -1.609204e-002 -6.254162e+000 161 149 137
1.795199e-001 -2.084460e-001 -6.662263e+000 195 188 180
-2.072057e+001 -2.269761e+000 -5.078628e+001 15 11 10
-2.072057e+001 -2.269761e+000 -5.078628e+001 15 11 10
-1.473549e+000 -3.602361e-001 -6.065115e+000 122 56 50
1.795673e+000 -2.542258e-001 -5.757065e+000 122 23 36
-7.981092e-001 -3.848364e-001 -6.308722e+000 142 25 26
9.353946e-001 -4.749388e-001 -6.458479e+000 163 151 137
-9.109332e-001 -5.131021e-001 -6.304885e+000 239 188 141
-3.176778e+001 -7.338404e+000 -6.273447e+001 66 56 54
8.605421e-001 -6.603482e-001 -6.461133e+000 161 138 94
6.820151e-001 -8.980766e-001 -6.741652e+000 255 254 250
1.524396e+000 -7.487473e-001 -5.939887e+000 230 217 208
-3.092557e+001 -8.861555e+000 -6.261257e+001 100 66 61
-2.786516e+001 -9.958197e+000 -5.764974e+001 55 43 45
6.956197e-001 -1.194440e+000 -6.963015e+000 225 222 215
1.189314e+000 -1.543440e+000 -6.641057e+000 44 28 34
-1.991728e+001 -1.438333e+001 -5.246713e+001 117 105 105
-2.015439e+001 -1.377849e+001 -4.867541e+001 140 126 126
-1.734911e+001 -1.377526e+001 -4.944663e+001 18 11 9
6.731071e-001 1.646510e+000 -6.781080e+000 223 217 213
-1.358535e-001 1.723762e+000 -7.531859e+000 195 185 176
1.117207e-001 1.586511e+000 -7.402656e+000 206 199 193
1.041919e+000 1.277129e+000 -6.509624e+000 203 197 189
2.541698e-001 4.925161e-001 -6.937057e+000 126 113 104
1.593001e+000 3.835737e-001 -5.920147e+000 192 37 42
4.629659e-001 9.415237e-002 -6.604181e+000 160 152 141
1.885114e-001 -5.593891e-002 -6.662346e+000 255 254 250
3.259697e-001 -6.102694e-002 -6.665056e+000 209 198 192
1.158210e+000 -1.442512e-001 -6.151155e+000 145 131 120
1.805615e+000 -1.460534e-001 -5.697550e+000 241 66 78
-1.341993e+000 -3.210510e-001 -5.993435e+000 119 50 49
-1.270512e+000 -2.473934e-001 -6.054723e+000 149 68 39
-3.364726e-001 -4.907754e-001 -6.773141e+000 50 37 18
-3.364726e-001 -4.907754e-001 -6.773141e+000 50 37 18
-7.692435e-001 -5.318865e-001 -6.293536e+000 170 71 60
3.176188e-001 -6.637075e-001 -6.853988e+000 254 245 190
6.516901e-001 -5.648068e-001 -6.704845e+000 112 94 80
1.052643e+000 -8.153656e-001 -6.298427e+000 144 126 78
1.231172e+000 -7.604731e-001 -6.187459e+000 199 174 118
9.014554e-001 -1.027373e+000 -6.603158e+000 145 127 104
-3.404640e+001 -1.079025e+001 -6.581027e+001 36 16 17
1.737249e+000 -1.316291e+000 -6.081301e+000 254 86 97
1.737249e+000 -1.316291e+000 -6.081301e+000 254 86 97
-2.808130e+001 -1.678910e+001 -5.975876e+001 61 35 38
-1.836389e+001 -1.575050e+001 -5.438157e+001 110 99 97
-1.948333e+001 -1.570455e+001 -5.267474e+001 118 111 111
3.903400e-001 1.390459e+000 -7.038800e+000 163 154 145
2.178624e-001 1.332366e+000 -7.289883e+000 219 211 208
1.325989e+000 8.819481e-001 -6.052144e+000 162 31 39
1.466585e+000 8.310049e-001 -5.899915e+000 234 64 75
2.528783e-001 9.038689e-001 -7.126479e+000 214 205 198
1.532535e+000 3.401312e-001 -6.026425e+000 219 210 205
-4.162348e-001 -6.241430e-002 -6.567115e+000 85 24 16
3.019387e-001 -2.175114e-001 -6.665215e+000 254 255 250
1.849202e+000 -1.192338e-001 -5.892768e+000 243 67 77
1.685109e+000 -2.751222e-001 -5.843948e+000 135 32 35
-1.590513e+000 -4.489151e-001 -6.073432e+000 38 28 32
4.208909e-001 -4.166161e-001 -6.718249e+000 231 228 221
1.202462e+000 -4.894414e-001 -6.173117e+000 122 104 81
1.113222e+000 -6.247642e-001 -6.195746e+000 210 186 131
8.029712e-001 -9.078333e-001 -6.821496e+000 110 87 62
1.842392e+000 -7.042932e-001 -5.796218e+000 24 9 8
1.719950e+000 -1.122733e+000 -5.905703e+000 21 9 12
1.435136e+000 -1.573694e+000 -6.362213e+000 230 64 74
1.435136e+000 -1.573694e+000 -6.362213e+000 230 64 74
1.446563e-002 1.431818e+000 -7.349764e+000 170 157 151
1.446563e-002 1.431818e+000 -7.349764e+000 170 157 151
1.564451e-003 1.197783e+000 -7.298694e+000 208 199 194
4.736677e-001 1.199664e+000 -6.979663e+000 228 221 214
1.756292e+000 3.236456e-001 -5.745222e+000 216 46 55
-2.993301e+001 1.485259e+000 -6.172629e+001 92 84 71
1.647710e+000 1.561537e-001 -5.753339e+000 131 15 23
-1.396699e+000 -4.637500e-001 -6.093312e+000 246 124 75
7.464721e-002 -7.794168e-001 -6.844345e+000 255 255 253
1.407794e+000 -6.575344e-001 -5.989969e+000 154 132 86
-3.078353e+001 -7.925693e+000 -6.357235e+001 15 10 16
9.869870e-001 -1.350043e+000 -6.754112e+000 22 12 13
1.433229e+000 -1.274465e+000 -6.206893e+000 255 255 253
-3.190546e+001 -1.726111e+001 -6.725962e+001 109 94 94
-2.903413e+001 1.327651e+000 -5.446359e+001 74 63 58
1.895814e+000 -1.636147e-001 -5.622292e+000 42 30 32
-3.852025e+001 -7.425605e+000 -7.424397e+001 72 62 61
-6.564354e-001 -7.209334e-001 -6.555873e+000 233 232 230
1.520800e+000 -9.999318e-001 -6.068675e+000 182 38 45
-3.544023e+001 -1.608665e+001 -7.463578e+001 53 42 40
-1.763988e+001 -1.217867e+001 -4.972954e+001 98 89 82
5.582638e-001 -1.778954e+000 -7.516416e+000 144 123 80
-1.847796e-002 -1.388016e-002 -6.734702e+000 132 119 110
-2.186054e-001 -2.658429e-001 -6.695822e+000 248 244 242
-2.503076e+001 -4.860408e+000 -6.231247e+001 111 102 97
1.121406e+000 8.725057e-001 -6.312367e+000 255 255 253
-2.503310e+001 -5.283398e-001 -5.008782e+001 103 97 97
1.510710e+000 2.079345e-002 -6.004822e+000 230 225 221
5.153898e-001 -1.040243e+000 -6.939938e+000 254 254 252
1.949059e+000 -4.476264e-001 -5.616493e+000 198 173 117
1.949059e+000 -4.476264e-001 -5.616493e+000 198 173 117
1.296023e+000 -1.113567e+000 -6.338857e+000 238 231 225
1.967701e+000 1.418313e-001 -5.701587e+000 46 34 34
6.726272e-002 2.481128e-002 3.972113e-002 0 255 0
6.680792e-002 2.462687e-002 -1.027647e-002 255 255 0
-2.460237e-001 9.081259e-001 -2.597836e-001 255 0 0
-2.444484e-001 9.000393e-001 -3.091002e-001 255 255 0
