ply
format ascii 1.0
element face 0
property list uchar int vertex_indices
element vertex 354
property float x
property float y
property float z
property uchar diffuse_red
property uchar diffuse_green
property uchar diffuse_blue
end_header
5.746044e-001 -1.160556e+000 -9.665519e+000 141 54 61
2.503031e-001 -1.292412e+000 -9.589346e+000 141 130 128
6.767596e-001 9.135458e-001 -9.145821e+000 115 89 76
4.055537e-001 -1.526678e+000 -9.789055e+000 144 133 129
9.476039e-001 1.072882e+000 -9.807342e+000 52 30 20
9.476039e-001 1.072882e+000 -9.807342e+000 52 30 20
3.038197e+000 -4.938913e-001 -8.815000e+000 163 163 160
7.466865e-001 9.027143e-001 -9.192029e+000 51 30 25
3.866034e-001 -1.233506e+000 -9.593614e+000 145 125 126
3.016255e+000 2.023945e+000 -9.314690e+000 159 155 146
3.025544e+000 7.380698e-001 -9.067586e+000 161 157 154
3.056465e+000 -4.442868e-001 -8.996625e+000 156 151 148
2.552443e+000 -1.206114e+000 -9.150039e+000 37 26 24
2.772909e+000 -1.085719e+000 -9.178554e+000 125 107 102
3.074884e+000 -1.691656e+000 -8.895374e+000 171 170 165
-2.120721e-001 -8.209896e-001 -9.359921e+000 99 70 54
7.302196e-001 -7.300129e-001 -9.547620e+000 148 108 60
8.200617e-001 2.524948e-001 -9.060023e+000 163 120 78
8.615267e-001 2.697414e-001 -9.104649e+000 156 75 56
-6.739782e-002 -7.894591e-001 -9.325038e+000 119 84 66
3.338899e+000 -1.746468e+000 -8.769269e+000 158 111 89
1.433753e-002 -1.529425e+000 -9.673864e+000 147 127 126
1.404832e+000 -2.932321e-001 -9.219700e+000 155 133 125
3.364158e+000 -2.061134e+000 -8.782426e+000 147 90 73
-5.477272e-002 -9.498284e-001 -9.350007e+000 121 44 45
-2.062513e-001 -8.982571e-001 -9.277511e+000 108 90 81
4.867976e+000 1.864391e+000 -9.734977e+000 158 106 59
1.876805e+000 -1.038421e-001 -9.570269e+000 139 125 124
6.567773e-001 -5.401539e-001 -9.405615e+000 148 103 54
1.810127e+000 -5.241650e-001 -9.787313e+000 151 104 58
3.184918e+000 -4.667324e-001 -8.838232e+000 80 51 39
3.206202e+000 -1.633405e+000 -8.724338e+000 64 36 24
-1.216231e+000 1.042286e+000 -8.060287e+000 66 71 74
8.461215e-001 -8.460253e-001 -9.485665e+000 141 124 123
6.454874e-001 2.619481e-001 -9.073210e+000 150 111 70
9.106838e-001 -1.049175e+000 -9.694741e+000 149 131 127
-4.784220e-002 -8.209765e-001 -9.300181e+000 33 23 22
8.152663e-001 -7.971821e-001 -9.534176e+000 137 120 115
8.304021e-001 -1.047639e+000 -9.680364e+000 142 128 127
-1.096731e-002 -1.011815e+000 -9.403343e+000 125 108 101
1.232730e+002 -5.589550e+001 3.557992e+002 114 116 113
9.821386e+001 -4.160917e+001 2.977543e+002 122 126 127
1.339502e+002 -4.695057e+001 4.183413e+002 126 132 130
1.021472e+002 -3.905137e+001 2.749131e+002 156 160 161
1.087704e+002 -3.143546e+001 2.240583e+002 121 124 129
1.225138e+002 -4.695102e+001 3.102673e+002 151 152 154
3.074884e+000 -1.691656e+000 -8.895374e+000 171 170 165
2.917255e+000 1.834992e+000 -9.531403e+000 86 49 40
3.029928e+000 1.804458e+000 -9.200451e+000 125 92 73
-1.373595e+000 -9.670334e-001 -7.963385e+000 223 132 123
2.912832e+000 1.019275e+000 -9.396648e+000 112 55 38
-1.609970e+000 6.458553e-001 -8.281819e+000 236 227 152
8.490149e-001 5.581636e-002 -9.190173e+000 140 94 74
2.994081e+000 -1.149060e+000 -9.261659e+000 121 77 59
3.003557e+000 2.229574e+000 -9.095762e+000 192 165 138
2.811906e+000 2.352239e+000 -9.956026e+000 77 48 26
2.667128e+000 7.979566e-001 -9.763565e+000 66 47 41
2.784142e+000 7.177192e-001 -9.737896e+000 88 64 59
2.913890e+000 -5.519141e-001 -9.268487e+000 132 107 103
-2.665338e+000 -5.284001e-001 -8.989344e+000 231 226 164
-2.665338e+000 -5.284001e-001 -8.989344e+000 231 226 164
2.193217e-001 -1.331048e+000 -9.624094e+000 45 35 33
3.004366e+000 2.318211e+000 -9.341422e+000 160 97 64
3.035554e+000 1.562653e+000 -9.135618e+000 135 110 80
2.755273e+000 7.748129e-001 -9.541694e+000 76 54 54
8.022577e-001 3.130091e-001 -9.063693e+000 162 120 92
-2.821349e+000 -1.207342e-001 -9.059272e+000 234 219 156
-2.821349e+000 -1.207342e-001 -9.059272e+000 234 219 156
1.161287e+000 -3.889589e-001 -9.346625e+000 157 131 116
8.988543e-001 -5.153059e-001 -9.355894e+000 130 75 44
3.046490e+000 -1.342312e+000 -9.254316e+000 139 76 59
1.714593e+000 -1.393574e+000 -1.011874e+001 136 120 122
2.930631e+000 2.322178e+000 -9.304755e+000 187 163 112
2.982484e+000 2.172472e+000 -9.310826e+000 161 86 54
3.073405e+000 1.170129e+000 -9.163203e+000 143 112 84
8.619758e-001 -4.887121e-001 -9.469000e+000 146 93 54
3.088552e+000 -1.028748e+000 -9.061612e+000 73 46 27
2.996111e+000 -1.083201e+000 -9.203363e+000 136 78 59
5.554605e-001 -1.038647e+000 -9.592211e+000 147 59 57
8.111053e-001 -1.187218e+000 -9.745615e+000 141 125 125
1.099704e+000 -1.256234e+000 -9.907235e+000 143 49 51
3.350222e+000 -2.225005e+000 -8.741635e+000 143 92 73
4.685643e+000 2.334916e+000 -9.641638e+000 146 119 94
2.809752e+000 2.107982e+000 -9.928833e+000 72 84 93
3.141869e+000 1.746421e+000 -9.446103e+000 139 108 87
2.970608e+000 1.354919e+000 -9.545504e+000 137 75 64
3.039388e+000 -5.612758e-001 -9.424419e+000 125 67 52
3.087228e+000 -6.373596e-001 -8.868991e+000 135 108 82
3.006056e+000 -6.897675e-001 -9.307841e+000 129 67 57
-1.022430e-001 -1.116977e+000 -9.414231e+000 111 90 70
3.005221e+000 -1.231951e+000 -9.231781e+000 133 64 52
1.172673e+000 -1.353275e+000 -9.916043e+000 40 34 30
3.488234e+000 2.521926e+000 -9.265743e+000 150 65 56
2.929865e+000 2.488966e+000 -9.597857e+000 182 109 66
2.886349e+000 2.400852e+000 -9.892567e+000 162 121 64
7.195234e-002 -6.317470e-001 -9.124204e+000 126 58 46
1.155638e+000 -6.648406e-001 -9.477720e+000 138 117 111
1.425707e+002 -4.485233e+001 4.184714e+002 129 129 121
8.416035e-001 -1.118245e+000 -9.706421e+000 36 26 24
3.037820e+000 -1.499275e+000 -9.048784e+000 152 142 138
3.037820e+000 -1.499275e+000 -9.048784e+000 152 142 138
1.693231e+002 1.336193e+001 3.280146e+002 147 139 120
5.108993e+000 1.844511e+000 -9.741738e+000 150 123 102
3.442650e+000 1.188107e+000 -9.143813e+000 147 116 101
1.650881e+000 4.930637e-002 -9.453633e+000 140 123 124
1.650881e+000 4.930637e-002 -9.453633e+000 140 123 124
1.876805e+000 -1.038421e-001 -9.570269e+000 139 125 124
2.246340e+002 -4.969759e+001 4.552448e+002 148 159 161
2.085534e+002 -3.818253e+001 4.484001e+002 158 162 165
4.736562e+000 -2.064713e+000 -9.172189e+000 156 124 99
2.991644e+000 2.406129e+000 -9.236725e+000 183 185 178
4.269882e+000 2.482936e+000 -9.527947e+000 84 55 32
3.112796e+000 1.948480e+000 -9.036859e+000 69 44 31
1.699498e+000 -1.274044e-001 -9.548814e+000 36 20 21
3.866034e-001 -1.233506e+000 -9.593614e+000 145 125 126
2.810971e+000 9.652378e-001 -9.514350e+000 116 102 101
1.685968e+002 -3.632029e+001 3.553228e+002 108 113 117
-1.067032e+000 1.298755e-002 -7.804981e+000 220 113 113
1.932465e+000 1.093355e-001 -9.583034e+000 35 25 26
2.390377e+000 -3.891250e-001 -9.896025e+000 99 32 49
-6.680376e-003 -1.310407e+000 -9.508333e+000 142 121 119
3.069994e+000 -2.056185e+000 -8.782463e+000 189 192 182
-1.208789e+000 3.606378e-001 -8.001075e+000 66 72 72
2.057461e+000 -5.281948e-001 -9.898114e+000 35 23 24
-1.215841e+000 -1.008970e+000 -7.878874e+000 76 82 81
2.492984e+000 -1.181867e+000 -9.930802e+000 143 52 69
2.478458e+000 -5.574364e-001 -9.065713e+000 40 26 26
-1.895858e+000 8.840099e-001 -8.520357e+000 231 225 168
2.917650e+000 1.127490e+000 -9.467697e+000 102 58 51
-1.112242e-001 -1.033536e+000 -9.413602e+000 119 98 90
3.011215e+000 -1.566425e+000 -9.174031e+000 149 103 87
2.989770e+000 1.121691e+000 -9.466027e+000 124 62 53
8.391813e-001 -1.058639e+000 -9.730370e+000 135 122 121
2.107453e+000 -1.239022e+000 -9.093953e+000 62 31 26
1.831456e-001 -1.293214e+000 -9.563104e+000 139 128 127
1.831456e-001 -1.293214e+000 -9.563104e+000 139 128 127
3.126423e+000 -1.958736e+000 -8.867760e+000 195 113 81
3.501018e+000 -1.203604e+000 -8.876887e+000 148 121 102
-3.494843e+000 2.002551e-001 -9.102655e+000 84 67 54
9.115828e-001 1.464089e-001 -9.141274e+000 138 65 47
9.115828e-001 1.464089e-001 -9.141274e+000 138 65 47
-9.757530e-001 -8.116242e-001 -7.708096e+000 126 150 146
-9.757530e-001 -8.116242e-001 -7.708096e+000 126 150 146
-1.521815e-001 -1.215923e+000 -9.463192e+000 126 65 41
1.714593e+000 -1.393574e+000 -1.011874e+001 136 120 122
3.073405e+000 1.170129e+000 -9.163203e+000 143 112 84
1.177257e+000 -1.092685e-001 -9.147903e+000 154 135 128
3.288641e+000 -1.564521e+000 -8.637904e+000 139 64 58
-9.618745e-001 -7.615166e-001 -7.727253e+000 82 94 94
-9.175623e-001 -8.189413e-001 -7.643396e+000 149 172 170
1.122341e+000 -1.080426e+000 -9.762499e+000 36 23 29
1.122341e+000 -1.080426e+000 -9.762499e+000 36 23 29
4.772066e-001 -1.579836e+000 -9.826365e+000 45 34 35
5.120046e+002 2.988482e+002 1.460556e+003 132 126 111
3.408427e+000 2.404617e+000 -9.249046e+000 151 123 102
2.929865e+000 2.488966e+000 -9.597857e+000 182 109 66
2.686076e+000 1.238407e+000 -9.374046e+000 131 109 105
-1.030788e+000 8.309426e-001 -7.908495e+000 75 83 85
5.197655e+000 -9.028050e-001 -9.457953e+000 149 124 107
1.644552e+000 -1.406047e+000 -1.011805e+001 139 124 122
2.995750e+000 -2.053089e+000 -9.102808e+000 183 104 66
2.971835e+000 -2.273222e+000 -9.393248e+000 195 160 78
-1.495034e+000 1.734392e+000 -8.262617e+000 216 189 102
6.571060e-002 -9.496407e-001 -9.413408e+000 136 115 109
9.516890e-001 -8.647738e-001 -9.537487e+000 142 124 120
3.005349e+000 -2.170898e+000 -9.075033e+000 190 111 64
3.626900e+000 -6.665206e-001 -9.071631e+000 143 53 53
4.543204e+000 -1.785805e-001 -9.284392e+000 144 63 44
-1.307221e+000 2.624453e-003 -7.866781e+000 223 119 116
3.243953e+000 -2.205911e+000 -8.761363e+000 69 43 30
3.841270e+002 1.074827e+002 7.428537e+002 43 83 113
3.841270e+002 1.074827e+002 7.428537e+002 43 83 113
-1.067032e+000 1.298755e-002 -7.804981e+000 220 113 113
2.534343e+002 8.546765e+001 5.105058e+002 166 174 176
1.712932e+002 7.494964e+001 4.095583e+002 152 59 70
2.266187e+000 1.288150e+000 -9.389908e+000 144 53 69
-1.052071e+000 -6.832191e-001 -7.757811e+000 222 117 116
3.208094e+000 1.417860e+000 -8.956441e+000 148 60 56
-7.101103e-001 1.890012e+000 -8.143344e+000 43 50 56
2.913737e+000 2.573085e+000 -9.603824e+000 203 163 89
2.963872e+000 2.089382e+000 -9.538789e+000 120 73 60
2.600994e+000 1.494171e+000 -9.405252e+000 97 74 68
2.883099e+000 1.440760e+000 -9.477196e+000 136 106 101
-1.707707e+000 1.219825e+000 -8.338142e+000 231 216 149
-1.562897e+000 1.199301e+000 -8.271652e+000 228 219 163
-2.287679e+000 1.104614e+000 -8.801804e+000 239 224 160
3.374707e-001 1.009944e+000 -9.367880e+000 54 35 20
6.686255e-001 8.426217e-001 -9.018630e+000 109 52 51
8.424058e-001 8.777638e-001 -9.206805e+000 57 33 26
-1.609970e+000 6.458553e-001 -8.281819e+000 236 227 152
6.288699e-001 7.148194e-001 -8.816926e+000 112 80 67
6.288699e-001 7.148194e-001 -8.816926e+000 112 80 67
1.689948e+000 8.636890e-001 -9.490634e+000 112 82 74
1.686195e+000 7.525520e-001 -9.349222e+000 59 35 34
3.127695e+000 8.158169e-001 -9.122093e+000 73 53 39
-2.693004e+000 4.734730e-001 -9.106120e+000 236 217 141
-4.516266e+000 1.664100e-001 -9.041202e+000 73 43 33
-2.900455e+000 2.802996e-001 -9.182480e+000 230 216 155
-8.740382e-001 2.089351e-001 -7.716332e+000 105 98 93
-2.259455e+000 5.348356e-002 -8.678222e+000 235 227 159
-2.259455e+000 5.348356e-002 -8.678222e+000 235 227 159
-8.882134e-001 7.959070e-002 -7.732800e+000 74 80 80
2.895754e-001 -4.689862e-001 -9.206995e+000 143 86 53
4.138187e-001 -4.741841e-001 -9.304117e+000 138 108 71
4.155092e+000 -1.051734e+000 -1.289180e+001 145 106 89
3.069553e+000 -6.617772e-001 -8.913916e+000 123 94 71
-1.476426e+000 -6.891936e-001 -8.066089e+000 230 204 124
2.969676e+000 -8.917034e-001 -9.196951e+000 145 110 98
3.069132e+000 -7.670594e-001 -8.948089e+000 114 87 64
1.251210e+000 -1.275107e+000 -1.091536e+001 37 26 20
8.179925e-001 -1.383381e+000 -9.894547e+000 152 134 130
8.179925e-001 -1.383381e+000 -9.894547e+000 152 134 130
2.947421e+000 -1.220175e+000 -9.205097e+000 147 114 112
-9.316187e-001 -1.385119e+000 -7.624902e+000 79 85 84
2.742139e+000 1.976515e+000 -9.393434e+000 63 36 25
-8.703250e-001 1.391738e+000 -7.833692e+000 60 38 32
2.828756e+000 1.661814e+000 -9.539114e+000 62 39 31
-1.661835e+000 1.290077e+000 -8.479084e+000 228 218 167
2.774282e+000 1.446936e+000 -9.474653e+000 137 118 114
-5.922181e-002 1.048833e+000 -9.284095e+000 111 70 52
1.235467e+000 1.127836e+000 -1.003459e+001 104 76 62
4.971602e-001 9.760841e-001 -9.308166e+000 48 30 16
4.971602e-001 9.760841e-001 -9.308166e+000 48 30 16
1.226794e+000 1.058872e+000 -9.864180e+000 63 35 23
3.282710e+000 4.092646e-001 -9.066841e+000 62 36 23
1.436648e+000 -1.061780e-001 -9.444595e+000 77 57 47
1.952758e+000 -6.554123e-002 -9.625172e+000 144 124 123
1.247646e+000 -2.811038e-001 -9.249759e+000 146 112 69
1.598060e-001 -5.157207e-001 -9.180277e+000 123 64 34
2.309437e+000 -5.762162e-001 -9.892962e+000 111 43 59
3.334351e+000 -4.680907e-001 -9.073429e+000 76 38 33
6.143078e-001 -7.397719e-001 -9.477899e+000 125 109 104
1.175183e+000 -9.641188e-001 -9.780222e+000 146 59 68
-8.945878e-001 -8.510362e-001 -7.653351e+000 110 135 134
2.051327e+000 -1.206382e+000 -9.063408e+000 86 57 48
2.767836e+000 -1.475570e+000 -9.272332e+000 45 24 19
1.443781e+002 4.421592e+001 2.693310e+002 133 131 113
-8.851310e-001 -1.486317e+000 -7.571107e+000 72 72 69
4.286458e+000 -2.296148e+000 -8.993611e+000 114 75 43
2.920850e+000 2.540831e+000 -9.699589e+000 183 108 68
2.841973e+000 1.858275e+000 -9.429757e+000 103 70 55
2.850196e+000 1.796622e+000 -9.470391e+000 130 94 85
3.013630e+000 1.886296e+000 -9.099134e+000 165 164 154
3.214500e+000 1.878721e+000 -9.128436e+000 59 29 21
3.214500e+000 1.878721e+000 -9.128436e+000 59 29 21
2.893417e+000 7.929324e-001 -9.408758e+000 127 106 110
2.968818e+000 8.037609e-001 -9.246562e+000 141 132 125
3.239299e+000 2.366652e-001 -9.040230e+000 74 47 36
1.459188e+000 -1.884181e-001 -9.237401e+000 157 134 121
-1.157016e+000 -2.387318e-001 -7.907555e+000 106 118 114
9.121337e-001 -3.503779e-001 -9.200137e+000 145 130 124
7.927330e-001 -5.337582e-001 -9.583406e+000 137 78 46
1.177819e+000 -8.587105e-001 -9.724663e+000 131 124 117
3.004191e+000 -9.164871e-001 -9.188612e+000 143 80 70
3.115463e+000 -8.071861e-001 -8.889857e+000 158 132 105
-2.772440e-001 -1.190345e+000 -9.442292e+000 113 76 58
-2.398743e-001 -1.236598e+000 -9.467095e+000 122 60 38
4.693863e-001 -1.236500e+000 -9.748262e+000 146 128 128
3.501018e+000 -1.203604e+000 -8.876887e+000 148 121 102
1.706556e+000 -1.444244e+000 -1.004000e+001 47 38 36
3.048617e+000 -1.859030e+000 -8.707678e+000 181 108 72
2.876406e+000 2.260606e+000 -9.686426e+000 130 68 47
2.949234e+000 2.265752e+000 -9.374710e+000 168 91 62
5.139996e+000 1.822500e+000 -9.710962e+000 147 123 100
3.072324e+000 1.013752e+000 -9.170986e+000 132 107 76
4.452133e+000 9.832516e-001 -9.459161e+000 130 100 75
-1.205141e+000 -2.120224e-001 -7.901015e+000 75 84 83
1.193889e+000 -4.562631e-001 -9.320233e+000 146 123 102
-8.611808e-002 -6.055114e-001 -9.205029e+000 122 86 61
7.844735e-001 -6.079811e-001 -9.318636e+000 152 99 59
-9.170062e-002 -1.433309e+000 -9.630633e+000 134 52 53
3.309263e+000 -1.653746e+000 -8.823484e+000 69 47 35
2.929990e+000 1.904384e+000 -9.517104e+000 78 41 29
2.952218e+000 1.214547e+000 -9.437588e+000 126 69 55
1.986965e+002 -3.731144e+001 3.671625e+002 127 131 132
2.650968e-001 9.845605e-001 -9.243474e+000 114 85 61
2.437275e+000 1.889023e-001 -9.540028e+000 51 31 26
3.596038e+000 1.659406e-001 -9.048432e+000 155 123 112
-3.474462e+000 4.655598e-002 -9.140526e+000 66 41 37
4.338167e+000 -1.897039e-001 -9.248335e+000 150 123 104
1.842697e+000 -3.378241e-001 -9.670267e+000 49 24 26
1.995569e+000 -3.905644e-001 -9.920426e+000 79 34 43
7.213480e-002 -4.865072e-001 -9.131113e+000 131 83 43
3.041376e+000 -4.143947e-001 -9.224465e+000 135 125 124
3.794788e+000 -6.341101e-001 -9.181489e+000 161 124 108
5.550984e-001 -1.516887e+000 -9.797759e+000 148 134 133
5.550984e-001 -1.516887e+000 -9.797759e+000 148 134 133
3.122727e+000 -1.458693e+000 -8.793135e+000 133 102 77
4.620284e+000 -1.480897e+000 -9.147720e+000 143 68 47
4.461083e+000 -1.567938e+000 -9.079077e+000 143 67 43
4.461083e+000 -1.567938e+000 -9.079077e+000 143 67 43
3.728322e+000 -1.999584e+000 -8.839714e+000 152 118 98
2.564497e+002 -1.396176e+002 7.501462e+002 138 139 135
2.677314e+000 1.558159e+000 -9.574295e+000 97 71 67
2.973670e+000 1.076189e+000 -9.501322e+000 123 65 51
1.425707e+002 -4.485233e+001 4.184714e+002 129 129 121
5.814319e-001 9.645663e-001 -9.284364e+000 110 80 59
2.982321e+000 8.052142e-001 -9.482423e+000 125 63 48
2.899878e+002 1.644083e+001 5.056182e+002 177 167 127
2.899878e+002 1.644083e+001 5.056182e+002 177 167 127
3.150833e+000 -5.111879e-001 -8.864897e+000 69 40 27
8.416035e-001 -1.118245e+000 -9.706421e+000 36 26 24
1.937559e-001 -1.379811e+000 -9.646161e+000 43 35 33
2.261780e+002 -6.785421e+001 4.134247e+002 163 172 172
2.261780e+002 -6.785421e+001 4.134247e+002 163 172 172
1.287529e+002 -5.337237e+001 3.406964e+002 127 114 115
1.140391e+002 -5.427758e+001 3.158586e+002 114 113 115
1.194513e+002 -4.613306e+001 3.344522e+002 115 111 110
1.194513e+002 -4.613306e+001 3.344522e+002 115 111 110
1.865847e+002 -7.371512e+001 5.518318e+002 149 153 153
2.788431e+000 1.191370e-001 -9.454218e+000 63 34 30
1.699498e+000 -1.274044e-001 -9.548814e+000 36 20 21
2.330951e+000 -5.900686e-001 -9.801535e+000 105 39 53
2.330951e+000 -5.900686e-001 -9.801535e+000 105 39 53
1.099304e+000 -8.025006e-001 -9.647858e+000 36 22 24
1.099304e+000 -8.025006e-001 -9.647858e+000 36 22 24
1.644552e+000 -1.406047e+000 -1.011805e+001 139 124 122
-1.324298e+000 1.706747e+000 -8.172057e+000 74 69 75
2.596228e+000 1.758129e+000 -9.622913e+000 57 52 56
1.178614e+002 -4.318044e+001 2.793893e+002 111 109 112
4.901521e+000 -9.105738e-001 -9.364722e+000 157 105 57
3.557318e-001 -1.464589e+000 -9.753538e+000 151 132 136
2.656812e+000 -1.616759e+000 -9.196910e+000 59 49 46
-1.984658e-001 -1.761889e+000 -8.446876e+000 134 106 85
2.497296e+002 1.187181e+002 4.616271e+002 144 124 97
-1.115069e+000 2.200093e+000 -8.134637e+000 66 70 73
1.909649e+002 -5.203626e+001 3.551799e+002 112 120 125
3.386483e+002 -6.559901e+001 5.871477e+002 156 165 164
2.542668e+002 -4.507011e+001 4.557418e+002 105 106 110
2.115384e+002 -4.130334e+001 4.122941e+002 98 102 105
-5.624671e-001 -8.109927e-001 -8.100146e+000 34 23 21
3.672998e+000 -1.923297e+000 -8.964109e+000 151 64 57
-5.700135e-001 -1.765127e+000 -8.007159e+000 33 25 23
8.517282e+002 5.818221e+002 2.229150e+003 134 117 91
-1.070068e+000 1.944269e+000 -7.940592e+000 223 113 114
2.853744e+000 2.092909e+000 -9.593666e+000 77 50 38
2.003519e+000 1.174521e+000 -1.068595e+001 46 28 24
-1.034566e+000 6.671922e-001 -7.814976e+000 218 112 112
7.987966e-001 1.960347e-001 -9.164742e+000 144 85 46
2.305067e+000 1.210629e-001 -9.616839e+000 91 68 62
-1.182260e+000 -3.374021e-001 -7.942229e+000 71 80 77
2.509135e+002 1.015813e+002 5.092404e+002 35 106 168
5.811872e+002 2.862247e+002 1.173162e+003 124 150 156
2.778600e+002 1.676214e+002 6.665513e+002 153 161 162
1.199421e+000 7.198635e-002 -8.915008e+000 52 27 22
1.069386e+000 -2.751516e-001 -9.120806e+000 160 129 116
3.437860e+000 -1.044262e+000 -9.115557e+000 132 43 37
3.879564e+002 2.018946e+002 7.225281e+002 44 33 31
1.498646e+000 -1.119328e+000 -1.000864e+001 138 118 117
4.341325e+000 4.855849e-001 -9.026037e+000 148 122 105
2.735396e-002 -1.142280e-002 -9.166405e-002 0 255 0
2.730803e-002 -1.144739e-002 -1.416640e-001 255 255 0
1.010503e-001 9.628628e-001 -2.375076e-001 255 0 0
1.007794e-001 9.573756e-001 -2.872049e-001 255 255 0
