ply
format ascii 1.0
element face 0
property list uchar int vertex_indices
element vertex 874
property float x
property float y
property float z
property uchar diffuse_red
property uchar diffuse_green
property uchar diffuse_blue
end_header
2.051322e+000 -3.602085e+000 -6.939344e+000 152 110 71
4.984910e+000 -3.834731e+000 -6.852449e+000 47 19 12
-6.676382e-001 -5.305053e+000 -4.928956e+000 84 90 96
-5.718601e-001 -5.300487e+000 -4.953279e+000 76 83 75
5.068246e+000 -5.639223e+000 -6.647984e+000 64 37 26
5.149895e+000 -5.952593e+000 -6.777919e+000 75 45 36
5.208249e+000 -5.960451e+000 -6.778291e+000 142 85 71
4.281733e+000 -1.593651e+000 -7.627154e+000 68 44 42
4.633162e+000 -1.667012e+000 -7.113779e+000 136 109 79
5.428311e+000 -2.169261e+000 -7.116884e+000 148 123 101
-3.896983e+000 -3.541541e+000 -6.708498e+000 117 88 72
2.923423e+000 -4.928416e+000 -8.421003e+000 41 18 20
4.616532e+000 3.932301e-001 -7.353641e+000 79 50 28
4.616532e+000 3.932301e-001 -7.353641e+000 79 50 28
-1.157481e+000 -6.357279e-001 -5.383018e+000 223 112 111
4.059496e+000 -1.518633e+000 -7.400161e+000 121 101 100
4.360957e+000 -1.679760e+000 -7.622045e+000 116 103 102
4.469989e+000 -1.851629e+000 -7.540889e+000 123 65 50
-4.864125e+000 -3.355233e+000 -6.398003e+000 167 130 75
6.694703e+000 -2.909976e+000 -7.450330e+000 138 102 69
6.692213e+000 -2.909637e+000 -7.440998e+000 138 102 69
1.832980e+000 -3.957932e+000 -7.292015e+000 147 102 59
3.534416e+000 -4.008746e+000 -8.039940e+000 34 21 15
-1.341381e+000 -4.329612e+000 -5.388953e+000 224 193 116
3.401735e+000 -4.603597e+000 -6.956498e+000 46 27 22
1.283118e+000 -4.897235e+000 -7.586771e+000 41 30 31
1.283118e+000 -4.897235e+000 -7.586771e+000 41 30 31
-1.216689e+000 -5.189577e+000 -5.315238e+000 224 120 124
6.562265e+000 -5.187799e+000 -7.243402e+000 152 122 98
-1.197893e+000 -5.400642e+000 -5.310811e+000 224 118 122
-2.310251e-002 -5.717443e+000 -5.519595e+000 25 15 13
-3.989478e-001 -6.083681e+000 -5.004222e+000 72 49 33
2.769018e+000 -1.729862e+000 -8.232814e+000 105 69 43
4.527174e+000 -2.572363e+000 -7.501704e+000 133 69 55
1.016451e+000 -2.857850e+000 -9.692941e+000 41 25 20
3.793920e+000 -2.717749e+000 -7.586921e+000 53 32 28
6.764132e+000 -3.382443e+000 -7.452082e+000 154 75 56
4.569412e+000 -3.679781e+000 -7.342174e+000 127 68 52
-9.342025e-001 -4.487808e+000 -5.105609e+000 232 131 132
4.204068e+000 -4.722862e+000 -7.085548e+000 130 113 103
4.764463e+000 -5.284286e+000 -6.644794e+000 171 174 165
4.529829e+000 -5.756614e+000 -7.349333e+000 106 60 44
4.174748e+000 -1.796196e+000 -8.128324e+000 60 39 36
5.222196e+000 -3.135745e+000 -6.993652e+000 144 122 106
1.538113e+000 -3.522789e+000 -6.854646e+000 150 132 130
4.246283e+000 -3.215850e+000 -7.396413e+000 74 45 39
7.576725e+000 -4.491272e+000 -7.532138e+000 152 122 102
5.329532e+000 -4.819604e+000 -6.821738e+000 154 127 110
3.254622e+000 -6.618679e+000 -1.177379e+001 113 85 61
4.127794e+000 1.207634e-001 -8.210585e+000 124 94 64
6.563505e+000 -1.455239e+000 -7.544065e+000 146 70 45
-4.869182e+000 -3.263888e+000 -6.765932e+000 49 30 26
-4.553313e+000 -3.132468e+000 -6.710927e+000 47 34 33
3.460877e+000 -6.549022e+000 -1.099534e+001 108 80 56
4.735815e+000 3.172863e-001 -7.414753e+000 81 56 36
-8.357876e-001 -3.678490e+000 -4.965477e+000 71 77 77
-5.021271e-001 -4.366549e+000 -4.945137e+000 48 31 23
-3.746559e-002 -4.401972e+000 -7.417694e+000 44 66 80
4.293613e+000 -5.992953e+000 -8.146870e+000 187 149 79
7.721073e+000 -5.757062e+000 -7.663229e+000 154 123 103
4.493260e+000 -6.206511e+000 -7.817825e+000 119 92 64
-9.269750e-001 -1.585703e+000 -5.231856e+000 220 110 108
-9.269750e-001 -1.585703e+000 -5.231856e+000 220 110 108
3.199041e+000 -4.471361e+000 -8.282134e+000 84 39 36
-1.285703e-001 -5.743552e+000 -5.545351e+000 36 28 26
-7.851669e-001 -5.224294e+000 -4.979181e+000 222 118 117
3.839850e+000 -1.931215e+000 -7.598792e+000 38 26 28
4.417111e+000 3.932871e-002 -7.482278e+000 190 163 141
4.562380e+000 -1.399575e+000 -6.998525e+000 138 112 87
6.695340e+000 -1.640316e+000 -7.605086e+000 137 78 60
4.101630e+000 -2.419240e+000 -7.639130e+000 64 41 36
-3.398883e+000 -3.246851e+000 -6.842082e+000 230 213 145
-3.394163e+000 -3.248870e+000 -6.821401e+000 230 213 145
-9.651696e-001 -3.349631e+000 -5.236939e+000 253 191 188
-1.357864e+000 -3.712869e+000 -5.469732e+000 218 187 109
-1.996192e+000 -3.905314e+000 -5.921873e+000 234 220 146
6.686112e-001 -4.319340e+000 -7.209549e+000 130 103 86
1.229133e+000 -4.793751e+000 -7.643018e+000 134 53 52
4.822404e+000 -5.167944e+000 -6.688099e+000 135 108 85
5.137907e+000 -5.733859e+000 -6.682363e+000 126 88 71
4.767920e+000 -1.363722e-001 -7.167613e+000 61 33 21
4.566119e+000 -5.460149e-001 -7.067995e+000 69 42 31
5.289022e+000 -7.287679e-001 -7.204223e+000 134 48 47
-2.021417e+000 -2.246987e+000 -5.989632e+000 233 220 150
4.779553e+000 -2.329046e+000 -6.937531e+000 57 30 19
4.871774e+000 -2.350207e+000 -7.055776e+000 92 63 49
2.000226e+000 -3.499104e+000 -7.033321e+000 147 116 54
1.771826e+000 -3.941054e+000 -7.462455e+000 128 65 37
2.095343e+000 -3.876622e+000 -7.174482e+000 138 101 60
1.980375e+000 -4.482777e+000 -7.706565e+000 148 52 54
2.784746e-001 -4.656189e+000 -7.193168e+000 99 78 69
1.005149e+000 -4.985294e+000 -7.576632e+000 40 28 30
9.138099e+000 -5.243106e+000 -1.027104e+001 151 126 114
4.914150e+000 -4.138840e+000 -2.353720e+000 55 38 31
4.639070e+000 -5.959607e+000 -7.155216e+000 175 99 61
4.703618e+000 -5.793717e+000 -6.969659e+000 185 106 75
4.047135e+000 -4.769770e-003 -8.490947e+000 74 50 27
4.291304e+000 -6.930587e-001 -7.583928e+000 130 94 80
4.404698e+000 -7.441040e-001 -7.561932e+000 127 62 51
4.398099e+000 -9.044750e-001 -7.448080e+000 121 62 51
4.115067e+000 -2.100524e+000 -7.764122e+000 60 39 36
-7.690221e-001 -2.864823e+000 -1.496608e+001 45 69 81
-4.116878e+000 -3.229929e+000 -6.866882e+000 87 67 56
1.822035e+000 -3.159687e+000 -7.156326e+000 107 57 39
1.700746e+000 -3.394425e+000 -6.845488e+000 152 129 112
1.703301e+000 -3.394581e+000 -6.860479e+000 152 129 112
3.852170e+000 -3.053817e+000 -5.230290e+000 129 63 51
2.287357e+000 -3.491623e+000 -7.049776e+000 151 114 70
2.290443e+000 -3.488606e+000 -7.074053e+000 151 114 70
1.942615e+000 -4.264403e+000 -7.629908e+000 147 127 124
-6.625671e-001 -4.321954e+000 -5.011788e+000 228 125 115
4.665464e+000 -4.265738e+000 -6.859175e+000 75 48 32
3.804741e+000 1.207749e-001 -9.385474e+000 79 56 32
1.161014e+001 8.392415e-001 -2.534783e+001 141 53 51
2.758854e+000 -2.197455e+000 -7.343781e+000 44 24 23
5.290102e+000 -3.615175e+000 -6.980705e+000 144 51 51
5.859878e-001 -4.205543e+000 -7.121570e+000 125 82 50
5.859878e-001 -4.205543e+000 -7.121570e+000 125 82 50
3.327578e-001 -4.574996e+000 -7.149163e+000 108 44 42
5.196480e-001 -4.553088e+000 -7.235654e+000 122 45 47
4.609780e+000 -4.208155e+000 -7.246533e+000 128 63 50
2.006715e+000 -4.725409e+000 -7.877603e+000 141 116 120
4.700924e+000 -4.745844e+000 -6.831841e+000 80 52 38
6.530073e+000 -5.311271e+000 -7.163658e+000 134 99 70
5.088044e+000 -5.528474e+000 -6.726422e+000 73 46 35
8.671489e+000 1.411339e+000 -1.024126e+001 162 133 66
7.353355e+000 9.869326e-002 -7.856920e+000 55 42 34
4.497716e+000 -5.591415e-001 -7.062118e+000 163 158 154
4.351428e+000 -9.161671e-001 -7.729313e+000 106 77 73
4.552658e+000 -1.134966e+000 -7.027361e+000 127 101 73
3.277723e+000 -1.484129e+000 -9.004137e+000 41 25 25
4.596707e+000 -1.840582e+000 -7.045404e+000 113 87 61
-4.080684e+000 -3.326333e+000 -6.951588e+000 63 44 31
2.588994e+000 -3.093367e+000 -7.348296e+000 37 17 16
3.722190e+000 -2.939533e+000 -7.683080e+000 100 76 66
6.740118e+000 -3.148816e+000 -7.409794e+000 155 67 52
6.523166e+000 -3.282607e+000 -7.334976e+000 131 55 33
5.466934e+000 -4.133643e+000 -6.985123e+000 156 61 61
4.759351e+000 -4.485511e+000 -6.709877e+000 135 105 77
-4.795403e+000 -3.441260e+000 -6.828185e+000 191 136 109
4.304192e+000 -3.364494e+000 -7.611055e+000 68 43 37
7.578678e+000 -3.914567e+000 -7.670823e+000 149 124 105
7.183064e-001 -5.200988e+000 -7.606259e+000 148 125 125
-4.897508e+000 -3.086512e+000 -7.025685e+000 138 116 92
-4.944782e+000 -3.252958e+000 -6.885309e+000 50 29 31
5.931168e+000 -6.098871e+000 -6.936932e+000 144 104 69
3.485166e+000 -1.416157e+000 -7.349461e+000 143 50 68
-1.484288e+000 -1.020737e+000 -5.709948e+000 225 187 122
-8.246992e-001 -1.381757e+000 -5.263763e+000 118 129 131
4.377971e+000 -1.052804e+000 -7.469778e+000 149 113 103
-1.981261e+000 -2.076977e+000 -6.028651e+000 233 225 150
-2.613216e+000 -2.331248e+000 -6.434311e+000 228 215 137
-2.613216e+000 -2.331248e+000 -6.434311e+000 228 215 137
-3.130791e+000 -2.752465e+000 -6.654550e+000 225 213 148
4.248062e+000 -2.177905e+000 -7.701206e+000 64 49 46
-6.272300e-001 -3.068697e+000 -5.040448e+000 48 32 25
-1.195149e+000 -3.737968e+000 -5.375521e+000 210 119 124
4.877009e+000 -3.302998e+000 -6.804305e+000 83 59 47
4.359350e+000 -2.140270e-001 -7.369853e+000 138 80 65
1.498565e+000 -1.800732e+000 -7.634218e+000 44 29 17
-2.526736e+000 -2.567533e+000 -6.275009e+000 229 214 147
4.902135e+000 -2.046930e+000 -7.052540e+000 58 33 25
-3.406478e+000 -3.254702e+000 -6.875090e+000 225 214 147
-6.614152e-001 -3.207410e+000 -5.109209e+000 67 69 68
2.202875e+000 -3.374757e+000 -7.007716e+000 39 20 20
2.711998e+000 -3.308146e+000 -7.524566e+000 119 102 97
5.096188e+000 -3.066181e+000 -6.902282e+000 148 60 56
2.330290e+000 -3.550207e+000 -7.153831e+000 141 116 78
7.874053e-001 -3.990654e+000 -6.990886e+000 126 66 36
1.006940e+000 -3.949156e+000 -7.040031e+000 137 75 50
8.450363e-001 -4.130722e+000 -7.142366e+000 130 68 46
3.504254e-001 -4.403487e+000 -7.064894e+000 41 29 33
-5.694828e-001 -4.600110e+000 -5.003264e+000 55 45 38
-1.064190e+000 -5.779768e-001 -5.458905e+000 74 87 93
1.010110e+001 2.542078e+000 -2.169211e+001 158 124 114
1.010110e+001 2.542078e+000 -2.169211e+001 158 124 114
4.505455e+000 -6.997396e-001 -7.098659e+000 129 103 80
5.127383e+000 -8.877168e-001 -7.035063e+000 141 55 50
-1.792990e+000 -1.732025e+000 -5.959160e+000 208 192 115
5.488473e-001 -2.104152e+000 -6.831947e+000 79 53 48
-1.919498e+000 -3.073956e+000 -5.879642e+000 232 225 160
-1.673629e-001 -3.459918e+000 -3.703644e+000 46 58 63
2.210160e+000 -3.694890e+000 -7.171595e+000 148 129 106
4.832536e+000 -3.327718e+000 -6.818478e+000 61 36 24
3.624522e+000 -3.915332e+000 -7.946409e+000 106 48 63
4.847339e+000 -3.902862e+000 -6.775561e+000 131 54 46
2.137150e+000 -4.465450e+000 -7.773595e+000 151 58 75
4.758343e+000 -4.223519e+000 -6.772127e+000 144 124 97
7.276167e-001 -5.679556e+000 -7.797786e+000 159 118 69
4.936329e+000 -5.247052e+000 -6.658856e+000 62 42 36
4.687524e+000 -5.607934e+000 -7.030311e+000 164 96 67
5.231026e+000 -2.039182e+000 -7.140848e+000 140 50 49
4.518388e+000 -4.056951e+000 -7.395463e+000 117 94 94
-6.625027e-001 -4.323506e+000 -4.997219e+000 218 125 127
4.712674e+000 -4.638830e+000 -6.911976e+000 87 63 52
2.148513e+001 -9.985063e+000 -3.177624e+001 53 40 35
3.838936e+000 -3.127073e+000 -7.668342e+000 53 35 32
-1.118773e-001 -3.828040e+000 -5.714427e+000 35 26 24
3.811758e+000 -2.479775e+000 -7.826074e+000 41 26 23
4.247478e+000 -2.813090e+000 -7.512421e+000 55 34 29
-3.678037e+000 -6.308938e+000 -2.657133e+001 210 120 120
4.351648e+000 -3.093049e-001 -7.553711e+000 149 107 95
4.447641e+000 -8.352864e-001 -7.134214e+000 72 51 35
4.399023e+000 -1.212258e+000 -7.427396e+000 152 121 108
4.414281e+000 -1.218368e+000 -7.476038e+000 152 121 108
4.425221e+000 -1.397081e+000 -7.458499e+000 148 115 108
4.448162e+000 -1.415248e+000 -7.413885e+000 129 73 65
1.403376e+000 -2.041028e+000 -7.064200e+000 93 75 60
2.966123e+000 -1.983857e+000 -7.634296e+000 50 17 14
4.422430e+000 -1.576376e+000 -7.401702e+000 149 121 109
-4.168370e+000 -3.074900e+000 -6.869730e+000 149 131 119
-2.135099e+000 -2.895342e+000 -6.082311e+000 225 217 150
-1.557288e+000 -2.638716e+000 -5.692171e+000 225 217 146
4.652753e+000 -1.988184e+000 -6.937053e+000 74 50 38
1.441252e+000 -2.819678e+000 -6.785233e+000 161 115 67
4.207098e+000 -2.423774e+000 -6.680330e+000 127 117 124
1.721987e+000 -3.096967e+000 -7.001965e+000 147 97 64
1.721987e+000 -3.096967e+000 -7.001965e+000 147 97 64
5.009380e-002 -4.394233e+000 -1.055296e+001 42 24 20
4.308346e+000 -3.056573e+000 -6.363570e+000 128 74 69
-5.692434e-001 -3.846058e+000 -5.133621e+000 71 53 49
5.596836e+000 -4.441686e+000 -1.072872e+001 141 131 132
4.851326e+000 -3.410115e+000 -6.806535e+000 68 40 29
3.925073e-001 -4.352604e+000 -7.131189e+000 108 85 60
2.275990e+000 -4.799741e+000 -7.936709e+000 149 135 135
4.371697e+000 -5.129988e+000 -7.197226e+000 76 58 54
4.361673e+000 3.441802e-002 -7.585973e+000 160 92 60
4.416997e+000 -2.028029e-001 -7.211431e+000 158 83 59
-7.173409e-001 -1.341631e+000 -5.220201e+000 49 35 32
-2.554200e+000 -1.974191e+000 -6.364074e+000 231 222 154
1.609222e-001 -1.584125e+000 -1.996022e+000 19 20 25
4.526851e+000 -1.621359e+000 -7.158372e+000 86 58 41
1.281902e+000 -2.183994e+000 -6.707131e+000 38 26 17
1.281455e+000 -2.180577e+000 -6.684948e+000 38 26 17
-5.272589e+000 -3.317279e+000 -6.577467e+000 72 45 33
4.206037e+000 -2.225566e+000 -7.723101e+000 76 55 50
4.599063e+000 -1.988030e+000 -6.925433e+000 153 160 158
-7.105356e-001 -3.390702e+000 -5.084812e+000 213 126 130
-7.105356e-001 -3.390702e+000 -5.084812e+000 213 126 130
2.271409e+000 -3.432676e+000 -6.950619e+000 140 114 67
4.488728e+000 -3.035150e+000 -7.406734e+000 117 54 44
1.012240e+000 -3.993981e+000 -7.153893e+000 133 70 44
1.535094e+000 -4.235433e+000 -7.427201e+000 41 34 31
3.319594e+000 -4.080917e+000 -8.000998e+000 90 71 68
1.958007e+000 -4.381187e+000 -7.673957e+000 138 126 128
4.299207e+000 -5.184601e+000 -7.366786e+000 77 78 86
5.220454e+000 -4.741807e+000 -6.767251e+000 147 51 54
4.752506e+000 -5.225259e+000 -6.883269e+000 64 47 28
-2.451877e-001 -5.823882e+000 -5.457066e+000 48 61 78
5.111198e+000 -5.708402e+000 -6.756106e+000 71 47 35
9.490060e+000 -7.055898e+000 -8.342944e+000 182 135 61
7.754310e+000 1.484875e+000 -1.316474e+001 177 148 80
-7.746273e-001 -9.015736e-001 -5.258971e+000 86 88 93
-8.473684e-001 -1.444156e+000 -5.255778e+000 86 96 95
9.215007e-001 -1.916881e+000 -7.167359e+000 43 30 21
6.585601e+000 -1.265789e+000 -7.617749e+000 156 130 111
4.468224e+000 -1.630028e+000 -7.460056e+000 122 64 52
2.826760e+000 -1.012935e+000 1.263532e-001 148 58 54
3.498999e+000 -1.241349e+000 -2.077135e+000 154 128 117
4.553264e+000 -1.957628e+000 -7.146150e+000 78 61 56
2.922486e+000 -2.341724e+000 -7.299866e+000 94 63 56
4.151098e+000 -2.270001e+000 -7.675355e+000 45 24 21
1.510369e+000 -3.308734e+000 -7.131760e+000 94 42 29
2.689396e+000 -3.076178e+000 -7.408209e+000 151 141 142
2.007490e+000 -3.498279e+000 -6.915448e+000 142 114 66
2.297999e+000 -3.393223e+000 -7.036247e+000 149 135 131
-1.513996e+000 -6.462687e+000 -1.648691e+001 55 72 87
8.315820e-001 -3.908425e+000 -7.036927e+000 142 92 57
2.241107e+000 -3.641759e+000 -7.205087e+000 153 119 76
2.876617e+000 -5.039145e+000 -8.143164e+000 43 35 33
8.613141e+000 -4.585885e+000 -7.902317e+000 50 29 25
6.640380e+000 -5.179478e+000 -7.184308e+000 142 71 47
6.640380e+000 -5.179478e+000 -7.184308e+000 142 71 47
4.521259e+000 -6.393011e+000 -7.777063e+000 189 140 69
5.135527e+000 -5.982948e+000 -6.756526e+000 66 39 26
9.085947e+000 -6.082304e+000 -7.969615e+000 150 74 52
3.806119e+000 -6.498013e-002 -9.261899e+000 62 46 30
-6.918804e-001 -1.513795e+000 -5.106814e+000 68 42 38
4.287798e+000 -1.204036e+000 -7.483534e+000 127 105 105
5.810083e-001 -1.930154e+000 -7.045689e+000 95 42 32
5.801149e-001 -1.928808e+000 -7.035080e+000 95 42 32
4.034120e+000 -1.545415e+000 -7.386943e+000 131 116 113
-1.443082e+000 -2.181013e+000 -5.639766e+000 213 196 102
3.527230e+000 -1.654889e+000 -7.150076e+000 141 52 68
4.591733e+000 -1.574150e+000 -7.089266e+000 137 116 89
6.202040e+000 -1.415599e+000 -7.473420e+000 138 107 75
6.202040e+000 -1.415599e+000 -7.473420e+000 138 107 75
4.222308e+000 -1.993907e+000 -7.780463e+000 59 45 45
4.576428e+000 -1.765741e+000 -7.009966e+000 131 111 84
3.064047e+000 -3.198132e+000 -7.602847e+000 39 28 30
4.404842e+000 -1.706077e+000 -1.875498e+000 138 91 45
3.572431e-001 -4.312304e+000 -7.071592e+000 108 78 47
6.813954e+000 -3.682729e+000 -7.459051e+000 135 104 80
1.158554e+000 -5.270713e+000 -7.828521e+000 148 138 136
6.648498e+000 -5.183244e+000 -7.200936e+000 138 71 44
5.443445e+000 -6.131751e+000 -6.658822e+000 145 59 48
-2.689036e+000 -2.139816e+000 -6.510264e+000 239 233 175
-1.242081e+000 -1.850129e+000 -5.548737e+000 215 119 118
3.199883e-001 -1.832193e+000 -7.309826e+000 44 18 14
1.397997e+000 -1.924812e+000 -7.471560e+000 34 23 22
1.097023e+000 -1.950608e+000 -7.112549e+000 41 30 27
2.304193e+000 -1.933368e+000 -7.640609e+000 42 24 23
2.759124e+000 -2.199279e+000 -7.490338e+000 55 32 32
5.286301e+000 -1.846029e+000 -7.178415e+000 152 127 115
6.427327e+000 -1.696241e+000 -7.502267e+000 140 110 84
-4.652496e+000 -3.421296e+000 -6.824548e+000 73 47 42
-4.093897e+000 -3.453761e+000 -6.972339e+000 69 51 39
5.406932e+000 -2.300317e+000 -6.889652e+000 147 121 108
7.492520e+000 -2.292539e+000 -7.786418e+000 147 128 114
6.644541e-001 -3.924312e+000 -6.959826e+000 138 88 50
-8.893739e-002 -3.200310e+000 -3.348799e+000 49 59 68
-9.502761e-001 -4.475120e+000 -5.192805e+000 215 122 125
4.759209e+000 -4.215014e+000 -6.755051e+000 146 124 101
4.791593e+000 -4.536818e+000 -6.824865e+000 141 125 92
4.830396e+000 -4.927753e+000 -6.804228e+000 133 107 84
4.830742e+000 -4.927315e+000 -6.798986e+000 133 107 84
5.264033e+000 -6.165231e+000 -6.659366e+000 145 66 50
2.464995e+000 -1.961614e+000 -7.565349e+000 101 74 58
2.856434e+000 -1.092893e+000 1.149613e-001 140 52 50
1.514379e+000 -3.517489e+000 -6.859985e+000 145 131 130
1.512271e+000 -3.514365e+000 -6.847762e+000 145 131 130
4.847633e-001 -3.950775e+000 -6.967844e+000 32 23 26
2.317495e-001 -4.585528e+000 -7.130895e+000 108 87 84
-1.331035e+000 -4.831363e+000 -5.453664e+000 215 191 113
1.252797e+000 -5.318723e+000 -7.840514e+000 44 34 34
6.509548e+000 -5.832322e+000 -7.108077e+000 150 128 107
5.691492e+000 -6.127412e+000 -6.793665e+000 144 107 78
-8.859351e-001 -3.566733e-001 -5.491080e+000 68 82 85
1.126859e+000 -3.961935e+000 -7.181367e+000 149 114 68
5.325148e+000 -4.820721e+000 -6.815989e+000 146 129 110
3.956636e+000 -7.819437e-001 -7.683442e+000 43 48 54
6.957254e+000 -4.932408e-001 -7.835956e+000 151 101 53
4.270722e+000 -1.088146e+000 -7.509698e+000 70 50 41
7.850550e-001 -1.952503e+000 -7.079243e+000 99 78 57
-7.962199e-002 -3.005453e+000 -5.701696e+000 45 70 90
-1.520720e+000 -2.105358e+000 -5.708168e+000 214 198 110
2.612110e+000 -2.101142e+000 -7.542035e+000 102 77 73
-2.357383e-001 -3.179899e+000 -5.699617e+000 30 24 26
8.357987e+000 -2.838541e+000 -8.066449e+000 49 36 33
3.707942e+000 -3.647939e+000 -7.861609e+000 105 42 61
-1.686043e-001 -3.480572e+000 -5.627052e+000 45 67 89
3.076149e+000 -5.137038e+000 -8.510050e+000 46 36 34
8.324205e+000 -4.965465e+000 -7.656553e+000 150 70 52
8.324205e+000 -4.965465e+000 -7.656553e+000 150 70 52
6.700438e+000 -5.757795e+000 -7.289797e+000 146 128 110
7.968660e+000 -5.992420e+000 -8.342804e+000 149 128 107
5.185290e+000 -1.430739e+000 -7.124165e+000 135 51 43
6.709747e+000 -3.239983e-001 -1.108634e+001 143 121 100
1.626580e+000 -3.132763e+000 -7.003187e+000 133 105 91
2.148303e+000 -3.706478e+000 -7.170191e+000 143 109 64
9.919917e-001 -4.920398e+000 -7.496911e+000 42 30 31
4.006251e+000 -1.460352e+000 -7.360239e+000 118 103 100
4.577789e+000 -1.237682e+000 -7.125496e+000 115 85 64
-6.395351e-002 -2.787991e+000 -4.624875e+000 29 27 28
8.230609e+000 -7.839007e-001 -8.114841e+000 147 75 53
8.233109e+000 -7.830002e-001 -8.119151e+000 147 75 53
8.274409e+000 -1.531689e+000 -8.085589e+000 140 65 46
-1.485628e+000 -2.956519e-001 -6.739137e+000 87 87 72
-1.428095e+000 -1.093157e+000 -5.470204e+000 216 187 116
-1.397224e+000 -1.053638e+000 -5.611642e+000 216 128 125
7.333777e+000 1.939646e-001 -7.838367e+000 50 35 24
-1.196701e+000 -1.120027e+000 -5.513830e+000 61 68 76
-7.564872e-001 -1.160279e+000 -5.255421e+000 72 76 78
-8.254932e-001 -1.380232e+000 -5.257605e+000 141 153 157
1.276669e-001 -1.552521e+000 -7.695229e+000 91 67 59
1.058934e+000 -1.563701e+000 -8.035236e+000 36 16 6
4.070786e-001 -1.658239e+000 -7.582192e+000 34 24 13
3.373010e-001 -1.813705e+000 -7.262683e+000 37 23 20
-1.864063e+000 -1.938726e+000 -5.861742e+000 223 216 148
1.153087e+000 -1.751237e+000 -7.553888e+000 104 81 65
1.685372e+000 -1.703767e+000 -7.675812e+000 35 18 9
4.347787e+000 -1.575017e+000 -7.350136e+000 98 59 53
-3.965195e+000 -3.552260e+000 -7.153471e+000 166 158 153
4.955039e+000 -3.390032e+000 -7.032122e+000 88 61 50
5.051344e-001 -4.659174e+000 -7.301339e+000 123 96 95
4.618942e+000 -4.517751e+000 -7.244146e+000 147 122 110
4.379577e+000 -5.145801e+000 -7.227714e+000 80 64 59
-5.436433e-001 -6.122563e+000 -4.941225e+000 71 76 70
-3.658311e-001 -6.150165e+000 -5.266649e+000 112 92 71
-4.853430e-001 -6.100301e+000 -4.881613e+000 53 36 27
6.033513e+000 1.423454e-001 -7.593762e+000 145 124 101
4.302399e+000 -3.021773e-001 -7.544784e+000 66 34 23
-2.227049e+000 -1.581010e+000 -6.215921e+000 67 58 53
2.000224e+000 -1.636434e+000 -8.176431e+000 69 49 41
1.316942e+000 -1.761006e+000 -7.642442e+000 103 45 46
1.646943e+000 -1.752525e+000 -7.766173e+000 95 79 64
-3.974146e+000 -3.535740e+000 -6.888768e+000 105 85 74
2.155227e+000 -3.750444e+000 -7.280975e+000 143 112 66
4.599531e+000 -3.836641e+000 -6.728631e+000 51 40 34
5.454488e+000 -4.799713e+000 -7.003841e+000 147 50 45
-6.271763e-001 -5.897110e+000 -4.730028e+000 18 17 20
5.099491e+000 -6.173164e+000 -6.570142e+000 180 141 75
2.643302e+000 -4.362024e-001 -1.287334e+001 151 110 59
2.824205e+000 -4.000254e-001 -1.228507e+001 63 44 28
3.153178e+000 -2.756239e-001 -1.109028e+001 60 42 27
4.059501e+000 -5.815990e-002 -8.401420e+000 129 97 59
1.722058e+000 -8.154611e-001 -1.135993e+001 122 106 81
4.647469e+000 -1.043375e-001 -7.012493e+000 84 60 48
-8.554238e-001 -1.082238e+000 -5.284793e+000 88 106 109
4.177844e+000 -5.115781e-001 -7.380957e+000 101 74 71
5.932355e-001 -1.627322e+000 -7.773901e+000 42 32 21
2.009197e+000 -1.628280e+000 -8.131768e+000 75 53 46
4.443724e+000 -1.086054e+000 -7.537731e+000 136 75 57
-1.409900e+000 -1.979936e+000 -5.511868e+000 215 191 111
1.713128e+000 -1.835922e+000 -7.530901e+000 98 79 64
2.111445e+000 -1.894883e+000 -7.573489e+000 100 77 63
-4.653999e+000 -3.633950e+000 -6.914018e+000 84 67 55
4.850574e+000 -1.971682e+000 -6.936990e+000 57 32 28
7.494044e+000 -2.465827e+000 -7.698249e+000 143 126 109
2.154502e+000 -3.867469e+000 -7.310786e+000 148 129 129
2.831827e+000 -4.751236e+000 -8.233787e+000 129 116 117
4.987243e+000 -3.853972e+000 -6.861764e+000 44 27 29
-1.484178e+000 -8.686012e-001 -5.628120e+000 212 203 121
1.146575e+000 -1.799276e+000 -7.499481e+000 31 34 27
1.146575e+000 -1.799276e+000 -7.499481e+000 31 34 27
1.499551e+000 -1.802490e+000 -7.638682e+000 39 27 22
4.015942e+000 -1.212226e+000 -7.354883e+000 124 111 110
1.379987e+000 -2.037270e+000 -7.108337e+000 105 84 63
6.299467e+000 -1.227933e+000 -7.323265e+000 129 104 75
2.494982e+000 -5.211821e+000 -8.199935e+000 136 128 126
4.138269e+000 -5.313904e+000 -7.404598e+000 59 63 79
-1.307678e+000 -5.472861e+000 -5.451384e+000 205 193 109
-3.399352e-001 -6.209173e+000 -5.221249e+000 117 96 69
6.659450e-002 -1.596122e+000 -7.103129e+000 33 20 23
3.200101e+000 -1.243108e+000 -7.423616e+000 52 32 29
6.806543e+000 -6.038274e-001 -7.585091e+000 147 106 49
-1.330312e+000 -1.983679e+000 -5.566543e+000 90 98 100
-1.968630e-001 -1.901599e+000 -5.788171e+000 33 25 24
-3.544922e+000 -3.032078e+000 -6.945733e+000 193 175 103
1.350560e+000 -3.260357e+000 -7.325024e+000 34 22 16
4.522728e+000 -2.972641e+000 -7.385583e+000 125 67 57
2.874475e+000 -4.866201e+000 -8.259834e+000 38 27 31
4.503991e+000 -4.365671e+000 -7.382793e+000 58 38 39
4.695967e+000 -4.791525e+000 -7.116931e+000 151 148 141
9.727608e+000 -6.031075e+000 -8.267862e+000 121 78 48
9.712870e+000 -6.081340e+000 -8.092019e+000 179 141 79
-1.195406e+000 -5.927907e-001 -5.491284e+000 227 132 130
4.025916e+000 -3.207344e-001 -7.651903e+000 61 87 104
-1.374942e+000 -1.389499e+000 -5.617379e+000 212 116 120
4.364090e+000 -7.692243e-001 -7.515756e+000 122 64 54
3.175195e+000 -1.402320e+000 -7.098232e+000 59 32 31
2.838431e+000 -1.764820e+000 -7.877270e+000 57 27 27
4.295775e+000 -2.978234e+000 -7.530211e+000 65 46 41
3.042240e+000 -3.634838e+000 -7.723191e+000 42 23 22
3.056052e+000 -3.665171e+000 -7.806326e+000 42 23 22
2.992961e+000 -3.816245e+000 -7.787141e+000 135 93 55
4.235272e+000 -5.341292e+000 -7.303636e+000 53 41 40
4.672530e+000 -5.878134e+000 -7.130145e+000 172 104 67
-4.517087e-001 -5.950697e+000 -4.952874e+000 39 25 16
5.003314e+000 1.496318e-001 -7.225434e+000 146 127 113
6.737103e+000 1.367550e-001 -7.780176e+000 147 132 109
6.722506e-001 -1.708360e+000 -7.587168e+000 98 81 55
6.722506e-001 -1.708360e+000 -7.587168e+000 98 81 55
1.742693e+000 -1.655374e+000 -7.939907e+000 86 66 57
2.095007e+000 -1.486785e+000 -8.205176e+000 42 24 20
1.228359e+000 -1.911979e+000 -7.394623e+000 104 82 59
1.228359e+000 -1.911979e+000 -7.394623e+000 104 82 59
9.153947e-001 -2.001474e+000 -6.915902e+000 98 72 55
-6.708838e-001 -2.505433e+000 -5.444441e+000 66 48 38
1.798262e+000 -2.877372e+000 -6.899733e+000 152 110 60
1.805764e+000 -2.897453e+000 -6.961468e+000 152 110 60
3.037640e+000 -3.319034e+000 -7.579813e+000 138 126 132
8.480054e+000 -2.845106e+000 -8.062540e+000 51 41 32
8.513319e+000 -2.859165e+000 -8.101351e+000 51 41 32
4.155248e+000 -4.240913e+000 -7.296268e+000 87 76 74
5.539136e+000 -4.805074e+000 -6.948063e+000 142 68 58
4.495996e+000 -6.155699e+000 -7.575123e+000 102 82 51
9.365357e+000 -6.024067e+000 -8.105542e+000 78 50 36
-1.544787e+000 -1.023391e+000 -5.655404e+000 208 192 111
4.058497e+000 -1.045133e+000 -7.701368e+000 98 86 89
2.900261e+000 -2.241595e+000 -7.274971e+000 79 54 44
1.604962e+000 -3.364708e+000 -6.983724e+000 39 21 17
6.695113e+000 -3.297853e+000 -7.412046e+000 146 71 48
-1.204357e-001 -5.732976e+000 -5.535106e+000 27 19 22
-1.204357e-001 -5.732976e+000 -5.535106e+000 27 19 22
-2.600301e-001 -6.112878e+000 -5.371090e+000 24 19 25
7.680358e+000 -5.770749e+000 -7.528308e+000 146 126 109
2.705862e+000 -2.441069e+000 -7.461639e+000 23 14 15
-1.412484e-001 -5.414555e+000 -5.537571e+000 40 66 82
4.452564e+000 -4.023220e-001 -7.195655e+000 147 150 151
-9.028479e-001 -1.565370e+000 -5.246226e+000 214 118 120
-1.139729e+000 -1.995954e+000 -5.458168e+000 68 79 82
-2.078199e-001 -2.833027e+000 -5.628391e+000 36 62 79
-8.792193e-001 -3.366101e+000 -5.144472e+000 211 119 119
3.054738e+000 -5.097675e+000 -8.418437e+000 35 30 27
-4.958203e-001 -5.205376e+000 -5.217028e+000 54 39 34
-1.068728e+000 -7.568401e-001 -5.422875e+000 210 110 111
-2.636675e-001 -9.611774e-001 -5.825282e+000 46 69 92
-2.636675e-001 -9.611774e-001 -5.825282e+000 46 69 92
4.220470e+000 -5.244303e+000 -7.276009e+000 56 51 56
-7.568691e-001 -5.804529e-001 -6.793333e+000 40 46 47
2.421159e+000 -2.789018e+000 -7.601699e+000 32 10 12
-4.223017e-001 -4.105716e+000 -9.217814e+000 53 78 98
1.881542e+000 -2.633995e+000 -9.003830e+000 66 35 16
4.413309e+000 -2.442238e-001 -7.477725e+000 154 135 120
4.162589e+000 -6.895048e-001 -7.508128e+000 118 88 76
-2.001841e+000 -2.266087e+000 -5.947311e+000 231 225 168
1.628227e+000 -4.430963e+000 -7.423106e+000 138 124 123
4.605597e+000 -4.491721e+000 -7.189931e+000 156 122 111
6.628033e+000 -5.176282e+000 -7.215367e+000 146 65 44
4.686752e+000 -5.571406e+000 -7.025604e+000 156 87 62
4.865858e+000 -3.336386e+000 -6.898084e+000 64 37 28
4.439140e+000 -6.264420e+000 -8.047993e+000 99 68 44
4.962466e+000 -2.054029e+000 -7.057755e+000 146 61 56
4.582443e+000 -2.909910e+000 -7.292716e+000 143 135 133
4.760240e+000 -4.334667e+000 -6.751250e+000 142 118 90
4.760240e+000 -4.334667e+000 -6.751250e+000 142 118 90
4.718053e+000 -5.049209e+000 -6.835528e+000 67 46 29
-5.936829e+001 -5.385750e+000 -1.143405e+002 167 163 116
-5.856821e+001 -7.524548e+000 -1.130664e+002 169 164 119
6.665725e+000 -4.978081e+000 -7.254857e+000 136 96 65
5.686635e+000 -5.705679e+000 -6.991392e+000 144 57 48
-5.905250e+001 -8.715027e+000 -1.133897e+002 143 129 99
-3.991152e+001 -9.769162e+000 -1.162449e+002 126 123 109
-3.641634e+001 -2.458725e+001 -1.117112e+002 127 112 93
-5.241324e+001 -1.397653e+001 -1.113552e+002 110 115 118
-5.241324e+001 -1.397653e+001 -1.113552e+002 110 115 118
5.396731e+000 -4.370360e+000 -6.797100e+000 150 119 101
-4.023456e+001 -1.913284e+001 -1.160169e+002 121 92 92
-3.748230e+001 -1.721185e+001 -1.146018e+002 137 137 102
-4.965421e+001 -9.377019e+000 -1.157838e+002 70 84 106
4.527875e+000 -4.294961e+000 -7.314930e+000 95 63 54
-5.123789e+001 -1.294025e+001 -1.132873e+002 108 111 115
-5.123789e+001 -1.294025e+001 -1.132873e+002 108 111 115
-5.279448e+001 -1.594052e+001 -1.129513e+002 159 166 172
-5.279448e+001 -1.594052e+001 -1.129513e+002 159 166 172
-5.046175e+001 -1.775537e+001 -1.119721e+002 143 86 92
-5.280782e-001 -1.408840e+000 -8.855704e+000 39 27 27
-5.419485e+001 -8.261346e+000 -1.108045e+002 129 150 168
-6.006298e+001 -9.207132e+000 -1.170952e+002 143 128 99
-5.604984e+001 -1.666273e+001 -1.137347e+002 160 170 173
-4.921808e+001 -1.953237e+001 -1.130381e+002 163 168 171
-4.585045e+001 -1.329414e+001 -1.120939e+002 152 56 68
-5.041542e+001 -1.572988e+001 -1.149667e+002 159 164 168
-3.943083e+001 -2.265939e+001 -1.116499e+002 55 100 148
3.922334e+000 -2.633635e+000 -5.548199e+000 146 104 90
-9.183570e-001 -3.395517e+000 -5.103539e+000 244 183 178
7.656270e+000 -4.318984e+000 -7.625861e+000 131 101 83
-1.924753e+000 -5.632241e+000 -8.798396e+000 216 124 127
-1.371379e+000 -2.063052e+000 -5.692643e+000 219 123 124
-7.659269e-001 -2.656494e+000 -5.696243e+000 68 75 75
2.028197e+000 -3.755101e+000 -7.090934e+000 147 110 66
4.765059e+000 -2.097335e-002 -7.177661e+000 71 43 29
4.127058e+000 -5.746198e-001 -7.429626e+000 64 39 35
-1.156067e+000 -2.771636e+000 -5.259918e+000 221 119 112
-1.391724e+000 -3.146836e+000 -5.479004e+000 224 199 117
3.250846e+000 -1.488368e+000 -7.128960e+000 146 55 73
-1.027565e+000 -2.755915e+000 -5.094827e+000 79 91 94
6.617037e+000 -5.257511e+000 -7.166708e+000 148 117 99
-2.316877e-001 -1.259542e+000 -6.049257e+000 36 26 25
-5.456592e+001 -3.716320e+001 -1.083048e+002 147 131 102
-4.356363e+001 -4.782940e+001 -1.079408e+002 142 106 120
-5.370468e+001 -5.174613e+001 -1.104661e+002 153 111 95
-6.089393e+001 -3.839912e+000 -1.139618e+002 166 160 124
-5.725575e+001 -4.273520e+000 -1.090962e+002 142 128 101
-5.729134e+001 -3.928815e+001 -1.087326e+002 176 167 170
-5.502444e+001 -3.869461e+001 -1.068694e+002 153 113 114
-3.962597e+001 -3.867912e+001 -1.145980e+002 67 124 160
-5.469957e+001 -4.052133e+001 -1.082090e+002 167 166 138
-3.890149e+001 -4.325658e+001 -1.201674e+002 158 161 166
-5.241676e+001 -4.771410e+001 -1.090517e+002 132 102 97
-5.999732e+001 7.674531e+000 -1.120565e+002 148 152 153
-6.094780e+001 2.932764e+000 -1.127994e+002 157 166 168
-5.865946e+001 1.406194e+000 -1.124541e+002 109 117 120
1.266035e+000 -1.969365e+000 -7.038317e+000 107 80 63
-5.777406e+001 -3.692120e+001 -1.058236e+002 173 162 141
-5.642833e+001 -3.643419e+001 -1.078605e+002 173 164 133
-5.918134e+001 -3.950273e+001 -1.060027e+002 173 169 137
-5.918134e+001 -3.950273e+001 -1.060027e+002 173 169 137
-5.412722e+001 -3.848048e+001 -1.082815e+002 200 201 170
-5.803425e+001 -4.005205e+001 -1.069042e+002 150 114 114
-5.840468e+001 -4.240243e+001 -1.079866e+002 176 167 136
-5.671754e+001 -4.299399e+001 -1.094286e+002 171 165 133
-5.455590e+001 -4.350297e+001 -1.140925e+002 157 159 116
-4.087975e+001 -4.049464e+001 -1.108563e+002 161 170 174
-5.282723e+001 -4.597988e+001 -1.074537e+002 169 152 158
-4.790902e+001 -4.434753e+001 -1.024318e+002 157 144 136
-4.790902e+001 -4.434753e+001 -1.024318e+002 157 144 136
-4.063789e+001 -4.886190e+001 -1.120107e+002 158 161 166
-5.664906e+001 -4.916063e+001 -1.064612e+002 105 97 80
-5.591368e+001 2.145165e+000 -1.148997e+002 113 118 121
-5.478888e+001 7.796215e-002 -1.133012e+002 159 165 165
-4.639020e+001 -4.053443e+001 -1.095683e+002 149 151 112
-5.355450e+001 -4.508507e+001 -1.103690e+002 139 120 88
-4.569832e+001 -4.820802e+001 -1.092991e+002 164 137 142
4.781026e+000 -2.115185e+000 -6.918262e+000 75 47 37
-2.600699e-001 -2.548948e+000 -5.675365e+000 35 27 28
-4.629529e+001 -4.055372e+001 -1.145278e+002 140 126 93
-3.573718e+001 -3.937457e+001 -1.147358e+002 174 172 175
-5.891002e+001 -4.542892e+001 -1.109224e+002 135 120 89
-3.890711e+001 -3.995039e+001 -1.123508e+002 79 128 160
-3.890711e+001 -3.995039e+001 -1.123508e+002 79 128 160
-4.801086e+001 -4.665478e+001 -1.149527e+002 136 121 90
-5.017434e+001 2.454802e+000 -1.127185e+002 149 159 161
6.745106e+000 -4.205631e+000 -7.380210e+000 145 122 104
4.525566e+000 -6.161323e-001 -7.219425e+000 58 39 33
1.593206e+000 -4.242285e+000 -7.458857e+000 133 104 76
5.343894e+000 -2.523930e+000 -7.132474e+000 144 55 48
1.524589e+000 -4.116980e+000 -7.378871e+000 135 75 48
-1.523736e+000 -5.417094e+000 -7.365233e+000 204 124 120
-2.150574e-001 -5.626185e+000 -5.478994e+000 25 26 22
-1.719089e+000 -1.731436e+000 -5.903490e+000 223 217 153
6.538498e+000 -1.282460e+000 -7.590831e+000 153 125 103
4.440096e+000 -3.596216e+000 -7.295478e+000 120 108 110
1.194582e+000 -5.061815e+000 -7.659465e+000 144 133 139
4.601831e+000 -1.555856e+000 -7.096934e+000 130 109 84
5.092927e+000 -4.638676e+000 -6.406459e+000 148 58 51
-4.550562e+001 3.624179e+000 -1.155921e+002 122 130 132
-5.850631e+001 -4.808072e+000 -1.200633e+002 118 149 169
-1.149302e+000 -5.539272e-001 -5.521795e+000 83 100 100
4.018474e+000 6.072098e-002 -8.603409e+000 120 100 75
5.383401e+000 -7.061940e-001 -7.322455e+000 151 129 112
-1.309463e+000 -2.851797e+000 -5.474979e+000 210 131 126
7.355585e-001 -4.366834e+000 -7.214320e+000 136 117 113
1.668326e+000 -4.470638e+000 -7.624216e+000 144 132 134
1.317104e+001 -1.245438e+001 -3.849589e+001 151 114 101
1.191464e+001 -1.119253e+001 -3.343851e+001 127 73 59
1.857440e+000 -7.480037e-001 6.142086e-002 35 29 25
4.578746e+000 -1.419513e+000 -7.053402e+000 120 102 78
4.880229e+000 -2.409966e+000 -6.893601e+000 62 35 27
2.326123e+000 -3.644949e+000 -7.188054e+000 158 128 116
4.942931e+000 -3.368527e+000 -6.833970e+000 68 43 36
4.121748e+000 -5.684832e-001 -7.412521e+000 77 46 41
-5.910590e+001 -2.097858e+001 -1.118964e+002 122 107 85
2.206234e+001 -2.465642e+001 -6.476203e+001 113 87 62
6.719514e+000 -5.122670e+000 -7.251812e+000 147 75 51
1.957058e+001 -9.353724e+000 -3.944506e+001 139 105 80
2.496522e+000 -4.923029e+000 -8.119773e+000 144 130 130
-5.831508e+001 -3.576957e+000 -1.165746e+002 131 151 159
-4.456498e+001 -1.582749e+001 -1.118405e+002 161 107 69
-4.840945e+001 -5.378171e+000 -1.185740e+002 158 169 173
4.367908e+000 -2.369710e-001 -7.393819e+000 153 84 70
-1.836657e+000 -2.344555e+000 -5.933024e+000 228 222 162
4.650457e+000 -2.070712e+000 -6.902672e+000 80 50 39
-4.899678e+000 -3.297077e+000 -6.587664e+000 155 129 112
-4.544724e+000 -3.522617e+000 -6.784473e+000 73 53 45
4.764354e+000 -4.219997e+000 -6.756441e+000 158 134 108
4.791546e+000 -5.204824e+000 -6.689995e+000 68 45 27
4.317457e+000 -5.375298e+000 -6.834255e+000 71 90 103
4.313555e+000 -1.213092e+000 -7.489590e+000 132 107 102
-1.926560e+000 -3.068882e+000 -5.899743e+000 227 228 194
-4.565875e+000 -3.563334e+000 -6.827775e+000 115 95 88
8.785399e-001 -4.074559e+000 -7.036537e+000 142 89 55
4.520382e+000 -4.346210e+000 -7.217599e+000 85 39 36
4.485992e+000 -6.546423e-001 -7.273041e+000 61 52 37
4.522521e+000 -1.836042e+000 -7.101448e+000 82 57 46
-4.451768e+000 -3.399339e+000 -6.805026e+000 65 43 37
-4.451768e+000 -3.399339e+000 -6.805026e+000 65 43 37
1.699504e+000 -3.394816e+000 -6.841367e+000 152 130 116
-5.066108e+000 -3.628183e+000 -7.148145e+000 74 55 71
-4.548683e+000 -3.684199e+000 -7.059406e+000 72 54 44
2.512701e+000 -3.454640e+000 -7.218583e+000 144 130 119
5.012740e+000 -3.709339e+000 -6.944614e+000 71 46 33
4.972518e+000 -3.837635e+000 -6.818361e+000 52 34 27
1.934386e+000 -4.054272e+000 -7.429342e+000 136 98 55
2.136681e+000 -4.251119e+000 -7.647222e+000 129 119 117
4.323657e-001 -4.707342e+000 -7.186268e+000 37 24 28
4.737281e+000 -5.215060e+000 -6.839628e+000 52 35 24
5.068589e+000 -5.861185e+000 -6.566542e+000 70 41 27
4.529006e+000 -6.080306e+000 -7.567449e+000 87 68 35
3.182635e+000 -3.144458e-001 -1.086675e+001 131 98 55
3.182635e+000 -3.144458e-001 -1.086675e+001 131 98 55
5.613915e-001 -2.027959e+000 -1.024931e+001 79 62 63
-4.392732e+000 -3.682682e+000 -7.176016e+000 78 57 52
-1.280593e+000 -3.837129e+000 -5.472265e+000 83 81 88
2.593841e+000 -3.561941e+000 -7.350276e+000 156 129 118
4.642072e+000 -3.493957e+000 -7.283650e+000 150 135 147
2.139083e+000 -3.821714e+000 -7.139349e+000 147 126 115
3.474763e+000 -4.662018e+000 -6.986978e+000 140 51 69
2.045940e+000 -4.989818e+000 -7.933616e+000 148 132 132
4.566452e+000 -4.832588e+000 -7.156862e+000 118 63 53
6.884390e+000 -4.970509e+000 -7.417349e+000 147 116 97
4.126785e+000 1.836804e-001 -8.101511e+000 136 105 77
4.136732e+000 -2.704417e-001 -7.643614e+000 89 42 33
4.267162e+000 -1.608038e+000 -7.585582e+000 67 45 47
6.550420e+000 -3.161977e+000 -7.381947e+000 140 121 106
-4.004839e+000 -3.547296e+000 -7.265719e+000 72 58 47
4.658391e-001 -4.102408e+000 -7.037120e+000 113 84 61
3.632368e-001 -4.326882e+000 -6.976132e+000 107 69 48
3.733320e+000 -4.238901e+000 -6.949983e+000 32 19 26
-5.794409e-001 -5.477002e+000 -5.000074e+000 71 75 78
2.970345e+000 -6.590745e+000 -1.218959e+001 186 126 72
-4.027309e+000 -3.424340e+000 -6.782055e+000 70 50 43
-3.763143e+001 -2.250486e+001 -1.116241e+002 43 102 148
8.180212e+000 -2.233930e-002 -8.192118e+000 133 68 44
5.194540e+000 -1.058681e+000 -7.143957e+000 140 113 96
8.090955e+000 -1.496265e+000 -8.285295e+000 53 38 33
4.434224e+000 -2.071053e+000 -7.347634e+000 122 67 57
-1.332485e+000 -1.538257e+000 -5.459816e+000 219 111 111
-3.904414e+000 -3.713320e+000 -7.157255e+000 160 166 166
4.184309e+000 -5.316066e+000 -7.185031e+000 49 43 45
-3.622144e+001 -1.057313e+001 -1.197885e+002 144 140 132
-3.394948e+001 -1.979554e+001 -1.132179e+002 50 99 142
-3.394948e+001 -1.979554e+001 -1.132179e+002 50 99 142
7.085605e+000 -9.870511e-002 -7.602908e+000 140 115 93
4.191755e+000 -9.647242e-001 -7.533413e+000 59 37 34
3.900409e+000 -1.445427e+000 -7.527493e+000 44 36 33
8.256539e+000 -1.514603e+000 -8.109762e+000 141 65 49
1.899217e+000 -4.912366e+000 -7.869877e+000 143 128 131
-2.146587e-001 -3.492071e+000 -5.621550e+000 46 65 80
-2.146587e-001 -3.492071e+000 -5.621550e+000 46 65 80
-3.935215e+001 -1.368072e+001 -1.182507e+002 146 155 160
2.503118e+000 -4.656700e+000 -7.602778e+000 138 122 125
6.285092e+000 -2.593117e+000 -6.873676e+000 142 121 105
4.369996e+000 -6.566683e-001 -7.471565e+000 145 115 103
5.895680e-001 -1.586859e+000 -7.872963e+000 104 61 41
3.650487e+000 -1.186702e+000 -7.247125e+000 121 61 73
2.483301e-001 -1.893094e+000 -7.034602e+000 101 63 50
2.197812e+000 -1.911733e+000 -7.603022e+000 88 65 62
2.197812e+000 -1.911733e+000 -7.603022e+000 88 65 62
4.500335e+000 -1.335124e+000 -7.183603e+000 77 56 39
4.091634e+000 -2.156879e+000 -7.747635e+000 92 73 66
-9.288832e-001 -5.651320e+000 -1.332429e+001 21 20 26
-1.113580e+000 -5.862778e-001 -5.421970e+000 206 124 123
5.112311e+000 1.605729e-001 -7.286220e+000 144 128 110
6.024595e+000 1.899378e-001 -7.531851e+000 80 59 35
-4.374725e+000 -2.994326e+000 -7.311721e+000 125 116 99
-4.374725e+000 -2.994326e+000 -7.311721e+000 125 116 99
-6.102646e+000 -3.360547e+000 -6.588642e+000 62 46 30
4.191052e+000 -2.152630e+000 -7.767905e+000 85 68 61
4.627067e+000 -5.051297e+000 -7.169040e+000 142 101 89
7.447614e+000 -7.000013e-001 -7.977805e+000 150 133 115
-4.186130e+000 -3.248884e+000 -6.866566e+000 54 41 35
4.563239e+000 -4.795729e+000 -7.310280e+000 135 115 114
-4.042764e+000 -3.130430e+000 -6.828724e+000 61 41 32
-1.374361e+000 -2.914703e+000 -5.442353e+000 211 191 113
4.627465e+000 -4.946547e+000 -7.166181e+000 120 71 53
8.960865e+000 -6.064081e+000 -7.742178e+000 193 149 84
7.152667e+000 -2.031295e+000 -7.700401e+000 132 108 80
5.161161e+000 -6.323124e+000 -6.717516e+000 182 143 74
-9.762852e-001 -5.469414e-001 -5.398694e+000 73 80 86
3.694318e+000 -3.659867e+000 -6.918429e+000 41 27 27
3.014606e+000 -3.750624e-001 -1.183362e+001 58 42 26
-2.543250e+000 -1.686247e+000 -6.482847e+000 182 155 134
1.861760e-001 -1.806855e+000 -7.233738e+000 89 73 55
1.541275e+000 -1.666175e+000 -7.984906e+000 36 22 13
-4.335536e+000 -2.985679e+000 -7.340344e+000 53 42 33
4.386029e-001 -1.805866e+000 -7.288029e+000 23 17 11
1.308121e+000 -1.798705e+000 -7.568915e+000 113 68 64
-2.015331e+000 -2.252702e+000 -6.014941e+000 223 222 164
4.533391e+000 -1.475593e+000 -7.244741e+000 78 67 51
1.622427e+000 -2.061094e+000 -7.040642e+000 33 19 10
-2.555818e+000 -3.035167e+000 -6.312356e+000 221 213 141
-6.603173e-001 -2.519760e+000 -5.159116e+000 57 39 31
7.864502e-001 -3.942630e+000 -7.008829e+000 108 60 37
4.517052e+000 -3.593788e+000 -7.364650e+000 104 60 50
-8.192066e-001 7.365578e-003 -5.510744e+000 148 143 116
4.589793e+000 2.622476e-002 -7.064464e+000 61 39 26
-8.736637e-001 -1.415479e+000 -5.256108e+000 66 89 92
3.686431e+000 -1.168840e+000 -7.169944e+000 32 23 21
4.311750e+000 -1.178389e+000 -7.453561e+000 112 99 98
-3.127386e+000 -2.933478e+000 -6.677153e+000 218 215 146
2.930689e+000 -2.211155e+000 -7.256920e+000 104 81 75
4.785091e+000 -2.339863e+000 -6.960154e+000 64 41 33
4.797710e+000 -2.336720e+000 -6.826834e+000 88 60 57
4.925802e+000 -2.471776e+000 -7.023534e+000 60 35 27
1.696175e+000 -3.386598e+000 -6.835503e+000 148 135 118
4.919302e+000 -3.787445e+000 -6.848123e+000 80 63 46
4.514465e+000 -4.383855e+000 -7.242655e+000 125 107 108
-1.293014e-001 -6.364061e+000 -8.305596e+000 39 28 28
-1.294984e+000 -5.534788e+000 -5.656945e+000 204 112 113
9.347915e+000 -6.163260e+000 -8.288435e+000 145 85 58
4.054865e+000 -1.115367e-002 -8.513894e+000 49 39 20
4.406083e+000 -2.641070e-001 -7.378744e+000 152 147 147
1.628990e+000 -2.075930e+000 -7.017607e+000 36 23 16
1.627517e+000 -2.075994e+000 -7.017485e+000 36 23 16
4.024601e+000 -2.044744e+000 -7.735490e+000 63 48 47
3.673037e+000 -5.175039e-001 -2.735134e+000 142 54 53
4.727363e+000 -1.973234e+000 -6.923293e+000 58 34 29
4.882485e+000 -2.260534e+000 -6.959328e+000 61 42 34
4.938081e+000 -2.908685e+000 -6.959060e+000 63 35 34
3.461168e+000 -4.027898e+000 -8.066508e+000 29 23 24
1.618144e+001 -1.139029e+001 -2.827578e+001 139 70 42
3.079808e-001 -4.824577e+000 -7.270309e+000 117 80 61
1.732851e+000 -4.999015e+000 -7.836242e+000 147 141 141
4.981861e+000 -3.850835e+000 -6.848952e+000 43 24 21
5.076318e+000 -5.785981e+000 -6.634191e+000 70 44 34
3.805468e+000 -8.204512e-002 -9.264795e+000 56 40 25
4.563126e+000 -1.140619e+000 -7.066776e+000 121 100 78
1.592457e+000 -2.019809e+000 -7.108495e+000 100 79 57
3.557283e+000 -1.681524e+000 -7.246737e+000 139 55 78
2.312277e+000 -3.404154e+000 -7.045780e+000 146 132 132
9.064966e-001 -5.081631e+000 -7.593901e+000 38 33 37
1.274678e-001 -5.472816e+000 -5.698646e+000 39 24 27
4.659696e+000 -5.475562e+000 -7.121726e+000 112 73 61
9.624578e+000 -6.109596e+000 -8.255064e+000 153 120 68
5.014785e+000 -6.261136e+000 -6.626897e+000 181 152 82
5.447823e+000 -6.136695e+000 -6.695179e+000 140 57 51
-1.583853e+000 -6.297538e-001 -5.847523e+000 58 66 66
4.479082e+000 -1.493923e+000 -7.294144e+000 137 134 133
3.798422e+000 -2.862512e+000 -7.583447e+000 47 32 29
5.487888e+000 -3.267222e+000 -6.985064e+000 147 131 112
6.732702e+000 -3.140806e+000 -7.392783e+000 144 80 45
9.098026e+000 -3.704385e+000 -8.179215e+000 81 55 44
9.098026e+000 -3.704385e+000 -8.179215e+000 81 55 44
4.663164e+000 -4.261938e+000 -7.160422e+000 143 143 146
-1.276673e+000 -5.258673e+000 -5.623733e+000 209 114 117
8.563497e+000 -4.559554e+000 -7.864440e+000 51 36 30
1.327016e+000 -2.190749e+000 -6.670808e+000 80 72 69
4.496578e+000 -3.279222e+000 -7.728056e+000 118 110 118
8.517547e+000 -2.859976e+000 -8.100627e+000 48 37 28
6.245569e-001 -4.542737e+000 -7.275672e+000 121 112 110
9.594923e+000 -3.537155e+000 -8.324641e+000 143 113 64
1.404502e+000 -5.201504e+000 -7.857932e+000 141 137 137
7.627446e+000 -4.228946e+000 -7.664379e+000 145 128 113
2.476083e+000 -1.944174e+000 -7.464981e+000 100 76 64
3.040460e+000 -3.334425e+000 -7.606242e+000 130 121 126
-8.923318e-001 -3.720244e-001 -5.537266e+000 65 79 81
-1.719569e+000 -7.699042e-001 -6.024625e+000 183 123 95
5.202722e+000 -6.215738e-001 -7.174824e+000 140 59 56
1.609229e+000 -1.955872e+000 -7.499241e+000 99 81 61
1.961837e+000 -1.859236e+000 -7.622783e+000 90 71 58
1.961837e+000 -1.859236e+000 -7.622783e+000 90 71 58
5.443739e+000 -4.392780e+000 -6.870680e+000 137 120 100
-1.496812e-001 -5.151041e+000 -5.639646e+000 28 22 22
8.501748e+000 -4.583838e+000 -7.924134e+000 48 38 29
9.683928e+000 -4.749600e+000 -8.145841e+000 141 114 64
9.944967e+000 -5.850483e+000 -8.378344e+000 156 127 72
6.256659e-001 -5.023078e+000 -7.435013e+000 132 128 130
9.881033e+000 -5.340871e+000 -8.352613e+000 156 129 73
9.677939e+000 -6.297168e+000 -8.183511e+000 182 144 81
5.220766e-002 -3.167316e+000 -5.750138e+000 42 69 97
-1.947953e-001 -3.471496e+000 -5.627166e+000 40 68 88
-1.059114e+000 -3.838860e+000 -5.349895e+000 70 82 86
8.506233e+000 -3.290781e+000 -7.984235e+000 140 72 53
9.139746e+000 -3.451493e+000 -8.025496e+000 75 45 34
8.669237e+000 -4.188141e+000 -7.870254e+000 138 70 51
8.561185e+000 -5.029022e+000 -7.798404e+000 146 76 51
9.571815e+000 -5.761954e+000 -8.334689e+000 73 51 37
8.091828e+000 -4.344136e+000 -7.817395e+000 48 39 34
-5.557495e-001 -4.859767e+000 -5.313814e+000 57 44 36
5.291872e+000 -2.733328e+000 -6.963919e+000 139 113 100
-1.499679e-002 -1.683348e+000 -9.950592e+000 47 37 40
-3.289795e+000 -2.091723e+000 -8.083772e+000 89 107 107
-3.355930e+000 -2.201898e+000 -7.886639e+000 98 118 119
-3.216452e+000 -2.162864e+000 -7.567820e+000 98 122 123
7.610083e+000 -7.350962e-003 -8.454252e+000 140 137 132
-3.872176e+000 -2.983992e+000 -6.735414e+000 89 72 64
4.599188e+000 -1.067509e+000 -7.611118e+000 69 49 44
-3.342141e+000 -3.019969e+000 -6.714140e+000 196 199 143
-2.137849e+000 -2.363717e+000 -6.065998e+000 207 219 183
-2.137849e+000 -2.363717e+000 -6.065998e+000 207 219 183
-5.625351e-002 -3.712279e+000 -5.440462e+000 43 77 106
1.304248e+000 -4.662432e+000 -7.505272e+000 148 102 112
-1.217867e+000 -5.101782e+000 -5.215357e+000 211 109 133
-2.281718e+000 -5.272516e-001 -9.503111e+000 59 68 78
2.335539e+000 -9.160065e-001 -1.199736e+001 103 65 62
3.225886e+000 -5.311557e-001 -1.183550e+001 94 71 53
-1.452552e+000 -6.056898e-001 -5.885822e+000 107 111 115
-1.452552e+000 -6.056898e-001 -5.885822e+000 107 111 115
-6.856277e-001 -1.252160e-001 -5.384703e+000 54 41 33
4.358946e+000 1.398979e-001 -7.943606e+000 160 106 68
2.166430e+000 -1.222691e+000 -9.928242e+000 45 22 21
3.621377e+000 -5.387041e-001 -9.018020e+000 90 77 69
4.545527e+000 -1.524059e-001 -7.657983e+000 154 107 90
2.795782e+000 -1.913836e+000 -8.353383e+000 86 71 59
4.613554e+000 -1.969609e+000 -7.061341e+000 62 57 46
-2.456839e+000 -3.624028e+000 -6.144420e+000 212 219 165
2.545449e+000 -3.338792e+000 -6.994349e+000 51 42 36
4.991511e+000 -3.193061e+000 -7.233126e+000 75 59 51
-5.453287e-002 -4.163555e+000 -5.407392e+000 46 76 102
4.245441e+000 -5.084793e+000 -7.205690e+000 70 81 96
2.684740e+000 -5.545976e-001 -1.335524e+001 143 103 62
-1.448490e+000 -3.384495e-001 -6.567462e+000 172 179 99
-1.368934e+000 -5.189031e-001 -5.825418e+000 116 121 119
3.289178e+000 -5.335876e-001 -9.022039e+000 47 30 23
4.116999e+000 -2.799228e-002 -8.777238e+000 105 92 76
2.206414e+000 -1.065135e+000 -9.458078e+000 97 44 50
4.190526e+000 -1.408060e-001 -8.502502e+000 106 88 55
7.714668e+000 2.277147e-001 -9.879021e+000 124 118 94
-1.478882e+000 -1.188604e+000 -5.723809e+000 193 188 119
1.140859e+000 -1.791084e+000 -7.680641e+000 87 79 66
4.805556e+000 -3.814477e-001 -7.229312e+000 60 38 29
1.859680e+000 -1.926461e+000 -7.541144e+000 94 80 70
