ply
format ascii 1.0
element face 0
property list uchar int vertex_indices
element vertex 882
property float x
property float y
property float z
property uchar diffuse_red
property uchar diffuse_green
property uchar diffuse_blue
end_header
4.974020e-001 -5.166354e+000 -6.646873e+000 92 44 30
1.879557e+000 -6.101899e+000 -6.978269e+000 128 103 90
7.456028e+000 -5.874702e+000 -5.727969e+000 105 81 55
-4.890388e+000 -5.995737e+000 -2.810566e+000 64 98 111
1.753902e+000 -6.798685e+000 -7.853536e+000 117 93 83
-3.773086e+000 -7.739726e+000 -2.107516e+000 237 231 218
7.197193e+000 -9.366271e+000 -6.547722e+000 181 165 150
7.459752e+000 -9.780918e+000 -6.284250e+000 196 124 91
1.173941e+001 -1.172750e+001 -1.049078e+001 249 244 217
1.267063e+001 -1.197546e+001 -1.026347e+001 202 160 100
1.308617e+001 -1.209157e+001 -9.657640e+000 202 164 93
6.876756e+000 2.590463e+000 -6.826082e+000 178 96 56
8.798444e+000 4.800339e-001 -6.479367e+000 45 26 18
-4.989081e+000 -3.942657e+000 -3.062644e+000 79 102 109
8.960785e-001 -4.123546e+000 -6.276386e+000 108 80 69
1.902240e+000 -4.473316e+000 -6.120776e+000 119 92 75
4.963260e+000 -5.515243e+000 -8.331955e+000 35 21 21
1.484713e+000 -6.064130e+000 -7.220097e+000 116 91 84
-4.553613e+000 -5.584709e+000 -2.524859e+000 76 93 110
2.139859e+000 -6.835666e+000 -7.887472e+000 117 89 82
-1.441211e+000 -7.325916e+000 -7.000054e+000 44 19 17
-3.776934e+000 -7.744379e+000 -2.105416e+000 237 233 216
1.345084e+001 -1.169550e+001 -9.963415e+000 123 88 56
6.958783e+000 2.731570e+000 -6.164900e+000 194 156 73
-2.691711e+000 1.803803e+000 -3.407201e+000 103 73 63
6.784337e+000 2.784023e+000 -6.977386e+000 191 159 123
2.191475e+000 -4.186928e+000 -6.683080e+000 98 74 66
-8.305272e+000 -4.379971e+000 -5.178699e+000 105 168 203
2.524820e+000 -4.530433e+000 -6.624561e+000 41 22 16
8.004986e-001 -5.239627e+000 -6.690416e+000 107 55 43
-2.818054e+000 -5.624433e+000 -2.829450e+000 50 64 80
3.231252e+000 -7.864281e+000 -9.010421e+000 45 30 25
9.150320e+000 -7.950514e+000 -5.641759e+000 46 26 19
6.131979e+000 -1.029268e+001 -9.981297e+000 184 177 162
7.281450e+000 -9.515050e+000 -6.061657e+000 187 111 76
7.419737e+000 -9.191767e+000 -5.905495e+000 183 108 70
1.123963e+001 -9.922947e+000 -6.158119e+000 220 220 202
1.123963e+001 -9.922947e+000 -6.158119e+000 220 220 202
6.674321e+000 3.244156e+000 -7.489768e+000 181 108 72
9.442200e+000 3.054778e+000 -7.234666e+000 54 36 24
-3.662906e+000 -3.075033e-001 -2.191688e+000 93 159 194
9.115188e+000 -2.395100e+000 -6.255831e+000 41 27 16
7.092057e+000 -5.030942e+000 -6.450292e+000 138 75 44
-1.379707e+000 -5.644518e+000 -6.154502e+000 120 77 70
1.080466e+000 -6.916941e+000 -7.644857e+000 40 25 22
1.080466e+000 -6.916941e+000 -7.644857e+000 40 25 22
1.929630e+000 -6.807341e+000 -7.837208e+000 35 21 20
-4.834439e+000 -8.018822e+000 -2.680063e+000 101 162 209
7.644039e+000 -8.949192e+000 -5.340492e+000 188 109 66
1.285465e+000 -4.304996e+000 -6.270109e+000 34 16 15
-3.195022e+000 -5.417880e+000 -1.914453e+000 89 56 38
-3.422910e+000 2.387170e+000 -2.627794e+000 90 51 37
7.842434e+000 2.858141e+000 -6.607921e+000 120 67 28
-4.376453e+000 -3.524067e+000 -2.602660e+000 230 234 208
-4.756968e+000 -3.801002e+000 -2.907103e+000 227 230 211
3.301234e+000 -7.535483e+000 -8.689380e+000 110 86 81
1.459723e+001 -9.085780e+000 -7.617513e+000 139 94 53
-4.901166e+000 9.669917e-001 -3.230647e+000 232 232 205
6.609076e+000 2.104047e+000 -7.562235e+000 77 39 26
4.941605e+000 -1.561120e+000 -8.059281e+000 79 31 27
1.249721e+001 -2.171685e+000 -7.558661e+000 124 56 33
1.269445e+000 -5.736256e+000 -7.074965e+000 96 43 34
1.270911e+001 -5.927152e+000 -7.252230e+000 126 58 37
6.737133e-001 -7.381562e+000 -7.799918e+000 123 96 85
7.132805e+000 -7.894813e+000 -6.888302e+000 62 32 22
-2.706764e+000 -2.210142e+000 -3.308314e+000 55 71 87
4.910788e+000 -3.771611e-001 -6.213454e+000 121 37 46
5.190651e+000 -3.023886e+000 -8.437454e+000 78 55 41
-2.558829e+000 -4.955466e+000 -2.892171e+000 45 64 80
2.761177e+000 -6.876803e+000 -8.225157e+000 114 90 80
1.437623e+001 -9.558925e+000 -7.328658e+000 83 51 36
8.143547e+000 -9.631318e+000 -5.395474e+000 68 42 27
-3.061258e+000 -2.929985e+000 -3.068308e+000 49 58 65
-4.249807e+000 8.861660e-001 -2.926275e+000 219 183 97
-4.189419e+000 -1.522628e+000 -2.915881e+000 224 186 103
-4.073705e+000 -3.848783e+000 -2.652563e+000 221 184 103
5.720048e+000 -5.320094e+000 -5.445718e+000 44 21 15
-7.562542e+000 -2.139687e-001 -3.199098e+000 111 76 74
8.892686e+000 2.726826e-001 -6.530227e+000 133 87 43
-2.042615e+000 -5.273112e+000 -3.277759e+000 69 89 111
5.288319e+000 3.297166e+000 -1.076659e+001 87 54 39
5.517596e+000 3.180854e+000 -1.032945e+001 124 86 67
5.649414e+000 2.099295e+000 -9.667911e+000 88 40 26
-4.485259e+000 2.135451e-001 -2.932453e+000 91 159 211
7.733226e+000 1.402798e+000 -6.427034e+000 72 39 16
-4.559692e+000 -7.306600e+000 -2.638248e+000 84 154 206
3.369099e+000 2.594315e+000 -1.662640e+001 132 92 69
7.538910e+000 3.441831e+000 -6.313867e+000 63 30 20
-1.270395e+001 -3.266088e+000 -6.122691e+000 125 138 146
6.140428e+000 1.851031e+000 -6.738060e+000 77 89 98
-9.284577e+000 -3.198699e+000 -5.564926e+000 84 88 91
-1.106879e+000 -1.180874e+000 -5.833343e+000 115 49 46
7.057852e+000 5.423164e-001 -6.476043e+000 75 44 26
-8.308563e+000 -4.505634e+000 -5.131419e+000 83 157 209
1.629911e+001 -9.510134e+000 -8.482409e+000 175 109 92
1.424819e+001 3.706972e+000 -1.575200e+001 142 100 62
1.634305e+000 7.588194e-001 -9.966570e+000 120 83 56
-4.858696e+000 2.225151e+000 -2.978897e+000 100 89 81
-4.424021e+000 1.658079e+000 -3.083643e+000 136 120 94
-5.116802e+000 8.822662e-001 -3.619699e+000 129 120 104
1.910669e+000 -1.076451e+000 -7.652003e+000 107 40 40
-1.079528e+001 -4.643152e+000 -5.652434e+000 120 138 149
-4.256021e+000 2.443944e-001 -2.554166e+000 74 163 215
2.342133e+000 -4.339401e+000 -6.925885e+000 115 93 85
2.342133e+000 -4.339401e+000 -6.925885e+000 115 93 85
-4.501156e+000 -3.510179e+000 -3.043733e+000 79 166 211
1.745095e+000 -4.648784e+000 -6.369867e+000 55 31 29
6.376779e+000 -4.065529e+000 -7.360670e+000 74 40 27
1.637762e+001 -9.081567e+000 -8.348537e+000 165 72 63
2.358489e+000 1.520366e+000 -1.683789e+001 78 79 84
7.527022e+000 3.374782e+000 -1.587868e+001 141 81 46
1.184461e+001 3.714114e+000 -1.369853e+001 136 66 46
-4.565115e-001 9.134577e-001 -1.069558e+001 129 75 48
4.306069e+000 1.261092e+000 -1.289306e+001 58 34 30
5.716743e+000 3.015068e+000 -9.133362e+000 63 37 24
-1.247551e+001 -3.402141e+000 -6.312068e+000 120 136 143
5.052526e+000 5.284596e-001 -6.517684e+000 34 23 21
6.839976e+000 2.207549e-001 -6.886831e+000 145 78 59
3.754777e+000 -5.124769e+000 -7.952098e+000 118 89 67
-4.813429e+000 -3.872232e+000 -2.938452e+000 207 225 213
1.538141e+001 -3.233834e+000 -8.564129e+000 170 134 106
4.092404e+000 -9.163145e+000 -7.845184e+000 191 156 88
9.679975e+000 -7.102872e+000 -6.547611e+000 51 38 21
1.540458e+001 -6.500010e+000 -8.135721e+000 169 135 114
1.593581e+001 -7.966171e+000 -7.923213e+000 162 71 60
-1.701218e+000 -8.817934e+000 -3.448904e+000 66 97 125
1.415841e+001 -9.467638e+000 -7.821424e+000 169 132 113
2.099042e+000 1.665234e+000 -1.470736e+001 143 60 71
-4.934353e+000 2.322163e+000 -8.631651e+000 58 68 77
-1.446185e+000 6.259127e-001 -1.136834e+001 35 21 21
-6.593085e-001 9.131864e-001 -9.326209e+000 124 99 93
1.137739e+000 9.893970e-001 -1.035221e+001 42 25 24
4.523897e+000 1.955197e+000 -8.266019e+000 32 21 19
-3.939509e+000 2.183915e+000 -3.033275e+000 192 203 205
9.467591e+000 3.615624e+000 -6.815280e+000 79 46 30
-1.192175e+001 -3.356245e+000 -6.495974e+000 72 42 42
-1.132777e+001 -3.489564e+000 -5.908844e+000 64 41 44
1.002881e+000 -7.364758e-001 -7.444057e+000 42 26 26
1.002881e+000 -7.364758e-001 -7.444057e+000 42 26 26
4.001150e+000 -4.998542e+000 -7.746653e+000 49 29 25
5.120601e+000 -8.519964e+000 -8.589742e+000 43 28 25
1.698425e+001 -9.699296e+000 -8.669757e+000 80 44 36
-1.799979e+000 9.812852e-002 -1.170890e+001 74 53 56
6.806409e+000 3.429413e+000 -1.044005e+001 138 54 43
-1.069261e+001 -3.330414e+000 -6.893172e+000 120 136 143
3.513413e+000 -1.050420e+000 -7.623284e+000 108 83 77
7.352806e+000 -1.664297e-001 -5.873141e+000 146 96 48
-4.723797e+000 -4.029437e+000 -3.024231e+000 217 223 213
-2.537543e+000 -7.113918e+000 -3.022824e+000 40 33 41
6.722735e+000 -8.987737e+000 -6.609898e+000 78 97 117
9.761387e+000 -7.566823e+000 -6.432926e+000 158 107 53
1.101220e+001 3.202786e+000 -1.918273e+001 143 72 48
-5.992631e+000 2.464310e+000 -6.215221e+000 65 57 55
8.137937e+000 3.425650e+000 -7.748687e+000 125 47 37
6.439724e+000 4.230596e-001 -7.166699e+000 50 23 14
-3.959536e+000 -6.084709e-001 -2.661798e+000 82 161 208
-3.300741e+000 -2.564727e-001 -2.669931e+000 80 54 48
2.932734e+000 -4.269205e+000 -6.952352e+000 129 106 98
9.786808e+000 -1.532896e+000 -6.680213e+000 155 103 52
1.189079e+001 -8.783577e+000 -7.435175e+000 163 132 111
1.406014e+001 3.729155e+000 -1.713403e+001 155 110 59
3.504098e+000 5.499860e-001 -1.531182e+001 102 78 77
4.018262e+000 2.000720e+000 -8.663244e+000 128 41 47
8.224560e+000 3.819554e+000 -6.722688e+000 143 96 63
9.449719e+000 1.419454e+000 -6.850957e+000 139 88 42
9.449719e+000 1.419454e+000 -6.850957e+000 139 88 42
6.847959e+000 3.095683e+000 -6.557876e+000 185 179 170
-4.495065e+000 -5.453054e+000 -2.884187e+000 61 78 97
-4.775820e+000 1.988447e+000 -3.461180e+000 92 81 76
-9.130256e+000 -1.234688e+000 -5.024593e+000 221 187 115
4.959474e+000 -3.078416e-001 -6.670015e+000 133 46 59
4.774061e+000 -8.242147e+000 -9.246451e+000 187 172 144
-3.877584e+000 -4.145722e+000 -2.683929e+000 222 189 110
9.231743e+000 -7.623244e+000 -6.710044e+000 156 104 51
-3.982667e+000 -1.556259e+000 -2.678415e+000 224 191 112
5.884740e+000 -2.378511e+000 -7.148785e+000 80 48 43
2.307453e+000 -7.227350e+000 -6.833153e+000 191 153 88
4.543263e+001 1.934904e+001 -1.284987e+002 67 40 29
-4.112248e+000 -2.589160e-001 -6.259809e-002 57 62 71
2.404997e+000 -7.790674e+000 -8.051946e+000 141 130 136
7.115295e-001 -7.399510e+000 -7.856854e+000 144 130 137
8.465498e+000 -6.888180e+000 -2.227979e+001 28 22 22
-3.299014e-001 -7.259427e+000 -7.514288e+000 90 83 66
4.496293e+000 -1.041927e+001 -9.208425e+000 146 131 72
3.770088e+000 5.626149e-001 -8.957124e+000 93 82 60
-1.928598e+000 -8.051434e-001 -1.244773e+001 51 40 39
-5.685419e-001 -7.671900e+000 -7.463153e+000 34 32 27
-5.685419e-001 -7.671900e+000 -7.463153e+000 34 32 27
4.803420e+000 -5.293278e+000 -8.437668e+000 26 21 25
2.019666e+000 -3.751396e+000 -6.756942e+000 52 26 27
4.317680e+000 1.677684e+000 -1.026524e+001 163 156 105
-6.942672e+000 -2.437551e+000 3.914213e+000 189 219 234
-8.450663e+000 -3.901999e+000 1.703557e+000 89 91 105
-8.312981e+000 -4.137912e+000 1.715716e+000 134 134 144
-7.626753e+000 -2.657002e+000 -4.694093e+000 193 213 201
4.283494e-001 -5.581150e+000 -7.009903e+000 120 72 56
4.493224e-001 -5.549430e+000 -6.669164e+000 120 72 56
4.949008e-001 -6.717618e+000 -7.268681e+000 92 46 51
-3.250283e+000 -3.403533e+000 -2.461707e+000 63 54 47
1.123729e+000 -4.401293e+000 -5.835579e+000 104 83 62
-1.795115e+000 -6.198843e+000 -6.165112e+000 78 33 36
-8.855977e-001 -5.862117e+000 -6.539085e+000 91 35 40
-6.315722e-001 -5.613171e+000 -6.608009e+000 99 37 42
1.406443e+000 -3.043870e+000 -5.965568e+000 115 73 50
-1.538296e+000 -7.234553e+000 -6.737407e+000 100 73 56
-7.693954e+000 -3.797427e+000 -4.743993e+000 195 227 222
-4.037580e+000 -3.977817e+000 -2.341848e+000 67 90 95
-8.334298e+000 -4.175976e+000 -4.826619e+000 185 219 219
-4.122490e+000 -3.256305e+000 -2.435031e+000 63 85 98
1.468825e+001 -6.787682e+000 -7.693675e+000 46 41 38
1.423832e+001 -4.644237e+000 -7.603210e+000 108 97 77
1.422615e+001 -4.641125e+000 -7.566692e+000 108 97 77
-5.647466e+000 6.258007e-002 -3.245404e+000 188 126 103
1.407689e+001 -3.797811e+000 -7.997328e+000 32 31 29
1.408495e+001 -5.673808e+000 -7.700281e+000 36 35 34
1.413451e+001 -6.731733e+000 -7.596475e+000 35 34 31
5.928118e-002 -5.660245e+000 -6.677095e+000 98 50 49
8.078344e+000 -3.670933e+000 -5.769040e+000 98 42 36
8.689009e+000 -4.678668e+000 -5.891242e+000 102 86 63
-4.354490e+000 -1.018776e+001 -4.563035e+001 84 79 67
1.128265e+000 -3.902377e+000 -6.233760e+000 110 70 59
9.125238e+000 -4.415411e+000 -6.022864e+000 83 56 27
3.406180e-001 -6.903514e+000 -7.338218e+000 131 79 82
1.494295e+001 -5.636002e+000 -7.877677e+000 40 37 20
2.120886e+000 -7.527405e+000 -8.287963e+000 48 28 28
-3.472609e+000 -2.622884e+000 -2.128984e+000 74 60 49
-1.171502e+000 -5.444118e+000 -6.083040e+000 102 68 50
7.947320e+000 -1.082373e+000 -3.578297e+000 130 112 80
7.679394e+000 -4.339318e+000 -5.757534e+000 62 50 35
3.046196e+001 -1.256178e+001 -3.486387e+001 30 22 12
-4.470323e+000 -3.818939e+000 -2.635109e+000 233 193 109
7.279845e+000 -1.295771e+000 -5.958503e+000 78 49 32
3.174335e-001 -1.391311e+000 -5.560769e+000 123 77 43
1.555021e+001 -5.218888e+000 -8.142848e+000 161 69 61
1.129379e+001 -1.577597e+000 -1.621613e+000 98 87 57
7.084717e+000 1.541522e+000 -6.188226e+000 82 68 58
-8.073313e+000 -2.617185e+000 -4.976779e+000 72 100 112
-8.048522e+000 -2.810651e+000 -4.934369e+000 61 91 102
-1.186037e+001 -3.323859e+000 -5.795886e+000 53 42 50
-7.938289e+000 -3.998409e+000 -4.723168e+000 170 204 215
1.052074e+000 -4.474576e+000 -5.932783e+000 35 20 20
1.052074e+000 -4.474576e+000 -5.932783e+000 35 20 20
1.017877e+000 -5.122044e+000 -7.038327e+000 85 59 62
1.144634e+000 -5.842755e+000 -7.090692e+000 106 56 55
-1.030858e+001 -3.102776e+000 -6.486572e+000 62 45 43
4.870524e-001 -3.268230e+000 -5.785173e+000 111 79 50
-1.182112e+001 -3.542268e+000 -5.689377e+000 56 39 45
-7.794628e+000 -4.133469e+000 -4.599644e+000 191 222 221
-7.794628e+000 -4.133469e+000 -4.599644e+000 191 222 221
2.660647e+000 -4.676161e+000 -6.421188e+000 99 81 77
9.127111e-001 -5.213899e+000 -6.518144e+000 84 34 43
-1.339265e+000 -6.117430e+000 -6.512890e+000 90 38 45
2.214885e+000 -7.085185e+000 -7.892000e+000 100 43 63
7.158151e+000 -6.851533e+000 -5.354490e+000 118 115 106
-5.077044e+000 -7.778516e+000 -2.745404e+000 74 94 118
-2.409321e+000 -8.492010e+000 -2.777016e+000 57 48 49
7.866992e+000 -9.242470e+000 -4.942584e+000 42 33 35
1.422698e+001 -3.152750e-001 -8.216271e+000 39 36 34
1.429314e+001 -2.943913e+000 -8.145518e+000 31 25 26
-8.328199e+000 -3.068240e+000 -4.997239e+000 60 96 106
-8.356648e+000 -3.059447e+000 -5.058993e+000 60 96 106
-1.191562e+001 -3.379781e+000 -5.755776e+000 134 138 137
-8.182767e+000 -3.738002e+000 -4.862287e+000 52 84 97
-7.697504e+000 -3.973393e+000 -4.646512e+000 182 218 227
3.198583e+000 -4.311357e+000 -7.179632e+000 92 74 72
-5.586118e-001 -5.677180e+000 -6.335661e+000 95 32 42
1.168664e+000 -5.743104e+000 -7.313724e+000 106 56 59
8.787111e+000 -9.166274e+000 -5.159655e+000 122 110 98
9.779782e-001 -3.522674e+000 -5.980996e+000 95 38 42
-4.410934e+000 -5.624668e+000 -2.540974e+000 52 72 89
7.147840e+000 -6.250853e+000 -5.809052e+000 51 37 33
7.251791e+000 -6.106431e+000 -5.393483e+000 111 104 94
2.154192e+000 -6.797015e+000 -8.103182e+000 100 79 84
1.040406e+000 -7.145046e+000 -7.653712e+000 92 81 80
6.388288e+000 -8.135540e+000 -6.144744e+000 52 63 81
-6.895598e+000 1.949440e+000 -1.262330e+001 68 86 97
-6.895598e+000 1.949440e+000 -1.262330e+001 68 86 97
-7.346079e+000 -2.762340e+000 -4.454146e+000 187 126 110
-4.465611e+000 -3.059016e+000 -2.698548e+000 97 138 165
1.134310e+001 -3.551949e+000 -6.793294e+000 113 106 88
4.096200e-001 -4.182576e+000 -6.601433e+000 68 51 57
-2.190356e-001 -5.218557e+000 -6.357071e+000 106 72 47
4.153260e+000 -7.501041e+000 -8.892137e+000 103 109 122
7.255595e+000 -7.519415e+000 -5.192906e+000 116 109 99
-4.013318e+000 -2.335139e-001 -2.445356e+000 178 181 117
-4.013318e+000 -2.335139e-001 -2.445356e+000 178 181 117
6.126154e+000 -6.726030e+000 -6.418776e+000 90 76 75
1.488710e+001 3.184735e-001 -8.758965e+000 45 41 37
-1.114679e+001 -3.149027e+000 -6.268565e+000 41 31 36
-9.788539e+000 -3.261324e+000 -5.874219e+000 182 130 117
-1.171526e+001 -3.449009e+000 -6.170302e+000 36 31 38
-1.245502e+001 -3.967207e+000 -5.612400e+000 123 100 84
5.106531e+000 -5.521752e+000 -7.363333e+000 72 57 65
8.446305e+000 7.175987e-001 -6.258563e+000 113 96 82
-1.214227e+001 -3.805817e+000 -5.756624e+000 45 32 42
-2.686866e+000 -1.235538e+000 -3.342054e+000 17 15 20
-8.501170e+000 -3.446909e+000 -4.970292e+000 185 224 229
-4.668953e+000 -1.618320e-001 -2.909678e+000 47 64 80
-4.668953e+000 -1.618320e-001 -2.909678e+000 47 64 80
1.162705e+000 -5.703563e+000 -6.796822e+000 104 53 57
-3.838368e+000 -6.889282e+000 -2.248006e+000 177 177 115
5.488286e-001 -7.621015e+000 -7.583911e+000 125 99 86
1.177604e+000 -6.651072e-001 -7.144031e+000 118 97 93
5.505916e+000 3.200149e+000 -1.031971e+001 124 86 67
-5.868426e+000 1.542892e+000 -4.729486e+000 229 182 109
9.776190e+000 1.547014e+000 -6.853152e+000 52 35 29
1.057098e+001 3.263023e+000 -1.931085e+001 82 41 25
1.073674e+001 3.125387e+000 -1.969452e+001 82 41 25
6.626534e+000 3.000706e+000 -7.107076e+000 188 140 109
6.644339e+000 2.634717e+000 -7.082504e+000 178 127 113
-4.013181e+000 -4.646522e+000 -2.273954e+000 88 163 207
-4.596531e+000 2.362404e+000 -3.010117e+000 99 88 82
-3.369482e+000 2.684068e+000 -2.470273e+000 99 72 56
6.801923e+000 2.627408e+000 -6.329633e+000 178 99 58
5.922118e+000 3.172278e+000 -1.334230e+001 150 107 72
1.176084e+001 3.239694e+000 -1.645694e+001 130 65 44
-2.571267e+000 1.566897e-001 -1.152367e+001 70 51 53
8.480556e-003 9.824470e-001 -9.819193e+000 123 87 60
7.303551e+000 3.562691e+000 -7.267307e+000 127 59 48
-9.888320e+000 -3.654538e+000 -6.504543e+000 123 103 96
-4.881151e+000 -1.556300e+000 -3.047057e+000 214 226 217
9.347242e+000 2.843647e+000 -2.193378e+001 219 192 115
-3.025681e+000 2.164090e+000 -3.444297e+000 59 66 76
-4.709007e+000 -5.536720e+000 -2.943606e+000 86 166 213
6.869747e+000 -9.425652e+000 -6.957721e+000 78 97 117
1.047527e+001 3.286012e+000 -2.136287e+001 204 170 98
1.281778e+001 3.219894e+000 -1.648768e+001 136 65 44
6.680269e+000 -5.495689e-001 -6.767943e+000 112 56 35
1.195881e+001 -4.428955e+000 -7.359791e+000 154 109 62
1.227208e+001 2.927917e+000 -2.128801e+001 84 47 31
-5.636153e+000 2.216355e+000 -6.352368e+000 214 106 106
-5.636153e+000 2.216355e+000 -6.352368e+000 214 106 106
-1.182057e+001 -3.359976e+000 -7.109815e+000 119 139 148
1.011679e+000 -3.520283e+000 -6.016457e+000 138 72 58
-3.475132e+000 -6.746904e+000 -1.910075e+000 224 189 107
5.926782e+000 3.117670e+000 -9.674379e+000 147 110 83
1.461066e+001 4.022619e+000 -1.386497e+001 135 94 53
7.009551e+000 3.533601e+000 -8.964958e+000 148 98 79
7.502841e+000 3.657624e+000 -6.278403e+000 126 84 60
6.992840e+000 1.693310e+000 -6.033449e+000 180 142 77
4.157605e+000 2.675972e-001 -5.807231e+000 40 19 16
1.636702e+001 -4.935419e+000 -8.487136e+000 155 68 56
7.344537e+000 -5.385702e+000 -5.871759e+000 95 71 43
1.298697e+001 -9.908107e+000 -7.160927e+000 167 114 78
1.304066e+001 3.668490e+000 -1.868332e+001 138 95 53
7.606859e+000 3.386152e+000 -9.270559e+000 137 51 40
3.282429e+000 2.350887e+000 -7.911885e+000 52 23 26
3.537760e+000 2.416967e+000 -7.312940e+000 51 23 21
1.195697e+001 2.569822e+000 -8.990460e+000 144 109 82
1.381400e+001 2.974672e+000 -8.970721e+000 92 56 40
1.571980e+001 -1.519753e-001 -8.353190e+000 153 62 54
1.532619e+001 -5.938839e+000 -8.089693e+000 174 79 66
1.555650e+001 -7.775404e+000 -8.104248e+000 171 74 65
1.397198e+001 3.546971e+000 -1.748649e+001 133 95 50
1.499150e+001 4.086722e+000 -1.167942e+001 86 42 29
1.323441e+001 3.793987e+000 -1.077552e+001 133 58 39
1.323412e+001 3.777312e+000 -1.075226e+001 133 58 39
9.492830e+000 -1.137039e+000 -6.905366e+000 51 32 25
9.492830e+000 -1.137039e+000 -6.905366e+000 51 32 25
1.265128e+001 -5.809618e+000 -7.224673e+000 163 88 60
1.265128e+001 -5.809618e+000 -7.224673e+000 163 88 60
7.842999e+000 -5.573486e+000 -5.605845e+000 159 106 52
9.845489e+000 -8.295869e+000 -6.249640e+000 52 34 25
9.845489e+000 -8.295869e+000 -6.249640e+000 52 34 25
1.452337e+001 4.436556e+000 -1.261939e+001 157 114 63
5.608386e+000 2.305210e+000 -8.144413e+000 51 27 23
5.581366e+000 1.450980e+000 -8.539637e+000 84 60 56
1.234600e+001 1.712458e+000 -7.902700e+000 157 76 51
1.160406e+001 -9.205039e+000 -6.903388e+000 169 140 126
4.396973e+000 2.566742e+000 -1.383883e+001 148 135 129
1.338473e+001 3.373614e+000 -1.730411e+001 74 41 24
1.428707e+001 3.030996e+000 -8.541497e+000 147 103 61
1.282687e+001 2.738263e+000 -1.094542e+001 132 91 61
4.124001e+000 5.680337e-001 -7.916926e+000 117 78 52
4.124001e+000 5.680337e-001 -7.916926e+000 117 78 52
1.503967e+001 -1.602861e+000 -8.540088e+000 161 116 81
8.970717e+000 -3.070899e+000 -6.474680e+000 157 101 52
9.200716e+000 -4.976073e+000 -6.406612e+000 159 104 53
3.985210e+000 1.842578e+000 -1.086322e+001 36 20 20
1.342950e+001 3.602659e+000 -9.474042e+000 56 37 24
5.304259e+000 7.609960e-001 -6.720102e+000 43 23 20
9.769551e+000 2.201855e+000 -7.016287e+000 51 36 33
8.230176e+000 4.250489e-001 -6.187015e+000 151 98 48
8.510258e+000 -1.014050e+000 -5.952801e+000 155 103 48
1.114644e+000 -5.075501e+000 -1.320284e+001 132 71 42
9.804372e-001 -3.996208e+000 -7.367207e+000 44 22 25
-2.860659e+000 -5.646963e+000 1.049991e+001 203 120 123
2.746460e+000 -5.078142e+000 -1.292003e+001 126 114 118
4.915438e+000 1.336752e+000 -5.435943e+000 26 22 23
3.137043e+000 -6.942571e-001 -6.527761e+000 96 74 77
5.931909e+000 -8.774540e+000 -7.345251e+000 153 133 104
4.414840e-001 1.471497e+000 -9.166793e+000 91 73 55
8.913657e+000 -3.741027e+000 -6.364145e+000 143 68 72
8.888631e+000 -4.940101e+000 -6.285831e+000 145 133 134
4.833934e+000 3.127819e-002 -6.672573e+000 139 56 86
-1.309469e+000 -4.888956e+000 2.246178e+000 19 27 30
1.139867e+001 -7.560703e+000 -6.715774e+000 117 94 60
2.344657e+000 -7.665717e+000 -7.832568e+000 92 83 66
1.089875e+001 -1.552333e-001 -6.981741e+000 105 54 37
1.046898e+000 -7.268262e+000 -7.710976e+000 65 57 43
3.199497e+000 -4.149995e+000 -7.789811e+000 56 47 37
-8.457762e+000 -2.679729e-001 -7.956120e+000 180 212 183
-1.671760e+000 -3.093727e-001 -1.377614e+001 16 11 7
-5.330428e-001 -7.626749e+000 -7.171598e+000 22 17 14
-5.330428e-001 -7.626749e+000 -7.171598e+000 22 17 14
-2.296962e+000 -3.508749e-001 -1.215827e+001 17 12 10
1.759568e+001 -1.188179e+001 -1.000563e+001 190 144 66
1.491336e+001 2.262285e-001 -8.771278e+000 32 28 19
7.971325e-001 -3.938929e+000 -6.315547e+000 84 34 30
7.174557e+000 -6.540340e+000 -5.493540e+000 123 110 94
8.793515e+000 -3.496756e+000 -6.944650e+000 103 38 34
6.438884e+000 -4.437859e+000 -7.307045e+000 63 44 40
3.764441e+000 -4.924530e+000 -7.670243e+000 98 64 44
-3.475876e-002 -5.273697e+000 -6.402586e+000 91 40 37
7.703289e+000 -1.124872e+000 -6.240415e+000 44 26 26
7.369770e+000 -5.979352e+000 -5.413264e+000 102 44 43
7.034291e+000 -6.548829e-001 -5.900313e+000 95 83 71
1.361887e+001 -3.151880e-001 -8.903747e+000 105 94 72
2.101361e+001 -7.131587e+000 -4.862781e+001 108 45 38
1.009919e+000 -3.004879e+000 -5.754384e+000 126 89 69
-2.646098e+000 -3.921449e+000 -3.142000e+000 29 28 34
4.282365e+001 -1.842569e-002 -6.735090e+001 39 35 30
8.811857e+000 -5.112587e+000 -5.874113e+000 111 42 34
7.293013e+000 -7.229756e+000 -5.946994e+000 60 42 24
-1.004979e+001 -2.490696e+000 -7.606244e+000 167 129 140
8.487161e-001 -8.564365e-001 -7.285976e+000 67 54 41
6.885113e+000 -1.069702e+000 -6.281943e+000 78 51 35
-7.146155e+000 1.319575e+000 -8.515806e+000 68 72 74
6.005173e+000 3.002152e+000 -9.043753e+000 58 51 35
1.537522e+001 4.726071e+000 -1.461557e+001 109 93 38
1.674440e+001 -7.562134e+000 -8.568981e+000 100 80 53
6.712913e+000 2.618129e+000 -6.957646e+000 171 102 69
4.439227e+000 5.240355e-001 -6.104499e+000 112 44 47
-2.729202e+000 9.571655e-001 -1.153765e+001 75 46 43
-6.082413e+000 1.757148e+000 -5.424528e+000 220 100 103
-5.510195e+000 1.542795e+000 -4.101533e+000 214 96 94
3.788498e+000 -1.102919e+000 -7.615903e+000 35 24 21
-8.801235e-001 -1.212655e+000 -5.814787e+000 125 96 90
9.172476e+000 -2.184323e-001 -6.655889e+000 135 86 38
3.278478e+001 -7.686451e+000 -4.191965e+001 31 27 16
6.337029e+000 -4.221969e+000 -7.329988e+000 62 46 43
6.337029e+000 -4.221969e+000 -7.329988e+000 62 46 43
1.821737e+000 -6.984258e+000 -8.016623e+000 95 84 85
-7.953694e-001 -6.083834e+000 -6.479189e+000 34 27 30
1.417384e+001 7.285867e-001 -8.175653e+000 35 34 31
-5.765205e+000 8.044812e-001 -2.093163e+001 23 20 31
6.555609e+000 -3.723966e+000 -7.358850e+000 42 25 16
-1.230956e+001 -4.626708e+000 -5.954717e+000 50 40 51
-1.310936e+000 -4.814378e+000 3.116253e+000 26 24 29
1.326421e+001 -1.496819e+000 -7.934956e+000 113 104 88
8.957193e+000 -7.280899e+000 -5.493019e+000 112 95 78
7.194042e+000 3.598925e+000 -7.128145e+000 31 20 17
6.605108e+000 3.266542e+000 -6.953624e+000 132 144 115
-7.303640e-001 -9.642216e-001 -6.450383e+000 65 56 46
3.732041e+000 2.629315e+000 -1.592260e+001 62 62 50
4.186636e+000 2.936375e+000 -1.456903e+001 70 72 61
-6.864905e+000 1.251349e+000 -7.458512e+000 166 98 118
6.863545e+000 4.743138e-001 -6.204285e+000 47 27 17
7.031697e+000 -1.139480e+000 -6.374819e+000 42 26 11
-4.063856e+000 -6.557833e+000 -2.359448e+000 149 146 70
-4.063856e+000 -6.557833e+000 -2.359448e+000 149 146 70
-4.246498e+000 -8.707255e+000 -2.388143e+000 55 53 30
1.546125e+001 3.649570e+000 -1.136841e+001 69 40 27
1.874876e+000 -8.820084e-001 -7.383527e+000 26 32 32
-8.229721e+000 -3.859291e+000 -4.912686e+000 50 68 54
7.852214e+000 -4.983488e+000 -5.750477e+000 39 20 18
-4.084759e+000 -5.927595e+000 -2.369579e+000 152 140 72
6.499675e-002 6.244925e-001 -9.082375e+000 72 57 37
1.138620e+001 -4.216062e-001 -7.236902e+000 103 52 27
-4.221099e+000 -3.791573e+000 -2.574259e+000 151 145 79
-4.231050e+000 -7.138120e+000 -2.440719e+000 152 141 82
5.511038e+000 3.258225e+000 -1.514777e+001 95 80 51
6.387641e+000 3.368403e+000 -7.928090e+000 133 154 139
1.054956e+001 3.650396e+000 -7.287361e+000 106 87 54
1.417705e+001 -1.014054e+001 -7.776849e+000 50 37 21
-5.453285e+000 1.669378e+000 -3.841978e+000 55 65 67
8.958742e+000 -8.071595e+000 -5.849750e+000 110 84 51
1.372194e+001 3.338330e+000 -1.742069e+001 45 32 23
1.462495e+001 3.707902e+000 -1.611637e+001 101 91 42
9.875667e+000 3.367575e+000 -7.150806e+000 55 32 16
6.116713e+000 -6.523936e+000 -7.711391e+000 74 70 65
-4.251646e+000 2.351888e+000 -2.768608e+000 58 53 46
6.166791e+000 5.176971e-002 -6.930425e+000 90 68 54
5.135810e+000 1.148986e+000 -6.688132e+000 29 19 17
5.354854e+000 -2.463276e-001 -6.027593e+000 32 22 20
-3.928396e+000 -4.416062e+000 -2.531989e+000 156 142 67
1.670303e+001 -4.480850e+000 -8.635181e+000 49 33 20
1.514680e+001 -4.639074e+000 -7.852295e+000 102 82 53
-6.298244e-001 -1.119767e+000 -6.455397e+000 28 14 13
3.260581e+000 2.821874e+000 -1.617118e+001 133 92 69
-2.448459e+000 -1.336136e+001 -9.951884e+000 60 90 116
6.086236e+000 -3.873731e-001 -6.803206e+000 127 102 94
-3.981444e+000 -9.037417e+000 -8.161686e+000 86 163 216
-3.981444e+000 -9.037417e+000 -8.161686e+000 86 163 216
-7.141784e+000 1.384294e+000 -8.761602e+000 202 99 98
5.721412e+000 3.163862e+000 -9.952707e+000 139 107 80
5.721412e+000 3.163862e+000 -9.952707e+000 139 107 80
-4.666929e-001 7.328602e-001 -9.860052e+000 79 49 25
7.343547e+000 3.582122e+000 -7.265119e+000 142 69 58
-2.680951e+000 2.049186e+000 -3.324890e+000 109 81 72
-5.111288e+000 -3.819663e+000 -3.053867e+000 66 91 117
-9.541263e-001 6.838837e-001 -1.080051e+001 117 70 42
1.357988e+001 3.345136e+000 -1.368102e+001 71 33 26
6.645950e+000 2.973747e+000 -7.139917e+000 194 155 139
6.663363e+000 2.930647e+000 -7.187297e+000 194 155 139
1.032646e+001 3.520918e+000 -7.174518e+000 136 100 76
-1.189037e+001 -3.594482e+000 -5.800737e+000 102 76 75
-1.162105e+001 -3.653489e+000 -5.846960e+000 133 109 105
-5.286090e+000 6.106380e-001 -3.426075e+000 88 166 211
-5.255353e-001 -1.079316e+000 -6.435560e+000 119 105 106
-8.106776e+000 -3.125894e+000 -5.095065e+000 88 169 216
-8.086504e-001 -1.372186e+000 -5.778949e+000 59 36 39
-8.320724e+000 -4.539522e+000 -5.151490e+000 95 162 201
2.903159e+000 1.961802e+000 -1.806033e+001 143 83 61
5.786338e+000 3.340677e+000 -1.069257e+001 65 24 15
-1.975063e+000 -6.479951e-001 -1.217880e+001 68 52 53
7.180141e+000 3.424528e+000 -7.290319e+000 78 46 33
-1.432450e+001 -2.836521e+000 -5.944577e+000 83 60 43
-1.432450e+001 -2.836521e+000 -5.944577e+000 83 60 43
-1.333334e+000 -3.724216e-001 -7.828462e+000 117 77 57
4.908549e-001 -4.605057e-001 -9.142087e+000 96 47 27
-1.380120e+001 -3.430120e+000 -5.936253e+000 75 48 47
-1.070400e+001 -3.334439e+000 -5.876739e+000 67 46 45
-9.207260e+000 -3.753922e+000 -5.513930e+000 85 89 90
6.884826e+000 5.901567e-001 -6.953481e+000 150 81 54
-8.341421e+000 -3.662236e+000 -5.137138e+000 95 161 211
-5.159087e+000 -3.772069e+000 -3.204775e+000 84 168 215
-4.339791e+000 -7.831124e+000 -2.623760e+000 83 165 212
-7.458470e+000 2.221001e+000 -1.175234e+001 61 48 55
1.269789e+001 3.037592e+000 -2.172668e+001 147 108 59
1.229018e+001 3.065182e+000 -1.995176e+001 131 65 46
3.842459e+000 1.769172e+000 -1.533836e+001 125 71 61
1.307455e+001 2.954650e+000 -1.594732e+001 65 30 21
-1.295660e+001 -3.406233e+000 -6.371491e+000 110 89 82
9.123952e+000 1.992147e+000 -6.690722e+000 49 30 24
-6.677632e-001 -1.249765e+000 -5.725628e+000 129 109 109
6.121941e+000 -3.497629e+000 -7.250232e+000 83 49 33
7.244745e+000 -6.507439e+000 -6.489466e+000 161 101 69
7.846684e+000 -7.829663e+000 -5.489091e+000 158 110 68
1.382161e+001 -9.479230e+000 -7.503675e+000 171 141 127
1.126026e+001 3.126889e+000 -2.476627e+001 214 182 107
1.147974e+001 2.985938e+000 -2.452264e+001 171 134 64
3.059532e+000 1.729406e+000 -1.700347e+001 97 55 43
6.046012e+000 3.039360e+000 -1.254086e+001 131 96 69
6.304457e+000 3.280195e+000 -8.501378e+000 110 80 56
6.278110e+000 3.322127e+000 -8.441057e+000 110 80 56
6.079133e-001 -1.623631e-001 -9.030155e+000 103 66 41
4.696584e+000 1.933407e+000 -7.234089e+000 40 23 16
7.695387e+000 2.876509e+000 -6.266160e+000 137 85 38
-9.229079e+000 -3.488290e+000 -5.521803e+000 69 81 79
1.574887e+001 -9.834043e-001 -8.725978e+000 166 69 62
-4.818381e+000 -3.872559e+000 -2.935449e+000 203 222 213
1.583440e+001 -8.588760e+000 -8.392375e+000 172 131 111
1.692374e+001 -9.837495e+000 -8.357747e+000 188 140 74
1.387419e+001 5.549297e+000 -1.823541e+001 170 129 64
1.477760e+001 3.540940e+000 -1.582907e+001 143 100 57
1.516760e+001 3.485724e+000 -1.544564e+001 147 107 58
6.568155e+000 3.385223e+000 -7.947996e+000 53 20 17
-1.240670e+001 -3.624708e+000 -5.955266e+000 189 145 120
1.522430e+001 -1.426354e+000 -8.631353e+000 168 123 99
-4.729497e+000 -3.339045e+000 -2.861262e+000 57 85 105
1.661016e+001 -7.419959e+000 -8.578459e+000 165 71 63
-3.082617e+000 4.826870e-001 -1.183421e+001 149 153 154
7.237957e+000 -1.146203e+000 -6.220598e+000 83 56 35
1.663348e+001 -4.452203e-001 -9.038238e+000 88 52 31
1.246989e+001 -2.037790e+000 -7.543635e+000 157 77 54
-2.543266e+000 -7.073382e+000 -2.984096e+000 42 37 41
-3.135460e+000 2.134279e+000 -3.896670e+000 29 21 29
2.332003e+000 7.120915e-001 -1.134487e+001 35 25 23
-6.186922e+000 1.351373e+000 -5.373241e+000 226 195 121
-6.221549e+000 1.302703e+000 -5.421823e+000 231 199 124
-4.758996e+000 2.098170e+000 -3.372931e+000 70 69 66
9.154366e+000 2.166496e+000 -1.602398e+001 140 102 73
-1.981279e+000 -6.555707e-001 -1.210859e+001 70 53 57
1.294324e+001 -4.012899e+000 -7.827217e+000 158 130 116
7.046569e+000 -2.937459e-001 -6.690234e+000 55 40 37
-8.130693e+000 -3.850220e+000 -4.837451e+000 173 206 222
-8.112680e+000 -3.858287e+000 -4.788529e+000 173 206 222
-4.680778e+000 -8.339113e+000 -2.416456e+000 105 159 190
6.071966e+000 -9.517672e+000 -9.128590e+000 118 96 109
4.672601e+000 -1.095025e+001 -1.477306e+001 112 111 119
5.362658e+000 -1.919021e+000 -8.540494e+000 70 51 55
-8.104992e+000 -2.595721e+000 -5.044925e+000 69 96 117
-1.435036e+001 -3.509903e+000 -5.151218e+000 73 50 45
-7.915126e+000 -3.577965e+000 -4.799788e+000 64 96 116
-1.415214e+000 -3.455755e+000 -9.894190e+000 26 14 19
-7.802413e+000 -4.228112e+000 -4.656255e+000 192 131 126
-8.314498e+000 -4.287981e+000 -4.887813e+000 188 229 234
-1.097317e+001 -4.981627e+000 -6.324747e+000 132 121 127
1.265981e+000 -5.475731e+000 -7.323222e+000 90 52 53
7.082822e+000 -7.069432e+000 -5.413631e+000 57 45 34
-5.280446e+000 -7.705621e+000 -2.738861e+000 183 129 119
1.600646e+001 -1.209875e+001 -1.450041e+001 135 126 101
1.542173e+001 -1.298739e+001 -1.714862e+001 182 179 152
1.306175e+001 -1.520223e+001 -2.758894e+001 193 189 161
3.794991e+000 -3.126208e+000 -7.039666e+000 27 22 23
7.207241e+000 -5.075354e+000 -6.278675e+000 34 26 24
-1.431136e+001 -4.166442e+000 -4.799300e+000 114 107 99
1.790597e+000 -6.153633e+000 -7.075176e+000 22 16 24
-4.184570e+000 -7.043640e+000 -2.043486e+000 73 101 115
7.133226e+000 -9.073942e+000 -5.426276e+000 161 147 110
6.413732e+000 -9.741944e+000 -7.917785e+000 73 66 70
3.679654e+000 -1.153709e+001 -1.798405e+001 160 140 151
-4.059448e+000 -4.081751e-001 -2.627319e+000 60 78 92
-3.861468e+000 -2.812488e+000 -2.270123e+000 56 77 96
-3.886863e+000 -2.786225e+000 -2.377223e+000 56 77 96
-8.169334e+000 -2.338702e+000 -4.976105e+000 181 130 109
-1.300563e+001 -3.240635e+000 -5.769537e+000 92 66 49
1.979239e+000 -4.469761e+000 -6.088317e+000 96 75 62
9.266191e-001 -6.050083e+000 -7.216825e+000 34 22 23
4.375659e+000 -6.430343e+000 -5.803788e+000 38 28 29
-3.875755e+000 -6.554124e+000 -2.010413e+000 71 96 106
5.355775e+000 -7.078970e+000 -6.158871e+000 57 46 50
-3.930975e+000 -7.333627e+000 -1.955437e+000 69 95 118
1.764943e+000 -1.005862e+001 -1.446676e+001 50 37 42
6.694905e+000 -9.603613e+000 -6.918481e+000 79 67 82
1.682389e+001 -1.145976e+001 -1.381676e+001 125 117 98
-3.940568e+000 -2.173512e+000 -2.399210e+000 61 78 105
-9.179920e-001 -1.003802e+000 -1.368586e+001 20 12 22
-4.027081e+000 -3.984381e+000 -2.312508e+000 54 80 90
-7.908142e+000 -4.159671e+000 -4.635450e+000 189 224 233
-7.889114e+000 -4.172067e+000 -4.546672e+000 189 224 233
-3.951640e+000 -4.781393e+000 -2.210624e+000 72 95 113
-1.373003e+001 -4.576458e+000 -5.224374e+000 45 35 45
1.248952e+000 -5.212238e+000 -6.620512e+000 66 29 37
-3.869513e+000 -5.402771e+000 -2.077615e+000 67 94 107
6.972279e+000 -7.378405e+000 -6.063304e+000 79 44 40
1.566994e+001 -1.628461e+001 -1.563277e+001 193 192 170
-4.141223e+000 -7.485146e-001 -2.714369e+000 177 179 114
-4.167802e+000 -7.035587e-001 -2.846719e+000 177 179 114
1.858203e+000 -6.240228e+000 -7.255744e+000 31 25 39
6.863226e+000 -6.705177e+000 -6.023847e+000 78 45 44
7.270958e+000 -7.521719e+000 -5.230412e+000 110 103 93
-5.189264e+000 -7.861654e+000 -2.690887e+000 217 225 244
-4.884465e+000 -8.031340e+000 -2.395976e+000 132 192 226
1.613439e+001 -1.220069e+001 -1.453270e+001 156 149 123
1.585284e+001 -1.418579e+001 -1.566273e+001 171 167 142
1.555584e+001 -1.405012e+001 -1.499040e+001 171 167 142
1.545276e+001 -1.653653e+001 -1.592438e+001 161 151 152
1.574958e+001 -1.670299e+001 -1.572227e+001 192 189 172
1.574970e+001 -1.628364e+001 -1.728992e+001 199 196 179
-9.610166e+000 -4.389610e+000 -5.732792e+000 179 124 117
-4.439844e+000 -8.083695e+000 -2.149476e+000 67 106 129
8.793540e+000 -8.702241e+000 -5.289105e+000 113 54 58
4.943918e+000 1.055104e+000 -8.074604e+000 102 41 56
1.482287e+001 -2.987414e+000 -8.490248e+000 104 98 84
1.309972e+001 -5.980210e+000 -7.189952e+000 116 103 94
4.888877e+000 -5.564110e-002 -6.448658e+000 109 46 63
5.173221e+000 -3.097489e+000 -7.779687e+000 60 50 49
-7.666743e+000 -3.285632e+000 -4.564114e+000 185 222 230
-1.721228e+000 -5.350890e+000 -5.804886e+000 25 22 31
4.974049e+000 -6.190412e+000 -6.244282e+000 106 41 60
5.784969e+000 -5.492357e+000 -6.304593e+000 31 24 31
7.009910e+000 2.085874e+000 -6.377517e+000 182 104 58
-2.516251e+000 6.676901e-001 -1.111679e+001 65 35 43
5.319226e+000 3.253040e+000 -1.017024e+001 91 66 49
6.550654e+000 2.728710e+000 -8.796006e+000 86 60 39
-3.978058e-001 1.003817e+000 -9.715597e+000 148 106 86
1.288549e+001 3.917496e+000 -1.309713e+001 138 64 45
-2.576842e+000 1.865703e+000 -3.516718e+000 59 35 30
1.612001e+001 3.953573e-001 -8.886351e+000 172 78 64
7.390787e+000 -9.945301e+000 -5.826676e+000 184 143 73
5.780659e+000 1.056526e+000 -1.950563e+001 160 102 78
2.328789e+000 -4.375855e+000 -6.962871e+000 99 76 66
5.961411e+000 2.184987e+000 -7.465849e+000 64 70 81
1.506289e+001 7.760916e-001 -8.691633e+000 166 73 61
-4.735478e+000 -4.000586e+000 -2.970944e+000 218 224 207
-5.777844e+000 -2.136152e+000 -1.541858e+001 58 65 83
-5.561308e+000 -2.208027e+000 -1.475258e+001 38 32 34
8.817494e+000 3.630553e+000 -1.261295e+001 137 71 40
1.228544e+001 3.443505e+000 -1.437741e+001 130 62 36
-4.762927e+000 -1.748048e+000 -3.132812e+000 223 230 212
9.587199e+000 -2.804332e+000 -6.700090e+000 47 31 18
1.212753e+001 3.941882e+000 -8.609080e+000 135 100 70
6.650847e+000 1.599474e+000 -7.091435e+000 84 47 31
-4.023841e+000 -7.703613e-001 -2.765779e+000 90 168 214
1.361505e+001 -6.988208e+000 -7.684656e+000 173 145 124
-2.136167e+000 2.703380e-001 -1.152603e+001 47 36 34
-4.495823e+001 -5.759347e+001 -1.074358e+002 134 93 118
-5.677895e-001 -5.197250e+000 -1.191630e+001 122 62 34
1.185334e+001 -3.581368e+000 -1.295377e+000 73 44 40
3.331881e+000 -9.019350e+000 1.312814e+001 53 38 33
3.460430e+000 1.829956e+000 -8.817929e+000 50 39 37
3.626419e-001 -8.040119e+000 -5.217249e+000 30 30 28
3.626419e-001 -8.040119e+000 -5.217249e+000 30 30 28
7.360479e+000 -8.633638e+000 5.236670e+000 111 92 65
-6.353359e+000 -2.560381e+000 2.184713e+000 46 41 63
5.135848e+000 -7.692058e+000 -6.324506e+000 30 22 19
3.919215e+000 2.477304e+000 -1.185038e+001 75 44 42
3.125922e+000 -3.628979e+000 -6.877308e+000 66 57 45
-8.522418e-001 -4.426224e+000 -1.150968e+001 20 16 7
7.463944e+000 -1.044622e+001 -6.128174e+000 120 89 58
-3.069036e+000 -9.303494e+000 -4.852844e+000 18 19 19
-8.432420e+000 -1.948160e+000 -8.757554e-001 90 98 105
2.063308e+000 -5.060454e+000 -1.245347e+001 27 19 15
3.922753e-001 -7.160910e+000 -6.221014e+000 69 70 66
-2.151217e+000 -4.637032e+000 -1.049424e+001 25 17 12
7.057814e+000 -1.069533e+001 -8.791080e+000 116 87 55
1.089358e+001 -4.046646e+000 -6.478714e+000 88 43 24
1.303236e+001 -5.156751e+000 -4.327625e+000 38 24 15
1.303236e+001 -5.156751e+000 -4.327625e+000 38 24 15
9.263740e+000 -8.276217e+000 -6.160815e+000 90 77 45
3.858135e+000 -4.435579e-001 -7.570087e+000 149 136 94
-3.129370e+000 -1.779417e+000 -1.787577e+000 77 47 39
3.844114e+001 -4.348815e-001 -5.286032e+001 148 105 63
1.692649e+001 1.150348e+000 -1.750686e+001 142 105 68
1.188041e+001 -6.572377e+000 -1.430687e+001 50 31 22
-2.327656e-002 -5.434727e+000 -6.529581e+000 97 46 43
-1.243709e+000 -6.765307e+000 -6.651147e+000 91 77 69
3.723807e+000 -4.516440e+000 -7.441204e+000 80 64 58
-3.954551e+000 -3.052277e+000 -2.362484e+000 163 160 99
9.631786e+000 -3.544678e+000 1.512375e+000 54 44 33
2.999375e+001 -2.118062e+000 -4.110576e+001 118 102 77
7.286604e+000 -8.032029e+000 -6.140817e+000 85 61 43
7.105151e-001 -1.129993e+000 -6.086400e+000 66 59 43
6.462956e+000 -8.902997e+000 -6.597109e+000 62 79 89
-7.604489e+000 -6.069704e+000 -1.221070e+001 45 159 203
-2.896991e-001 -4.450675e+000 -1.243720e+001 73 64 51
1.737353e-001 -3.971519e+000 -1.272093e+001 24 15 13
-2.072076e+000 -1.111429e+001 -4.906201e+000 40 48 57
-1.985009e+000 -9.192862e+000 -4.830822e+000 42 32 33
8.839276e+000 -6.359580e+000 -5.935698e+000 113 116 73
9.259893e+000 -7.686161e+000 -6.376938e+000 113 63 46
5.691958e+000 1.527470e+000 -8.755506e+000 62 51 31
1.200763e+001 -5.812239e+000 -2.046518e+001 46 37 28
-1.215431e+001 -4.533986e+000 -6.242650e+000 54 40 41
-3.015073e+000 -3.773570e+000 -5.917717e+000 28 26 31
-2.975153e+000 -5.255985e+000 -5.781301e+000 24 25 27
-2.975153e+000 -5.255985e+000 -5.781301e+000 24 25 27
-2.907500e+000 -6.408654e+000 -5.421456e+000 19 18 24
3.810659e+000 2.760456e+000 -7.946719e+000 102 43 52
-2.235526e-001 -5.219637e+000 -6.314463e+000 38 26 24
-9.657919e-001 -6.244995e+000 -6.560979e+000 130 102 93
-9.051146e-001 -5.777064e+000 -6.429902e+000 111 57 49
1.533814e+001 -5.597943e+000 -8.067960e+000 102 88 60
1.324640e+001 9.464024e-001 -8.100344e+000 26 26 18
-3.270203e+000 -2.647357e+000 -6.096995e+000 20 18 23
8.685495e+000 -9.276883e+000 -5.156820e+000 65 47 40
-1.043902e+001 3.241385e+000 -2.557078e+001 51 73 84
-4.497247e-001 -5.857265e+000 -6.596167e+000 30 26 24
-8.143744e+000 -3.113104e+000 -4.959855e+000 169 190 173
-6.059262e-001 -1.332581e+000 -5.331762e+000 65 40 36
7.427287e+000 -3.123606e+000 -5.731584e+000 65 51 38
-5.405822e+000 -8.104124e+000 -3.394332e+000 148 94 67
6.866639e+000 1.566599e+000 -6.456311e+000 37 18 7
7.180316e+000 -6.805770e+000 -6.080816e+000 97 74 55
4.318899e+000 3.349515e-001 -6.329836e+000 102 36 40
-7.849297e+000 -2.730728e+000 -4.776092e+000 156 175 151
1.835153e+001 -6.743271e+000 -5.610957e+000 130 111 53
7.787207e-002 8.961151e-001 -9.679767e+000 70 54 34
6.401374e+000 3.334921e+000 -8.015531e+000 130 152 135
6.444223e+000 4.331965e-001 -6.920334e+000 82 59 43
4.067340e+000 1.577433e+000 -6.986011e+000 82 60 36
6.740825e+000 -2.944445e+000 -3.255834e+000 60 34 21
1.968172e+001 1.103584e+001 -9.065516e+001 26 16 14
-5.245293e+000 -1.531090e+000 -3.175006e+000 99 162 197
7.644194e+000 -3.224523e+000 -5.713776e+000 51 25 13
-2.211208e+000 -4.829615e+000 4.712376e+000 92 164 206
6.711959e+000 3.309313e+000 -7.439453e+000 192 112 68
8.207428e+000 -9.375341e+000 -5.147451e+000 67 39 25
9.149421e+000 -7.954145e+000 -5.659405e+000 46 26 19
-4.653072e+000 -8.107248e+000 -2.573046e+000 93 97 104
-8.639473e-001 7.867133e-001 -1.052822e+001 117 69 46
-8.639473e-001 7.867133e-001 -1.052822e+001 117 69 46
-4.818831e+000 -4.256126e+000 -2.901967e+000 60 81 110
7.867349e+000 -7.997929e+000 -5.500434e+000 153 112 61
9.560182e+000 -5.782216e+000 -6.248839e+000 60 37 23
-8.457035e+000 -3.157358e+000 -5.193692e+000 219 231 216
-2.668440e+000 -4.170440e+000 3.369169e+000 96 167 204
9.875333e-001 -4.537265e+000 -5.842965e+000 42 20 8
9.866080e-001 -4.534391e+000 -5.861043e+000 42 20 8
-1.062529e+001 -4.808463e+000 -6.052620e+000 69 41 37
-1.737543e-001 -5.482406e+000 -6.195617e+000 28 16 15
-3.432457e+000 -2.135273e-001 -2.271415e+000 92 60 37
1.236855e+001 1.724479e+000 -2.615516e+001 52 33 19
1.514885e+001 -2.162708e+000 -8.527408e+000 123 50 36
-4.309793e+000 -4.050136e+000 -2.489730e+000 236 243 234
1.171266e+001 -1.184108e+001 -1.052705e+001 133 115 69
6.288021e+000 3.519010e+000 -8.867382e+000 198 155 87
-8.283198e+000 -3.897681e+000 -5.050333e+000 217 229 215
-9.095007e+000 -4.138722e+000 -5.533499e+000 220 230 222
-3.223980e+000 -5.291794e+000 -1.755552e+000 106 77 56
4.519085e-001 -5.528297e+000 -6.815644e+000 107 53 48
1.229456e+000 -6.474290e+000 -7.479166e+000 96 50 38
1.229456e+000 -6.474290e+000 -7.479166e+000 96 50 38
6.687250e+000 5.235210e-001 -7.279978e+000 94 47 32
6.687250e+000 5.235210e-001 -7.279978e+000 94 47 32
1.260316e+001 -1.845826e+000 -7.602872e+000 129 98 70
-9.222898e+000 -3.785654e+000 -5.599367e+000 93 98 101
1.526791e+000 -4.457468e+000 -6.051117e+000 111 91 77
-1.134037e+000 -6.716288e+000 -6.716475e+000 105 87 76
7.058585e+000 -7.062926e+000 -6.420420e+000 77 44 25
1.638139e+001 -8.205356e-001 -9.068476e+000 120 43 35
-9.725696e+000 -2.796844e+000 -6.118746e+000 119 98 81
1.299336e+001 -1.193371e+001 -1.006101e+001 255 255 247
1.618877e+001 2.025882e+000 -9.453338e+000 64 35 27
6.254478e+000 3.061522e+000 -8.443375e+000 95 63 38
1.544345e+001 1.055246e+000 -9.070817e+000 131 93 70
1.557138e+001 -2.473331e+000 -8.639343e+000 132 95 69
-9.214071e+000 -3.153900e+000 -5.805079e+000 223 231 216
1.572689e+001 -5.856797e+000 -8.233344e+000 136 99 73
-3.383828e-001 -5.740184e+000 -6.546966e+000 31 22 21
1.329618e+001 -1.192907e+001 -1.003377e+001 75 53 40
-1.107945e+001 -3.200429e+000 -6.199450e+000 58 42 39
-4.464721e-003 -5.934579e+000 -6.681065e+000 107 88 79
9.833914e+000 -1.612908e+000 -6.830833e+000 119 75 36
-4.005010e+000 1.783836e+000 -2.934124e+000 215 183 100
-4.174683e+000 -7.298754e+000 -2.041206e+000 88 163 202
2.053233e-001 8.772885e-001 -1.000459e+001 135 103 90
6.790084e+000 2.619003e+000 -6.587212e+000 173 100 60
1.315540e+001 3.120590e+000 -1.770146e+001 88 43 26
6.907607e+000 1.444594e+000 -6.356582e+000 71 38 32
6.907607e+000 1.444594e+000 -6.356582e+000 71 38 32
6.721570e+000 2.572429e+000 -6.970750e+000 169 87 58
1.284000e+001 4.996623e+000 -2.110033e+001 163 124 59
1.536568e+001 -1.972456e+000 -8.518489e+000 167 70 61
7.102346e+000 3.326299e+000 -9.666989e+000 129 49 38
1.778730e+001 -6.469588e+000 -8.693781e+000 182 133 67
-1.360346e+001 -4.679158e+000 -5.331569e+000 116 103 112
6.950427e+000 -9.635035e+000 -5.838013e+000 153 157 179
5.358468e+000 -6.801047e+000 -5.866968e+000 29 27 33
1.603223e+001 -1.245139e+001 -1.478727e+001 171 163 140
1.494118e+001 -6.425237e-001 -8.675582e+000 110 106 100
7.078770e+000 -6.640916e+000 -5.508056e+000 50 36 35
-4.061424e+000 -4.039493e-001 -2.622061e+000 60 78 92
-1.397445e+001 -5.078541e+000 -4.736977e+000 52 39 43
-1.947911e+000 -1.224445e+000 -1.215352e+001 20 13 21
-1.947911e+000 -1.224445e+000 -1.215352e+001 20 13 21
-1.248434e+000 -1.047805e+000 -1.348739e+001 24 19 25
-1.248434e+000 -1.047805e+000 -1.348739e+001 24 19 25
1.455039e+001 -4.570100e-002 -8.596125e+000 110 103 95
8.670196e+000 1.701174e+000 -7.059571e+000 109 49 51
-3.989835e+000 1.276610e+000 -2.842943e+000 176 176 112
1.092608e-001 -3.502664e-001 -8.973333e+000 122 64 38
1.229416e+001 4.217837e-001 -7.451333e+000 159 131 110
5.525365e+000 2.366934e+000 -8.341507e+000 97 91 70
-2.836043e+000 -3.766752e+000 2.258800e+000 52 73 93
-8.006647e+000 -2.932337e+000 -4.840723e+000 58 97 107
7.484700e-002 -5.671019e+000 -6.588254e+000 113 57 62
1.297705e+000 -5.420334e+000 -6.986893e+000 74 50 38
6.110135e+000 -6.924910e+000 -6.225360e+000 36 26 27
-3.157208e+000 -8.912627e+000 -1.602484e+000 94 80 71
-3.157208e+000 -8.912627e+000 -1.602484e+000 94 80 71
3.156993e+000 -1.049222e+001 -1.714346e+001 72 106 144
1.662615e+001 -1.337265e+001 -1.288559e+001 177 178 135
1.576570e+001 -1.603540e+001 -1.566055e+001 195 199 165
-4.008361e+000 -2.959010e+000 -2.255515e+000 70 88 100
7.132260e-001 -3.393742e+000 -5.542954e+000 99 87 67
3.796904e+000 -3.878327e+000 -7.417172e+000 91 83 80
-1.799341e+000 -6.189121e+000 -6.240732e+000 82 42 43
-2.014737e+000 -6.809921e+000 -6.388230e+000 39 29 24
-1.914974e+000 -6.807012e+000 -6.499980e+000 87 78 70
7.052352e+000 -7.724082e+000 -5.514374e+000 110 96 68
1.046897e+001 -9.328099e+000 -5.803101e+000 41 28 19
3.293030e+000 -1.034551e+001 -1.685188e+001 67 101 134
-6.896573e+000 -1.024479e+001 -9.640695e+000 96 116 148
1.612355e+001 -1.293585e+001 -1.488732e+001 176 174 136
1.650564e+001 -1.349518e+001 -1.447159e+001 185 183 142
1.487932e+001 -1.525348e+001 -1.999307e+001 165 166 122
1.552873e+001 -1.470570e+001 -1.687555e+001 189 189 151
1.631364e+001 -1.137301e+000 -9.014783e+000 42 35 25
1.631364e+001 -1.137301e+000 -9.014783e+000 42 35 25
7.719063e+000 -3.165023e+000 -5.791661e+000 43 32 31
1.409191e+000 -5.436899e+000 -6.667626e+000 43 24 26
-1.395394e+001 -4.973778e+000 -4.498568e+000 109 95 83
-1.395394e+001 -4.973778e+000 -4.498568e+000 109 95 83
1.667099e+000 -6.107850e+000 -7.389257e+000 79 70 68
6.021907e+000 -6.833678e+000 -6.076605e+000 89 79 73
7.306953e+000 -6.679107e+000 -4.988283e+000 98 42 49
6.609066e+000 -6.948572e+000 -6.441352e+000 44 28 29
6.121795e+000 -1.020778e+001 -9.325512e+000 128 130 129
1.663721e+001 -1.180024e+001 -1.301313e+001 161 157 121
1.547834e+001 -1.240862e+001 -1.736143e+001 179 176 141
1.554237e+001 -1.338417e+001 -1.783939e+001 159 157 117
1.600909e+001 -1.341073e+001 -1.220853e+001 187 189 143
1.594498e+001 -1.504133e+001 -1.596197e+001 162 167 126
1.612005e+001 -1.483353e+001 -1.389940e+001 183 184 142
1.602464e+001 -1.487014e+001 -1.405016e+001 152 154 117
-4.075800e+000 6.842126e-002 -2.583669e+000 56 74 76
-3.909638e+000 -1.602897e+000 -2.309910e+000 56 81 80
4.606227e+000 -7.603326e-001 -8.573676e+000 67 61 56
9.154566e+000 -5.028398e+000 -6.413678e+000 117 101 87
