ply
format ascii 1.0
element face 0
property list uchar int vertex_indices
element vertex 885
property float x
property float y
property float z
property uchar diffuse_red
property uchar diffuse_green
property uchar diffuse_blue
end_header
1.460269e+001 -6.540393e-001 -8.584985e+000 133 55 42
1.213405e+001 -2.085957e+000 -7.836946e+000 135 63 39
1.245736e+001 -5.837930e+000 -7.779773e+000 123 59 31
7.307322e+000 -1.522095e+000 -6.152178e+000 43 23 14
-7.281633e+000 -4.666267e+000 -5.302896e+000 86 162 197
1.414994e+001 1.947523e+000 -8.460033e+000 143 100 57
9.380602e+000 -1.606962e+000 -7.135461e+000 125 77 28
1.507090e+001 -8.422540e+000 -8.441373e+000 133 95 48
1.682438e+001 -8.983912e+000 -9.320823e+000 57 30 19
7.134943e+000 -3.167238e-001 -6.643988e+000 122 81 35
6.885634e+000 -4.768688e-001 -6.402225e+000 101 73 48
-3.228596e+000 -1.684347e+000 -2.173909e+000 109 65 45
9.916075e+000 -1.596430e+000 -7.166375e+000 46 28 21
1.098385e+000 -3.002402e+000 -5.940555e+000 31 16 16
1.449046e+000 -3.495109e+000 -6.540046e+000 87 59 48
6.958961e+000 -7.422666e+000 -6.674556e+000 137 74 38
7.129388e+000 -9.222670e+000 -7.188773e+000 173 103 69
1.535087e+001 3.982031e+000 -1.323540e+001 185 139 79
-1.198794e+001 -4.349524e+000 -5.925587e+000 163 121 106
1.393936e+000 -4.046213e+000 -7.379713e+000 105 46 41
4.904058e+000 -5.291240e+000 -8.328894e+000 93 66 53
-1.544566e+000 -5.482390e+000 -6.306714e+000 42 25 21
1.153959e+000 -6.303014e+000 -7.604436e+000 95 53 37
2.439024e+000 -7.711293e+000 -9.175561e+000 111 85 68
1.328018e+001 -8.945036e+000 -7.286638e+000 134 102 64
1.434987e+001 4.617351e+000 -1.564986e+001 162 112 53
6.910850e-001 -5.192699e-001 -8.532936e+000 132 102 89
-1.131189e+001 -3.290992e+000 -5.811738e+000 80 52 49
-1.360865e+001 -5.066642e+000 -5.007544e+000 97 54 35
-9.019362e-001 -6.615724e+000 -7.186082e+000 109 88 72
7.061538e+000 -7.933482e+000 -6.594085e+000 67 29 8
1.282108e+001 4.773558e+000 -1.983028e+001 177 127 60
1.327349e+001 3.839289e+000 -1.953553e+001 161 111 50
3.423344e+000 -1.628775e+000 -6.798298e+000 71 42 31
1.233799e+001 -5.629225e+000 -7.863405e+000 128 63 33
1.233799e+001 -5.629225e+000 -7.863405e+000 128 63 33
-3.492637e+000 -6.607414e+000 -2.338021e+000 224 190 97
-1.655390e+000 -8.081586e+000 -4.255755e+000 159 157 144
1.475454e+001 4.988126e+000 -1.462076e+001 176 126 58
1.500580e+001 5.170478e+000 -1.379236e+001 215 173 97
1.173492e+001 1.953576e+000 -8.007739e+000 130 59 26
1.178359e+001 1.454862e+000 -8.003059e+000 127 59 30
-1.200123e+001 -4.100008e+000 -5.914585e+000 165 115 93
6.935506e+000 -5.336327e+000 -6.884114e+000 142 75 47
1.622477e+001 -9.183733e+000 -8.297064e+000 58 39 18
1.348499e+001 5.511935e+000 -1.840242e+001 185 138 62
1.348499e+001 5.511935e+000 -1.840242e+001 185 138 62
6.197591e+000 -6.158653e+000 -6.539804e+000 111 84 62
1.499357e+001 -4.821052e+000 -8.651962e+000 140 96 51
1.214021e+001 -2.089921e+000 -7.843066e+000 138 69 38
1.239763e+001 -5.776901e+000 -7.646054e+000 143 67 43
1.499634e+001 -7.353411e+000 -8.109080e+000 134 56 36
1.501838e+001 -8.920912e+000 -8.472054e+000 131 87 40
1.387311e+001 -9.377309e+000 -7.813270e+000 81 49 26
1.645825e+001 -9.374817e+000 -8.833989e+000 72 46 24
1.206295e+001 1.653286e+000 -8.395905e+000 128 59 30
1.469399e+001 1.864766e+000 -9.380684e+000 140 96 49
6.503179e+000 2.811486e+000 -6.923471e+000 137 96 73
9.808945e+000 3.194530e+000 -7.325178e+000 115 98 77
-2.518585e+000 2.180604e+000 -3.786659e+000 82 64 62
6.821429e+000 -4.284696e-001 -6.110942e+000 88 88 72
-7.728243e+000 -2.686320e+000 -5.005879e+000 189 224 219
-7.710584e+000 -2.854332e+000 -4.937989e+000 187 222 216
7.005356e+000 -4.990086e+000 -5.702165e+000 86 73 65
6.999994e+000 -5.899178e+000 -6.818734e+000 95 77 59
7.024016e+000 -7.442919e+000 -6.393915e+000 118 90 74
-2.371334e+000 -8.305149e+000 -3.068862e+000 56 51 55
1.056350e+001 -9.712444e+000 -6.404383e+000 121 106 85
6.384370e+000 2.881410e+000 -7.098346e+000 138 100 80
1.274751e+001 3.145219e+000 -8.283167e+000 74 67 54
-2.391449e+000 2.151466e+000 -3.607380e+000 37 21 19
-7.820104e+000 -2.624336e+000 -5.014296e+000 61 94 93
-7.768655e+000 -2.607432e+000 -4.906067e+000 61 94 93
7.233068e+000 -3.097739e+000 -5.880812e+000 36 25 21
7.233534e+000 -3.101602e+000 -5.895579e+000 36 25 21
-7.684797e+000 -3.562320e+000 -4.862359e+000 57 85 89
-4.735196e+000 -3.625414e+000 -3.040720e+000 55 80 90
-4.351893e+000 -4.261551e+000 -2.779607e+000 76 103 101
8.890429e+000 -4.340463e+000 -6.360235e+000 79 55 31
8.880777e+000 -4.345373e+000 -6.325316e+000 79 55 31
-2.061167e+000 -6.959701e+000 -3.253499e+000 28 28 36
6.979413e+000 -7.572222e+000 -6.234489e+000 115 90 70
-4.339637e+000 2.371445e+000 -2.859570e+000 46 28 28
5.883537e+000 3.107571e+000 -9.610789e+000 102 94 77
6.593849e+000 5.019530e-001 -6.262711e+000 48 38 29
6.406687e+000 -1.059948e+000 5.635944e+000 34 34 28
-7.819048e+000 -2.350938e+000 -4.873356e+000 185 131 107
-7.919411e+000 -3.921938e+000 -4.963176e+000 70 94 98
-7.632965e+000 -4.211176e+000 -4.882597e+000 192 138 121
6.947536e+000 -7.256838e+000 -5.810396e+000 56 39 31
7.131085e+000 -7.765067e+000 -6.221836e+000 47 35 31
7.184388e+000 -9.523436e+000 -6.339647e+000 167 182 189
-3.664107e+000 2.403031e+000 -2.333156e+000 72 53 47
1.055692e+001 3.298696e+000 -7.391746e+000 111 99 76
-4.997152e+000 1.313007e+000 -3.434531e+000 48 40 36
1.091107e+001 1.622110e-001 -7.587013e+000 107 98 69
-7.998838e+000 -2.914050e+000 -5.100145e+000 185 220 216
7.041291e+000 -3.151528e+000 -5.960217e+000 33 22 16
-7.856610e+000 -3.791675e+000 -4.973237e+000 184 218 217
-4.523789e+000 -3.426388e+000 -3.019726e+000 78 111 126
8.508599e+000 -4.713976e+000 -6.094953e+000 120 101 77
5.819046e+000 -2.967180e+000 6.236883e+000 115 103 77
-3.826074e+000 -5.885830e+000 -2.274507e+000 73 102 114
2.267758e+000 -8.329863e+000 -5.593998e+000 126 104 93
8.848042e+000 -8.384234e+000 -5.699601e+000 117 104 80
-3.801626e+000 2.591269e+000 -2.479756e+000 121 103 84
-3.943531e+000 2.099670e+000 -2.849576e+000 179 175 98
6.452489e+000 2.993796e+000 -7.152465e+000 142 107 80
8.389727e+000 2.947597e+000 -6.840027e+000 107 95 71
6.683703e+000 2.526089e+000 -6.397241e+000 146 102 67
-3.913904e+000 7.174558e-001 -2.607576e+000 63 88 93
-3.739090e+000 -1.572175e+000 -2.389327e+000 60 88 92
-3.774830e+000 -5.273633e+000 -2.353448e+000 58 89 95
6.135058e+000 -8.246942e+000 -6.750986e+000 59 51 58
7.005139e+000 -9.313931e+000 -6.527287e+000 158 115 124
-3.232705e+000 -8.845087e+000 -1.860097e+000 58 41 41
-3.521997e+000 2.597850e+000 -2.312911e+000 57 45 43
7.972138e+000 2.777351e+000 -6.639282e+000 108 53 46
-7.591503e+000 -2.730102e+000 -4.954102e+000 191 223 217
-7.855819e+000 -4.128193e+000 -4.930497e+000 194 225 224
6.518572e+000 -6.070434e+000 -6.773730e+000 91 72 68
-3.832729e+000 -6.177687e+000 -2.394400e+000 183 179 115
7.073620e+000 -7.028330e+000 -5.572494e+000 131 122 108
7.047817e+000 -7.018358e+000 -5.501667e+000 131 122 108
6.723321e+000 1.823599e+000 -6.537886e+000 121 104 62
-4.064958e+000 2.662944e-001 -9.132268e+000 21 20 25
9.674399e+000 -5.364164e+000 -1.884067e+001 83 40 38
-3.664140e+000 2.074663e+000 -2.451739e+000 180 178 99
-3.676788e+000 -1.360903e+000 -2.646443e+000 173 176 101
-4.673722e+000 -3.065939e+000 -2.902610e+000 52 74 85
7.029379e+000 1.871920e+000 -6.320352e+000 40 29 25
-3.749078e+000 1.001421e+000 -2.623324e+000 182 178 105
-3.754666e+000 -2.955732e-001 -2.753476e+000 181 179 102
-3.736278e+000 -1.881763e+000 -2.673193e+000 184 179 111
-3.674638e+000 -2.494118e+000 -2.599412e+000 184 180 117
-3.658571e+000 -3.042673e+000 -2.566443e+000 184 182 108
7.326828e+000 -4.656305e+000 -5.916548e+000 37 26 24
-3.660759e+000 -4.986949e+000 -2.478583e+000 183 180 111
-3.782044e+000 1.632731e+000 -2.647256e+000 185 179 105
6.315499e+000 2.149077e+000 -7.811033e+000 50 31 27
-3.876461e+000 3.627991e-001 -2.864569e+000 186 179 107
-3.723163e+000 -8.180112e-001 -2.598512e+000 182 179 108
-3.748090e+000 -3.564402e+000 -2.648513e+000 188 184 114
8.565602e+000 -7.653816e+000 -5.650637e+000 119 95 69
1.002303e+001 -9.440126e+000 -6.205741e+000 76 56 47
8.252325e+000 2.508740e+000 -6.574208e+000 106 90 64
-4.305976e+000 7.140807e-001 -2.500405e+000 55 72 80
-4.435431e+000 -3.872941e+000 -2.686152e+000 59 76 88
-3.798633e+000 -4.319913e+000 -2.624109e+000 187 183 111
-4.312911e+000 -4.893400e+000 -2.318840e+000 62 82 93
-4.478182e+000 -7.021828e+000 -2.617534e+000 60 79 93
-3.720868e+000 -6.718692e+000 -2.404253e+000 179 176 109
-7.371541e+000 -2.907109e+000 -1.178313e+001 55 74 81
5.369352e+000 -9.662701e-001 -7.221985e+000 35 25 24
-1.310081e+001 -4.569557e+000 -5.270132e+000 192 138 114
7.381079e+000 -5.183261e+000 -5.965402e+000 122 83 50
1.404298e+001 5.151313e+000 -1.642019e+001 193 146 78
1.495205e+001 5.458569e+000 -1.383104e+001 220 177 98
-1.355451e+001 -4.990901e+000 -5.157898e+000 106 56 33
1.103074e+001 -9.521998e+000 -6.640601e+000 127 89 57
1.364886e+001 4.632124e+000 -1.834569e+001 177 132 64
1.439930e+001 4.598405e+000 -1.575827e+001 159 113 54
1.507810e+001 -4.391944e+000 -9.023057e+000 132 53 36
1.561506e+001 -9.110754e+000 -8.390317e+000 87 49 23
1.485261e+001 4.373838e+000 -1.432276e+001 199 153 86
8.482515e+000 2.332416e+000 -7.004523e+000 132 79 24
1.231218e+001 -2.342622e+000 -7.737816e+000 143 100 63
1.248124e+001 -5.416295e+000 -7.450028e+000 139 96 60
6.869779e+000 -7.281405e+000 -6.928511e+000 117 76 44
1.524226e+001 -8.099292e+000 -8.394847e+000 153 110 66
1.173628e+001 1.514272e+000 -7.883501e+000 131 64 35
3.195560e+000 -7.389914e+000 -9.025755e+000 98 78 61
1.488058e+001 -5.764896e+000 -8.323274e+000 139 57 38
1.044603e+001 -2.429008e-001 -7.311328e+000 133 98 60
-1.406738e+001 -4.459592e+000 -5.230586e+000 211 140 102
5.998938e+000 3.354408e+000 -8.275985e+000 116 119 92
5.942011e+000 3.328567e+000 -7.976322e+000 116 119 92
-3.543423e+000 2.359737e+000 -2.695196e+000 58 40 28
6.430615e+000 2.798766e+000 -7.126688e+000 153 127 110
6.371586e+000 2.609660e+000 -7.675966e+000 129 106 88
-8.302081e+000 -3.262693e+000 -5.482654e+000 170 201 193
-7.923319e+000 -2.799204e+000 -5.249609e+000 76 100 100
-7.928775e+000 -2.892110e+000 -5.239651e+000 71 99 97
-7.804480e+000 -2.811094e+000 -4.971047e+000 71 99 97
-7.885910e+000 -2.990934e+000 -5.171775e+000 84 113 111
-7.771940e+000 -3.854197e+000 -5.079946e+000 77 105 108
-7.771940e+000 -3.854197e+000 -5.079946e+000 77 105 108
-7.691169e+000 -3.944972e+000 -4.945253e+000 74 104 102
-7.743516e+000 -4.098146e+000 -5.079117e+000 81 105 105
-8.107146e+000 -4.359253e+000 -5.343293e+000 174 207 199
6.023602e+000 3.285602e+000 -7.880027e+000 94 94 75
6.239897e+000 2.768015e+000 -6.972758e+000 129 141 136
6.153286e+000 2.652477e+000 -7.291525e+000 107 75 59
6.418805e+000 2.436637e+000 -7.665940e+000 122 91 78
-4.044674e+000 1.165918e+000 -2.943393e+000 54 72 83
6.528042e+000 1.543875e+000 -6.139836e+000 42 32 26
6.632308e+000 6.491349e-001 -6.458607e+000 48 35 25
6.506387e+000 6.890303e-001 -6.006152e+000 48 35 25
6.844670e+000 -2.955102e-001 -6.234483e+000 88 81 65
-4.160273e+000 -9.331733e-001 -2.906664e+000 57 77 84
6.842249e+000 -1.086456e+000 -6.289902e+000 39 28 21
-7.826689e+000 -3.647820e+000 -5.171841e+000 71 102 98
-7.825123e+000 -3.630992e+000 -4.934830e+000 162 194 190
-7.888698e+000 -3.964575e+000 -5.175465e+000 165 197 197
-7.915250e+000 -3.982080e+000 -5.238042e+000 165 197 197
5.876515e+000 -3.675667e+000 -7.462919e+000 46 35 33
-7.763964e+000 -4.193224e+000 -5.081844e+000 168 210 197
-3.367040e+000 -3.416475e+000 -2.413224e+000 74 57 50
7.157609e+000 -6.773728e+000 -7.158794e+000 87 64 45
7.135443e+000 -7.356446e+000 -6.456552e+000 49 39 23
7.186905e+000 -7.790124e+000 -6.037043e+000 56 48 35
7.213002e+000 -7.761827e+000 -5.852000e+000 56 47 33
6.355936e+000 3.067304e+000 -6.549519e+000 133 88 67
6.341867e+000 3.007089e+000 -6.119851e+000 144 163 156
6.379918e+000 2.799824e+000 -6.051561e+000 147 138 78
-2.517060e+000 1.903899e+000 -4.020619e+000 51 40 34
-4.981195e+000 1.159906e+000 -3.517182e+000 61 79 82
-3.813588e+000 -6.623733e-002 -2.693605e+000 55 70 95
-3.813588e+000 -6.623733e-002 -2.693605e+000 55 70 95
7.244164e+000 -1.064211e+000 -5.795371e+000 32 18 15
-1.011266e+001 -3.292284e+000 -7.120338e+000 167 123 102
-8.006488e+000 -3.035791e+000 -4.989955e+000 68 97 93
-8.232301e+000 -3.169801e+000 -5.448826e+000 68 97 93
7.167995e+000 -3.084381e+000 -5.991664e+000 57 46 39
-7.557037e+000 -4.172023e+000 -5.061053e+000 166 115 97
6.929877e+000 -7.471261e+000 -6.072055e+000 88 67 51
-4.306382e+000 -8.453078e+000 -2.671908e+000 39 48 62
1.071939e+001 -9.789760e+000 -6.845778e+000 111 101 73
-3.141495e+000 -8.568185e+000 -1.923141e+000 81 66 58
6.116278e+000 3.317930e+000 -7.713049e+000 146 167 170
5.151333e+000 3.108444e+000 -9.950488e+000 135 165 164
5.403168e+000 3.138791e+000 -1.044611e+001 72 70 54
5.569689e+000 4.527318e-001 -6.539240e+000 79 64 57
6.661040e+000 -1.016050e+000 -6.103673e+000 37 27 16
-1.134556e+001 -3.188764e+000 -6.587359e+000 86 78 89
-8.063406e+000 -2.760122e+000 -5.026920e+000 59 87 83
-7.199500e+000 -2.734893e+000 -4.675745e+000 165 112 98
6.876383e+000 -5.021440e+000 -6.037367e+000 47 37 27
6.838583e+000 -5.270454e+000 -5.872889e+000 50 39 25
7.574818e+000 -4.916961e+000 -6.022618e+000 33 25 25
-3.819753e+000 -5.860633e+000 -2.236214e+000 63 80 89
7.001928e+000 -9.120344e+000 -7.302837e+000 118 92 91
-3.992585e+000 -8.155881e+000 -2.276335e+000 50 58 61
-4.080792e+000 -8.335624e+000 -2.544153e+000 50 58 61
-4.119092e+000 -8.402271e+000 -2.893708e+000 167 165 105
-3.973798e+000 6.847444e-001 -2.847518e+000 61 85 87
6.644070e+000 6.045868e-001 -5.813133e+000 82 72 58
6.829880e+000 2.286732e-001 -6.397701e+000 81 69 57
-3.870721e+000 -5.650685e-001 -2.678852e+000 50 72 70
-3.870721e+000 -5.650685e-001 -2.678852e+000 50 72 70
6.707293e+000 -4.477083e-001 -5.850863e+000 78 73 54
-3.877977e+000 -3.258813e+000 -2.566892e+000 51 70 74
-3.877977e+000 -3.258813e+000 -2.566892e+000 51 70 74
1.108377e+001 -3.489752e+000 -7.178620e+000 108 92 66
-3.847879e+000 -3.873345e+000 -2.368212e+000 53 73 71
6.543287e+000 -5.894325e+000 -6.969015e+000 37 23 22
6.965662e+000 -6.126486e+000 -6.047730e+000 43 35 22
7.174558e+000 -6.110588e+000 -6.039673e+000 89 78 62
6.779003e+000 -9.442987e+000 -7.712929e+000 130 133 138
6.811522e+000 -9.869322e+000 -8.095286e+000 82 78 76
-4.122368e+000 -8.419641e+000 -2.405081e+000 167 164 110
7.146767e+000 -9.927188e+000 -6.874860e+000 141 109 109
5.123592e+000 3.064001e+000 -1.001452e+001 136 166 164
-8.206093e+000 -2.631484e+000 -5.423951e+000 176 206 197
-9.560874e+000 -3.167890e+000 -5.960145e+000 161 114 104
-4.315564e+000 -3.019479e+000 -2.871661e+000 76 107 114
5.927709e+000 -6.008679e+000 -6.400846e+000 84 66 57
-3.975275e+000 -6.623932e+000 -2.343932e+000 162 161 96
6.530708e+000 2.183393e+000 -5.928465e+000 129 116 65
-1.004746e+001 -3.434188e+000 -6.887534e+000 162 114 104
-1.004746e+001 -3.434188e+000 -6.887534e+000 162 114 104
-7.393116e+000 -3.688047e+000 -4.771672e+000 174 207 199
6.713813e+000 -4.637427e+000 -6.465723e+000 64 32 25
-4.271703e+000 -7.535611e+000 -2.601111e+000 161 160 96
7.168237e+000 -1.379251e+000 -6.107202e+000 36 22 21
1.113138e+001 -3.869889e+000 -7.118430e+000 104 48 33
1.143571e+001 -7.846148e+000 -7.022616e+000 113 62 42
7.852733e+000 -6.223395e+000 -5.873756e+000 98 38 38
4.662893e+000 2.871640e+000 -1.057566e+001 135 163 164
7.280986e+000 1.609416e+000 -6.426791e+000 42 24 17
5.793776e+000 -4.263457e-001 -1.053173e+001 27 17 23
2.750232e+000 -9.722631e-001 -8.091070e+000 74 61 52
7.085149e+000 -1.085070e+000 -6.236498e+000 119 47 43
-8.016714e+000 -3.724977e+000 -5.025082e+000 84 114 124
8.060854e+000 2.276357e+000 -6.809613e+000 118 103 78
-3.867666e+000 -4.948426e+000 -2.470356e+000 186 187 120
6.697107e+000 1.784868e+000 -6.394045e+000 132 114 64
7.625510e+000 -9.709049e+000 -5.894561e+000 58 44 43
1.040392e+001 -9.773246e+000 -6.814043e+000 83 60 44
-3.817485e+000 1.001695e+000 -2.874545e+000 190 187 110
-4.550302e+000 -4.030048e+000 -2.975894e+000 64 83 97
-4.294305e+000 -4.825613e+000 -2.242016e+000 69 88 103
-4.425985e+000 -2.650657e-001 -2.671719e+000 62 79 90
1.382731e+001 -3.707702e+000 -8.471910e+000 42 39 34
1.098425e+001 -2.998799e+000 -8.715969e+000 128 112 86
1.006354e+000 -6.716664e-001 -7.822799e+000 81 70 60
-2.468177e+000 2.204423e+000 -3.983793e+000 33 19 18
6.691202e+000 -1.048215e+000 -6.666409e+000 87 58 47
-4.924677e+000 -7.679648e+000 -2.869891e+000 55 73 90
7.134532e+000 -9.900906e+000 -6.457859e+000 162 159 150
1.139037e+000 -9.127161e-001 -7.603677e+000 88 76 64
-7.489339e+000 -3.631160e+000 -4.740032e+000 197 227 222
1.718922e+001 -9.894383e+000 -9.164450e+000 133 117 91
1.113333e+001 -1.008056e+001 -7.168150e+000 121 105 79
7.173236e+000 -6.764345e+000 -5.964087e+000 114 104 83
1.738954e+001 -1.251505e+001 -1.000708e+001 161 144 100
7.671364e+000 -9.858794e+000 -6.052005e+000 58 46 46
-7.808381e+000 -2.693878e+000 -5.002428e+000 78 100 87
9.546980e+000 3.277707e+000 -7.010253e+000 39 22 7
-7.850274e+000 -3.044831e+000 -4.935101e+000 149 182 164
-7.889090e+000 -3.928480e+000 -4.922673e+000 76 102 89
-7.603291e+000 -3.916224e+000 -4.753718e+000 81 104 90
-7.659419e+000 -4.007748e+000 -4.884059e+000 81 104 90
-7.836668e+000 1.190674e+000 -1.075956e+001 67 68 66
-7.788009e+000 1.233294e+000 -1.065540e+001 67 68 66
-6.917892e+000 1.210544e+000 -7.935647e+000 157 99 110
1.302597e+001 3.697527e+000 -1.134227e+001 51 33 24
-8.040460e+000 -3.806633e+000 -5.079277e+000 61 82 72
-7.648198e+000 -3.587845e+000 -4.804064e+000 70 92 80
-7.887475e+000 -3.881810e+000 -5.064870e+000 157 182 163
1.721752e+001 -3.857884e+000 -8.816296e+000 86 65 34
1.434562e+001 5.765178e+000 -1.416678e+001 145 140 76
8.936984e+000 3.445248e+000 -1.319347e+001 81 62 34
-7.914982e+000 -2.564686e+000 -5.029023e+000 166 188 165
1.490719e+001 3.553582e+000 -1.472942e+001 101 97 50
1.482985e+001 3.766257e+000 -1.361498e+001 93 86 45
1.651542e+001 -1.080183e+001 -9.266647e+000 139 125 79
1.802413e+001 -2.302283e+001 -1.618423e+001 131 119 75
-1.168969e+001 -3.797126e+000 -5.712705e+000 74 73 87
1.720281e+001 -3.664332e+000 -8.722006e+000 90 75 38
1.482746e+001 -6.804468e+000 -8.507169e+000 32 28 16
1.067927e+001 3.666221e+000 -7.878449e+000 60 48 22
1.241024e+001 1.732331e+000 -8.244720e+000 100 86 57
1.089255e+001 -1.790246e-001 -7.423202e+000 96 51 28
1.465388e+001 -2.431225e+000 -8.781798e+000 32 26 18
1.113964e+001 -3.894038e+000 -7.242088e+000 98 52 29
1.447238e+001 -7.844289e+000 -8.293632e+000 105 88 63
1.376921e+001 3.755074e+000 -1.844534e+001 103 97 49
9.283563e+000 3.472758e+000 -6.916403e+000 52 34 22
1.334292e+001 2.760040e+000 -8.247121e+000 92 78 51
1.776802e+001 -1.038200e+001 -9.250251e+000 130 118 70
1.589627e+001 -1.387107e+000 -8.822731e+000 43 29 19
1.643764e+001 -4.478553e+000 -9.029388e+000 48 31 23
1.648905e+001 -4.522321e+000 -9.103946e+000 48 31 23
8.218189e+000 2.533377e+000 -6.561873e+000 91 72 39
1.321020e+001 1.862600e+000 -8.370914e+000 30 25 18
1.321020e+001 1.862600e+000 -8.370914e+000 30 25 18
1.447014e+001 -1.291543e+000 -8.380487e+000 96 80 52
1.385393e+001 -2.239659e+000 -8.681247e+000 29 26 19
1.474943e+001 -3.149415e+000 -8.378149e+000 101 87 58
1.480223e+001 -4.535497e+000 -8.150609e+000 98 85 53
1.541413e+001 -6.550178e+000 -8.443302e+000 96 83 51
9.491776e+000 3.248491e+000 -1.117675e+001 87 78 45
1.368474e+001 3.045035e+000 -1.477325e+001 40 31 21
1.435364e+001 2.858261e+000 -1.519501e+001 90 42 35
-3.699597e+000 2.763692e+000 -2.948922e+000 165 147 128
8.179077e+000 1.922034e+000 -6.809033e+000 127 80 37
-4.866371e+000 4.962371e-001 -3.248793e+000 99 162 192
1.714954e+001 -5.814712e+000 -9.380202e+000 153 110 60
-3.742971e+000 2.806796e+000 -3.169446e+000 57 37 26
1.781310e+001 -7.306556e+000 -7.464813e+000 187 136 55
1.777083e+001 -7.271528e+000 -7.415596e+000 187 136 55
1.747686e+001 -7.652796e+000 -8.411502e+000 176 123 54
9.131377e+000 3.449730e+000 -7.059448e+000 85 44 26
1.591147e+001 -4.165958e+000 -8.706400e+000 70 39 19
3.706010e+001 -1.078543e+001 -6.341974e+001 146 74 52
3.833608e+000 5.996812e-001 5.535365e+000 143 132 107
-1.897259e-001 -1.080081e+000 -6.088871e+000 94 82 74
9.778305e-001 -4.172283e-001 -7.419552e+000 89 79 69
7.531614e-001 -5.198187e-001 -7.441286e+000 88 80 69
-5.500710e+000 1.429937e+000 -1.232704e+001 22 34 50
-5.500710e+000 1.429937e+000 -1.232704e+001 22 34 50
2.595848e+000 -6.909687e+000 -8.286148e+000 94 88 75
3.890241e+000 2.763424e+000 -1.382789e+001 72 69 52
2.603075e+000 -3.908249e+000 -9.017142e+000 19 17 18
1.981038e+000 -4.182789e+000 -7.102040e+000 29 18 17
7.864217e+000 -1.481186e+000 -7.722090e+000 53 26 1
1.204780e+001 -4.590331e-001 -1.910754e+001 120 101 79
7.626538e+000 3.008069e+000 -6.496435e+000 113 96 80
1.064382e+001 1.735336e-002 -7.374542e+000 112 105 76
8.799226e+000 -3.405188e+000 -6.696376e+000 121 101 80
8.294971e+000 -4.190691e+000 -6.027622e+000 121 106 81
1.308901e+001 -9.775296e+000 -7.515551e+000 109 94 68
1.456503e+001 -8.397340e+000 -8.034388e+000 41 37 36
1.297687e+001 3.233345e+000 -8.584053e+000 70 59 48
1.361761e+001 -5.248004e-001 -8.667669e+000 38 36 37
1.359088e+001 1.616398e+000 -8.947460e+000 38 37 32
1.373103e+001 -8.884725e+000 -7.506634e+000 53 49 46
3.259922e+000 2.742375e+000 -2.010667e+001 147 138 130
1.442794e+001 -9.422789e+000 -8.001967e+000 79 64 50
1.249786e+001 2.073503e+000 -8.187184e+000 90 84 59
7.007779e+000 -7.315625e+000 -6.401924e+000 84 64 48
7.763667e+000 -7.849733e+000 -5.867934e+000 57 39 31
1.706109e+000 -4.330606e+000 -6.404732e+000 27 15 20
5.047014e-001 -3.054772e+000 -5.739357e+000 101 72 54
1.386751e+001 -9.946086e+000 -8.091512e+000 46 35 29
1.288312e+001 -5.945579e+000 -7.659333e+000 95 83 57
7.286933e+000 2.920547e+000 -6.718848e+000 43 31 26
-6.626915e+000 -3.149831e-001 -4.402063e+000 199 141 117
-3.465154e-001 -9.351298e-001 -6.641481e+000 32 25 19
9.765004e+000 3.115218e+000 -7.430195e+000 45 33 17
9.638457e-001 -3.996838e-001 -8.565676e+000 70 57 52
6.908740e+000 -5.782982e+000 -6.390767e+000 110 78 65
1.359142e+001 -9.860407e+000 -8.038450e+000 133 118 90
-2.741720e+000 5.843282e-001 6.212103e-001 66 100 96
-2.741720e+000 5.843282e-001 6.212103e-001 66 100 96
6.433141e-001 -7.823424e+000 -8.194169e+000 31 30 35
-3.775026e+000 -5.276066e+000 -2.336670e+000 73 97 103
8.421750e+000 -5.682962e-001 -6.532666e+000 122 105 78
-7.039903e+000 -3.327877e+000 -4.560689e+000 198 142 129
1.491256e+001 -4.344447e+000 -6.772056e+000 121 108 91
6.357683e+000 -8.611556e+000 -7.032077e+000 78 106 130
-3.997949e+000 -3.592957e+000 -2.680316e+000 189 186 117
8.444190e+000 -3.803149e+000 -6.443932e+000 123 51 45
1.531475e+000 -7.073538e+000 -8.187515e+000 112 92 81
1.495337e+001 -8.506025e+000 -8.285565e+000 48 45 34
1.495337e+001 -8.506025e+000 -8.285565e+000 48 45 34
-2.682524e+000 -7.307093e-002 -3.787630e+000 26 21 27
4.958199e+000 -2.814153e+000 -8.321990e+000 67 52 49
-4.373568e+000 -6.298601e+000 -2.505608e+000 68 86 100
7.302258e+000 2.974699e+000 -6.488229e+000 107 59 53
9.706301e+000 3.027043e+000 -7.265190e+000 113 101 75
-1.866232e+000 -1.220961e+000 -5.535109e+000 73 65 63
3.508772e-001 -4.070721e+000 -6.803750e+000 73 59 58
-3.093598e+000 -8.608357e+000 -1.965383e+000 96 79 72
-7.904582e+000 -3.604766e+000 -4.790953e+000 80 103 114
-1.576502e+000 -7.075589e+000 -6.970054e+000 102 69 54
-2.143305e-001 -8.581933e+000 -8.095154e+000 115 46 64
1.334145e+001 3.002688e+000 -8.877667e+000 47 38 29
1.301986e+001 -1.026743e+001 -7.545898e+000 187 175 133
1.029512e+000 -5.512611e+000 -6.876941e+000 109 53 52
-3.940194e+000 -7.932407e+000 -2.882295e+000 187 180 108
-7.556238e+000 -3.629320e+000 -4.603316e+000 83 103 91
3.526728e+000 -3.528009e+000 -7.120991e+000 77 41 41
-4.997092e+000 -7.592222e+000 -3.087106e+000 39 51 51
-7.924266e+000 1.732673e-001 -1.342090e+001 159 132 89
1.429364e+000 1.346284e+000 -1.478313e+001 74 68 68
5.548538e+000 3.077358e+000 -1.034726e+001 72 69 50
7.370491e+000 1.511194e+000 -6.756333e+000 37 17 10
-7.632868e+000 -2.607417e+000 -4.601717e+000 74 100 88
-7.632868e+000 -2.607417e+000 -4.601717e+000 74 100 88
-2.370598e+000 1.838644e+000 -3.942817e+000 24 19 18
2.168906e-001 -1.039752e+000 -6.470670e+000 63 57 43
6.865683e+000 -5.338869e-001 -6.335413e+000 73 61 44
-1.318623e+000 -1.508821e+001 -1.696754e+001 39 30 24
7.105350e+000 -6.706308e+000 -6.447763e+000 52 38 25
1.494296e+001 4.002880e+000 -1.449304e+001 94 88 39
5.854306e+000 2.948117e+000 -9.866599e+000 90 87 68
-3.948504e+000 7.453669e-001 -2.750464e+000 47 60 57
4.906204e+000 5.865503e-001 -7.008828e+000 20 15 12
-3.885489e+000 -5.540659e-001 -2.710575e+000 42 50 54
1.165953e+000 -3.683781e+000 -6.573834e+000 98 58 39
-4.222689e+000 -4.530813e+000 -2.579614e+000 42 51 52
-3.817197e+000 -4.656837e+000 -2.377973e+000 50 59 55
-3.817197e+000 -4.656837e+000 -2.377973e+000 50 59 55
3.160169e+000 2.732105e+000 -1.791154e+001 138 155 146
-2.459637e+000 -3.013686e-002 -3.729884e+000 19 17 20
-2.459637e+000 -3.013686e-002 -3.729884e+000 19 17 20
1.074715e+001 -2.977807e-001 -7.640079e+000 95 49 28
8.097926e-001 -4.400516e+000 -5.801184e+000 92 74 54
3.512539e+000 -8.103375e+000 -9.201769e+000 132 117 86
6.817156e+000 -5.229244e+000 -5.565392e+000 50 37 21
7.059730e+000 -5.239405e+000 -5.757362e+000 83 71 53
-3.873994e+000 -5.595876e+000 -2.397591e+000 151 142 89
-3.873994e+000 -5.595876e+000 -2.397591e+000 151 142 89
-4.022474e+000 -6.902050e+000 -2.194420e+000 40 50 42
-4.022474e+000 -6.902050e+000 -2.194420e+000 40 50 42
1.236239e+001 -9.820597e+000 -7.343645e+000 106 82 43
3.275494e+000 2.779566e+000 -1.915624e+001 41 34 18
1.040721e+001 3.445175e+000 -7.961874e+000 99 84 55
1.532579e+000 -4.897822e-001 -8.729593e+000 59 49 42
1.605378e+000 -6.844737e-001 -7.937990e+000 16 15 13
1.255850e+001 1.142303e+000 -8.210880e+000 98 84 51
-4.031441e+000 -3.984136e+000 -2.649960e+000 42 49 56
-4.216885e+000 -7.349892e+000 -2.369902e+000 154 144 83
1.267543e+000 -9.196444e-001 -8.209366e+000 67 58 43
3.725466e+000 1.408440e+000 -1.569337e+001 26 18 13
3.725466e+000 1.408440e+000 -1.569337e+001 26 18 13
3.644086e+000 7.381339e-001 -1.585500e+001 68 64 61
6.266502e+000 3.230101e+000 -8.029012e+000 127 147 139
1.297220e+001 3.499358e+000 -1.011916e+001 37 33 22
-4.024755e+000 2.364348e+000 -2.878949e+000 54 43 36
-4.024755e+000 2.364348e+000 -2.878949e+000 54 43 36
-6.326133e+000 2.056336e-001 -4.219723e+000 48 48 45
-5.227568e+000 8.228778e-001 -3.356452e+000 150 97 74
-5.227568e+000 8.228778e-001 -3.356452e+000 150 97 74
8.592096e+000 -5.342812e+000 -6.503652e+000 92 36 26
-2.493852e+000 -7.623786e+000 -3.023296e+000 23 24 28
1.284031e+001 2.933225e+000 -8.497943e+000 36 32 23
-2.673923e+000 1.188438e+000 -3.725664e+000 26 24 25
4.584256e+000 1.025210e+000 -7.253030e+000 20 15 12
2.530751e+000 -6.438763e-001 -8.007430e+000 58 47 36
-2.073289e+001 -1.334315e+001 -2.041615e+001 110 113 122
7.186642e+000 2.215387e+000 -6.217757e+000 41 21 18
4.923185e-001 -4.691226e-001 -8.150499e+000 27 17 11
-1.140016e+001 -3.383073e+000 -5.625556e+000 103 102 108
-1.140016e+001 -3.383073e+000 -5.625556e+000 103 102 108
1.060991e+000 -2.891391e+000 -6.004731e+000 43 21 10
8.983240e+000 -4.464908e+000 -6.609555e+000 89 60 27
7.127709e+000 -7.940618e+000 -6.652464e+000 91 66 46
1.324226e+001 3.083920e+000 -8.594019e+000 40 25 16
3.534904e+000 -1.145953e+000 -7.431053e+000 16 11 13
-4.009632e+000 -6.555809e+000 -2.591331e+000 59 60 39
-1.576159e-001 -6.650559e-001 -7.390250e+000 74 60 47
1.442955e+001 2.679724e-001 -8.878097e+000 38 31 21
1.450769e+001 -3.842171e+000 -8.597909e+000 38 30 20
1.497263e+001 -9.202535e+000 -8.320447e+000 111 90 61
1.444590e+001 -3.827254e+000 -8.571331e+000 38 29 21
1.666819e+001 -1.007760e+001 -8.668145e+000 138 116 69
7.870546e+000 -9.855120e+000 -6.289132e+000 48 34 23
1.355194e+001 -4.480865e-001 -8.641923e+000 33 27 17
1.409974e+001 -6.287795e+000 -8.442171e+000 38 31 21
3.180941e+000 -7.620507e-001 -8.439733e+000 111 83 64
-3.568874e+000 -1.470350e+000 2.795622e+000 96 160 204
9.496156e+000 3.685705e+000 -7.173664e+000 136 94 68
5.256738e+000 2.768117e+000 -1.039897e+001 54 32 21
8.913748e-001 -8.694630e-001 -7.402007e+000 112 87 79
1.549202e+000 -6.318199e+000 -7.905932e+000 150 126 122
4.808693e+000 -6.057860e+000 -7.138706e+000 138 44 63
4.674389e+000 -5.977532e+000 -6.989658e+000 43 22 17
-3.596973e-001 -1.131156e+000 -6.172817e+000 64 45 28
6.819908e+000 -5.913985e+000 -7.097895e+000 95 63 54
7.329181e-001 -7.997515e-001 -7.055185e+000 98 77 63
-1.767033e-001 -1.396264e+000 -5.371874e+000 48 32 23
1.680224e+000 -8.861513e-001 -7.015047e+000 49 25 21
7.243686e+000 -5.225064e+000 -6.656894e+000 74 57 47
7.181606e+000 -5.118995e+000 -6.064659e+000 77 58 48
-2.032925e-001 -9.994716e-001 -6.462807e+000 111 91 74
2.608842e-001 -6.784956e+000 -7.673257e+000 142 128 123
1.282084e+000 -6.856313e+000 -7.805432e+000 136 125 131
5.718126e-001 4.649187e-001 -6.838561e+000 29 18 19
3.487042e+000 -4.263304e+000 -9.550694e+000 26 20 20
8.493154e+000 -3.218598e-001 -6.745534e+000 137 61 71
4.670286e-001 -7.180977e+000 -8.014650e+000 121 62 82
7.648157e+000 2.362597e+000 -1.142443e+001 121 107 88
-1.234670e+000 -1.149875e+000 -6.897600e+000 95 81 67
8.319666e+000 -1.488251e+000 -6.211006e+000 135 62 66
-1.916927e+000 -5.906756e-001 -1.281765e+001 69 60 63
7.942120e+000 2.470841e+000 -1.132495e+001 108 47 39
5.563863e+000 3.511561e+000 -8.686171e+000 172 142 82
3.215095e+000 1.130685e+000 -1.598327e+001 41 32 28
-1.329796e+000 7.763944e-001 -1.274187e+001 47 45 43
1.390193e-001 -9.100721e-001 -7.519996e+000 80 85 70
1.568070e+000 -9.585431e-001 -8.043748e+000 81 78 71
2.720034e+000 -2.526473e+000 -5.943176e+000 37 35 27
-7.495910e-001 -7.985657e+000 -8.068517e+000 38 35 29
4.051908e+000 4.446187e-001 -1.915015e+001 124 86 63
-2.113624e+000 -2.215356e+000 -3.504151e+000 27 25 24
8.465513e+000 -3.300058e+000 -6.299215e+000 112 61 50
9.347886e-001 -8.836986e-001 -1.750150e+001 67 37 38
4.787662e+000 -9.586144e+000 -1.086902e+001 172 152 91
4.265227e+000 -8.873296e+000 -8.596679e+000 60 28 31
2.682394e+000 -3.226849e-001 -1.653778e+001 59 49 47
2.439456e-001 -5.644425e-001 -1.074431e+001 116 124 119
-9.912290e+000 -2.404209e+000 -7.784492e+000 182 190 169
-9.912290e+000 -2.404209e+000 -7.784492e+000 182 190 169
6.550191e+000 1.101106e+000 -7.413700e+000 139 84 57
-7.823469e+000 -1.926075e+000 -5.201961e+000 87 107 113
-4.007327e+000 -2.220455e+000 -2.739985e+000 221 226 207
-4.707317e+000 -6.295413e+000 -2.968131e+000 75 149 182
-2.082246e+000 -8.702247e+000 -2.797210e+000 82 64 56
-8.199173e+000 -3.567629e+000 -5.300554e+000 210 224 201
9.438796e+000 -3.315203e+000 -6.730648e+000 34 19 17
7.091252e+000 -7.042182e+000 -6.725667e+000 141 88 41
4.423476e+000 -7.904946e+000 -1.046420e+001 100 72 52
8.735720e+000 2.585806e+000 -6.647062e+000 44 31 22
-4.441024e+000 -5.489155e+000 -2.820204e+000 65 87 103
6.879582e+000 -4.226890e+000 -6.982910e+000 139 78 50
1.378653e+000 -6.144169e+000 -7.572181e+000 100 78 67
-3.083892e+000 -4.487570e+000 -2.362525e+000 77 50 39
-9.586497e+000 -4.746167e+000 -6.533769e+000 53 47 52
5.952669e+000 1.678261e+000 -6.981414e+000 79 90 97
8.833570e+000 5.910148e-002 -1.493606e+001 167 134 66
-2.192933e-001 -5.748073e+000 -6.882863e+000 120 95 80
1.123894e+000 -5.765039e+000 -7.393007e+000 95 59 44
1.050470e+001 -4.271979e+000 -7.109888e+000 122 92 58
3.537930e+000 -7.373978e+000 -9.090327e+000 92 57 45
-8.176666e+000 -4.830827e+000 -5.294869e+000 217 229 212
5.885419e+000 -3.651267e+000 2.098623e+000 132 87 41
-2.800079e+000 1.636191e+000 -3.531864e+000 79 52 41
8.232661e+000 2.199112e+000 -6.810359e+000 126 75 25
-6.324584e+000 -5.398395e+000 -4.249059e+000 74 93 93
8.221151e+000 2.046564e+000 -6.758699e+000 50 28 14
6.751199e+000 -2.726053e+000 -6.945914e+000 135 69 40
1.600143e+001 -9.984407e+000 -8.900911e+000 196 150 73
-5.239080e+000 1.452117e+000 -3.740352e+000 107 97 88
-7.812404e+000 -2.916746e+000 -4.984995e+000 74 103 106
-7.796174e+000 -2.917089e+000 -4.961914e+000 74 103 106
7.565253e-001 -4.050974e+000 -6.544275e+000 90 58 60
1.112825e+000 -5.922348e+000 -7.561442e+000 91 40 43
-6.793705e+000 -6.422694e+000 -4.015543e+000 214 180 177
6.155338e+000 -9.948239e+000 -8.447141e+000 152 146 150
6.801560e+000 -9.150872e+000 -5.660648e+000 169 153 162
6.842143e+000 1.626819e+000 -6.790354e+000 51 41 36
-2.377373e+000 5.916579e-001 -3.762296e+000 20 25 36
9.362168e-001 -8.904062e-001 -7.836019e+000 88 79 70
9.062487e-001 -1.225178e+000 -6.607198e+000 40 30 21
-7.566846e+000 -3.546730e+000 -4.621217e+000 57 85 89
-7.653955e+000 -3.758880e+000 -4.809856e+000 81 104 112
-7.653955e+000 -3.758880e+000 -4.809856e+000 81 104 112
-7.611160e+000 -3.976593e+000 -4.763056e+000 69 90 98
-7.614804e+000 -3.976581e+000 -4.766841e+000 69 90 98
-5.072542e+000 -3.658501e+000 -3.517312e+000 73 93 108
2.166423e+000 -4.425427e+000 -6.500696e+000 100 80 68
8.156787e-001 -5.240272e+000 -6.806921e+000 87 30 36
3.851870e-001 -5.567072e+000 -7.054249e+000 109 60 51
7.611046e-001 -5.504699e+000 -7.035272e+000 101 35 43
3.034262e-001 -6.741711e+000 -7.305151e+000 116 71 73
6.820666e+000 -6.363166e+000 -6.008761e+000 113 85 72
8.832268e-001 -7.359334e+000 -7.982997e+000 96 83 75
3.555120e+000 2.434408e-002 -1.117961e+001 76 66 70
-2.362501e+000 -5.602907e-001 -7.700495e+000 26 18 16
-2.185034e+000 -8.488225e-001 -7.138767e+000 26 16 18
2.985471e+000 -1.219790e+000 -7.293323e+000 79 66 60
6.802976e+000 -1.054096e+000 -6.749723e+000 36 22 17
-8.089952e+000 -2.760207e+000 -5.131248e+000 53 81 84
3.146944e-001 -3.045819e+000 -5.932248e+000 35 24 26
2.671511e+000 -3.112559e+000 -6.320319e+000 28 13 16
-7.981058e+000 -3.704282e+000 -4.980344e+000 63 91 94
-7.913858e+000 -3.920174e+000 -4.923838e+000 70 94 98
9.405966e-001 -3.994100e+000 -6.623326e+000 100 58 54
-1.024223e+000 -5.623807e+000 -6.429203e+000 98 38 41
3.626213e+000 -7.120207e+000 -9.343616e+000 106 108 113
-5.262250e+000 9.762889e-001 -3.388462e+000 73 60 52
-6.297481e+000 2.295568e-001 -4.299916e+000 36 26 17
-6.781012e+000 -9.746152e-002 -4.735594e+000 54 42 39
6.813554e+000 2.525472e-001 -6.891281e+000 54 45 34
-6.833892e+000 -2.906031e-001 -4.571321e+000 59 44 36
2.191762e-001 -2.596287e-001 -9.152879e+000 75 49 38
6.023599e+000 -2.498472e-001 -7.403849e+000 93 73 68
6.838109e+000 -5.048612e-001 -6.336291e+000 91 86 66
3.671157e+000 -3.106805e+000 -7.379227e+000 38 21 21
-4.540141e+000 -3.431398e+000 -3.058938e+000 78 111 126
1.279948e+000 -3.733685e+000 -6.705954e+000 115 75 58
1.279948e+000 -3.733685e+000 -6.705954e+000 115 75 58
4.807176e+000 -5.390239e+000 -8.425551e+000 21 16 20
2.520187e+000 -7.109459e+000 -8.200984e+000 97 77 75
-3.777378e+000 -6.393797e+000 -2.293175e+000 72 93 94
-3.796804e+000 -6.405942e+000 -2.339706e+000 72 93 94
-3.886786e+000 -7.159788e+000 -2.330510e+000 66 88 97
-3.886786e+000 -7.159788e+000 -2.330510e+000 66 88 97
-1.919751e+000 -8.320099e+000 -3.386776e+000 58 50 47
-4.448160e+000 2.158542e+000 -2.982344e+000 120 103 88
-4.838416e+000 1.845652e+000 -3.354048e+000 111 98 83
6.138137e+000 3.026186e+000 -8.581861e+000 55 52 43
-3.902528e+000 1.305777e+000 -2.612549e+000 67 84 98
-3.902528e+000 1.305777e+000 -2.612549e+000 67 84 98
-5.623897e+000 1.067845e+000 -3.785987e+000 123 112 94
-5.079946e+000 8.536538e-001 -3.184162e+000 180 130 103
-5.079946e+000 8.536538e-001 -3.184162e+000 180 130 103
-3.953046e+000 7.376409e-001 -2.663333e+000 63 88 93
6.851293e+000 5.975383e-001 -6.552897e+000 91 85 73
1.574719e+000 -9.267539e-001 -7.704015e+000 82 74 56
6.841146e+000 -8.756509e-001 -6.272340e+000 85 72 62
-3.787221e+000 -2.178497e+000 -2.586198e+000 59 85 95
-3.787221e+000 -2.178497e+000 -2.586198e+000 59 85 95
-3.888537e+000 -3.236909e+000 -2.634530e+000 55 83 94
-3.888537e+000 -3.236909e+000 -2.634530e+000 55 83 94
-3.851266e+000 -4.682241e+000 -2.494128e+000 73 97 101
-3.864006e+000 -4.685209e+000 -2.512081e+000 73 97 101
-3.769828e+000 -5.276466e+000 -2.376085e+000 58 89 95
6.806264e+000 -9.055966e+000 -5.851875e+000 158 115 124
4.081161e-001 -1.483959e+000 -5.568135e+000 91 52 43
4.081161e-001 -1.483959e+000 -5.568135e+000 91 52 43
7.047933e-001 -4.513162e+000 -6.084880e+000 105 89 76
-2.337761e+000 2.080125e+000 -3.867045e+000 35 21 18
-5.069561e+000 7.048807e-001 -3.050309e+000 185 125 99
-1.020534e+000 -5.324672e+000 -6.332605e+000 101 68 34
1.581683e+000 -5.369342e+000 -6.789977e+000 109 81 59
1.388658e+000 -5.701217e+000 -7.259440e+000 88 36 36
1.373364e+000 -6.178003e+000 -7.546807e+000 99 83 76
-4.159950e+000 1.977819e+000 -2.861112e+000 77 75 77
5.065314e+000 -5.567234e+000 -6.502694e+000 26 20 24
-4.158160e+000 -7.452874e+000 -2.384151e+000 185 180 112
-4.191312e+000 -7.481642e+000 -2.478640e+000 185 180 112
5.319084e+000 4.791869e-001 -7.196269e+000 25 21 20
3.916113e+000 -3.388234e+000 -7.392654e+000 105 34 49
3.907897e+000 -3.386268e+000 -7.322906e+000 105 34 49
6.410828e+000 -5.246573e+000 -6.771803e+000 77 54 40
6.354329e+000 -9.532057e+000 -7.088503e+000 126 120 124
1.160357e+000 -4.616533e+000 -6.151048e+000 118 93 73
7.672100e+000 -6.849118e+000 -6.104252e+000 110 49 48
6.625000e+000 -8.405603e+000 -6.473223e+000 56 40 41
8.731849e-001 -3.336182e+000 -6.089248e+000 104 43 41
-6.238071e+000 -6.642421e-001 -4.473265e+000 187 125 99
-8.116775e+000 -3.285290e+000 -5.126918e+000 196 231 227
2.200618e+000 -5.081558e+000 -6.313906e+000 101 71 48
9.032896e+000 1.685078e+000 -7.001696e+000 131 85 47
-6.442814e-001 -5.094081e+000 -6.332986e+000 28 27 17
-8.417001e+000 -5.018018e+000 -5.337998e+000 212 228 208
-2.105361e-001 -6.576775e+000 -7.318859e+000 115 94 73
9.568320e+000 -6.037528e+000 -6.485283e+000 49 35 22
6.607879e+000 -1.121981e+000 -6.773271e+000 135 73 35
4.255151e+000 -5.525704e+000 -8.397846e+000 83 54 32
-4.651779e+000 -3.791897e+000 -2.941388e+000 69 89 100
7.837560e-001 -5.753273e+000 -7.311849e+000 99 45 50
-1.678311e+000 -6.145052e+000 -6.443783e+000 32 19 19
-4.658968e+000 8.344984e-001 -7.007182e+000 52 37 31
-2.380788e+000 -8.687335e+000 -3.076544e+000 63 52 51
7.152161e+000 -7.507084e+000 -5.656852e+000 94 85 70
-2.676740e+000 -8.664848e+000 -2.971263e+000 48 38 40
-2.676740e+000 -8.664848e+000 -2.971263e+000 48 38 40
1.156675e+000 -3.152376e+000 -6.145660e+000 94 34 33
-3.893801e+000 -3.970850e+000 -9.611128e+000 22 23 28
5.410678e+000 -3.084183e+000 -9.898852e+000 57 43 40
7.201009e+000 2.324206e+000 -6.281729e+000 55 38 30
-6.797225e-002 -5.456772e+000 -6.906315e+000 95 45 37
-1.760393e+000 -6.194199e+000 -6.523575e+000 40 24 22
-3.347118e+000 -3.223840e+000 -2.265244e+000 77 57 54
-1.779602e-001 -5.683680e+000 -6.889942e+000 42 27 24
1.649410e+001 -9.754427e+000 -8.823364e+000 101 84 68
-4.065661e+000 -3.266878e+000 -3.318502e+000 186 186 110
1.741802e+001 -9.865098e+000 -9.331597e+000 120 106 80
1.690154e+001 -9.979991e+000 -9.158094e+000 65 52 35
8.904363e+000 -8.823396e+000 -6.350248e+000 127 59 53
1.594708e+001 -1.016129e+001 -8.520257e+000 171 160 115
7.921741e-001 -3.940627e+000 -6.367677e+000 83 35 21
-3.881008e-001 -7.192288e+000 -7.548524e+000 45 35 34
7.007160e+000 -6.403554e+000 -5.836676e+000 109 96 79
7.067902e+000 3.444164e+000 -6.422545e+000 48 38 28
5.906813e+000 -3.685036e+000 -7.498277e+000 40 29 23
-2.491540e+000 1.935801e+000 -3.933853e+000 50 34 34
-7.989264e+000 -2.946455e+000 -5.123011e+000 150 183 166
-3.492295e+000 -3.619051e+000 -1.188819e+000 58 66 56
-5.691652e-002 -8.363272e+000 -8.360318e+000 57 36 33
-4.679205e+000 2.681014e+000 -6.107682e+000 22 22 22
6.761118e+000 3.441236e+000 -1.080628e+001 82 50 31
6.007691e+000 3.053293e+000 -8.116606e+000 49 49 37
1.814193e+001 -8.314197e+000 -5.629749e+000 138 127 68
4.855767e+000 -4.524736e-001 -6.617625e+000 26 16 15
1.791710e+001 -1.349949e+001 -9.018908e+000 125 109 60
1.790022e+001 -1.348531e+001 -9.004213e+000 125 109 60
-6.447499e+000 1.331198e+000 -6.578642e+000 146 148 139
6.360053e+000 3.334974e+000 -7.271570e+000 141 87 54
9.714829e+000 3.590012e+000 -7.426396e+000 55 39 16
-9.927078e+000 -2.678267e+000 -6.929433e+000 168 141 148
2.904601e+000 -3.235112e+000 -6.862354e+000 92 32 41
6.449063e+000 3.148643e+000 -6.991402e+000 138 84 53
6.441090e+000 2.258274e+000 -7.413074e+000 100 57 38
1.579690e-001 -7.920180e-001 -7.270911e+000 56 58 55
1.579690e-001 -7.920180e-001 -7.270911e+000 56 58 55
7.252789e+000 1.661351e+000 -6.341556e+000 40 24 15
8.774119e+000 -5.730325e+000 -6.638900e+000 103 42 31
3.008160e+000 2.293114e+000 -1.842797e+001 144 124 112
-2.547804e+000 -3.270868e-001 -1.180406e+001 26 16 15
1.375032e+001 3.619902e+000 -1.009963e+001 46 28 18
9.548067e+000 3.651317e+000 -7.409353e+000 90 75 47
-7.870511e+000 -3.634924e+000 -5.047516e+000 172 189 170
-1.233241e+000 -6.903542e+000 -7.117754e+000 54 37 27
3.932984e+000 2.118130e+000 -1.596033e+001 113 118 107
3.420021e+000 5.110154e-001 -1.370178e+001 29 25 22
1.321960e+001 2.827106e+000 -1.104755e+001 93 77 58
1.219964e+001 3.694030e+000 -8.044764e+000 103 84 60
1.080166e+001 3.430634e+000 -7.703985e+000 97 56 30
1.080166e+001 3.430634e+000 -7.703985e+000 97 56 30
6.793084e+000 -4.577834e-001 -6.576328e+000 56 37 26
9.912637e-001 -3.068864e+000 -5.979221e+000 101 63 40
3.474710e+000 -3.830590e+000 -7.386305e+000 37 22 16
4.716847e+000 -5.667226e+000 -8.653961e+000 69 59 50
-4.074249e+000 -4.022629e+000 -2.721981e+000 48 54 42
-6.231457e+000 1.120543e+000 -5.902389e+000 168 94 117
3.325901e+000 1.797565e+000 -8.925751e+000 25 14 12
5.547365e+000 1.991825e+000 -7.861597e+000 32 34 34
-4.168038e+000 3.094551e-001 -2.972485e+000 160 151 70
1.769599e+001 -6.564868e+000 -5.877409e+000 137 114 62
7.766347e+000 3.508832e+000 -7.779831e+000 91 43 30
1.217888e+001 3.554466e+000 -8.119836e+000 104 83 56
-8.366947e+000 -2.774768e+000 -5.264985e+000 173 189 166
1.419885e+001 4.203266e+000 -1.947617e+001 103 84 53
1.113300e+001 -3.882670e+000 -7.229240e+000 108 52 32
1.385894e+001 -4.588974e+000 -8.094666e+000 113 92 66
1.385894e+001 -4.588974e+000 -8.094666e+000 113 92 66
1.137691e+001 -7.760129e+000 -7.043547e+000 116 63 39
1.144315e+001 -7.880066e+000 -7.159835e+000 116 63 39
4.396322e+000 2.573845e+000 -1.434968e+001 125 138 129
1.472091e+001 3.807164e+000 -1.495730e+001 111 98 46
3.867463e+000 2.183296e+000 -8.547718e+000 82 35 36
3.867463e+000 2.183296e+000 -8.547718e+000 82 35 36
1.336382e+001 2.654257e+000 -8.405706e+000 108 89 57
5.018261e+000 -5.947695e+000 -8.705376e+000 66 53 45
5.018261e+000 -5.947695e+000 -8.705376e+000 66 53 45
1.256589e+001 2.504505e+000 -1.693347e+001 37 33 23
1.148794e+001 3.588560e+000 -9.606126e+000 97 82 52
1.287392e+001 3.619110e+000 -9.381283e+000 34 27 19
2.540671e+000 -4.376646e-001 -7.509593e+000 65 51 38
1.494656e+001 -7.595978e+000 -8.201621e+000 109 90 60
6.228433e+000 -6.739235e+000 -9.954963e+000 26 18 16
6.263204e+000 2.509316e+000 -7.252393e+000 146 74 42
6.639643e+000 2.002500e+000 -6.990086e+000 178 92 48
1.024881e+000 -6.660267e-001 -7.782407e+000 125 95 84
7.423991e+000 -1.173465e+000 -6.020031e+000 62 28 1
-5.334200e+000 1.485491e+000 -4.231436e+000 221 111 98
6.649821e+000 2.536649e+000 -6.734241e+000 202 149 68
-2.309943e+000 -9.395446e-001 -3.604561e+000 51 40 30
1.775836e+001 -7.358763e+000 -7.232457e+000 219 167 83
3.099886e+000 -1.252552e+000 -7.054720e+000 36 17 18
-1.069410e+001 -3.823298e+000 -6.972448e+000 96 67 51
-6.772058e-001 -1.680158e+000 -5.643382e+000 61 38 32
-2.626410e+000 -8.253806e+000 -2.865332e+000 62 80 94
-2.420930e+000 -2.782923e+000 -5.889530e+000 56 77 86
2.605025e+000 2.681422e+000 -1.770339e+001 174 131 106
5.702268e+000 2.248445e+000 -9.172238e+000 149 84 65
-2.624005e+000 1.796270e+000 -3.819080e+000 106 82 70
5.221361e+000 -8.704201e-001 -6.712765e+000 59 41 37
8.985697e+000 -1.014676e-001 -6.916110e+000 117 80 42
2.009072e+000 1.514390e+000 -1.578378e+001 70 32 36
1.136384e+001 3.256366e+000 -1.731410e+001 141 67 42
3.739055e+000 1.475367e+000 -1.487202e+001 105 74 73
3.177229e+000 -7.585429e-001 -8.415022e+000 101 68 59
-3.615340e+000 3.053261e-001 -2.419281e+000 220 235 213
3.294853e+000 2.415984e+000 -1.716482e+001 136 96 66
1.023326e+001 3.183204e+000 -1.948300e+001 88 45 29
1.037119e+001 3.052013e+000 -1.934643e+001 147 80 54
1.084559e+001 3.143445e+000 -1.781452e+001 129 71 53
1.576151e+000 4.910001e-001 -1.184084e+001 41 26 19
2.598860e+000 4.884734e-001 -1.089179e+001 82 46 35
6.656245e+000 1.365240e+000 -6.524309e+000 70 41 21
1.422994e+001 -8.159831e-001 -8.183533e+000 157 109 81
2.383872e+000 -4.524975e+000 -6.750307e+000 55 31 22
5.869002e+000 -4.079425e+000 -7.403061e+000 88 65 51
-4.349012e+000 -3.832770e+000 -2.976660e+000 228 194 117
5.293771e+000 -5.812344e+000 -6.288482e+000 41 20 19
6.875738e+000 -5.151388e+000 -5.632134e+000 79 51 30
6.532470e+000 -7.889832e+000 -6.935352e+000 69 79 91
6.897980e+000 -7.527855e+000 -6.348824e+000 101 56 38
7.166535e+000 -9.491159e+000 -6.762941e+000 188 121 93
7.197924e+000 -9.588464e+000 -6.468014e+000 198 124 85
2.471209e+000 2.147075e+000 -1.790519e+001 188 147 103
4.006258e+000 2.867865e+000 -1.794407e+001 165 119 89
4.473070e+000 2.732280e+000 -1.821984e+001 162 117 73
1.136730e+001 2.941817e+000 -2.190315e+001 94 49 31
3.173928e+000 2.133091e+000 -1.729890e+001 92 61 43
5.816020e+000 1.953329e+000 -1.886057e+001 147 64 47
1.326718e+001 4.045975e+000 -1.754123e+001 138 91 45
3.437097e+000 2.339221e+000 -1.577299e+001 101 67 49
2.761980e+000 1.396506e+000 -1.550481e+001 48 34 27
-8.329924e-001 -3.178539e-001 -9.893586e+000 88 66 65
-8.329924e-001 -3.178539e-001 -9.893586e+000 88 66 65
7.313083e+000 3.432525e+000 -6.625348e+000 111 74 55
9.542971e-001 -1.418035e+000 -6.143003e+000 124 78 44
-4.366984e+000 -1.495926e+000 -2.945527e+000 229 191 109
-4.402165e+000 -1.661343e+000 -3.147475e+000 229 191 109
5.813464e+000 -2.663595e+000 -7.457448e+000 67 35 26
1.486420e+001 -2.201699e+000 -8.758066e+000 141 65 46
2.214123e-001 -5.578002e+000 -7.041009e+000 52 35 27
-1.967711e+000 -4.847367e+000 -3.405425e+000 56 45 38
6.867605e+000 -6.074397e+000 -6.409065e+000 162 98 65
5.744114e+000 -7.686857e+000 -6.887967e+000 160 147 132
1.567486e+001 -8.819054e+000 -8.600411e+000 163 69 61
2.411876e+000 2.590675e+000 -1.800372e+001 190 168 158
3.856483e+000 2.775940e+000 -1.872336e+001 152 76 52
1.282406e+001 3.508226e+000 -1.886898e+001 157 110 64
2.993319e+000 1.496684e+000 -1.649751e+001 72 37 28
1.273250e+001 3.224624e+000 -1.913993e+001 105 55 32
6.231010e+000 3.246172e+000 -1.169367e+001 156 104 70
8.694729e+000 3.318731e+000 -1.303882e+001 141 75 43
6.075079e+000 2.786557e+000 -8.332791e+000 62 41 34
6.328077e+000 3.038882e+000 -7.299224e+000 180 98 66
6.381773e+000 2.773086e+000 -7.160985e+000 171 94 58
4.128811e+000 -1.219362e-001 -6.409504e+000 38 19 13
-1.043621e+001 -4.337356e+000 -6.835673e+000 76 58 52
-5.058708e-001 -1.396461e+000 -5.509846e+000 122 75 36
-2.770141e+000 -1.211779e+000 -3.491378e+000 59 80 99
8.578745e+000 -6.319728e-001 -6.420839e+000 48 30 22
8.578745e+000 -6.319728e-001 -6.420839e+000 48 30 22
4.783464e+000 -5.257199e+000 -8.549435e+000 41 22 22
3.998203e+000 -7.291946e+000 -9.544011e+000 174 172 167
7.300412e+000 -5.080992e+000 -6.132302e+000 182 145 73
-4.417957e+000 -7.905802e+000 -2.937589e+000 62 76 79
7.363453e+000 -8.914079e+000 -6.110759e+000 193 117 78
1.696110e+001 -9.506656e+000 -8.895474e+000 182 134 70
1.168245e+001 3.125694e+000 -2.223228e+001 182 139 74
5.170432e+000 3.063937e+000 -1.479131e+001 161 113 79
2.909969e+000 1.693190e+000 -1.514818e+001 134 102 93
5.628306e+000 3.162952e+000 -9.221416e+000 130 92 60
-2.566629e+000 -2.674253e-002 -1.189872e+001 79 61 61
1.597411e+000 5.599288e-001 -1.121007e+001 127 96 80
1.582332e+000 6.075439e-001 -1.111742e+001 127 96 80
1.907072e+000 4.931330e-001 -1.068725e+001 31 18 12
3.332815e+000 1.770943e+000 -8.791398e+000 53 32 27
-4.876511e+000 8.063352e-001 -3.507108e+000 226 231 209
4.171880e+000 2.023840e-001 -6.776923e+000 50 23 21
6.808845e+000 1.522852e+000 -6.402272e+000 176 139 70
-1.103600e+001 -3.404373e+000 -6.021068e+000 53 31 33
-1.046569e+001 -3.713125e+000 -7.051150e+000 91 64 56
