ply
format ascii 1.0
element face 0
property list uchar int vertex_indices
element vertex 881
property float x
property float y
property float z
property uchar diffuse_red
property uchar diffuse_green
property uchar diffuse_blue
end_header
7.442165e+000 -1.442283e+000 -6.423865e+000 55 27 24
7.442165e+000 -1.442283e+000 -6.423865e+000 55 27 24
1.571108e+000 -3.487697e+000 -5.245542e+000 37 26 23
-6.028411e-001 -5.134678e+000 -6.332893e+000 130 90 65
1.131836e+000 -5.018418e+000 -6.600757e+000 120 80 54
2.711083e+000 -4.279789e+000 -6.603607e+000 138 128 129
3.363465e+000 -6.812239e+000 -8.412563e+000 44 33 36
3.363465e+000 -6.812239e+000 -8.412563e+000 44 33 36
1.042733e+001 -3.612238e+000 -6.753115e+000 141 130 122
7.013221e+000 -5.252177e+000 -6.248282e+000 64 62 53
1.731540e+001 -6.866651e+000 -4.550803e+000 179 166 98
3.174879e+000 9.302527e-001 -1.584420e+001 95 85 76
-5.230324e+000 1.751369e+000 -4.634151e+000 174 180 106
-5.230324e+000 1.751369e+000 -4.634151e+000 174 180 106
-4.704740e+000 2.188964e+000 -3.676734e+000 173 175 109
-1.010795e+000 5.591029e-001 -1.133104e+001 69 32 26
-4.476654e-001 4.669665e-001 -1.127244e+001 97 49 39
6.091877e+000 2.529370e+000 -8.929845e+000 54 42 29
-6.217433e+000 1.438608e-002 -4.006405e+000 209 216 167
6.711131e+000 1.142009e+000 -7.066046e+000 71 50 49
4.815529e+000 4.503667e-001 -6.739887e+000 42 26 28
-5.028133e+000 -1.268347e+000 -3.299346e+000 74 90 107
-4.448967e+000 -1.733507e+000 -2.982146e+000 74 83 91
-1.165525e+000 -6.563522e+000 -1.132512e+001 28 19 20
3.383573e-001 -4.040769e+000 -6.839505e+000 102 108 113
1.147462e-001 -6.991584e+000 -7.429445e+000 131 133 145
2.028201e+000 -7.115728e+000 -8.051647e+000 52 35 37
6.704726e+000 -4.574356e+000 -6.671764e+000 102 60 53
-3.791557e+000 -5.402102e+000 -2.172995e+000 56 70 83
3.615972e+000 -8.079749e+000 -9.104915e+000 147 126 67
4.068771e+000 -8.533338e+000 -7.540869e+000 57 40 41
7.002035e+000 -8.251700e+000 -5.673623e+000 167 126 110
1.577837e+001 -9.176105e+000 -7.974210e+000 178 148 93
3.326962e+000 1.617927e+000 -1.838055e+001 151 127 79
-5.753195e+000 1.730193e+000 -7.404103e+000 60 71 76
6.423308e+000 2.724591e+000 -7.901190e+000 155 99 68
8.207400e+000 3.316247e+000 -6.986377e+000 132 128 125
9.600529e+000 3.205858e+000 -8.373900e+000 82 67 44
9.600529e+000 3.205858e+000 -8.373900e+000 82 67 44
-1.086025e+000 -1.115571e+000 -6.721630e+000 96 78 64
4.100954e+000 -2.264995e-001 -6.775985e+000 49 35 33
-1.057970e+000 -6.709773e+000 -1.083493e+001 26 16 17
6.621411e+000 -2.193748e+000 -7.068022e+000 118 64 61
-9.138216e-001 -5.276081e+000 -6.390139e+000 124 87 61
2.580837e-001 -7.626438e+000 -7.622064e+000 34 32 31
1.570140e+001 -4.895814e+000 -8.592137e+000 126 69 49
1.443904e+001 -6.379549e+000 -7.993418e+000 48 40 38
1.140666e+001 -7.402043e+000 -6.679973e+000 140 132 127
1.558117e+001 -7.840668e+000 -8.121862e+000 74 57 49
4.632037e+000 2.252631e+000 -1.496112e+001 62 40 27
-7.304754e-001 3.669349e-001 -1.218161e+001 96 89 71
1.146893e+001 2.654297e+000 -1.467462e+001 66 60 38
-4.191538e+000 2.026468e+000 -3.384009e+000 67 77 86
1.678361e+000 5.176067e-001 -1.064080e+001 98 84 71
5.596737e+000 1.666106e+000 -8.107912e+000 45 50 61
-5.086870e+000 4.303946e-001 -3.450941e+000 80 92 99
1.289799e+000 -3.062547e+000 -6.073416e+000 141 110 64
1.550497e+001 -9.087185e-001 -8.969912e+000 129 71 57
5.127644e-001 -5.144486e+000 -6.678168e+000 132 103 65
1.625547e+001 -3.074847e+000 -8.670065e+000 144 121 79
-1.660545e-002 -8.296081e+000 -7.813843e+000 141 116 73
6.546395e+000 -6.206928e+000 -6.775288e+000 118 114 126
6.646340e+000 -8.746721e+000 -6.521665e+000 164 150 87
8.639457e+000 -8.291877e+000 -5.725248e+000 143 63 64
3.083244e+000 9.237178e-001 -1.704506e+001 51 39 31
1.448554e+001 3.318092e+000 -1.636845e+001 109 91 53
-4.239493e+000 2.276724e+000 -3.559829e+000 55 49 44
3.882370e+000 6.466471e-001 -1.590347e+001 40 29 28
5.953789e+000 2.655012e+000 -1.000432e+001 100 87 68
6.532120e+000 3.082993e+000 -8.547284e+000 62 43 30
6.312127e+000 2.757666e+000 -8.821237e+000 157 143 82
5.143567e+000 1.609952e+000 -9.964418e+000 94 76 70
-1.157590e+000 -5.156310e-001 -6.642825e+000 92 77 63
-3.798280e+000 -4.426862e-001 -3.061838e+000 64 46 46
-2.304329e-001 -1.170802e+000 -6.316771e+000 30 25 27
3.434433e+000 -8.429694e-001 -8.049810e+000 32 22 23
8.154429e+000 -1.671488e-001 -6.411601e+000 135 60 62
1.431773e+001 -1.254125e+000 -8.723528e+000 45 32 35
1.431773e+001 -1.254125e+000 -8.723528e+000 45 32 35
4.981480e-002 -7.385701e+000 -7.666832e+000 133 133 143
2.466660e+000 -7.534383e+000 -8.519644e+000 135 131 153
6.073983e+000 -6.090544e+000 -7.499104e+000 85 83 84
6.498070e+000 -5.828999e+000 -6.746355e+000 47 32 32
3.720044e+000 -8.498678e+000 -7.256556e+000 148 133 75
1.520603e+001 -9.226792e+000 -7.632751e+000 185 161 99
6.294232e+000 2.340158e+000 -1.499875e+001 131 119 77
4.486002e+000 1.553040e+000 -1.389536e+001 83 48 34
5.147940e+000 2.293249e+000 -1.226193e+001 124 110 63
5.147940e+000 2.293249e+000 -1.226193e+001 124 110 63
-4.539283e+000 1.989627e+000 -3.560913e+000 55 49 49
-2.994453e+000 1.798838e+000 -4.127251e+000 32 66 95
1.225719e+001 1.512738e+000 -8.282405e+000 138 131 124
1.956775e-001 -1.262497e+000 -6.278892e+000 94 84 69
-2.944604e+000 -1.111092e+000 -3.704913e+000 26 21 25
-2.864682e+000 -2.349885e+000 -3.587625e+000 29 23 30
1.254018e+000 -3.068732e+000 -6.004246e+000 142 114 70
1.254018e+000 -3.068732e+000 -6.004246e+000 142 114 70
-2.794523e+000 -3.584009e+000 -3.464639e+000 27 26 28
-3.355320e-001 -5.043923e+000 -6.842129e+000 38 25 24
3.770909e+000 -6.417392e+000 -8.802404e+000 122 101 75
-2.709928e+000 -4.777235e+000 -3.286598e+000 28 20 25
3.832715e+000 -7.539087e+000 -9.274278e+000 25 22 23
-4.424368e+000 -6.561469e+000 -2.642830e+000 67 75 90
1.436115e+001 -5.688402e+000 -7.899575e+000 133 67 53
2.631595e+000 4.142271e-001 -1.641513e+001 40 28 28
7.159027e+000 2.991496e+000 -1.089802e+001 128 112 78
6.658661e+000 2.797021e+000 -7.325362e+000 164 180 180
8.220145e+000 3.009980e+000 -8.166872e+000 114 71 61
-4.293795e+000 1.093654e+000 -2.909278e+000 200 116 129
-3.059171e+000 1.350748e+000 -3.973266e+000 32 26 31
1.020635e+001 2.988348e+000 -8.161132e+000 84 60 44
-4.233102e+000 -4.456612e-001 -2.728466e+000 205 118 130
-2.854877e+000 -1.717527e+000 -3.631273e+000 44 73 103
-2.854877e+000 -1.717527e+000 -3.631273e+000 44 73 103
-4.596904e+000 -3.094541e+000 -2.981211e+000 60 75 85
6.949204e-001 -3.266676e+000 -5.936261e+000 153 119 92
6.949204e-001 -3.266676e+000 -5.936261e+000 153 119 92
4.092198e+000 -4.878916e+000 -7.914613e+000 40 30 31
4.857834e+000 -5.746592e+000 -8.251980e+000 90 88 86
3.024199e+000 -7.695081e+000 -8.672641e+000 39 32 35
5.781088e+000 -6.634731e+000 -7.306940e+000 37 32 36
6.234167e+000 -6.514774e+000 -6.682868e+000 118 115 125
1.636347e+001 -5.014518e+000 -8.277104e+000 152 126 78
7.495427e+000 2.806701e+000 -8.354331e+000 56 39 30
-1.556400e+000 1.158230e+000 -5.495535e+000 126 103 89
4.485909e+000 1.667977e+000 -8.537395e+000 52 38 37
6.398821e+000 1.674491e+000 -8.702374e+000 62 41 35
3.372400e+000 4.238164e-001 -7.807262e+000 38 28 29
1.194418e+001 2.588146e+000 -8.123264e+000 131 126 120
-4.624075e+000 2.590231e+000 -3.880802e+000 179 177 100
-4.643182e+000 1.100536e+000 -3.251798e+000 202 118 125
2.604501e+000 -6.566600e-001 -7.804635e+000 84 69 62
4.592851e+000 -1.167338e-001 -6.761368e+000 138 54 79
1.446805e+001 -2.168673e+000 -8.533654e+000 141 78 63
6.413356e+000 -7.516991e+000 -6.370737e+000 55 38 37
1.359772e+001 -2.880625e+000 -8.455108e+000 42 35 35
1.380739e+001 -8.775844e+000 -7.926689e+000 42 41 36
-1.075516e+000 -8.237107e+000 -6.290063e+000 21 19 23
-3.674306e-001 -6.864170e+000 -7.285254e+000 82 82 90
-2.635968e+000 -3.443080e+000 -6.112018e+000 45 75 110
1.318390e+001 3.446174e+000 -8.348943e+000 53 33 23
-5.713910e+001 -1.517217e+001 -1.025453e+002 141 124 92
-4.739067e+001 -2.851414e+001 -1.070180e+002 134 118 92
-4.778651e+001 -2.208084e+001 -1.081224e+002 148 156 159
-4.237002e+001 -2.552995e+001 -1.122731e+002 27 100 153
4.101399e-001 -5.556944e+000 -7.237641e+000 147 113 77
6.876550e+000 -7.704361e+000 -6.461786e+000 81 37 25
7.587132e+000 3.119888e+000 -6.984984e+000 151 68 62
6.805843e+000 1.406659e+000 -7.304299e+000 70 50 41
-1.777774e+000 -6.523715e+000 -6.825819e+000 107 89 77
-1.760792e+000 -6.864595e+000 -7.047468e+000 107 58 53
-2.895197e+000 -5.660587e+000 -6.388827e+000 25 15 19
7.585528e-002 -5.568165e+000 -7.220548e+000 139 113 87
1.663829e+000 -3.994309e+000 -5.357585e+000 48 31 26
1.663829e+000 -3.994309e+000 -5.357585e+000 48 31 26
3.321063e-001 -6.570900e+000 -7.376577e+000 143 56 55
-4.631523e+001 -5.335377e+001 -1.057148e+002 114 110 107
-4.654344e+001 -5.514250e+001 -1.086054e+002 146 134 136
-4.598419e+001 -5.016600e+001 -1.063976e+002 147 120 125
-4.271913e+001 -5.232455e+001 -1.083101e+002 145 122 120
-4.525360e+001 -5.569739e+001 -1.064242e+002 148 132 132
-4.523804e+001 -5.801298e+001 -1.100480e+002 134 93 118
-4.238668e+001 -5.620369e+001 -1.057205e+002 155 137 151
-5.153419e-001 -7.446710e+000 -7.542684e+000 50 40 38
-5.126399e-001 -7.471738e+000 -7.650507e+000 50 40 38
-5.198712e+001 -4.911862e+001 -1.049774e+002 167 143 117
-5.108568e+001 -5.089129e+001 -1.034012e+002 161 146 138
-4.202278e+001 -5.381509e+001 -1.079935e+002 168 156 84
-3.705719e+001 -3.200914e+001 -1.128104e+002 154 151 160
-3.705719e+001 -3.200914e+001 -1.128104e+002 154 151 160
-4.482653e+001 -4.995460e+001 -1.070173e+002 106 45 70
-5.568405e+001 -5.269699e+001 -1.011838e+002 139 165 180
-5.568405e+001 -5.269699e+001 -1.011838e+002 139 165 180
-4.435040e+001 -5.372134e+001 -1.092436e+002 172 163 65
-5.328157e+001 -5.165883e+001 -1.028041e+002 58 117 163
-5.328157e+001 -5.165883e+001 -1.028041e+002 58 117 163
-5.092612e+001 -5.156541e+001 -1.054041e+002 155 123 102
-4.157685e-001 -1.250211e+000 -6.876120e+000 96 82 69
1.084517e+001 4.352514e-002 -7.105395e+000 147 124 103
1.850120e-001 -5.166857e+000 -7.383864e+000 46 25 18
8.230312e+000 3.347913e+000 -7.237133e+000 154 127 106
8.297369e-001 -3.125690e+000 -6.177770e+000 140 77 42
6.627888e+000 -2.238043e+000 -5.082681e+000 155 162 166
1.273130e+001 -3.922708e+000 -7.834797e+000 158 138 126
-1.568800e+000 -6.966041e+000 -6.929743e+000 126 90 73
-3.122602e-001 -8.616809e+000 -7.883589e+000 158 119 70
1.215024e+001 1.615910e+000 -7.842937e+000 145 128 106
-4.357200e+001 -5.107723e+001 -1.073227e+002 156 142 142
-5.090751e+001 -5.477837e+001 -1.052432e+002 151 114 95
5.953107e+000 -9.388156e+000 -8.618435e+000 102 77 47
-4.391760e+001 -5.644421e+001 -1.027807e+002 146 120 121
-4.356626e+001 -5.885270e+001 -1.058158e+002 111 54 86
-4.997798e+001 -6.095007e+001 -1.028762e+002 120 108 85
1.001062e+001 3.247319e+000 -7.541287e+000 95 60 41
-5.117140e+001 -6.217468e+001 -1.008987e+002 42 32 30
-5.460885e+001 -6.313136e+001 -9.923020e+001 136 120 94
-5.044808e+001 -5.093882e+001 -1.041110e+002 166 135 117
2.708843e-001 -9.395104e-001 -7.240487e+000 119 64 61
8.201557e+000 -4.711810e-001 -6.738401e+000 143 51 53
3.561525e+000 -4.542206e+000 -7.335242e+000 133 95 61
-2.363644e+000 -6.892390e+000 -5.241500e+000 50 72 87
-2.188807e+000 -9.600634e+000 -6.280106e+000 21 19 27
1.105489e+001 -6.112488e-001 -7.768413e+000 149 74 50
1.472029e+001 -8.241984e+000 -8.246851e+000 58 39 35
1.472029e+001 -8.241984e+000 -8.246851e+000 58 39 35
1.391699e+001 -9.013001e+000 -7.219681e+000 147 72 49
5.754229e+000 -3.378679e-001 -7.031572e+000 125 113 115
-5.732466e+000 -7.908051e-001 -3.815981e+000 220 222 167
3.187528e-001 -5.288612e+000 -7.141323e+000 133 75 51
8.368034e+000 -3.902949e+000 -7.477112e+000 140 57 57
1.352231e-001 -5.993392e+000 -7.512024e+000 130 122 120
1.324943e+000 -6.473280e+000 -7.669370e+000 138 133 134
1.382540e+001 -9.135311e+000 -7.581133e+000 147 77 56
1.687410e+000 -7.173084e-001 -8.916595e+000 70 50 46
-4.904427e-001 -1.048867e+000 -6.197632e+000 33 23 21
3.902414e+000 -8.706607e+000 -7.719036e+000 163 132 67
1.575460e+001 -7.141750e+000 -8.212681e+000 128 74 53
1.062089e+001 -3.421843e+000 -6.723724e+000 144 129 117
1.403691e+001 -4.641144e+000 -7.144137e+000 137 68 52
3.893135e+000 -8.546326e+000 -7.923873e+000 55 40 35
1.414558e+001 -6.054951e+000 -7.341558e+000 51 36 30
1.298754e+001 -9.271553e+000 -6.925623e+000 190 156 92
1.396093e+001 2.524340e+000 -8.584188e+000 139 68 50
4.016933e+000 -8.299696e+000 -8.024105e+000 71 32 31
5.009492e+000 -6.313863e+000 -6.200534e+000 134 49 70
1.254696e+001 4.116570e+000 -7.773276e+000 128 105 55
7.012242e+000 1.517471e+000 -4.424320e+000 139 59 54
-7.694872e-002 -8.807230e-001 -6.211317e+000 96 89 73
2.980604e-001 -9.471919e-001 -7.373513e+000 109 73 71
-2.875068e+000 -7.198969e+000 -1.065952e+001 23 49 74
-2.806092e+000 -7.105368e+000 -1.073794e+001 47 81 108
-3.285246e-001 -7.967605e+000 -7.553575e+000 135 114 81
6.807111e+000 -5.789202e+000 -6.533477e+000 135 106 100
1.194425e+001 1.759474e+000 -2.286153e+001 144 130 65
5.273877e+000 2.633431e+000 -1.110053e+001 47 38 22
-2.667975e+000 2.350129e+000 -1.362264e+000 34 80 106
-1.759709e+000 -9.660549e-001 -6.686064e+000 36 21 18
9.497806e-001 -5.351124e+000 -7.298484e+000 113 81 60
7.328062e+000 -3.026750e+000 -6.014235e+000 80 66 57
-2.331378e+000 -6.117115e+000 -6.483846e+000 28 24 28
-6.507456e-001 -6.972858e+000 -7.225475e+000 126 126 134
8.380386e+000 -4.710035e+000 -5.656271e+000 142 61 66
7.117947e+000 -7.618487e+000 -5.999704e+000 67 59 44
-4.041529e+000 1.819042e+000 -2.632145e+000 63 81 91
1.092059e+001 -5.222441e-002 -7.512171e+000 136 77 58
7.984862e-001 -4.942108e+000 -6.962494e+000 137 138 145
1.045910e+001 -3.226199e+000 -6.409966e+000 141 132 124
7.128149e+000 -4.999190e+000 -6.045382e+000 139 157 177
7.163479e+000 -7.571043e+000 -5.970857e+000 71 63 48
-1.188640e+000 -1.171027e+000 -6.257210e+000 90 41 37
1.541993e+001 -1.205392e+000 -8.879382e+000 66 52 44
6.988471e+000 -7.088504e+000 -6.299486e+000 138 146 153
6.988471e+000 -7.088504e+000 -6.299486e+000 138 146 153
6.266285e-001 -1.381457e+000 -6.143928e+000 33 23 24
1.567691e+001 -7.056797e+000 -8.254407e+000 136 76 62
1.149690e+001 -8.724274e+000 -6.766083e+000 139 131 118
1.488406e+001 -8.932623e+000 -8.528339e+000 141 78 55
8.091788e+000 2.967054e+000 -6.937492e+000 143 62 63
1.274123e+001 -5.876035e+000 -7.743178e+000 147 136 120
1.497668e+001 -8.931438e+000 -9.090637e+000 51 41 40
1.497668e+001 -8.931438e+000 -9.090637e+000 51 41 40
1.320069e+000 -5.096452e+000 -7.300819e+000 134 131 140
-2.309247e+000 -6.523856e+000 -6.329818e+000 45 75 109
1.436566e+001 -3.838131e+000 -8.082465e+000 136 69 56
-3.023290e+000 -2.386509e+000 -8.579814e+000 42 75 109
-1.712965e+000 -9.062244e-001 -6.788059e+000 83 63 48
-9.953171e+000 -3.504161e+000 -6.044522e+000 103 88 76
-4.034066e+000 -1.067411e-002 -2.566496e+000 115 140 145
-1.809920e-001 -1.243397e+000 -6.659990e+000 74 69 66
2.781596e-001 -1.625167e+000 -5.595533e+000 20 11 14
5.499440e+000 -3.624427e-001 -2.661965e+000 123 133 143
7.409397e+000 -2.600175e+000 -5.986299e+000 55 37 30
-5.769105e+000 -6.419027e+001 -7.296617e+001 13 24 29
-2.189880e+000 -2.235352e+001 -1.855258e+001 51 80 111
1.738454e+001 -6.649633e+000 -5.556854e+000 170 160 93
6.316587e+000 2.797605e+000 -1.230716e+001 130 116 87
-5.353042e+000 6.771094e-001 -3.513508e+000 205 199 131
5.736288e+000 -4.805167e-001 -6.804099e+000 50 45 51
2.896690e+000 -1.775764e+000 -7.089918e+000 92 76 79
-1.578710e+000 -5.299636e+000 -5.765067e+000 40 21 22
1.253421e+001 -1.889771e+000 -7.787532e+000 133 126 116
-2.888186e-002 -6.165259e+000 -6.791173e+000 133 132 145
4.595107e+000 -8.428603e+000 -8.882467e+000 157 135 83
4.595107e+000 -8.428603e+000 -8.882467e+000 157 135 83
1.725285e+001 -7.025620e+000 -5.726017e+000 197 188 120
-1.728721e+000 -2.426392e-001 -1.217631e+001 68 56 60
-1.941019e+000 -6.332312e-001 -1.219646e+001 26 17 22
-2.267688e+000 -9.503716e-001 -1.200686e+001 59 51 48
7.100312e+000 3.268076e+000 -6.588049e+000 65 41 39
6.772116e+000 1.469279e+000 -6.275563e+000 49 37 30
-2.215372e+000 2.639631e+000 1.192492e+000 45 80 111
2.754293e+000 -1.038382e+000 -7.657303e+000 81 66 62
1.101575e+001 -8.509491e-002 -7.435817e+000 136 130 127
1.940722e+000 -4.043576e+000 -6.180820e+000 146 138 148
3.884058e+000 -5.276401e+000 -8.040707e+000 28 24 26
1.646213e+001 -2.338462e+000 -8.085736e+000 128 104 56
4.274107e+000 -8.317096e+000 -8.827267e+000 159 144 79
6.811888e+000 -5.633988e+000 -6.605019e+000 123 74 70
7.600954e+000 -4.699407e+000 -5.695586e+000 139 65 66
8.047056e+000 -6.739091e+000 -5.888346e+000 134 45 47
1.722831e+001 -6.870736e+000 -5.810600e+000 165 151 86
1.241904e+001 2.787084e+000 -8.588812e+000 133 130 131
-5.385328e+000 -1.097457e+000 -4.597237e+000 203 112 130
8.294813e+000 1.039711e+000 -6.679747e+000 137 133 124
5.358734e+000 -3.626942e+000 -7.596288e+000 46 34 36
3.734710e+000 -4.640970e+000 -7.739254e+000 33 26 22
6.863274e+000 -7.695318e+000 -6.352249e+000 85 52 48
7.329642e+000 -7.521403e+000 -5.827571e+000 115 102 85
1.697731e+001 -9.125060e+000 -7.521498e+000 164 133 86
6.624006e+000 -9.662257e-001 -6.701871e+000 130 129 143
6.538516e+000 -1.397297e+000 -7.002190e+000 102 60 55
1.626600e+001 -2.638564e+000 -8.849974e+000 129 109 71
8.322075e+000 -9.617780e+000 -5.530321e+000 169 152 97
6.521403e-001 -1.185650e+000 -7.361018e+000 93 78 66
3.661157e+000 -1.654148e+000 -8.658344e+000 78 63 64
3.661157e+000 -1.654148e+000 -8.658344e+000 78 63 64
8.262427e+000 -2.907212e+000 -6.316727e+000 142 129 125
8.264793e+000 -5.725245e+000 -5.499283e+000 128 118 108
1.444244e+001 -6.398928e+000 -8.012739e+000 53 41 41
1.449038e+001 -4.863406e+000 -8.270733e+000 49 43 38
1.384953e+001 -4.796066e-001 -8.294359e+000 137 71 53
1.624475e+001 -4.910094e+000 -8.028005e+000 153 131 81
-5.244939e+000 1.610673e+000 -3.778935e+000 91 100 95
5.306796e+000 -1.226875e+000 -6.492383e+000 33 28 32
1.338557e+001 3.723435e-001 -8.631060e+000 38 33 30
9.655335e-001 -1.395213e+000 -6.607064e+000 49 30 26
1.106474e+001 -7.469455e+000 -6.674104e+000 133 87 59
5.908211e+000 3.020419e+000 -9.091305e+000 130 120 92
5.458875e+000 2.562588e+000 -1.051934e+001 112 105 77
6.615484e+000 2.030301e+000 -7.091902e+000 170 115 85
6.511080e+000 1.294202e+000 -7.167399e+000 128 112 95
1.657688e+000 -1.066548e-001 -8.895511e+000 110 99 81
1.657688e+000 -1.066548e-001 -8.895511e+000 110 99 81
3.549059e+000 -1.571849e-001 -1.054006e+001 88 37 44
6.786063e+000 1.849909e-001 -6.777473e+000 71 56 40
1.316709e+001 7.932869e-001 -6.461795e+000 111 93 51
-3.640410e+000 -6.883790e-001 -3.029827e+000 77 47 33
7.602442e-001 -7.338070e-001 -8.502393e+000 120 107 109
6.827523e+000 -3.472902e-001 -6.435885e+000 120 119 88
6.882465e+000 -8.165384e-001 -6.297342e+000 78 70 52
-1.161185e+001 -3.542869e+000 -6.567304e+000 132 128 135
-1.164168e+001 -3.800052e+000 -6.561694e+000 114 98 98
-1.001259e+001 -3.598440e+000 -6.396352e+000 121 111 109
-3.836133e+000 -3.023850e+000 -2.997410e+000 69 86 87
6.626007e+000 -3.689262e+000 -6.916979e+000 102 95 90
1.528536e-001 -5.071861e+000 -6.692287e+000 96 59 40
-1.331110e+000 -6.554564e+000 -6.836166e+000 87 75 58
7.091147e+000 -8.287822e+000 -5.817237e+000 160 180 168
6.074745e+000 3.080266e+000 -8.758046e+000 116 109 83
1.386537e+001 3.500337e+000 -9.147580e+000 99 52 28
-3.710102e+000 1.651067e+000 -3.246890e+000 68 47 30
6.793871e+000 1.413005e+000 -6.626013e+000 79 70 61
1.242166e+000 2.273699e-001 -9.512097e+000 116 101 78
6.953969e+000 6.286052e-001 -9.147370e+000 89 56 43
6.760342e-003 -5.694343e-001 -8.384693e+000 46 26 27
6.582572e-001 -5.596862e-001 -8.645680e+000 89 55 51
-1.136869e+000 -1.185033e+000 -6.797442e+000 102 94 90
2.084953e-001 -9.030450e-001 -7.454999e+000 108 53 58
1.941650e-001 -1.032501e+000 -7.199418e+000 107 46 53
1.886565e+000 -9.368809e-001 -8.213530e+000 111 104 98
3.473411e+000 -1.413519e+000 -7.518426e+000 42 21 23
-3.354594e+000 -3.476476e+000 -3.098063e+000 84 65 52
1.737554e+000 -3.929100e+000 -6.796904e+000 81 49 26
-3.563433e+000 -3.550437e+000 -2.859618e+000 85 58 38
8.945176e-001 -5.839162e+000 -7.235770e+000 29 20 21
8.900532e-001 -5.824280e+000 -7.200885e+000 29 20 21
-5.071188e+000 -5.741854e+000 -3.562214e+000 193 111 154
-4.902579e+000 -5.679932e+000 -3.560350e+000 65 77 85
-3.513065e+000 -5.312830e+000 -2.689704e+000 68 52 27
1.796650e-001 -6.538405e+000 -7.359961e+000 99 90 79
4.759282e-001 -7.063610e+000 -7.588217e+000 98 92 73
2.714283e+000 -7.107633e+000 -8.367981e+000 85 77 64
-4.878127e+000 -7.225306e+000 -3.554330e+000 73 76 96
-4.757343e+000 -7.052440e+000 -3.334317e+000 201 179 108
-3.578696e+000 -6.436198e+000 -2.735545e+000 182 138 103
-3.364347e+000 -6.973570e+000 -2.898371e+000 61 39 26
6.441433e+000 -7.671219e+000 -6.259756e+000 45 33 22
6.469578e+000 -7.880308e+000 -6.255926e+000 62 46 31
6.938720e+000 -8.287688e+000 -6.360293e+000 157 129 112
-3.397707e+000 -8.223960e+000 -2.318622e+000 82 50 30
-3.337648e+000 -8.789614e+000 -2.472177e+000 101 78 54
6.709767e+000 2.446464e+000 -6.770465e+000 183 127 92
6.465872e+000 2.011797e+000 -7.196572e+000 167 113 86
-5.140712e+000 6.972978e-002 -4.145349e+000 202 109 153
1.553896e+000 -1.943048e-002 -9.020290e+000 129 124 112
-9.331190e-002 -6.607988e-001 -8.474559e+000 125 119 115
5.663055e-001 -6.566539e-001 -8.496692e+000 32 28 31
4.287114e+000 -4.876835e-001 -9.743202e+000 106 107 106
6.911485e+000 1.094462e-002 -6.298307e+000 147 142 103
6.939960e+000 -1.705183e-001 -6.355543e+000 137 131 95
1.032320e+001 -1.069600e-001 -7.250499e+000 104 96 59
1.045490e+000 -1.077846e+000 -7.767655e+000 30 23 24
1.217085e+001 -1.440393e-001 -6.618375e+000 230 253 242
7.064305e+000 -8.416895e-001 -6.182435e+000 100 39 31
-1.039188e+001 -3.243537e+000 -7.355544e+000 107 97 97
-1.163769e+001 -3.643154e+000 -6.488520e+000 35 30 37
1.134060e+000 -3.998043e+000 -6.662452e+000 77 54 38
3.153320e+000 -4.265417e+000 -7.348945e+000 75 66 55
-3.625836e+000 -4.195043e+000 -2.832088e+000 187 135 110
7.169032e+000 -4.768020e+000 -5.654334e+000 51 36 26
7.546464e+000 -4.765503e+000 -5.784736e+000 33 22 18
-5.916597e+000 -5.459143e+000 -4.289361e+000 200 227 208
7.150653e+000 -5.718301e+000 -5.738660e+000 131 124 98
-1.260024e+000 -6.882580e+000 -7.028161e+000 85 77 60
-1.100141e+000 -7.808304e+000 -7.518531e+000 44 37 32
7.317389e-001 -7.537103e+000 -7.830422e+000 98 92 69
4.073071e-001 -7.846136e+000 -8.167990e+000 101 93 75
4.304132e-001 -7.781987e+000 -7.962813e+000 101 93 75
6.938533e+000 -7.239019e+000 -6.267957e+000 134 84 66
-4.953874e+000 -7.204707e+000 -3.473411e+000 199 237 224
6.843346e+000 -9.441965e+000 -7.498885e+000 134 105 55
1.187740e+000 5.560089e-002 -9.273097e+000 146 140 133
1.248658e+001 8.489316e-001 -8.017150e+000 37 33 25
-3.070227e-001 -5.433804e-001 -8.495063e+000 36 30 34
3.188108e+000 -3.531277e-001 -9.991715e+000 38 29 32
6.967141e+000 -9.307193e-001 -6.216115e+000 127 118 93
1.221631e+001 -4.422789e-001 -6.487107e+000 99 93 78
6.650731e+000 -1.353710e+000 -6.943980e+000 114 73 58
-3.529114e+000 -3.325723e+000 -2.924307e+000 71 50 34
7.525381e+000 -4.232809e+000 -5.917556e+000 42 30 22
-6.391065e+000 -5.302803e+000 -4.586955e+000 197 221 205
4.767467e+000 -5.327919e+000 -8.306908e+000 28 19 19
-1.645684e+000 -6.260500e+000 -6.639130e+000 84 75 57
5.788485e-001 -7.897787e+000 -7.880848e+000 43 34 34
6.911287e+000 -7.010063e+000 -6.410799e+000 133 85 65
8.358897e+000 -9.225542e+000 -5.564238e+000 115 58 45
5.807707e+000 1.315032e+000 -7.559413e+000 42 38 39
5.812446e+000 1.318017e+000 -7.555054e+000 42 38 39
6.887182e+000 5.722354e-001 -6.429433e+000 133 129 91
6.528696e+000 3.979520e-002 -7.107617e+000 93 60 41
6.538297e+000 -3.097935e-001 -7.067113e+000 102 66 47
6.689852e+000 -2.052483e+000 -6.880442e+000 110 84 63
-1.015831e+001 -3.521157e+000 -7.345741e+000 96 86 84
-5.270468e+000 -5.175233e+000 -3.821152e+000 170 181 159
6.828279e+000 -6.312431e+000 -6.439972e+000 116 77 61
-1.275911e+000 -7.971936e+000 -7.709055e+000 139 143 154
7.159689e+000 -6.319949e+000 -5.772592e+000 122 113 84
-1.134797e+001 -3.713947e+000 -6.674107e+000 35 24 26
-1.134797e+001 -3.713947e+000 -6.674107e+000 35 24 26
-1.067081e+001 -4.092833e+000 -6.442845e+000 32 22 24
-9.220795e+000 -4.465917e+000 -6.521596e+000 197 215 205
4.704328e+000 -5.557779e+000 -8.347742e+000 67 52 45
1.170268e+000 -6.657478e+000 -7.634323e+000 36 29 23
-3.019397e+000 -8.745596e+000 -8.404941e+000 102 107 107
-9.608155e-001 -7.896980e+000 -7.399942e+000 32 29 26
6.716866e+000 -7.276958e+000 -6.047452e+000 45 29 13
6.474977e+000 2.850316e+000 -7.452268e+000 174 125 85
1.111394e+000 -8.165372e-001 -8.375295e+000 115 107 111
-8.811423e+000 -3.551029e+000 -6.330188e+000 200 103 148
3.109771e+000 -3.699105e+000 -7.071808e+000 86 80 64
3.096878e+000 -3.688377e+000 -7.041482e+000 86 80 64
3.695828e+000 -4.024887e+000 -7.331657e+000 88 78 66
1.627101e+000 -4.204681e+000 -6.690358e+000 31 18 16
3.283588e+000 -4.044985e+000 -7.265118e+000 26 16 19
-5.023483e+000 -4.331006e+000 -3.663540e+000 207 113 151
3.947571e+000 -5.272713e+000 -8.101253e+000 27 18 21
-5.653629e+000 -5.475040e+000 -4.105966e+000 204 227 211
6.687830e+000 2.717579e+000 -6.766225e+000 174 207 213
4.096907e+000 -1.801599e+000 -7.477071e+000 40 24 16
4.014399e+000 -3.390749e+000 -7.316950e+000 31 48 56
-5.065511e+000 -5.479748e+000 -3.532993e+000 206 237 224
1.543048e+000 -6.691527e+000 -7.974885e+000 93 85 66
6.803599e+000 -8.094391e+000 -6.372240e+000 72 52 40
7.123560e+000 3.153477e+000 -6.798559e+000 63 44 30
6.710366e+000 1.764130e+000 -6.740829e+000 160 192 190
6.682612e+000 1.773442e+000 -6.634853e+000 160 192 190
7.060233e+000 1.703159e+000 -6.310833e+000 57 40 32
8.123478e+000 1.369267e+000 -6.790221e+000 98 39 31
1.067839e+001 -2.125713e-001 -7.247688e+000 106 55 36
1.066968e+001 -2.038461e-001 -7.231027e+000 106 55 36
1.224756e+001 -1.859680e+000 -7.562462e+000 104 92 62
7.100783e+000 -7.896778e+000 -5.686692e+000 159 181 179
7.613933e+000 -9.180637e+000 -5.515481e+000 60 51 32
-3.957553e+000 -2.155334e-001 -3.369639e+000 186 127 95
7.534952e-001 -3.548710e-001 -8.684129e+000 44 32 31
4.891535e+000 -2.343118e+000 -8.222327e+000 83 75 72
3.158986e+000 -2.977150e+000 -6.810160e+000 33 50 57
-4.643902e+000 -7.706712e-001 -3.627791e+000 60 77 84
-5.489627e+000 -3.192745e+000 -4.069010e+000 197 229 212
-4.603259e+000 -3.077581e+000 -3.537381e+000 68 85 89
4.204424e+000 -5.030147e+000 -8.114124e+000 26 17 20
-4.499405e+000 -5.326933e+000 -3.267578e+000 54 67 73
7.586949e+000 4.143601e-001 -6.719404e+000 102 43 32
-5.656118e+000 -1.258788e+000 -4.333539e+000 205 239 225
2.653496e+000 -9.517914e-001 -8.078942e+000 111 104 105
3.671582e+000 -2.370013e+000 -6.846459e+000 34 20 20
1.398224e+001 -1.957749e+000 -7.624309e+000 102 38 36
-4.241530e+000 -1.878742e+000 -3.549206e+000 194 187 106
1.371018e+001 -2.948300e+000 -8.714080e+000 38 31 25
-4.166227e+000 -4.107933e+000 -3.210000e+000 186 181 100
1.877770e-001 -4.571687e+000 -6.639005e+000 63 39 27
6.877313e+000 -6.274428e+000 -6.297531e+000 131 80 64
1.351645e+001 -8.465604e+000 -7.476919e+000 44 39 35
-1.224755e+000 -4.817718e-001 -8.293356e+000 115 67 63
-1.220612e+000 -7.724344e-001 -7.834153e+000 49 29 23
-1.636828e+000 -1.318599e+000 -6.505099e+000 33 19 16
-3.513111e-001 -1.678327e+000 -5.966691e+000 103 52 54
-1.242419e-001 -1.681587e+000 -5.954449e+000 120 54 58
1.190280e+001 -6.806260e-001 -6.316619e+000 33 26 18
1.683635e+000 -4.009041e+000 -6.756662e+000 31 17 12
-5.004823e+000 -5.930792e+000 -3.646605e+000 192 106 145
-4.199072e-001 -7.071108e+000 -7.317821e+000 28 28 18
5.984955e+000 -5.910838e+000 -6.377043e+000 92 86 73
7.066475e+000 -8.514412e+000 -5.765957e+000 141 94 64
7.158027e+000 -8.410228e+000 -5.665914e+000 158 130 103
1.013943e+001 -9.328066e+000 -6.244070e+000 111 94 48
5.645696e+000 2.681788e+000 -9.718625e+000 110 98 75
6.606972e+000 2.280740e+000 -6.831429e+000 176 124 96
1.333849e+000 5.875335e-002 -9.157575e+000 124 107 76
6.888185e+000 7.243635e-001 -6.398149e+000 136 134 99
6.924723e+000 2.321252e-001 -6.397794e+000 136 135 99
1.244896e+001 7.032497e-001 -8.005597e+000 46 37 27
1.847504e+000 -1.179865e+000 -7.749277e+000 107 46 41
-1.266485e+000 -1.662507e+000 -6.147105e+000 61 45 32
-3.376751e+000 -3.110284e+000 -3.088629e+000 72 57 42
3.944289e+000 -5.507602e+000 -8.105528e+000 59 37 31
-8.004296e-001 -8.054435e+000 -7.482404e+000 96 54 47
-3.345941e+000 -6.932379e+000 -2.796134e+000 55 37 30
7.877765e+000 2.963481e+000 -6.741561e+000 105 89 64
8.531648e-001 -6.437304e-001 -8.591847e+000 27 17 24
1.987303e-001 -1.706977e+000 -6.074695e+000 115 47 44
-5.104778e+000 -2.568175e+000 -3.933208e+000 186 105 148
3.543101e+000 -3.618803e+000 -7.235873e+000 37 53 60
6.643090e+000 -5.913556e+000 -6.698284e+000 99 83 67
-9.098191e-001 -7.781817e+000 -7.449877e+000 96 86 74
6.300826e+000 -7.938729e+000 -6.649701e+000 51 50 47
-3.491778e+000 -8.385812e+000 -2.316932e+000 187 133 99
-3.395154e+000 -9.268706e+000 -2.440459e+000 159 150 119
7.254268e+000 1.574559e+000 -6.406297e+000 36 26 19
7.235033e+000 1.591057e+000 -6.341139e+000 36 26 19
-2.830582e+000 -6.768087e-001 -3.880518e+000 25 17 18
6.712785e+000 -2.621176e-001 -6.818811e+000 143 155 157
4.204471e-001 -1.495522e+000 -6.385331e+000 119 115 114
6.697271e+000 -2.385799e+000 -6.786699e+000 107 71 49
-3.297074e+000 -3.423140e+000 -3.289685e+000 32 27 29
-3.297074e+000 -3.423140e+000 -3.289685e+000 32 27 29
-3.211599e+000 -3.510102e+000 -2.921724e+000 30 25 26
1.876599e+000 -4.311361e+000 -6.345597e+000 99 84 58
8.714008e+000 -3.434882e+000 -6.427999e+000 112 98 71
7.248295e+000 -5.375329e+000 -5.580019e+000 107 44 39
6.852619e+000 -6.347961e+000 -6.514661e+000 112 82 56
-1.300801e+000 -7.557764e+000 -7.148253e+000 101 78 47
4.403020e-001 -7.734781e+000 -7.884256e+000 102 93 76
6.964362e+000 -6.303022e+000 -6.241191e+000 140 156 146
-4.700420e+000 -6.968406e+000 -3.242593e+000 194 182 109
1.639908e+001 -9.387586e+000 -8.625637e+000 119 99 64
1.654309e+001 -8.966971e+000 -8.237280e+000 128 106 57
3.004465e+000 -1.520878e+000 -7.241538e+000 113 101 103
3.004465e+000 -1.520878e+000 -7.241538e+000 113 101 103
8.298869e+000 -1.336378e+000 -6.339605e+000 113 95 65
1.630211e+000 -3.876397e+000 -6.822673e+000 93 57 41
1.630211e+000 -3.876397e+000 -6.822673e+000 93 57 41
2.804959e+000 -4.702006e+000 -6.708307e+000 97 87 65
8.289495e+000 -4.208087e+000 -6.016285e+000 113 98 68
1.249569e+001 -2.393380e+000 -7.755233e+000 106 90 65
-4.791011e+000 -4.578794e+000 -3.552493e+000 196 184 112
-3.743636e-002 -7.570079e+000 -7.724039e+000 101 92 75
1.023242e+001 2.823558e+000 -7.614127e+000 106 91 62
-5.050413e+000 -6.830132e+000 -3.518817e+000 200 110 148
-4.709739e+000 -6.231989e+000 -3.467760e+000 193 185 110
6.301709e+000 1.910515e+000 -7.594065e+000 67 47 37
6.703123e+000 6.086649e-001 -6.698474e+000 73 60 44
6.716175e+000 6.175244e-001 -6.730884e+000 73 60 44
-5.227920e+000 1.064036e+000 -4.666518e+000 32 29 29
6.480190e+000 1.723017e+000 -7.048535e+000 149 142 129
-6.381948e+000 -1.345938e-001 -5.285531e+000 52 51 43
1.637860e+000 3.872020e-002 -9.400787e+000 109 100 80
1.653085e+000 3.264052e-001 -7.987128e+000 107 99 82
-2.038647e+000 -5.963022e-001 -7.909079e+000 91 58 49
6.373639e+000 4.472189e-001 -7.151361e+000 46 37 32
1.026775e+000 -8.750523e-001 -7.938797e+000 95 69 65
-1.886948e-001 -1.164526e+000 -6.529390e+000 102 100 103
6.859035e+000 -1.500513e+000 -5.495694e+000 66 53 34
-9.041215e+000 -4.761534e+000 -6.453075e+000 199 130 162
3.596037e+000 -3.172103e+000 -7.154533e+000 13 19 22
3.596037e+000 -3.172103e+000 -7.154533e+000 13 19 22
2.186003e+000 -5.000670e+000 -8.042156e+000 35 21 14
2.156264e+000 -4.253025e+000 -6.462652e+000 101 90 70
6.817781e+000 -4.970577e+000 -6.297966e+000 117 91 73
3.813996e-001 -6.501378e+000 -7.041851e+000 78 94 93
6.764935e+000 -5.968383e+000 -6.704613e+000 64 51 40
6.768111e+000 -5.980252e+000 -6.726017e+000 64 51 40
6.894801e+000 -6.434572e+000 -6.244797e+000 119 96 74
6.676072e+000 -7.569527e+000 -6.345182e+000 76 62 51
6.911616e+000 -7.891216e+000 -6.404962e+000 72 53 39
-3.447365e+000 -9.352715e+000 -2.655932e+000 94 67 36
-3.122911e+000 -9.770170e+000 -3.141751e+000 53 46 40
-6.755445e+000 1.252014e+000 -1.043867e+001 151 199 212
-6.688353e+000 1.174562e+000 -1.033692e+001 55 99 121
-3.783539e+000 2.429773e+000 -3.798067e+000 86 74 60
4.045012e+000 2.086168e+000 -1.395779e+001 70 64 40
6.487847e+000 3.309767e+000 -6.952776e+000 176 178 94
-4.729448e+000 1.846769e+000 -4.366801e+000 94 84 54
2.823625e+000 1.303594e+000 -1.585702e+001 85 75 66
2.773332e+000 7.361293e-001 -1.407517e+001 53 55 64
-5.295749e+000 8.996378e-001 -4.507568e+000 189 120 153
-3.938847e+000 1.627408e+000 -3.321314e+000 66 90 99
6.596330e+000 2.148747e+000 -6.360828e+000 172 117 89
-1.742872e+000 -5.314767e-001 -8.229757e+000 97 53 50
-1.511665e+000 -6.722898e-001 -8.099027e+000 114 83 80
-1.750837e-001 -5.733477e-001 -8.867987e+000 99 59 47
-1.568183e-001 -3.983289e-001 -8.237071e+000 99 59 47
3.087493e-002 -1.137465e+000 -7.271251e+000 117 108 111
1.060371e+001 1.677607e-001 -7.217840e+000 117 103 77
1.280415e+001 6.387041e-001 -6.183112e+000 41 43 28
5.604925e+000 -1.531038e+000 -7.776087e+000 60 49 47
-1.012914e+001 -3.709061e+000 -6.641128e+000 125 116 111
-3.368496e+000 -1.553037e+000 -3.396647e+000 31 28 29
1.060179e+000 -3.406022e+000 -6.524495e+000 101 76 45
3.246697e+000 -3.726782e+000 -7.812428e+000 30 49 59
-3.568279e+000 -3.390891e+000 -2.866746e+000 79 54 38
3.012226e+000 -5.546303e+000 -9.093571e+000 44 37 19
7.412127e+000 -3.289904e+000 -5.353373e+000 99 56 49
8.807077e-001 -5.994494e+000 -7.320435e+000 93 89 74
-1.779384e+000 -7.167615e+000 -7.159894e+000 85 64 47
1.820008e+000 -6.912992e+000 -7.832588e+000 49 61 67
5.919878e+000 -6.451016e+000 -6.773168e+000 29 26 21
6.990110e+000 -5.780775e+000 -5.975959e+000 71 66 42
6.869764e+000 -6.530935e+000 -6.520015e+000 132 135 118
6.874318e+000 -7.279900e+000 -6.526428e+000 123 114 104
-4.389839e+000 -7.006168e+000 -3.190536e+000 182 134 88
-1.894398e+000 -7.830767e+000 -3.779124e+000 30 22 29
6.980063e+000 -8.268578e+000 -6.157947e+000 139 95 78
3.128678e+000 1.281150e+000 -1.820269e+001 155 116 80
5.307287e+000 2.508024e+000 -1.034463e+001 62 56 42
5.307287e+000 2.508024e+000 -1.034463e+001 62 56 42
6.423391e+000 1.980517e+000 -7.513874e+000 69 40 28
-1.067765e+000 -3.123061e-001 -8.480876e+000 92 58 52
-2.549865e+000 3.475373e-001 -4.355513e+000 18 20 24
7.412597e-001 -5.460289e-001 -9.037888e+000 26 22 25
6.552513e+000 9.419772e-001 -6.926655e+000 99 79 55
1.113796e+000 -5.901036e-001 -8.688357e+000 48 37 35
6.550805e+000 5.920470e-001 -6.835361e+000 122 77 66
4.113993e+000 -2.867847e-001 -7.078125e+000 48 38 32
-8.583030e-001 -1.552778e+000 -6.254912e+000 28 21 16
1.829674e+000 -1.254560e+000 -7.487241e+000 106 106 103
6.418019e+000 -5.408290e-001 -7.364100e+000 66 57 52
6.792581e+000 -2.508835e-001 -5.776714e+000 124 122 95
6.867980e+000 -8.234939e-001 -5.854670e+000 120 121 93
1.197598e+001 -1.276936e-001 -6.998997e+000 90 88 68
1.242875e+001 -1.520100e+000 -7.668726e+000 103 94 76
3.365051e+000 -3.861759e+000 -7.821761e+000 84 84 71
-1.897564e+000 -5.871276e+000 -6.790471e+000 126 134 139
1.602060e+000 -5.917981e+000 -7.221549e+000 91 85 77
1.704921e+000 -5.915706e+000 -7.423478e+000 29 24 16
1.618492e+001 -4.364823e+000 -8.152242e+000 96 86 37
1.033226e+000 -7.137480e+000 -7.636738e+000 39 39 27
2.189627e+000 -7.004013e+000 -8.262001e+000 45 57 64
-3.825754e+000 -5.539464e+000 -2.869550e+000 187 133 105
-3.783502e+000 -8.202191e+000 -3.254131e+000 60 61 64
6.701223e+000 -9.590836e+000 -7.357370e+000 92 71 45
-3.278626e+000 -9.862785e+000 -3.069493e+000 48 40 37
3.164027e+000 2.119862e+000 -1.633094e+001 176 161 102
3.077089e+000 1.637599e+000 -1.790546e+001 163 122 76
6.044763e+000 2.978211e+000 -8.264906e+000 75 65 57
6.879567e+000 9.123110e-001 -6.452664e+000 133 132 101
-3.772926e+000 -5.209592e-001 -3.214198e+000 181 129 106
6.626700e+000 -5.049608e-001 -6.411939e+000 130 151 144
4.227465e-001 -1.490592e+000 -6.370665e+000 107 106 107
6.650675e+000 -9.590817e-001 -6.953889e+000 99 71 52
7.174424e+000 -6.175889e-001 -6.558742e+000 106 39 33
6.716749e+000 -3.030660e+000 -6.629300e+000 125 82 65
9.519607e-001 -4.653225e+000 -6.859340e+000 29 18 15
3.660196e+000 -4.879993e+000 -7.805782e+000 92 70 37
7.621027e+000 -3.890561e+000 -6.327270e+000 36 26 16
1.519400e+001 -4.527318e+000 -8.144956e+000 58 36 25
1.519400e+001 -4.527318e+000 -8.144956e+000 58 36 25
6.882702e+000 -5.954237e+000 -6.522191e+000 112 81 50
6.916654e+000 -6.688137e+000 -6.485623e+000 121 79 57
6.981826e+000 -5.950190e+000 -5.719744e+000 91 84 58
6.980280e+000 -6.637664e+000 -6.207230e+000 141 165 162
7.045270e+000 -9.427520e+000 -6.160222e+000 153 109 60
7.057888e+000 -9.461048e+000 -6.202936e+000 153 109 60
1.637847e+001 -9.056634e+000 -8.275986e+000 81 64 33
5.397370e+000 2.109788e+000 -9.503221e+000 143 102 78
-4.579827e-001 -4.227279e-001 -8.931828e+000 28 25 28
5.944170e+000 8.723426e-001 -7.318214e+000 72 67 64
3.489395e+000 -8.249984e-001 -9.979152e+000 27 17 16
4.065935e+000 -2.400769e-001 -7.517507e+000 105 101 98
4.065935e+000 -2.400769e-001 -7.517507e+000 105 101 98
1.302782e+001 1.278973e+000 -7.257554e+000 95 44 43
6.661366e+000 8.724836e-002 -6.743458e+000 129 151 141
2.208368e+000 -1.344938e+000 -7.550818e+000 28 24 20
-1.094867e+001 -3.412658e+000 -7.235538e+000 36 27 33
-3.786393e+000 -1.245735e+000 -3.307708e+000 195 150 127
-9.405806e+000 -3.634786e+000 -6.792166e+000 173 201 196
6.662929e+000 -1.690939e+000 -6.876946e+000 110 74 57
6.791590e+000 -1.003275e+000 -6.212343e+000 60 62 52
2.900952e+000 -3.201908e+000 -7.005142e+000 38 58 69
3.473124e-001 -4.223457e+000 -7.121484e+000 59 48 46
8.429179e+000 -3.934784e+000 -6.120477e+000 111 98 74
-3.733097e+000 -5.428541e+000 -3.216798e+000 179 130 104
6.111634e+000 -6.152690e+000 -7.618079e+000 63 52 44
6.897348e+000 -6.105514e+000 -6.797052e+000 113 78 59
6.983788e+000 -5.671662e+000 -6.474799e+000 132 152 150
6.970720e+000 -5.981173e+000 -6.341589e+000 137 156 155
7.010636e+000 -7.049599e+000 -6.234063e+000 140 156 155
2.728211e+000 1.975798e+000 -1.687905e+001 186 188 131
3.242346e+000 1.729052e+000 -1.528857e+001 152 146 85
4.206030e+000 2.394241e+000 -1.369858e+001 164 160 89
6.430899e+000 2.614261e+000 -7.107329e+000 166 110 87
1.402082e+001 2.985326e+000 -8.721491e+000 42 32 22
1.402082e+001 2.985326e+000 -8.721491e+000 42 32 22
1.391016e+001 -3.556820e-001 -6.913955e+000 56 50 35
-9.311400e+000 -4.055122e+000 -6.772176e+000 179 213 212
1.885837e+000 -6.630398e+000 -8.024531e+000 28 27 23
3.284258e+000 -7.447921e+000 -8.877953e+000 78 74 63
4.531048e+000 -6.826725e+000 -6.719904e+000 38 26 18
-3.432661e+000 -6.871981e+000 -2.757950e+000 82 64 51
-3.844796e+000 -7.828978e+000 -2.832552e+000 55 64 71
-3.844796e+000 -7.828978e+000 -2.832552e+000 55 64 71
6.223993e+000 3.057871e+000 -7.967300e+000 166 162 89
5.439118e+000 1.866564e+000 -8.376594e+000 54 35 28
3.345629e+000 -2.541983e-001 -1.100449e+001 100 95 101
-5.255369e+000 -1.329537e+000 -4.036925e+000 203 245 236
1.133933e+000 -1.379386e+000 -6.776636e+000 52 39 31
1.742759e+000 -1.494459e+000 -7.340414e+000 49 35 32
1.250396e+001 -1.321277e-001 -6.393726e+000 37 30 22
1.391569e+001 -6.255135e-001 -6.901517e+000 91 76 47
2.714554e+000 -3.494921e+000 -6.967286e+000 36 23 19
5.531054e-001 -5.346678e+000 -7.033828e+000 92 72 38
-3.935034e+000 -7.857577e+000 -2.911934e+000 49 58 65
-3.935034e+000 -7.857577e+000 -2.911934e+000 49 58 65
3.816636e+000 2.300024e+000 -1.381915e+001 84 77 58
-5.238701e+000 1.121563e+000 -4.321835e+000 50 44 42
-5.238701e+000 1.121563e+000 -4.321835e+000 50 44 42
5.975348e+000 1.813609e+000 -8.165681e+000 55 103 127
2.768389e+000 8.174561e-002 -9.959145e+000 73 42 36
5.992825e+000 6.878487e-001 -7.533330e+000 69 63 65
6.353849e+000 4.611913e-001 -7.290976e+000 59 53 49
-5.309109e+000 -7.535924e-001 -4.203726e+000 192 232 221
1.307248e+001 1.170391e+000 -6.523442e+000 58 56 47
3.450220e+000 -1.515064e+000 -6.498449e+000 105 46 52
-1.202616e-001 -1.941116e+000 -6.010189e+000 96 41 46
2.800741e+000 -4.011178e+000 -7.096773e+000 84 81 66
8.307777e+000 -4.289090e+000 -5.964715e+000 110 97 68
4.135738e+000 -8.518434e+000 -8.386214e+000 64 34 32
-4.874713e+000 -7.835014e+000 -3.939127e+000 51 61 67
8.507552e+000 -7.564657e+000 -5.795601e+000 113 101 66
1.105586e+001 -7.475338e+000 -6.688796e+000 114 66 44
3.632136e+000 1.707238e+000 -1.442509e+001 159 147 93
6.228051e+000 2.531520e+000 -8.194050e+000 151 144 74
-3.921346e+000 1.422963e+000 -3.252735e+000 176 119 89
1.254539e+001 7.233994e-001 -7.163565e+000 93 94 84
-3.866515e+000 -9.851522e-001 -3.139564e+000 183 126 97
-8.057736e-001 -1.369201e+000 -6.621858e+000 101 97 92
1.225157e+001 2.391874e-001 -7.044852e+000 30 25 19
3.120583e+000 -2.843759e+000 -6.488016e+000 35 54 61
1.870907e+000 -3.825969e+000 -7.683513e+000 29 19 18
3.458270e-001 -5.072500e+000 -7.391047e+000 30 20 18
-5.313071e+000 -4.590505e+000 -3.912236e+000 201 110 153
-3.787733e+000 -7.475577e+000 -3.011739e+000 182 123 91
7.612610e+000 -9.166532e+000 -5.494894e+000 57 44 28
1.168522e+001 2.780667e+000 -7.498108e+000 103 94 65
4.304779e+000 9.215039e-001 -7.134485e+000 33 28 33
-4.641090e-001 -7.422392e-001 -7.782453e+000 110 109 107
1.538977e+000 -4.853574e-001 -8.361447e+000 47 37 35
5.017715e+000 -4.917109e-001 -8.051105e+000 99 39 47
5.895061e+000 -6.187005e-002 -7.097490e+000 87 79 70
-3.902664e+000 -2.633049e+000 -3.203643e+000 185 129 96
7.010924e+000 -4.554590e+000 -6.147492e+000 144 173 177
1.357583e+000 2.897633e-001 -8.206433e+000 119 109 92
3.760316e+000 -7.098483e-001 -1.057572e+001 29 21 18
1.317126e+001 7.857327e-001 -6.322412e+000 100 87 52
9.783373e-001 -3.477374e+000 -6.360872e+000 91 61 33
1.971985e+000 -3.868317e+000 -6.600619e+000 33 22 20
-4.426895e+000 5.778124e-001 -3.757010e+000 186 188 104
6.498849e+000 -3.509371e-002 -6.731212e+000 124 124 110
2.171301e+000 -2.650164e+000 -7.431058e+000 42 31 27
5.616994e+000 -7.803622e+000 -7.590869e+000 52 39 33
-3.230593e+000 -3.286121e-001 -8.964498e+000 26 43 51
6.478030e+000 3.108112e+000 -7.168979e+000 157 119 71
-9.395513e-001 -5.209027e-001 -8.706635e+000 97 64 59
-2.048674e+000 -7.626099e-001 -8.160228e+000 35 20 20
-2.048674e+000 -7.626099e-001 -8.160228e+000 35 20 20
-5.412950e-001 -6.504614e-001 -8.601470e+000 95 56 47
-3.870195e-001 -1.262451e+000 -6.933487e+000 24 26 27
6.422407e+000 -1.175088e-004 -6.841102e+000 76 61 52
6.707127e+000 1.120463e-001 -6.474904e+000 53 46 30
-1.040153e+001 -3.671075e+000 -7.440585e+000 43 28 31
-5.596189e+000 -1.351550e+000 -4.225669e+000 192 235 228
-5.596189e+000 -1.351550e+000 -4.225669e+000 192 235 228
-5.085739e+000 -1.323060e+000 -3.795965e+000 191 230 227
6.789923e+000 -3.064785e-001 -6.072575e+000 84 83 55
1.292499e+001 1.115086e+000 -6.049900e+000 61 53 33
-1.091001e+001 -3.815627e+000 -7.307210e+000 76 70 70
-1.057124e+001 -3.700680e+000 -6.712091e+000 39 29 32
8.429519e-001 -3.069978e+000 -6.074566e+000 85 50 22
-5.127770e+000 -3.602105e+000 -4.028218e+000 194 235 229
1.156425e+000 -3.971949e+000 -6.648398e+000 75 53 32
1.870100e+000 -4.097634e+000 -7.004025e+000 59 49 40
2.647537e+000 -4.361599e+000 -6.676736e+000 87 78 60
-1.364473e+000 -6.081889e+000 -6.692521e+000 28 23 20
6.811154e+000 -5.365669e+000 -6.466636e+000 130 135 125
-3.557253e+000 -5.326810e+000 -2.578978e+000 175 132 99
7.074536e+000 -5.347370e+000 -5.514142e+000 117 106 81
6.930732e+000 -7.557088e+000 -6.379596e+000 129 128 111
7.139541e+000 -8.339772e+000 -5.449083e+000 155 121 97
3.034010e+000 1.726103e+000 -1.933464e+001 183 172 101
3.772147e+000 1.672635e+000 -1.666725e+001 76 68 55
5.924108e+000 2.773852e+000 -8.860019e+000 100 95 76
6.371398e+000 2.705572e+000 -7.419287e+000 159 113 80
9.697927e+000 3.345728e+000 -7.396096e+000 47 31 17
-5.031456e+000 -4.390576e-002 -4.013012e+000 194 177 118
-1.032290e-001 -6.890716e-001 -8.584376e+000 110 107 104
-8.137692e+000 -1.719326e+000 -6.580434e+000 79 169 216
-1.960197e+000 -1.026797e+000 -6.871126e+000 80 68 59
-1.270967e+000 -8.484041e-001 -7.766176e+000 102 91 89
-1.729601e+000 -1.355724e+000 -6.505788e+000 27 21 23
-1.226426e+000 -1.275548e+000 -6.702117e+000 30 25 18
-3.668850e+000 -5.618484e-001 -2.741371e+000 171 128 94
1.244348e+001 -3.418410e-003 -7.948297e+000 79 72 62
1.174504e+001 1.702639e-001 -6.361194e+000 34 28 23
1.216233e+001 1.876902e-001 -5.986044e+000 87 82 60
-1.183685e+001 -4.551875e+000 -6.849520e+000 140 113 92
1.389278e+001 -4.063823e-001 -6.763492e+000 55 42 24
-4.887916e+000 -2.232132e+000 -3.605253e+000 194 180 120
-5.050803e+000 -2.930723e+000 -3.732358e+000 188 229 219
-3.631601e+000 -3.142727e+000 -2.746618e+000 168 137 112
2.542514e+000 -4.728813e+000 -7.271866e+000 33 22 14
-5.873332e+000 -4.785363e+000 -4.136110e+000 202 248 237
-3.567476e+000 -5.147750e+000 -2.620918e+000 174 134 107
6.835040e+000 -6.111284e+000 -6.461761e+000 136 134 125
-8.037577e+000 7.510168e-001 -1.441556e+001 82 55 42
-7.474770e+000 8.382412e-001 -1.278688e+001 48 67 81
-6.732285e+000 1.126114e+000 -1.050488e+001 45 69 88
5.627128e+000 2.838963e+000 -9.854849e+000 73 68 49
3.066412e+000 -4.730664e-001 -1.763423e+001 143 138 137
5.827336e+000 2.062240e+000 -8.862373e+000 151 109 86
1.363585e+001 3.365853e+000 -8.638655e+000 101 45 39
-4.671433e+000 1.240276e+000 -3.692820e+000 183 137 106
3.042044e+000 -5.008314e-001 -1.017375e+001 106 88 51
9.718829e-001 -9.442042e-001 -7.808112e+000 113 111 119
2.240140e-001 -1.311115e+000 -7.408530e+000 113 108 113
3.128643e+000 -8.540238e-001 -7.694257e+000 44 30 29
1.355197e+001 1.212576e+000 -6.426073e+000 67 59 35
-7.070725e-001 -1.557159e+000 -6.128541e+000 91 86 83
-7.070725e-001 -1.557159e+000 -6.128541e+000 91 86 83
1.266609e+001 1.095330e+000 -5.701199e+000 59 55 43
1.218809e+001 -1.577310e-001 -6.356164e+000 73 75 62
-5.084129e+000 -2.740142e+000 -3.784150e+000 189 226 218
-4.627430e+000 -2.561688e+000 -3.452704e+000 58 78 95
9.107677e-001 -3.532857e+000 -6.393465e+000 99 90 61
1.664199e+000 -3.861127e+000 -6.749790e+000 73 50 35
1.664199e+000 -3.861127e+000 -6.749790e+000 73 50 35
4.717604e+000 -8.275883e+000 -8.715275e+000 32 22 22
7.079607e+000 -8.408366e+000 -5.790884e+000 155 120 88
6.248749e+000 2.875178e+000 -7.386004e+000 159 159 84
-3.011425e-001 -5.080204e-001 -8.340611e+000 21 24 26
5.692009e-002 -3.391749e-001 -8.498287e+000 110 73 64
1.828842e+000 -1.241525e+000 -7.449649e+000 103 103 95
-5.214655e+000 -1.979784e+000 -4.445050e+000 203 113 159
6.738366e+000 -2.596113e+000 -6.268821e+000 127 156 164
-4.807090e+000 -4.523121e+000 -3.415918e+000 189 185 112
-4.984535e+000 -5.608979e+000 -3.511110e+000 187 234 224
6.417672e+000 -8.121469e+000 -6.357173e+000 61 85 96
-3.667213e+000 -7.891224e+000 -3.069206e+000 171 120 88
-6.011170e+000 1.372716e+000 -8.055385e+000 71 102 120
-8.456907e-001 -6.595435e-001 -8.421045e+000 27 25 30
-1.360438e+000 -9.011145e-001 -7.744514e+000 99 92 89
3.937861e-001 -1.121545e+000 -6.956337e+000 28 26 31
6.603236e+000 -6.555420e-001 -7.002548e+000 105 67 49
1.268450e+001 4.866773e-001 -6.217678e+000 89 77 47
7.991891e+000 -9.245708e-001 -5.872049e+000 116 105 82
-2.253273e+000 -4.495132e+000 -3.619886e+000 23 18 21
-3.578374e+000 -4.954016e+000 -2.478433e+000 177 130 103
1.958544e+000 -3.797495e-001 -8.980363e+000 43 28 23
1.227237e+001 1.151036e-002 -7.760109e+000 90 85 64
-9.518310e+000 -4.268139e+000 -6.771259e+000 92 35 52
9.052910e-003 -5.277278e+000 -6.831548e+000 89 71 36
-4.009404e+000 -4.275018e+000 -2.889475e+000 184 127 98
-4.753898e+000 -7.218116e+000 -3.266487e+000 57 71 77
-8.927826e+000 -3.679000e+000 -6.569391e+000 188 102 149
3.312757e-001 -3.852911e+000 -6.968603e+000 29 18 19
-4.869445e+000 1.642585e-001 -3.856032e+000 188 188 108
7.191113e+000 -1.410586e+000 -6.044336e+000 51 38 30
2.404478e+000 -6.808081e+000 -8.236995e+000 95 87 77
5.669280e+000 -6.203523e+000 -6.257043e+000 22 21 19
-4.834486e+000 -5.394855e+000 -3.937486e+000 62 77 84
-3.806795e+000 -4.935631e+000 -3.019999e+000 185 125 95
1.235961e+001 -1.085534e+000 -6.676453e+000 39 31 28
