ply
format ascii 1.0
element face 0
property list uchar int vertex_indices
element vertex 875
property float x
property float y
property float z
property uchar diffuse_red
property uchar diffuse_green
property uchar diffuse_blue
end_header
9.283390e+000 -6.430223e+000 -6.597944e+000 164 86 63
6.646794e+000 1.298556e+000 -6.203888e+000 138 112 85
-3.539546e+000 -1.244746e-001 -4.119500e+000 65 73 76
1.127343e+001 -7.690918e+000 -7.326833e+000 67 51 42
4.617642e+000 -1.301024e+000 -6.953827e+000 37 26 25
1.173122e+001 -7.462503e+000 -7.965454e+000 50 35 32
5.662917e+000 1.849675e+000 -6.876091e+000 182 174 157
5.832796e+000 1.932039e+000 -6.516853e+000 65 39 21
5.510347e+000 1.511976e+000 -7.095372e+000 169 119 94
-2.872072e+000 -5.744535e-001 -3.405414e+000 135 139 138
-2.872072e+000 -5.744535e-001 -3.405414e+000 135 139 138
-4.654149e+000 -5.833827e-001 -4.595514e+000 230 218 179
1.148106e+001 9.469621e-001 -8.072454e+000 65 38 27
-1.832038e+000 -1.359587e+000 -4.527944e+000 26 26 35
-9.523617e+000 -3.242714e+000 -6.428613e+000 66 58 56
-9.523617e+000 -3.242714e+000 -6.428613e+000 66 58 56
-3.645859e+000 -3.103874e+000 -3.953898e+000 215 126 121
-9.802300e+000 -3.695634e+000 -5.449027e+000 69 43 28
-1.058977e+001 -3.894833e+000 -5.423725e+000 176 140 89
3.187207e+000 -3.285027e+000 -7.422537e+000 62 51 50
-3.777173e+000 -4.072913e+000 -4.232619e+000 219 188 105
-8.918428e-001 -5.742031e+000 -6.759471e+000 114 91 83
-8.395851e-001 -5.941433e+000 -6.831965e+000 114 66 44
1.164010e+000 -6.232547e+000 -7.832362e+000 70 51 54
1.164010e+000 -6.232547e+000 -7.832362e+000 70 51 54
-3.560931e+000 -6.893693e+000 -3.806310e+000 220 137 129
1.063637e+001 -7.626847e+000 -7.340318e+000 155 124 102
-2.303215e+000 -8.081894e+000 -3.133282e+000 84 61 50
-2.303215e+000 -8.081894e+000 -3.133282e+000 84 61 50
5.188225e+000 2.022956e+000 -8.557539e+000 124 95 63
5.169871e+000 1.729407e+000 -8.257996e+000 141 100 56
5.236553e+000 1.761324e+000 -8.049363e+000 148 107 55
5.861368e+000 -6.113707e-001 -6.520315e+000 137 108 84
-5.534861e-001 -1.676189e+000 -6.115583e+000 83 59 48
-3.457591e+000 -2.802381e+000 -3.817455e+000 224 110 105
-2.164784e+000 -2.476516e+000 -4.121031e+000 49 59 68
6.436531e+000 -1.946529e+000 -6.609317e+000 62 29 22
1.010660e+000 -2.965167e+000 -6.365899e+000 145 79 44
-8.605777e+000 -3.820763e+000 -5.792978e+000 80 57 51
-4.293449e+000 -3.830571e+000 -4.488801e+000 213 191 119
2.358429e+000 -3.733830e+000 -6.672483e+000 34 16 11
-1.009659e+000 -5.264184e+000 -6.648541e+000 105 72 48
-8.820870e-001 -6.015790e+000 -6.980327e+000 125 93 65
4.726462e+000 -5.893482e+000 -6.454888e+000 34 25 18
6.035783e+000 -5.647464e+000 -6.268477e+000 74 47 30
5.739730e+000 -7.920943e+000 -7.527612e+000 180 150 83
-3.030455e+000 -7.896223e+000 -3.845009e+000 95 74 54
5.975135e+000 1.433856e+000 -6.475232e+000 81 53 39
6.171146e+000 1.320643e+000 -6.701024e+000 68 35 26
8.723880e+000 -4.517956e-001 -7.125924e+000 145 121 96
-3.773476e+000 -1.620302e+000 -3.666082e+000 219 190 104
5.449763e+000 -8.968689e-001 -7.280965e+000 118 100 101
6.685370e+000 -7.951939e-001 -6.438481e+000 162 130 114
6.685370e+000 -7.951939e-001 -6.438481e+000 162 130 114
1.764448e+000 -4.050269e+000 -6.288653e+000 152 110 71
6.468620e+000 -4.410271e+000 -6.103206e+000 47 19 12
-2.647437e+000 -6.851031e+000 -3.162838e+000 84 90 96
-2.491901e+000 -6.842326e+000 -3.199782e+000 76 83 75
6.620920e+000 -7.310867e+000 -5.825560e+000 64 37 26
6.763096e+000 -7.812326e+000 -6.068297e+000 75 45 36
6.848585e+000 -7.821792e+000 -6.043544e+000 142 85 71
5.335663e+000 -8.156196e-001 -7.341432e+000 68 44 42
5.890859e+000 -9.389369e-001 -6.490265e+000 136 109 79
7.177344e+000 -1.733826e+000 -6.517276e+000 148 123 101
-7.737106e+000 -3.988986e+000 -6.011567e+000 117 88 72
3.183088e+000 -6.124339e+000 -8.654419e+000 41 18 20
5.852627e+000 2.352891e+000 -6.844509e+000 79 50 28
5.852627e+000 2.352891e+000 -6.844509e+000 79 50 28
-3.436240e+000 6.732118e-001 -3.807156e+000 223 112 111
4.954518e+000 -7.136772e-001 -6.860174e+000 121 101 100
5.452248e+000 -9.599072e-001 -7.296353e+000 116 103 102
5.627710e+000 -1.233695e+000 -7.169055e+000 123 65 50
-9.294196e+000 -3.701804e+000 -5.537177e+000 167 130 75
9.191054e+000 -2.909956e+000 -7.023667e+000 138 102 69
9.191398e+000 -2.909635e+000 -7.014931e+000 138 102 69
1.422871e+000 -4.612109e+000 -6.855571e+000 147 102 59
4.142244e+000 -4.669367e+000 -7.997413e+000 34 21 15
-3.716919e+000 -5.267361e+000 -3.896295e+000 224 193 116
3.930935e+000 -5.645581e+000 -6.305752e+000 46 27 22
5.578817e-001 -6.103278e+000 -7.333347e+000 41 30 31
5.578817e-001 -6.103278e+000 -7.333347e+000 41 30 31
-3.517491e+000 -6.654484e+000 -3.794089e+000 224 120 124
9.003534e+000 -6.558541e+000 -6.742413e+000 152 122 98
-3.485013e+000 -6.992439e+000 -3.761570e+000 224 118 122
-1.586240e+000 -7.492761e+000 -4.106848e+000 25 15 13
-2.208974e+000 -8.106794e+000 -3.297219e+000 72 49 33
2.915022e+000 -1.049363e+000 -8.282670e+000 105 69 43
5.722430e+000 -2.384098e+000 -7.115919e+000 133 69 55
1.705497e-001 -2.833242e+000 -1.058044e+001 41 25 20
4.550658e+000 -2.618666e+000 -7.276795e+000 53 32 28
9.305236e+000 -3.665664e+000 -7.020391e+000 154 75 56
5.796710e+000 -4.154644e+000 -6.880408e+000 127 68 52
-3.072761e+000 -5.527559e+000 -3.437472e+000 232 131 132
5.225881e+000 -5.830656e+000 -6.525838e+000 130 113 103
6.134865e+000 -6.743319e+000 -5.833686e+000 171 174 165
5.759739e+000 -7.478722e+000 -6.975207e+000 106 60 44
5.163170e+000 -1.138697e+000 -8.130926e+000 60 39 36
6.838177e+000 -3.222371e+000 -6.285772e+000 144 122 106
9.414752e-001 -3.927468e+000 -6.166381e+000 150 132 130
5.276391e+000 -3.414360e+000 -6.964498e+000 74 45 39
1.062412e+001 -5.429241e+000 -7.211887e+000 152 122 102
7.039658e+000 -5.988943e+000 -6.099203e+000 154 127 110
3.733927e+000 -8.668318e+000 -1.380420e+001 113 85 61
5.088673e+000 1.924597e+000 -8.265182e+000 124 94 64
8.986466e+000 -5.817902e-001 -7.176258e+000 146 70 45
-9.250979e+000 -3.555443e+000 -6.053738e+000 49 30 26
-8.779173e+000 -3.340195e+000 -6.015987e+000 47 34 33
4.054315e+000 -8.591533e+000 -1.262276e+001 108 80 56
6.043192e+000 2.231447e+000 -6.939255e+000 81 56 36
-2.922681e+000 -4.225290e+000 -3.196395e+000 71 77 77
-2.382783e+000 -5.333985e+000 -3.169547e+000 48 31 23
-1.549776e+000 -5.324239e+000 -7.061370e+000 44 66 80
5.370404e+000 -7.823797e+000 -8.203178e+000 187 149 79
1.083238e+001 -7.442347e+000 -7.409288e+000 154 123 103
5.694075e+000 -8.177584e+000 -7.694609e+000 119 92 64
-3.059819e+000 -8.594834e-001 -3.553055e+000 220 110 108
-3.059819e+000 -8.594834e-001 -3.553055e+000 220 110 108
3.611649e+000 -5.400209e+000 -8.388597e+000 84 39 36
-1.755061e+000 -7.534424e+000 -4.151386e+000 36 28 26
-2.835401e+000 -6.719417e+000 -3.244801e+000 222 118 117
4.620530e+000 -1.364581e+000 -7.273677e+000 38 26 28
5.549746e+000 1.804634e+000 -7.103682e+000 190 163 141
5.785176e+000 -5.057669e-001 -6.335372e+000 138 112 87
9.191811e+000 -8.763183e-001 -7.258818e+000 137 78 60
5.042930e+000 -2.140063e+000 -7.357755e+000 64 41 36
-6.931813e+000 -3.517028e+000 -6.176458e+000 230 213 145
-6.914058e+000 -3.523803e+000 -6.120367e+000 230 213 145
-3.117699e+000 -3.697507e+000 -3.590227e+000 253 191 188
-3.733572e+000 -4.277486e+000 -3.964869e+000 218 187 109
-4.735639e+000 -4.580952e+000 -4.708561e+000 234 220 146
-4.169014e-001 -5.156312e+000 -6.764261e+000 130 103 86
4.712126e-001 -5.937502e+000 -7.425433e+000 134 53 52
6.221075e+000 -6.555376e+000 -5.897893e+000 135 108 85
6.739647e+000 -7.463867e+000 -5.901947e+000 126 88 71
6.120180e+000 1.530947e+000 -6.612386e+000 61 33 21
5.789763e+000 8.667883e-001 -6.439466e+000 69 42 31
6.959313e+000 5.799054e-001 -6.668797e+000 134 48 47
-4.782808e+000 -1.926225e+000 -4.785641e+000 233 220 150
6.130717e+000 -1.996171e+000 -6.230532e+000 57 30 19
6.279913e+000 -2.028078e+000 -6.419043e+000 92 63 49
1.680086e+000 -3.886154e+000 -6.425045e+000 147 116 54
1.327039e+000 -4.583038e+000 -7.117692e+000 128 65 37
1.836885e+000 -4.485308e+000 -6.658166e+000 138 101 60
1.667325e+000 -5.437798e+000 -7.506765e+000 148 52 54
-1.049991e+000 -5.734666e+000 -6.717974e+000 99 78 69
1.149903e-001 -6.245336e+000 -7.329800e+000 40 28 30
1.299899e+001 -6.533121e+000 -1.145252e+001 151 126 114
6.384647e+000 -5.004388e+000 1.178095e+000 55 38 31
5.933802e+000 -7.809181e+000 -6.664442e+000 175 99 61
6.036081e+000 -7.549000e+000 -6.354100e+000 185 106 75
4.965037e+000 1.725278e+000 -8.743105e+000 74 50 27
5.346322e+000 6.256331e-001 -7.258752e+000 130 94 80
5.526110e+000 5.427788e-001 -7.215709e+000 127 62 51
5.524414e+000 2.891915e-001 -7.066319e+000 121 62 51
5.061576e+000 -1.630104e+000 -7.537916e+000 60 39 36
-2.444391e+000 -2.791226e+000 -1.846052e+001 45 69 81
-8.085776e+000 -3.500357e+000 -6.251401e+000 87 67 56
1.396085e+000 -3.343620e+000 -6.620021e+000 107 57 39
1.197106e+000 -3.724479e+000 -6.128362e+000 152 129 112
1.202242e+000 -3.724333e+000 -6.152952e+000 152 129 112
4.643660e+000 -3.190248e+000 -3.512231e+000 129 63 51
2.141102e+000 -3.872309e+000 -6.451124e+000 151 114 70
2.146813e+000 -3.866709e+000 -6.491911e+000 151 114 70
1.602952e+000 -5.093846e+000 -7.377165e+000 147 127 124
-2.634204e+000 -5.263768e+000 -3.246512e+000 228 125 115
5.958710e+000 -5.101693e+000 -6.135102e+000 75 48 32
4.574679e+000 1.915894e+000 -1.013621e+001 79 56 32
1.611393e+001 2.879773e+000 -3.303386e+001 141 53 51
2.892028e+000 -1.799886e+000 -6.913526e+000 44 24 23
6.958635e+000 -4.054228e+000 -6.315740e+000 144 51 51
-5.686371e-001 -5.017809e+000 -6.595030e+000 125 82 50
-5.686371e-001 -5.017809e+000 -6.595030e+000 125 82 50
-9.662172e-001 -5.605390e+000 -6.640827e+000 108 44 42
-6.658517e-001 -5.566402e+000 -6.772286e+000 122 45 47
5.860884e+000 -4.998831e+000 -6.744318e+000 128 63 50
1.713893e+000 -5.821194e+000 -7.776717e+000 141 116 120
8.958586e+000 -6.758908e+000 -6.630665e+000 134 99 70
6.644928e+000 -7.129635e+000 -5.955231e+000 73 46 35
1.220278e+001 3.939952e+000 -1.133430e+001 162 133 66
1.021060e+001 1.896227e+000 -7.637264e+000 55 42 34
5.683876e+000 8.467258e-001 -6.444646e+000 163 158 154
5.439821e+000 2.658173e-001 -7.479241e+000 106 77 73
5.770363e+000 -7.968272e-002 -6.381801e+000 127 101 73
3.729769e+000 -6.487675e-001 -9.514080e+000 41 25 25
5.866341e+000 -1.225228e+000 -6.493515e+000 113 87 61
-8.013846e+000 -3.650481e+000 -6.366916e+000 63 44 31
2.624963e+000 -3.230245e+000 -6.914083e+000 37 17 16
4.436583e+000 -2.972820e+000 -7.434466e+000 100 76 66
9.262002e+000 -3.289300e+000 -6.956829e+000 155 67 52
8.944654e+000 -3.497357e+000 -6.919079e+000 131 55 33
7.246487e+000 -4.883050e+000 -6.321595e+000 156 61 61
6.113435e+000 -5.457572e+000 -5.899493e+000 135 105 77
-9.145671e+000 -3.837941e+000 -6.172404e+000 191 136 109
5.369159e+000 -3.646931e+000 -7.310336e+000 68 43 37
1.060629e+001 -4.504116e+000 -7.387667e+000 149 124 105
-3.388453e-001 -6.589144e+000 -7.386865e+000 148 125 125
-9.313612e+000 -3.274972e+000 -6.513169e+000 138 116 92
-9.386233e+000 -3.540874e+000 -6.273902e+000 50 29 31
7.985994e+000 -8.022527e+000 -6.273919e+000 144 104 69
4.054833e+000 -5.412536e-001 -6.911860e+000 143 50 68
-3.982235e+000 5.318414e-002 -4.380267e+000 225 187 122
-2.926832e+000 -5.266512e-001 -3.645109e+000 118 129 131
5.487834e+000 5.110017e-002 -7.085902e+000 149 113 103
-4.741763e+000 -1.651821e+000 -4.882369e+000 233 225 150
-5.733756e+000 -2.060381e+000 -5.546738e+000 228 215 137
-5.733756e+000 -2.060381e+000 -5.546738e+000 228 215 137
-6.517106e+000 -2.732444e+000 -5.866319e+000 225 213 148
5.277078e+000 -1.751911e+000 -7.451796e+000 64 49 46
-2.583949e+000 -3.247189e+000 -3.265337e+000 48 32 25
-3.478368e+000 -4.319735e+000 -3.822914e+000 210 119 124
6.291435e+000 -3.559145e+000 -6.032636e+000 83 59 47
8.762407e-001 -1.173997e+000 -7.390824e+000 44 29 17
-5.576575e+000 -2.437857e+000 -5.255751e+000 229 214 147
6.328856e+000 -1.541828e+000 -6.407677e+000 58 33 25
-6.956108e+000 -3.534455e+000 -6.252627e+000 225 214 147
-2.638582e+000 -3.470346e+000 -3.386574e+000 67 69 68
2.003309e+000 -3.688200e+000 -6.389083e+000 39 20 20
2.822008e+000 -3.569660e+000 -7.198311e+000 119 102 97
6.641222e+000 -3.176379e+000 -6.179847e+000 148 60 56
2.209367e+000 -3.963534e+000 -6.611652e+000 141 116 78
-2.518567e-001 -4.677605e+000 -6.379436e+000 126 66 36
9.834131e-002 -4.609184e+000 -6.453745e+000 137 75 50
-1.559520e-001 -4.896939e+000 -6.621403e+000 130 68 46
-9.553770e-001 -5.331178e+000 -6.601102e+000 41 29 33
-2.483745e+000 -5.711307e+000 -3.239960e+000 55 45 38
-3.320393e+000 7.747495e-001 -3.972779e+000 74 87 93
1.407087e+001 5.504506e+000 -2.815722e+001 158 124 114
1.407087e+001 5.504506e+000 -2.815722e+001 158 124 114
5.696129e+000 6.212662e-001 -6.499197e+000 129 103 80
6.694352e+000 3.226657e-001 -6.385168e+000 141 55 50
-4.452538e+000 -1.096166e+000 -4.779443e+000 208 192 115
-6.486625e-001 -1.671716e+000 -6.106027e+000 79 53 48
-4.616497e+000 -3.249851e+000 -4.613002e+000 232 225 160
-1.887698e+000 -3.898941e+000 -1.098857e+000 46 58 63
2.019177e+000 -4.194842e+000 -6.647424e+000 148 129 106
6.219096e+000 -3.598842e+000 -6.054677e+000 61 36 24
4.284327e+000 -4.521978e+000 -7.857600e+000 106 48 63
6.245123e+000 -4.521382e+000 -5.996662e+000 131 54 46
1.917578e+000 -5.408756e+000 -7.619991e+000 151 58 75
6.107247e+000 -5.036907e+000 -6.004468e+000 144 124 97
-3.112343e-001 -7.337402e+000 -7.677654e+000 159 118 69
6.503118e+000 -6.781022e+000 -6.151068e+000 62 42 36
5.986808e+000 -7.236918e+000 -6.422869e+000 164 96 67
6.855902e+000 -1.526135e+000 -6.548074e+000 140 50 49
5.715810e+000 -4.758146e+000 -6.985707e+000 117 94 94
-2.634808e+000 -5.266637e+000 -3.223232e+000 218 125 127
6.034949e+000 -5.698667e+000 -6.236005e+000 87 63 52
4.622431e+000 -3.270360e+000 -7.407163e+000 53 35 32
-1.727194e+000 -4.451115e+000 -4.357496e+000 35 26 24
4.581732e+000 -2.236114e+000 -7.654744e+000 41 26 23
5.277373e+000 -2.769194e+000 -7.158476e+000 55 34 29
-6.234443e+000 -7.626418e+000 -3.435699e+001 210 120 120
5.445775e+000 1.248290e+000 -7.217559e+000 149 107 95
5.603737e+000 4.035809e-001 -6.555051e+000 72 51 35
5.521303e+000 -2.039233e-001 -7.016802e+000 152 121 108
5.545143e+000 -2.134246e-001 -7.090153e+000 152 121 108
5.565389e+000 -5.010220e-001 -7.071371e+000 148 115 108
5.602475e+000 -5.300642e-001 -7.000383e+000 129 73 65
6.939049e-001 -1.598241e+000 -6.501101e+000 93 75 60
3.224481e+000 -1.458466e+000 -7.381372e+000 50 17 14
5.558261e+000 -7.884290e-001 -6.974119e+000 149 121 109
-8.188502e+000 -3.267887e+000 -6.291890e+000 149 131 119
-4.979076e+000 -2.975970e+000 -5.003660e+000 225 217 150
-4.073385e+000 -2.564608e+000 -4.369176e+000 225 217 146
5.930436e+000 -1.449729e+000 -6.229312e+000 74 50 38
7.791525e-001 -2.818021e+000 -6.066304e+000 161 115 67
5.215273e+000 -2.157420e+000 -5.840259e+000 127 117 124
1.233062e+000 -3.247203e+000 -6.372769e+000 147 97 64
1.233062e+000 -3.247203e+000 -6.372769e+000 147 97 64
-1.316126e+000 -5.242909e+000 -1.194200e+001 42 24 20
5.380888e+000 -3.178267e+000 -5.343524e+000 128 74 69
-2.482287e+000 -4.503018e+000 -3.451329e+000 71 53 49
7.395361e+000 -5.276581e+000 -1.214444e+001 141 131 132
6.251995e+000 -3.730864e+000 -6.028813e+000 68 40 29
-8.740142e-001 -5.253461e+000 -6.607420e+000 108 85 60
2.141042e+000 -5.934751e+000 -7.869201e+000 149 135 135
5.489574e+000 -6.481134e+000 -6.709767e+000 76 58 54
5.464407e+000 1.801853e+000 -7.278071e+000 160 92 60
5.555601e+000 1.422886e+000 -6.683210e+000 158 83 59
-2.759431e+000 -4.680086e-001 -3.608224e+000 49 35 32
-5.662738e+000 -1.498501e+000 -5.470488e+000 231 222 154
-1.433382e+000 -8.638348e-001 1.729005e+000 19 20 25
5.726933e+000 -8.603848e-001 -6.585805e+000 86 58 41
5.173359e-001 -1.802476e+000 -5.948512e+000 38 26 17
5.163028e-001 -1.796850e+000 -5.911074e+000 38 26 17
-9.948927e+000 -3.668380e+000 -5.845410e+000 72 45 33
5.209974e+000 -1.829295e+000 -7.489401e+000 76 55 50
5.848673e+000 -1.451848e+000 -6.228358e+000 153 160 158
-2.711691e+000 -3.765628e+000 -3.337617e+000 213 126 130
-2.711691e+000 -3.765628e+000 -3.337617e+000 213 126 130
2.114593e+000 -3.787368e+000 -6.314989e+000 140 114 67
5.664138e+000 -3.123403e+000 -6.978723e+000 117 54 44
1.115000e-001 -4.684557e+000 -6.652660e+000 133 70 44
9.528743e-001 -5.058817e+000 -7.079264e+000 41 34 31
3.800143e+000 -4.791271e+000 -7.964672e+000 90 71 68
1.630025e+000 -5.281716e+000 -7.463983e+000 138 126 128
5.376239e+000 -6.566583e+000 -6.989329e+000 77 78 86
7.044234e+000 -6.060371e+000 -6.559556e+000 147 51 54
6.104468e+000 -6.644598e+000 -6.216304e+000 64 47 28
-1.942929e+000 -7.666701e+000 -4.004324e+000 48 61 78
6.686118e+000 -7.425256e+000 -6.029490e+000 71 47 35
1.353610e+001 -9.430682e+000 -8.461665e+000 182 135 61
1.069669e+001 4.026143e+000 -1.575854e+001 177 148 80
-2.859564e+000 2.475007e-001 -3.662449e+000 86 88 93
-2.967046e+000 -6.353660e-001 -3.668037e+000 86 96 95
-6.126949e-002 -1.407524e+000 -6.740364e+000 43 30 21
9.019552e+000 -2.747203e-001 -7.283524e+000 156 130 111
5.634433e+000 -8.748512e-001 -7.074703e+000 122 64 52
2.928522e+000 1.083863e-001 5.389126e+000 148 58 54
4.057261e+000 -2.640249e-001 1.675396e+000 154 128 117
5.773307e+000 -1.401940e+000 -6.579097e+000 78 61 56
3.153393e+000 -2.030458e+000 -6.839284e+000 94 63 56
5.121983e+000 -1.901135e+000 -7.412910e+000 45 24 21
9.007626e-001 -3.592371e+000 -6.613590e+000 94 42 29
2.785959e+000 -3.208037e+000 -7.032904e+000 151 141 142
1.692146e+000 -3.894806e+000 -6.265067e+000 142 114 66
2.157799e+000 -3.722958e+000 -6.452049e+000 149 135 131
-3.492349e+000 -8.237860e+000 -2.072176e+001 55 72 87
-1.791276e-001 -4.552727e+000 -6.471685e+000 142 92 57
2.070775e+000 -4.116025e+000 -6.718759e+000 153 119 76
3.100841e+000 -6.308336e+000 -8.200294e+000 43 35 33
1.223259e+001 -5.569355e+000 -7.778161e+000 50 29 25
9.140267e+000 -6.562154e+000 -6.699585e+000 142 71 47
9.140267e+000 -6.562154e+000 -6.699585e+000 142 71 47
5.740760e+000 -8.483417e+000 -7.673934e+000 189 140 69
6.728666e+000 -7.867133e+000 -6.042516e+000 66 39 26
1.292904e+001 -7.916130e+000 -7.854753e+000 150 74 52
4.570067e+000 1.621770e+000 -9.915730e+000 62 46 30
-2.719709e+000 -7.463163e-001 -3.412145e+000 68 42 38
5.345119e+000 -1.922522e-001 -7.114359e+000 127 105 105
-6.007227e-001 -1.399890e+000 -6.505157e+000 95 42 32
-6.026908e-001 -1.397572e+000 -6.486389e+000 95 42 32
4.965568e+000 -7.382037e-001 -7.065711e+000 131 116 113
-3.901367e+000 -1.828056e+000 -4.285853e+000 213 196 102
4.124072e+000 -9.261349e-001 -6.603553e+000 141 52 68
5.816427e+000 -7.751293e-001 -6.428265e+000 137 116 89
8.410147e+000 -5.159726e-001 -7.058410e+000 138 107 75
8.410147e+000 -5.159726e-001 -7.058410e+000 138 107 75
5.236797e+000 -1.458546e+000 -7.580340e+000 59 45 45
5.807285e+000 -1.092598e+000 -6.349770e+000 131 111 84
3.386600e+000 -3.396218e+000 -7.334201e+000 39 28 30
5.550191e+000 -1.026015e+000 2.011514e+000 138 91 45
-9.220445e-001 -5.146082e+000 -6.461061e+000 108 78 47
9.386012e+000 -4.143558e+000 -7.051599e+000 135 104 80
3.720196e-001 -6.687691e+000 -7.716594e+000 148 138 136
9.140660e+000 -6.551566e+000 -6.677192e+000 138 71 44
7.236107e+000 -8.118754e+000 -5.911129e+000 145 59 48
-5.868155e+000 -1.765634e+000 -5.712128e+000 239 233 175
-3.586324e+000 -1.294283e+000 -4.144980e+000 215 119 118
-1.012727e+000 -1.243578e+000 -6.929510e+000 44 18 14
6.844802e-001 -1.394704e+000 -7.157418e+000 34 23 22
2.034853e-001 -1.463340e+000 -6.602178e+000 41 30 27
2.162815e+000 -1.378414e+000 -7.380358e+000 42 24 23
2.894989e+000 -1.805646e+000 -7.159350e+000 55 32 32
6.945072e+000 -1.214326e+000 -6.602580e+000 152 127 115
8.766886e+000 -9.647841e-001 -7.097388e+000 140 110 84
-8.949499e+000 -3.823508e+000 -6.222127e+000 73 47 42
-8.051852e+000 -3.866217e+000 -6.437880e+000 69 51 39
7.314701e+000 -1.994682e+000 -6.577509e+000 147 121 108
1.046797e+001 -1.916736e+000 -7.567268e+000 147 128 114
-4.405560e-001 -4.686196e+000 -6.692200e+000 138 88 50
-1.776032e+000 -3.491500e+000 -5.348689e-001 49 59 68
-3.081101e+000 -5.506383e+000 -3.536931e+000 215 122 125
6.108951e+000 -5.027764e+000 -5.983665e+000 146 124 101
6.162912e+000 -5.541938e+000 -6.103475e+000 141 125 92
6.227426e+000 -6.164387e+000 -6.066987e+000 133 107 84
6.229409e+000 -6.163426e+000 -6.052880e+000 133 107 84
6.917933e+000 -8.139437e+000 -5.842349e+000 145 66 50
2.424349e+000 -1.427918e+000 -7.284518e+000 101 74 58
2.978654e+000 -2.489978e-002 5.367671e+000 140 52 50
9.083538e-001 -4.011048e+000 -6.318607e+000 145 131 130
9.098304e-001 -4.024403e+000 -6.375547e+000 145 131 130
-7.387037e-001 -4.723415e+000 -6.712900e+000 32 23 26
-1.124894e+000 -5.628638e+000 -6.627128e+000 108 87 84
-3.676292e+000 -6.070800e+000 -3.961850e+000 215 191 113
5.206193e-001 -6.766842e+000 -7.744394e+000 44 34 34
8.860030e+000 -7.551992e+000 -6.470285e+000 150 128 107
7.596616e+000 -8.069719e+000 -6.048918e+000 144 107 78
-3.041904e+000 1.132650e+000 -4.063842e+000 68 82 85
3.052033e-001 -4.625267e+000 -6.713334e+000 149 114 68
7.075755e+000 -6.046688e+000 -6.271567e+000 146 129 110
4.813316e+000 4.823830e-001 -7.439140e+000 43 48 54
9.616031e+000 9.599029e-001 -7.653087e+000 151 101 53
5.316966e+000 -5.852740e-003 -7.153182e+000 70 50 41
-2.740518e-001 -1.431354e+000 -6.539932e+000 99 78 57
-1.680607e+000 -3.133259e+000 -4.313398e+000 45 70 90
-4.024281e+000 -1.706955e+000 -4.403479e+000 214 198 110
2.658720e+000 -1.647645e+000 -7.232462e+000 102 77 73
-1.934722e+000 -3.422283e+000 -4.355382e+000 30 24 26
1.181186e+001 -2.778926e+000 -7.974839e+000 49 36 33
4.417680e+000 -4.102434e+000 -7.732730e+000 105 42 61
-1.824882e+000 -3.903762e+000 -4.234421e+000 45 67 89
3.421097e+000 -6.452235e+000 -8.775334e+000 46 36 34
1.178053e+001 -6.226422e+000 -7.414120e+000 150 70 52
1.177366e+001 -6.228280e+000 -7.414113e+000 150 70 52
9.236844e+000 -7.485671e+000 -6.884302e+000 146 128 110
6.783552e+000 -5.494180e-001 -6.520697e+000 135 51 43
9.153082e+000 1.218272e+000 -1.268254e+001 143 121 100
1.082676e+000 -3.303852e+000 -6.379543e+000 133 105 91
1.922282e+000 -4.212896e+000 -6.646807e+000 143 109 64
9.519065e-002 -6.151427e+000 -7.237728e+000 42 30 31
4.891000e+000 -6.053800e-001 -6.912632e+000 118 103 100
5.810595e+000 -2.427620e-001 -6.535053e+000 115 85 64
-1.692623e+000 -2.796074e+000 -2.589522e+000 29 27 28
1.160645e+001 4.937341e-001 -8.048447e+000 147 75 53
1.161700e+001 4.966279e-001 -8.061386e+000 147 75 53
1.167668e+001 -6.969224e-001 -8.003963e+000 140 65 46
-3.963538e+000 1.221059e+000 -6.049712e+000 87 87 72
-3.905989e+000 -6.409310e-002 -3.992862e+000 216 187 116
-3.850983e+000 -8.046069e-005 -4.221850e+000 216 128 125
1.021710e+001 2.053232e+000 -7.669735e+000 50 35 24
-3.528762e+000 -1.059298e-001 -4.059430e+000 61 68 76
-2.824274e+000 -1.672657e-001 -3.631182e+000 72 76 78
-2.932265e+000 -5.251682e-001 -3.638569e+000 141 153 157
-1.314751e+000 -7.966604e-001 -7.551511e+000 91 67 59
1.839044e-001 -8.053692e-001 -8.069720e+000 36 16 6
-8.689550e-001 -9.635973e-001 -7.363836e+000 34 24 13
-9.873379e-001 -1.212673e+000 -6.848667e+000 37 23 20
-4.577645e+000 -1.436647e+000 -4.641504e+000 223 216 148
3.256999e-001 -1.105226e+000 -7.299751e+000 104 81 65
1.178875e+000 -1.022238e+000 -7.475995e+000 35 18 9
5.434737e+000 -7.843612e-001 -6.881998e+000 98 59 53
-7.846862e+000 -4.030309e+000 -6.754979e+000 166 158 153
6.407360e+000 -3.687079e+000 -6.375922e+000 88 61 50
-6.831935e-001 -5.742133e+000 -6.899594e+000 123 96 95
5.872938e+000 -5.488624e+000 -6.741388e+000 147 122 110
5.494120e+000 -6.492818e+000 -6.732945e+000 80 64 59
-2.422594e+000 -8.214989e+000 -3.249876e+000 71 76 70
-2.123065e+000 -8.236071e+000 -3.759354e+000 112 92 71
-2.330911e+000 -8.181556e+000 -3.152813e+000 53 36 27
8.119688e+000 1.986233e+000 -7.162565e+000 145 124 101
5.362690e+000 1.261169e+000 -7.191181e+000 66 34 23
-5.154899e+000 -8.609764e-001 -5.217378e+000 67 58 53
1.664739e+000 -8.899979e-001 -8.192306e+000 69 49 41
5.831982e-001 -1.108158e+000 -7.376829e+000 103 45 46
1.115967e+000 -1.100915e+000 -7.617548e+000 95 79 64
-7.877325e+000 -4.009008e+000 -6.335642e+000 105 85 74
1.937553e+000 -4.288327e+000 -6.841818e+000 143 112 66
6.094304e+000 -4.667906e+000 -6.608124e+000 51 40 34
7.212637e+000 -5.940698e+000 -6.356795e+000 147 50 45
-2.567980e+000 -7.858902e+000 -2.902346e+000 18 17 20
6.659582e+000 -8.159650e+000 -5.719463e+000 180 141 75
2.773552e+000 9.788153e-001 -1.565892e+001 151 110 59
3.048175e+000 1.044444e+000 -1.472195e+001 63 44 28
3.556856e+000 1.255700e+000 -1.286560e+001 60 42 27
4.977134e+000 1.642291e+000 -8.572778e+000 129 97 59
1.299521e+000 3.805028e-001 -1.331997e+001 122 106 81
5.917098e+000 1.587791e+000 -6.330684e+000 84 60 48
-2.985011e+000 -4.128600e-002 -3.680181e+000 88 106 109
5.168000e+000 9.211679e-001 -6.952712e+000 101 74 71
-5.682899e-001 -9.076910e-001 -7.644432e+000 42 32 21
1.704343e+000 -8.994357e-001 -8.202293e+000 75 53 46
5.588095e+000 1.937006e-003 -7.175837e+000 136 75 57
-3.857697e+000 -1.501079e+000 -4.067720e+000 215 191 111
1.219969e+000 -1.231883e+000 -7.235130e+000 98 79 64
1.859960e+000 -1.324421e+000 -7.304093e+000 100 77 63
-8.954660e+000 -4.171351e+000 -6.389579e+000 84 67 55
6.239391e+000 -1.415232e+000 -6.206938e+000 57 32 28
1.044215e+001 -2.181666e+000 -7.374945e+000 143 126 109
1.937306e+000 -4.472946e+000 -6.886964e+000 148 129 129
2.968349e+000 -5.706610e+000 -7.984351e+000 129 116 117
6.456676e+000 -4.428603e+000 -6.104025e+000 44 27 29
-3.995710e+000 3.016081e-001 -4.236756e+000 212 203 121
3.009826e-001 -1.181098e+000 -7.176091e+000 31 34 27
3.009826e-001 -1.181098e+000 -7.176091e+000 31 34 27
8.764331e-001 -1.175615e+000 -7.393759e+000 39 27 22
4.911781e+000 -1.840016e-001 -6.928528e+000 124 111 110
6.557389e-001 -1.485480e+000 -6.287133e+000 105 84 63
8.556358e+000 -2.104747e-001 -6.795728e+000 129 104 75
2.493953e+000 -6.560758e+000 -8.248405e+000 136 128 126
5.109647e+000 -6.757030e+000 -7.020100e+000 59 63 79
-3.640014e+000 -7.136772e+000 -4.039478e+000 205 193 109
-2.082408e+000 -8.335301e+000 -3.691119e+000 117 96 69
-1.429139e+000 -8.664765e-001 -6.601870e+000 33 20 23
3.597107e+000 -2.648759e-001 -7.030057e+000 52 32 29
9.367285e+000 7.873229e-001 -7.221564e+000 147 106 49
-3.726756e+000 -1.506408e+000 -4.155402e+000 90 98 100
-1.888769e+000 -1.363125e+000 -4.490412e+000 33 25 24
-7.193083e+000 -3.188589e+000 -6.383620e+000 193 175 103
6.504585e-001 -3.514814e+000 -6.926183e+000 34 22 16
5.713767e+000 -3.019492e+000 -6.941714e+000 125 67 57
3.097468e+000 -6.025231e+000 -8.366115e+000 38 27 31
5.689775e+000 -5.246214e+000 -6.965917e+000 58 38 39
5.998387e+000 -5.928862e+000 -6.545555e+000 151 148 141
1.384591e+001 -7.746206e+000 -8.189343e+000 121 78 48
1.386643e+001 -7.873865e+000 -7.992895e+000 179 141 79
-3.540348e+000 7.540764e-001 -4.000279e+000 227 132 130
4.921702e+000 1.226719e+000 -7.377084e+000 61 87 104
-3.808215e+000 -5.447340e-001 -4.233589e+000 212 116 120
5.467394e+000 5.068188e-001 -7.165651e+000 122 64 54
3.555127e+000 -5.207427e-001 -6.510934e+000 59 32 31
2.985235e+000 -1.072271e+000 -7.620302e+000 57 27 27
5.350607e+000 -3.028917e+000 -7.175603e+000 65 46 41
3.351919e+000 -4.080600e+000 -7.501083e+000 42 23 22
3.377132e+000 -4.132627e+000 -7.647210e+000 42 23 22
3.281721e+000 -4.369717e+000 -7.608181e+000 135 93 55
5.256588e+000 -6.789099e+000 -6.831023e+000 53 41 40
5.954393e+000 -7.644254e+000 -6.558269e+000 172 104 67
-2.275214e+000 -7.930350e+000 -3.253762e+000 39 25 16
6.521770e+000 1.994051e+000 -6.694324e+000 146 127 113
9.259901e+000 1.969608e+000 -7.552104e+000 147 132 109
-4.436589e-001 -1.040273e+000 -7.360391e+000 98 81 55
-4.436589e-001 -1.040273e+000 -7.360391e+000 98 81 55
1.275225e+000 -9.448269e-001 -7.899447e+000 86 66 57
1.841250e+000 -6.712526e-001 -8.313556e+000 42 24 20
4.103377e-001 -1.356752e+000 -6.988378e+000 104 82 59
4.121507e-001 -1.356878e+000 -6.990360e+000 104 82 59
-8.371622e-002 -1.513254e+000 -6.261060e+000 98 72 55
-2.656197e+000 -2.343879e+000 -3.948469e+000 66 48 38
1.354774e+000 -2.903717e+000 -6.237121e+000 152 110 60
1.364698e+000 -2.927306e+000 -6.311924e+000 152 110 60
3.339122e+000 -3.584154e+000 -7.280164e+000 138 126 132
1.208097e+001 -2.846490e+000 -8.096708e+000 51 41 32
1.208273e+001 -2.842902e+000 -8.082658e+000 51 41 32
5.132731e+000 -5.052182e+000 -6.833551e+000 87 76 74
7.332912e+000 -5.920845e+000 -6.239441e+000 142 68 58
5.670614e+000 -8.065053e+000 -7.258832e+000 102 82 51
1.326211e+001 -7.758059e+000 -7.887255e+000 78 50 36
-4.089891e+000 5.230303e-002 -4.271911e+000 208 192 111
4.976364e+000 5.965935e-002 -7.465351e+000 98 86 89
3.116999e+000 -1.868476e+000 -6.796239e+000 79 54 44
1.047984e+000 -3.672099e+000 -6.347117e+000 39 21 17
9.178622e+000 -3.518395e+000 -6.945000e+000 146 71 48
-1.723213e+000 -7.538975e+000 -4.155819e+000 27 19 22
-1.723213e+000 -7.538975e+000 -4.155819e+000 27 19 22
-1.949529e+000 -8.169563e+000 -3.922640e+000 24 19 25
1.073621e+001 -7.450658e+000 -7.171540e+000 146 126 109
2.808417e+000 -2.187447e+000 -7.095086e+000 23 14 15
-1.760027e+000 -7.021967e+000 -4.143985e+000 40 66 82
5.611389e+000 1.098263e+000 -6.664353e+000 147 150 151
-3.054776e+000 -8.262047e-001 -3.623237e+000 214 118 120
-3.422046e+000 -1.517106e+000 -3.948426e+000 68 79 82
-1.897803e+000 -2.866125e+000 -4.240410e+000 36 62 79
-2.990324e+000 -3.738553e+000 -3.479403e+000 211 119 119
3.386786e+000 -6.388191e+000 -8.619912e+000 35 30 27
-2.340390e+000 -6.679449e+000 -3.594791e+000 54 39 34
-3.331563e+000 4.857356e-001 -3.905615e+000 210 110 111
-2.010196e+000 1.580173e-001 -4.547458e+000 46 69 92
-2.010196e+000 1.580173e-001 -4.547458e+000 46 69 92
5.241818e+000 -6.651660e+000 -6.818471e+000 56 51 56
-2.780595e+000 7.655739e-001 -6.123348e+000 40 46 47
2.360483e+000 -2.750553e+000 -7.344464e+000 32 10 12
-2.104779e+000 -4.832493e+000 -9.919297e+000 53 78 98
1.520523e+000 -2.495731e+000 -9.564132e+000 66 35 16
5.547814e+000 1.348202e+000 -7.110035e+000 154 135 120
5.145012e+000 6.305320e-001 -7.156148e+000 118 88 76
-4.745525e+000 -1.954272e+000 -4.712411e+000 231 225 168
1.100801e+000 -5.364221e+000 -7.077449e+000 138 124 123
5.868914e+000 -5.457032e+000 -6.682151e+000 156 122 111
9.121837e+000 -6.543572e+000 -6.730008e+000 146 65 44
6.010549e+000 -7.193313e+000 -6.451150e+000 156 87 62
6.281610e+000 -3.610578e+000 -6.194603e+000 64 37 28
5.617705e+000 -8.268073e+000 -8.102121e+000 99 68 44
6.432048e+000 -1.551311e+000 -6.437417e+000 146 61 56
5.821953e+000 -2.923173e+000 -6.818610e+000 143 135 133
6.118553e+000 -5.215642e+000 -5.978558e+000 142 118 90
6.118553e+000 -5.215642e+000 -5.978558e+000 142 118 90
6.056359e+000 -6.360656e+000 -6.131289e+000 67 46 29
-5.882785e+001 -4.765077e+000 -1.134842e+002 167 163 116
-5.827572e+001 -6.930160e+000 -1.126633e+002 169 164 119
9.179813e+000 -6.224487e+000 -6.786706e+000 136 96 65
7.620613e+000 -7.406169e+000 -6.395042e+000 144 57 48
-5.851149e+001 -8.113614e+000 -1.125168e+002 143 129 99
-3.995142e+001 -9.178947e+000 -1.170608e+002 126 123 109
-3.683933e+001 -2.455312e+001 -1.139095e+002 127 112 93
-5.235363e+001 -1.348074e+001 -1.113313e+002 110 115 118
-5.235363e+001 -1.348074e+001 -1.113313e+002 110 115 118
7.143329e+000 -5.268951e+000 -6.047628e+000 150 119 101
-4.007924e+001 -1.864684e+001 -1.164304e+002 121 92 92
-3.740100e+001 -1.673558e+001 -1.151126e+002 137 137 102
-4.967769e+001 -8.781150e+000 -1.162968e+002 70 84 106
5.711631e+000 -5.127339e+000 -6.905632e+000 95 63 54
-5.098003e+001 -1.237870e+001 -1.129163e+002 108 111 115
-5.098003e+001 -1.237870e+001 -1.129163e+002 108 111 115
-5.244812e+001 -1.539312e+001 -1.124406e+002 159 166 172
-5.244812e+001 -1.539312e+001 -1.124406e+002 159 166 172
-5.033993e+001 -1.728982e+001 -1.119198e+002 143 86 92
-2.289713e+000 -5.664138e-001 -9.273634e+000 39 27 27
-5.463989e+001 -7.740061e+000 -1.117864e+002 129 150 168
-5.882471e+001 -8.517362e+000 -1.150288e+002 143 128 99
-5.523872e+001 -1.601919e+001 -1.123338e+002 160 170 173
-4.899017e+001 -1.904750e+001 -1.128529e+002 163 168 171
-4.630242e+001 -1.286768e+001 -1.135633e+002 152 56 68
-4.985441e+001 -1.511734e+001 -1.140229e+002 159 164 168
-3.981587e+001 -2.251373e+001 -1.134220e+002 55 100 148
4.758354e+000 -2.507707e+000 -4.027186e+000 146 104 90
-3.047315e+000 -3.771996e+000 -3.362944e+000 244 183 178
1.074292e+001 -5.153636e+000 -7.350306e+000 131 101 83
-4.466328e+000 -7.236987e+000 -9.245415e+000 216 124 127
-3.773910e+000 -1.628128e+000 -4.361368e+000 219 123 124
-2.789368e+000 -2.577586e+000 -4.325229e+000 68 75 75
1.728754e+000 -4.293588e+000 -6.524616e+000 147 110 66
6.117908e+000 1.715364e+000 -6.636849e+000 71 43 29
5.087565e+000 8.163759e-001 -7.039073e+000 64 39 35
-3.431445e+000 -2.770229e+000 -3.626377e+000 221 119 112
-3.795740e+000 -3.370720e+000 -3.981836e+000 224 199 117
3.679092e+000 -6.613949e-001 -6.554077e+000 146 55 73
-3.231631e+000 -2.746175e+000 -3.356893e+000 79 91 94
9.103130e+000 -6.675910e+000 -6.650738e+000 148 117 99
-1.939531e+000 -3.202362e-001 -4.959233e+000 36 26 25
-5.412425e+001 -3.675132e+001 -1.079642e+002 147 131 102
-4.336666e+001 -4.778841e+001 -1.084474e+002 142 106 120
-5.225367e+001 -5.057109e+001 -1.084660e+002 153 111 95
-6.002911e+001 -3.223033e+000 -1.124187e+002 166 160 124
-5.789762e+001 -3.690144e+000 -1.102794e+002 142 128 101
-5.639088e+001 -3.861114e+001 -1.076053e+002 176 167 170
-5.468344e+001 -3.836228e+001 -1.067051e+002 153 113 114
-3.896504e+001 -3.809873e+001 -1.140338e+002 67 124 160
-5.410422e+001 -4.003505e+001 -1.076376e+002 167 166 138
-3.739332e+001 -4.187247e+001 -1.173709e+002 158 161 166
-5.155911e+001 -4.705417e+001 -1.081162e+002 132 102 97
-5.978398e+001 8.334614e+000 -1.115453e+002 148 152 153
-6.061535e+001 3.573123e+000 -1.121871e+002 157 166 168
-5.868954e+001 2.082784e+000 -1.125306e+002 109 117 120
4.953638e-001 -1.449699e+000 -6.447987e+000 107 80 63
-5.732765e+001 -3.651470e+001 -1.054004e+002 173 162 141
-5.587760e+001 -3.595634e+001 -1.072891e+002 173 164 133
-5.839654e+001 -3.891199e+001 -1.050575e+002 173 169 137
-5.839654e+001 -3.891199e+001 -1.050575e+002 173 169 137
-5.367613e+001 -3.807362e+001 -1.079494e+002 200 201 170
-5.727101e+001 -3.947307e+001 -1.060261e+002 150 114 114
-5.728938e+001 -4.158857e+001 -1.065188e+002 176 167 136
-5.561339e+001 -4.216903e+001 -1.079933e+002 171 165 133
-5.298589e+001 -4.232454e+001 -1.117840e+002 157 159 116
-4.063188e+001 -4.031333e+001 -1.113054e+002 161 170 174
-5.226087e+001 -4.555023e+001 -1.070243e+002 169 152 158
-4.850712e+001 -4.488737e+001 -1.042114e+002 157 144 136
-4.850712e+001 -4.488737e+001 -1.042114e+002 157 144 136
-3.994295e+001 -4.834323e+001 -1.115014e+002 158 161 166
-5.555878e+001 -4.832719e+001 -1.051138e+002 105 97 80
-5.591969e+001 2.868550e+000 -1.150871e+002 113 118 121
-5.492384e+001 7.692104e-001 -1.136424e+002 159 165 165
-4.616232e+001 -4.032568e+001 -1.098677e+002 149 151 112
-5.251206e+001 -4.427687e+001 -1.090452e+002 139 120 88
-4.521581e+001 -4.788712e+001 -1.091764e+002 164 137 142
6.135043e+000 -1.653615e+000 -6.200848e+000 75 47 37
-1.979719e+000 -2.401837e+000 -4.282812e+000 35 27 28
-4.536228e+001 -3.978930e+001 -1.133667e+002 140 126 93
-3.508320e+001 -3.880953e+001 -1.142344e+002 174 172 175
-5.716794e+001 -4.416106e+001 -1.084419e+002 135 120 89
-3.849304e+001 -3.960570e+001 -1.124029e+002 79 128 160
-3.849304e+001 -3.960570e+001 -1.124029e+002 79 128 160
-4.662267e+001 -4.550554e+001 -1.128712e+002 136 121 90
-5.090684e+001 3.283697e+000 -1.144896e+002 149 159 161
9.296256e+000 -4.984319e+000 -6.960358e+000 145 122 104
5.731526e+000 7.565132e-001 -6.704370e+000 58 39 33
1.063086e+000 -5.073149e+000 -7.197970e+000 133 104 76
7.035388e+000 -2.302523e+000 -6.533043e+000 144 55 48
9.322860e-001 -4.866816e+000 -6.991885e+000 135 75 48
-3.898867e+000 -6.943425e+000 -7.006427e+000 204 124 120
-1.881965e+000 -7.339854e+000 -4.012888e+000 25 26 22
-4.337933e+000 -1.095378e+000 -4.684908e+000 223 217 153
8.947543e+000 -3.038608e-001 -7.247547e+000 153 125 103
5.585440e+000 -4.021351e+000 -6.811824e+000 120 108 110
4.179609e-001 -6.365747e+000 -7.469986e+000 144 133 139
5.851429e+000 -7.552166e-001 -6.499653e+000 130 109 84
6.641594e+000 -5.707486e+000 -5.410886e+000 148 58 51
-4.607454e+001 4.551827e+000 -1.174275e+002 122 130 132
-5.722262e+001 -4.111996e+000 -1.178857e+002 118 149 169
-3.464157e+000 8.080674e-001 -4.078182e+000 83 100 100
4.923289e+000 1.832610e+000 -8.931652e+000 120 100 75
7.105934e+000 6.183370e-001 -6.837527e+000 151 129 112
-3.658294e+000 -2.895743e+000 -3.951571e+000 210 131 126
-3.028866e-001 -5.255357e+000 -6.779468e+000 136 117 113
1.167692e+000 -5.424608e+000 -7.382156e+000 144 132 134
1.749387e+001 -1.559540e+001 -4.913781e+001 151 114 101
1.309846e+000 5.402046e-001 5.260251e+000 35 29 25
5.815734e+000 -5.364145e-001 -6.431285e+000 120 102 78
6.294695e+000 -2.125731e+000 -6.160371e+000 62 35 27
2.204540e+000 -4.116025e+000 -6.666521e+000 158 128 116
6.401871e+000 -3.665425e+000 -6.082908e+000 68 43 36
5.077978e+000 8.293895e-001 -7.003147e+000 77 46 41
-5.829094e+001 -2.033637e+001 -1.106569e+002 122 107 85
2.696984e+001 -2.875019e+001 -7.610821e+001 113 87 62
9.258093e+000 -6.457850e+000 -6.772202e+000 147 75 51
2.623375e+001 -1.125942e+001 -5.018673e+001 139 105 80
2.493808e+000 -6.119270e+000 -8.140242e+000 144 130 130
-5.753872e+001 -2.942434e+000 -1.152699e+002 131 151 159
-4.506190e+001 -1.548526e+001 -1.135201e+002 161 107 69
-4.813699e+001 -4.680446e+000 -1.184580e+002 158 169 173
5.491994e+000 1.387216e+000 -7.032328e+000 153 84 70
-4.473414e+000 -2.091661e+000 -4.654414e+000 228 222 162
5.940914e+000 -1.570601e+000 -6.222637e+000 80 50 39
-9.287330e+000 -3.624113e+000 -5.719689e+000 155 129 112
-8.720882e+000 -3.975044e+000 -6.037213e+000 73 53 45
6.131087e+000 -5.027173e+000 -6.005368e+000 158 134 108
6.184120e+000 -6.612150e+000 -5.924206e+000 68 45 27
5.420895e+000 -6.883144e+000 -6.164764e+000 71 90 103
5.398262e+000 -1.914486e-001 -7.162079e+000 132 107 102
-4.617216e+000 -3.250051e+000 -4.612170e+000 227 228 194
-8.751771e+000 -4.038836e+000 -6.107079e+000 115 95 88
-1.041760e-001 -4.809426e+000 -6.455921e+000 142 89 55
5.737760e+000 -5.219056e+000 -6.747574e+000 85 39 36
5.775203e+000 8.136024e-001 -7.066340e+000 61 52 37
5.813487e+000 -1.156462e+000 -6.668454e+000 82 57 46
-8.573071e+000 -3.778459e+000 -6.066518e+000 65 43 37
-8.573071e+000 -3.778459e+000 -6.066518e+000 65 43 37
-9.515683e+000 -4.138383e+000 -6.615963e+000 74 55 71
-8.711820e+000 -4.225326e+000 -6.477628e+000 72 54 44
2.506779e+000 -3.806494e+000 -6.727070e+000 144 130 119
6.528235e+000 -4.200956e+000 -6.298090e+000 71 46 33
6.464503e+000 -4.410121e+000 -6.097519e+000 52 34 27
1.588811e+000 -4.761203e+000 -7.079767e+000 136 98 55
1.916616e+000 -5.068025e+000 -7.433059e+000 129 119 117
-8.100345e-001 -5.815974e+000 -6.720988e+000 37 24 28
6.096442e+000 -6.623936e+000 -6.165689e+000 52 35 24
6.639424e+000 -7.672383e+000 -5.746928e+000 70 41 27
5.770998e+000 -7.989183e+000 -7.367313e+000 87 68 35
3.603364e+000 1.213363e+000 -1.242208e+001 131 98 55
3.603364e+000 1.213363e+000 -1.242208e+001 131 98 55
-5.289409e-001 -1.524783e+000 -1.143587e+001 79 62 63
-8.460145e+000 -4.219287e+000 -6.662449e+000 78 57 52
-3.604102e+000 -4.482019e+000 -3.943043e+000 83 81 88
2.638864e+000 -3.974304e+000 -6.939394e+000 156 129 118
5.928057e+000 -3.851230e+000 -6.836359e+000 150 135 147
1.909761e+000 -4.396218e+000 -6.610348e+000 147 126 115
4.056588e+000 -5.736176e+000 -6.390547e+000 140 51 69
1.781532e+000 -6.236837e+000 -7.918467e+000 148 132 132
5.816588e+000 -6.000380e+000 -6.663743e+000 118 63 53
9.545128e+000 -6.200965e+000 -7.080616e+000 147 116 97
5.104976e+000 2.056296e+000 -8.158816e+000 136 105 77
5.118761e+000 1.326986e+000 -7.424684e+000 89 42 33
5.321905e+000 -8.274856e-001 -7.308665e+000 67 45 47
9.000618e+000 -3.301464e+000 -6.994256e+000 140 121 106
-7.844001e+000 -4.000204e+000 -6.800866e+000 72 58 47
-7.620285e-001 -4.856264e+000 -6.458416e+000 113 84 61
-9.282912e-001 -5.175508e+000 -6.606687e+000 107 69 48
4.468820e+000 -5.058170e+000 -6.317980e+000 32 19 26
-2.500324e+000 -7.125142e+000 -3.235758e+000 71 75 78
3.320904e+000 -8.621589e+000 -1.466552e+001 186 126 72
-7.906512e+000 -3.815288e+000 -6.030694e+000 70 50 43
-3.805831e+001 -2.239798e+001 -1.136432e+002 43 102 148
1.155547e+001 1.732049e+000 -8.245738e+000 133 68 44
6.822067e+000 7.097151e-002 -6.623253e+000 140 113 96
1.143713e+001 -6.125600e-001 -8.415946e+000 53 38 33
5.590474e+000 -1.570494e+000 -6.929428e+000 122 67 57
-3.692866e+000 -7.968004e-001 -3.894352e+000 219 111 111
-7.692802e+000 -4.264862e+000 -6.634166e+000 160 166 166
5.206251e+000 -6.776570e+000 -6.726724e+000 49 43 45
-3.557757e+001 -9.824556e+000 -1.186392e+002 144 140 132
-3.427570e+001 -1.956614e+001 -1.153302e+002 50 99 142
-3.427570e+001 -1.956614e+001 -1.153302e+002 50 99 142
1.023228e+001 1.881554e+000 -8.056081e+000 140 115 93
5.203258e+000 2.069512e-001 -7.234670e+000 59 37 34
4.732331e+000 -5.719028e-001 -7.214594e+000 44 36 33
1.169840e+001 -6.447161e-001 -8.133205e+000 141 65 49
1.545761e+000 -6.115905e+000 -7.814197e+000 143 128 131
-1.892654e+000 -3.919201e+000 -4.171925e+000 46 65 80
-1.892654e+000 -3.919201e+000 -4.171925e+000 46 65 80
-3.882276e+001 -1.300063e+001 -1.174516e+002 146 155 160
2.504341e+000 -5.713843e+000 -7.377028e+000 138 122 125
8.579241e+000 -2.396128e+000 -6.179889e+000 142 121 105
5.477199e+000 6.889025e-001 -7.095019e+000 145 115 103
-5.730242e-001 -8.437807e-001 -7.803400e+000 104 61 41
4.319481e+000 -1.699603e-001 -6.744798e+000 121 61 73
-1.138410e+000 -1.336053e+000 -6.459517e+000 101 63 50
1.986368e+000 -1.379807e+000 -7.371573e+000 88 65 62
1.991318e+000 -1.341510e+000 -7.317057e+000 88 65 62
5.683861e+000 -3.995101e-001 -6.624598e+000 77 56 39
5.025795e+000 -1.719058e+000 -7.526511e+000 92 73 66
-2.737037e+000 -7.119568e+000 -1.612344e+001 21 20 26
-3.409626e+000 7.635421e-001 -3.895878e+000 206 124 123
6.676583e+000 2.012301e+000 -6.799625e+000 144 128 110
8.137263e+000 2.058243e+000 -7.182764e+000 80 59 35
-8.489202e+000 -3.127118e+000 -6.962777e+000 125 116 99
-8.489202e+000 -3.127118e+000 -6.962777e+000 125 116 99
-1.125004e+001 -3.746305e+000 -5.877653e+000 62 46 30
5.184637e+000 -1.711372e+000 -7.557727e+000 85 68 61
5.883991e+000 -6.325888e+000 -6.600171e+000 142 101 89
1.038628e+001 6.292079e-001 -7.853627e+000 150 133 115
-8.208065e+000 -3.537294e+000 -6.254183e+000 54 41 35
5.778136e+000 -5.921475e+000 -6.830540e+000 135 115 114
-7.988551e+000 -3.348879e+000 -6.195808e+000 61 41 32
-3.781594e+000 -3.000454e+000 -3.932388e+000 211 191 113
5.887204e+000 -6.156589e+000 -6.589634e+000 120 71 53
1.270362e+001 -7.862977e+000 -7.442360e+000 193 149 84
9.911404e+000 -1.493319e+000 -7.396833e+000 132 108 80
6.727817e+000 -8.310951e+000 -5.841663e+000 182 143 74
-3.188582e+000 8.287794e-001 -3.855576e+000 73 80 86
4.389694e+000 -4.130383e+000 -6.218474e+000 41 27 27
3.348639e+000 1.088264e+000 -1.403432e+001 58 42 26
-5.645339e+000 -1.020222e+000 -5.608369e+000 182 155 134
-1.234353e+000 -1.193061e+000 -6.770772e+000 89 73 55
9.503222e-001 -9.575519e-001 -7.950386e+000 36 22 13
-8.428177e+000 -3.112199e+000 -7.014896e+000 53 42 33
-8.274167e-001 -1.192607e+000 -6.864259e+000 23 17 11
5.687512e-001 -1.173919e+000 -7.296159e+000 113 68 64
-4.790883e+000 -1.903414e+000 -4.791949e+000 223 222 164
5.736729e+000 -6.274597e-001 -6.727010e+000 78 67 51
1.065165e+000 -1.589547e+000 -6.438512e+000 33 19 10
-5.637544e+000 -3.182633e+000 -5.333607e+000 221 213 141
-2.648591e+000 -2.355566e+000 -3.452013e+000 57 39 31
-2.515249e-001 -4.591990e+000 -6.392883e+000 108 60 37
5.702349e+000 -4.007513e+000 -6.906475e+000 104 60 50
-2.940847e+000 1.753856e+000 -3.955521e+000 148 143 116
5.837435e+000 1.791207e+000 -6.458427e+000 61 39 26
-3.012218e+000 -5.770987e-001 -3.617845e+000 66 89 92
4.377538e+000 -1.425863e-001 -6.625554e+000 32 23 21
5.382113e+000 -1.525375e-001 -7.066647e+000 112 99 98
-6.536378e+000 -3.019567e+000 -5.923444e+000 218 215 146
3.164612e+000 -1.817740e+000 -6.762307e+000 104 81 75
6.170984e+000 -2.053778e+000 -6.360981e+000 64 41 33
6.158235e+000 -2.007154e+000 -6.051015e+000 88 60 57
6.360499e+000 -2.219018e+000 -6.357382e+000 60 35 27
1.190602e+000 -3.704794e+000 -6.104447e+000 148 135 118
6.345674e+000 -4.320926e+000 -6.079659e+000 80 63 46
5.695957e+000 -5.262801e+000 -6.711283e+000 125 107 108
-1.634832e+000 -8.379194e+000 -8.446493e+000 39 28 28
-3.595777e+000 -7.189779e+000 -4.308798e+000 204 112 113
1.329859e+001 -7.998665e+000 -8.293864e+000 145 85 58
4.981269e+000 1.710932e+000 -8.793460e+000 49 39 20
5.540133e+000 1.318416e+000 -6.961982e+000 152 147 147
1.039626e+000 -1.615760e+000 -6.394775e+000 36 23 16
1.072229e+000 -1.610493e+000 -6.393833e+000 36 23 16
4.919552e+000 -1.541746e+000 -7.512132e+000 63 48 47
4.331699e+000 9.350378e-001 6.144238e-001 142 54 53
6.045306e+000 -1.423433e+000 -6.203150e+000 58 34 29
6.292463e+000 -1.881967e+000 -6.256542e+000 61 42 34
6.379974e+000 -2.919228e+000 -6.258073e+000 63 35 34
4.019800e+000 -4.687092e+000 -8.020638e+000 29 23 24
2.243858e+001 -1.479207e+001 -3.659760e+001 139 70 42
-9.955693e-001 -5.986750e+000 -6.814949e+000 117 80 61
1.280700e+000 -6.235750e+000 -7.682312e+000 147 141 141
6.445270e+000 -4.421325e+000 -6.079780e+000 43 24 21
6.597325e+000 -7.508544e+000 -5.763931e+000 70 44 34
4.583816e+000 1.586937e+000 -9.986859e+000 56 40 25
5.786399e+000 -8.902854e-002 -6.444838e+000 121 100 78
9.832515e-001 -1.548808e+000 -6.557133e+000 100 79 57
4.170058e+000 -9.668327e-001 -6.746571e+000 139 55 78
2.179286e+000 -3.727653e+000 -6.435499e+000 146 132 132
-4.154222e-002 -6.413344e+000 -7.381506e+000 38 33 37
-1.319860e+000 -7.067562e+000 -4.335324e+000 39 24 27
5.928717e+000 -6.997975e+000 -6.529562e+000 112 73 61
1.361814e+001 -7.788275e+000 -8.051521e+000 153 120 68
6.500436e+000 -8.265608e+000 -5.763276e+000 181 152 82
7.188908e+000 -8.061366e+000 -5.861373e+000 140 57 51
-4.162314e+000 6.777632e-001 -4.619057e+000 58 66 66
5.672183e+000 -6.821652e-001 -6.883811e+000 137 134 133
4.555155e+000 -2.846247e+000 -7.263643e+000 47 32 29
7.256336e+000 -3.485304e+000 -6.286903e+000 147 131 112
9.240486e+000 -3.270344e+000 -6.918791e+000 144 80 45
1.295218e+001 -4.140249e+000 -8.132418e+000 81 55 44
1.295218e+001 -4.140249e+000 -8.132418e+000 81 55 44
5.935617e+000 -5.060441e+000 -6.562606e+000 143 143 146
-3.573747e+000 -6.741467e+000 -4.237401e+000 209 114 117
1.215305e+001 -5.551865e+000 -7.714359e+000 51 36 30
5.852136e-001 -1.801283e+000 -5.852792e+000 80 72 69
5.669611e+000 -3.502492e+000 -7.482461e+000 118 110 118
1.206607e+001 -2.820513e+000 -8.045399e+000 48 37 28
-4.956642e-001 -5.538909e+000 -6.819000e+000 121 112 110
1.367585e+001 -3.833668e+000 -8.275519e+000 143 113 64
7.629296e-001 -6.556364e+000 -7.721357e+000 141 137 137
1.064115e+001 -4.984949e+000 -7.330219e+000 145 128 113
2.439940e+000 -1.396531e+000 -7.111157e+000 100 76 64
3.340168e+000 -3.595667e+000 -7.295440e+000 130 121 126
-3.053455e+000 1.117122e+000 -4.062798e+000 65 79 81
-4.364197e+000 4.595440e-001 -4.878086e+000 183 123 95
6.817310e+000 7.504050e-001 -6.613118e+000 140 59 56
9.893733e-001 -1.458207e+000 -7.187830e+000 99 81 61
1.555055e+000 -1.266158e+000 -7.329795e+000 90 71 58
1.617342e+000 -1.262740e+000 -7.365440e+000 90 71 58
7.233750e+000 -5.323296e+000 -6.263959e+000 137 120 100
-1.769803e+000 -6.558343e+000 -4.240917e+000 28 22 22
1.201109e+001 -5.535991e+000 -7.733703e+000 48 38 29
1.384875e+001 -5.784263e+000 -8.072438e+000 141 114 64
1.405203e+001 -7.233625e+000 -8.080099e+000 156 127 72
-4.838761e-001 -6.293565e+000 -7.070154e+000 132 128 130
1.392452e+001 -6.502923e+000 -8.053764e+000 156 129 73
1.380899e+001 -8.206396e+000 -8.126954e+000 182 144 81
-1.471596e+000 -3.385628e+000 -4.401706e+000 42 69 97
-1.867819e+000 -3.875564e+000 -4.207339e+000 40 68 88
-3.261155e+000 -4.476746e+000 -3.779115e+000 70 82 86
1.202828e+001 -3.487197e+000 -7.821453e+000 140 72 53
1.322922e+001 -3.926887e+000 -8.187603e+000 75 45 34
1.224567e+001 -4.924382e+000 -7.640001e+000 138 70 51
