ply
format ascii 1.0
element face 0
property list uchar int vertex_indices
element vertex 875
property float x
property float y
property float z
property uchar diffuse_red
property uchar diffuse_green
property uchar diffuse_blue
end_header
6.581462e+000 -1.567331e-001 -6.903602e+000 129 75 64
-1.070389e+001 -3.718310e+000 -6.080832e+000 55 40 35
1.136617e+000 -3.006768e+000 -6.070952e+000 152 109 64
-6.410309e-001 -5.564844e+000 -6.486672e+000 127 71 44
6.978496e-001 -6.586336e+000 -7.486700e+000 143 134 133
-1.280825e+000 -7.774264e+000 -7.663785e+000 157 59 71
6.447919e+000 -7.672509e+000 -6.523243e+000 56 37 32
6.889780e+000 -9.954370e+000 -7.705609e+000 110 88 61
-3.198409e+000 -1.017686e+001 -3.019981e+000 78 57 41
1.071985e+001 2.981525e+000 -7.136076e+000 150 124 102
1.066023e+001 3.248846e-001 -7.236792e+000 135 101 73
1.399081e+001 -7.539877e-001 -8.329732e+000 54 37 30
-3.966209e+000 -6.654415e+000 -2.540829e+000 57 73 76
1.136121e+001 -7.280789e+000 -6.555399e+000 139 80 57
1.124287e+001 -7.237178e+000 -6.336103e+000 139 80 57
1.101516e+001 7.419300e-001 -6.884101e+000 134 108 71
6.609186e+000 -1.022836e+000 -7.041653e+000 120 61 55
-1.047470e+001 -4.200300e+000 -6.831564e+000 99 75 61
6.822738e+000 -4.311133e+000 -6.784331e+000 129 69 57
7.277773e+000 -5.795664e+000 -5.798664e+000 143 124 96
1.168005e+001 -7.549508e+000 -6.855476e+000 148 121 107
-1.377495e+000 -5.617667e+000 -6.450614e+000 112 93 53
9.377749e-001 -4.847265e+000 -6.611238e+000 30 18 17
1.556232e+000 -6.664301e+000 -7.895408e+000 141 127 127
4.225890e+000 -6.185500e+000 -8.723448e+000 76 32 29
-1.985553e+000 -8.610961e+000 -4.548188e+000 82 54 34
1.122354e+001 -7.550281e+000 -6.610079e+000 164 86 63
7.918962e+000 2.177302e+000 -6.036223e+000 138 112 85
-4.946161e+000 4.001245e-001 -3.388323e+000 65 73 76
1.358977e+001 -9.034979e+000 -7.398401e+000 67 51 42
5.398893e+000 -1.073512e+000 -6.969900e+000 37 26 25
1.416963e+001 -8.764296e+000 -8.203234e+000 50 35 32
6.683701e+000 2.875606e+000 -6.879757e+000 182 174 157
6.905342e+000 2.982455e+000 -6.446088e+000 65 39 21
6.487132e+000 2.445211e+000 -7.125546e+000 169 119 94
-4.108250e+000 -1.316952e-001 -2.647995e+000 135 139 138
-4.108250e+000 -1.316952e-001 -2.647995e+000 135 139 138
-6.356422e+000 -1.588535e-001 -4.157837e+000 230 218 179
1.387864e+001 1.712725e+000 -8.326085e+000 65 38 27
-2.773936e+000 -1.155298e+000 -3.912027e+000 26 26 35
-1.246427e+001 -3.544967e+000 -6.603074e+000 66 58 56
-1.246427e+001 -3.544967e+000 -6.603074e+000 66 58 56
-5.082631e+000 -3.376057e+000 -3.283416e+000 215 126 121
-1.278759e+001 -4.128505e+000 -5.261783e+000 69 43 28
-1.377287e+001 -4.380765e+000 -5.241511e+000 176 140 89
3.609026e+000 -3.580327e+000 -7.554117e+000 62 51 50
-5.232751e+000 -4.615523e+000 -3.550267e+000 219 188 105
-1.547761e+000 -6.707717e+000 -6.753196e+000 114 91 83
-1.480743e+000 -6.959296e+000 -6.856954e+000 114 66 44
1.055770e+000 -7.302057e+000 -8.079184e+000 70 51 54
1.055770e+000 -7.302057e+000 -8.079184e+000 70 51 54
-4.962265e+000 -8.210099e+000 -3.113269e+000 220 137 129
1.289099e+001 -9.001859e+000 -7.508234e+000 155 124 102
-3.365588e+000 -9.736793e+000 -2.297029e+000 84 61 50
-3.365588e+000 -9.736793e+000 -2.297029e+000 84 61 50
6.069918e+000 3.078115e+000 -8.934978e+000 124 95 63
6.053852e+000 2.716041e+000 -8.572453e+000 141 100 56
6.138883e+000 2.757203e+000 -8.317181e+000 148 107 55
6.956158e+000 -2.112483e-001 -6.438265e+000 137 108 84
-1.128264e+000 -1.545122e+000 -5.955912e+000 83 59 48
-4.845834e+000 -2.990402e+000 -3.113706e+000 224 110 105
-3.194757e+000 -2.569755e+000 -3.478708e+000 49 59 68
7.681414e+000 -1.892935e+000 -6.554839e+000 62 29 22
8.475858e-001 -3.205033e+000 -6.234363e+000 145 79 44
-1.128468e+001 -4.282745e+000 -5.672178e+000 80 57 51
-5.880637e+000 -4.306235e+000 -3.871785e+000 213 191 119
2.567985e+000 -4.154846e+000 -6.622994e+000 34 16 11
-1.696745e+000 -6.106090e+000 -6.602332e+000 105 72 48
-1.530742e+000 -7.051991e+000 -7.049829e+000 125 93 65
5.558390e+000 -6.879382e+000 -6.404597e+000 34 25 18
7.202387e+000 -6.562594e+000 -6.182852e+000 74 47 30
6.819515e+000 -9.409271e+000 -7.801874e+000 180 150 83
-4.283901e+000 -9.484035e+000 -3.186401e+000 95 74 54
7.087020e+000 2.357474e+000 -6.391986e+000 81 53 39
7.324932e+000 2.212070e+000 -6.664916e+000 68 35 26
1.049989e+001 -2.483851e-002 -7.182227e+000 145 121 96
-5.253006e+000 -1.476894e+000 -2.959444e+000 219 190 104
6.435758e+000 -5.697157e-001 -7.377310e+000 118 100 101
7.995164e+000 -4.411193e-001 -6.373783e+000 162 130 114
7.995164e+000 -4.411193e-001 -6.373783e+000 162 130 114
1.817925e+000 -4.559805e+000 -6.156163e+000 152 110 71
7.741117e+000 -5.000986e+000 -5.955723e+000 47 19 12
-3.807896e+000 -8.168444e+000 -2.285541e+000 84 90 96
-3.609245e+000 -8.157047e+000 -2.330294e+000 76 83 75
7.946228e+000 -8.663211e+000 -5.685079e+000 64 37 26
8.114048e+000 -9.286991e+000 -5.971573e+000 75 45 36
8.228276e+000 -9.301584e+000 -5.970479e+000 142 85 71
6.288946e+000 -4.690182e-001 -7.442778e+000 68 44 42
6.995972e+000 -6.232819e-001 -6.402506e+000 136 109 79
8.598303e+000 -1.628543e+000 -6.429065e+000 148 123 101
-1.019442e+001 -4.493186e+000 -5.928588e+000 117 88 72
3.599791e+000 -7.151049e+000 -9.115599e+000 41 18 20
6.916460e+000 3.504205e+000 -6.843141e+000 79 50 28
6.916460e+000 3.504205e+000 -6.843141e+000 79 50 28
-4.821155e+000 1.456748e+000 -3.187556e+000 223 112 111
5.794218e+000 -3.665196e-001 -6.782138e+000 121 101 100
6.439699e+000 -6.485417e-001 -7.398536e+000 116 103 102
6.661751e+000 -9.934849e-001 -7.241851e+000 123 65 50
-1.215109e+001 -4.134981e+000 -5.365260e+000 167 130 75
1.108196e+001 -3.104824e+000 -7.044507e+000 138 102 69
1.108356e+001 -3.104598e+000 -7.039436e+000 138 102 69
1.385199e+000 -5.268829e+000 -6.867627e+000 147 102 59
4.807910e+000 -5.321115e+000 -8.282443e+000 34 21 15
-5.165485e+000 -6.139191e+000 -3.198296e+000 224 193 116
4.557962e+000 -6.572812e+000 -6.203586e+000 46 27 22
3.416133e-001 -7.173021e+000 -7.492994e+000 41 30 31
3.425887e-001 -7.173291e+000 -7.496700e+000 41 30 31
-4.908143e+000 -7.906341e+000 -3.090217e+000 224 120 124
1.089264e+001 -7.683585e+000 -6.799533e+000 152 122 98
-4.865279e+000 -8.336264e+000 -3.054719e+000 224 118 122
-2.444164e+000 -8.969760e+000 -3.488358e+000 25 15 13
-3.243630e+000 -9.765342e+000 -2.503818e+000 72 49 33
3.255280e+000 -7.547646e-001 -8.620017e+000 105 69 43
6.786757e+000 -2.442257e+000 -7.179774e+000 133 69 55
-1.951536e-001 -2.998923e+000 -1.145838e+001 41 25 20
5.322413e+000 -2.736727e+000 -7.382132e+000 53 32 28
1.103194e+001 -4.106407e+000 -6.575390e+000 154 75 56
6.890083e+000 -4.674924e+000 -6.907699e+000 127 68 52
-4.351112e+000 -6.477105e+000 -2.608738e+000 232 131 132
6.181659e+000 -6.795759e+000 -6.484290e+000 130 113 103
7.330259e+000 -7.949492e+000 -5.650486e+000 171 174 165
6.845910e+000 -8.860611e+000 -7.081453e+000 106 60 44
6.068374e+000 -8.741885e-001 -8.419406e+000 60 39 36
8.136531e+000 -3.516300e+000 -6.106611e+000 144 122 106
7.741396e-001 -4.407402e+000 -5.992516e+000 150 132 130
6.235609e+000 -3.742213e+000 -6.998033e+000 74 45 39
1.287340e+001 -6.253664e+000 -7.323874e+000 152 122 102
8.453999e+000 -6.988324e+000 -5.966078e+000 154 127 110
4.248002e+000 -1.023305e+001 -1.540788e+001 113 85 61
5.944759e+000 2.952292e+000 -8.556952e+000 124 94 64
1.083540e+001 -2.070700e-001 -7.209932e+000 146 70 45
-1.205774e+001 -3.952378e+000 -5.945424e+000 49 30 26
-1.149536e+001 -3.675168e+000 -5.949211e+000 47 34 33
4.656345e+000 -1.016024e+001 -1.399423e+001 108 80 56
7.153607e+000 3.349854e+000 -6.958281e+000 81 56 36
-4.167328e+000 -4.815695e+000 -2.297880e+000 71 77 77
-3.474965e+000 -6.233711e+000 -2.255320e+000 48 31 23
-2.383999e+000 -6.175172e+000 -7.117629e+000 44 66 80
6.348244e+000 -9.278034e+000 -8.625021e+000 187 149 79
1.313007e+001 -8.768659e+000 -7.585765e+000 154 123 103
6.842465e+000 -9.758310e+000 -8.252706e+000 119 92 64
-4.336996e+000 -5.098259e-001 -2.780592e+000 220 110 108
-4.336996e+000 -5.098259e-001 -2.780592e+000 220 110 108
4.139902e+000 -6.240497e+000 -8.773357e+000 84 39 36
-2.658771e+000 -9.021783e+000 -3.547426e+000 36 28 26
-4.046962e+000 -7.999140e+000 -2.387637e+000 222 118 117
5.403042e+000 -1.155534e+000 -7.371129e+000 38 26 28
6.537247e+000 2.814379e+000 -7.148405e+000 190 163 141
6.862017e+000 -7.795296e-002 -6.198852e+000 138 112 87
1.107913e+001 -5.581004e-001 -7.345392e+000 137 78 60
5.934055e+000 -2.133273e+000 -7.475007e+000 64 41 36
-9.154710e+000 -3.907865e+000 -6.019565e+000 230 213 145
-9.146743e+000 -3.910588e+000 -5.993651e+000 230 213 145
-4.413506e+000 -4.139823e+000 -2.789139e+000 253 191 188
-5.186658e+000 -4.877798e+000 -3.267579e+000 218 187 109
-6.443345e+000 -5.257754e+000 -4.221488e+000 234 220 146
1.872683e-001 -6.939760e+000 -7.605741e+000 134 53 52
7.413887e+000 -7.704321e+000 -5.664931e+000 135 108 85
8.080113e+000 -8.852715e+000 -5.734534e+000 126 88 71
7.265207e+000 2.477214e+000 -6.561928e+000 61 33 21
6.854337e+000 1.644150e+000 -6.331568e+000 69 42 31
8.311446e+000 1.277865e+000 -6.616207e+000 134 48 47
-6.508357e+000 -1.882435e+000 -4.328053e+000 233 220 150
7.295186e+000 -1.955720e+000 -6.052236e+000 57 30 19
7.481292e+000 -1.995504e+000 -6.290713e+000 92 63 49
1.711665e+000 -4.349825e+000 -6.326625e+000 147 116 54
1.263676e+000 -5.229379e+000 -7.195987e+000 128 65 37
1.905375e+000 -5.105286e+000 -6.597378e+000 138 101 60
1.687747e+000 -6.302386e+000 -7.658466e+000 148 52 54
-1.752796e+000 -6.692070e+000 -6.671929e+000 99 78 69
-2.685700e-001 -7.334527e+000 -7.476384e+000 40 28 30
1.565026e+001 -7.561417e+000 -1.246885e+001 151 126 114
7.742426e+000 -5.827821e+000 3.230718e+000 55 38 31
7.056832e+000 -9.280554e+000 -6.669723e+000 175 99 61
7.192283e+000 -8.958353e+000 -6.292227e+000 185 106 75
5.800597e+000 2.714742e+000 -9.214744e+000 74 50 27
6.294702e+000 1.341571e+000 -7.345917e+000 130 94 80
6.521822e+000 1.237943e+000 -7.296749e+000 127 62 51
6.525315e+000 9.216825e-001 -7.120744e+000 121 62 51
5.954158e+000 -1.490757e+000 -7.697752e+000 60 39 36
-3.405002e+000 -2.922430e+000 -2.093032e+001 45 69 81
-1.056064e+001 -3.875682e+000 -6.054205e+000 87 67 56
1.346358e+000 -3.661124e+000 -6.560314e+000 107 57 39
1.098942e+000 -4.146530e+000 -5.963794e+000 152 129 112
1.105629e+000 -4.147104e+000 -5.987328e+000 152 129 112
5.476173e+000 -3.478203e+000 -2.686068e+000 129 63 51
2.294473e+000 -4.331117e+000 -6.360770e+000 151 114 70
2.296577e+000 -4.325931e+000 -6.396417e+000 151 114 70
1.600577e+000 -5.862317e+000 -7.468075e+000 147 127 124
-3.796325e+000 -6.142591e+000 -2.360313e+000 228 125 115
7.099884e+000 -5.877721e+000 -5.979616e+000 75 48 32
5.301364e+000 2.945251e+000 -1.092574e+001 79 56 32
1.848951e+001 3.769219e+000 -3.684218e+001 141 53 51
3.229825e+000 -1.701347e+000 -6.914784e+000 44 24 23
8.334769e+000 -4.549553e+000 -6.177406e+000 144 51 51
-1.140040e+000 -5.790303e+000 -6.549888e+000 125 82 50
-1.140040e+000 -5.790303e+000 -6.549888e+000 125 82 50
-1.646076e+000 -6.530180e+000 -6.579195e+000 108 44 42
-1.267336e+000 -6.476631e+000 -6.737045e+000 122 45 47
6.957096e+000 -5.735207e+000 -6.692593e+000 128 63 50
1.744908e+000 -6.789134e+000 -8.001302e+000 141 116 120
1.082292e+001 -7.937859e+000 -6.626007e+000 134 99 70
7.939352e+000 -8.427361e+000 -5.746622e+000 73 46 35
1.474521e+001 5.416450e+000 -1.243959e+001 162 133 66
1.232115e+001 2.903175e+000 -7.810897e+000 55 42 34
6.725758e+000 1.621212e+000 -6.347027e+000 163 158 154
6.413362e+000 8.899481e-001 -7.621026e+000 106 77 73
6.838277e+000 4.584784e-001 -6.255568e+000 127 101 73
4.273271e+000 -2.500713e-001 -1.017544e+001 41 25 25
6.956404e+000 -9.819851e-001 -6.372987e+000 113 87 61
-1.047760e+001 -4.065793e+000 -6.207032e+000 63 44 31
2.903012e+000 -3.513082e+000 -6.934099e+000 37 17 16
5.175762e+000 -3.182929e+000 -7.568337e+000 100 76 66
1.117149e+001 -3.579825e+000 -6.963782e+000 155 67 52
1.076692e+001 -3.836922e+000 -6.897264e+000 131 55 33
8.702738e+000 -5.593922e+000 -6.216393e+000 156 61 61
7.297605e+000 -6.328352e+000 -5.696783e+000 135 105 77
-1.189181e+001 -4.315893e+000 -6.019236e+000 191 136 109
6.350350e+000 -4.033308e+000 -7.427679e+000 68 43 37
1.283879e+001 -5.096548e+000 -7.526957e+000 149 124 105
-8.425530e-001 -7.769044e+000 -7.550096e+000 148 125 125
-1.206434e+001 -3.594608e+000 -6.373284e+000 138 116 92
-1.216456e+001 -3.931884e+000 -6.085254e+000 50 29 31
9.581532e+000 -9.513114e+000 -6.120268e+000 144 104 69
4.684519e+000 -1.142651e-001 -6.910335e+000 143 50 68
-5.501408e+000 6.189248e-001 -3.721177e+000 225 187 122
-4.178362e+000 -1.027368e-001 -2.780968e+000 118 129 131
6.480330e+000 6.219560e-001 -7.145309e+000 149 113 103
-6.445937e+000 -1.539974e+000 -4.345633e+000 233 225 150
-7.669572e+000 -2.061066e+000 -5.175673e+000 228 215 137
-7.669572e+000 -2.061066e+000 -5.175673e+000 228 215 137
-8.657205e+000 -2.915520e+000 -5.660460e+000 225 213 148
6.225914e+000 -1.642785e+000 -7.596289e+000 64 49 46
-3.738749e+000 -3.565924e+000 -2.370458e+000 48 32 25
-4.866942e+000 -4.933217e+000 -3.084674e+000 210 119 124
7.504161e+000 -3.927997e+000 -5.813754e+000 83 59 47
6.115676e-001 -8.764422e-001 -7.416462e+000 44 29 17
-7.493721e+000 -2.540272e+000 -4.895369e+000 229 214 147
7.545294e+000 -1.385412e+000 -6.295346e+000 58 33 25
-9.169662e+000 -3.920142e+000 -6.069280e+000 225 214 147
-3.805591e+000 -3.842642e+000 -2.445394e+000 67 69 68
2.111146e+000 -4.091251e+000 -6.243553e+000 39 20 20
3.146038e+000 -3.935202e+000 -7.263858e+000 119 102 97
7.938436e+000 -3.445133e+000 -5.998275e+000 148 60 56
2.381698e+000 -4.443791e+000 -6.572571e+000 141 116 78
-7.411455e-001 -5.358655e+000 -6.288336e+000 126 66 36
-2.964089e-001 -5.270258e+000 -6.381682e+000 137 75 50
-6.183420e-001 -5.634720e+000 -6.592961e+000 130 68 46
-1.629449e+000 -6.189400e+000 -6.547782e+000 41 29 33
-3.604085e+000 -6.714318e+000 -2.355388e+000 55 45 38
-4.670700e+000 1.536324e+000 -3.218237e+000 74 87 93
1.632425e+001 6.975017e+000 -3.163811e+001 158 124 114
1.632425e+001 6.975017e+000 -3.163811e+001 158 124 114
6.742536e+000 1.337268e+000 -6.421147e+000 129 103 80
7.991441e+000 9.552580e-001 -6.275552e+000 141 55 50
-6.082441e+000 -8.361542e-001 -4.210385e+000 208 192 115
-1.253605e+000 -1.539518e+000 -5.949138e+000 79 53 48
-6.293240e+000 -3.568375e+000 -4.083335e+000 232 225 160
-2.868016e+000 -4.414766e+000 3.964805e-001 46 58 63
2.126539e+000 -4.728809e+000 -6.554315e+000 148 129 106
7.413305e+000 -3.977979e+000 -5.838296e+000 61 36 24
4.982137e+000 -5.130596e+000 -8.084855e+000 106 48 63
7.445491e+000 -5.141285e+000 -5.766775e+000 131 54 46
2.010910e+000 -6.266571e+000 -7.833857e+000 151 58 75
7.276537e+000 -5.793146e+000 -5.789060e+000 144 124 97
-8.074753e-001 -8.698620e+000 -7.878255e+000 159 118 69
7.750245e+000 -7.980439e+000 -5.977051e+000 62 42 36
7.106285e+000 -8.551010e+000 -6.305101e+000 164 96 67
8.199294e+000 -1.367633e+000 -6.466310e+000 140 50 49
6.778989e+000 -5.438474e+000 -7.009595e+000 117 94 94
-3.798389e+000 -6.146852e+000 -2.328426e+000 218 125 127
7.183627e+000 -6.625155e+000 -6.082275e+000 87 63 52
5.402707e+000 -3.552127e+000 -7.512244e+000 53 35 32
-2.635281e+000 -5.083070e+000 -3.682146e+000 35 26 24
5.356428e+000 -2.250473e+000 -7.853695e+000 41 26 23
6.231780e+000 -2.925546e+000 -7.225917e+000 55 34 29
-7.799828e+000 -8.664386e+000 -3.958260e+001 210 120 120
6.420930e+000 2.120724e+000 -7.333859e+000 149 107 95
6.632736e+000 1.062407e+000 -6.509861e+000 72 51 35
6.523279e+000 3.016788e-001 -7.055684e+000 152 121 108
6.554864e+000 2.879978e-001 -7.155649e+000 152 121 108
6.585713e+000 -7.394121e-002 -7.144202e+000 148 115 108
6.632805e+000 -1.106753e-001 -7.055337e+000 129 73 65
3.633196e+000 -1.262248e+000 -7.475555e+000 50 17 14
6.574977e+000 -4.336587e-001 -7.005090e+000 149 121 109
-1.068809e+001 -3.586146e+000 -6.109422e+000 149 131 119
-6.735088e+000 -3.210567e+000 -4.486067e+000 225 217 150
-5.607321e+000 -2.687667e+000 -3.678860e+000 225 217 146
7.049006e+000 -1.269268e+000 -6.071090e+000 74 50 38
5.499659e-001 -2.985550e+000 -5.817515e+000 161 115 67
6.157368e+000 -2.158522e+000 -5.567114e+000 127 117 124
1.136977e+000 -3.539947e+000 -6.254487e+000 147 97 64
1.136977e+000 -3.539947e+000 -6.254487e+000 147 97 64
-2.055567e+000 -6.002449e+000 -1.313121e+001 42 24 20
6.369319e+000 -3.450506e+000 -4.939337e+000 128 74 69
-3.600763e+000 -5.155795e+000 -2.537948e+000 71 53 49
8.821350e+000 -6.028878e+000 -1.338351e+001 141 131 132
7.461415e+000 -4.148701e+000 -5.826157e+000 68 40 29
-1.530517e+000 -6.089480e+000 -6.570207e+000 108 85 60
2.292978e+000 -6.927715e+000 -8.141255e+000 149 135 135
6.493826e+000 -7.604310e+000 -6.664337e+000 76 58 54
6.442479e+000 2.812970e+000 -7.428565e+000 160 92 60
6.564947e+000 2.340909e+000 -6.683601e+000 158 83 59
-3.968195e+000 -2.683185e-002 -2.744621e+000 49 35 32
-7.580773e+000 -1.349856e+000 -5.069612e+000 231 222 154
-2.322572e+000 -5.172735e-001 4.138013e+000 19 20 25
6.789697e+000 -5.255953e-001 -6.520508e+000 86 58 41
2.170830e-001 -1.700488e+000 -5.681957e+000 38 26 17
1.758586e-001 -1.570975e+000 -5.326104e+000 38 26 17
-1.286070e+001 -4.098540e+000 -5.570495e+000 72 45 33
6.134062e+000 -1.736419e+000 -7.618607e+000 76 55 50
6.950630e+000 -1.272765e+000 -6.081141e+000 153 160 158
-3.898875e+000 -4.231100e+000 -2.444692e+000 213 126 130
-3.898875e+000 -4.231100e+000 -2.444692e+000 213 126 130
2.246997e+000 -4.212622e+000 -6.136266e+000 140 114 67
6.718971e+000 -3.375312e+000 -7.011124e+000 117 54 44
-2.866113e-001 -5.350251e+000 -6.560257e+000 133 70 44
7.791718e-001 -5.818827e+000 -7.098521e+000 41 34 31
4.377365e+000 -5.469352e+000 -8.221706e+000 90 71 68
1.640635e+000 -6.096543e+000 -7.585721e+000 138 126 128
6.356583e+000 -7.715193e+000 -7.030694e+000 77 78 86
8.413506e+000 -7.062772e+000 -6.468547e+000 147 51 54
7.264087e+000 -7.813858e+000 -6.058262e+000 64 47 28
-2.898729e+000 -9.193088e+000 -3.351035e+000 48 61 78
7.985876e+000 -8.793863e+000 -5.837477e+000 71 47 35
1.649929e+001 -1.128736e+001 -9.063485e+000 182 135 61
1.275318e+001 5.452326e+000 -1.775087e+001 177 148 80
-4.096188e+000 8.778494e-001 -2.814271e+000 86 88 93
-4.230027e+000 -2.403486e-001 -2.816910e+000 86 96 95
1.087080e+001 1.888748e-001 -7.401293e+000 156 130 111
6.673925e+000 -5.441315e-001 -7.144677e+000 122 64 52
3.288319e+000 7.292898e-001 8.852935e+000 148 58 54
4.726599e+000 2.397408e-001 4.003249e+000 154 128 117
6.725648e+000 -1.152060e+000 -5.963212e+000 78 61 56
3.551236e+000 -1.985672e+000 -6.797509e+000 94 63 56
6.023108e+000 -1.827376e+000 -7.524447e+000 45 24 21
7.076319e-001 -3.964188e+000 -6.506505e+000 94 42 29
3.098405e+000 -3.476123e+000 -7.050364e+000 151 141 142
1.715306e+000 -4.350769e+000 -6.077425e+000 142 114 66
2.305187e+000 -4.131468e+000 -6.315397e+000 149 135 131
-4.665009e+000 -9.602374e+000 -2.373732e+001 55 72 87
-6.591851e-001 -5.185162e+000 -6.331400e+000 142 92 57
2.192085e+000 -4.626003e+000 -6.643948e+000 153 119 76
3.497047e+000 -7.380632e+000 -8.515684e+000 43 35 33
1.486503e+001 -6.448914e+000 -8.099481e+000 50 29 25
1.104417e+001 -7.704234e+000 -6.726239e+000 142 71 47
1.104417e+001 -7.704234e+000 -6.726239e+000 142 71 47
6.799010e+000 -1.010682e+001 -7.897897e+000 189 140 69
8.037774e+000 -9.348696e+000 -5.864660e+000 66 39 26
1.569326e+001 -9.361125e+000 -8.173323e+000 150 74 52
5.303621e+000 2.579718e+000 -1.068995e+001 62 46 30
-3.919189e+000 -3.773172e-001 -2.475160e+000 68 42 38
6.308151e+000 3.152720e-001 -7.201029e+000 127 105 105
-1.201367e+000 -1.192343e+000 -6.383695e+000 95 42 32
-1.207005e+000 -1.188214e+000 -6.349541e+000 95 42 32
5.796103e+000 -3.486131e-001 -7.014950e+000 131 116 113
-5.396636e+000 -1.754716e+000 -3.574968e+000 213 196 102
4.781207e+000 -6.004570e-001 -6.543297e+000 141 52 68
6.891062e+000 -4.128956e-001 -6.288769e+000 137 116 89
1.011707e+001 -1.080451e-001 -7.106201e+000 138 107 75
1.011707e+001 -1.080451e-001 -7.106201e+000 138 107 75
6.170437e+000 -1.273375e+000 -7.752171e+000 59 45 45
6.892882e+000 -8.183350e-001 -6.222617e+000 131 111 84
3.856526e+000 -3.712818e+000 -7.431981e+000 39 28 30
6.626015e+000 -7.450327e-001 4.401026e+000 138 91 45
-1.591790e+000 -5.960548e+000 -6.367281e+000 108 78 47
1.133221e+001 -4.657908e+000 -7.108737e+000 135 104 80
5.091336e-002 -7.872123e+000 -7.908788e+000 148 138 136
1.103171e+001 -7.676358e+000 -6.649586e+000 138 71 44
8.680870e+000 -9.677608e+000 -5.744630e+000 145 59 48
-7.837586e+000 -1.688698e+000 -5.383228e+000 239 233 175
-5.004734e+000 -1.078726e+000 -3.410241e+000 215 119 118
-1.721306e+000 -9.958446e-001 -6.917016e+000 44 18 14
2.292344e+000 -1.159405e+000 -7.471569e+000 42 24 23
3.231958e+000 -1.703929e+000 -7.220175e+000 55 32 32
8.310778e+000 -9.781366e-001 -6.543294e+000 152 127 115
1.056329e+001 -6.741543e-001 -7.164902e+000 140 110 84
-1.162090e+001 -4.284680e+000 -6.027666e+000 73 47 42
-1.051896e+001 -4.340094e+000 -6.319717e+000 69 51 39
8.765276e+000 -1.967671e+000 -6.499911e+000 147 121 108
1.267317e+001 -1.874367e+000 -7.782450e+000 147 128 114
-9.786219e-001 -5.352969e+000 -6.596627e+000 138 88 50
-2.732606e+000 -3.887775e+000 1.185002e+000 49 59 68
-4.352432e+000 -6.431788e+000 -2.664310e+000 215 122 125
7.275198e+000 -5.780307e+000 -5.752634e+000 146 124 101
7.341164e+000 -6.426992e+000 -5.908642e+000 141 125 92
7.426175e+000 -7.218215e+000 -5.883038e+000 133 107 84
7.432250e+000 -7.217344e+000 -5.872865e+000 133 107 84
8.258192e+000 -9.671646e+000 -5.578224e+000 145 66 50
2.635522e+000 -1.226068e+000 -7.378559e+000 101 74 58
3.353033e+000 5.570835e-001 8.823027e+000 140 52 50
7.197251e-001 -4.525690e+000 -6.193016e+000 145 131 130
7.354616e-001 -4.592934e+000 -6.432554e+000 145 131 130
-1.354074e+000 -5.398861e+000 -6.622611e+000 32 23 26
-1.851497e+000 -6.549433e+000 -6.538332e+000 108 87 84
-5.094667e+000 -7.142677e+000 -3.214791e+000 215 191 113
2.442565e-001 -7.974557e+000 -7.928767e+000 44 34 34
1.068222e+001 -8.957480e+000 -6.440066e+000 150 128 107
9.097959e+000 -9.574362e+000 -5.837343e+000 144 107 78
-4.324427e+000 1.990205e+000 -3.370397e+000 68 82 85
-5.457029e-002 -5.265947e+000 -6.589386e+000 149 114 68
8.377715e+000 -7.016294e+000 -6.043386e+000 146 129 110
5.627902e+000 1.166783e+000 -7.584823e+000 43 48 54
1.160420e+001 1.729154e+000 -7.875750e+000 151 101 53
6.271302e+000 5.495431e-001 -7.250718e+000 70 50 41
-8.199445e-001 -1.167960e+000 -6.291459e+000 99 78 57
-2.578593e+000 -3.413980e+000 -3.675054e+000 45 70 90
-5.551633e+000 -1.603505e+000 -3.733462e+000 214 198 110
2.922617e+000 -1.499962e+000 -7.287195e+000 102 77 73
-2.903542e+000 -3.768519e+000 -3.656676e+000 30 24 26
1.429172e+001 -2.940101e+000 -8.206569e+000 49 36 33
5.149038e+000 -4.599621e+000 -7.925125e+000 105 42 61
-2.762998e+000 -4.381947e+000 -3.507308e+000 45 67 89
3.898274e+000 -7.552800e+000 -9.230724e+000 46 36 34
1.424989e+001 -7.242986e+000 -7.554143e+000 150 70 52
1.424126e+001 -7.247168e+000 -7.552575e+000 150 70 52
1.115919e+001 -8.859625e+000 -6.969248e+000 146 128 110
8.103958e+000 -1.389301e-001 -6.433966e+000 135 51 43
9.453812e-001 -3.613848e+000 -6.258509e+000 133 105 91
2.008757e+000 -4.764140e+000 -6.590753e+000 143 109 64
-2.806030e-001 -7.214185e+000 -7.342855e+000 42 30 31
5.739012e+000 -1.989317e-001 -6.928806e+000 118 103 100
6.889040e+000 2.524824e-001 -6.456754e+000 115 85 64
-2.609005e+000 -2.999143e+000 -1.467081e+000 29 27 28
1.403567e+001 1.144935e+000 -8.306293e+000 147 75 53
1.404841e+001 1.149282e+000 -8.326350e+000 147 75 53
1.412381e+001 -3.401546e-001 -8.253711e+000 140 65 46
-5.453682e+000 2.086034e+000 -5.799111e+000 87 87 72
-5.410577e+000 4.787279e-001 -3.201965e+000 216 187 116
-5.338324e+000 5.597596e-001 -3.490783e+000 216 128 125
1.233341e+001 3.096737e+000 -7.864759e+000 50 35 24
-4.935029e+000 4.299530e-001 -3.283441e+000 61 68 76
-4.051387e+000 3.599098e-001 -2.739294e+000 72 76 78
-4.187037e+000 -9.413789e-002 -2.745655e+000 141 153 157
-2.105649e+000 -4.275244e-001 -7.661666e+000 91 67 59
-2.100768e-001 -4.338466e-001 -8.315822e+000 36 16 6
-1.543718e+000 -6.360762e-001 -7.429775e+000 34 24 13
-1.696134e+000 -9.513722e-001 -6.785784e+000 37 23 20
-6.240976e+000 -1.261562e+000 -4.017635e+000 223 216 148
-7.635374e-002 -7.163256e-001 -6.961219e+000 104 81 65
9.473897e-001 -6.844756e-001 -7.631712e+000 35 18 9
6.414657e+000 -4.226324e-001 -6.867349e+000 98 59 53
-1.024668e+001 -4.535829e+000 -6.687121e+000 166 158 153
7.636360e+000 -4.076290e+000 -6.215356e+000 88 61 50
-1.292822e+000 -6.690951e+000 -6.882635e+000 123 96 95
6.963579e+000 -6.337698e+000 -6.664794e+000 147 122 110
6.487429e+000 -7.599988e+000 -6.655031e+000 80 64 59
-3.495711e+000 -9.897311e+000 -2.413496e+000 71 76 70
-3.113258e+000 -9.911472e+000 -3.042351e+000 112 92 71
-3.380904e+000 -9.857773e+000 -2.291775e+000 53 36 27
9.861036e+000 3.000675e+000 -7.538660e+000 145 124 101
6.312489e+000 2.140200e+000 -7.283273e+000 66 34 23
-6.953922e+000 -5.396429e-001 -4.741402e+000 67 58 53
1.663992e+000 -5.702339e-001 -8.531066e+000 69 49 41
2.529433e-001 -8.044421e-001 -7.417004e+000 103 45 46
8.780790e-001 -7.630665e-001 -7.654507e+000 95 79 64
-1.029235e+001 -4.512583e+000 -6.167473e+000 105 85 74
2.018541e+000 -4.837863e+000 -6.783496e+000 143 112 66
7.087471e+000 -5.126716e+000 -6.007485e+000 51 40 34
8.628232e+000 -6.900821e+000 -6.191756e+000 147 50 45
-3.686251e+000 -9.457100e+000 -1.976902e+000 18 17 20
7.932546e+000 -9.688205e+000 -5.412107e+000 180 141 75
3.010881e+000 1.773510e+000 -1.751069e+001 151 110 59
3.365678e+000 1.847060e+000 -1.649682e+001 63 44 28
3.999275e+000 2.122659e+000 -1.418685e+001 60 42 27
5.811627e+000 2.612875e+000 -8.990500e+000 129 97 59
1.192709e+000 1.043627e+000 -1.472937e+001 122 106 81
7.014304e+000 2.548177e+000 -6.220012e+000 84 60 48
-4.254196e+000 5.176456e-001 -2.803385e+000 88 106 109
6.076312e+000 1.715818e+000 -6.990745e+000 101 74 71
-1.163416e+000 -5.682553e-001 -7.798512e+000 42 32 21
1.711611e+000 -5.512628e-001 -8.487783e+000 75 53 46
6.600884e+000 5.624278e-001 -7.245593e+000 136 75 57
-5.345837e+000 -1.338530e+000 -3.291613e+000 215 191 111
1.036367e+000 -9.358620e-001 -7.147138e+000 98 79 64
1.911080e+000 -1.088122e+000 -7.368474e+000 100 77 63
-1.161204e+001 -4.716168e+000 -6.234331e+000 84 67 55
7.428597e+000 -1.221245e+000 -6.022607e+000 57 32 28
1.260807e+001 -2.189271e+000 -7.471345e+000 143 126 109
2.018768e+000 -5.071533e+000 -6.841661e+000 148 129 129
3.306656e+000 -6.590991e+000 -8.159618e+000 129 116 117
7.696013e+000 -5.011017e+000 -5.875872e+000 44 27 29
-5.531036e+000 9.280133e-001 -3.565711e+000 212 203 121
-1.219121e-001 -8.881374e-001 -7.164919e+000 31 34 27
-1.191266e-001 -8.861844e-001 -7.160603e+000 31 34 27
5.930072e-001 -8.650227e-001 -7.388473e+000 39 27 22
3.756963e-001 -1.273302e+000 -6.010413e+000 105 84 63
1.029472e+001 2.772808e-001 -6.771565e+000 129 104 75
2.722787e+000 -7.695264e+000 -8.561542e+000 136 128 126
6.005380e+000 -7.930674e+000 -7.012598e+000 59 63 79
-5.035738e+000 -8.511427e+000 -3.374408e+000 205 193 109
-3.061335e+000 -1.003820e+001 -2.959669e+000 117 96 69
-2.257324e+000 -5.163546e-001 -6.475723e+000 33 20 23
4.102915e+000 2.399247e-001 -7.050022e+000 52 32 29
1.128805e+001 1.519604e+000 -7.304785e+000 147 106 49
-5.180063e+000 -1.344031e+000 -3.401389e+000 90 98 100
-2.855501e+000 -1.149003e+000 -3.817114e+000 33 25 24
-9.466034e+000 -3.495293e+000 -6.263292e+000 193 175 103
3.863332e-001 -3.860604e+000 -6.887389e+000 34 22 16
6.767946e+000 -3.233238e+000 -6.922946e+000 125 67 57
3.482381e+000 -7.011052e+000 -8.692871e+000 38 27 31
6.734402e+000 -6.031384e+000 -6.942678e+000 58 38 39
7.119142e+000 -6.891407e+000 -6.421614e+000 151 148 141
1.679049e+001 -9.136287e+000 -8.570130e+000 121 78 48
1.676652e+001 -9.239566e+000 -8.230269e+000 179 141 79
-4.961333e+000 1.507175e+000 -3.261719e+000 227 132 130
5.756969e+000 2.100576e+000 -7.506500e+000 61 87 104
-5.283547e+000 -1.273464e-001 -3.501029e+000 212 116 120
6.448396e+000 1.195747e+000 -7.240138e+000 122 64 54
4.053726e+000 -8.134465e-002 -6.396788e+000 59 32 31
3.298622e+000 -7.358336e-001 -7.610115e+000 57 27 27
6.308439e+000 -3.240251e+000 -7.203918e+000 65 46 41
3.799032e+000 -4.563743e+000 -7.601285e+000 42 23 22
3.834294e+000 -4.631689e+000 -7.793590e+000 42 23 22
3.712958e+000 -4.942890e+000 -7.770790e+000 135 93 55
6.187395e+000 -7.971355e+000 -6.776376e+000 53 41 40
7.053884e+000 -9.039935e+000 -6.445193e+000 172 104 67
-3.312394e+000 -9.538400e+000 -2.410850e+000 39 25 16
7.764579e+000 3.070358e+000 -6.652221e+000 146 127 113
1.115129e+001 2.994926e+000 -7.730922e+000 147 132 109
-1.005841e+000 -7.316091e-001 -7.428449e+000 98 81 55
-1.005841e+000 -7.316091e-001 -7.428449e+000 98 81 55
1.169748e+000 -6.087277e-001 -8.110186e+000 86 66 57
1.883613e+000 -2.649575e-001 -8.629828e+000 42 24 20
4.464738e-002 -1.128349e+000 -6.950461e+000 104 82 59
6.454041e-002 -1.143924e+000 -6.986334e+000 104 82 59
-3.829131e+000 -2.402180e+000 -3.139796e+000 66 48 38
1.276243e+000 -3.088953e+000 -6.021668e+000 152 110 60
1.287102e+000 -3.122681e+000 -6.127963e+000 152 110 60
3.783593e+000 -3.948996e+000 -7.353625e+000 138 126 132
1.458645e+001 -3.008149e+000 -8.332509e+000 51 41 32
1.459726e+001 -3.006467e+000 -8.328618e+000 51 41 32
6.039972e+000 -5.791098e+000 -6.776214e+000 87 76 74
8.767628e+000 -6.942193e+000 -6.175098e+000 142 68 58
6.723354e+000 -9.547661e+000 -7.249188e+000 102 82 51
1.599649e+001 -9.087016e+000 -8.071730e+000 78 50 36
-5.647570e+000 6.139750e-001 -3.598703e+000 208 192 111
5.830856e+000 6.392136e-001 -7.601905e+000 98 86 89
3.499712e+000 -1.777791e+000 -6.734849e+000 79 54 44
8.899547e-001 -4.071280e+000 -6.183653e+000 39 21 17
1.106191e+001 -3.861131e+000 -6.937906e+000 146 71 48
-2.611392e+000 -9.019426e+000 -3.510876e+000 27 19 22
-2.611392e+000 -9.019426e+000 -3.510876e+000 27 19 22
-2.893287e+000 -9.821434e+000 -3.238055e+000 24 19 25
1.293332e+001 -8.740240e+000 -7.206370e+000 146 126 109
3.110165e+000 -2.179360e+000 -7.107074e+000 23 14 15
-2.662528e+000 -8.364993e+000 -3.484693e+000 40 66 82
6.624476e+000 1.943691e+000 -6.595532e+000 147 150 151
-4.341264e+000 -4.766767e-001 -2.725089e+000 214 118 120
-4.801945e+000 -1.364389e+000 -3.168711e+000 68 79 82
-2.863478e+000 -3.062166e+000 -3.509092e+000 36 62 79
-4.249651e+000 -4.187225e+000 -2.574796e+000 211 119 119
3.844858e+000 -7.461748e+000 -9.006282e+000 35 30 27
-3.401577e+000 -7.940481e+000 -2.796083e+000 54 39 34
-4.689541e+000 1.178877e+000 -3.096991e+000 210 110 111
-3.012222e+000 7.755249e-001 -3.901842e+000 46 69 92
-3.012222e+000 7.755249e-001 -3.901842e+000 46 69 92
6.171528e+000 -7.799837e+000 -6.761193e+000 56 51 56
-3.967932e+000 1.528343e+000 -5.885072e+000 40 46 47
2.548662e+000 -2.888182e+000 -7.412247e+000 32 10 12
-3.069055e+000 -5.509318e+000 -1.063025e+001 53 78 98
1.485795e+000 -2.557358e+000 -1.017912e+001 66 35 16
6.535374e+000 2.240923e+000 -7.143396e+000 154 135 120
6.040547e+000 1.346545e+000 -7.206754e+000 118 88 76
-6.456915e+000 -1.914026e+000 -4.233633e+000 231 225 168
1.017924e+000 -6.225390e+000 -7.304407e+000 138 124 123
6.983062e+000 -6.318303e+000 -6.673874e+000 156 122 111
1.103110e+001 -7.662539e+000 -6.758111e+000 146 65 44
7.166412e+000 -8.507281e+000 -6.428009e+000 156 87 62
7.498308e+000 -3.992808e+000 -6.042261e+000 64 37 28
6.652418e+000 -9.831414e+000 -8.490209e+000 99 68 44
7.670518e+000 -1.397762e+000 -6.325939e+000 146 61 56
6.914280e+000 -3.123273e+000 -6.808947e+000 143 135 133
7.303494e+000 -6.020125e+000 -5.796862e+000 142 118 90
7.303494e+000 -6.020125e+000 -5.796862e+000 142 118 90
7.226529e+000 -7.462768e+000 -6.010151e+000 67 46 29
-5.699398e+001 -4.652646e+000 -1.086161e+002 167 163 116
-5.657337e+001 -6.754463e+000 -1.080506e+002 169 164 119
1.110046e+001 -7.261043e+000 -6.822447e+000 136 96 65
9.175981e+000 -8.761993e+000 -6.365917e+000 144 57 48
-5.691559e+001 -7.898826e+000 -1.081944e+002 143 129 99
-3.933192e+001 -8.897192e+000 -1.137229e+002 126 123 109
-3.652328e+001 -2.414822e+001 -1.116333e+002 127 112 93
-5.136175e+001 -1.317029e+001 -1.079841e+002 110 115 118
-5.136175e+001 -1.317029e+001 -1.079841e+002 110 115 118
8.580918e+000 -6.080847e+000 -5.887904e+000 150 119 101
-3.953376e+001 -1.824214e+001 -1.135423e+002 121 92 92
-3.717919e+001 -1.645281e+001 -1.130258e+002 137 137 102
-4.835803e+001 -8.496132e+000 -1.118206e+002 70 84 106
6.763496e+000 -5.920196e+000 -6.889550e+000 95 63 54
-4.997497e+001 -1.207392e+001 -1.094310e+002 108 111 115
-4.997497e+001 -1.207392e+001 -1.094310e+002 108 111 115
-5.131609e+001 -1.500542e+001 -1.087895e+002 159 166 172
-5.131609e+001 -1.500542e+001 -1.087895e+002 159 166 172
-4.939838e+001 -1.689073e+001 -1.086202e+002 143 86 92
-3.301577e+000 -1.491916e-001 -9.876450e+000 39 27 27
-5.336199e+001 -7.541438e+000 -1.078550e+002 129 150 168
-5.694021e+001 -8.255554e+000 -1.101041e+002 143 128 99
-5.389957e+001 -1.559391e+001 -1.084298e+002 160 170 173
-4.804357e+001 -1.859209e+001 -1.094658e+002 163 168 171
-4.561256e+001 -1.257510e+001 -1.105138e+002 152 56 68
-4.881648e+001 -1.473010e+001 -1.104270e+002 159 164 168
-3.940739e+001 -2.211172e+001 -1.109569e+002 55 100 148
5.612120e+000 -2.607535e+000 -3.328388e+000 146 104 90
-4.315978e+000 -4.225406e+000 -2.394119e+000 244 183 178
1.300935e+001 -5.908226e+000 -7.482284e+000 131 101 83
-6.006287e+000 -8.542492e+000 -9.811807e+000 216 124 127
-5.216120e+000 -1.502986e+000 -3.588563e+000 219 123 124
-3.981972e+000 -2.701420e+000 -3.612611e+000 68 75 75
1.773555e+000 -4.866374e+000 -6.455619e+000 147 110 66
7.264250e+000 2.708542e+000 -6.595212e+000 71 43 29
5.977407e+000 1.586317e+000 -7.091307e+000 64 39 35
-4.796965e+000 -2.949417e+000 -2.689982e+000 221 119 112
-5.254595e+000 -3.712421e+000 -3.166534e+000 224 199 117
4.223225e+000 -2.646688e-001 -6.479951e+000 146 55 73
-4.548158e+000 -2.919395e+000 -2.352315e+000 79 91 94
1.100305e+001 -7.832240e+000 -6.646992e+000 148 117 99
-2.895655e+000 1.574118e-001 -4.333277e+000 36 26 25
-5.347085e+001 -3.632409e+001 -1.058594e+002 147 131 102
-4.297444e+001 -4.731792e+001 -1.066199e+002 142 106 120
-5.112147e+001 -4.951049e+001 -1.053768e+002 153 111 95
-5.826938e+001 -3.196605e+000 -1.078130e+002 166 160 124
-5.612996e+001 -3.672073e+000 -1.053835e+002 142 128 101
-5.556225e+001 -3.807488e+001 -1.052566e+002 176 167 170
-5.403427e+001 -3.792526e+001 -1.046433e+002 153 113 114
-3.884023e+001 -3.790755e+001 -1.127130e+002 67 124 160
-5.334505e+001 -3.949414e+001 -1.053403e+002 167 166 138
-3.705927e+001 -4.143414e+001 -1.154310e+002 158 161 166
-5.064794e+001 -4.624677e+001 -1.054430e+002 132 102 97
-5.741205e+001 7.802093e+000 -1.054259e+002 148 152 153
-5.838315e+001 3.301933e+000 -1.064968e+002 157 166 168
-5.657439e+001 1.882379e+000 -1.069004e+002 109 117 120
1.525611e-001 -1.177492e+000 -6.218265e+000 107 80 63
-5.675094e+001 -3.617181e+001 -1.035604e+002 173 162 141
-5.521830e+001 -3.555476e+001 -1.052360e+002 173 164 133
-5.769693e+001 -3.847831e+001 -1.030358e+002 173 169 137
-5.769693e+001 -3.847831e+001 -1.030358e+002 173 169 137
-5.299666e+001 -3.760743e+001 -1.057822e+002 200 201 170
-5.648689e+001 -3.896114e+001 -1.038001e+002 150 114 114
-5.637568e+001 -4.096764e+001 -1.040756e+002 176 167 136
-5.464858e+001 -4.147035e+001 -1.053585e+002 171 165 133
-5.187665e+001 -4.146028e+001 -1.086619e+002 157 159 116
-4.047895e+001 -4.008244e+001 -1.099092e+002 161 170 174
-5.143880e+001 -4.485726e+001 -1.045703e+002 169 152 158
-4.814702e+001 -4.453567e+001 -1.025919e+002 157 144 136
-4.814702e+001 -4.453567e+001 -1.025919e+002 157 144 136
-3.958144e+001 -4.785292e+001 -1.096360e+002 158 161 166
-5.456256e+001 -4.750907e+001 -1.024951e+002 105 97 80
-5.376986e+001 2.640538e+000 -1.090376e+002 113 118 121
-5.328965e+001 6.925779e-001 -1.087771e+002 159 165 165
-4.575734e+001 -3.993810e+001 -1.080065e+002 149 151 112
-5.157761e+001 -4.350833e+001 -1.063208e+002 139 120 88
-4.465482e+001 -4.727105e+001 -1.069940e+002 164 137 142
7.301765e+000 -1.524995e+000 -6.017916e+000 75 47 37
-2.955953e+000 -2.475502e+000 -3.567751e+000 35 27 28
-4.481154e+001 -3.927525e+001 -1.110961e+002 140 126 93
-3.514042e+001 -3.877373e+001 -1.134229e+002 174 172 175
-5.598480e+001 -4.329485e+001 -1.054663e+002 135 120 89
-3.844340e+001 -3.947618e+001 -1.112997e+002 79 128 160
-3.844340e+001 -3.947618e+001 -1.112997e+002 79 128 160
-4.581071e+001 -4.470177e+001 -1.100771e+002 136 121 90
-4.925433e+001 3.091178e+000 -1.090491e+002 149 159 161
1.122999e+001 -5.705830e+000 -7.002661e+000 145 122 104
6.774545e+000 1.502873e+000 -6.647549e+000 58 39 33
9.259755e-001 -5.853659e+000 -7.308252e+000 133 104 76
8.421200e+000 -2.344160e+000 -6.435903e+000 144 55 48
7.636846e-001 -5.589752e+000 -7.051893e+000 135 75 48
-5.330714e+000 -8.207371e+000 -7.037657e+000 204 124 120
-2.815933e+000 -8.766558e+000 -3.324399e+000 25 26 22
-5.944032e+000 -8.341449e-001 -4.106441e+000 223 217 153
1.078002e+001 1.550828e-001 -7.340060e+000 153 125 103
6.611362e+000 -4.504064e+000 -6.768370e+000 120 108 110
1.147366e-001 -7.484262e+000 -7.655805e+000 144 133 139
6.941216e+000 -3.934334e-001 -6.402194e+000 130 109 84
7.934805e+000 -6.637480e+000 -5.032826e+000 148 58 51
-4.476465e+001 4.408136e+000 -1.123651e+002 122 130 132
-5.507738e+001 -3.992095e+000 -1.121087e+002 118 149 169
-4.860281e+000 1.576316e+000 -3.370002e+000 83 100 100
5.747028e+000 2.845221e+000 -9.457099e+000 120 100 75
8.499950e+000 1.319678e+000 -6.844030e+000 151 129 112
-5.092050e+000 -3.122048e+000 -3.230101e+000 210 131 126
-7.601798e-001 -6.097264e+000 -6.787636e+000 136 117 113
1.061796e+000 -6.292577e+000 -7.536874e+000 144 132 134
1.997096e+001 -1.753071e+001 -5.513490e+001 151 114 101
1.195536e+000 1.295681e+000 8.676833e+000 35 29 25
6.895251e+000 -1.184485e-001 -6.316157e+000 120 102 78
7.501235e+000 -2.120440e+000 -5.965981e+000 62 35 27
2.373069e+000 -4.637827e+000 -6.635110e+000 158 128 116
7.647243e+000 -4.065560e+000 -5.893223e+000 68 43 36
5.965116e+000 1.599389e+000 -7.057012e+000 77 46 41
-5.677727e+001 -1.980517e+001 -1.066193e+002 122 107 85
2.931638e+001 -3.094352e+001 -8.158918e+001 113 87 62
1.117917e+001 -7.558926e+000 -6.769654e+000 147 75 51
2.969688e+001 -1.245233e+001 -5.591626e+001 139 105 80
2.726011e+000 -7.138029e+000 -8.414334e+000 144 130 130
-5.568466e+001 -2.859543e+000 -1.102439e+002 131 151 159
-4.439991e+001 -1.513919e+001 -1.104749e+002 161 107 69
-4.681076e+001 -4.491886e+000 -1.137742e+002 158 169 173
6.459811e+000 2.280392e+000 -7.027412e+000 153 84 70
-6.104355e+000 -2.099903e+000 -4.124028e+000 228 222 162
7.057916e+000 -1.424678e+000 -6.050682e+000 80 50 39
-1.209095e+001 -4.052754e+000 -5.484196e+000 155 129 112
-1.138164e+001 -4.489273e+000 -5.881288e+000 73 53 45
7.315688e+000 -5.784657e+000 -5.813794e+000 158 134 108
7.385878e+000 -7.784314e+000 -5.738547e+000 68 45 27
6.428530e+000 -8.128239e+000 -6.042657e+000 71 90 103
6.359385e+000 3.096745e-001 -7.205441e+000 132 107 102
-6.288001e+000 -3.570737e+000 -4.074566e+000 227 228 194
-1.141835e+001 -4.568813e+000 -5.969260e+000 115 95 88
-5.524466e-001 -5.525534e+000 -6.381690e+000 142 89 55
6.816134e+000 -6.020395e+000 -6.739952e+000 85 39 36
6.856866e+000 1.582789e+000 -7.198165e+000 61 52 37
6.870937e+000 -9.298777e-001 -6.544042e+000 82 57 46
-1.119701e+001 -4.241937e+000 -5.913650e+000 65 43 37
-1.119701e+001 -4.241937e+000 -5.913650e+000 65 43 37
-1.235062e+001 -4.690742e+000 -6.604671e+000 74 55 71
-1.135975e+001 -4.799619e+000 -6.431247e+000 72 54 44
2.754438e+000 -4.244027e+000 -6.708578e+000 144 130 119
7.804436e+000 -4.738516e+000 -6.167508e+000 71 46 33
7.728237e+000 -5.004256e+000 -5.919980e+000 52 34 27
1.594403e+000 -5.453592e+000 -7.157300e+000 136 98 55
2.008715e+000 -5.837456e+000 -7.599582e+000 129 119 117
-1.444806e+000 -6.800823e+000 -6.724682e+000 37 24 28
7.273476e+000 -7.796163e+000 -6.040250e+000 52 35 24
7.959399e+000 -9.118664e+000 -5.543936e+000 70 41 27
6.850804e+000 -9.495525e+000 -7.556480e+000 87 68 35
4.074462e+000 2.052967e+000 -1.364371e+001 131 98 55
4.074462e+000 2.052967e+000 -1.364371e+001 131 98 55
-1.074490e+000 -1.350647e+000 -1.252210e+001 79 62 63
-1.104338e+001 -4.790051e+000 -6.658780e+000 78 57 52
-5.017866e+000 -5.139795e+000 -3.234275e+000 83 81 88
2.920787e+000 -4.454891e+000 -6.973933e+000 156 129 118
7.048911e+000 -4.294413e+000 -6.834380e+000 150 135 147
2.000868e+000 -4.994421e+000 -6.567621e+000 147 126 115
4.713572e+000 -6.686144e+000 -6.304589e+000 140 51 69
1.837834e+000 -7.309420e+000 -8.213146e+000 148 132 132
6.916928e+000 -7.005580e+000 -6.648161e+000 118 63 53
1.153832e+001 -7.228539e+000 -7.160103e+000 147 116 97
5.959099e+000 3.106812e+000 -8.403980e+000 136 105 77
5.991825e+000 2.205887e+000 -7.512806e+000 89 42 33
6.268858e+000 -4.869409e-001 -7.393809e+000 67 45 47
1.085267e+001 -3.599977e+000 -7.012883e+000 140 121 106
-1.027641e+001 -4.512828e+000 -6.824192e+000 72 58 47
-1.387332e+000 -5.586327e+000 -6.386931e+000 113 84 61
-1.594661e+000 -5.991730e+000 -6.638759e+000 107 69 48
5.231355e+000 -5.827637e+000 -6.204689e+000 32 19 26
-3.618751e+000 -8.516752e+000 -2.381751e+000 71 75 78
3.722216e+000 -1.015841e+001 -1.640193e+001 186 126 72
-1.037149e+001 -4.286691e+000 -5.866889e+000 70 50 43
-3.771410e+001 -2.200361e+001 -1.112807e+002 43 102 148
1.394273e+001 2.675361e+000 -8.514359e+000 133 68 44
8.133284e+000 6.294031e-001 -6.528835e+000 140 113 96
1.380126e+001 -2.443255e-001 -8.723786e+000 53 38 33
6.613630e+000 -1.421625e+000 -6.929568e+000 122 67 57
-5.125542e+000 -4.537690e-001 -3.167760e+000 219 111 111
-1.009315e+001 -4.846427e+000 -6.620960e+000 160 166 166
6.153333e+000 -7.986916e+000 -6.739372e+000 49 43 45
-3.526145e+001 -9.569836e+000 -1.161170e+002 144 140 132
-3.405887e+001 -1.924162e+001 -1.132444e+002 50 99 142
-3.405887e+001 -1.924162e+001 -1.132444e+002 50 99 142
1.229906e+001 2.871232e+000 -8.236368e+000 140 115 93
6.111537e+000 8.092033e-001 -7.292053e+000 59 37 34
5.531568e+000 -1.631853e-001 -7.278994e+000 44 36 33
1.413248e+001 -2.838099e-001 -8.378610e+000 141 65 49
1.561691e+000 -7.140297e+000 -8.245832e+000 143 128 131
-2.841996e+000 -4.416502e+000 -3.510523e+000 46 65 80
-2.841996e+000 -4.416502e+000 -3.510523e+000 46 65 80
-3.836614e+001 -1.269239e+001 -1.146904e+002 146 155 160
2.751554e+000 -6.652983e+000 -7.534218e+000 138 122 125
1.034053e+001 -2.469403e+000 -5.996543e+000 142 121 105
6.460882e+000 1.424087e+000 -7.155130e+000 145 115 103
-1.168033e+000 -4.875714e-001 -7.997894e+000 104 61 41
5.013139e+000 3.558094e-001 -6.697624e+000 121 61 73
-1.889122e+000 -1.112437e+000 -6.316098e+000 101 63 50
2.069559e+000 -1.180268e+000 -7.480204e+000 88 65 62
2.071672e+000 -1.111407e+000 -7.388941e+000 88 65 62
6.724504e+000 5.983265e-002 -6.546424e+000 77 56 39
5.896267e+000 -1.592551e+000 -7.654819e+000 92 73 66
-3.783933e+000 -8.275386e+000 -1.817184e+001 21 20 26
-4.798358e+000 1.521760e+000 -3.134363e+000 206 124 123
7.960849e+000 3.069944e+000 -6.816661e+000 144 128 110
9.776606e+000 3.113031e+000 -7.304048e+000 80 59 35
-1.104789e+001 -3.414172e+000 -6.966753e+000 125 116 99
-1.104789e+001 -3.414172e+000 -6.966753e+000 125 116 99
-1.447397e+001 -4.211109e+000 -5.656149e+000 62 46 30
6.096514e+000 -1.582832e+000 -7.691921e+000 85 68 61
6.977910e+000 -7.403689e+000 -6.518542e+000 142 101 89
1.253961e+001 1.315612e+000 -8.085669e+000 150 133 115
-1.071199e+001 -3.929695e+000 -6.085182e+000 54 41 35
6.840221e+000 -6.878742e+000 -6.772004e+000 135 115 114
-1.044537e+001 -3.694388e+000 -6.018345e+000 61 41 32
-5.245904e+000 -3.251147e+000 -3.157715e+000 211 191 113
6.982258e+000 -7.190862e+000 -6.504151e+000 120 71 53
1.533810e+001 -9.229964e+000 -7.530400e+000 193 149 84
1.196079e+001 -1.330421e+000 -7.505877e+000 132 108 80
7.997548e+000 -9.851113e+000 -5.539128e+000 182 143 74
-4.519439e+000 1.607070e+000 -3.082086e+000 73 80 86
5.109859e+000 -4.637247e+000 -6.005259e+000 41 27 27
3.741907e+000 1.898377e+000 -1.568449e+001 58 42 26
-7.570800e+000 -7.624601e-001 -5.291491e+000 182 155 134
-2.011097e+000 -9.347073e-001 -6.712193e+000 89 73 55
7.554495e-001 -6.273470e-001 -8.182444e+000 36 22 13
-1.098480e+001 -3.417676e+000 -7.085977e+000 53 42 33
-1.496947e+000 -9.306558e-001 -6.824304e+000 23 17 11
2.692157e-001 -8.998115e-001 -7.359290e+000 113 68 64
-6.497087e+000 -1.842328e+000 -4.193173e+000 223 222 164
6.793505e+000 -2.274547e-001 -6.676562e+000 78 67 51
9.011256e-001 -1.427414e+000 -6.289023e+000 33 19 10
-7.547757e+000 -3.484720e+000 -4.934865e+000 221 213 141
-3.824049e+000 -2.433000e+000 -2.546378e+000 57 39 31
-7.544670e-001 -5.246914e+000 -6.257208e+000 108 60 37
6.747863e+000 -4.471921e+000 -6.864245e+000 104 60 50
-4.205291e+000 2.799541e+000 -3.136396e+000 148 143 116
6.917765e+000 2.801998e+000 -6.384843e+000 61 39 26
-4.295257e+000 -1.748746e-001 -2.765820e+000 66 89 92
5.086347e+000 3.903627e-001 -6.548493e+000 32 23 21
6.345968e+000 3.696644e-001 -7.109032e+000 112 99 98
-8.656855e+000 -3.281208e+000 -5.678113e+000 218 215 146
3.558153e+000 -1.714433e+000 -6.695718e+000 104 81 75
7.334209e+000 -2.017463e+000 -6.193153e+000 64 41 33
7.326431e+000 -1.963083e+000 -5.813356e+000 88 60 57
7.575478e+000 -2.229440e+000 -6.197065e+000 60 35 27
1.068453e+000 -4.117678e+000 -5.884978e+000 148 135 118
7.557772e+000 -4.877305e+000 -5.847214e+000 80 63 46
6.743360e+000 -6.061837e+000 -6.641033e+000 125 107 108
-2.463156e+000 -9.982394e+000 -8.821032e+000 39 28 28
-4.962738e+000 -8.550133e+000 -3.672778e+000 204 112 113
1.604429e+001 -9.380239e+000 -8.581712e+000 145 85 58
5.821112e+000 2.692763e+000 -9.290863e+000 49 39 20
6.539836e+000 2.210803e+000 -7.001304e+000 152 147 147
8.804824e-001 -1.446861e+000 -6.232442e+000 36 23 16
9.012715e-001 -1.434102e+000 -6.220882e+000 36 23 16
5.762265e+000 -1.366987e+000 -7.632153e+000 63 48 47
5.063451e+000 1.776639e+000 2.645209e+000 142 54 53
7.182304e+000 -1.227954e+000 -6.007717e+000 58 34 29
7.491170e+000 -1.805600e+000 -6.072470e+000 61 42 34
7.600857e+000 -3.109593e+000 -6.066617e+000 63 35 34
4.637694e+000 -5.331465e+000 -8.273970e+000 29 23 24
2.589354e+001 -1.679082e+001 -4.117128e+001 139 70 42
-1.687081e+000 -6.995856e+000 -6.768353e+000 117 80 61
1.192880e+000 -7.306952e+000 -7.875345e+000 147 141 141
7.682692e+000 -5.003817e+000 -5.849123e+000 43 24 21
7.857008e+000 -8.872476e+000 -5.456865e+000 70 44 34
5.314099e+000 2.533493e+000 -1.076545e+001 56 40 25
6.858726e+000 4.466583e-001 -6.336678e+000 121 100 78
7.892655e-001 -1.396689e+000 -6.443836e+000 100 79 57
4.824660e+000 -6.427037e-001 -6.680172e+000 139 55 78
2.317941e+000 -4.128871e+000 -6.269589e+000 146 132 132
-4.453697e-001 -7.557303e+000 -7.556151e+000 38 33 37
-2.101160e+000 -8.417124e+000 -3.718210e+000 39 24 27
7.027588e+000 -8.237492e+000 -6.415417e+000 112 73 61
1.656323e+001 -9.271516e+000 -8.469362e+000 153 120 68
7.729630e+000 -9.814060e+000 -5.454623e+000 181 152 82
8.582793e+000 -9.547489e+000 -5.572112e+000 140 57 51
-5.729673e+000 1.424550e+000 -3.973579e+000 58 66 66
6.703583e+000 -2.890070e-001 -6.850318e+000 137 134 133
5.309046e+000 -3.012022e+000 -7.321253e+000 47 32 29
8.690908e+000 -3.822761e+000 -6.107784e+000 147 131 112
1.114144e+001 -3.552621e+000 -6.908971e+000 144 80 45
1.580990e+001 -4.715915e+000 -8.656336e+000 81 55 44
1.579817e+001 -4.684915e+000 -8.601544e+000 81 55 44
7.044540e+000 -5.814230e+000 -6.467021e+000 143 143 146
-4.945866e+000 -7.998574e+000 -3.597198e+000 209 114 117
1.469791e+001 -6.396866e+000 -7.919408e+000 51 36 30
2.916687e-001 -1.698785e+000 -5.552167e+000 80 72 69
6.702357e+000 -3.831322e+000 -7.580037e+000 118 110 118
1.458974e+001 -2.982481e+000 -8.292906e+000 48 37 28
-1.058552e+000 -6.428712e+000 -6.768250e+000 121 112 110
1.655723e+001 -4.246191e+000 -8.591395e+000 143 113 64
5.406490e-001 -7.712421e+000 -7.926353e+000 141 137 137
1.283989e+001 -5.674960e+000 -7.393307e+000 145 128 113
2.640206e+000 -1.177636e+000 -7.121933e+000 100 76 64
3.782992e+000 -3.967438e+000 -7.376947e+000 130 121 126
-4.346917e+000 1.968060e+000 -3.345865e+000 65 79 81
-5.992179e+000 1.109240e+000 -4.411910e+000 183 123 95
