ply
format ascii 1.0
element face 0
property list uchar int vertex_indices
element vertex 876
property float x
property float y
property float z
property uchar diffuse_red
property uchar diffuse_green
property uchar diffuse_blue
end_header
1.056692e+000 -8.997002e-001 -7.626037e+000 52 30 20
2.911550e-002 -6.906195e+000 -7.430945e+000 145 125 126
-1.575215e+000 -5.928799e+000 -6.692655e+000 99 70 54
8.197307e-001 -5.598068e+000 -7.415253e+000 148 108 60
9.290424e-001 -3.112864e+000 -6.151834e+000 163 120 78
1.028507e+000 -3.065351e+000 -6.179472e+000 156 75 56
-1.233083e+000 -5.877003e+000 -6.745076e+000 119 84 66
7.743584e+000 -8.041817e+000 -5.849227e+000 158 111 89
-9.152611e-001 -7.684188e+000 -7.633508e+000 147 127 126
2.543147e+000 -4.441247e+000 -6.813308e+000 155 133 125
7.795421e+000 -8.821372e+000 -5.779133e+000 147 90 73
-1.174594e+000 -6.283571e+000 -6.855722e+000 121 44 45
-1.588234e+000 -6.185530e+000 -6.663730e+000 108 90 81
1.109024e+001 1.542295e+000 -7.784059e+000 158 106 59
3.705497e+000 -3.844708e+000 -7.520006e+000 139 125 124
6.050329e-001 -5.164001e+000 -7.051559e+000 148 103 54
3.545838e+000 -4.896585e+000 -7.946116e+000 151 104 58
7.215393e+000 -4.708600e+000 -5.905919e+000 80 51 39
-4.544932e+000 -1.425452e+000 -3.438394e+000 66 71 74
1.130388e+000 -5.887997e+000 -7.256450e+000 141 124 123
4.631929e-001 -3.103409e+000 -6.080648e+000 150 111 70
1.315714e+000 -6.366309e+000 -7.718478e+000 149 131 127
-1.184036e+000 -5.960423e+000 -6.766833e+000 33 23 22
1.093559e+000 -6.368053e+000 -7.738460e+000 142 128 127
-1.069314e+000 -6.421724e+000 -6.913127e+000 125 108 101
6.148821e+000 1.297820e+000 -7.317419e+000 86 49 40
6.519703e+000 1.246687e+000 -6.682287e+000 125 92 73
-4.704293e+000 -6.740083e+000 -3.537586e+000 223 132 123
6.331297e+000 -7.902126e-001 -7.355202e+000 112 55 38
-5.474285e+000 -2.500149e+000 -3.998089e+000 236 227 152
1.018371e+000 -3.599320e+000 -6.499803e+000 140 94 74
6.719154e+000 -6.429002e+000 -6.875811e+000 121 77 59
6.507750e+000 2.361758e+000 -6.515980e+000 192 165 138
5.786048e+000 2.639909e+000 -8.366099e+000 77 48 26
5.598631e+000 -1.396370e+000 -7.875413e+000 66 47 41
5.929742e+000 -1.591322e+000 -7.897101e+000 88 64 59
6.529748e+000 -4.916399e+000 -7.105238e+000 132 107 103
-7.799858e+000 -5.537263e+000 -5.499427e+000 231 226 164
-7.799858e+000 -5.537263e+000 -5.499427e+000 231 226 164
-4.018708e-001 -7.168671e+000 -7.550674e+000 45 35 33
6.350384e+000 2.577960e+000 -6.944517e+000 160 97 64
6.557465e+000 6.146583e-001 -6.489099e+000 135 110 80
5.983403e+000 -1.439409e+000 -7.845965e+000 76 54 54
8.866024e-001 -2.967603e+000 -6.197522e+000 162 120 92
-8.285463e+000 -4.523990e+000 -5.829837e+000 234 219 156
-8.288336e+000 -4.525373e+000 -5.837718e+000 234 219 156
1.871630e+000 -4.685878e+000 -6.723792e+000 157 131 116
1.257867e+000 -5.070893e+000 -7.312681e+000 130 75 44
6.818950e+000 -6.912000e+000 -6.723688e+000 139 76 59
3.397872e+000 -7.064574e+000 -8.813019e+000 136 120 122
6.238576e+000 2.634102e+000 -7.090901e+000 187 163 112
6.337612e+000 2.215874e+000 -6.943408e+000 161 86 54
6.639420e+000 -4.529093e-001 -6.400466e+000 143 112 84
1.119010e+000 -4.964106e+000 -7.049495e+000 146 93 54
6.925899e+000 -6.143282e+000 -6.274990e+000 73 46 27
6.728839e+000 -6.285418e+000 -6.773006e+000 136 78 59
4.265648e-001 -6.427387e+000 -7.501017e+000 147 59 57
1.065938e+000 -6.732939e+000 -7.815811e+000 141 125 125
1.810390e+000 -6.852819e+000 -8.252468e+000 143 49 51
7.853077e+000 -9.288732e+000 -5.882050e+000 143 92 73
1.069422e+001 2.830790e+000 -7.821394e+000 146 119 94
5.680480e+000 1.896645e+000 -7.752140e+000 72 84 93
6.535726e+000 9.974512e-001 -6.460908e+000 139 108 87
6.298443e+000 4.402325e-002 -7.211336e+000 137 75 64
6.643680e+000 -4.890257e+000 -6.886229e+000 125 67 52
6.980554e+000 -5.172088e+000 -6.001354e+000 135 108 82
6.686521e+000 -5.237901e+000 -6.869213e+000 129 67 57
-1.273982e+000 -6.724732e+000 -7.053373e+000 111 90 70
2.017367e+000 -7.065899e+000 -8.295388e+000 40 34 30
7.711628e+000 3.206643e+000 -6.979887e+000 150 65 56
6.117404e+000 3.021081e+000 -7.548078e+000 182 109 66
5.973388e+000 2.765940e+000 -8.209270e+000 162 121 64
-9.100283e-001 -5.484660e+000 -6.606858e+000 126 58 46
1.902210e+000 -5.370230e+000 -7.110346e+000 138 117 111
1.168297e+000 -6.560697e+000 -7.794160e+000 36 26 24
1.182622e+001 1.624920e+000 -8.117989e+000 150 123 102
7.692569e+000 -2.861579e-001 -6.576846e+000 147 116 101
3.087546e+000 -3.489211e+000 -7.118067e+000 140 123 124
3.089367e+000 -3.488121e+000 -7.118771e+000 140 123 124
3.700648e+000 -3.846602e+000 -7.500358e+000 139 125 124
1.137566e+001 -8.601237e+000 -7.022414e+000 156 124 99
6.354257e+000 2.844707e+000 -6.821964e+000 183 185 178
9.707570e+000 3.195722e+000 -7.665148e+000 84 55 32
6.793420e+000 1.665315e+000 -6.457031e+000 69 44 31
3.232322e+000 -3.919930e+000 -7.362419e+000 36 20 21
1.680955e-002 -6.908750e+000 -7.522326e+000 145 125 126
6.027059e+000 -9.443832e-001 -7.553477e+000 116 102 101
-4.032156e+000 -4.140100e+000 -2.879544e+000 220 113 113
3.819871e+000 -3.268510e+000 -7.532788e+000 35 25 26
4.990318e+000 -4.439603e+000 -8.180269e+000 99 32 49
-9.903942e-001 -7.156226e+000 -7.277268e+000 142 121 119
-4.440813e+000 -3.221009e+000 -3.318108e+000 66 72 72
4.172960e+000 -4.863523e+000 -8.232710e+000 35 23 24
-4.283976e+000 -6.832231e+000 -3.213898e+000 76 82 81
5.441334e+000 -5.024761e+000 -6.695856e+000 40 26 26
-6.195321e+000 -1.906582e+000 -4.479800e+000 231 225 168
6.253923e+000 -5.333390e-001 -7.244539e+000 102 58 51
-1.313242e+000 -6.488495e+000 -6.937700e+000 119 98 90
6.800649e+000 -7.516157e+000 -6.686427e+000 149 103 87
6.415028e+000 -5.473631e-001 -7.163304e+000 124 62 53
1.119087e+000 -6.384366e+000 -7.770193e+000 135 122 121
4.457931e+000 -6.804872e+000 -6.422248e+000 62 31 26
-4.955286e-001 -7.098323e+000 -7.494900e+000 139 128 127
-4.941882e-001 -7.098199e+000 -7.484927e+000 139 128 127
7.152070e+000 -8.564434e+000 -5.930147e+000 195 113 81
8.084301e+000 -6.573718e+000 -6.004348e+000 148 121 102
-1.009110e+001 -3.808430e+000 -6.204860e+000 84 67 54
1.179541e+000 -3.361711e+000 -6.363699e+000 138 65 47
1.178405e+000 -3.358197e+000 -6.408490e+000 138 65 47
-3.701512e+000 -6.320070e+000 -2.795552e+000 126 150 146
-3.700961e+000 -6.320124e+000 -2.795428e+000 126 150 146
-1.386609e+000 -6.949350e+000 -7.146600e+000 126 65 41
3.393492e+000 -7.061455e+000 -8.799404e+000 136 120 122
6.689944e+000 -4.191267e-001 -6.541953e+000 143 112 84
1.842769e+000 -4.006101e+000 -5.990296e+000 154 135 128
7.765723e+000 -7.657571e+000 -5.892021e+000 139 64 58
-3.660205e+000 -6.173698e+000 -2.747702e+000 82 94 94
-3.547338e+000 -6.344478e+000 -2.600382e+000 149 172 170
1.880607e+000 -6.449266e+000 -8.004962e+000 36 23 29
1.869111e+000 -6.411178e+000 -7.974270e+000 36 23 29
2.748798e-001 -7.730838e+000 -8.058659e+000 45 34 35
7.511010e+000 2.894096e+000 -6.950950e+000 151 123 102
6.138102e+000 3.038387e+000 -7.626576e+000 182 109 66
5.699489e+000 -2.614870e-001 -7.202150e+000 131 109 105
-4.051699e+000 -1.959786e+000 -3.081025e+000 75 83 85
1.235992e+001 -5.487883e+000 -7.555681e+000 149 124 107
3.214425e+000 -7.096791e+000 -8.770284e+000 139 124 122
6.890817e+000 -8.828617e+000 -6.799259e+000 183 104 66
6.806568e+000 -9.312745e+000 -7.465920e+000 195 160 78
-5.336428e+000 3.640760e-001 -3.973799e+000 216 189 102
1.424550e+000 -5.945723e+000 -7.492582e+000 142 124 120
6.888877e+000 -9.119988e+000 -6.624297e+000 190 111 64
1.065868e+001 -3.729657e+000 -7.093712e+000 144 63 44
-4.711039e+000 -4.193261e+000 -3.396237e+000 223 119 116
7.540732e+000 -9.237459e+000 -5.884225e+000 69 43 30
-4.037547e+000 -4.140420e+000 -2.886023e+000 220 113 113
4.476728e+000 -2.146014e-001 -6.685745e+000 144 53 69
-3.908472e+000 -5.977158e+000 -2.834796e+000 222 117 116
7.189377e+000 3.148090e-001 -6.484112e+000 148 60 56
-3.368645e+000 9.583545e-001 -3.980861e+000 43 50 56
6.031853e+000 3.195281e+000 -7.441629e+000 203 163 89
6.214645e+000 1.946012e+000 -7.269462e+000 120 73 60
5.385407e+000 3.687877e-001 -7.010513e+000 97 74 68
6.114784e+000 2.692891e-001 -7.204943e+000 136 106 101
-5.817444e+000 -1.010010e+000 -4.171970e+000 231 216 149
-5.450786e+000 -1.045820e+000 -4.018009e+000 228 219 163
-7.207145e+000 -1.363499e+000 -5.267321e+000 239 224 160
4.509468e-001 -1.599048e+000 -6.004387e+000 109 52 51
8.527373e-001 -1.496278e+000 -6.067987e+000 57 33 26
-5.490792e+000 -2.502370e+000 -4.035918e+000 236 227 152
3.690163e-001 -1.956033e+000 -5.517747e+000 112 80 67
3.690163e-001 -1.956033e+000 -5.517747e+000 112 80 67
3.097849e+000 -1.368866e+000 -7.228264e+000 112 82 74
3.111728e+000 -1.673406e+000 -6.859615e+000 59 35 34
6.867067e+000 -1.342608e+000 -6.415041e+000 73 53 39
-8.084924e+000 -3.006166e+000 -6.020839e+000 236 217 141
-1.242142e+001 -4.022304e+000 -5.624317e+000 73 43 33
-8.520282e+000 -3.521284e+000 -6.068678e+000 230 216 155
-3.573750e+000 -3.615687e+000 -2.666246e+000 105 98 93
-7.017675e+000 -4.074770e+000 -5.082324e+000 235 227 159
-7.017675e+000 -4.074770e+000 -5.082324e+000 235 227 159
-3.593230e+000 -3.954052e+000 -2.741947e+000 74 80 80
-3.557573e-001 -5.032366e+000 -6.540973e+000 143 86 53
-3.259724e-002 -5.015216e+000 -6.775010e+000 138 108 71
9.046870e+000 -5.448185e+000 -1.482498e+001 145 106 89
6.907178e+000 -5.219760e+000 -6.019258e+000 123 94 71
-4.998455e+000 -6.003893e+000 -3.740657e+000 230 204 124
6.670683e+000 -5.788348e+000 -6.825010e+000 145 110 98
6.912237e+000 -5.487754e+000 -6.128625e+000 114 87 64
2.173542e+000 -6.667125e+000 -1.051071e+001 37 26 20
1.113160e+000 -7.165515e+000 -8.077089e+000 152 134 130
1.095576e+000 -7.169031e+000 -8.036266e+000 152 134 130
6.634023e+000 -6.637560e+000 -6.835606e+000 147 114 112
-3.520679e+000 -7.865197e+000 -2.795039e+000 79 85 84
5.732034e+000 1.658447e+000 -7.127180e+000 63 36 25
-3.714413e+000 -4.709117e-001 -2.892219e+000 60 38 32
6.012890e+000 8.829525e-001 -7.598495e+000 62 39 31
-5.645920e+000 -8.622002e-001 -4.202965e+000 228 218 167
5.832349e+000 2.710802e-001 -7.188166e+000 137 118 114
-1.454715e+000 -1.147153e+000 -6.557315e+000 111 70 52
1.874170e+000 -7.203398e-001 -8.394219e+000 104 76 62
1.764996e+000 -9.739164e-001 -7.489909e+000 63 35 23
7.248519e+000 -2.402296e+000 -6.089570e+000 62 36 23
2.566387e+000 -3.916692e+000 -7.128599e+000 77 57 47
3.883048e+000 -3.723838e+000 -7.571581e+000 144 124 123
2.105600e+000 -4.418814e+000 -6.676858e+000 146 112 69
-6.874678e-001 -5.172791e+000 -6.471540e+000 123 64 34
4.834546e+000 -4.949092e+000 -8.256923e+000 111 43 59
7.441120e+000 -4.652700e+000 -6.123948e+000 76 38 33
5.199649e-001 -5.645709e+000 -7.217465e+000 125 109 104
1.983899e+000 -6.098361e+000 -7.965123e+000 146 59 68
-3.484675e+000 -6.430711e+000 -2.631460e+000 110 135 134
4.308659e+000 -6.737637e+000 -6.366430e+000 86 57 48
6.164655e+000 -7.294659e+000 -6.916452e+000 45 24 19
-3.388226e+000 -8.140346e+000 -2.682502e+000 72 72 69
1.021209e+001 -9.270220e+000 -6.493057e+000 114 75 43
6.056964e+000 3.128666e+000 -7.699810e+000 183 108 68
5.959721e+000 1.342233e+000 -7.065065e+000 103 70 55
6.020636e+000 1.217346e+000 -7.304661e+000 130 94 85
6.440082e+000 1.431085e+000 -6.290900e+000 165 164 154
6.959275e+000 1.436589e+000 -6.372174e+000 59 29 21
6.959275e+000 1.436589e+000 -6.372174e+000 59 29 21
6.274802e+000 -1.390464e+000 -7.256217e+000 127 106 110
6.441239e+000 -1.384611e+000 -6.701523e+000 141 132 125
7.233488e+000 -2.844201e+000 -6.262596e+000 74 47 36
2.637788e+000 -4.154430e+000 -6.658087e+000 157 134 121
-4.246120e+000 -4.806770e+000 -3.296797e+000 106 118 114
1.244440e+000 -4.648139e+000 -6.551819e+000 145 130 124
9.168466e-001 -5.066887e+000 -7.077162e+000 137 78 46
1.977357e+000 -5.838396e+000 -7.807791e+000 131 124 117
6.747723e+000 -5.845436e+000 -6.768782e+000 143 80 70
7.044150e+000 -5.595100e+000 -5.976183e+000 158 132 105
-1.712152e+000 -6.891422e+000 -6.954283e+000 113 76 58
-1.611788e+000 -7.018616e+000 -7.191518e+000 122 60 38
1.960543e-001 -6.875684e+000 -7.613280e+000 146 128 128
8.084301e+000 -6.573718e+000 -6.004348e+000 148 121 102
3.387267e+000 -7.202316e+000 -8.645335e+000 47 38 36
7.027254e+000 -8.381338e+000 -5.732891e+000 181 108 72
6.010162e+000 2.426841e+000 -7.809326e+000 130 68 47
6.190894e+000 2.410061e+000 -6.922679e+000 168 91 62
1.180723e+001 1.530294e+000 -7.812501e+000 147 123 100
6.665766e+000 -8.358777e-001 -6.427810e+000 132 107 76
1.020660e+001 -7.213796e-001 -7.276215e+000 130 100 75
-4.369546e+000 -4.743552e+000 -3.194117e+000 75 84 83
1.962003e+000 -4.857481e+000 -6.784780e+000 146 123 102
-1.316295e+000 -5.430050e+000 -6.509041e+000 122 86 61
9.625747e-001 -5.323588e+000 -7.102415e+000 152 99 59
-1.183354e+000 -7.451141e+000 -7.458947e+000 134 52 53
7.736532e+000 -7.812837e+000 -6.275084e+000 69 47 35
6.162982e+000 1.477795e+000 -7.249286e+000 78 41 29
6.316375e+000 -3.129377e-001 -7.137930e+000 126 69 55
-6.309979e-001 -1.220844e+000 -6.374820e+000 114 85 61
5.123425e+000 -3.013803e+000 -7.459691e+000 51 31 26
8.286924e+000 -2.965218e+000 -6.621858e+000 155 123 112
-9.900605e+000 -4.186208e+000 -5.999217e+000 66 41 37
1.009795e+001 -3.793751e+000 -6.879770e+000 150 123 104
3.595158e+000 -4.460614e+000 -7.686952e+000 49 24 26
4.036676e+000 -4.510768e+000 -8.398044e+000 79 34 43
-9.120126e-001 -5.135618e+000 -6.689953e+000 131 83 43
6.737728e+000 -4.536959e+000 -6.647011e+000 135 125 124
8.498762e+000 -4.958361e+000 -6.154289e+000 161 124 108
4.800355e-001 -7.590032e+000 -8.084683e+000 148 134 133
4.527970e-001 -7.554503e+000 -7.919756e+000 148 134 133
7.160999e+000 -7.305556e+000 -5.877812e+000 133 102 77
1.057265e+001 -7.352184e+000 -6.618362e+000 143 67 43
1.056867e+001 -7.350336e+000 -6.594203e+000 143 67 43
8.683164e+000 -8.585508e+000 -5.869906e+000 152 118 98
5.583132e+000 5.631662e-001 -7.482630e+000 97 71 67
6.338553e+000 -6.731074e-001 -7.130913e+000 123 65 51
2.217194e-001 -1.270273e+000 -6.656023e+000 110 80 59
6.388851e+000 -1.372407e+000 -7.072147e+000 125 63 48
7.111936e+000 -4.824220e+000 -5.914192e+000 69 40 27
1.146983e+000 -6.543432e+000 -7.767518e+000 36 26 24
-4.775738e-001 -7.301227e+000 -7.649617e+000 43 35 33
6.030103e+000 -3.161236e+000 -7.221420e+000 63 34 30
3.223177e+000 -3.911214e+000 -7.328654e+000 36 20 21
4.987184e+000 -4.989910e+000 -8.388921e+000 105 39 53
4.987184e+000 -4.989910e+000 -8.388921e+000 105 39 53
1.754774e+000 -5.708413e+000 -7.514126e+000 36 22 24
3.215911e+000 -7.094047e+000 -8.773855e+000 139 124 122
-4.916533e+000 3.084505e-001 -3.728962e+000 74 69 75
5.362760e+000 1.090175e+000 -7.670264e+000 57 52 56
1.157218e+001 -5.552235e+000 -7.219851e+000 157 105 57
-3.393844e-002 -7.466798e+000 -7.842169e+000 151 132 136
5.894681e+000 -7.681915e+000 -6.706918e+000 59 49 46
-1.491560e+000 -8.555533e+000 -4.686986e+000 134 106 85
-4.435303e+000 1.640189e+000 -3.647390e+000 66 70 73
-2.584016e+000 -6.204224e+000 -3.751386e+000 34 23 21
-2.480498e+000 -8.734085e+000 -3.763479e+000 33 25 23
-4.305598e+000 9.721270e-001 -3.180095e+000 223 113 114
5.990412e+000 2.002318e+000 -7.683166e+000 77 50 38
3.784215e+000 -4.558452e-001 -9.960647e+000 46 28 24
-4.057018e+000 -2.405121e+000 -2.958720e+000 218 112 112
8.423095e-001 -3.252064e+000 -6.166146e+000 144 85 46
4.872986e+000 -3.179922e+000 -8.070149e+000 91 68 62
-4.294188e+000 -5.063155e+000 -3.309947e+000 71 80 77
2.005845e+000 -3.555666e+000 -6.479264e+000 52 27 22
1.637762e+000 -4.444215e+000 -6.339913e+000 160 129 116
7.788278e+000 -6.120557e+000 -6.354102e+000 132 43 37
2.773161e+000 -6.384211e+000 -8.281332e+000 138 118 117
1.006054e+001 -2.058100e+000 -6.276519e+000 148 122 105
5.788440e+000 1.215707e+000 -7.208434e+000 118 88 76
-1.176785e+000 -9.825488e-001 -7.074549e+000 56 33 17
6.733477e+000 -1.041153e+000 -6.353949e+000 139 117 89
6.534375e+000 -2.413877e+000 -6.792601e+000 140 125 119
-1.235404e+001 -3.963848e+000 -5.713188e+000 105 81 71
-1.389035e+001 -4.323556e+000 -5.633105e+000 146 149 142
-4.409668e+000 -4.142069e+000 -3.315479e+000 230 141 133
1.006548e+000 -3.459206e+000 -6.409282e+000 127 68 36
1.010342e+000 -3.458357e+000 -6.413841e+000 127 68 36
6.598898e+000 -4.777814e+000 -7.228716e+000 118 68 57
1.033984e+000 -5.638326e+000 -7.414035e+000 129 78 48
6.898624e+000 -5.596905e+000 -6.081995e+000 119 93 70
-1.663205e+000 -6.618828e+000 -7.014943e+000 33 20 12
6.854488e+000 -8.206640e+000 -6.677746e+000 177 119 106
6.151129e+000 2.982314e+000 -7.441002e+000 171 104 58
5.558863e+000 2.594469e+000 -9.569735e+000 87 56 36
6.598566e+000 1.422949e+000 -6.432771e+000 67 45 31
6.564768e+000 1.030008e+000 -6.503423e+000 144 111 91
4.884001e+000 2.876974e-001 -7.002407e+000 127 58 65
6.659222e+000 -2.834958e-001 -6.452237e+000 137 108 84
-1.180795e+000 -8.244938e-001 -7.451903e+000 113 86 66
6.673059e+000 -1.182752e+000 -6.279516e+000 72 56 41
3.754544e+000 -1.711604e+000 -6.993760e+000 97 67 57
6.066463e+000 -1.116779e+000 -8.467740e+000 63 43 42
5.775555e+000 -1.514166e+000 -7.854774e+000 60 38 32
9.648836e-001 -3.370624e+000 -6.414332e+000 132 76 37
9.648836e-001 -3.370624e+000 -6.414332e+000 132 76 37
-1.038176e+001 -4.378652e+000 -6.357518e+000 74 54 47
-5.563285e+000 -4.222366e+000 -3.968989e+000 213 191 119
7.271479e+000 -3.935122e+000 -6.045458e+000 80 52 41
-4.600514e+000 -4.898749e+000 -3.284660e+000 82 91 92
2.638334e+000 -4.320964e+000 -6.856001e+000 142 109 62
-6.757115e-001 -5.187322e+000 -6.517925e+000 123 64 34
1.809706e+000 -4.842854e+000 -6.815760e+000 139 105 74
-5.477097e-001 -5.478314e+000 -6.729548e+000 120 65 33
7.100582e-002 -6.718291e+000 -7.497478e+000 149 122 131
7.084001e+000 -6.442711e+000 -5.904893e+000 150 125 94
7.192990e+000 -7.581504e+000 -5.752004e+000 62 40 27
6.017975e+000 1.207064e+000 -7.301471e+000 130 94 85
2.770469e+000 -3.549331e+000 1.214007e+001 143 71 49
7.212956e+000 -1.249385e+000 -6.344870e+000 51 35 22
7.212956e+000 -1.249385e+000 -6.344870e+000 51 35 22
-1.000429e+001 -3.656208e+000 -6.232261e+000 68 44 34
1.081409e+000 -3.174222e+000 -6.325444e+000 144 64 41
2.781624e+000 -4.355147e+000 -6.791903e+000 155 129 115
2.977732e+000 -4.382955e+000 -6.979683e+000 101 74 63
-5.063522e-001 -5.282767e+000 -6.593134e+000 151 92 62
6.632405e+000 -4.804170e+000 -6.720049e+000 122 56 45
-4.195929e+000 -5.547185e+000 -3.055489e+000 234 127 133
8.553419e-001 -5.576465e+000 -7.248559e+000 148 99 49
-1.590270e+000 -6.384700e+000 -6.751647e+000 120 40 51
-1.762653e+000 -7.194615e+000 -7.178785e+000 124 81 47
4.431267e-001 -7.340372e+000 -7.934138e+000 148 137 133
1.076419e+001 -7.149260e+000 -6.935751e+000 149 122 97
6.923557e+000 -8.927783e+000 -6.487111e+000 183 109 65
6.964764e+000 2.559347e+000 -6.690046e+000 78 48 37
8.164689e+000 3.166352e+000 -7.316364e+000 154 128 98
1.064750e+001 -3.370175e-002 -7.295231e+000 150 125 105
-4.541295e+000 -5.313506e+000 -3.239530e+000 219 126 118
6.672076e+000 -5.908913e+000 -6.753541e+000 131 69 57
7.143187e+000 -6.284287e+000 -5.797766e+000 129 53 44
-1.066462e+000 -7.681902e+000 -7.557972e+000 44 25 18
8.049506e-002 -7.590883e+000 -7.840662e+000 144 133 129
7.577533e+000 -7.590532e+000 -5.820147e+000 66 39 27
6.210265e+000 1.104015e+000 -7.369615e+000 116 59 48
6.411138e+000 5.449121e-002 -6.884367e+000 148 138 133
9.689788e+000 7.844727e-002 -7.337953e+000 146 124 103
1.383507e+001 9.281945e-001 -9.615726e+000 55 40 32
6.512088e+000 -1.025637e+000 -6.853891e+000 137 125 124
6.512088e+000 -1.025637e+000 -6.853891e+000 137 125 124
1.179370e+001 -2.304991e+000 -7.768414e+000 135 104 71
6.523181e+000 -2.772579e+000 -7.097597e+000 128 57 53
8.088361e+000 -2.723355e+000 -6.482191e+000 151 118 107
6.815934e+000 -5.221303e+000 -6.621336e+000 151 137 134
7.613214e-001 -6.558048e+000 -7.649740e+000 44 32 34
7.600093e-001 -6.558221e+000 -7.653181e+000 44 32 34
1.092656e+001 -7.750402e+000 -6.900922e+000 152 121 107
7.794305e+000 -8.519592e+000 -5.804666e+000 138 80 66
6.480998e+000 -2.081269e+000 -7.169613e+000 131 61 60
2.781285e+000 -3.455795e+000 -7.158400e+000 39 24 21
1.069391e+001 -3.963783e+000 -6.892510e+000 154 75 56
6.179119e+000 -6.786749e+000 -6.502874e+000 86 66 59
6.239663e+000 -7.639414e+000 -6.862135e+000 65 82 100
8.402843e+000 -7.246342e+000 -5.974065e+000 148 122 100
1.190027e+001 1.062298e+000 -8.024445e+000 150 124 109
6.001561e+000 -6.520182e+000 -6.613570e+000 123 106 98
8.073536e+000 -1.882078e+000 -6.588649e+000 147 59 55
1.141863e+001 -1.890051e+000 -7.684177e+000 157 110 56
-3.908768e+000 -6.442961e+000 -2.884739e+000 78 87 88
6.854253e+000 3.124978e+000 -6.967873e+000 81 56 36
-2.732455e+000 -3.698412e+000 -3.859022e+000 23 19 16
-6.648878e+000 -3.974691e+000 -5.954686e+000 224 195 111
5.347255e+000 2.870465e+000 -1.038767e+001 135 111 78
6.332891e+000 2.457531e+000 -7.015808e+000 187 137 112
6.213873e+000 8.807441e-001 -7.609614e+000 103 66 57
6.373629e+000 7.415623e-001 -6.531217e+000 80 55 36
-5.904612e+000 -5.513211e-001 -4.288860e+000 235 226 159
-7.212125e+000 -1.537266e+000 -5.150560e+000 216 199 127
6.634208e+000 -2.876073e-001 -6.364279e+000 144 112 87
-6.088586e+000 -1.958807e+000 -4.386386e+000 232 222 180
-6.088586e+000 -1.958807e+000 -4.386386e+000 232 222 180
-5.619195e-001 -1.397099e+000 -6.043914e+000 111 82 66
1.414190e+000 -1.219300e+000 -7.148467e+000 62 34 25
1.255617e+001 -4.098543e-001 -8.059518e+000 104 90 81
5.683449e+000 -1.583401e+000 -7.732625e+000 88 64 60
5.863939e+000 -1.396592e+000 -7.884229e+000 84 63 58
-3.607087e+000 -2.396392e+000 -2.780668e+000 60 35 24
-5.428715e+000 -3.501043e+000 -3.955348e+000 233 215 136
-3.509503e-001 -5.440884e+000 -6.926452e+000 128 63 42
6.650330e+000 -5.468140e+000 -7.128741e+000 99 54 48
-1.608448e+000 -6.394630e+000 -6.780483e+000 111 40 42
2.153303e+000 -6.960789e+000 -8.297668e+000 143 122 127
6.770999e+000 -7.183164e+000 -6.716374e+000 148 108 96
1.001603e+001 -7.552702e+000 -6.460294e+000 159 124 93
-4.626728e+000 1.334904e+000 -3.163875e+000 219 120 120
-5.221384e+000 7.771740e-001 -3.807137e+000 222 198 115
5.606498e+000 2.710296e+000 -8.979651e+000 136 105 76
6.186093e+000 8.927760e-001 -7.842465e+000 108 79 74
-5.580563e+000 -9.229212e-001 -4.109533e+000 228 218 155
6.337737e+000 1.713721e-001 -7.113503e+000 127 64 53
1.245654e+000 -1.088355e+000 -7.393311e+000 34 18 15
8.977886e-001 -3.279710e+000 -6.349274e+000 149 80 47
-4.173798e+000 -3.803073e+000 -3.012620e+000 225 122 119
1.680953e+000 -4.261007e+000 -6.275888e+000 147 116 54
3.554906e+000 -4.557553e+000 -7.664740e+000 135 95 63
3.794525e-001 -6.598131e+000 -7.629384e+000 157 119 117
3.781191e-001 -6.561283e+000 -7.483843e+000 157 119 117
-6.106405e-001 -7.091122e+000 -7.421534e+000 34 25 20
6.768854e+000 -7.121115e+000 -6.407227e+000 129 64 52
7.112605e+000 -7.519833e+000 -5.931938e+000 67 46 28
7.141747e+000 -7.521536e+000 -5.630598e+000 71 43 31
-5.232591e+000 -1.222739e-002 -3.956544e+000 218 194 106
-3.751905e+000 -2.665243e-001 -2.971851e+000 53 33 27
3.318760e+000 -7.114267e-002 -1.051157e+001 83 59 51
-1.539375e+000 -1.598755e+000 -5.925981e+000 77 49 44
7.180928e+000 -1.253605e+000 -6.234064e+000 53 30 26
7.190629e+000 -1.253762e+000 -6.271646e+000 53 30 26
6.032993e+000 -1.685691e+000 -7.773242e+000 73 53 51
5.753068e+000 -2.445225e+000 -7.420635e+000 66 47 42
-1.378210e+001 -4.307932e+000 -5.636187e+000 83 57 38
-1.378210e+001 -4.307932e+000 -5.636187e+000 83 57 38
6.301929e-001 -2.954306e+000 -6.054589e+000 162 108 66
-3.760690e+000 -4.311890e+000 -2.776727e+000 78 91 93
2.575136e+000 -3.914996e+000 -7.139120e+000 81 61 52
3.121949e+000 -4.135931e+000 -7.332325e+000 119 102 92
1.599501e+000 -4.333976e+000 -6.226926e+000 152 131 124
1.607529e+000 -4.337751e+000 -6.272713e+000 152 131 124
6.918775e+000 -6.341106e+000 -6.247088e+000 80 46 36
6.957406e+000 -8.139030e+000 -6.279983e+000 165 158 161
1.355887e+000 -5.985651e-001 -8.352425e+000 30 18 19
6.547243e+000 -7.277732e-001 -6.546743e+000 89 64 44
2.852914e+000 -1.774338e+000 -7.216488e+000 91 65 59
6.585342e+000 -2.079031e+000 -6.915304e+000 136 125 123
-9.794901e+000 -4.372541e+000 -6.180796e+000 113 87 70
2.503744e+000 -4.043344e+000 -6.804136e+000 42 25 22
9.994113e+000 -3.555562e+000 -6.851980e+000 133 101 73
3.605157e+000 -4.454477e+000 -7.673351e+000 44 24 15
-4.948047e+000 -6.000000e+000 -3.744548e+000 219 197 116
1.166536e+001 -4.934018e+000 -7.324419e+000 142 110 82
-2.397851e+000 -6.184119e+000 -3.860484e+000 21 19 20
2.127800e+000 -6.719439e+000 -8.238999e+000 143 55 63
1.823580e+000 -7.080135e+000 -8.297811e+000 151 131 131
5.674986e-001 -7.766054e+000 -8.131770e+000 44 34 32
5.472696e-001 -7.910614e+000 -8.047950e+000 162 117 63
1.066411e+001 -6.981984e+000 -6.858116e+000 142 104 78
6.993242e+000 -8.731812e+000 -6.334151e+000 187 183 174
1.304946e+001 -9.013994e+000 -7.362260e+000 61 37 30
1.350575e+001 5.292295e+000 -1.423251e+001 169 139 66
-3.850126e+000 9.145197e-001 -3.414091e+000 64 45 38
-3.889727e+000 2.474046e-002 -2.768222e+000 73 83 85
6.531659e+000 1.007303e+000 -6.450702e+000 139 112 91
-4.215010e+000 -7.863420e-001 -3.135620e+000 216 114 111
5.413823e+000 2.306851e-001 -7.164004e+000 42 28 29
1.078412e+001 6.789093e-001 -7.480291e+000 139 104 73
6.480335e+000 -6.696297e-001 -6.900336e+000 143 132 128
6.417684e+000 -1.725963e+000 -7.063726e+000 121 63 52
6.554425e+000 -3.496454e+000 -6.990487e+000 122 59 49
-4.745176e+000 -5.016434e+000 -3.520997e+000 92 97 100
4.411898e+000 -5.781497e+000 -6.342326e+000 53 25 21
4.422071e+000 -5.798789e+000 -6.397934e+000 53 25 21
9.625746e-003 -6.567944e+000 -7.428754e+000 36 35 29
1.168933e-002 -6.566235e+000 -7.399609e+000 36 35 29
3.418344e+000 -6.864514e+000 -8.944881e+000 44 23 22
6.827281e+000 -6.272859e+000 -6.422160e+000 157 142 140
-3.851323e+000 -5.758846e-001 -2.822785e+000 216 118 119
9.872504e+000 -3.154563e-001 -7.144179e+000 148 122 100
5.013912e+000 -1.741662e+000 -7.749326e+000 39 24 22
6.457898e+000 -2.432370e+000 -7.013156e+000 129 65 53
1.233384e+001 -5.466562e+000 -7.442076e+000 146 121 98
6.468701e+000 -6.581270e+000 -6.765227e+000 129 106 102
7.035288e+000 -6.133418e+000 -5.901173e+000 135 105 77
8.462656e+000 -9.032666e+000 -5.884742e+000 153 118 98
5.234281e+000 1.854027e+000 -7.537606e+000 51 54 52
8.893957e-001 -1.195608e+000 -7.069042e+000 107 80 59
1.495710e+000 -9.965306e-001 -7.501178e+000 108 82 58
-1.135000e+001 -4.242528e+000 -6.144859e+000 191 136 109
7.832271e+000 -3.447197e+000 -6.281066e+000 144 120 110
2.794566e+000 -7.176271e+000 -8.583911e+000 56 33 31
2.794566e+000 -7.176271e+000 -8.583911e+000 56 33 31
-4.182000e+000 -5.127498e-002 -3.057063e+000 73 83 88
6.015191e+000 4.779550e-001 -7.294060e+000 75 54 49
1.134499e+001 -1.904910e+000 -7.521991e+000 157 107 56
6.659439e+000 -8.925212e+000 -7.289593e+000 180 146 72
6.501717e+000 -9.271763e+000 -7.476042e+000 109 79 51
1.600103e+000 -4.005054e-001 -8.503755e+000 39 20 21
1.036913e+001 -2.254755e-001 -7.245383e+000 157 77 54
3.415350e+000 -1.748137e+000 -6.745201e+000 96 67 59
1.558510e+000 -6.937773e+000 -8.320456e+000 142 123 127
-2.560029e+000 -8.269672e+000 -4.154643e+000 51 69 86
1.259947e+001 -8.504121e+000 -7.681462e+000 149 120 102
1.157923e+001 2.600792e+000 -8.128163e+000 147 122 102
5.773791e+000 -7.029023e-002 -7.092359e+000 117 99 97
4.626754e+000 -5.577811e+000 -8.163781e+000 94 75 66
4.629591e+000 -5.566928e+000 -8.093612e+000 94 75 66
6.722378e+000 -8.209078e+000 -6.938159e+000 63 38 26
2.571638e+000 -7.300373e-001 -8.171802e+000 106 75 55
2.397961e+000 -5.101225e+000 -7.185741e+000 136 100 68
2.397961e+000 -5.101225e+000 -7.185741e+000 136 100 68
5.630231e+000 2.973704e+000 -8.565023e+000 141 118 84
-7.497724e+000 -1.940607e+000 -5.415952e+000 232 220 146
4.230000e-001 -1.714831e+000 -5.774203e+000 54 20 18
3.220369e-001 -1.871957e+000 -5.365844e+000 84 45 42
-2.618845e+000 -2.676276e+000 -3.996424e+000 46 76 88
-5.431352e+000 -3.505306e+000 -3.945605e+000 225 216 147
5.744436e-001 -3.155315e+000 -6.326117e+000 140 88 48
1.221088e+000 -3.614131e+000 -6.522493e+000 115 70 46
7.374924e+000 -3.981514e+000 -6.375835e+000 82 59 45
-2.243496e-001 -5.588032e+000 -7.105548e+000 45 33 29
-3.619607e+000 -7.973290e+000 -2.954394e+000 72 85 85
8.374675e+000 -7.625975e+000 -6.204127e+000 151 123 107
-5.845498e+000 3.234020e-001 -4.629104e+000 80 66 64
-6.199695e+000 -1.909414e+000 -4.510847e+000 223 219 161
-6.747878e+000 -2.515016e+000 -4.868652e+000 230 225 162
6.371862e+000 -1.206739e+000 -6.738435e+000 113 64 58
1.008119e+000 -3.282815e+000 -6.235730e+000 162 107 76
2.563899e+000 -3.892313e+000 -7.053304e+000 87 68 51
7.617917e-001 -5.430248e+000 -7.128665e+000 135 75 48
6.692381e+000 -4.837853e+000 -6.561072e+000 138 132 135
-1.037990e+000 -7.543899e+000 -7.518103e+000 137 131 123
-4.041221e-001 -8.314184e+000 -8.010021e+000 60 46 50
-2.960667e+000 -1.001287e+001 -3.482818e+000 122 107 94
6.982354e+000 1.466439e+000 -6.425940e+000 57 24 20
6.971577e+000 1.464969e+000 -6.391725e+000 57 24 20
-4.013871e+000 -7.250045e-001 -2.925783e+000 214 114 116
-4.083163e+000 -8.534740e-001 -3.064164e+000 79 98 100
6.380824e+000 5.925983e-001 -6.421342e+000 85 65 41
-4.567950e+000 -1.155992e+000 -3.380256e+000 72 89 89
6.331944e+000 -2.052259e-001 -6.995367e+000 129 75 64
-1.020573e+001 -3.659283e+000 -6.166963e+000 55 40 35
1.122898e+000 -2.950287e+000 -6.189254e+000 152 109 64
-5.741823e-001 -5.406892e+000 -6.600640e+000 127 71 44
6.989526e-001 -6.396700e+000 -7.611204e+000 143 134 133
-1.183284e+000 -7.528135e+000 -7.747903e+000 157 59 71
6.234722e+000 -7.417406e+000 -6.679388e+000 56 37 32
6.659121e+000 -9.598108e+000 -7.805271e+000 110 88 61
-3.008379e+000 -9.837050e+000 -3.282685e+000 78 57 41
1.028813e+001 2.811639e+000 -7.218665e+000 150 124 102
1.024318e+001 2.667789e-001 -7.330050e+000 135 101 73
1.344152e+001 -7.554288e-001 -8.389379e+000 54 37 30
-3.751246e+000 -6.461884e+000 -2.798130e+000 57 73 76
1.093313e+001 -7.021705e+000 -6.691227e+000 139 80 57
1.082548e+001 -6.984140e+000 -6.496120e+000 139 80 57
1.057739e+001 6.660994e-001 -6.983553e+000 134 108 71
6.360927e+000 -1.034342e+000 -7.129609e+000 120 61 55
-9.998224e+000 -4.122371e+000 -6.911212e+000 99 75 61
6.576146e+000 -4.185919e+000 -6.894444e+000 129 69 57
7.019915e+000 -5.612305e+000 -5.965874e+000 143 124 96
1.124099e+001 -7.278669e+000 -6.982991e+000 148 121 107
-1.277845e+000 -5.461352e+000 -6.569814e+000 112 93 53
9.373973e-001 -4.714563e+000 -6.719601e+000 30 18 17
1.535345e+000 -6.455433e+000 -7.969996e+000 141 127 127
4.096145e+000 -5.989645e+000 -8.777591e+000 76 32 29
-1.852816e+000 -8.332762e+000 -4.745700e+000 82 54 34
1.080020e+001 -7.268215e+000 -6.732050e+000 164 86 63
7.603452e+000 2.029776e+000 -6.153631e+000 138 112 85
-4.702749e+000 2.882414e-001 -3.575658e+000 65 73 76
1.310609e+001 -8.714337e+000 -7.560478e+000 67 51 42
5.201376e+000 -1.085913e+000 -7.057513e+000 37 26 25
1.363858e+001 -8.438007e+000 -8.292963e+000 50 35 32
6.422890e+000 2.700555e+000 -6.976487e+000 182 174 157
6.630491e+000 2.797776e+000 -6.541726e+000 65 39 21
6.235583e+000 2.287333e+000 -7.209367e+000 169 119 94
-3.905842e+000 -2.132701e-001 -2.907569e+000 135 139 138
-3.905842e+000 -2.132701e-001 -2.907569e+000 135 139 138
-6.064107e+000 -2.406548e-001 -4.362468e+000 230 218 179
1.333170e+001 1.609359e+000 -8.388649e+000 65 38 27
-2.623958e+000 -1.192907e+000 -4.095937e+000 26 26 35
-1.193388e+001 -3.493969e+000 -6.755524e+000 66 58 56
-1.193388e+001 -3.493969e+000 -6.755524e+000 66 58 56
-4.831599e+000 -3.324286e+000 -3.509802e+000 215 126 121
-1.221988e+001 -4.060530e+000 -5.422287e+000 69 43 28
-1.316380e+001 -4.304779e+000 -5.402250e+000 176 140 89
3.493897e+000 -3.493510e+000 -7.623137e+000 62 51 50
-4.968276e+000 -4.512080e+000 -3.760545e+000 219 188 105
-1.441968e+000 -6.505701e+000 -6.853844e+000 114 91 83
-1.378324e+000 -6.746783e+000 -6.960036e+000 114 66 44
1.056489e+000 -7.070116e+000 -8.155087e+000 70 51 54
1.056489e+000 -7.070116e+000 -8.155087e+000 70 51 54
-4.702325e+000 -7.953526e+000 -3.344532e+000 220 137 129
1.239651e+001 -8.665210e+000 -7.589589e+000 155 124 102
-3.167900e+000 -9.410322e+000 -2.561421e+000 84 61 50
-3.167900e+000 -9.410322e+000 -2.561421e+000 84 61 50
5.836090e+000 2.899877e+000 -8.955175e+000 124 95 63
5.821337e+000 2.551516e+000 -8.605765e+000 141 100 56
5.902504e+000 2.590367e+000 -8.359927e+000 148 107 55
6.690087e+000 -2.592103e-001 -6.547544e+000 137 108 84
-1.052823e+000 -1.554251e+000 -6.089618e+000 83 59 48
-4.605459e+000 -2.954427e+000 -3.347156e+000 224 110 105
-3.025662e+000 -2.547089e+000 -3.696617e+000 49 59 68
7.388840e+000 -1.868602e+000 -6.660886e+000 62 29 22
8.474077e-001 -3.142030e+000 -6.348146e+000 145 79 44
-1.078020e+001 -4.204427e+000 -5.816394e+000 80 57 51
-5.589723e+000 -4.217156e+000 -4.066714e+000 213 191 119
2.497459e+000 -4.048058e+000 -6.725134e+000 34 16 11
-1.586440e+000 -5.929503e+000 -6.714274e+000 105 72 48
-1.424927e+000 -6.835898e+000 -7.144236e+000 125 93 65
5.369370e+000 -6.651620e+000 -6.522511e+000 34 25 18
6.941884e+000 -6.343719e+000 -6.308153e+000 74 47 30
6.586045e+000 -9.072912e+000 -7.878553e+000 180 150 83
-4.050421e+000 -9.170539e+000 -3.410870e+000 95 74 54
6.807933e+000 2.200454e+000 -6.495793e+000 81 53 39
7.038306e+000 2.065103e+000 -6.769527e+000 68 35 26
1.008962e+001 -6.872793e-002 -7.277121e+000 145 121 96
-4.999519e+000 -1.504874e+000 -3.203798e+000 219 190 104
6.193996e+000 -6.015136e-001 -7.452049e+000 118 100 101
7.672072e+000 -4.874762e-001 -6.447937e+000 162 130 114
7.672072e+000 -4.874762e-001 -6.447937e+000 162 130 114
1.779875e+000 -4.437829e+000 -6.285147e+000 152 110 71
7.452756e+000 -4.846688e+000 -6.086265e+000 47 19 12
-3.595476e+000 -7.910852e+000 -2.548153e+000 84 90 96
-3.405492e+000 -7.899499e+000 -2.591505e+000 76 83 75
7.657769e+000 -8.353566e+000 -5.831592e+000 64 37 26
7.820227e+000 -8.950838e+000 -6.110686e+000 75 45 36
7.929954e+000 -8.964245e+000 -6.108183e+000 142 85 71
6.054976e+000 -5.043116e-001 -7.518924e+000 68 44 42
6.729284e+000 -6.539266e-001 -6.513444e+000 136 109 79
8.269263e+000 -1.612284e+000 -6.549605e+000 148 123 101
-9.735380e+000 -4.403416e+000 -6.061866e+000 117 88 72
3.497513e+000 -6.917030e+000 -9.150324e+000 41 18 20
6.644660e+000 3.303912e+000 -6.943130e+000 79 50 28
6.644660e+000 3.303912e+000 -6.943130e+000 79 50 28
-4.594816e+000 1.310491e+000 -3.434040e+000 223 112 111
5.569594e+000 -4.198257e-001 -6.843015e+000 121 101 100
6.198243e+000 -6.768153e-001 -7.473419e+000 116 103 102
6.411554e+000 -1.007345e+000 -7.322507e+000 123 65 50
-1.161008e+001 -4.065102e+000 -5.521839e+000 167 130 75
1.065951e+001 -3.019210e+000 -7.159741e+000 138 102 69
1.065930e+001 -3.018982e+000 -7.152157e+000 138 102 69
1.366546e+000 -5.118351e+000 -6.970537e+000 147 102 59
4.648391e+000 -5.158761e+000 -8.331674e+000 34 21 15
-4.902956e+000 -5.971352e+000 -3.425541e+000 224 193 116
4.410149e+000 -6.360659e+000 -6.326827e+000 46 27 22
3.662796e-001 -6.944199e+000 -7.567583e+000 41 30 31
3.669024e-001 -6.946261e+000 -7.578094e+000 41 30 31
-4.651321e+000 -7.662650e+000 -3.322174e+000 224 120 124
1.047754e+001 -7.407389e+000 -6.904968e+000 152 122 98
-4.610105e+000 -8.073895e+000 -3.286575e+000 224 118 122
-2.290133e+000 -8.674942e+000 -3.708628e+000 25 15 13
-3.051532e+000 -9.437522e+000 -2.760694e+000 72 49 33
3.147594e+000 -7.828266e-001 -8.648503e+000 105 69 43
6.534796e+000 -2.395769e+000 -7.263019e+000 133 69 55
-1.585995e-001 -2.938430e+000 -1.139649e+001 41 25 20
5.135165e+000 -2.680192e+000 -7.466424e+000 53 32 28
1.059415e+001 -3.982193e+000 -6.674408e+000 154 75 56
6.639269e+000 -4.535428e+000 -7.003718e+000 127 68 52
-4.120820e+000 -6.293288e+000 -2.857853e+000 232 131 132
5.967778e+000 -6.569859e+000 -6.606605e+000 130 113 103
7.067262e+000 -7.672162e+000 -5.801464e+000 171 174 165
6.610174e+000 -8.547017e+000 -7.186877e+000 106 60 44
5.846135e+000 -8.911738e-001 -8.459931e+000 60 39 36
7.863086e+000 -3.420289e+000 -6.287333e+000 144 122 106
7.789934e-001 -4.295329e+000 -6.116248e+000 150 132 130
6.010257e+000 -3.643120e+000 -7.089017e+000 74 45 39
1.237283e+001 -6.032515e+000 -7.413352e+000 152 122 102
8.142165e+000 -6.748316e+000 -6.106974e+000 154 127 110
4.130693e+000 -9.877928e+000 -1.525435e+001 113 85 61
5.714689e+000 2.774017e+000 -8.579391e+000 124 94 64
1.040779e+001 -2.454117e-001 -7.305636e+000 146 70 45
-1.152206e+001 -3.888863e+000 -6.082822e+000 49 30 26
-1.098567e+001 -3.621912e+000 -6.084881e+000 47 34 33
4.521935e+000 -9.805464e+000 -1.388165e+001 108 80 56
6.872199e+000 3.156658e+000 -7.053657e+000 81 56 36
-3.948676e+000 -4.702405e+000 -2.558943e+000 71 77 77
-3.281947e+000 -6.058392e+000 -2.517590e+000 48 31 23
-2.244229e+000 -5.997144e+000 -7.212927e+000 44 66 80
6.135702e+000 -8.949040e+000 -8.674073e+000 187 149 79
1.262473e+001 -8.441168e+000 -7.663254e+000 154 123 103
6.582761e+000 -9.399819e+000 -8.228610e+000 119 92 64
-4.127226e+000 -5.727678e-001 -3.047345e+000 220 110 108
-4.127226e+000 -5.727678e-001 -3.047345e+000 220 110 108
4.010982e+000 -6.041929e+000 -8.808738e+000 84 39 36
-2.495617e+000 -8.725293e+000 -3.765524e+000 36 28 26
-3.824987e+000 -7.749414e+000 -2.646161e+000 222 118 117
5.206527e+000 -1.165084e+000 -7.446283e+000 38 26 28
6.284521e+000 2.643846e+000 -7.238052e+000 190 163 141
6.598837e+000 -1.307262e-001 -6.313774e+000 138 112 87
1.064600e+001 -5.768857e-001 -7.436863e+000 137 78 60
5.718567e+000 -2.099143e+000 -7.552437e+000 64 41 36
-8.734777e+000 -3.842460e+000 -6.134782e+000 230 213 145
-8.731813e+000 -3.843780e+000 -6.119811e+000 230 213 145
-4.186519e+000 -4.055658e+000 -3.029690e+000 253 191 188
-4.927727e+000 -4.763941e+000 -3.495216e+000 218 187 109
-6.131329e+000 -5.129723e+000 -4.408489e+000 234 220 146
-8.631003e-001 -5.801918e+000 -6.866337e+000 130 103 86
2.224684e-001 -6.722309e+000 -7.687795e+000 134 53 52
7.153850e+000 -7.440358e+000 -5.837532e+000 135 108 85
7.788271e+000 -8.534654e+000 -5.887764e+000 126 88 71
6.977744e+000 2.316419e+000 -6.656938e+000 61 33 21
6.589865e+000 1.520001e+000 -6.450379e+000 69 42 31
7.983679e+000 1.172310e+000 -6.713216e+000 134 48 47
-6.202926e+000 -1.896576e+000 -4.510373e+000 233 220 150
7.021017e+000 -1.928829e+000 -6.184139e+000 57 30 19
7.200188e+000 -1.966198e+000 -6.414928e+000 92 63 49
1.677700e+000 -4.236579e+000 -6.444991e+000 147 116 54
1.249950e+000 -5.080203e+000 -7.289435e+000 128 65 37
1.866108e+000 -4.960485e+000 -6.712385e+000 138 101 60
1.661172e+000 -6.109163e+000 -7.745282e+000 148 52 54
-1.636432e+000 -6.492511e+000 -6.790003e+000 99 78 69
-2.138890e-001 -7.103048e+000 -7.562551e+000 40 28 30
1.506904e+001 -7.276885e+000 -1.240633e+001 151 126 114
7.438678e+000 -5.644970e+000 2.738306e+000 55 38 31
6.813064e+000 -8.948386e+000 -6.793785e+000 175 99 61
6.941114e+000 -8.638918e+000 -6.427283e+000 185 106 75
5.574374e+000 2.551146e+000 -9.202693e+000 74 50 27
6.055859e+000 1.232135e+000 -7.427766e+000 130 94 80
6.274498e+000 1.134106e+000 -7.383845e+000 127 62 51
6.274327e+000 8.284245e-001 -7.196874e+000 121 62 51
5.737732e+000 -1.482515e+000 -7.770074e+000 60 39 36
-3.261486e+000 -2.854662e+000 -2.061455e+001 45 69 81
-1.007527e+001 -3.812545e+000 -6.152411e+000 87 67 56
1.325855e+000 -3.577014e+000 -6.667707e+000 107 57 39
1.090144e+000 -4.043605e+000 -6.094670e+000 152 129 112
1.096282e+000 -4.044251e+000 -6.116315e+000 152 129 112
5.278392e+000 -3.397585e+000 -2.939825e+000 129 63 51
2.236052e+000 -4.217130e+000 -6.482045e+000 151 114 70
2.238191e+000 -4.212167e+000 -6.515990e+000 151 114 70
1.575265e+000 -5.686152e+000 -7.553571e+000 147 127 124
-3.589753e+000 -5.971727e+000 -2.620926e+000 228 125 115
6.844026e+000 -5.687252e+000 -6.119740e+000 75 48 32
5.099384e+000 2.777909e+000 -1.086370e+001 79 56 32
1.790169e+001 3.710440e+000 -3.621002e+001 141 53 51
3.124418e+000 -1.692912e+000 -7.001828e+000 44 24 23
8.025610e+000 -4.411992e+000 -6.316370e+000 144 51 51
-1.053036e+000 -5.624755e+000 -6.660989e+000 125 82 50
-1.053036e+000 -5.624755e+000 -6.660989e+000 125 82 50
-1.534832e+000 -6.336480e+000 -6.697070e+000 108 44 42
-1.170470e+000 -6.284411e+000 -6.852177e+000 122 45 47
6.713046e+000 -5.553318e+000 -6.824600e+000 128 63 50
1.718275e+000 -6.574552e+000 -8.079153e+000 141 116 120
1.041604e+001 -7.650899e+000 -6.749198e+000 134 99 70
7.660930e+000 -8.130048e+000 -5.920623e+000 73 46 35
1.416708e+001 5.182763e+000 -1.235151e+001 162 133 66
1.183344e+001 2.748108e+000 -7.891274e+000 55 42 34
6.462930e+000 1.496052e+000 -6.450462e+000 163 158 154
6.171783e+000 8.011505e-001 -7.696258e+000 106 77 73
6.573808e+000 3.830663e-001 -6.363888e+000 127 101 73
4.122349e+000 -2.907520e-001 -1.014690e+001 41 25 25
6.692867e+000 -9.961182e-001 -6.487069e+000 113 87 61
-9.997274e+000 -3.994007e+000 -6.301985e+000 63 44 31
2.817693e+000 -3.430482e+000 -7.033954e+000 37 17 16
4.995369e+000 -3.107233e+000 -7.646326e+000 100 76 66
1.074817e+001 -3.474905e+000 -7.085256e+000 155 67 52
1.036063e+001 -3.723504e+000 -7.026110e+000 131 55 33
8.378563e+000 -5.410920e+000 -6.348490e+000 156 61 61
7.033937e+000 -6.118685e+000 -5.847144e+000 135 105 77
-1.135337e+001 -4.239730e+000 -6.128629e+000 191 136 109
6.123858e+000 -3.919805e+000 -7.513446e+000 68 43 37
1.234300e+001 -4.922337e+000 -7.616146e+000 149 124 105
-7.634935e-001 -7.521320e+000 -7.634270e+000 148 125 125
-1.151551e+001 -3.546430e+000 -6.454025e+000 138 116 92
-1.161078e+001 -3.869960e+000 -6.179642e+000 50 29 31
9.246907e+000 -9.176092e+000 -6.307510e+000 144 104 69
4.512769e+000 -1.688469e-001 -6.990717e+000 143 50 68
-5.234694e+000 4.967798e-001 -3.894349e+000 225 187 122
-3.965987e+000 -1.921273e-001 -2.995681e+000 118 129 131
6.232579e+000 5.410347e-001 -7.224574e+000 149 113 103
-6.136142e+000 -1.568711e+000 -4.503892e+000 233 225 150
-7.307248e+000 -2.068749e+000 -5.301619e+000 228 215 137
-7.307248e+000 -2.068749e+000 -5.301619e+000 228 215 137
-8.261284e+000 -2.889606e+000 -5.792723e+000 225 213 148
5.996832e+000 -1.628020e+000 -7.666299e+000 64 49 46
-3.541158e+000 -3.505115e+000 -2.626653e+000 48 32 25
-4.619401e+000 -4.815879e+000 -3.315982e+000 210 119 124
7.227547e+000 -3.819111e+000 -5.963437e+000 83 59 47
6.219300e-001 -9.100407e-001 -7.474396e+000 44 29 17
-7.145239e+000 -2.528522e+000 -5.055196e+000 229 214 147
7.258761e+000 -1.381600e+000 -6.416825e+000 58 33 25
-8.742384e+000 -3.850918e+000 -6.169147e+000 225 214 147
-3.601303e+000 -3.769270e+000 -2.692416e+000 67 69 68
2.060344e+000 -3.987264e+000 -6.363389e+000 39 20 20
3.051893e+000 -3.833597e+000 -7.349193e+000 119 102 97
7.642528e+000 -3.354966e+000 -6.140992e+000 148 60 56
2.320788e+000 -4.324391e+000 -6.685005e+000 141 116 78
-6.722615e-001 -5.209972e+000 -6.412121e+000 126 66 36
-2.448553e-001 -5.123858e+000 -6.500265e+000 137 75 50
-5.528373e-001 -5.473975e+000 -6.704953e+000 130 68 46
-1.520063e+000 -6.008783e+000 -6.659626e+000 41 29 33
-3.404498e+000 -6.518390e+000 -2.619060e+000 55 45 38
-4.441581e+000 1.373877e+000 -3.408010e+000 74 87 93
1.577478e+001 6.784876e+000 -3.108824e+001 158 124 114
1.577478e+001 6.784876e+000 -3.108824e+001 158 124 114
6.480807e+000 1.224182e+000 -6.524774e+000 129 103 80
7.678594e+000 8.610388e-001 -6.390578e+000 141 55 50
-5.788691e+000 -8.948245e-001 -4.369388e+000 208 192 115
-1.171648e+000 -1.550793e+000 -6.074204e+000 79 53 48
-5.993156e+000 -3.511497e+000 -4.280619e+000 232 225 160
-2.700628e+000 -4.318907e+000 3.160436e-002 46 58 63
2.078286e+000 -4.599205e+000 -6.672276e+000 148 129 106
7.140880e+000 -3.867159e+000 -5.987943e+000 61 36 24
4.817379e+000 -4.975339e+000 -8.155713e+000 106 48 63
7.175992e+000 -4.982499e+000 -5.925359e+000 131 54 46
1.970031e+000 -6.072523e+000 -7.909791e+000 151 58 75
7.015345e+000 -5.607408e+000 -5.946196e+000 144 124 97
-7.261417e-001 -8.415658e+000 -7.965545e+000 159 118 69
7.483561e+000 -7.710532e+000 -6.159727e+000 62 42 36
6.870584e+000 -8.260301e+000 -6.478053e+000 164 96 67
7.886049e+000 -1.362666e+000 -6.583702e+000 140 50 49
6.540458e+000 -5.266042e+000 -7.122444e+000 117 94 94
-3.591837e+000 -5.975680e+000 -2.591460e+000 218 125 127
6.929827e+000 -6.405398e+000 -6.233329e+000 87 63 52
5.214863e+000 -3.461143e+000 -7.596400e+000 53 35 32
-2.481075e+000 -4.952830e+000 -3.891924e+000 35 26 24
5.168020e+000 -2.212084e+000 -7.921343e+000 41 26 23
6.006349e+000 -2.858376e+000 -7.314936e+000 55 34 29
-7.546698e+000 -8.400002e+000 -3.892051e+001 210 120 120
6.171116e+000 1.977026e+000 -7.399909e+000 149 107 95
6.375817e+000 9.612795e-001 -6.607868e+000 72 51 35
6.273988e+000 2.345041e-001 -7.136087e+000 152 121 108
6.304949e+000 2.215604e-001 -7.235319e+000 152 121 108
6.335292e+000 -1.249251e-001 -7.222860e+000 148 115 108
6.380415e+000 -1.602765e-001 -7.137490e+000 129 73 65
3.509162e+000 -1.268291e+000 -7.535110e+000 50 17 14
6.326500e+000 -4.701371e-001 -7.092548e+000 149 121 109
-1.019456e+001 -3.533609e+000 -6.200178e+000 149 131 119
-6.408223e+000 -3.166610e+000 -4.641180e+000 225 217 150
-5.328438e+000 -2.665478e+000 -3.867255e+000 225 217 146
6.782312e+000 -1.272313e+000 -6.198706e+000 74 50 38
5.610560e-001 -2.931762e+000 -5.943273e+000 161 115 67
5.930391e+000 -2.127526e+000 -5.715118e+000 127 117 124
1.125058e+000 -3.461844e+000 -6.372093e+000 147 97 64
1.125058e+000 -3.461844e+000 -6.372093e+000 147 97 64
-1.937891e+000 -5.822728e+000 -1.302027e+001 42 24 20
6.137560e+000 -3.366650e+000 -5.118930e+000 128 74 69
-3.402302e+000 -5.027183e+000 -2.794379e+000 71 53 49
8.517824e+000 -5.824890e+000 -1.330074e+001 141 131 132
7.185268e+000 -4.029809e+000 -5.968849e+000 68 40 29
-1.426348e+000 -5.912453e+000 -6.683311e+000 108 85 60
2.242784e+000 -6.705752e+000 -8.207809e+000 149 135 135
6.275769e+000 -7.350329e+000 -6.808749e+000 76 58 54
6.189688e+000 2.640290e+000 -7.488428e+000 160 92 60
6.307551e+000 2.185679e+000 -6.772593e+000 158 83 59
-3.765455e+000 -1.188390e-001 -2.960158e+000 49 35 32
-7.221767e+000 -1.387172e+000 -5.192570e+000 231 222 154
-2.180818e+000 -6.035496e-001 3.627016e+000 19 20 25
6.532012e+000 -5.592068e-001 -6.626981e+000 86 58 41
2.386689e-001 -1.701093e+000 -5.800831e+000 38 26 17
2.211180e-001 -1.590362e+000 -5.535848e+000 38 26 17
-1.227016e+001 -4.031022e+000 -5.681881e+000 72 45 33
5.909407e+000 -1.718031e+000 -7.689605e+000 76 55 50
6.687493e+000 -1.275482e+000 -6.204774e+000 153 160 158
-3.692651e+000 -4.142352e+000 -2.697924e+000 213 126 130
-3.692651e+000 -4.142352e+000 -2.697924e+000 213 126 130
2.190921e+000 -4.104301e+000 -6.264832e+000 140 114 67
6.474552e+000 -3.288768e+000 -7.109882e+000 117 54 44
-2.343326e-001 -5.199737e+000 -6.670040e+000 133 70 44
7.888076e-001 -5.647962e+000 -7.200831e+000 41 34 31
4.238529e+000 -5.302120e+000 -8.287952e+000 90 71 68
1.615266e+000 -5.911250e+000 -7.671292e+000 138 126 128
6.144294e+000 -7.456133e+000 -7.160159e+000 77 78 86
8.121023e+000 -6.833243e+000 -6.642487e+000 147 51 54
7.014220e+000 -7.549828e+000 -6.226721e+000 64 47 28
-2.726657e+000 -8.888884e+000 -3.584891e+000 48 61 78
7.709827e+000 -8.489091e+000 -6.021215e+000 71 47 35
1.590979e+001 -1.087067e+001 -9.174621e+000 182 135 61
1.226895e+001 5.236079e+000 -1.749116e+001 177 148 80
-3.889447e+000 7.457027e-001 -3.021673e+000 86 88 93
-4.015387e+000 -3.234155e-001 -3.029865e+000 86 96 95
1.044631e+001 1.370495e-001 -7.490349e+000 156 130 111
6.421439e+000 -5.751404e-001 -7.225604e+000 122 64 52
3.166236e+000 5.829667e-001 8.117342e+000 148 58 54
4.542528e+000 1.354909e-001 3.483610e+000 154 128 117
6.471763e+000 -1.161746e+000 -6.096473e+000 78 61 56
3.433466e+000 -1.964327e+000 -6.889263e+000 94 63 56
5.802840e+000 -1.805436e+000 -7.598020e+000 45 24 21
7.148915e-001 -3.868453e+000 -6.613957e+000 94 42 29
3.004400e+000 -3.393460e+000 -7.139096e+000 151 141 142
1.681655e+000 -4.237252e+000 -6.203605e+000 142 114 66
2.246229e+000 -4.025174e+000 -6.432976e+000 149 135 131
-4.459911e+000 -9.293212e+000 -2.335136e+001 55 72 87
-5.911518e-001 -5.043470e+000 -6.451254e+000 142 92 57
2.139662e+000 -4.500194e+000 -6.756829e+000 153 119 76
3.400885e+000 -7.140618e+000 -8.585016e+000 43 35 33
1.430575e+001 -6.218821e+000 -8.201229e+000 50 29 25
1.063908e+001 -7.434052e+000 -6.875048e+000 142 71 47
1.063908e+001 -7.434052e+000 -6.875048e+000 142 71 47
