ply
format ascii 1.0
element face 0
property list uchar int vertex_indices
element vertex 881
property float x
property float y
property float z
property uchar diffuse_red
property uchar diffuse_green
property uchar diffuse_blue
end_header
-5.732729e+000 -3.119690e+000 -6.201741e+000 196 199 143
-4.056965e+000 -2.188615e+000 -5.266887e+000 207 219 183
-4.056965e+000 -2.188615e+000 -5.266887e+000 207 219 183
-1.112126e+000 -4.096919e+000 -4.380752e+000 43 77 106
8.507928e-001 -5.519005e+000 -7.444444e+000 148 102 112
-2.753509e+000 -6.103137e+000 -4.126464e+000 211 109 133
-4.199043e+000 3.997250e-001 -1.011130e+001 59 68 78
2.334762e+000 -1.752844e-001 -1.363771e+001 103 65 62
3.538884e+000 4.669892e-001 -1.308663e+001 94 71 53
-3.111041e+000 3.158672e-001 -4.978904e+000 107 111 115
-3.111041e+000 3.158672e-001 -4.978904e+000 107 111 115
-2.038609e+000 1.006447e+000 -4.251181e+000 54 41 33
2.068610e+000 -5.771445e-001 -1.068020e+001 45 22 21
4.108819e+000 3.998056e-001 -9.394235e+000 90 77 69
5.401083e+000 9.725021e-001 -7.434646e+000 154 107 90
2.931662e+000 -1.522825e+000 -8.414715e+000 86 71 59
5.483437e+000 -1.588653e+000 -6.573239e+000 62 57 46
-4.492473e+000 -3.979826e+000 -5.403485e+000 212 219 165
2.516478e+000 -3.393943e+000 -6.285626e+000 51 42 36
6.008595e+000 -3.301202e+000 -6.801459e+000 75 59 51
-1.107063e+000 -4.740392e+000 -4.345201e+000 46 76 102
4.957866e+000 -5.953120e+000 -6.779070e+000 70 81 96
2.846237e+000 3.068556e-001 -1.560377e+001 143 103 62
-3.092791e+000 6.932559e-001 -5.943952e+000 172 179 99
-2.994830e+000 4.401501e-001 -4.891033e+000 116 121 119
3.640848e+000 4.038076e-001 -9.407296e+000 47 30 23
4.805994e+000 1.131361e+000 -9.041987e+000 105 92 76
2.117854e+000 -3.487370e-001 -1.001044e+001 97 44 50
4.903951e+000 9.793998e-001 -8.636278e+000 106 88 55
9.803266e+000 1.527478e+000 -1.041535e+001 124 118 94
-3.145395e+000 -5.152518e-001 -4.758169e+000 193 188 119
5.978124e-001 -1.356887e+000 -7.487631e+000 87 79 66
5.694378e+000 7.330575e-001 -6.610454e+000 60 38 29
1.606940e+000 -1.541586e+000 -7.278135e+000 94 80 70
1.314813e+000 -1.528511e+000 -6.802721e+000 92 75 66
-5.427771e+000 -3.819512e+000 -5.982962e+000 211 220 172
5.909045e+000 -1.730062e+000 -6.665671e+000 55 27 24
5.909045e+000 -1.730062e+000 -6.665671e+000 55 27 24
1.813369e+000 -3.498869e+000 -6.374632e+000 37 26 23
1.773498e-001 -4.312444e+000 -6.547453e+000 130 90 65
1.403500e+000 -4.233529e+000 -6.738450e+000 120 80 54
2.523597e+000 -3.717262e+000 -6.749230e+000 138 128 129
2.975833e+000 -5.512076e+000 -8.010850e+000 44 33 36
2.975833e+000 -5.512076e+000 -8.010850e+000 44 33 36
8.080190e+000 -3.291034e+000 -6.918729e+000 141 130 122
5.593001e+000 -4.427647e+000 -6.512952e+000 64 62 53
1.311664e+001 -5.626130e+000 -5.285821e+000 179 166 98
2.889294e+000 -5.467790e-002 -1.360182e+001 95 85 76
-3.061198e+000 5.447169e-001 -5.401139e+000 174 180 106
-3.061198e+000 5.447169e-001 -5.401139e+000 174 180 106
-2.673279e+000 8.481135e-001 -4.722521e+000 173 175 109
-1.173541e-001 -3.167732e-001 -1.023512e+001 69 32 26
2.859951e-001 -3.850133e-001 -1.019289e+001 97 49 39
4.961340e+000 1.107689e+000 -8.447485e+000 54 42 29
-3.772042e+000 -6.895786e-001 -4.970816e+000 209 216 167
5.392868e+000 1.090771e-001 -7.120925e+000 71 50 49
4.036834e+000 -3.874669e-001 -6.885865e+000 42 26 28
-2.920118e+000 -1.599374e+000 -4.465266e+000 74 90 107
-2.506834e+000 -1.925846e+000 -4.236172e+000 74 83 91
-2.568850e-001 -5.361607e+000 -1.012303e+001 28 19 20
8.457833e-001 -3.549352e+000 -6.922466e+000 102 108 113
6.677297e-001 -5.690889e+000 -7.407540e+000 131 133 145
2.026196e+000 -5.718382e+000 -7.745143e+000 52 35 37
5.372053e+000 -3.946728e+000 -6.817944e+000 102 60 53
-2.060216e+000 -4.506997e+000 -3.631769e+000 56 70 83
3.151376e+000 -6.414600e+000 -8.493488e+000 147 126 67
3.409366e+000 -6.534118e+000 -7.114521e+000 57 40 41
5.634766e+000 -6.657069e+000 -6.192022e+000 167 126 110
1.208326e+001 -7.373943e+000 -7.825251e+000 178 148 93
3.009516e+000 4.504210e-001 -1.553973e+001 151 127 79
-3.470491e+000 5.463037e-001 -7.369941e+000 60 71 76
5.193165e+000 1.245422e+000 -7.702859e+000 155 99 68
6.314902e+000 1.788120e+000 -6.659237e+000 132 128 125
7.475874e+000 1.618129e+000 -8.018550e+000 82 67 44
7.475874e+000 1.618129e+000 -8.018550e+000 82 67 44
-1.484559e-001 -1.499497e+000 -6.882660e+000 96 78 64
3.474669e+000 -8.203172e-001 -6.710280e+000 49 35 33
-1.779050e-001 -5.457910e+000 -9.761272e+000 26 16 17
5.318995e+000 -2.263081e+000 -7.118880e+000 118 64 61
-4.369754e-002 -4.413256e+000 -6.588460e+000 124 87 61
1.647938e+000 -3.699282e+000 -6.486921e+000 136 125 108
7.697438e-001 -6.075393e+000 -7.434901e+000 34 32 31
1.196862e+001 -4.212283e+000 -8.188610e+000 126 69 49
1.107402e+001 -5.316816e+000 -7.830806e+000 48 40 38
8.812963e+000 -6.028151e+000 -6.865186e+000 140 132 127
1.193293e+001 -6.402785e+000 -7.944791e+000 74 57 49
3.947076e+000 9.146610e-001 -1.292312e+001 62 40 27
7.781819e-002 -4.558977e-001 -1.086102e+001 96 89 71
8.924036e+000 1.248349e+000 -1.268374e+001 66 60 38
-2.306800e+000 7.272125e-001 -4.520778e+000 67 77 86
1.848769e+000 -5.022654e-001 -1.013599e+001 98 84 71
4.603295e+000 4.796174e-001 -7.872173e+000 45 50 61
-2.953354e+000 -3.995063e-001 -4.576361e+000 80 92 99
1.524858e+000 -2.860930e+000 -6.388783e+000 141 110 64
1.173081e+001 -1.264025e+000 -8.417839e+000 129 71 57
9.648108e-001 -4.321304e+000 -6.791286e+000 132 103 65
1.235726e+001 -2.887158e+000 -8.265243e+000 144 121 79
5.710034e-001 -6.553453e+000 -7.568511e+000 141 116 73
5.255615e+000 -5.100754e+000 -6.873676e+000 118 114 126
5.333511e+000 -6.920527e+000 -6.686732e+000 164 150 87
6.783096e+000 -6.626668e+000 -6.148881e+000 143 63 64
2.825663e+000 -6.092739e-002 -1.451809e+001 51 39 31
1.119012e+001 1.752041e+000 -1.398760e+001 109 91 53
-2.341318e+000 9.062073e-001 -4.641464e+000 55 49 44
3.401285e+000 -2.603961e-001 -1.364488e+001 40 29 28
4.868764e+000 1.201941e+000 -9.225847e+000 100 87 68
5.273405e+000 1.509046e+000 -8.156471e+000 62 43 30
5.118571e+000 1.273100e+000 -8.364654e+000 157 143 82
4.286585e+000 4.427465e-001 -9.214899e+000 94 76 70
-1.913154e-001 -1.266969e+000 -7.244004e+000 92 77 63
-2.037648e+000 -1.018846e+000 -4.298841e+000 64 46 46
4.871225e-001 -1.578362e+000 -6.688412e+000 30 25 27
3.072781e+000 -1.369474e+000 -7.963940e+000 32 22 23
6.467963e+000 -8.690225e-001 -6.763753e+000 135 60 62
1.096103e+001 -1.603361e+000 -8.366283e+000 45 32 35
1.096103e+001 -1.603361e+000 -8.366283e+000 45 32 35
6.065693e-001 -5.885861e+000 -7.453310e+000 133 133 143
2.335199e+000 -6.018619e+000 -8.075577e+000 135 131 153
4.928071e+000 -5.015898e+000 -7.391703e+000 85 83 84
5.221356e+000 -4.832829e+000 -6.856853e+000 47 32 32
3.155378e+000 -6.391881e+000 -6.749066e+000 148 133 75
1.164898e+001 -7.397748e+000 -7.566475e+000 185 161 99
5.147823e+000 9.920937e-001 -1.292228e+001 131 119 77
3.831525e+000 4.057012e-001 -1.211587e+001 83 48 34
4.304294e+000 9.406577e-001 -1.090015e+001 124 110 63
4.304294e+000 9.406577e-001 -1.090015e+001 124 110 63
-2.555716e+000 7.040977e-001 -4.644835e+000 55 49 49
-1.467511e+000 5.619428e-001 -5.047616e+000 32 66 95
9.426290e+000 3.976975e-001 -8.012474e+000 138 131 124
7.740767e-001 -1.647152e+000 -6.618779e+000 94 84 69
-1.441811e+000 -1.488495e+000 -4.744364e+000 26 21 25
-1.390719e+000 -2.355324e+000 -4.648525e+000 29 23 30
1.499788e+000 -2.865067e+000 -6.339807e+000 142 114 70
1.499788e+000 -2.865067e+000 -6.339807e+000 142 114 70
-1.347254e+000 -3.218884e+000 -4.547348e+000 27 26 28
3.313560e-001 -4.206402e+000 -6.816586e+000 38 25 24
3.266440e+000 -5.236165e+000 -8.293454e+000 122 101 75
-1.293831e+000 -4.056642e+000 -4.409452e+000 28 20 25
3.307355e+000 -6.034393e+000 -8.622070e+000 25 22 23
-2.526701e+000 -5.341865e+000 -3.961345e+000 67 75 90
1.100003e+001 -4.804499e+000 -7.756389e+000 133 67 53
2.493165e+000 -4.303843e-001 -1.402954e+001 40 28 28
5.741671e+000 1.455905e+000 -9.870937e+000 128 112 78
5.357427e+000 1.297203e+000 -7.284988e+000 164 180 180
6.479789e+000 1.466887e+000 -7.874270e+000 114 71 61
-2.379664e+000 6.447968e-002 -4.194834e+000 200 116 129
-1.513885e+000 2.441969e-001 -4.941928e+000 32 26 31
7.915860e+000 1.461320e+000 -7.876972e+000 84 60 44
-2.343263e+000 -1.020744e+000 -4.065777e+000 205 118 130
-1.380841e+000 -1.913456e+000 -4.687056e+000 44 73 103
-1.380841e+000 -1.913456e+000 -4.687056e+000 44 73 103
-2.621658e+000 -2.884012e+000 -4.225213e+000 60 75 85
1.104563e+000 -3.003494e+000 -6.290441e+000 153 119 92
1.104563e+000 -3.003494e+000 -6.290441e+000 153 119 92
3.501880e+000 -4.151406e+000 -7.683507e+000 40 30 31
4.089898e+000 -4.802972e+000 -7.972153e+000 90 88 86
2.731188e+000 -6.135829e+000 -8.185256e+000 39 32 35
4.687048e+000 -5.284205e+000 -7.038461e+000 37 32 36
5.066158e+000 -5.371071e+000 -6.884597e+000 118 115 125
1.250092e+001 -4.345719e+000 -8.066369e+000 152 126 78
5.962212e+000 1.315155e+000 -8.018632e+000 56 39 30
-4.644784e-001 1.062181e-001 -6.019419e+000 126 103 89
3.810199e+000 4.810559e-001 -8.175208e+000 52 38 37
5.179760e+000 4.915995e-001 -8.297142e+000 62 41 35
3.014332e+000 -4.157281e-001 -7.667931e+000 38 28 29
9.194120e+000 1.171223e+000 -7.889084e+000 131 126 120
-2.615959e+000 1.134421e+000 -4.860972e+000 179 177 100
-2.631307e+000 7.241416e-002 -4.434468e+000 202 118 125
2.463488e+000 -1.179269e+000 -7.655593e+000 84 69 62
3.876769e+000 -7.938329e-001 -6.908848e+000 138 54 79
1.107915e+001 -2.271374e+000 -8.241340e+000 141 78 63
5.161929e+000 -6.033364e+000 -6.579627e+000 55 38 37
1.039543e+001 -2.746831e+000 -8.107472e+000 42 35 35
1.051939e+001 -6.839010e+000 -7.623878e+000 42 41 36
-1.734251e-001 -6.509054e+000 -6.492821e+000 21 19 23
3.310435e-001 -5.534275e+000 -7.202982e+000 82 82 90
1.111412e+001 -5.585691e+000 -7.882534e+000 134 78 60
-1.253456e+000 -3.129914e+000 -6.422971e+000 45 75 110
1.000666e+001 1.758533e+000 -7.898243e+000 53 33 23
-5.742958e+001 -1.561572e+001 -1.039897e+002 141 124 92
-4.814656e+001 -2.932980e+001 -1.094831e+002 134 118 92
-4.842266e+001 -2.276368e+001 -1.103913e+002 148 156 159
-4.308276e+001 -2.635848e+001 -1.148441e+002 27 100 153
8.843681e-001 -4.652716e+000 -7.289189e+000 147 113 77
5.482625e+000 -6.154714e+000 -6.556266e+000 81 37 25
5.966795e+000 1.511568e+000 -6.876419e+000 151 68 62
5.498803e+000 3.245558e-001 -7.407686e+000 70 50 41
-6.823583e-001 -5.322752e+000 -6.935499e+000 107 89 77
7.041762e+000 -7.852014e+000 -6.818712e+000 201 151 76
-6.642474e-001 -5.541675e+000 -6.978054e+000 107 58 53
-1.462659e+000 -4.697555e+000 -6.618131e+000 25 15 19
6.406368e-001 -4.651005e+000 -7.221448e+000 139 113 87
1.788689e+000 -3.532937e+000 -5.995392e+000 48 31 26
1.788689e+000 -3.532937e+000 -5.995392e+000 48 31 26
8.192043e-001 -5.367921e+000 -7.334144e+000 143 56 55
-4.767158e+001 -5.496513e+001 -1.090438e+002 114 110 107
-4.837261e+001 -5.729853e+001 -1.129428e+002 146 134 136
-4.709760e+001 -5.148198e+001 -1.092829e+002 147 120 125
-4.373694e+001 -5.364236e+001 -1.110876e+002 145 122 120
-4.661993e+001 -5.738267e+001 -1.097534e+002 148 132 132
-4.723916e+001 -6.050147e+001 -1.148417e+002 134 93 118
-4.333613e+001 -5.748182e+001 -1.082168e+002 155 137 151
2.032306e-001 -5.985500e+000 -7.406358e+000 50 40 38
2.159223e-001 -5.976589e+000 -7.367666e+000 50 40 38
-5.367437e+001 -5.078698e+001 -1.086704e+002 167 143 117
-5.251798e+001 -5.238618e+001 -1.065935e+002 161 146 138
-4.296442e+001 -5.505833e+001 -1.105437e+002 168 156 84
-3.719342e+001 -3.245180e+001 -1.137837e+002 154 151 160
-3.719342e+001 -3.245180e+001 -1.137837e+002 154 151 160
-4.580652e+001 -5.114921e+001 -1.096403e+002 106 45 70
-5.759420e+001 -5.452431e+001 -1.049093e+002 139 165 180
-5.759420e+001 -5.452431e+001 -1.049093e+002 139 165 180
-4.579557e+001 -5.548774e+001 -1.128884e+002 172 163 65
-5.501903e+001 -5.338001e+001 -1.064102e+002 58 117 163
-5.501903e+001 -5.338001e+001 -1.064102e+002 58 117 163
-5.269124e+001 -5.339081e+001 -1.092666e+002 155 123 102
3.587738e-001 -1.547299e+000 -6.415684e+000 96 82 69
8.307736e+000 -6.449626e-001 -7.010926e+000 147 124 103
7.191859e-001 -4.365533e+000 -7.332141e+000 46 25 18
6.345748e+000 1.682045e+000 -6.813593e+000 154 127 106
1.201692e+000 -2.928588e+000 -6.528038e+000 140 77 42
5.316212e+000 -2.284422e+000 -5.699290e+000 155 162 166
9.781123e+000 -3.507887e+000 -7.695650e+000 158 138 126
-5.385569e-001 -5.641553e+000 -7.008433e+000 126 90 73
3.420098e-001 -6.821193e+000 -7.651093e+000 158 119 70
9.246968e+000 4.744199e-001 -7.540448e+000 145 128 106
-4.453743e+001 -5.231692e+001 -1.099860e+002 156 142 142
-5.295243e+001 -5.698681e+001 -1.096450e+002 151 114 95
4.920661e+000 -7.570007e+000 -8.542960e+000 102 77 47
-4.465716e+001 -5.743441e+001 -1.047491e+002 146 120 121
-4.481152e+001 -6.050400e+001 -1.089194e+002 111 54 86
-5.205680e+001 -6.340388e+001 -1.072207e+002 120 108 85
7.625384e+000 1.618588e+000 -7.128859e+000 95 60 41
-5.330223e+001 -6.467197e+001 -1.051882e+002 42 32 30
-5.722856e+001 -6.606989e+001 -1.041021e+002 136 120 94
-5.193803e+001 -5.251577e+001 -1.074778e+002 166 135 117
5.664660e+000 -3.778509e+000 -3.390010e+000 144 116 105
8.230355e-001 -1.404060e+000 -7.338414e+000 119 64 61
6.424239e+000 -1.010918e+000 -6.787004e+000 143 51 53
3.162717e+000 -3.994826e+000 -7.479940e+000 133 95 61
-1.082696e+000 -5.590912e+000 -5.828807e+000 50 72 87
-9.889107e-001 -7.458156e+000 -6.421832e+000 21 19 27
4.985761e+000 1.544190e+000 -8.039882e+000 161 140 76
8.495875e+000 -1.105455e+000 -7.528380e+000 149 74 50
2.026598e+000 -3.511097e-001 6.293275e+000 149 67 57
1.175631e+001 -7.016500e+000 -8.802343e+000 58 39 35
1.175631e+001 -7.016500e+000 -8.802343e+000 58 39 35
1.074957e+001 -7.280113e+000 -7.360556e+000 147 72 49
4.688943e+000 -9.182381e-001 -7.009148e+000 125 113 115
4.371980e+000 -4.933928e-001 -6.942110e+000 36 25 25
-3.425070e+000 -1.243323e+000 -4.823759e+000 220 222 167
8.265857e-001 -4.499822e+000 -7.265427e+000 133 75 51
6.553596e+000 -3.433103e+000 -7.303780e+000 140 57 57
6.843068e-001 -4.974316e+000 -7.475513e+000 130 122 120
1.535007e+000 -5.309935e+000 -7.565732e+000 138 133 134
1.059855e+001 -7.273391e+000 -7.459760e+000 147 77 56
1.796280e+000 -1.157573e+000 -8.221565e+000 70 50 46
2.888605e-001 -1.382690e+000 -6.228597e+000 33 23 21
3.378222e+000 -6.964390e+000 -7.640269e+000 163 132 67
1.202314e+001 -5.857003e+000 -7.954262e+000 128 74 53
8.209325e+000 -3.139341e+000 -6.878962e+000 144 129 117
1.100834e+001 -4.248390e+000 -7.659459e+000 137 68 52
3.369243e+000 -6.786337e+000 -7.691970e+000 55 40 35
1.106633e+001 -5.257385e+000 -7.740475e+000 51 36 30
1.005695e+001 -7.467997e+000 -7.176861e+000 190 156 92
1.055456e+001 1.131727e+000 -8.090297e+000 139 68 50
3.529539e+000 -6.767716e+000 -8.023129e+000 71 32 31
4.177382e+000 -5.200665e+000 -6.517162e+000 134 49 70
1.026746e+001 2.116975e+000 -8.909382e+000 128 105 55
5.592142e+000 3.872570e-001 -5.213804e+000 139 59 54
1.738159e+001 2.522677e+000 -1.966551e+001 60 34 26
5.807741e-001 -1.518947e+000 -6.942558e+000 96 89 73
8.326368e-001 -1.387618e+000 -7.357738e+000 109 73 71
-1.488561e+000 -5.865818e+000 -9.733664e+000 23 49 74
-1.438751e+000 -5.799342e+000 -9.790883e+000 47 81 108
3.414895e-001 -6.148031e+000 -7.157041e+000 135 114 81
5.454148e+000 -4.796449e+000 -6.694195e+000 135 106 100
9.429583e+000 5.979793e-001 -1.902132e+001 144 130 65
4.383227e+000 1.198906e+000 -9.989363e+000 47 38 22
-1.207899e+000 9.295566e-001 -3.128334e+000 34 80 106
-6.227088e-001 -1.400280e+000 -6.875762e+000 36 21 18
1.261907e+000 -4.384389e+000 -7.090916e+000 113 81 60
5.823229e+000 -2.849718e+000 -6.361164e+000 80 66 57
-1.062018e+000 -5.050747e+000 -6.712326e+000 28 24 28
9.538223e-002 -5.611120e+000 -7.139141e+000 126 126 134
6.568628e+000 -4.038993e+000 -6.081888e+000 142 61 66
5.672855e+000 -6.115556e+000 -6.324677e+000 67 59 44
-2.189894e+000 5.693809e-001 -4.011972e+000 63 81 91
8.422068e+000 -7.060975e-001 -7.424247e+000 136 77 58
1.148351e+000 -4.028875e+000 -6.717991e+000 137 138 145
8.138456e+000 -3.055447e+000 -6.757783e+000 141 132 124
5.638716e+000 -4.165022e+000 -6.269011e+000 139 157 177
5.733186e+000 -6.118359e+000 -6.356313e+000 71 63 48
-2.164016e-001 -1.545450e+000 -6.568273e+000 90 41 37
1.169168e+001 -1.488383e+000 -8.399414e+000 66 52 44
5.579339e+000 -5.737987e+000 -6.542850e+000 138 146 153
5.579339e+000 -5.737987e+000 -6.542850e+000 138 146 153
1.081195e+000 -1.697451e+000 -6.479912e+000 33 23 24
1.200844e+001 -5.821619e+000 -8.041480e+000 136 76 62
8.866856e+000 -6.944415e+000 -6.872074e+000 139 131 118
1.132119e+001 -7.058569e+000 -8.024925e+000 141 78 55
6.374247e+000 1.405305e+000 -6.994463e+000 143 62 63
9.697395e+000 -4.810376e+000 -7.450108e+000 147 136 120
1.109874e+001 -6.723012e+000 -7.939701e+000 51 41 40
1.109874e+001 -6.723012e+000 -7.939701e+000 51 41 40
1.526050e+000 -4.219642e+000 -7.118594e+000 134 131 140
-1.048322e+000 -5.338553e+000 -6.598823e+000 45 75 109
1.097381e+001 -3.445008e+000 -7.835670e+000 136 69 56
-1.547559e+000 -2.419517e+000 -8.246522e+000 42 75 109
-5.908776e-001 -1.360574e+000 -6.951071e+000 83 63 48
-6.558040e+000 -3.217168e+000 -6.458515e+000 103 88 76
-2.200576e+000 -7.274026e-001 -3.973899e+000 115 140 145
5.075224e-001 -1.605846e+000 -6.883215e+000 74 69 66
8.213467e-001 -1.869383e+000 -6.096465e+000 20 11 14
4.610998e+000 -1.187121e+000 -4.358288e+000 123 133 143
5.881319e+000 -2.545319e+000 -6.340904e+000 55 37 30
-5.134834e+000 -5.682252e+001 -6.526609e+001 13 24 29
-1.166009e+000 -1.725337e+001 -1.568495e+001 51 80 111
1.315620e+001 -5.440092e+000 -5.972570e+000 170 160 93
5.134808e+000 1.337500e+000 -1.084811e+001 130 116 87
-3.141061e+000 -2.324966e-001 -4.637518e+000 205 199 131
4.691233e+000 -1.045268e+000 -6.930398e+000 50 45 51
2.672015e+000 -1.974228e+000 -7.147947e+000 92 76 79
-5.136725e-001 -4.408768e+000 -6.129115e+000 40 21 22
9.649303e+000 -2.078886e+000 -7.712409e+000 133 126 116
5.703494e-001 -4.941323e+000 -6.732440e+000 133 132 145
3.869063e+000 -6.726248e+000 -8.412760e+000 157 135 83
3.869063e+000 -6.726248e+000 -8.412760e+000 157 135 83
1.306488e+001 -5.712579e+000 -6.092937e+000 197 188 120
-6.337733e-001 -8.831073e-001 -1.083926e+001 68 56 60
-7.885701e-001 -1.165806e+000 -1.085979e+001 26 17 22
-1.027249e+000 -1.521912e+000 -1.095104e+001 59 51 48
5.658709e+000 1.638057e+000 -6.737320e+000 65 41 39
5.427135e+000 3.475014e-001 -6.540149e+000 49 37 30
-8.743289e-001 1.110579e+000 -1.369899e+000 45 80 111
2.570667e+000 -1.441899e+000 -7.611279e+000 81 66 62
8.487318e+000 -7.378379e-001 -7.362530e+000 136 130 127
1.987006e+000 -3.580631e+000 -6.499032e+000 146 138 148
3.365618e+000 -4.466018e+000 -7.819706e+000 28 24 26
1.248156e+001 -2.339924e+000 -7.823442e+000 128 104 56
3.638899e+000 -6.645747e+000 -8.374323e+000 159 144 79
5.454687e+000 -4.705812e+000 -6.773359e+000 123 74 70
6.017280e+000 -4.034363e+000 -6.123223e+000 139 65 66
4.157748e+000 -2.875856e-001 -4.182208e-001 145 65 65
6.340177e+000 -5.487845e+000 -6.246679e+000 134 45 47
1.304678e+001 -5.601222e+000 -6.155415e+000 165 151 86
9.714129e+000 1.196154e+000 -8.572874e+000 133 130 131
-3.191943e+000 -1.491040e+000 -5.406076e+000 203 112 130
6.518202e+000 5.079248e-002 -6.824860e+000 137 133 124
4.420412e+000 -3.286431e+000 -7.498818e+000 46 34 36
3.250529e+000 -3.953419e+000 -7.575534e+000 33 26 22
5.516443e+000 -6.203895e+000 -6.620402e+000 85 52 48
5.822710e+000 -6.020511e+000 -6.182544e+000 115 102 85
1.290358e+001 -7.252172e+000 -7.390880e+000 164 133 86
5.323580e+000 -1.387690e+000 -6.855404e+000 130 129 143
5.263474e+000 -1.694834e+000 -7.070300e+000 102 60 55
1.235160e+001 -2.558639e+000 -8.379361e+000 129 109 71
6.543616e+000 -7.546936e+000 -5.966964e+000 169 152 97
1.083580e+000 -1.519925e+000 -7.296041e+000 93 78 66
3.178436e+000 -1.738161e+000 -7.993278e+000 78 63 64
3.178436e+000 -1.738161e+000 -7.993278e+000 78 63 64
6.488017e+000 -2.738201e+000 -6.531481e+000 142 129 125
6.496710e+000 -4.776312e+000 -5.992918e+000 128 118 108
1.106679e+001 -5.320557e+000 -7.833705e+000 53 41 41
1.106982e+001 -4.181222e+000 -7.992780e+000 49 43 38
1.055826e+001 -1.006348e+000 -7.973493e+000 137 71 53
1.234094e+001 -4.199660e+000 -7.781404e+000 153 131 81
-3.057225e+000 4.335396e-001 -4.816071e+000 91 100 95
4.383703e+000 -1.577528e+000 -6.711946e+000 33 28 32
1.021655e+001 -3.918752e-001 -8.208647e+000 38 33 30
1.314744e+000 -1.688481e+000 -6.798487e+000 49 30 26
8.544048e+000 -6.025902e+000 -6.810042e+000 133 87 59
4.812833e+000 1.508436e+000 -8.354461e+000 130 120 92
4.524605e+000 1.227045e+000 -9.441404e+000 112 105 77
5.278522e+000 7.571668e-001 -6.949375e+000 170 115 85
5.229419e+000 2.382384e-001 -7.089890e+000 128 112 95
1.795036e+000 -7.244334e-001 -8.424897e+000 110 99 81
1.795036e+000 -7.244334e-001 -8.424897e+000 110 99 81
3.178440e+000 -7.463261e-001 -9.705222e+000 88 37 44
5.414291e+000 -5.495144e-001 -6.804402e+000 71 56 40
9.878144e+000 -1.400982e-001 -6.535664e+000 111 93 51
-1.848748e+000 -1.166119e+000 -4.171458e+000 77 47 33
1.146819e+000 -1.176952e+000 -8.141545e+000 120 107 109
5.431818e+000 -9.261317e-001 -6.554863e+000 120 119 88
5.479101e+000 -1.260808e+000 -6.486501e+000 78 70 52
-7.705310e+000 -3.169045e+000 -6.810067e+000 132 128 135
-7.733934e+000 -3.354278e+000 -6.811416e+000 114 98 98
-6.558925e+000 -3.204791e+000 -6.645246e+000 121 111 109
-1.985919e+000 -2.750232e+000 -4.088056e+000 69 86 87
5.337989e+000 -3.316769e+000 -7.009724e+000 102 95 90
7.013815e-001 -4.282207e+000 -6.847826e+000 96 59 40
-3.796822e-001 -5.360689e+000 -6.976115e+000 87 75 58
5.662826e+000 -6.610934e+000 -6.213864e+000 160 180 168
4.941224e+000 1.537537e+000 -8.153192e+000 116 109 83
1.043630e+001 1.812084e+000 -8.354832e+000 99 52 28
-1.876670e+000 4.299343e-001 -4.317962e+000 68 47 30
5.396907e+000 3.144270e-001 -6.636819e+000 79 70 61
1.495332e+000 -4.741747e-001 -8.886740e+000 116 101 78
5.611156e+000 -1.970791e-001 -8.564660e+000 89 56 43
6.122084e-001 -1.063775e+000 -8.086716e+000 46 26 27
1.079045e+000 -1.047003e+000 -8.225123e+000 89 55 51
-1.879805e-001 -1.504199e+000 -6.897311e+000 102 94 90
7.688467e-001 -1.376570e+000 -7.496152e+000 108 53 58
7.603740e-001 -1.461246e+000 -7.268445e+000 107 46 53
1.956462e+000 -1.327534e+000 -7.926702e+000 111 104 98
3.097824e+000 -1.680518e+000 -7.439256e+000 42 21 23
-1.686272e+000 -3.089038e+000 -4.224622e+000 84 65 52
1.835810e+000 -3.468548e+000 -6.917111e+000 81 49 26
-1.810744e+000 -3.111716e+000 -3.997679e+000 85 58 38
1.226341e+000 -4.858839e+000 -7.278241e+000 29 20 21
1.220668e+000 -4.850186e+000 -7.257288e+000 29 20 21
-2.928754e+000 -4.655840e+000 -4.529548e+000 193 111 154
-2.776498e+000 -4.588997e+000 -4.472793e+000 65 77 85
-1.788022e+000 -4.324006e+000 -3.872856e+000 68 52 27
7.071347e-001 -5.340262e+000 -7.324100e+000 99 90 79
9.153953e-001 -5.735331e+000 -7.501518e+000 98 92 73
2.548301e+000 -5.863560e+000 -8.225538e+000 85 77 64
-2.770262e+000 -5.652510e+000 -4.437265e+000 73 76 96
-2.716907e+000 -5.560879e+000 -4.368441e+000 201 179 108
-1.817285e+000 -5.050186e+000 -3.807349e+000 182 138 103
-1.700491e+000 -5.453326e+000 -3.966129e+000 61 39 26
5.211431e+000 -6.181753e+000 -6.553531e+000 45 33 22
5.188773e+000 -6.252655e+000 -6.388180e+000 62 46 31
5.542835e+000 -6.568835e+000 -6.531284e+000 157 129 112
-1.676604e+000 -6.212018e+000 -3.428114e+000 82 50 30
-1.674782e+000 -6.661185e+000 -3.616126e+000 101 78 54
5.336562e+000 1.036238e+000 -6.719390e+000 183 127 92
5.212754e+000 7.389681e-001 -7.159596e+000 167 113 86
-2.909769e+000 -6.266050e-001 -4.911259e+000 202 109 153
1.719375e+000 -6.598935e-001 -8.518341e+000 129 124 112
5.365448e-001 -1.121801e+000 -8.124119e+000 125 119 115
1.013478e+000 -1.117728e+000 -8.116141e+000 32 28 31
3.710442e+000 -9.998076e-001 -9.111407e+000 106 107 106
5.490525e+000 -6.796306e-001 -6.465067e+000 147 142 103
5.506859e+000 -8.022834e-001 -6.490389e+000 137 131 95
7.952782e+000 -7.518709e-001 -7.142059e+000 104 96 59
1.359084e+000 -1.424534e+000 -7.574343e+000 30 23 24
9.234607e+000 -7.957054e-001 -6.696920e+000 230 253 242
5.592986e+000 -1.276151e+000 -6.374522e+000 100 39 31
-6.904045e+000 -2.961203e+000 -7.367903e+000 107 97 97
-7.721307e+000 -3.241392e+000 -6.757548e+000 35 30 37
1.407165e+000 -3.512625e+000 -6.813356e+000 77 54 38
2.859188e+000 -3.718991e+000 -7.358811e+000 75 66 55
-1.859756e+000 -3.552841e+000 -3.970565e+000 187 135 110
5.678824e+000 -4.059719e+000 -6.046815e+000 51 36 26
5.955513e+000 -4.064364e+000 -6.151287e+000 33 22 18
-3.518113e+000 -4.454203e+000 -4.990244e+000 200 227 208
5.667015e+000 -4.714977e+000 -6.084385e+000 131 124 98
-3.268584e-001 -5.578807e+000 -7.081665e+000 85 77 60
-1.914070e-001 -6.294076e+000 -7.429199e+000 44 37 32
1.093834e+000 -6.144369e+000 -7.789924e+000 98 92 69
8.792526e-001 -6.306374e+000 -7.866447e+000 101 93 75
8.710203e-001 -6.337695e+000 -7.908870e+000 101 93 75
5.567938e+000 -5.873478e+000 -6.559087e+000 134 84 66
-2.833868e+000 -5.646133e+000 -4.406741e+000 199 237 224
5.707784e+000 -5.834340e+000 -5.891416e+000 124 119 90
5.565893e+000 -7.567929e+000 -7.552135e+000 134 105 55
1.458703e+000 -6.012566e-001 -8.708579e+000 146 140 133
9.529678e+000 -7.160472e-002 -7.722892e+000 37 33 25
3.835754e-001 -1.036489e+000 -8.136600e+000 36 30 34
2.911046e+000 -8.964566e-001 -9.292782e+000 38 29 32
1.884682e+000 -1.379869e+000 -7.775865e+000 28 23 24
5.531904e+000 -1.342243e+000 -6.417089e+000 127 118 93
9.268031e+000 -1.009245e+000 -6.622489e+000 99 93 78
5.344250e+000 -1.644087e+000 -6.994054e+000 114 73 58
-1.781707e+000 -2.959672e+000 -4.032710e+000 71 50 34
5.938407e+000 -3.671110e+000 -6.218151e+000 42 30 22
-3.874745e+000 -4.358807e+000 -5.235136e+000 197 221 205
4.038979e+000 -4.516339e+000 -8.076624e+000 28 19 19
-5.981116e-001 -5.136476e+000 -6.816871e+000 84 75 57
9.855582e-001 -6.414013e+000 -7.850386e+000 43 34 34
5.554657e+000 -5.715444e+000 -6.676265e+000 133 85 65
6.565301e+000 -7.272489e+000 -6.003537e+000 115 58 45
4.735236e+000 2.619989e-001 -7.348857e+000 42 38 39
4.734673e+000 2.664452e-001 -7.336132e+000 42 38 39
5.481646e+000 -2.865576e-001 -6.570483e+000 133 129 91
5.262009e+000 -6.538949e-001 -7.095971e+000 93 60 41
5.259142e+000 -8.994971e-001 -7.059125e+000 102 66 47
5.369156e+000 -2.138953e+000 -6.942089e+000 110 84 63
-6.744447e+000 -3.164969e+000 -7.383280e+000 96 86 84
-3.056972e+000 -4.263992e+000 -4.697859e+000 170 181 159
5.485493e+000 -5.205262e+000 -6.681855e+000 116 77 61
-2.820208e-001 -6.275101e+000 -7.254925e+000 139 143 154
5.667296e+000 -5.124227e+000 -6.069702e+000 122 113 84
-7.529412e+000 -3.282409e+000 -6.850132e+000 35 24 26
-7.529412e+000 -3.282409e+000 -6.850132e+000 35 24 26
-7.040966e+000 -3.554558e+000 -6.687745e+000 32 22 24
-5.990184e+000 -3.802754e+000 -6.675851e+000 197 215 205
2.353726e+000 -3.693537e+000 -6.939265e+000 35 21 16
3.998630e+000 -4.702098e+000 -8.143040e+000 67 52 45
1.421491e+000 -5.476605e+000 -7.611842e+000 36 29 23
-1.676012e+000 -7.060476e+000 -8.255054e+000 102 107 107
-1.228382e-001 -6.397594e+000 -7.464705e+000 32 29 26
5.457014e+000 -5.992643e+000 -6.624357e+000 45 29 13
5.210422e+000 1.329936e+000 -7.279491e+000 174 125 85
1.403489e+000 -1.235165e+000 -8.029368e+000 115 107 111
-5.681397e+000 -3.160498e+000 -6.557303e+000 200 103 148
2.813882e+000 -3.281577e+000 -7.175409e+000 86 80 64
2.811420e+000 -3.278425e+000 -7.158618e+000 86 80 64
3.244774e+000 -3.538114e+000 -7.346429e+000 88 78 66
1.757804e+000 -3.659897e+000 -6.828704e+000 31 18 16
2.939717e+000 -3.557099e+000 -7.322280e+000 26 16 19
-2.858568e+000 -3.666601e+000 -4.571017e+000 207 113 151
3.434304e+000 -4.464815e+000 -7.893812e+000 27 18 21
-3.325288e+000 -4.461150e+000 -4.862669e+000 204 227 211
5.352598e+000 1.216338e+000 -6.838619e+000 174 207 213
3.530419e+000 -1.951930e+000 -7.379381e+000 40 24 16
3.446917e+000 -3.046643e+000 -7.286514e+000 31 48 56
-2.939774e+000 -4.510165e+000 -4.569124e+000 206 237 224
1.692280e+000 -5.518829e+000 -7.885976e+000 93 85 66
5.476794e+000 -6.494424e+000 -6.634948e+000 72 52 40
5.655448e+000 1.529552e+000 -6.829184e+000 63 44 30
5.364699e+000 5.531940e-001 -6.799647e+000 160 192 190
5.339807e+000 5.613631e-001 -6.711158e+000 160 192 190
5.603573e+000 5.028645e-001 -6.503284e+000 57 40 32
6.370074e+000 2.761679e-001 -6.836994e+000 98 39 31
8.228061e+000 -8.381519e-001 -7.202847e+000 106 55 36
8.214777e+000 -8.306822e-001 -7.180199e+000 106 55 36
9.399019e+000 -2.017807e+000 -7.458187e+000 104 92 62
5.673618e+000 -6.332367e+000 -6.135162e+000 159 181 179
5.989423e+000 -7.169251e+000 -5.872673e+000 60 51 32
-2.079425e+000 -8.376483e-001 -4.388461e+000 186 127 95
1.145314e+000 -9.024712e-001 -8.271973e+000 44 32 31
4.120961e+000 -2.352510e+000 -7.986094e+000 83 75 72
2.851850e+000 -2.788947e+000 -6.905460e+000 33 50 57
5.321828e+000 -6.001987e+000 -7.000825e+000 42 33 27
-2.561947e+000 -1.208731e+000 -4.579795e+000 60 77 84
-3.183218e+000 -2.874989e+000 -4.849610e+000 197 229 212
-2.552652e+000 -2.795582e+000 -4.485921e+000 68 85 89
3.624081e+000 -4.285146e+000 -7.914795e+000 26 17 20
-2.484703e+000 -4.343586e+000 -4.269626e+000 54 67 73
5.972694e+000 -3.861530e-001 -6.739910e+000 102 43 32
-3.294658e+000 -1.543289e+000 -5.070669e+000 205 239 225
2.505217e+000 -1.338134e+000 -7.808675e+000 111 104 105
3.216633e+000 -2.359054e+000 -6.929216e+000 34 20 20
1.064910e+001 -2.095169e+000 -7.509915e+000 102 38 36
-2.305761e+000 -1.979401e+000 -4.528788e+000 194 187 106
1.058445e+001 -2.832271e+000 -8.403220e+000 38 31 25
-2.250390e+000 -3.511039e+000 -4.265358e+000 186 181 100
7.283569e-001 -3.922901e+000 -6.807468e+000 63 39 27
5.519986e+000 -5.173022e+000 -6.577824e+000 131 80 64
1.036507e+001 -6.783267e+000 -7.388147e+000 44 39 35
-2.653616e-001 -9.883235e-001 -7.971661e+000 115 67 63
-2.526576e-001 -1.196210e+000 -7.613343e+000 49 29 23
-5.315385e-001 -1.591740e+000 -6.647919e+000 33 19 16
3.791002e-001 -1.850866e+000 -6.249313e+000 103 52 54
5.370328e-001 -1.854766e+000 -6.243755e+000 120 54 58
9.029077e+000 -1.177792e+000 -6.480198e+000 33 26 18
1.804025e+000 -3.521299e+000 -6.878983e+000 31 17 12
-2.873474e+000 -4.791289e+000 -4.566886e+000 192 106 145
2.306484e-001 -5.746678e+000 -7.323694e+000 28 28 18
4.871373e+000 -4.895943e+000 -6.609053e+000 92 86 73
5.600931e+000 -6.693237e+000 -6.039178e+000 141 94 64
5.690618e+000 -6.659446e+000 -6.041747e+000 158 130 103
7.869815e+000 -7.369217e+000 -6.484533e+000 111 94 48
4.673212e+000 1.279692e+000 -8.960340e+000 110 98 75
5.293336e+000 9.143496e-001 -6.854810e+000 176 124 96
1.566597e+000 -6.012974e-001 -8.622804e+000 124 107 76
5.475628e+000 -1.785650e-001 -6.526669e+000 136 134 99
5.516725e+000 -5.254086e-001 -6.570167e+000 136 135 99
9.470292e+000 -1.791362e-001 -7.679041e+000 46 37 27
1.931115e+000 -1.500097e+000 -7.566013e+000 107 46 41
-2.676185e-001 -1.835566e+000 -6.378506e+000 61 45 32
-1.682286e+000 -2.821729e+000 -4.169705e+000 72 57 42
1.347491e+000 -3.719898e+000 -6.424674e+000 103 95 74
3.441703e+000 -4.650109e+000 -7.954074e+000 59 37 31
-1.267525e-002 -6.484873e+000 -7.499703e+000 96 54 47
-1.702869e+000 -5.467218e+000 -3.951961e+000 55 37 30
6.163841e+000 1.390907e+000 -6.729559e+000 105 89 64
1.221717e+000 -1.106802e+000 -8.179944e+000 27 17 24
7.633035e-001 -1.872923e+000 -6.329267e+000 115 47 44
-2.910329e+000 -2.449858e+000 -4.773450e+000 186 105 148
3.129446e+000 -3.257604e+000 -7.326923e+000 37 53 60
5.354680e+000 -4.910319e+000 -6.853693e+000 99 83 67
-8.917850e-002 -6.281060e+000 -7.469318e+000 96 86 74
5.119812e+000 -6.381239e+000 -6.837663e+000 51 50 47
6.032900e+000 -5.999387e+000 -5.940813e+000 49 29 15
-1.790958e+000 -6.437554e+000 -3.562554e+000 187 133 99
-1.747363e+000 -7.066762e+000 -3.654137e+000 159 150 119
5.732643e+000 4.136455e-001 -6.529154e+000 36 26 19
5.713967e+000 4.256271e-001 -6.473643e+000 36 26 19
-1.304006e+000 -1.149191e+000 -4.718911e+000 25 17 18
5.375057e+000 -8.689064e-001 -6.867627e+000 143 155 157
4.367200e-001 -1.657871e+000 -6.700885e+000 31 29 35
9.184921e-001 -1.725108e+000 -6.559853e+000 119 115 114
5.395772e+000 -1.387863e+000 -6.810485e+000 137 148 144
5.377970e+000 -2.378087e+000 -6.885398e+000 107 71 49
-1.636928e+000 -3.040448e+000 -4.313150e+000 32 27 29
-1.636928e+000 -3.040448e+000 -4.313150e+000 32 27 29
-1.571207e+000 -3.096105e+000 -4.048496e+000 30 25 26
1.927645e+000 -3.695282e+000 -6.608355e+000 99 84 58
6.816319e+000 -3.131749e+000 -6.637003e+000 112 98 71
5.739478e+000 -4.488994e+000 -5.989202e+000 107 44 39
5.505330e+000 -5.223567e+000 -6.726044e+000 112 82 56
-3.732808e-001 -6.178664e+000 -7.342956e+000 101 78 47
8.881598e-001 -6.271682e+000 -7.815415e+000 102 93 76
5.570398e+000 -5.175102e+000 -6.500058e+000 140 156 146
-2.654946e+000 -5.500659e+000 -4.261091e+000 194 182 109
1.260922e+001 -7.556978e+000 -8.340914e+000 119 99 64
1.261990e+001 -7.184843e+000 -7.973939e+000 128 106 57
2.750645e+000 -1.749730e+000 -7.199816e+000 113 101 103
2.750645e+000 -1.749730e+000 -7.199816e+000 113 101 103
6.496346e+000 -1.635450e+000 -6.541791e+000 113 95 65
1.765292e+000 -3.428722e+000 -6.932053e+000 93 57 41
1.765292e+000 -3.428722e+000 -6.932053e+000 93 57 41
2.620254e+000 -4.067819e+000 -7.004240e+000 97 87 65
6.502332e+000 -3.676887e+000 -6.336635e+000 113 98 68
9.590632e+000 -2.402339e+000 -7.613273e+000 106 90 65
-2.702780e+000 -3.844412e+000 -4.501203e+000 196 184 112
5.347495e-001 -6.189071e+000 -7.723064e+000 101 92 75
7.889233e+000 1.309671e+000 -7.420659e+000 106 91 62
-2.924740e+000 -5.401179e+000 -4.488348e+000 200 110 148
-2.684776e+000 -5.019607e+000 -4.475468e+000 193 185 110
5.107845e+000 6.828809e-001 -7.486061e+000 67 47 37
5.349380e+000 -2.518831e-001 -6.723953e+000 73 60 44
5.359545e+000 -2.478010e-001 -6.743521e+000 73 60 44
-2.920579e+000 9.296159e-002 -5.152079e+000 32 29 29
5.227608e+000 5.144115e-001 -7.074108e+000 149 142 129
-3.789075e+000 -7.303176e-001 -5.662370e+000 52 51 43
1.782711e+000 -6.110818e-001 -8.798946e+000 109 100 80
1.796315e+000 -4.218318e-001 -7.700233e+000 107 99 82
-8.349026e-001 -1.060484e+000 -7.648823e+000 91 58 49
5.138364e+000 -3.630985e-001 -7.097372e+000 46 37 32
1.350732e+000 -1.273235e+000 -7.686001e+000 95 69 65
4.929150e-001 -1.615910e+000 -6.902480e+000 102 100 103
5.450502e+000 -1.752083e+000 -5.918280e+000 66 53 34
-5.889217e+000 -4.033497e+000 -6.668912e+000 199 130 162
3.170189e+000 -2.929053e+000 -7.160414e+000 13 19 22
3.170189e+000 -2.929053e+000 -7.160414e+000 13 19 22
2.066662e+000 -3.686337e+000 -6.654565e+000 35 21 14
2.140502e+000 -3.694710e+000 -6.665147e+000 101 90 70
5.468431e+000 -4.228863e+000 -6.557640e+000 117 91 73
8.470626e-001 -5.601803e+000 -7.600382e+000 78 94 93
5.452141e+000 -4.964450e+000 -6.883884e+000 64 51 40
5.447197e+000 -4.960164e+000 -6.875511e+000 64 51 40
5.537690e+000 -5.294658e+000 -6.546596e+000 119 96 74
5.388202e+000 -6.119612e+000 -6.626429e+000 76 62 51
5.562999e+000 -6.359927e+000 -6.676519e+000 72 53 39
-1.804430e+000 -7.161276e+000 -3.831771e+000 94 67 36
-1.599969e+000 -7.512710e+000 -4.216497e+000 53 46 40
-4.335128e+000 3.070941e-001 -9.655075e+000 151 199 212
-4.170688e+000 3.001228e-001 -9.247138e+000 55 99 121
-1.860582e+000 1.004467e+000 -4.449702e+000 86 74 60
3.594412e+000 9.558044e-001 -1.251385e+001 70 64 40
5.166960e+000 1.642818e+000 -6.784440e+000 176 178 94
-2.536870e+000 6.271128e-001 -4.874343e+000 94 84 54
2.696573e+000 4.055642e-001 -1.427119e+001 85 75 66
2.638570e+000 -4.949143e-002 -1.266772e+001 53 55 64
-2.958203e+000 -1.737618e-002 -5.024555e+000 189 120 153
-2.040273e+000 4.045556e-001 -4.416432e+000 66 90 99
5.272449e+000 8.107323e-001 -6.503981e+000 172 117 89
-6.310176e-001 -1.014092e+000 -7.894907e+000 97 53 50
-4.571103e-001 -1.108289e+000 -7.766292e+000 114 83 80
4.843218e-001 -1.030483e+000 -8.323577e+000 99 59 47
5.020944e-001 -9.279317e-001 -7.906573e+000 99 59 47
6.455423e-001 -1.469264e+000 -7.221274e+000 117 108 111
8.145861e+000 -5.634965e-001 -7.135719e+000 117 103 77
9.629074e+000 -2.588132e-001 -6.372563e+000 41 43 28
4.610411e+000 -1.757493e+000 -7.587440e+000 60 49 47
-6.639944e+000 -3.265104e+000 -6.774794e+000 125 116 111
-1.695260e+000 -1.801760e+000 -4.514355e+000 31 28 29
1.363006e+000 -3.079437e+000 -6.683708e+000 101 76 45
2.859184e+000 -3.100038e+000 -7.113994e+000 30 49 59
-1.827480e+000 -3.047509e+000 -4.082357e+000 79 54 38
2.593124e+000 -3.877711e+000 -7.016778e+000 44 37 19
5.857315e+000 -3.024858e+000 -5.855691e+000 99 56 49
1.215039e+000 -4.959407e+000 -7.321057e+000 93 89 74
-7.082948e-001 -5.779010e+000 -7.167821e+000 85 64 47
1.885189e+000 -5.626622e+000 -7.685608e+000 49 61 67
4.837446e+000 -5.295348e+000 -6.908618e+000 29 26 21
5.587971e+000 -4.806624e+000 -6.324185e+000 71 66 42
5.528981e+000 -5.373890e+000 -6.757650e+000 132 135 118
5.521631e+000 -5.868051e+000 -6.688315e+000 123 114 104
-2.454310e+000 -5.549391e+000 -4.255921e+000 182 134 88
-7.269585e-001 -6.161586e+000 -4.687936e+000 30 22 29
5.609621e+000 -6.631473e+000 -6.496574e+000 139 95 78
2.811696e+000 6.145061e-001 -1.471283e+001 155 116 80
4.436387e+000 1.173820e+000 -9.449707e+000 62 56 42
4.436387e+000 1.173820e+000 -9.449707e+000 62 56 42
5.157502e+000 7.312312e-001 -7.271464e+000 69 40 28
-1.520087e-001 -8.607678e-001 -8.091313e+000 92 58 52
-1.082162e+000 -4.172428e-001 -4.959140e+000 18 20 24
1.138867e+000 -1.012269e+000 -8.445196e+000 26 22 25
5.259086e+000 -2.101910e-002 -6.929638e+000 99 79 55
1.405678e+000 -1.069577e+000 -8.271031e+000 48 37 35
5.258314e+000 -2.688875e-001 -6.871377e+000 122 77 66
3.533295e+000 -8.726305e-001 -7.033076e+000 48 38 32
2.286050e-002 -1.766245e+000 -6.481822e+000 28 21 16
1.918031e+000 -1.551289e+000 -7.365352e+000 106 106 103
5.177772e+000 -1.057195e+000 -7.263043e+000 66 57 52
5.419280e+000 -8.829513e-001 -6.146411e+000 124 122 95
5.458797e+000 -1.271024e+000 -6.158673e+000 120 121 93
9.132438e+000 -7.883366e-001 -7.016750e+000 90 88 68
9.516629e+000 -1.774729e+000 -7.533674e+000 103 94 76
2.933660e+000 -3.197765e+000 -7.175399e+000 84 84 71
-7.701781e-001 -4.832087e+000 -6.884646e+000 126 134 139
1.734265e+000 -4.894167e+000 -7.227331e+000 91 85 77
1.807777e+000 -4.896471e+000 -7.378322e+000 29 24 16
1.233325e+001 -3.858737e+000 -7.969682e+000 96 86 37
1.315383e+000 -5.770947e+000 -7.517944e+000 39 39 27
2.155029e+000 -5.710507e+000 -8.023533e+000 45 57 64
-2.036068e+000 -4.530635e+000 -4.057825e+000 187 133 105
-2.038164e+000 -6.376475e+000 -4.271804e+000 60 61 64
5.445296e+000 -7.654354e+000 -7.417223e+000 92 71 45
-1.705610e+000 -7.563429e+000 -4.151078e+000 48 40 37
2.965674e+000 1.039426e+000 -1.467709e+001 176 161 102
2.798083e+000 8.359422e-001 -1.472099e+001 163 122 76
4.900174e+000 1.450556e+000 -7.792367e+000 75 65 57
5.477471e+000 -5.038678e-002 -6.579488e+000 133 132 101
-1.897805e+000 -1.012940e+000 -4.161604e+000 181 129 106
5.299575e+000 -1.040141e+000 -6.554555e+000 130 151 144
9.251061e-001 -1.715150e+000 -6.530176e+000 107 106 107
5.336237e+000 -1.358774e+000 -6.970256e+000 99 71 52
5.693472e+000 -1.120176e+000 -6.668047e+000 106 39 33
5.397300e+000 -2.844680e+000 -6.792807e+000 125 82 65
1.248051e+000 -3.801726e+000 -6.573113e+000 29 18 15
3.221721e+000 -4.165261e+000 -7.669360e+000 92 70 37
6.039511e+000 -3.459473e+000 -6.573738e+000 36 26 16
1.161088e+001 -3.965079e+000 -7.947110e+000 58 36 25
1.161088e+001 -3.965079e+000 -7.947110e+000 58 36 25
5.536046e+000 -4.957303e+000 -6.758053e+000 112 81 50
5.562514e+000 -5.487246e+000 -6.732184e+000 121 79 57
5.577286e+000 -4.925557e+000 -6.139682e+000 91 84 58
5.602902e+000 -5.445465e+000 -6.527337e+000 141 165 162
5.667492e+000 -7.489918e+000 -6.512803e+000 153 109 60
5.675718e+000 -7.510817e+000 -6.539599e+000 153 109 60
1.257327e+001 -7.306070e+000 -8.085524e+000 81 64 33
4.482102e+000 8.684416e-001 -8.797896e+000 143 102 78
2.762194e-001 -9.404774e-001 -8.449746e+000 28 25 28
4.825964e+000 -5.289296e-002 -7.173490e+000 72 67 64
3.104438e+000 -1.201837e+000 -9.136512e+000 27 17 16
3.505082e+000 -8.351781e-001 -7.360474e+000 105 101 98
3.505082e+000 -8.351781e-001 -7.360474e+000 105 101 98
9.835101e+000 2.087493e-001 -7.143263e+000 95 44 43
5.339283e+000 -6.265401e-001 -6.819349e+000 129 151 141
2.189354e+000 -1.620230e+000 -7.426534e+000 28 24 20
-7.324048e+000 -3.100893e+000 -7.334991e+000 36 27 33
-1.926131e+000 -1.513870e+000 -4.254530e+000 195 150 127
-6.120972e+000 -3.206083e+000 -6.866850e+000 173 201 196
5.356743e+000 -1.888818e+000 -6.956187e+000 110 74 57
5.416410e+000 -1.395367e+000 -6.424637e+000 60 62 52
2.673725e+000 -2.949176e+000 -7.053846e+000 38 58 69
8.471390e-001 -3.665982e+000 -7.134714e+000 59 48 46
6.624553e+000 -3.505781e+000 -6.450418e+000 111 98 74
-1.963384e+000 -4.432949e+000 -4.262521e+000 179 130 104
4.991633e+000 -5.093788e+000 -7.534601e+000 63 52 44
5.542545e+000 -5.052083e+000 -6.927890e+000 113 78 59
5.595693e+000 -4.736062e+000 -6.691251e+000 132 152 150
5.595230e+000 -4.972430e+000 -6.622733e+000 137 156 155
5.628201e+000 -5.746460e+000 -6.550931e+000 140 156 155
2.634953e+000 9.429228e-001 -1.520294e+001 186 188 131
3.011719e+000 7.166455e-001 -1.374064e+001 152 146 85
3.709539e+000 1.178099e+000 -1.227578e+001 164 160 89
5.179958e+000 1.147044e+000 -7.069049e+000 166 110 87
1.061124e+001 1.425193e+000 -8.248327e+000 42 32 22
1.061124e+001 1.425193e+000 -8.248327e+000 42 32 22
1.051972e+001 -9.670214e-001 -6.987829e+000 56 50 35
-6.066250e+000 -3.510782e+000 -6.862176e+000 179 213 212
1.934261e+000 -5.428993e+000 -7.836223e+000 28 27 23
2.952678e+000 -6.060859e+000 -8.504355e+000 78 74 63
3.835098e+000 -5.554340e+000 -6.861002e+000 38 26 18
-1.769131e+000 -5.447034e+000 -3.953288e+000 82 64 51
-2.074561e+000 -6.135364e+000 -4.019799e+000 55 64 71
-2.074561e+000 -6.135364e+000 -4.019799e+000 55 64 71
5.016674e+000 1.497679e+000 -7.560859e+000 166 162 89
4.484893e+000 6.710750e-001 -7.929931e+000 54 35 28
3.031316e+000 -8.169802e-001 -1.010193e+001 100 95 101
-2.965887e+000 -1.561809e+000 -4.762860e+000 203 245 236
1.430722e+000 -1.653967e+000 -6.881273e+000 52 39 31
1.856266e+000 -1.723682e+000 -7.264843e+000 49 35 32
9.455391e+000 -7.951290e-001 -6.545503e+000 37 30 22
1.050861e+001 -1.151076e+000 -6.954262e+000 91 76 47
2.538506e+000 -3.151621e+000 -7.014250e+000 36 23 19
9.861166e-001 -4.467674e+000 -7.068241e+000 92 72 38
-2.140613e+000 -6.157289e+000 -4.075128e+000 49 58 65
-2.140613e+000 -6.157289e+000 -4.075128e+000 49 58 65
3.421149e+000 1.111588e+000 -1.239007e+001 84 77 58
-2.972893e+000 8.511823e-002 -5.096670e+000 50 44 42
-2.972893e+000 8.511823e-002 -5.096670e+000 50 44 42
4.851525e+000 6.334315e-001 -7.741256e+000 55 103 127
2.600994e+000 -5.785319e-001 -9.242794e+000 73 42 36
4.867688e+000 -1.802626e-001 -7.342360e+000 69 63 65
5.119767e+000 -3.450803e-001 -7.170545e+000 59 53 49
-3.047366e+000 -1.211170e+000 -5.019461e+000 192 232 221
9.818699e+000 1.176354e-001 -6.604049e+000 58 56 47
3.065762e+000 -1.754420e+000 -6.666753e+000 105 46 52
5.440786e-001 -2.025697e+000 -6.256723e+000 96 41 46
2.604292e+000 -3.534970e+000 -7.144945e+000 84 81 66
6.561100e+000 -3.747838e+000 -6.338373e+000 110 97 68
3.507364e+000 -6.671418e+000 -7.883591e+000 64 34 32
-2.839157e+000 -6.165497e+000 -4.799588e+000 51 61 67
6.701233e+000 -6.120011e+000 -6.231467e+000 113 101 66
8.581654e+000 -6.089247e+000 -6.892311e+000 114 66 44
3.292715e+000 6.830988e-001 -1.294633e+001 159 147 93
5.032929e+000 1.134832e+000 -7.760401e+000 151 144 74
-2.024868e+000 2.588602e-001 -4.371718e+000 176 119 89
9.545653e+000 -1.951812e-001 -7.155114e+000 93 94 84
-2.014585e+000 -1.393503e+000 -4.293767e+000 183 126 97
5.681551e-002 -1.631136e+000 -6.736764e+000 101 97 92
9.338905e+000 -5.369967e-001 -7.072033e+000 30 25 19
2.825899e+000 -2.687263e+000 -6.653375e+000 35 54 61
1.937262e+000 -3.402816e+000 -7.579940e+000 29 19 18
8.222832e-001 -4.075501e+000 -6.895388e+000 30 20 18
-3.098745e+000 -3.881620e+000 -4.803539e+000 201 110 153
-2.030711e+000 -5.878925e+000 -4.132161e+000 182 123 91
6.053152e+000 -7.265404e+000 -6.001890e+000 57 44 28
8.886679e+000 1.266111e+000 -7.317765e+000 103 94 65
3.664522e+000 -1.843734e-002 -7.033252e+000 33 28 33
2.858220e-001 -1.178989e+000 -7.582963e+000 110 109 107
1.711263e+000 -9.960505e-001 -8.007964e+000 47 37 35
4.193955e+000 -1.013636e+000 -7.778767e+000 99 39 47
4.791568e+000 -7.143212e-001 -7.029647e+000 87 79 70
-2.065634e+000 -2.526193e+000 -4.328533e+000 185 129 96
5.609431e+000 -3.940160e+000 -6.466248e+000 144 173 177
1.584890e+000 -4.392596e-001 -7.845862e+000 119 109 92
3.301351e+000 -1.107030e+000 -9.564474e+000 29 21 18
9.903585e+000 -1.612262e-001 -6.494873e+000 100 87 52
1.277581e+000 -3.074123e+000 -6.553730e+000 91 61 33
2.009144e+000 -3.419490e+000 -6.760852e+000 33 22 20
-2.400492e+000 -3.066752e-001 -4.717243e+000 186 188 104
5.224908e+000 -7.139608e-001 -6.814165e+000 124 124 110
2.156061e+000 -2.554295e+000 -7.365250e+000 42 31 27
4.697852e+000 -6.426096e+000 -7.728257e+000 52 39 33
-1.689138e+000 -8.228044e-001 -8.320719e+000 26 43 51
5.201664e+000 1.495053e+000 -7.070617e+000 157 119 71
-5.540221e-002 -9.775917e-001 -8.159288e+000 97 64 59
-8.405564e-001 -1.163326e+000 -7.797743e+000 35 20 20
-8.405564e-001 -1.163326e+000 -7.797743e+000 35 20 20
2.277688e-001 -1.076114e+000 -8.095915e+000 95 56 47
3.509256e-001 -1.559217e+000 -6.973804e+000 24 26 27
5.178714e+000 -6.941253e-001 -6.911774e+000 76 61 52
5.378288e+000 -6.267930e-001 -6.662997e+000 53 46 30
-6.874517e+000 -3.227081e+000 -7.333591e+000 43 28 31
-3.278053e+000 -1.653586e+000 -5.098091e+000 192 235 228
-3.278053e+000 -1.653586e+000 -5.098091e+000 192 235 228
-2.905928e+000 -1.643712e+000 -4.805918e+000 191 230 227
5.435372e+000 -9.319639e-001 -6.392510e+000 84 83 55
9.810290e+000 2.648814e-002 -6.444387e+000 61 53 33
-7.239670e+000 -3.333307e+000 -7.244803e+000 76 70 70
-6.965798e+000 -3.260039e+000 -6.826379e+000 39 29 32
1.217264e+000 -2.853767e+000 -6.386161e+000 85 50 22
-2.971837e+000 -3.220503e+000 -4.938380e+000 194 235 229
1.430285e+000 -3.492237e+000 -6.798763e+000 75 53 32
1.937033e+000 -3.584364e+000 -7.057029e+000 59 49 40
2.491906e+000 -3.778217e+000 -6.827777e+000 87 78 60
-3.918487e-001 -5.005863e+000 -6.850714e+000 28 23 20
5.482145e+000 -4.533919e+000 -6.717790e+000 130 135 125
-1.833350e+000 -4.375024e+000 -3.850781e+000 175 132 99
5.647731e+000 -4.505856e+000 -6.013970e+000 117 106 81
5.584335e+000 -6.136452e+000 -6.683582e+000 129 128 111
5.714533e+000 -6.676016e+000 -5.987778e+000 155 121 97
2.688068e+000 1.069588e+000 -1.495020e+001 183 172 101
3.237963e+000 9.055376e-001 -1.325755e+001 76 68 55
4.804168e+000 1.337053e+000 -8.156095e+000 100 95 76
3.655104e+000 6.836118e-001 -8.166719e+000 139 89 100
5.128282e+000 1.225557e+000 -7.240852e+000 159 113 80
7.479506e+000 1.658858e+000 -7.247497e+000 47 31 17
-2.856335e+000 -7.548830e-001 -4.962812e+000 194 177 118
5.392357e-001 -1.106847e+000 -8.088785e+000 110 107 104
-5.162882e+000 -1.852665e+000 -6.709236e+000 79 169 216
-7.596676e-001 -1.393998e+000 -6.943253e+000 80 68 59
-2.821865e-001 -1.236742e+000 -7.525444e+000 102 91 89
-5.952575e-001 -1.627803e+000 -6.673970e+000 27 21 23
-2.409904e-001 -1.569663e+000 -6.811217e+000 30 25 18
-1.883235e+000 -1.142036e+000 -4.093101e+000 171 128 94
9.421900e+000 -6.468729e-001 -7.571378e+000 79 72 62
8.953124e+000 -5.993166e-001 -6.586871e+000 34 28 23
9.260825e+000 -6.108627e-001 -6.366462e+000 87 82 60
-7.911360e+000 -3.874449e+000 -6.944560e+000 140 113 92
1.053872e+001 -1.025065e+000 -6.936319e+000 55 42 24
-2.778486e+000 -2.273300e+000 -4.660372e+000 194 180 120
-2.896470e+000 -2.750584e+000 -4.731286e+000 188 229 219
-1.871362e+000 -2.894896e+000 -4.031594e+000 168 137 112
2.351063e+000 -3.740863e+000 -6.825321e+000 33 22 14
-3.529686e+000 -4.051138e+000 -5.008286e+000 202 248 237
-1.839882e+000 -4.253476e+000 -3.884534e+000 174 134 107
5.501513e+000 -5.070090e+000 -6.713837e+000 136 134 125
-5.166336e+000 2.122469e-001 -1.178318e+001 82 55 42
-4.731755e+000 2.049644e-001 -1.070417e+001 48 67 81
-4.160886e+000 3.079494e-001 -9.214591e+000 45 69 88
4.612419e+000 1.408279e+000 -8.909542e+000 73 68 49
