ply
format ascii 1.0
element face 0
property list uchar int vertex_indices
element vertex 881
property float x
property float y
property float z
property uchar diffuse_red
property uchar diffuse_green
property uchar diffuse_blue
end_header
5.993694e+000 2.146119e-001 -7.156460e+000 112 99 98
-7.948137e+000 -3.206922e+000 -5.772655e+000 218 215 146
3.402524e+000 -1.733889e+000 -6.772129e+000 104 81 75
6.925345e+000 -2.012746e+000 -6.327611e+000 64 41 33
6.916063e+000 -1.961860e+000 -5.969412e+000 88 60 57
7.149561e+000 -2.208154e+000 -6.329523e+000 60 35 27
1.095053e+000 -3.977326e+000 -6.023127e+000 148 135 118
7.145547e+000 -4.680622e+000 -6.026002e+000 80 63 46
6.391161e+000 -5.787780e+000 -6.776847e+000 125 107 108
-2.185319e+000 -9.463922e+000 -8.816442e+000 39 28 28
-4.499153e+000 -8.115405e+000 -3.957013e+000 204 112 113
1.514961e+001 -8.903478e+000 -8.681498e+000 145 85 58
5.499670e+000 2.387639e+000 -9.181597e+000 49 39 20
6.167350e+000 1.931009e+000 -7.039050e+000 152 147 147
9.242467e-001 -1.492355e+000 -6.328317e+000 36 23 16
9.468447e-001 -1.475575e+000 -6.310545e+000 36 23 16
5.456588e+000 -1.405298e+000 -7.661836e+000 63 48 47
4.784604e+000 1.485661e+000 1.952611e+000 142 54 53
6.777784e+000 -1.275297e+000 -6.141298e+000 58 34 29
7.068730e+000 -1.813197e+000 -6.208600e+000 61 42 34
7.178096e+000 -3.030893e+000 -6.218804e+000 63 35 34
4.422847e+000 -5.105797e+000 -8.291897e+000 29 23 24
2.490573e+001 -1.610470e+001 -4.031809e+001 139 70 42
-1.462537e+000 -6.670674e+000 -6.874947e+000 117 80 61
1.218445e+000 -6.954526e+000 -7.919224e+000 147 141 141
7.262486e+000 -4.798434e+000 -6.028561e+000 43 24 21
7.446988e+000 -8.419502e+000 -5.696683e+000 70 44 34
5.029443e+000 2.243719e+000 -1.056861e+001 56 40 25
6.470422e+000 2.853616e-001 -6.434300e+000 121 100 78
8.339520e-001 -1.447921e+000 -6.544314e+000 100 79 57
4.578838e+000 -7.340662e-001 -6.757638e+000 139 55 78
2.258076e+000 -3.990501e+000 -6.399817e+000 146 132 132
-3.153545e-001 -7.205292e+000 -7.639308e+000 38 33 37
-1.838185e+000 -7.992243e+000 -4.019405e+000 39 24 27
6.668407e+000 -7.824727e+000 -6.587380e+000 112 73 61
1.564623e+001 -8.810175e+000 -8.585370e+000 153 120 68
7.333646e+000 -9.303017e+000 -5.702901e+000 181 152 82
8.130983e+000 -9.053501e+000 -5.814397e+000 140 57 51
-5.225362e+000 1.159383e+000 -4.177580e+000 58 66 66
6.330591e+000 -4.003988e-001 -6.925194e+000 137 134 133
5.039319e+000 -2.940189e+000 -7.380312e+000 47 32 29
8.199503e+000 -3.693877e+000 -6.265100e+000 147 131 112
1.049544e+001 -3.437929e+000 -7.027479e+000 144 80 45
1.494759e+001 -4.565258e+000 -8.809229e+000 81 55 44
1.495624e+001 -4.545614e+000 -8.783330e+000 81 55 44
6.672098e+000 -5.556725e+000 -6.613917e+000 143 143 146
-4.483885e+000 -7.599895e+000 -3.882039e+000 209 114 117
1.385138e+001 -6.091459e+000 -8.012207e+000 51 36 30
3.672696e-001 -1.726588e+000 -5.687605e+000 80 72 69
6.344894e+000 -3.705228e+000 -7.643442e+000 118 110 118
1.373393e+001 -2.897109e+000 -8.341503e+000 48 37 28
-8.785154e-001 -6.140365e+000 -6.873044e+000 121 112 110
1.558789e+001 -4.075997e+000 -8.637349e+000 143 113 64
6.118552e-001 -7.334268e+000 -7.967902e+000 141 137 137
1.210398e+001 -5.423069e+000 -7.510774e+000 145 128 113
2.547237e+000 -1.235851e+000 -7.166748e+000 100 76 64
3.620922e+000 -3.833283e+000 -7.433737e+000 130 121 126
-3.938956e+000 1.669307e+000 -3.572979e+000 65 79 81
-5.468611e+000 8.745456e-001 -4.568162e+000 183 123 95
7.671008e+000 1.259178e+000 -6.658263e+000 140 59 56
1.502649e+000 -1.064500e+000 -7.283149e+000 90 71 58
1.577712e+000 -1.080317e+000 -7.461429e+000 90 71 58
8.165220e+000 -5.870155e+000 -6.288606e+000 137 120 100
-2.372489e+000 -7.391626e+000 -3.894616e+000 28 22 22
1.368147e+001 -6.061804e+000 -8.009009e+000 48 38 29
1.578522e+001 -6.334164e+000 -8.406215e+000 141 114 64
-8.557843e-001 -7.034992e+000 -7.193359e+000 132 128 130
1.588933e+001 -7.188238e+000 -8.423655e+000 156 129 73
1.573842e+001 -9.143168e+000 -8.494122e+000 182 144 81
-2.049088e+000 -3.624764e+000 -4.003399e+000 42 69 97
-2.509596e+000 -4.211843e+000 -3.789465e+000 40 68 88
-4.144879e+000 -4.933617e+000 -3.299927e+000 70 82 86
1.369447e+001 -3.697939e+000 -8.121291e+000 140 72 53
1.507584e+001 -4.184232e+000 -8.526140e+000 75 45 34
1.391522e+001 -5.324547e+000 -7.847905e+000 138 70 51
1.375576e+001 -6.889856e+000 -7.767114e+000 146 76 51
1.563038e+001 -8.281197e+000 -8.802771e+000 73 51 37
1.297753e+001 -5.682272e+000 -7.882618e+000 48 39 34
-3.161468e+000 -6.867037e+000 -3.279770e+000 57 44 36
-2.054413e+000 -7.747140e-001 -1.177731e+001 47 37 40
-8.171046e+000 -1.575542e+000 -8.294554e+000 89 107 107
-8.299963e+000 -1.781519e+000 -7.928820e+000 98 118 119
-8.069326e+000 -1.710048e+000 -7.339862e+000 98 122 123
1.201160e+001 2.439956e+000 -8.864564e+000 140 137 132
-9.371430e+000 -3.423194e+000 -6.083320e+000 89 72 64
6.522621e+000 4.349428e-001 -7.424573e+000 69 49 44
-8.318858e+000 -3.324084e+000 -5.773620e+000 196 199 143
-6.169808e+000 -2.097283e+000 -4.550375e+000 207 219 183
-6.169808e+000 -2.097283e+000 -4.550375e+000 207 219 183
-2.244662e+000 -4.683678e+000 -3.459257e+000 43 77 106
4.178625e-001 -6.497661e+000 -7.521580e+000 148 102 112
-4.388416e+000 -7.334620e+000 -3.120106e+000 211 109 133
-6.303296e+000 1.320655e+000 -1.097426e+001 59 68 78
2.333229e+000 6.358166e-001 -1.557803e+001 103 65 62
3.911444e+000 1.456761e+000 -1.494862e+001 94 71 53
-4.966556e+000 1.250740e+000 -4.158846e+000 107 111 115
-4.966556e+000 1.250740e+000 -4.158846e+000 107 111 115
-3.559771e+000 2.190539e+000 -3.185522e+000 54 41 33
1.988466e+000 1.020300e-001 -1.176132e+001 45 22 21
4.690564e+000 1.392668e+000 -1.010395e+001 90 77 69
6.420707e+000 2.148187e+000 -7.541585e+000 154 107 90
3.151747e+000 -1.166973e+000 -8.815791e+000 86 71 59
6.557403e+000 -1.259129e+000 -6.385330e+000 62 57 46
-6.703773e+000 -4.480767e+000 -4.753476e+000 212 219 165
7.268947e+000 -3.551292e+000 -6.723350e+000 75 59 51
-2.227460e+000 -5.548589e+000 -3.426711e+000 46 76 102
5.900829e+000 -7.119324e+000 -6.756221e+000 70 81 96
2.991626e+000 1.268359e+000 -1.806534e+001 143 103 62
-4.932319e+000 1.745539e+000 -5.464536e+000 172 179 99
-4.815736e+000 1.418108e+000 -4.042104e+000 116 121 119
4.068220e+000 1.399790e+000 -1.011281e+001 47 30 23
5.615808e+000 2.351603e+000 -9.672471e+000 105 92 76
2.051786e+000 4.010449e-001 -1.089193e+001 97 44 50
5.752729e+000 2.149852e+000 -9.143473e+000 106 88 55
1.215349e+001 2.846438e+000 -1.148425e+001 124 118 94
-5.002870e+000 1.425512e-001 -3.860241e+000 193 188 119
3.002802e-002 -9.560151e-001 -7.559821e+000 87 79 66
6.829295e+000 1.824336e+000 -6.464597e+000 60 38 29
1.381837e+000 -1.202572e+000 -7.297380e+000 94 80 70
9.890470e-001 -1.188624e+000 -6.661008e+000 92 75 66
-7.913600e+000 -4.253264e+000 -5.498918e+000 211 220 172
7.122587e+000 -1.447933e+000 -6.514349e+000 55 27 24
7.122587e+000 -1.447933e+000 -6.514349e+000 55 27 24
1.564943e+000 -3.403272e+000 -5.388255e+000 37 26 23
-4.987207e-001 -4.960191e+000 -6.396607e+000 130 90 65
1.143639e+000 -4.847477e+000 -6.659512e+000 120 80 54
2.637797e+000 -4.145040e+000 -6.667218e+000 138 128 129
3.264739e+000 -6.548783e+000 -8.405978e+000 44 33 36
3.264739e+000 -6.548783e+000 -8.405978e+000 44 33 36
9.980113e+000 -3.507884e+000 -6.859553e+000 141 130 122
6.730225e+000 -5.067571e+000 -6.361614e+000 64 62 53
1.655306e+001 -6.584938e+000 -4.785829e+000 179 166 98
3.060342e+000 7.960848e-001 -1.553355e+001 95 85 76
-4.897215e+000 1.552710e+000 -4.731751e+000 174 180 106
-4.897215e+000 1.552710e+000 -4.731751e+000 174 180 106
-4.397330e+000 1.966174e+000 -3.821625e+000 173 175 109
-9.150804e-001 4.334187e-001 -1.115865e+001 69 32 26
-3.799758e-001 3.467169e-001 -1.110616e+001 97 49 39
5.826917e+000 2.323471e+000 -8.885859e+000 54 42 29
-5.824698e+000 -9.573002e-002 -4.141189e+000 209 216 167
6.418373e+000 1.004751e+000 -7.112266e+000 71 50 49
4.622590e+000 3.361762e-001 -6.807656e+000 42 26 28
-4.691929e+000 -1.309355e+000 -3.481134e+000 74 90 107
-4.141239e+000 -1.748774e+000 -3.184394e+000 74 83 91
-1.038066e+000 -6.320813e+000 -1.116072e+001 28 19 20
3.881634e-001 -3.921984e+000 -6.878918e+000 102 108 113
1.813783e-001 -6.765283e+000 -7.518492e+000 131 133 145
1.999052e+000 -6.837541e+000 -8.055544e+000 52 35 37
6.433217e+000 -4.423217e+000 -6.759758e+000 102 60 53
-3.508254e+000 -5.226861e+000 -2.438949e+000 56 70 83
3.509108e+000 -7.754201e+000 -9.074533e+000 147 126 67
3.963643e+000 -8.281066e+000 -7.722561e+000 57 40 41
6.743393e+000 -7.934661e+000 -5.847486e+000 167 126 110
1.513404e+001 -8.814455e+000 -8.088678e+000 178 148 93
3.203946e+000 1.453783e+000 -1.799014e+001 151 127 79
-5.404137e+000 1.536782e+000 -7.367109e+000 60 71 76
6.140233e+000 2.508778e+000 -7.901462e+000 155 99 68
7.788730e+000 3.117025e+000 -6.905807e+000 132 128 125
9.162572e+000 2.980607e+000 -8.363051e+000 82 67 44
9.162572e+000 2.980607e+000 -8.363051e+000 82 67 44
-9.701646e-001 -1.155065e+000 -6.751963e+000 96 78 64
3.933608e+000 -2.694453e-001 -6.744613e+000 49 35 33
-9.344901e-001 -6.458419e+000 -1.069277e+001 26 16 17
6.344403e+000 -2.162607e+000 -7.127066e+000 118 64 61
-7.929138e-001 -5.095059e+000 -6.450628e+000 124 87 61
3.229414e-001 -7.324993e+000 -7.640631e+000 34 32 31
1.500678e+001 -4.693213e+000 -8.600325e+000 126 69 49
1.382009e+001 -6.124707e+000 -8.062166e+000 48 40 38
1.093773e+001 -7.120650e+000 -6.818293e+000 140 132 127
1.493854e+001 -7.540053e+000 -8.224470e+000 74 57 49
4.445165e+000 2.060931e+000 -1.468563e+001 62 40 27
-6.500858e-001 2.515878e-001 -1.197759e+001 96 89 71
1.096853e+001 2.471296e+000 -1.443636e+001 66 60 38
-3.910142e+000 1.812143e+000 -3.547419e+000 67 77 86
1.655742e+000 3.275821e-001 -1.071288e+001 98 84 71
5.358294e+000 1.499526e+000 -8.101749e+000 45 50 61
-4.752844e+000 2.994117e-001 -3.616114e+000 80 92 99
1.287227e+000 -2.993628e+000 -6.150711e+000 141 110 64
1.483175e+001 -9.431542e-001 -9.040645e+000 129 71 57
5.573909e-001 -4.967753e+000 -6.730430e+000 132 103 65
1.553436e+001 -2.972810e+000 -8.696848e+000 144 121 79
6.445645e-002 -7.962831e+000 -7.826728e+000 141 116 73
6.289864e+000 -5.974843e+000 -6.865118e+000 118 114 126
6.399596e+000 -8.396410e+000 -6.642435e+000 164 150 87
8.299047e+000 -7.967113e+000 -5.895035e+000 143 63 64
2.973192e+000 7.897283e-001 -1.669549e+001 51 39 31
1.385312e+001 3.119387e+000 -1.607569e+001 109 91 53
-3.956964e+000 2.049472e+000 -3.712638e+000 55 49 44
3.735629e+000 5.276702e-001 -1.559559e+001 40 29 28
5.696498e+000 2.444001e+000 -9.914940e+000 100 87 68
6.243037e+000 2.851454e+000 -8.517434e+000 62 43 30
6.035513e+000 2.541307e+000 -8.781584e+000 157 143 82
4.929052e+000 1.446669e+000 -9.877872e+000 94 76 70
-1.035320e+000 -6.952784e-001 -6.892905e+000 92 77 63
-3.529252e+000 -5.253560e-001 -3.256512e+000 64 46 46
-1.291169e-001 -1.235739e+000 -6.425884e+000 30 25 27
3.319923e+000 -8.968804e-001 -8.063146e+000 32 22 23
7.759822e+000 -1.996969e-001 -6.416513e+000 135 60 62
1.369094e+001 -1.254721e+000 -8.756168e+000 45 32 35
1.369094e+001 -1.254721e+000 -8.756168e+000 45 32 35
1.190358e-001 -7.110056e+000 -7.709046e+000 133 133 143
2.416111e+000 -7.235343e+000 -8.506207e+000 135 131 153
5.829810e+000 -5.838953e+000 -7.516285e+000 85 83 84
6.242102e+000 -5.615504e+000 -6.835363e+000 47 32 32
3.624178e+000 -8.224832e+000 -7.419956e+000 148 133 75
1.458467e+001 -8.861645e+000 -7.757391e+000 185 161 99
6.029286e+000 2.151631e+000 -1.472604e+001 131 119 77
4.306640e+000 1.393409e+000 -1.365551e+001 83 48 34
4.933699e+000 2.098853e+000 -1.208435e+001 124 110 63
4.933699e+000 2.098853e+000 -1.208435e+001 124 110 63
-4.239713e+000 1.777168e+000 -3.713969e+000 55 49 49
-2.779362e+000 1.599276e+000 -4.261163e+000 32 66 95
1.170584e+001 1.376036e+000 -8.304895e+000 138 131 124
2.633717e-001 -1.300087e+000 -6.357707e+000 94 84 69
-2.721425e+000 -1.155529e+000 -3.873293e+000 26 21 25
-2.641776e+000 -2.327795e+000 -3.767194e+000 29 23 30
1.253461e+000 -2.999571e+000 -6.084763e+000 142 114 70
1.253461e+000 -2.999571e+000 -6.084763e+000 142 114 70
-2.571601e+000 -3.496464e+000 -3.656165e+000 27 26 28
-2.442460e-001 -4.912647e+000 -6.952453e+000 38 25 24
3.649610e+000 -6.173311e+000 -8.777711e+000 122 101 75
-2.487961e+000 -4.627923e+000 -3.493833e+000 28 20 25
3.712593e+000 -7.240037e+000 -9.234460e+000 25 22 23
-4.107133e+000 -6.331653e+000 -2.890791e+000 67 75 90
1.376022e+001 -5.488742e+000 -7.998874e+000 133 67 53
2.543794e+000 3.033345e-001 -1.608139e+001 40 28 28
6.844256e+000 2.770303e+000 -1.077726e+001 128 112 78
6.362870e+000 2.577831e+000 -7.350632e+000 164 180 180
7.848603e+000 2.788428e+000 -8.160096e+000 114 71 61
-4.002295e+000 9.277349e-001 -3.101965e+000 200 116 129
-2.838588e+000 1.174563e+000 -4.116906e+000 32 26 31
9.740722e+000 2.775063e+000 -8.164910e+000 84 60 44
-3.939651e+000 -5.294324e-001 -2.938463e+000 205 118 130
-2.634493e+000 -1.729348e+000 -3.806292e+000 44 73 103
-2.634493e+000 -1.729348e+000 -3.806292e+000 44 73 103
-4.278008e+000 -3.038624e+000 -3.189827e+000 60 75 85
7.247701e-001 -3.188081e+000 -6.018226e+000 153 119 92
7.247701e-001 -3.188081e+000 -6.018226e+000 153 119 92
3.949669e+000 -4.712897e+000 -7.927722e+000 40 30 31
4.676339e+000 -5.553979e+000 -8.291555e+000 90 88 86
2.945884e+000 -7.388099e+000 -8.656395e+000 39 32 35
5.588597e+000 -6.449435e+000 -7.474758e+000 37 32 36
6.008235e+000 -6.299483e+000 -6.824750e+000 118 115 125
1.566870e+001 -4.839117e+000 -8.361132e+000 152 126 78
7.160220e+000 2.592193e+000 -8.338483e+000 56 39 30
-1.420289e+000 9.965614e-001 -5.573597e+000 126 103 89
4.302419e+000 1.498811e+000 -8.505189e+000 52 38 37
6.121667e+000 1.511048e+000 -8.674561e+000 62 41 35
3.249229e+000 3.128930e-001 -7.807779e+000 38 28 29
1.140111e+001 2.398298e+000 -8.144584e+000 131 126 120
-4.323067e+000 2.346855e+000 -4.013363e+000 179 177 100
-4.334133e+000 9.343718e-001 -3.425326e+000 202 118 125
2.523753e+000 -7.128011e-001 -7.802631e+000 84 69 62
4.409163e+000 -1.965131e-001 -6.815466e+000 138 54 79
1.384033e+001 -2.127376e+000 -8.582060e+000 141 78 63
6.170601e+000 -7.222839e+000 -6.487745e+000 55 38 37
1.299965e+001 -2.796142e+000 -8.483292e+000 42 35 35
1.325725e+001 -8.409492e+000 -8.019073e+000 42 41 36
-9.366891e-001 -7.910045e+000 -6.373553e+000 21 19 23
-2.719581e-001 -6.601242e+000 -7.312399e+000 82 82 90
-2.428811e+000 -3.361675e+000 -6.171686e+000 45 75 110
1.258888e+001 3.229613e+000 -8.384570e+000 53 33 23
-5.687165e+001 -1.524337e+001 -1.025675e+002 141 124 92
-4.726802e+001 -2.855873e+001 -1.073517e+002 134 118 92
-4.766502e+001 -2.213379e+001 -1.083944e+002 148 156 159
-4.233321e+001 -2.559697e+001 -1.127590e+002 27 100 153
4.560326e-001 -5.377169e+000 -7.301963e+000 147 113 77
6.608023e+000 -7.384927e+000 -6.528775e+000 81 37 25
7.258466e+000 2.893398e+000 -7.076302e+000 151 68 62
6.524534e+000 1.263557e+000 -7.398209e+000 70 50 41
-1.621144e+000 -6.299936e+000 -6.893425e+000 107 89 77
-1.601961e+000 -6.615362e+000 -7.068354e+000 107 58 53
-2.678817e+000 -5.475808e+000 -6.444391e+000 25 15 19
1.375792e-001 -5.386105e+000 -7.268587e+000 139 113 87
1.652533e+000 -3.896129e+000 -5.565216e+000 48 31 26
1.652533e+000 -3.896129e+000 -5.565216e+000 48 31 26
3.853035e-001 -6.337985e+000 -7.427766e+000 143 56 55
-4.623333e+001 -5.344959e+001 -1.063695e+002 114 110 107
-4.653150e+001 -5.532330e+001 -1.094397e+002 146 134 136
-4.589117e+001 -5.023521e+001 -1.069927e+002 147 120 125
-4.265401e+001 -5.241899e+001 -1.089965e+002 145 122 120
-4.518131e+001 -5.580607e+001 -1.071170e+002 148 132 132
-4.526066e+001 -5.824598e+001 -1.110024e+002 134 93 118
-4.229706e+001 -5.629058e+001 -1.063894e+002 155 137 151
-4.198370e-001 -7.173360e+000 -7.568553e+000 50 40 38
-4.175974e-001 -7.187146e+000 -7.636623e+000 50 40 38
-5.185100e+001 -4.916411e+001 -1.054514e+002 167 143 117
-5.092491e+001 -5.091694e+001 -1.038465e+002 161 146 138
-4.196321e+001 -5.392387e+001 -1.087162e+002 168 156 84
-3.697956e+001 -3.200488e+001 -1.131962e+002 154 151 160
-3.697956e+001 -3.200488e+001 -1.131962e+002 154 151 160
-4.473153e+001 -5.001327e+001 -1.075971e+002 106 45 70
-5.546698e+001 -5.269615e+001 -1.015414e+002 139 165 180
-5.546698e+001 -5.269615e+001 -1.015414e+002 139 165 180
-4.432020e+001 -5.386126e+001 -1.100194e+002 172 163 65
-5.311028e+001 -5.168401e+001 -1.032332e+002 58 117 163
-5.311028e+001 -5.168401e+001 -1.032332e+002 58 117 163
-5.081810e+001 -5.163726e+001 -1.059580e+002 155 123 102
-3.302327e-001 -1.294239e+000 -6.990086e+000 96 82 69
1.035830e+001 -2.437239e-002 -7.178145e+000 147 124 103
2.401792e-001 -5.001787e+000 -7.412132e+000 46 25 18
7.854665e+000 3.104693e+000 -7.264732e+000 154 127 106
8.542504e-001 -3.068988e+000 -6.287026e+000 140 77 42
6.353064e+000 -2.206641e+000 -5.242613e+000 155 162 166
1.218621e+001 -3.796083e+000 -7.919083e+000 158 138 126
-1.422284e+000 -6.714436e+000 -6.978747e+000 126 90 73
-2.304818e-001 -8.278661e+000 -7.886759e+000 158 119 70
1.159087e+001 1.475561e+000 -7.869611e+000 145 128 106
-4.346955e+001 -5.112184e+001 -1.078895e+002 156 142 142
-5.079915e+001 -5.485767e+001 -1.058251e+002 151 114 95
5.683694e+000 -8.898661e+000 -8.340219e+000 102 77 47
-4.374775e+001 -5.643330e+001 -1.032483e+002 146 120 121
-4.346646e+001 -5.893091e+001 -1.064713e+002 111 54 86
-4.985420e+001 -6.103257e+001 -1.034843e+002 120 108 85
9.541222e+000 3.016437e+000 -7.547695e+000 95 60 41
-5.101668e+001 -6.223378e+001 -1.014569e+002 42 32 30
-5.443543e+001 -6.319224e+001 -9.976356e+001 136 120 94
-5.028624e+001 -5.095218e+001 -1.045406e+002 166 135 117
3.262504e-001 -9.959913e-001 -7.285369e+000 119 64 61
7.846551e+000 -5.250767e-001 -6.823326e+000 143 51 53
3.454223e+000 -4.418439e+000 -7.429712e+000 133 95 61
-2.167875e+000 -6.659214e+000 -5.397795e+000 50 72 87
-2.000221e+000 -9.193883e+000 -6.320215e+000 21 19 27
1.058123e+001 -6.547731e-001 -7.856473e+000 149 74 50
1.410330e+001 -7.906022e+000 -8.318808e+000 58 39 35
1.410330e+001 -7.906022e+000 -8.318808e+000 58 39 35
1.335062e+001 -8.658919e+000 -7.361272e+000 147 72 49
5.517265e+000 -3.990577e-001 -7.078858e+000 125 113 115
-5.369146e+000 -8.698662e-001 -3.998712e+000 220 222 167
3.708420e-001 -5.134081e+000 -7.225303e+000 133 75 51
8.051138e+000 -3.824484e+000 -7.639266e+000 140 57 57
1.939199e-001 -5.781777e+000 -7.534345e+000 130 122 120
1.325034e+000 -6.220573e+000 -7.659155e+000 138 133 134
1.326903e+001 -8.781828e+000 -7.713606e+000 147 77 56
1.648435e+000 -7.567638e-001 -8.797512e+000 70 50 46
-3.884104e-001 -1.123516e+000 -6.348127e+000 33 23 21
3.783106e+000 -8.367615e+000 -7.773368e+000 163 132 67
1.506799e+001 -6.839112e+000 -8.248607e+000 128 74 53
1.013730e+001 -3.303856e+000 -6.773726e+000 144 129 117
1.351152e+001 -4.542890e+000 -7.400107e+000 137 68 52
3.768037e+000 -8.193988e+000 -7.932578e+000 55 40 35
1.363714e+001 -5.906193e+000 -7.618733e+000 51 36 30
1.243087e+001 -8.871905e+000 -7.015324e+000 190 156 92
1.328496e+001 2.356192e+000 -8.532869e+000 139 68 50
3.894666e+000 -8.009112e+000 -8.110995e+000 71 32 31
4.838332e+000 -6.097194e+000 -6.345276e+000 134 49 70
1.182864e+001 3.876588e+000 -7.536708e+000 128 105 55
6.701394e+000 1.358587e+000 -4.601555e+000 139 59 54
-3.493185e-003 -1.034308e+000 -6.504839e+000 96 89 73
3.414718e-001 -1.002987e+000 -7.402891e+000 109 73 71
-2.657687e+000 -6.944522e+000 -1.055008e+001 23 49 74
-2.592631e+000 -6.855257e+000 -1.062452e+001 47 81 108
-2.439996e-001 -7.489293e+000 -7.346118e+000 135 114 81
6.540225e+000 -5.579742e+000 -6.642715e+000 135 106 100
1.146305e+001 1.624698e+000 -2.238985e+001 144 130 65
5.049681e+000 2.425427e+000 -1.095406e+001 47 38 22
-2.464576e+000 2.099193e+000 -1.676801e+000 34 80 106
-1.607703e+000 -1.028296e+000 -6.744531e+000 36 21 18
9.644655e-001 -5.125857e+000 -7.257540e+000 113 81 60
7.024057e+000 -2.957899e+000 -6.139445e+000 80 66 57
-2.133984e+000 -5.918466e+000 -6.572753e+000 28 24 28
-5.467867e-001 -6.734941e+000 -7.300656e+000 126 126 134
8.014721e+000 -4.525387e+000 -5.759400e+000 142 61 66
6.845205e+000 -7.325435e+000 -6.146607e+000 67 59 44
-3.767963e+000 1.596926e+000 -2.878177e+000 63 81 91
1.044047e+001 -1.331387e-001 -7.586311e+000 136 77 58
8.300657e-001 -4.808376e+000 -7.067045e+000 137 138 145
9.988869e+000 -3.118932e+000 -6.493210e+000 141 132 124
6.849937e+000 -4.839583e+000 -6.190348e+000 139 157 177
6.894888e+000 -7.286271e+000 -6.130740e+000 71 63 48
-1.064608e+000 -1.221876e+000 -6.339173e+000 90 41 37
1.474644e+001 -1.218091e+000 -8.942812e+000 66 52 44
6.718834e+000 -6.820407e+000 -6.428690e+000 138 146 153
6.718834e+000 -6.820407e+000 -6.428690e+000 138 146 153
6.690701e-001 -1.467884e+000 -6.313664e+000 33 23 24
1.502462e+001 -6.785894e+000 -8.346187e+000 136 76 62
1.102578e+001 -8.373439e+000 -6.896996e+000 139 131 118
1.428045e+001 -8.585268e+000 -8.617709e+000 141 78 55
7.727279e+000 2.739274e+000 -6.984947e+000 143 62 63
1.223582e+001 -5.696805e+000 -7.891710e+000 147 136 120
1.432010e+001 -8.524186e+000 -9.065541e+000 51 41 40
1.432010e+001 -8.524186e+000 -9.065541e+000 51 41 40
1.317767e+000 -4.910508e+000 -7.309018e+000 134 131 140
-2.111517e+000 -6.305088e+000 -6.428247e+000 45 75 109
1.372435e+001 -3.695629e+000 -8.116869e+000 136 69 56
-2.808013e+000 -2.382564e+000 -8.556060e+000 42 75 109
-1.564348e+000 -9.773676e-001 -6.848418e+000 83 63 48
-9.388331e+000 -3.473860e+000 -6.137766e+000 103 88 76
-3.756981e+000 -1.473983e-001 -2.833758e+000 115 140 145
-9.384510e-002 -1.316805e+000 -6.783951e+000 74 69 66
3.288012e-001 -1.656092e+000 -5.723196e+000 20 11 14
5.292032e+000 -4.626835e-001 -2.971366e+000 123 133 143
7.100740e+000 -2.554647e+000 -6.113462e+000 55 37 30
-5.469023e+000 -6.230680e+001 -7.150615e+001 13 24 29
-1.982080e+000 -2.143538e+001 -1.820005e+001 51 80 111
1.662719e+001 -6.382838e+000 -5.750368e+000 170 160 93
6.038573e+000 2.593266e+000 -1.210215e+001 130 116 87
-5.013811e+000 5.042909e-001 -3.725807e+000 205 199 131
5.501318e+000 -5.455684e-001 -6.877453e+000 50 45 51
2.809756e+000 -1.785580e+000 -7.148185e+000 92 76 79
-1.424375e+000 -5.148760e+000 -5.898601e+000 40 21 22
1.196806e+001 -1.845923e+000 -7.822278e+000 133 126 116
4.235657e-002 -5.896839e+000 -6.784502e+000 133 132 145
4.446202e+000 -8.100095e+000 -8.889020e+000 157 135 83
4.446202e+000 -8.100095e+000 -8.889020e+000 157 135 83
1.650491e+001 -6.740944e+000 -5.912263e+000 197 188 120
-1.596161e+000 -3.328245e-001 -1.197701e+001 68 56 60
-1.796575e+000 -7.048716e-001 -1.199739e+001 26 17 22
-2.115797e+000 -9.609168e-001 -1.178797e+001 59 51 48
6.783861e+000 3.021728e+000 -6.656668e+000 65 41 39
6.478996e+000 1.309451e+000 -6.368535e+000 49 37 30
-2.031229e+000 2.356122e+000 7.314121e-001 45 80 111
2.698496e+000 -1.144600e+000 -7.812121e+000 81 66 62
1.052261e+001 -1.453362e-001 -7.488676e+000 136 130 127
1.912724e+000 -3.944277e+000 -6.293201e+000 146 138 148
3.758735e+000 -5.104904e+000 -8.070298e+000 28 24 26
1.572000e+001 -2.268662e+000 -8.131649e+000 128 104 56
4.140751e+000 -7.995122e+000 -8.835341e+000 159 144 79
6.544878e+000 -5.439091e+000 -6.714282e+000 123 74 70
7.292212e+000 -4.549381e+000 -5.846391e+000 139 65 66
7.726346e+000 -6.488097e+000 -6.040093e+000 134 45 47
1.648069e+001 -6.593203e+000 -5.992106e+000 165 151 86
1.185954e+001 2.584887e+000 -8.606280e+000 133 130 131
-5.042878e+000 -1.176291e+000 -4.761568e+000 203 112 130
7.928360e+000 9.095539e-001 -6.758256e+000 137 133 124
5.153663e+000 -3.533743e+000 -7.643793e+000 46 34 36
3.617427e+000 -4.519416e+000 -7.830188e+000 33 26 22
6.602821e+000 -7.395630e+000 -6.481927e+000 85 52 48
7.052307e+000 -7.237190e+000 -5.991144e+000 115 102 85
1.625980e+001 -8.740861e+000 -7.631394e+000 164 133 86
6.346907e+000 -1.003645e+000 -6.784663e+000 130 129 143
6.267032e+000 -1.412713e+000 -7.071918e+000 102 60 55
1.553696e+001 -2.552508e+000 -8.860581e+000 129 109 71
8.004226e+000 -9.231268e+000 -5.714158e+000 169 152 97
6.794132e-001 -1.210142e+000 -7.364046e+000 93 78 66
3.500917e+000 -1.564694e+000 -8.449473e+000 78 63 64
3.500917e+000 -1.564694e+000 -8.449473e+000 78 63 64
7.916914e+000 -2.851574e+000 -6.447808e+000 142 129 125
7.916407e+000 -5.499055e+000 -5.633095e+000 128 118 108
1.382153e+001 -6.140139e+000 -8.077998e+000 53 41 41
1.386710e+001 -4.683905e+000 -8.329970e+000 49 43 38
1.322185e+001 -5.061409e-001 -8.312894e+000 137 71 53
1.553279e+001 -4.720179e+000 -8.090742e+000 153 131 81
-4.914785e+000 1.391549e+000 -3.973301e+000 91 100 95
5.096326e+000 -1.256962e+000 -6.583582e+000 33 28 32
1.277497e+001 3.042170e-001 -8.627061e+000 38 33 30
9.822200e-001 -1.435747e+000 -6.703024e+000 49 30 26
1.060216e+001 -7.168542e+000 -6.796248e+000 133 87 59
5.650774e+000 2.801478e+000 -9.013362e+000 130 120 92
5.227307e+000 2.374959e+000 -1.039962e+001 112 105 77
6.324148e+000 1.852797e+000 -7.109486e+000 170 115 85
6.228722e+000 1.155168e+000 -7.187965e+000 128 112 95
1.623540e+000 -1.811880e-001 -8.849333e+000 110 99 81
1.623540e+000 -1.811880e-001 -8.849333e+000 110 99 81
3.418986e+000 -2.199729e-001 -1.045958e+001 88 37 44
6.493701e+000 1.025957e-001 -6.825266e+000 71 56 40
1.255226e+001 6.964970e-001 -6.552284e+000 111 93 51
-3.351745e+000 -7.599329e-001 -3.227484e+000 77 47 33
7.724463e-001 -7.807597e-001 -8.477244e+000 120 107 109
6.535473e+000 -4.033841e-001 -6.506560e+000 120 119 88
6.589740e+000 -8.490951e-001 -6.380103e+000 78 70 52
-1.100141e+001 -3.492904e+000 -6.614885e+000 132 128 135
-1.103021e+001 -3.738158e+000 -6.610155e+000 114 98 98
-9.466942e+000 -3.539843e+000 -6.449454e+000 121 111 109
-3.532206e+000 -2.966974e+000 -3.198142e+000 69 86 87
6.359833e+000 -3.579347e+000 -6.993280e+000 102 95 90
2.135345e-001 -4.912931e+000 -6.768021e+000 96 59 40
-1.199147e+000 -6.330161e+000 -6.906365e+000 87 75 58
6.818305e+000 -7.951103e+000 -5.961768e+000 160 180 168
5.806899e+000 2.856239e+000 -8.685905e+000 116 109 83
1.322279e+001 3.283865e+000 -9.107340e+000 99 52 28
-3.416854e+000 1.451792e+000 -3.413613e+000 68 47 30
6.495820e+000 1.266064e+000 -6.672380e+000 79 70 61
1.224268e+000 1.391179e-001 -9.416875e+000 116 101 78
6.652964e+000 5.327832e-001 -9.089019e+000 89 56 43
5.818438e-002 -6.303940e-001 -8.380655e+000 46 26 27
6.756406e-001 -6.138146e-001 -8.604973e+000 89 55 51
-1.018258e+000 -1.222247e+000 -6.857812e+000 102 94 90
2.657988e-001 -9.560208e-001 -7.474822e+000 108 53 58
2.543056e-001 -1.076938e+000 -7.225303e+000 107 46 53
1.845460e+000 -9.709294e-001 -8.200937e+000 111 104 98
3.359962e+000 -1.426673e+000 -7.561722e+000 42 21 23
-3.085517e+000 -3.402257e+000 -3.322613e+000 84 65 52
1.717078e+000 -3.820588e+000 -6.865767e+000 81 49 26
-3.280056e+000 -3.469966e+000 -3.085136e+000 85 58 38
9.164034e-001 -5.646090e+000 -7.301645e+000 29 20 21
9.115925e-001 -5.630821e+000 -7.265161e+000 29 20 21
-4.724000e+000 -5.560435e+000 -3.775597e+000 193 111 154
-4.552236e+000 -5.488409e+000 -3.742409e+000 65 77 85
-3.228453e+000 -5.137555e+000 -2.928329e+000 68 52 27
2.362092e-001 -6.308633e+000 -7.409414e+000 99 90 79
5.207838e-001 -6.804852e+000 -7.617163e+000 98 92 73
2.646500e+000 -6.856903e+000 -8.402808e+000 85 77 64
-4.532508e+000 -6.956657e+000 -3.742781e+000 73 76 96
-4.430664e+000 -6.808817e+000 -3.583289e+000 201 179 108
-3.291325e+000 -6.199801e+000 -2.969906e+000 182 138 103
-3.090669e+000 -6.708681e+000 -3.119979e+000 61 39 26
6.201951e+000 -7.374320e+000 -6.394489e+000 45 33 22
6.223950e+000 -7.555060e+000 -6.352269e+000 62 46 31
6.671523e+000 -7.941698e+000 -6.463706e+000 157 129 112
-3.112158e+000 -7.884800e+000 -2.564471e+000 82 50 30
-3.057474e+000 -8.421472e+000 -2.713226e+000 101 78 54
6.412088e+000 2.244965e+000 -6.802557e+000 183 127 92
6.185633e+000 1.832746e+000 -7.231622e+000 167 113 86
-4.791652e+000 -4.524444e-002 -4.293311e+000 202 109 153
1.523472e+000 -9.661317e-002 -8.949877e+000 129 124 112
-3.777435e-002 -7.110703e-001 -8.425341e+000 125 119 115
5.892928e-001 -7.066355e-001 -8.462184e+000 32 28 31
4.121073e+000 -5.324629e-001 -9.655641e+000 106 107 106
6.612884e+000 -6.467704e-002 -6.371273e+000 147 142 103
6.641255e+000 -2.356714e-001 -6.429029e+000 137 131 95
9.855381e+000 -1.638993e-001 -7.298051e+000 104 96 59
1.049309e+000 -1.108914e+000 -7.773275e+000 30 23 24
1.160573e+001 -1.954312e-001 -6.692919e+000 230 253 242
6.761969e+000 -8.723836e-001 -6.269565e+000 100 39 31
-9.852920e+000 -3.205867e+000 -7.376667e+000 107 97 97
-1.102496e+001 -3.588528e+000 -6.539575e+000 35 30 37
1.144516e+000 -3.886850e+000 -6.733797e+000 77 54 38
3.065795e+000 -4.149973e+000 -7.431181e+000 75 66 55
-3.341188e+000 -4.080924e+000 -3.064353e+000 187 135 110
6.878033e+000 -4.600948e+000 -5.791104e+000 51 36 26
7.236297e+000 -4.597276e+000 -5.916103e+000 33 22 18
-5.534193e+000 -5.291485e+000 -4.451651e+000 200 227 208
6.862797e+000 -5.499844e+000 -5.870220e+000 131 124 98
-1.132518e+000 -6.642872e+000 -7.099515e+000 85 77 60
-9.756714e-001 -7.528119e+000 -7.571484e+000 44 37 32
7.594013e-001 -7.268313e+000 -7.876535e+000 98 92 69
4.537013e-001 -7.576783e+000 -8.227223e+000 101 93 75
4.715060e-001 -7.505013e+000 -8.006331e+000 101 93 75
6.670390e+000 -6.956551e+000 -6.391712e+000 134 84 66
-4.606005e+000 -6.939458e+000 -3.674388e+000 199 237 224
6.590378e+000 -9.065247e+000 -7.580930e+000 134 105 55
1.174043e+000 -2.526706e-002 -9.204515e+000 146 140 133
1.190722e+001 7.539154e-001 -8.022763e+000 37 33 25
-2.411689e-001 -5.999010e-001 -8.443309e+000 36 30 34
3.075885e+000 -4.080085e-001 -9.911858e+000 38 29 32
1.701132e+000 -9.486248e-001 -7.854014e+000 28 23 24
6.670353e+000 -9.572262e-001 -6.302878e+000 127 118 93
1.164975e+001 -4.786353e-001 -6.575522e+000 99 93 78
6.373267e+000 -1.358364e+000 -7.002096e+000 114 73 58
-3.250621e+000 -3.258037e+000 -3.152502e+000 71 50 34
7.217374e+000 -4.092487e+000 -6.049824e+000 42 30 22
-5.983922e+000 -5.142753e+000 -4.725309e+000 197 221 205
4.598686e+000 -5.146408e+000 -8.329960e+000 28 19 19
-1.496787e+000 -6.049237e+000 -6.713397e+000 84 75 57
6.171868e-001 -7.612825e+000 -7.926888e+000 43 34 34
6.648376e+000 -6.743213e+000 -6.538216e+000 133 85 65
8.025033e+000 -8.836276e+000 -5.719277e+000 115 58 45
5.561199e+000 1.175023e+000 -7.557848e+000 42 38 39
5.566415e+000 1.177797e+000 -7.556402e+000 42 38 39
6.588755e+000 4.666304e-001 -6.500102e+000 133 129 91
6.251699e+000 -3.990986e-002 -7.167660e+000 93 60 41
6.261852e+000 -3.671028e-001 -7.109702e+000 102 66 47
6.413337e+000 -2.021916e+000 -6.945308e+000 110 84 63
-9.621032e+000 -3.467664e+000 -7.362939e+000 96 86 84
-4.908579e+000 -5.016231e+000 -3.999487e+000 170 181 159
6.561937e+000 -6.074007e+000 -6.549510e+000 116 77 61
-1.141645e+000 -7.685194e+000 -7.753499e+000 139 143 154
6.876100e+000 -6.067041e+000 -5.899512e+000 122 113 84
-1.074904e+001 -3.652912e+000 -6.710826e+000 35 24 26
-1.074904e+001 -3.652912e+000 -6.710826e+000 35 24 26
-1.009545e+001 -4.011733e+000 -6.493937e+000 32 22 24
-8.709249e+000 -4.361091e+000 -6.569132e+000 197 215 205
4.539982e+000 -5.370073e+000 -8.381271e+000 67 52 45
1.178537e+000 -6.425968e+000 -7.686217e+000 36 29 23
-2.822815e+000 -8.438590e+000 -8.424006e+000 102 107 107
-8.438419e-001 -7.619253e+000 -7.475818e+000 32 29 26
6.464919e+000 -7.003216e+000 -6.208237e+000 45 29 13
6.190710e+000 2.628411e+000 -7.460869e+000 174 125 85
1.108330e+000 -8.577284e-001 -8.348726e+000 115 107 111
-8.314463e+000 -3.488344e+000 -6.382195e+000 200 103 148
3.017232e+000 -3.596802e+000 -7.127259e+000 86 80 64
3.003245e+000 -3.584368e+000 -7.092120e+000 86 80 64
3.573983e+000 -3.907872e+000 -7.382322e+000 88 78 66
1.613321e+000 -4.082584e+000 -6.764138e+000 31 18 16
3.181428e+000 -3.945118e+000 -7.364420e+000 26 16 19
-4.670143e+000 -4.212525e+000 -3.842896e+000 207 113 151
3.819565e+000 -5.117403e+000 -8.179520e+000 27 18 21
-5.276967e+000 -5.303012e+000 -4.269644e+000 204 227 211
6.394251e+000 2.497629e+000 -6.821774e+000 174 207 213
3.950394e+000 -1.789531e+000 -7.507007e+000 40 24 16
3.875538e+000 -3.311611e+000 -7.382366e+000 31 48 56
-4.724826e+000 -5.326684e+000 -3.774674e+000 206 237 224
1.531982e+000 -6.459256e+000 -8.015996e+000 93 85 66
6.544948e+000 -7.770391e+000 -6.490592e+000 72 52 40
6.804919e+000 2.914989e+000 -6.846496e+000 63 44 30
6.418528e+000 1.595778e+000 -6.803532e+000 160 192 190
6.388241e+000 1.606688e+000 -6.674127e+000 160 192 190
6.749411e+000 1.536501e+000 -6.391235e+000 57 40 32
7.758824e+000 1.226683e+000 -6.845106e+000 98 39 31
1.019514e+001 -2.649958e-001 -7.305914e+000 106 55 36
1.018328e+001 -2.542593e-001 -7.277464e+000 106 55 36
1.169764e+001 -1.823581e+000 -7.618081e+000 104 92 62
6.830989e+000 -7.584466e+000 -5.848882e+000 159 181 179
7.313420e+000 -8.786140e+000 -5.656844e+000 60 51 32
-3.667224e+000 -3.195073e-001 -3.564304e+000 186 127 95
7.651910e-001 -4.173880e-001 -8.624261e+000 44 32 31
4.706585e+000 -2.302413e+000 -8.231157e+000 83 75 72
3.064982e+000 -2.910850e+000 -6.875651e+000 33 50 57
6.346279e+000 -7.107008e+000 -6.927481e+000 42 33 27
-4.321398e+000 -8.461345e-001 -3.812428e+000 60 77 84
-5.119645e+000 -3.136815e+000 -4.227046e+000 197 229 212
-4.276006e+000 -3.027030e+000 -3.728200e+000 68 85 89
4.046928e+000 -4.851307e+000 -8.093793e+000 26 17 20
-4.172196e+000 -5.157019e+000 -3.478290e+000 54 67 73
7.252689e+000 3.218236e-001 -6.774171e+000 102 43 32
-5.275021e+000 -1.301949e+000 -4.464083e+000 205 239 225
2.575158e+000 -9.833553e-001 -8.070390e+000 111 104 105
3.549393e+000 -2.331201e+000 -6.904081e+000 34 20 20
1.335408e+001 -1.913397e+000 -7.688014e+000 102 38 36
-3.940869e+000 -1.892706e+000 -3.743004e+000 194 187 106
1.311225e+001 -2.858096e+000 -8.744640e+000 38 31 25
-3.855228e+000 -4.000167e+000 -3.421028e+000 186 181 100
2.464973e-001 -4.436478e+000 -6.714672e+000 63 39 27
6.610436e+000 -6.040896e+000 -6.423296e+000 131 80 64
1.293312e+001 -8.097228e+000 -7.537813e+000 44 39 35
-1.113116e+000 -5.441949e-001 -8.261955e+000 115 67 63
-1.102633e+000 -8.215726e-001 -7.818796e+000 49 29 23
-1.487635e+000 -1.344630e+000 -6.550221e+000 33 19 16
-2.628217e-001 -1.683349e+000 -6.037414e+000 103 52 54
-4.841857e-002 -1.686758e+000 -6.031719e+000 120 54 58
1.135155e+001 -7.052541e-001 -6.409828e+000 33 26 18
1.666731e+000 -3.896038e+000 -6.827340e+000 31 17 12
-4.652104e+000 -5.730173e+000 -3.829876e+000 192 106 145
-3.269998e-001 -6.823543e+000 -7.384941e+000 28 28 18
5.759232e+000 -5.692452e+000 -6.483663e+000 92 86 73
6.791689e+000 -8.154613e+000 -5.890621e+000 141 94 64
6.879360e+000 -8.058521e+000 -5.801828e+000 158 130 103
9.717190e+000 -8.926862e+000 -6.363783e+000 111 94 48
5.405818e+000 2.484928e+000 -9.632213e+000 110 98 75
6.315207e+000 2.087423e+000 -6.858834e+000 176 124 96
1.314218e+000 -2.164552e-002 -9.091404e+000 124 107 76
6.589045e+000 6.120330e-001 -6.465211e+000 136 134 99
6.625289e+000 1.443322e-001 -6.470159e+000 136 135 99
1.187052e+001 6.113604e-001 -8.030014e+000 46 37 27
1.811862e+000 -1.202296e+000 -7.751300e+000 107 46 41
-1.132203e+000 -1.670063e+000 -6.206033e+000 61 45 32
-3.099212e+000 -3.049378e+000 -3.291023e+000 72 57 42
3.815744e+000 -5.319139e+000 -8.133266e+000 59 37 31
-6.940984e-001 -7.762645e+000 -7.536983e+000 96 54 47
-3.073904e+000 -6.676174e+000 -3.038905e+000 55 37 30
7.515759e+000 2.736274e+000 -6.774324e+000 105 89 64
8.615823e-001 -6.916519e-001 -8.551976e+000 27 17 24
2.571317e-001 -1.709650e+000 -6.146662e+000 115 47 44
-4.754723e+000 -2.545182e+000 -4.105838e+000 186 105 148
3.429096e+000 -3.536578e+000 -7.327094e+000 37 53 60
6.384231e+000 -5.693554e+000 -6.791399e+000 99 83 67
-7.984010e-001 -7.502331e+000 -7.503915e+000 96 86 74
6.067289e+000 -7.625659e+000 -6.758264e+000 51 50 47
-3.203525e+000 -8.046253e+000 -2.572345e+000 187 133 99
-3.115222e+000 -8.887038e+000 -2.694492e+000 159 150 119
6.931451e+000 1.416632e+000 -6.466584e+000 36 26 19
6.912353e+000 1.432988e+000 -6.399743e+000 36 26 19
-2.597719e+000 -7.469004e-001 -4.050462e+000 25 17 18
6.426947e+000 -3.221064e-001 -6.872173e+000 143 155 157
4.652110e-001 -1.507665e+000 -6.441173e+000 119 115 114
6.421884e+000 -2.338773e+000 -6.859735e+000 107 71 49
-3.027835e+000 -3.346197e+000 -3.489185e+000 32 27 29
-3.027835e+000 -3.346197e+000 -3.489185e+000 32 27 29
-2.949419e+000 -3.433225e+000 -3.155276e+000 30 25 26
1.852701e+000 -4.169178e+000 -6.404931e+000 99 84 58
8.340457e+000 -3.330203e+000 -6.529360e+000 112 98 71
6.955142e+000 -5.175976e+000 -5.719453e+000 107 44 39
6.585560e+000 -6.107961e+000 -6.623239e+000 112 82 56
-1.164968e+000 -7.289005e+000 -7.218749e+000 101 78 47
4.851074e-001 -7.456051e+000 -7.926414e+000 102 93 76
6.690114e+000 -6.061565e+000 -6.355761e+000 140 156 146
-4.361975e+000 -6.714923e+000 -3.455336e+000 194 182 109
1.572735e+001 -9.003526e+000 -8.695590e+000 119 99 64
1.585179e+001 -8.585933e+000 -8.303578e+000 128 106 57
2.912962e+000 -1.524148e+000 -7.269934e+000 113 101 103
2.912962e+000 -1.524148e+000 -7.269934e+000 113 101 103
7.935719e+000 -1.338581e+000 -6.429789e+000 113 95 65
1.615597e+000 -3.768690e+000 -6.885055e+000 93 57 41
1.615597e+000 -3.768690e+000 -6.885055e+000 93 57 41
2.734304e+000 -4.554463e+000 -6.796597e+000 97 87 65
7.939809e+000 -4.065807e+000 -6.138443e+000 113 98 68
1.193606e+001 -2.328285e+000 -7.803688e+000 106 90 65
-4.452938e+000 -4.450968e+000 -3.750875e+000 196 184 112
3.507267e-002 -7.306860e+000 -7.789586e+000 101 92 75
9.758200e+000 2.616741e+000 -7.633969e+000 106 91 62
-4.705401e+000 -6.590083e+000 -3.739740e+000 200 110 148
-4.379861e+000 -6.029714e+000 -3.691729e+000 193 185 110
6.031094e+000 1.735756e+000 -7.618176e+000 67 47 37
6.415384e+000 5.002730e-001 -6.762150e+000 73 60 44
6.427857e+000 5.091373e-001 -6.794827e+000 73 60 44
-4.825557e+000 9.370138e-001 -4.620691e+000 32 29 29
6.206481e+000 1.549547e+000 -7.109449e+000 149 142 129
-5.945476e+000 -2.096824e-001 -5.279343e+000 52 51 43
1.607732e+000 -6.897165e-002 -9.446683e+000 109 100 80
1.626234e+000 2.176750e-001 -8.009483e+000 107 99 82
-1.885028e+000 -6.708809e-001 -7.938714e+000 91 58 49
6.103081e+000 3.499414e-001 -7.186765e+000 46 37 32
1.032945e+000 -9.190012e-001 -7.941472e+000 95 69 65
-1.006525e-001 -1.206564e+000 -6.589098e+000 102 100 103
6.561829e+000 -1.489657e+000 -5.590895e+000 66 53 34
-8.561647e+000 -4.666882e+000 -6.553696e+000 199 130 162
3.481534e+000 -3.100522e+000 -7.221571e+000 13 19 22
3.481534e+000 -3.100522e+000 -7.221571e+000 13 19 22
2.143748e+000 -4.875940e+000 -8.139692e+000 35 21 14
2.118208e+000 -4.131245e+000 -6.557866e+000 101 90 70
6.547274e+000 -4.798206e+000 -6.411447e+000 117 91 73
4.339067e-001 -6.213195e+000 -6.999856e+000 78 94 93
6.503255e+000 -5.754060e+000 -6.814128e+000 64 51 40
6.505237e+000 -5.762902e+000 -6.829988e+000 64 51 40
6.628250e+000 -6.196118e+000 -6.375284e+000 119 96 74
6.424920e+000 -7.279667e+000 -6.476644e+000 76 62 51
6.650478e+000 -7.586453e+000 -6.536135e+000 72 53 39
-3.174254e+000 -8.988579e+000 -2.921603e+000 94 67 36
-2.867696e+000 -9.382635e+000 -3.379141e+000 53 46 40
-6.475168e+000 1.055761e+000 -1.055253e+001 151 199 212
-6.345467e+000 1.023576e+000 -1.022764e+001 55 99 121
-3.435808e+000 2.233536e+000 -3.701326e+000 86 74 60
3.930193e+000 1.874124e+000 -1.420547e+001 70 64 40
6.178839e+000 3.071571e+000 -6.887035e+000 176 178 94
-4.336379e+000 1.684030e+000 -4.272837e+000 94 84 54
2.750728e+000 1.092401e+000 -1.628169e+001 85 75 66
2.697612e+000 5.581681e-001 -1.433972e+001 53 55 64
-4.881998e+000 7.870410e-001 -4.451923e+000 189 120 153
-3.622795e+000 1.440055e+000 -3.453484e+000 66 90 99
6.303125e+000 1.962347e+000 -6.404046e+000 172 117 89
-1.607880e+000 -6.119155e-001 -8.262991e+000 97 53 50
-1.380779e+000 -7.321219e-001 -8.087086e+000 114 83 80
-1.171444e-001 -6.349257e-001 -8.838468e+000 99 59 47
-9.653008e-002 -4.808589e-001 -8.271105e+000 99 59 47
9.134860e-002 -1.172252e+000 -7.301706e+000 117 108 111
1.010886e+001 1.035500e-001 -7.241752e+000 117 103 77
1.216108e+001 5.646245e-001 -6.209176e+000 41 43 28
5.383111e+000 -1.532875e+000 -7.808821e+000 60 49 47
-9.582940e+000 -3.645743e+000 -6.683272e+000 125 116 111
-3.098621e+000 -1.582785e+000 -3.600591e+000 31 28 29
1.075544e+000 -3.322630e+000 -6.595433e+000 101 76 45
3.152062e+000 -3.650842e+000 -7.901944e+000 30 49 59
-3.277265e+000 -3.312718e+000 -3.083107e+000 79 54 38
2.926746e+000 -5.399506e+000 -9.153952e+000 44 37 19
7.099868e+000 -3.192968e+000 -5.489938e+000 99 56 49
9.036260e-001 -5.808266e+000 -7.408927e+000 93 89 74
-1.629500e+000 -6.927545e+000 -7.235925e+000 85 64 47
1.796543e+000 -6.677765e+000 -7.895609e+000 49 61 67
5.699598e+000 -6.212584e+000 -6.872376e+000 29 26 21
6.714588e+000 -5.568923e+000 -6.109302e+000 71 66 42
6.608749e+000 -6.297175e+000 -6.653073e+000 132 135 118
6.604325e+000 -6.989819e+000 -6.638927e+000 123 114 104
-4.067278e+000 -6.750659e+000 -3.407907e+000 182 134 88
-1.703378e+000 -7.520951e+000 -3.968124e+000 30 22 29
6.717449e+000 -7.946286e+000 -6.302116e+000 139 95 78
2.991297e+000 1.195838e+000 -1.786388e+001 155 116 80
5.109197e+000 2.300659e+000 -1.037542e+001 62 56 42
5.109197e+000 2.300659e+000 -1.037542e+001 62 56 42
6.138885e+000 1.810004e+000 -7.495391e+000 69 40 28
-9.676319e-001 -4.046366e-001 -8.519442e+000 92 58 52
-2.307871e+000 2.644150e-001 -4.352318e+000 18 20 24
7.543063e-001 -6.073404e-001 -9.003433e+000 26 22 25
6.270606e+000 8.188125e-001 -6.966535e+000 99 79 55
1.111535e+000 -6.653822e-001 -8.732589e+000 48 37 35
6.270516e+000 4.865294e-001 -6.882942e+000 122 77 66
3.962849e+000 -3.510704e-001 -7.109377e+000 48 38 32
-7.442017e-001 -1.567201e+000 -6.319587e+000 28 21 16
1.797656e+000 -1.278341e+000 -7.513748e+000 106 106 103
6.150116e+000 -5.874495e-001 -7.400136e+000 66 57 52
6.500753e+000 -3.134413e-001 -5.875655e+000 124 122 95
6.566541e+000 -8.467215e-001 -5.924077e+000 120 121 93
1.142712e+001 -1.817913e-001 -7.070035e+000 90 88 68
1.187287e+001 -1.502831e+000 -7.725810e+000 103 94 76
3.262958e+000 -3.775262e+000 -7.898827e+000 84 84 71
-1.737324e+000 -5.683884e+000 -6.865463e+000 126 134 139
1.590584e+000 -5.723743e+000 -7.298403e+000 91 85 77
1.687543e+000 -5.723498e+000 -7.495692e+000 29 24 16
1.548836e+001 -4.208823e+000 -8.231812e+000 96 86 37
1.047664e+000 -6.885862e+000 -7.691903e+000 39 39 27
2.147831e+000 -6.765682e+000 -8.311485e+000 45 57 64
-3.528671e+000 -5.356270e+000 -3.104083e+000 187 133 105
-3.484031e+000 -7.855639e+000 -3.432042e+000 60 61 64
6.467832e+000 -9.244728e+000 -7.496169e+000 92 71 45
-3.013000e+000 -9.462200e+000 -3.299330e+000 48 40 37
3.085627e+000 1.888794e+000 -1.680731e+001 176 161 102
2.947975e+000 1.510883e+000 -1.773037e+001 163 122 76
5.781479e+000 2.755742e+000 -8.224148e+000 75 65 57
6.581145e+000 7.878827e-001 -6.520021e+000 133 132 101
-3.436594e+000 -5.440424e-001 -3.240994e+000 181 129 106
6.340631e+000 -5.480147e-001 -6.464302e+000 130 151 144
4.697949e-001 -1.499286e+000 -6.417085e+000 107 106 107
6.370089e+000 -9.823468e-001 -7.002887e+000 99 71 52
6.861385e+000 -6.543339e-001 -6.612062e+000 106 39 33
6.444234e+000 -2.955379e+000 -6.721080e+000 125 82 65
9.777027e-001 -4.523027e+000 -6.956482e+000 29 18 15
3.546970e+000 -4.734666e+000 -7.871493e+000 92 70 37
7.304835e+000 -3.767566e+000 -6.433283e+000 36 26 16
1.454239e+001 -4.366449e+000 -8.224068e+000 58 36 25
1.454239e+001 -4.366449e+000 -8.224068e+000 58 36 25
6.617587e+000 -5.744807e+000 -6.648514e+000 112 81 50
6.650309e+000 -6.438955e+000 -6.607751e+000 121 79 57
6.706947e+000 -5.728792e+000 -5.863814e+000 91 84 58
6.713579e+000 -6.396699e+000 -6.352751e+000 141 165 162
6.792551e+000 -9.073827e+000 -6.336984e+000 153 109 60
6.796023e+000 -9.083615e+000 -6.348127e+000 153 109 60
1.572089e+001 -8.707047e+000 -8.390778e+000 81 64 33
5.187740e+000 1.922878e+000 -9.514501e+000 143 102 78
-3.905806e-001 -5.134493e-001 -8.980145e+000 28 25 28
5.691988e+000 7.554297e-001 -7.328617e+000 72 67 64
3.366809e+000 -8.651562e-001 -9.930207e+000 27 17 16
3.918668e+000 -3.102008e-001 -7.546661e+000 105 101 98
3.918668e+000 -3.102008e-001 -7.546661e+000 105 101 98
1.238626e+001 1.171675e+000 -7.246506e+000 95 44 43
6.376812e+000 8.308050e-003 -6.799438e+000 129 151 141
2.157244e+000 -1.363557e+000 -7.577662e+000 28 24 20
-1.042337e+001 -3.402875e+000 -7.339979e+000 36 27 33
-3.456618e+000 -1.232709e+000 -3.358003e+000 195 150 127
-8.892496e+000 -3.571581e+000 -6.827278e+000 173 201 196
6.387250e+000 -1.680812e+000 -6.945451e+000 110 74 57
6.498625e+000 -1.020114e+000 -6.277943e+000 60 62 52
2.821642e+000 -3.130332e+000 -7.075576e+000 38 58 69
3.951924e-001 -4.108986e+000 -7.183820e+000 59 48 46
8.074719e+000 -3.810905e+000 -6.245764e+000 111 98 74
-3.427638e+000 -5.212790e+000 -3.368873e+000 179 130 104
5.883141e+000 -5.936384e+000 -7.693463e+000 63 52 44
6.628969e+000 -5.882744e+000 -6.900098e+000 113 78 59
6.708687e+000 -5.467031e+000 -6.587350e+000 132 152 150
6.700926e+000 -5.769295e+000 -6.475155e+000 137 156 155
6.744817e+000 -6.790914e+000 -6.382430e+000 140 156 155
2.659627e+000 1.741710e+000 -1.742133e+001 186 188 131
3.157730e+000 1.514445e+000 -1.565735e+001 152 146 85
4.083535e+000 2.174994e+000 -1.392295e+001 164 160 89
6.146969e+000 2.404939e+000 -7.116511e+000 166 110 87
1.335417e+001 2.793439e+000 -8.681660e+000 42 32 22
1.335417e+001 2.793439e+000 -8.681660e+000 42 32 22
1.326118e+001 -3.890109e-001 -6.985431e+000 56 50 35
-8.805933e+000 -3.975015e+000 -6.816521e+000 179 213 212
1.858294e+000 -6.412533e+000 -8.087022e+000 28 27 23
3.190030e+000 -7.192636e+000 -8.914809e+000 78 74 63
4.379594e+000 -6.572980e+000 -6.816624e+000 38 26 18
-3.154696e+000 -6.620741e+000 -3.003498e+000 82 64 51
-3.544464e+000 -7.525059e+000 -3.064987e+000 55 64 71
-3.544464e+000 -7.525059e+000 -3.064987e+000 55 64 71
5.946055e+000 2.832383e+000 -7.917812e+000 166 162 89
5.218515e+000 1.693918e+000 -8.377536e+000 54 35 28
3.243449e+000 -3.604372e-001 -1.109569e+001 100 95 101
-4.852331e+000 -1.320655e+000 -4.060249e+000 203 245 236
1.141012e+000 -1.400510e+000 -6.833466e+000 52 39 31
1.716176e+000 -1.507052e+000 -7.374476e+000 49 35 32
1.189359e+001 -1.695056e-001 -6.433713e+000 37 30 22
1.326077e+001 -6.413701e-001 -6.961841e+000 91 76 47
2.644682e+000 -3.406823e+000 -7.033946e+000 36 23 19
5.926813e-001 -5.176226e+000 -7.101977e+000 92 72 38
-3.631156e+000 -7.553357e+000 -3.140679e+000 49 58 65
-3.631156e+000 -7.553357e+000 -3.140679e+000 49 58 65
3.707352e+000 2.081393e+000 -1.405753e+001 84 77 58
-4.861611e+000 9.621934e-001 -4.405933e+000 50 44 42
-4.861611e+000 9.621934e-001 -4.405933e+000 50 44 42
5.721413e+000 1.649297e+000 -8.147027e+000 55 103 127
2.687683e+000 -2.944409e-002 -1.001689e+001 73 42 36
5.742293e+000 5.780076e-001 -7.551503e+000 69 63 65
6.083804e+000 3.646640e-001 -7.315483e+000 59 53 49
-4.933988e+000 -8.143938e-001 -4.319460e+000 192 232 221
1.240888e+001 1.071552e+000 -6.520395e+000 58 56 47
3.339161e+000 -1.521785e+000 -6.569185e+000 105 46 52
-4.114790e-002 -1.921509e+000 -6.055972e+000 96 41 46
2.728537e+000 -3.904972e+000 -7.177231e+000 84 81 66
7.964059e+000 -4.160995e+000 -6.122651e+000 110 97 68
4.008983e+000 -8.225786e+000 -8.475105e+000 64 34 32
-4.541538e+000 -7.552687e+000 -4.132499e+000 51 61 67
8.166770e+000 -7.267275e+000 -5.953772e+000 113 101 66
1.060095e+001 -7.186366e+000 -6.826441e+000 114 66 44
3.532885e+000 1.501445e+000 -1.471360e+001 159 147 93
5.956932e+000 2.332315e+000 -8.161312e+000 151 144 74
-3.602230e+000 1.244834e+000 -3.389395e+000 176 119 89
1.195986e+001 6.307588e-001 -7.214800e+000 93 94 84
-3.556271e+000 -1.032426e+000 -3.315576e+000 183 126 97
-6.974910e-001 -1.392219e+000 -6.669448e+000 101 97 92
1.168137e+001 1.708329e-001 -7.100970e+000 30 25 19
3.029175e+000 -2.781359e+000 -6.559432e+000 35 54 61
1.842108e+000 -3.739401e+000 -7.754955e+000 29 19 18
3.925160e-001 -4.978382e+000 -7.577802e+000 30 20 18
-4.948274e+000 -4.461396e+000 -4.084250e+000 201 110 153
-3.487880e+000 -7.176765e+000 -3.216753e+000 182 123 91
7.322021e+000 -8.796174e+000 -5.669090e+000 57 44 28
1.112841e+001 2.581617e+000 -7.507422e+000 103 94 65
4.137619e+000 7.988086e-001 -7.138798e+000 33 28 33
-3.849587e-001 -8.076832e-001 -7.825811e+000 110 109 107
1.517778e+000 -5.594228e-001 -8.396229e+000 47 37 35
4.826140e+000 -5.511993e-001 -8.085006e+000 99 39 47
