ply
format ascii 1.0
element face 0
property list uchar int vertex_indices
element vertex 876
property float x
property float y
property float z
property uchar diffuse_red
property uchar diffuse_green
property uchar diffuse_blue
end_header
3.763692e+000 -1.069452e+000 -7.002985e+000 143 50 68
-2.402247e+000 -5.915858e-001 -5.032178e+000 225 187 122
-1.586818e+000 -1.040364e+000 -4.473323e+000 118 129 131
4.871422e+000 -6.158727e-001 -7.145188e+000 149 113 103
-3.005251e+000 -1.901709e+000 -5.425639e+000 233 225 150
-3.783406e+000 -2.215747e+000 -5.941201e+000 228 215 137
-3.783406e+000 -2.215747e+000 -5.941201e+000 228 215 137
-4.410423e+000 -2.735298e+000 -6.199573e+000 225 213 148
4.708467e+000 -2.007230e+000 -7.431675e+000 64 49 46
-1.337846e+000 -3.133228e+000 -4.204454e+000 48 32 25
-2.035544e+000 -3.960656e+000 -4.627131e+000 210 119 124
5.486789e+000 -3.399938e+000 -6.329603e+000 83 59 47
1.313920e+000 -1.549995e+000 -7.365806e+000 44 29 17
-3.671126e+000 -2.508015e+000 -5.729267e+000 229 214 147
5.521039e+000 -1.845441e+000 -6.631111e+000 58 33 25
-4.752616e+000 -3.356306e+000 -6.491183e+000 225 214 147
-1.377412e+000 -3.303947e+000 -4.283974e+000 67 69 68
2.179978e+000 -3.493196e+000 -6.603068e+000 39 20 20
2.810219e+000 -3.406470e+000 -7.231112e+000 119 102 97
5.757772e+000 -3.106137e+000 -6.445785e+000 148 60 56
2.338746e+000 -3.708305e+000 -6.782483e+000 141 116 78
4.357721e-001 -4.255426e+000 -6.599435e+000 126 66 36
7.062866e-001 -4.203281e+000 -6.655669e+000 137 75 50
5.079541e-001 -4.426412e+000 -6.783403e+000 130 68 46
-1.134170e-001 -4.760984e+000 -6.785886e+000 41 29 33
-1.264677e+000 -5.031644e+000 -4.173535e+000 55 45 38
-1.886434e+000 -4.073890e-002 -4.715070e+000 74 87 93
1.174053e+001 3.731799e+000 -2.399303e+001 158 124 114
1.174053e+001 3.731799e+000 -2.399303e+001 158 124 114
5.031478e+000 -1.773166e-001 -6.689526e+000 129 103 80
5.801645e+000 -4.086880e-001 -6.605704e+000 141 55 50
-2.777197e+000 -1.474236e+000 -5.345947e+000 208 192 115
1.361871e-001 -1.929267e+000 -6.389859e+000 79 53 48
-2.924229e+000 -3.135936e+000 -5.241224e+000 232 225 160
-7.842512e-001 -3.627637e+000 -2.551736e+000 46 58 63
2.190107e+000 -3.886407e+000 -6.804290e+000 148 129 106
5.430880e+000 -3.430590e+000 -6.346608e+000 61 36 24
3.938627e+000 -4.149721e+000 -7.744065e+000 106 48 63
5.449769e+000 -4.141889e+000 -6.297658e+000 131 54 46
2.106212e+000 -4.831393e+000 -7.552912e+000 151 58 75
5.342757e+000 -4.539360e+000 -6.301396e+000 144 124 97
3.740786e-001 -6.327769e+000 -7.599615e+000 159 118 69
5.647665e+000 -5.886881e+000 -6.402936e+000 62 42 36
5.252251e+000 -6.245398e+000 -6.620845e+000 164 96 67
5.926227e+000 -1.834488e+000 -6.734367e+000 140 50 49
5.044092e+000 -4.330320e+000 -7.067209e+000 117 94 94
-1.380352e+000 -4.688868e+000 -4.163829e+000 218 125 127
5.286529e+000 -5.051457e+000 -6.476908e+000 87 63 52
2.497767e+001 -1.105588e+001 -3.538664e+001 53 40 35
4.200978e+000 -3.179380e+000 -7.395452e+000 53 35 32
-6.877591e-001 -4.066341e+000 -5.031738e+000 35 26 24
4.170783e+000 -2.380467e+000 -7.592501e+000 41 26 23
4.707276e+000 -2.792401e+000 -7.203231e+000 55 34 29
-4.644270e+000 -6.827453e+000 -2.953967e+001 210 120 120
4.840882e+000 3.073154e-001 -7.244660e+000 149 107 95
4.960840e+000 -3.452488e-001 -6.736403e+000 72 51 35
4.895804e+000 -8.121523e-001 -7.088319e+000 152 121 108
4.915248e+000 -8.199002e-001 -7.148587e+000 152 121 108
4.930749e+000 -1.041573e+000 -7.133614e+000 148 115 108
4.959208e+000 -1.064064e+000 -7.078873e+000 129 73 65
1.174986e+000 -1.873486e+000 -6.672167e+000 93 75 60
3.122230e+000 -1.774453e+000 -7.364705e+000 50 17 14
4.924748e+000 -1.263186e+000 -7.058619e+000 149 121 109
-5.709014e+000 -3.145680e+000 -6.514817e+000 149 131 119
-3.195861e+000 -2.922424e+000 -5.519128e+000 225 217 150
-2.488273e+000 -2.606845e+000 -5.038137e+000 225 217 146
5.211803e+000 -1.774042e+000 -6.490217e+000 74 50 38
1.237720e+000 -2.816770e+000 -6.349814e+000 161 115 67
4.656070e+000 -2.316452e+000 -6.181616e+000 127 117 124
1.586066e+000 -3.152039e+000 -6.595025e+000 147 97 64
1.586066e+000 -3.152039e+000 -6.595025e+000 147 97 64
-4.289948e-001 -4.723409e+000 -1.094259e+001 42 24 20
4.781611e+000 -3.101439e+000 -5.796302e+000 128 74 69
-1.264554e+000 -4.101520e+000 -4.338213e+000 71 53 49
6.369480e+000 -4.765470e+000 -1.110339e+001 141 131 132
5.458429e+000 -3.533923e+000 -6.336367e+000 68 40 29
-4.876065e-002 -4.701052e+000 -6.770560e+000 108 85 60
2.278106e+000 -5.240786e+000 -7.746926e+000 149 135 135
4.864636e+000 -5.656624e+000 -6.835246e+000 76 58 54
4.857545e+000 7.343251e-001 -7.294775e+000 160 92 60
4.926188e+000 4.402015e-001 -6.836500e+000 158 83 59
-1.458656e+000 -9.973401e-001 -4.449386e+000 49 35 32
-3.721472e+000 -1.781889e+000 -5.879651e+000 231 222 154
-4.074903e-001 -1.306635e+000 -4.206242e-001 19 20 25
5.053948e+000 -1.318957e+000 -6.758975e+000 86 58 41
1.039483e+000 -2.032024e+000 -6.253000e+000 38 26 17
1.038870e+000 -2.027852e+000 -6.225523e+000 38 26 17
-7.087629e+000 -3.452361e+000 -6.171631e+000 72 45 33
4.655726e+000 -2.066021e+000 -7.457015e+000 76 55 50
5.146342e+000 -1.774621e+000 -6.482379e+000 153 160 158
-1.438537e+000 -3.533331e+000 -4.255020e+000 213 126 130
-1.438537e+000 -3.533331e+000 -4.255020e+000 213 126 130
2.264595e+000 -3.569285e+000 -6.545111e+000 140 114 67
5.007177e+000 -3.066922e+000 -7.071209e+000 117 54 44
7.149934e-001 -4.261664e+000 -6.805551e+000 133 70 44
1.362387e+000 -4.555943e+000 -7.138668e+000 41 34 31
3.563989e+000 -4.357305e+000 -7.825246e+000 90 71 68
1.884893e+000 -4.732281e+000 -7.437887e+000 138 126 128
4.778165e+000 -5.725865e+000 -7.054585e+000 77 78 86
6.067571e+000 -5.330608e+000 -6.715388e+000 147 51 54
5.336756e+000 -5.777708e+000 -6.446334e+000 64 47 28
-8.557542e-001 -6.543991e+000 -4.743763e+000 48 61 78
5.782422e+000 -6.376433e+000 -6.288503e+000 71 47 35
1.113637e+001 -7.975014e+000 -8.151267e+000 182 135 61
9.005665e+000 2.513445e+000 -1.400391e+001 177 148 80
-1.531445e+000 -4.484518e-001 -4.488356e+000 86 88 93
-1.619358e+000 -1.125047e+000 -4.494901e+000 86 96 95
5.887649e-001 -1.722123e+000 -6.833446e+000 43 30 21
7.608300e+000 -8.701175e-001 -7.307441e+000 156 130 111
4.983604e+000 -1.329923e+000 -7.136114e+000 122 64 52
2.909344e+000 -5.839474e-001 2.295757e+000 148 58 54
3.762128e+000 -8.635080e-001 -4.700887e-001 154 128 117
5.089093e+000 -1.736312e+000 -6.752981e+000 78 61 56
3.067387e+000 -2.215888e+000 -6.949352e+000 94 63 56
4.586894e+000 -2.120943e+000 -7.396270e+000 45 24 21
1.327653e+000 -3.417348e+000 -6.774805e+000 94 42 29
2.782645e+000 -3.124905e+000 -7.098871e+000 151 141 142
1.939211e+000 -3.651249e+000 -6.505601e+000 142 114 66
2.298272e+000 -3.519931e+000 -6.650111e+000 149 135 131
-2.235173e+000 -7.165210e+000 -1.802783e+001 55 72 87
4.915490e-001 -4.158532e+000 -6.666624e+000 142 92 57
2.229364e+000 -3.825202e+000 -6.858034e+000 153 119 76
3.020722e+000 -5.536787e+000 -8.010820e+000 43 35 33
1.010156e+001 -4.965797e+000 -7.648917e+000 50 29 25
7.681629e+000 -5.718476e+000 -6.806488e+000 142 71 47
7.681629e+000 -5.718476e+000 -6.806488e+000 142 71 47
5.058641e+000 -7.216276e+000 -7.572603e+000 189 140 69
5.814130e+000 -6.716545e+000 -6.292732e+000 66 39 26
1.065951e+001 -6.794187e+000 -7.704493e+000 150 74 52
4.167605e+000 6.054890e-001 -9.333093e+000 62 46 30
-1.427038e+000 -1.211043e+000 -4.301526e+000 68 42 38
4.761278e+000 -8.031613e-001 -7.166715e+000 127 105 105
1.763504e-001 -1.719136e+000 -6.677335e+000 95 42 32
1.753946e-001 -1.717576e+000 -6.664829e+000 95 42 32
4.461568e+000 -1.219061e+000 -7.101437e+000 131 116 113
-2.349603e+000 -2.039473e+000 -4.971502e+000 213 196 102
3.817754e+000 -1.366294e+000 -6.767611e+000 141 52 68
5.117802e+000 -1.250983e+000 -6.624191e+000 137 116 89
7.128780e+000 -1.055662e+000 -7.124286e+000 138 107 75
7.128780e+000 -1.055662e+000 -7.124286e+000 138 107 75
4.677056e+000 -1.779798e+000 -7.527320e+000 59 45 45
5.115152e+000 -1.497966e+000 -6.576885e+000 131 111 84
3.245835e+000 -3.272631e+000 -7.333071e+000 39 28 30
4.895936e+000 -1.442355e+000 -2.090512e-001 138 91 45
-8.667169e-002 -4.606980e+000 -6.644126e+000 108 78 47
7.885297e+000 -3.858758e+000 -7.112165e+000 135 104 80
9.053510e-001 -5.825155e+000 -7.634600e+000 148 138 136
7.692192e+000 -5.721962e+000 -6.824416e+000 138 71 44
6.202097e+000 -6.907194e+000 -6.181941e+000 145 59 48
-3.885054e+000 -1.987152e+000 -6.062239e+000 239 233 175
-2.103082e+000 -1.629139e+000 -4.859214e+000 215 119 118
-1.434522e-001 -1.597510e+000 -7.002314e+000 44 18 14
1.173510e+000 -1.712271e+000 -7.172963e+000 34 23 22
7.996203e-001 -1.769440e+000 -6.751831e+000 41 30 27
2.303805e+000 -1.710325e+000 -7.361983e+000 42 24 23
2.868396e+000 -2.041734e+000 -7.193426e+000 55 32 32
5.994680e+000 -1.593909e+000 -6.775622e+000 152 127 115
7.409478e+000 -1.403495e+000 -7.162969e+000 140 110 84
-6.307878e+000 -3.575381e+000 -6.461486e+000 73 47 42
-5.604857e+000 -3.608401e+000 -6.619755e+000 69 51 39
6.267812e+000 -2.193698e+000 -6.729891e+000 147 121 108
8.732230e+000 -2.139421e+000 -7.519684e+000 147 128 114
2.878601e-001 -4.272661e+000 -6.870077e+000 138 88 50
-6.954310e-001 -3.313570e+000 -2.118536e+000 49 59 68
-1.729120e+000 -4.871781e+000 -4.391819e+000 215 122 125
5.342337e+000 -4.529997e+000 -6.280077e+000 146 124 101
5.383608e+000 -4.927090e+000 -6.368744e+000 141 125 92
5.434550e+000 -5.411766e+000 -6.347016e+000 133 107 84
5.436739e+000 -5.411269e+000 -6.341465e+000 133 107 84
5.964882e+000 -6.931073e+000 -6.147922e+000 145 66 50
2.505616e+000 -1.749087e+000 -7.287806e+000 101 74 58
2.946855e+000 -6.843683e-001 2.280974e+000 140 52 50
1.328076e+000 -3.708760e+000 -6.449430e+000 145 131 130
1.329773e+000 -3.729435e+000 -6.532603e+000 145 131 130
5.637732e-002 -4.300764e+000 -6.886085e+000 32 23 26
-2.447436e-001 -4.992523e+000 -6.787999e+000 108 87 84
-2.194979e+000 -5.309249e+000 -4.714861e+000 215 191 113
1.020542e+000 -5.882488e+000 -7.645776e+000 44 34 34
7.484294e+000 -6.498047e+000 -6.656805e+000 150 128 107
6.492895e+000 -6.881851e+000 -6.309060e+000 144 107 78
-1.672509e+000 2.311689e-001 -4.794609e+000 68 82 85
8.628520e-001 -4.213898e+000 -6.852981e+000 149 114 68
6.097805e+000 -5.328418e+000 -6.513883e+000 146 129 110
4.349072e+000 -2.808364e-001 -7.406632e+000 43 48 54
8.079308e+000 8.619827e-002 -7.598254e+000 151 101 53
4.739670e+000 -6.593148e-001 -7.195901e+000 70 50 41
4.287303e-001 -1.744573e+000 -6.707433e+000 99 78 57
-6.505587e-001 -3.051527e+000 -5.005874e+000 45 70 90
-2.445069e+000 -1.945486e+000 -5.057222e+000 214 198 110
2.685938e+000 -1.919573e+000 -7.250849e+000 102 77 73
-8.441133e-001 -3.271490e+000 -5.026946e+000 30 24 26
9.794097e+000 -2.811671e+000 -7.856254e+000 49 36 33
4.041859e+000 -3.823061e+000 -7.644314e+000 105 42 61
-7.606261e-001 -3.642519e+000 -4.934607e+000 45 67 89
3.268602e+000 -5.654034e+000 -8.460899e+000 46 36 34
9.773595e+000 -5.486924e+000 -7.393596e+000 150 70 52
9.767353e+000 -5.488055e+000 -7.396207e+000 150 70 52
7.755044e+000 -6.431452e+000 -6.937602e+000 146 128 110
5.871963e+000 -1.081499e+000 -6.713547e+000 135 51 43
7.751449e+000 2.980050e-001 -1.154595e+001 143 121 100
1.469552e+000 -3.195783e+000 -6.599385e+000 133 105 91
2.114995e+000 -3.901139e+000 -6.805986e+000 143 109 64
6.935678e-001 -5.395990e+000 -7.252460e+000 42 30 31
4.411080e+000 -1.121443e+000 -7.012966e+000 118 103 100
5.120913e+000 -8.434582e-001 -6.722104e+000 115 85 64
-6.439290e-001 -2.787399e+000 -3.682723e+000 29 27 28
9.635685e+000 -2.730918e-001 -7.904518e+000 147 75 53
9.641150e+000 -2.714879e-001 -7.911651e+000 147 75 53
9.693635e+000 -1.195712e+000 -7.876929e+000 140 65 46
-2.395094e+000 3.096235e-001 -6.306919e+000 87 87 72
-2.337453e+000 -6.827370e-001 -4.738764e+000 216 187 116
-2.297062e+000 -6.334453e-001 -4.913430e+000 216 128 125
8.511643e+000 9.414123e-001 -7.527494e+000 50 35 24
-2.048491e+000 -7.159811e-001 -4.790110e+000 61 68 76
-1.504186e+000 -7.656331e-001 -4.463716e+000 72 76 78
-1.589247e+000 -1.040231e+000 -4.472494e+000 141 153 157
-3.771163e-001 -1.252855e+000 -7.487556e+000 91 67 59
7.762611e-001 -1.263194e+000 -7.890121e+000 36 16 6
-3.265321e-002 -1.382896e+000 -7.343305e+000 34 24 13
-1.215873e-001 -1.574168e+000 -6.943585e+000 37 23 20
-2.871329e+000 -1.737505e+000 -5.246544e+000 223 216 148
8.883070e-001 -1.495079e+000 -7.295208e+000 104 81 65
1.545340e+000 -1.432523e+000 -7.429914e+000 35 18 9
4.829130e+000 -1.259598e+000 -6.986097e+000 98 59 53
-5.458313e+000 -3.744065e+000 -6.887699e+000 166 158 153
5.577503e+000 -3.500094e+000 -6.594442e+000 88 61 50
9.498302e-002 -5.083136e+000 -6.999848e+000 123 96 95
5.163179e+000 -4.891754e+000 -6.868305e+000 147 122 110
4.867890e+000 -5.665485e+000 -6.852454e+000 80 64 59
-1.233638e+000 -6.955406e+000 -4.148734e+000 71 76 70
-1.006708e+000 -6.977481e+000 -4.542347e+000 112 92 71
-1.161957e+000 -6.928324e+000 -4.073963e+000 53 36 27
6.925654e+000 8.609299e-001 -7.256138e+000 145 124 101
4.774325e+000 3.186430e-001 -7.213705e+000 66 34 23
-3.319291e+000 -1.291788e+000 -5.684671e+000 67 58 53
1.921501e+000 -1.331562e+000 -7.991815e+000 69 49 41
1.089347e+000 -1.501632e+000 -7.365821e+000 103 45 46
1.497297e+000 -1.493866e+000 -7.543105e+000 95 79 64
-5.475854e+000 -3.725761e+000 -6.561836e+000 105 85 74
2.125755e+000 -3.960049e+000 -6.956025e+000 143 112 66
5.329314e+000 -4.244345e+000 -6.742194e+000 51 40 34
6.198956e+000 -5.241940e+000 -6.568731e+000 147 50 45
-1.341179e+000 -6.677723e+000 -3.884921e+000 18 17 20
5.760605e+000 -6.939589e+000 -6.040667e+000 180 141 75
2.776544e+000 1.213232e-001 -1.392063e+001 151 110 59
2.988065e+000 1.758218e-001 -1.310823e+001 63 44 28
3.388386e+000 3.299562e-001 -1.168024e+001 60 42 27
4.481437e+000 6.166917e-001 -8.287951e+000 129 97 59
1.625247e+000 -3.451680e-001 -1.202991e+001 122 106 81
5.198692e+000 5.677377e-001 -6.545296e+000 84 60 48
-1.627152e+000 -6.684061e-001 -4.499959e+000 88 106 109
4.622181e+000 5.657260e-002 -7.028205e+000 101 74 71
1.986494e-001 -1.339850e+000 -7.557718e+000 42 32 21
1.949294e+000 -1.340328e+000 -7.999376e+000 75 53 46
4.948532e+000 -6.530876e-001 -7.211144e+000 136 75 57
-2.310921e+000 -1.788735e+000 -4.807538e+000 215 191 111
1.577756e+000 -1.595103e+000 -7.247629e+000 98 79 64
2.070392e+000 -1.667851e+000 -7.301599e+000 100 77 63
-6.322157e+000 -3.850592e+000 -6.603262e+000 84 67 55
5.448006e+000 -1.746711e+000 -6.465739e+000 57 32 28
8.716720e+000 -2.345439e+000 -7.375836e+000 143 126 109
2.124888e+000 -4.102669e+000 -6.989677e+000 148 129 129
2.930879e+000 -5.089532e+000 -7.891603e+000 129 116 117
5.615482e+000 -4.072412e+000 -6.384149e+000 44 27 29
-2.404201e+000 -4.002801e-001 -4.918515e+000 212 203 121
8.720814e-001 -1.556386e+000 -7.210259e+000 31 34 27
8.720814e-001 -1.556386e+000 -7.210259e+000 31 34 27
1.314794e+000 -1.550906e+000 -7.367428e+000 39 27 22
4.418326e+000 -7.925652e-001 -6.988901e+000 124 111 110
1.147138e+000 -1.784382e+000 -6.495383e+000 105 84 63
7.244723e+000 -8.196142e-001 -6.923665e+000 129 104 75
2.548383e+000 -5.732082e+000 -8.046652e+000 136 128 126
4.570956e+000 -5.872011e+000 -7.075091e+000 59 63 79
-2.176392e+000 -6.136867e+000 -4.775326e+000 205 193 109
-9.752162e-001 -7.052727e+000 -4.487901e+000 117 96 69
-4.589262e-001 -1.305993e+000 -6.751040e+000 33 20 23
3.411002e+000 -8.543580e-001 -7.088439e+000 52 32 29
7.870568e+000 -4.515250e-002 -7.235780e+000 147 106 49
-2.211042e+000 -1.793280e+000 -4.875004e+000 90 98 100
-7.995352e-001 -1.687158e+000 -5.130408e+000 33 25 24
-4.927147e+000 -3.082293e+000 -6.575331e+000 193 175 103
1.133564e+000 -3.359447e+000 -7.020468e+000 34 22 16
5.043314e+000 -2.985246e+000 -7.033193e+000 125 67 57
3.016172e+000 -5.315250e+000 -8.133651e+000 38 27 31
5.023699e+000 -4.707493e+000 -7.048434e+000 58 38 39
5.258716e+000 -5.230122e+000 -6.712317e+000 151 148 141
1.143186e+001 -6.703830e+000 -8.029158e+000 121 78 48
1.141291e+001 -6.775864e+000 -7.827016e+000 179 141 79
-2.049493e+000 -5.699281e-002 -4.744541e+000 227 132 130
4.435548e+000 2.925400e-001 -7.360779e+000 61 87 104
-2.267985e+000 -1.052484e+000 -4.927349e+000 212 116 120
4.851928e+000 -2.622164e-001 -7.193332e+000 122 64 54
3.378373e+000 -1.051626e+000 -6.688090e+000 59 32 31
2.943245e+000 -1.479601e+000 -7.560863e+000 57 27 27
4.763771e+000 -2.993503e+000 -7.217075e+000 65 46 41
3.218018e+000 -3.804998e+000 -7.468831e+000 42 23 22
3.236595e+000 -3.844132e+000 -7.577169e+000 42 23 22
3.163973e+000 -4.031372e+000 -7.556288e+000 135 93 55
4.688369e+000 -5.902606e+000 -6.941972e+000 53 41 40
5.226656e+000 -6.560980e+000 -6.719160e+000 172 104 67
-1.118686e+000 -6.736581e+000 -4.155473e+000 39 25 16
5.654458e+000 8.633122e-001 -6.816180e+000 146 127 113
7.778542e+000 8.717722e-001 -7.461196e+000 147 132 109
2.950661e-001 -1.442568e+000 -7.338802e+000 98 81 55
2.950661e-001 -1.442568e+000 -7.338802e+000 98 81 55
1.618623e+000 -1.373641e+000 -7.760509e+000 86 66 57
2.054990e+000 -1.163846e+000 -8.082873e+000 42 24 20
9.582418e-001 -1.689441e+000 -7.054625e+000 104 82 59
9.591354e-001 -1.689175e+000 -7.055653e+000 104 82 59
5.804379e-001 -1.809465e+000 -6.491575e+000 98 72 55
-1.390492e+000 -2.440799e+000 -4.721648e+000 66 48 38
1.680782e+000 -2.885003e+000 -6.483375e+000 152 110 60
1.688033e+000 -2.904064e+000 -6.543047e+000 152 110 60
3.208964e+000 -3.419917e+000 -7.297316e+000 138 126 132
1.002137e+001 -2.874644e+000 -7.945875e+000 51 41 32
1.002425e+001 -2.873390e+000 -7.940657e+000 51 41 32
4.592646e+000 -4.555430e+000 -6.946018e+000 87 76 74
6.295537e+000 -5.229933e+000 -6.484420e+000 142 68 58
5.008342e+000 -6.893844e+000 -7.262854e+000 102 82 51
1.096644e+001 -6.706388e+000 -7.788444e+000 78 50 36
-2.478759e+000 -5.932271e-001 -4.955559e+000 208 192 111
4.474142e+000 -6.061637e-001 -7.427229e+000 98 86 89
3.039304e+000 -2.091110e+000 -6.916525e+000 79 54 44
1.441786e+000 -3.478985e+000 -6.570812e+000 39 21 17
7.731961e+000 -3.378922e+000 -7.042986e+000 146 71 48
-6.982336e-001 -6.447127e+000 -4.860220e+000 27 19 22
-6.982336e-001 -6.447127e+000 -4.860220e+000 27 19 22
-8.739124e-001 -6.929584e+000 -4.671659e+000 24 19 25
8.970736e+000 -6.449506e+000 -7.226590e+000 146 126 109
2.800715e+000 -2.337090e+000 -7.147716e+000 23 14 15
-7.243112e-001 -6.048961e+000 -4.856761e+000 40 66 82
4.955757e+000 1.956082e-001 -6.786510e+000 147 150 151
-1.684979e+000 -1.271263e+000 -4.463115e+000 214 118 120
-1.973346e+000 -1.802470e+000 -4.717465e+000 68 79 82
-8.121945e-001 -2.845790e+000 -4.948535e+000 36 62 79
-1.651755e+000 -3.514722e+000 -4.366399e+000 211 119 119
3.240162e+000 -5.601035e+000 -8.334189e+000 35 30 27
-1.165997e+000 -5.773467e+000 -4.424715e+000 54 39 34
-1.891818e+000 -2.624433e-001 -4.666852e+000 210 110 111
-8.856832e-001 -5.171682e-001 -5.162273e+000 46 69 92
-8.856832e-001 -5.171682e-001 -5.162273e+000 46 69 92
4.673364e+000 -5.789744e+000 -6.920353e+000 56 51 56
-1.487671e+000 -4.511373e-002 -6.368402e+000 40 46 47
2.454268e+000 -2.772419e+000 -7.343107e+000 32 10 12
-1.025361e+000 -4.391867e+000 -9.356127e+000 53 78 98
1.799467e+000 -2.577604e+000 -9.065268e+000 66 35 16
4.919442e+000 3.879100e-001 -7.161517e+000 154 135 120
4.608326e+000 -1.646052e-001 -7.202356e+000 118 88 76
-3.023353e+000 -2.139172e+000 -5.307748e+000 231 225 168
1.477063e+000 -4.792549e+000 -7.133292e+000 138 124 123
5.160870e+000 -4.868318e+000 -6.833368e+000 156 122 111
7.676836e+000 -5.714860e+000 -6.864963e+000 146 65 44
5.266510e+000 -6.207602e+000 -6.643764e+000 156 87 62
5.481939e+000 -3.441002e+000 -6.463449e+000 64 37 28
4.960977e+000 -7.050521e+000 -7.908202e+000 99 68 44
5.600429e+000 -1.852269e+000 -6.650827e+000 146 61 56
5.128625e+000 -2.911082e+000 -6.946809e+000 143 135 133
5.353451e+000 -4.678571e+000 -6.292005e+000 142 118 90
5.353451e+000 -4.678571e+000 -6.292005e+000 142 118 90
5.303326e+000 -5.562897e+000 -6.403105e+000 67 46 29
-5.818640e+001 -4.893367e+000 -1.120770e+002 167 163 116
-5.749818e+001 -7.019423e+000 -1.109985e+002 169 164 119
7.722813e+000 -5.468646e+000 -6.911420e+000 136 96 65
6.510407e+000 -6.374920e+000 -6.599602e+000 144 57 48
-5.808476e+001 -8.196244e+000 -1.115827e+002 143 129 99
-3.901899e+001 -9.198758e+000 -1.141280e+002 126 123 109
-3.620188e+001 -2.425072e+001 -1.117544e+002 127 112 93
-5.171364e+001 -1.346786e+001 -1.099475e+002 110 115 118
-5.171364e+001 -1.346786e+001 -1.099475e+002 110 115 118
6.144703e+000 -4.721865e+000 -6.345212e+000 150 119 101
-3.960611e+001 -1.857637e+001 -1.148600e+002 121 92 92
-3.652271e+001 -1.654990e+001 -1.122174e+002 137 137 102
-4.884256e+001 -8.836135e+000 -1.141458e+002 70 84 106
5.048110e+000 -4.618259e+000 -7.004686e+000 95 63 54
-5.039474e+001 -1.239745e+001 -1.115684e+002 108 111 115
-5.039474e+001 -1.239745e+001 -1.115684e+002 108 111 115
-5.191817e+001 -1.537873e+001 -1.112171e+002 159 166 172
-5.191817e+001 -1.537873e+001 -1.112171e+002 159 166 172
-4.967265e+001 -1.720357e+001 -1.103672e+002 143 86 92
-1.165602e+000 -1.067273e+000 -8.864710e+000 39 27 27
-5.373037e+001 -7.790757e+000 -1.098759e+002 129 150 168
-5.869188e+001 -8.630187e+000 -1.145695e+002 143 128 99
-5.497783e+001 -1.605829e+001 -1.116903e+002 160 170 173
-4.833128e+001 -1.893241e+001 -1.112163e+002 163 168 171
-4.531600e+001 -1.280126e+001 -1.110423e+002 152 56 68
-4.935801e+001 -1.511258e+001 -1.127774e+002 159 164 168
-3.907905e+001 -2.224351e+001 -1.111868e+002 55 100 148
4.308471e+000 -2.582034e+000 -4.796376e+000 146 104 90
-1.699175e+000 -3.539890e+000 -4.300146e+000 244 183 178
8.940445e+000 -4.648298e+000 -7.345698e+000 131 101 83
-2.872457e+000 -6.260057e+000 -8.826373e+000 216 124 127
-2.261745e+000 -1.885442e+000 -5.054710e+000 219 123 124
-1.504975e+000 -2.620771e+000 -5.036704e+000 68 75 75
1.966723e+000 -3.962466e+000 -6.713975e+000 147 110 66
5.351521e+000 6.638868e-001 -6.782861e+000 71 43 29
4.560922e+000 -2.526496e-002 -7.099104e+000 64 39 35
-1.995464e+000 -2.766575e+000 -4.503657e+000 221 119 112
-2.282516e+000 -3.230602e+000 -4.773068e+000 224 199 117
3.476049e+000 -1.160346e+000 -6.738386e+000 146 55 73
-1.838160e+000 -2.747669e+000 -4.296607e+000 79 91 94
7.659680e+000 -5.817153e+000 -6.797129e+000 148 117 99
-8.453564e-001 -8.831086e-001 -5.500081e+000 36 26 25
-5.523002e+001 -3.752632e+001 -1.100749e+002 147 131 102
-4.408181e+001 -4.851646e+001 -1.099547e+002 142 106 120
-5.402811e+001 -5.217734e+001 -1.118117e+002 153 111 95
-5.982580e+001 -3.389176e+000 -1.119687e+002 166 160 124
-5.622943e+001 -3.852288e+000 -1.069595e+002 142 128 101
-5.777865e+001 -3.955682e+001 -1.101132e+002 176 167 170
-5.574445e+001 -3.912233e+001 -1.086813e+002 153 113 114
-3.966885e+001 -3.878499e+001 -1.157467e+002 67 124 160
-5.528483e+001 -4.090509e+001 -1.098384e+002 167 166 138
-3.842135e+001 -4.293967e+001 -1.200347e+002 158 161 166
-5.295148e+001 -4.825560e+001 -1.107735e+002 132 102 97
-5.854845e+001 7.903387e+000 -1.091415e+002 148 152 153
-5.942563e+001 3.247776e+000 -1.098204e+002 157 166 168
-5.729961e+001 1.759949e+000 -1.096999e+002 109 117 120
1.020644e+000 -1.760999e+000 -6.641269e+000 107 80 63
-5.845640e+001 -3.725665e+001 -1.074234e+002 173 162 141
-5.706195e+001 -3.674297e+001 -1.094862e+002 173 164 133
-5.972519e+001 -3.979472e+001 -1.073475e+002 173 169 137
-5.972519e+001 -3.979472e+001 -1.073475e+002 173 169 137
-5.477508e+001 -3.886816e+001 -1.100431e+002 200 201 170
-5.864401e+001 -4.041612e+001 -1.084526e+002 150 114 114
-5.879683e+001 -4.265505e+001 -1.091503e+002 176 167 136
-5.714533e+001 -4.329230e+001 -1.107624e+002 171 165 133
-5.474164e+001 -4.367142e+001 -1.151861e+002 157 159 116
-4.122423e+001 -4.091260e+001 -1.126791e+002 161 170 174
-5.353144e+001 -4.661246e+001 -1.094249e+002 169 152 158
-4.910082e+001 -4.545030e+001 -1.054177e+002 157 144 136
-4.910082e+001 -4.545030e+001 -1.054177e+002 157 144 136
-4.076468e+001 -4.923623e+001 -1.133683e+002 158 161 166
-5.717302e+001 -4.965371e+001 -1.079366e+002 105 97 80
-5.447670e+001 2.491458e+000 -1.118789e+002 113 118 121
-5.394719e+001 5.153976e-001 -1.115473e+002 159 165 165
-4.693063e+001 -4.100444e+001 -1.115055e+002 149 151 112
-5.391348e+001 -4.540500e+001 -1.116984e+002 139 120 88
-4.615123e+001 -4.881004e+001 -1.111342e+002 164 137 142
5.367354e+000 -1.931149e+000 -6.462744e+000 75 47 37
-8.784903e-001 -2.486735e+000 -5.005434e+000 35 27 28
-4.646629e+001 -4.073881e+001 -1.158146e+002 140 126 93
-3.563467e+001 -3.940300e+001 -1.156089e+002 174 172 175
-5.906637e+001 -4.555548e+001 -1.117701e+002 135 120 89
-3.903471e+001 -4.016042e+001 -1.136731e+002 79 128 160
-3.903471e+001 -4.016042e+001 -1.136731e+002 79 128 160
-4.794645e+001 -4.671127e+001 -1.156692e+002 136 121 90
-4.912530e+001 2.824251e+000 -1.102977e+002 149 159 161
7.813021e+000 -4.511746e+000 -7.046282e+000 145 122 104
5.057961e+000 -7.345433e-002 -6.842616e+000 58 39 33
1.433317e+000 -4.560502e+000 -7.169969e+000 133 104 76
6.063967e+000 -2.433616e+000 -6.721275e+000 144 55 48
1.347975e+000 -4.406890e+000 -7.071372e+000 135 75 48
-2.404005e+000 -6.011305e+000 -7.072823e+000 204 124 120
-8.155821e-001 -6.290464e+000 -4.746387e+000 25 26 22
-2.685873e+000 -1.473782e+000 -5.269971e+000 223 217 153
7.546524e+000 -8.932590e-001 -7.273457e+000 153 125 103
4.943677e+000 -3.759226e+000 -6.933612e+000 120 108 110
9.450355e-001 -5.569115e+000 -7.427293e+000 144 133 139
5.151134e+000 -1.238194e+000 -6.694039e+000 130 109 84
5.753244e+000 -5.053169e+000 -5.838101e+000 148 58 51
-4.432295e+001 3.979876e+000 -1.126860e+002 122 130 132
-5.688700e+001 -4.281812e+000 -1.169246e+002 118 149 169
-1.994594e+000 -1.618440e-002 -4.799182e+000 83 100 100
4.434961e+000 7.641772e-001 -8.544450e+000 120 100 75
6.115822e+000 -1.809631e-001 -6.948168e+000 151 129 112
-2.173869e+000 -2.864489e+000 -4.731213e+000 210 131 126
3.767696e-001 -4.714518e+000 -6.934346e+000 136 117 113
1.527254e+000 -4.840815e+000 -7.370229e+000 144 132 134
1.516116e+001 -1.380135e+001 -4.290808e+001 151 114 101
1.687472e+000 -2.557805e-001 2.194732e+000 35 29 25
5.122572e+000 -1.069790e+000 -6.639401e+000 120 102 78
5.489507e+000 -2.294754e+000 -6.431038e+000 62 35 27
2.333631e+000 -3.826606e+000 -6.824655e+000 158 128 116
5.574002e+000 -3.483451e+000 -6.375900e+000 68 43 36
4.553489e+000 -1.576518e-002 -7.072773e+000 77 46 41
-5.806654e+001 -2.036040e+001 -1.100473e+002 122 107 85
2.452804e+001 -2.656474e+001 -6.987795e+001 113 87 62
7.783526e+000 -5.649389e+000 -6.894867e+000 147 75 51
2.256972e+001 -1.014898e+001 -4.379616e+001 139 105 80
2.550855e+000 -5.389067e+000 -7.966077e+000 144 130 130
-5.721619e+001 -3.071815e+000 -1.144811e+002 131 151 159
-4.401931e+001 -1.533566e+001 -1.107732e+002 161 107 69
-4.745415e+001 -4.832716e+000 -1.165772e+002 158 169 173
4.870218e+000 4.075529e-001 -7.080314e+000 153 84 70
-2.818635e+000 -2.236766e+000 -5.288310e+000 228 222 162
5.217694e+000 -1.869982e+000 -6.474262e+000 80 50 39
-6.593582e+000 -3.413905e+000 -6.115563e+000 155 129 112
-6.151849e+000 -3.689751e+000 -6.360376e+000 73 53 45
5.361283e+000 -4.534551e+000 -6.306697e+000 158 134 108
5.399081e+000 -5.756382e+000 -6.235933e+000 68 45 27
4.809769e+000 -5.965817e+000 -6.417642e+000 71 90 103
4.799714e+000 -8.058081e-001 -7.196196e+000 132 107 102
-2.930173e+000 -3.131995e+000 -5.256382e+000 227 228 194
-6.177170e+000 -3.739613e+000 -6.414514e+000 115 95 88
5.492279e-001 -4.357498e+000 -6.661103e+000 142 89 55
5.057330e+000 -4.686224e+000 -6.876053e+000 85 39 36
5.093218e+000 -2.421505e-002 -7.146856e+000 61 52 37
5.096454e+000 -1.559245e+000 -6.788765e+000 82 57 46
-6.036003e+000 -3.537383e+000 -6.382980e+000 65 43 37
-6.036003e+000 -3.537383e+000 -6.382980e+000 65 43 37
1.560264e+000 -3.518902e+000 -6.412111e+000 152 130 116
-6.787019e+000 -3.817697e+000 -6.810929e+000 74 55 71
-6.151036e+000 -3.886563e+000 -6.701240e+000 72 54 44
2.567342e+000 -3.587612e+000 -6.874383e+000 144 130 119
5.668805e+000 -3.899517e+000 -6.533685e+000 71 46 33
5.619124e+000 -4.059852e+000 -6.378583e+000 52 34 27
1.854979e+000 -4.326703e+000 -7.139675e+000 136 98 55
2.106325e+000 -4.566869e+000 -7.408654e+000 129 119 117
7.700826e-004 -5.137192e+000 -6.855584e+000 37 24 28
5.331469e+000 -5.767045e+000 -6.421344e+000 52 35 24
5.748523e+000 -6.573185e+000 -6.093687e+000 70 41 27
5.076087e+000 -6.829445e+000 -7.331100e+000 87 68 35
3.407355e+000 3.021011e-001 -1.131955e+001 131 98 55
3.407355e+000 3.021011e-001 -1.131955e+001 131 98 55
1.879223e-001 -1.819116e+000 -1.055790e+001 79 62 63
-5.955727e+000 -3.883328e+000 -6.843843e+000 78 57 52
-2.137771e+000 -4.083906e+000 -4.738187e+000 83 81 88
2.668306e+000 -3.718803e+000 -7.036372e+000 156 129 118
5.206764e+000 -3.630594e+000 -6.950468e+000 150 135 147
2.105653e+000 -4.042303e+000 -6.780734e+000 147 126 115
3.760327e+000 -5.080458e+000 -6.599145e+000 140 51 69
1.997536e+000 -5.474810e+000 -7.768687e+000 148 132 132
5.116656e+000 -5.288978e+000 -6.807434e+000 118 63 53
7.999685e+000 -5.455098e+000 -7.123512e+000 147 116 97
4.572646e+000 9.297224e-001 -7.955303e+000 136 105 77
4.583508e+000 3.653365e-001 -7.390365e+000 89 42 33
4.741396e+000 -1.295370e+000 -7.314915e+000 67 45 47
7.580441e+000 -3.213721e+000 -7.065540e+000 140 121 106
-5.473984e+000 -3.714954e+000 -6.949977e+000 72 58 47
4.017100e-002 -4.392525e+000 -6.663826e+000 113 84 61
-8.689826e-002 -4.670213e+000 -6.592625e+000 107 69 48
4.079723e+000 -4.557210e+000 -6.547904e+000 32 19 26
-1.277139e+000 -6.120140e+000 -4.177459e+000 71 75 78
3.159685e+000 -7.383055e+000 -1.296543e+001 186 126 72
-5.512198e+000 -3.567573e+000 -6.353906e+000 70 50 43
-3.728772e+001 -2.209986e+001 -1.112112e+002 43 102 148
9.589270e+000 6.811490e-001 -8.033483e+000 133 68 44
5.895892e+000 -6.099461e-001 -6.769183e+000 140 113 96
9.485255e+000 -1.140390e+000 -8.163199e+000 53 38 33
4.948279e+000 -1.869331e+000 -7.022629e+000 122 67 57
-2.203591e+000 -1.240694e+000 -4.694190e+000 219 111 111
-5.352940e+000 -3.920366e+000 -6.819488e+000 160 166 166
4.643830e+000 -5.887536e+000 -6.849239e+000 49 43 45
-3.497027e+001 -9.903289e+000 -1.163940e+002 144 140 132
-3.367765e+001 -1.938309e+001 -1.131701e+002 50 99 142
-3.367765e+001 -1.938309e+001 -1.131701e+002 50 99 142
8.406449e+000 7.254936e-001 -7.653403e+000 140 115 93
4.649283e+000 -4.978978e-001 -7.251140e+000 59 37 34
4.286665e+000 -1.095920e+000 -7.243737e+000 44 36 33
9.688494e+000 -1.165183e+000 -7.942159e+000 141 65 49
1.815946e+000 -5.380176e+000 -7.689955e+000 143 128 131
-8.164658e-001 -3.653689e+000 -4.915436e+000 46 65 80
-8.164658e-001 -3.653689e+000 -4.915436e+000 46 65 80
-3.816006e+001 -1.299494e+001 -1.152562e+002 146 155 160
2.559446e+000 -5.067396e+000 -7.357642e+000 138 122 125
7.252394e+000 -2.512464e+000 -6.435664e+000 142 121 105
4.859087e+000 -1.223665e-001 -7.138495e+000 145 115 103
1.945118e-001 -1.290602e+000 -7.680860e+000 104 61 41
3.967579e+000 -7.832476e-001 -6.871291e+000 121 61 73
-2.349046e-001 -1.669951e+000 -6.648827e+000 101 63 50
2.170799e+000 -1.714239e+000 -7.366547e+000 88 65 62
2.171914e+000 -1.681225e+000 -7.312137e+000 88 65 62
5.017812e+000 -9.623990e-001 -6.781759e+000 77 56 39
4.512742e+000 -1.980392e+000 -7.484288e+000 92 73 66
-1.583357e+000 -6.231668e+000 -1.429127e+001 21 20 26
-1.948090e+000 -4.893845e-002 -4.657063e+000 206 124 123
5.779611e+000 8.968299e-001 -6.896836e+000 144 128 110
6.914667e+000 9.350984e-001 -7.197734e+000 80 59 35
-5.949435e+000 -3.037933e+000 -7.037781e+000 125 116 99
-5.949435e+000 -3.037933e+000 -7.037781e+000 125 116 99
-8.094909e+000 -3.496937e+000 -6.156235e+000 62 46 30
4.636358e+000 -1.975178e+000 -7.510301e+000 85 68 61
5.175805e+000 -5.544756e+000 -6.767827e+000 142 101 89
8.664541e+000 -1.647019e-001 -7.726013e+000 150 133 115
-5.723896e+000 -3.355589e+000 -6.490006e+000 54 41 35
5.092568e+000 -5.230708e+000 -6.944565e+000 135 115 114
-5.548266e+000 -3.208748e+000 -6.440483e+000 61 41 32
-2.260484e+000 -2.944421e+000 -4.709362e+000 211 191 113
5.178137e+000 -5.413224e+000 -6.759742e+000 120 71 53
1.050651e+001 -6.768038e+000 -7.416867e+000 193 149 84
8.299272e+000 -1.810963e+000 -7.388118e+000 132 108 80
5.830990e+000 -7.084011e+000 -6.178866e+000 182 143 74
-1.777953e+000 1.088896e-004 -4.626574e+000 73 80 86
4.019397e+000 -3.839188e+000 -6.474211e+000 41 27 27
3.221563e+000 2.116998e-001 -1.254234e+001 58 42 26
-3.699545e+000 -1.412681e+000 -5.986125e+000 182 155 134
-3.096748e-001 -1.559847e+000 -6.888573e+000 89 73 55
1.368762e+000 -1.382768e+000 -7.799969e+000 36 22 13
-5.892699e+000 -3.015170e+000 -7.049462e+000 53 42 33
3.007491e-003 -1.558708e+000 -6.954733e+000 23 17 11
1.076706e+000 -1.548455e+000 -7.293107e+000 113 68 64
-3.036070e+000 -2.092461e+000 -5.354077e+000 223 222 164
5.059959e+000 -1.138071e+000 -6.862955e+000 78 67 51
1.460192e+000 -1.871596e+000 -6.637894e+000 33 19 10
-3.709177e+000 -3.083313e+000 -5.781368e+000 221 213 141
-1.380977e+000 -2.450079e+000 -4.344663e+000 57 39 31
4.354206e-001 -4.187819e+000 -6.604662e+000 108 60 37
5.035838e+000 -3.751556e+000 -7.011338e+000 104 60 50
-1.577423e+000 7.118280e-001 -4.685365e+000 148 143 116
5.130712e+000 7.260815e-001 -6.634268e+000 61 39 26
-1.648372e+000 -1.078598e+000 -4.453068e+000 66 89 92
4.011347e+000 -7.620734e-001 -6.778742e+000 32 23 21
4.786931e+000 -7.708860e-001 -7.122107e+000 112 99 98
-4.411637e+000 -2.956120e+000 -6.234325e+000 218 215 146
3.075617e+000 -2.052142e+000 -6.890526e+000 104 81 75
5.390634e+000 -2.233822e+000 -6.573046e+000 64 41 33
5.384218e+000 -2.202850e+000 -6.346094e+000 88 60 57
5.540591e+000 -2.366871e+000 -6.582161e+000 60 35 27
1.551907e+000 -3.503802e+000 -6.383930e+000 148 135 118
5.530085e+000 -3.989759e+000 -6.366892e+000 80 63 46
5.029075e+000 -4.720078e+000 -6.852849e+000 125 107 108
-6.656155e-001 -7.142758e+000 -8.192480e+000 39 28 28
-2.147785e+000 -6.174361e+000 -4.973895e+000 204 112 113
1.099229e+001 -6.894918e+000 -8.100413e+000 145 85 58
4.478106e+000 6.739465e-001 -8.434811e+000 49 39 20
4.904563e+000 3.637058e-001 -7.026691e+000 152 147 147
1.442973e+000 -1.891328e+000 -6.596715e+000 36 23 16
1.465100e+000 -1.884600e+000 -6.595542e+000 36 23 16
4.431088e+000 -1.843189e+000 -7.473133e+000 63 48 47
3.968411e+000 4.627934e-002 -1.275400e+000 142 54 53
5.295768e+000 -1.752285e+000 -6.461253e+000 58 34 29
5.487274e+000 -2.106423e+000 -6.503661e+000 61 42 34
5.557173e+000 -2.908166e+000 -6.507961e+000 63 35 34
3.733763e+000 -4.277777e+000 -7.870122e+000 29 23 24
1.904806e+001 -1.288791e+001 -3.173557e+001 139 70 42
-1.473190e-001 -5.269079e+000 -6.928304e+000 117 80 61
1.609745e+000 -5.472178e+000 -7.603185e+000 147 141 141
5.606800e+000 -4.067246e+000 -6.365966e+000 43 24 21
5.723378e+000 -6.451275e+000 -6.103036e+000 70 44 34
4.174745e+000 5.829614e-001 -9.365238e+000 56 40 25
5.097041e+000 -7.230693e-001 -6.642446e+000 121 100 78
1.400005e+000 -1.840147e+000 -6.722640e+000 100 79 57
3.851424e+000 -1.397226e+000 -6.876083e+000 139 55 78
2.313756e+000 -3.524941e+000 -6.641133e+000 146 132 132
5.869267e-001 -5.624277e+000 -7.402328e+000 38 33 37
-3.876067e-001 -6.077669e+000 -4.991447e+000 39 24 27
5.208355e+000 -6.062457e+000 -6.703187e+000 112 73 61
1.125486e+001 -6.739814e+000 -7.925767e+000 153 120 68
5.647991e+000 -7.036535e+000 -6.096027e+000 181 152 82
6.182850e+000 -6.881940e+000 -6.174424e+000 140 57 51
-2.526703e+000 -1.069796e-001 -5.202253e+000 58 66 66
5.006219e+000 -1.175470e+000 -6.969671e+000 137 134 133
4.148273e+000 -2.850381e+000 -7.282568e+000 47 32 29
6.235093e+000 -3.346680e+000 -6.529022e+000 147 131 112
7.780938e+000 -3.187455e+000 -7.023693e+000 144 80 45
1.069955e+001 -3.875708e+000 -7.974607e+000 81 55 44
1.069955e+001 -3.875708e+000 -7.974607e+000 81 55 44
5.215500e+000 -4.564323e+000 -6.740585e+000 143 143 146
-2.123449e+000 -5.819337e+000 -4.909144e+000 209 114 117
1.007799e+001 -4.978308e+000 -7.654193e+000 51 36 30
1.092580e+000 -2.033369e+000 -6.186628e+000 80 72 69
5.012047e+000 -3.362793e+000 -7.458457e+000 118 110 118
9.992309e+000 -2.843265e+000 -7.895070e+000 48 37 28
2.412865e-001 -4.923114e+000 -6.933491e+000 121 112 110
1.127082e+001 -3.638640e+000 -8.087152e+000 143 113 64
1.207438e+000 -5.720421e+000 -7.632316e+000 141 137 137
8.879092e+000 -4.521037e+000 -7.339435e+000 145 128 113
2.517639e+000 -1.725269e+000 -7.155830e+000 100 76 64
3.209636e+000 -3.429371e+000 -7.309911e+000 130 121 126
-1.674367e+000 2.182129e-001 -4.796288e+000 65 79 81
-2.690867e+000 -2.753911e-001 -5.405034e+000 183 123 95
5.892701e+000 -7.650503e-002 -6.769417e+000 140 59 56
1.404436e+000 -1.762227e+000 -7.196999e+000 99 81 61
1.838038e+000 -1.617202e+000 -7.309514e+000 90 71 58
1.883685e+000 -1.620258e+000 -7.350488e+000 90 71 58
6.221922e+000 -4.772671e+000 -6.513692e+000 137 120 100
-7.312807e-001 -5.683257e+000 -4.921164e+000 28 22 22
9.961249e+000 -4.959599e+000 -7.661876e+000 48 38 29
1.141293e+001 -5.161269e+000 -7.928618e+000 141 114 64
1.158260e+001 -6.293423e+000 -7.931750e+000 156 127 72
2.456808e-001 -5.509385e+000 -7.125731e+000 132 128 130
1.148719e+001 -5.731159e+000 -7.925603e+000 156 129 73
1.139521e+001 -7.058933e+000 -7.969535e+000 182 144 81
-4.871961e-001 -3.242561e+000 -5.062093e+000 42 69 97
-7.940029e-001 -3.621598e+000 -4.918124e+000 40 68 88
-1.864385e+000 -4.072695e+000 -4.571434e+000 70 82 86
9.965980e+000 -3.362753e+000 -7.726611e+000 140 72 53
1.092265e+001 -3.717863e+000 -8.024693e+000 75 45 34
1.016962e+001 -4.509134e+000 -7.629032e+000 138 70 51
1.005265e+001 -5.551181e+000 -7.549559e+000 146 76 51
1.137035e+001 -6.517884e+000 -8.242539e+000 73 51 37
9.497462e+000 -4.713941e+000 -7.602880e+000 48 39 34
-1.238320e+000 -5.328436e+000 -4.521176e+000 57 44 36
6.045352e+000 -2.644857e+000 -6.572191e+000 139 113 100
-5.277544e-001 -1.412928e+000 -1.024941e+001 47 37 40
-4.600353e+000 -1.921508e+000 -7.984711e+000 89 107 107
-4.685383e+000 -2.058958e+000 -7.743819e+000 98 118 119
-4.518984e+000 -2.012109e+000 -7.351181e+000 98 122 123
8.834485e+000 7.108072e-001 -8.252367e+000 140 137 132
-5.402063e+000 -3.131135e+000 -6.493479e+000 89 72 64
5.140194e+000 -6.287915e-001 -7.305102e+000 69 49 44
-4.688908e+000 -3.084890e+000 -6.314743e+000 196 199 143
-3.205935e+000 -2.267657e+000 -5.494348e+000 207 219 183
-3.205935e+000 -2.267657e+000 -5.494348e+000 207 219 183
-6.265265e-001 -3.935599e+000 -4.707934e+000 43 77 106
1.089653e+000 -5.209713e+000 -7.413710e+000 148 102 112
-2.069753e+000 -5.687193e+000 -4.471987e+000 211 109 133
-3.342465e+000 1.519578e-002 -9.727984e+000 59 68 78
2.391648e+000 -4.797088e-001 -1.280502e+001 103 65 62
3.455780e+000 7.225119e-002 -1.235277e+001 94 71 53
-2.365604e+000 -7.626931e-002 -5.241978e+000 107 111 115
-2.365604e+000 -7.626931e-002 -5.241978e+000 107 111 115
-1.422475e+000 5.243775e-001 -4.605601e+000 54 41 33
2.158823e+000 -8.431413e-001 -1.021212e+001 45 22 21
3.948032e+000 9.795561e-003 -9.079835e+000 90 77 69
5.077979e+000 5.034286e-001 -7.368786e+000 154 107 90
2.916374e+000 -1.681069e+000 -8.234613e+000 86 71 59
5.152554e+000 -1.743999e+000 -6.625710e+000 62 57 46
-3.596050e+000 -3.836672e+000 -5.608469e+000 212 219 165
2.554313e+000 -3.338565e+000 -6.396454e+000 51 42 36
5.615893e+000 -3.246461e+000 -6.825376e+000 75 59 51
-6.235970e-001 -4.497809e+000 -4.673025e+000 46 76 102
4.693812e+000 -5.572854e+000 -6.799141e+000 70 81 96
2.841607e+000 -4.772711e-002 -1.453236e+001 143 103 62
-2.351888e+000 2.573052e-001 -6.080746e+000 172 179 99
-2.263040e+000 3.210990e-002 -5.165011e+000 116 121 119
3.537667e+000 1.372252e-002 -9.090689e+000 47 30 23
4.558120e+000 6.498824e-001 -8.768019e+000 105 92 76
2.202411e+000 -6.444046e-001 -9.623840e+000 97 44 50
4.643761e+000 5.147938e-001 -8.415282e+000 106 88 55
8.962248e+000 9.998257e-001 -9.991723e+000 124 118 94
-2.397914e+000 -8.038037e-001 -5.050552e+000 193 188 119
8.712369e-001 -1.536164e+000 -7.425586e+000 87 79 66
5.334243e+000 2.902684e-001 -6.652664e+000 60 38 29
1.755428e+000 -1.699033e+000 -7.242009e+000 94 80 70
1.499908e+000 -1.688271e+000 -6.827047e+000 92 75 66
-4.421837e+000 -3.698174e+000 -6.119598e+000 211 220 172
5.526410e+000 -1.868264e+000 -6.706881e+000 55 27 24
5.526410e+000 -1.868264e+000 -6.706881e+000 55 27 24
1.934948e+000 -3.416582e+000 -6.452965e+000 37 26 23
4.988327e-001 -4.130093e+000 -6.604733e+000 130 90 65
1.574458e+000 -4.061396e+000 -6.771002e+000 120 80 54
2.557507e+000 -3.608875e+000 -6.780316e+000 138 128 129
2.953955e+000 -5.188383e+000 -7.885391e+000 44 33 36
2.953955e+000 -5.188383e+000 -7.885391e+000 44 33 36
7.437964e+000 -3.239822e+000 -6.928722e+000 141 130 122
5.250810e+000 -4.233886e+000 -6.570111e+000 64 62 53
1.187972e+001 -5.291184e+000 -5.479803e+000 179 166 98
2.879313e+000 -3.738291e-001 -1.277198e+001 95 85 76
-2.322704e+000 1.253319e-001 -5.608704e+000 174 180 106
-2.322704e+000 1.253319e-001 -5.608704e+000 174 180 106
-1.979505e+000 3.881086e-001 -5.016767e+000 173 175 109
2.413303e-001 -6.146680e-001 -9.823661e+000 69 32 26
5.952157e-001 -6.749116e-001 -9.786245e+000 97 49 39
4.693632e+000 6.264623e-001 -8.249841e+000 54 42 29
-2.948741e+000 -9.557751e-001 -5.237251e+000 209 216 167
5.071753e+000 -2.543854e-001 -7.099439e+000 71 50 49
3.883811e+000 -6.893876e-001 -6.895409e+000 42 26 28
-2.203206e+000 -1.752316e+000 -4.793538e+000 74 90 107
-1.841406e+000 -2.037826e+000 -4.592228e+000 74 83 91
1.086917e-001 -5.060387e+000 -9.749848e+000 28 19 20
1.086044e+000 -3.461066e+000 -6.933824e+000 102 108 113
9.288138e-001 -5.360797e+000 -7.381871e+000 131 133 145
2.119092e+000 -5.368589e+000 -7.652029e+000 52 35 37
5.057252e+000 -3.812218e+000 -6.838753e+000 102 60 53
-1.455628e+000 -4.290687e+000 -4.049899e+000 56 70 83
3.108174e+000 -5.984452e+000 -8.308906e+000 147 126 67
3.333570e+000 -6.083692e+000 -7.093495e+000 57 40 41
5.291999e+000 -6.198571e+000 -6.291687e+000 167 126 110
1.098710e+001 -6.840147e+000 -7.715512e+000 178 148 93
2.985345e+000 7.860506e-002 -1.447425e+001 151 127 79
-2.689351e+000 1.338740e-001 -7.325642e+000 60 71 76
4.895629e+000 7.438333e-001 -7.600420e+000 155 99 68
5.875184e+000 1.214202e+000 -6.689677e+000 132 128 125
6.899795e+000 1.070416e+000 -7.881165e+000 82 67 44
6.899795e+000 1.070416e+000 -7.881165e+000 82 67 44
2.181024e-001 -1.662243e+000 -6.898717e+000 96 78 64
3.391540e+000 -1.068741e+000 -6.743379e+000 49 35 33
1.787337e-001 -5.144603e+000 -9.430862e+000 26 16 17
5.010042e+000 -2.334792e+000 -7.103288e+000 118 64 61
3.046115e-001 -4.218613e+000 -6.640743e+000 124 87 61
1.787119e+000 -3.584562e+000 -6.537041e+000 136 125 108
1.014622e+000 -5.681026e+000 -7.379369e+000 34 32 31
1.091988e+001 -4.093085e+000 -8.104704e+000 126 69 49
1.011038e+001 -5.051612e+000 -7.759442e+000 48 40 38
8.086920e+000 -5.644093e+000 -6.873276e+000 140 132 127
1.085262e+001 -5.984712e+000 -7.824917e+000 74 57 49
3.808359e+000 4.765930e-001 -1.216630e+001 62 40 27
4.112443e-001 -7.351454e-001 -1.037279e+001 96 89 71
8.193449e+000 7.645353e-001 -1.197780e+001 66 60 38
-1.658694e+000 2.815374e-001 -4.840901e+000 67 77 86
1.966233e+000 -7.788530e-001 -9.735092e+000 98 84 71
4.380021e+000 7.372299e-002 -7.751441e+000 45 50 61
-2.228584e+000 -7.030275e-001 -4.891836e+000 80 92 99
1.682772e+000 -2.857118e+000 -6.466249e+000 141 110 64
1.066600e+001 -1.462879e+000 -8.253252e+000 129 71 57
1.189411e+000 -4.138450e+000 -6.817697e+000 132 103 65
1.122776e+001 -2.894366e+000 -8.123770e+000 144 121 79
8.389388e-001 -6.101863e+000 -7.495783e+000 141 116 73
4.955626e+000 -4.825298e+000 -6.885218e+000 118 114 126
5.023710e+000 -6.422033e+000 -6.713375e+000 164 150 87
6.296423e+000 -6.162771e+000 -6.240296e+000 143 63 64
2.823424e+000 -3.761127e-001 -1.357888e+001 51 39 31
1.020948e+001 1.212244e+000 -1.314595e+001 109 91 53
-1.688675e+000 4.384214e-001 -4.945385e+000 55 49 44
3.329770e+000 -5.554313e-001 -1.281226e+001 40 29 28
4.613292e+000 7.125458e-001 -8.928141e+000 100 87 68
4.966156e+000 9.767963e-001 -7.994171e+000 62 43 30
4.831108e+000 7.710155e-001 -8.176854e+000 157 143 82
4.103744e+000 4.666834e-002 -8.923113e+000 94 76 70
1.803308e-001 -1.457557e+000 -7.213737e+000 92 77 63
-1.428108e+000 -1.245155e+000 -4.648126e+000 64 46 46
7.749252e-001 -1.729432e+000 -6.723492e+000 30 25 27
3.040040e+000 -1.547460e+000 -7.839950e+000 32 22 23
6.016023e+000 -1.113660e+000 -6.792036e+000 135 60 62
9.985406e+000 -1.760800e+000 -8.206436e+000 45 32 35
9.985406e+000 -1.760800e+000 -8.206436e+000 45 32 35
8.715746e-001 -5.520221e+000 -7.404195e+000 133 133 143
2.390424e+000 -5.633950e+000 -7.942063e+000 135 131 153
4.670529e+000 -4.754255e+000 -7.343415e+000 85 83 84
4.925376e+000 -4.589948e+000 -6.871093e+000 47 32 32
3.110101e+000 -5.956797e+000 -6.772486e+000 148 133 75
1.060094e+001 -6.859362e+000 -7.487506e+000 185 161 99
4.864053e+000 5.437262e-001 -1.216781e+001 131 119 77
3.706665e+000 2.553679e-002 -1.146244e+001 83 48 34
4.120250e+000 4.907239e-001 -1.039278e+001 124 110 63
4.120250e+000 4.907239e-001 -1.039278e+001 124 110 63
-1.876899e+000 2.618760e-001 -4.949332e+000 55 49 49
-9.270150e-001 1.385729e-001 -5.297209e+000 32 66 95
8.621954e+000 -1.657802e-003 -7.888698e+000 138 131 124
1.026100e+000 -1.789525e+000 -6.660405e+000 94 84 69
-9.094052e-001 -1.655345e+000 -5.034921e+000 26 21 25
-8.667460e-001 -2.413457e+000 -4.949539e+000 29 23 30
1.660827e+000 -2.860725e+000 -6.423419e+000 142 114 70
1.660827e+000 -2.860725e+000 -6.423419e+000 142 114 70
-8.306756e-001 -3.168457e+000 -4.858128e+000 27 26 28
6.337560e-001 -4.037580e+000 -6.840874e+000 38 25 24
3.209777e+000 -4.946678e+000 -8.134326e+000 122 101 75
-7.856602e-001 -3.900475e+000 -4.733431e+000 28 20 25
3.245692e+000 -5.650186e+000 -8.422653e+000 25 22 23
-1.867965e+000 -5.021208e+000 -4.332867e+000 67 75 90
1.002270e+001 -4.575796e+000 -7.664398e+000 133 67 53
2.530895e+000 -7.035155e-001 -1.315268e+001 40 28 28
5.380013e+000 9.375680e-001 -9.492377e+000 128 112 78
5.038909e+000 7.872813e-001 -7.236558e+000 164 180 180
6.024258e+000 9.377906e-001 -7.752185e+000 114 71 61
-1.723536e+000 -2.985997e-001 -4.558698e+000 200 116 129
-9.681710e-001 -1.395979e-001 -5.206232e+000 32 26 31
7.287047e+000 9.320576e-001 -7.760372e+000 84 60 44
-1.694751e+000 -1.247053e+000 -4.445578e+000 205 118 130
-8.570300e-001 -2.027055e+000 -4.984212e+000 44 73 103
-8.570300e-001 -2.027055e+000 -4.984212e+000 44 73 103
-1.944941e+000 -2.875212e+000 -4.579263e+000 60 75 85
1.314348e+000 -2.981926e+000 -6.380494e+000 153 119 92
1.314348e+000 -2.981926e+000 -6.380494e+000 153 119 92
3.416386e+000 -3.991690e+000 -7.598671e+000 40 30 31
3.942819e+000 -4.586339e+000 -7.882785e+000 90 88 86
2.738555e+000 -5.737655e+000 -8.038105e+000 39 32 35
4.456418e+000 -4.986248e+000 -7.029595e+000 37 32 36
4.793794e+000 -5.072027e+000 -6.906895e+000 118 115 125
1.135440e+001 -4.176017e+000 -7.941216e+000 152 126 78
5.570500e+000 8.057733e-001 -7.877216e+000 56 39 30
-5.348595e-002 -2.572013e-001 -6.141838e+000 126 103 89
3.685359e+000 7.668457e-002 -8.014868e+000 52 38 37
4.885989e+000 8.536106e-002 -8.123037e+000 62 41 35
2.988528e+000 -7.110481e-001 -7.577080e+000 38 28 29
8.414894e+000 6.769315e-001 -7.778120e+000 131 126 120
-1.928826e+000 6.388833e-001 -5.136077e+000 179 177 100
-1.944493e+000 -2.909158e-001 -4.767558e+000 202 118 125
2.505978e+000 -1.380764e+000 -7.569945e+000 84 69 62
3.743850e+000 -1.045320e+000 -6.916549e+000 138 54 79
1.009058e+001 -2.348416e+000 -8.096344e+000 141 78 63
4.872628e+000 -5.642617e+000 -6.623268e+000 55 38 37
9.488829e+000 -2.768317e+000 -7.981850e+000 42 35 35
9.599659e+000 -6.364162e+000 -7.539361e+000 42 41 36
1.864712e-001 -6.057309e+000 -6.549248e+000 21 19 23
6.304394e-001 -5.204631e+000 -7.177336e+000 82 82 90
1.013428e+001 -5.272809e+000 -7.786113e+000 134 78 60
-7.533751e-001 -3.092556e+000 -6.499538e+000 45 75 110
9.047947e+000 1.158166e+000 -7.655187e+000 53 33 23
-5.723960e+001 -1.554705e+001 -1.037556e+002 141 124 92
-4.774767e+001 -2.910507e+001 -1.086038e+002 134 118 92
-4.805604e+001 -2.260186e+001 -1.095963e+002 148 156 159
-4.280671e+001 -2.620200e+001 -1.140998e+002 27 100 153
1.119198e+000 -4.433378e+000 -7.253036e+000 147 113 77
5.231215e+000 -5.856216e+000 -6.863059e+000 81 37 25
5.549739e+000 9.583261e-001 -6.810005e+000 151 68 62
