ply
format ascii 1.0
element face 0
property list uchar int vertex_indices
element vertex 895
property float x
property float y
property float z
property uchar diffuse_red
property uchar diffuse_green
property uchar diffuse_blue
end_header
1.141101e+000 -5.152201e-001 -8.373859e+000 19 15 14
1.091919e+000 2.282691e+000 -8.324000e+000 154 130 87
-1.017953e+000 5.220214e-001 -9.407115e+000 131 117 91
1.771217e+000 7.782990e-001 -7.161707e+000 44 27 17
-7.500778e+000 -1.832213e+001 -2.135814e+001 97 93 92
-2.449127e-001 1.788700e+000 -1.008133e+001 117 92 61
1.924187e+000 4.526493e-001 -6.964286e+000 149 120 76
3.901701e+000 3.343701e+000 -1.133179e+001 83 65 55
2.861041e+000 2.816150e+000 -1.140225e+001 48 35 26
-7.163060e-001 1.669378e+000 -1.019178e+001 113 70 28
-1.691239e-001 1.780617e+000 -1.008749e+001 48 27 1
-1.694425e-001 1.788668e+000 -1.007070e+001 48 27 1
-8.255094e-001 1.244424e+000 -1.028660e+001 115 86 62
-8.249769e-001 1.261985e+000 -1.025236e+001 115 86 62
-2.867371e-001 1.612365e+000 -1.001010e+001 122 94 55
3.696694e+000 2.842483e+000 -1.085698e+001 105 87 67
1.162322e+000 2.652526e+000 -8.674176e+000 157 130 87
4.059356e+000 2.892819e+000 -1.089182e+001 34 22 22
8.962202e-001 2.529855e+000 -8.560294e+000 58 25 9
-6.755330e-001 1.027118e+000 -9.975269e+000 104 89 60
-4.855965e-002 1.137359e+000 -1.005189e+001 75 57 35
8.502295e-001 2.366728e+000 -8.432541e+000 74 48 31
3.086694e+000 1.996261e+000 -1.111981e+001 64 51 42
3.299599e+000 2.314610e+000 -1.064786e+001 84 70 60
4.207446e+000 2.657254e+000 -1.062169e+001 68 53 48
-3.827057e-001 9.104067e-001 -9.946699e+000 53 36 15
4.235916e+000 2.611379e+000 -1.055303e+001 28 13 10
4.235916e+000 2.611379e+000 -1.055303e+001 28 13 10
-2.096561e+000 5.301812e-001 -8.781442e+000 97 67 37
-1.990022e+000 6.007227e-001 -8.989077e+000 41 19 8
-1.857121e+000 5.748050e-001 -8.875274e+000 75 47 35
3.647783e+000 2.123864e+000 -1.050217e+001 56 45 41
-1.534144e+000 5.113966e-001 -9.041855e+000 54 32 15
-1.502657e+000 4.882868e-001 -8.952021e+000 56 35 20
3.370619e+000 1.746992e+000 -1.069424e+001 79 69 49
-2.163232e+000 3.676644e-001 -8.562623e+000 91 63 44
-1.640964e+000 4.147680e-001 -8.805674e+000 39 18 7
-1.608673e+000 4.913735e-001 -8.855007e+000 90 70 48
-1.395515e+000 4.506063e-001 -8.940727e+000 87 64 48
9.586964e-001 1.962266e+000 -8.161578e+000 118 104 83
3.793859e+000 1.823520e+000 -1.017143e+001 80 66 57
1.481416e+000 1.928431e+000 -8.249965e+000 143 115 70
4.070631e+000 1.907665e+000 -1.004727e+001 23 12 10
4.430530e+000 1.975219e+000 -9.768019e+000 116 98 80
-1.882222e+000 5.184016e-002 -8.214765e+000 65 34 15
-9.271182e-001 -2.714160e-002 -8.955779e+000 58 48 38
-1.040746e-001 3.943937e-001 -8.961852e+000 115 106 73
-9.656030e-001 -6.381417e-002 -8.863719e+000 57 48 41
3.609537e-001 3.579377e-001 -8.934164e+000 60 53 35
4.366582e+000 1.654684e+000 -9.662919e+000 60 49 42
-1.689858e+000 -7.705877e-002 -8.195624e+000 112 87 46
-4.059256e-001 -4.779731e-002 -8.661737e+000 96 36 40
-4.059256e-001 -4.779731e-002 -8.661737e+000 96 36 40
4.294967e+000 1.404187e+000 -9.531501e+000 46 34 32
4.315420e+000 1.435068e+000 -9.562298e+000 23 15 12
4.196877e-002 -3.036007e-002 -8.643410e+000 135 123 81
4.196877e-002 -3.036007e-002 -8.643410e+000 135 123 81
-2.636419e+000 -8.158694e-001 -8.064015e+000 140 101 58
9.780769e-001 -4.341523e-001 -8.527756e+000 47 42 37
4.699415e+000 1.028918e+000 -8.861766e+000 29 15 12
-2.341441e+000 -1.902884e+000 -8.156019e+000 254 253 249
1.111731e+000 -3.298683e-001 -8.350334e+000 51 44 37
4.727805e+000 9.474514e-001 -8.840228e+000 61 47 41
1.312844e+000 3.084884e-001 -7.675526e+000 121 93 62
1.638546e+000 7.974128e-001 -7.360504e+000 116 84 46
-7.266846e+000 -1.983246e+001 -2.192353e+001 143 129 116
7.286220e-001 -8.632625e-001 -7.703737e+000 94 62 38
-8.981715e+000 -2.128902e+001 -1.992410e+001 102 100 102
-8.353903e+000 -2.013834e+001 -1.954084e+001 139 144 166
-5.794625e+000 -1.930602e+001 -1.858878e+001 131 134 146
8.969180e-001 -1.172192e+000 -7.557875e+000 108 63 22
4.968249e+000 1.924181e-001 -8.027751e+000 80 66 54
-5.500252e+000 -1.961724e+001 -1.800856e+001 131 126 119
-5.262750e+000 -1.951185e+001 -1.813334e+001 193 188 184
-1.629793e+000 -1.201004e+001 -1.433456e+001 43 41 47
-1.410446e+000 -1.187072e+001 -1.399986e+001 60 58 61
-9.509399e+000 -2.182851e+001 -1.787058e+001 170 188 224
-6.570495e+000 -2.027959e+001 -1.756652e+001 136 115 96
-4.579336e+000 -1.887381e+001 -1.718295e+001 225 219 219
-9.168716e+000 -2.209631e+001 -1.720424e+001 178 195 222
-9.168716e+000 -2.209631e+001 -1.720424e+001 178 195 222
-6.274175e+000 -2.067010e+001 -1.716930e+001 215 190 152
-6.114639e+000 -2.001553e+001 -1.693778e+001 195 171 142
-5.554431e+000 -2.006857e+001 -1.703466e+001 189 176 171
3.080065e+000 3.061764e+000 -1.143005e+001 28 14 11
3.875646e+000 3.303969e+000 -1.133179e+001 80 64 53
-4.457852e-001 1.847602e+000 -1.020350e+001 122 88 51
-4.705847e-002 1.859234e+000 -1.020704e+001 45 25 4
3.040529e+000 2.695396e+000 -1.124128e+001 40 26 23
3.345389e+000 2.917508e+000 -1.114271e+001 32 21 17
3.718760e+000 3.068997e+000 -1.121415e+001 47 33 30
2.816125e+000 2.301177e+000 -1.158415e+001 61 48 39
3.394382e+000 2.785995e+000 -1.108387e+001 30 20 15
3.880195e+000 2.873376e+000 -1.095109e+001 62 49 43
3.898484e+000 2.930490e+000 -1.100616e+001 58 45 39
3.898484e+000 2.930490e+000 -1.100616e+001 58 45 39
-5.136554e-001 1.457053e+000 -9.998675e+000 96 66 42
1.141452e+000 2.662699e+000 -8.685771e+000 93 68 27
3.028147e+000 2.330855e+000 -1.115497e+001 63 51 37
4.056697e+000 2.830461e+000 -1.088150e+001 32 18 17
-8.518071e+000 -8.852062e+000 -2.350859e+001 134 118 98
-7.504468e-001 1.072497e+000 -1.006352e+001 66 38 13
-7.504468e-001 1.072497e+000 -1.006352e+001 66 38 13
6.957684e-001 2.520738e+000 -8.370380e+000 82 42 17
3.031115e+000 2.128899e+000 -1.120333e+001 54 45 34
3.838264e+000 2.746878e+000 -1.068924e+001 48 34 25
-3.127252e+000 2.819697e-001 -9.307024e+000 196 178 140
-2.933794e+000 3.571507e-001 -9.343466e+000 139 117 80
8.308692e-001 2.360839e+000 -8.397657e+000 60 33 21
-2.030116e+000 6.302884e-001 -9.173505e+000 79 59 46
-3.186953e-001 8.989553e-001 -9.959309e+000 118 94 59
3.247148e+000 1.864401e+000 -1.088685e+001 77 65 49
3.376876e+000 2.134107e+000 -1.065004e+001 72 59 43
4.243202e+000 2.602643e+000 -1.050309e+001 61 48 39
-2.128503e+000 5.110622e-001 -8.774407e+000 62 32 13
1.072393e+000 2.308742e+000 -8.291998e+000 163 135 88
-2.380091e+000 4.199717e-001 -8.710051e+000 123 88 58
-1.673189e+000 5.212811e-001 -8.897842e+000 81 57 32
4.039465e+000 2.224630e+000 -1.010359e+001 35 24 17
-2.194739e+000 3.675125e-001 -8.590614e+000 57 28 12
-2.052576e+000 4.351976e-001 -8.597198e+000 98 68 50
-1.608348e+000 4.524134e-001 -8.764466e+000 80 58 43
-1.571357e+000 3.512178e-001 -8.824956e+000 29 10 3
3.627144e+000 1.829856e+000 -1.036530e+001 77 62 45
3.728867e+000 1.782809e+000 -1.025544e+001 81 66 47
3.748218e+000 1.597863e+000 -1.019399e+001 82 65 49
4.141115e+000 1.990163e+000 -9.962623e+000 34 19 16
6.939514e-001 8.433830e-001 -9.172113e+000 20 14 16
3.717539e+000 1.501415e+000 -1.026528e+001 73 60 42
3.717539e+000 1.501415e+000 -1.026528e+001 73 60 42
-2.470630e+000 -1.532224e-001 -8.260041e+000 107 65 25
-3.393680e-001 2.380151e-001 -8.893541e+000 26 17 15
-3.393680e-001 2.380151e-001 -8.893541e+000 26 17 15
8.045761e-001 8.131813e-001 -9.056690e+000 12 10 7
3.764192e+000 1.365987e+000 -1.016766e+001 78 61 47
4.058377e+000 1.670232e+000 -9.862384e+000 51 40 36
-1.883876e+000 1.032908e-002 -8.184371e+000 62 31 10
1.141285e-002 3.408821e-001 -8.881101e+000 20 17 8
1.359384e+000 1.434664e+000 -8.218027e+000 29 17 14
4.474823e+000 1.770608e+000 -9.498294e+000 72 53 46
-9.329530e+000 -1.758391e+001 -2.560163e+001 189 166 125
-1.070751e+000 1.009249e-001 -8.326036e+000 103 86 58
-1.937655e-001 1.321040e-001 -8.779323e+000 136 123 80
8.986365e-001 4.529920e-001 -8.830718e+000 45 40 38
-1.642411e+000 -2.568624e-001 -8.207866e+000 132 102 61
8.355159e-002 1.129050e-001 -8.708060e+000 80 69 51
4.169362e+000 1.014015e+000 -9.666199e+000 42 28 11
6.970308e-001 1.196670e-001 -8.677006e+000 108 100 79
4.498279e+000 1.333211e+000 -9.263210e+000 66 53 44
4.544938e+000 1.363099e+000 -9.246282e+000 30 20 17
1.245159e+000 3.998853e-001 -8.401009e+000 66 59 49
4.603535e+000 1.224641e+000 -9.169253e+000 29 20 15
4.542838e-001 -7.325938e-001 -8.580460e+000 51 40 36
7.864041e-001 -3.548811e-001 -8.584545e+000 21 14 4
9.596983e-001 -3.106944e-001 -8.557528e+000 40 35 33
1.460776e+000 9.376987e-001 -7.541493e+000 133 99 63
4.415902e+000 7.296117e-001 -9.100131e+000 75 60 43
1.062580e-001 -9.649566e-001 -8.470685e+000 86 76 55
1.688226e+000 9.349132e-001 -7.437774e+000 50 29 20
4.818171e+000 9.207269e-001 -8.774632e+000 29 15 15
1.350955e+000 4.997501e-001 -7.233794e+000 158 114 65
7.449584e-002 -1.280785e+000 -8.084530e+000 103 81 60
7.320390e-002 -1.268983e+000 -8.073534e+000 103 81 60
6.265230e-001 -8.582288e-001 -7.895719e+000 44 21 13
6.378193e-001 -8.598678e-001 -7.852598e+000 104 77 56
1.660742e+000 5.447576e-001 -7.099605e+000 159 122 77
4.917211e+000 7.396091e-001 -8.427028e+000 33 18 18
1.456524e-001 -1.307566e+000 -7.970505e+000 49 27 14
1.599930e+000 3.358786e-001 -7.061488e+000 121 76 34
-9.031337e+000 -2.110207e+001 -1.945280e+001 128 126 131
1.747614e+000 1.741278e-001 -6.914759e+000 146 102 57
1.975549e+000 3.991577e-001 -6.898721e+000 160 132 81
-2.022419e+000 -1.193306e+001 -1.408929e+001 90 89 98
-9.606471e+000 -2.222463e+001 -1.786646e+001 166 180 215
-9.319741e+000 -2.170299e+001 -1.760952e+001 199 215 248
-9.425597e+000 -2.204512e+001 -1.780460e+001 199 215 248
-9.223161e+000 -2.182847e+001 -1.763693e+001 168 182 217
-6.540763e+000 -2.042445e+001 -1.751136e+001 190 165 134
-5.472922e+000 -1.971349e+001 -1.794473e+001 116 105 102
-5.609624e+000 -2.046978e+001 -1.787363e+001 106 92 84
-5.873486e+000 -2.032803e+001 -1.683623e+001 222 214 225
-5.458821e+000 -2.020419e+001 -1.688319e+001 214 200 186
3.510125e+000 3.351316e+000 -1.151789e+001 67 51 47
3.030899e+000 2.978106e+000 -1.150528e+001 32 22 20
-5.294305e-001 1.538273e+000 -1.007089e+001 100 65 37
-5.294305e-001 1.538273e+000 -1.007089e+001 100 65 37
-2.549668e-001 1.606722e+000 -1.001444e+001 57 35 12
-7.033727e-001 1.272188e+000 -1.005380e+001 137 107 73
3.074316e+000 2.105969e+000 -1.107913e+001 34 25 15
3.353908e+000 2.380787e+000 -1.078074e+001 47 36 34
-2.796179e+000 3.404245e-001 -9.263047e+000 107 86 57
-7.193093e-002 1.162177e+000 -1.005954e+001 58 39 17
1.038212e+000 2.469187e+000 -8.372018e+000 153 125 76
3.603769e+000 2.403236e+000 -1.066718e+001 30 19 18
-1.946634e+000 6.027010e-001 -9.167463e+000 66 44 31
-1.729985e+000 4.917711e-001 -9.755641e+000 101 78 47
-1.725410e+000 6.114669e-001 -9.147565e+000 50 24 7
4.086031e+000 2.414375e+000 -1.032002e+001 99 79 68
4.101479e+000 2.264479e+000 -1.016041e+001 28 17 13
-2.165918e+000 3.603134e-001 -8.485233e+000 115 86 56
5.807993e-002 6.399336e-001 -9.640987e+000 81 74 46
3.568021e+000 1.619973e+000 -1.050876e+001 74 61 42
3.992195e+000 2.061572e+000 -1.013218e+001 57 42 39
4.064454e+000 2.178022e+000 -1.002681e+001 57 43 37
4.316581e+000 2.193261e+000 -9.964748e+000 36 19 12
5.482532e-001 8.039029e-001 -9.376442e+000 15 9 9
4.276088e+000 2.165464e+000 -9.951657e+000 83 64 52
2.151964e-001 5.487533e-001 -9.375925e+000 13 9 9
3.979509e+000 1.724705e+000 -9.890404e+000 47 36 30
3.964219e+000 1.735356e+000 -9.867027e+000 47 36 30
4.125834e+000 1.808885e+000 -9.919849e+000 56 46 37
-2.353969e+000 -9.241346e-002 -8.236137e+000 106 73 28
-1.773841e+000 1.104282e-001 -8.368867e+000 83 60 41
3.122163e-001 4.088907e-001 -9.023719e+000 69 62 45
3.837267e+000 1.188801e+000 -1.002774e+001 85 73 57
-2.351607e+000 -3.860117e-001 -8.138762e+000 118 81 44
-2.351607e+000 -3.860117e-001 -8.138762e+000 118 81 44
-2.094354e+000 -1.949044e-001 -8.086813e+000 101 66 29
-1.788549e+000 -1.466494e-001 -8.137341e+000 72 42 18
-1.788549e+000 -1.466494e-001 -8.137341e+000 72 42 18
-1.071133e+000 3.149817e-002 -8.294341e+000 108 88 55
4.129163e+000 1.404128e+000 -9.712091e+000 87 69 58
4.320734e+000 1.490317e+000 -9.513724e+000 63 51 42
3.735303e-001 2.138318e-001 -8.733525e+000 81 72 55
6.469135e-001 2.454766e-001 -8.745473e+000 40 31 25
-2.909068e+000 -1.240401e+000 -8.214812e+000 254 255 249
4.469020e+000 1.346805e+000 -9.289319e+000 36 23 17
4.469020e+000 1.346805e+000 -9.289319e+000 36 23 17
-1.797402e+000 -7.844705e-001 -7.872531e+000 96 61 29
4.743196e-001 -3.871363e-001 -8.577543e+000 124 110 75
4.662871e+000 1.025375e+000 -8.945191e+000 31 19 18
4.778397e+000 1.169099e+000 -8.915437e+000 30 19 13
1.288345e+000 3.242792e-001 -7.714606e+000 85 73 54
1.936791e+000 9.485016e-001 -7.438028e+000 139 115 74
1.409584e+000 6.413143e-001 -7.340598e+000 95 51 14
1.386042e+000 5.885064e-001 -7.303816e+000 77 40 12
3.316790e-001 -9.651837e-001 -8.101622e+000 95 69 44
1.737381e+000 8.141961e-001 -7.186242e+000 141 113 72
1.187256e-001 -1.209314e+000 -8.030343e+000 49 27 14
3.768131e-001 -1.044972e+000 -7.975368e+000 72 41 24
8.388354e-001 -9.557078e-001 -7.618536e+000 123 87 55
8.926219e-001 -8.998736e-001 -7.638330e+000 76 42 19
-8.012505e+000 -1.981464e+001 -1.879801e+001 161 166 191
-8.039828e+000 -2.047457e+001 -1.920622e+001 148 153 175
4.893782e+000 1.586467e-001 -8.090473e+000 74 61 45
-6.451921e+000 -1.980612e+001 -1.819443e+001 149 139 130
-6.194361e+000 -1.983229e+001 -1.805165e+001 203 190 177
-6.192974e+000 -1.982530e+001 -1.804665e+001 203 190 177
-1.481994e+000 -1.170327e+001 -1.417731e+001 20 18 21
5.047682e+000 -9.898149e-002 -7.862172e+000 77 61 46
-7.749817e+000 -2.121029e+001 -1.696245e+001 191 169 143
-6.752336e+000 -2.081313e+001 -1.716918e+001 127 116 112
-6.336575e+000 -2.049213e+001 -1.689812e+001 147 127 101
-5.822033e+000 -2.020965e+001 -1.697719e+001 195 194 192
-5.415201e+000 -2.017777e+001 -1.708371e+001 150 131 109
-5.415201e+000 -2.017777e+001 -1.708371e+001 150 131 109
3.047265e+000 3.030822e+000 -1.146529e+001 54 41 34
3.110254e+000 2.864148e+000 -1.125447e+001 29 18 16
3.552486e+000 2.768120e+000 -1.088456e+001 36 24 24
-2.720483e+000 2.365251e-001 -8.656336e+000 160 123 79
-1.037145e+000 5.505697e-001 -9.483621e+000 23 19 12
-9.469544e-001 5.368592e-001 -9.418942e+000 21 19 16
-2.577797e-001 7.007444e-001 -9.629865e+000 18 11 8
-1.039769e-001 6.894448e-001 -9.669421e+000 15 9 9
2.559166e-002 6.945228e-001 -9.781141e+000 52 45 36
5.534873e-001 1.271755e+000 -9.442270e+000 55 48 38
-8.590978e-002 6.434212e-001 -9.608842e+000 63 53 37
-3.105832e-002 6.668387e-001 -9.688057e+000 54 48 34
8.646633e-002 6.135834e-001 -9.577981e+000 17 12 14
9.474952e-001 1.826485e+000 -8.245100e+000 117 99 72
3.992636e+000 2.015201e+000 -1.021283e+001 29 20 15
-2.543694e+000 3.407939e-002 -8.379247e+000 88 49 16
-2.389168e+000 1.772741e-001 -8.500482e+000 83 47 14
-1.138612e+000 2.777538e-001 -9.028383e+000 66 48 34
1.275812e-001 5.644608e-001 -9.431487e+000 20 11 12
1.476859e+000 1.959531e+000 -8.247507e+000 65 36 19
-1.186097e+000 2.135769e-001 -8.779675e+000 100 82 60
-1.256796e-001 4.919427e-001 -9.109499e+000 92 78 52
1.464159e-001 5.501317e-001 -9.347974e+000 76 69 54
5.496594e-002 4.630996e-001 -9.087367e+000 14 11 4
2.331554e-001 4.463765e-001 -9.062269e+000 78 69 53
2.331554e-001 4.463765e-001 -9.062269e+000 78 69 53
-2.301190e+000 -2.693575e-001 -8.111233e+000 112 74 37
-2.301190e+000 -2.693575e-001 -8.111233e+000 112 74 37
4.424707e+000 1.644374e+000 -9.671726e+000 32 20 20
-2.036762e+000 -2.814918e-001 -8.074793e+000 94 58 24
-2.036762e+000 -2.814918e-001 -8.074793e+000 94 58 24
4.020723e+000 1.032252e+000 -9.645147e+000 34 21 18
4.541943e+000 1.504933e+000 -9.415900e+000 32 21 17
-1.741883e+000 -4.310726e-001 -8.064475e+000 32 24 21
1.506354e+000 9.925115e-001 -7.976941e+000 31 27 24
-1.880295e+000 -6.555032e-001 -7.908134e+000 97 58 25
1.131641e+000 1.641655e-001 -8.629689e+000 50 43 35
-6.116795e-001 -8.512278e-001 -8.488720e+000 34 33 27
1.631532e+000 1.038219e+000 -7.558415e+000 108 79 60
-1.663313e+000 -9.288384e-001 -7.878142e+000 89 54 23
1.141430e+000 -1.873397e-001 -8.578603e+000 64 55 46
-3.547605e-001 -1.041097e+000 -8.349334e+000 32 30 17
4.560131e+000 7.163084e-001 -8.692750e+000 77 61 45
1.612922e+000 5.666983e-001 -7.141100e+000 90 50 14
4.929195e+000 6.035090e-001 -8.280443e+000 52 40 39
4.896588e+000 3.634047e-001 -8.329064e+000 20 11 12
4.980151e+000 3.548090e-001 -8.056912e+000 53 39 38
8.118097e-001 -1.248130e+000 -7.557648e+000 129 82 40
-8.660316e+000 -2.076100e+001 -1.811942e+001 204 214 248
-8.513676e+000 -2.089667e+001 -1.826725e+001 115 106 111
-8.513676e+000 -2.089667e+001 -1.826725e+001 115 106 111
-6.397770e+000 -1.948190e+001 -1.800368e+001 152 141 135
5.107235e+000 8.306854e-002 -7.904103e+000 30 19 17
-4.713323e+000 -1.874560e+001 -1.709753e+001 255 254 252
-4.636303e+000 -1.909433e+001 -1.743280e+001 148 145 146
5.079053e+000 3.641053e-002 -7.871029e+000 71 55 43
-6.634337e+000 -2.058996e+001 -1.732514e+001 183 167 146
-6.642648e+000 -2.062359e+001 -1.734475e+001 183 167 146
-6.185832e+000 -2.029011e+001 -1.740051e+001 227 209 194
-7.583485e+000 -2.121002e+001 -1.697367e+001 206 182 154
3.750517e+000 3.113752e+000 -1.110582e+001 36 25 23
3.773626e+000 3.101457e+000 -1.115315e+001 36 25 23
-6.519802e-001 1.575476e+000 -1.006983e+001 141 98 56
-7.885550e-002 1.230535e+000 -1.007381e+001 110 86 50
4.199848e+000 2.559736e+000 -1.027793e+001 75 61 49
9.370396e-001 2.183009e+000 -8.348014e+000 53 33 24
-1.104007e+000 5.294054e-001 -9.484460e+000 131 117 89
-8.455066e-001 5.269929e-001 -9.361450e+000 25 24 16
3.878074e+000 2.065676e+000 -1.032414e+001 29 14 17
-8.732093e-001 3.874226e-001 -9.251256e+000 116 99 73
-6.692217e-001 5.323723e-001 -9.311587e+000 111 99 71
-6.691667e-001 5.389210e-001 -9.302091e+000 111 99 71
-5.926434e-001 5.518302e-001 -9.324588e+000 20 13 16
-5.712333e-001 5.088864e-001 -9.259674e+000 111 96 69
-8.276393e-001 2.837352e-001 -9.138615e+000 113 103 65
-8.276428e-001 2.862125e-001 -9.135211e+000 113 103 65
-7.016205e-001 4.060025e-001 -9.185976e+000 26 18 19
-6.257976e-001 4.315172e-001 -9.193089e+000 111 97 65
-6.024660e-001 3.768507e-001 -9.141073e+000 22 17 17
-4.506367e-001 4.343198e-001 -9.149646e+000 24 18 13
-3.173355e-001 5.360855e-001 -9.221897e+000 102 90 58
-2.984858e-001 4.910251e-001 -9.158175e+000 22 19 12
-2.221756e-001 5.101119e-001 -9.171210e+000 101 88 63
-7.311448e-001 2.668257e-001 -9.077973e+000 120 112 81
-5.806706e-001 3.271781e-001 -9.080357e+000 115 100 67
-6.333705e-001 2.456517e-001 -9.021211e+000 113 99 65
-5.036275e-001 3.537391e-001 -9.087634e+000 22 16 13
-4.287451e-001 3.862911e-001 -9.088737e+000 118 106 80
-4.810909e-001 3.037117e-001 -9.027636e+000 124 111 85
-2.571223e-001 3.994579e-001 -9.032840e+000 20 20 12
-2.013702e-001 4.704035e-001 -9.102808e+000 16 15 10
1.612331e+000 1.775245e+000 -8.297102e+000 65 33 20
-4.596112e-001 2.573644e-001 -8.965134e+000 25 22 15
-3.106698e-001 3.223172e-001 -8.967526e+000 23 25 14
-2.352109e-001 3.527356e-001 -8.971405e+000 120 110 80
-1.207747e-001 3.413087e-001 -8.909940e+000 72 57 22
1.642828e-002 3.814540e-001 -8.930494e+000 94 85 59
1.921066e-001 4.107399e-001 -8.981155e+000 78 63 34
-2.187419e+000 -3.290240e-001 -8.050677e+000 134 105 63
-2.656978e+000 -6.987190e-001 -8.069131e+000 154 115 73
-7.652978e-002 -2.552971e-002 -8.652171e+000 139 120 88
-1.853636e+000 -5.396060e-001 -7.969392e+000 119 84 52
-1.853636e+000 -5.396060e-001 -7.969392e+000 119 84 52
-3.675542e-001 -3.885033e-001 -8.556385e+000 136 122 83
1.796568e-001 -2.229658e-003 -8.654906e+000 141 126 83
2.541123e-001 2.637369e-002 -8.666724e+000 30 23 22
1.296220e+000 4.701591e-001 -8.588759e+000 39 34 29
-1.412744e+000 -5.381724e-001 -8.127323e+000 77 43 16
6.646392e-001 -1.573797e-001 -8.613803e+000 22 14 10
2.066784e+000 9.672544e-001 -7.554737e+000 115 88 57
-3.676378e-001 -1.478683e+000 -8.401283e+000 71 62 56
4.923699e+000 5.727314e-001 -8.378601e+000 27 17 16
-2.183644e+000 -1.254857e+001 -1.475407e+001 17 15 18
4.953681e+000 2.682316e-001 -8.010351e+000 31 21 20
-9.288461e+000 -2.176665e+001 -1.868125e+001 218 237 255
-7.456712e+000 -2.116442e+001 -1.732842e+001 136 127 131
-5.590974e+000 -1.949682e+001 -1.687633e+001 255 255 255
-1.060446e-001 1.781794e+000 -1.007550e+001 118 94 56
4.232944e+000 2.372926e+000 -1.016253e+001 37 26 24
-3.093586e+000 -3.890657e-001 -8.833318e+000 94 67 48
3.979760e+000 1.689285e+000 -1.007397e+001 25 14 10
2.042145e+000 1.033788e+000 -8.089380e+000 12 12 12
1.559488e+000 9.757327e-001 -7.537156e+000 30 13 6
4.643214e+000 7.221581e-001 -8.684239e+000 23 13 12
2.192804e-001 -1.262021e+000 -7.986012e+000 53 27 14
-2.340480e+000 -1.255246e+001 -1.459173e+001 252 253 248
-2.340480e+000 -1.255246e+001 -1.459173e+001 252 253 248
-6.444340e+000 -2.035104e+001 -1.767362e+001 205 178 150
-6.280710e+000 -2.135839e+001 -1.826905e+001 137 124 118
-2.610456e-001 1.946790e+000 -1.012620e+001 51 32 17
3.668036e+000 3.027456e+000 -1.106945e+001 41 29 29
1.061743e+000 2.395934e+000 -8.297401e+000 158 130 82
-9.764939e-001 5.619711e-001 -9.772661e+000 94 86 65
-7.433220e-001 6.465301e-001 -9.748374e+000 91 80 59
-1.325429e+000 2.024926e-001 -9.768661e+000 131 143 158
-1.930858e+000 4.307581e-001 -8.631729e+000 39 18 13
3.878169e+000 1.816596e+000 -1.013472e+001 22 12 10
4.100590e+000 1.536508e+000 -9.750360e+000 39 28 26
-2.575635e+000 -6.383995e-001 -8.125907e+000 161 122 75
7.477345e-001 -9.279113e-001 -8.195187e+000 86 69 41
6.035404e-001 -8.855067e-001 -7.972331e+000 39 20 13
1.197348e+000 -1.001988e+000 -7.962972e+000 57 44 28
-6.284009e+000 -1.996612e+001 -1.861364e+001 105 96 97
-5.865602e+000 -1.947029e+001 -1.843048e+001 255 255 255
-5.865602e+000 -1.947029e+001 -1.843048e+001 255 255 255
-6.024305e+000 -1.949197e+001 -1.743683e+001 123 113 108
-4.457438e+000 -1.957270e+001 -1.707650e+001 236 227 214
6.560457e-001 -9.322532e-001 -7.657345e+000 55 23 8
8.024893e-001 -1.550330e+000 -7.686426e+000 188 151 103
-9.312374e+000 -2.160340e+001 -1.814710e+001 185 200 233
-8.833252e+000 -2.147670e+001 -1.810915e+001 107 98 99
-5.506344e+000 -1.957667e+001 -1.826942e+001 95 93 98
-5.077409e+000 -1.926274e+001 -1.756734e+001 255 255 255
-1.496996e+000 -1.225820e+001 -1.388817e+001 35 33 36
1.708948e+000 8.324370e-001 -7.302316e+000 139 115 67
-8.273836e+000 -2.108425e+001 -1.891809e+001 108 99 101
-8.273836e+000 -2.108425e+001 -1.891809e+001 108 99 101
1.774742e+000 9.318179e-001 -7.734417e+000 25 16 15
-6.810212e+000 -2.035714e+001 -1.821477e+001 122 108 98
2.689544e+000 3.119634e+000 -1.190618e+001 104 87 68
-4.931223e-001 2.002184e+000 -1.012997e+001 90 54 19
1.595743e-001 2.088512e+000 -1.043168e+001 111 101 91
3.384968e+000 3.200910e+000 -1.126466e+001 116 94 71
3.535489e+000 3.168424e+000 -1.136926e+001 31 17 12
-6.826094e-001 1.655951e+000 -1.014005e+001 141 97 48
-4.179731e-001 1.862346e+000 -1.019379e+001 81 46 13
3.805639e+000 3.146880e+000 -1.143931e+001 78 65 56
-7.697621e-001 1.375035e+000 -1.020481e+001 60 26 1
-3.223283e+000 1.743767e-001 -9.625804e+000 105 99 100
-3.153882e+000 2.085576e-001 -9.819974e+000 151 143 136
-7.247154e-001 1.167554e+000 -1.022527e+001 81 49 29
-4.558733e-001 1.431137e+000 -9.937181e+000 120 82 41
3.207866e+000 2.686562e+000 -1.113919e+001 26 15 13
-2.147161e+000 4.812422e-001 -9.678561e+000 47 28 14
-5.141998e-001 1.177222e+000 -9.915195e+000 134 101 58
-4.268799e-001 1.303252e+000 -9.977805e+000 94 61 25
-2.702440e-001 1.366138e+000 -1.000900e+001 137 109 61
1.136584e+000 2.691416e+000 -9.271878e+000 27 9 3
-2.747703e+000 2.076825e-001 -9.451421e+000 99 73 46
-2.624724e+000 4.287795e-001 -9.263520e+000 111 80 49
-5.449253e-001 1.042526e+000 -9.963337e+000 142 102 51
2.989765e-001 1.074471e+000 -1.048836e+001 114 112 114
3.452037e+000 2.455892e+000 -1.095886e+001 31 17 13
3.426774e+000 2.449428e+000 -1.087822e+001 33 20 17
-2.498853e+000 4.331861e-001 -8.962502e+000 86 47 17
-2.155901e+000 4.930294e-001 -9.254952e+000 67 40 19
5.002792e-001 2.216770e+000 -8.861100e+000 74 52 25
5.002792e-001 2.216770e+000 -8.861100e+000 74 52 25
6.556616e-001 2.544815e+000 -8.443390e+000 158 113 70
6.976242e-001 2.584787e+000 -8.500754e+000 162 117 72
9.605004e-001 2.625507e+000 -8.610347e+000 126 86 37
9.623202e-001 2.560470e+000 -8.618943e+000 121 84 32
-3.002709e+000 -5.178008e-002 -8.871867e+000 131 89 38
-1.856607e+000 5.702649e-001 -8.954508e+000 108 80 57
-1.143359e-001 7.166565e-001 -9.926110e+000 57 47 37
3.076854e+000 1.723101e+000 -1.091764e+001 19 9 7
-1.981270e+000 4.754910e-001 -8.669085e+000 86 63 43
-1.800486e+000 5.124182e-001 -8.874936e+000 43 20 9
-1.669229e+000 5.154615e-001 -8.973770e+000 50 23 4
-1.589707e+000 4.935622e-001 -9.058856e+000 64 39 16
-1.418144e+000 4.305253e-001 -9.158939e+000 80 57 40
-5.561937e-001 6.053128e-001 -9.683645e+000 101 97 77
-5.561937e-001 6.053128e-001 -9.683645e+000 101 97 77
-5.202744e-001 6.339082e-001 -9.668490e+000 23 17 14
-4.983698e-001 6.188835e-001 -9.544225e+000 21 11 11
5.359636e-001 1.899164e+000 -8.743497e+000 122 96 55
4.262065e+000 2.556961e+000 -1.048526e+001 35 21 14
-2.908850e+000 -1.108004e-001 -8.611621e+000 99 61 24
-1.668957e+000 4.268161e-001 -8.800292e+000 93 68 46
-1.558394e+000 5.007970e-001 -8.809496e+000 88 67 43
-1.277458e+000 3.433285e-001 -9.057811e+000 83 62 43
7.307776e-001 1.986792e+000 -8.455172e+000 96 55 21
4.187669e+000 2.452175e+000 -1.025656e+001 34 17 6
-2.886926e+000 -1.573891e-001 -8.474766e+000 111 73 38
-1.783080e+000 3.677948e-001 -8.629540e+000 35 11 1
-1.764145e+000 3.543350e-001 -8.600179e+000 80 54 37
-1.764145e+000 3.543350e-001 -8.600179e+000 80 54 37
-1.740242e+000 2.919832e-001 -8.637877e+000 44 19 4
-1.593643e+000 2.976773e-001 -8.834038e+000 67 47 35
-1.468513e+000 2.490634e-001 -8.830368e+000 90 64 37
4.260677e+000 2.269315e+000 -1.006032e+001 80 61 54
-2.669361e+000 -1.118220e-001 -8.325052e+000 117 74 30
-2.552551e+000 -1.734938e-001 -8.288603e+000 108 63 22
7.568659e-002 5.100614e-001 -9.231495e+000 95 84 57
7.568659e-002 5.100614e-001 -9.231495e+000 95 84 57
6.623671e-001 8.286114e-001 -9.173142e+000 35 30 26
4.139304e+000 2.079935e+000 -1.007339e+001 40 22 18
-1.954994e+000 3.381383e-002 -8.236604e+000 62 32 4
2.849090e-001 4.747659e-001 -9.217191e+000 17 10 3
9.648979e-001 1.835161e+000 -8.210230e+000 60 40 23
9.788610e-001 1.780001e+000 -8.196874e+000 109 83 58
-2.072474e+000 -7.318544e-002 -8.131854e+000 129 96 55
-2.072474e+000 -7.318544e-002 -8.131854e+000 129 96 55
-2.040188e+000 -1.188696e-001 -8.079168e+000 147 112 72
-2.014931e+000 -2.480798e-002 -8.103098e+000 135 101 64
-1.962998e+000 -3.651548e-003 -8.152185e+000 69 35 8
-1.938817e+000 -1.362477e-002 -8.185961e+000 112 78 51
-9.555127e-001 -1.074151e-001 -8.840106e+000 46 37 27
9.969879e-001 1.749785e+000 -8.178365e+000 131 104 77
4.625776e+000 2.141225e+000 -9.848913e+000 44 25 18
-1.989980e+000 -2.565680e-001 -8.024755e+000 142 107 67
-1.353467e+000 3.447412e-002 -8.080966e+000 56 35 17
-1.582225e-001 -9.094292e-002 -8.613029e+000 152 131 78
-1.582225e-001 -9.094292e-002 -8.613029e+000 152 131 78
1.386284e+000 1.443192e+000 -8.214304e+000 115 93 43
1.386284e+000 1.443192e+000 -8.214304e+000 115 93 43
1.748198e+000 1.627143e+000 -8.170469e+000 29 16 8
-2.639656e+000 -1.198463e+000 -8.057213e+000 130 88 36
-1.794543e+000 -4.976080e-001 -7.892019e+000 122 83 47
-1.584495e+000 -4.300705e-001 -8.079736e+000 42 25 10
5.437000e-001 1.992879e-002 -8.624446e+000 146 126 74
4.686711e+000 1.685774e+000 -9.344097e+000 32 17 12
-2.114702e+000 -7.264640e-001 -7.837003e+000 126 87 46
4.601633e+000 1.623367e+000 -9.241005e+000 94 77 51
4.676981e+000 1.612296e+000 -9.233516e+000 84 65 49
6.289430e-001 -4.950402e-001 -8.646527e+000 21 15 5
1.576246e+000 9.573394e-001 -8.017780e+000 102 84 62
-6.566579e-001 -1.238165e+000 -8.458505e+000 187 181 165
-4.583143e-001 -1.037917e+000 -8.338128e+000 151 139 91
-4.583143e-001 -1.037917e+000 -8.338128e+000 151 139 91
-4.748162e-001 -1.185485e+000 -8.364081e+000 131 119 91
-3.439890e-001 -1.094819e+000 -8.331535e+000 114 100 69
-3.048237e-001 -1.084705e+000 -8.339587e+000 122 113 82
2.024289e-001 -8.879774e-001 -8.478534e+000 19 13 8
7.459600e-001 -5.044735e-001 -8.588793e+000 84 74 65
1.558224e+000 1.093384e+000 -7.713187e+000 73 50 37
1.558224e+000 1.093384e+000 -7.713187e+000 73 50 37
2.138065e+000 1.030346e+000 -8.048744e+000 33 14 9
1.379881e+000 7.988805e-001 -7.693327e+000 99 60 19
4.684213e+000 1.277288e+000 -8.838994e+000 66 50 38
4.250756e-001 -9.397478e-001 -8.316972e+000 39 19 12
1.037000e+000 -1.174041e+000 -8.614261e+000 121 121 122
1.316289e+000 3.789820e-001 -7.637283e+000 114 76 31
1.394422e+000 8.066287e-001 -7.446555e+000 82 41 19
1.463318e+000 9.145682e-001 -7.489023e+000 122 84 45
1.496559e+000 9.694697e-001 -7.396291e+000 77 38 2
-2.081915e-001 -1.781815e+000 -8.232326e+000 58 41 31
1.287826e+000 2.850323e-001 -7.681052e+000 72 56 34
1.440247e+000 6.891856e-001 -7.138063e+000 163 121 78
2.630493e-001 -1.424269e+000 -7.825696e+000 144 105 70
2.630493e-001 -1.424269e+000 -7.825696e+000 144 105 70
7.042411e-001 -1.020712e+000 -7.655465e+000 126 81 50
9.081820e-001 -8.030795e-001 -7.684409e+000 108 77 48
9.081820e-001 -8.030795e-001 -7.684409e+000 108 77 48
1.412851e+000 4.803261e-001 -7.154822e+000 106 60 8
1.468290e+000 5.914338e-001 -7.000706e+000 176 128 80
4.717504e+000 5.246611e-001 -8.360373e+000 33 20 11
1.519536e+000 3.664881e-001 -6.951827e+000 171 125 76
5.173127e+000 8.347693e-001 -8.081726e+000 100 76 64
5.213609e+000 8.314663e-001 -8.076709e+000 43 26 17
5.037668e+000 7.011702e-001 -7.937166e+000 66 49 42
5.270381e+000 6.757856e-001 -7.812695e+000 97 76 66
5.271841e+000 6.370853e-001 -7.819472e+000 57 39 25
3.260954e+000 3.482483e+000 -1.173216e+001 50 30 18
3.615697e+000 3.553904e+000 -1.198076e+001 38 21 12
3.080859e+000 3.229386e+000 -1.176987e+001 55 40 33
-7.867687e-003 2.110741e+000 -1.063505e+001 38 25 16
3.552385e+000 3.364489e+000 -1.172017e+001 80 59 54
3.560750e+000 3.338856e+000 -1.167601e+001 18 4 3
1.076745e-001 2.057781e+000 -1.051796e+001 104 94 84
1.076745e-001 2.057781e+000 -1.051796e+001 104 94 84
3.156938e+000 2.985367e+000 -1.151249e+001 60 45 38
3.510058e+000 3.211521e+000 -1.145333e+001 34 18 9
3.482218e+000 3.211432e+000 -1.134900e+001 83 64 52
3.785818e+000 3.248888e+000 -1.150952e+001 57 44 36
-7.299470e-001 1.598087e+000 -1.024317e+001 158 114 66
-4.726310e-001 1.745666e+000 -1.016555e+001 131 87 48
6.326019e-002 1.837334e+000 -1.037121e+001 37 19 5
3.105897e+000 2.834554e+000 -1.135267e+001 56 43 34
3.111365e+000 2.899605e+000 -1.129953e+001 21 8 7
3.565321e+000 3.073001e+000 -1.132407e+001 67 45 32
3.694895e+000 3.107166e+000 -1.137344e+001 61 44 36
-6.887431e-001 1.450549e+000 -1.017650e+001 100 58 19
-6.887431e-001 1.450549e+000 -1.017650e+001 100 58 19
3.424394e+000 2.963854e+000 -1.117326e+001 41 26 21
-8.095726e-001 1.082188e+000 -1.027447e+001 134 98 62
-7.756741e-001 1.211831e+000 -1.024361e+001 56 28 5
-6.226923e-001 1.247259e+000 -1.003877e+001 125 95 58
-6.226923e-001 1.247259e+000 -1.003877e+001 125 95 58
3.730140e+000 2.943647e+000 -1.092253e+001 34 19 15
3.742757e+000 2.976062e+000 -1.088500e+001 56 40 32
3.900019e+000 2.978460e+000 -1.119956e+001 32 19 14
3.900019e+000 2.978460e+000 -1.119956e+001 32 19 14
-7.031669e-001 1.143248e+000 -1.003960e+001 85 55 21
-4.712981e-001 1.298061e+000 -9.958404e+000 67 38 8
-4.323567e-001 1.299325e+000 -9.923847e+000 135 104 60
-4.060699e-001 1.235122e+000 -9.909065e+000 127 96 50
4.026047e+000 2.879219e+000 -1.099068e+001 33 18 15
-2.273394e+000 4.963735e-001 -9.424127e+000 36 16 6
-2.187938e+000 5.571829e-001 -9.248397e+000 35 18 10
-3.957953e-001 1.186017e+000 -9.874050e+000 136 103 60
9.528160e-001 2.628865e+000 -8.801458e+000 133 93 44
3.986927e+000 2.783673e+000 -1.091817e+001 67 54 43
3.986927e+000 2.783673e+000 -1.091817e+001 67 54 43
4.027945e+000 2.788159e+000 -1.084470e+001 79 65 56
-2.000636e+000 5.891528e-001 -9.192962e+000 39 18 7
-1.905149e+000 5.815895e-001 -9.186434e+000 48 26 15
-1.247545e+000 2.778177e-001 -1.009661e+001 100 85 66
1.000418e+000 2.617459e+000 -8.699638e+000 115 77 30
1.691895e+000 2.492001e+000 -9.236171e+000 71 61 44
-2.600000e+000 3.234743e-001 -8.940841e+000 85 46 13
-2.484236e+000 4.217181e-001 -8.904457e+000 109 68 35
-2.131517e+000 4.949722e-001 -8.965799e+000 71 36 16
-2.001531e+000 5.514890e-001 -8.884509e+000 71 45 28
-1.217851e+000 4.161279e-001 -9.576777e+000 75 66 52
9.230935e-001 2.545351e+000 -8.548908e+000 82 46 10
9.069032e-001 2.545991e+000 -8.434216e+000 149 118 71
3.764317e+000 2.329729e+000 -1.048024e+001 30 17 9
4.042797e+000 2.620933e+000 -1.057818e+001 45 28 20
-2.490578e+000 3.382760e-001 -8.662935e+000 142 104 64
-2.488271e+000 3.082979e-001 -8.612982e+000 134 97 53
-2.346258e+000 3.572954e-001 -8.706588e+000 126 90 54
-2.215424e+000 3.981917e-001 -8.668141e+000 116 81 48
-2.118292e+000 4.077543e-001 -8.649984e+000 56 27 9
-2.051000e+000 4.376318e-001 -8.842722e+000 52 23 8
-1.825263e+000 4.509396e-001 -8.800931e+000 39 15 5
-9.681863e-001 5.333371e-001 -9.508429e+000 73 66 52
-9.681863e-001 5.333371e-001 -9.508429e+000 73 66 52
-8.563643e-001 5.274778e-001 -9.536245e+000 34 25 17
3.913407e+000 2.396799e+000 -1.037607e+001 32 19 12
4.237819e+000 2.468515e+000 -1.046111e+001 37 19 15
-3.000369e+000 -2.252479e-001 -8.599862e+000 80 53 26
-3.000369e+000 -2.252479e-001 -8.599862e+000 80 53 26
-1.760001e+000 4.620300e-001 -8.811983e+000 52 24 8
-1.589188e+000 4.384195e-001 -8.860639e+000 39 19 3
-1.589188e+000 4.384195e-001 -8.860639e+000 39 19 3
-1.432397e+000 3.962139e-001 -9.006989e+000 50 27 14
4.511153e-001 9.664198e-001 -9.392035e+000 44 37 32
-3.000507e+000 -4.991954e-001 -8.628226e+000 156 127 97
-2.761381e+000 -1.088700e-001 -8.421827e+000 91 50 19
-2.631272e+000 -5.330463e-002 -8.465924e+000 136 91 49
-2.439177e+000 6.645696e-002 -8.378739e+000 103 62 18
-2.223672e+000 2.363022e-001 -8.434570e+000 75 39 7
-2.021589e+000 2.421745e-001 -8.426651e+000 64 34 14
-1.872977e+000 3.514797e-001 -8.558863e+000 48 20 4
5.453289e-001 9.455627e-001 -9.429271e+000 50 43 33
3.940527e+000 2.150043e+000 -1.020390e+001 31 19 13
4.041351e+000 2.261003e+000 -1.006379e+001 70 53 45
4.238991e+000 2.271283e+000 -1.009524e+001 40 27 19
-2.002886e+000 1.319968e-001 -8.305167e+000 58 29 6
-1.970157e+000 2.132554e-001 -8.397251e+000 46 15 2
-9.579225e-001 9.666790e-002 -8.944259e+000 58 46 32
8.327885e-001 1.764890e+000 -8.414709e+000 121 89 48
8.327885e-001 1.764890e+000 -8.414709e+000 121 89 48
4.252879e+000 2.258343e+000 -9.963744e+000 85 66 52
-2.491295e+000 -1.877825e-001 -8.225721e+000 139 98 54
-1.080775e+000 6.707004e-002 -8.796877e+000 92 72 47
-1.033829e+000 3.372788e-002 -8.818521e+000 44 30 18
1.377193e-001 4.333686e-001 -9.003973e+000 17 11 13
2.817598e-001 5.596396e-001 -9.172886e+000 105 97 78
1.040330e+000 1.890673e+000 -8.217950e+000 85 63 40
1.322715e+000 2.019805e+000 -8.244467e+000 72 38 10
4.116117e+000 1.757223e+000 -9.935246e+000 25 11 7
4.363762e+000 2.109587e+000 -9.853902e+000 36 19 11
4.363762e+000 2.109587e+000 -9.853902e+000 36 19 11
4.549954e+000 2.228702e+000 -9.844700e+000 39 25 18
-2.568097e+000 -3.844019e-001 -8.194332e+000 141 97 49
-2.509582e+000 -2.952832e-001 -8.170732e+000 153 110 59
-2.565209e+000 -3.900760e-001 -8.108180e+000 117 69 28
-2.169433e+000 -7.712404e-002 -8.125542e+000 141 106 66
-1.906806e+000 -9.133992e-002 -8.136458e+000 72 38 13
-1.822415e+000 -4.831497e-002 -8.144555e+000 100 69 40
-1.519481e+000 2.248931e-001 -8.225648e+000 137 114 67
1.423568e+000 1.767057e+000 -8.283841e+000 64 29 8
1.761434e+000 1.848964e+000 -8.399248e+000 62 36 19
4.213735e+000 1.715654e+000 -9.828681e+000 27 13 7
4.560677e+000 2.105670e+000 -9.811359e+000 63 48 41
4.560677e+000 2.105670e+000 -9.811359e+000 63 48 41
-1.954342e+000 -2.090730e-001 -8.083311e+000 79 46 11
5.494213e-001 3.137953e-001 -8.881773e+000 48 35 21
1.769305e+000 1.662430e+000 -8.412291e+000 70 41 17
1.862520e+000 1.727488e+000 -8.365492e+000 63 46 26
-2.646428e+000 -7.821786e-001 -8.075920e+000 109 66 24
-2.522056e+000 -7.609301e-001 -7.969351e+000 173 137 87
-1.915852e+000 -2.951519e-001 -8.019308e+000 121 89 48
-2.092438e-001 -1.006239e-002 -8.665311e+000 24 21 23
-1.306007e-001 -4.455545e-002 -8.637574e+000 31 25 20
2.129298e-001 8.893766e-002 -8.664035e+000 131 120 59
2.455345e-001 9.095785e-002 -8.677917e+000 134 118 61
1.535171e+000 1.548203e+000 -8.180966e+000 24 14 12
1.781450e+000 1.612587e+000 -8.228888e+000 135 109 75
1.870624e+000 1.651448e+000 -8.313308e+000 79 61 38
1.870624e+000 1.651448e+000 -8.313308e+000 79 61 38
4.368937e+000 1.631565e+000 -9.594620e+000 39 26 18
4.544064e+000 1.829169e+000 -9.384324e+000 33 18 14
-1.764817e+000 -5.910138e-001 -7.965633e+000 89 53 19
-1.641342e+000 -4.712868e-001 -7.969640e+000 109 77 47
-1.508303e+000 -4.667525e-001 -8.062480e+000 86 51 22
4.005493e+000 1.161156e+000 -9.638235e+000 34 22 8
4.110997e+000 1.042483e+000 -9.665184e+000 80 68 45
4.102417e+000 1.013343e+000 -9.618180e+000 35 22 5
4.192041e+000 1.093438e+000 -9.575462e+000 83 65 43
4.454809e+000 1.444072e+000 -9.428844e+000 32 18 17
-2.414917e+000 -1.429694e+000 -8.081093e+000 64 36 3
5.147699e-001 -2.610986e-001 -8.569173e+000 96 82 46
5.546208e-001 -2.678107e-001 -8.588738e+000 106 92 64
5.546208e-001 -2.678107e-001 -8.588738e+000 106 92 64
1.347451e+000 5.046668e-001 -8.482098e+000 25 18 14
1.367609e+000 5.206989e-001 -8.519571e+000 31 24 17
4.658238e+000 1.651848e+000 -9.270794e+000 115 98 71
4.684607e+000 1.672638e+000 -9.262967e+000 40 23 16
4.616506e+000 1.702466e+000 -9.066046e+000 48 30 21
-2.580811e+000 -1.563696e+000 -8.021923e+000 198 171 128
-1.814890e+000 -7.833938e-001 -7.807122e+000 133 93 58
4.528287e-001 -5.397825e-001 -8.552583e+000 17 14 9
4.953140e-001 -4.413985e-001 -8.564302e+000 16 11 17
4.953140e-001 -4.413985e-001 -8.564302e+000 16 11 17
6.521926e-001 -3.154244e-001 -8.591252e+000 103 94 69
6.521926e-001 -3.154244e-001 -8.591252e+000 103 94 69
6.700394e-001 -4.690394e-001 -8.628543e+000 97 88 62
6.700394e-001 -4.690394e-001 -8.628543e+000 97 88 62
6.410202e-001 -5.532703e-001 -8.648222e+000 67 60 49
6.410202e-001 -5.532703e-001 -8.648222e+000 67 60 49
6.719596e-001 -3.756673e-001 -8.592052e+000 24 18 6
1.509830e+000 8.474420e-001 -7.999489e+000 28 24 13
4.480368e+000 1.352704e+000 -9.237751e+000 72 58 45
4.756947e+000 1.628094e+000 -9.022394e+000 79 58 53
-3.999274e-002 -9.169540e-001 -8.413432e+000 21 17 12
3.251477e-001 -7.643700e-001 -8.513980e+000 66 59 41
7.104664e-001 -5.185818e-001 -8.611207e+000 22 14 12
4.780986e+000 1.457862e+000 -8.967961e+000 119 99 83
1.085727e+000 -3.235251e-001 -8.391833e+000 18 8 6
1.305155e+000 8.411976e-001 -7.556676e+000 127 88 50
1.369240e+000 8.906639e-001 -7.528389e+000 144 102 60
1.468418e+000 9.944772e-001 -7.607009e+000 67 36 17
4.319876e+000 6.971311e-001 -9.085838e+000 65 49 37
4.742640e+000 1.202865e+000 -8.873960e+000 37 23 16
1.190040e-001 -1.186233e+000 -8.227349e+000 33 19 8
1.304390e+000 7.293628e-001 -7.531234e+000 86 46 23
1.343352e+000 8.430717e-001 -7.467297e+000 139 100 62
1.472378e+000 9.931118e-001 -7.451601e+000 129 90 51
1.461896e+000 9.931065e-001 -7.396536e+000 141 99 51
2.133212e+000 9.585991e-001 -7.645105e+000 58 38 12
4.711716e+000 1.047327e+000 -8.714393e+000 29 14 11
4.726663e+000 1.109873e+000 -8.731889e+000 34 19 14
4.900322e+000 1.241950e+000 -8.664703e+000 126 109 80
7.946846e-001 -8.267171e-001 -8.015494e+000 97 73 46
1.372356e+000 -8.511414e-001 -8.323127e+000 8 7 12
1.287837e+000 5.128196e-001 -7.387094e+000 169 125 78
1.312453e+000 7.302861e-001 -7.325419e+000 144 100 53
1.446785e+000 8.291604e-001 -7.255762e+000 161 117 70
4.945006e+000 1.155256e+000 -8.548773e+000 121 101 75
3.424651e-001 -1.089685e+000 -7.833990e+000 122 82 56
4.977676e-001 -8.489979e-001 -7.753914e+000 98 63 41
5.225127e-001 -9.331609e-001 -7.730741e+000 72 34 13
8.368585e-001 -8.306479e-001 -7.808779e+000 66 34 11
1.277080e+000 4.758825e-001 -7.269803e+000 171 126 74
4.499391e+000 5.323062e-001 -8.685596e+000 77 61 46
4.977052e+000 1.096204e+000 -8.385332e+000 119 96 70
7.151656e-001 -9.281672e-001 -7.612383e+000 89 46 13
1.417023e+000 6.543503e-001 -7.097375e+000 181 135 86
1.789928e+000 7.942723e-001 -7.134240e+000 159 132 76
4.766551e+000 7.385874e-001 -8.416158e+000 27 16 12
5.017117e+000 1.056052e+000 -8.342926e+000 115 90 74
7.697372e-001 -1.037538e+000 -7.500132e+000 159 111 63
1.335115e+000 7.892360e-003 -7.243759e+000 115 109 101
1.560485e+000 5.086941e-001 -7.016932e+000 80 37 3
5.088208e+000 9.263664e-001 -8.175389e+000 121 95 73
1.004645e+000 -9.095326e-001 -7.429102e+000 147 108 63
4.929770e+000 6.355747e-001 -8.108606e+000 29 18 12
5.126766e+000 8.745455e-001 -8.115607e+000 116 94 72
1.698005e+000 3.945080e-001 -6.874881e+000 155 112 57
1.698005e+000 3.945080e-001 -6.874881e+000 155 112 57
1.776199e+000 4.045759e-001 -6.885484e+000 127 89 39
1.838009e+000 -2.807936e-003 -6.798757e+000 162 130 84
5.323847e+000 6.043537e-001 -7.676554e+000 113 89 72
8.355703e-002 2.082184e+000 -1.054639e+001 71 61 53
8.355703e-002 2.082184e+000 -1.054639e+001 71 61 53
2.875138e+000 2.896005e+000 -1.141720e+001 37 23 22
3.206895e+000 3.046030e+000 -1.134484e+001 63 45 33
-2.300585e+000 -2.703062e+000 -1.575413e+001 123 132 139
3.353323e+000 2.882133e+000 -1.134542e+001 64 49 41
3.726401e+000 3.010488e+000 -1.126650e+001 22 8 5
3.735290e+000 2.970387e+000 -1.119752e+001 24 15 10
3.880703e+000 3.033762e+000 -1.120441e+001 70 53 45
-8.813395e-001 9.797745e-001 -1.043962e+001 55 31 11
3.541369e+000 2.646718e+000 -1.090209e+001 36 25 21
3.843834e+000 2.811727e+000 -1.082398e+001 90 70 59
-4.196036e-001 1.131632e+000 -9.989938e+000 80 46 7
2.550107e-001 1.046007e+000 -1.044722e+001 109 109 109
1.011307e+000 2.628943e+000 -8.836866e+000 150 110 61
3.387497e+000 2.466646e+000 -1.090680e+001 55 44 38
3.887865e+000 2.795610e+000 -1.081044e+001 31 18 10
-2.258870e+000 4.788023e-001 -9.162707e+000 49 23 10
2.195615e-001 1.020461e+000 -1.029789e+001 105 103 104
9.098019e-001 2.566917e+000 -8.762706e+000 97 51 9
1.615148e+000 2.536064e+000 -9.162730e+000 39 24 15
-2.960917e+000 7.403894e-002 -8.867018e+000 141 100 55
-2.796188e+000 1.226632e-001 -8.814062e+000 126 85 39
-2.392435e+000 3.978103e-001 -8.906582e+000 100 63 34
-2.068701e+000 5.484630e-001 -8.978842e+000 81 50 29
-2.038823e+000 5.057340e-001 -8.887223e+000 36 14 1
-1.901358e+000 5.346776e-001 -9.003812e+000 44 21 13
-1.631914e+000 4.927141e-001 -9.137344e+000 59 32 12
-1.601917e+000 5.591699e-001 -9.125012e+000 53 28 9
-1.460791e-001 6.624154e-001 -1.012533e+001 25 16 16
-7.676127e-002 6.732443e-001 -1.003136e+001 13 12 9
3.514501e+000 2.162389e+000 -1.064134e+001 32 22 13
4.059540e+000 2.604586e+000 -1.052632e+001 92 73 66
-2.237119e+000 3.671149e-001 -8.618341e+000 137 104 63
-2.237119e+000 3.671149e-001 -8.618341e+000 137 104 63
-2.131447e+000 4.899771e-001 -8.795223e+000 58 25 4
-2.082226e+000 4.227291e-001 -8.665172e+000 50 22 8
-1.756098e+000 5.027821e-001 -8.943993e+000 45 19 7
-1.630163e+000 4.460671e-001 -8.966708e+000 45 22 6
-1.430131e+000 4.213746e-001 -9.092666e+000 41 18 5
-1.430131e+000 4.213746e-001 -9.092666e+000 41 18 5
-1.187675e+000 3.050000e-001 -9.575535e+000 13 7 4
-1.187675e+000 3.050000e-001 -9.575535e+000 13 7 4
-4.155755e-001 6.590588e-001 -9.696934e+000 107 102 71
-2.890397e+000 -9.069580e-002 -8.661979e+000 71 36 4
-2.220751e+000 3.208249e-001 -8.500393e+000 75 41 13
-2.082169e+000 3.370047e-001 -8.637433e+000 50 23 6
-1.999656e+000 3.516276e-001 -8.588017e+000 41 13 2
-1.804821e+000 4.134592e-001 -8.710860e+000 35 14 8
2.323120e-001 7.628814e-001 -9.683500e+000 72 63 47
9.236347e-001 2.261628e+000 -8.373465e+000 63 36 17
3.544280e+000 1.981069e+000 -1.042577e+001 81 64 44
3.686187e+000 1.933794e+000 -1.032749e+001 77 58 43
3.963992e+000 2.277161e+000 -1.027182e+001 37 22 20
-2.664291e+000 -3.017564e-002 -8.409872e+000 132 89 44
-2.308230e+000 1.319348e-001 -8.513432e+000 78 39 10
-2.308230e+000 1.319348e-001 -8.513432e+000 78 39 10
-1.945777e+000 3.517704e-001 -8.498062e+000 54 25 11
-1.611180e+000 2.339408e-001 -8.778629e+000 32 12 5
-1.216800e+000 2.625219e-001 -9.081836e+000 65 47 28
-1.047152e+000 2.098386e-001 -9.033657e+000 19 12 9
7.200938e-001 1.932859e+000 -8.481919e+000 151 118 75
-2.667344e+000 -1.906115e-001 -8.289987e+000 68 31 2
-2.667344e+000 -1.906115e-001 -8.289987e+000 68 31 2
-2.558146e+000 -2.294441e-002 -8.322354e+000 107 64 27
-1.007600e+000 1.387152e-001 -8.961931e+000 21 12 12
8.112279e-001 1.691246e+000 -8.522504e+000 77 55 32
-2.408786e+000 -2.108084e-001 -8.167907e+000 151 114 67
8.933099e-001 1.599035e+000 -8.402760e+000 128 102 67
1.118498e+000 1.769389e+000 -8.233878e+000 52 33 22
4.104941e+000 1.920446e+000 -9.938418e+000 64 47 39
-2.382973e+000 -2.206306e-001 -8.131091e+000 125 87 40
-2.302189e+000 -2.071482e-001 -8.185740e+000 129 88 42
-1.826123e+000 9.795340e-002 -8.104818e+000 72 40 17
4.161197e-001 4.711409e-001 -9.003757e+000 51 42 29
4.141894e+000 1.877343e+000 -9.780649e+000 72 54 45
1.239193e+000 1.500333e+000 -8.238696e+000 123 90 54
1.283993e+000 1.506192e+000 -8.161822e+000 124 93 62
1.386669e+000 1.505700e+000 -8.220390e+000 18 15 9
1.386669e+000 1.505700e+000 -8.220390e+000 18 15 9
1.956259e+000 1.645385e+000 -8.456319e+000 27 17 15
4.200092e+000 1.605268e+000 -9.705585e+000 23 12 9
-2.859635e+000 -1.227201e+000 -8.284390e+000 252 254 252
-2.265064e+000 -5.738864e-001 -7.906859e+000 121 87 42
-1.752061e+000 -3.209604e-001 -8.087777e+000 47 29 17
-1.637230e+000 -2.460989e-001 -7.989260e+000 28 21 18
-3.558906e-001 -1.478326e-001 -8.643583e+000 142 130 82
-1.371027e-001 -5.000985e-002 -8.638912e+000 35 27 15
4.499786e+000 1.763024e+000 -9.412641e+000 74 56 44
-2.514581e+000 -9.146486e-001 -7.959808e+000 153 113 62
-2.514581e+000 -9.146486e-001 -7.959808e+000 153 113 62
-2.243830e+000 -6.226846e-001 -7.897547e+000 147 110 65
-1.679836e+000 -5.067235e-001 -8.011303e+000 62 38 10
-1.010640e+000 -4.567815e-001 -8.258141e+000 67 40 10
-9.540815e-001 -5.469190e-001 -8.328639e+000 88 65 33
-4.296590e-001 -4.108244e-001 -8.541053e+000 33 25 12
4.134316e+000 1.156244e+000 -9.596501e+000 84 66 42
-1.064025e+000 -5.255654e-001 -8.215932e+000 102 66 30
-9.940438e-001 -5.963681e-001 -8.280269e+000 118 84 46
-8.501910e-001 -8.003016e-001 -8.522516e+000 108 92 66
-5.194905e-001 -6.230554e-001 -8.502032e+000 31 27 14
6.952534e-001 -4.493827e-002 -8.633165e+000 21 17 14
-9.395157e-001 -1.220156e+000 -8.417814e+000 14 14 13
-9.395157e-001 -1.220156e+000 -8.417814e+000 14 14 13
-7.309003e-001 -1.096200e+000 -8.523482e+000 160 154 133
-6.467237e-001 -9.462662e-001 -8.477304e+000 63 57 39
-6.467237e-001 -9.462662e-001 -8.477304e+000 63 57 39
-6.460210e-001 -1.115456e+000 -8.450431e+000 163 156 137
6.217254e-001 -2.335738e-001 -8.576577e+000 26 19 14
7.297424e-001 -3.405063e-001 -8.557380e+000 105 91 64
1.508365e+000 9.306790e-001 -7.951580e+000 145 119 86
4.485529e+000 1.290537e+000 -9.152761e+000 28 14 11
1.451128e+000 8.999842e-001 -7.877578e+000 141 113 71
1.513395e+000 9.466276e-001 -7.772837e+000 66 40 17
1.533413e+000 1.121951e+000 -7.736920e+000 38 16 5
2.100366e+000 1.020539e+000 -8.057680e+000 69 44 22
4.791441e+000 1.481729e+000 -8.914439e+000 36 18 11
-3.734414e-001 -1.263182e+000 -8.319414e+000 142 128 101
-1.416548e-001 -1.117693e+000 -8.382290e+000 41 34 21
5.466766e-001 -1.173265e+000 -8.674562e+000 30 19 17
4.536398e+000 1.047008e+000 -9.053555e+000 54 40 34
5.955169e-001 -9.322844e-001 -8.389340e+000 70 56 43
1.865227e+000 1.008988e+000 -7.638055e+000 36 19 11
1.995396e+000 9.807244e-001 -7.614427e+000 97 74 42
2.400960e+000 9.112159e-001 -7.905965e+000 77 54 38
2.400960e+000 9.112159e-001 -7.905965e+000 77 54 38
1.201340e-001 -1.153701e+000 -8.041113e+000 39 18 7
3.280535e-001 -9.083169e-001 -7.948653e+000 121 84 49
1.488709e+000 9.141620e-001 -7.251437e+000 141 99 57
1.849686e+000 1.011913e+000 -7.374953e+000 54 26 11
1.849686e+000 1.011913e+000 -7.374953e+000 54 26 11
1.932762e+000 1.039007e+000 -7.457319e+000 128 101 63
4.904825e+000 1.211164e+000 -8.594069e+000 129 109 84
