ply
format ascii 1.0
element face 0
property list uchar int vertex_indices
element vertex 888
property float x
property float y
property float z
property uchar diffuse_red
property uchar diffuse_green
property uchar diffuse_blue
end_header
-2.807480e-001 1.899592e-001 -8.869653e+000 31 26 23
7.780915e-001 4.087024e-001 -8.870284e+000 29 25 26
1.588120e+000 8.998346e-001 -7.561422e+000 131 96 70
1.407491e+000 7.539172e-001 -7.326759e+000 190 150 101
1.483428e+000 7.878574e-001 -7.378310e+000 165 128 81
1.766273e+000 8.516344e-001 -7.345866e+000 74 46 34
2.343583e+000 8.171849e-001 -7.959591e+000 64 46 34
-2.512145e+000 -2.833466e-001 -8.216617e+000 111 71 36
-1.999579e+000 -3.195624e-001 -8.101486e+000 112 78 43
-1.841783e+000 -2.446922e-001 -8.152071e+000 71 39 18
-1.835273e+000 -2.320847e-001 -8.119631e+000 71 39 18
1.546052e+000 5.614425e-001 -7.263987e+000 117 74 42
1.674706e+000 5.899009e-001 -7.139196e+000 171 145 107
-2.193090e+000 -4.899284e-001 -8.038051e+000 168 136 97
-1.658002e+000 -5.761965e-001 -7.949652e+000 118 84 57
6.345715e-001 -4.268058e-001 -8.636355e+000 25 21 16
-2.351589e+000 -7.549200e-001 -8.009503e+000 171 142 103
-1.463915e+000 -6.086934e-001 -8.044719e+000 116 81 51
-1.488701e+000 -6.733521e-001 -8.187133e+000 116 81 51
-2.371026e+000 -9.437684e-001 -7.957709e+000 121 80 44
-2.326231e+000 -9.657757e-001 -7.896863e+000 154 112 80
-2.154121e+000 -9.575786e-001 -7.971005e+000 132 91 63
-9.559950e-001 -9.061993e-001 -8.346493e+000 133 102 74
5.724290e-001 -7.316404e-001 -8.626341e+000 17 11 17
5.724290e-001 -7.316404e-001 -8.626341e+000 17 11 17
5.993068e-001 -8.417602e-001 -8.730989e+000 42 38 39
6.473776e-001 -7.452450e-001 -8.717669e+000 68 63 59
6.917266e-001 -6.571412e-001 -8.692935e+000 84 81 70
6.696757e-001 -8.209475e-001 -8.743860e+000 10 8 12
1.759864e+000 1.786823e-001 -6.942270e+000 80 38 23
2.050442e+000 2.479072e-001 -6.959795e+000 68 40 29
2.035990e+000 2.623520e-001 -6.921856e+000 68 40 29
-2.475699e+000 -1.149167e+000 -8.137997e+000 165 127 87
-1.886426e+000 -9.596434e-001 -7.945668e+000 124 83 58
-1.465384e+000 -9.086434e-001 -7.999308e+000 62 29 12
-9.488295e-001 -1.214214e+000 -8.648144e+000 73 56 43
-6.438373e-001 -1.129165e+000 -8.483899e+000 155 156 148
2.632935e-001 -9.596148e-001 -8.525860e+000 14 7 15
3.950112e-001 -8.873425e-001 -8.537010e+000 16 9 15
6.178792e-001 -9.113250e-001 -8.752019e+000 12 10 13
6.836611e-001 -8.941814e-001 -8.766338e+000 36 31 35
1.374449e+000 -1.406263e-001 -7.408409e+000 182 148 122
1.690701e+000 8.391807e-002 -6.951183e+000 111 63 35
-6.899997e-001 -1.159517e+000 -8.489796e+000 33 32 36
-6.903705e-001 -1.166322e+000 -8.502843e+000 33 32 36
-6.137466e-001 -1.199234e+000 -8.457531e+000 39 36 40
-1.495706e+000 -1.224769e+000 -7.965161e+000 34 23 27
8.777337e-002 -1.089677e+000 -8.143626e+000 76 68 58
1.155504e-001 -1.140357e+000 -8.148183e+000 37 22 15
1.217636e-001 -1.211007e+000 -8.281801e+000 37 22 15
1.841766e+000 -3.405079e-001 -7.140323e+000 184 162 132
3.344458e-001 -1.060412e+000 -7.955202e+000 135 98 76
-2.011860e+000 -1.847697e+000 -8.218337e+000 30 17 23
7.001997e-002 -1.382368e+000 -8.023122e+000 26 16 17
1.118711e-001 -1.320400e+000 -7.895075e+000 36 20 18
3.274607e-001 -1.198250e+000 -7.844692e+000 120 80 60
3.274607e-001 -1.198250e+000 -7.844692e+000 120 80 60
7.857264e-001 -1.631464e+000 -7.673778e+000 200 160 120
-5.298349e-001 1.944058e+000 -1.025564e+001 147 112 70
-6.179861e-001 1.863947e+000 -1.028872e+001 146 113 72
4.117840e+000 2.514639e+000 -1.031240e+001 38 25 23
4.168587e+000 2.514434e+000 -1.042049e+001 38 25 23
4.109576e+000 2.444414e+000 -1.029458e+001 94 76 72
4.364694e+000 2.572213e+000 -1.050561e+001 84 69 62
4.482627e+000 2.383534e+000 -1.041644e+001 31 17 17
7.497007e-001 1.800951e+000 -8.482916e+000 163 131 100
1.171017e+000 1.746949e+000 -8.277209e+000 66 46 40
-1.124006e-001 1.091727e+000 -1.004158e+001 62 43 28
7.478979e-001 1.367148e+000 -9.338027e+000 76 69 61
3.782832e+000 1.736526e+000 -1.014293e+001 28 16 20
4.056912e-001 1.056881e+000 -9.938898e+000 26 20 21
1.439063e+000 1.541859e+000 -8.280326e+000 148 105 71
1.439063e+000 1.541859e+000 -8.280326e+000 148 105 71
3.851113e+000 1.641703e+000 -1.003442e+001 49 38 36
-2.770278e+000 3.469573e-001 -9.775287e+000 27 25 26
7.000639e-002 9.232803e-001 -1.010463e+001 38 25 23
-2.729788e+000 3.580546e-001 -9.450648e+000 178 160 128
-2.334611e+000 4.602542e-001 -8.918532e+000 101 62 34
-2.005199e+000 4.980062e-001 -8.846570e+000 88 51 25
5.016434e-001 9.517671e-001 -9.356401e+000 58 52 49
3.986771e+000 1.417179e+000 -9.607176e+000 35 24 26
-2.130060e+000 3.536852e-001 -8.609481e+000 77 42 18
2.456016e-001 6.273184e-001 -9.513335e+000 27 25 22
-1.348025e+000 2.999879e-001 -8.800077e+000 50 27 14
-2.514994e+000 6.808391e-002 -8.574676e+000 106 63 21
-2.413866e+000 1.784642e-001 -8.451296e+000 175 133 90
-2.413866e+000 1.784642e-001 -8.451296e+000 175 133 90
-2.379245e+000 1.505976e-001 -8.603632e+000 126 87 48
-2.113263e+000 2.314506e-001 -8.475015e+000 79 44 23
1.606997e+000 1.038088e+000 -7.610905e+000 40 22 22
1.885038e+000 1.084353e+000 -7.748874e+000 81 51 43
4.345526e+000 1.051196e+000 -9.331477e+000 25 16 17
-4.086320e-001 1.710576e-001 -8.896980e+000 93 83 53
1.851253e+000 9.239031e-001 -7.601501e+000 147 125 85
1.230932e+000 4.652682e-001 -8.494967e+000 58 51 46
-2.748182e+000 -5.615099e-001 -8.417953e+000 164 122 82
-2.748182e+000 -5.615099e-001 -8.417953e+000 164 122 82
-2.337940e+000 -4.441926e-001 -8.129879e+000 115 79 43
-2.094152e-001 -1.758615e-001 -8.631605e+000 23 19 22
1.181933e-002 -8.892436e-002 -8.648614e+000 142 127 104
-3.491619e-002 -1.880713e-001 -8.622739e+000 150 140 106
1.709357e+000 6.226626e-001 -7.154934e+000 78 50 38
1.709357e+000 6.226626e-001 -7.154934e+000 78 50 38
-2.023414e+000 -4.253426e-001 -8.036378e+000 160 129 91
-2.273045e-001 -3.421921e-001 -8.575382e+000 142 130 97
-1.979263e-001 -4.103155e-001 -8.550419e+000 25 21 17
-5.026347e-002 -3.496937e-001 -8.557553e+000 29 26 17
1.697726e-001 -2.756895e-001 -8.623410e+000 130 113 84
2.716503e-001 -3.228571e-001 -8.634219e+000 151 137 102
1.572764e+000 5.027584e-001 -7.187370e+000 129 89 49
1.715573e+000 5.762049e-001 -7.112722e+000 68 40 30
1.702690e+000 5.917043e-001 -7.072045e+000 68 40 30
-4.163768e-001 -5.091684e-001 -8.555443e+000 149 138 110
-2.086229e-002 -4.219399e-001 -8.548642e+000 142 128 93
5.169751e-002 -3.912613e-001 -8.551066e+000 21 20 25
8.017779e-003 -4.927164e-001 -8.528729e+000 27 26 19
8.031037e-002 -4.636572e-001 -8.540164e+000 130 119 89
2.263626e-001 -4.205094e-001 -8.605162e+000 122 108 78
2.980585e-001 -3.961519e-001 -8.623196e+000 31 22 25
1.640858e+000 3.844660e-001 -7.070192e+000 128 86 44
1.822570e+000 3.896049e-001 -6.980551e+000 180 150 110
-4.021155e-001 -7.424309e-001 -8.477282e+000 142 130 107
-3.287270e-001 -7.082787e-001 -8.469420e+000 31 25 22
-2.850881e-001 -6.055771e-001 -8.489561e+000 27 21 22
1.087922e-001 -5.425102e-001 -8.542033e+000 30 21 25
1.371118e-001 -6.072417e-001 -8.507539e+000 130 115 85
2.367929e-001 -6.629872e-001 -8.546686e+000 108 94 78
1.697795e+000 2.955295e-001 -6.896886e+000 137 93 54
-5.437604e-001 -8.081537e-001 -8.482740e+000 153 146 118
-5.819632e-001 -9.121141e-001 -8.466293e+000 146 138 116
-5.146486e-001 -8.772566e-001 -8.456992e+000 27 24 19
-5.137361e-001 -8.732342e-001 -8.448695e+000 27 24 19
-3.711535e-001 -8.051600e-001 -8.436845e+000 23 22 18
1.920449e-001 -7.586194e-001 -8.523149e+000 143 130 90
-2.062687e+000 -1.122929e+000 -7.989178e+000 116 81 59
-5.516957e-001 -9.730282e-001 -8.427581e+000 30 29 25
-5.516957e-001 -9.730282e-001 -8.427581e+000 30 29 25
-4.863193e-001 -9.376252e-001 -8.414930e+000 153 144 126
-4.863193e-001 -9.376252e-001 -8.414930e+000 153 144 126
-3.863695e-001 -9.697730e-001 -8.384447e+000 146 132 103
-2.397622e-001 -9.110616e-001 -8.399191e+000 151 136 102
-2.390274e-001 -9.025798e-001 -8.381731e+000 151 136 102
6.687894e-003 -9.081309e-001 -8.453007e+000 118 104 76
-6.629885e-002 -9.195505e-001 -8.407676e+000 31 26 25
7.128772e-001 -9.642048e-001 -8.778666e+000 15 10 15
1.441937e+000 -6.954532e-002 -7.023396e+000 190 146 102
1.601041e+000 1.982472e-002 -6.953973e+000 147 91 54
2.541424e+000 5.132738e-002 -7.280602e+000 28 15 19
-4.308728e-001 -1.068531e+000 -8.362622e+000 151 143 107
5.620977e-001 -8.716050e-001 -7.931332e+000 58 29 21
3.959196e-001 -1.086474e+000 -7.938795e+000 80 42 23
7.290910e-001 -9.525365e-001 -7.723345e+000 108 67 42
-4.243694e-001 -1.654700e+000 -8.537143e+000 201 200 204
-4.243694e-001 -1.654700e+000 -8.537143e+000 201 200 204
4.495616e-001 -1.146666e+000 -7.779305e+000 82 43 26
4.495616e-001 -1.146666e+000 -7.779305e+000 82 43 26
8.628632e-001 -9.800288e-001 -7.617124e+000 68 32 8
-2.241442e-001 -1.781092e+000 -8.311459e+000 60 50 46
3.849197e-001 -1.293581e+000 -7.750985e+000 100 60 38
9.839360e-001 -1.041392e+000 -7.469423e+000 114 71 37
-2.459113e-001 -1.899374e+000 -8.379991e+000 133 151 178
1.086085e+000 -1.248303e+000 -7.543377e+000 178 146 99
4.368090e-001 -1.610211e+000 -7.755170e+000 179 137 90
4.368090e-001 -1.610211e+000 -7.755170e+000 179 137 90
8.483155e-001 -1.493268e+000 -7.585006e+000 223 182 139
1.085699e+000 -1.323038e+000 -7.551914e+000 132 87 47
3.393186e+000 3.067683e+000 -1.142542e+001 112 94 80
3.938749e+000 3.097301e+000 -1.131463e+001 56 38 34
8.726204e-001 2.400261e+000 -8.719242e+000 91 53 34
2.918028e+000 2.712227e+000 -1.129900e+001 25 14 12
4.415803e-001 2.178367e+000 -8.962204e+000 72 59 52
-2.892809e-001 1.874664e+000 -1.007864e+001 64 37 22
-2.271503e-002 1.888387e+000 -1.033135e+001 32 18 18
4.266632e+000 2.590578e+000 -1.053053e+001 37 23 20
4.266632e+000 2.590578e+000 -1.053053e+001 37 23 20
5.222324e-001 1.892713e+000 -8.740603e+000 166 140 105
3.833609e+000 2.293854e+000 -1.033512e+001 51 37 37
3.833609e+000 2.293854e+000 -1.033512e+001 51 37 37
4.193763e+000 2.373977e+000 -1.029629e+001 30 19 17
9.152217e-001 1.653690e+000 -8.369204e+000 32 20 20
1.105081e+000 1.698818e+000 -8.322688e+000 29 17 19
-9.044511e-001 9.330929e-001 -1.032917e+001 171 163 143
1.797210e+000 1.724247e+000 -8.671746e+000 21 12 13
8.419978e-001 1.260778e+000 -9.008136e+000 72 65 59
1.352122e+000 1.477325e+000 -8.327916e+000 61 34 26
1.348473e+000 1.478695e+000 -8.316631e+000 61 34 26
1.615623e+000 1.554348e+000 -8.263713e+000 165 122 88
5.578053e-001 1.008353e+000 -1.008944e+001 26 20 20
1.126251e+000 1.359739e+000 -8.389347e+000 119 93 60
1.528937e+000 1.350482e+000 -8.407712e+000 119 88 67
1.615710e+000 1.390550e+000 -8.391775e+000 122 91 57
1.711853e+000 1.391516e+000 -8.449207e+000 109 79 51
3.911960e+000 1.555652e+000 -9.875183e+000 37 27 26
-9.810455e-001 5.227306e-001 -9.750105e+000 113 108 89
1.749219e-001 7.320466e-001 -1.010205e+001 18 12 16
-2.990954e+000 -3.719100e-003 -8.980970e+000 178 145 101
-2.647717e+000 9.186533e-002 -8.528231e+000 187 145 95
-1.913823e+000 1.936020e-001 -8.455054e+000 49 21 15
-1.171562e+000 2.485469e-001 -8.822050e+000 46 26 15
1.794354e+000 9.566001e-001 -7.645241e+000 46 26 20
4.456843e+000 9.384154e-001 -9.021957e+000 22 13 18
4.974777e-001 2.548726e-001 -8.844218e+000 115 110 88
1.146415e+000 2.724862e-001 -8.673065e+000 76 71 68
1.228171e+000 3.304047e-001 -8.821069e+000 10 9 15
4.455042e+000 8.149843e-001 -8.931160e+000 27 17 25
1.711262e+000 7.601610e-001 -7.194620e+000 60 32 20
-2.366121e+000 -3.493642e-001 -8.109859e+000 166 132 87
1.274087e+000 3.584165e-001 -7.731213e+000 196 165 133
1.351779e+000 3.951094e-001 -7.243417e+000 165 110 69
1.260414e+000 -1.151336e-001 -8.071480e+000 90 78 65
1.573283e+000 3.902729e-001 -7.070051e+000 183 147 99
9.602053e-001 -4.613205e-001 -8.498737e+000 48 43 39
2.319662e+000 4.094416e-001 -7.140411e+000 131 106 78
-1.040771e+000 -1.372194e+000 -8.607045e+000 46 27 21
4.766832e-001 -9.430616e-001 -8.259041e+000 104 79 57
-1.470643e+000 -1.201167e+000 -7.953417e+000 34 22 26
4.274189e-001 -9.790450e-001 -7.908651e+000 68 30 17
2.650008e-001 -1.285445e+000 -7.910339e+000 72 39 26
6.258839e-001 -1.081456e+000 -7.698238e+000 60 23 14
6.810793e-001 -1.164724e+000 -7.623689e+000 95 49 26
-6.802842e-003 -1.888915e+000 -8.063088e+000 131 140 169
1.202770e+000 -1.287901e+000 -7.511224e+000 176 147 108
8.549484e-001 2.597137e+000 -9.217091e+000 174 143 103
-8.086169e-001 1.573615e+000 -1.035697e+001 178 144 102
5.139650e-001 1.904256e+000 -8.671791e+000 170 144 109
3.320434e+000 2.256482e+000 -1.074074e+001 26 14 14
3.483238e+000 2.093209e+000 -1.053652e+001 35 26 29
1.126404e+000 1.545329e+000 -8.383729e+000 44 25 24
2.521315e-001 1.020904e+000 -9.664417e+000 24 18 22
-2.079414e-001 7.151296e-001 -9.892353e+000 30 20 21
-1.897572e+000 4.059734e-001 -8.617812e+000 57 29 17
2.839612e-001 6.879890e-001 -9.726907e+000 11 9 15
-1.353054e+000 3.087860e-001 -8.812648e+000 45 20 11
-2.602002e+000 -5.045780e-001 -8.242100e+000 155 107 67
-1.805197e+000 -3.276742e-001 -8.176173e+000 85 57 35
1.268945e+000 3.623412e-001 -7.720819e+000 199 168 138
1.338315e+000 5.529384e-001 -7.335841e+000 133 84 41
1.330103e+000 5.680273e-001 -7.291800e+000 133 84 41
-1.550426e+000 -4.756546e-001 -8.002422e+000 97 74 51
1.261460e+000 1.629770e-001 -7.421388e+000 186 153 110
1.524357e+000 5.540958e-002 -7.059709e+000 89 43 20
-1.116197e+000 -1.036592e+000 -8.181875e+000 147 113 86
3.164175e-001 -9.303275e-001 -8.001385e+000 139 100 65
2.681057e-001 -1.095959e+000 -8.102883e+000 44 19 14
2.263092e+000 -3.574820e-001 -7.186412e+000 32 22 30
3.632697e+000 2.650530e+000 -1.070523e+001 97 78 61
3.670971e+000 2.649753e+000 -1.080072e+001 97 78 61
7.132672e-001 1.253410e+000 -9.392079e+000 36 31 27
7.132672e-001 1.253410e+000 -9.392079e+000 36 31 27
-7.312691e-002 9.477630e-001 -9.829224e+000 83 66 50
1.653183e+000 1.295034e+000 -8.414522e+000 12 10 16
-2.253987e+000 4.021478e-001 -8.792717e+000 135 97 52
1.739236e+000 8.861654e-001 -7.494933e+000 165 142 103
1.454436e+000 7.296455e-001 -7.383221e+000 140 96 50
1.215521e+000 4.222859e-001 -7.843922e+000 86 76 74
-1.979383e+000 -4.034608e-001 -8.019772e+000 144 112 74
1.424083e+000 -9.636790e-001 -8.470004e+000 25 22 32
6.337469e-001 -9.072346e-001 -7.669596e+000 62 29 20
-7.395290e-002 1.909305e+000 -1.039516e+001 33 17 14
-1.560923e+000 2.838916e-001 -8.853925e+000 54 30 27
1.720153e-002 4.192554e-001 -8.820238e+000 95 88 73
1.167064e+000 -1.693130e-002 -8.214496e+000 92 84 64
1.527043e+000 4.932397e-001 -7.142055e+000 155 118 68
1.511724e+000 5.039943e-001 -7.099318e+000 155 118 68
1.671684e+000 4.867976e-001 -7.083854e+000 184 153 106
-1.722291e+000 -6.867179e-001 -7.830914e+000 119 84 52
1.827538e+000 2.609923e-001 -6.929815e+000 183 150 99
7.261167e-001 -1.312703e+000 -7.730976e+000 109 59 34
1.180323e+000 -1.122147e+000 -7.642873e+000 80 53 38
3.111509e+000 2.592458e+000 -1.107248e+001 47 37 35
1.207449e+000 9.622273e-001 -8.761859e+000 36 32 29
-9.709763e-001 6.926493e-002 -8.856262e+000 23 15 13
1.179530e+000 2.523069e-001 -8.564409e+000 55 45 43
7.376009e-001 -4.678560e-001 -8.674506e+000 67 59 49
-1.722824e+000 -6.975620e-001 -7.840656e+000 125 90 58
1.671317e-001 -7.803822e-001 -8.517632e+000 142 126 87
1.469870e+000 -1.733579e-001 -7.423745e+000 183 145 109
-6.770039e-001 -1.212862e+000 -8.595701e+000 33 29 26
4.861717e-001 2.625234e-001 -8.362781e+000 70 64 51
-1.739344e+000 -1.107175e+000 -8.028198e+000 136 93 61
-1.920053e+000 -1.309913e+000 -7.983816e+000 44 28 27
-2.069757e+000 -1.677636e+000 -8.106371e+000 157 136 105
1.632275e+000 1.472659e+000 -8.418334e+000 126 90 54
1.491588e+000 7.683684e-001 -7.973426e+000 127 86 50
3.178308e+000 2.608597e+000 -1.103596e+001 22 14 15
-1.306209e-001 1.540148e+000 -9.998570e+000 137 115 78
4.060507e+000 1.543868e+000 -9.583737e+000 28 16 16
-1.290861e+000 -3.330923e-001 -8.169434e+000 163 139 96
-1.290861e+000 -3.330923e-001 -8.169434e+000 163 139 96
4.521684e-001 -2.595897e-001 -8.896865e+000 156 147 118
4.507690e-001 -2.663590e-001 -8.913547e+000 156 147 118
1.888459e+000 1.414820e+000 -7.826535e+000 25 20 26
2.623846e+000 5.314907e-001 -7.062796e+000 25 16 21
1.888706e+000 2.829429e-001 -7.687259e+000 186 156 106
-4.516702e-001 1.810092e+000 -1.008649e+001 159 119 77
-4.509247e-001 1.792194e+000 -1.017204e+001 168 127 83
-1.159669e-001 1.763758e+000 -1.012073e+001 54 37 13
-6.182813e-001 5.156970e-002 -8.873295e+000 97 85 71
-6.894305e-001 -2.884166e-001 -8.704798e+000 88 79 62
-5.724058e-001 -6.861388e-001 -8.518007e+000 152 147 127
-1.275203e+001 -8.834131e+000 -2.837965e+001 62 67 100
-8.215905e+000 -7.608315e+000 -2.226256e+001 206 194 177
1.092849e+000 2.083964e+000 -8.309234e+000 76 48 23
-3.695969e-001 -2.582441e-001 -8.607276e+000 26 14 17
-1.044099e+001 -6.769793e+000 -2.532445e+001 50 53 80
3.464176e+000 2.664128e+000 -1.087586e+001 47 32 28
2.889653e+000 3.069487e+000 -1.162673e+001 33 22 18
2.891422e+000 3.070077e+000 -1.162833e+001 33 22 18
-1.314691e+001 -9.910809e+000 -2.735233e+001 73 64 67
3.035000e+000 2.866161e+000 -1.142037e+001 26 14 17
1.064924e+000 2.100072e+000 -8.320760e+000 167 142 101
1.764748e+000 2.075107e+000 -8.612028e+000 128 109 84
1.791902e+000 2.021874e+000 -8.657630e+000 97 87 59
1.299284e+000 1.905967e+000 -8.269539e+000 159 137 101
8.869113e-001 1.748416e+000 -8.307749e+000 75 53 38
3.703159e+000 1.740118e+000 -1.017852e+001 94 80 78
4.245889e+000 1.809913e+000 -9.767394e+000 37 23 23
-2.373055e+000 4.424039e-001 -8.867367e+000 108 70 34
-1.621239e+000 1.981868e-001 -8.704722e+000 54 32 21
-5.739828e-001 1.334172e-001 -8.930960e+000 127 121 97
-3.303211e-001 1.749050e-001 -8.881169e+000 135 124 104
-1.238528e-001 2.684322e-001 -8.899686e+000 160 149 118
1.452608e-001 2.406826e-001 -8.822313e+000 79 70 63
-9.453537e-001 9.393220e-002 -8.538813e+000 44 39 33
1.300998e+000 4.838106e-001 -8.430182e+000 63 58 55
-1.338048e+000 -2.018773e-002 -8.123847e+000 50 32 17
-1.155567e-001 2.786593e-002 -8.700678e+000 115 37 45
-2.406865e+000 -4.065408e-001 -8.078532e+000 172 135 92
-3.605455e-001 -2.901181e-001 -8.600669e+000 141 133 90
-3.605455e-001 -2.901181e-001 -8.600669e+000 141 133 90
-2.505566e-001 -1.359365e-001 -8.644558e+000 149 137 99
-2.505566e-001 -1.359365e-001 -8.644558e+000 149 137 99
-1.948659e-001 -1.442568e-001 -8.639502e+000 22 13 18
-1.342153e+001 -9.468774e+000 -2.756381e+001 80 72 83
-8.966776e-001 -6.102060e-001 -8.455724e+000 66 57 50
-4.751214e-001 -5.038159e-001 -8.546265e+000 31 22 7
6.411761e-003 -5.542881e-001 -8.521993e+000 144 133 104
-1.257597e+001 -1.049093e+001 -2.624223e+001 75 69 81
-6.747585e-001 -9.489137e-001 -8.516770e+000 40 35 29
-6.747585e-001 -9.489137e-001 -8.516770e+000 40 35 29
8.727501e-001 -6.230041e-001 -8.672465e+000 66 62 59
2.625981e+000 7.931643e-002 -7.485883e+000 68 52 53
1.006939e+000 -1.024282e+000 -7.534904e+000 173 133 97
1.006939e+000 -1.024282e+000 -7.534904e+000 173 133 97
3.230480e+000 2.809681e+000 -1.117150e+001 30 20 19
3.079732e+000 2.661692e+000 -1.124061e+001 29 19 20
3.596217e+000 2.808684e+000 -1.094348e+001 59 42 34
-7.530918e-001 1.748105e+000 -1.037758e+001 66 49 37
3.473096e+000 2.342828e+000 -1.073497e+001 29 17 17
3.554935e+000 2.131100e+000 -1.067157e+001 23 13 14
-1.531435e+000 4.398640e-001 -8.953053e+000 78 50 29
-1.531435e+000 4.398640e-001 -8.953053e+000 78 50 29
6.453746e-001 7.410080e-001 -9.226335e+000 43 37 39
-2.368798e+000 2.450723e-001 -8.495469e+000 160 123 78
8.601637e-001 4.039319e-001 -8.859755e+000 52 48 46
-9.763799e+000 -6.559056e+000 -2.557946e+001 149 145 143
-7.251514e-001 -2.058959e-001 -8.744919e+000 80 72 62
1.149197e+000 1.858171e-001 -8.522611e+000 80 73 65
6.590907e-001 -8.598474e-002 -8.686136e+000 19 12 9
1.331898e+000 4.537488e-001 -7.320288e+000 125 77 29
-1.456396e+001 -9.746151e+000 -2.757602e+001 73 62 60
-9.530333e-001 -7.434482e-001 -8.351523e+000 84 60 34
-1.246108e+001 -1.149644e+001 -2.713084e+001 31 29 43
-1.510475e+000 -1.064162e+000 -7.950336e+000 77 43 31
-2.160104e+000 -1.376529e+000 -8.101065e+000 75 49 33
-9.488592e+000 -1.159353e+001 -2.385333e+001 76 77 93
8.659632e-001 2.259245e+000 -8.447931e+000 71 45 28
1.191956e+000 2.007418e+000 -8.277251e+000 182 155 108
3.854946e+000 2.078117e+000 -1.021259e+001 37 24 28
-1.643748e-001 1.275041e+000 -1.003524e+001 116 97 68
4.284768e-001 9.871733e-001 -9.428408e+000 61 55 52
4.024172e+000 1.579314e+000 -9.792338e+000 60 48 45
-2.693652e+000 -2.988528e-001 -8.320467e+000 114 75 42
-1.756241e+000 -1.539577e-001 -8.134029e+000 47 18 2
-9.228044e+000 -7.246402e+000 -2.501351e+001 126 129 154
-7.019260e-001 -2.337959e-001 -8.699587e+000 20 15 9
-1.119562e+001 -8.377927e+000 -2.610467e+001 120 131 169
1.139582e+000 -1.359450e-002 -8.354944e+000 95 86 71
-1.287460e+001 -1.012145e+001 -2.649674e+001 124 115 118
-2.161996e+000 -1.412067e+000 -8.086934e+000 137 112 83
1.030214e+000 2.164166e+000 -8.340934e+000 70 49 26
3.848803e+000 2.130357e+000 -1.022345e+001 64 52 52
1.578150e-001 5.503399e-001 -9.518234e+000 24 15 17
-1.311641e+001 -8.075813e+000 -2.865543e+001 42 39 49
-1.772728e+000 -7.582675e-001 -7.860097e+000 101 60 36
-1.380481e+001 -1.122225e+001 -2.619618e+001 123 111 120
1.773035e+000 7.781797e-002 -6.920389e+000 179 136 82
-1.400187e+001 -1.158910e+001 -2.608997e+001 58 47 60
-3.174209e-001 -1.099116e+000 -8.370399e+000 120 110 94
4.984140e-001 -1.220922e+000 -7.738308e+000 96 50 25
3.136883e+000 2.857502e+000 -1.124354e+001 36 24 24
-1.893168e+000 3.319959e-001 -8.585250e+000 109 76 57
1.720515e+000 8.087385e-001 -7.300238e+000 177 152 111
4.485268e+000 8.922069e-001 -8.954135e+000 50 41 40
-1.357169e-001 -1.469658e-001 -8.638260e+000 145 139 107
-3.290970e-001 -3.018762e-001 -8.592818e+000 146 132 104
-3.008284e-001 -3.728544e-001 -8.570805e+000 25 22 19
-1.534632e-001 -3.141742e-001 -8.584170e+000 23 22 18
-4.599982e-001 -6.060286e-001 -8.521889e+000 158 143 113
-3.159603e-001 -5.411532e-001 -8.521801e+000 155 143 114
-4.308918e-001 -6.757025e-001 -8.501629e+000 29 23 23
-3.592538e-001 -6.386750e-001 -8.496115e+000 151 136 104
-3.678528e-002 -5.945686e-001 -8.511247e+000 35 22 23
1.916386e+000 3.224086e-001 -6.947568e+000 63 39 35
-4.728272e-001 -7.757026e-001 -8.477865e+000 30 26 24
-9.506263e+000 -6.359257e+000 -2.554683e+001 27 23 37
6.277854e-001 -1.087685e+000 -7.708747e+000 60 23 14
-1.068327e+001 -8.989683e+000 -2.624474e+001 69 66 93
-1.000305e+001 -1.128086e+001 -2.459526e+001 33 32 46
-3.304072e-001 -1.646568e+000 -8.364013e+000 186 184 179
2.786516e+000 2.789522e+000 -1.136086e+001 37 27 21
6.892049e-001 2.354304e+000 -8.450190e+000 115 71 42
2.829450e+000 2.670694e+000 -1.122537e+001 96 83 75
3.598930e+000 2.765966e+000 -1.086238e+001 60 44 32
-4.759709e-001 1.660779e+000 -1.010570e+001 94 51 19
-7.407797e-002 1.759773e+000 -1.012719e+001 119 100 73
4.911693e-001 2.023644e+000 -8.764118e+000 100 75 43
4.096183e+000 2.513179e+000 -1.062838e+001 27 16 16
1.156565e+000 2.056829e+000 -8.277566e+000 166 142 106
3.233964e+000 2.204990e+000 -1.067195e+001 81 68 60
3.947104e+000 2.471608e+000 -1.046847e+001 79 64 59
-7.740111e-001 1.215266e+000 -1.009481e+001 104 68 42
-5.454609e-001 1.369151e+000 -9.987468e+000 70 41 20
-6.243378e-001 1.328017e+000 -9.924348e+000 120 86 54
-4.016698e-001 1.314190e+000 -9.932674e+000 129 106 76
1.282468e+000 1.961026e+000 -8.299879e+000 170 146 109
3.683134e+000 2.222386e+000 -1.048916e+001 26 16 15
-5.217613e-001 1.132252e+000 -9.886304e+000 152 120 81
-3.757666e-001 1.205309e+000 -9.838055e+000 157 131 94
9.175304e-001 1.852590e+000 -8.204869e+000 49 36 27
1.433724e+000 1.898771e+000 -8.276747e+000 168 146 104
3.811475e+000 2.010247e+000 -1.038231e+001 43 33 31
-5.013201e-001 1.084959e+000 -9.917244e+000 115 81 43
-4.320415e-001 1.122104e+000 -9.889641e+000 96 67 27
-4.401910e-001 1.048462e+000 -9.882455e+000 115 82 43
8.965517e-001 1.587109e+000 -8.379309e+000 57 38 28
-1.953822e+000 5.812039e-001 -9.157644e+000 64 40 25
-2.268581e+000 4.176007e-001 -8.689270e+000 160 122 80
-1.734869e+000 5.217138e-001 -9.002716e+000 72 41 21
-1.124006e+000 4.134947e-001 -9.458472e+000 138 132 112
-9.005419e-001 4.914063e-001 -9.349938e+000 132 127 97
3.910573e+000 1.503208e+000 -9.849935e+000 32 21 20
-1.526209e+000 4.431274e-001 -8.895993e+000 75 50 28
-9.246766e-001 3.396009e-001 -9.266710e+000 20 15 10
-1.633288e+000 3.002708e-001 -8.670156e+000 71 48 37
-1.569454e+000 2.921660e-001 -8.800429e+000 70 51 41
-2.145201e+000 9.847828e-002 -8.241904e+000 101 66 33
-8.277562e-001 1.992807e-001 -9.103854e+000 36 29 25
-3.908738e-001 2.123227e-001 -8.936976e+000 26 20 21
-3.908738e-001 2.123227e-001 -8.936976e+000 26 20 21
-2.006218e+000 2.958008e-003 -8.180087e+000 120 91 62
-6.385710e-001 1.183059e-001 -8.900740e+000 90 75 56
4.455708e+000 1.088622e+000 -9.311715e+000 58 46 48
-2.364310e+000 -1.549843e-001 -8.159879e+000 126 87 46
-1.878432e+000 -2.579855e-002 -8.140638e+000 85 56 33
-2.400337e+000 -3.932879e-001 -8.057088e+000 170 135 93
-3.633822e-001 -1.421329e-001 -8.666064e+000 130 115 92
2.480613e-001 1.927022e-002 -8.698657e+000 26 20 9
2.480613e-001 1.927022e-002 -8.698657e+000 26 20 9
7.270674e-001 2.937162e-002 -8.723250e+000 49 41 38
-4.561466e-001 -2.793653e-001 -8.638486e+000 151 138 109
7.515353e-001 -2.566889e-002 -8.729328e+000 44 39 34
1.439803e+000 6.432292e-001 -7.288776e+000 103 61 19
-1.552130e+000 -4.264827e-001 -8.036722e+000 98 85 69
-1.489503e+000 -5.227792e-001 -8.106611e+000 66 40 15
5.496844e-001 -2.469749e-001 -8.628680e+000 155 139 103
6.958993e-001 -1.985707e-001 -8.650560e+000 114 98 75
4.400820e-001 -4.925744e-001 -8.616252e+000 154 145 113
4.400820e-001 -4.925744e-001 -8.616252e+000 154 145 113
-2.827421e+000 -1.182355e+000 -8.326430e+000 184 152 132
-1.076924e+000 -7.317250e-001 -8.199962e+000 135 100 68
-1.027715e+000 -7.934425e-001 -8.185645e+000 121 89 58
4.236446e-001 -5.778864e-001 -8.603579e+000 25 17 23
6.993595e-001 -4.787299e-001 -8.646393e+000 29 23 25
-2.560406e+000 -1.160227e+000 -8.064263e+000 164 119 79
-1.479727e+000 -9.821201e-001 -7.947887e+000 58 29 12
-3.712091e-001 -1.069321e+000 -8.356291e+000 33 27 24
2.664409e+000 6.992511e-002 -7.539620e+000 23 12 18
-1.556833e+000 -1.282489e+000 -7.995247e+000 29 19 18
-1.513619e+000 -1.180584e+000 -7.955570e+000 87 68 52
1.705643e+000 -2.759867e-002 -6.894300e+000 156 107 63
-1.992304e+000 -1.757989e+000 -8.171607e+000 155 136 116
-1.970146e+000 -1.913941e+000 -8.216620e+000 110 102 103
-5.001350e+000 -6.296640e+000 -1.374458e+001 187 170 150
-9.950012e-002 -1.570530e+000 -8.189655e+000 44 38 38
8.148640e-001 -1.062845e+000 -7.635382e+000 90 49 21
-1.171818e-001 -1.789004e+000 -8.245970e+000 34 24 23
7.992915e-002 -1.631443e+000 -7.984536e+000 47 29 21
3.375087e+000 3.032240e+000 -1.126017e+001 108 90 80
3.375087e+000 3.032240e+000 -1.126017e+001 108 90 80
3.063440e+000 2.769513e+000 -1.134501e+001 27 17 18
3.957905e+000 3.008265e+000 -1.110141e+001 81 67 58
3.931095e+000 2.978368e+000 -1.108736e+001 59 46 40
-1.694788e-001 2.091105e+000 -1.041128e+001 92 71 55
3.527437e+000 2.812694e+000 -1.094605e+001 107 90 70
3.112026e+000 2.540635e+000 -1.114206e+001 50 41 38
3.250634e+000 2.500393e+000 -1.096679e+001 25 15 14
-3.040801e-001 1.747726e+000 -1.007954e+001 77 48 18
4.369639e+000 2.526226e+000 -1.043824e+001 45 31 26
1.217650e+000 1.942158e+000 -8.285394e+000 153 129 95
-4.803012e-001 1.200733e+000 -9.865962e+000 160 132 97
3.891816e+000 2.022428e+000 -1.028771e+001 24 14 13
1.133813e+000 1.700322e+000 -8.303281e+000 30 18 18
1.133813e+000 1.700322e+000 -8.303281e+000 30 18 18
1.130232e+000 1.677522e+000 -8.270636e+000 54 40 37
-2.726634e+000 4.045545e-001 -9.499804e+000 25 20 24
-3.785128e-001 9.123748e-001 -9.926653e+000 80 52 28
3.632225e+000 1.648316e+000 -1.034583e+001 72 60 47
-1.822312e+000 5.548261e-001 -8.926876e+000 128 97 68
3.958425e+000 1.657456e+000 -1.006505e+001 37 25 28
4.049379e+000 1.684792e+000 -9.934519e+000 34 22 25
4.120221e+000 1.776186e+000 -9.776983e+000 67 56 53
-1.098039e+000 5.156444e-001 -9.557955e+000 84 78 59
4.009391e+000 1.571702e+000 -9.892001e+000 70 60 59
-2.011259e+000 3.144477e-001 -8.529922e+000 60 31 13
-5.296872e-002 5.404934e-001 -9.446717e+000 70 66 55
2.409419e-002 5.158040e-001 -9.405248e+000 87 84 75
-2.333819e+000 2.297665e-001 -8.448046e+000 119 80 39
4.141187e+000 1.292993e+000 -9.622054e+000 28 15 15
4.202987e+000 1.282597e+000 -9.629696e+000 27 15 19
-1.446159e+000 2.150139e-001 -8.217679e+000 146 126 91
-1.013725e-001 3.100876e-001 -8.923526e+000 150 141 108
3.636627e-001 4.808185e-001 -8.949181e+000 64 56 45
-2.677711e+000 -1.057806e-001 -8.309601e+000 155 112 69
-2.210213e+000 -4.544362e-003 -8.154673e+000 169 137 99
-1.800889e+000 1.539829e-002 -8.233467e+000 103 74 53
-2.029753e+000 -6.276000e-002 -8.109614e+000 141 111 77
-1.875994e+000 -9.165346e-002 -8.124717e+000 88 57 36
-1.118562e+000 4.089664e-002 -8.283485e+000 48 26 12
-1.118784e+000 3.772398e-002 -8.290222e+000 48 26 12
-1.068937e+000 3.027116e-002 -8.340049e+000 52 31 12
-1.068937e+000 3.027116e-002 -8.340049e+000 52 31 12
1.423619e+000 8.630939e-001 -7.607657e+000 159 120 77
1.375176e+000 8.000178e-001 -7.611284e+000 87 47 12
2.274576e+000 9.144069e-001 -7.996678e+000 69 53 45
-1.893209e+000 -1.576036e-001 -8.070507e+000 90 57 29
-4.521868e-001 -1.765941e-001 -8.653728e+000 129 63 56
6.594798e-001 1.359386e-001 -8.764014e+000 47 40 32
-2.264579e+000 -4.252038e-001 -8.102372e+000 121 93 59
1.437169e+000 5.206718e-001 -7.192049e+000 119 76 34
-1.673179e+000 -6.027604e-001 -7.886038e+000 115 80 53
-1.523435e+000 -6.681371e-001 -8.017038e+000 111 77 49
8.353799e-001 -3.339437e-001 -8.689073e+000 98 92 81
1.215532e+000 -8.931234e-002 -8.116909e+000 89 83 65
1.316091e+000 4.335323e-001 -7.302023e+000 185 142 91
1.508248e+000 2.498284e-001 -7.070071e+000 193 146 100
-7.144004e-001 -1.255642e+000 -8.529898e+000 57 64 72
-7.134027e-001 -1.240950e+000 -8.504866e+000 57 64 72
-5.866373e-003 -1.420807e+000 -8.131287e+000 32 25 22
8.209382e-001 -1.057834e+000 -7.581605e+000 94 53 23
3.856583e+000 3.115262e+000 -1.131949e+001 86 70 63
3.391158e+000 2.892996e+000 -1.109847e+001 109 93 70
2.951916e+000 2.684275e+000 -1.113516e+001 68 54 49
6.576301e-001 2.292539e+000 -8.504734e+000 101 58 29
3.454111e+000 2.660209e+000 -1.085502e+001 31 21 20
3.691427e+000 2.685002e+000 -1.072230e+001 56 38 34
3.903354e+000 2.789574e+000 -1.084324e+001 73 58 57
4.003597e+000 2.803051e+000 -1.094838e+001 31 24 20
4.051345e+000 2.561325e+000 -1.069218e+001 36 24 22
-2.431034e-001 1.648064e+000 -1.002781e+001 56 31 9
6.366781e-001 1.935175e+000 -8.483884e+000 144 112 87
-3.508683e-001 1.336883e+000 -9.970882e+000 120 97 67
4.356061e+000 2.384414e+000 -1.030335e+001 66 52 49
3.915144e+000 2.104575e+000 -1.013443e+001 69 53 53
4.007043e+000 2.073273e+000 -1.010697e+001 76 63 61
-1.100096e+000 6.751730e-001 -1.015388e+001 64 52 40
4.225289e+000 1.841710e+000 -9.946138e+000 35 24 21
-1.746072e+000 5.397918e-001 -9.067941e+000 60 29 15
3.947914e-001 9.465792e-001 -9.518973e+000 18 14 11
4.042203e+000 1.726344e+000 -9.955501e+000 62 51 49
-5.478991e-001 5.765187e-001 -9.488203e+000 108 101 87
-2.547813e-001 6.328163e-001 -9.544681e+000 88 80 69
-4.416811e-002 6.084760e-001 -9.704178e+000 65 61 57
4.146342e+000 1.496005e+000 -9.793565e+000 21 12 14
-1.538671e+000 3.219401e-001 -8.798297e+000 32 10 5
4.366034e+000 1.540959e+000 -9.608661e+000 36 26 25
-1.851563e+000 2.200046e-001 -8.598861e+000 31 12 8
2.871062e-001 5.752197e-001 -9.133145e+000 49 42 34
-1.965299e+000 1.255834e-001 -8.282845e+000 60 31 15
3.560582e-001 3.435247e-001 -9.023403e+000 67 60 50
4.390950e+000 1.244480e+000 -9.373145e+000 29 20 21
4.428384e+000 1.230044e+000 -9.438241e+000 29 20 21
4.417127e+000 1.047818e+000 -9.265719e+000 31 21 22
1.578974e+000 7.814373e-001 -7.545739e+000 106 68 41
1.742890e+000 8.058036e-001 -7.302356e+000 172 153 113
1.746759e+000 8.058473e-001 -7.305623e+000 172 153 113
-2.663294e+000 -7.613580e-001 -8.107608e+000 112 78 43
-1.455000e+000 -5.309315e-001 -8.109479e+000 113 81 53
1.266515e+000 2.706820e-001 -7.791643e+000 105 87 77
1.365591e+000 4.166684e-001 -7.296657e+000 148 97 53
-1.146083e+000 -7.009423e-001 -8.190950e+000 128 94 59
4.670311e-001 -6.619743e-001 -8.616975e+000 58 49 40
-2.585761e+000 -1.222323e+000 -8.098224e+000 120 76 37
4.247750e-001 -7.596952e-001 -8.607039e+000 60 52 48
3.473119e-001 -9.532424e-001 -8.609832e+000 42 38 39
2.010572e-001 -9.985297e-001 -8.540860e+000 53 45 43
9.295180e-002 -1.274768e+000 -8.053849e+000 54 31 15
9.427758e-002 -1.274273e+000 -8.053721e+000 54 31 15
8.209069e-001 -1.013269e+000 -7.610960e+000 120 85 53
6.044258e-001 -1.243414e+000 -7.671256e+000 150 104 69
3.386320e+000 2.821403e+000 -1.100639e+001 47 33 22
-4.887565e-001 1.719941e+000 -1.004256e+001 142 100 60
3.927869e+000 2.529070e+000 -1.048120e+001 88 72 64
-2.811182e-001 1.401141e+000 -9.988909e+000 134 114 74
-2.811182e-001 1.401141e+000 -9.988909e+000 134 114 74
3.877015e+000 2.251267e+000 -1.026192e+001 61 48 42
3.877779e+000 2.249738e+000 -1.026687e+001 61 48 42
-1.863156e-001 8.563994e-001 -9.941619e+000 98 80 59
1.062762e+000 1.622017e+000 -8.293429e+000 81 67 54
-2.764148e+000 3.011705e-001 -9.008462e+000 100 77 45
-1.512869e+000 4.693357e-001 -8.973084e+000 77 51 28
-5.563662e-002 6.596462e-001 -9.756379e+000 16 11 15
-1.163216e-001 6.360339e-001 -9.672380e+000 15 10 12
2.101592e-001 7.299983e-001 -9.686893e+000 81 72 61
-2.565004e+000 1.831221e-001 -8.502215e+000 156 118 70
-1.906798e+000 3.537877e-001 -8.552368e+000 105 71 44
-9.826855e-001 4.220197e-001 -9.360524e+000 26 23 20
-9.605264e-001 3.649441e-001 -9.312604e+000 153 141 114
-8.179800e-001 4.403758e-001 -9.291548e+000 135 125 90
-8.165756e-001 4.435171e-001 -9.282594e+000 135 125 90
-3.442619e-001 5.253106e-001 -9.293297e+000 25 20 18
-3.445095e-001 5.251026e-001 -9.293620e+000 25 20 18
-2.721206e-001 5.406115e-001 -9.307289e+000 112 104 83
-8.877169e-001 2.179866e-001 -9.149667e+000 33 30 25
-8.879692e-001 2.171127e-001 -9.151395e+000 33 30 25
-7.509456e-001 2.791028e-001 -9.139036e+000 27 27 16
-3.823551e-001 4.250691e-001 -9.146888e+000 128 121 101
-1.587623e-001 4.794549e-001 -9.183882e+000 23 19 15
-1.918418e-001 3.831641e-001 -9.047921e+000 135 128 100
2.603865e-001 5.144984e-001 -9.221686e+000 117 116 97
2.612867e-001 4.811985e-001 -9.316956e+000 117 116 97
-1.120223e+000 2.095644e-001 -8.632137e+000 116 98 74
-7.959461e-001 2.050787e-001 -9.089742e+000 33 25 25
-6.568918e-001 2.583798e-001 -9.083726e+000 26 25 22
-4.844355e-001 2.679776e-001 -9.027819e+000 147 136 104
-3.189980e-001 2.783957e-001 -8.982813e+000 33 29 23
-2.661676e-001 3.559908e-001 -9.043242e+000 26 29 20
5.759416e-002 3.856703e-001 -9.024391e+000 98 96 72
-5.146562e-001 1.459889e-001 -8.913388e+000 25 19 21
-2.497549e+000 -2.036105e-001 -8.163474e+000 165 128 84
-1.163542e-002 -3.592983e-002 -8.671790e+000 27 20 20
5.393254e-001 -3.854362e-001 -8.638771e+000 17 16 15
6.129764e-001 -3.573966e-001 -8.628119e+000 136 119 100
7.047080e-001 -4.123208e-001 -8.619326e+000 143 130 113
-2.802697e+000 -1.205209e+000 -8.281304e+000 254 253 249
-2.802697e+000 -1.205209e+000 -8.281304e+000 254 253 249
1.788731e+000 4.149178e-001 -7.021408e+000 63 39 25
1.874616e+000 3.435049e-001 -6.963632e+000 58 35 22
1.874616e+000 3.435049e-001 -6.963632e+000 58 35 22
-2.616803e+000 -1.294427e+000 -8.064528e+000 213 187 150
-1.380627e+000 -1.082125e+000 -8.021733e+000 99 67 44
1.526930e+000 1.574006e-001 -7.081468e+000 132 82 41
1.007303e+000 -1.031621e+000 -7.553744e+000 154 120 85
2.895514e+000 2.892286e+000 -1.141875e+001 32 21 19
3.167469e+000 2.922410e+000 -1.125386e+001 29 18 13
3.569201e+000 3.005263e+000 -1.121603e+001 37 25 26
-3.239577e-001 1.748765e+000 -1.008095e+001 90 59 31
3.785758e+000 2.534791e+000 -1.069526e+001 100 84 68
-8.567599e-001 1.344269e+000 -1.030580e+001 180 146 110
6.636209e-001 1.642085e+000 -8.668884e+000 33 27 19
-1.038046e+000 7.238967e-001 -1.021047e+001 165 157 141
6.595168e-003 7.227947e-001 -1.010515e+001 20 12 9
-1.272239e+000 2.387062e-001 -8.770800e+000 133 116 87
1.731594e-001 3.662532e-001 -8.994080e+000 94 80 51
4.829076e-001 2.171960e-003 -8.687116e+000 28 25 21
1.318087e+000 7.059498e-001 -7.598695e+000 173 135 90
-1.965737e+000 -3.413383e-001 -8.020941e+000 148 118 82
-3.488581e-002 -1.901835e-001 -8.626488e+000 151 138 103
-5.865587e-003 -2.578952e-001 -8.602576e+000 23 18 22
1.406978e-001 -2.065142e-001 -8.636080e+000 30 27 20
2.610982e-001 -8.080665e-002 -8.673941e+000 151 136 98
2.897609e-001 -1.543393e-001 -8.666107e+000 35 30 24
4.614488e-001 -1.643682e-001 -8.638550e+000 154 145 108
5.081898e-001 -6.730540e-002 -8.661961e+000 142 134 102
-1.241987e-001 -3.849546e-001 -8.563848e+000 149 136 95
1.232893e-001 -3.771898e-001 -8.595031e+000 129 116 81
1.981039e-001 -3.532733e-001 -8.623271e+000 23 24 18
4.849967e-001 -2.340181e-001 -8.615603e+000 30 25 29
5.890456e-001 -2.835880e-001 -8.614409e+000 31 26 22
-3.154735e-001 -5.423558e-001 -8.524165e+000 155 143 102
-1.675546e-001 -4.815018e-001 -8.534938e+000 150 136 101
-9.518427e-002 -4.559032e-001 -8.547124e+000 31 28 25
-9.518427e-002 -4.559032e-001 -8.547124e+000 31 28 25
-1.392975e-001 -5.550038e-001 -8.519646e+000 32 24 18
-6.552614e-002 -5.251680e-001 -8.526467e+000 143 131 96
7.592726e-003 -4.961295e-001 -8.536760e+000 31 22 17
6.868742e-001 -3.375662e-001 -8.616974e+000 24 19 12
-2.265363e-001 -7.473532e-001 -8.450914e+000 25 22 17
-1.101634e-001 -6.245864e-001 -8.500424e+000 140 127 93
-1.101634e-001 -6.245864e-001 -8.500424e+000 140 127 93
9.280033e-002 -7.176178e-001 -8.519829e+000 139 125 86
3.094849e-001 -6.385668e-001 -8.576084e+000 26 25 23
-2.796791e+000 -1.237504e+000 -8.212310e+000 194 162 125
-4.958931e-002 -7.683458e-001 -8.484456e+000 112 99 69
7.860520e-001 -6.713437e-001 -8.610361e+000 76 71 65
1.824079e+000 3.863528e-001 -6.983626e+000 176 145 103
-3.136467e-001 -9.449669e-001 -8.397406e+000 29 23 22
1.563406e+000 1.230623e-001 -6.979218e+000 195 144 99
1.040970e+000 -1.195386e+000 -7.536177e+000 165 127 82
1.042001e+000 -1.193697e+000 -7.534436e+000 165 127 82
3.905755e+000 2.626683e+000 -1.077636e+001 58 43 46
4.088083e+000 2.282802e+000 -1.010659e+001 39 27 31
-2.488205e-001 1.010142e+000 -9.928300e+000 111 90 59
-2.841073e+000 3.647588e-001 -9.406115e+000 171 152 120
-1.623079e+000 3.937209e-001 -8.870200e+000 97 73 49
-2.285845e-001 4.516790e-002 -8.734172e+000 18 15 22
1.849202e+000 8.627935e-001 -7.419708e+000 168 146 104
-3.428229e-001 -1.201520e+000 -8.376585e+000 55 48 41
-2.049217e+000 -1.750429e+000 -8.124353e+000 179 162 132
4.779871e-001 2.114312e+000 -8.718478e+000 171 145 110
3.632334e+000 1.913853e+000 -1.033374e+001 29 20 21
3.710608e+000 1.837696e+000 -1.025934e+001 30 20 19
4.016929e-001 1.035048e+000 -9.518462e+000 49 44 40
1.115258e+000 1.227790e+000 -8.688963e+000 33 28 25
4.260730e+000 1.141125e+000 -9.299928e+000 32 21 27
-1.406022e+000 -5.793644e-001 -8.156937e+000 92 61 37
1.289166e+000 3.765910e-001 -7.345681e+000 196 160 112
1.392361e+000 4.851046e-001 -7.228367e+000 151 104 62
1.445629e+000 3.391716e-001 -7.088021e+000 197 155 105
-5.272121e-001 1.303354e+000 -9.986283e+000 47 25 14
-2.178207e+000 -1.022467e-001 -8.158925e+000 152 123 83
-1.447703e+000 -1.477090e+000 -8.198947e+000 30 23 17
3.873056e+000 2.482925e+000 -1.050418e+001 70 53 46
1.216840e+000 -1.228928e+000 -7.816217e+000 59 30 16
5.853004e-001 6.643714e-001 -9.215279e+000 26 24 24
6.522882e-001 3.778549e-001 -9.133382e+000 14 9 15
4.315418e+000 1.119647e+000 -9.235069e+000 51 39 41
-3.619922e-001 -4.998471e-002 -8.712493e+000 14 10 17
-2.372368e+000 -7.305865e-001 -7.897525e+000 152 123 89
1.315938e+000 2.167915e+000 -8.422724e+000 159 132 87
-2.192151e-001 1.706652e+000 -1.006803e+001 128 110 75
-1.342202e+001 -8.443098e+000 -2.860373e+001 66 63 75
-9.202921e-001 -2.465963e-001 -8.690450e+000 65 56 48
-1.304429e-001 -1.014880e-002 -8.686705e+000 45 18 14
-1.295573e-001 -1.228366e-002 -8.692863e+000 45 18 14
1.733227e+000 7.446384e-001 -7.174111e+000 182 158 121
-1.945765e-001 -1.439795e-001 -8.638179e+000 22 13 18
1.215931e+000 1.813197e-001 -8.412574e+000 53 47 39
-4.324807e-001 -3.985664e-001 -8.564474e+000 32 24 16
1.324405e+000 4.268721e-001 -7.301631e+000 196 150 101
2.635669e+000 3.885078e-002 -7.454619e+000 83 68 71
3.440831e+000 2.557338e+000 -1.086408e+001 34 23 22
3.833280e+000 1.743562e+000 -1.012893e+001 59 47 43
-1.305956e+001 -8.712153e+000 -2.807977e+001 71 72 86
-1.520920e+000 -1.205429e+000 -8.000796e+000 91 64 47
-1.068236e+001 -7.362356e+000 -2.564621e+001 54 56 80
-1.387697e+001 -1.094204e+001 -2.642271e+001 128 125 130
-1.807407e-001 -2.436018e-001 -8.607442e+000 139 134 97
3.268635e-001 -4.661763e-001 -8.609819e+000 151 142 104
-3.525595e-001 1.516417e+000 -9.991957e+000 162 130 87
1.081717e+000 -3.050833e-001 -8.387688e+000 61 56 53
-4.450937e-001 1.563105e+000 -1.003288e+001 80 40 14
-1.355246e+001 -1.144021e+001 -2.576924e+001 98 94 108
-7.795729e-001 1.113139e+000 -1.018232e+001 84 50 22
-5.644279e-001 1.181924e+000 -9.931309e+000 66 39 17
1.181751e+000 1.825262e+000 -8.298747e+000 126 108 79
4.233480e-001 1.102036e+000 -9.517505e+000 48 44 41
-2.544970e-001 7.929498e-001 -9.962796e+000 97 78 55
-1.254148e+001 -8.599758e+000 -2.770102e+001 79 82 107
-2.700648e-001 1.667655e-001 -8.838707e+000 142 125 98
-1.059826e-001 2.334268e-001 -8.859237e+000 137 130 98
5.900470e-001 1.678345e-001 -8.792821e+000 124 118 99
5.900470e-001 1.678345e-001 -8.792821e+000 124 118 99
6.819636e-001 1.057391e-001 -8.731106e+000 45 38 27
-4.903023e-001 -5.927803e-001 -8.524845e+000 160 147 110
-4.906932e-001 -5.912925e-001 -8.521753e+000 160 147 110
8.198890e-001 -4.707949e-001 -8.622466e+000 45 38 28
1.642588e+000 2.651358e-001 -6.991651e+000 170 127 82
2.670921e+000 1.220985e-001 -7.493116e+000 56 45 50
3.260032e+000 2.329238e+000 -1.074198e+001 26 16 17
-5.038025e+000 -4.188548e+000 -3.205437e+001 77 68 49
-5.808781e-001 1.090713e+000 -9.943357e+000 149 114 74
8.167504e-001 1.656271e+000 -8.485275e+000 120 93 63
-1.748459e+001 -8.847855e+000 -3.324111e+001 111 99 80
-1.740733e+001 -9.214708e+000 -3.311281e+001 130 114 86
-9.866449e+000 -5.468686e+000 -2.449380e+001 37 39 52
4.187455e+000 1.289495e+000 -9.596095e+000 27 15 19
-9.859094e+000 -7.089011e+000 -2.494036e+001 242 235 227
-2.398902e+000 -5.312408e-002 -8.278398e+000 123 86 42
1.421963e+000 7.265945e-001 -7.333861e+000 181 139 89
2.645926e+000 2.158079e-002 -7.477330e+000 69 59 60
3.839093e+000 2.040827e+000 -1.026159e+001 50 36 34
3.839093e+000 2.040827e+000 -1.026159e+001 50 36 34
-1.262740e+001 -7.753589e+000 -2.796493e+001 106 127 171
-1.262740e+001 -7.753589e+000 -2.796493e+001 106 127 171
-1.573381e+001 -9.308824e+000 -2.899766e+001 139 130 140
-1.914347e+000 1.235443e-001 -8.307629e+000 119 88 63
1.093664e+000 1.445153e-001 -8.683100e+000 56 50 48
-1.339307e+001 -1.082139e+001 -2.599250e+001 108 121 162
1.218395e+000 -1.027208e+000 -7.720623e+000 66 50 35
-1.695268e+001 -8.870570e+000 -3.156479e+001 133 117 91
-1.489551e+001 -8.379231e+000 -2.955804e+001 130 120 101
-9.409568e+000 -7.070279e+000 -2.467198e+001 193 179 152
1.134804e+000 5.643387e-002 -8.348491e+000 84 78 66
1.045357e+000 -3.085202e-001 -8.559170e+000 16 10 12
7.789125e-001 -1.023518e+000 -7.567673e+000 115 76 47
-1.618420e+001 -9.652895e+000 -2.929986e+001 102 91 99
-2.014195e+000 -6.864628e-001 -7.926836e+000 143 115 83
-1.610516e+000 -7.248163e-001 -7.985986e+000 90 56 36
-1.024702e+001 -5.495629e+000 -2.488001e+001 90 89 102
-1.571666e+001 -8.718951e+000 -2.985598e+001 92 93 111
-8.414222e-001 -1.617079e-001 -8.621680e+000 63 54 48
2.866848e+000 3.013210e+000 -1.165480e+001 45 35 33
3.250736e+000 2.809715e+000 -1.110031e+001 24 16 13
-6.911057e-001 1.683233e+000 -1.018310e+001 142 105 66
1.335950e+000 2.582158e+000 -9.188493e+000 111 98 80
2.927716e+000 2.582846e+000 -1.121923e+001 76 67 60
-4.560222e-001 1.708743e+000 -1.001074e+001 106 73 39
6.642764e-001 2.346249e+000 -8.412572e+000 134 99 71
8.787357e-001 2.384423e+000 -8.485095e+000 133 107 80
3.780575e+000 2.683622e+000 -1.073960e+001 28 19 19
3.237898e+000 2.435200e+000 -1.081682e+001 15 10 7
4.037118e+000 2.656356e+000 -1.074209e+001 26 16 15
-4.572026e-001 1.378380e+000 -9.910822e+000 107 80 51
-5.640430e-001 1.176608e+000 -9.941993e+000 54 34 12
-2.827453e-001 1.193436e+000 -9.890667e+000 77 56 31
6.878490e-001 2.048272e+000 -8.331468e+000 69 38 17
-5.135706e-001 9.743205e-001 -9.911823e+000 142 109 65
-4.432418e-001 1.051844e+000 -9.869318e+000 100 74 41
-3.643235e-001 1.106297e+000 -9.896214e+000 96 73 42
7.438740e-001 1.832398e+000 -8.466869e+000 121 94 71
-3.168259e+000 1.755181e-001 -9.540689e+000 161 155 139
-2.040188e+000 5.619574e-001 -9.225413e+000 44 24 14
-1.979433e+000 5.097900e-001 -9.692836e+000 104 95 88
7.611252e-001 1.738655e+000 -8.457250e+000 64 37 20
8.849238e-001 1.806612e+000 -8.343859e+000 75 61 47
9.267870e-001 1.874087e+000 -8.203776e+000 107 96 79
-2.544466e+000 3.562275e-001 -9.067813e+000 96 65 34
-2.004151e+000 5.787070e-001 -9.037030e+000 52 28 16
-1.751228e+000 4.922309e-001 -9.206068e+000 44 22 8
8.320456e-001 1.477395e+000 -8.627630e+000 94 80 64
9.673737e-001 1.661715e+000 -8.233021e+000 113 99 86
9.607184e-001 1.670391e+000 -8.206069e+000 113 99 86
-3.222404e+000 -2.335533e-002 -9.252274e+000 94 89 98
-1.948499e+000 4.579906e-001 -8.656600e+000 94 67 49
-1.609284e+000 4.754060e-001 -9.058909e+000 102 81 60
-1.571620e+000 5.115298e-001 -9.120237e+000 59 41 21
-8.779483e-001 5.056866e-001 -9.416037e+000 98 94 83
-8.385101e-001 5.161612e-001 -9.424472e+000 93 89 78
-5.479340e-001 5.990389e-001 -9.553999e+000 20 15 8
-4.103418e-001 6.441397e-001 -9.646286e+000 89 87 82
-4.103418e-001 6.441397e-001 -9.646286e+000 89 87 82
-1.975353e-001 6.981135e-001 -9.764852e+000 71 65 60
1.260419e+000 1.508384e+000 -8.338572e+000 85 64 47
-2.528085e+000 1.633272e-001 -8.527437e+000 105 75 39
-2.445724e+000 1.934142e-001 -8.538089e+000 105 75 41
-2.410104e+000 2.491648e-001 -8.493300e+000 130 100 64
-2.023954e+000 3.843935e-001 -8.631076e+000 93 72 53
-1.635708e+000 3.869326e-001 -8.761049e+000 80 58 45
-1.493798e+000 3.312935e-001 -8.869881e+000 59 40 32
-1.430220e+000 4.036567e-001 -9.079307e+000 53 34 18
-1.301224e-001 5.754080e-001 -9.486734e+000 58 55 50
1.255391e-001 5.730446e-001 -9.560529e+000 79 75 63
1.221507e-001 5.880426e-001 -9.523719e+000 79 75 63
1.615433e+000 1.508509e+000 -8.254192e+000 132 104 66
-2.710663e+000 3.333075e-002 -8.558630e+000 111 78 38
-2.404665e+000 1.166196e-001 -8.478745e+000 129 99 61
-1.898358e+000 2.823837e-001 -8.466928e+000 75 56 41
-1.898358e+000 2.823837e-001 -8.466928e+000 75 56 41
-2.632284e+000 -9.292155e-003 -8.416657e+000 127 96 67
-2.646296e+000 -9.395549e-002 -8.446457e+000 98 65 34
-2.418186e+000 1.719559e-003 -8.365525e+000 87 57 23
-2.079799e+000 8.876277e-002 -8.306623e+000 75 49 26
-1.817555e+000 1.601360e-001 -8.510664e+000 20 9 12
-1.008363e+000 1.387380e-001 -8.968710e+000 21 13 11
-5.454622e-001 2.065853e+000 -4.923849e+000 26 22 18
-2.445935e+000 -9.681952e-002 -8.289442e+000 130 100 64
-2.059175e+000 -1.654460e-002 -8.219300e+000 69 43 18
-2.390663e+000 -1.673263e-001 -8.232068e+000 127 97 61
-2.403641e+000 -1.931768e-001 -8.274472e+000 127 97 61
-2.334577e+000 -1.811075e-001 -8.223898e+000 107 75 42
-2.334577e+000 -1.811075e-001 -8.223898e+000 107 75 42
-2.022687e+000 -1.522915e-001 -8.190626e+000 76 53 22
-2.010117e+000 -1.437911e-001 -8.119763e+000 134 110 82
-8.972889e-001 -9.160189e-002 -8.871842e+000 54 49 43
9.003324e-001 4.211674e-001 -8.840832e+000 32 31 29
-2.001582e+000 -2.012636e-001 -8.101624e+000 129 105 76
-1.839828e+000 -1.459374e-001 -8.161751e+000 61 38 23
-1.839828e+000 -1.459374e-001 -8.161751e+000 61 38 23
-7.349986e-001 -2.681250e-001 -8.743748e+000 56 49 41
-4.646634e-001 -1.454321e-001 -8.658525e+000 109 97 76
3.489101e-001 1.794483e-001 -8.800263e+000 12 8 6
1.506976e+000 1.024985e+000 -7.786200e+000 43 25 11
1.506976e+000 1.024985e+000 -7.786200e+000 43 25 11
1.512704e+000 1.024386e+000 -7.746087e+000 71 53 41
-1.611703e+000 -2.647002e-001 -8.160736e+000 63 41 18
-1.576198e+000 -2.891094e-001 -8.186461e+000 128 106 69
1.998584e-001 1.742354e-002 -8.663762e+000 25 18 10
