ply
format ascii 1.0
element face 0
property list uchar int vertex_indices
element vertex 894
property float x
property float y
property float z
property uchar diffuse_red
property uchar diffuse_green
property uchar diffuse_blue
end_header
6.445571e-001 2.228298e+000 -8.465063e+000 138 107 77
6.466230e-001 2.223683e+000 -8.482596e+000 138 107 77
-9.288009e-001 9.800354e-001 -1.048154e+001 135 129 116
-2.133789e+000 5.529918e-001 -8.873253e+000 97 67 43
1.123508e-001 8.853344e-001 -1.011657e+001 62 57 51
1.213584e+000 1.876429e+000 -8.156293e+000 57 46 40
1.440525e+000 1.800837e+000 -8.271461e+000 61 35 19
-3.078600e+000 1.422735e-001 -8.883960e+000 143 122 87
-2.906909e+000 1.954948e-001 -9.076860e+000 61 45 29
-9.279205e-001 5.214423e-001 -9.361754e+000 113 105 85
-9.032056e-001 4.657728e-001 -9.305353e+000 20 19 14
-7.523082e-001 5.274123e-001 -9.310794e+000 21 16 11
-7.303566e-001 4.744240e-001 -9.252841e+000 108 97 79
-6.512270e-001 5.020584e-001 -9.259203e+000 18 16 15
-5.736155e-001 5.342595e-001 -9.251592e+000 103 95 71
-5.730121e-001 5.275035e-001 -9.267179e+000 103 95 71
-8.794501e-001 4.081676e-001 -9.253680e+000 113 101 79
-7.818452e-001 3.862537e-001 -9.202647e+000 113 105 83
-7.582707e-001 3.358294e-001 -9.137410e+000 21 20 24
-6.291380e-001 4.513510e-001 -9.194058e+000 104 99 72
-5.507262e-001 4.746168e-001 -9.210472e+000 18 17 15
-4.727386e-001 5.025745e-001 -9.215657e+000 107 99 76
-4.734192e-001 5.065141e-001 -9.206583e+000 107 99 76
-5.283466e-001 4.232130e-001 -9.150014e+000 102 96 78
-1.985968e-001 4.891253e-001 -9.107430e+000 17 16 14
-2.374812e+000 9.213897e-002 -8.333792e+000 82 47 22
-1.020005e+000 1.132909e-001 -9.000165e+000 17 12 10
-6.603055e-001 3.154127e-001 -9.080119e+000 23 22 23
-5.601183e-001 2.926412e-001 -9.026681e+000 21 21 14
-5.054948e-001 3.691320e-001 -9.096427e+000 20 15 16
-4.297702e-001 4.035627e-001 -9.094787e+000 113 108 79
-4.819187e-001 3.210044e-001 -9.030464e+000 120 112 91
-4.071198e-001 3.545320e-001 -9.031953e+000 26 25 23
-4.072495e-001 3.535353e-001 -9.034414e+000 26 25 23
-3.534050e-001 4.362640e-001 -9.093337e+000 22 19 12
-3.318816e-001 3.882844e-001 -9.031419e+000 123 115 94
-2.757339e-001 4.626642e-001 -9.102543e+000 104 102 75
-2.330539e-001 3.707169e-001 -8.973524e+000 119 113 85
-2.230713e+000 1.203371e-002 -8.199369e+000 85 59 32
-2.868563e-001 2.882831e-001 -8.910737e+000 113 105 79
-1.171142e-001 3.592862e-001 -8.902841e+000 64 56 32
4.409484e+000 1.424982e+000 -9.363537e+000 22 12 12
4.409484e+000 1.424982e+000 -9.363537e+000 22 12 12
-2.133430e+000 -8.534098e-002 -8.129078e+000 87 62 32
-2.362864e+000 -2.208538e-001 -8.109822e+000 128 101 68
-2.291555e+000 -4.309610e-001 -8.031625e+000 99 76 45
5.972253e-002 -1.145747e-001 -8.604022e+000 22 20 20
1.357171e-001 -8.511104e-002 -8.616941e+000 117 106 76
3.669310e-001 -4.439461e-003 -8.655843e+000 29 22 20
1.673534e+000 1.047458e+000 -7.559486e+000 64 41 27
-9.262916e-002 -1.798135e-001 -8.596975e+000 20 16 18
-6.243006e-002 -2.541135e-001 -8.576753e+000 118 111 83
-6.243006e-002 -2.541135e-001 -8.576753e+000 118 111 83
1.183328e-001 -2.685372e-001 -8.583537e+000 22 17 21
2.453964e+000 8.849438e-001 -7.928809e+000 55 40 31
-2.970374e+000 -1.162525e+000 -8.440195e+000 146 117 87
-1.777534e+000 -5.908036e-001 -7.954537e+000 70 42 18
-4.135120e-001 -4.699811e-001 -8.510582e+000 135 120 96
-4.129881e-001 -4.817603e-001 -8.529298e+000 135 120 96
-2.743800e-003 -3.922876e-001 -8.530032e+000 113 102 79
4.378213e-002 -2.959995e-001 -8.568342e+000 117 105 80
4.496376e-001 -2.258628e-001 -8.596909e+000 133 121 97
6.008712e-001 -1.699815e-001 -8.593684e+000 119 108 80
5.773168e-002 -5.507593e-001 -8.509958e+000 114 104 79
5.773168e-002 -5.507593e-001 -8.509958e+000 114 104 79
2.815383e-001 -4.636848e-001 -8.570967e+000 14 13 13
-2.062681e+000 -9.112961e-001 -7.913589e+000 122 90 65
2.925648e-001 -7.064280e-001 -8.504289e+000 18 15 16
-2.120519e+000 -1.130235e+000 -7.933949e+000 92 65 44
-7.893657e-002 -8.498191e-001 -8.412327e+000 110 96 69
1.363489e+000 1.326673e-001 -7.527183e+000 152 129 96
1.429038e+000 4.493707e-001 -7.207521e+000 118 80 44
-4.713247e-002 -1.127361e+000 -8.346382e+000 65 56 46
-1.554898e+000 -1.772208e+000 -8.335585e+000 113 94 80
-1.374178e+000 -1.653141e+000 -8.439260e+000 27 13 9
1.893762e+000 3.327107e-002 -6.765465e+000 165 136 99
1.319720e+000 -1.365183e+000 -7.673007e+000 99 73 46
8.818861e-001 2.596028e+000 -8.640136e+000 119 84 45
1.429938e+000 2.739842e+000 -9.016929e+000 45 37 35
-8.191788e-001 1.662931e+000 -1.048546e+001 141 115 78
1.045662e+000 2.586893e+000 -8.435152e+000 148 129 92
3.961267e+000 2.805052e+000 -1.080156e+001 30 20 21
6.072153e-001 2.248882e+000 -8.588891e+000 83 52 28
6.072153e-001 2.248882e+000 -8.588891e+000 83 52 28
3.758662e+000 2.483070e+000 -1.026936e+001 64 48 48
1.892909e+000 1.983299e+000 -8.589788e+000 14 12 17
-1.942092e+000 6.308740e-001 -8.985535e+000 49 33 20
-2.693724e+000 3.621059e-002 -8.486689e+000 95 60 31
-2.530442e+000 1.797037e-001 -8.398047e+000 89 55 27
-1.391398e+000 3.304714e-001 -8.854022e+000 38 23 16
-1.196145e+000 2.752453e-001 -8.844896e+000 33 18 13
-1.018255e+000 -3.755280e-002 -8.659385e+000 81 66 45
-2.429112e+000 -2.972137e-001 -8.051749e+000 134 108 73
-2.614808e+000 -5.593266e-001 -8.096655e+000 161 126 88
-1.873889e+000 -3.655587e-001 -8.033434e+000 92 72 46
1.533393e+000 9.456392e-001 -7.573046e+000 124 98 63
-2.676077e+000 -6.556679e-001 -8.024786e+000 138 104 67
-2.247260e+000 -4.569166e-001 -7.954631e+000 129 106 72
1.326970e+000 6.182303e-001 -7.711164e+000 154 129 94
1.547987e+000 6.086491e-001 -7.251624e+000 115 79 45
-3.441249e-001 -1.173131e+000 -8.307930e+000 53 46 35
-1.726391e+000 -1.759294e+000 -8.245661e+000 82 68 59
3.536954e-001 -9.616721e-001 -8.006765e+000 112 84 54
6.221999e-001 -9.317873e-001 -8.025058e+000 33 15 11
3.497266e+000 3.205857e+000 -1.134921e+001 89 77 66
3.432869e+000 3.086536e+000 -1.120235e+001 40 29 25
1.081749e+000 2.417028e+000 -8.325564e+000 149 126 89
-3.997878e-001 1.330015e+000 -9.918245e+000 114 94 61
1.050902e+000 1.624907e+000 -8.351419e+000 40 27 21
9.966190e-001 1.013430e+000 -8.947943e+000 44 39 35
-2.707149e+000 -5.669977e-001 -8.352534e+000 130 95 65
-2.048734e+000 -1.397555e-001 -8.101924e+000 121 97 67
1.389981e+000 8.288231e-001 -7.691083e+000 149 116 81
-8.831341e-001 -1.170915e+000 -8.510305e+000 130 130 139
-2.405170e+000 -1.750103e+000 -8.210292e+000 101 81 54
1.669258e+000 4.314504e-001 -7.031891e+000 148 114 76
2.245787e+000 1.229165e-001 -6.980867e+000 136 112 84
3.673850e+000 3.278041e+000 -1.145524e+001 20 11 10
-3.071143e+000 3.325095e-001 -9.486515e+000 145 130 97
-2.301057e+000 4.806554e-001 -8.728355e+000 100 68 40
3.954899e-001 2.760268e-001 -8.824232e+000 11 11 13
1.534232e+000 9.626545e-001 -7.416022e+000 104 71 37
-2.564307e+000 -1.007485e+000 -7.996477e+000 148 115 82
-1.549298e+000 -1.553125e+000 -8.285482e+000 39 27 27
-1.572592e+000 3.533451e-001 -8.805469e+000 32 15 8
1.217177e+000 5.588468e-001 -7.628187e+000 74 69 63
1.240004e+000 2.706567e-002 -8.199169e+000 68 60 49
1.683891e+000 7.334846e-001 -7.127992e+000 149 126 84
-2.252438e+000 -1.260395e+000 -8.036531e+000 49 35 26
-1.692432e+000 -1.453520e+000 -8.118456e+000 40 31 30
-4.145995e-001 2.047395e+000 -1.042285e+001 116 86 48
-9.986665e-002 2.010320e+000 -1.036868e+001 38 25 17
-2.980010e+000 2.566240e-001 -9.053517e+000 90 72 48
1.405161e+000 -8.661200e-001 -8.404058e+000 17 15 20
-7.554096e-001 1.683538e+000 -1.027413e+001 130 94 55
2.845575e-001 -1.038999e+000 -8.508988e+000 8 6 9
-1.258184e-001 6.737725e-001 -9.984943e+000 64 56 50
-2.258344e+000 -6.901540e-002 -8.110947e+000 107 80 50
1.181468e+000 -1.169533e+000 -7.840817e+000 61 35 18
-2.245961e+000 -6.309052e-001 -8.263099e+000 115 92 59
1.057915e+000 9.339043e-001 -8.383508e+000 12 10 15
2.052237e+000 1.459977e+000 -7.988657e+000 22 16 20
-1.562006e+001 1.676481e-001 -3.681720e+001 207 202 198
-1.636368e+001 2.519403e+000 -3.570744e+001 50 61 113
-1.533658e+001 2.898427e+000 -3.416221e+001 41 56 112
-1.079764e+001 -2.230059e-001 -4.081874e+001 164 153 135
-1.169568e+001 -8.825326e+000 -2.724927e+001 48 54 85
-1.016209e+001 -6.986548e+000 -2.615403e+001 139 132 105
-9.842363e+000 -7.262582e+000 -2.539490e+001 144 131 106
-9.938396e+000 -7.584536e+000 -2.626133e+001 107 101 101
-1.463335e+001 -1.044994e+001 -2.773971e+001 94 84 85
-5.149067e-001 1.301262e+000 -9.931200e+000 71 44 25
3.649863e+000 1.973854e+000 -1.053907e+001 71 59 45
-2.227477e+000 4.876644e-001 -8.590525e+000 146 109 71
4.165312e+000 1.673391e+000 -9.885851e+000 70 60 59
-2.243063e+000 1.703432e-003 -8.117422e+000 165 140 100
-1.371057e+001 -1.127747e+001 -2.627858e+001 100 107 141
3.611910e+000 2.409546e+000 -1.079868e+001 33 24 25
4.091585e-001 9.760912e-001 -9.574632e+000 42 38 35
6.635465e-001 1.115616e+000 -9.195790e+000 75 67 55
-1.402234e+001 -1.103287e+001 -2.744399e+001 130 123 130
3.189343e+000 3.006350e+000 -1.154767e+001 26 16 14
4.084411e+000 2.923375e+000 -1.103967e+001 26 18 17
9.722404e-001 2.118729e+000 -8.372149e+000 22 10 10
9.669672e-001 2.124413e+000 -8.352998e+000 22 10 10
-1.006419e+001 -7.669987e+000 -2.681711e+001 100 102 117
-2.743926e+000 3.910601e-001 -9.807530e+000 34 31 27
-9.350523e+000 -7.434978e+000 -2.420279e+001 180 168 152
-2.013242e+000 3.686240e-001 -8.503524e+000 43 21 8
-1.398948e+000 3.553889e-001 -8.878380e+000 32 13 7
-2.092436e+000 4.390089e-002 -8.202987e+000 57 31 6
-1.283683e+000 9.716195e-002 -8.137085e+000 97 82 59
-5.176523e-001 7.993002e-002 -8.735439e+000 21 14 8
5.229625e-001 1.077633e-001 -8.679380e+000 119 111 87
-9.374262e+000 -1.297887e+001 -2.463889e+001 190 183 167
-5.637287e-001 -6.780871e-001 -8.466230e+000 34 27 16
-1.220462e+001 -1.988049e+001 -3.216984e+001 161 144 126
4.087403e-001 -6.351310e-001 -8.530892e+000 17 12 17
3.193933e+000 3.143608e+000 -1.151974e+001 32 22 23
3.691229e+000 3.308227e+000 -1.155783e+001 63 54 51
-3.715852e-001 9.823469e-001 -9.980750e+000 64 42 18
-2.206408e-001 6.397601e-001 -9.434706e+000 74 70 60
-1.320390e+001 -1.090291e+001 -2.718188e+001 47 45 50
-8.757244e+000 -7.947509e+000 -2.354084e+001 122 114 101
3.929957e+000 1.398171e+000 -1.006224e+001 65 55 43
-2.853725e+000 -3.164502e-002 -8.439512e+000 125 94 65
-2.853725e+000 -3.164502e-002 -8.439512e+000 125 94 65
4.563722e+000 1.424592e+000 -9.319183e+000 59 45 44
-6.674030e-001 -1.707563e-001 -8.723423e+000 67 63 51
4.597398e+000 1.156385e+000 -9.176226e+000 50 40 39
-8.583332e-001 -3.012337e-001 -8.599485e+000 59 48 39
1.198817e+000 2.039754e-001 -8.465510e+000 61 55 48
1.788065e+000 9.780963e-001 -7.529816e+000 32 21 15
-1.656896e+000 -4.617947e-001 -7.963891e+000 90 72 52
-8.126667e-001 -8.905551e-001 -8.521596e+000 66 58 45
3.422411e+000 2.889078e+000 -1.114439e+001 22 13 14
4.165832e+000 2.802285e+000 -1.091331e+001 24 16 14
3.639489e+000 2.589492e+000 -1.084779e+001 20 11 12
1.090093e+000 2.292244e+000 -8.311581e+000 65 41 29
-2.200684e+000 5.508762e-001 -8.873206e+000 70 39 18
-1.461961e+001 -1.047854e+001 -2.798002e+001 66 59 59
-2.040139e+000 5.626689e-001 -8.799457e+000 52 25 14
-1.392039e+001 -1.055864e+001 -2.716180e+001 69 63 67
4.422383e+000 1.611393e+000 -9.709307e+000 26 16 15
3.218469e-001 4.272127e-001 -9.026388e+000 68 61 51
-9.374197e+000 -1.077168e+001 -2.483996e+001 236 234 237
1.203025e+000 2.091073e-001 -8.614755e+000 35 31 31
7.458979e-001 -1.027569e+000 -7.615326e+000 69 40 22
-3.519044e-001 1.989285e+000 -1.007319e+001 107 74 43
3.536723e-002 6.993876e-001 -9.822028e+000 43 40 35
-7.741421e-002 4.225961e-001 -8.989966e+000 96 89 70
4.399681e+000 1.181503e+000 -9.402011e+000 71 63 55
1.258305e+000 2.848246e-001 -8.451315e+000 41 36 30
3.102515e+000 2.822033e+000 -1.123274e+001 48 40 37
4.327474e+000 2.568840e+000 -1.040562e+001 61 47 43
-1.061078e+001 -8.301908e+000 -2.600755e+001 56 61 81
-8.556511e-001 3.548039e-001 -9.197888e+000 20 23 14
-1.340957e+001 -1.141960e+001 -2.648360e+001 88 83 97
3.200865e+000 2.694087e+000 -1.127208e+001 21 16 14
1.183863e+000 1.701429e+000 -8.261150e+000 27 13 10
1.425680e+000 1.576182e+000 -8.307129e+000 66 44 31
-1.529330e+001 -1.153594e+001 -2.783107e+001 81 76 73
-1.121135e+001 -1.032318e+001 -2.714768e+001 255 255 253
-5.062709e-001 1.070703e-001 -8.799881e+000 26 18 22
-1.309653e+001 -1.069614e+001 -2.740738e+001 65 60 64
4.280684e-001 4.120378e-001 -8.897411e+000 72 66 54
3.636007e+000 3.022982e+000 -1.122005e+001 88 73 54
3.234548e+000 2.724553e+000 -1.114118e+001 24 20 19
3.533114e+000 3.325047e+000 -1.153532e+001 84 71 63
3.629810e+000 3.192776e+000 -1.145292e+001 41 28 19
-5.266889e-001 2.014817e+000 -1.020832e+001 129 96 60
3.158891e+000 2.871144e+000 -1.140485e+001 52 42 40
3.229454e+000 3.001078e+000 -1.149512e+001 27 16 14
3.229454e+000 3.001078e+000 -1.149512e+001 27 16 14
3.987903e+000 2.941457e+000 -1.117367e+001 24 12 12
4.170754e+000 2.750758e+000 -1.093210e+001 32 20 20
-7.817238e-001 1.254521e+000 -1.025026e+001 66 39 18
-6.604958e-001 1.308289e+000 -1.003244e+001 78 52 25
3.335822e+000 2.392085e+000 -1.094907e+001 77 65 51
3.800006e+000 2.451201e+000 -1.079584e+001 22 14 12
3.605861e+000 2.259572e+000 -1.072297e+001 21 15 14
-2.714553e+000 3.664849e-001 -9.825794e+000 118 111 100
-3.911077e-001 1.218233e+000 -9.887064e+000 125 102 68
4.260491e+000 2.401198e+000 -1.041130e+001 60 42 37
-3.220752e+000 2.489845e-001 -9.358542e+000 154 139 108
-2.121917e+000 5.821063e-001 -8.831767e+000 101 69 44
-2.058654e-001 7.508755e-001 -9.885827e+000 15 11 10
-2.181539e+000 5.024365e-001 -8.653789e+000 63 31 15
-1.054399e+000 4.665276e-001 -9.397234e+000 122 116 92
-1.054399e+000 4.665276e-001 -9.397234e+000 122 116 92
-1.513316e+000 4.593911e-001 -8.909924e+000 34 17 1
-1.071347e+000 4.118764e-001 -9.365345e+000 101 93 76
-1.071347e+000 4.118764e-001 -9.365345e+000 101 93 76
-9.209240e-002 6.030430e-001 -9.439882e+000 12 7 4
-2.214236e+000 2.710482e-001 -8.361052e+000 74 46 22
-2.104012e+000 2.912252e-001 -8.387935e+000 109 83 60
-2.062172e+000 2.628754e-001 -8.376932e+000 97 70 51
-1.303748e+000 2.998162e-001 -8.854304e+000 34 17 7
-1.984767e+000 2.148985e-001 -8.353558e+000 43 19 9
-1.984767e+000 2.148985e-001 -8.353558e+000 43 19 9
-1.859073e+000 2.297969e-001 -8.401379e+000 64 46 35
2.173718e-001 4.574578e-001 -9.088444e+000 75 68 56
2.728244e-001 4.862804e-001 -9.185027e+000 61 58 53
1.474186e+000 1.458315e+000 -8.373148e+000 102 80 50
-2.618462e+000 -9.572783e-002 -8.263979e+000 103 68 31
-2.506357e+000 -1.238859e-001 -8.160428e+000 125 91 56
-1.146910e+000 2.547838e-001 -8.503800e+000 70 52 30
2.913168e-001 3.980234e-001 -8.953496e+000 83 77 62
-2.742470e+000 -2.673962e-001 -8.192175e+000 146 115 86
-2.676302e+000 -2.690352e-001 -8.167071e+000 111 75 41
-2.408045e+000 -1.958974e-001 -8.117298e+000 92 62 26
-1.768163e+000 -5.292106e-002 -8.333013e+000 56 34 11
-5.807775e-001 1.022366e-001 -8.618989e+000 76 65 45
-2.006866e+000 -2.172681e-001 -7.987477e+000 130 104 71
-1.800081e+000 -3.806010e-001 -8.028262e+000 80 61 47
-4.111627e-001 -1.644398e-001 -8.604503e+000 102 35 29
-3.674531e-001 -2.967259e-001 -8.546267e+000 28 22 12
-4.554323e-001 -4.158175e-001 -8.511222e+000 29 24 17
5.618937e-001 9.870424e-003 -8.643645e+000 129 117 79
-2.618645e+000 -9.101735e-001 -7.964536e+000 121 82 43
-2.268678e+000 -6.217851e-001 -7.825913e+000 139 113 80
-6.902195e-001 -9.745416e-001 -8.463439e+000 139 136 116
-6.902195e-001 -9.745416e-001 -8.463439e+000 139 136 116
-3.704788e-001 -8.330041e-001 -8.374052e+000 138 124 83
5.409311e-001 -6.725582e-001 -8.601311e+000 11 2 5
-7.474067e-001 -1.267749e+000 -8.485622e+000 152 156 165
-6.572689e-001 -1.248118e+000 -8.406214e+000 84 81 86
7.756679e-001 -8.319724e-001 -8.697006e+000 15 11 10
1.555832e+000 6.939774e-001 -7.131289e+000 71 35 13
-1.225056e+000 -1.552348e+000 -8.224048e+000 27 23 22
-1.151220e+000 -1.425600e+000 -8.247429e+000 46 33 27
1.142555e+000 -1.270527e+000 -8.986912e+000 25 26 31
1.462781e+000 4.340833e-001 -7.193469e+000 101 59 19
-1.957833e+000 -1.772508e+000 -8.081848e+000 82 68 59
1.426831e-001 -1.182224e+000 -8.139731e+000 71 57 42
2.633566e-001 -1.108491e+000 -7.937308e+000 101 74 53
2.872252e-001 -1.201791e+000 -7.938313e+000 52 24 9
3.245954e-001 -1.094827e+000 -7.834842e+000 59 31 11
1.790641e+000 3.896324e-001 -6.903753e+000 88 52 16
2.774523e+000 1.904029e-001 -7.407753e+000 51 39 39
8.990728e-001 -1.014552e+000 -7.426679e+000 132 93 58
3.728898e+000 3.294358e+000 -1.163455e+001 59 45 42
-9.947692e-002 1.877106e+000 -1.014543e+001 42 25 10
8.493753e-001 2.611093e+000 -8.729767e+000 101 64 22
3.270345e+000 2.616341e+000 -1.120165e+001 19 10 11
3.328647e+000 2.468433e+000 -1.108549e+001 32 20 12
3.449263e+000 2.397609e+000 -1.088928e+001 46 37 35
-7.171447e-001 1.097008e+000 -1.011412e+001 123 97 65
-1.143196e-001 1.315868e+000 -1.008148e+001 49 31 10
3.878105e+000 2.323968e+000 -1.077634e+001 20 11 13
4.259481e+000 2.612191e+000 -1.072942e+001 16 10 7
-3.169523e+000 2.685138e-001 -9.709049e+000 43 36 29
-4.245700e-001 1.195429e+000 -9.952847e+000 78 53 20
3.627380e+000 2.154265e+000 -1.065672e+001 27 17 14
-2.876231e+000 3.359656e-001 -9.365054e+000 64 43 22
-1.892094e+000 6.238819e-001 -9.250673e+000 89 71 51
3.422902e+000 1.885073e+000 -1.085472e+001 43 31 19
4.241287e+000 2.259191e+000 -1.030657e+001 34 20 19
4.358857e+000 2.238898e+000 -1.022915e+001 92 75 68
-2.094996e+000 5.361250e-001 -8.726898e+000 101 70 49
-1.569099e+000 5.034636e-001 -8.971974e+000 52 31 13
-1.571609e+000 4.876203e-001 -9.000177e+000 52 31 13
-1.215629e+000 4.618033e-001 -9.501031e+000 79 72 55
3.753908e+000 1.698447e+000 -1.033522e+001 76 64 49
-1.366925e+000 4.699081e-001 -8.991800e+000 56 39 23
-1.922974e+000 3.726416e-001 -8.464793e+000 73 52 39
-1.922974e+000 3.726416e-001 -8.464793e+000 73 52 39
-1.501961e+000 2.914092e-001 -8.841803e+000 38 19 10
8.063382e-001 8.771043e-001 -9.058279e+000 54 50 41
3.839583e+000 1.374640e+000 -1.021275e+001 67 55 43
4.229926e+000 1.689592e+000 -9.914291e+000 23 18 14
4.195380e+000 1.653089e+000 -9.932786e+000 54 45 41
-1.992526e+000 1.939927e-001 -8.440912e+000 37 13 3
-1.058789e+000 1.723169e-001 -8.948958e+000 63 46 33
1.429825e+000 1.439770e+000 -8.263104e+000 99 79 55
1.890141e+000 1.623057e+000 -8.327654e+000 98 79 61
3.990701e+000 1.417012e+000 -1.007198e+001 70 61 44
4.475073e+000 1.694919e+000 -9.745308e+000 49 38 36
-2.470843e+000 -1.541622e-001 -8.191024e+000 89 57 20
-1.999627e+000 9.545236e-002 -8.201884e+000 92 65 46
-2.012562e+000 6.951274e-002 -8.168345e+000 91 64 43
-2.012562e+000 6.951274e-002 -8.168345e+000 91 64 43
-1.974275e+000 7.691305e-002 -8.193043e+000 58 31 14
-1.032274e+000 7.432217e-002 -8.959256e+000 47 40 34
4.194324e+000 1.360958e+000 -9.720752e+000 44 32 20
-2.083476e+000 7.829120e-004 -8.060416e+000 119 93 60
-1.392311e+000 2.109800e-001 -8.186206e+000 44 27 14
-9.216690e-001 2.414666e-001 -8.354897e+000 17 13 11
-2.465391e+000 -3.442007e-001 -8.055613e+000 151 119 80
8.783452e-001 4.096284e-001 -8.840947e+000 17 13 14
4.331002e+000 1.124139e+000 -9.608516e+000 74 66 46
6.502417e-001 2.149591e-001 -8.725878e+000 91 88 71
6.864442e-001 1.732665e-001 -8.685682e+000 103 96 78
-2.587836e+000 -7.279942e-001 -7.997975e+000 143 115 77
-2.302415e+000 -6.300023e-001 -7.865516e+000 101 75 40
-9.243156e-001 -5.187832e-001 -8.421277e+000 47 39 30
1.418257e+000 8.642308e-001 -7.567120e+000 143 109 71
1.310224e+000 3.736329e-001 -7.774337e+000 71 61 51
4.491372e+000 6.138167e-001 -9.216024e+000 62 52 43
5.912855e-001 -5.960541e-001 -8.648080e+000 15 11 9
8.915756e-001 -4.896648e-001 -8.473656e+000 50 44 35
1.129688e+000 -2.542633e-001 -8.463732e+000 46 43 35
-1.443217e+000 -1.148297e+000 -7.931304e+000 92 73 57
-7.111009e-001 -1.228238e+000 -8.437450e+000 82 85 94
-2.011359e-001 -1.001711e+000 -8.316171e+000 106 98 79
6.091691e-002 -9.314323e-001 -8.405936e+000 23 16 9
4.633607e-001 -7.924473e-001 -8.561266e+000 14 9 11
4.625634e+000 5.162475e-001 -8.829136e+000 63 50 41
4.609548e+000 5.035565e-001 -8.726129e+000 64 52 40
1.817857e+000 5.714635e-001 -6.983223e+000 160 138 89
7.679076e-002 -1.269201e+000 -7.964490e+000 74 56 46
1.576337e-001 -1.151088e+000 -7.933866e+000 89 66 50
1.103226e+000 -8.647457e-001 -8.064905e+000 110 118 137
3.004934e+000 1.979641e-001 -7.101158e+000 65 49 24
1.902308e+000 -1.008117e-001 -6.766278e+000 165 144 118
1.171878e+000 2.761201e+000 -9.271260e+000 111 96 80
4.119425e+000 2.947557e+000 -1.126395e+001 35 24 22
4.170935e+000 2.901990e+000 -1.109440e+001 59 45 42
4.223008e+000 2.921751e+000 -1.110760e+001 29 19 20
7.089457e-001 2.493323e+000 -8.467143e+000 144 106 70
4.271649e+000 2.926883e+000 -1.095834e+001 31 21 19
3.932464e+000 2.702200e+000 -1.070076e+001 93 83 66
4.211622e+000 2.701170e+000 -1.071038e+001 32 22 23
-8.128219e-001 1.081229e+000 -1.020737e+001 76 53 28
7.852313e-001 2.025629e+000 -8.446511e+000 120 92 63
4.355846e+000 2.501530e+000 -1.055214e+001 38 25 24
7.394703e-002 9.605860e-001 -1.007381e+001 50 42 34
7.682209e-001 1.770674e+000 -8.661879e+000 105 93 73
-2.088169e+000 6.037902e-001 -8.954998e+000 88 64 42
4.889763e-001 1.210437e+000 -9.643684e+000 40 36 37
8.947867e-001 1.836599e+000 -8.394488e+000 76 55 36
3.913080e+000 1.989820e+000 -1.029442e+001 25 15 16
4.382905e+000 2.268389e+000 -1.024287e+001 30 19 14
-2.604618e+000 3.487271e-001 -8.673512e+000 120 90 54
-1.596467e+000 5.580997e-001 -9.088048e+000 105 83 60
8.490682e-001 1.594226e+000 -8.605167e+000 51 44 33
3.970378e+000 1.742345e+000 -1.027623e+001 74 65 49
-1.900001e+000 4.211626e-001 -8.636235e+000 35 16 12
-2.574502e+000 1.234546e-001 -8.373387e+000 141 106 68
-2.355550e+000 1.632124e-001 -8.411387e+000 77 43 15
-1.927826e+000 2.639909e-001 -8.549901e+000 39 19 15
-1.901595e+000 2.796634e-001 -8.576084e+000 34 17 10
-1.109053e+000 2.913873e-001 -8.946114e+000 66 50 35
1.111702e+000 9.499560e-001 -8.942596e+000 47 40 32
4.328341e+000 1.584857e+000 -9.728494e+000 45 35 31
-1.901477e+000 1.046584e-001 -8.238656e+000 79 54 33
3.842862e-001 4.317470e-001 -8.952977e+000 45 37 26
-2.515523e+000 -1.991760e-001 -8.091211e+000 142 110 72
4.270650e+000 1.115747e+000 -9.706047e+000 80 64 48
-2.097759e+000 -3.214240e-001 -8.000281e+000 100 71 39
-1.607792e+000 -2.416934e-001 -8.076406e+000 74 50 21
-1.555645e+000 -4.261676e-001 -8.044955e+000 84 59 37
-1.576873e+000 -6.067112e-001 -7.989413e+000 67 36 8
-1.419499e+000 -5.189911e-001 -8.120168e+000 77 47 22
5.179054e-001 -4.462311e-001 -8.570309e+000 17 13 17
6.105236e-001 -4.146506e-001 -8.622253e+000 85 78 60
6.337488e-001 -4.835324e-001 -8.631370e+000 18 11 13
6.490666e-001 -5.558254e-001 -8.641805e+000 68 62 47
1.354208e+000 6.829328e-001 -7.374211e+000 151 112 71
7.356165e-001 -6.399331e-001 -8.674497e+000 63 60 51
-2.021806e+000 -1.407496e+000 -7.985542e+000 92 76 60
-1.638032e+000 -1.179172e+000 -7.872188e+000 32 18 14
-6.971623e-001 -1.125084e+000 -8.431450e+000 45 45 49
1.352464e+000 5.312796e-001 -7.213077e+000 159 121 76
1.489392e+000 4.643604e-001 -7.041285e+000 169 131 84
4.661023e+000 4.177738e-001 -8.717163e+000 64 53 39
6.493245e-002 -1.271899e+000 -8.166751e+000 28 17 12
4.995261e-001 -9.375027e-001 -8.111583e+000 42 22 12
3.450446e-001 -1.023182e+000 -7.966687e+000 48 25 11
7.034427e-001 -7.830447e-001 -7.714137e+000 86 59 41
-5.575788e-002 -1.659569e+000 -8.061088e+000 34 26 23
1.791134e-001 -1.301102e+000 -7.800532e+000 49 27 21
3.024668e-001 -1.275450e+000 -7.828422e+000 50 26 15
5.390579e-001 -9.626141e-001 -7.718507e+000 72 36 18
5.885341e-001 -9.855735e-001 -7.592451e+000 110 76 51
1.600790e-001 -1.625323e+000 -7.878582e+000 128 98 70
2.970650e+000 9.863740e-002 -7.173836e+000 50 42 39
6.480259e-001 -1.527630e+000 -7.618722e+000 180 149 105
1.128899e+000 -1.302536e+000 -7.494618e+000 124 91 50
-1.033479e-001 2.105820e+000 -1.036053e+001 43 27 19
3.219390e+000 2.934121e+000 -1.126449e+001 59 47 43
1.138566e+000 2.739360e+000 -9.338215e+000 42 33 28
-7.961462e-001 1.372472e+000 -1.034842e+001 70 41 25
-6.554110e-001 1.375238e+000 -1.010383e+001 121 90 59
-2.791967e+000 4.328361e-001 -9.626049e+000 25 18 18
3.849182e+000 2.320198e+000 -1.031189e+001 45 35 31
4.055581e+000 2.225413e+000 -1.034088e+001 51 40 36
-1.699717e+000 6.098983e-001 -9.127431e+000 101 78 48
9.561568e-001 1.962225e+000 -8.257223e+000 45 32 24
-2.977466e+000 1.020531e-001 -8.782302e+000 118 84 46
-2.471236e+000 4.108304e-001 -8.815508e+000 85 53 26
-1.179364e+000 5.029221e-001 -9.521018e+000 26 20 20
-1.147606e+000 4.502974e-001 -9.461827e+000 94 87 68
-8.517907e-001 5.485204e-001 -9.366942e+000 22 19 13
-6.299025e-001 6.264958e-001 -9.489768e+000 20 18 12
-3.298305e-001 7.063740e-001 -9.625742e+000 96 89 71
-3.298305e-001 7.063740e-001 -9.625742e+000 96 89 71
-2.555483e+000 2.957891e-001 -8.532712e+000 131 99 58
-2.555483e+000 2.957891e-001 -8.532712e+000 131 99 58
-1.484287e+000 4.632127e-001 -9.017354e+000 49 30 15
-1.507829e+000 4.534858e-001 -8.862017e+000 33 17 7
-1.061921e+000 4.331008e-001 -9.392532e+000 109 101 83
-9.980059e-001 4.803682e-001 -9.373151e+000 21 21 13
-5.142678e-001 5.844729e-001 -9.350732e+000 92 85 69
-4.939407e-001 5.443689e-001 -9.285644e+000 17 12 16
-1.820971e-001 6.042317e-001 -9.342109e+000 15 13 15
-1.221191e-001 6.234576e-001 -9.438734e+000 14 10 11
-3.347123e-003 6.510586e-001 -9.641208e+000 16 16 16
4.258868e+000 1.869589e+000 -1.000920e+001 26 16 14
-1.859490e+000 3.900140e-001 -8.591100e+000 63 41 28
-1.586969e+000 2.934920e-001 -8.788239e+000 38 21 14
-1.067838e+000 3.074225e-001 -8.956417e+000 14 10 13
-3.944825e-001 5.278524e-001 -9.225292e+000 16 15 11
-1.410922e-001 5.399238e-001 -9.191373e+000 11 11 9
-9.995358e-002 5.919670e-001 -9.365842e+000 68 58 48
-2.009472e-002 5.777924e-001 -9.396321e+000 17 12 7
-5.832315e-002 5.358376e-001 -9.217648e+000 68 62 46
2.767872e-003 5.518601e-001 -9.324522e+000 77 70 60
2.767872e-003 5.518601e-001 -9.324522e+000 77 70 60
2.198990e-002 5.295738e-001 -9.248847e+000 18 13 10
7.844894e-002 5.592549e-001 -9.343253e+000 20 15 14
1.770877e-001 5.411537e-001 -9.285975e+000 15 13 12
-2.476644e+000 8.894864e-002 -8.202492e+000 136 102 68
-1.134666e+000 2.147168e-001 -8.825738e+000 39 25 16
-7.076457e-001 2.431208e-001 -9.025809e+000 25 21 13
2.100476e-003 4.339728e-001 -9.005228e+000 17 16 14
4.298843e+000 1.609682e+000 -9.761410e+000 24 15 14
-3.891256e-001 -2.975386e-001 -8.566396e+000 25 23 19
-4.318832e-001 -4.059151e-001 -8.536444e+000 31 27 24
1.955429e-001 -2.410879e-001 -8.602807e+000 118 103 79
1.955429e-001 -2.410879e-001 -8.602807e+000 118 103 79
2.696222e-001 -2.110195e-001 -8.619043e+000 26 21 16
2.641072e-001 -1.944343e-001 -8.594372e+000 26 21 16
2.228219e+000 1.057679e+000 -7.993471e+000 14 6 7
-2.373103e+000 -6.385499e-001 -7.814410e+000 151 122 90
-2.362335e+000 -8.014266e-001 -7.888274e+000 112 79 44
-5.238321e-001 -6.053104e-001 -8.478646e+000 26 22 15
2.981470e-001 -2.705173e-001 -8.588883e+000 127 119 82
2.512170e-001 -3.736442e-001 -8.561678e+000 114 100 68
2.512170e-001 -3.736442e-001 -8.561678e+000 114 100 68
3.233877e-001 -3.509432e-001 -8.581850e+000 33 26 21
-5.723364e-001 -7.042565e-001 -8.454290e+000 31 27 17
2.026057e-001 -4.721607e-001 -8.519100e+000 104 92 68
8.254422e-002 -6.007206e-001 -8.468189e+000 23 26 13
1.592298e-001 -5.741811e-001 -8.482756e+000 119 103 71
1.592298e-001 -5.741811e-001 -8.482756e+000 119 103 71
2.319301e-001 -5.430935e-001 -8.503527e+000 20 16 16
3.799714e-001 -4.934872e-001 -8.549797e+000 27 24 14
1.484482e+000 8.504029e-001 -7.425034e+000 75 47 26
-6.797689e-001 -1.024829e+000 -8.442692e+000 36 31 28
-6.797571e-001 -1.049368e+000 -8.471795e+000 36 31 28
-6.202572e-001 -9.819787e-001 -8.408319e+000 137 132 109
-5.571207e-001 -9.423240e-001 -8.382875e+000 33 29 30
-5.571207e-001 -9.423240e-001 -8.382875e+000 33 29 30
-4.901207e-001 -8.878791e-001 -8.347038e+000 128 121 95
-3.604391e-002 -7.260941e-001 -8.422133e+000 102 91 64
-9.202341e-003 -7.855109e-001 -8.391655e+000 22 16 16
6.546181e-002 -7.679879e-001 -8.431247e+000 97 85 59
6.546181e-002 -7.679879e-001 -8.431247e+000 97 85 59
1.115377e-001 -6.798400e-001 -8.468359e+000 118 102 77
2.609438e-001 -6.181650e-001 -8.492718e+000 95 85 58
1.819777e+000 8.899820e-001 -7.224566e+000 144 126 83
1.837143e+000 9.264100e-001 -7.263352e+000 49 30 13
1.837143e+000 9.264100e-001 -7.263352e+000 49 30 13
-5.263257e-001 -1.034421e+000 -8.381151e+000 134 127 104
-4.572356e-001 -9.983217e-001 -8.364413e+000 24 23 19
-4.301270e-001 -1.062881e+000 -8.335685e+000 137 127 99
9.424012e-002 -8.467556e-001 -8.427834e+000 18 14 12
1.798547e+000 8.039836e-001 -7.140424e+000 44 27 17
-1.212708e+000 -1.327176e+000 -8.138480e+000 39 24 19
-5.047385e-001 -1.273715e+000 -8.352800e+000 122 115 97
1.262198e-001 -1.377138e+000 -7.817639e+000 92 72 61
2.820330e-001 -1.388579e+000 -7.728681e+000 142 109 78
3.735000e+000 3.428815e+000 -1.170324e+001 65 51 50
3.139493e+000 2.106489e+000 -1.123084e+001 25 16 11
1.164447e-001 7.900908e-001 -9.986196e+000 55 52 40
4.159979e+000 2.143445e+000 -1.017975e+001 22 16 19
-1.227225e+000 3.022057e-001 -9.664910e+000 14 11 13
-9.031662e-001 4.654017e-001 -9.306295e+000 27 21 21
-8.274735e-001 5.023700e-001 -9.299744e+000 116 107 74
-6.512510e-001 5.002663e-001 -9.262179e+000 20 21 14
-2.702956e+000 1.193388e-001 -8.499399e+000 135 101 56
-6.821688e-001 3.662019e-001 -9.140129e+000 120 107 83
-6.821688e-001 3.662019e-001 -9.140129e+000 120 107 83
-6.288435e-001 4.462138e-001 -9.204121e+000 109 100 69
-3.748307e-001 4.806970e-001 -9.162013e+000 108 103 73
-3.748307e-001 4.806970e-001 -9.162013e+000 108 103 73
-2.970244e-001 5.077279e-001 -9.166744e+000 21 19 15
-5.051874e-001 3.738505e-001 -9.087656e+000 20 19 15
-4.295355e-001 4.073098e-001 -9.087803e+000 119 104 78
-3.313739e-001 3.848562e-001 -9.037952e+000 118 113 84
-2.758016e-001 4.616548e-001 -9.104443e+000 108 103 72
-1.754015e+000 9.313655e-002 -8.507232e+000 17 11 6
-3.858406e-001 3.085740e-001 -8.972150e+000 120 109 87
1.452655e-001 2.876006e-001 -8.834234e+000 68 61 43
-1.219242e-001 -1.004800e-001 -8.610773e+000 135 120 86
3.156273e-002 -4.060466e-002 -8.622151e+000 126 117 76
6.497140e-001 1.207373e-001 -8.685748e+000 65 58 42
1.437529e+000 6.137693e-001 -8.419701e+000 52 47 43
-2.468376e-001 -2.260360e-001 -8.564687e+000 27 22 20
-2.468376e-001 -2.260360e-001 -8.564687e+000 27 22 20
-2.934148e-001 -3.304665e-001 -8.536032e+000 27 22 18
-2.934148e-001 -3.304665e-001 -8.536032e+000 27 22 18
-2.174962e-001 -3.001674e-001 -8.542507e+000 131 118 77
-2.174962e-001 -3.001674e-001 -8.542507e+000 131 118 77
-1.689425e-001 -2.014870e-001 -8.579581e+000 127 116 79
-9.365963e-002 -1.704612e-001 -8.582512e+000 32 24 21
5.977841e-002 -1.146875e-001 -8.604237e+000 26 16 13
8.801937e-002 -1.853966e-001 -8.583229e+000 125 113 78
4.167307e-002 -2.822269e-001 -8.547572e+000 130 117 70
4.226474e-001 -1.496327e-001 -8.616296e+000 25 17 13
4.226474e-001 -1.496327e-001 -8.616296e+000 25 17 13
4.713133e-001 -4.762995e-002 -8.635123e+000 31 22 21
-2.640150e-001 -3.956084e-001 -8.505559e+000 134 122 82
-1.872685e-001 -3.685928e-001 -8.514720e+000 27 21 11
-1.872685e-001 -3.685928e-001 -8.514720e+000 27 21 11
-3.501697e-002 -3.086930e-001 -8.530269e+000 28 24 15
-8.149590e-002 -4.087746e-001 -8.497830e+000 35 28 20
3.722748e-001 -2.478411e-001 -8.594365e+000 27 26 17
4.485527e-001 -2.212742e-001 -8.589952e+000 144 130 96
4.032828e-001 -3.328644e-001 -8.593441e+000 143 132 104
4.032828e-001 -3.328644e-001 -8.593441e+000 143 132 104
5.205701e-001 -1.877972e-001 -8.581123e+000 33 29 24
2.434890e+000 9.708680e-001 -7.932636e+000 17 11 15
-4.290047e-001 -6.351858e-001 -8.452535e+000 29 22 19
-3.996931e-001 -6.986449e-001 -8.419851e+000 123 113 84
-1.275798e-001 -5.090063e-001 -8.466746e+000 31 23 14
-1.740802e-001 -6.050365e-001 -8.427801e+000 26 24 15
-1.740802e-001 -6.050365e-001 -8.427801e+000 26 24 15
2.007653e+000 9.979124e-001 -7.460300e+000 127 107 67
-4.436460e-001 -8.030725e-001 -8.393051e+000 119 114 83
-4.147880e-001 -8.674349e-001 -8.356356e+000 27 23 20
-3.687262e-001 -7.695617e-001 -8.389686e+000 28 25 22
-2.640360e-001 -8.035358e-001 -8.360831e+000 26 26 20
-2.640360e-001 -8.035358e-001 -8.360831e+000 26 26 20
-2.188088e-001 -7.043236e-001 -8.393249e+000 29 24 19
-3.847943e-001 -9.585324e-001 -8.354935e+000 132 118 93
-3.088009e-001 -9.048242e-001 -8.333136e+000 27 27 19
-3.088009e-001 -9.048242e-001 -8.333136e+000 27 27 19
-2.326640e-001 -8.774430e-001 -8.345913e+000 126 114 85
-1.291579e+000 -1.475073e+000 -8.130479e+000 101 83 69
-3.681041e-001 -1.492870e+000 -8.399933e+000 68 64 63
1.549069e+000 3.734511e-001 -7.035982e+000 172 131 85
2.906880e-001 -1.113915e+000 -7.911796e+000 89 61 37
8.760678e-001 -1.181384e+000 -7.508495e+000 153 114 73
-6.948990e-001 1.834719e+000 -1.057614e+001 141 111 73
4.122052e+000 3.149960e+000 -1.123715e+001 67 52 47
-6.872854e-001 1.438026e+000 -1.016441e+001 103 69 41
7.411016e-001 2.550295e+000 -8.391646e+000 92 55 29
8.027758e-001 2.290957e+000 -8.602798e+000 61 28 20
-3.257778e+000 2.837182e-001 -9.585437e+000 57 52 48
2.030932e-001 6.971848e-001 -9.563314e+000 103 96 73
9.927151e-001 1.019805e+000 -8.938391e+000 52 47 41
-2.069026e+000 -3.686508e-001 -7.952937e+000 127 101 67
1.286294e+000 4.393910e-002 -7.952088e+000 71 62 47
1.625414e+000 7.400105e-001 -7.302192e+000 57 30 13
-8.614309e-002 -1.027570e+000 -8.355242e+000 40 34 36
-8.614309e-002 -1.027570e+000 -8.355242e+000 40 34 36
1.716180e+000 3.583139e-001 -6.956464e+000 78 42 18
-2.716393e-001 2.143633e+000 -1.075910e+001 44 39 31
-6.592812e-001 1.716980e+000 -9.962450e+000 120 85 47
-2.735595e+000 1.289897e-001 -8.537545e+000 135 102 59
1.571203e+000 1.355026e+000 -8.423130e+000 12 10 15
4.489927e+000 1.263575e+000 -9.613176e+000 23 14 16
1.281666e+000 4.121630e-001 -8.769557e+000 14 12 15
1.721189e+000 9.760581e-001 -7.475801e+000 37 26 20
1.522644e+000 3.849462e-001 -7.079159e+000 152 110 64
3.611143e+000 2.993066e+000 -1.096329e+001 89 75 48
3.611143e+000 2.993066e+000 -1.096329e+001 89 75 48
9.058813e-001 1.676894e+000 -8.512513e+000 109 81 51
1.203858e+000 1.637622e+000 -8.323134e+000 47 29 20
7.345200e-001 8.236954e-001 -9.086255e+000 28 25 26
2.271209e+000 9.189446e-001 -7.887177e+000 37 19 8
1.414059e+000 5.984096e-001 -7.305956e+000 83 42 14
4.609495e-001 1.157870e+000 -9.986198e+000 18 14 15
1.385285e+000 1.939535e+000 -8.244877e+000 134 112 73
1.159202e+000 -1.098271e+000 -7.766626e+000 71 44 24
1.749957e+000 1.182252e+000 -8.109183e+000 13 11 16
3.301160e-001 -1.064344e+000 -8.144515e+000 77 59 45
2.993902e+000 3.164554e+000 -1.173010e+001 45 35 33
-2.928402e+000 -1.163442e+000 -8.343958e+000 251 253 249
1.301658e+000 1.774744e-001 -8.167479e+000 75 71 62
-3.104914e-001 1.569755e+000 -1.003593e+001 115 94 58
3.979377e+000 1.405940e+000 -9.962806e+000 63 51 37
1.305134e+000 4.103046e-001 -8.381407e+000 44 39 33
-1.033725e+001 -2.020558e+001 -2.866930e+001 203 189 167
1.091313e+000 2.289509e+000 -8.313196e+000 65 41 29
3.993236e+000 2.149392e+000 -1.027928e+001 50 40 38
4.092284e+000 1.354108e+000 -9.835413e+000 74 64 51
1.176230e+000 8.790729e-002 -8.448525e+000 25 20 14
-8.733625e+000 -1.473910e+001 -2.362603e+001 185 168 141
1.754515e+000 6.679900e-001 -7.060553e+000 137 113 77
4.397332e+000 1.292914e+000 -9.487942e+000 25 16 19
3.891814e+000 1.738615e+000 -1.012866e+001 58 45 38
3.066076e+000 3.135141e+000 -1.164934e+001 28 17 13
3.689101e+000 2.990738e+000 -1.100968e+001 58 39 32
4.029424e+000 2.621741e+000 -1.061713e+001 102 89 74
3.489244e+000 1.853336e+000 -1.071530e+001 70 58 44
3.865246e+000 1.887083e+000 -1.026182e+001 32 18 14
-1.429848e+000 3.110616e-001 -8.835864e+000 34 15 9
-7.837544e-001 2.522257e-001 -9.059033e+000 27 20 10
-5.531467e-002 3.617689e-001 -8.897437e+000 18 17 13
2.205453e-001 3.963537e-001 -8.931926e+000 17 8 1
3.282242e-001 3.106288e-001 -8.881615e+000 64 56 45
-4.521784e-001 -8.437686e-002 -8.658387e+000 17 10 10
-4.846662e-001 -1.488694e-001 -8.623730e+000 125 103 76
1.467312e+000 9.334248e-001 -7.550955e+000 93 59 31
3.156321e+000 3.086404e+000 -1.151591e+001 29 19 18
4.034659e+000 3.267307e+000 -1.137978e+001 65 52 44
3.516648e+000 1.823306e+000 -1.064985e+001 76 64 48
3.724553e+000 1.694653e+000 -1.040150e+001 50 41 24
4.353560e+000 1.962617e+000 -9.879448e+000 31 19 18
4.108818e+000 1.343078e+000 -9.852654e+000 73 62 44
2.634624e-001 1.877473e-001 -8.718470e+000 79 70 53
1.356144e+000 4.767906e-001 -8.369168e+000 65 62 57
-1.824132e+000 1.823342e-001 -8.462204e+000 19 15 14
1.160822e+000 -5.096185e-001 -8.367311e+000 19 15 14
1.112354e+000 2.325134e+000 -8.321744e+000 154 130 87
-1.025398e+000 5.404663e-001 -9.417178e+000 131 117 91
1.799235e+000 8.024599e-001 -7.141120e+000 44 27 17
-7.579194e+000 -1.852844e+001 -2.146891e+001 97 93 92
-2.412412e-001 1.822218e+000 -1.010195e+001 117 92 61
1.953963e+000 4.727427e-001 -6.940476e+000 149 120 76
3.960532e+000 3.393249e+000 -1.136816e+001 83 65 55
2.906382e+000 2.859298e+000 -1.143950e+001 48 35 26
-7.187869e-001 1.701340e+000 -1.021394e+001 113 70 28
-1.644525e-001 1.813960e+000 -1.010818e+001 48 27 1
-1.647877e-001 1.822165e+000 -1.009114e+001 48 27 1
-8.295308e-001 1.270726e+000 -1.030926e+001 115 86 62
-8.290077e-001 1.288597e+000 -1.027456e+001 115 86 62
-2.837342e-001 1.643695e+000 -1.002955e+001 122 94 55
3.752552e+000 2.886516e+000 -1.088668e+001 105 87 67
1.184097e+000 2.699185e+000 -8.677202e+000 157 130 87
4.119879e+000 2.937243e+000 -1.092176e+001 34 22 22
9.143510e-001 2.575223e+000 -8.561766e+000 58 25 9
-6.778990e-001 1.051078e+000 -9.993351e+000 104 89 60
-4.263214e-002 1.162368e+000 -1.007073e+001 75 57 35
8.675922e-001 2.410188e+000 -8.432055e+000 74 48 31
3.134355e+000 2.029202e+000 -1.115172e+001 64 51 42
3.350007e+000 2.352369e+000 -1.067424e+001 84 70 60
4.269635e+000 2.699037e+000 -1.064763e+001 68 53 48
-3.813133e-001 9.327799e-001 -9.963982e+000 53 36 15
4.298443e+000 2.652663e+000 -1.057803e+001 28 13 10
4.298443e+000 2.652663e+000 -1.057803e+001 28 13 10
-2.118620e+000 5.501512e-001 -8.784177e+000 97 67 37
-2.010498e+000 6.212360e-001 -8.994569e+000 41 19 8
-1.875945e+000 5.951192e-001 -8.879136e+000 75 47 35
3.702504e+000 2.159231e+000 -1.052608e+001 56 45 41
-1.548625e+000 5.304941e-001 -9.047532e+000 54 32 15
-1.516800e+000 5.072079e-001 -8.956477e+000 56 35 20
3.421617e+000 1.777303e+000 -1.072006e+001 79 69 49
-2.186389e+000 3.858933e-001 -8.562255e+000 91 63 44
-1.657058e+000 4.330198e-001 -8.808189e+000 39 18 7
-1.624278e+000 5.105359e-001 -8.858277e+000 90 70 48
-1.408273e+000 4.690178e-001 -8.944884e+000 87 64 48
9.771280e-001 2.000803e+000 -8.156709e+000 118 104 83
3.850137e+000 1.855502e+000 -1.019041e+001 80 66 57
1.506780e+000 1.966131e+000 -8.245855e+000 143 115 70
4.130485e+000 1.940796e+000 -1.006465e+001 23 12 10
4.494932e+000 2.009510e+000 -9.781697e+000 116 98 80
-1.902057e+000 6.638137e-002 -8.209105e+000 65 34 15
-9.339085e-001 -1.515977e-002 -8.958941e+000 58 48 38
-9.989942e-002 4.115050e-001 -8.965305e+000 115 106 73
-9.729739e-001 -5.215077e-002 -8.865652e+000 57 48 41
3.711881e-001 3.744219e-001 -8.936880e+000 60 53 35
4.429940e+000 1.685034e+000 -9.674702e+000 60 49 42
-1.707223e+000 -6.424722e-002 -8.189355e+000 112 87 46
-4.060942e-001 -3.585173e-002 -8.660712e+000 96 36 40
-4.060942e-001 -3.585173e-002 -8.660712e+000 96 36 40
4.357173e+000 1.431571e+000 -9.541139e+000 46 34 32
4.377919e+000 1.462790e+000 -9.572374e+000 23 15 12
4.766798e-002 -1.834847e-002 -8.641881e+000 135 123 81
4.766798e-002 -1.834847e-002 -8.641881e+000 135 123 81
-2.666528e+000 -8.120745e-001 -8.055388e+000 140 101 58
9.957702e-001 -4.276096e-001 -8.523402e+000 47 42 37
4.766312e+000 1.052343e+000 -8.861839e+000 29 15 12
-2.367929e+000 -1.913316e+000 -8.146453e+000 254 253 249
1.131128e+000 -3.217634e-001 -8.343783e+000 51 44 37
4.795056e+000 9.698101e-001 -8.839915e+000 61 47 41
1.334837e+000 3.258722e-001 -7.661166e+000 121 93 62
1.664918e+000 8.215786e-001 -7.342639e+000 116 84 46
-7.341760e+000 -2.005271e+001 -2.203508e+001 143 129 116
7.423774e-001 -8.609784e-001 -7.688123e+000 94 62 38
-9.077004e+000 -2.152048e+001 -2.001216e+001 102 100 102
-8.443040e+000 -2.035937e+001 -1.962767e+001 139 144 166
-5.856641e+000 -1.952046e+001 -1.866650e+001 131 134 146
9.126446e-001 -1.173781e+000 -7.539735e+000 108 63 22
5.037799e+000 2.061586e-001 -8.015502e+000 80 66 54
-5.559501e+000 -1.983438e+001 -1.807910e+001 131 126 119
-5.319314e+000 -1.972855e+001 -1.820555e+001 193 188 184
-1.645930e+000 -1.214837e+001 -1.438011e+001 43 41 47
-1.424131e+000 -1.200722e+001 -1.404165e+001 60 58 61
-9.612130e+000 -2.206262e+001 -1.793595e+001 170 188 224
-6.641960e+000 -2.050185e+001 -1.763122e+001 136 115 96
-4.628994e+000 -1.908399e+001 -1.724609e+001 225 219 219
-9.268347e+000 -2.233256e+001 -1.726175e+001 178 195 222
-9.268347e+000 -2.233256e+001 -1.726175e+001 178 195 222
-6.342703e+000 -2.089589e+001 -1.722859e+001 215 190 152
-6.181639e+000 -2.023512e+001 -1.699614e+001 195 171 142
-5.615112e+000 -2.028911e+001 -1.709360e+001 189 176 171
3.128351e+000 3.107931e+000 -1.146793e+001 28 14 11
3.934135e+000 3.353019e+000 -1.136812e+001 80 64 53
-4.446372e-001 1.881754e+000 -1.022596e+001 122 88 51
-4.067388e-002 1.893346e+000 -1.022933e+001 45 25 4
3.088043e+000 2.737179e+000 -1.127612e+001 40 26 23
3.396896e+000 2.962186e+000 -1.117647e+001 32 21 17
3.775122e+000 3.115313e+000 -1.124874e+001 47 33 30
2.860667e+000 2.337385e+000 -1.162271e+001 61 48 39
3.446425e+000 2.829053e+000 -1.111659e+001 30 20 15
3.938436e+000 2.917546e+000 -1.098187e+001 62 49 43
3.957002e+000 2.975291e+000 -1.103773e+001 58 45 39
3.957002e+000 2.975291e+000 -1.103773e+001 58 45 39
-5.137044e-001 1.486497e+000 -1.001778e+001 96 66 42
1.162966e+000 2.709486e+000 -8.688978e+000 93 68 27
3.075264e+000 2.368083e+000 -1.118802e+001 63 51 37
4.117153e+000 2.874100e+000 -1.091120e+001 32 18 17
-8.604800e+000 -8.958867e+000 -2.366428e+001 134 118 98
-7.537128e-001 1.096932e+000 -1.008288e+001 66 38 13
-7.537128e-001 1.096932e+000 -1.008288e+001 66 38 13
7.111275e-001 2.566411e+000 -8.369470e+000 82 42 17
3.078173e+000 2.163435e+000 -1.123660e+001 54 45 34
3.895823e+000 2.789895e+000 -1.071652e+001 48 34 25
-3.162451e+000 2.982691e-001 -9.316848e+000 196 178 140
-2.966426e+000 3.742843e-001 -9.353775e+000 139 117 80
8.479525e-001 2.404290e+000 -8.396714e+000 60 33 21
-2.050962e+000 6.509144e-001 -9.181462e+000 79 59 46
-3.164610e-001 9.211119e-001 -9.976728e+000 118 94 59
3.296705e+000 1.895958e+000 -1.091543e+001 77 65 49
3.428168e+000 2.169495e+000 -1.067603e+001 72 59 43
4.305800e+000 2.643897e+000 -1.052744e+001 61 48 39
-2.150993e+000 5.308067e-001 -8.777039e+000 62 32 13
1.092581e+000 2.351581e+000 -8.289402e+000 163 135 88
-2.405964e+000 4.387287e-001 -8.711855e+000 123 88 58
-1.689600e+000 5.407855e-001 -8.901775e+000 81 57 32
4.099127e+000 2.261785e+000 -1.012231e+001 35 24 17
-2.218288e+000 3.857068e-001 -8.590634e+000 57 28 12
-2.074230e+000 4.542085e-001 -8.597327e+000 98 68 50
-1.624031e+000 4.712113e-001 -8.766489e+000 80 58 43
-1.586545e+000 3.685868e-001 -8.827553e+000 29 10 3
3.681371e+000 1.861665e+000 -1.038691e+001 77 62 45
3.784319e+000 1.814154e+000 -1.027547e+001 81 66 47
3.803782e+000 1.626910e+000 -1.021287e+001 82 65 49
4.201865e+000 2.024485e+000 -9.978985e+000 34 19 16
7.089187e-001 8.656805e-001 -9.178556e+000 20 14 16
3.772676e+000 1.529111e+000 -1.028490e+001 73 60 42
3.772676e+000 1.529111e+000 -1.028490e+001 73 60 42
-2.498221e+000 -1.411887e-001 -8.255017e+000 107 65 25
-3.383891e-001 2.532964e-001 -8.895984e+000 26 17 15
-3.383891e-001 2.532964e-001 -8.895984e+000 26 17 15
8.209115e-001 8.352220e-001 -9.061511e+000 12 10 7
3.819807e+000 1.392075e+000 -1.018575e+001 78 61 47
4.117866e+000 1.700606e+000 -9.876966e+000 51 40 36
-1.903770e+000 2.437672e-002 -8.178243e+000 62 31 10
1.702594e-002 3.573778e-001 -8.883329e+000 20 17 8
1.382859e+000 1.465969e+000 -8.212688e+000 29 17 14
4.539577e+000 1.802679e+000 -9.508107e+000 72 53 46
-9.422731e+000 -1.778274e+001 -2.575659e+001 189 166 125
-1.079818e+000 1.156032e-001 -8.321360e+000 103 86 58
-1.909989e-001 1.461232e-001 -8.779998e+000 136 123 80
9.158987e-001 4.706478e-001 -8.831908e+000 45 40 38
-1.659206e+000 -2.464326e-001 -8.201408e+000 132 102 61
8.990078e-002 1.266669e-001 -8.707594e+000 80 69 51
4.229793e+000 1.036175e+000 -9.676964e+000 42 28 11
7.114026e-001 1.333040e-001 -8.675744e+000 108 100 79
4.562986e+000 1.359992e+000 -9.269185e+000 66 53 44
4.610218e+000 1.390295e+000 -9.252020e+000 30 20 17
1.266699e+000 4.173734e-001 -8.396302e+000 66 59 49
4.669443e+000 1.250147e+000 -9.173697e+000 29 20 15
4.650203e-001 -7.297845e-001 -8.576611e+000 51 40 36
8.016639e-001 -3.473161e-001 -8.581193e+000 21 14 4
9.772284e-001 -3.025857e-001 -8.553788e+000 40 35 33
1.484971e+000 9.635067e-001 -7.526355e+000 133 99 63
4.479075e+000 7.489139e-001 -9.102914e+000 75 60 43
1.122739e-001 -9.648499e-001 -8.465240e+000 86 76 55
1.715365e+000 9.607494e-001 -7.421125e+000 50 29 20
4.886536e+000 9.427995e-001 -8.773372e+000 29 15 15
1.373318e+000 5.203170e-001 -7.213944e+000 158 114 65
7.971636e-002 -1.284194e+000 -8.073566e+000 103 81 60
7.840760e-002 -1.272208e+000 -8.062438e+000 103 81 60
6.390523e-001 -8.561155e-001 -7.882674e+000 44 21 13
6.504713e-001 -8.577234e-001 -7.838987e+000 104 77 56
1.687141e+000 5.659874e-001 -7.077875e+000 159 122 77
4.986605e+000 7.598365e-001 -8.420916e+000 33 18 18
1.517230e-001 -1.311176e+000 -7.957964e+000 49 27 14
1.625401e+000 3.544457e-001 -7.038944e+000 121 76 34
-9.127674e+000 -2.133143e+001 -1.953649e+001 128 126 131
1.774871e+000 1.907256e-001 -6.889928e+000 146 102 57
2.005920e+000 4.186395e-001 -6.873917e+000 160 132 81
-2.043415e+000 -1.207014e+001 -1.413243e+001 90 89 98
-9.710156e+000 -2.246232e+001 -1.793089e+001 166 180 215
-9.420776e+000 -2.193604e+001 -1.767245e+001 199 215 248
-9.527735e+000 -2.228219e+001 -1.786926e+001 199 215 248
-9.323343e+000 -2.206360e+001 -1.770025e+001 168 182 217
-6.611957e+000 -2.064809e+001 -1.757510e+001 190 165 134
-5.531997e+000 -1.993185e+001 -1.801454e+001 116 105 102
-5.670211e+000 -2.069478e+001 -1.794062e+001 106 92 84
-5.937863e+000 -2.055056e+001 -1.689254e+001 222 214 225
-5.518579e+000 -2.042594e+001 -1.694010e+001 214 200 186
3.564043e+000 3.400841e+000 -1.155696e+001 67 51 47
3.078536e+000 3.023082e+000 -1.154398e+001 32 22 20
-5.296024e-001 1.568659e+000 -1.009109e+001 100 65 37
-5.296024e-001 1.568659e+000 -1.009109e+001 100 65 37
-2.515474e-001 1.637960e+000 -1.003390e+001 57 35 12
-7.059457e-001 1.299190e+000 -1.007343e+001 137 107 73
3.121871e+000 2.140401e+000 -1.111075e+001 34 25 15
3.405099e+000 2.419152e+000 -1.080889e+001 47 36 34
-2.827075e+000 3.574279e-001 -9.272174e+000 107 86 57
-6.629262e-002 1.187506e+000 -1.007854e+001 58 39 17
1.058079e+000 2.514021e+000 -8.370799e+000 153 125 76
3.658145e+000 2.441957e+000 -1.069374e+001 30 19 18
-1.966399e+000 6.229461e-001 -9.175230e+000 66 44 31
-1.746505e+000 5.095379e-001 -9.770658e+000 101 78 47
-1.742285e+000 6.317734e-001 -9.154932e+000 50 24 7
4.146446e+000 2.453605e+000 -1.034178e+001 99 79 68
4.161951e+000 2.302036e+000 -1.017984e+001 28 17 13
-2.189172e+000 3.785706e-001 -8.483845e+000 115 86 56
6.491727e-002 6.590916e-001 -9.653548e+000 81 74 46
3.621413e+000 1.648857e+000 -1.053183e+001 74 61 42
4.051147e+000 2.096605e+000 -1.015096e+001 57 42 39
4.124360e+000 2.214705e+000 -1.004441e+001 57 43 37
4.379691e+000 2.230118e+000 -9.981389e+000 36 19 12
5.614162e-001 8.254109e-001 -9.385565e+000 15 9 9
4.338663e+000 2.202005e+000 -9.968111e+000 83 64 52
2.238809e-001 5.670845e-001 -9.384792e+000 13 9 9
4.038008e+000 1.755791e+000 -9.905472e+000 47 36 30
4.022539e+000 1.766612e+000 -9.881857e+000 47 36 30
4.186292e+000 1.840924e+000 -9.935377e+000 56 46 37
-2.380026e+000 -7.958568e-002 -8.230816e+000 106 73 28
-1.792115e+000 1.254514e-001 -8.365244e+000 83 60 41
3.218904e-001 4.259185e-001 -9.027717e+000 69 62 45
3.893660e+000 1.212796e+000 -1.004366e+001 85 73 57
-2.377797e+000 -3.768498e-001 -8.131647e+000 118 81 44
-2.377797e+000 -3.768498e-001 -8.131647e+000 118 81 44
-2.117155e+000 -1.832973e-001 -8.079196e+000 101 66 29
