ply
format ascii 1.0
element face 0
property list uchar int vertex_indices
element vertex 867
property float x
property float y
property float z
property uchar diffuse_red
property uchar diffuse_green
property uchar diffuse_blue
end_header
7.189217e-001 -1.927921e+000 -8.423238e+000 56 35 24
-4.661013e-002 -2.055585e+000 -8.400645e+000 15 9 11
-1.814488e-001 -1.827349e+000 -8.392732e+000 15 9 11
3.109329e-001 -1.999576e+000 -8.670424e+000 143 114 95
9.497307e-001 -1.479553e+000 -9.131760e+000 53 51 62
9.497307e-001 -1.479553e+000 -9.131760e+000 53 51 62
-2.171643e+000 -1.822300e+000 -8.156329e+000 109 85 76
-1.797018e+000 -1.735071e+000 -8.311611e+000 32 18 17
-2.222682e+000 -1.877897e+000 -8.311455e+000 16 7 10
-2.394123e+000 -1.874985e+000 -8.355546e+000 29 15 15
-1.939794e+000 -1.850915e+000 -8.531217e+000 120 96 88
-2.656541e+000 -1.814661e+000 -8.350350e+000 143 103 77
-2.444161e+000 -1.770797e+000 -8.433903e+000 39 21 20
-1.407922e+000 -1.717754e+000 -8.803506e+000 137 118 104
-1.556753e+000 -1.786722e+000 -8.879685e+000 153 132 111
-2.311647e+000 -1.679775e+000 -8.573514e+000 122 91 63
-2.830674e+000 -4.955612e-001 -8.079286e+000 68 28 23
-2.451773e+000 -1.706150e+000 -8.668545e+000 66 28 20
-2.187314e+000 -1.793754e+000 -8.764645e+000 82 43 26
1.022495e+000 -1.116583e+000 -1.023644e+001 11 5 11
-2.814059e+000 -1.533483e+000 -8.477744e+000 137 96 68
-2.512400e+000 -1.658143e+000 -8.699091e+000 143 104 75
-2.309772e+000 -1.607573e+000 -8.735438e+000 55 22 5
-2.382551e+000 -1.755472e+000 -8.821011e+000 143 106 79
-1.843699e+000 -1.767446e+000 -9.074608e+000 146 115 97
-1.766307e+000 -1.784285e+000 -9.115853e+000 144 108 83
-1.283546e+000 -1.630312e+000 -9.296968e+000 43 24 17
-2.386952e+000 -1.721041e+000 -8.863408e+000 75 38 21
-2.472340e+000 -1.683144e+000 -8.880167e+000 103 67 43
-2.341058e+000 -1.733387e+000 -8.890790e+000 158 124 93
-2.296892e+000 -1.642546e+000 -8.963519e+000 161 127 102
-2.086524e+000 -1.681040e+000 -9.053844e+000 160 123 94
-1.058798e+000 -1.515611e+000 -9.576533e+000 46 23 20
-2.854274e+000 -1.259151e+000 -8.667166e+000 101 49 25
-2.870006e+000 -1.368093e+000 -8.701010e+000 178 147 118
-2.001173e+000 -1.742296e+000 -9.275281e+000 157 136 119
-2.001173e+000 -1.742296e+000 -9.275281e+000 157 136 119
-1.415230e+000 -1.524880e+000 -9.514211e+000 165 160 166
-1.143628e+000 -1.505385e+000 -9.707364e+000 80 55 48
-1.056750e+000 -1.465602e+000 -9.731892e+000 129 110 95
-2.918544e+000 -1.383102e+000 -8.760949e+000 173 138 113
-2.918544e+000 -1.383102e+000 -8.760949e+000 173 138 113
-2.898955e+000 -1.391876e+000 -8.863715e+000 117 67 37
-2.607010e+000 -1.522178e+000 -9.028751e+000 168 132 106
-2.593684e+000 -1.498092e+000 -9.030318e+000 168 132 106
-2.485675e+000 -1.541832e+000 -9.130654e+000 171 131 105
-2.485675e+000 -1.541832e+000 -9.130654e+000 171 131 105
-2.204765e+000 -1.615747e+000 -9.266338e+000 180 146 115
-1.359148e+000 -1.470539e+000 -9.635524e+000 69 40 36
-1.218030e+000 -1.448014e+000 -9.738857e+000 84 56 45
-9.700920e-001 -1.247867e+000 -9.846904e+000 70 47 41
-3.142065e+000 -7.961442e-001 -8.697069e+000 30 20 16
-3.115115e+000 -9.858914e-001 -8.806600e+000 174 136 96
-2.990660e+000 -1.230193e+000 -8.860501e+000 183 142 105
-2.886955e+000 -1.421790e+000 -8.910061e+000 180 141 110
-2.901693e+000 -1.402383e+000 -8.961506e+000 164 125 94
-2.572186e+000 -1.543616e+000 -9.105674e+000 164 127 99
-1.091440e+000 -1.206390e+000 -9.881727e+000 141 123 113
-1.108636e+000 -1.226322e+000 -9.876677e+000 141 123 113
-3.176386e+000 -2.954097e-001 -8.736338e+000 113 93 82
-3.072264e+000 -9.724376e-001 -8.871112e+000 174 132 94
-3.143211e+000 -9.461394e-001 -8.884028e+000 191 150 106
-2.879633e+000 -1.240905e+000 -9.081257e+000 136 89 59
-2.071589e+000 -1.414111e+000 -9.543743e+000 44 19 14
-1.914996e+000 -1.368813e+000 -9.606241e+000 73 45 33
-1.956035e+000 -1.325531e+000 -9.684692e+000 56 41 36
-1.445916e+000 -1.149709e+000 -9.871987e+000 143 126 116
-1.965613e+000 -1.228060e+000 -9.714670e+000 69 52 45
-3.279964e+000 -6.467431e-001 -9.056636e+000 126 79 49
-2.987296e+000 -1.006792e+000 -9.278190e+000 112 66 33
-2.825309e+000 -1.149454e+000 -9.430784e+000 141 94 68
-2.299748e+000 -1.282562e+000 -9.665122e+000 76 50 40
-3.313587e+000 1.612951e-002 -8.976113e+000 46 27 21
-2.633255e+000 -1.129372e+000 -9.550146e+000 92 55 37
-2.175826e+000 -1.011528e+000 -9.860469e+000 126 98 77
-1.374928e+000 -4.677151e-001 -1.029854e+001 118 117 136
-9.139047e-001 9.568116e-001 -1.070788e+001 82 62 45
-8.450639e-001 1.212749e+000 -1.080631e+001 151 125 98
1.419032e+000 4.986909e-001 -7.211830e+000 186 151 109
1.433473e+000 2.624887e-001 -7.414028e+000 164 132 104
-4.378446e-001 -1.681587e+000 -8.600100e+000 57 54 60
1.255658e+000 -1.310512e+000 -9.184890e+000 107 109 119
-7.710271e-001 -1.361749e+000 -8.620242e+000 23 18 22
-7.670912e-001 -1.486713e+000 -8.664467e+000 19 17 20
-1.586170e+000 -1.824924e+000 -8.539175e+000 163 134 119
-7.845883e-001 -1.393995e+000 -8.689007e+000 130 125 119
-7.876934e-001 -1.522785e+000 -8.738739e+000 145 144 142
-7.879896e-001 -1.523285e+000 -8.739118e+000 145 144 142
-8.193749e-001 -1.444290e+000 -8.760684e+000 23 18 19
-1.973673e+000 -1.821084e+000 -8.498126e+000 50 35 34
-1.691395e+000 -1.796047e+000 -8.619402e+000 118 86 65
-2.696967e+000 -1.541711e+000 -8.379990e+000 141 99 66
-2.282180e+000 -1.789079e+000 -8.647379e+000 74 38 17
-2.047265e+000 -1.852717e+000 -8.681034e+000 64 35 25
-1.252893e+000 -1.614962e+000 -9.227656e+000 40 22 16
-1.167920e+000 -1.605466e+000 -9.207435e+000 126 112 103
-2.635143e+000 -1.573647e+000 -8.616330e+000 86 48 27
-2.419949e+000 -1.713370e+000 -8.702696e+000 138 95 63
-1.961432e+000 -1.739936e+000 -8.976554e+000 99 62 43
-2.007078e+000 -1.810543e+000 -9.059581e+000 154 121 90
-2.496684e+000 -1.712477e+000 -8.821384e+000 163 127 101
-2.496684e+000 -1.712477e+000 -8.821384e+000 163 127 101
-1.615459e+000 -1.683780e+000 -9.373027e+000 146 139 145
-3.020294e+000 -2.077711e-001 -8.366698e+000 65 26 20
-3.041019e+000 -1.065761e+000 -8.547475e+000 21 7 6
-2.411616e+000 -1.606612e+000 -9.045061e+000 109 68 48
-2.150866e+000 -1.602169e+000 -9.094514e+000 86 47 22
-2.626805e+000 -1.498983e+000 -8.992458e+000 114 72 47
-2.626805e+000 -1.498983e+000 -8.992458e+000 114 72 47
-2.538189e+000 -1.548207e+000 -9.047897e+000 160 124 92
-2.368229e+000 -1.551872e+000 -9.215493e+000 171 128 94
-2.413896e+000 -1.500318e+000 -9.311578e+000 161 120 92
-3.048467e+000 -1.061580e+000 -8.960167e+000 171 132 91
-2.398646e+000 -1.397170e+000 -9.373799e+000 94 56 37
-2.463575e+000 -1.486371e+000 -9.416186e+000 143 103 73
-2.244728e+000 -1.461449e+000 -9.452042e+000 86 52 42
-1.692428e+000 -1.196966e+000 -9.764006e+000 36 21 25
-3.170923e+000 8.075073e-003 -8.821980e+000 162 132 96
-3.257479e+000 -8.420586e-002 -8.805912e+000 43 23 19
-2.507677e+000 -1.355657e+000 -9.395737e+000 85 46 33
-2.268047e+000 -1.513657e+000 -9.566592e+000 88 62 53
-3.131217e+000 -9.869492e-001 -9.198670e+000 182 143 113
-3.046267e+000 -8.376441e-001 -9.251384e+000 147 102 74
-2.364821e+000 -1.018047e+000 -9.715862e+000 108 77 56
-2.980101e+000 -5.790587e-001 -9.632169e+000 179 151 130
-7.857307e-001 1.107996e+000 -1.085806e+001 181 153 116
9.220653e-001 -2.026780e+000 -8.190072e+000 111 89 69
1.941063e-001 -1.452612e+000 -7.857867e+000 139 104 66
1.297233e-001 -1.875364e+000 -8.864398e+000 115 114 128
6.758726e-001 -1.619443e+000 -9.125244e+000 97 95 104
-2.116299e+000 -1.736650e+000 -8.073996e+000 169 149 122
-1.569020e+000 -1.692713e+000 -8.315947e+000 128 105 89
2.650142e-001 -1.773221e+000 -9.283482e+000 70 69 77
-2.099867e+000 -1.763129e+000 -8.401175e+000 27 15 17
-2.863073e+000 -1.381009e+000 -8.286896e+000 166 129 100
-2.681952e+000 -1.604746e+000 -8.497576e+000 110 74 52
-2.252301e+000 -1.820487e+000 -8.688472e+000 106 64 40
-2.939115e+000 -8.356213e-001 -8.187570e+000 130 95 73
-2.971359e+000 -1.129558e+000 -8.435468e+000 45 24 10
-1.757167e+000 -1.721130e+000 -9.257229e+000 164 129 101
-1.220285e+000 -1.493214e+000 -9.540227e+000 84 55 43
-2.324960e-002 -1.407078e+000 -1.012852e+001 99 102 121
-2.630322e+000 -1.514054e+000 -8.906960e+000 176 146 118
-2.517976e+000 -1.506939e+000 -8.963026e+000 181 147 119
-2.080326e+000 -1.717667e+000 -9.226581e+000 123 92 71
-2.758799e+000 -1.361790e+000 -8.861695e+000 120 75 49
-2.371937e+000 -1.542877e+000 -9.316777e+000 155 114 86
-3.198340e+000 -6.187906e-001 -8.833281e+000 32 17 9
-3.065073e+000 -1.008733e+000 -8.918071e+000 128 78 41
-2.914382e+000 -1.106633e+000 -9.181872e+000 157 110 77
-2.878921e+000 -1.157761e+000 -9.244152e+000 86 38 23
-1.131096e+000 -9.330818e-001 -1.017482e+001 176 175 181
-2.080115e+000 -1.136447e+000 -9.823024e+000 84 61 49
-2.080115e+000 -1.136447e+000 -9.823024e+000 84 61 49
-3.251083e+000 -7.670330e-001 -9.172731e+000 177 136 113
-2.331901e+000 -3.755875e-001 -1.005547e+001 103 83 65
2.494848e-001 -1.169334e+000 -7.876131e+000 154 121 85
-5.059771e-002 -1.885920e+000 -9.404425e+000 65 67 76
2.402264e-001 -1.723081e+000 -9.482476e+000 108 110 117
-2.194208e+000 -1.686323e+000 -8.544831e+000 128 97 77
-1.760596e+000 -1.755850e+000 -9.135898e+000 156 118 96
-1.760596e+000 -1.755850e+000 -9.135898e+000 156 118 96
-2.952074e+000 -1.294461e+000 -8.646007e+000 159 129 102
-2.705200e+000 -1.464198e+000 -8.831494e+000 168 135 106
-1.016613e+000 -1.516849e+000 -9.695497e+000 13 10 17
-3.092080e+000 -1.160778e+000 -8.653504e+000 179 143 110
-3.149252e+000 -7.159683e-001 -8.695841e+000 30 16 14
-3.029612e+000 -1.077027e+000 -8.948973e+000 161 119 81
-1.007151e+000 -9.662901e-001 -1.019995e+001 16 16 24
-3.329434e+000 -7.097784e-002 -8.937268e+000 45 23 25
-2.775310e+000 -1.135294e+000 -9.353672e+000 108 63 42
-1.067898e+000 -6.184276e-001 -1.030454e+001 184 183 189
-7.517374e-001 1.013033e+000 -1.096096e+001 46 36 34
-1.996560e+000 -1.822242e+000 -8.202230e+000 75 52 47
-2.543441e+000 -1.874121e+000 -8.373193e+000 113 85 64
-3.844491e-001 -1.634285e+000 -9.385462e+000 117 119 134
-2.332772e+000 -1.676947e+000 -8.953297e+000 155 121 96
-2.132304e+000 -1.490526e+000 -9.438051e+000 129 99 75
-1.567323e+000 -1.372458e+000 -9.701760e+000 146 142 142
-1.114421e+000 -1.286865e+000 -9.887415e+000 101 79 70
3.931822e-001 -1.978719e+000 -8.507750e+000 25 14 13
-2.512055e+000 -1.699374e+000 -8.271710e+000 75 36 19
-2.765813e+000 -1.589422e+000 -8.427616e+000 69 35 23
-3.441276e-001 -1.584290e+000 -9.833913e+000 142 145 162
-5.117571e-001 -1.524921e+000 -9.816637e+000 112 115 132
-3.252501e+000 -4.538469e-001 -9.087634e+000 120 75 46
-1.710517e+000 -1.476454e+000 -8.021976e+000 33 20 14
4.775251e-002 -1.890031e+000 -9.125099e+000 134 131 140
-2.993351e+000 -1.244601e+000 -8.567966e+000 166 137 107
-1.210609e+000 -8.326864e-001 -1.015591e+001 184 182 195
8.096748e-001 -1.628056e+000 -9.316149e+000 89 89 99
-3.063565e+000 -8.997693e-001 -8.539291e+000 37 23 23
-1.642687e+000 -1.179021e+000 -9.822967e+000 101 89 89
-1.435424e+000 -1.426078e+000 -9.521379e+000 131 124 131
-4.837691e-001 4.916830e+001 -1.029715e+001 134 124 102
5.820786e+000 4.933472e+001 -1.415346e+001 135 132 103
3.969868e+000 4.933768e+001 -1.396018e+001 110 83 79
5.052140e+000 3.636813e+001 -5.068614e-001 119 117 122
2.176669e+000 4.094698e+001 -2.333059e+000 51 47 48
7.164169e+000 3.453197e+001 2.612277e+000 134 133 151
3.560539e+000 3.579062e+001 -3.442200e+000 101 88 79
-8.766361e-001 -1.278267e+000 -9.941586e+000 133 136 151
1.158693e+001 2.713082e+001 1.428574e+000 76 60 61
1.159185e+001 2.705452e+001 1.218669e+000 34 17 18
7.582428e+000 2.607624e+001 1.060894e+000 45 25 28
1.520924e+000 -1.765900e+000 -8.094359e+000 23 13 13
8.566610e+000 2.639449e+001 1.163030e+000 35 28 36
7.682324e+000 2.691293e+001 1.468834e+000 177 160 149
6.272183e+000 2.669427e+001 2.524805e+000 108 109 100
1.030016e+001 2.673866e+001 -2.746838e-001 35 15 16
-2.136825e+000 -1.802254e+000 -8.616359e+000 119 90 74
-2.285427e+000 -1.719382e+000 -8.894317e+000 93 55 32
-2.285427e+000 -1.719382e+000 -8.894317e+000 93 55 32
-1.335103e+000 -1.523270e+000 -9.526754e+000 174 162 162
-2.240172e+000 -1.604040e+000 -9.244074e+000 102 63 34
-2.910914e+000 -1.370628e+000 -8.890068e+000 177 134 99
-2.919331e+000 -1.347951e+000 -8.962311e+000 109 61 31
-1.997977e+000 -1.479175e+000 -9.490723e+000 124 95 87
-2.521242e+000 -7.460777e-001 -9.837691e+000 135 101 74
-2.476660e+000 -1.674361e+000 -8.752936e+000 150 110 83
-2.994659e+000 -1.200931e+000 -8.830213e+000 142 98 63
-2.471455e+000 -1.683344e+000 -8.879586e+000 103 67 43
-2.855736e+000 -1.522029e+000 -8.715464e+000 158 121 95
-2.251693e+000 -1.582152e+000 -9.215458e+000 147 108 77
-2.732198e+000 -1.429021e+000 -9.003274e+000 172 139 106
-3.150557e+000 1.283759e-002 -8.770672e+000 52 29 24
-1.973258e+000 -9.479388e-001 -9.933103e+000 106 83 69
2.620801e-001 -2.001255e+000 -8.614455e+000 129 107 85
-2.163916e+000 -1.726717e+000 -8.969805e+000 141 100 77
1.062129e+000 -5.843982e-001 -1.050494e+001 85 84 100
-2.606994e+000 -1.100154e+000 -9.495434e+000 120 81 52
1.038535e+000 -1.897240e+000 -7.995980e+000 68 36 17
1.306459e+000 -1.925962e+000 -8.088030e+000 33 22 21
1.522161e+000 2.392925e-001 -6.917953e+000 213 186 151
1.490154e+000 -8.950526e-002 -7.225369e+000 141 106 77
1.391825e+000 5.945217e-001 -7.586812e+000 168 134 101
3.493549e-002 -1.998538e+000 -8.541506e+000 53 47 50
-1.731964e+000 -1.838522e+000 -8.458636e+000 71 49 25
-8.762014e-001 -1.406461e+000 -8.921158e+000 116 108 106
-8.762014e-001 -1.406461e+000 -8.921158e+000 116 108 106
-2.544845e+000 -1.903144e+000 -8.403434e+000 71 51 40
-2.083809e+000 -1.829362e+000 -8.708833e+000 82 50 30
-1.981517e+000 -1.823663e+000 -8.805300e+000 90 55 36
-2.121266e+000 -1.821221e+000 -8.819325e+000 128 92 70
-2.088991e+000 -1.807017e+000 -8.905657e+000 146 109 82
-1.750097e+000 -1.741653e+000 -9.106680e+000 149 113 89
-2.794217e+000 -1.477356e+000 -8.683882e+000 120 77 45
-2.572384e+000 -1.620761e+000 -8.839702e+000 168 132 105
-2.192417e+000 -1.562534e+000 -9.121285e+000 115 79 55
-2.075398e+000 -1.713575e+000 -9.267077e+000 154 127 104
-2.996418e+000 -1.297526e+000 -8.715625e+000 174 142 106
-2.398718e+000 -1.542403e+000 -9.189117e+000 123 82 53
-1.982314e+000 -1.564785e+000 -9.384157e+000 145 116 95
-2.396929e+000 -1.530328e+000 -9.277236e+000 102 58 23
-2.771136e+000 -1.340756e+000 -9.161215e+000 98 56 31
-3.178945e+000 -1.674573e-001 -8.810715e+000 137 106 83
-3.259173e+000 -1.905538e-002 -9.014649e+000 198 181 163
1.811854e+000 -1.671184e-001 -6.967933e+000 162 123 82
1.783845e+000 -2.071321e-001 -7.014676e+000 109 69 32
6.395904e-002 -1.414351e+000 -7.899439e+000 134 99 69
1.384926e+000 4.379639e-001 -7.477004e+000 100 63 30
1.419690e+000 6.802400e-001 -7.598038e+000 121 82 50
-3.059275e-001 -1.343853e+000 -8.318084e+000 65 61 53
-2.417795e+000 -1.944820e+000 -8.160122e+000 121 104 78
-2.086076e+000 -1.866345e+000 -8.224695e+000 76 58 46
-1.862481e+000 -1.907499e+000 -8.482951e+000 121 95 72
-2.139657e+000 -1.845867e+000 -8.653298e+000 106 79 58
-2.580596e+000 -1.816767e+000 -8.461466e+000 114 79 53
-2.512958e+000 -1.832452e+000 -8.482614e+000 99 75 64
-2.132286e+000 -1.868880e+000 -8.673745e+000 73 45 29
-2.098209e+000 -1.852013e+000 -8.688037e+000 132 103 85
-2.117507e+000 -1.821329e+000 -8.727192e+000 83 47 31
-1.414896e+000 -1.733352e+000 -8.989663e+000 150 125 105
-2.988563e+000 -1.189952e+000 -8.359883e+000 71 44 23
-2.687243e+000 -1.581429e+000 -8.601234e+000 145 109 77
-2.768828e+000 -1.559676e+000 -8.721971e+000 160 125 103
-2.224169e+000 -1.603544e+000 -9.055123e+000 96 60 38
-1.354690e+000 -1.497450e+000 -9.485624e+000 117 109 114
-1.120536e+000 -1.549568e+000 -9.614294e+000 105 81 59
-2.672986e+000 -1.553539e+000 -8.829811e+000 136 99 71
-2.339783e+000 -1.666634e+000 -9.054575e+000 114 75 49
-2.246227e+000 -1.570473e+000 -9.163471e+000 96 59 33
-1.304827e+000 -1.425439e+000 -9.608704e+000 147 136 132
-3.037936e+000 -1.154036e+000 -8.849594e+000 184 146 107
-2.963085e+000 -1.273885e+000 -8.886029e+000 178 136 96
-2.920624e+000 -1.314221e+000 -8.910821e+000 139 93 54
-2.562624e+000 -1.449854e+000 -9.180694e+000 172 135 105
-2.562624e+000 -1.449854e+000 -9.180694e+000 172 135 105
-2.450832e+000 -1.542407e+000 -9.228843e+000 128 85 54
-2.301135e+000 -1.520956e+000 -9.356679e+000 148 112 88
-2.447004e+000 -1.374916e+000 -9.379723e+000 144 103 68
-2.691298e+000 -1.124387e+000 -9.394967e+000 128 87 69
-3.235620e+000 -5.528751e-001 -9.094286e+000 168 119 86
-3.098431e+000 -4.985918e-001 -9.364392e+000 138 98 72
-2.491361e+000 -6.904426e-001 -9.804303e+000 166 133 105
-2.400232e+000 -6.575165e-001 -9.884026e+000 152 120 97
1.560362e+000 1.288192e-001 -7.064642e+000 141 99 60
1.496395e+000 1.015112e-001 -7.121433e+000 141 101 65
1.629238e+000 -1.552616e-002 -7.108358e+000 173 140 109
1.679660e+000 -3.344948e-002 -7.126329e+000 93 53 27
9.966371e-001 -1.830274e+000 -8.036719e+000 78 54 41
-1.445948e-001 -1.790287e+000 -8.192969e+000 15 9 12
-1.760291e+000 -1.838083e+000 -8.391136e+000 64 38 23
-1.773120e+000 -1.890476e+000 -8.533478e+000 132 100 79
-1.580181e+000 -1.835631e+000 -8.761752e+000 158 135 122
-2.693101e+000 -1.856854e+000 -8.390869e+000 101 63 32
-2.500095e+000 -1.735106e+000 -8.650228e+000 127 89 66
-2.790891e+000 -1.579970e+000 -8.623934e+000 157 118 87
-2.724094e+000 -1.532122e+000 -8.687448e+000 96 60 37
-2.814032e+000 -1.563755e+000 -8.695743e+000 165 131 102
-2.814032e+000 -1.563755e+000 -8.695743e+000 165 131 102
-2.469505e+000 -1.693313e+000 -8.918110e+000 150 113 86
-1.105436e+000 -1.466914e+000 -9.516258e+000 104 78 64
-2.739635e+000 -1.414552e+000 -8.802977e+000 124 82 60
-1.295133e+000 -1.527288e+000 -9.591093e+000 129 102 82
-3.007164e+000 -1.282382e+000 -8.804894e+000 140 96 61
-2.591831e+000 -1.534212e+000 -9.138625e+000 158 120 90
-2.089088e+000 -1.482356e+000 -9.480278e+000 125 98 79
-1.895682e+000 -1.340238e+000 -9.526617e+000 92 64 50
-1.858360e+000 -1.437949e+000 -9.547628e+000 97 61 39
-1.867887e+000 -1.363120e+000 -9.633857e+000 139 111 89
-2.794762e+000 -1.278737e+000 -9.172608e+000 108 63 34
-3.188396e+000 -6.081666e-001 -8.948172e+000 142 106 75
-2.952961e+000 -1.035396e+000 -9.091173e+000 131 82 47
-1.485509e+000 -9.660438e-001 -9.928734e+000 97 75 64
-1.125196e+000 -6.695963e-001 -1.022540e+001 152 147 153
-3.203670e+000 -2.758421e-002 -9.046984e+000 160 124 86
-3.173313e+000 -5.055011e-001 -9.306260e+000 126 89 63
1.355643e+000 -1.881681e+000 -7.913727e+000 37 22 22
4.270717e-001 -1.868646e+000 -7.943286e+000 144 109 77
1.163159e+000 -1.942184e+000 -8.196687e+000 29 15 12
9.242819e-001 -1.963171e+000 -8.334856e+000 25 11 10
-7.352763e-001 -1.589062e+000 -8.705079e+000 139 138 141
-1.818152e+000 -1.880063e+000 -8.431186e+000 68 47 29
-1.994841e+000 -1.898921e+000 -8.648725e+000 132 99 83
-1.694380e+000 -1.796682e+000 -8.840503e+000 92 64 48
-2.672652e+000 -1.870718e+000 -8.418541e+000 135 97 61
-2.874002e+000 -1.280317e+000 -8.374554e+000 144 112 75
-2.827505e+000 -1.555608e+000 -8.481449e+000 133 95 58
-2.597808e+000 -1.596799e+000 -8.636264e+000 143 104 73
-2.454588e+000 -1.761039e+000 -8.919125e+000 92 58 31
-2.412720e+000 -1.630305e+000 -8.957045e+000 98 64 39
-2.652156e+000 -1.545785e+000 -9.098888e+000 164 130 95
-2.555128e+000 -1.591097e+000 -9.106550e+000 111 71 45
-2.399431e+000 -1.495180e+000 -9.136257e+000 113 71 46
-3.134262e+000 -5.748478e-001 -8.667289e+000 30 18 18
-3.016121e+000 -1.056828e+000 -8.782405e+000 187 151 113
-1.811068e+000 -1.434788e+000 -9.573704e+000 140 105 78
1.689606e+000 1.205323e-001 -6.785573e+000 210 193 162
-7.900652e-001 -1.414322e+000 -8.758365e+000 15 13 14
-7.982571e-001 -1.559969e+000 -8.807952e+000 22 21 22
-2.639006e+000 -1.890238e+000 -8.343619e+000 69 33 11
-2.329229e+000 -1.743170e+000 -8.624652e+000 134 97 70
-2.889764e+000 -1.276192e+000 -8.316891e+000 59 33 20
-1.462143e+000 -1.710473e+000 -9.166297e+000 142 121 105
1.213796e+000 -8.544569e-001 -1.027435e+001 73 76 91
-1.099659e+000 -1.509916e+000 -9.474884e+000 50 27 22
-3.043839e+000 -1.180297e+000 -8.564039e+000 177 146 107
-2.522323e+000 -1.686436e+000 -9.006470e+000 151 119 94
-2.055399e+000 -1.634501e+000 -9.298030e+000 153 125 101
2.160463e-001 -1.097474e+000 -1.027142e+001 94 97 114
-2.468941e+000 -1.324987e+000 -9.280330e+000 145 99 65
-2.914051e+000 -9.601898e-001 -9.443501e+000 115 69 44
-2.127100e+000 -8.201536e-001 -9.922389e+000 160 142 119
-2.308047e+000 -1.119520e-001 -1.004963e+001 81 64 46
-2.722530e+000 -1.750173e+000 -8.292450e+000 101 59 34
-1.821073e+000 -1.828770e+000 -8.820652e+000 150 122 99
-1.032020e+000 -1.484510e+000 -9.058589e+000 19 15 22
-2.372190e+000 -1.735007e+000 -8.797204e+000 135 95 55
-2.292277e+000 -1.572579e+000 -9.170355e+000 125 86 55
-1.225998e+000 -1.472131e+000 -9.661356e+000 121 93 71
-3.014841e+000 -9.692431e-001 -9.115886e+000 118 70 39
-3.014841e+000 -9.692431e-001 -9.115886e+000 118 70 39
-2.840401e+000 -1.083334e+000 -9.246060e+000 85 42 34
-2.506893e+000 -1.067961e+000 -9.500151e+000 69 41 33
-1.324345e+000 -1.673118e+000 -9.170042e+000 79 56 47
-1.722569e+000 -1.667317e+000 -9.333555e+000 148 114 87
-3.030297e+000 -1.058893e+000 -8.510322e+000 25 16 11
-3.006440e+000 -1.100086e+000 -8.789017e+000 182 146 110
-2.837863e+000 -1.317450e+000 -9.078767e+000 192 158 123
-2.852608e+000 -1.346225e+000 -9.080091e+000 192 158 123
-2.132315e+000 -1.153373e+000 -9.642153e+000 32 14 10
-1.103116e+000 -6.567192e-001 -1.029911e+001 173 173 175
-1.087886e+000 -5.742651e-001 -1.040390e+001 13 10 16
-3.212554e+000 -4.780917e-001 -9.307804e+000 145 105 79
-3.356882e-001 -1.855288e+000 -8.758882e+000 102 103 107
-1.360812e+000 -1.594022e+000 -9.241561e+000 137 120 108
-2.116771e+000 -1.638389e+000 -9.165200e+000 162 127 95
-4.268005e-001 -1.751167e+000 -8.780326e+000 155 151 150
-2.473757e-001 -1.957994e+000 -8.594300e+000 144 141 148
-2.242890e+000 -1.718544e+000 -8.557050e+000 130 99 75
-5.767762e-001 -2.354976e-001 -1.063570e+001 131 134 150
-2.973381e+000 -2.721153e-001 -9.390392e+000 180 140 107
2.684233e-001 -1.711846e+000 -8.201736e+000 12 7 11
2.684233e-001 -1.711846e+000 -8.201736e+000 12 7 11
-1.249004e+000 -1.683530e+000 -7.946725e+000 201 189 163
-2.128454e+000 -1.263017e+000 -9.624638e+000 66 42 40
-1.266439e-001 -1.597608e+000 -9.358410e+000 130 130 138
-1.893176e+000 5.103922e+001 -1.132791e+001 122 110 123
-9.098806e-001 4.969478e+001 -1.484332e+001 44 35 34
1.171477e+000 5.039417e+001 -1.330461e+001 33 27 30
6.313580e+000 2.683424e+001 2.672267e+000 63 61 55
7.445949e+000 3.450509e+001 2.830705e+000 109 109 122
6.597027e+000 2.758562e+001 2.089291e+000 50 31 30
7.049018e+000 2.644856e+001 1.944119e+000 106 97 92
6.942849e+000 3.370525e+001 2.450135e+000 127 129 145
7.040799e+000 2.647296e+001 2.109126e+000 68 59 54
7.853999e+000 3.795852e+001 3.058776e+000 134 133 147
4.145126e+000 2.543259e+001 4.219025e+000 70 59 63
3.801401e+000 2.544577e+001 3.322046e+000 50 43 50
9.151433e+000 2.702634e+001 1.955527e+000 72 59 59
6.883825e+000 2.650908e+001 2.209579e+000 66 55 51
6.932162e+000 3.229418e+001 2.490573e+000 114 113 125
6.465229e+000 3.429083e+001 1.996673e+000 107 106 112
2.258551e+000 2.376094e+001 -5.057801e-001 122 119 127
4.216668e+000 3.584853e+001 -1.389616e+000 139 132 139
4.750435e+000 2.645487e+001 4.280541e+000 58 47 51
5.034127e+000 3.627962e+001 -4.871871e-001 115 112 119
-3.021904e+000 -1.173576e+000 -8.717204e+000 186 148 109
5.753725e+000 2.643820e+001 2.311871e+000 176 166 139
6.713556e+000 3.350413e+001 2.386584e+000 104 107 114
8.612487e+000 2.735398e+001 1.556510e+000 35 33 38
-2.799990e+000 -1.469923e+000 -8.665847e+000 162 119 87
7.276004e+000 2.777719e+001 8.851992e+000 143 131 117
1.193383e+001 3.593289e+001 9.869110e+000 43 41 46
7.469084e+000 3.351593e+001 3.058087e+000 104 103 109
-6.999229e-001 -1.635390e+000 -8.807314e+000 144 142 143
4.810981e+000 3.705968e+001 -1.449059e+000 140 135 138
-1.045201e+000 -6.399372e-001 -1.034857e+001 139 134 140
1.264341e+001 2.771613e+001 7.891952e+000 180 169 165
1.488878e+001 2.664205e+001 6.151471e+000 120 119 137
1.112148e+001 3.574348e+001 1.015366e+001 49 45 52
4.116077e+000 2.559384e+001 4.076180e+000 75 67 65
9.461415e+000 2.698660e+001 1.824282e+000 60 46 46
-2.687434e+000 -1.544276e+000 -8.749972e+000 111 73 50
1.272284e+001 2.765036e+001 7.676996e+000 118 113 117
1.463400e+001 2.707139e+001 6.474273e+000 122 117 130
1.287000e+001 2.769643e+001 7.188306e+000 150 146 147
8.025697e+000 3.051513e+001 1.018927e+001 47 37 35
6.954642e+000 2.695527e+001 1.514907e+000 38 22 22
-9.162594e-001 -8.293484e-001 -1.030872e+001 116 115 131
9.608425e+000 2.855653e+001 8.544241e+000 116 105 110
9.608425e+000 2.855653e+001 8.544241e+000 116 105 110
8.074630e+000 2.909276e+001 8.718710e+000 50 42 36
1.256024e+001 2.833318e+001 6.618046e+000 139 134 137
1.362749e+001 2.939668e+001 5.905560e+000 22 17 23
1.049989e+001 3.608184e+001 1.054008e+001 91 85 93
1.049989e+001 3.608184e+001 1.054008e+001 91 85 93
1.219332e+001 3.547030e+001 9.568138e+000 67 64 73
1.218124e+001 3.542799e+001 9.548256e+000 67 64 73
1.283703e+001 2.845408e+001 5.904005e+000 151 147 143
-8.485988e-002 -1.987887e+000 -8.551984e+000 25 22 22
1.009605e+000 -1.442315e+000 -9.025097e+000 31 24 19
-2.345549e+000 -1.906347e+000 -8.149690e+000 152 132 105
-2.487568e+000 -1.854847e+000 -8.399642e+000 100 82 75
-2.441332e+000 -1.883466e+000 -8.366144e+000 77 60 52
-2.455306e+000 -1.830448e+000 -8.410122e+000 30 17 15
-1.547320e+000 -1.748414e+000 -9.041985e+000 143 111 90
-2.742530e+000 -1.498069e+000 -8.515487e+000 139 100 71
7.303115e-001 -2.098469e+000 -8.417179e+000 116 97 81
-2.479835e+000 -1.784868e+000 -8.471692e+000 109 88 80
6.970886e+000 2.667326e+001 1.983778e+000 65 57 54
-1.016547e+000 -1.530937e+000 -9.611153e+000 92 69 56
-2.828744e+000 -1.345750e+000 -8.723040e+000 128 87 59
-1.829347e+000 -1.571957e+000 -9.472328e+000 181 156 135
-1.219774e+000 -1.501001e+000 -9.650994e+000 139 113 91
-1.049705e+000 -1.223131e+000 -9.905036e+000 79 59 49
-2.649122e+000 -1.407336e+000 -9.159467e+000 169 130 99
-1.359696e+000 -1.108940e+000 -9.901594e+000 101 80 62
-1.432669e+000 -9.458502e-001 -9.989635e+000 120 93 72
-5.275454e-001 -1.184834e-001 -1.076277e+001 105 104 115
-2.771317e-003 -2.086174e+000 -8.416835e+000 14 5 7
-1.235576e-001 -2.057525e+000 -8.453071e+000 33 27 27
-7.039607e-002 -2.070108e+000 -8.414850e+000 13 5 9
3.819776e+000 2.616490e+001 3.291726e+000 54 48 46
-2.794790e+000 -1.456881e+000 -8.348791e+000 113 69 42
-2.308628e+000 -1.750109e+000 -8.816630e+000 84 41 21
-2.182247e+000 -1.795713e+000 -8.823210e+000 146 105 85
6.409777e+000 3.204098e+001 3.659819e+000 122 118 119
-2.815912e+000 -1.488804e+000 -8.613962e+000 163 127 91
-2.307010e+000 -1.688873e+000 -8.947482e+000 158 121 92
-9.686289e-001 -1.324207e+000 -9.816562e+000 111 93 84
-2.749343e+000 -1.392240e+000 -8.909500e+000 168 132 100
-2.762341e+000 -1.413957e+000 -8.914562e+000 168 132 100
-2.915077e+000 -1.292891e+000 -8.982580e+000 163 128 97
-2.789067e+000 -1.270687e+000 -9.173338e+000 107 61 35
-1.158462e+000 -9.915731e-001 -1.005661e+001 170 160 156
-2.631096e+000 -1.022146e+000 -9.505893e+000 105 62 41
-1.929239e+000 -8.514359e-001 -1.000786e+001 112 86 69
-2.357024e+000 -7.652926e-001 -9.887962e+000 176 145 124
-3.119255e+000 -2.961593e-001 -9.397464e+000 131 92 61
7.116791e-001 -2.095672e+000 -8.498219e+000 131 104 84
3.599176e-001 -1.943443e+000 -8.758366e+000 71 58 50
-2.017923e+000 -1.808062e+000 -8.977829e+000 101 66 36
-9.869950e-001 -1.533593e+000 -9.652079e+000 15 11 19
-2.843153e+000 -1.255384e+000 -8.658727e+000 114 74 45
-2.859486e+000 -1.097283e+000 -9.095486e+000 116 70 34
-1.408233e+000 -1.093731e+000 -9.889856e+000 138 119 104
-2.772687e+000 -1.128462e+000 -9.312810e+000 90 45 22
-2.723378e+000 -1.040656e+000 -9.359615e+000 83 40 18
-3.209795e+000 -4.463802e-001 -9.012260e+000 162 119 86
-2.012000e+000 -7.766904e-001 -1.001856e+001 89 64 46
-3.197754e+000 1.118726e-002 -9.206002e+000 162 123 82
-2.998352e+000 -4.796116e-001 -9.567844e+000 171 128 98
-2.213176e+000 -1.696534e+000 -9.024677e+000 148 112 80
1.090723e+000 -9.777727e-001 -1.031310e+001 10 4 8
-2.843148e+000 -1.390160e+000 -8.637481e+000 170 134 102
-9.101674e-001 -1.486655e+000 -9.701639e+000 112 115 122
-2.746903e+000 -1.344077e+000 -8.856964e+000 118 71 43
-2.604149e+000 -1.476110e+000 -8.897947e+000 175 140 108
-2.604149e+000 -1.476110e+000 -8.897947e+000 175 140 108
1.018043e-001 -1.025616e+000 -1.046414e+001 82 84 97
2.751682e-001 -4.904604e-001 -1.079803e+001 14 9 9
-2.883132e+000 -1.051619e+000 -9.284180e+000 96 53 35
-2.883132e+000 -1.051619e+000 -9.284180e+000 96 53 35
-1.903390e+000 -9.707516e-001 -9.887646e+000 141 120 104
2.899195e-001 -2.084269e+000 -8.558585e+000 37 21 16
-4.314192e-001 -1.555578e+000 -8.414467e+000 71 66 63
-4.314192e-001 -1.555578e+000 -8.414467e+000 71 66 63
-2.692276e+000 -1.447227e+000 -8.826167e+000 169 134 102
-8.866158e-001 -1.060865e+000 -1.006964e+001 10 12 19
-8.866158e-001 -1.060865e+000 -1.006964e+001 10 12 19
-2.756967e+000 -1.105083e+000 -9.347827e+000 85 41 21
-2.591728e+000 -9.937240e-001 -9.613429e+000 105 72 53
-3.298971e+000 2.498314e-001 -9.221261e+000 62 29 21
-2.449944e+000 -1.847753e+000 -8.271281e+000 59 32 23
-2.915892e-001 -1.738067e+000 -9.517805e+000 137 136 143
-3.009913e+000 -1.050605e+000 -8.961892e+000 173 130 88
-2.159880e-001 -1.456072e+000 -9.857814e+000 127 130 135
5.348182e-001 -2.122491e+000 -8.503795e+000 141 105 71
5.348182e-001 -2.122491e+000 -8.503795e+000 141 105 71
5.514242e-001 -2.009856e+000 -8.627613e+000 124 92 61
1.834719e+000 -1.826664e-001 -6.776885e+000 208 189 159
8.058729e-001 -1.941691e+000 -8.305944e+000 79 56 54
-1.223905e-001 -2.025934e+000 -8.524072e+000 25 14 18
2.790185e-001 -2.105986e+000 -8.642795e+000 166 131 95
6.810076e-001 -1.997425e+000 -8.665477e+000 112 88 74
1.462585e-002 -1.956356e+000 -8.583424e+000 130 124 126
-2.377853e+000 -1.920766e+000 -8.143013e+000 189 168 147
-2.391782e+000 -1.905100e+000 -8.154662e+000 129 108 85
-2.391782e+000 -1.905100e+000 -8.154662e+000 129 108 85
-2.422751e+000 -1.904303e+000 -8.322636e+000 86 72 68
-2.422751e+000 -1.904303e+000 -8.322636e+000 86 72 68
-2.454036e+000 -1.900124e+000 -8.327505e+000 38 20 17
-2.010451e+000 -1.751311e+000 -8.409104e+000 74 53 50
-1.872785e+000 -1.821454e+000 -8.545770e+000 152 118 92
-1.583371e+000 -1.839356e+000 -8.619514e+000 183 148 119
-2.577836e+000 -1.874984e+000 -8.411741e+000 148 120 99
-2.535415e+000 -1.877354e+000 -8.432926e+000 111 90 81
-2.588767e+000 -1.852229e+000 -8.453990e+000 34 6 0
-2.444001e+000 -1.887495e+000 -8.413540e+000 57 43 42
-2.232275e+000 -1.739572e+000 -8.513810e+000 143 108 84
-2.141465e+000 -1.808106e+000 -8.616040e+000 143 106 77
-1.944321e+000 -1.878100e+000 -8.607714e+000 85 48 22
-1.969765e+000 -1.872373e+000 -8.641874e+000 152 116 88
-1.701226e+000 -1.868797e+000 -8.750434e+000 171 141 111
-8.302242e-001 -1.535798e+000 -8.868042e+000 35 31 28
-8.302242e-001 -1.535798e+000 -8.868042e+000 35 31 28
-2.700582e+000 -1.739290e+000 -8.488611e+000 131 89 64
-2.543885e+000 -1.761502e+000 -8.505057e+000 67 30 14
-2.258769e+000 -1.748149e+000 -8.567668e+000 174 134 102
-2.108348e+000 -1.865351e+000 -8.717709e+000 88 47 25
-2.153249e+000 -1.834376e+000 -8.719720e+000 152 107 76
-2.176064e+000 -1.887722e+000 -8.813558e+000 94 50 25
-1.661879e+000 -1.806915e+000 -8.956125e+000 143 104 73
-2.807690e+000 -1.549062e+000 -8.420403e+000 93 48 15
-2.663544e+000 -1.627701e+000 -8.505345e+000 150 111 79
-2.619925e+000 -1.627089e+000 -8.546299e+000 99 58 36
-2.103471e+000 -1.818188e+000 -8.910237e+000 165 122 80
-2.745521e+000 -1.579456e+000 -8.515233e+000 155 115 79
-2.726985e+000 -1.519282e+000 -8.501631e+000 89 46 12
-2.823134e+000 -1.493586e+000 -8.541545e+000 140 95 56
-2.742425e+000 -1.551071e+000 -8.600291e+000 98 54 17
-2.571911e+000 -1.579280e+000 -8.677888e+000 127 83 44
-2.571911e+000 -1.579280e+000 -8.677888e+000 127 83 44
-2.488088e+000 -1.587283e+000 -8.801126e+000 208 170 131
-2.272878e+000 -1.716068e+000 -8.893341e+000 112 68 32
-2.256881e+000 -1.722235e+000 -8.933400e+000 116 71 42
-2.248382e+000 -1.713114e+000 -8.929816e+000 116 71 42
-2.213332e+000 -1.646553e+000 -8.980872e+000 133 90 54
-1.781177e+000 -1.764474e+000 -9.118930e+000 177 133 104
-1.500898e+000 -1.714677e+000 -9.194943e+000 139 113 90
-1.480763e+000 -1.700286e+000 -9.233030e+000 93 71 59
-1.488908e+000 -1.707873e+000 -9.235648e+000 93 71 59
-2.851378e+000 -1.417458e+000 -8.559215e+000 118 69 32
-2.843607e+000 -1.444194e+000 -8.628787e+000 199 159 123
-2.834846e+000 -1.478019e+000 -8.675255e+000 132 89 47
-2.672423e+000 -1.548344e+000 -8.770329e+000 182 138 99
-2.672423e+000 -1.548344e+000 -8.770329e+000 182 138 99
-2.713706e+000 -1.517723e+000 -8.747762e+000 187 145 106
-2.620930e+000 -1.631380e+000 -8.803511e+000 140 97 60
-2.234342e+000 -1.610453e+000 -9.062664e+000 109 59 36
-2.258039e+000 -1.632592e+000 -9.107610e+000 189 143 108
-2.234603e+000 -1.674014e+000 -9.173191e+000 218 177 130
-2.069609e+000 -1.708725e+000 -9.265524e+000 175 140 108
1.006672e+000 -1.231811e+000 -1.008971e+001 90 89 103
-3.010823e+000 -1.250851e+000 -8.478144e+000 77 47 21
-3.012130e+000 -1.231507e+000 -8.493204e+000 182 154 123
-2.987951e+000 -1.344152e+000 -8.619686e+000 192 155 115
-2.792518e+000 -1.555886e+000 -8.929742e+000 186 147 106
-2.494157e+000 -1.575288e+000 -9.110443e+000 177 132 93
-2.282584e+000 -1.585236e+000 -9.099208e+000 178 135 96
-2.225902e+000 -1.561512e+000 -9.087830e+000 124 75 42
-2.222433e+000 -1.529397e+000 -9.104639e+000 120 75 41
-2.208753e+000 -1.620990e+000 -9.308021e+000 123 82 50
-1.863302e+000 -1.593599e+000 -9.454948e+000 91 64 39
-1.317793e+000 -1.460074e+000 -9.604107e+000 165 147 136
-1.182998e+000 -1.525012e+000 -9.668563e+000 106 77 63
-2.704653e+000 -1.427207e+000 -8.944464e+000 155 106 68
-2.639839e+000 -1.483465e+000 -9.104032e+000 187 144 109
-2.415591e+000 -1.562339e+000 -9.292359e+000 133 84 43
-2.309104e+000 -1.533395e+000 -9.308667e+000 109 64 28
-2.369768e+000 -1.543123e+000 -9.339946e+000 172 123 86
-2.098216e+000 -1.577407e+000 -9.376102e+000 160 126 92
-1.212829e+000 -1.360596e+000 -9.701678e+000 95 68 49
-1.212047e+000 -1.352574e+000 -9.754580e+000 125 97 83
-1.062470e+000 -1.297944e+000 -9.744894e+000 59 31 20
-2.959142e+000 -1.245829e+000 -8.829902e+000 162 114 68
-2.978166e+000 -1.229999e+000 -8.833660e+000 205 160 113
-2.664771e+000 -1.323835e+000 -9.054245e+000 195 152 117
-2.677459e+000 -1.360159e+000 -9.121620e+000 128 80 46
-2.628844e+000 -1.467447e+000 -9.212107e+000 144 94 54
-2.706685e+000 -1.397816e+000 -9.214493e+000 181 136 97
-2.327129e+000 -1.489814e+000 -9.374528e+000 150 105 75
-2.307274e+000 -1.477050e+000 -9.395218e+000 79 36 19
-2.309639e+000 -1.489962e+000 -9.420915e+000 163 123 98
-1.982252e+000 -1.403879e+000 -9.516755e+000 118 85 66
-1.051452e+000 -1.159080e+000 -9.811314e+000 86 51 46
-1.059924e+000 -1.133273e+000 -9.819549e+000 86 56 45
-9.708280e-001 -1.270699e+000 -9.893484e+000 85 66 56
-3.149407e+000 -9.153915e-001 -8.716439e+000 152 132 107
-3.123367e+000 -9.133364e-001 -8.715505e+000 79 55 48
-3.101875e+000 -9.269128e-001 -8.796936e+000 132 89 46
-2.802131e+000 -1.338827e+000 -9.144318e+000 166 122 83
-2.760944e+000 -1.272948e+000 -9.149589e+000 160 114 75
-2.615519e+000 -1.273414e+000 -9.257777e+000 123 73 46
-2.515884e+000 -1.337316e+000 -9.388948e+000 102 55 29
-1.409130e+000 -1.189836e+000 -9.765748e+000 42 27 7
-1.375045e+000 -1.191256e+000 -9.793910e+000 157 139 117
-1.383329e+000 -1.231468e+000 -9.815197e+000 87 68 53
-9.510714e-001 -1.086361e+000 -9.955137e+000 68 45 31
-2.967316e+000 -1.831310e-001 -8.385519e+000 90 59 29
-3.037651e+000 -1.074990e+000 -9.083871e+000 180 128 85
-2.155598e+000 -1.306063e+000 -9.672484e+000 81 62 60
-1.666396e+000 -1.097203e+000 -9.814702e+000 45 28 26
-1.411242e+000 -1.020842e+000 -9.930639e+000 148 121 100
-3.206704e+000 -8.874135e-001 -9.022090e+000 182 140 98
-2.799613e+000 -1.093037e+000 -9.385302e+000 131 86 56
-1.558544e+000 -9.879190e-001 -9.933990e+000 59 36 23
-3.077515e+000 -8.160629e-001 -9.171791e+000 83 31 9
-2.631222e+000 -1.113630e+000 -9.585120e+000 64 33 13
-3.237076e+000 -4.813442e-001 -9.105283e+000 192 139 107
-3.209684e+000 -8.371728e-001 -9.217293e+000 173 123 93
-3.201428e+000 -5.464490e-001 -9.159645e+000 105 56 24
-3.215198e+000 -6.948777e-001 -9.257568e+000 80 36 10
-3.171750e+000 -7.621949e-001 -9.219778e+000 107 55 33
-3.112756e+000 -7.879047e-001 -9.272898e+000 182 134 97
-3.052012e+000 -7.706399e-001 -9.298434e+000 100 49 26
-3.060082e+000 -9.978414e-001 -9.491472e+000 117 68 38
-2.387974e+000 -7.262123e-001 -9.934731e+000 173 144 103
-2.204825e+000 -7.111633e-001 -9.954365e+000 96 63 38
-2.135071e+000 -7.378876e-001 -1.001524e+001 188 158 132
-2.227587e+000 -4.054603e-001 -1.000293e+001 54 27 15
-2.765392e+000 -4.069907e-001 -9.783499e+000 153 117 86
-2.392942e+000 -2.953762e-001 -9.997827e+000 73 48 29
-2.240716e+000 -3.036538e-001 -1.005126e+001 118 94 81
-3.145931e+000 5.306634e-002 -9.431010e+000 137 103 73
-2.117474e+000 -1.886507e-001 -1.016146e+001 207 193 167
-3.645847e-001 8.996041e-001 -1.085750e+001 67 50 41
-8.923388e-001 1.150750e+000 -1.073693e+001 108 74 47
-8.288816e-001 9.576651e-001 -1.076324e+001 64 47 33
-8.472194e-001 1.123756e+000 -1.076644e+001 78 54 35
-5.249076e-001 1.583432e+000 -1.099557e+001 127 108 93
-5.249076e-001 1.583432e+000 -1.099557e+001 127 108 93
7.248887e-001 -2.023565e+000 -8.032754e+000 135 90 63
8.318123e-001 -2.044311e+000 -8.388199e+000 134 115 98
1.992775e-001 -2.081653e+000 -8.324069e+000 41 32 33
-1.481505e-001 -2.000521e+000 -8.731615e+000 129 127 139
-2.338826e+000 -1.883376e+000 -8.231432e+000 21 13 11
-1.770028e+000 -1.842677e+000 -8.400813e+000 119 79 53
1.680379e+000 -1.158806e+000 -8.888028e+000 14 9 15
-1.877794e+000 -1.843722e+000 -8.522118e+000 80 50 26
-1.896265e+000 -1.889858e+000 -8.555773e+000 169 134 106
1.198387e+000 -1.374312e+000 -9.053178e+000 20 14 25
-2.755942e+000 -1.741010e+000 -8.283136e+000 123 72 41
-2.737967e+000 -1.775920e+000 -8.326774e+000 102 58 29
-2.648948e+000 -1.853600e+000 -8.435993e+000 139 99 70
-2.553963e+000 -1.913092e+000 -8.388406e+000 146 119 101
-2.553963e+000 -1.913092e+000 -8.388406e+000 146 119 101
-2.472351e+000 -1.810583e+000 -8.424318e+000 23 11 16
-2.405171e+000 -1.841817e+000 -8.413932e+000 16 4 6
-1.999021e+000 -1.871544e+000 -8.630905e+000 47 17 10
-1.827189e+000 -1.865728e+000 -8.781433e+000 159 127 95
-1.673689e+000 -1.811935e+000 -8.793825e+000 182 151 131
-1.554415e+000 -1.808554e+000 -8.755063e+000 188 159 141
-4.141005e-002 -1.868098e+000 -9.372675e+000 71 72 85
-2.631587e+000 -1.772496e+000 -8.464342e+000 136 100 72
-2.479874e+000 -1.773143e+000 -8.508394e+000 61 33 30
-2.239992e+000 -1.815426e+000 -8.672122e+000 151 101 66
-2.080205e+000 -1.838900e+000 -8.735215e+000 158 114 86
-2.046488e+000 -1.851623e+000 -8.866965e+000 119 76 42
-2.765071e+000 -1.570036e+000 -8.461507e+000 134 99 68
-2.694662e+000 -1.516624e+000 -8.454386e+000 74 35 19
-2.694662e+000 -1.516624e+000 -8.454386e+000 74 35 19
-2.567952e+000 -1.664653e+000 -8.523814e+000 130 89 69
-2.456838e+000 -1.652693e+000 -8.691894e+000 74 28 7
-2.456838e+000 -1.652693e+000 -8.691894e+000 74 28 7
-2.203012e+000 -1.809854e+000 -8.783832e+000 94 47 17
-2.144634e+000 -1.810181e+000 -8.807688e+000 91 47 16
-2.205707e+000 -1.735517e+000 -8.862334e+000 157 110 80
-2.821116e+000 -1.444237e+000 -8.379085e+000 144 98 62
-2.756340e+000 -1.553314e+000 -8.577410e+000 173 130 88
-2.721997e+000 -1.561114e+000 -8.626805e+000 170 127 85
-2.730782e+000 -1.540759e+000 -8.650794e+000 178 134 95
-2.730782e+000 -1.540759e+000 -8.650794e+000 178 134 95
-2.148822e+000 -1.762355e+000 -8.946972e+000 176 135 91
-1.705179e+000 -1.726766e+000 -9.178979e+000 197 153 115
-1.714238e+000 -1.735762e+000 -9.182366e+000 197 153 115
-1.677104e+000 -1.710399e+000 -9.260016e+000 125 82 49
-1.637125e+000 -1.707931e+000 -9.274451e+000 178 145 111
-1.333010e+000 -1.656519e+000 -9.233372e+000 163 144 130
1.122369e+000 -1.231009e+000 -1.004769e+001 12 4 11
-2.871090e+000 -1.385815e+000 -8.486754e+000 125 81 43
-2.775149e+000 -1.498104e+000 -8.760935e+000 192 151 119
-2.572787e+000 -1.620289e+000 -8.801412e+000 201 159 119
-2.572787e+000 -1.620289e+000 -8.801412e+000 201 159 119
-2.203318e+000 -1.675473e+000 -9.095903e+000 121 74 46
-2.203318e+000 -1.675473e+000 -9.095903e+000 121 74 46
-1.849190e+000 -1.672931e+000 -9.197191e+000 106 67 47
-1.835397e+000 -1.668308e+000 -9.222041e+000 186 155 127
-3.002475e+000 -1.139945e+000 -8.365461e+000 152 121 93
-2.943127e+000 -1.391972e+000 -8.635657e+000 125 72 40
-2.572880e+000 -1.438540e+000 -8.905631e+000 194 152 114
-2.535734e+000 -1.546160e+000 -8.971635e+000 204 165 126
-2.542779e+000 -1.555172e+000 -8.975135e+000 204 165 126
-2.207337e+000 -1.581753e+000 -9.124419e+000 129 82 52
-2.238551e+000 -1.590526e+000 -9.212881e+000 187 144 103
-2.029840e+000 -1.693816e+000 -9.292644e+000 109 76 47
-2.004930e+000 -1.592521e+000 -9.388596e+000 168 131 104
-1.207336e+000 -1.469242e+000 -9.563512e+000 47 18 7
-2.967426e+000 -1.268298e+000 -8.674059e+000 198 163 124
-3.004298e+000 -1.212860e+000 -8.699359e+000 194 153 109
-3.005044e+000 -1.210984e+000 -8.744966e+000 149 107 67
-3.005044e+000 -1.210984e+000 -8.744966e+000 149 107 67
-2.854240e+000 -1.431113e+000 -8.880154e+000 184 143 98
-2.718549e+000 -1.518621e+000 -9.010035e+000 187 148 108
-2.709629e+000 -1.411673e+000 -8.993360e+000 197 159 120
-2.710943e+000 -1.413320e+000 -8.993801e+000 197 159 120
-2.607048e+000 -1.463206e+000 -9.007593e+000 137 92 57
-2.357540e+000 -1.471159e+000 -9.293196e+000 185 137 97
-2.067015e+000 -1.526920e+000 -9.391607e+000 115 79 56
-2.226096e+000 -1.602628e+000 -9.401192e+000 169 133 98
-1.789928e+000 -1.527159e+000 -9.567490e+000 170 151 136
-1.301269e+000 -1.383382e+000 -9.708024e+000 74 46 30
-2.988948e+000 -1.181264e+000 -8.845572e+000 154 106 60
-3.030438e+000 -1.203519e+000 -8.897703e+000 194 150 104
-2.606734e+000 -1.065599e+000 -8.903602e+000 179 127 87
-2.593637e+000 -1.374058e+000 -9.161701e+000 127 79 39
-1.412698e+000 -1.265519e+000 -9.756279e+000 46 32 27
-1.361138e+000 -1.293502e+000 -9.831840e+000 77 55 51
-4.250485e-001 -1.270033e+000 -1.021306e+001 98 101 110
1.067200e+000 -7.618265e-001 -1.044221e+001 14 9 18
-2.921048e+000 -1.234804e+000 -9.052562e+000 176 127 84
-2.874479e+000 -1.221695e+000 -9.059822e+000 129 77 37
-2.550481e+000 -1.292332e+000 -9.348603e+000 107 60 32
-2.539382e+000 -1.330825e+000 -9.372684e+000 165 118 92
-2.531434e+000 -1.322146e+000 -9.371199e+000 165 118 92
-2.188568e+000 -1.437388e+000 -9.545543e+000 66 34 21
-3.130099e+000 -5.605282e-001 -8.652018e+000 38 25 19
-3.035094e+000 -1.035833e+000 -9.091379e+000 141 85 46
-2.679086e+000 -1.226668e+000 -9.381076e+000 128 82 57
-1.885348e+000 -1.192069e+000 -9.699382e+000 39 20 16
-1.793997e+000 -1.192662e+000 -9.783213e+000 43 31 23
-1.793997e+000 -1.192662e+000 -9.783213e+000 43 31 23
-1.086985e+000 -1.013560e+000 -1.001207e+001 125 103 82
-1.011989e+000 -1.023621e+000 -1.006975e+001 98 84 73
-3.212697e+000 -7.172122e-001 -8.871671e+000 119 78 56
-3.096110e+000 -8.358048e-001 -9.040949e+000 116 68 32
-1.107613e+000 -7.821338e-001 -1.016713e+001 141 135 133
-3.204219e+000 -5.141239e-001 -8.930826e+000 56 24 18
-3.236318e+000 -5.020541e-001 -8.918750e+000 120 90 78
-3.223863e+000 -6.781070e-001 -8.971850e+000 114 72 33
-1.322398e+000 -6.727844e-001 -1.017509e+001 78 68 59
-1.322398e+000 -6.727844e-001 -1.017509e+001 78 68 59
-3.180086e+000 -6.998629e-001 -9.246862e+000 181 136 105
-2.998144e+000 -9.261176e-001 -9.494427e+000 150 103 73
-2.111194e+000 -9.771131e-001 -9.968198e+000 148 121 93
-1.888134e+000 -7.755447e-001 -1.004790e+001 90 65 44
-1.517452e+000 -6.149128e-001 -1.011830e+001 85 67 45
-2.435167e+000 -7.263723e-001 -9.882967e+000 116 81 54
-1.155544e+000 -4.304345e-001 -1.034933e+001 121 119 124
-2.692714e+000 -6.152614e-001 -9.770542e+000 90 53 26
-2.635305e+000 -5.016303e-001 -9.801577e+000 155 118 89
-2.602843e+000 -5.231743e-001 -9.856605e+000 121 83 54
-2.427014e+000 -4.574513e-001 -9.938533e+000 151 109 79
-2.010312e+000 -3.785470e-001 -1.009684e+001 48 33 27
-3.229274e+000 -7.056502e-002 -9.279770e+000 206 171 129
-3.038810e+000 -4.540664e-001 -9.585793e+000 159 116 91
-2.902683e+000 -4.938787e-001 -9.742966e+000 127 93 66
-2.757849e+000 -4.210495e-001 -9.807976e+000 129 87 58
-2.211034e+000 -3.585535e-001 -1.003179e+001 109 87 74
2.405265e-002 9.082532e-001 -1.080330e+001 79 76 82
-3.154666e+000 -6.889251e-002 -9.451446e+000 96 61 33
-3.154666e+000 -6.889251e-002 -9.451446e+000 96 61 33
-3.185769e+000 -6.552015e-002 -9.476019e+000 205 171 137
-3.351150e+000 2.500922e-001 -9.353990e+000 72 43 29
-3.305787e+000 2.066069e-001 -9.413215e+000 192 166 141
-2.747510e+000 2.336184e-001 -9.850947e+000 153 132 111
-5.928686e-001 9.031740e-001 -1.087313e+001 133 108 81
-3.394010e+000 2.428416e-001 -9.526108e+000 174 156 134
-3.329149e+000 2.504236e-001 -9.547819e+000 32 14 5
-5.833351e-001 2.098082e+000 -1.026103e+001 208 191 164
-7.219908e-001 1.916773e+000 -1.044519e+001 149 117 88
-8.602932e-001 1.012563e+000 -1.066938e+001 143 141 142
-1.080229e-001 1.597063e+000 -1.102446e+001 122 103 85
-7.481730e-001 1.832612e+000 -1.068675e+001 207 190 164
-7.252248e-001 1.626576e+000 -1.077889e+001 152 125 92
4.599103e-001 -2.040618e+000 -8.406836e+000 47 27 22
1.585412e+000 -3.618810e-002 -6.880179e+000 185 142 100
7.634373e-001 -1.994493e+000 -8.621991e+000 149 123 106
1.560134e+000 -9.414662e-002 -7.120577e+000 193 151 109
2.572652e-001 -1.951893e+000 -8.724179e+000 132 128 142
1.442318e+000 -1.172321e-001 -7.288788e+000 187 150 114
1.429030e+000 1.133933e-001 -7.309953e+000 171 121 81
-2.598370e+000 -1.914458e+000 -8.337060e+000 153 120 105
-1.967098e+000 -1.888464e+000 -8.537938e+000 140 109 90
-7.096126e-001 -1.374153e+000 -8.526471e+000 43 36 31
-2.684333e+000 -1.857104e+000 -8.363877e+000 147 101 63
-8.694994e-001 -1.486455e+000 -8.714124e+000 161 155 147
-5.056948e-002 -1.885330e+000 -9.334764e+000 135 134 142
-2.940123e+000 -1.587588e+000 -8.218463e+000 191 154 110
-2.642296e+000 -1.820059e+000 -8.447641e+000 68 29 12
-2.544054e+000 -1.684596e+000 -8.499083e+000 56 24 10
-2.429295e+000 -1.742142e+000 -8.522309e+000 108 78 62
-2.354940e+000 -1.721241e+000 -8.503663e+000 53 26 17
-2.007771e+000 -1.858055e+000 -8.722232e+000 167 124 89
-1.752576e+000 -1.776663e+000 -8.929792e+000 134 94 62
-1.673949e+000 -1.819623e+000 -8.923494e+000 179 142 108
1.184056e+000 -1.374178e+000 -9.781537e+000 16 7 15
-2.530978e+000 -1.742658e+000 -8.686996e+000 165 119 81
-2.409261e+000 -1.740830e+000 -8.656657e+000 117 70 37
-2.238902e+000 -1.756981e+000 -8.838195e+000 97 50 25
-2.196705e+000 -1.825253e+000 -8.865374e+000 130 84 53
-1.809794e+000 -1.762231e+000 -9.017145e+000 102 61 35
-2.933789e+000 -1.317423e+000 -8.248233e+000 143 98 56
-2.954529e+000 -1.309496e+000 -8.283065e+000 174 139 97
-2.906679e+000 -1.198562e+000 -8.268208e+000 80 38 17
-2.861067e+000 -1.476953e+000 -8.441582e+000 166 123 81
-2.831181e+000 -1.300943e+000 -8.359598e+000 86 51 23
-2.722418e+000 -1.617789e+000 -8.678985e+000 174 136 97
-2.443976e+000 -1.714804e+000 -8.882040e+000 169 129 87
-2.479262e+000 -1.683958e+000 -8.889857e+000 140 94 60
-2.353000e+000 -1.698128e+000 -8.862289e+000 98 53 22
-2.950207e+000 -1.278277e+000 -8.441889e+000 183 146 103
-2.878196e+000 -1.436873e+000 -8.523143e+000 190 146 105
-2.879794e+000 -1.437691e+000 -8.524449e+000 190 146 105
-2.812480e+000 -1.506762e+000 -8.648936e+000 122 77 38
-2.638268e+000 -1.614807e+000 -8.835254e+000 185 145 109
-2.672724e+000 -1.584041e+000 -8.858102e+000 199 160 127
-2.297630e+000 -1.569539e+000 -9.017268e+000 166 126 87
-1.076075e+000 -1.445200e+000 -9.503185e+000 109 75 58
-9.754729e-001 -1.475582e+000 -9.533641e+000 105 77 58
-2.211922e+000 -1.592577e+000 -9.229176e+000 130 85 43
-2.065644e+000 -1.671101e+000 -9.281388e+000 181 148 115
-1.811838e+000 -1.659763e+000 -9.368563e+000 182 144 107
-1.322216e+000 -1.516280e+000 -9.519497e+000 185 175 171
-5.084461e-001 -1.891871e+000 -1.036751e+001 101 101 118
