ply
format ascii 1.0
element face 0
property list uchar int vertex_indices
element vertex 877
property float x
property float y
property float z
property uchar diffuse_red
property uchar diffuse_green
property uchar diffuse_blue
end_header
1.430746e+000 -3.630230e-002 -7.538699e+000 167 125 103
1.706108e+000 -3.162324e-001 -7.306963e+000 130 86 61
1.370573e+000 2.058984e-001 -7.868031e+000 65 60 57
5.098275e-001 2.617482e-001 -8.787188e+000 52 45 35
1.722792e-001 7.584511e-002 -8.705861e+000 30 23 17
1.244959e+000 -1.193431e+000 -7.548543e+000 32 18 12
-1.451536e+000 -1.171516e-001 -8.023558e+000 166 146 124
7.736719e-001 -1.378576e+000 -7.684440e+000 84 38 15
9.531040e-001 -1.410798e+000 -7.570279e+000 183 142 103
4.788504e-001 -1.411574e+000 -7.752706e+000 94 49 32
6.781816e-001 -1.459052e+000 -7.658483e+000 100 54 29
6.781816e-001 -1.459052e+000 -7.658483e+000 100 54 29
-9.273547e-001 -6.875785e-001 -8.354339e+000 81 62 39
-5.078059e-002 -1.134679e+000 -8.370460e+000 120 110 100
-2.146117e+000 -8.506733e-001 -7.882270e+000 87 46 21
-1.202070e+000 -9.790529e-001 -8.104270e+000 76 41 21
-2.934765e-001 -1.155329e+000 -8.457463e+000 49 41 39
-2.124727e+000 -9.832879e-001 -7.913598e+000 126 84 62
-1.430770e+000 -1.217455e+000 -8.033719e+000 103 78 73
-1.895525e+000 -1.164202e+000 -7.990453e+000 42 19 11
-1.391114e+000 -1.287370e+000 -8.056515e+000 24 11 18
1.728041e+000 1.764671e-001 -6.875693e+000 192 151 114
2.014147e+000 -3.539227e-002 -6.833647e+000 164 132 108
1.424908e+000 1.899942e+000 -8.282214e+000 174 149 121
1.300830e+000 1.707804e+000 -8.244617e+000 60 37 25
1.721204e+000 2.163176e-001 -6.954914e+000 113 68 35
7.030738e-001 1.966680e+000 -8.418477e+000 85 48 30
7.094013e-001 1.939541e+000 -8.572768e+000 108 74 48
1.527231e+000 -9.420822e-002 -7.115723e+000 168 122 98
5.482026e-001 2.114613e+000 -8.877064e+000 126 92 72
7.450114e-001 1.677693e+000 -8.709340e+000 78 66 65
1.617480e+000 -2.336056e-001 -7.236393e+000 110 69 50
1.413469e+000 1.191919e-002 -7.530069e+000 117 72 49
1.469592e+000 -1.237329e-001 -7.484544e+000 121 77 48
1.768365e+000 -3.351435e-001 -7.345306e+000 175 142 117
1.828582e+000 -3.806319e-001 -7.500849e+000 155 118 91
1.200179e+000 3.333601e-001 -8.558162e+000 18 13 20
1.167717e+000 3.415868e-001 -8.665071e+000 13 8 14
-4.586747e-001 1.432082e+000 -9.895059e+000 170 128 86
7.647750e-001 -1.161681e+000 -7.559008e+000 154 110 81
1.191254e+000 -1.257147e+000 -7.557061e+000 166 135 107
6.175860e-001 -1.121503e+000 -7.615667e+000 162 121 89
7.143122e-001 -1.318292e+000 -7.574729e+000 170 134 108
8.003220e-001 -1.304574e+000 -7.609592e+000 174 132 90
1.134084e+000 -1.390340e+000 -7.491810e+000 106 71 39
6.559836e-001 -1.414989e+000 -7.667090e+000 76 34 10
-1.873537e+000 -5.556336e-001 -7.919640e+000 147 116 88
-9.188647e-001 -6.672113e-001 -8.320473e+000 120 99 79
1.120126e+000 -1.823216e+000 -7.886150e+000 198 163 136
9.916891e-001 -1.847833e+000 -7.936207e+000 178 137 106
1.555345e-001 -1.623760e+000 -7.956350e+000 25 11 17
4.007014e-001 -1.767423e+000 -7.932949e+000 142 102 76
3.967282e-001 -1.775391e+000 -7.917584e+000 142 102 76
-1.858569e+000 -1.003197e+000 -7.932294e+000 109 73 49
-1.398892e+000 -1.133072e+000 -8.028754e+000 53 25 22
-3.457249e-001 -1.346669e+000 -8.366861e+000 113 108 113
-2.466991e-001 -1.448715e+000 -8.237986e+000 126 117 110
-2.462284e-001 -1.502697e+000 -8.209769e+000 47 33 33
-2.435105e-001 -1.548887e+000 -8.193386e+000 128 120 118
7.062906e-002 -1.789210e+000 -8.065402e+000 41 30 31
-2.245253e+000 -1.258687e+000 -8.077740e+000 61 46 47
-2.653312e+000 -1.316146e+000 -7.998037e+000 177 131 99
-1.454620e+000 -1.718901e+000 -8.412066e+000 152 122 108
-1.154472e+000 -1.569814e+000 -9.598253e+000 158 128 111
8.333954e-001 1.874876e+000 -8.291749e+000 61 42 35
1.943983e+000 -1.037056e-001 -7.011160e+000 111 73 45
8.246399e-001 1.812071e+000 -8.504434e+000 89 63 40
1.503088e+000 -6.792107e-002 -7.100023e+000 178 134 107
1.560703e+000 -5.939366e-002 -7.107432e+000 85 41 27
2.084209e+000 -2.022101e-001 -7.144681e+000 84 55 41
5.832084e-001 1.872400e+000 -8.691065e+000 58 38 25
5.856210e-001 1.883017e+000 -8.700062e+000 58 38 25
1.774666e+000 -2.229599e-001 -7.167409e+000 154 108 85
2.116809e+000 -3.923922e-001 -7.646964e+000 85 67 63
2.076864e+000 -3.897001e-001 -7.676039e+000 38 26 36
1.216172e+000 2.716916e-001 -8.333543e+000 104 98 92
5.937555e-001 -1.744576e-002 -8.656259e+000 22 13 14
8.281875e-001 -1.193261e+000 -7.554032e+000 191 147 110
1.226382e+000 -1.435159e+000 -7.618739e+000 118 89 61
6.997052e-001 -1.266381e+000 -7.651273e+000 83 45 24
6.619897e-001 -1.384684e+000 -7.619451e+000 160 115 92
1.484995e+000 -1.533900e+000 -7.866092e+000 82 75 77
7.637058e-001 -1.666249e+000 -7.809197e+000 133 85 49
1.205358e+000 -1.757795e+000 -7.789756e+000 155 128 109
-2.408745e+000 -5.248782e-001 -8.047752e+000 147 106 74
-2.618709e+000 -4.236624e-001 -8.156154e+000 147 99 66
-3.112192e-002 -1.428249e+000 -8.159847e+000 39 26 31
3.112281e-001 -1.688989e+000 -7.950263e+000 180 157 127
-2.755483e+000 -8.466776e-001 -8.168550e+000 93 57 45
4.448302e-001 -1.968129e+000 -8.067505e+000 110 89 83
-1.638414e+000 -1.597656e+000 -8.119984e+000 55 44 48
-1.477057e+000 -1.636888e+000 -8.354089e+000 114 90 85
-1.040578e+000 -1.458176e+000 -9.204490e+000 157 128 108
-6.573178e-001 -1.690963e+000 -8.910481e+000 160 162 187
-1.687918e+000 -1.796785e+000 -8.340719e+000 76 46 38
6.216242e-001 1.822921e+000 -8.611362e+000 122 96 77
6.619108e-001 1.856721e+000 -8.557605e+000 185 153 119
2.017617e+000 -3.103891e-001 -7.144027e+000 132 102 86
1.313598e+000 1.642407e-001 -7.512646e+000 196 164 143
2.083863e+000 -3.761442e-001 -7.279630e+000 58 38 36
1.336211e+000 1.528983e-001 -7.652984e+000 175 139 107
1.985568e+000 -3.400522e-001 -7.518281e+000 141 105 84
-8.456145e-002 4.765966e+000 -1.247983e+001 204 193 171
1.549958e-001 1.611118e+000 -1.009719e+001 68 59 54
-6.727052e-001 1.700197e+000 -1.010268e+001 177 146 117
3.496430e-001 3.500566e-001 -8.859508e+000 53 49 50
3.496430e-001 3.500566e-001 -8.859508e+000 53 49 50
9.188278e-001 -1.353275e+000 -7.549149e+000 165 122 88
4.107820e-001 -1.177507e+000 -7.738146e+000 173 132 104
1.354781e+000 -1.705545e+000 -7.845504e+000 31 22 33
-1.405591e+000 -7.375301e-001 -8.032413e+000 126 89 62
-9.754326e-001 -5.101978e-001 -8.418530e+000 58 41 34
-9.754326e-001 -5.101978e-001 -8.418530e+000 58 41 34
-3.102855e-001 -9.379937e-001 -8.360831e+000 30 26 23
2.206524e-001 -1.329028e+000 -7.866305e+000 139 103 79
4.353402e-001 -1.490324e+000 -7.749753e+000 89 47 25
-2.042717e+000 -7.220821e-001 -7.888565e+000 123 88 60
-4.394576e-001 -1.089646e+000 -8.309357e+000 131 127 118
-1.623808e+000 -9.265250e-001 -7.951946e+000 77 39 20
-6.504694e-001 -9.542292e-001 -8.473241e+000 20 15 15
-2.860396e-001 -1.252792e+000 -8.341953e+000 116 106 104
5.810374e-001 -1.855057e+000 -7.875959e+000 51 29 32
-2.461579e+000 -9.199069e-001 -7.937895e+000 173 142 113
-6.107996e-001 -1.181845e+000 -8.435118e+000 24 19 25
-1.845652e-001 -1.635550e+000 -8.147375e+000 37 28 36
1.074139e-001 -1.789671e+000 -8.022029e+000 98 73 60
-7.949463e-001 -1.405793e+000 -8.705735e+000 142 147 169
-1.795632e-001 -1.901499e+000 -8.208749e+000 20 13 20
8.215081e-001 -2.003434e+000 -8.448966e+000 34 24 33
-9.769640e-001 -1.357699e+000 -8.824910e+000 34 26 35
-4.220713e-001 -1.650485e+000 -8.614552e+000 179 178 192
-1.276731e+000 -1.517466e+000 -9.621776e+000 70 56 56
-1.810845e+000 -1.855223e+000 -8.529156e+000 162 126 109
-1.402520e+000 -1.621658e+000 -9.504296e+000 21 14 21
1.929016e+000 -9.259395e-002 -6.833292e+000 129 91 68
1.013145e+000 1.588072e+000 -8.344581e+000 30 16 16
7.650141e-001 1.658464e+000 -8.730133e+000 70 59 55
1.514999e+000 -2.181146e-001 -7.656366e+000 47 43 42
1.671478e+000 -3.260406e-001 -7.453637e+000 98 50 30
-6.854913e-001 1.981865e+000 -1.030847e+001 53 40 42
3.620376e-001 1.812780e-001 -8.732460e+000 115 109 94
1.015628e+000 -1.010823e+000 -7.488510e+000 177 145 113
9.795510e-001 -1.368992e+000 -7.549399e+000 121 74 54
1.337841e+000 -1.387219e+000 -7.650381e+000 48 42 48
-1.965922e+000 -2.621903e-001 -8.019107e+000 175 152 121
3.538155e-002 -9.782943e-001 -8.421247e+000 21 16 15
3.538155e-002 -9.782943e-001 -8.421247e+000 21 16 15
-3.775684e-002 -1.002454e+000 -8.406826e+000 129 113 97
5.931613e-001 -1.594182e+000 -7.779222e+000 118 73 44
4.534247e-001 -1.564026e+000 -7.830861e+000 85 54 36
-1.567845e+000 -9.548925e-001 -7.920059e+000 110 74 52
-1.751574e+000 -1.157789e+000 -7.913817e+000 97 61 44
-2.212688e-001 -1.557880e+000 -8.235829e+000 110 100 98
-2.415622e+000 -1.059228e+000 -8.008407e+000 77 34 28
-4.232958e-001 -1.417826e+000 -8.406913e+000 143 140 149
6.160235e-001 -2.020561e+000 -8.306792e+000 48 26 26
-1.485935e+000 -1.592214e+000 -8.311708e+000 29 17 22
-1.683818e+000 -1.621485e+000 -8.463806e+000 40 25 22
-1.797619e+000 -1.786180e+000 -8.531541e+000 74 40 31
-1.070992e+000 -1.406702e+000 -9.900805e+000 76 67 68
1.708188e+000 4.623165e-001 -7.002336e+000 188 159 129
2.190917e+000 -1.720347e-001 -7.148801e+000 44 22 20
1.829118e+000 -2.916813e-001 -7.123109e+000 142 102 77
1.829118e+000 -2.916813e-001 -7.123109e+000 142 102 77
1.246761e+000 2.586339e-001 -8.248072e+000 107 100 93
1.696829e+000 -3.356607e-001 -7.657017e+000 146 126 109
1.696829e+000 -3.356607e-001 -7.657017e+000 146 126 109
9.781764e-001 -1.263910e+000 -7.505407e+000 117 73 46
1.440737e+000 -1.510240e+000 -7.737647e+000 17 10 18
1.370997e+000 -1.624894e+000 -7.866855e+000 128 114 108
7.507061e-001 -1.530771e+000 -7.791081e+000 121 68 37
-1.843391e+000 -7.537397e-001 -7.837125e+000 147 112 84
-1.570161e+000 -1.015068e+000 -7.986749e+000 68 30 17
2.016364e-001 -1.634074e+000 -7.967518e+000 29 20 23
-2.602843e+000 -1.097034e+000 -8.040057e+000 158 116 82
6.411450e-001 -2.039919e+000 -8.440937e+000 151 120 102
-1.118889e+000 -1.574853e+000 -8.440222e+000 50 29 33
-8.392444e-001 -1.404243e+000 -9.685931e+000 169 174 202
-2.058908e+000 -1.827195e+000 -8.250537e+000 62 42 35
-2.654884e+000 -1.778246e+000 -8.327454e+000 180 149 129
1.118910e+000 1.971611e+000 -8.264962e+000 189 168 141
1.445785e+000 -1.409748e-001 -7.324656e+000 154 121 103
1.197966e+000 -1.293311e+000 -7.501471e+000 180 149 118
1.103191e+000 -1.385489e+000 -7.583180e+000 200 169 140
-6.719451e-001 7.112915e-002 -8.889376e+000 132 122 110
8.162423e-001 -1.537711e+000 -7.688308e+000 178 143 109
-1.285927e+000 -1.079378e+000 -8.079197e+000 81 45 29
-2.089833e+000 -1.467732e+000 -8.130237e+000 39 27 30
-1.280113e+000 -1.627889e+000 -8.483932e+000 66 42 40
-5.357378e-001 -1.724826e+000 -8.757565e+000 153 150 168
-1.506189e+000 -1.743236e+000 -8.335440e+000 71 41 33
2.445771e+000 -2.868606e-001 -7.722252e+000 17 9 17
-5.322075e-001 1.412265e+000 -1.000047e+001 102 61 29
-5.322075e-001 1.412265e+000 -1.000047e+001 102 61 29
5.082582e-001 -1.479099e+000 -7.720320e+000 104 58 40
-1.898410e+000 -8.471837e-001 -7.835520e+000 94 52 27
-1.013485e+000 -1.037168e+000 -8.301668e+000 91 64 45
1.568175e+000 -1.290380e-001 -7.018821e+000 125 76 60
1.156363e+000 1.367149e+000 -8.510982e+000 25 20 24
2.157326e+000 -3.890912e-001 -7.319004e+000 40 25 25
1.575899e+000 -2.409088e-001 -7.351985e+000 123 74 57
1.569921e+000 -2.578834e-001 -7.335825e+000 123 74 57
7.205869e-001 -1.272223e+000 -7.537182e+000 121 79 57
-1.201166e+000 -8.316766e-001 -8.189172e+000 90 55 33
2.659368e+000 3.294087e-001 -7.392318e+000 39 28 34
-2.750030e+000 -7.723489e-001 -8.269019e+000 95 57 39
8.320877e-001 2.133909e+000 -8.406035e+000 61 32 21
1.107997e+000 -2.043752e-001 -7.889574e+000 89 80 74
6.601898e-001 -1.895997e+000 -8.116277e+000 78 57 57
1.510866e+000 7.774866e-001 -7.969777e+000 192 157 129
-1.892961e-001 1.521760e+000 -1.003319e+001 153 132 105
-2.099835e+000 -1.671772e+000 -8.165830e+000 158 141 121
4.825033e+000 9.258185e-001 -1.162220e+001 70 56 55
9.876880e-001 -1.540050e+000 -7.813458e+000 175 130 99
-8.590586e+000 1.746147e+001 -2.187788e+001 27 24 33
1.153089e+000 2.121488e+000 -8.257422e+000 195 174 143
-1.263530e+001 1.647604e+001 -2.296769e+001 75 79 99
1.490786e+000 -1.614563e-001 -7.840770e+000 39 33 33
-2.150166e-002 -4.942330e-001 -8.932722e+000 109 103 89
-6.038616e-001 -6.237058e-001 -9.505731e+000 124 121 114
-1.401169e+000 -1.474210e+000 -8.133122e+000 48 38 46
-1.361895e+001 2.016712e+001 -2.972213e+001 120 112 109
-1.463695e+001 1.971793e+001 -3.160223e+001 109 97 97
-5.012452e+000 2.786294e+001 -3.239152e+001 192 171 124
1.298663e+000 1.736234e+000 -8.267722e+000 69 44 39
-6.023254e+000 1.561602e+001 -2.300498e+001 29 28 33
3.970401e-001 6.360812e-002 -8.675718e+000 26 20 31
-5.512187e+000 1.381213e+001 -2.209900e+001 157 151 153
-8.458291e+000 1.725713e+001 -2.112716e+001 21 15 25
1.463953e+000 1.428137e+000 -8.379237e+000 69 42 25
6.327917e-001 1.853723e+000 -8.672875e+000 131 105 91
1.430176e+000 1.120235e-001 -7.748497e+000 52 35 25
8.572036e-001 -1.178761e+000 -7.538194e+000 197 155 119
9.060985e-001 -1.195559e+000 -7.563391e+000 149 105 79
1.016712e+000 -1.146296e+000 -7.485973e+000 121 82 54
8.145999e-001 -1.561740e+000 -7.754811e+000 122 77 42
1.911651e-001 -1.365315e+000 -7.847587e+000 100 64 40
-3.258857e-001 -1.459594e+000 -8.305402e+000 155 150 154
3.962722e-001 -1.788360e+000 -7.977085e+000 94 54 28
5.388347e-001 -1.864334e+000 -7.999507e+000 100 77 58
-8.286164e-001 -1.370315e+000 -8.740769e+000 19 18 32
-8.299127e-001 -1.376067e+000 -8.729608e+000 19 18 32
-7.990851e-001 -1.378613e+000 -8.681609e+000 138 141 158
-7.990851e-001 -1.378613e+000 -8.681609e+000 138 141 158
-8.391648e-001 -1.521193e+000 -8.894448e+000 47 52 68
-8.539856e-001 -1.543762e+000 -9.165293e+000 171 176 205
-1.642359e+000 -1.813906e+000 -8.398083e+000 104 72 51
-5.314553e-001 1.381800e+000 -9.962926e+000 102 61 29
-5.314553e-001 1.381800e+000 -9.962926e+000 102 61 29
-2.102741e+000 -9.366059e-001 -7.860873e+000 72 30 12
-1.131251e+000 -1.166511e+000 -8.214955e+000 44 20 11
7.743897e-002 -1.727683e+000 -8.052572e+000 48 33 32
3.763080e-001 -1.990399e+000 -8.049856e+000 123 103 95
-2.147892e+000 -1.218624e+000 -8.024300e+000 28 13 17
-1.733663e+000 -1.842794e+000 -8.497270e+000 163 128 109
-8.631887e+000 1.138910e+001 -1.792272e+001 42 41 55
-4.930739e-001 1.514798e+000 -9.999104e+000 126 78 45
3.283870e-001 -1.524662e+000 -7.775245e+000 159 129 104
-5.485871e-001 -1.139509e+000 -8.373308e+000 136 132 121
-4.453144e-001 -1.497017e+000 -8.440706e+000 156 152 166
-5.198763e-002 -1.049242e-001 -8.614890e+000 21 18 16
8.588473e-001 -1.386980e+000 -7.571698e+000 154 111 73
-6.659670e-001 -1.208478e+000 -8.507527e+000 116 111 117
1.274115e-002 -1.636499e+000 -8.097804e+000 28 19 22
3.179193e-001 -1.862415e+000 -8.083543e+000 28 17 24
-8.651635e-001 -1.397970e+000 -8.779657e+000 149 150 168
-2.446083e+000 -1.366832e+000 -8.051640e+000 109 82 61
-8.524709e+000 1.113180e+001 -1.871853e+001 118 106 106
-7.622955e+000 1.093902e+001 -1.909269e+001 27 20 36
-8.406865e+000 1.111639e+001 -1.900783e+001 126 112 111
-1.341409e+001 1.636919e+001 -2.430982e+001 200 190 198
-1.036695e+001 1.623992e+001 -1.882576e+001 35 32 43
1.698868e+000 1.001994e-001 -6.980416e+000 170 121 88
1.990345e+000 -9.891567e-002 -7.004667e+000 116 73 49
9.338892e-001 1.773693e+000 -8.230336e+000 138 121 113
1.324927e+000 1.328179e+000 -8.344444e+000 99 73 52
1.719200e+000 -2.602754e-001 -7.268431e+000 140 99 74
1.990337e+000 -3.584378e-001 -7.237404e+000 151 123 103
2.045630e+000 -4.078775e-001 -7.262463e+000 63 35 34
1.423628e+000 6.606819e-002 -7.772388e+000 60 50 51
1.419956e+000 1.717010e-003 -7.768759e+000 84 76 75
1.733261e+000 -3.148180e-001 -7.611949e+000 114 83 62
8.774757e-001 -1.170183e+000 -7.585122e+000 93 48 19
9.348795e-001 -1.297840e+000 -7.511293e+000 197 155 130
1.072749e+000 -1.278312e+000 -7.513852e+000 105 70 42
1.012708e+000 -1.420461e+000 -7.551856e+000 147 102 72
1.425908e+000 -1.410609e+000 -7.741909e+000 23 17 21
1.425908e+000 -1.410609e+000 -7.741909e+000 23 17 21
7.729321e-001 -1.550631e+000 -7.663088e+000 165 125 96
1.026494e+000 -1.592927e+000 -7.757865e+000 176 137 106
5.941475e-001 -1.661436e+000 -7.743090e+000 153 105 72
9.018955e-001 -1.927894e+000 -8.017336e+000 152 106 84
-2.185553e+000 -9.151614e-001 -7.847557e+000 143 98 73
-9.389674e-001 -1.077006e+000 -8.410592e+000 78 64 55
3.560677e-001 -1.953875e+000 -8.084515e+000 71 52 47
-1.244833e+000 -1.576167e+000 -8.252862e+000 95 82 84
1.628193e+000 1.461981e-001 -6.978355e+000 142 98 59
1.883598e+000 -1.207456e-001 -6.853752e+000 204 164 135
1.400520e+000 5.310275e-001 -7.224587e+000 208 169 128
1.640074e+000 5.580386e-002 -7.002659e+000 138 91 62
1.962281e+000 -1.789700e-001 -6.961371e+000 190 153 126
1.299440e+000 6.050171e-001 -7.573233e+000 156 120 88
1.073693e+000 1.480442e+000 -8.275535e+000 92 73 66
1.223871e+000 1.402484e+000 -8.406370e+000 30 14 14
1.445636e+000 1.397587e-001 -7.378329e+000 120 70 46
1.576733e+000 -2.266438e-001 -7.164917e+000 159 117 93
1.576733e+000 -2.266438e-001 -7.164917e+000 159 117 93
1.842757e+000 -2.702914e-001 -7.190877e+000 169 125 100
1.842757e+000 -2.702914e-001 -7.190877e+000 169 125 100
1.293865e+000 3.950558e-001 -7.772388e+000 155 136 115
1.454129e+000 -1.044919e-001 -7.317768e+000 187 152 133
5.367920e-001 2.056402e+000 -9.003887e+000 208 192 173
1.131495e+000 -1.026934e+000 -7.537678e+000 42 26 27
7.569974e-001 -1.124269e-001 -8.645934e+000 53 48 44
1.296249e+000 -1.527705e+000 -7.673274e+000 158 133 118
-8.636599e-002 -1.096451e-001 -8.558506e+000 119 110 97
6.796122e-001 -1.355570e+000 -7.586811e+000 192 157 137
1.277308e+000 -1.575635e+000 -7.795884e+000 150 125 105
1.283088e+000 -1.628561e+000 -7.729231e+000 127 113 101
-4.266970e-001 -2.116780e-001 -8.616630e+000 130 23 40
3.614312e-001 -1.379678e+000 -7.709421e+000 147 105 74
4.554834e-001 -1.349675e+000 -7.709783e+000 156 112 84
7.290329e-001 -1.480449e+000 -7.684980e+000 105 59 32
7.554315e-001 -1.492507e+000 -7.706882e+000 195 154 122
1.112303e+000 -1.694279e+000 -7.782619e+000 170 135 108
1.445067e+000 -1.628609e+000 -7.891162e+000 94 85 90
1.149902e+000 -1.782027e+000 -7.842999e+000 172 139 122
-9.170555e-001 -6.311796e-001 -8.367053e+000 106 90 80
4.693565e-001 -1.591226e+000 -7.834799e+000 87 53 28
-1.790208e+000 -8.351207e-001 -7.841652e+000 134 92 67
-1.126420e+000 -9.088970e-001 -8.105099e+000 92 56 31
1.415414e-001 -1.551472e+000 -7.982345e+000 33 18 24
3.541319e-001 -1.734041e+000 -7.876764e+000 162 128 104
5.167365e-001 -1.829303e+000 -7.909145e+000 76 46 36
-1.080629e+000 -1.070436e+000 -8.178789e+000 115 87 66
-3.648067e-001 -1.084474e+000 -8.487560e+000 45 37 35
-3.657363e-001 -1.200294e+000 -8.356465e+000 88 85 80
-2.568122e+000 -6.400327e-001 -8.012083e+000 181 142 105
-2.358476e+000 -7.838774e-001 -7.912893e+000 179 153 126
1.700843e-001 -1.889467e+000 -8.065309e+000 43 22 21
3.748152e-001 -1.991878e+000 -8.045834e+000 105 86 80
-1.857660e+000 -1.229617e+000 -7.857658e+000 98 64 52
-1.393335e+000 -1.502210e+000 -8.141885e+000 17 8 13
-1.391472e+000 -1.587614e+000 -8.107988e+000 24 15 20
-9.523798e-001 -1.439338e+000 -8.872686e+000 129 129 148
-2.147876e+000 -1.441616e+000 -8.138392e+000 84 60 58
-2.144499e+000 -1.452488e+000 -8.123551e+000 84 60 58
-1.864606e+000 -1.699831e+000 -8.149384e+000 61 46 49
1.624252e+000 9.082245e-002 -6.975643e+000 173 125 89
1.868912e+000 -5.256698e-002 -6.869746e+000 128 89 60
1.509732e+000 5.135931e-002 -7.022585e+000 142 92 60
1.692379e+000 -1.055669e-001 -7.018565e+000 167 118 95
1.939431e+000 -1.070388e-001 -7.129263e+000 168 120 98
2.192675e+000 -2.824503e-001 -7.106825e+000 75 54 39
2.300790e+000 -2.606613e-001 -7.168176e+000 67 46 43
1.088849e+000 1.850076e+000 -8.262787e+000 54 35 34
1.920905e+000 -2.575926e-001 -7.133171e+000 161 125 103
1.315921e+000 1.430146e+000 -8.332402e+000 75 49 36
1.465587e+000 -1.209453e-001 -7.225915e+000 181 142 121
1.448582e+000 -9.659390e-002 -7.275806e+000 120 82 61
1.616457e+000 -2.626961e-001 -7.165900e+000 171 133 110
5.615402e-001 2.185909e+000 -9.010812e+000 207 187 162
1.403689e+000 1.943472e-002 -7.446532e+000 125 77 54
1.837004e+000 -3.843015e-001 -7.379431e+000 160 124 98
2.220052e+000 -3.786306e-001 -7.503387e+000 88 62 58
8.450850e-001 1.513834e+000 -8.593240e+000 87 76 75
1.390566e+000 1.438827e-001 -7.846357e+000 57 48 51
3.195281e-001 2.276902e-002 -8.657158e+000 126 117 108
7.604816e-001 -1.170768e+000 -7.546848e+000 156 115 84
1.369336e+000 -1.310740e+000 -7.599936e+000 33 26 42
5.734793e-001 -1.898035e-001 -8.595795e+000 118 110 97
-5.292601e-002 -1.055206e-001 -8.615231e+000 29 23 20
2.328961e-001 -4.240165e-001 -8.557864e+000 114 107 97
4.660343e-001 -1.264976e+000 -7.683129e+000 143 101 79
7.684972e-001 -1.372677e+000 -7.632660e+000 191 156 120
1.242765e+000 -1.656503e+000 -7.829608e+000 149 123 108
-4.820239e-001 -5.494898e-001 -8.491936e+000 26 17 20
8.923951e-001 -1.677541e+000 -7.785300e+000 126 82 47
9.302522e-001 -1.664339e+000 -7.782663e+000 166 126 92
-1.821317e-001 -1.008548e+000 -8.401727e+000 125 117 98
5.922867e-001 -1.728744e+000 -7.792994e+000 127 79 57
6.647526e-001 -1.796473e+000 -7.860282e+000 162 120 83
-1.780300e+000 -7.540207e-001 -7.841878e+000 122 81 60
3.558402e-001 -1.672227e+000 -7.918136e+000 97 63 54
3.452597e-001 -1.690541e+000 -7.890695e+000 97 63 54
3.430621e-001 -1.706742e+000 -7.977852e+000 74 44 35
5.320223e-001 -1.873256e+000 -7.867069e+000 127 97 80
1.122911e+000 -1.940425e+000 -8.158240e+000 29 18 25
-1.398212e+000 -9.093093e-001 -8.072254e+000 82 44 19
-1.307178e+000 -9.534304e-001 -8.118882e+000 84 46 26
6.603773e-001 -1.920864e+000 -8.048607e+000 79 54 50
9.413762e-001 -1.997134e+000 -8.201391e+000 27 16 16
-2.210869e+000 -9.482742e-001 -7.849636e+000 107 61 38
-2.241369e+000 -9.997415e-001 -7.826728e+000 138 94 69
-1.600366e+000 -1.166537e+000 -7.913791e+000 62 29 22
-9.813684e-001 -1.106359e+000 -8.438142e+000 57 32 32
-1.428900e+000 -1.808463e+000 -8.467132e+000 166 136 129
1.804407e+000 3.320172e-002 -6.890945e+000 120 74 48
1.982422e+000 -1.128160e-001 -6.967250e+000 137 93 66
1.631825e+000 -8.978020e-002 -6.889396e+000 110 60 37
1.452287e+000 9.717422e-003 -7.160912e+000 174 129 106
1.503734e+000 -1.105858e-002 -7.047290e+000 183 138 106
1.717864e+000 -1.229697e-001 -7.065352e+000 120 72 49
1.762701e+000 -2.020590e-001 -7.115616e+000 122 76 53
1.762701e+000 -2.020590e-001 -7.115616e+000 122 76 53
2.392425e+000 -2.424505e-001 -7.222556e+000 48 30 34
1.096025e+000 1.487755e+000 -8.344482e+000 50 33 26
1.267969e+000 1.460753e+000 -8.369255e+000 53 27 26
9.066496e-001 1.540271e+000 -8.685187e+000 22 16 19
2.259823e+000 -3.669411e-001 -7.685205e+000 78 63 58
2.276967e-001 8.604381e-002 -8.662893e+000 97 91 79
9.300758e-001 -1.222738e+000 -7.500192e+000 171 130 98
4.958739e-001 -2.261348e-001 -8.576870e+000 26 21 18
3.086236e-001 -3.874583e-001 -8.588841e+000 23 19 15
9.838460e-001 -1.469415e+000 -7.642458e+000 170 128 96
1.444832e+000 -1.571076e+000 -7.878100e+000 25 16 19
5.768294e-001 -1.387796e+000 -7.751225e+000 93 46 26
-1.123266e-003 -6.570029e-001 -8.473853e+000 125 117 106
2.764706e-002 -7.294489e-001 -8.466383e+000 27 21 27
-5.708535e-001 -7.377592e-001 -8.485981e+000 24 21 16
-1.325689e-001 -9.486418e-001 -8.382086e+000 117 108 91
-5.645942e-002 -9.230719e-001 -8.405137e+000 24 22 21
1.654643e-002 -8.956399e-001 -8.432329e+000 111 100 85
-1.730407e+000 -7.505202e-001 -7.845980e+000 148 115 87
-9.489094e-001 -8.630674e-001 -8.342164e+000 121 99 76
-6.153752e-001 -8.340112e-001 -8.489924e+000 23 17 22
-1.395231e+000 -1.068935e+000 -8.050133e+000 104 69 43
4.703237e-001 -1.843332e+000 -7.971550e+000 132 91 71
5.185507e-001 -1.838739e+000 -7.963074e+000 59 32 25
-2.948620e-001 -1.448811e+000 -8.268224e+000 147 145 148
1.960121e-001 -1.827720e+000 -8.022009e+000 115 84 72
-1.214455e+000 -1.286755e+000 -8.178081e+000 32 16 17
-7.562664e-001 -1.468087e+000 -8.682367e+000 31 32 53
-1.349970e+000 -1.551987e+000 -8.400909e+000 26 16 17
-1.043697e+000 -1.481875e+000 -8.626159e+000 104 84 85
-1.588179e+000 -1.745881e+000 -8.306795e+000 68 36 39
1.341609e+000 2.337475e+000 -8.340310e+000 180 163 135
1.992888e+000 -3.156914e-001 -7.120429e+000 152 119 100
2.198386e+000 -2.599381e-001 -7.260859e+000 47 25 27
1.893854e+000 -2.913860e-001 -7.249786e+000 116 75 55
7.586447e-001 1.776204e+000 -8.931127e+000 26 15 23
-3.203858e-001 1.591096e+000 -9.961815e+000 177 155 126
6.851410e-002 6.406872e-002 -8.675721e+000 110 103 93
8.950278e-001 -1.513667e+000 -7.636259e+000 188 149 110
1.411478e+000 -1.540096e+000 -7.796470e+000 129 110 109
5.847885e-001 -1.610626e+000 -7.756661e+000 115 68 40
1.258793e+000 -1.771623e+000 -7.926404e+000 24 12 17
-2.050069e+000 -4.101630e-001 -7.963323e+000 173 146 116
-2.339308e+000 -7.093834e-001 -7.895023e+000 172 147 117
-1.053849e+000 -9.612575e-001 -8.215472e+000 60 33 12
-1.421828e+000 -1.225176e+000 -7.995126e+000 79 55 47
-1.254097e+000 -1.148421e+000 -8.156465e+000 85 56 42
-3.093734e+000 -1.172214e-001 -8.798921e+000 193 176 166
-2.676589e+000 -8.281205e-001 -8.119571e+000 102 66 42
-7.982879e-002 -2.008090e+000 -8.467510e+000 47 35 43
-2.171133e+000 -1.449340e+000 -8.057781e+000 91 64 55
-1.149539e+000 -1.594066e+000 -8.618307e+000 71 51 42
-6.151563e-001 -1.752660e+000 -8.793377e+000 176 178 199
1.630375e+000 -2.697811e-001 -7.690404e+000 49 42 49
7.205992e-001 -1.108545e+000 -7.630004e+000 91 48 32
1.087684e+000 -1.624573e+000 -7.742622e+000 150 110 79
1.458513e-001 -1.428524e+000 -7.920004e+000 135 106 92
9.442542e-001 -1.796703e+000 -7.888712e+000 82 44 25
-1.778316e+000 -1.026006e+000 -7.885997e+000 119 78 50
4.202111e-001 -1.982159e+000 -8.152326e+000 38 24 24
-2.654424e+000 -8.152796e-001 -8.021797e+000 158 117 83
-1.093238e+000 -1.398444e+000 -8.308927e+000 24 13 17
-2.416520e+000 -1.062639e+000 -8.001711e+000 77 38 25
-1.123247e+000 -1.639991e+000 -8.671968e+000 128 105 97
-1.115928e+000 -1.586432e+000 -8.749795e+000 128 105 97
-6.785641e-002 -1.946459e+000 -8.836704e+000 103 103 127
-9.358041e-001 -1.533958e+000 -9.358137e+000 31 24 38
1.438356e+000 7.731799e-001 -7.186997e+000 214 200 174
1.990587e+000 -2.540970e-001 -7.437047e+000 162 133 115
6.218905e-001 -1.195250e+000 -7.592188e+000 164 120 90
7.622258e-001 -1.946355e+000 -8.496678e+000 161 133 127
-1.325480e+000 -1.591507e+000 -8.270474e+000 20 9 15
1.607371e+000 -1.185787e-001 -7.657150e+000 150 108 81
8.088221e-001 -8.972968e-001 -7.622633e+000 163 132 105
8.069042e-001 -1.398454e+000 -7.576014e+000 183 146 111
7.611050e-001 -1.410558e+000 -7.718191e+000 121 81 53
-4.925408e-001 -2.142756e-001 -8.690846e+000 112 102 88
-9.819089e-001 -7.939707e-001 -8.268015e+000 136 110 85
5.072711e-002 -1.859119e+000 -9.255940e+000 178 179 207
1.712046e-001 -1.521819e+000 -1.029024e+001 69 57 60
-1.199235e+000 -1.548677e+000 -9.468221e+000 176 156 157
6.701954e-001 1.961172e+000 -8.915514e+000 35 23 25
-1.418538e+000 -7.376955e-001 -8.069401e+000 104 67 40
1.956489e+000 -3.489665e-001 -7.159186e+000 154 123 102
4.005820e-001 -1.889799e+000 -7.999480e+000 108 77 56
4.056332e-001 -1.882105e+000 -8.011139e+000 108 77 56
1.141613e+000 -2.009848e+000 -8.183573e+000 20 9 17
-1.907705e+000 -1.683120e+000 -8.537901e+000 39 24 31
2.213754e-001 -1.438475e+000 -7.625329e+000 137 101 75
1.456109e+000 -1.816844e+000 -7.974209e+000 13 11 16
-1.473335e+000 -1.584639e+000 -9.126641e+000 161 141 137
-1.473335e+000 -1.584639e+000 -9.126641e+000 161 141 137
1.804011e+000 -1.016261e+000 -7.626455e+000 13 7 17
1.804011e+000 -1.016261e+000 -7.626455e+000 13 7 17
9.788286e-001 1.514106e+000 -8.406673e+000 42 26 26
1.097407e+000 1.413967e+000 -8.442765e+000 31 20 21
4.291144e-001 4.106164e+000 -1.157524e+001 207 197 187
-7.694339e-001 -1.056897e+000 -8.522196e+000 118 115 110
-1.394166e+000 -1.537992e+000 -8.136071e+000 74 61 68
1.340028e+000 1.371397e+000 -8.390022e+000 94 66 55
-7.464593e-001 -1.580559e+000 -8.819783e+000 215 221 243
-1.342362e+001 1.936850e+001 -2.903798e+001 53 42 44
1.753709e-002 -8.995518e-001 -8.431439e+000 114 102 86
-8.776418e+000 1.090643e+001 -1.829259e+001 184 181 198
1.775110e+000 -3.519245e-001 -7.297896e+000 137 101 77
8.124173e-001 1.613583e+000 -8.686838e+000 34 22 22
1.215844e+000 1.496551e+000 -8.231312e+000 111 82 69
1.668959e+000 -3.149643e-001 -7.243936e+000 168 128 103
-1.044439e+001 1.752497e+001 -1.857983e+001 64 49 49
1.012440e+000 -1.143133e+000 -7.513109e+000 121 79 54
1.487716e-001 -1.635346e+000 -7.995672e+000 75 59 58
1.487716e-001 -1.635346e+000 -7.995672e+000 75 59 58
-4.774813e-001 -1.237117e+000 -8.378361e+000 86 81 85
-1.204931e+000 -1.161773e+000 -8.140195e+000 100 67 48
-1.260101e+000 -1.596764e+000 -8.278919e+000 33 21 23
1.494278e+000 -1.416475e-001 -7.388654e+000 164 128 110
3.657350e-001 -1.436102e+000 -7.721675e+000 128 86 54
1.147121e+000 -1.796929e+000 -7.872695e+000 105 80 58
-1.189843e+000 -1.502144e+000 -8.241935e+000 23 12 16
-1.633340e+000 -1.698539e+000 -8.171850e+000 45 30 33
6.176615e-001 2.099478e+000 -8.457773e+000 186 147 118
1.634055e+000 -1.267846e-001 -7.029416e+000 109 58 37
1.097285e+000 1.486181e+000 -8.344365e+000 50 33 26
9.101634e-001 1.549990e+000 -8.692317e+000 22 16 19
1.981341e-001 -9.053813e-002 -8.633293e+000 21 19 22
-9.165137e+000 1.152548e+001 -1.729843e+001 82 81 104
-9.140354e+000 1.148312e+001 -1.727151e+001 82 81 104
-6.998292e+000 1.333643e+001 -2.156599e+001 48 47 53
3.474579e-001 -1.854058e+000 -8.032558e+000 151 120 100
1.974347e+000 -3.744287e-001 -7.730143e+000 34 26 40
-3.256188e-001 -1.124441e+000 -8.330068e+000 123 117 119
-8.338964e+000 1.737779e+001 -2.182360e+001 193 190 202
-8.338964e+000 1.737779e+001 -2.182360e+001 193 190 202
-3.126693e-001 -1.163131e+000 -8.391701e+000 55 49 46
-8.591327e+000 1.715081e+001 -2.202119e+001 28 23 30
1.448881e+000 -1.507233e+000 -7.730751e+000 19 13 23
-9.685957e+000 1.285101e+001 -1.702289e+001 189 173 149
2.073960e+000 -3.626163e-001 -7.152431e+000 128 103 96
1.112939e+000 2.140278e+000 -8.294134e+000 138 117 97
1.931557e+000 -3.386036e-001 -7.153778e+000 175 146 130
2.096673e+000 -3.326688e-001 -7.282611e+000 56 30 22
2.062219e+000 -3.807385e-001 -7.241416e+000 56 30 22
1.475251e+000 1.442920e+000 -8.272534e+000 105 69 47
1.484477e+000 -1.814126e-001 -7.385029e+000 164 127 112
1.753199e+000 -3.660113e-001 -7.316126e+000 176 142 121
2.041297e+000 -3.722714e-001 -7.386895e+000 120 97 89
2.041297e+000 -3.722714e-001 -7.386895e+000 120 97 89
2.178839e+000 -3.636995e-001 -7.541924e+000 88 65 56
9.052411e-001 1.614274e+000 -8.551666e+000 22 13 14
1.422411e+000 7.374165e-003 -7.773046e+000 77 73 80
1.589069e+000 -2.807410e-001 -7.574506e+000 141 106 86
2.068880e+000 -3.944613e-001 -7.761123e+000 98 88 97
2.068880e+000 -3.944613e-001 -7.761123e+000 98 88 97
1.553030e+000 -2.064085e-001 -7.822243e+000 73 69 69
7.895784e-001 1.699704e+000 -9.140296e+000 41 34 40
5.685726e-001 -1.109999e+000 -7.705643e+000 117 73 36
6.237338e-001 -1.236483e+000 -7.543824e+000 137 95 76
8.081212e-001 -1.284522e+000 -7.676005e+000 118 81 50
9.879061e-001 -1.457780e+000 -7.553561e+000 171 128 96
8.914520e-001 -1.517967e+000 -7.569864e+000 150 104 73
7.036429e-001 -1.438037e+000 -7.676416e+000 80 31 24
7.036429e-001 -1.438037e+000 -7.676416e+000 80 31 24
6.811797e-002 7.863427e-001 -9.731678e+000 124 119 115
8.709430e-001 -1.647247e+000 -7.802864e+000 172 127 97
2.800007e-001 -1.462262e+000 -7.855042e+000 99 71 55
1.317143e+000 -1.795077e+000 -8.040051e+000 30 22 21
7.398885e-001 -1.818332e+000 -7.838095e+000 112 66 40
-1.772817e-001 -9.958973e-001 -8.362189e+000 27 22 17
-2.773993e-001 -1.058996e+000 -8.346157e+000 19 13 19
2.881444e-001 -1.643980e+000 -7.927134e+000 66 39 30
1.083308e+000 -1.931412e+000 -8.129439e+000 144 116 105
-1.807310e+000 -8.329182e-001 -7.792635e+000 153 122 96
-1.196306e+000 -9.651827e-001 -8.088673e+000 126 90 69
-4.049393e-001 -1.525888e+000 -8.421120e+000 80 81 101
2.249901e-001 -2.019987e+000 -8.209615e+000 53 42 48
2.936331e-001 -2.021994e+000 -8.157391e+000 21 10 18
-2.317424e+000 -9.983211e-001 -7.892306e+000 100 53 34
2.836581e-001 -2.023123e+000 -8.581811e+000 77 50 57
-2.085998e+000 -1.231467e+000 -7.994705e+000 20 8 11
-1.520033e+000 -1.572777e+000 -8.122987e+000 60 49 55
-1.367475e+000 -1.527933e+000 -8.148855e+000 15 9 13
-1.209951e+000 -1.538353e+000 -8.243275e+000 73 58 61
-1.245983e+000 -1.553539e+000 -8.283120e+000 101 84 87
-8.102217e-001 -1.471629e+000 -8.787907e+000 29 29 45
-9.614044e-001 -1.421354e+000 -8.818394e+000 131 130 146
-8.465466e-001 -1.470094e+000 -8.848381e+000 123 127 161
-1.946294e+000 -1.770582e+000 -8.233392e+000 52 26 25
-1.946294e+000 -1.770582e+000 -8.233392e+000 52 26 25
-1.566521e+000 -1.777074e+000 -8.344021e+000 147 115 104
-1.628491e+000 -1.809458e+000 -8.357635e+000 145 112 102
-2.366238e+000 -1.664212e+000 -8.104677e+000 53 29 17
-2.362628e+000 -1.657725e+000 -8.170911e+000 64 36 28
-2.171358e+000 -1.888487e+000 -8.111083e+000 150 133 127
-1.716700e+000 -1.805382e+000 -8.512411e+000 77 46 44
-1.577506e+000 -1.847643e+000 -8.478144e+000 174 145 139
-1.509576e+000 -1.821521e+000 -8.557016e+000 102 66 55
-1.319228e+000 -1.693517e+000 -8.962639e+000 127 104 108
-8.394502e-001 -1.360894e+000 -9.860021e+000 62 55 67
-1.923916e+000 -1.843422e+000 -8.535276e+000 82 49 43
-2.088039e+000 -1.797093e+000 -8.634769e+000 157 113 93
1.718849e+000 -4.160283e-002 -6.841159e+000 185 148 122
1.368484e+000 8.268605e-001 -7.341135e+000 215 197 174
1.181397e+000 2.353454e+000 -8.312203e+000 187 171 148
1.295924e+000 2.058991e+000 -8.267538e+000 181 165 140
1.504456e+000 -6.185164e-002 -7.106145e+000 198 154 128
1.524172e+000 -9.277192e-002 -7.245121e+000 94 52 37
1.546401e+000 -1.120295e-001 -7.165377e+000 85 39 26
1.984854e+000 -3.668097e-001 -7.266821e+000 91 61 50
1.326550e+000 1.457269e+000 -8.354960e+000 71 43 29
1.705552e+000 -3.973192e-001 -7.236266e+000 178 143 121
2.236555e+000 -3.766820e-001 -7.613009e+000 50 35 34
7.439369e-001 1.687010e+000 -8.714541e+000 68 56 56
1.584573e+000 -3.013734e-001 -7.603972e+000 41 35 43
1.261810e+000 3.969276e-001 -8.506183e+000 88 84 85
7.468263e-001 -1.058404e+000 -7.610542e+000 161 121 86
7.890763e-001 -1.181431e+000 -7.574820e+000 100 55 24
7.890763e-001 -1.181431e+000 -7.574820e+000 100 55 24
1.383434e+000 -1.416465e+000 -7.696858e+000 117 104 94
-2.745783e-001 1.514338e+000 -9.963473e+000 56 38 14
-2.745783e-001 1.514338e+000 -9.963473e+000 56 38 14
4.624105e-001 -3.675605e-001 -8.587652e+000 149 142 126
4.624105e-001 -3.675605e-001 -8.587652e+000 149 142 126
5.464776e-001 -1.351262e+000 -7.674450e+000 93 48 27
6.066600e-001 -1.421842e+000 -7.669452e+000 83 39 24
7.098812e-001 -1.421974e+000 -7.635249e+000 185 140 121
-4.174561e-001 1.256226e+000 -9.859897e+000 177 154 124
3.236710e-001 -1.336159e+000 -7.776168e+000 101 57 32
1.010219e+000 -1.616495e+000 -7.763657e+000 113 67 37
6.135021e-001 -1.590403e+000 -7.759762e+000 109 62 36
1.238485e+000 -1.860960e+000 -8.019571e+000 28 19 24
-4.065662e-001 -5.551882e-001 -8.508281e+000 26 22 22
1.195060e+000 -1.905854e+000 -8.091473e+000 36 23 32
3.025354e-001 -1.661099e+000 -7.935296e+000 74 46 35
4.835432e-001 -1.823848e+000 -7.912447e+000 131 91 64
7.072256e-001 -1.917155e+000 -7.933164e+000 162 126 103
9.077687e-001 -1.945862e+000 -8.052502e+000 192 151 135
1.050006e+000 -1.961015e+000 -8.220481e+000 104 87 87
1.067153e+000 -1.936018e+000 -8.072155e+000 37 12 11
1.153176e+000 -1.923951e+000 -8.143406e+000 141 124 131
-2.626870e-001 -1.288884e+000 -8.368655e+000 49 43 53
1.000105e+000 -1.975670e+000 -8.231715e+000 163 149 149
1.049113e+000 -1.973673e+000 -8.258975e+000 26 14 23
-1.337973e+000 -1.042822e+000 -8.086234e+000 105 70 48
-1.312549e+000 -1.107392e+000 -8.052593e+000 114 80 54
-4.398600e-001 -1.165653e+000 -8.521759e+000 141 139 142
-3.703891e-001 -1.483514e+000 -8.334872e+000 55 51 66
7.152888e-002 -1.802985e+000 -8.051572e+000 22 10 14
-2.294520e+000 -8.625873e-001 -7.846205e+000 172 142 116
-7.278981e-001 -1.393934e+000 -8.560847e+000 18 18 32
1.901455e-001 -1.999907e+000 -8.447520e+000 54 43 48
-1.288050e+000 -1.534340e+000 -8.230123e+000 66 49 59
-1.288050e+000 -1.534340e+000 -8.230123e+000 66 49 59
-1.167176e+000 -1.543452e+000 -8.340050e+000 34 17 23
-2.518395e+000 -1.260375e+000 -8.005099e+000 171 147 117
-1.193708e+000 -1.587843e+000 -8.453474e+000 43 28 34
-8.224310e-001 -1.494894e+000 -8.810599e+000 182 189 209
-2.381118e+000 -1.360244e+000 -8.086390e+000 101 74 57
-1.321839e+000 -1.719718e+000 -8.503587e+000 157 137 136
-1.603155e+000 -1.783065e+000 -8.380347e+000 80 45 33
-1.028871e+000 -1.483589e+000 -9.169916e+000 138 110 102
-1.141459e+000 -1.569359e+000 -9.106495e+000 86 60 59
-1.742420e+000 -1.796468e+000 -8.442886e+000 103 78 73
-1.637331e+000 -1.860345e+000 -8.557037e+000 170 136 127
-1.454997e+000 -1.784705e+000 -8.885846e+000 187 163 159
-1.901208e+000 -1.856412e+000 -8.555206e+000 150 117 109
-1.323316e+000 -1.563271e+000 -9.493473e+000 192 182 193
2.284320e+000 -2.152154e-001 -7.112790e+000 60 39 31
2.284320e+000 -2.152154e-001 -7.112790e+000 60 39 31
1.593320e+000 -1.472069e-001 -7.045413e+000 155 109 85
1.593320e+000 -1.472069e-001 -7.045413e+000 155 109 85
1.209350e+000 1.918867e+000 -8.195994e+000 122 101 84
1.507572e+000 1.616826e+000 -8.242056e+000 153 114 81
1.406383e+000 -7.533433e-002 -7.377357e+000 172 135 126
2.069205e+000 -3.918369e-001 -7.670938e+000 43 28 41
1.450411e+000 -1.368532e-002 -7.802793e+000 43 38 45
1.240091e+000 3.152594e-001 -8.380583e+000 101 97 94
8.079136e-001 -1.108639e+000 -7.501087e+000 168 131 104
1.427918e+000 -1.442808e+000 -7.761860e+000 116 101 93
4.540806e-001 -1.189966e+000 -7.737594e+000 81 38 14
1.452808e+000 -1.621011e+000 -7.901582e+000 101 92 97
3.309926e-001 -1.518481e+000 -7.782046e+000 148 118 88
6.887127e-001 -1.729130e+000 -7.756137e+000 171 128 94
1.096948e+000 -1.836878e+000 -7.906366e+000 128 90 67
-4.337623e-001 -4.249350e-001 -8.538000e+000 25 23 26
-3.507030e-001 1.101086e-002 -9.159461e+000 27 19 18
9.668860e-002 -1.419667e+000 -7.947976e+000 53 34 28
4.810496e-001 -1.687912e+000 -7.806196e+000 130 88 66
-2.946478e-001 -9.964303e-001 -8.354155e+000 129 122 115
-2.037570e+000 -7.795802e-001 -7.817064e+000 130 98 77
7.161543e-001 -1.960369e+000 -8.061843e+000 105 75 75
-1.883323e+000 -1.012705e+000 -7.857593e+000 82 41 22
-9.113536e-001 -9.614962e-001 -8.451267e+000 10 5 11
-6.899875e-001 -9.945628e-001 -8.494216e+000 116 112 111
-1.971355e-001 -1.534012e+000 -8.191023e+000 46 34 38
-1.372658e+000 -1.290690e+000 -8.062700e+000 27 12 15
-1.159823e+000 -1.254914e+000 -8.212939e+000 73 52 48
-6.776737e-001 -1.232801e+000 -8.484276e+000 118 117 122
-3.725318e-001 -1.461727e+000 -8.417941e+000 56 55 71
2.575003e-001 -2.000342e+000 -8.148743e+000 118 99 92
-2.739514e+000 -8.914197e-001 -8.105295e+000 71 42 34
-1.507713e+000 -1.539974e+000 -8.113556e+000 13 7 11
-7.249327e-001 -1.503273e+000 -8.653951e+000 172 176 203
-2.654975e+000 -1.063252e+000 -8.054908e+000 153 111 79
-2.250064e+000 -1.486576e+000 -8.102691e+000 111 85 73
-2.154247e+000 -1.466586e+000 -8.162398e+000 43 23 20
-1.334017e+000 -1.737982e+000 -8.528516e+000 125 98 88
-1.202232e+000 -1.617064e+000 -8.699537e+000 97 73 71
-8.328260e-001 -1.464640e+000 -9.144961e+000 155 155 195
-8.115715e-001 -1.546971e+000 -9.190215e+000 156 160 195
-1.239960e+000 -1.667920e+000 -8.765366e+000 118 91 100
-1.228515e+000 -1.670739e+000 -8.862544e+000 175 170 184
-2.041442e+000 -1.811604e+000 -8.198708e+000 47 27 26
-2.231151e+000 -1.895194e+000 -8.085572e+000 182 165 157
2.353403e+000 -2.172680e-001 -7.132328e+000 141 116 109
2.353403e+000 -2.172680e-001 -7.132328e+000 141 116 109
2.065219e+000 -2.555851e-001 -7.130776e+000 92 62 50
1.599981e+000 -2.292145e-001 -7.234246e+000 106 61 53
6.971316e-001 1.711834e+000 -8.703181e+000 31 20 24
5.555017e-001 2.002005e+000 -9.029335e+000 115 102 85
1.008218e+000 -1.339760e+000 -7.481583e+000 180 144 112
4.895547e-001 -1.317299e+000 -7.664888e+000 91 46 22
4.895547e-001 -1.317299e+000 -7.664888e+000 91 46 22
9.738415e-001 -1.512475e+000 -7.662924e+000 128 82 48
9.735029e-001 -1.512765e+000 -7.662529e+000 128 82 48
1.076670e+000 -1.684054e+000 -7.765812e+000 185 143 112
1.380748e+000 -1.668161e+000 -7.909231e+000 17 5 17
-1.434587e+000 -1.002335e-001 -8.044806e+000 174 153 132
7.672936e-002 -6.243764e-001 -8.495499e+000 27 21 23
4.066567e-001 -1.689901e+000 -7.828045e+000 87 53 41
-5.241922e-001 -6.423047e-001 -8.488475e+000 23 20 16
-1.377277e+000 -8.355992e-001 -8.032628e+000 96 59 33
-9.113599e-001 -9.123575e-001 -8.371572e+000 18 8 16
1.296059e-002 -1.637942e+000 -8.096325e+000 22 12 23
3.485428e-001 -1.813697e+000 -7.976073e+000 142 110 87
-1.577539e+000 -1.038298e+000 -7.950193e+000 76 41 22
-7.284883e-001 -1.138270e+000 -8.480279e+000 109 105 107
8.567267e-001 -1.950032e+000 -8.550474e+000 21 11 19
-7.711482e-001 -1.150801e+000 -8.562661e+000 15 12 20
-7.395162e-001 -1.210833e+000 -8.542712e+000 109 107 113
-7.844449e-001 -1.268251e+000 -8.597997e+000 14 18 24
-7.469330e-001 -1.319811e+000 -8.582246e+000 121 120 136
-1.698009e-001 -1.865078e+000 -8.268165e+000 16 11 18
-2.547620e+000 -1.061838e+000 -8.014402e+000 82 41 19
-2.355107e+000 -1.169872e+000 -8.025341e+000 58 33 29
-9.824318e-001 -1.385828e+000 -8.783873e+000 23 19 26
-7.947574e-001 -1.410361e+000 -8.702104e+000 139 141 164
-7.953655e-001 -1.413252e+000 -8.699712e+000 139 141 164
-8.172276e-001 -1.443511e+000 -8.777186e+000 29 27 47
-2.380411e+000 -1.326277e+000 -8.064434e+000 87 55 44
-9.931143e-001 -1.453674e+000 -8.823001e+000 22 19 29
-2.664083e+000 -1.333540e+000 -7.929151e+000 178 143 119
-1.480320e+000 -1.676177e+000 -8.378639e+000 82 51 50
-1.121548e+000 -1.616131e+000 -8.914000e+000 103 77 76
-1.882014e+000 -1.756241e+000 -8.387407e+000 38 22 23
-1.882014e+000 -1.756241e+000 -8.387407e+000 38 22 23
-1.778663e+000 -1.825600e+000 -8.456500e+000 62 34 31
-1.028342e+000 -1.377580e+000 -9.638579e+000 120 87 77
1.401010e+000 5.867818e-001 -7.194670e+000 181 147 110
1.333556e+000 4.585872e-001 -7.277797e+000 203 170 132
1.897102e+000 -2.936943e-001 -7.251807e+000 102 65 46
2.107835e+000 -3.726022e-001 -7.293305e+000 47 33 33
1.009083e+000 1.579666e+000 -8.338417e+000 27 15 17
6.307767e-001 -1.041492e+000 -7.622400e+000 109 72 45
1.380118e+000 -1.346646e+000 -7.695407e+000 36 28 39
1.380118e+000 -1.346646e+000 -7.695407e+000 36 28 39
1.370881e+000 -1.626248e+000 -7.870136e+000 115 99 86
1.370881e+000 -1.626248e+000 -7.870136e+000 115 99 86
8.511797e-001 -1.610533e+000 -7.765248e+000 115 68 40
4.704981e-002 -9.543141e-001 -8.461400e+000 29 22 26
5.149399e-001 -1.806257e+000 -7.848317e+000 106 67 51
1.396632e-001 -1.558012e+000 -7.912163e+000 35 20 20
-2.521285e+000 -5.906770e-001 -8.006687e+000 197 164 133
-6.700462e-001 -1.348681e+000 -8.504127e+000 152 151 165
1.886809e-001 -1.969035e+000 -8.138074e+000 20 8 18
-9.687490e-001 -1.232775e+000 -8.693084e+000 18 9 14
-2.496342e+000 -1.050209e+000 -8.012055e+000 83 46 27
-1.612483e+000 -1.493666e+000 -8.042477e+000 30 21 24
-1.612483e+000 -1.493666e+000 -8.042477e+000 30 21 24
-6.108381e-001 -1.720036e+000 -8.842092e+000 182 181 207
-2.358770e+000 -1.353560e+000 -8.132952e+000 62 34 23
-2.009503e+000 -1.498420e+000 -8.145503e+000 38 23 26
-1.917168e+000 -1.680875e+000 -8.233212e+000 42 27 24
1.615017e+000 -6.018004e-002 -7.032442e+000 108 60 40
2.225187e+000 -3.121188e-001 -7.154718e+000 114 89 82
1.140155e+000 1.972686e+000 -8.270562e+000 182 164 141
1.779796e+000 -2.258437e-001 -7.244974e+000 136 85 66
1.555380e+000 -1.470262e-001 -7.730692e+000 37 31 35
1.235244e+000 -1.833276e+000 -7.969924e+000 154 132 118
7.181727e-001 -1.936459e+000 -7.991164e+000 65 44 51
-1.520574e+000 -1.605358e+000 -8.157269e+000 38 27 33
-2.287498e+000 -1.382179e+000 -8.194059e+000 49 21 16
-1.286559e+000 -1.715977e+000 -8.509334e+000 158 137 141
-2.593406e+000 -1.620714e+000 -8.041531e+000 229 211 215
-1.557016e+000 -1.803472e+000 -8.539476e+000 156 127 121
-2.621044e+000 -1.672436e+000 -8.184080e+000 167 119 88
7.806518e-001 -1.403641e+000 -7.546532e+000 201 167 129
3.292398e-001 -1.583330e+000 -7.890633e+000 49 30 29
-2.287420e+000 -1.259618e+000 -8.058648e+000 24 10 18
5.327790e-001 2.277018e+000 -9.112506e+000 213 201 189
5.081350e-001 -1.677081e+000 -7.823583e+000 121 81 56
-1.095098e+000 -6.428984e-001 -8.248043e+000 136 111 80
-2.247018e+000 -6.415568e-001 -7.913629e+000 170 148 124
-9.006871e-001 -1.449954e+000 -9.030624e+000 159 161 196
1.565139e+000 1.576670e+000 -8.284883e+000 117 82 54
1.172362e-001 -1.334790e+000 -7.939281e+000 125 89 73
-7.440199e-001 -1.265478e+000 -8.544896e+000 22 22 32
-2.379388e+000 -1.813994e+000 -8.166882e+000 223 213 221
8.246202e-001 2.088564e+000 -8.370576e+000 52 28 16
6.944488e-001 1.042456e+000 -9.048677e+000 81 76 72
3.458951e-001 -1.446992e+000 -7.809970e+000 142 106 83
5.138849e-001 -2.005179e+000 -8.229557e+000 36 25 31
1.653327e+000 -1.655424e-002 -7.067239e+000 115 66 46
8.607452e-001 8.322980e-002 -8.381330e+000 21 18 25
9.674164e-001 -1.535858e+000 -7.788449e+000 173 130 98
8.061298e-001 -1.137593e+000 -7.533914e+000 162 124 90
1.006886e+000 1.483773e+000 -8.700730e+000 46 44 49
1.819678e-001 -1.742718e+000 -8.023721e+000 86 63 56
-1.015837e+001 1.782229e+001 -1.960559e+001 20 14 24
-4.716795e-001 -1.244932e+000 -8.360363e+000 68 66 71
-1.569381e+000 -1.353017e+000 -7.973386e+000 49 38 42
6.750486e-001 -1.309222e+000 -7.609514e+000 72 34 15
-1.023601e+001 1.699824e+001 -1.899445e+001 33 23 31
-1.712324e+000 -1.821214e+000 -8.409125e+000 81 50 45
1.255919e+000 1.292917e+000 -8.659004e+000 24 19 25
1.447816e+000 -1.677052e-002 -7.799464e+000 43 38 45
7.833658e-001 -1.104705e+000 -7.543079e+000 138 97 66
-8.822440e-001 -9.421753e-001 -8.432882e+000 89 85 82
-1.575579e+000 -1.633959e+000 -8.162341e+000 19 7 17
-1.230489e+000 -1.690618e+000 -8.830561e+000 175 170 184
-1.983073e+000 -1.850373e+000 -8.724044e+000 154 108 84
-8.868171e-002 -8.582384e-001 -8.396536e+000 112 105 94
-2.539688e+000 -1.766690e+000 -8.234751e+000 182 129 102
1.280998e+000 -1.755293e+000 -7.956691e+000 21 11 19
3.702909e-001 -1.961489e+000 -8.025774e+000 126 104 90
-1.859506e+000 -1.127321e+000 -7.946966e+000 71 36 26
1.131638e+000 2.302549e+000 -8.211740e+000 212 200 185
1.666183e+000 1.113686e-002 -6.991888e+000 109 62 42
1.685136e+000 -1.315666e-002 -6.985050e+000 160 113 95
1.982128e+000 -3.668367e-001 -7.304936e+000 138 110 96
6.980157e-001 -1.084218e+000 -7.577233e+000 115 79 47
1.200399e+000 -1.401727e+000 -7.650768e+000 89 61 39
9.457858e-001 -1.419298e+000 -7.605827e+000 129 84 50
6.841955e-001 -1.422240e+000 -7.620114e+000 120 77 50
1.133838e+000 -1.791764e+000 -7.797350e+000 132 101 80
2.921167e-001 -1.367816e+000 -7.812565e+000 136 100 74
1.012823e+000 -1.937739e+000 -8.035927e+000 106 74 58
-2.543518e-001 -1.029959e+000 -8.338422e+000 121 116 108
9.941010e-002 -1.576808e+000 -7.973606e+000 102 86 86
9.596447e-002 -1.589005e+000 -7.997041e+000 26 14 17
-3.861863e-001 -1.044140e+000 -8.327251e+000 29 25 24
-3.233550e-001 -1.045261e+000 -8.338215e+000 25 20 15
-3.233550e-001 -1.045261e+000 -8.338215e+000 25 20 15
3.302031e-001 -1.892492e+000 -7.991531e+000 163 135 116
1.672682e-001 -1.893699e+000 -8.077393e+000 33 12 18
-5.302616e-001 -1.276333e+000 -8.405487e+000 95 92 96
-5.302616e-001 -1.276333e+000 -8.405487e+000 95 92 96
-7.517748e-001 -1.422148e+000 -8.645185e+000 147 150 169
-2.573308e-003 -2.042322e+000 -8.476937e+000 35 26 30
2.623149e-001 -2.044819e+000 -8.592335e+000 167 146 135
-8.320118e-001 -1.517209e+000 -8.849825e+000 192 198 219
-8.883442e-001 -1.500513e+000 -9.022838e+000 167 171 206
-7.864006e-001 -1.601891e+000 -8.798566e+000 35 39 64
-1.848897e+000 -1.704211e+000 -8.269054e+000 62 49 54
-1.749428e+000 -1.769270e+000 -8.275366e+000 39 23 28
-1.745334e+000 -1.785925e+000 -8.332676e+000 42 26 26
-1.853274e+000 -1.790498e+000 -8.413029e+000 80 64 67
-1.853274e+000 -1.790498e+000 -8.413029e+000 80 64 67
-1.702463e+000 -1.817539e+000 -8.368279e+000 140 113 102
-1.631123e+000 -1.856751e+000 -8.510885e+000 122 89 82
-1.607644e+000 -1.854820e+000 -8.505069e+000 166 131 125
-1.257068e+000 -1.690396e+000 -8.873696e+000 107 84 93
-1.248194e+000 -1.703920e+000 -8.910633e+000 155 136 141
