ply
format ascii 1.0
element face 0
property list uchar int vertex_indices
element vertex 893
property float x
property float y
property float z
property uchar diffuse_red
property uchar diffuse_green
property uchar diffuse_blue
end_header
-8.586695e-001 -1.183993e-001 -8.655505e+000 54 49 44
1.418445e+000 9.548878e-001 -7.672093e+000 107 80 53
4.372976e+000 1.060167e+000 -9.178347e+000 50 40 39
-1.579301e+000 -3.302804e-001 -8.220247e+000 56 36 18
-1.605033e+000 -3.416322e-001 -8.122494e+000 32 17 13
1.411416e+000 8.531058e-001 -7.620303e+000 127 97 61
2.196804e+000 9.565216e-001 -7.951361e+000 14 10 9
-1.727618e+000 -4.326057e-001 -8.153768e+000 27 16 14
1.342199e+000 7.409550e-001 -7.462367e+000 61 26 5
-1.229116e+000 -6.130319e-001 -8.229596e+000 82 55 26
1.330709e+000 7.172447e-001 -7.426064e+000 147 109 73
1.374631e+000 6.688095e-001 -7.370705e+000 147 113 76
1.374631e+000 6.688095e-001 -7.370705e+000 147 113 76
1.591777e+000 7.329192e-001 -7.379637e+000 142 116 81
-2.608581e+000 -1.198188e+000 -8.149295e+000 120 76 39
-2.381044e+000 -9.946230e-001 -8.035028e+000 94 63 32
-1.303777e+000 -6.192782e-001 -8.077215e+000 101 74 47
1.250088e+000 2.810617e-001 -7.708815e+000 107 86 59
1.399428e+000 5.911553e-001 -7.260253e+000 157 123 85
1.462817e+000 6.289942e-001 -7.317011e+000 116 83 54
-2.801336e+000 -1.477084e+000 -8.307985e+000 161 134 109
-2.616475e+000 -1.232434e+000 -8.104495e+000 148 108 68
-2.020788e+000 -9.918910e-001 -7.987484e+000 60 29 8
-1.433983e+000 -8.880351e-001 -8.138505e+000 59 32 11
-1.243990e+000 -9.483925e-001 -8.119442e+000 106 80 55
-1.243990e+000 -9.483925e-001 -8.119442e+000 106 80 55
-1.000876e+000 -8.778736e-001 -8.252263e+000 110 85 59
1.225273e+000 1.304922e-001 -7.778096e+000 26 16 11
1.433739e+000 5.490172e-001 -7.189339e+000 153 121 82
-2.130071e+000 -1.452418e+000 -8.192159e+000 95 78 58
-1.981139e+000 -1.177376e+000 -8.058542e+000 91 69 48
-7.392872e-001 -1.197522e+000 -8.584601e+000 134 135 137
1.394299e+000 4.429377e-001 -7.222681e+000 143 102 62
1.581786e+000 4.673479e-001 -7.149898e+000 90 59 28
-2.096168e+000 -1.462963e+000 -8.186979e+000 40 25 13
-2.096168e+000 -1.462963e+000 -8.186979e+000 40 25 13
-2.041949e+000 -1.377452e+000 -8.058210e+000 81 70 52
-1.548929e+000 -1.206200e+000 -7.971764e+000 68 50 38
-5.159896e-001 -1.237673e+000 -8.428677e+000 127 123 111
1.514535e+000 3.160967e-001 -7.114503e+000 100 59 27
1.571493e+000 4.600882e-001 -7.041648e+000 174 142 103
-1.443177e+000 -1.778541e+000 -8.412010e+000 25 19 15
-1.153048e+000 -1.594936e+000 -8.401288e+000 13 7 9
-3.230204e-001 -1.341821e+000 -8.459256e+000 109 107 93
-2.849291e-001 -1.343540e+000 -8.447115e+000 43 40 35
1.486087e+000 2.612481e-001 -7.065312e+000 159 119 83
2.599650e+000 1.548266e-001 -7.514684e+000 18 9 13
4.015882e-001 -9.314659e-001 -8.001263e+000 50 27 14
4.947243e-001 -9.427650e-001 -7.932443e+000 49 25 13
4.947243e-001 -9.427650e-001 -7.932443e+000 49 25 13
1.851383e+000 3.125736e-001 -6.961089e+000 130 109 72
-2.626019e-001 -1.574623e+000 -8.305668e+000 110 106 92
-2.582601e-001 -1.797521e+000 -8.452752e+000 140 135 142
3.425875e-001 -1.124827e+000 -7.986966e+000 66 38 17
8.850463e-001 -8.541205e-001 -7.771816e+000 92 67 47
8.850463e-001 -8.541205e-001 -7.771816e+000 92 67 47
1.540591e+000 9.373584e-002 -6.911263e+000 159 123 83
5.204117e-001 -1.132368e+000 -7.751698e+000 112 76 53
7.188854e-001 -1.104512e+000 -7.778471e+000 67 40 21
9.437986e-001 -1.037000e+000 -7.601500e+000 75 41 16
5.349306e-001 -1.703181e+000 -7.871405e+000 158 125 89
9.726194e-001 -1.333628e+000 -7.651170e+000 112 73 40
3.513071e+000 3.161497e+000 -1.154769e+001 23 14 12
3.018077e+000 2.773917e+000 -1.108584e+001 51 41 39
3.685852e+000 2.924386e+000 -1.105000e+001 60 48 48
6.528844e-001 2.479977e+000 -8.511619e+000 150 117 79
3.026083e+000 2.501102e+000 -1.112195e+001 22 13 14
3.888180e+000 2.905726e+000 -1.100462e+001 64 55 51
-4.805086e-001 1.689854e+000 -1.008593e+001 110 76 43
3.889132e+000 2.666155e+000 -1.081419e+001 59 50 47
3.855143e+000 2.566371e+000 -1.068844e+001 31 20 19
-6.942341e-001 1.235864e+000 -9.924785e+000 131 109 83
-5.139625e-001 1.383423e+000 -9.967229e+000 99 72 39
7.202776e-001 2.069167e+000 -8.306253e+000 94 71 57
3.843660e+000 2.432120e+000 -1.028285e+001 62 49 41
-3.282302e-001 1.171302e+000 -9.869484e+000 69 48 21
5.635078e-001 1.846760e+000 -8.611846e+000 50 38 25
3.542969e+000 2.041324e+000 -1.055284e+001 22 16 18
1.182655e+000 1.986279e+000 -8.285794e+000 144 126 90
1.202478e+000 1.964262e+000 -8.242115e+000 51 32 18
-3.132372e+000 2.332817e-001 -9.336742e+000 170 163 147
-3.132372e+000 2.332817e-001 -9.336742e+000 170 163 147
7.413856e-001 1.650934e+000 -8.599184e+000 29 16 10
8.508810e-001 1.736818e+000 -8.312751e+000 94 79 57
1.267613e+000 1.919598e+000 -8.259576e+000 57 36 17
-2.035022e+000 5.440130e-001 -9.033306e+000 56 33 19
2.949749e-003 6.900249e-001 -9.944837e+000 46 39 35
1.080947e+000 1.657087e+000 -8.301868e+000 26 17 12
1.471932e+000 1.846141e+000 -8.273210e+000 138 117 74
1.471932e+000 1.846141e+000 -8.273210e+000 138 117 74
-1.968862e+000 4.884191e-001 -8.812069e+000 52 25 14
-1.766114e+000 4.473142e-001 -8.794934e+000 60 37 23
-9.329133e-001 4.902937e-001 -9.407688e+000 25 21 24
-9.363915e-001 4.940107e-001 -9.396875e+000 25 21 24
-6.937884e-001 5.462050e-001 -9.449129e+000 89 86 72
-2.694551e-001 6.501836e-001 -9.609060e+000 20 16 16
2.104119e-002 6.038531e-001 -9.698314e+000 16 12 11
7.366586e-002 6.128947e-001 -9.798967e+000 7 4 1
1.024242e+000 1.578906e+000 -8.245010e+000 36 22 14
3.732147e+000 1.672763e+000 -1.000951e+001 32 24 22
-2.924499e+000 -6.010772e-002 -8.811957e+000 131 94 57
-2.033603e+000 3.381272e-001 -8.538189e+000 95 73 49
-1.671617e+000 3.818454e-001 -8.871472e+000 42 20 6
-2.166742e-001 5.701825e-001 -9.392770e+000 67 63 50
3.959588e-002 5.851271e-001 -9.629863e+000 73 69 57
1.219120e+000 1.484916e+000 -8.283190e+000 55 36 21
-1.645914e+000 3.135954e-001 -8.710561e+000 30 17 11
4.133802e+000 1.601500e+000 -9.463027e+000 24 16 16
-2.451436e+000 -3.932612e-002 -8.327199e+000 95 64 31
-2.355085e+000 7.997739e-002 -8.366068e+000 93 61 31
-1.829709e+000 1.890885e-001 -8.524131e+000 51 30 25
-1.213762e+000 2.353836e-001 -8.841784e+000 34 22 12
2.467160e-001 4.306802e-001 -9.138592e+000 55 52 44
8.293689e-001 7.141933e-001 -9.043495e+000 10 8 10
-2.134167e+000 5.367349e-002 -8.243991e+000 124 99 69
-1.779302e+000 9.111306e-002 -8.376944e+000 40 22 12
3.716839e-001 5.563397e-001 -8.669461e+000 47 44 35
3.929211e+000 1.003145e+000 -9.698046e+000 63 53 42
3.857604e+000 1.116500e+000 -9.527546e+000 30 19 14
4.175131e+000 1.352044e+000 -9.436185e+000 51 41 40
-1.803094e+000 -5.766059e-002 -8.289544e+000 44 21 7
4.232923e+000 1.089298e+000 -9.336672e+000 29 20 21
-2.606288e+000 -3.974762e-001 -8.192590e+000 135 101 69
-1.753702e+000 -1.924472e-001 -8.212781e+000 54 32 18
-1.050534e+000 1.477138e-002 -8.291599e+000 93 79 54
1.556410e+000 9.784265e-001 -7.774378e+000 33 14 6
-2.075259e+000 -3.596906e-001 -8.074049e+000 88 62 35
1.222465e+000 3.861465e-001 -8.553764e+000 58 54 48
1.353229e+000 8.581264e-001 -7.627404e+000 136 103 69
-1.878599e+000 -4.859003e-001 -8.007803e+000 73 49 25
-1.887154e+000 -5.168608e-001 -7.976520e+000 112 88 62
1.591178e+000 8.473281e-001 -7.548413e+000 30 20 13
-2.098944e+000 -6.153897e-001 -7.998853e+000 94 73 42
-1.439906e+000 -5.245863e-001 -8.116683e+000 90 66 40
1.796694e+000 8.793475e-001 -7.436400e+000 127 106 77
-2.621882e+000 -1.147130e+000 -8.175058e+000 123 80 45
-1.402640e+000 -6.960719e-001 -8.045837e+000 100 68 42
-1.209667e+000 -6.886398e-001 -8.186027e+000 63 37 12
-9.660552e-001 -7.814987e-001 -8.363957e+000 99 79 49
1.358092e+000 5.729212e-001 -7.420445e+000 89 51 15
1.368284e+000 6.015180e-001 -7.334200e+000 145 108 66
4.366387e+000 7.149108e-001 -8.738218e+000 76 66 57
-2.868515e+000 -1.389311e+000 -8.268153e+000 178 173 169
-2.868515e+000 -1.389311e+000 -8.268153e+000 178 173 169
-1.965552e+000 -9.924592e-001 -7.910429e+000 107 77 53
-1.978888e+000 -1.045580e+000 -7.980104e+000 107 77 53
-1.632210e+000 -8.201051e-001 -7.867921e+000 102 70 45
5.622731e-001 -6.774624e-001 -8.680351e+000 46 43 38
5.815067e-001 -7.528574e-001 -8.707791e+000 15 11 10
-2.834390e+000 -1.593307e+000 -8.290488e+000 255 255 255
-1.684034e+000 -1.055778e+000 -7.945792e+000 120 90 62
2.657436e-001 -9.574655e-001 -8.557885e+000 11 7 8
1.372905e+000 4.248374e-001 -7.246535e+000 183 151 109
1.600750e+000 4.850767e-001 -7.184046e+000 148 120 83
-1.962971e+000 -1.463982e+000 -8.108031e+000 88 75 58
-1.633055e+000 -1.221005e+000 -7.964534e+000 56 41 34
-1.411176e+000 -1.368906e+000 -8.146880e+000 41 27 22
9.703677e-001 -1.215650e+000 -8.926436e+000 37 38 42
1.269712e+000 4.452307e-003 -7.493060e+000 140 105 77
-1.224764e+000 -1.633632e+000 -8.320621e+000 21 17 19
3.804260e-001 -9.987792e-001 -8.213908e+000 54 37 21
1.732142e+000 3.137827e-001 -6.951034e+000 125 93 55
-1.923003e-003 -1.348248e+000 -8.233505e+000 24 15 9
5.940344e-001 -8.082290e-001 -7.846712e+000 78 57 40
1.649591e+000 2.426376e-001 -6.963205e+000 167 134 89
4.127354e-001 -1.141200e+000 -8.029536e+000 60 28 13
5.112217e-001 -9.548843e-001 -7.710933e+000 115 84 63
1.649445e+000 7.754900e-002 -6.883929e+000 163 119 80
1.519345e-001 -1.696575e+000 -8.044064e+000 113 87 64
5.968409e-001 -1.220095e+000 -7.599233e+000 111 72 43
7.153418e-001 -1.166131e+000 -7.573231e+000 131 92 65
5.989067e-001 -1.391706e+000 -7.696795e+000 121 79 39
9.804387e-001 2.583203e+000 -9.208127e+000 124 100 66
1.338965e+000 2.528111e+000 -8.978112e+000 136 118 86
3.140945e+000 2.667350e+000 -1.115193e+001 20 14 14
3.860623e+000 2.881940e+000 -1.109755e+001 24 14 12
3.792588e+000 2.115301e+000 -1.017000e+001 57 46 42
5.116374e-001 1.224397e+000 -9.370424e+000 55 52 45
7.485893e-001 1.546107e+000 -8.676440e+000 91 75 54
9.918566e-001 1.785734e+000 -8.233675e+000 61 51 41
3.708061e+000 1.972535e+000 -1.023707e+001 19 14 11
-2.571628e+000 2.996533e-001 -9.001185e+000 91 62 30
7.955804e-001 1.598123e+000 -8.414008e+000 128 108 78
1.036354e+000 1.708096e+000 -8.312670e+000 67 50 41
1.563640e+000 1.814647e+000 -8.372243e+000 58 38 13
-2.720960e+000 2.479410e-001 -8.971910e+000 130 99 69
-4.690639e-001 5.814444e-001 -9.499222e+000 18 13 18
-4.690639e-001 5.814444e-001 -9.499222e+000 18 13 18
-3.930773e-001 5.954406e-001 -9.509511e+000 93 87 73
-3.930773e-001 5.954406e-001 -9.509511e+000 93 87 73
-3.202703e-001 6.133668e-001 -9.524341e+000 19 15 16
-3.202703e-001 6.133668e-001 -9.524341e+000 19 15 16
-2.551065e+000 1.565574e-001 -8.564590e+000 129 101 64
-8.338723e-001 4.810420e-001 -9.353318e+000 17 16 12
-7.573397e-001 5.060593e-001 -9.357856e+000 93 87 65
-6.805737e-001 5.221644e-001 -9.373226e+000 16 13 11
-6.649042e-001 4.798481e-001 -9.315422e+000 100 93 74
-6.063060e-001 5.357738e-001 -9.386824e+000 91 82 63
-6.063060e-001 5.357738e-001 -9.386824e+000 91 82 63
-5.282857e-001 5.477362e-001 -9.400979e+000 19 14 10
-5.274717e-001 5.462196e-001 -9.405036e+000 19 14 10
-5.116271e-001 5.187035e-001 -9.330500e+000 86 83 68
-4.523025e-001 5.550271e-001 -9.422004e+000 88 85 68
-4.515431e-001 5.547947e-001 -9.422972e+000 88 85 68
-4.327228e-001 5.278042e-001 -9.353340e+000 22 17 13
-3.754456e-001 5.704521e-001 -9.438461e+000 20 18 14
-3.754456e-001 5.704521e-001 -9.438461e+000 20 18 14
-3.572161e-001 5.461023e-001 -9.365989e+000 104 102 82
-3.572161e-001 5.461023e-001 -9.365989e+000 104 102 82
-4.181268e-001 5.026955e-001 -9.272386e+000 100 95 75
-3.053506e-001 5.896476e-001 -9.450352e+000 94 91 72
-3.058491e-001 5.891273e-001 -9.451327e+000 94 91 72
-2.858593e-001 5.642773e-001 -9.375763e+000 20 16 15
-2.692331e-001 5.378829e-001 -9.298772e+000 88 80 63
-1.936834e-001 5.346697e-001 -9.329321e+000 15 14 12
-2.293789e-003 5.547659e-001 -9.549551e+000 77 71 56
-3.098788e-003 5.623627e-001 -9.531544e+000 77 71 56
6.934534e-002 5.629342e-001 -9.565506e+000 13 8 11
8.936358e-002 5.366279e-001 -9.496657e+000 69 66 51
8.936358e-002 5.366279e-001 -9.496657e+000 69 66 51
-9.853419e-001 2.737175e-001 -9.271736e+000 96 90 72
-9.853419e-001 2.737175e-001 -9.271736e+000 96 90 72
-9.267535e-001 3.138411e-001 -9.251863e+000 24 19 16
-9.628995e-001 2.159162e-001 -9.222785e+000 16 11 14
-9.035051e-001 2.605685e-001 -9.199004e+000 113 108 85
-9.041015e-001 2.565345e-001 -9.208547e+000 113 108 85
-1.738397e-001 5.063171e-001 -9.253430e+000 69 66 53
-1.738707e-001 5.081044e-001 -9.249791e+000 69 66 53
-9.596370e-002 4.996416e-001 -9.271290e+000 18 14 11
1.471564e-003 4.686238e-001 -9.230226e+000 18 14 13
7.415170e-002 4.720754e-001 -9.254393e+000 75 74 57
7.415170e-002 4.720754e-001 -9.254393e+000 75 74 57
1.491505e-001 4.739662e-001 -9.277483e+000 16 14 10
-2.573969e+000 -6.913362e-002 -8.440696e+000 123 90 59
-1.140110e-001 4.021165e-001 -9.052466e+000 16 15 14
-5.773726e-002 4.412765e-001 -9.141777e+000 19 15 12
1.784176e-002 4.457959e-001 -9.157250e+000 67 63 51
1.784176e-002 4.457959e-001 -9.157250e+000 67 63 51
9.545247e-002 4.448113e-001 -9.186459e+000 17 16 14
9.545247e-002 4.448113e-001 -9.186459e+000 17 16 14
1.688718e-001 4.497113e-001 -9.200802e+000 64 61 52
1.684425e-001 4.508905e-001 -9.198058e+000 64 61 52
1.142518e-001 4.182957e-001 -9.112479e+000 76 72 63
1.139042e-001 4.207873e-001 -9.107606e+000 76 72 63
1.903090e-001 4.223460e-001 -9.131628e+000 14 10 9
2.423878e-001 4.487973e-001 -9.224742e+000 7 6 1
-2.615370e+000 -2.444798e-001 -8.345444e+000 68 39 21
-2.501791e+000 -1.005966e-001 -8.320137e+000 124 92 54
-2.281843e+000 -1.067100e-001 -8.257208e+000 93 64 32
-2.281843e+000 -1.067100e-001 -8.257208e+000 93 64 32
-2.345991e+000 -2.188282e-001 -8.192397e+000 133 104 72
-6.315564e-001 -1.838155e-001 -8.707428e+000 73 68 49
1.446435e+000 9.466498e-001 -7.500697e+000 51 29 15
-1.457953e+000 -4.933409e-001 -8.161846e+000 55 34 11
-2.620850e+000 -8.441891e-001 -8.128939e+000 101 67 40
5.070549e-001 -2.920335e-001 -8.601018e+000 93 86 60
6.958261e-001 -1.659269e-001 -8.655985e+000 82 78 61
1.255923e+000 3.737140e-001 -7.856137e+000 57 52 48
-2.824069e+000 -1.318466e+000 -8.246586e+000 253 254 255
-1.856448e+000 -7.850947e-001 -7.947816e+000 113 81 57
2.778092e-001 -5.510542e-001 -8.574425e+000 98 87 65
1.008968e+000 -1.576601e-001 -8.504918e+000 10 7 7
1.234632e+000 8.280143e-002 -8.198928e+000 73 65 55
1.712575e+000 7.663895e-001 -7.276661e+000 55 31 29
1.712575e+000 7.663895e-001 -7.276661e+000 55 31 29
1.877037e-001 -7.444751e-001 -8.517125e+000 113 99 73
1.227699e+000 1.647110e-001 -7.663963e+000 124 105 81
-1.490706e+000 -1.233285e+000 -8.165681e+000 27 12 9
-1.396770e-001 -9.421927e-001 -8.409725e+000 110 103 71
-1.396770e-001 -9.421927e-001 -8.409725e+000 110 103 71
1.538485e+000 3.834717e-001 -7.183674e+000 66 35 7
1.584708e+000 4.585856e-001 -7.108309e+000 100 66 33
1.700120e+000 5.674053e-001 -7.130146e+000 54 31 23
-1.919661e+000 -1.481761e+000 -8.085339e+000 57 42 34
-1.379610e+000 -1.267887e+000 -8.184527e+000 51 29 16
-1.186719e+000 -1.472651e+000 -8.370935e+000 38 25 15
-1.941747e+000 -1.708194e+000 -8.270912e+000 110 95 74
3.152244e-001 -9.523524e-001 -8.021135e+000 119 88 60
8.417254e-001 -8.625765e-001 -7.769011e+000 61 36 14
9.588165e-001 -9.347081e-001 -7.874288e+000 60 37 19
9.588165e-001 -9.347081e-001 -7.874288e+000 60 37 19
1.652175e+000 2.734012e-002 -7.039752e+000 149 106 71
2.811771e+000 2.118990e-001 -7.189205e+000 59 47 46
4.301571e-001 -1.280886e+000 -7.733860e+000 115 81 54
1.260445e+000 -1.061848e+000 -7.813136e+000 99 101 123
5.700342e-001 -1.423732e+000 -7.689115e+000 167 126 86
8.310229e-001 -1.384456e+000 -7.606611e+000 143 104 64
3.672722e+000 2.947267e+000 -1.116167e+001 25 17 14
3.476624e+000 2.686707e+000 -1.090503e+001 40 31 25
-8.782455e-001 1.377936e+000 -1.041851e+001 135 106 74
-5.759363e-002 1.812876e+000 -1.019993e+001 85 70 51
5.964613e-001 2.083306e+000 -8.488854e+000 138 107 77
5.984178e-001 2.078958e+000 -8.505589e+000 138 107 77
-9.079991e-001 8.965230e-001 -1.041516e+001 135 129 116
-2.056679e+000 4.830462e-001 -8.879678e+000 97 67 43
8.659442e-002 8.055370e-001 -1.006845e+001 62 57 51
1.140600e+000 1.746589e+000 -8.195573e+000 57 46 40
1.357237e+000 1.674821e+000 -8.306106e+000 61 35 19
-2.958411e+000 9.045966e-002 -8.889765e+000 143 122 87
-2.794712e+000 1.419806e-001 -9.073997e+000 61 45 29
-9.056511e-001 4.551283e-001 -9.347704e+000 113 105 85
-8.819499e-001 4.018167e-001 -9.294031e+000 20 19 14
-7.378952e-001 4.607667e-001 -9.299254e+000 21 16 11
-7.168274e-001 4.099770e-001 -9.244155e+000 108 97 79
-6.412900e-001 4.364335e-001 -9.250235e+000 18 16 15
-5.671779e-001 4.671904e-001 -9.242999e+000 103 95 71
-5.666212e-001 4.607979e-001 -9.257877e+000 103 95 71
-8.591714e-001 3.466421e-001 -9.244932e+000 113 101 79
-7.658870e-001 3.255973e-001 -9.196422e+000 113 105 83
-7.432722e-001 2.772840e-001 -9.134250e+000 21 20 24
-6.200850e-001 3.878084e-001 -9.188239e+000 104 99 72
-5.452362e-001 4.101187e-001 -9.203945e+000 18 17 15
-4.707865e-001 4.368832e-001 -9.208890e+000 107 99 76
-4.714230e-001 4.406050e-001 -9.200242e+000 107 99 76
-5.237674e-001 3.608619e-001 -9.146378e+000 102 96 78
-2.088474e-001 4.238695e-001 -9.105899e+000 17 16 14
-2.285990e+000 4.111435e-002 -8.365628e+000 82 47 22
-9.929253e-001 6.417173e-002 -9.003597e+000 17 12 10
-6.496395e-001 2.576573e-001 -9.079738e+000 23 22 23
-5.538852e-001 2.357964e-001 -9.028912e+000 21 21 14
-5.018450e-001 3.090473e-001 -9.095435e+000 20 15 16
-4.295461e-001 3.419593e-001 -9.093869e+000 113 108 79
-4.792275e-001 2.629033e-001 -9.032599e+000 120 112 91
-4.078161e-001 2.949936e-001 -9.033963e+000 26 25 23
-4.079378e-001 2.940039e-001 -9.036407e+000 26 25 23
-3.566387e-001 3.732348e-001 -9.092458e+000 22 19 12
-3.359770e-001 3.272157e-001 -9.033545e+000 123 115 94
-2.824918e-001 3.985445e-001 -9.101212e+000 104 102 75
-2.415212e-001 3.103537e-001 -8.978355e+000 119 113 85
-2.148214e+000 -3.577313e-002 -8.237742e+000 85 59 32
-2.927785e-001 2.314069e-001 -8.918579e+000 113 105 79
-1.306946e-001 2.992199e-001 -8.911156e+000 64 56 32
4.189501e+000 1.320614e+000 -9.352982e+000 22 12 12
4.189501e+000 1.320614e+000 -9.352982e+000 22 12 12
-2.055176e+000 -1.289619e-001 -8.171074e+000 87 62 32
-2.274147e+000 -2.585521e-001 -8.152821e+000 128 101 68
-2.205804e+000 -4.593894e-001 -8.078860e+000 99 76 45
3.882544e-002 -1.541847e-001 -8.627510e+000 22 20 20
1.113647e-001 -1.259347e-001 -8.639799e+000 117 106 76
3.320870e-001 -4.864747e-002 -8.676998e+000 29 22 20
1.581152e+000 9.531565e-001 -7.628516e+000 64 41 27
-1.066321e-001 -2.165873e-001 -8.620782e+000 20 16 18
-7.772479e-002 -2.875918e-001 -8.601741e+000 118 111 83
-7.772479e-002 -2.875918e-001 -8.601741e+000 118 111 83
9.490822e-002 -3.012479e-001 -8.608499e+000 22 17 21
2.325966e+000 7.994474e-001 -7.982849e+000 55 40 31
-2.853612e+000 -1.156613e+000 -8.470132e+000 146 117 87
-1.714775e+000 -6.120441e-001 -8.006400e+000 70 42 18
-4.128137e-001 -4.940846e-001 -8.538691e+000 135 120 96
-4.123298e-001 -5.053164e-001 -8.556672e+000 135 120 96
-2.058817e-002 -4.196667e-001 -8.557640e+000 113 102 79
2.374448e-002 -3.275634e-001 -8.593979e+000 117 105 80
4.112435e-001 -2.601618e-001 -8.621381e+000 133 121 97
5.556453e-001 -2.067343e-001 -8.618333e+000 119 108 80
3.727821e-002 -5.710317e-001 -8.539046e+000 114 104 79
3.727821e-002 -5.710317e-001 -8.539046e+000 114 104 79
2.508904e-001 -4.875548e-001 -8.597312e+000 14 13 13
-1.986785e+000 -9.183235e-001 -7.967917e+000 122 90 65
2.616232e-001 -7.195123e-001 -8.534331e+000 18 15 16
-2.041859e+000 -1.127313e+000 -7.987966e+000 92 65 44
-9.295407e-002 -8.570142e-001 -8.446597e+000 110 96 69
1.285451e+000 7.904718e-002 -7.600166e+000 152 129 96
1.348449e+000 3.804791e-001 -7.294035e+000 118 80 44
-6.235592e-002 -1.122025e+000 -8.384269e+000 65 56 46
-1.501713e+000 -1.738581e+000 -8.374217e+000 113 94 80
-1.329353e+000 -1.624473e+000 -8.473058e+000 27 13 9
1.793243e+000 -1.832094e-002 -6.873895e+000 165 136 99
1.244061e+000 -1.351019e+000 -7.744276e+000 99 73 46
8.227613e-001 2.435175e+000 -8.655349e+000 119 84 45
1.345583e+000 2.573828e+000 -9.015439e+000 45 37 35
-8.037532e-001 1.548542e+000 -1.041733e+001 141 115 78
9.795592e-001 2.425934e+000 -8.459893e+000 148 129 92
3.758721e+000 2.641948e+000 -1.072105e+001 30 20 21
5.606098e-001 2.103305e+000 -8.607018e+000 83 52 28
5.606098e-001 2.103305e+000 -8.607018e+000 83 52 28
3.566469e+000 2.333097e+000 -1.021378e+001 64 48 48
1.788686e+000 1.850265e+000 -8.610083e+000 14 12 17
-1.873810e+000 5.578454e-001 -8.986971e+000 49 33 20
-2.590574e+000 -1.193216e-002 -8.511341e+000 95 60 31
-2.434732e+000 1.248350e-001 -8.426566e+000 89 55 27
-1.347582e+000 2.708774e-001 -8.862965e+000 38 23 16
-1.161069e+000 2.182272e-001 -8.854645e+000 33 18 13
-9.907848e-001 -8.099669e-002 -8.678709e+000 81 66 45
-2.337277e+000 -3.316473e-001 -8.097449e+000 134 108 73
-2.514403e+000 -5.818214e-001 -8.140836e+000 161 126 88
-1.807021e+000 -3.967223e-001 -8.080902e+000 92 72 46
1.447319e+000 8.558634e-001 -7.641606e+000 124 98 63
-2.572751e+000 -6.740950e-001 -8.072462e+000 138 104 67
-2.163402e+000 -4.843863e-001 -8.005444e+000 129 106 72
1.250084e+000 5.434146e-001 -7.774330e+000 154 129 94
1.461894e+000 5.329225e-001 -7.335680e+000 115 79 45
-3.458935e-001 -1.166127e+000 -8.347462e+000 53 46 35
-1.665370e+000 -1.726629e+000 -8.288088e+000 82 68 59
3.208070e-001 -9.649772e-001 -8.060255e+000 112 84 54
5.772108e-001 -9.362941e-001 -8.078064e+000 33 15 11
3.314540e+000 3.025935e+000 -1.124137e+001 89 77 66
3.253641e+000 2.911594e+000 -1.110204e+001 40 29 25
1.014195e+000 2.263390e+000 -8.355641e+000 149 126 89
-4.024349e-001 1.229182e+000 -9.877436e+000 114 94 61
9.850219e-001 1.506844e+000 -8.382438e+000 40 27 21
9.325582e-001 9.246668e-001 -8.953666e+000 44 39 35
-2.602775e+000 -5.883080e-001 -8.385022e+000 130 95 65
-1.974223e+000 -1.809690e-001 -8.145418e+000 121 97 67
1.310209e+000 7.445746e-001 -7.754526e+000 149 116 81
-8.608656e-001 -1.163636e+000 -8.540047e+000 130 130 139
-2.313377e+000 -1.718159e+000 -8.253309e+000 101 81 54
1.578143e+000 3.629897e-001 -7.126533e+000 148 114 76
2.128964e+000 6.843316e-002 -7.079571e+000 136 112 84
3.482804e+000 3.095135e+000 -1.134255e+001 20 11 10
-2.951915e+000 2.740419e-001 -9.464384e+000 145 130 97
-2.216213e+000 4.134219e-001 -8.741320e+000 100 68 40
3.589800e-001 2.197964e-001 -8.836878e+000 11 11 13
1.448389e+000 8.715668e-001 -7.491673e+000 104 71 37
-2.465727e+000 -1.010033e+000 -8.046647e+000 148 115 82
-1.496472e+000 -1.529611e+000 -8.325704e+000 39 27 27
-1.520583e+000 2.924650e-001 -8.816310e+000 32 15 8
1.145365e+000 4.863912e-001 -7.695078e+000 74 69 63
1.166544e+000 -1.963911e-002 -8.242049e+000 68 60 49
1.591883e+000 6.517534e-001 -7.217520e+000 149 126 84
-2.167806e+000 -1.251261e+000 -8.086126e+000 49 35 26
-1.633044e+000 -1.435173e+000 -8.165744e+000 40 31 30
-4.175669e-001 1.915675e+000 -1.035705e+001 116 86 48
-1.169441e-001 1.880290e+000 -1.030584e+001 38 25 17
-2.864530e+000 2.002269e-001 -9.051447e+000 90 72 48
1.324331e+000 -8.717786e-001 -8.440668e+000 17 15 20
-7.426243e-001 1.567637e+000 -1.021564e+001 130 94 55
2.541524e-001 -1.037122e+000 -8.539946e+000 8 6 9
-1.405337e-001 6.029888e-001 -9.943157e+000 64 56 50
-2.174451e+000 -1.134533e-001 -8.153482e+000 107 80 50
1.111632e+000 -1.163480e+000 -7.903444e+000 61 35 18
-2.162329e+000 -6.494564e-001 -8.300479e+000 115 92 59
9.919717e-001 8.469565e-001 -8.415079e+000 12 10 15
1.941997e+000 1.348712e+000 -8.037665e+000 22 16 20
-1.487024e+001 2.014161e-001 -3.535616e+001 207 202 198
-1.557609e+001 2.428102e+000 -3.429636e+001 50 61 113
-1.460574e+001 2.784053e+000 -3.284069e+001 41 56 112
-1.029344e+001 -1.526972e-001 -3.913286e+001 164 153 135
-1.114872e+001 -8.371472e+000 -2.634487e+001 48 54 85
-9.696680e+000 -6.631349e+000 -2.531066e+001 139 132 105
-9.393146e+000 -6.897232e+000 -2.459321e+001 144 131 106
-9.483159e+000 -7.198596e+000 -2.541316e+001 107 101 101
-1.393050e+001 -9.908381e+000 -2.680026e+001 94 84 85
-5.123636e-001 1.201800e+000 -9.889531e+000 71 44 25
3.462405e+000 1.847762e+000 -1.047249e+001 71 59 45
-2.145852e+000 4.196589e-001 -8.609899e+000 146 109 71
3.955656e+000 1.559136e+000 -9.850741e+000 70 60 59
-2.159934e+000 -4.597001e-002 -8.159579e+000 165 140 100
-1.305631e+001 -1.070183e+001 -2.542274e+001 100 107 141
3.425495e+000 2.264388e+000 -1.071886e+001 33 24 25
3.706722e-001 8.907079e-001 -9.551227e+000 42 38 35
6.140637e-001 1.022877e+000 -9.189546e+000 75 67 55
-1.335111e+001 -1.046349e+001 -2.652401e+001 130 123 130
3.020519e+000 2.835995e+000 -1.143101e+001 26 16 14
3.875440e+000 2.755633e+000 -1.094749e+001 26 18 17
9.096561e-001 1.978549e+000 -8.400773e+000 22 10 10
9.046682e-001 1.983906e+000 -8.382519e+000 22 10 10
-9.602179e+000 -7.277066e+000 -2.593905e+001 100 102 117
-2.639904e+000 3.311030e-001 -9.771149e+000 34 31 27
-8.926049e+000 -7.066434e+000 -2.346471e+001 180 168 152
-1.941102e+000 3.058449e-001 -8.527403e+000 43 21 8
-1.354835e+000 2.947485e-001 -8.886133e+000 32 13 7
-2.016195e+000 -5.258597e-003 -8.241278e+000 57 31 6
-1.243798e+000 4.578482e-002 -8.179247e+000 97 82 59
-5.128620e-001 3.171324e-002 -8.751596e+000 21 14 8
4.810119e-001 5.865707e-002 -8.699337e+000 119 111 87
-8.938571e+000 -1.232470e+001 -2.388109e+001 190 183 167
-5.560940e-001 -6.930237e-001 -8.496781e+000 34 27 16
-1.160856e+001 -1.881741e+001 -3.100313e+001 161 144 126
3.724964e-001 -6.512874e-001 -8.559666e+000 17 12 17
3.024870e+000 2.966911e+000 -1.140396e+001 32 22 23
3.499072e+000 3.124238e+000 -1.144008e+001 63 54 51
-3.753844e-001 8.974617e-001 -9.937991e+000 64 42 18
-2.303861e-001 5.687141e-001 -9.417925e+000 74 70 60
-1.257561e+001 -1.034194e+001 -2.627825e+001 47 45 50
-8.362046e+000 -7.556905e+000 -2.284007e+001 122 114 101
3.730766e+000 1.296928e+000 -1.001943e+001 65 55 43
-2.743247e+000 -7.697656e-002 -8.466335e+000 125 94 65
-2.743247e+000 -7.697656e-002 -8.466335e+000 125 94 65
4.336826e+000 1.320115e+000 -9.311001e+000 59 45 44
-6.557118e-001 -2.077765e-001 -8.740661e+000 67 63 51
4.369319e+000 1.063651e+000 -9.175398e+000 50 40 39
-8.378247e-001 -3.328791e-001 -8.622476e+000 59 48 39
1.126729e+000 1.501843e-001 -8.495739e+000 61 55 48
1.690650e+000 8.868161e-001 -7.600647e+000 32 21 15
-1.599655e+000 -4.887540e-001 -8.015075e+000 90 72 52
-7.937541e-001 -8.958069e-001 -8.549940e+000 66 58 45
3.243915e+000 2.722966e+000 -1.104737e+001 22 13 14
3.953445e+000 2.639732e+000 -1.082743e+001 24 16 14
3.451752e+000 2.436255e+000 -1.076547e+001 20 11 12
1.022290e+000 2.144157e+000 -8.342674e+000 65 41 29
-2.120574e+000 4.809643e-001 -8.879610e+000 70 39 18
-1.391620e+001 -9.933171e+000 -2.702578e+001 66 59 59
-1.967211e+000 4.920752e-001 -8.809375e+000 52 25 14
-1.325483e+001 -1.001431e+001 -2.625526e+001 69 63 67
4.201168e+000 1.499582e+000 -9.682572e+000 26 16 15
2.883038e-001 3.647767e-001 -9.029346e+000 68 61 51
-8.941746e+000 -1.022927e+001 -2.406862e+001 236 234 237
1.130521e+000 1.555843e-001 -8.638213e+000 35 31 31
6.959719e-001 -1.029134e+000 -7.687300e+000 69 40 22
-3.572477e-001 1.859190e+000 -1.002363e+001 107 74 43
1.356002e-002 6.270245e-001 -9.787767e+000 43 40 35
-9.293483e-002 3.600280e-001 -8.994100e+000 96 89 70
4.180275e+000 1.088238e+000 -9.390594e+000 71 63 55
1.183529e+000 2.273789e-001 -8.482020e+000 41 36 30
2.938516e+000 2.659130e+000 -1.113150e+001 48 40 37
4.108793e+000 2.415516e+000 -1.034402e+001 61 47 43
-1.012066e+001 -7.880841e+000 -2.517182e+001 56 61 81
-8.363480e-001 2.955386e-001 -9.191816e+000 20 23 14
-1.277020e+001 -1.083535e+001 -2.561721e+001 88 83 97
3.032219e+000 2.537203e+000 -1.116914e+001 21 16 14
1.112126e+000 1.579731e+000 -8.296173e+000 27 13 10
1.343073e+000 1.460357e+000 -8.340741e+000 66 44 31
-1.455253e+001 -1.093588e+001 -2.688369e+001 81 76 73
-1.068724e+001 -9.794007e+000 -2.625279e+001 255 255 253
-5.020806e-001 5.788683e-002 -8.812993e+000 26 18 22
-1.247397e+001 -1.014471e+001 -2.649170e+001 65 60 64
3.899266e-001 3.499221e-001 -8.906399e+000 72 66 54
3.447437e+000 2.851043e+000 -1.111924e+001 88 73 54
3.064740e+000 2.565875e+000 -1.104459e+001 24 20 19
3.348225e+000 3.140210e+000 -1.141834e+001 84 71 63
3.440747e+000 3.013782e+000 -1.134031e+001 41 28 19
-5.243426e-001 1.883851e+000 -1.015236e+001 129 96 60
2.992014e+000 2.706468e+000 -1.129568e+001 52 42 40
3.058842e+000 2.830853e+000 -1.138083e+001 27 16 14
3.058842e+000 2.830853e+000 -1.138083e+001 27 16 14
3.783064e+000 2.773260e+000 -1.107509e+001 24 12 12
3.958108e+000 2.590624e+000 -1.084547e+001 32 20 20
-7.674943e-001 1.157911e+000 -1.019401e+001 66 39 18
-6.515226e-001 1.208618e+000 -9.986199e+000 78 52 25
3.161735e+000 2.248091e+000 -1.086201e+001 77 65 51
3.604899e+000 2.304225e+000 -1.071611e+001 22 14 12
3.419894e+000 2.121046e+000 -1.064697e+001 21 15 14
-2.611932e+000 3.075994e-001 -9.788883e+000 118 111 100
-3.940470e-001 1.122377e+000 -9.847936e+000 125 102 68
4.045004e+000 2.255504e+000 -1.034990e+001 60 42 37
-3.094639e+000 1.937143e-001 -9.342438e+000 154 139 108
-2.045397e+000 5.105961e-001 -8.840213e+000 101 69 44
-2.169016e-001 6.762663e-001 -9.848195e+000 15 11 10
-2.102072e+000 4.339853e-001 -8.670323e+000 63 31 15
-1.026437e+000 4.027326e-001 -9.381578e+000 122 116 92
-1.026437e+000 4.027326e-001 -9.381578e+000 122 116 92
-1.464163e+000 3.940846e-001 -8.915828e+000 34 17 1
-1.042551e+000 3.504411e-001 -9.351265e+000 101 93 76
-1.042551e+000 3.504411e-001 -9.351265e+000 101 93 76
-1.076177e-001 5.337569e-001 -9.423104e+000 12 7 4
-2.132844e+000 2.120719e-001 -8.391426e+000 74 46 22
-2.027626e+000 2.314863e-001 -8.417176e+000 109 83 60
-1.987637e+000 2.044034e-001 -8.406801e+000 97 70 51
-1.263860e+000 2.416573e-001 -8.863426e+000 34 17 7
-1.913658e+000 1.585572e-001 -8.384716e+000 43 19 9
-1.913658e+000 1.585572e-001 -8.384716e+000 43 19 9
-1.793684e+000 1.729819e-001 -8.430536e+000 64 46 35
1.884427e-001 3.937797e-001 -9.088423e+000 75 68 56
2.412417e-001 4.216928e-001 -9.180522e+000 61 58 53
1.389354e+000 1.347997e+000 -8.404199e+000 102 80 50
-2.518468e+000 -1.387406e-001 -8.299380e+000 103 68 31
-2.411280e+000 -1.658403e-001 -8.200629e+000 125 91 56
-1.113670e+000 1.975894e-001 -8.529117e+000 70 52 30
2.592563e-001 3.366702e-001 -8.959785e+000 83 77 62
-2.636629e+000 -3.028707e-001 -8.231059e+000 146 115 86
-2.573428e+000 -3.044861e-001 -8.207178e+000 111 75 41
-2.317307e+000 -2.346970e-001 -8.159788e+000 92 62 26
-1.706580e+000 -9.714312e-002 -8.366171e+000 56 34 11
-5.730217e-001 5.260863e-002 -8.640254e+000 76 65 45
-1.934074e+000 -2.553451e-001 -8.036408e+000 130 104 71
-1.736512e+000 -4.110640e-001 -8.076102e+000 80 61 47
-4.108590e-001 -2.019395e-001 -8.627347e+000 102 35 29
-3.689698e-001 -3.284772e-001 -8.572266e+000 28 22 12
-4.528787e-001 -4.423515e-001 -8.539043e+000 29 24 17
5.182840e-001 -3.490128e-002 -8.665536e+000 129 117 79
-2.517637e+000 -9.172745e-001 -8.015806e+000 121 82 43
-2.183603e+000 -6.422715e-001 -7.883029e+000 139 113 80
-6.766976e-001 -9.760761e-001 -8.494776e+000 139 136 116
-6.766976e-001 -9.760761e-001 -8.494776e+000 139 136 116
-3.713372e-001 -8.411116e-001 -8.409452e+000 138 124 83
4.986455e-001 -6.866579e-001 -8.627118e+000 11 2 5
-7.311482e-001 -1.255925e+000 -8.516741e+000 152 156 165
-6.449948e-001 -1.237433e+000 -8.441009e+000 84 81 86
7.227380e-001 -8.383931e-001 -8.719244e+000 15 11 10
1.469609e+000 6.139126e-001 -7.220680e+000 71 35 13
-1.186754e+000 -1.528770e+000 -8.267289e+000 27 23 22
-1.116365e+000 -1.407658e+000 -8.289316e+000 46 33 27
1.072808e+000 -1.255792e+000 -8.997693e+000 25 26 31
1.380730e+000 3.657911e-001 -7.280774e+000 101 59 19
-1.886094e+000 -1.739727e+000 -8.131246e+000 82 68 59
1.192148e-001 -1.175119e+000 -8.187522e+000 71 57 42
2.346934e-001 -1.105409e+000 -7.994231e+000 101 74 53
2.575342e-001 -1.194475e+000 -7.995514e+000 52 24 9
2.933123e-001 -1.092714e+000 -7.896459e+000 59 31 11
1.694407e+000 3.224759e-001 -7.004714e+000 88 52 16
2.633271e+000 1.343958e-001 -7.488074e+000 51 39 39
8.425319e-001 -1.017301e+000 -7.507345e+000 132 93 58
3.534777e+000 3.111246e+000 -1.151314e+001 59 45 42
-1.162224e-001 1.752403e+000 -1.009324e+001 42 25 10
7.915759e-001 2.449812e+000 -8.740842e+000 101 64 22
3.098855e+000 2.462747e+000 -1.110264e+001 19 10 11
3.154582e+000 2.321359e+000 -1.099189e+001 32 20 12
3.270082e+000 2.253235e+000 -1.080505e+001 46 37 35
-7.055814e-001 1.007148e+000 -1.006457e+001 123 97 65
-1.300291e-001 1.216354e+000 -1.003356e+001 49 31 10
3.679506e+000 2.182757e+000 -1.069795e+001 20 11 13
4.043259e+000 2.457811e+000 -1.065269e+001 16 10 7
-3.046122e+000 2.133817e-001 -9.677218e+000 43 36 29
-4.260678e-001 1.100787e+000 -9.910742e+000 78 53 20
3.440611e+000 2.020337e+000 -1.058411e+001 27 17 14
-2.765837e+000 2.769563e-001 -9.348882e+000 64 43 22
-1.826327e+000 5.520192e-001 -9.240206e+000 89 71 51
3.245224e+000 1.763903e+000 -1.077353e+001 43 31 19
4.026968e+000 2.119651e+000 -1.025039e+001 34 20 19
4.139294e+000 2.100081e+000 -1.017671e+001 92 75 68
-2.019524e+000 4.664354e-001 -8.740145e+000 101 70 49
-1.517531e+000 4.363232e-001 -8.974896e+000 52 31 13
-1.519942e+000 4.212965e-001 -9.001842e+000 52 31 13
-1.180508e+000 3.984649e-001 -9.480468e+000 79 72 55
3.562220e+000 1.584278e+000 -1.027897e+001 76 64 49
-1.324453e+000 4.044764e-001 -8.994144e+000 56 39 23
-1.854874e+000 3.095819e-001 -8.490555e+000 73 52 39
-1.854874e+000 3.095819e-001 -8.490555e+000 73 52 39
-1.453131e+000 2.334671e-001 -8.851285e+000 38 19 10
7.507470e-001 7.947217e-001 -9.059176e+000 54 50 41
3.644279e+000 1.274866e+000 -1.016306e+001 67 55 43
4.017183e+000 1.574755e+000 -9.877801e+000 23 18 14
3.984200e+000 1.539955e+000 -9.895512e+000 54 45 41
-1.921135e+000 1.388784e-001 -8.468172e+000 37 13 3
-1.029947e+000 1.203618e-001 -8.954457e+000 63 46 33
1.347163e+000 1.329924e+000 -8.299113e+000 99 79 55
1.786622e+000 1.505404e+000 -8.360804e+000 98 79 61
3.788721e+000 1.314953e+000 -1.002877e+001 70 61 44
4.251391e+000 1.579404e+000 -9.716822e+000 49 38 36
-2.377391e+000 -1.946904e-001 -8.230062e+000 89 57 20
-1.927613e+000 4.396942e-002 -8.240253e+000 92 65 46
-1.939912e+000 1.910217e-002 -8.208255e+000 91 64 43
-1.939912e+000 1.910217e-002 -8.208255e+000 91 64 43
-1.903377e+000 2.627202e-002 -8.231862e+000 58 31 14
-1.004574e+000 2.684387e-002 -8.964599e+000 47 40 34
3.983727e+000 1.260426e+000 -9.694061e+000 44 32 20
-2.007477e+000 -4.692559e-002 -8.105312e+000 119 93 60
-1.347664e+000 1.545793e-001 -8.225691e+000 44 27 14
-8.983755e-001 1.845049e-001 -8.387264e+000 17 13 11
-2.371895e+000 -3.765860e-001 -8.101326e+000 151 119 80
8.200323e-001 3.476553e-001 -8.853126e+000 17 13 14
4.114439e+000 1.034055e+000 -9.587819e+000 74 66 46
6.024466e-001 1.612594e-001 -8.743554e+000 91 88 71
6.370964e-001 1.213314e-001 -8.705350e+000 103 96 78
-2.488415e+000 -7.432258e-001 -8.047228e+000 143 115 77
-2.215850e+000 -6.500006e-001 -7.920830e+000 101 75 40
-9.004899e-001 -5.412142e-001 -8.452870e+000 47 39 30
1.337430e+000 7.779425e-001 -7.636181e+000 143 109 71
1.234121e+000 3.099461e-001 -7.835451e+000 71 61 51
4.268392e+000 5.456872e-001 -9.215020e+000 62 52 43
5.466027e-001 -6.133203e-001 -8.671461e+000 15 11 9
8.335971e-001 -5.123034e-001 -8.505188e+000 50 44 35
1.060903e+000 -2.874388e-001 -8.495324e+000 46 43 35
-1.395049e+000 -1.144220e+000 -7.986325e+000 92 73 57
-6.964483e-001 -1.218370e+000 -8.470696e+000 82 85 94
-2.094508e-001 -1.002303e+000 -8.354931e+000 106 98 79
4.064673e-002 -9.347552e-001 -8.440758e+000 23 16 9
4.246821e-001 -8.013007e-001 -8.589145e+000 14 9 11
4.397280e+000 4.513292e-001 -8.846298e+000 63 50 41
4.382143e+000 4.388613e-001 -8.748021e+000 64 52 40
1.720155e+000 4.965268e-001 -7.079985e+000 160 138 89
5.656693e-002 -1.258838e+000 -8.020422e+000 74 56 46
1.337519e-001 -1.146144e+000 -7.990933e+000 89 66 50
1.036487e+000 -8.717960e-001 -8.116437e+000 110 118 137
2.853850e+000 1.406549e-001 -7.195660e+000 65 49 24
1.801495e+000 -1.465122e-001 -6.875237e+000 165 144 118
1.098739e+000 2.594844e+000 -9.257859e+000 111 96 80
3.908330e+000 2.779360e+000 -1.116128e+001 35 24 22
3.957841e+000 2.735409e+000 -1.099978e+001 59 45 42
4.007459e+000 2.754317e+000 -1.101233e+001 29 19 20
6.578623e-001 2.336508e+000 -8.490182e+000 144 106 70
4.054136e+000 2.758807e+000 -1.086997e+001 31 21 19
3.731534e+000 2.543468e+000 -1.062521e+001 93 83 66
3.997811e+000 2.542575e+000 -1.063463e+001 32 22 23
-7.970377e-001 9.923143e-001 -1.015348e+001 76 53 28
7.309612e-001 1.889751e+000 -8.471817e+000 120 92 63
4.135596e+000 2.351709e+000 -1.048399e+001 38 25 24
4.993531e-002 8.772349e-001 -1.002739e+001 50 42 34
7.145163e-001 1.646861e+000 -8.678166e+000 105 93 73
-2.013268e+000 5.317768e-001 -8.957748e+000 88 64 42
4.467017e-001 1.114681e+000 -9.616690e+000 40 36 37
8.357638e-001 1.709095e+000 -8.422788e+000 76 55 36
3.714126e+000 1.862317e+000 -1.023948e+001 25 15 16
4.162186e+000 2.128279e+000 -1.018973e+001 30 19 14
-2.505999e+000 2.869635e-001 -8.689176e+000 120 90 54
-1.543829e+000 4.888337e-001 -9.085549e+000 105 83 60
7.918949e-001 1.478204e+000 -8.624598e+000 51 44 33
3.768801e+000 1.626128e+000 -1.022266e+001 74 65 49
-1.833151e+000 3.564410e-001 -8.654206e+000 35 16 12
-2.476748e+000 7.099316e-002 -8.403165e+000 141 106 68
-2.267746e+000 1.091907e-001 -8.439619e+000 77 43 15
-1.859508e+000 2.061073e-001 -8.572119e+000 39 19 15
-1.834496e+000 2.211690e-001 -8.597113e+000 34 17 10
-1.078018e+000 2.340250e-001 -8.951332e+000 66 50 35
1.042504e+000 8.640891e-001 -8.948902e+000 47 40 32
4.111572e+000 1.474186e+000 -9.701077e+000 45 35 31
-1.833922e+000 5.295350e-002 -8.275430e+000 79 54 33
3.480253e-001 3.689227e-001 -8.959307e+000 45 37 26
-2.419907e+000 -2.379655e-001 -8.134750e+000 142 110 72
4.056665e+000 1.026328e+000 -9.680833e+000 80 64 48
-2.020801e+000 -3.547985e-001 -8.048826e+000 100 71 39
-1.553021e+000 -2.781697e-001 -8.121910e+000 74 50 21
-1.503061e+000 -4.543924e-001 -8.092486e+000 84 59 37
-1.523144e+000 -6.269870e-001 -8.039976e+000 67 36 8
-1.373039e+000 -5.426793e-001 -8.164735e+000 77 47 22
4.765929e-001 -4.706840e-001 -8.596819e+000 17 13 17
5.649538e-001 -4.403041e-001 -8.646435e+000 85 78 60
5.871513e-001 -5.060261e-001 -8.655370e+000 18 11 13
6.017982e-001 -5.750081e-001 -8.665569e+000 68 62 47
1.276626e+000 6.040828e-001 -7.452429e+000 151 112 71
6.843997e-001 -6.550167e-001 -8.696960e+000 63 60 51
-1.947378e+000 -1.391696e+000 -8.038123e+000 92 76 60
-1.580998e+000 -1.173997e+000 -7.929731e+000 32 18 14
-6.831958e-001 -1.119910e+000 -8.464680e+000 45 45 49
1.275278e+000 4.586595e-001 -7.299028e+000 159 121 76
1.406382e+000 3.942056e-001 -7.135374e+000 169 131 84
4.431289e+000 3.569648e-001 -8.739785e+000 64 53 39
4.496791e-002 -1.260535e+000 -8.213339e+000 28 17 12
4.598914e-001 -9.412736e-001 -8.160247e+000 42 22 12
3.126250e-001 -1.023809e+000 -8.022125e+000 48 25 11
6.551603e-001 -7.952614e-001 -7.780771e+000 86 59 41
-6.993033e-002 -1.631207e+000 -8.113652e+000 34 26 23
1.545225e-001 -1.289858e+000 -7.864150e+000 49 27 21
2.722779e-001 -1.265207e+000 -7.890867e+000 50 26 15
4.982348e-001 -9.667932e-001 -7.785277e+000 72 36 18
5.456801e-001 -9.891638e-001 -7.665081e+000 110 76 51
1.364061e-001 -1.599102e+000 -7.939636e+000 128 98 70
2.821009e+000 4.601853e-002 -7.265326e+000 50 42 39
6.027088e-001 -1.506596e+000 -7.691959e+000 180 149 105
1.062049e+000 -1.291917e+000 -7.573450e+000 124 91 50
-1.203130e-001 1.971434e+000 -1.029787e+001 43 27 19
3.049986e+000 2.766204e+000 -1.116170e+001 59 47 43
1.066836e+000 2.574153e+000 -9.321815e+000 42 33 28
-7.814464e-001 1.270814e+000 -1.028736e+001 70 41 25
-6.467817e-001 1.272791e+000 -1.005411e+001 121 90 59
-2.685686e+000 3.703223e-001 -9.597844e+000 25 18 18
3.653021e+000 2.177705e+000 -1.025522e+001 45 35 31
3.849742e+000 2.087462e+000 -1.028301e+001 51 40 36
-1.642508e+000 5.383496e-001 -9.122894e+000 101 78 48
8.945528e-001 1.828691e+000 -8.291483e+000 45 32 24
-2.861811e+000 5.169247e-002 -8.793107e+000 118 84 46
-2.378820e+000 3.467923e-001 -8.824740e+000 85 53 26
-1.145929e+000 4.378095e-001 -9.499473e+000 26 20 20
-1.115504e+000 3.873982e-001 -9.443148e+000 94 87 68
-8.329770e-001 4.810456e-001 -9.352670e+000 22 19 13
-6.212726e-001 5.560050e-001 -9.470000e+000 20 18 12
-3.349308e-001 6.328757e-001 -9.599940e+000 96 89 71
-3.349308e-001 6.328757e-001 -9.599940e+000 96 89 71
-2.458873e+000 2.360724e-001 -8.554823e+000 131 99 58
-2.458873e+000 2.360724e-001 -8.554823e+000 131 99 58
-1.436553e+000 3.980962e-001 -9.018417e+000 49 30 15
-1.458869e+000 3.882951e-001 -8.870112e+000 33 17 7
-1.033593e+000 3.708084e-001 -9.377150e+000 109 101 83
-9.725684e-001 4.159108e-001 -9.358603e+000 21 21 13
-5.106579e-001 5.155010e-001 -9.337540e+000 92 85 69
-4.911454e-001 4.770123e-001 -9.275541e+000 17 12 16
-1.934456e-001 5.345255e-001 -9.329665e+000 15 13 15
-1.363010e-001 5.532272e-001 -9.421918e+000 14 10 11
-2.316414e-002 5.803265e-001 -9.615181e+000 16 16 16
4.044528e+000 1.746875e+000 -9.967852e+000 26 16 14
-1.794383e+000 3.266186e-001 -8.611180e+000 63 41 28
-1.534258e+000 2.352293e-001 -8.800041e+000 38 21 14
-1.038685e+000 2.493760e-001 -8.961200e+000 14 10 13
-3.960828e-001 4.611038e-001 -9.218097e+000 16 15 11
-1.540683e-001 4.726892e-001 -9.185947e+000 11 11 9
-1.150247e-001 5.229372e-001 -9.352454e+000 68 58 48
-3.879431e-002 5.095456e-001 -9.381685e+000 17 12 7
-7.505060e-002 4.688883e-001 -9.211199e+000 68 62 46
-1.685591e-002 4.845673e-001 -9.313247e+000 77 70 60
-1.685591e-002 4.845673e-001 -9.313247e+000 77 70 60
1.609861e-003 4.630527e-001 -9.241098e+000 18 13 10
5.538842e-002 4.917306e-001 -9.331199e+000 20 15 14
1.496569e-001 4.743525e-001 -9.276626e+000 15 13 12
-2.383128e+000 3.753141e-002 -8.240218e+000 136 102 68
-1.102301e+000 1.604009e-001 -8.836606e+000 39 25 16
-6.947408e-001 1.884409e-001 -9.028021e+000 25 21 13
-1.702755e-002 3.710027e-001 -9.008716e+000 17 16 14
4.083353e+000 1.497977e+000 -9.732378e+000 24 15 14
-3.896846e-001 -3.291258e-001 -8.591366e+000 25 23 19
-4.304257e-001 -4.327991e-001 -8.563125e+000 31 27 24
1.685945e-001 -2.748647e-001 -8.626812e+000 118 103 79
1.685945e-001 -2.748647e-001 -8.626812e+000 118 103 79
2.392897e-001 -2.459802e-001 -8.642208e+000 26 21 16
2.340618e-001 -2.303112e-001 -8.618713e+000 26 21 16
2.110252e+000 9.644901e-001 -8.043829e+000 14 6 7
-2.283292e+000 -6.583684e-001 -7.871968e+000 151 122 90
-2.272930e+000 -8.136256e-001 -7.943019e+000 112 79 44
-5.180481e-001 -6.234270e-001 -8.508417e+000 26 22 15
2.666151e-001 -3.029585e-001 -8.613741e+000 127 119 82
2.218855e-001 -4.015469e-001 -8.588015e+000 114 100 68
2.218855e-001 -4.015469e-001 -8.588015e+000 114 100 68
2.907698e-001 -3.797649e-001 -8.607300e+000 33 26 21
-5.642800e-001 -7.180052e-001 -8.485395e+000 31 27 17
1.755686e-001 -4.957837e-001 -8.547596e+000 104 92 68
6.104487e-002 -6.187745e-001 -8.499222e+000 23 26 13
1.342459e-001 -5.933443e-001 -8.513151e+000 119 103 71
1.342459e-001 -5.933443e-001 -8.513151e+000 119 103 71
2.036301e-001 -5.635510e-001 -8.532982e+000 20 16 16
3.449203e-001 -5.159502e-001 -8.577201e+000 27 24 14
1.400920e+000 7.642967e-001 -7.500622e+000 75 47 26
-6.666623e-001 -1.024151e+000 -8.475133e+000 36 31 28
-6.666585e-001 -1.047385e+000 -8.502886e+000 36 31 28
-6.098181e-001 -9.833388e-001 -8.442275e+000 137 132 109
-5.495198e-001 -9.455409e-001 -8.417953e+000 33 29 30
-5.495198e-001 -9.455409e-001 -8.417953e+000 33 29 30
-4.855266e-001 -8.936580e-001 -8.383670e+000 128 121 95
-5.207865e-002 -7.387017e-001 -8.455476e+000 102 91 64
-2.637427e-002 -7.955230e-001 -8.426592e+000 22 16 16
4.486770e-002 -7.786157e-001 -8.464435e+000 97 85 59
4.486770e-002 -7.786157e-001 -8.464435e+000 97 85 59
8.877431e-002 -6.943007e-001 -8.499659e+000 118 102 77
2.313902e-001 -6.352520e-001 -8.522926e+000 95 85 58
1.721465e+000 8.016216e-001 -7.309470e+000 144 126 83
1.737990e+000 8.365552e-001 -7.346433e+000 49 30 13
1.737990e+000 8.365552e-001 -7.346433e+000 49 30 13
-5.200358e-001 -1.033331e+000 -8.416487e+000 134 127 104
-4.540712e-001 -9.989275e-001 -8.400525e+000 24 23 19
-4.281014e-001 -1.060612e+000 -8.373295e+000 137 127 99
7.239621e-002 -8.538180e-001 -8.461452e+000 18 14 12
1.701354e+000 7.191781e-001 -7.229348e+000 44 27 17
-1.175027e+000 -1.314121e+000 -8.184933e+000 39 24 19
-4.992615e-001 -1.261998e+000 -8.390314e+000 122 115 97
1.040243e-001 -1.362413e+000 -7.880644e+000 92 72 61
2.529556e-001 -1.373598e+000 -7.795978e+000 142 109 78
3.540326e+000 3.239732e+000 -1.157814e+001 65 51 50
2.973977e+000 1.976246e+000 -1.113136e+001 25 16 11
9.071544e-002 7.142046e-001 -9.944272e+000 55 52 40
3.949861e+000 2.008699e+000 -1.012990e+001 22 16 19
-1.191649e+000 2.466277e-001 -9.637283e+000 14 11 13
-8.819176e-001 4.014495e-001 -9.294964e+000 27 21 21
-8.096498e-001 4.367676e-001 -9.288704e+000 116 107 74
-6.413189e-001 4.347375e-001 -9.253070e+000 20 21 14
-2.599503e+000 6.741297e-002 -8.523322e+000 135 101 56
-6.706222e-001 3.063179e-001 -9.136891e+000 120 107 83
-6.706222e-001 3.063179e-001 -9.136891e+000 120 107 83
-6.198202e-001 3.829519e-001 -9.197824e+000 109 100 69
-3.772118e-001 4.158828e-001 -9.157849e+000 108 103 73
-3.772118e-001 4.158828e-001 -9.157849e+000 108 103 73
-3.029314e-001 4.417793e-001 -9.162336e+000 21 19 15
-5.015503e-001 3.135482e-001 -9.087000e+000 20 19 15
-4.293228e-001 3.455389e-001 -9.087142e+000 119 104 78
-3.355052e-001 3.239906e-001 -9.039739e+000 118 113 84
-2.825582e-001 3.975685e-001 -9.103069e+000 108 103 72
-1.693353e+000 4.291972e-002 -8.532086e+000 17 11 6
-3.873974e-001 2.509422e-001 -8.977010e+000 120 109 87
1.200022e-001 2.307181e-001 -8.846134e+000 68 61 43
-1.346758e-001 -1.407434e-001 -8.633590e+000 135 120 86
1.186144e-002 -8.345114e-002 -8.644476e+000 126 117 76
6.020423e-001 7.115346e-002 -8.705517e+000 65 58 42
1.354569e+000 5.415487e-001 -8.451017e+000 52 47 43
-2.538433e-001 -2.608533e-001 -8.589799e+000 27 22 20
-2.538433e-001 -2.608533e-001 -8.589799e+000 27 22 20
-2.982307e-001 -3.606893e-001 -8.562689e+000 27 22 18
-2.982307e-001 -3.606893e-001 -8.562689e+000 27 22 18
-2.257526e-001 -3.316973e-001 -8.568881e+000 131 118 77
-2.257526e-001 -3.316973e-001 -8.568881e+000 131 118 77
-1.794844e-001 -2.373214e-001 -8.604047e+000 127 116 79
-1.076085e-001 -2.076471e-001 -8.606852e+000 32 24 21
3.887039e-002 -1.542367e-001 -8.627629e+000 26 16 13
6.590548e-002 -2.218107e-001 -8.607817e+000 125 113 78
2.174145e-002 -3.144156e-001 -8.574003e+000 130 117 70
3.854168e-001 -1.873730e-001 -8.639716e+000 25 17 13
3.854168e-001 -1.873730e-001 -8.639716e+000 25 17 13
4.318181e-001 -8.988428e-002 -8.657453e+000 31 22 21
-2.700787e-001 -4.229788e-001 -8.533830e+000 134 122 82
-1.968117e-001 -3.971124e-001 -8.542596e+000 27 21 11
-1.968117e-001 -3.971124e-001 -8.542596e+000 27 21 11
-5.146210e-002 -3.397859e-001 -8.557463e+000 28 24 15
-9.575427e-002 -4.354834e-001 -8.526731e+000 35 28 20
3.373885e-001 -2.812482e-001 -8.619003e+000 27 26 17
4.102274e-001 -2.558572e-001 -8.614813e+000 144 130 96
3.670242e-001 -3.623273e-001 -8.618288e+000 143 132 104
3.670242e-001 -3.623273e-001 -8.618288e+000 143 132 104
4.790004e-001 -2.238844e-001 -8.606381e+000 33 29 24
2.307721e+000 8.814906e-001 -7.986248e+000 17 11 15
-4.274402e-001 -6.519943e-001 -8.483704e+000 29 22 19
-3.993709e-001 -7.126830e-001 -8.452731e+000 123 113 84
-1.396703e-001 -5.313181e-001 -8.497294e+000 31 23 14
-1.839756e-001 -6.231674e-001 -8.460340e+000 26 24 15
-1.839756e-001 -6.231674e-001 -8.460340e+000 26 24 15
1.900522e+000 9.055721e-001 -7.534567e+000 127 107 67
-4.412509e-001 -8.125030e-001 -8.427401e+000 119 114 83
-4.136095e-001 -8.740687e-001 -8.392604e+000 27 23 20
-3.697197e-001 -7.804830e-001 -8.424188e+000 28 25 22
-2.696869e-001 -8.129705e-001 -8.396884e+000 26 26 20
-2.696869e-001 -8.129705e-001 -8.396884e+000 26 26 20
-2.265922e-001 -7.181094e-001 -8.427595e+000 29 24 19
-3.848980e-001 -9.609078e-001 -8.391423e+000 132 118 93
-3.123439e-001 -9.097978e-001 -8.370693e+000 27 27 19
-3.123439e-001 -9.097978e-001 -8.370693e+000 27 27 19
-2.396666e-001 -8.835722e-001 -8.382908e+000 126 114 85
-1.250225e+000 -1.455367e+000 -8.177640e+000 101 83 69
-3.687019e-001 -1.470776e+000 -8.435951e+000 68 64 63
