ply
format ascii 1.0
element face 0
property list uchar int vertex_indices
element vertex 871
property float x
property float y
property float z
property uchar diffuse_red
property uchar diffuse_green
property uchar diffuse_blue
end_header
9.640192e-001 -1.002754e+000 -6.487094e+000 224 60 67
9.320210e-001 2.189358e-001 -6.266792e+000 158 143 136
6.369784e-001 -2.194365e-002 -6.433552e+000 191 184 175
-6.287391e-001 -3.337064e-001 -6.341774e+000 255 211 172
7.349632e-001 8.941224e-001 -6.433343e+000 194 34 44
9.673238e-001 5.502169e-001 -6.173566e+000 19 0 9
-1.801125e-001 7.000628e-001 -7.470730e+000 223 216 209
2.768229e-001 6.101669e-001 -6.895875e+000 149 139 129
4.748771e-001 5.118091e-001 -6.701822e+000 222 213 208
-3.489248e-001 -6.222424e-002 -6.377381e+000 87 23 15
1.153953e+000 -3.166200e-002 -6.080774e+000 248 77 87
7.119908e-001 -9.515710e-002 -6.417531e+000 241 241 233
8.952259e-001 -2.707708e-001 -6.315271e+000 111 91 67
9.952890e-001 -2.950139e-001 -6.299311e+000 165 141 95
8.854300e-001 -3.448999e-001 -6.340869e+000 188 166 113
6.201712e-001 -5.443018e-001 -6.590403e+000 205 195 184
6.166899e-001 6.585662e-001 -6.527495e+000 209 202 194
-1.913922e-001 -1.880434e-001 -6.729173e+000 93 66 37
5.039533e-001 -2.633765e-001 -6.698049e+000 247 245 241
2.460542e-001 -4.655166e-001 -6.757910e+000 61 39 25
1.068714e+000 -6.669135e-001 -6.309053e+000 255 78 92
3.645327e-001 7.201285e-001 -6.846985e+000 228 221 214
4.240865e-001 -1.085316e+000 -7.260109e+000 144 123 80
-5.376747e-001 -4.725074e-001 -6.686947e+000 45 33 33
1.177489e+000 -5.555638e-001 -6.179828e+000 24 8 11
-5.880313e-002 1.184339e+000 -7.314895e+000 148 23 29
-3.623504e-002 7.932454e-001 -7.203793e+000 212 206 197
8.097073e-001 8.185769e-001 -6.378878e+000 98 12 21
1.325383e-001 6.287953e-001 -7.089394e+000 155 145 135
8.909595e-001 7.016511e-001 -6.334470e+000 188 53 56
-8.625492e-002 4.723846e-001 -7.217012e+000 151 141 131
3.785650e-001 2.593047e-001 -6.783031e+000 143 129 118
-8.862472e-002 6.808040e-002 -6.679314e+000 135 120 113
3.729458e-004 8.971115e-002 -6.762751e+000 122 110 103
1.583968e-002 5.747740e-002 -6.731276e+000 153 143 133
2.159098e-001 6.656959e-002 -6.528068e+000 156 146 137
-5.724121e-001 -1.668200e-001 -6.500323e+000 156 71 47
-5.724121e-001 -1.668200e-001 -6.500323e+000 156 71 47
-4.800559e-001 -1.257409e-001 -6.484209e+000 176 90 62
-4.874371e-001 -1.307283e-001 -6.528147e+000 176 90 62
-2.420536e-001 -1.444145e-001 -6.513057e+000 145 58 35
-2.730847e-001 -1.676631e-001 -6.452792e+000 196 88 56
5.195492e-001 -1.347484e-002 -6.505746e+000 197 189 181
-5.515760e-001 -2.566859e-001 -6.553704e+000 187 84 56
-5.061812e-001 -2.465483e-001 -6.554764e+000 191 72 37
9.941035e-002 -2.356362e-001 -6.706679e+000 242 236 231
-4.093205e-002 -3.037325e-001 -6.762499e+000 44 33 15
-4.019779e-001 -3.573846e-001 -6.443041e+000 201 179 160
1.903989e-001 -3.525645e-001 -6.751926e+000 141 120 74
4.896111e-001 -6.060930e-001 -6.745388e+000 241 238 228
6.917912e-001 -7.810415e-001 -6.722543e+000 229 79 86
1.068827e+000 -6.150802e-001 -6.168766e+000 180 21 31
1.062173e+000 -6.367259e-001 -6.152684e+000 23 4 1
-3.188484e-001 7.669897e-001 -7.631955e+000 195 186 185
8.518547e-001 7.873997e-001 -6.369294e+000 18 6 10
1.128882e-001 6.675393e-001 -7.077444e+000 212 206 200
1.116549e-001 6.665405e-001 -7.057695e+000 212 206 200
7.730800e-001 5.782548e-001 -6.426017e+000 234 229 226
7.750850e-001 5.779110e-001 -6.436161e+000 234 229 226
1.784839e-001 2.942302e-001 -6.775906e+000 136 120 107
2.831836e-002 2.450978e-001 -6.928626e+000 152 139 130
1.470316e-002 1.184760e-001 -6.777062e+000 128 114 105
3.622246e-001 2.242923e-001 -6.748005e+000 140 127 111
-1.121240e-001 8.656667e-002 -6.701502e+000 123 110 102
-1.121240e-001 8.656667e-002 -6.701502e+000 123 110 102
-4.594493e-002 3.259868e-002 -6.673279e+000 147 134 126
7.484542e-002 -6.219352e-003 -6.677985e+000 125 112 104
8.464459e-002 1.250235e-002 -6.678922e+000 169 160 151
-2.574935e-001 -1.065126e-001 -6.531433e+000 65 4 1
-2.576298e-001 -1.066870e-001 -6.531660e+000 65 4 1
-1.474248e-001 -5.613373e-002 -6.617353e+000 172 87 71
-1.474750e-001 -1.052575e-001 -6.590676e+000 207 180 171
-6.747822e-001 -2.747797e-001 -6.312522e+000 230 112 81
-6.747822e-001 -2.747797e-001 -6.312522e+000 230 112 81
-5.123938e-001 -3.186326e-001 -6.565809e+000 66 24 20
-4.146360e-001 -3.468534e-001 -6.423079e+000 57 54 68
-1.983020e-001 -3.436408e-001 -6.599314e+000 179 166 158
4.452773e-001 -2.109731e-001 -6.694137e+000 230 227 220
-1.561058e-002 -4.258665e-001 -6.767607e+000 254 252 247
7.720064e-004 -4.653622e-001 -6.860685e+000 46 35 29
7.767707e-001 -4.847554e-001 -6.368509e+000 211 186 130
1.278040e+000 -3.601886e-001 -6.060694e+000 198 175 121
2.754481e-001 -8.906118e-001 -6.964867e+000 41 31 23
4.599542e-001 -1.025192e+000 -7.088183e+000 150 128 79
1.083099e+000 -5.866298e-001 -6.189345e+000 211 46 55
5.822066e-001 1.148656e+000 -6.745605e+000 182 43 46
-3.026918e-001 7.452154e-001 -7.590792e+000 156 140 131
7.469628e-001 8.315587e-001 -6.391936e+000 113 9 17
-4.879427e-001 5.182713e-001 -7.855052e+000 34 24 16
-1.628025e-001 6.323095e-001 -7.489142e+000 205 198 188
-2.145458e-001 5.238583e-001 -7.530301e+000 217 210 200
-1.482143e-001 4.243414e-001 -7.285963e+000 144 131 120
-2.664120e-002 4.154900e-001 -7.159665e+000 172 162 152
7.387851e-001 5.291750e-001 -6.466791e+000 229 226 221
7.393065e-001 5.289127e-001 -6.470067e+000 229 226 221
1.727794e-001 2.406687e-001 -6.799474e+000 175 165 156
-1.414618e-001 1.447817e-001 -6.805488e+000 138 124 115
3.058715e-003 4.600862e-002 -6.726488e+000 115 102 93
5.918896e-002 2.604386e-002 -6.708999e+000 123 113 104
-1.320312e-001 -8.723316e-002 -6.668403e+000 184 161 155
2.313261e-001 -2.140602e-002 -6.649576e+000 206 197 188
-7.460784e-001 -1.691228e-001 -6.285912e+000 77 22 2
-7.223668e-001 -1.901361e-001 -6.242048e+000 54 5 8
-2.492267e-001 -1.686489e-001 -6.491064e+000 219 97 66
-1.498917e-001 -2.060984e-001 -6.681421e+000 93 69 26
-5.923286e-001 -2.792271e-001 -6.405979e+000 225 183 143
-1.101386e-001 -2.627871e-001 -6.685365e+000 97 79 41
-1.738840e-001 -3.074902e-001 -6.643544e+000 203 193 181
-1.504581e-001 -4.305296e-001 -6.708262e+000 45 36 31
-3.004231e-001 -5.002775e-001 -6.660335e+000 234 233 229
1.154012e+000 -3.003696e-001 -6.103961e+000 152 124 77
5.886055e-001 -6.249222e-001 -6.609831e+000 160 147 126
6.682532e-001 -7.327663e-001 -6.665702e+000 174 33 33
1.050797e+000 -5.885536e-001 -6.174093e+000 214 52 58
-2.246312e-002 1.098083e+000 -7.238260e+000 173 35 41
-1.946135e-001 1.010381e+000 -7.507592e+000 195 44 52
-1.946135e-001 1.010381e+000 -7.507592e+000 195 44 52
-2.950679e-001 8.391662e-001 -7.550332e+000 210 44 53
-1.448100e-001 8.558248e-001 -7.470957e+000 203 195 185
-1.444265e-001 8.559119e-001 -7.470150e+000 203 195 185
-3.276571e-001 7.946290e-001 -7.643243e+000 183 34 41
-3.346626e-001 6.820383e-001 -7.635599e+000 178 166 154
2.719833e-001 7.215809e-001 -7.034234e+000 213 204 198
9.541299e-002 6.222462e-001 -7.071907e+000 195 185 177
3.085232e-001 6.916711e-001 -6.993528e+000 208 201 195
-8.264148e-002 5.036853e-001 -7.214787e+000 193 184 175
8.909395e-001 5.784713e-001 -6.354598e+000 203 45 53
9.100184e-001 6.196511e-001 -6.336048e+000 171 26 33
-2.542506e-001 1.968252e-001 -7.683965e+000 203 52 59
-2.737539e-002 2.317334e-001 -6.965791e+000 124 111 102
1.954097e-002 1.826907e-001 -6.893146e+000 122 114 103
-2.085405e-001 7.035184e-002 -6.736600e+000 130 108 100
7.436768e-001 1.288803e-001 -6.547533e+000 188 179 170
-8.810108e-001 -1.730125e-001 -6.221923e+000 158 135 82
1.120081e+000 1.585820e-001 -6.231054e+000 222 55 65
5.527632e-001 -6.408395e-002 -6.501313e+000 202 197 191
-7.842700e-001 -2.371818e-001 -6.266157e+000 98 31 28
-3.801589e-001 -2.806583e-001 -6.453786e+000 143 9 18
5.773471e-001 -2.899824e-001 -6.652573e+000 165 151 141
5.470313e-001 -3.912916e-001 -6.625814e+000 91 74 38
6.803374e-001 -3.123563e-001 -6.517947e+000 165 152 135
6.453514e-001 -3.436966e-001 -6.514928e+000 148 138 123
9.961256e-001 -2.295951e-001 -6.225357e+000 83 65 39
9.870552e-001 -2.246339e-001 -6.199330e+000 83 65 39
1.165022e+000 -1.815629e-001 -6.104701e+000 140 118 71
9.825742e-001 -4.939194e-001 -6.281753e+000 197 167 159
1.352652e+000 -3.510396e-001 -5.960093e+000 27 14 14
6.986317e-001 -7.783881e-001 -6.545966e+000 39 28 23
8.511717e-001 -7.985072e-001 -6.470040e+000 224 57 65
-3.696474e+000 9.294997e-001 -1.186610e+001 11 7 8
2.897015e-001 8.710194e-001 -7.003014e+000 192 179 173
7.526997e-001 9.081057e-001 -6.472695e+000 183 29 39
-1.347294e-002 5.694229e-001 -7.104391e+000 183 173 163
5.165092e-001 4.226675e-001 -6.756652e+000 183 175 163
-2.261410e-001 2.652823e-001 -7.585715e+000 168 33 38
2.682511e-001 8.930415e-002 -6.686687e+000 159 144 137
-3.275586e-001 -2.082863e-002 -6.614743e+000 123 51 35
4.554212e-001 1.063520e-001 -6.615348e+000 179 171 160
-8.786027e-001 -2.403697e-001 -6.294151e+000 32 23 24
-4.936464e-001 -1.696692e-001 -6.490089e+000 234 122 84
-4.760230e-001 -2.004263e-001 -6.477595e+000 166 35 18
4.544766e-003 -1.084190e-001 -6.599916e+000 241 236 233
1.165391e+000 9.190563e-002 -6.070831e+000 119 10 23
-4.238807e-001 -3.944838e-001 -6.521169e+000 161 144 133
-1.926218e-001 -4.219438e-001 -6.642032e+000 211 204 198
9.312246e-001 -2.356849e-001 -6.309196e+000 147 129 119
9.182850e-001 -2.802175e-001 -6.232593e+000 174 151 101
6.962712e-001 -5.606370e-001 -6.458214e+000 194 185 174
9.628725e-001 -4.384279e-001 -6.252234e+000 175 151 105
1.340138e+000 -3.722273e-001 -5.969178e+000 206 183 115
1.340138e+000 -3.722273e-001 -5.969178e+000 206 183 115
8.688906e-001 -6.818271e-001 -6.441393e+000 208 200 189
4.094095e-001 -1.083230e+000 -7.197910e+000 134 114 69
5.284004e-001 -1.044578e+000 -7.076277e+000 13 5 8
1.062752e+000 -5.680937e-001 -6.186764e+000 150 2 16
-2.035691e+000 -2.914366e+000 -1.049790e+001 37 31 33
-2.019073e+000 -3.046416e+000 -1.050000e+001 37 31 33
-1.513200e+000 -2.221059e+000 -8.561271e+000 39 33 35
-5.044654e-001 6.971398e-001 -7.842584e+000 191 41 42
-5.028657e-002 6.569310e-001 -7.163718e+000 206 197 188
-4.233301e-001 4.476024e-001 -7.735783e+000 208 194 184
-1.536757e-001 4.738490e-001 -7.292332e+000 202 194 183
5.051262e-001 3.097729e-001 -6.812364e+000 141 133 122
1.731993e-001 1.241792e-001 -6.730470e+000 155 145 136
-8.264817e-001 -1.534306e-001 -6.194820e+000 39 24 28
-1.575195e-001 -1.263855e-001 -6.641389e+000 182 160 154
4.885613e-001 2.226487e-002 -6.552764e+000 220 216 210
4.885613e-001 2.226487e-002 -6.552764e+000 220 216 210
3.021571e-001 -1.054099e-001 -6.671609e+000 255 252 244
6.543294e-001 -2.076404e-002 -6.464645e+000 188 179 172
6.949195e-001 1.009193e-002 -6.455728e+000 213 205 196
7.744494e-001 -2.408213e-002 -6.428342e+000 180 172 160
7.750663e-001 -2.438981e-002 -6.429986e+000 180 172 160
5.717336e-001 -1.224914e-001 -6.546479e+000 226 221 217
5.717336e-001 -1.224914e-001 -6.546479e+000 226 221 217
1.137745e+000 -4.663311e-001 -6.162806e+000 229 58 69
-1.997018e+000 -2.838516e+000 -1.050554e+001 24 18 20
-1.947377e+000 -2.930527e+000 -1.041785e+001 20 14 16
-1.869449e+000 -3.066815e+000 -1.032274e+001 29 23 25
6.529128e-001 1.032448e+000 -6.601287e+000 199 40 48
-1.684526e-001 9.671551e-001 -7.517904e+000 191 41 48
-6.847663e-002 7.235774e-001 -7.175907e+000 177 168 159
-1.386070e-002 7.415723e-001 -7.152654e+000 218 211 201
7.227533e-001 7.744165e-001 -6.423905e+000 189 43 49
-5.007540e-001 5.064160e-001 -7.866243e+000 38 24 21
-9.559810e-002 4.543540e-001 -7.260231e+000 145 133 122
1.688864e-001 3.957881e-001 -6.900156e+000 188 175 166
4.034251e-001 3.523432e-001 -6.843430e+000 170 162 149
6.686213e-001 1.691678e-001 -6.628613e+000 155 145 134
-8.702099e-001 -1.842433e-001 -6.231943e+000 168 147 100
-8.702099e-001 -1.842433e-001 -6.231943e+000 168 147 100
-8.017509e-001 -1.764427e-001 -6.252559e+000 151 127 81
6.927941e-001 1.278111e-002 -6.444637e+000 213 205 196
1.172310e+000 -2.830015e-002 -6.110015e+000 247 80 90
5.011688e-001 -4.914812e-001 -6.707151e+000 81 64 37
6.212977e-001 -5.427962e-001 -6.580208e+000 204 191 182
1.286865e+000 -3.212351e-001 -6.008329e+000 163 139 91
4.521918e-001 -1.129979e+000 -7.135322e+000 41 28 23
-1.783203e+000 -3.029053e+000 -1.033459e+001 68 64 65
-9.680593e-002 9.197426e-001 -7.185908e+000 220 197 200
5.626803e-001 5.851490e-001 -6.733301e+000 210 201 194
1.356978e-001 4.553822e-001 -6.973151e+000 153 141 129
3.722436e-001 4.816944e-001 -6.917897e+000 178 169 160
2.835933e-002 3.989067e-001 -7.096476e+000 140 130 118
1.254179e-001 2.285825e-001 -6.840837e+000 128 116 106
1.958795e-001 2.215907e-001 -6.786911e+000 201 194 184
5.033130e-001 3.204511e-001 -6.826079e+000 151 143 132
7.848509e-001 2.592918e-001 -6.469526e+000 249 245 240
1.419541e-001 -1.885338e-003 -6.690664e+000 127 117 107
-6.866404e-001 -1.695977e-001 -6.319440e+000 155 66 34
4.327588e-002 -2.697856e-001 -6.718231e+000 244 241 236
7.823888e-001 -9.644844e-002 -6.371625e+000 133 119 108
6.983722e-001 -2.307278e-001 -6.489741e+000 234 230 221
5.469794e-001 1.012989e+000 -6.704258e+000 207 41 48
-3.680684e-001 3.407430e-001 -7.689061e+000 37 29 27
9.808819e-001 5.567783e-001 -6.215115e+000 17 7 8
-3.552553e-001 -5.943038e-002 -6.496774e+000 87 27 18
2.527851e-001 -4.582223e-001 -6.720140e+000 63 35 24
1.088554e+000 -1.853791e-001 -6.194782e+000 108 27 33
7.467837e-001 -3.773878e-001 -6.364803e+000 222 197 140
9.779101e-001 -2.883751e-001 -6.212494e+000 175 151 103
9.604370e-001 -4.988116e-001 -6.289715e+000 227 214 206
3.529491e-001 7.142900e-001 -6.735993e+000 230 221 214
6.180929e-001 6.714227e-001 -6.640035e+000 215 208 200
4.567316e-001 5.101307e-001 -6.772768e+000 211 204 196
4.594266e-001 5.097943e-001 -6.779240e+000 211 204 196
8.077821e-001 3.349026e-001 -6.443305e+000 174 159 147
4.140829e-001 1.440506e-001 -6.659354e+000 178 168 159
1.095214e+000 -3.385363e-001 -6.149105e+000 108 88 50
8.475774e-002 7.251317e-001 -7.068274e+000 217 208 201
2.613771e-002 5.214978e-001 -7.153040e+000 186 176 167
7.698403e-002 3.836553e-001 -6.993066e+000 131 121 111
9.128597e-001 3.291447e-001 -6.305933e+000 249 248 244
7.850288e-001 -1.975002e-001 -6.366973e+000 247 240 234
4.193097e-001 -1.075078e+000 -7.198117e+000 140 121 72
1.588225e-001 1.049834e+000 -7.079811e+000 210 201 196
4.256463e-001 6.201243e-001 -6.774779e+000 233 224 217
-2.493297e-001 -7.515025e-002 -6.550361e+000 76 21 19
5.726115e-001 1.322682e-001 -6.576828e+000 138 126 114
6.064095e-001 -4.160566e-001 -6.605284e+000 170 148 100
-2.729641e-001 5.723201e-001 -7.681107e+000 215 206 197
-5.244971e-003 -6.543107e-001 -6.785517e+000 39 31 29
7.526809e-001 4.383770e-001 -6.465352e+000 243 242 237
-2.037461e-001 3.528076e-002 -6.682088e+000 73 25 18
2.850500e-002 4.088690e-002 -6.726098e+000 142 132 122
-1.507621e-001 -3.434720e-001 -6.627300e+000 172 159 150
-2.212525e-001 -3.703989e-001 -6.568642e+000 171 161 150
2.748355e-001 6.956946e-001 -7.041604e+000 175 166 157
2.875016e-001 2.390554e-001 -6.794907e+000 124 113 103
-1.177208e-001 4.822832e-003 -6.677719e+000 149 136 128
-2.371222e-001 -2.869972e-001 -6.597506e+000 168 150 139
8.009594e-001 8.580690e-001 -6.426133e+000 122 32 33
-1.111801e-001 5.057682e-001 -7.284993e+000 164 156 145
-4.917802e-001 -6.548348e-002 -6.524649e+000 108 35 15
-3.435679e-001 -3.385231e-001 -6.409874e+000 168 149 148
1.193726e+000 8.467559e-002 -6.063487e+000 180 41 48
4.843991e-001 -9.747734e-002 -6.614616e+000 253 250 245
-1.283981e-001 -4.130544e-001 -6.728514e+000 240 237 230
6.682043e-001 -7.330032e-001 -6.665121e+000 181 39 35
8.795523e-001 6.606643e-001 -6.351632e+000 189 34 42
7.607183e-001 6.302616e-001 -6.423094e+000 249 64 78
1.079499e+000 2.482365e-001 -6.190950e+000 227 60 68
1.162711e+000 9.000516e-002 -6.080704e+000 121 11 20
-8.326870e+000 -6.072734e+000 -1.832694e+001 106 97 95
-4.077255e-001 9.082734e-001 -7.719104e+000 25 18 16
2.392179e-001 4.244239e-001 -6.913214e+000 134 124 111
1.172627e-002 1.124534e+000 -7.212866e+000 181 36 41
1.305188e+000 -1.579490e-001 -5.971176e+000 190 165 111
1.305188e+000 -1.579490e-001 -5.971176e+000 190 165 111
1.945812e-001 5.747409e-002 -6.694025e+000 132 120 108
-5.791191e-001 -1.141031e-001 -6.473685e+000 69 22 15
5.685900e-001 9.359887e-002 -7.007072e+000 142 132 120
6.333503e-001 6.569254e-001 -6.605375e+000 194 186 177
-1.369114e-001 3.890582e-001 -7.232585e+000 152 140 128
-1.368125e-001 1.985540e-001 -6.954571e+000 137 127 117
-9.705400e-002 1.599124e-001 -6.697725e+000 102 88 79
-6.775899e-001 -1.285829e-001 -6.772156e+000 114 51 31
-4.391107e-001 -2.127020e-001 -6.480466e+000 186 45 12
2.612917e-001 8.955872e-001 -7.029522e+000 195 186 181
-8.695224e-001 -1.551542e-001 -6.162510e+000 140 113 65
-8.475553e-001 -3.338766e-001 -6.456877e+000 51 37 33
-4.610014e-001 -1.944895e-001 -6.401969e+000 146 24 8
-6.112172e-001 -3.152799e-001 -6.340567e+000 220 167 124
-5.832921e-001 -2.757861e-001 -6.302328e+000 82 29 13
-5.832921e-001 -2.757861e-001 -6.302328e+000 82 29 13
-3.904166e-001 9.134494e-001 -7.721022e+000 20 20 18
2.812706e-001 7.036550e-001 -6.742244e+000 209 200 191
6.265962e-001 7.935612e-001 -6.486489e+000 187 177 171
-5.552624e-002 4.683543e-001 -7.182672e+000 180 172 162
-1.673381e-001 4.594007e-002 -6.683517e+000 89 32 21
-6.479128e-001 -3.284466e-001 -6.384914e+000 252 220 167
-6.084912e-001 -2.943318e-001 -6.335278e+000 253 210 175
1.336016e-001 1.864144e-001 -6.765036e+000 162 152 142
-5.500846e-001 -2.794540e-001 -6.516547e+000 160 51 24
-5.041929e-001 -2.696096e-001 -6.493756e+000 239 157 124
-2.503692e-001 -1.627384e-001 -6.466506e+000 218 101 62
4.135873e-001 1.059601e+000 -6.817398e+000 227 214 213
-1.082940e-001 5.164796e-001 -7.274959e+000 165 155 145
7.303467e-001 6.626602e-001 -6.447736e+000 208 52 57
6.587547e-001 5.830217e-001 -6.797777e+000 150 140 128
-8.392022e-001 -1.735526e-001 -6.261197e+000 46 31 24
-2.181535e-001 -1.548653e-001 -6.441434e+000 99 24 18
-5.723947e-001 -3.100476e-001 -6.370682e+000 237 191 148
-4.043534e-001 -3.444778e-001 -6.359126e+000 99 81 63
-7.869641e-001 -1.605471e-001 -6.184654e+000 140 117 76
5.828705e-001 1.101420e+000 -6.661417e+000 196 44 50
-6.168971e-001 -3.135144e-001 -6.342282e+000 232 174 132
-8.007721e-001 -1.318964e-001 -6.357816e+000 137 59 23
-2.702694e-001 -1.959312e-001 -6.418772e+000 227 105 57
3.218855e-001 8.463924e-001 -6.912379e+000 153 142 134
-1.562722e-001 6.619330e-001 -7.463178e+000 171 163 153
-1.999296e+000 -2.608549e+000 -1.041576e+001 58 49 50
9.083606e-001 5.959322e-001 -6.334682e+000 200 52 59
7.357075e-001 -8.748556e-001 -6.573781e+000 230 98 105
-9.145686e+000 -1.056800e+001 -2.332049e+001 23 19 20
2.521010e-001 -4.621902e-001 -6.735612e+000 63 35 24
4.886127e-001 1.202546e+000 -6.718167e+000 174 44 51
1.121862e-001 6.678144e-001 -7.000053e+000 216 207 198
7.403069e-001 8.114899e-001 -6.369392e+000 188 44 48
3.627541e-001 2.557366e-001 -6.758597e+000 121 109 94
2.612715e-001 1.699728e-001 -6.644302e+000 191 178 169
-2.645927e-001 -1.119493e-001 -6.526078e+000 84 16 7
-3.737740e-001 -2.256751e-001 -6.419041e+000 167 86 64
4.933549e-001 -6.435973e-002 -6.536683e+000 214 209 202
4.973226e-001 -9.323595e-002 -6.574468e+000 223 217 211
2.745993e-002 6.767863e-001 -7.139960e+000 205 198 190
8.058992e-001 8.234518e-001 -6.407435e+000 82 12 15
7.367360e-001 8.003129e-001 -6.294806e+000 206 47 61
9.475664e-002 2.499591e-001 -6.835078e+000 152 142 133
-3.796588e-001 -1.817210e-002 -6.585010e+000 118 50 32
-3.796588e-001 -1.817210e-002 -6.585010e+000 118 50 32
2.207808e-003 6.898835e-002 -6.741318e+000 164 151 143
-2.200342e-001 -4.622041e-002 -6.640232e+000 84 17 11
2.639879e-001 -1.131414e-001 -6.655581e+000 254 254 249
-1.765928e+000 -3.657990e+000 -1.026139e+001 45 39 41
3.537575e-001 1.275011e+000 -6.893472e+000 200 48 52
4.308960e-001 1.117001e+000 -6.888577e+000 214 51 52
4.184548e-001 1.114342e+000 -6.810878e+000 214 51 52
-1.394641e-001 8.661310e-001 -7.454638e+000 203 196 186
-1.778808e-001 5.847226e-001 -7.486555e+000 180 171 162
-1.658705e-001 6.534332e-002 -6.700250e+000 135 120 113
1.137095e+000 -3.113690e-001 -6.100995e+000 170 147 95
1.152746e+000 -2.972350e-001 -6.097285e+000 164 139 85
8.107486e-001 5.919356e-001 -6.365114e+000 245 68 80
6.821494e-001 2.367772e-001 -6.645355e+000 172 163 152
7.218091e-001 -2.486884e-001 -6.483498e+000 229 225 216
-6.463899e+000 -7.642670e+000 -1.758747e+001 31 32 36
-4.696506e+000 -6.652804e+000 -1.495340e+001 131 127 141
-4.466830e+000 -6.938938e+000 -1.506298e+001 21 19 22
-5.990388e+000 -8.816244e+000 -1.681489e+001 110 109 122
3.908141e-001 1.258500e+000 -6.846309e+000 204 47 54
4.369486e-001 1.224657e+000 -6.777394e+000 194 38 42
7.683711e-001 6.014209e-001 -6.425813e+000 250 245 244
1.366376e-001 -5.066185e-002 -6.661806e+000 160 146 135
3.134126e-001 -2.015007e-001 -6.721958e+000 218 209 202
3.134126e-001 -2.015007e-001 -6.721958e+000 218 209 202
4.413144e-001 -2.560330e-001 -6.722214e+000 217 210 200
1.195517e+000 -9.428229e-002 -6.083645e+000 25 9 12
8.741946e-001 -7.380683e-001 -6.478847e+000 210 205 196
9.796582e-001 -7.322599e-001 -6.353702e+000 250 75 86
1.133390e+000 -7.997306e-001 -6.276533e+000 250 86 94
1.133390e+000 -7.997306e-001 -6.276533e+000 250 86 94
-4.529180e+000 -6.902015e+000 -1.489267e+001 134 131 146
-5.513848e+000 -8.691023e+000 -1.686579e+001 51 51 59
1.673693e-001 -3.928072e-001 -6.714254e+000 44 28 15
1.306491e+000 -1.515300e-001 -5.958162e+000 204 174 122
1.306491e+000 -1.515300e-001 -5.958162e+000 204 174 122
1.120181e+000 -7.832200e-001 -6.258133e+000 250 78 90
1.120181e+000 -7.832200e-001 -6.258133e+000 250 78 90
1.057065e+000 3.949007e-001 -6.175394e+000 218 54 65
3.748397e-002 -5.028261e-001 -6.845936e+000 43 34 30
1.123688e+000 -1.313535e-001 -6.177524e+000 228 64 75
5.747175e-001 9.023344e-001 -6.669027e+000 230 219 215
2.698039e-001 6.206660e-001 -6.990056e+000 139 126 117
6.278205e-001 2.660216e-001 -6.686765e+000 209 202 194
-1.255707e-002 -3.174480e-001 -6.708059e+000 125 108 78
-6.273265e+000 -7.746522e+000 -1.729840e+001 115 112 119
-6.182456e+000 -8.114946e+000 -1.705306e+001 133 131 142
-6.182456e+000 -8.114946e+000 -1.705306e+001 133 131 142
5.782867e-001 8.945958e-001 -6.665786e+000 229 221 218
2.564306e-001 -4.693210e-001 -6.752398e+000 66 33 26
-4.798521e+000 -6.756210e+000 -1.548208e+001 167 169 184
-6.306335e+000 -6.439737e+000 -1.802076e+001 19 17 22
-2.717973e-001 5.744773e-001 -7.672273e+000 213 204 195
2.466269e-001 7.095364e-001 -7.145104e+000 177 170 162
8.343418e-001 8.071776e-001 -6.387412e+000 109 22 20
-1.473024e-001 1.320461e-001 -6.792801e+000 107 93 84
-1.104654e-001 1.012214e-001 -6.716039e+000 145 130 123
-3.717468e-001 -4.071889e-002 -6.609323e+000 87 19 8
-6.457867e-002 3.654320e-002 -6.665095e+000 128 114 109
-4.610483e-001 -1.156142e-001 -6.494531e+000 125 31 14
-7.190881e-001 -1.909388e-001 -6.299481e+000 87 29 14
-4.850466e+000 -6.294845e+000 -1.503073e+001 95 90 100
1.065020e+000 -6.322377e-001 -6.187677e+000 243 85 83
-1.088076e-001 8.820607e-001 -7.391561e+000 183 176 168
-4.765755e-001 5.837215e-001 -7.828714e+000 206 40 46
-1.504975e-001 6.122840e-001 -7.455920e+000 166 157 148
3.807196e-001 2.500189e-001 -6.902768e+000 144 130 119
-1.863464e-001 6.908831e-002 -6.709137e+000 79 33 28
-4.136359e-001 -4.699162e-002 -6.560561e+000 139 61 39
-5.825642e-001 -1.335729e-001 -6.457321e+000 74 17 10
3.609282e-001 -3.139182e-001 -6.733348e+000 126 110 95
6.849339e-001 -7.541037e-002 -6.427144e+000 218 214 205
6.849339e-001 -7.541037e-002 -6.427144e+000 218 214 205
-5.726508e+000 -8.865508e+000 -1.666515e+001 156 161 183
7.917138e-001 8.255632e-001 -6.425698e+000 76 7 10
1.683872e-001 2.196165e-001 -6.785562e+000 199 191 180
8.293285e-001 5.284786e-001 -6.431921e+000 207 201 195
1.045599e+000 3.835951e-001 -6.181816e+000 234 67 77
-2.510893e-001 -1.787836e-001 -6.520560e+000 214 102 65
8.624515e-001 -9.007661e-001 -6.566912e+000 226 78 79
-1.362203e+000 -2.713745e+000 -8.562912e+000 25 19 21
-5.211578e-001 5.626464e-001 -7.910958e+000 217 58 56
-1.295542e-001 3.684064e-001 -7.187437e+000 140 127 118
-4.968881e-002 4.431691e-001 -7.176704e+000 140 130 117
6.601925e-001 6.268583e-001 -6.602370e+000 166 156 146
3.201334e-001 2.857673e-001 -6.813907e+000 119 104 94
-2.421555e-001 6.317062e-002 -6.725182e+000 61 12 11
4.933983e-001 2.186159e-001 -6.704997e+000 120 108 94
-2.707946e-001 -5.712893e-002 -6.626478e+000 78 23 16
1.078755e+000 2.493504e-001 -6.191206e+000 242 73 82
-1.648690e-001 -3.631907e-001 -6.653761e+000 169 148 135
-4.945788e+000 -6.623322e+000 -1.488821e+001 9 8 14
-1.454388e+000 -4.876565e+000 -1.029420e+001 46 40 42
4.611762e-001 1.682043e-001 -6.646550e+000 203 195 185
7.918813e-001 9.497067e-002 -6.504291e+000 194 185 178
-6.195520e+000 -7.395702e+000 -1.792039e+001 84 84 92
1.088742e+000 -3.712109e-001 -6.135479e+000 110 86 48
-4.900757e+000 -6.763324e+000 -1.492295e+001 155 153 167
-4.881587e+000 -6.730532e+000 -1.487327e+001 155 153 167
-6.044535e+000 -8.853488e+000 -1.671828e+001 130 131 149
-1.695868e-001 8.384832e-001 -7.460756e+000 202 193 185
4.834739e-001 7.272169e-001 -6.791187e+000 168 157 153
4.834739e-001 7.272169e-001 -6.791187e+000 168 157 153
6.418379e-001 3.443853e-001 -6.643740e+000 194 185 176
9.585560e-001 -9.850200e-001 -6.479673e+000 231 66 80
9.585560e-001 -9.850200e-001 -6.479673e+000 231 66 80
6.475294e-001 1.030147e+000 -6.582692e+000 209 45 56
8.919826e-001 -2.681027e-001 -6.308963e+000 91 74 54
9.269572e-001 -8.061976e-002 -6.332051e+000 164 151 143
9.697640e-001 -2.712223e-001 -6.175394e+000 182 157 108
-4.509225e+000 -6.958124e+000 -1.449999e+001 161 161 173
-5.522140e+000 -8.150477e+000 -1.640648e+001 10 8 12
-5.502437e+000 -8.111188e+000 -1.634846e+001 10 8 12
1.215055e+000 -1.180916e-001 -6.060466e+000 37 26 27
-5.882478e+000 -8.848251e+000 -1.684138e+001 168 173 195
-1.933836e-001 2.532387e-001 -7.349828e+000 122 28 31
-1.163670e-001 1.422156e-001 -6.597118e+000 142 129 120
-1.369368e-001 -2.966534e-002 -6.614486e+000 109 37 21
-1.104540e-001 -2.297197e-001 -6.659207e+000 240 229 226
4.705939e-001 -9.856568e-002 -6.619827e+000 238 235 228
-2.709255e-001 1.050811e+000 -7.558855e+000 29 19 19
-1.943780e-001 8.442460e-001 -7.514007e+000 203 194 185
2.888351e-001 7.351686e-001 -7.001435e+000 190 181 174
2.936867e-001 7.266226e-001 -7.041722e+000 190 181 174
2.149593e-001 2.512006e-001 -6.720113e+000 157 141 126
-4.255261e-001 -4.895207e-002 -6.530411e+000 144 65 43
-6.995824e-002 7.124258e-002 -6.749278e+000 131 116 109
-7.863777e-001 -2.199315e-001 -6.243554e+000 91 24 17
-4.881806e-001 -1.921325e-001 -6.418788e+000 251 139 101
-1.197042e-001 -3.377636e-001 -6.638402e+000 191 183 174
-1.783746e+000 -3.588033e+000 -1.026067e+001 41 35 37
9.031347e-001 -2.398602e-001 -6.333196e+000 139 122 110
5.224908e-001 -1.095238e+000 -7.101728e+000 241 221 182
3.212002e-002 1.292393e+000 -7.160162e+000 186 39 40
-2.593379e-001 -1.025051e-002 -7.709158e+000 35 27 26
-2.593379e-001 -1.025051e-002 -7.709158e+000 35 27 26
-5.103165e-001 -2.067231e-002 -6.644234e+000 69 16 8
-5.103165e-001 -2.067231e-002 -6.644234e+000 69 16 8
8.828650e-001 5.669742e-001 -6.388324e+000 214 57 66
-5.912577e-001 -1.523903e-001 -6.343263e+000 147 63 39
4.828583e-001 7.484071e-002 -6.641127e+000 131 119 107
2.882639e-003 -2.039279e-001 -6.642915e+000 253 250 243
1.464688e-001 -1.763420e-001 -6.688692e+000 232 225 219
-6.420938e-001 -3.108011e-001 -6.333940e+000 43 35 33
-1.704832e-001 -3.854032e-001 -6.630598e+000 232 225 221
4.367198e-001 -4.166012e-001 -6.689317e+000 196 183 131
-1.695701e+000 -3.707463e+000 -1.030674e+001 53 47 47
7.894216e-002 1.154610e+000 -7.144004e+000 203 42 49
-2.511347e-001 -1.719531e-001 -6.503948e+000 227 116 77
-2.416081e-002 -1.779623e-001 -6.615586e+000 227 224 219
-4.211154e-001 4.491963e-001 -7.659174e+000 213 200 191
8.670594e-001 5.397980e-001 -6.394664e+000 174 33 44
1.092183e-001 -2.744470e-002 -6.681053e+000 159 149 140
1.068716e-001 -1.910114e-002 -6.660964e+000 159 149 140
-1.253082e-001 -3.828075e-001 -6.674762e+000 242 236 232
1.082481e+000 1.947736e-001 -6.180973e+000 195 35 45
1.082481e+000 1.947736e-001 -6.180973e+000 195 35 45
5.229347e-001 -2.988630e-001 -6.700903e+000 244 237 231
1.162771e+000 5.471505e-002 -6.059379e+000 229 83 91
7.729553e-001 -8.092452e-001 -6.543789e+000 219 47 59
3.018434e-001 9.364062e-001 -7.035599e+000 223 217 213
-4.206149e-001 -1.905029e-001 -6.481358e+000 249 132 87
6.752226e-001 -5.627513e-001 -6.536627e+000 229 217 208
-5.403894e-001 -1.299099e-001 -6.487065e+000 94 33 26
4.156637e-001 7.893651e-002 -6.630571e+000 199 190 181
5.357462e-001 5.560577e-002 -6.532461e+000 146 134 120
5.357462e-001 5.560577e-002 -6.532461e+000 146 134 120
5.607152e-001 9.461615e-003 -6.480245e+000 214 207 199
5.985082e-001 -3.994941e-001 -6.525171e+000 178 156 106
1.446657e-001 1.279161e+000 -7.055327e+000 203 48 54
-1.550834e-001 2.648856e-001 -7.359907e+000 184 174 162
-2.388305e-001 6.664512e-002 -7.197078e+000 220 212 205
-9.099470e-002 6.347478e-001 -7.329273e+000 168 162 150
-9.099470e-002 6.347478e-001 -7.329273e+000 168 162 150
5.778551e-001 -7.645766e-001 -6.711122e+000 251 250 245
-5.909735e-001 -1.344719e-001 -6.538949e+000 65 17 12
7.017305e-001 -3.395038e-001 -6.464762e+000 100 85 64
8.063811e-001 -9.058613e-001 -6.514744e+000 50 36 36
-3.664933e-001 2.482120e-001 -7.483284e+000 38 27 27
-2.600868e-001 -8.469272e-002 -6.578451e+000 66 11 8
3.779308e-001 -1.254136e-001 -6.688844e+000 245 242 234
3.785610e-001 -1.244333e-001 -6.686363e+000 245 242 234
2.174063e-002 -6.573702e-001 -6.819552e+000 35 30 27
-1.933306e+000 -3.332497e+000 -1.047988e+001 38 32 34
7.410620e-001 -1.213145e-001 -6.373171e+000 228 220 210
-4.392064e+000 -6.701756e+000 -1.504973e+001 30 28 33
-4.473991e+000 -6.742875e+000 -1.495080e+001 165 161 175
-6.137379e+000 -8.461497e+000 -1.679454e+001 9 7 10
7.440369e-003 2.422834e-001 -6.937592e+000 145 132 123
-4.249885e-001 -7.132326e-002 -6.529345e+000 121 37 16
-4.125061e-001 -1.087697e-001 -6.482010e+000 129 34 14
8.872366e-001 -9.710631e-001 -6.580906e+000 48 30 30
4.304392e-001 1.131563e+000 -6.845197e+000 214 50 57
6.359862e-001 6.282594e-001 -6.636549e+000 204 194 185
-5.881734e+000 -9.063402e+000 -1.668455e+001 12 10 16
1.386543e-001 1.147307e+000 -7.060434e+000 232 192 168
2.391941e-001 6.818432e-001 -7.061835e+000 181 174 164
3.700205e-001 1.125211e+000 -6.869970e+000 203 32 40
-4.661904e-005 5.308645e-001 -7.141417e+000 208 197 191
-4.661904e-005 5.308645e-001 -7.141417e+000 208 197 191
1.325076e-001 5.886991e-001 -7.013762e+000 176 167 154
6.010238e-001 6.216512e-001 -6.686780e+000 187 181 170
-2.922069e-002 2.453560e-001 -7.026848e+000 145 135 125
2.430535e-001 2.855592e-001 -6.819903e+000 122 108 97
-4.268100e-001 -5.243211e-002 -6.537747e+000 144 65 43
-1.955565e-001 -3.284194e-002 -6.649125e+000 90 21 15
-6.292425e+000 -7.908167e+000 -1.771298e+001 79 79 80
-4.891017e+000 -6.340272e+000 -1.498610e+001 101 99 108
-4.767272e+000 -7.093029e+000 -1.505791e+001 156 154 168
-4.022839e+000 -7.496757e+000 -1.479426e+001 84 87 96
-1.567088e+000 -4.370166e+000 -1.023009e+001 50 44 48
-1.517076e-001 8.824801e-001 -7.474801e+000 161 147 139
-1.896280e-002 2.720795e-001 -7.024904e+000 130 118 106
3.068231e-001 2.943935e-001 -6.892189e+000 127 115 102
-6.156467e+000 -7.715627e+000 -1.728185e+001 80 79 84
-2.170052e+000 -3.225394e+000 -1.065972e+001 55 50 54
-5.506957e+000 -8.785701e+000 -1.681867e+001 120 121 139
-1.516184e+000 -4.456331e+000 -1.016715e+001 53 48 52
6.321093e-001 5.928541e-001 -6.673885e+000 153 143 133
-2.320180e-001 5.046668e-003 -6.648237e+000 70 20 17
9.023472e-001 4.040641e-001 -6.280562e+000 252 81 93
8.499243e-001 7.614493e-001 -6.366281e+000 21 1 4
-5.612383e-001 6.511628e-001 -7.962996e+000 38 24 20
3.098768e-001 4.776128e-002 -6.652795e+000 244 240 231
6.288420e-001 1.208450e-001 -6.584030e+000 189 175 165
-4.750122e+000 -6.762315e+000 -1.516232e+001 142 138 153
-4.153544e+000 -7.789301e+000 -1.481087e+001 11 7 14
-5.749594e+000 -7.539192e+000 -1.683870e+001 10 10 12
6.653140e-001 1.031319e+000 -6.540496e+000 186 44 53
-6.156508e+000 -7.563712e+000 -1.722531e+001 80 77 84
-9.766954e-002 1.458184e-001 -6.786752e+000 108 94 83
-8.368975e-002 7.674636e-002 -6.709065e+000 162 147 140
-8.368975e-002 7.674636e-002 -6.709065e+000 162 147 140
-4.338573e+000 -6.444776e+000 -1.504118e+001 47 45 48
3.417721e-001 2.414909e-001 -6.726848e+000 143 130 114
-4.306985e-001 -1.205752e-001 -6.498528e+000 126 37 16
-4.597931e-001 -2.182690e-001 -6.452905e+000 144 27 9
-5.518946e+000 -9.039494e+000 -1.665387e+001 116 124 147
5.843270e-001 -3.765100e-001 -6.597260e+000 147 133 108
1.050390e+000 -2.433577e-001 -6.210777e+000 141 114 76
-6.081283e+000 -7.430443e+000 -1.772362e+001 66 66 74
-4.705076e+000 -6.232492e+000 -1.516838e+001 136 136 146
-2.127955e+000 -2.655598e+000 -1.054532e+001 40 36 37
7.256870e-001 5.129576e-001 -6.487858e+000 235 232 223
7.373657e-001 5.305342e-001 -6.466978e+000 236 231 227
-3.739130e-001 -1.067063e-001 -6.538161e+000 90 20 11
-6.020383e+000 -8.930614e+000 -1.666523e+001 3 4 8
5.019180e-001 -1.529098e-002 -6.534378e+000 199 192 174
-1.728958e+000 -3.802838e+000 -1.034865e+001 28 22 24
5.076134e-001 -1.120628e+000 -7.116690e+000 42 29 20
-1.369415e+000 -5.390890e+000 -9.935295e+000 22 15 17
-6.999214e-002 1.176280e+000 -7.332407e+000 142 21 30
3.153224e-002 1.319278e+000 -7.117952e+000 33 14 15
-2.008316e-001 5.069925e-001 -7.522440e+000 192 184 173
5.642400e-001 1.145208e+000 -6.669268e+000 185 40 45
1.400090e-001 3.895528e-001 -6.962116e+000 136 124 112
-5.962731e+000 -7.265539e+000 -1.773269e+001 66 66 78
-2.156948e+000 -2.510052e+000 -1.051078e+001 36 30 30
-4.922976e+000 -6.317220e+000 -1.519307e+001 130 130 139
-4.832247e+000 -6.496836e+000 -1.479584e+001 122 120 130
-4.701049e+000 -6.560682e+000 -1.499017e+001 137 137 149
-3.279607e-001 -6.245508e-003 -6.630329e+000 56 15 9
-7.527908e-001 -2.015275e-001 -6.287883e+000 136 109 66
1.661782e-001 5.335036e-002 -6.699314e+000 170 160 148
-6.018647e+000 -8.616111e+000 -1.666711e+001 105 103 115
-1.582311e-001 -2.304274e-001 -6.687735e+000 233 209 149
-1.927401e+000 -3.333342e+000 -1.046721e+001 40 34 38
-1.881223e+000 -3.450002e+000 -1.042781e+001 44 40 41
-4.017373e-001 -3.813904e-001 -6.465272e+000 164 143 123
-2.589136e-001 -4.030892e-001 -6.544283e+000 234 229 225
-2.240149e-001 -4.182290e-001 -6.584714e+000 251 251 246
6.488287e-001 -6.882731e-001 -6.646301e+000 174 161 141
8.852145e-001 -9.398620e-001 -6.622788e+000 235 82 88
-1.321198e+000 -5.391096e+000 -9.958823e+000 111 101 102
-1.320615e+000 -5.367343e+000 -9.937288e+000 111 101 102
3.780729e-001 1.294582e+000 -6.796452e+000 27 10 13
-2.356328e-001 1.010980e-001 -6.752329e+000 78 42 41
-6.140161e+000 -8.164845e+000 -1.672904e+001 11 9 17
-4.927577e+000 -6.561563e+000 -1.507533e+001 118 116 128
-1.666435e-001 -2.102400e-002 -6.683081e+000 112 43 32
-4.604409e+000 -6.828782e+000 -1.477736e+001 109 109 117
-1.968473e+000 -3.187632e+000 -1.047309e+001 49 44 46
-2.500572e-001 -1.768042e-001 -6.511622e+000 228 115 76
-2.354089e-002 -4.388429e-001 -6.758824e+000 40 33 25
1.242143e-001 -2.357438e-001 -6.681404e+000 199 189 179
1.121867e+000 3.307128e-001 -6.142566e+000 32 10 16
1.185672e+000 1.703745e-001 -6.088367e+000 32 18 19
-1.430493e+000 -4.772032e+000 -1.013333e+001 52 46 48
-1.375981e+000 -4.836202e+000 -1.002414e+001 45 40 44
-1.330291e+000 -4.831280e+000 -9.903200e+000 49 43 43
7.467086e-001 -8.925447e-001 -6.604050e+000 234 96 96
-3.570334e-001 7.127910e-001 -7.681289e+000 194 172 166
-1.376876e-001 3.684496e-001 -7.179114e+000 126 114 102
-1.376876e-001 3.684496e-001 -7.179114e+000 126 114 102
4.983457e-001 5.780167e-001 -6.780059e+000 184 177 167
4.983457e-001 5.780167e-001 -6.780059e+000 184 177 167
-4.768056e-001 -1.692811e-001 -6.488870e+000 180 74 42
4.421237e-001 -2.609849e-001 -6.728695e+000 216 210 197
4.462423e-001 -4.846014e-001 -6.719368e+000 251 251 241
-1.306812e+000 -5.299402e+000 -9.986070e+000 19 9 10
-1.838373e-001 3.295320e-002 -7.552339e+000 89 8 9
-5.010071e-001 -2.411635e-001 -6.491909e+000 212 107 66
1.204659e+000 -8.299242e-004 -6.084140e+000 32 11 18
-1.388341e+000 -5.216993e+000 -9.920553e+000 62 51 49
5.015927e-001 1.172575e+000 -6.724768e+000 211 51 56
-1.391614e-001 5.131760e-001 -7.468330e+000 203 195 184
-1.989379e-001 1.350129e-001 -7.639328e+000 132 17 24
6.578717e-001 -7.478090e-001 -6.603562e+000 45 34 32
1.652645e-001 3.242943e-001 -6.879711e+000 132 117 106
-3.985552e+000 -7.655381e+000 -1.506846e+001 15 13 18
1.000888e+000 3.180792e-001 -6.254040e+000 226 61 70
2.477091e-001 -4.796892e-001 -6.765563e+000 71 45 31
2.461565e-001 -4.730953e-001 -6.759822e+000 71 45 31
9.788443e-001 -2.722742e-001 -6.198650e+000 199 176 122
-1.650170e-001 1.098559e+000 -7.421896e+000 201 50 57
2.587229e-001 6.247155e-001 -6.982213e+000 140 128 116
5.484774e-001 -3.535813e-001 -6.677388e+000 99 84 64
7.834773e-001 -2.220043e-001 -6.403489e+000 255 252 247
-2.682530e-001 -1.379992e-001 -6.854835e+000 120 52 33
2.009400e-001 1.040962e+000 -7.069966e+000 219 212 206
9.219080e-001 1.772490e-001 -6.289116e+000 225 214 208
1.283199e-001 1.153482e+000 -7.088493e+000 219 54 62
2.818342e-001 7.405545e-001 -6.998946e+000 200 193 185
1.263340e-001 6.300133e-001 -7.047428e+000 161 147 136
-7.933301e-002 2.026254e-001 -6.949519e+000 140 127 113
5.959187e-001 5.529348e-001 -6.643991e+000 140 128 115
-1.021909e-001 6.064164e-002 -6.750397e+000 125 111 102
-7.022186e-002 4.205370e-002 -6.690852e+000 135 120 112
-8.456641e-001 -2.606823e-001 -6.412516e+000 141 75 51
-2.591770e-001 -8.132734e-002 -6.619430e+000 93 35 28
-7.547800e-001 -2.092689e-001 -6.274416e+000 77 23 21
-6.893242e-001 -2.273906e-001 -6.311937e+000 114 28 9
-2.467586e-001 -3.869963e-001 -6.565314e+000 183 174 167
5.873257e-002 -3.778661e-001 -6.698842e+000 196 180 165
5.743003e-001 -2.809948e-001 -6.580869e+000 161 145 128
-7.415934e-002 4.587217e-001 -7.256820e+000 164 153 143
1.105002e-001 6.690758e-001 -7.064083e+000 222 212 203
3.006052e-001 7.244000e-001 -6.977298e+000 190 181 172
-6.908697e-001 -1.638290e-001 -6.879610e+000 141 63 46
3.523250e-001 3.502360e-001 -6.840327e+000 162 150 138
8.350101e-001 5.323046e-001 -6.422513e+000 209 201 191
-1.716115e+000 -3.867999e+000 -1.036649e+001 29 25 26
-6.706729e-001 -3.155247e-001 -6.334051e+000 224 114 84
9.647845e-001 -6.649657e-001 -6.291696e+000 249 96 104
-1.699558e-001 9.821632e-001 -7.526064e+000 171 28 35
-2.112515e-001 -5.228356e-002 -6.649682e+000 84 20 11
-7.825455e-001 -3.133240e-001 -6.356067e+000 255 163 129
-2.353175e-001 -1.262596e-001 -6.531912e+000 116 44 32
-2.353175e-001 -1.262596e-001 -6.531912e+000 116 44 32
-8.856413e-002 -2.622429e-001 -6.677977e+000 240 231 226
-8.227716e-002 -1.735786e-001 -6.626017e+000 227 222 216
6.407913e-003 -1.528387e-001 -6.617468e+000 253 248 242
2.697492e-001 -6.591995e-002 -6.641834e+000 221 214 206
9.344972e-001 6.275145e-001 -6.292781e+000 203 58 66
-3.345481e-001 -3.741104e-001 -6.461338e+000 198 194 187
2.102353e-002 -4.744518e-001 -6.801277e+000 36 27 22
4.681357e-001 -6.396463e-001 -6.765474e+000 252 252 240
3.691225e-002 1.283980e+000 -7.187063e+000 190 39 46
6.291295e-001 5.672460e-001 -6.620505e+000 171 159 145
7.649221e-001 6.058412e-001 -6.416381e+000 248 249 240
-3.060230e-001 -3.656546e-001 -6.477987e+000 222 213 207
8.599302e-001 4.591502e-001 -6.345321e+000 184 169 156
5.722384e-001 8.456079e-002 -6.495552e+000 191 181 168
5.055452e-001 -9.586137e-002 -6.519366e+000 217 210 200
6.563378e-001 -7.077013e-001 -6.587588e+000 56 42 40
6.563378e-001 -7.077013e-001 -6.587588e+000 56 42 40
-4.257898e-001 -6.479622e-003 -6.850563e+000 44 12 13
7.952159e-001 8.238529e-001 -6.436844e+000 88 7 15
-4.520268e-001 -3.330810e-001 -6.468904e+000 247 188 154
4.338079e-003 -1.071803e-001 -6.605059e+000 239 232 229
-3.721445e-002 -2.955359e-001 -6.682389e+000 66 47 26
5.549825e-001 -1.020801e-001 -6.500833e+000 230 226 217
-3.997165e-001 8.321780e-001 -7.777679e+000 195 39 46
5.013639e-001 3.114833e-001 -6.807119e+000 141 129 119
8.590710e-001 7.206805e-001 -6.345901e+000 237 81 90
-7.424385e-001 -1.649950e-001 -6.284640e+000 74 22 10
-1.165193e-001 -7.442513e-002 -6.621474e+000 207 188 180
8.109363e-001 5.697575e-001 -6.406960e+000 253 253 251
-4.799622e-001 -3.268427e-001 -6.512991e+000 247 184 142
-3.212449e-001 -3.702583e-001 -6.482472e+000 190 178 171
-2.745551e-001 -3.053497e-001 -6.503245e+000 167 144 133
4.830381e-001 -3.674508e-001 -6.606387e+000 254 252 203
1.084121e+000 2.237625e-001 -6.166855e+000 207 45 57
-1.220924e-001 4.064645e-001 -7.320583e+000 133 121 109
3.753247e-001 4.781592e-001 -6.920488e+000 187 177 168
4.981717e-001 3.169648e-001 -6.800397e+000 141 130 119
7.674586e-001 7.579375e-001 -6.376001e+000 243 82 92
9.706063e-001 -5.013562e-001 -6.308605e+000 244 230 198
1.378113e-001 1.323350e+000 -7.137567e+000 14 3 9
-4.273762e-001 5.700480e-001 -7.795004e+000 188 177 168
-3.442936e-001 2.833201e-001 -7.773371e+000 42 31 29
2.129349e-001 5.260223e-001 -6.968148e+000 231 222 216
5.850831e-001 -7.512546e-001 -6.686743e+000 254 255 247
1.141619e+000 1.812866e-001 -6.121742e+000 221 60 68
1.086122e+000 -1.868465e-001 -6.195937e+000 77 11 15
-9.052384e-002 6.768792e-001 -7.244301e+000 169 160 145
-9.472106e-002 6.759626e-001 -7.232114e+000 169 160 145
4.014640e-001 -3.544972e-001 -6.725228e+000 80 62 41
9.035953e-001 3.430216e-001 -6.291151e+000 255 251 246
1.011676e+000 -5.905028e-001 -6.293592e+000 172 35 40
6.173879e-001 5.506190e-001 -6.598601e+000 136 122 111
3.120535e-002 -2.282996e-002 -6.690406e+000 136 119 111
-2.662113e-001 -3.548497e-001 -6.548773e+000 169 151 137
4.021097e-001 -5.035954e-001 -6.650391e+000 254 255 246
1.031123e+000 -3.889341e-002 -6.240052e+000 233 226 218
-5.993435e-001 -1.460486e-001 -6.566266e+000 63 22 19
7.558928e-001 5.416842e-001 -6.421788e+000 255 255 251
1.006981e-002 4.629227e-002 -7.176607e+000 118 104 93
-3.640484e-001 1.728851e-001 -7.672358e+000 39 30 28
2.642443e-001 -2.387395e-001 -6.736767e+000 243 234 225
-7.464675e+000 -6.495472e+000 -2.225212e+001 135 124 120
-4.605847e+000 -6.830359e+000 -1.479359e+001 111 109 122
-4.862679e+000 -6.704720e+000 -1.483970e+001 165 163 172
-3.659693e-001 -2.163465e-002 -6.607934e+000 117 51 38
-6.336682e-002 3.522335e-002 -6.672365e+000 131 116 109
-1.952709e+000 -3.259844e+000 -1.047459e+001 41 35 39
6.963621e-001 2.444759e-001 -6.579123e+000 184 176 165
1.095170e+000 1.679043e-001 -6.170480e+000 227 69 77
1.095947e+000 1.635932e-001 -6.173764e+000 227 69 77
-5.319920e+000 -1.263518e+001 -1.757877e+001 43 59 116
6.293570e-001 5.965345e-001 -6.660269e+000 157 147 136
4.017180e-001 2.039705e-001 -6.827265e+000 131 115 100
1.153041e+000 2.148214e-001 -6.093924e+000 207 52 57
2.779770e-001 9.956695e-001 -7.017883e+000 203 196 188
2.771981e-001 9.962984e-001 -7.015397e+000 203 196 188
-1.658171e-001 1.489095e-001 -6.890571e+000 129 115 104
-1.223330e-001 9.148174e-002 -6.715537e+000 126 112 103
-1.188136e-001 8.468523e-002 -6.726158e+000 126 112 103
2.267182e-001 1.783409e-001 -6.709850e+000 197 187 175
6.077193e-002 6.451883e-001 -7.116442e+000 210 201 191
3.494681e-001 1.132195e+000 -6.937039e+000 209 42 51
-2.123679e-001 3.608845e-002 -6.722924e+000 108 90 76
-2.121504e-001 3.740807e-002 -6.721913e+000 108 90 76
9.304512e-001 6.280775e-001 -6.289164e+000 203 58 65
-1.708714e-001 8.408824e-001 -7.516479e+000 209 200 191
-1.334372e-001 9.416281e-001 -7.409195e+000 187 175 163
-1.086631e-001 5.023475e-001 -7.245256e+000 157 147 137
-2.121069e-001 -1.863899e-001 -7.469224e+000 202 195 182
-1.618570e-001 1.732251e-001 -7.021466e+000 120 106 95
8.277193e-001 8.248027e-001 -6.393420e+000 122 32 36
-6.078491e-001 -2.635307e-001 -6.326511e+000 49 19 16
8.830997e-001 8.271896e-002 -6.603734e+000 239 233 221
6.264948e-001 -5.744627e-001 -6.632763e+000 246 233 178
-5.653594e-001 5.851265e-001 -7.965267e+000 185 42 46
8.321955e-002 1.315561e+000 -7.160379e+000 81 18 27
-8.782876e-002 6.597498e-001 -7.228930e+000 168 159 145
-2.106490e+000 -2.820002e+000 -1.060201e+001 45 39 41
-1.514985e-001 4.604590e-001 -7.398272e+000 173 165 152
-2.458095e-001 6.565869e-003 -7.637928e+000 107 58 49
-1.435906e-001 3.508851e-001 -7.279637e+000 156 146 134
3.018101e-001 6.889451e-001 -7.075581e+000 219 215 206
5.832243e-001 1.125183e+000 -6.636405e+000 200 52 61
-2.479406e-001 -1.809344e-001 -7.497478e+000 176 169 155
-1.764203e-001 1.820815e-001 -7.034808e+000 152 138 127
-1.752024e+000 -3.708162e+000 -1.024072e+001 62 56 58
-1.749963e+000 -3.853780e+000 -1.035475e+001 64 58 60
-1.796446e-001 1.379943e-001 -6.803707e+000 101 84 76
-5.346843e-001 -5.345126e-002 -6.533550e+000 104 43 33
-8.601071e-001 -2.697531e-001 -6.408561e+000 48 16 11
-9.014415e-002 6.800941e-002 -6.688929e+000 139 127 116
4.188952e-001 2.052050e-001 -6.848373e+000 150 137 120
6.070658e-001 5.627774e-001 -6.599376e+000 126 114 99
8.606628e-003 -1.568222e-001 -6.622283e+000 252 247 243
-1.533388e+000 -4.560146e+000 -9.927093e+000 45 41 38
4.679802e-001 1.147377e-001 -6.628940e+000 180 168 154
-1.456228e+000 -4.889047e+000 -9.966877e+000 62 54 52
8.853465e-001 5.499122e-001 -6.371329e+000 166 31 38
1.129444e+000 -4.596108e-001 -6.122900e+000 227 95 99
-2.242330e-001 5.183101e-001 -7.524794e+000 224 217 207
1.773178e-001 1.011330e+000 -7.068598e+000 212 205 197
1.744413e-001 1.010614e+000 -7.064417e+000 212 205 197
-2.110222e+000 -3.052862e+000 -1.039172e+001 60 54 54
-1.943140e-001 2.419355e-001 -7.479573e+000 207 189 185
-1.735266e+000 -3.650074e+000 -1.027149e+001 25 19 21
2.549303e-002 2.653506e-001 -6.936193e+000 121 112 98
-1.690680e+000 -3.734082e+000 -1.030709e+001 53 49 50
-1.684395e+000 -3.670335e+000 -1.023357e+001 53 49 50
-1.274996e-001 1.206096e-001 -6.836018e+000 154 138 127
5.599412e-001 5.336597e-001 -6.729958e+000 160 150 138
8.015749e-001 8.556255e-001 -6.426653e+000 159 45 49
-3.222894e-001 -1.440984e-001 -6.491335e+000 122 30 17
2.461735e-001 5.128533e-002 -6.664917e+000 194 184 175
8.884898e-001 5.856663e-001 -6.344240e+000 217 71 78
-1.228729e+000 -5.330248e+000 -9.964144e+000 73 68 71
1.128254e+000 -4.152433e-001 -6.109285e+000 153 33 37
-2.549277e-001 1.924284e-001 -7.691709e+000 215 73 82
-1.387581e-001 2.660193e-001 -7.192543e+000 174 161 145
5.381247e-003 4.511957e-001 -7.081502e+000 148 136 124
-1.863009e-001 -1.227905e-001 -7.477176e+000 174 166 153
-3.954299e-001 2.421698e-002 -6.860109e+000 92 38 33
1.108180e-001 -2.786019e-002 -6.690925e+000 164 154 144
1.108180e-001 -2.786019e-002 -6.690925e+000 164 154 144
5.730319e-001 4.830731e-002 -6.503128e+000 198 188 179
6.047392e-001 4.797648e-002 -6.507545e+000 173 161 149
4.076035e-001 -4.258216e-001 -6.708570e+000 119 102 62
-1.128452e-001 4.569955e-001 -7.343262e+000 148 138 126
-2.488309e-001 4.775927e-002 -6.735192e+000 68 23 18
-7.006562e-001 -1.937809e-001 -6.306925e+000 163 82 52
2.693583e-001 8.245982e-002 -6.669099e+000 171 159 147
6.441010e-001 3.116099e-002 -6.491464e+000 197 187 177
5.019945e-001 -1.073110e+000 -7.092635e+000 245 230 171
5.007847e-001 -4.948440e-001 -6.709227e+000 78 60 27
8.875752e-001 2.291030e-001 -6.314009e+000 254 254 246
-1.083574e-001 2.886124e-001 -7.130256e+000 131 117 101
6.221754e-001 1.840152e-001 -6.699005e+000 158 150 139
5.601470e-001 -4.265279e-001 -6.625101e+000 114 96 56
1.008107e+000 2.856078e-001 -6.263590e+000 232 71 79
4.087968e-001 1.058000e+000 -6.812860e+000 240 236 232
6.175820e-001 9.358125e-001 -6.627016e+000 217 57 64
1.082202e+000 -7.421235e-001 -6.290331e+000 244 88 99
-2.850533e-002 1.274744e+000 -7.270636e+000 24 17 18
2.334227e-001 2.841539e-001 -6.868983e+000 136 124 110
6.424778e-001 -5.122338e-001 -6.602776e+000 232 215 159
6.299030e-001 -4.910654e-001 -6.579279e+000 232 215 159
-9.167126e-002 1.078006e+000 -7.298162e+000 144 26 31
-3.687807e-004 7.586582e-001 -7.125304e+000 222 218 209
-3.687807e-004 7.586582e-001 -7.125304e+000 222 218 209
3.224457e-001 8.565439e-001 -6.901844e+000 155 146 131
6.935120e-001 -1.459549e-001 -6.453322e+000 251 248 243
1.003663e+000 -3.799690e-001 -6.231823e+000 216 197 138
