ply
format ascii 1.0
element face 0
property list uchar int vertex_indices
element vertex 871
property float x
property float y
property float z
property uchar diffuse_red
property uchar diffuse_green
property uchar diffuse_blue
end_header
-2.563925e-001 -7.448017e-002 -6.550330e+000 76 21 19
5.725893e-001 1.347094e-001 -6.574555e+000 138 126 114
6.068781e-001 -4.191716e-001 -6.604669e+000 170 148 100
-2.779771e-001 5.781788e-001 -7.690831e+000 215 206 197
-1.023624e-002 -6.590026e-001 -6.787226e+000 39 31 29
7.551772e-001 4.429646e-001 -6.463689e+000 243 242 237
-2.101054e-001 3.688142e-002 -6.683217e+000 73 25 18
2.430526e-002 4.232942e-002 -6.727411e+000 142 132 122
-1.570210e-001 -3.452970e-001 -6.627762e+000 172 159 150
-2.282557e-001 -3.724083e-001 -6.568633e+000 171 161 150
2.737895e-001 7.026574e-001 -7.045918e+000 175 166 157
2.858763e-001 2.420383e-001 -6.796658e+000 124 113 103
-1.233358e-001 6.081351e-003 -6.678676e+000 149 136 128
-2.441588e-001 -2.882455e-001 -6.597817e+000 168 150 139
8.043632e-001 8.666314e-001 -6.424455e+000 122 32 33
-1.154596e-001 5.111829e-001 -7.291466e+000 164 156 145
-5.010820e-001 -6.452163e-002 -6.524679e+000 108 35 15
-3.519088e-001 -3.401573e-001 -6.408584e+000 168 149 148
1.199852e+000 8.568625e-002 -6.057529e+000 180 41 48
4.840452e-001 -9.762561e-002 -6.614246e+000 253 250 245
-1.343629e-001 -4.155066e-001 -6.729823e+000 240 237 230
6.690381e-001 -7.390474e-001 -6.665127e+000 181 39 35
8.834712e-001 6.673257e-001 -6.349134e+000 189 34 42
7.635952e-001 6.366101e-001 -6.421594e+000 249 64 78
1.084789e+000 2.508501e-001 -6.186471e+000 227 60 68
1.168644e+000 9.097281e-002 -6.075222e+000 121 11 20
-8.295869e+000 -6.049171e+000 -1.829717e+001 106 97 95
-4.135592e-001 9.170834e-001 -7.729879e+000 25 18 16
2.368149e-001 4.289805e-001 -6.914961e+000 134 124 111
8.919412e-003 1.135460e+000 -7.219524e+000 181 36 41
1.312063e+000 -1.593070e-001 -5.963984e+000 190 165 111
1.312063e+000 -1.593070e-001 -5.963984e+000 190 165 111
1.918731e-001 5.898763e-002 -6.694793e+000 132 120 108
-5.893514e-001 -1.135043e-001 -6.473342e+000 69 22 15
5.695197e-001 9.499241e-002 -7.010080e+000 142 132 120
6.351729e-001 6.635451e-001 -6.605639e+000 194 186 177
-1.415983e-001 3.935206e-001 -7.238466e+000 152 140 128
-1.420567e-001 2.014516e-001 -6.958146e+000 137 127 117
-1.023457e-001 1.625260e-001 -6.699012e+000 102 88 79
-6.881631e-001 -1.280457e-001 -6.774456e+000 114 51 31
-4.481689e-001 -2.132516e-001 -6.480431e+000 186 45 12
2.603228e-001 9.043959e-001 -7.034051e+000 195 186 181
-8.830726e-001 -1.546140e-001 -6.159407e+000 140 113 65
-8.603591e-001 -3.349288e-001 -6.456240e+000 51 37 33
-4.703365e-001 -1.946866e-001 -6.400685e+000 146 24 8
-6.221063e-001 -3.164040e-001 -6.338714e+000 220 167 124
-5.939737e-001 -2.765846e-001 -6.300128e+000 82 29 13
-5.939737e-001 -2.765846e-001 -6.300128e+000 82 29 13
-3.961306e-001 9.222880e-001 -7.731671e+000 20 20 18
2.800102e-001 7.108962e-001 -6.744422e+000 209 200 191
6.284446e-001 8.015878e-001 -6.485988e+000 187 177 171
-5.948739e-002 4.733674e-001 -7.188454e+000 180 172 162
-1.733578e-001 4.774508e-002 -6.684527e+000 89 32 21
-6.590565e-001 -3.296429e-001 -6.383464e+000 252 220 167
-6.193550e-001 -2.952768e-001 -6.333405e+000 253 210 175
1.305237e-001 1.890546e-001 -6.766697e+000 162 152 142
-5.600716e-001 -2.803075e-001 -6.516249e+000 160 51 24
-5.138026e-001 -2.704243e-001 -6.493240e+000 239 157 124
-2.576453e-001 -1.628229e-001 -6.465563e+000 218 101 62
4.139736e-001 1.070048e+000 -6.820124e+000 227 214 213
-1.125694e-001 5.219904e-001 -7.281397e+000 165 155 145
7.329831e-001 6.693543e-001 -6.446421e+000 208 52 57
6.608548e-001 5.888003e-001 -6.799490e+000 150 140 128
-8.522709e-001 -1.732080e-001 -6.258962e+000 46 31 24
-2.251685e-001 -1.549041e-001 -6.440233e+000 99 24 18
-5.828727e-001 -3.111657e-001 -6.369093e+000 237 191 148
-4.133374e-001 -3.460485e-001 -6.357230e+000 99 81 63
-7.997029e-001 -1.601327e-001 -6.181682e+000 140 117 76
5.847122e-001 1.112294e+000 -6.662532e+000 196 44 50
-6.278356e-001 -3.146224e-001 -6.340466e+000 232 174 132
-8.132735e-001 -1.312253e-001 -6.356502e+000 137 59 23
-2.778257e-001 -1.962825e-001 -6.417358e+000 227 105 57
3.212992e-001 8.548070e-001 -6.915747e+000 153 142 134
-1.605621e-001 6.686178e-001 -7.471244e+000 171 163 153
-2.010411e+000 -2.618556e+000 -1.043284e+001 58 49 50
9.124309e-001 6.019706e-001 -6.331781e+000 200 52 59
7.368737e-001 -8.820898e-001 -6.572468e+000 230 98 105
-9.041583e+000 -1.045103e+001 -2.314108e+001 23 19 20
2.494914e-001 -4.653810e-001 -6.736493e+000 63 35 24
4.896777e-001 1.214384e+000 -6.719950e+000 174 44 51
1.096123e-001 6.746758e-001 -7.004201e+000 216 207 198
7.431701e-001 8.196801e-001 -6.367508e+000 188 44 48
3.618049e-001 2.588271e-001 -6.759935e+000 121 109 94
2.591779e-001 1.724027e-001 -6.644735e+000 191 178 169
-2.718830e-001 -1.116476e-001 -6.526061e+000 84 16 7
-3.823459e-001 -2.263866e-001 -6.418347e+000 167 86 64
4.930826e-001 -6.425982e-002 -6.535888e+000 214 209 202
4.970662e-001 -9.336999e-002 -6.573823e+000 223 217 211
2.438129e-002 6.835790e-001 -7.145700e+000 205 198 190
8.093484e-001 8.316805e-001 -6.405717e+000 82 12 15
7.394167e-001 8.084747e-001 -6.292099e+000 206 47 61
9.146849e-002 2.531453e-001 -6.837572e+000 152 142 133
-3.878623e-001 -1.696969e-002 -6.585835e+000 118 50 32
-3.878623e-001 -1.696969e-002 -6.585835e+000 118 50 32
-2.146642e-003 7.080506e-002 -6.742725e+000 164 151 143
-2.266906e-001 -4.540848e-002 -6.641330e+000 84 17 11
2.617012e-001 -1.132989e-001 -6.656064e+000 254 254 249
-1.776021e+000 -3.670500e+000 -1.027330e+001 45 39 41
3.538938e-001 1.287734e+000 -6.897422e+000 200 48 52
4.315026e-001 1.127867e+000 -6.891806e+000 214 51 52
4.189726e-001 1.125289e+000 -6.813783e+000 214 51 52
-1.434706e-001 8.745942e-001 -7.462947e+000 203 196 186
-1.823896e-001 5.907536e-001 -7.494659e+000 180 171 162
-1.718565e-001 6.711213e-002 -6.701855e+000 135 120 113
1.142293e+000 -3.141136e-001 -6.095379e+000 170 147 95
1.158161e+000 -2.999014e-001 -6.091721e+000 164 139 85
8.139689e-001 5.979599e-001 -6.362825e+000 245 68 80
6.839895e-001 2.394424e-001 -6.645448e+000 172 163 152
7.233958e-001 -2.504183e-001 -6.481772e+000 229 225 216
-6.429558e+000 -7.599799e+000 -1.752871e+001 31 32 36
-4.686095e+000 -6.633753e+000 -1.492941e+001 131 127 141
-4.458484e+000 -6.922911e+000 -1.504382e+001 21 19 22
-5.961351e+000 -8.769625e+000 -1.676084e+001 110 109 122
3.912407e-001 1.270835e+000 -6.849644e+000 204 47 54
4.376754e-001 1.236707e+000 -6.779928e+000 194 38 42
7.712372e-001 6.075306e-001 -6.424136e+000 250 245 244
1.332465e-001 -5.011913e-002 -6.662373e+000 160 146 135
3.115383e-001 -2.023987e-001 -6.722597e+000 218 209 202
3.115383e-001 -2.023987e-001 -6.722597e+000 218 209 202
4.405205e-001 -2.574837e-001 -6.722589e+000 217 210 200
1.201520e+000 -9.501734e-002 -6.077865e+000 25 9 12
8.765858e-001 -7.441516e-001 -6.476402e+000 210 205 196
9.829810e-001 -7.385166e-001 -6.350215e+000 250 75 86
1.138046e+000 -8.067793e-001 -6.272166e+000 250 86 94
1.138046e+000 -8.067793e-001 -6.272166e+000 250 86 94
-4.520314e+000 -6.884570e+000 -1.487154e+001 134 131 146
-5.489519e+000 -8.650393e+000 -1.681793e+001 51 51 59
1.640350e-001 -3.953124e-001 -6.715046e+000 44 28 15
1.313500e+000 -1.529266e-001 -5.951099e+000 204 174 122
1.313500e+000 -1.529266e-001 -5.951099e+000 204 174 122
1.124730e+000 -7.901263e-001 -6.253632e+000 250 78 90
1.124730e+000 -7.901263e-001 -6.253632e+000 250 78 90
1.062301e+000 3.989461e-001 -6.170805e+000 218 54 65
3.308077e-002 -5.061045e-001 -6.847810e+000 43 34 30
1.130217e+000 -1.356321e-001 -6.175059e+000 228 64 75
5.758936e-001 9.108231e-001 -6.669694e+000 230 219 215
2.685943e-001 6.269768e-001 -6.993869e+000 139 126 117
6.291992e-001 2.690252e-001 -6.687106e+000 209 202 194
-1.744107e-002 -3.191572e-001 -6.709087e+000 125 108 78
-6.241744e+000 -7.705175e+000 -1.724343e+001 115 112 119
-6.152588e+000 -8.072736e+000 -1.700027e+001 133 131 142
-6.152588e+000 -8.072736e+000 -1.700027e+001 133 131 142
5.798454e-001 9.034627e-001 -6.666724e+000 229 221 218
2.538681e-001 -4.725705e-001 -6.753397e+000 66 33 26
-4.786039e+000 -6.735651e+000 -1.545572e+001 167 169 184
-6.274597e+000 -6.406939e+000 -1.796836e+001 19 17 22
-2.768157e-001 5.803545e-001 -7.681964e+000 213 204 195
2.454538e-001 7.165774e-001 -7.150138e+000 177 170 162
8.380321e-001 8.152700e-001 -6.385283e+000 109 22 20
-1.529212e-001 1.344188e-001 -6.795049e+000 107 93 84
-1.158911e-001 1.032261e-001 -6.717842e+000 145 130 123
-3.798464e-001 -3.979805e-002 -6.610528e+000 87 19 8
-6.971219e-002 3.800039e-002 -6.666078e+000 128 114 109
-4.701913e-001 -1.152137e-001 -6.494565e+000 125 31 14
-7.310915e-001 -1.910662e-001 -6.298147e+000 87 29 14
-4.842410e+000 -6.281428e+000 -1.501508e+001 95 90 100
1.069208e+000 -6.378499e-001 -6.182898e+000 243 85 83
-1.126514e-001 8.907370e-001 -7.398956e+000 183 176 168
-4.830240e-001 5.897849e-001 -7.839402e+000 206 40 46
-1.548045e-001 6.185742e-001 -7.463652e+000 166 157 148
3.800955e-001 2.529325e-001 -6.905506e+000 144 130 119
-1.924567e-001 7.107399e-002 -6.710556e+000 79 33 28
-4.221923e-001 -4.600899e-002 -6.561136e+000 139 61 39
-5.929289e-001 -1.332525e-001 -6.457202e+000 74 17 10
3.594319e-001 -3.159505e-001 -6.734270e+000 126 110 95
6.863072e-001 -7.555169e-002 -6.425059e+000 218 214 205
6.863072e-001 -7.555169e-002 -6.425059e+000 218 214 205
-5.698688e+000 -8.818085e+000 -1.661022e+001 156 161 183
7.952187e-001 8.336582e-001 -6.424565e+000 76 7 10
1.656607e-001 2.225270e-001 -6.787326e+000 199 191 180
8.326773e-001 5.338612e-001 -6.429991e+000 207 201 195
1.050795e+000 3.874983e-001 -6.177496e+000 234 67 77
-2.583142e-001 -1.792130e-001 -6.520747e+000 214 102 65
8.644913e-001 -9.079415e-001 -6.564722e+000 226 78 79
-1.374777e+000 -2.727783e+000 -8.572858e+000 25 19 21
-5.278646e-001 5.684502e-001 -7.922665e+000 217 58 56
-1.342589e-001 3.726889e-001 -7.193078e+000 140 127 118
-5.363362e-002 4.480333e-001 -7.182294e+000 140 130 117
6.623385e-001 6.330591e-001 -6.602715e+000 166 156 146
3.188615e-001 2.891447e-001 -6.815730e+000 119 104 94
-2.487954e-001 6.495856e-002 -6.727062e+000 61 12 11
4.935698e-001 2.212265e-001 -6.705907e+000 120 108 94
-2.779305e-001 -5.632521e-002 -6.627359e+000 78 23 16
1.084036e+000 2.519679e-001 -6.186657e+000 242 73 82
-1.712270e-001 -3.652116e-001 -6.654560e+000 169 148 135
-4.936037e+000 -6.605941e+000 -1.486752e+001 9 8 14
-1.462659e+000 -4.888285e+000 -1.029879e+001 46 40 42
4.609191e-001 1.704717e-001 -6.646701e+000 203 195 185
7.952129e-001 9.556273e-002 -6.504118e+000 194 185 178
-6.160872e+000 -7.352977e+000 -1.785782e+001 84 84 92
1.093439e+000 -3.744699e-001 -6.130253e+000 110 86 48
-4.890638e+000 -6.744982e+000 -1.490107e+001 155 153 167
-4.873736e+000 -6.716023e+000 -1.485717e+001 155 153 167
-6.015274e+000 -8.806121e+000 -1.666408e+001 130 131 149
-1.738967e-001 8.466802e-001 -7.469269e+000 202 193 185
4.834496e-001 7.349056e-001 -6.792073e+000 168 157 153
4.829389e-001 7.349171e-001 -6.791319e+000 168 157 153
6.434445e-001 3.480512e-001 -6.644029e+000 194 185 176
9.612489e-001 -9.929615e-001 -6.476473e+000 231 66 80
9.612489e-001 -9.929615e-001 -6.476473e+000 231 66 80
6.499241e-001 1.040295e+000 -6.583211e+000 209 45 56
8.949705e-001 -2.701332e-001 -6.305389e+000 91 74 54
9.284614e-001 -7.964881e-002 -6.325755e+000 164 151 143
9.734110e-001 -2.733649e-001 -6.170519e+000 182 157 108
-4.503617e+000 -6.945044e+000 -1.448568e+001 161 161 173
-5.500774e+000 -8.115913e+000 -1.636557e+001 10 8 12
-5.479686e+000 -8.073848e+000 -1.630347e+001 10 8 12
1.221258e+000 -1.191690e-001 -6.054623e+000 37 26 27
-5.855488e+000 -8.804374e+000 -1.679102e+001 168 173 195
-1.984947e-001 2.566416e-001 -7.356145e+000 122 28 31
-1.220319e-001 1.448139e-001 -6.597385e+000 142 129 120
-1.428922e-001 -2.858062e-002 -6.614769e+000 109 37 21
-1.162476e-001 -2.304341e-001 -6.659716e+000 240 229 226
4.700810e-001 -9.861890e-002 -6.619388e+000 238 235 228
-2.757456e-001 1.060849e+000 -7.569033e+000 29 19 19
-1.987824e-001 8.524637e-001 -7.523016e+000 203 194 185
2.878874e-001 7.425468e-001 -7.005159e+000 190 181 174
2.928980e-001 7.338259e-001 -7.046096e+000 190 181 174
2.125419e-001 2.545016e-001 -6.720964e+000 157 141 126
-4.342691e-001 -4.798595e-002 -6.530776e+000 144 65 43
-7.503986e-002 7.316613e-002 -6.750612e+000 131 116 109
-7.991338e-001 -2.201118e-001 -6.241477e+000 91 24 17
-4.977839e-001 -1.922596e-001 -6.417846e+000 251 139 101
-1.256861e-001 -3.394425e-001 -6.638734e+000 191 183 174
-1.793843e+000 -3.600139e+000 -1.027262e+001 41 35 37
9.062515e-001 -2.416116e-001 -6.329794e+000 139 122 110
5.221463e-001 -1.103963e+000 -7.105099e+000 241 221 182
2.967294e-002 1.304901e+000 -7.167288e+000 186 39 40
-2.646176e-001 -8.942594e-003 -7.717437e+000 35 27 26
-2.646176e-001 -8.942594e-003 -7.717437e+000 35 27 26
-5.196210e-001 -1.941952e-002 -6.645767e+000 69 16 8
-5.196210e-001 -1.941952e-002 -6.645767e+000 69 16 8
8.866020e-001 5.728017e-001 -6.385664e+000 214 57 66
-6.019393e-001 -1.520841e-001 -6.341829e+000 147 63 39
4.826185e-001 7.635191e-002 -6.640882e+000 131 119 107
-1.897701e-003 -2.045176e-001 -6.643178e+000 253 250 243
1.430534e-001 -1.767987e-001 -6.689151e+000 232 225 219
-6.533585e-001 -3.119157e-001 -6.332437e+000 43 35 33
-1.769647e-001 -3.874640e-001 -6.630912e+000 232 225 221
4.357246e-001 -4.194952e-001 -6.689478e+000 196 183 131
-1.705564e+000 -3.720979e+000 -1.032000e+001 53 47 47
7.675147e-002 1.165807e+000 -7.150428e+000 203 42 49
-2.583943e-001 -1.721634e-001 -6.503610e+000 227 116 77
-2.920564e-002 -1.782909e-001 -6.615649e+000 227 224 219
-4.274887e-001 4.542012e-001 -7.668513e+000 213 200 191
8.712710e-001 5.447218e-001 -6.393398e+000 174 33 44
1.056094e-001 -2.661337e-002 -6.681739e+000 159 149 140
1.031853e-001 -1.811416e-002 -6.661294e+000 159 149 140
-1.313169e-001 -3.848725e-001 -6.675382e+000 242 236 232
1.087661e+000 1.969375e-001 -6.176165e+000 195 35 45
1.087661e+000 1.969375e-001 -6.176165e+000 195 35 45
5.227849e-001 -3.006725e-001 -6.700866e+000 244 237 231
1.168620e+000 5.537409e-002 -6.053540e+000 229 83 91
7.747037e-001 -8.163494e-001 -6.542870e+000 219 47 59
3.012758e-001 9.455573e-001 -7.039992e+000 223 217 213
-4.294423e-001 -1.906161e-001 -6.480924e+000 249 132 87
6.761921e-001 -5.673632e-001 -6.535492e+000 229 217 208
-5.503198e-001 -1.295546e-001 -6.487101e+000 94 33 26
4.148599e-001 8.048018e-002 -6.630500e+000 199 190 181
5.358765e-001 5.690690e-002 -6.531256e+000 146 134 120
5.358765e-001 5.690690e-002 -6.531256e+000 146 134 120
5.610784e-001 1.036875e-002 -6.478634e+000 214 207 199
5.988666e-001 -4.024839e-001 -6.523910e+000 178 156 106
1.429315e-001 1.292854e+000 -7.060075e+000 203 48 54
-1.598449e-001 2.683495e-001 -7.366263e+000 184 174 162
-2.447097e-001 6.859828e-002 -7.202044e+000 220 212 205
-9.494630e-002 6.412639e-001 -7.336091e+000 168 162 150
-9.494630e-002 6.412639e-001 -7.336091e+000 168 162 150
5.779372e-001 -7.708527e-001 -6.711567e+000 251 250 245
-6.012611e-001 -1.339758e-001 -6.539170e+000 65 17 12
7.029582e-001 -3.419011e-001 -6.462587e+000 100 85 64
8.083993e-001 -9.140188e-001 -6.513728e+000 50 36 36
-3.728486e-001 2.516528e-001 -7.490820e+000 38 27 27
-2.672545e-001 -8.399842e-002 -6.578560e+000 66 11 8
3.766476e-001 -1.256194e-001 -6.689067e+000 245 242 234
3.772749e-001 -1.246366e-001 -6.686578e+000 245 242 234
1.704820e-002 -6.619367e-001 -6.821132e+000 35 30 27
-1.943464e+000 -3.343510e+000 -1.049305e+001 38 32 34
7.428517e-001 -1.218717e-001 -6.370380e+000 228 220 210
-4.383835e+000 -6.686281e+000 -1.503051e+001 30 28 33
-4.463816e+000 -6.723335e+000 -1.492571e+001 165 161 175
-6.107800e+000 -8.416964e+000 -1.674138e+001 9 7 10
3.510004e-003 2.454395e-001 -6.941007e+000 145 132 123
-4.337130e-001 -7.054679e-002 -6.529667e+000 121 37 16
-4.212510e-001 -1.083929e-001 -6.481956e+000 129 34 14
8.894597e-001 -9.789157e-001 -6.578935e+000 48 30 30
4.310670e-001 1.142679e+000 -6.848113e+000 214 50 57
6.378365e-001 6.345930e-001 -6.636919e+000 204 194 185
-5.852976e+000 -9.014530e+000 -1.662929e+001 12 10 16
1.368931e-001 1.158498e+000 -7.065915e+000 232 192 168
2.378841e-001 6.886887e-001 -7.066360e+000 181 174 164
3.701483e-001 1.136231e+000 -6.873390e+000 203 32 40
-3.502178e-003 5.364622e-001 -7.146907e+000 208 197 191
-3.502178e-003 5.364622e-001 -7.146907e+000 208 197 191
1.304331e-001 5.943061e-001 -7.018858e+000 176 167 154
6.025289e-001 6.279524e-001 -6.687499e+000 187 181 170
-3.336619e-002 2.485999e-001 -7.030863e+000 145 135 125
2.411230e-001 2.890094e-001 -6.821945e+000 122 108 97
-4.355565e-001 -5.143740e-002 -6.538085e+000 144 65 43
-2.019819e-001 -3.186470e-002 -6.650092e+000 90 21 15
-6.255311e+000 -7.858236e+000 -1.764450e+001 79 79 80
-4.880170e+000 -6.321442e+000 -1.496247e+001 101 99 108
-4.757044e+000 -7.073540e+000 -1.503507e+001 156 154 168
-4.013829e+000 -7.474522e+000 -1.476728e+001 84 87 96
-1.576510e+000 -4.384595e+000 -1.024014e+001 50 44 48
-1.557331e-001 8.910389e-001 -7.483617e+000 161 147 139
-2.299988e-002 2.755425e-001 -7.028937e+000 130 118 106
3.055517e-001 2.978558e-001 -6.894700e+000 127 115 102
-6.123708e+000 -7.671100e+000 -1.722186e+001 80 79 84
-2.180514e+000 -3.235080e+000 -1.067298e+001 55 50 54
-5.476152e+000 -8.730697e+000 -1.675206e+001 120 121 139
-1.524250e+000 -4.464046e+000 -1.016866e+001 53 48 52
6.338776e-001 5.988804e-001 -6.674419e+000 153 143 133
-2.387496e-001 6.374988e-003 -6.649320e+000 70 20 17
9.061533e-001 4.083145e-001 -6.277103e+000 252 81 93
8.546232e-001 7.681087e-001 -6.365454e+000 21 1 4
-5.681136e-001 6.576370e-001 -7.975467e+000 38 24 20
3.071161e-001 5.318193e-002 -6.650283e+000 244 240 231
6.299744e-001 1.226450e-001 -6.583242e+000 189 175 165
-4.739744e+000 -6.743805e+000 -1.513980e+001 142 138 153
-4.143523e+000 -7.764261e+000 -1.478166e+001 11 7 14
-5.724568e+000 -7.503770e+000 -1.679250e+001 10 10 12
6.678777e-001 1.041544e+000 -6.540492e+000 186 44 53
-6.123276e+000 -7.518528e+000 -1.716383e+001 80 77 84
-1.027887e-001 1.480792e-001 -6.789297e+000 108 94 83
-8.887961e-002 7.868505e-002 -6.710370e+000 162 147 140
-8.887961e-002 7.868505e-002 -6.710370e+000 162 147 140
-4.327760e+000 -6.423762e+000 -1.501347e+001 47 45 48
3.406633e-001 2.443743e-001 -6.728162e+000 143 130 114
-4.395776e-001 -1.203632e-001 -6.498738e+000 126 37 16
-4.690780e-001 -2.187690e-001 -6.452452e+000 144 27 9
-5.488913e+000 -8.983639e+000 -1.658927e+001 116 124 147
5.844197e-001 -3.788260e-001 -6.595874e+000 147 133 108
1.054702e+000 -2.451592e-001 -6.205953e+000 141 114 76
-6.045555e+000 -7.383516e+000 -1.765552e+001 66 66 74
-4.693021e+000 -6.211662e+000 -1.514075e+001 136 136 146
-2.138541e+000 -2.663675e+000 -1.055946e+001 40 36 37
7.282119e-001 5.181574e-001 -6.486831e+000 235 232 223
7.399401e-001 5.359399e-001 -6.465640e+000 236 231 227
-3.821599e-001 -1.063016e-001 -6.538453e+000 90 20 11
-5.987947e+000 -8.875688e+000 -1.660226e+001 3 4 8
5.017538e-001 -1.468480e-002 -6.533389e+000 199 192 174
-1.737619e+000 -3.810167e+000 -1.035369e+001 28 22 24
5.065065e-001 -1.127835e+000 -7.117709e+000 42 29 20
-1.377557e+000 -5.395408e+000 -9.931364e+000 22 15 17
-7.325490e-002 1.187601e+000 -7.340570e+000 142 21 30
2.894210e-002 1.332221e+000 -7.123805e+000 33 14 15
-2.056293e-001 5.123017e-001 -7.530655e+000 192 184 173
5.660760e-001 1.156496e+000 -6.670703e+000 185 40 45
1.374329e-001 3.938898e-001 -6.965646e+000 136 124 112
-5.927945e+000 -7.220145e+000 -1.766534e+001 66 66 78
-2.167847e+000 -2.517904e+000 -1.052561e+001 36 30 30
-4.910090e+000 -6.295549e+000 -1.516496e+001 130 130 139
-4.821611e+000 -6.476611e+000 -1.477125e+001 122 120 130
-4.688109e+000 -6.535933e+000 -1.495834e+001 137 137 149
-3.355518e-001 -4.971992e-003 -6.631424e+000 56 15 9
-7.651391e-001 -2.017184e-001 -6.286499e+000 136 109 66
1.632053e-001 5.479854e-002 -6.700231e+000 170 160 148
-5.987022e+000 -8.564440e+000 -1.660624e+001 105 103 115
-1.643869e-001 -2.311824e-001 -6.688701e+000 233 209 149
-1.936651e+000 -3.340575e+000 -1.047495e+001 40 34 38
-1.890676e+000 -3.458902e+000 -1.043717e+001 44 40 41
-4.105645e-001 -3.833250e-001 -6.464631e+000 164 143 123
-2.663247e-001 -4.052698e-001 -6.544036e+000 234 229 225
-2.310599e-001 -4.205401e-001 -6.584715e+000 251 251 246
6.490853e-001 -6.930025e-001 -6.644675e+000 174 161 141
8.871019e-001 -9.466753e-001 -6.620335e+000 235 82 88
-1.329688e+000 -5.401216e+000 -9.959810e+000 111 101 102
-1.328333e+000 -5.366723e+000 -9.928974e+000 111 101 102
3.783397e-001 1.307387e+000 -6.799196e+000 27 10 13
-2.421086e-001 1.030553e-001 -6.754777e+000 78 42 41
-6.108717e+000 -8.117211e+000 -1.667061e+001 11 9 17
-4.914840e+000 -6.538935e+000 -1.504695e+001 118 116 128
-1.727164e-001 -1.999672e-002 -6.684328e+000 112 43 32
-4.592251e+000 -6.803176e+000 -1.474585e+001 109 109 117
-1.978204e+000 -3.196164e+000 -1.048368e+001 49 44 46
-2.572812e-001 -1.771308e-001 -6.511458e+000 228 115 76
-2.860167e-002 -4.413161e-001 -6.759724e+000 40 33 25
1.205505e-001 -2.366975e-001 -6.681791e+000 199 189 179
1.127829e+000 3.338660e-001 -6.137952e+000 32 10 16
1.191888e+000 1.720815e-001 -6.082852e+000 32 18 19
-1.438447e+000 -4.777395e+000 -1.013201e+001 52 46 48
-1.384437e+000 -4.846545e+000 -1.002713e+001 45 40 44
-1.339058e+000 -4.842627e+000 -9.906646e+000 49 43 43
7.474928e-001 -8.989171e-001 -6.601696e+000 234 96 96
-3.626458e-001 7.198177e-001 -7.691703e+000 194 172 166
-1.423843e-001 3.724887e-001 -7.185378e+000 126 114 102
-1.423843e-001 3.724887e-001 -7.185378e+000 126 114 102
4.990270e-001 5.838409e-001 -6.781860e+000 184 177 167
4.990270e-001 5.838409e-001 -6.781860e+000 184 177 167
-4.861214e-001 -1.691156e-001 -6.488574e+000 180 74 42
4.412470e-001 -2.621997e-001 -6.728748e+000 216 210 197
4.450599e-001 -4.874065e-001 -6.718812e+000 251 251 241
-1.314570e+000 -5.300947e+000 -9.979754e+000 19 9 10
-1.886467e-001 3.412563e-002 -7.560714e+000 89 8 9
-5.106294e-001 -2.419452e-001 -6.491996e+000 212 107 66
1.210821e+000 -7.149727e-004 -6.078414e+000 32 11 18
-1.396578e+000 -5.222228e+000 -9.917623e+000 62 51 49
5.029200e-001 1.184117e+000 -6.726840e+000 211 51 56
-1.433820e-001 5.185015e-001 -7.476425e+000 203 195 184
-2.037757e-001 1.373004e-001 -7.647645e+000 132 17 24
6.580970e-001 -7.530268e-001 -6.601518e+000 45 34 32
1.627251e-001 3.281840e-001 -6.882294e+000 132 117 106
-3.973351e+000 -7.624988e+000 -1.503141e+001 15 13 18
1.005597e+000 3.213440e-001 -6.250315e+000 226 61 70
2.449470e-001 -4.824732e-001 -6.765851e+000 71 45 31
2.433759e-001 -4.759258e-001 -6.760113e+000 71 45 31
9.826140e-001 -2.744902e-001 -6.194095e+000 199 176 122
-1.690950e-001 1.109186e+000 -7.430407e+000 201 50 57
2.574908e-001 6.310449e-001 -6.986101e+000 140 128 116
5.483750e-001 -3.556137e-001 -6.676758e+000 99 84 64
7.854701e-001 -2.232612e-001 -6.400642e+000 255 252 247
-2.750517e-001 -1.380297e-001 -6.857692e+000 120 52 33
2.039096e-001 1.047020e+000 -7.082737e+000 219 212 206
9.257807e-001 1.791543e-001 -6.285853e+000 225 214 208
1.266109e-001 1.164605e+000 -7.094597e+000 219 54 62
2.809247e-001 7.478724e-001 -7.003101e+000 200 193 185
1.240970e-001 6.362905e-001 -7.052335e+000 161 147 136
-8.411136e-002 2.056851e-001 -6.952744e+000 140 127 113
5.974393e-001 5.584565e-001 -6.644632e+000 140 128 115
-1.075654e-001 6.249944e-002 -6.751942e+000 125 111 102
-7.541119e-002 4.388899e-002 -6.691704e+000 135 120 112
-8.586359e-001 -2.609520e-001 -6.411917e+000 141 75 51
-2.662875e-001 -8.056773e-002 -6.619961e+000 93 35 28
-7.671951e-001 -2.091583e-001 -6.272476e+000 77 23 21
-7.009964e-001 -2.273815e-001 -6.310214e+000 114 28 9
-2.540410e-001 -3.889338e-001 -6.565107e+000 183 174 167
5.440107e-002 -3.798729e-001 -6.699242e+000 196 180 165
5.746644e-001 -2.829559e-001 -6.580114e+000 161 145 128
-7.823678e-002 4.638455e-001 -7.262770e+000 164 153 143
1.080956e-001 6.757693e-001 -7.069051e+000 222 212 203
2.999271e-001 7.314709e-001 -6.981433e+000 190 181 172
-7.014650e-001 -1.632940e-001 -6.882555e+000 141 63 46
3.514582e-001 3.542137e-001 -6.842351e+000 162 150 138
8.387022e-001 5.374042e-001 -6.421057e+000 209 201 191
-1.724531e+000 -3.873589e+000 -1.036944e+001 29 25 26
-6.822285e-001 -3.164199e-001 -6.332417e+000 224 114 84
9.681823e-001 -6.709219e-001 -6.287988e+000 249 96 104
-1.739363e-001 9.914884e-001 -7.535742e+000 171 28 35
-2.178444e-001 -5.129551e-002 -6.650428e+000 84 20 11
-7.950932e-001 -3.140632e-001 -6.354736e+000 255 163 129
-2.423718e-001 -1.259415e-001 -6.531671e+000 116 44 32
-2.423718e-001 -1.259415e-001 -6.531671e+000 116 44 32
-9.415277e-002 -2.632443e-001 -6.678622e+000 240 231 226
-8.781434e-002 -1.738293e-001 -6.626334e+000 227 222 216
1.708040e-003 -1.530012e-001 -6.617662e+000 253 248 242
2.675682e-001 -6.561938e-002 -6.642046e+000 221 214 206
9.392061e-001 6.335300e-001 -6.290162e+000 203 58 66
-3.427631e-001 -3.757643e-001 -6.460316e+000 198 194 187
1.641316e-002 -4.772989e-001 -6.802507e+000 36 27 22
4.670366e-001 -6.437339e-001 -6.765141e+000 252 252 240
3.464617e-002 1.296279e+000 -7.194506e+000 190 39 46
6.309380e-001 5.728936e-001 -6.620886e+000 171 159 145
7.679375e-001 6.118605e-001 -6.414868e+000 248 249 240
-3.139710e-001 -3.673810e-001 -6.477162e+000 222 213 207
8.636276e-001 4.637196e-001 -6.342912e+000 184 169 156
5.728756e-001 8.590981e-002 -6.494365e+000 191 181 168
5.054216e-001 -9.612655e-002 -6.518356e+000 217 210 200
6.566724e-001 -7.126438e-001 -6.585698e+000 56 42 40
6.566724e-001 -7.126438e-001 -6.585698e+000 56 42 40
-4.339700e-001 -4.944466e-003 -6.853303e+000 44 12 13
7.986402e-001 8.320838e-001 -6.435391e+000 88 7 15
-4.612847e-001 -3.342720e-001 -6.468134e+000 247 188 154
-3.588194e-004 -1.069463e-001 -6.605210e+000 239 232 229
-4.235402e-002 -2.968858e-001 -6.682992e+000 66 47 26
5.552681e-001 -1.023925e-001 -6.499534e+000 230 226 217
-4.054226e-001 8.401053e-001 -7.789291e+000 195 39 46
5.017869e-001 3.149275e-001 -6.808711e+000 141 129 119
8.631982e-001 7.276368e-001 -6.343960e+000 237 81 90
-7.546661e-001 -1.645405e-001 -6.282921e+000 74 22 10
-1.222824e-001 -7.377820e-002 -6.621933e+000 207 188 180
8.143814e-001 5.753353e-001 -6.405353e+000 253 253 251
-4.893976e-001 -3.279439e-001 -6.512625e+000 247 184 142
-3.293306e-001 -3.719958e-001 -6.481683e+000 190 178 171
-2.821368e-001 -3.065665e-001 -6.502636e+000 167 144 133
4.824462e-001 -3.698968e-001 -6.605671e+000 254 252 203
1.089488e+000 2.260322e-001 -6.162234e+000 207 45 57
-1.265429e-001 4.111577e-001 -7.326965e+000 133 121 109
3.747617e-001 4.832290e-001 -6.923210e+000 187 177 168
4.985628e-001 3.205147e-001 -6.801886e+000 141 130 119
7.707392e-001 7.653546e-001 -6.374448e+000 243 82 92
9.741484e-001 -5.056414e-001 -6.304921e+000 244 230 198
1.356564e-001 1.336397e+000 -7.142957e+000 14 3 9
-4.335077e-001 5.759143e-001 -7.805839e+000 188 177 168
-3.499984e-001 2.869547e-001 -7.783005e+000 42 31 29
2.104473e-001 5.314736e-001 -6.970789e+000 231 222 216
5.848016e-001 -7.563643e-001 -6.685572e+000 254 255 247
1.147700e+000 1.828543e-001 -6.116963e+000 221 60 68
1.091133e+000 -1.885546e-001 -6.191482e+000 77 11 15
-9.561919e-002 6.926720e-001 -7.247260e+000 169 160 145
-9.881135e-002 6.829585e-001 -7.238401e+000 169 160 145
4.002913e-001 -3.568294e-001 -6.725676e+000 80 62 41
9.076252e-001 3.463889e-001 -6.288211e+000 255 251 246
1.015460e+000 -5.956199e-001 -6.289663e+000 172 35 40
6.272882e-001 5.482293e-001 -6.609378e+000 136 122 111
2.687068e-002 -2.156808e-002 -6.690989e+000 136 119 111
-2.736772e-001 -3.564896e-001 -6.548478e+000 169 151 137
4.007542e-001 -5.072858e-001 -6.650186e+000 254 255 246
1.035842e+000 -3.921723e-002 -6.236185e+000 233 226 218
-6.096840e-001 -1.455396e-001 -6.566769e+000 63 22 19
7.664593e-001 5.403039e-001 -6.428321e+000 255 255 251
6.252480e-003 4.793318e-002 -7.181124e+000 118 104 93
-3.702674e-001 1.756811e-001 -7.680961e+000 39 30 28
2.619452e-001 -2.399062e-001 -6.737530e+000 243 234 225
-7.401968e+000 -6.445460e+000 -2.214263e+001 135 124 120
-4.598567e+000 -6.815774e+000 -1.477684e+001 111 109 122
-4.855112e+000 -6.690496e+000 -1.482392e+001 165 163 172
-3.739504e-001 -2.047553e-002 -6.608897e+000 117 51 38
-6.842123e-002 3.693539e-002 -6.673177e+000 131 116 109
-1.962072e+000 -3.267407e+000 -1.048325e+001 41 35 39
6.983036e-001 2.471950e-001 -6.578577e+000 184 176 165
1.102022e+000 1.682360e-001 -6.167693e+000 227 69 77
1.101391e+000 1.652429e-001 -6.169252e+000 227 69 77
-5.277445e+000 -1.252349e+001 -1.747309e+001 43 59 116
6.321680e-001 6.016895e-001 -6.662203e+000 157 147 136
4.011760e-001 2.065225e-001 -6.829085e+000 131 115 100
1.159156e+000 2.168343e-001 -6.088753e+000 207 52 57
2.773316e-001 1.005351e+000 -7.022612e+000 203 196 188
2.765681e-001 1.005931e+000 -7.020237e+000 203 196 188
-1.714865e-001 1.515977e-001 -6.893435e+000 129 115 104
-1.278944e-001 9.369273e-002 -6.716863e+000 126 112 103
-1.243352e-001 8.691943e-002 -6.727476e+000 126 112 103
2.244449e-001 1.808642e-001 -6.710930e+000 197 187 175
5.821671e-002 6.512790e-001 -7.122474e+000 210 201 191
3.496045e-001 1.143117e+000 -6.941411e+000 209 42 51
-2.187932e-001 3.799091e-002 -6.724268e+000 108 90 76
-2.185645e-001 3.932964e-002 -6.723256e+000 108 90 76
9.350141e-001 6.342286e-001 -6.286354e+000 203 58 65
-1.751343e-001 8.491331e-001 -7.525244e+000 209 200 191
-1.373276e-001 9.506100e-001 -7.417872e+000 187 175 163
-1.129808e-001 5.076449e-001 -7.251618e+000 157 147 137
-2.176720e-001 -1.863049e-001 -7.475409e+000 202 195 182
-1.706349e-001 1.805305e-001 -7.019826e+000 120 106 95
8.318355e-001 8.326265e-001 -6.392212e+000 122 32 36
-6.187527e-001 -2.639763e-001 -6.324821e+000 49 19 16
8.867216e-001 8.360661e-002 -6.603205e+000 239 233 221
6.268670e-001 -5.785585e-001 -6.631692e+000 246 233 178
-5.724537e-001 5.913018e-001 -7.976852e+000 185 42 46
8.175376e-002 1.327857e+000 -7.168249e+000 81 18 27
-9.188596e-002 6.664922e-001 -7.235271e+000 168 159 145
-2.116032e+000 -2.824547e+000 -1.060976e+001 45 39 41
-1.560606e-001 4.655073e-001 -7.405459e+000 173 165 152
-2.513447e-001 8.174532e-003 -7.645449e+000 107 58 49
-1.483979e-001 3.550875e-001 -7.285675e+000 156 146 134
3.012097e-001 6.955805e-001 -7.080480e+000 219 215 206
5.853273e-001 1.136107e+000 -6.637858e+000 200 52 61
-2.536595e-001 -1.809452e-001 -7.504228e+000 176 169 155
-1.804493e-001 1.784679e-001 -7.043978e+000 152 138 127
-1.760853e+000 -3.712310e+000 -1.024256e+001 62 56 58
-1.758182e+000 -3.854568e+000 -1.035259e+001 64 58 60
-1.879659e-001 1.459793e-001 -6.801493e+000 101 84 76
-5.444240e-001 -5.219245e-002 -6.533808e+000 104 43 33
-8.732016e-001 -2.703642e-001 -6.408232e+000 48 16 11
-9.542762e-002 7.004287e-002 -6.689963e+000 139 127 116
4.185720e-001 2.076487e-001 -6.850444e+000 150 137 120
6.087632e-001 5.682774e-001 -6.599802e+000 126 114 99
3.940138e-003 -1.570024e-001 -6.622504e+000 252 247 243
-1.542454e+000 -4.567715e+000 -9.928549e+000 45 41 38
4.678035e-001 1.164154e-001 -6.629045e+000 180 168 154
-1.464925e+000 -4.896219e+000 -9.967023e+000 62 54 52
8.895252e-001 5.551670e-001 -6.369374e+000 166 31 38
1.134429e+000 -4.637077e-001 -6.117496e+000 227 95 99
-2.292060e-001 5.238608e-001 -7.533024e+000 224 217 207
1.759539e-001 1.021007e+000 -7.074359e+000 212 205 197
1.762472e-001 1.016524e+000 -7.076346e+000 212 205 197
-2.120125e+000 -3.057371e+000 -1.039799e+001 60 54 54
-1.986884e-001 2.437978e-001 -7.488714e+000 207 189 185
-1.743979e+000 -3.654151e+000 -1.027349e+001 25 19 21
2.173909e-002 2.687027e-001 -6.939488e+000 121 112 98
-1.699121e+000 -3.737881e+000 -1.030845e+001 53 49 50
-1.693195e+000 -3.676132e+000 -1.023732e+001 53 49 50
-1.328673e-001 1.228572e-001 -6.838582e+000 154 138 127
5.606868e-001 5.394106e-001 -6.730719e+000 160 150 138
8.058478e-001 8.635621e-001 -6.426174e+000 159 45 49
-3.301958e-001 -1.437551e-001 -6.490791e+000 122 30 17
2.438926e-001 5.269354e-002 -6.665408e+000 194 184 175
8.927804e-001 5.912251e-001 -6.342154e+000 217 71 78
-1.236706e+000 -5.329474e+000 -9.956287e+000 73 68 71
1.133273e+000 -4.189729e-001 -6.103791e+000 153 33 37
-2.598749e-001 1.943600e-001 -7.701517e+000 215 73 82
-1.436828e-001 2.695289e-001 -7.197845e+000 174 161 145
1.820883e-003 4.560566e-001 -7.086345e+000 148 136 124
-1.914901e-001 -1.224369e-001 -7.483852e+000 174 166 153
-4.032778e-001 2.592953e-002 -6.863001e+000 92 38 33
1.071102e-001 -2.658492e-002 -6.691269e+000 164 154 144
1.071102e-001 -2.658492e-002 -6.691269e+000 164 154 144
5.734600e-001 4.964720e-002 -6.501643e+000 198 188 179
6.056436e-001 4.895976e-002 -6.506390e+000 173 161 149
4.060673e-001 -4.280073e-001 -6.708012e+000 119 102 62
-1.172165e-001 4.620026e-001 -7.349920e+000 148 138 126
-2.555773e-001 4.975433e-002 -6.736725e+000 68 23 18
-7.124232e-001 -1.930682e-001 -6.304984e+000 163 82 52
2.671644e-001 8.448502e-002 -6.669257e+000 171 159 147
6.450681e-001 3.241682e-002 -6.489661e+000 197 187 177
5.009764e-001 -1.080206e+000 -7.094022e+000 245 230 171
5.001989e-001 -4.981314e-001 -6.708959e+000 78 60 27
8.913230e-001 2.313967e-001 -6.311171e+000 254 254 246
-1.130703e-001 2.923098e-001 -7.135106e+000 131 117 101
6.235736e-001 1.860825e-001 -6.699642e+000 158 150 139
5.601232e-001 -4.294067e-001 -6.624261e+000 114 96 56
1.012857e+000 2.884984e-001 -6.260054e+000 232 71 79
4.093231e-001 1.068293e+000 -6.815972e+000 240 236 232
6.198307e-001 9.448767e-001 -6.628111e+000 217 57 64
1.085748e+000 -7.474925e-001 -6.285390e+000 244 88 99
-3.121139e-002 1.286794e+000 -7.279167e+000 24 17 18
2.316240e-001 2.874090e-001 -6.871675e+000 136 124 110
6.431047e-001 -5.160036e-001 -6.601660e+000 232 215 159
6.302000e-001 -4.941361e-001 -6.577525e+000 232 215 159
-9.508951e-002 1.086809e+000 -7.306527e+000 144 26 31
-3.671704e-003 7.662548e-001 -7.130977e+000 222 218 209
-3.671704e-003 7.662548e-001 -7.130977e+000 222 218 209
3.219257e-001 8.649743e-001 -6.905344e+000 155 146 131
6.911321e-001 -1.412121e-001 -6.446870e+000 251 248 243
1.007184e+000 -3.825830e-001 -6.227005e+000 216 197 138
6.138380e-002 1.318516e+000 -7.194120e+000 81 15 23
-1.382973e-001 9.991229e-001 -7.263255e+000 178 159 153
-9.693312e-002 8.703090e-001 -7.228657e+000 198 191 181
-1.607881e-001 3.930838e-001 -7.392308e+000 212 201 189
-1.023439e-001 5.056730e-001 -7.328683e+000 165 153 138
-1.974947e-001 4.523608e-003 -7.556355e+000 159 85 79
-7.292785e-001 -2.741257e-001 -6.839237e+000 38 28 28
-1.246433e-001 1.268524e-001 -6.904883e+000 107 90 80
-4.582060e-001 -1.961067e-001 -6.482745e+000 236 131 101
-4.663658e-001 -2.238440e-001 -6.443087e+000 126 21 1
-3.836446e-001 -9.991762e-002 -6.478291e+000 120 29 12
8.625906e-002 2.786338e-003 -6.703987e+000 190 177 168
1.380086e-001 -5.516157e-002 -6.737440e+000 170 157 147
-4.403534e-001 -3.642562e-001 -6.469676e+000 95 90 90
-4.072578e-001 -3.660032e-001 -6.453287e+000 212 200 178
-2.577087e-001 -3.538332e-001 -6.543548e+000 175 150 146
-6.188288e-002 -2.726816e-001 -6.645936e+000 163 146 127
1.571683e-001 -5.150138e-001 -6.848557e+000 155 138 120
4.284934e-001 -4.790949e-002 -6.606633e+000 254 250 241
6.240531e-001 1.100487e-001 -6.568004e+000 192 180 166
3.359591e-001 -3.968341e-001 -6.566001e+000 225 219 207
3.359591e-001 -3.968341e-001 -6.566001e+000 225 219 207
5.666554e-001 -8.513526e-002 -6.516704e+000 222 217 211
-6.601976e-002 8.026949e-001 -7.357694e+000 217 210 200
-6.543233e-002 7.155253e-001 -7.222179e+000 164 153 141
-6.660022e-002 4.642584e-001 -7.239629e+000 168 156 147
-1.813094e-001 3.627560e-003 -7.523249e+000 155 125 114
-1.381269e-001 3.559098e-001 -7.259894e+000 163 151 141
-2.670779e-001 1.376233e-001 -6.750190e+000 121 63 51
-2.412337e-001 1.001711e-001 -6.775286e+000 83 42 40
-2.508414e-001 5.230668e-002 -6.718161e+000 67 27 25
6.806558e-002 2.973277e-001 -6.789019e+000 161 149 136
-7.185465e-002 7.334403e-002 -6.729910e+000 133 120 110
-3.181401e-002 8.651005e-002 -6.723853e+000 137 124 114
-9.200951e-001 -2.101446e-001 -6.289283e+000 146 128 79
-9.200951e-001 -2.101446e-001 -6.289283e+000 146 128 79
-2.328746e-001 -1.321009e-001 -6.561633e+000 114 54 44
-1.185194e-001 -2.606178e-001 -6.685461e+000 87 68 37
7.306898e-002 3.338270e-003 -6.713009e+000 140 123 116
-6.808761e-001 -3.117739e-001 -6.333306e+000 213 115 70
4.588317e-001 1.346627e-001 -6.646513e+000 166 150 136
-2.334128e-001 -3.899086e-001 -6.555403e+000 252 250 246
-2.617085e-001 -3.880589e-001 -6.526205e+000 229 220 215
4.339871e-001 -2.125796e-001 -6.725441e+000 254 255 247
4.781688e-001 -7.169265e-002 -6.596842e+000 235 231 222
5.999177e-001 1.040706e-001 -6.534146e+000 185 176 161
5.643615e-001 -4.567211e-001 -6.780850e+000 155 139 123
4.632107e-001 -5.361012e-001 -6.733713e+000 229 225 211
4.352204e-001 -4.873737e-001 -6.687923e+000 229 225 211
6.084925e-001 -4.423559e-001 -6.667601e+000 179 172 146
5.520885e-001 -2.317873e-001 -6.604294e+000 177 171 159
1.070302e+000 4.453193e-001 -6.208615e+000 214 70 78
1.113073e+000 4.251445e-001 -6.189696e+000 75 69 66
1.083302e+000 3.962914e-001 -6.156910e+000 239 89 101
8.734389e-001 -1.496060e-001 -5.956571e+000 205 186 130
1.200266e+000 8.782834e-002 -6.062981e+000 226 85 101
1.213239e+000 1.600024e-001 -6.022330e+000 80 71 72
1.213239e+000 1.600024e-001 -6.022330e+000 80 71 72
1.096761e+000 -3.922760e-001 -6.133798e+000 169 147 98
2.213605e-002 1.123805e+000 -7.181623e+000 210 201 197
-1.588268e-001 6.214209e-001 -7.447374e+000 168 157 144
3.559657e-001 1.232228e+000 -6.906423e+000 222 62 70
3.559657e-001 1.232228e+000 -6.906423e+000 222 62 70
-8.790647e-001 -2.443145e-001 -6.419961e+000 33 9 12
-1.754111e-001 6.880854e-002 -6.699527e+000 131 119 108
3.188308e-001 3.312837e-001 -6.770772e+000 149 135 124
3.188308e-001 3.312837e-001 -6.770772e+000 149 135 124
-8.847054e-001 -1.571750e-001 -6.225542e+000 117 93 57
-8.570904e-001 -1.942856e-001 -6.278693e+000 55 27 11
6.413196e-001 6.359240e-001 -6.635937e+000 209 204 190
-7.679687e-001 -1.718724e-001 -6.256726e+000 187 159 114
-2.557714e-001 -1.692665e-001 -6.514763e+000 238 123 103
-2.557714e-001 -1.692665e-001 -6.514763e+000 238 123 103
-9.263670e-002 -2.663162e-001 -6.681686e+000 243 236 228
-8.381276e-002 -1.807767e-001 -6.636561e+000 226 221 216
-3.241595e-002 -4.074086e-001 -6.742285e+000 248 241 231
-4.279814e-002 -2.752018e-001 -6.665884e+000 71 53 29
8.258587e-001 7.352595e-001 -6.256773e+000 195 43 55
9.779822e-001 5.339606e-001 -6.442218e+000 181 35 45
9.772789e-001 5.378905e-001 -6.223901e+000 17 7 18
6.380687e-001 -6.692723e-001 -6.607987e+000 177 159 139
7.227071e-001 -3.185307e-001 -6.486685e+000 158 147 129
1.023948e+000 2.362586e-001 -6.240851e+000 232 68 73
1.069898e+000 -5.220721e-001 -6.135521e+000 180 33 44
1.376071e+000 6.157195e-001 -5.813836e+000 71 62 63
-8.150154e-002 1.211818e+000 -7.343884e+000 208 70 75
-1.736736e-001 3.857846e-001 -7.387008e+000 198 190 178
-1.256204e-001 4.720133e-001 -7.270265e+000 177 165 153
-1.827460e-001 -1.052355e-001 -7.322817e+000 194 188 174
-1.520019e-001 -2.361182e-002 -6.649162e+000 145 111 102
2.846870e-001 -1.572122e-001 -6.672360e+000 224 218 206
4.712279e-001 -3.154303e-001 -6.692033e+000 98 81 61
5.996324e-001 -2.823582e-001 -6.597720e+000 253 248 240
5.996324e-001 -2.823582e-001 -6.597720e+000 253 248 240
6.710824e-001 -4.521786e-001 -6.649464e+000 202 196 174
1.143200e+000 3.293441e-002 -6.059518e+000 181 47 54
1.218533e+000 4.747269e-002 -6.070902e+000 224 90 94
-1.700938e-001 2.923682e-001 -7.493438e+000 154 140 129
-1.361762e-001 4.223801e-001 -7.418513e+000 218 211 197
-6.781726e-002 7.086986e-001 -7.187365e+000 133 119 110
3.826499e-001 1.276458e+000 -6.835904e+000 226 64 74
-1.838257e-001 -1.368680e-001 -7.506103e+000 176 166 154
-5.459172e-001 -2.315990e-001 -6.489904e+000 138 43 34
-8.129834e-001 -1.677749e-001 -6.224775e+000 154 114 87
-8.129834e-001 -1.677749e-001 -6.224775e+000 154 114 87
-5.134834e-001 -3.096049e-001 -6.460528e+000 45 35 34
-2.929305e-002 -2.673573e-001 -6.693859e+000 250 250 243
9.439133e-001 5.330800e-001 -6.209086e+000 243 81 94
1.089541e+000 2.061492e-001 -6.176535e+000 203 52 57
1.061224e+000 -3.930685e-001 -6.198032e+000 204 181 131
2.811213e-002 1.297613e+000 -7.170975e+000 190 42 46
-1.139592e-001 3.439101e-001 -7.432566e+000 145 133 121
-1.139592e-001 3.439101e-001 -7.432566e+000 145 133 121
-1.384323e-001 3.274441e-001 -7.255900e+000 127 115 103
3.994645e-001 5.755368e-001 -7.169802e+000 205 197 186
-3.008049e-001 -9.558896e-003 -6.653440e+000 53 11 13
-1.580857e-001 -1.354832e-001 -6.612573e+000 209 194 183
-1.580857e-001 -1.354832e-001 -6.612573e+000 209 194 183
-2.039207e-001 -1.943029e-001 -6.542030e+000 102 25 19
5.471636e-001 -4.061890e-001 -6.604116e+000 132 110 69
6.599961e-001 -6.484405e-001 -6.573769e+000 229 217 203
8.400812e-001 -7.519782e-001 -6.476029e+000 255 254 249
1.082272e+000 -2.028538e-001 -6.133220e+000 196 171 115
-5.027779e-001 5.190073e-001 -7.848472e+000 43 31 31
2.189432e-002 1.304119e+000 -7.154551e+000 192 43 49
-1.208361e-001 1.005237e+000 -7.241776e+000 139 121 111
-1.162626e-001 9.932970e-001 -7.257203e+000 139 121 111
-1.570583e-001 5.346615e-001 -7.429121e+000 213 205 194
-8.904833e-002 6.101445e-001 -7.227504e+000 139 125 114
-9.711143e-002 1.161735e-001 -6.766369e+000 126 109 99
6.884150e-001 9.838720e-001 -6.503244e+000 215 63 71
-3.539477e-001 -1.337975e-001 -6.439213e+000 134 30 21
-5.236580e-003 -2.190550e-001 -6.598034e+000 62 39 29
1.067895e+000 2.473664e-001 -5.997089e+000 221 67 75
1.155438e+000 1.622163e-001 -6.077570e+000 221 67 75
-2.135634e-001 1.892233e-001 -7.328103e+000 76 4 11
-1.639492e-001 2.725161e-001 -7.231087e+000 181 169 157
-1.216156e-001 2.042494e-001 -7.072084e+000 120 106 97
-8.129888e-001 -1.253630e-001 -6.248984e+000 34 11 6
-8.129888e-001 -1.253630e-001 -6.248984e+000 34 11 6
8.620738e-001 1.114586e-001 -6.430380e+000 224 217 209
6.212962e-001 -7.072539e-001 -6.538783e+000 116 106 111
6.243288e-001 -7.149353e-001 -6.543587e+000 116 106 111
7.325629e-001 -4.353442e-001 -6.433044e+000 254 254 203
9.043183e-001 -2.743996e-001 -6.310519e+000 84 67 47
1.160448e+000 -5.052270e-002 -6.093951e+000 249 94 102
-4.408921e-001 5.680249e-001 -7.792396e+000 189 179 167
-1.960023e-002 1.220857e+000 -7.263590e+000 175 38 46
4.703075e-002 -1.610648e-001 -6.630448e+000 231 223 220
5.350069e-001 -5.111449e-001 -6.613605e+000 145 125 91
1.165553e+000 1.615985e-001 -6.131050e+000 228 73 81
9.955796e-001 -5.787882e-001 -6.271654e+000 166 35 40
-1.693868e-001 9.369785e-001 -7.402809e+000 167 153 140
-8.779495e-002 8.761831e-001 -7.265753e+000 218 214 205
-4.707517e-001 -7.996959e-002 -6.538507e+000 125 32 14
4.166150e-001 -5.536695e-001 -6.703992e+000 228 224 210
8.484745e-001 -1.351973e-001 -6.318692e+000 238 233 227
-6.032277e-002 -2.102011e-001 -6.688364e+000 241 238 233
8.943295e-001 5.122344e-001 -6.308389e+000 148 26 33
-2.841912e-001 -6.464749e-001 -6.831248e+000 161 25 25
4.300876e-001 2.346409e-001 -6.822204e+000 122 109 93
1.072939e+000 1.185484e-001 -6.000262e+000 193 56 64
-2.680608e-001 -1.324215e-001 -6.862667e+000 56 14 15
-7.465413e-002 1.071782e+000 -6.360375e+000 209 200 194
-4.670322e+000 -7.793474e+000 -1.546907e+001 129 128 134
-9.117209e+000 -9.765423e+000 -2.227318e+001 110 99 97
5.459176e-002 1.310532e+000 -7.178669e+000 78 8 14
-1.141244e-001 5.600710e-001 -7.384190e+000 155 145 133
-2.148134e-001 1.710215e-002 -7.619670e+000 87 7 6
-2.008908e-001 -1.143888e-002 -7.660187e+000 87 7 6
-2.274100e-001 -2.052523e-001 -7.570185e+000 211 203 192
-1.037011e-001 7.222396e-002 -6.762765e+000 152 136 128
-2.515161e-001 -5.365343e-002 -6.640319e+000 85 19 7
-4.749452e-001 -2.111216e-001 -6.463952e+000 147 20 3
8.438107e-001 8.039309e-001 -6.368642e+000 221 83 87
4.693969e-001 -6.042979e-001 -6.754836e+000 227 223 210
4.632486e-001 -5.942026e-001 -6.745070e+000 227 223 210
9.915543e-001 3.136753e-001 -6.269675e+000 250 87 97
-2.464853e-001 8.279102e-002 -6.756580e+000 92 43 39
-1.211804e+000 -5.311751e+000 -9.883189e+000 14 10 13
9.398548e-001 6.076003e-001 -6.321527e+000 214 65 75
1.236115e+000 3.147504e-001 -6.029992e+000 92 85 85
9.317799e-001 -6.194661e-001 -6.253870e+000 250 105 111
-3.274265e-001 7.841145e-001 -7.620229e+000 205 189 180
-2.058352e-001 1.045695e+000 -7.518835e+000 175 28 34
-1.693641e+000 -3.700715e+000 -1.026778e+001 49 45 46
-1.710261e+000 -4.006896e+000 -1.034470e+001 59 53 57
6.600669e-002 1.044736e-002 -6.741209e+000 137 120 112
1.546722e-001 8.751810e-002 -6.729964e+000 200 190 178
3.545742e-001 1.306408e+000 -6.917563e+000 16 2 8
-1.933642e-001 2.387725e-001 -7.496966e+000 206 194 178
-3.328039e-002 3.316489e-001 -6.779627e+000 118 104 93
-2.446129e-001 -2.017491e-002 -6.666830e+000 73 18 22
1.063112e+000 5.167461e-001 -6.216079e+000 67 57 58
-7.597550e-003 1.135078e+000 -7.190833e+000 187 46 45
-1.395098e+000 -5.200561e+000 -9.903567e+000 89 76 67
7.339873e-001 7.915540e-001 -6.534288e+000 207 53 61
6.087690e-001 -3.608369e-001 -6.632829e+000 134 121 104
-3.159532e-001 2.634151e-001 -7.833020e+000 30 36 25
-1.394413e-001 3.239847e-001 -7.255891e+000 127 115 103
-1.216753e+000 -1.163611e+001 -1.017730e+001 57 59 72
-1.100801e-002 1.124992e+000 -7.236931e+000 200 50 59
6.850539e-001 8.585897e-001 -6.583715e+000 220 61 68
7.510240e-001 -7.754179e-001 -6.549784e+000 252 246 237
8.454291e-001 -8.777406e-001 -6.523811e+000 201 64 68
9.414542e-001 -7.530275e-001 -6.397256e+000 253 247 241
1.219136e+000 -1.159501e-001 -6.054146e+000 16 10 14
-2.184165e-001 -8.891363e-002 -7.563883e+000 213 207 195
7.563892e-001 5.478025e-001 -6.418086e+000 254 254 249
-2.351309e-001 -5.934687e-003 -7.623667e+000 171 110 93
-1.601665e-001 -4.906796e-002 -7.484095e+000 197 185 167
1.199560e-001 6.435723e-001 -7.086206e+000 193 185 174
1.286411e-001 6.499148e-001 -7.064511e+000 197 187 175
1.787848e-001 7.888736e-001 -6.945311e+000 181 174 164
-6.925135e-001 -1.519540e-001 -6.864449e+000 122 35 18
-1.439830e+000 -4.849155e+000 -1.007436e+001 29 23 26
-6.607372e-001 -1.770900e-001 -6.856348e+000 99 21 14
-1.001330e-001 1.690200e-001 -6.985750e+000 114 98 85
-1.944444e-002 8.183760e-002 -6.777682e+000 170 157 143
-4.587147e-001 -1.033764e-001 -6.484822e+000 126 31 9
-7.007731e-002 4.036808e-002 -6.670929e+000 135 118 108
3.162384e-001 2.018061e-001 -6.809804e+000 155 141 128
4.794669e-001 -6.053728e-001 -6.731998e+000 252 249 235
4.794669e-001 -6.053728e-001 -6.731998e+000 252 249 235
1.203856e+000 1.580251e-001 -6.092955e+000 32 16 19
1.069515e+000 -5.891552e-001 -6.188849e+000 163 17 27
-1.907171e+000 -3.457286e+000 -1.049398e+001 47 42 46
-1.816834e+000 -3.688148e+000 -1.040176e+001 51 46 50
-1.710363e+000 -3.971599e+000 -1.030948e+001 63 59 60
2.003830e-001 9.900611e-001 -7.092924e+000 208 201 191
1.131673e-001 6.700244e-001 -7.081765e+000 235 226 217
-2.127099e-001 1.375823e-001 -6.893064e+000 128 111 101
-1.367713e+000 -4.950774e+000 -1.003758e+001 69 61 65
-1.215691e+000 -5.273101e+000 -9.948205e+000 43 33 36
7.114138e-003 8.130080e-002 -6.764041e+000 126 112 99
8.924241e-002 -2.140187e-001 -6.676676e+000 248 244 234
5.373669e-001 1.913730e-001 -6.733619e+000 135 122 105
4.532810e-001 1.070163e-001 -6.613180e+000 191 177 164
4.182847e-001 -8.089454e-003 -6.591649e+000 248 241 231
4.182847e-001 -8.089454e-003 -6.591649e+000 248 241 231
6.650050e-001 -6.706670e-001 -6.621305e+000 231 218 201
1.099996e+000 4.019498e-001 -6.168853e+000 26 10 15
4.569607e-001 -3.773756e+000 -7.573640e+000 179 181 193
1.165803e+000 7.038559e-002 -6.027044e+000 99 87 84
4.558121e-002 1.330369e+000 -7.116192e+000 70 10 20
-1.004620e-001 6.459801e-001 -7.274881e+000 167 157 146
-6.339247e-002 7.141664e-001 -7.224398e+000 169 157 145
-1.667679e+000 -4.078026e+000 -1.024903e+001 55 49 52
-1.670657e+000 -4.038997e+000 -1.037330e+001 31 25 27
-1.616016e-001 2.016230e-001 -7.125309e+000 155 141 128
-5.393801e-001 -2.984465e-002 -6.684472e+000 101 41 29
-1.284707e+000 -5.313911e+000 -1.010293e+001 78 69 74
-1.330380e+000 -5.343263e+000 -9.911948e+000 124 114 116
-5.453198e-001 -8.592670e-002 -6.477631e+000 114 38 26
5.774521e-001 1.576435e-001 -6.634276e+000 146 133 117
7.893875e-001 8.447235e-001 -6.368672e+000 73 4 9
7.709188e-001 7.919910e-001 -6.362961e+000 250 96 104
