ply
format ascii 1.0
element face 0
property list uchar int vertex_indices
element vertex 870
property float x
property float y
property float z
property uchar diffuse_red
property uchar diffuse_green
property uchar diffuse_blue
end_header
5.175634e-001 -1.184239e-001 -6.535677e+000 224 221 214
-7.455996e-001 -2.111080e-001 -6.279554e+000 145 60 38
-1.190967e-001 -2.461969e-001 -6.632739e+000 238 235 230
1.165822e-001 -2.516080e-001 -6.680367e+000 205 191 182
1.165822e-001 -2.516080e-001 -6.680367e+000 205 191 182
9.934621e-001 -2.060737e-001 -6.281384e+000 164 149 141
-9.657554e-002 -2.958619e-001 -6.697921e+000 241 240 237
3.542881e-001 -3.173408e-001 -6.744904e+000 215 208 200
-4.619380e-001 -3.649035e-001 -6.431396e+000 46 42 53
-1.866423e-001 -3.744302e-001 -6.620482e+000 159 143 131
4.625230e-001 -5.279550e-001 -6.739499e+000 254 255 250
5.587250e-001 -5.127614e-001 -6.649898e+000 151 132 94
7.081459e-001 -5.729981e-001 -6.499308e+000 239 233 224
4.819132e-001 -6.971865e-001 -6.796582e+000 254 255 250
1.011343e+000 -8.832380e-001 -6.392401e+000 28 11 12
3.966048e-001 -1.209398e+000 -7.274947e+000 208 191 147
4.018377e-001 1.177320e+000 -6.861848e+000 196 34 40
4.613658e-001 1.132155e+000 -6.790767e+000 206 37 44
8.850822e-001 8.011712e-001 -6.348015e+000 17 1 8
-3.989776e-001 9.915704e-001 -7.671645e+000 193 36 43
7.046259e-001 7.287303e-001 -6.542157e+000 148 124 116
6.929842e-001 6.901992e-001 -6.549094e+000 221 212 203
-1.007660e-001 6.393896e-001 -7.241637e+000 150 141 131
4.811009e-001 3.566727e-001 -6.858879e+000 142 132 119
1.159586e+000 3.112790e-001 -6.109756e+000 232 58 71
4.732657e-001 1.743786e-001 -6.641237e+000 194 184 174
4.820899e-001 6.949213e-002 -6.582050e+000 146 136 127
8.518563e-001 1.097776e-001 -6.460168e+000 188 181 171
-2.037325e-001 3.889815e-002 -6.693451e+000 77 20 13
-1.634880e-001 1.843292e-002 -6.667390e+000 156 144 132
6.225991e-001 5.163825e-002 -6.492696e+000 160 150 141
7.170859e-001 9.006043e-003 -6.430951e+000 209 200 193
-2.795474e-001 -2.961958e-001 -6.543451e+000 169 145 135
4.623796e-001 -3.262801e-001 -6.713002e+000 227 220 210
7.590838e-001 -2.898466e-001 -6.444354e+000 177 166 154
-1.224435e-002 -5.044659e-001 -6.859799e+000 50 39 37
-4.338134e-001 -5.287729e-001 -6.636221e+000 40 34 25
5.081307e-001 -5.736349e-001 -6.713651e+000 254 253 249
1.032323e+000 -8.450641e-001 -6.388730e+000 250 255 249
2.964962e-001 9.877523e-001 -7.013844e+000 221 215 212
8.894223e-001 7.497750e-001 -6.336993e+000 227 55 67
5.066434e-001 8.184290e-001 -6.805548e+000 228 223 217
7.569828e-001 7.018304e-001 -6.422981e+000 219 53 65
-1.968792e-001 8.220958e-001 -7.481627e+000 156 143 134
1.555239e-001 7.317442e-001 -7.078897e+000 221 214 208
5.015576e-001 7.059876e-001 -6.794983e+000 240 233 227
6.937883e-002 6.970062e-001 -7.103003e+000 207 198 193
8.811316e-001 5.161498e-001 -6.376635e+000 215 204 198
7.443220e-002 5.762307e-001 -7.082297e+000 204 193 187
9.181558e-001 4.733249e-001 -6.305847e+000 213 45 54
-4.535256e-001 4.673047e-001 -7.713588e+000 212 202 193
2.461718e-001 3.774023e-001 -6.896864e+000 180 169 163
1.180388e-001 2.328999e-001 -6.820528e+000 138 125 116
9.823155e-001 2.288678e-001 -6.284246e+000 158 143 136
3.561140e-001 2.023171e-001 -6.710429e+000 198 190 179
1.215326e+000 1.452382e-001 -6.066242e+000 207 45 51
5.037965e-002 1.340339e-001 -6.809686e+000 129 119 109
1.130722e-001 1.408204e-001 -6.770080e+000 214 207 201
1.252927e+000 -2.831612e-003 -6.043396e+000 16 7 3
7.463833e-001 -2.705640e-002 -6.413476e+000 161 149 137
1.879904e-001 -1.440061e-001 -6.672802e+000 195 188 180
-8.536161e-001 -2.515971e-001 -6.269563e+000 122 56 50
1.210266e+000 -1.781871e-001 -6.103428e+000 122 23 36
-4.317717e-001 -2.664267e-001 -6.448388e+000 142 25 26
6.713850e-001 -3.133635e-001 -6.557278e+000 163 151 137
-5.053433e-001 -3.491648e-001 -6.468166e+000 239 188 141
6.221976e-001 -4.321742e-001 -6.550203e+000 161 138 94
5.068896e-001 -5.768406e-001 -6.713991e+000 255 254 250
1.038371e+000 -4.886342e-001 -6.216883e+000 230 217 208
5.140452e-001 -7.498294e-001 -6.814262e+000 225 222 215
8.254515e-001 -9.765429e-001 -6.646896e+000 44 28 34
-9.936485e+000 -7.527656e+000 -3.113489e+001 18 11 9
4.987753e-001 1.040354e+000 -6.755577e+000 223 217 213
-2.021709e-002 1.101400e+000 -7.255841e+000 195 185 176
1.397496e-001 1.007751e+000 -7.135096e+000 206 199 193
7.278181e-001 7.991817e-001 -6.550862e+000 203 197 189
2.309130e-001 3.013093e-001 -6.873171e+000 126 113 104
1.081822e+000 2.288590e-001 -6.197174e+000 192 37 42
3.687323e-001 5.045610e-002 -6.629891e+000 160 152 141
1.953230e-001 -4.295928e-002 -6.654417e+000 255 254 250
2.798705e-001 -4.875023e-002 -6.658683e+000 209 198 192
8.102814e-001 -1.056412e-001 -6.351089e+000 145 131 120
1.215942e+000 -1.076268e-001 -6.057325e+000 241 66 78
-7.762871e-001 -2.312553e-001 -6.252819e+000 119 50 49
-7.350471e-001 -1.843605e-001 -6.295630e+000 149 68 39
-1.397760e-001 -3.213659e-001 -6.718101e+000 50 37 18
-1.401108e-001 -3.239424e-001 -6.735897e+000 50 37 18
-4.105128e-001 -3.604614e-001 -6.454716e+000 170 71 60
2.744637e-001 -4.267157e-001 -6.771220e+000 254 245 190
4.862559e-001 -3.686201e-001 -6.700447e+000 112 94 80
7.454239e-001 -5.331695e-001 -6.466892e+000 144 126 78
8.574731e-001 -4.898446e-001 -6.362043e+000 199 174 118
6.439839e-001 -6.635774e-001 -6.643059e+000 145 127 104
1.164541e+000 -8.337302e-001 -6.275837e+000 254 86 97
1.170247e+000 -8.392387e-001 -6.297684e+000 254 86 97
3.197849e-001 8.838794e-001 -6.936021e+000 163 154 145
2.007228e-001 8.486741e-001 -7.054308e+000 219 211 208
9.126817e-001 5.456492e-001 -6.274583e+000 162 31 39
1.002219e+000 5.116101e-001 -6.173612e+000 234 64 75
2.270054e-001 5.688310e-001 -6.974242e+000 214 205 198
1.036971e+000 2.087477e-001 -6.238656e+000 219 210 205
-1.952585e-001 -5.750882e-002 -6.609553e+000 85 24 16
2.606793e-001 -1.486785e-001 -6.658686e+000 254 255 250
1.211726e+000 -7.746628e-002 -6.083477e+000 243 67 77
1.140808e+000 -1.882043e-001 -6.148666e+000 135 32 35
-9.218477e-001 -3.039600e-001 -6.250554e+000 38 28 32
3.395242e-001 -2.787171e-001 -6.725228e+000 231 228 221
8.363620e-001 -3.225963e-001 -6.357910e+000 122 104 81
7.798160e-001 -4.083749e-001 -6.374918e+000 210 186 131
5.735383e-001 -5.611014e-001 -6.671133e+000 110 87 62
1.234533e+000 -4.574809e-001 -6.112893e+000 24 9 8
1.156290e+000 -7.210903e-001 -6.184675e+000 21 9 12
9.735860e-001 -9.876997e-001 -6.437878e+000 230 64 74
9.750883e-001 -9.902759e-001 -6.444242e+000 230 64 74
7.786406e-002 9.095340e-001 -7.110083e+000 170 157 151
7.941731e-002 9.072566e-001 -7.118379e+000 170 157 151
7.402971e-002 7.601819e-001 -7.085723e+000 208 199 194
3.687616e-001 7.548570e-001 -6.849527e+000 228 221 214
1.184772e+000 1.894687e-001 -6.087159e+000 216 46 55
1.124884e+000 9.150663e-002 -6.105544e+000 131 15 23
-8.098587e-001 -3.194521e-001 -6.309808e+000 246 124 75
1.184541e-001 -5.034497e-001 -6.795780e+000 255 255 253
9.721285e-001 -4.311540e-001 -6.256749e+000 154 132 86
6.988756e-001 -8.562167e-001 -6.708530e+000 22 12 13
9.853758e-001 -8.206014e-001 -6.403097e+000 255 255 253
1.270845e+000 -1.193627e-001 -6.005270e+000 42 30 32
-3.425354e-001 -4.709247e-001 -6.575377e+000 233 232 230
1.036963e+000 -6.418990e-001 -6.288541e+000 182 38 45
4.282027e-001 -1.120514e+000 -7.201699e+000 144 123 80
5.850622e-002 -2.002804e-002 -6.696240e+000 132 119 110
-6.897498e-002 -1.793156e-001 -6.652257e+000 248 244 242
7.789186e-001 5.407391e-001 -6.430562e+000 255 255 253
1.046668e+000 -6.522985e-003 -6.306456e+000 230 225 221
4.011580e-001 -6.648097e-001 -6.846093e+000 254 254 252
1.306599e+000 -3.000364e-001 -6.011918e+000 198 173 117
1.308247e+000 -2.997679e-001 -6.013852e+000 198 173 117
8.985167e-001 -7.196018e-001 -6.485141e+000 238 231 225
1.332754e+000 7.385606e-002 -6.097638e+000 46 34 34
2.900893e-002 1.153566e+000 -7.233326e+000 199 198 186
7.983439e-001 8.146645e-001 -6.301088e+000 219 51 60
8.154830e-001 7.598830e-001 -6.173353e+000 231 69 82
-2.185137e-001 9.035920e-001 -7.545126e+000 173 157 153
1.091202e-001 6.715980e-001 -7.077746e+000 178 165 159
1.263486e+000 1.142000e-001 -6.051975e+000 30 7 14
-6.285984e-004 8.151061e-002 -6.746891e+000 122 107 100
1.283654e+000 4.678272e-002 -6.037627e+000 22 12 11
-1.231783e-001 -1.136570e-002 -6.627877e+000 172 156 148
-1.699404e-001 -6.514979e-002 -6.613056e+000 162 69 54
-4.504873e-001 -1.775259e-001 -6.440851e+000 228 113 68
-2.729927e-001 -1.169019e-001 -6.449109e+000 75 18 11
-8.093308e-001 -1.980876e-001 -6.141949e+000 54 23 1
-1.487119e-001 -2.510436e-001 -6.698753e+000 124 102 57
-6.787238e-001 -2.730799e-001 -6.173637e+000 162 49 30
-4.494893e-001 -3.793436e-001 -6.408583e+000 47 35 45
-2.292110e-001 -3.953356e-001 -6.559285e+000 214 209 203
-2.286397e-001 -3.941315e-001 -6.556574e+000 214 209 203
-4.720773e-001 -4.941041e-001 -6.555806e+000 227 116 60
-1.143918e-001 -4.382946e-001 -6.634013e+000 45 34 30
1.870699e-001 1.045174e+000 -7.101742e+000 188 185 178
9.203161e-001 5.813618e-001 -6.348189e+000 168 32 38
-2.764999e-002 3.068831e-001 -7.059523e+000 157 147 137
5.464512e-002 2.533010e-001 -6.854342e+000 156 146 136
1.624883e-001 3.076354e-001 -6.756090e+000 148 134 122
-2.832029e-001 1.404197e-001 -6.641843e+000 114 55 46
-2.832029e-001 1.404197e-001 -6.641843e+000 114 55 46
-1.358967e-001 -2.310207e-001 -6.608008e+000 229 216 214
-7.020882e-001 -3.254687e-001 -6.217986e+000 217 106 79
-6.213281e-001 -3.046645e-001 -6.260847e+000 91 38 22
-1.926036e-001 -3.054042e-001 -6.597651e+000 46 30 11
-1.976045e-001 -3.451289e-001 -6.619585e+000 144 126 115
1.010431e+000 -2.729336e-001 -6.203447e+000 155 133 91
-2.726603e-001 -3.938666e-001 -6.511207e+000 163 155 150
-1.561068e-001 -3.977630e-001 -6.591076e+000 192 189 184
-1.561068e-001 -3.977630e-001 -6.591076e+000 192 189 184
3.781869e-001 1.172572e+000 -6.878810e+000 200 41 45
2.305605e-001 1.010436e+000 -7.060849e+000 225 218 212
1.091915e+000 4.756543e-001 -6.172037e+000 193 34 51
-8.185741e-002 5.099871e-001 -7.019078e+000 193 184 177
-3.117862e-001 1.317545e-001 -6.805077e+000 42 30 30
-1.449430e-001 -2.040827e-002 -6.619730e+000 102 37 22
-2.178230e-001 -1.889882e-001 -6.379652e+000 176 90 69
-6.738777e-001 -3.164483e-001 -6.299904e+000 167 47 36
-2.359313e-001 -3.101904e-001 -6.631009e+000 113 94 79
-7.273422e-001 -3.790643e-001 -6.325587e+000 210 94 65
-5.153397e-002 -4.627224e-001 -6.736631e+000 52 41 37
1.216148e+000 -5.056197e-001 -6.171636e+000 248 66 76
4.406815e-001 1.330075e+000 -6.833720e+000 28 16 22
-4.605729e-001 4.642282e-001 -7.733719e+000 219 206 198
1.056761e+000 2.083639e-001 -6.219541e+000 209 192 183
1.069080e+000 1.657275e-001 -6.200770e+000 192 178 168
-2.457043e-001 1.462869e-001 -6.918420e+000 37 25 20
-2.605267e-001 9.771376e-002 -6.790942e+000 47 28 22
6.959292e-001 -5.125821e-002 -6.415980e+000 222 215 209
-1.626182e-001 -2.219895e-001 -6.605319e+000 80 58 21
-6.046251e-001 -3.844107e-001 -6.500444e+000 48 29 27
-3.104283e-001 -3.877587e-001 -6.470653e+000 180 170 168
-1.573965e-001 4.924001e-001 -7.228954e+000 209 202 192
-7.115151e-003 3.518185e-001 -6.955111e+000 166 156 146
-7.115151e-003 3.518185e-001 -6.955111e+000 166 156 146
5.751358e-001 -7.487622e-002 -6.527340e+000 195 190 184
-8.978080e-001 -1.921664e-001 -6.076355e+000 190 163 108
9.447987e-001 -1.766083e-001 -6.317135e+000 195 188 182
4.863217e-001 -4.453850e-001 -6.692472e+000 183 163 112
1.015960e+000 -4.716110e-001 -6.281908e+000 178 154 106
2.950627e-001 -7.770670e-001 -7.221121e+000 72 62 35
6.720184e-001 1.084407e+000 -6.565006e+000 202 42 51
-9.227238e-002 6.343689e-001 -7.178664e+000 150 141 131
1.623447e-001 3.957653e-001 -6.731956e+000 181 168 159
-8.068216e-001 -1.358346e-001 -6.197599e+000 146 69 42
-2.903385e-001 -2.449444e-001 -6.403227e+000 121 73 56
-2.903385e-001 -2.449444e-001 -6.403227e+000 121 73 56
1.651136e-001 -4.233692e-001 -6.721682e+000 47 30 18
5.816867e-001 -4.424519e-001 -6.771590e+000 102 84 47
5.372253e-001 -5.445624e-001 -6.848484e+000 85 66 41
9.986454e-001 -6.010886e-001 -6.371108e+000 180 158 145
1.005227e+000 -1.060533e+000 -6.480579e+000 224 60 67
1.005227e+000 -1.060533e+000 -6.480579e+000 224 60 67
9.695658e-001 2.263025e-001 -6.242805e+000 158 143 136
6.582908e-001 -2.777877e-002 -6.419053e+000 191 184 175
-6.752653e-001 -3.597600e-001 -6.322882e+000 255 211 172
7.599784e-001 9.388545e-001 -6.416734e+000 194 34 44
1.006425e+000 5.758142e-001 -6.142892e+000 19 0 9
-2.030797e-001 7.333539e-001 -7.506305e+000 223 216 209
2.771169e-001 6.387915e-001 -6.903340e+000 149 139 129
4.859470e-001 5.352261e-001 -6.699360e+000 222 213 208
-3.809347e-001 -7.278624e-002 -6.359693e+000 87 23 15
1.205449e+000 -3.852202e-002 -6.048567e+000 248 77 87
7.376278e-001 -1.048731e-001 -6.402782e+000 241 241 233
9.315347e-001 -2.902053e-001 -6.295896e+000 111 91 67
1.037798e+000 -3.158346e-001 -6.281218e+000 165 141 95
9.217529e-001 -3.684550e-001 -6.325072e+000 188 166 113
6.414943e-001 -5.773820e-001 -6.586784e+000 205 195 184
6.354097e-001 6.900104e-001 -6.516049e+000 209 202 194
-2.138339e-001 -2.030649e-001 -6.729048e+000 93 66 37
5.182111e-001 -2.808779e-001 -6.697506e+000 247 245 241
2.471452e-001 -4.939665e-001 -6.761555e+000 61 39 25
1.116684e+000 -7.085211e-001 -6.295404e+000 255 78 92
3.692641e-001 7.548197e-001 -6.852250e+000 228 221 214
4.358955e-001 -1.142355e+000 -7.295690e+000 144 123 80
-5.776762e-001 -5.034648e-001 -6.686118e+000 45 33 33
1.231695e+000 -5.915160e-001 -6.157842e+000 24 8 11
-7.711278e-002 1.243504e+000 -7.345603e+000 148 23 29
-5.252128e-002 8.313741e-001 -7.227654e+000 212 206 197
8.396978e-001 8.596330e-001 -6.360791e+000 98 12 21
1.253067e-001 6.584640e-001 -7.106814e+000 155 145 135
9.255881e-001 7.361803e-001 -6.314016e+000 188 53 56
-1.043084e-001 4.935929e-001 -7.241079e+000 151 141 131
3.851567e-001 2.692472e-001 -6.786741e+000 143 129 118
-1.065999e-001 6.641723e-002 -6.677407e+000 135 120 113
-1.279966e-002 8.969930e-002 -6.765628e+000 122 110 103
3.540416e-003 5.569487e-002 -6.732363e+000 153 143 133
2.141565e-001 6.489224e-002 -6.518831e+000 156 146 137
-6.159811e-001 -1.829827e-001 -6.490180e+000 156 71 47
-6.159811e-001 -1.829827e-001 -6.490180e+000 156 71 47
-5.189101e-001 -1.396047e-001 -6.473287e+000 176 90 62
-5.264443e-001 -1.446103e-001 -6.519272e+000 176 90 62
-2.680146e-001 -1.586933e-001 -6.504278e+000 145 58 35
-3.007879e-001 -1.835228e-001 -6.440698e+000 196 88 56
5.344057e-001 -1.878156e-002 -6.495433e+000 197 189 181
-5.935678e-001 -2.772972e-001 -6.546606e+000 187 84 56
-5.457783e-001 -2.665124e-001 -6.547714e+000 191 72 37
9.224275e-002 -2.527420e-001 -6.707216e+000 242 236 231
-5.525687e-002 -3.243974e-001 -6.765949e+000 44 33 15
-4.361315e-001 -3.837846e-001 -6.431061e+000 201 179 160
1.883455e-001 -3.753229e-001 -6.755152e+000 141 120 74
5.037510e-001 -6.410292e-001 -6.748053e+000 241 238 228
7.170698e-001 -8.251127e-001 -6.725801e+000 229 79 86
1.116149e+000 -6.542271e-001 -6.143964e+000 180 21 31
1.108804e+000 -6.767371e-001 -6.125765e+000 23 4 1
-3.488338e-001 8.033750e-001 -7.676747e+000 195 186 185
8.842642e-001 8.267668e-001 -6.350817e+000 18 6 10
1.045669e-001 6.992753e-001 -7.095289e+000 212 206 200
1.032404e-001 6.981305e-001 -7.073867e+000 212 206 200
8.011426e-001 6.056973e-001 -6.410494e+000 234 229 226
8.032780e-001 6.053645e-001 -6.421266e+000 234 229 226
1.742609e-001 3.055765e-001 -6.778339e+000 136 120 107
1.642063e-002 2.538998e-001 -6.939502e+000 152 139 130
2.315508e-003 1.201497e-001 -6.780756e+000 128 114 105
3.678865e-001 2.323077e-001 -6.748791e+000 140 127 111
-1.313842e-001 8.572704e-002 -6.702066e+000 123 110 102
-1.313842e-001 8.572704e-002 -6.702066e+000 123 110 102
-6.144518e-002 2.918082e-002 -6.671881e+000 147 134 126
6.580282e-002 -1.151973e-002 -6.676866e+000 125 112 104
7.606003e-002 8.282076e-003 -6.677464e+000 169 160 151
-2.844031e-001 -1.188522e-001 -6.524067e+000 65 4 1
-2.844607e-001 -1.188608e-001 -6.523781e+000 65 4 1
-1.683208e-001 -6.492088e-002 -6.613528e+000 172 87 71
-1.682829e-001 -1.167863e-001 -6.585565e+000 207 180 171
-7.244540e-001 -2.981276e-001 -6.293360e+000 230 112 81
-7.244540e-001 -2.981276e-001 -6.293360e+000 230 112 81
-5.523021e-001 -3.427102e-001 -6.560790e+000 66 24 20
-4.495724e-001 -3.728524e-001 -6.410061e+000 57 54 68
-2.211250e-001 -3.677953e-001 -6.595023e+000 179 166 158
4.563588e-001 -2.260369e-001 -6.693929e+000 230 227 220
-2.827625e-002 -4.528288e-001 -6.771896e+000 254 252 247
-1.081742e-002 -4.936951e-001 -6.869538e+000 46 35 29
8.069119e-001 -5.158342e-001 -6.353275e+000 211 186 130
1.336759e+000 -3.851999e-001 -6.027948e+000 198 175 121
2.791155e-001 -9.390947e-001 -6.979914e+000 41 31 23
4.731428e-001 -1.078581e+000 -7.108314e+000 150 128 79
1.130987e+000 -6.239816e-001 -6.165385e+000 211 46 55
5.984258e-001 1.207852e+000 -6.747320e+000 182 43 46
-3.318239e-001 7.805582e-001 -7.632985e+000 156 140 131
7.734347e-001 8.732167e-001 -6.374724e+000 113 9 17
-5.248990e-001 5.420233e-001 -7.908395e+000 34 24 16
-1.846570e-001 6.620882e-001 -7.525601e+000 205 198 188
-2.387803e-001 5.479678e-001 -7.569330e+000 217 210 200
-1.691679e-001 4.431297e-001 -7.313253e+000 144 131 120
-4.151997e-002 4.337994e-001 -7.180512e+000 172 162 152
7.649484e-001 5.538562e-001 -6.453790e+000 229 226 221
7.654670e-001 5.536083e-001 -6.457048e+000 229 226 221
1.684199e-001 2.491921e-001 -6.803830e+000 175 165 156
-1.622433e-001 1.473694e-001 -6.811123e+000 138 124 115
-9.655924e-003 4.376873e-002 -6.727808e+000 115 102 93
4.926013e-002 2.259665e-002 -6.709554e+000 123 113 104
-1.518493e-001 -9.725369e-002 -6.666436e+000 184 161 155
2.306944e-001 -2.716257e-002 -6.646731e+000 206 197 188
-8.002936e-001 -1.871670e-001 -6.265397e+000 77 22 2
-7.753994e-001 -2.094976e-001 -6.219199e+000 54 5 8
-2.755427e-001 -1.843113e-001 -6.481001e+000 219 97 66
-1.703835e-001 -2.224546e-001 -6.680917e+000 93 69 26
-6.370289e-001 -3.020161e-001 -6.391448e+000 225 183 143
-1.283489e-001 -2.818592e-001 -6.684540e+000 97 79 41
-1.954493e-001 -3.295803e-001 -6.641897e+000 203 193 181
-1.702889e-001 -4.583215e-001 -6.709171e+000 45 36 31
-3.280883e-001 -5.325226e-001 -6.659685e+000 234 233 229
1.205337e+000 -3.219359e-001 -6.072820e+000 152 124 77
6.082892e-001 -6.620461e-001 -6.607156e+000 160 147 126
6.923943e-001 -7.750857e-001 -6.666653e+000 174 33 33
1.096934e+000 -6.260854e-001 -6.148925e+000 214 52 58
-3.872523e-002 1.152836e+000 -7.266272e+000 173 35 41
-2.191476e-001 1.059753e+000 -7.546437e+000 195 44 52
-2.191476e-001 1.059753e+000 -7.546437e+000 195 44 52
-3.241021e-001 8.793339e-001 -7.590282e+000 210 44 53
-1.664485e-001 8.972123e-001 -7.507266e+000 203 195 185
-1.660753e-001 8.973751e-001 -7.507898e+000 203 195 185
-3.580722e-001 8.324976e-001 -7.687914e+000 183 34 41
-3.651228e-001 7.141235e-001 -7.679715e+000 178 166 154
2.718539e-001 7.564629e-001 -7.049285e+000 213 204 198
8.628768e-002 6.514652e-001 -7.089664e+000 195 185 177
3.105385e-001 7.248940e-001 -7.008156e+000 208 201 195
-1.005422e-001 5.256625e-001 -7.242021e+000 193 184 175
9.256389e-001 6.060836e-001 -6.335298e+000 203 45 53
9.459475e-001 6.496170e-001 -6.315692e+000 171 26 33
-2.790443e-001 2.051193e-001 -7.728228e+000 203 52 59
-4.209384e-002 2.399003e-001 -6.977884e+000 124 111 102
7.311596e-003 1.881415e-001 -6.901914e+000 122 114 103
-2.334516e-001 6.826099e-002 -6.737524e+000 130 108 100
7.704355e-001 1.318850e-001 -6.539210e+000 188 179 170
-9.430551e-001 -1.919931e-001 -6.198231e+000 158 135 82
1.168320e+000 1.630064e-001 -6.205174e+000 222 55 65
5.695455e-001 -7.202534e-002 -6.490819e+000 202 197 191
-8.404485e-001 -2.591411e-001 -6.244804e+000 98 31 28
-4.133908e-001 -3.029694e-001 -6.442605e+000 143 9 18
5.955909e-001 -3.091129e-001 -6.650244e+000 165 151 141
5.639228e-001 -4.159048e-001 -6.622373e+000 91 74 38
7.043752e-001 -3.331086e-001 -6.508622e+000 165 152 135
6.676578e-001 -3.664236e-001 -6.506261e+000 148 138 123
1.038107e+000 -2.469528e-001 -6.200750e+000 83 65 39
1.028862e+000 -2.420211e-001 -6.173939e+000 83 65 39
1.216806e+000 -1.965262e-001 -6.073202e+000 140 118 71
1.024312e+000 -5.256478e-001 -6.262022e+000 197 167 159
1.416168e+000 -3.760492e-001 -5.921785e+000 27 14 14
7.248538e-001 -8.242532e-001 -6.541857e+000 39 28 23
8.855823e-001 -8.452476e-001 -6.460755e+000 224 57 65
-3.814394e+000 9.661074e-001 -1.199767e+001 11 7 8
2.903198e-001 9.140562e-001 -7.017363e+000 192 179 173
7.794720e-001 9.541068e-001 -6.460399e+000 183 29 39
-2.815478e-002 5.956527e-001 -7.123541e+000 183 173 163
5.300523e-001 4.416448e-001 -6.758141e+000 183 175 163
-2.499254e-001 2.767386e-001 -7.625308e+000 168 33 38
2.692229e-001 8.969624e-002 -6.684846e+000 159 144 137
-3.581137e-001 -2.796578e-002 -6.610758e+000 123 51 35
4.665023e-001 1.077750e-001 -6.610394e+000 179 171 160
-9.398097e-001 -2.626073e-001 -6.274499e+000 32 23 24
-5.333245e-001 -1.862307e-001 -6.481012e+000 234 122 84
-5.143923e-001 -2.181144e-001 -6.466915e+000 166 35 18
-8.091778e-003 -1.196700e-001 -6.595130e+000 241 236 233
1.217095e+000 9.200396e-002 -6.036825e+000 119 10 23
-4.587882e-001 -4.223400e-001 -6.513019e+000 161 144 133
-2.148416e-001 -4.499495e-001 -6.640159e+000 211 204 198
9.695379e-001 -2.527497e-001 -6.289136e+000 147 129 119
9.562826e-001 -3.006583e-001 -6.209343e+000 174 151 101
7.218931e-001 -5.951879e-001 -6.447465e+000 194 185 174
1.003419e+000 -4.672953e-001 -6.230451e+000 175 151 105
1.402984e+000 -3.985326e-001 -5.931810e+000 206 183 115
1.402984e+000 -3.985326e-001 -5.931810e+000 206 183 115
9.039888e-001 -7.219241e-001 -6.429002e+000 208 200 189
4.198528e-001 -1.137190e+000 -7.220251e+000 134 114 69
5.452347e-001 -1.099442e+000 -7.097649e+000 13 5 8
1.109521e+000 -6.044756e-001 -6.162555e+000 150 2 16
-2.098131e+000 -2.992593e+000 -1.059756e+001 37 31 33
-2.079972e+000 -3.126575e+000 -1.059621e+001 37 31 33
-1.580775e+000 -2.312103e+000 -8.634922e+000 39 33 35
-5.429897e-001 7.296729e-001 -7.896475e+000 191 41 42
-6.730676e-002 6.873527e-001 -7.187452e+000 206 197 188
-4.567954e-001 4.679826e-001 -7.780813e+000 208 194 184
-1.750472e-001 4.951347e-001 -7.320018e+000 202 194 183
5.182758e-001 3.228549e-001 -6.817065e+000 141 133 122
1.691067e-001 1.262561e-001 -6.731521e+000 155 145 136
-8.856991e-001 -1.713346e-001 -6.169539e+000 39 24 28
-1.787272e-001 -1.389334e-001 -6.639387e+000 182 160 154
5.019878e-001 1.884779e-002 -6.545385e+000 220 216 210
5.020868e-001 1.875706e-002 -6.545586e+000 220 216 210
3.054351e-001 -1.153327e-001 -6.669863e+000 255 252 244
6.768803e-001 -2.649778e-002 -6.452745e+000 188 179 172
7.198095e-001 5.205511e-003 -6.444241e+000 213 205 196
8.033831e-001 -2.978108e-002 -6.414161e+000 180 172 160
8.039976e-001 -3.000942e-002 -6.415673e+000 180 172 160
5.895537e-001 -1.333442e-001 -6.538516e+000 226 221 217
5.895537e-001 -1.333442e-001 -6.538516e+000 226 221 217
1.188531e+000 -4.970289e-001 -6.136605e+000 229 58 69
-2.058728e+000 -2.914115e+000 -1.060411e+001 24 18 20
-2.007702e+000 -3.009460e+000 -1.051458e+001 20 14 16
-1.929678e+000 -3.155876e+000 -1.042824e+001 29 23 25
6.733537e-001 1.085265e+000 -6.595031e+000 199 40 48
-1.914952e-001 1.014299e+000 -7.556882e+000 191 41 48
-8.630480e-002 7.579082e-001 -7.198409e+000 177 168 159
-2.892304e-002 7.769894e-001 -7.174362e+000 218 211 201
7.479440e-001 8.127918e-001 -6.408526e+000 189 43 49
-5.379426e-001 5.297837e-001 -7.918998e+000 38 24 21
-1.139516e-001 4.747341e-001 -7.285388e+000 145 133 122
1.636190e-001 4.133884e-001 -6.908272e+000 188 175 166
4.110896e-001 3.674928e-001 -6.849705e+000 170 162 149
6.909908e-001 1.747840e-001 -6.623924e+000 155 145 134
-9.315457e-001 -2.037450e-001 -6.208764e+000 168 147 100
-9.315457e-001 -2.037450e-001 -6.208764e+000 168 147 100
-8.588453e-001 -1.950064e-001 -6.229496e+000 151 127 81
7.171417e-001 8.989923e-003 -6.431165e+000 213 205 196
1.224263e+000 -3.469523e-002 -6.078325e+000 247 80 90
5.156293e-001 -5.203093e-001 -6.706748e+000 81 64 37
6.425947e-001 -5.756456e-001 -6.575450e+000 204 191 182
1.346472e+000 -3.445257e-001 -5.972938e+000 163 139 91
4.653476e-001 -1.189005e+000 -7.160424e+000 41 28 23
-1.840818e+000 -3.116770e+000 -1.044053e+001 68 64 65
-1.165694e-001 9.644017e-001 -7.208444e+000 220 197 200
5.785841e-001 6.129957e-001 -6.733762e+000 210 201 194
1.290081e-001 4.756582e-001 -6.986034e+000 153 141 129
3.779575e-001 5.038643e-001 -6.927638e+000 178 169 160
1.744338e-002 4.108536e-001 -7.121184e+000 140 130 118
1.186008e-001 2.365460e-001 -6.846620e+000 128 116 106
1.936251e-001 2.293206e-001 -6.792230e+000 201 194 184
5.162391e-001 3.341622e-001 -6.830649e+000 151 143 132
8.137343e-001 2.692427e-001 -6.456659e+000 249 245 240
1.364980e-001 -5.781986e-003 -6.688640e+000 127 117 107
-7.375206e-001 -1.874235e-001 -6.301297e+000 155 66 34
3.321217e-002 -2.886373e-001 -6.718884e+000 244 241 236
8.119909e-001 -1.062804e-001 -6.354524e+000 133 119 108
7.233755e-001 -2.474169e-001 -6.479353e+000 234 230 221
5.612250e-001 1.063778e+000 -6.704519e+000 207 41 48
-3.986697e-001 3.559121e-001 -7.732136e+000 37 29 27
1.021566e+000 5.827078e-001 -6.189376e+000 17 7 8
-3.876059e-001 -6.941377e-002 -6.486408e+000 87 27 18
2.541977e-001 -4.863975e-001 -6.721566e+000 63 35 24
1.134736e+000 -2.010407e-001 -6.167839e+000 108 27 33
7.749738e-001 -4.026069e-001 -6.348383e+000 222 197 140
1.018998e+000 -3.090508e-001 -6.187286e+000 175 151 103
1.000848e+000 -5.307166e-001 -6.270071e+000 227 214 206
3.572283e-001 7.486359e-001 -6.736430e+000 230 221 214
6.370688e-001 7.039780e-001 -6.635802e+000 215 208 200
4.670582e-001 5.337223e-001 -6.775551e+000 211 204 196
4.698159e-001 5.333793e-001 -6.781822e+000 211 204 196
8.380277e-001 3.489364e-001 -6.429228e+000 174 159 147
4.227629e-001 1.475734e-001 -6.656281e+000 178 168 159
1.143274e+000 -3.622969e-001 -6.121252e+000 108 88 50
7.536013e-002 7.587845e-001 -7.090369e+000 217 208 201
1.367566e-002 5.453700e-001 -7.174833e+000 186 176 167
6.500369e-002 4.024390e-001 -7.001135e+000 131 121 111
9.492795e-001 3.427318e-001 -6.284425e+000 249 248 244
8.149857e-001 -2.128913e-001 -6.350093e+000 247 240 234
4.305861e-001 -1.130327e+000 -7.224496e+000 140 121 72
1.520510e-001 1.102174e+000 -7.097623e+000 210 201 196
4.339722e-001 6.495693e-001 -6.777129e+000 233 224 217
-2.757365e-001 -8.542788e-002 -6.542647e+000 76 21 19
5.893228e-001 1.358180e-001 -6.568150e+000 138 126 114
6.265740e-001 -4.420433e-001 -6.601071e+000 170 148 100
-2.998444e-001 5.990902e-001 -7.726194e+000 215 206 197
-1.680559e-002 -6.930219e-001 -6.791708e+000 39 31 29
7.795644e-001 4.580695e-001 -6.452035e+000 243 242 237
-2.277068e-001 3.161573e-002 -6.680514e+000 73 25 18
1.692505e-002 3.822049e-002 -6.727106e+000 142 132 122
-1.709980e-001 -3.673198e-001 -6.624360e+000 172 159 150
-2.452913e-001 -3.961970e-001 -6.562757e+000 171 161 150
2.749593e-001 7.292822e-001 -7.057363e+000 175 166 157
2.892505e-001 2.477980e-001 -6.799033e+000 124 113 103
-1.370333e-001 -2.641487e-004 -6.675896e+000 149 136 128
-2.621659e-001 -3.082457e-001 -6.592905e+000 168 150 139
8.302807e-001 9.013604e-001 -6.410580e+000 122 32 33
-1.304239e-001 5.288418e-001 -7.311647e+000 164 156 145
-5.313157e-001 -7.593839e-002 -6.515645e+000 108 35 15
-3.746566e-001 -3.639262e-001 -6.395884e+000 168 149 148
1.247102e+000 8.433550e-002 -6.029340e+000 180 41 48
4.973429e-001 -1.068493e-001 -6.609646e+000 253 250 245
-1.470827e-001 -4.398547e-001 -6.730802e+000 240 237 230
6.923447e-001 -7.753132e-001 -6.665905e+000 181 39 35
9.136974e-001 6.928829e-001 -6.332307e+000 189 34 42
7.882480e-001 6.604229e-001 -6.408226e+000 249 64 78
1.125804e+000 2.572721e-001 -6.163584e+000 227 60 68
1.214455e+000 8.965589e-002 -6.048225e+000 121 11 20
-8.238384e+000 -5.990558e+000 -1.819000e+001 106 97 95
-4.420906e-001 9.518332e-001 -7.765877e+000 25 18 16
2.374675e-001 4.428148e-001 -6.922713e+000 134 124 111
-2.852618e-003 1.180619e+000 -7.237685e+000 181 36 41
1.365713e+000 -1.721309e-001 -5.932796e+000 190 165 111
1.365713e+000 -1.721309e-001 -5.932796e+000 190 165 111
1.918277e-001 5.601253e-002 -6.693331e+000 132 120 108
-6.234548e-001 -1.276407e-001 -6.462300e+000 69 22 15
5.851042e-001 9.622570e-002 -7.020913e+000 142 132 120
6.535036e-001 6.886086e-001 -6.600413e+000 194 186 177
-1.573250e-001 4.057971e-001 -7.258013e+000 152 140 128
-1.572157e-001 2.047135e-001 -6.965861e+000 137 127 117
-1.157237e-001 1.632120e-001 -6.696482e+000 102 88 79
-7.258867e-001 -1.414789e-001 -6.775154e+000 114 51 31
-4.757701e-001 -2.317229e-001 -6.471548e+000 186 45 12
2.604732e-001 9.398550e-001 -7.046138e+000 195 186 181
-9.310782e-001 -1.730040e-001 -6.133979e+000 140 113 65
-9.055157e-001 -3.593910e-001 -6.443616e+000 51 37 33
-4.989339e-001 -2.122121e-001 -6.386175e+000 146 24 8
-6.570778e-001 -3.400184e-001 -6.321452e+000 220 167 124
-6.279281e-001 -2.985708e-001 -6.281096e+000 82 29 13
-6.279281e-001 -2.985708e-001 -6.281096e+000 82 29 13
-4.242145e-001 9.573124e-001 -7.769714e+000 20 20 18
2.820367e-001 7.371949e-001 -6.745710e+000 209 200 191
6.467117e-001 8.327712e-001 -6.476645e+000 187 177 171
-7.199527e-002 4.885892e-001 -7.207855e+000 180 172 162
-1.893772e-001 4.313213e-002 -6.682581e+000 89 32 21
-6.955012e-001 -3.536472e-001 -6.367960e+000 252 220 167
-6.543108e-001 -3.180106e-001 -6.315935e+000 253 210 175
1.273016e-001 1.918103e-001 -6.767936e+000 162 152 142
-5.920651e-001 -3.011077e-001 -6.506361e+000 160 51 24
-5.438524e-001 -2.908187e-001 -6.482555e+000 239 157 124
-2.768207e-001 -1.778539e-001 -6.453678e+000 218 101 62
4.208351e-001 1.113405e+000 -6.823158e+000 227 214 213
-1.274664e-001 5.399774e-001 -7.302599e+000 165 155 145
7.561085e-001 6.946850e-001 -6.433931e+000 208 52 57
6.797669e-001 6.110917e-001 -6.801226e+000 150 140 128
-8.984474e-001 -1.917532e-001 -6.237824e+000 46 31 24
-2.429521e-001 -1.696099e-001 -6.427269e+000 99 24 18
-6.160645e-001 -3.342869e-001 -6.353278e+000 237 191 148
-4.388529e-001 -3.701866e-001 -6.341096e+000 99 81 63
-8.437979e-001 -1.783679e-001 -6.157291e+000 140 117 76
5.993741e-001 1.158066e+000 -6.658371e+000 196 44 50
-6.630775e-001 -3.381970e-001 -6.323360e+000 232 174 132
-8.575934e-001 -1.472858e-001 -6.339559e+000 137 59 23
-2.978060e-001 -2.130086e-001 -6.403199e+000 227 105 57
3.243830e-001 8.881101e-001 -6.922533e+000 153 142 134
-1.779278e-001 6.932228e-001 -7.498857e+000 171 163 153
-2.064734e+000 -2.683089e+000 -1.052235e+001 58 49 50
9.441469e-001 6.245602e-001 -6.314221e+000 200 52 59
7.635765e-001 -9.243945e-001 -6.568479e+000 230 98 105
-8.770278e+000 -1.011707e+001 -2.263575e+001 23 19 20
2.535482e-001 -4.905125e-001 -6.738025e+000 63 35 24
4.994630e-001 1.264504e+000 -6.717579e+000 174 44 51
1.038055e-001 6.993658e-001 -7.014567e+000 216 207 198
7.667303e-001 8.519358e-001 -6.351393e+000 188 44 48
3.685421e-001 2.653572e-001 -6.760915e+000 121 109 94
2.617773e-001 1.743738e-001 -6.641160e+000 191 178 169
-2.919060e-001 -1.245368e-001 -6.518117e+000 84 16 7
-4.070508e-001 -2.455135e-001 -6.406799e+000 167 86 64
5.069731e-001 -7.248201e-002 -6.528711e+000 214 209 202
5.110803e-001 -1.026170e-001 -6.567949e+000 223 217 211
1.500009e-002 7.080862e-001 -7.163700e+000 205 198 190
8.355947e-001 8.647149e-001 -6.391079e+000 82 12 15
7.628163e-001 8.399959e-001 -6.272495e+000 206 47 61
8.634281e-002 2.586979e-001 -6.842270e+000 152 142 133
-4.133640e-001 -2.581392e-002 -6.580221e+000 118 50 32
-4.133640e-001 -2.581392e-002 -6.580221e+000 118 50 32
-1.071009e-002 6.792019e-002 -6.743231e+000 164 151 143
-2.448576e-001 -5.482016e-002 -6.638626e+000 84 17 11
2.653226e-001 -1.238440e-001 -6.653907e+000 254 254 249
-1.818253e+000 -3.757489e+000 -1.035432e+001 45 39 41
3.579431e-001 1.341089e+000 -6.905349e+000 200 48 52
4.386225e-001 1.173860e+000 -6.896728e+000 214 51 52
4.261100e-001 1.171162e+000 -6.817179e+000 214 51 52
-1.609282e-001 9.080064e-001 -7.491406e+000 203 196 186
-2.003922e-001 6.120229e-001 -7.523288e+000 180 171 162
-1.879610e-001 6.310185e-002 -6.701394e+000 135 120 113
1.187594e+000 -3.337873e-001 -6.070265e+000 170 147 95
1.204475e+000 -3.191565e-001 -6.067034e+000 164 139 85
8.411272e-001 6.200369e-001 -6.346916e+000 245 68 80
7.053116e-001 2.457436e-001 -6.642227e+000 172 163 152
7.481014e-001 -2.662170e-001 -6.472531e+000 229 225 216
-6.378571e+000 -7.528356e+000 -1.743093e+001 31 32 36
-4.694676e+000 -6.640945e+000 -1.493715e+001 131 127 141
-4.465468e+000 -6.931957e+000 -1.505683e+001 21 19 22
-5.913906e+000 -8.699221e+000 -1.667899e+001 110 109 122
3.966294e-001 1.323421e+000 -6.854370e+000 204 47 54
4.451686e-001 1.287824e+000 -6.780964e+000 194 38 42
7.962207e-001 6.300573e-001 -6.410856e+000 250 245 244
1.309743e-001 -5.820740e-002 -6.659769e+000 160 146 135
3.174641e-001 -2.160909e-001 -6.722639e+000 218 209 202
3.174641e-001 -2.160909e-001 -6.722639e+000 218 209 202
4.521806e-001 -2.730508e-001 -6.722665e+000 217 210 200
1.249152e+000 -1.045607e-001 -6.051163e+000 25 9 12
9.089928e-001 -7.803557e-001 -6.467289e+000 210 205 196
1.020944e+000 -7.757163e-001 -6.337312e+000 250 75 86
1.183300e+000 -8.467889e-001 -6.255554e+000 250 86 94
1.183300e+000 -8.467889e-001 -6.255554e+000 250 86 94
-4.528154e+000 -6.894353e+000 -1.488282e+001 134 131 146
-5.449207e+000 -8.588002e+000 -1.674893e+001 51 51 59
1.641897e-001 -4.178597e-001 -6.715402e+000 44 28 15
1.367225e+000 -1.655263e-001 -5.919133e+000 204 174 122
1.367225e+000 -1.655263e-001 -5.919133e+000 204 174 122
1.169437e+000 -8.296083e-001 -6.236187e+000 250 78 90
1.169437e+000 -8.296083e-001 -6.236187e+000 250 78 90
1.102133e+000 4.120823e-001 -6.146920e+000 218 54 65
2.789284e-002 -5.327734e-001 -6.853232e+000 43 34 30
1.177793e+000 -1.532392e-001 -6.157252e+000 228 64 75
5.909318e-001 9.470478e-001 -6.667019e+000 230 219 215
2.698973e-001 6.500660e-001 -7.003921e+000 139 126 117
6.478031e-001 2.765744e-001 -6.685198e+000 209 202 194
-2.541508e-002 -3.391352e-001 -6.709024e+000 125 108 78
-6.196928e+000 -7.640590e+000 -1.715745e+001 115 112 119
-6.108277e+000 -8.008082e+000 -1.691847e+001 133 131 142
-6.108277e+000 -8.008082e+000 -1.691847e+001 133 131 142
5.947211e-001 9.394412e-001 -6.663019e+000 229 221 218
2.581192e-001 -4.978938e-001 -6.755625e+000 66 33 26
-4.787071e+000 -6.730754e+000 -1.545132e+001 167 169 184
-6.231163e+000 -6.343505e+000 -1.787046e+001 19 17 22
-2.987138e-001 6.011915e-001 -7.717840e+000 213 204 195
2.453149e-001 7.439113e-001 -7.165912e+000 177 170 162
8.658858e-001 8.477278e-001 -6.369671e+000 109 22 20
-1.683774e-001 1.338916e-001 -6.797698e+000 107 93 84
-1.296094e-001 1.008244e-001 -6.718649e+000 145 130 123
-4.048940e-001 -4.990954e-002 -6.607225e+000 87 19 8
-8.119506e-002 3.291393e-002 -6.663761e+000 128 114 109
-4.989977e-001 -1.290816e-001 -6.485186e+000 125 31 14
-7.719452e-001 -2.103607e-001 -6.280786e+000 87 29 14
-4.857793e+000 -6.295309e+000 -1.503493e+001 95 90 100
1.111542e+000 -6.717503e-001 -6.163139e+000 243 85 83
-1.288986e-001 9.250115e-001 -7.422702e+000 183 176 168
-5.130844e-001 6.109196e-001 -7.879576e+000 206 40 46
-1.717861e-001 6.410566e-001 -7.490993e+000 166 157 148
3.876411e-001 2.595466e-001 -6.913543e+000 144 130 119
-2.094221e-001 6.739241e-002 -6.709796e+000 79 33 28
-4.490992e-001 -5.630995e-002 -6.554324e+000 139 61 39
-6.273038e-001 -1.484970e-001 -6.446201e+000 74 17 10
3.679019e-001 -3.346344e-001 -6.736048e+000 126 110 95
7.091305e-001 -8.422929e-002 -6.413299e+000 218 214 205
7.091305e-001 -8.422929e-002 -6.413299e+000 218 214 205
-5.653252e+000 -8.748738e+000 -1.653161e+001 156 161 183
8.210772e-001 8.666374e-001 -6.411277e+000 76 7 10
1.638863e-001 2.268548e-001 -6.789650e+000 199 191 180
8.607174e-001 5.532541e-001 -6.416982e+000 207 201 195
1.090233e+000 4.000085e-001 -6.154283e+000 234 67 77
-2.774824e-001 -1.954834e-001 -6.513931e+000 214 102 65
8.959766e-001 -9.494895e-001 -6.558021e+000 226 78 79
-1.419639e+000 -2.817292e+000 -8.628123e+000 25 19 21
-5.598104e-001 5.883851e-001 -7.967403e+000 217 58 56
-1.495767e-001 3.838535e-001 -7.211558e+000 140 127 118
-6.583938e-002 4.627069e-001 -7.199811e+000 140 130 117
6.819820e-001 6.566110e-001 -6.597313e+000 166 156 146
3.235862e-001 2.970180e-001 -6.819088e+000 119 104 94
-2.682633e-001 6.067796e-002 -6.727273e+000 61 12 11
5.065095e-001 2.261223e-001 -6.705795e+000 120 108 94
-2.982797e-001 -6.623828e-002 -6.623314e+000 78 23 16
1.125157e+000 2.583766e-001 -6.163995e+000 242 73 82
-1.857532e-001 -3.880689e-001 -6.652483e+000 169 148 135
-4.948601e+000 -6.618211e+000 -1.488089e+001 9 8 14
-1.488543e+000 -4.987110e+000 -1.036507e+001 46 40 42
4.724577e-001 1.730671e-001 -6.643105e+000 203 195 185
8.221649e-001 9.517183e-002 -6.495147e+000 194 185 178
-6.107869e+000 -7.275013e+000 -1.774784e+001 84 84 92
1.136594e+000 -3.969313e-001 -6.107213e+000 110 86 48
-4.900794e+000 -6.755110e+000 -1.491168e+001 155 153 167
-4.887331e+000 -6.732058e+000 -1.487647e+001 155 153 167
-5.966996e+000 -8.734197e+000 -1.658043e+001 130 131 149
-1.925078e-001 8.782157e-001 -7.500357e+000 202 193 185
4.945613e-001 7.627428e-001 -6.794896e+000 168 157 153
4.922242e-001 7.612857e-001 -6.790108e+000 168 157 153
6.628630e-001 3.588922e-001 -6.641094e+000 194 185 176
9.972112e-001 -1.038126e+000 -6.465984e+000 231 66 80
9.972112e-001 -1.038126e+000 -6.465984e+000 231 66 80
6.683018e-001 1.082912e+000 -6.576560e+000 209 45 56
9.279669e-001 -2.872856e-001 -6.288936e+000 91 74 54
9.619307e-001 -8.830878e-002 -6.309115e+000 164 151 143
1.010289e+000 -2.909729e-001 -6.147713e+000 182 157 108
-4.518373e+000 -6.968858e+000 -1.451220e+001 161 161 173
-5.471568e+000 -8.070574e+000 -1.631271e+001 10 8 12
-5.450226e+000 -8.027429e+000 -1.624831e+001 10 8 12
1.270049e+000 -1.301088e-001 -6.027432e+000 37 26 27
-5.808661e+000 -8.733587e+000 -1.671018e+001 168 173 195
-2.161393e-001 2.635788e-001 -7.379306e+000 122 28 31
-1.363869e-001 1.444157e-001 -6.591011e+000 142 129 120
-1.575577e-001 -3.642358e-002 -6.609117e+000 109 37 21
-1.289860e-001 -2.466463e-001 -6.656277e+000 240 229 226
4.827156e-001 -1.076575e-001 -6.614829e+000 238 235 228
-2.992682e-001 1.101486e+000 -7.605954e+000 29 19 19
-2.184782e-001 8.843892e-001 -7.555372e+000 203 194 185
2.897669e-001 7.707619e-001 -7.015954e+000 190 181 174
2.949641e-001 7.616691e-001 -7.058610e+000 190 181 174
2.125771e-001 2.605523e-001 -6.719426e+000 157 141 126
-4.618356e-001 -5.845004e-002 -6.522545e+000 144 65 43
-8.705322e-002 7.058303e-002 -6.750244e+000 131 116 109
-8.430689e-001 -2.405445e-001 -6.220364e+000 91 24 17
-5.278003e-001 -2.094636e-001 -6.404313e+000 251 139 101
-1.384347e-001 -3.605092e-001 -6.634778e+000 191 183 174
-1.836926e+000 -3.687060e+000 -1.035606e+001 41 35 37
9.395864e-001 -2.572863e-001 -6.314250e+000 139 122 110
5.396515e-001 -1.152760e+000 -7.124000e+000 241 221 182
1.887313e-002 1.357517e+000 -7.189464e+000 186 39 40
-2.837429e-001 -1.115725e-002 -7.752049e+000 35 27 26
-2.837429e-001 -1.115725e-002 -7.752049e+000 35 27 26
-5.509325e-001 -2.845597e-002 -6.642389e+000 69 16 8
-5.509325e-001 -2.845597e-002 -6.642389e+000 69 16 8
9.168827e-001 5.942087e-001 -6.370125e+000 214 57 66
-6.369652e-001 -1.682823e-001 -6.324949e+000 147 63 39
4.952234e-001 7.513746e-002 -6.636666e+000 131 119 107
-9.717278e-003 -2.193970e-001 -6.639221e+000 253 250 243
1.414622e-001 -1.897882e-001 -6.687105e+000 232 225 219
-6.900354e-001 -3.354209e-001 -6.315586e+000 43 35 33
-1.917786e-001 -4.107774e-001 -6.626686e+000 232 225 221
4.477963e-001 -4.422599e-001 -6.688922e+000 196 183 131
-1.745909e+000 -3.810942e+000 -1.040596e+001 53 47 47
6.835538e-002 1.212202e+000 -7.170356e+000 203 42 49
-2.776487e-001 -1.874364e-001 -6.494198e+000 227 116 77
-3.833340e-002 -1.922080e-001 -6.610355e+000 227 224 219
-4.550889e-001 4.691978e-001 -7.704239e+000 213 200 191
9.013863e-001 5.641243e-001 -6.379444e+000 174 33 44
1.019630e-001 -3.342745e-002 -6.679424e+000 159 149 140
9.930722e-002 -2.446565e-002 -6.657610e+000 159 149 140
-1.441238e-001 -4.076946e-001 -6.673035e+000 242 236 232
1.129032e+000 2.008146e-001 -6.153108e+000 195 35 45
1.129032e+000 2.008146e-001 -6.153108e+000 195 35 45
5.381509e-001 -3.178361e-001 -6.700104e+000 244 237 231
1.214477e+000 5.252045e-002 -6.025305e+000 229 83 91
8.039830e-001 -8.577396e-001 -6.540603e+000 219 47 59
3.032955e-001 9.828276e-001 -7.052980e+000 223 217 213
-4.561366e-001 -2.073558e-001 -6.470711e+000 249 132 87
6.999366e-001 -5.974230e-001 -6.530584e+000 229 217 208
-5.827751e-001 -1.441101e-001 -6.477027e+000 94 33 26
4.245209e-001 7.907353e-002 -6.626068e+000 199 190 181
5.511303e-001 5.450360e-002 -6.522679e+000 146 134 120
5.511303e-001 5.450360e-002 -6.522679e+000 146 134 120
5.778736e-001 5.684775e-003 -6.468373e+000 214 207 199
6.185206e-001 -4.252969e-001 -6.517251e+000 178 156 106
1.389146e-001 1.344932e+000 -7.078199e+000 203 48 54
-1.758980e-001 2.759130e-001 -7.389872e+000 184 174 162
-2.637514e-001 6.721845e-002 -7.218907e+000 220 212 205
-1.094699e-001 6.643417e-001 -7.360188e+000 168 162 150
-1.094699e-001 6.643417e-001 -7.360188e+000 168 162 150
5.976565e-001 -8.089233e-001 -6.714687e+000 251 250 245
-6.359027e-001 -1.482842e-001 -6.530384e+000 65 17 12
7.270008e-001 -3.617658e-001 -6.452592e+000 100 85 64
8.398786e-001 -9.604148e-001 -6.511582e+000 50 36 36
-3.976261e-001 2.582523e-001 -7.518919e+000 38 27 27
-2.872350e-001 -9.479095e-002 -6.571381e+000 66 11 8
3.851464e-001 -1.357534e-001 -6.687276e+000 245 242 234
3.857865e-001 -1.347565e-001 -6.684710e+000 245 242 234
1.171163e-002 -6.952272e-001 -6.825751e+000 35 30 27
-1.990230e+000 -3.420702e+000 -1.057720e+001 38 32 34
7.684182e-001 -1.325595e-001 -6.356086e+000 228 220 210
-4.390737e+000 -6.693060e+000 -1.504099e+001 30 28 33
-4.470367e+000 -6.729100e+000 -1.493241e+001 165 161 175
-6.063556e+000 -8.353820e+000 -1.666495e+001 9 7 10
-5.470989e-003 2.507474e-001 -6.949492e+000 145 132 123
-4.610253e-001 -8.219112e-002 -6.521768e+000 121 37 16
-4.479824e-001 -1.219934e-001 -6.472255e+000 129 34 14
9.226636e-001 -1.024316e+000 -6.575301e+000 48 30 30
4.382797e-001 1.189586e+000 -6.851306e+000 214 50 57
6.562028e-001 6.584011e-001 -6.632566e+000 204 194 185
-5.803619e+000 -8.939517e+000 -1.654462e+001 12 10 16
1.308170e-001 1.204904e+000 -7.079140e+000 232 192 168
2.376356e-001 7.143759e-001 -7.079689e+000 181 174 164
3.747780e-001 1.182319e+000 -6.878746e+000 203 32 40
-1.382147e-002 5.550594e-001 -7.163022e+000 208 197 191
-1.382147e-002 5.550594e-001 -7.163022e+000 208 197 191
1.260859e-001 6.149987e-001 -7.031407e+000 176 167 154
6.190232e-001 6.515649e-001 -6.684863e+000 187 181 170
-4.409893e-002 2.545581e-001 -7.042054e+000 145 135 125
2.423831e-001 2.968230e-001 -6.825189e+000 122 108 97
-4.631185e-001 -6.185913e-002 -6.529960e+000 144 65 43
-2.191551e-001 -4.015726e-002 -6.646633e+000 90 21 15
-6.196260e+000 -7.771391e+000 -1.752790e+001 79 79 80
-4.892513e+000 -6.329405e+000 -1.497238e+001 101 99 108
-4.759331e+000 -7.073486e+000 -1.503407e+001 156 154 168
-4.013313e+000 -7.477026e+000 -1.477001e+001 84 87 96
-1.610292e+000 -4.490017e+000 -1.032482e+001 50 44 48
-1.736543e-001 9.246949e-001 -7.514213e+000 161 147 139
-3.330216e-002 2.824542e-001 -7.040697e+000 130 118 106
3.094851e-001 3.065678e-001 -6.900685e+000 127 115 102
-6.076517e+000 -7.600785e+000 -1.712876e+001 80 79 84
-2.232172e+000 -3.306829e+000 -1.075721e+001 55 50 54
-5.424436e+000 -8.645323e+000 -1.665320e+001 120 121 139
-1.554881e+000 -4.563652e+000 -1.024168e+001 53 48 52
6.519018e-001 6.212791e-001 -6.671281e+000 153 143 133
-2.576892e-001 -4.227838e-004 -6.645857e+000 70 20 17
9.382636e-001 4.217852e-001 -6.257677e+000 252 81 93
8.838007e-001 7.976477e-001 -6.350056e+000 21 1 4
-6.019680e-001 6.806616e-001 -8.023872e+000 38 24 20
3.122184e-001 5.040692e-002 -6.646872e+000 244 240 231
6.492269e-001 1.236089e-001 -6.576951e+000 189 175 165
-4.743673e+000 -6.743253e+000 -1.513930e+001 142 138 153
-4.140057e+000 -7.762557e+000 -1.477892e+001 11 7 14
-5.688665e+000 -7.445527e+000 -1.671669e+001 10 10 12
6.871420e-001 1.084234e+000 -6.531733e+000 186 44 53
-6.079924e+000 -7.452671e+000 -1.707468e+001 80 77 84
-1.160398e-001 1.480381e-001 -6.792206e+000 108 94 83
-1.012625e-001 7.554793e-002 -6.709735e+000 162 147 140
-1.012625e-001 7.554793e-002 -6.709735e+000 162 147 140
-4.336905e+000 -6.431393e+000 -1.502556e+001 47 45 48
3.466764e-001 2.500113e-001 -6.728088e+000 143 130 114
-4.670748e-001 -1.344458e-001 -6.489718e+000 126 37 16
-4.975038e-001 -2.371409e-001 -6.441142e+000 144 27 9
-5.439594e+000 -8.902653e+000 -1.649873e+001 116 124 147
6.027124e-001 -3.993027e-001 -6.590475e+000 147 133 108
1.094903e+000 -2.607663e-001 -6.184658e+000 141 114 76
-5.995922e+000 -7.307688e+000 -1.754970e+001 66 66 74
-4.704057e+000 -6.216980e+000 -1.514933e+001 136 136 146
-2.193952e+000 -2.726099e+000 -1.064614e+001 40 36 37
7.514858e-001 5.365232e-001 -6.476566e+000 235 232 223
7.634981e-001 5.552746e-001 -6.453873e+000 236 231 227
-4.070139e-001 -1.190961e-001 -6.530645e+000 90 20 11
-5.936453e+000 -8.797135e+000 -1.651138e+001 3 4 8
5.158322e-001 -2.056897e-002 -6.525519e+000 199 192 174
-1.776387e+000 -3.893761e+000 -1.042941e+001 28 22 24
5.222143e-001 -1.174634e+000 -7.132790e+000 42 29 20
-1.399435e+000 -5.504743e+000 -9.992113e+000 22 15 17
-8.860289e-002 1.234776e+000 -7.366892e+000 142 21 30
1.673329e-002 1.387116e+000 -7.134998e+000 33 14 15
-2.241472e-001 5.284748e-001 -7.564845e+000 192 184 173
5.801503e-001 1.204266e+000 -6.667720e+000 185 40 45
1.337982e-001 4.060377e-001 -6.975109e+000 136 124 112
-5.881695e+000 -7.147995e+000 -1.756384e+001 66 66 78
-2.225176e+000 -2.577489e+000 -1.061212e+001 36 30 30
-4.920528e+000 -6.299908e+000 -1.517104e+001 130 130 139
-4.835274e+000 -6.488364e+000 -1.478393e+001 122 120 130
-4.694534e+000 -6.536082e+000 -1.495736e+001 137 137 149
-3.585902e-001 -1.288592e-002 -6.627588e+000 56 15 9
-8.074151e-001 -2.213336e-001 -6.268127e+000 136 109 66
1.618377e-001 5.166056e-002 -6.698716e+000 170 160 148
-5.939961e+000 -8.492907e+000 -1.652089e+001 105 103 115
-1.790796e-001 -2.476892e-001 -6.687000e+000 233 209 149
-1.983413e+000 -3.416414e+000 -1.055600e+001 40 34 38
-1.934971e+000 -3.536123e+000 -1.051632e+001 44 40 41
-4.356638e-001 -4.084565e-001 -6.454015e+000 164 143 123
-2.848792e-001 -4.303438e-001 -6.536737e+000 234 229 225
-2.479840e-001 -4.458771e-001 -6.579078e+000 251 251 246
6.707262e-001 -7.258679e-001 -6.641611e+000 174 161 141
9.195577e-001 -9.894043e-001 -6.617166e+000 235 82 88
-1.350718e+000 -5.512323e+000 -1.002283e+001 111 101 102
-1.349127e+000 -5.475081e+000 -9.989581e+000 111 101 102
3.824313e-001 1.362082e+000 -6.798994e+000 27 10 13
-2.613757e-001 1.003985e-001 -6.756414e+000 78 42 41
-6.065884e+000 -8.052913e+000 -1.658971e+001 11 9 17
-4.923921e+000 -6.543662e+000 -1.505189e+001 118 116 128
-1.885583e-001 -2.758263e-002 -6.682305e+000 112 43 32
-4.598406e+000 -6.806069e+000 -1.474693e+001 109 109 117
-2.026384e+000 -3.268189e+000 -1.056437e+001 49 44 46
-2.763892e-001 -1.927753e-001 -6.502714e+000 228 115 76
-3.672541e-002 -4.656504e-001 -6.760894e+000 40 33 25
1.182520e-001 -2.524494e-001 -6.679751e+000 199 189 179
1.170980e+000 3.439164e-001 -6.112907e+000 32 10 16
1.238170e+000 1.750310e-001 -6.055207e+000 32 18 19
-1.464878e+000 -4.877239e+000 -1.019942e+001 52 46 48
-1.409550e+000 -4.950218e+000 -1.009424e+001 45 40 44
-1.364909e+000 -4.955650e+000 -9.979956e+000 49 43 43
7.739247e-001 -9.401691e-001 -6.597407e+000 234 96 96
-3.886735e-001 7.456496e-001 -7.729916e+000 194 172 166
-1.581155e-001 3.834837e-001 -7.203427e+000 126 114 102
-1.581155e-001 3.834837e-001 -7.203427e+000 126 114 102
5.109928e-001 6.051262e-001 -6.783675e+000 184 177 167
5.109928e-001 6.051262e-001 -6.783675e+000 184 177 167
-5.153806e-001 -1.851053e-001 -6.478723e+000 180 74 42
4.528812e-001 -2.777311e-001 -6.728810e+000 216 210 197
4.575237e-001 -5.122803e-001 -6.718765e+000 251 251 241
-1.335269e+000 -5.407975e+000 -1.004157e+001 19 9 10
-2.049995e-001 3.248093e-002 -7.591736e+000 89 8 9
-5.408205e-001 -2.615220e-001 -6.482719e+000 212 107 66
1.258434e+000 -5.674404e-003 -6.051236e+000 32 11 18
