ply
format ascii 1.0
element face 0
property list uchar int vertex_indices
element vertex 867
property float x
property float y
property float z
property uchar diffuse_red
property uchar diffuse_green
property uchar diffuse_blue
end_header
-5.261793e-001 -3.446584e-001 -6.681012e+000 197 137 100
7.113109e-001 -8.006769e-001 -6.652246e+000 179 33 43
7.349643e-001 -5.677774e-001 -6.552336e+000 233 229 220
7.032490e-001 -5.892086e-001 -6.541360e+000 233 229 220
7.469124e-001 -4.884217e-001 -6.608116e+000 163 154 137
3.198676e-001 -4.580896e-001 -6.675659e+000 109 99 69
3.198676e-001 -4.580896e-001 -6.675659e+000 109 99 69
2.108435e-001 -1.356978e-001 -6.667137e+000 201 195 183
3.812934e-001 -8.672565e-001 -7.232802e+000 139 117 73
2.088508e-001 -5.671052e-001 -7.156546e+000 119 91 56
-1.093815e-001 -4.092310e-001 -6.897352e+000 181 177 171
-5.353175e-002 -4.006798e-001 -7.138293e+000 239 235 234
-6.691497e-001 -3.398298e-001 -6.714235e+000 159 47 22
-4.906936e-001 -4.139742e-001 -6.964198e+000 128 111 104
2.939503e-001 -1.328195e-001 -6.693982e+000 255 255 251
2.241453e-001 -7.647606e-001 -7.379273e+000 18 6 6
-7.607268e-002 -4.923710e-001 -7.056654e+000 47 12 10
-7.357840e-001 -3.452779e-001 -6.341708e+000 164 64 41
-7.948240e-001 -3.421494e-001 -6.342097e+000 178 70 48
-7.808782e-001 -3.114682e-001 -6.349763e+000 178 70 48
8.676831e-001 -1.117464e+000 -6.477353e+000 225 56 61
1.048324e+000 -4.944266e-001 -6.271749e+000 255 254 250
7.514668e-001 -6.466730e-001 -6.529284e+000 199 192 181
5.281111e-001 -6.918450e-001 -6.722744e+000 210 206 195
5.475466e-001 -2.875693e-001 -6.646900e+000 255 255 251
5.030542e-001 -1.089675e+000 -7.079534e+000 38 24 24
1.409597e-001 -5.065130e-001 -7.090965e+000 52 23 15
-4.127554e-001 -4.903170e-001 -6.594524e+000 186 80 57
-3.977367e-001 -6.264329e-001 -6.672350e+000 213 212 208
-8.564111e-001 -3.205934e-001 -6.337271e+000 238 116 67
-6.583321e-001 -3.212137e-001 -6.586646e+000 112 28 17
8.298216e-001 -8.185194e-001 -6.474577e+000 255 251 250
3.955339e-001 -5.569805e-001 -6.717875e+000 254 255 250
-1.910046e-001 -3.168375e-001 -7.185407e+000 116 99 89
-5.453737e-001 -3.583007e-001 -6.962161e+000 88 28 17
-3.430058e-001 1.261776e-001 -6.445351e+000 31 21 20
-5.067279e-001 -3.987715e-001 -6.468867e+000 228 176 128
-1.069340e-001 -3.725856e-001 -7.128657e+000 236 231 228
-1.069340e-001 -3.725856e-001 -7.128657e+000 236 231 228
-8.788262e-001 -1.617154e-001 -6.247851e+000 195 172 120
-8.984357e-001 -2.094915e-001 -6.236566e+000 195 172 120
9.239604e-001 -3.795656e-001 -6.323173e+000 102 89 57
-1.219494e-001 -3.128317e-001 -6.949972e+000 50 23 16
-1.219494e-001 -3.128317e-001 -6.949972e+000 50 23 16
-5.087348e-001 -3.813355e-001 -6.777305e+000 241 189 141
7.533213e-001 -9.335549e-001 -6.667950e+000 18 4 4
4.211307e-001 -1.125396e+000 -7.198888e+000 153 132 85
7.870038e-001 9.066007e-001 -6.402967e+000 42 22 12
-8.423329e-001 -3.704091e-001 -6.475151e+000 148 49 23
5.250937e-001 -1.257814e-001 -6.565322e+000 221 220 216
-6.002721e-001 6.131870e-001 -8.051185e+000 186 40 46
-6.014667e-001 6.094937e-001 -8.049577e+000 186 40 46
2.163288e-001 -7.835019e-001 -7.381007e+000 17 6 8
9.586016e-001 -4.786681e-001 -6.284133e+000 122 108 72
6.469561e-001 -3.189005e-002 -6.452705e+000 185 181 172
6.584956e-001 9.152093e-001 -6.795180e+000 203 200 195
-4.478118e-001 -3.857131e-001 -6.420873e+000 45 39 30
-4.145316e-001 -4.267595e-001 -6.464662e+000 212 166 131
1.978756e-001 -1.145922e+000 -7.530822e+000 75 64 62
-5.444965e-001 -3.028916e-001 -6.460437e+000 254 125 75
-8.503015e-001 -1.816401e-001 -6.212489e+000 171 148 105
-7.963298e-001 -3.505542e-001 -6.378525e+000 176 77 49
-7.537974e-001 1.821022e-001 -6.315951e+000 210 189 137
-8.995447e-001 -2.175941e-001 -6.263916e+000 192 166 117
1.253405e+000 1.278549e-001 -6.063727e+000 177 36 38
7.150043e-001 -7.004990e-002 -6.428820e+000 234 230 224
-1.603507e-001 -3.767001e-001 -6.801652e+000 127 117 108
7.119734e-002 -4.299383e-001 -7.209731e+000 177 112 70
-7.422509e-001 -3.481653e-001 -6.333179e+000 193 91 69
9.732593e-002 -4.616242e-001 -7.299751e+000 152 64 32
-2.449686e-001 -3.724975e-001 -7.006361e+000 209 208 203
-9.464087e-002 -4.100025e-001 -7.236767e+000 145 39 43
-9.090488e-003 -4.201512e-001 -7.355053e+000 179 131 91
-7.300491e-001 -3.001805e-001 -6.630777e+000 130 39 11
8.722700e-001 -9.781453e-001 -6.579489e+000 229 64 64
1.069714e+000 2.528933e-001 -6.232800e+000 236 222 219
1.040818e+000 2.431451e-001 -6.257939e+000 191 185 178
1.043107e+000 2.461130e-001 -6.258422e+000 191 185 178
9.040847e-001 -1.289610e-001 -6.322380e+000 198 197 193
1.032684e+000 7.102936e-001 -6.271062e+000 183 45 49
9.942381e-001 7.369497e-001 -6.300789e+000 216 61 67
7.630720e-001 5.655007e-002 -6.424214e+000 247 247 239
5.474359e-001 2.731094e-002 -6.521221e+000 168 160 150
5.492995e-001 2.913035e-002 -6.522088e+000 168 160 150
3.388296e-001 -5.850591e-001 -7.197694e+000 105 81 48
2.365234e-001 -5.286504e-001 -7.334357e+000 127 86 48
-4.935333e-001 -2.228945e-001 -6.395687e+000 215 118 66
-4.905091e-001 -2.178304e-001 -6.397513e+000 215 118 66
1.158018e-001 -4.802429e-001 -7.327716e+000 162 13 25
-8.426912e-001 -2.304508e-001 -6.248661e+000 206 187 128
-9.251973e-001 -2.238062e-001 -6.250836e+000 41 26 13
-9.140042e-001 -2.456549e-001 -6.310996e+000 210 181 132
-9.210066e-001 -2.409625e-001 -6.331544e+000 227 197 145
-7.969332e-001 -3.312916e-001 -6.564823e+000 96 38 19
-5.437869e-001 -2.966369e-001 -6.845388e+000 178 109 76
-5.587826e-003 -4.790298e-001 -7.523072e+000 193 36 47
-5.121164e-001 -3.498766e-001 -6.945400e+000 79 26 19
-1.561256e-001 6.295015e-003 -7.551133e+000 183 172 168
1.245790e+000 3.520341e-001 -6.076305e+000 38 22 23
7.390019e-001 -5.161625e-002 -6.405941e+000 179 175 166
7.496235e-001 7.030666e-001 -6.502296e+000 165 153 139
-4.776174e-001 -3.442997e-001 -6.440962e+000 230 182 134
-5.151097e-002 -3.509784e-001 -7.012829e+000 158 149 142
-1.095071e-001 -4.139180e-001 -7.210383e+000 200 194 190
-1.437268e-001 4.773695e-003 -7.520312e+000 169 160 155
1.175171e+000 2.171685e-001 -6.150990e+000 200 40 45
1.312435e-001 -4.914948e-001 -7.123609e+000 61 32 19
-8.267966e-002 -3.656319e-001 -7.068959e+000 224 223 218
7.459423e-002 -4.668551e-001 -7.356302e+000 116 12 13
-3.779650e-001 1.045223e+000 -7.881127e+000 177 34 41
1.019458e+000 -8.701231e-001 -6.412137e+000 26 9 6
8.782349e-001 -7.144304e-001 -6.444617e+000 255 252 251
7.047718e-001 -4.331544e-003 -6.449782e+000 185 181 172
7.051666e-001 -3.825799e-003 -6.449754e+000 185 181 172
7.738553e-001 7.471466e-001 -6.452070e+000 137 32 36
7.188259e-001 9.257800e-001 -6.562848e+000 202 41 51
-4.366073e-001 -5.239702e-001 -6.640277e+000 236 185 142
9.577804e-003 -3.995847e-001 -7.222738e+000 244 196 149
-9.582596e-001 -2.399517e-001 -6.272592e+000 188 165 113
-7.223014e-001 -2.968662e-001 -6.786087e+000 135 45 21
-2.602617e-001 2.407064e-001 -7.773465e+000 176 38 42
-2.594835e-001 2.921149e-001 -7.834657e+000 19 7 11
8.627824e-001 -9.270856e-001 -6.576779e+000 218 49 50
1.177179e+000 6.391723e-001 -6.149224e+000 30 27 22
7.306550e-001 7.895876e-001 -6.539558e+000 193 182 176
6.960167e-001 6.496450e-001 -6.577530e+000 164 156 145
7.364480e-001 8.328202e-001 -6.683031e+000 218 215 208
-4.600496e-001 -4.091928e-001 -6.582505e+000 190 70 43
9.598841e-001 -1.018317e+000 -6.576337e+000 21 6 9
9.968878e-001 2.066994e-001 -6.336187e+000 214 210 201
1.495284e-001 -4.859063e-001 -7.311695e+000 130 11 20
8.780247e-001 -1.802648e-001 -6.369685e+000 250 247 240
4.892261e-001 -8.821976e-002 -6.583864e+000 250 249 244
8.046617e-001 5.963549e-001 -6.469251e+000 246 244 240
6.183347e-001 -7.525480e-001 -6.641054e+000 253 254 249
1.208730e+000 2.867269e-001 -6.071176e+000 31 23 11
5.114189e-001 -4.084677e-001 -6.662025e+000 153 137 92
4.755679e-001 -8.466628e-001 -7.029649e+000 158 47 58
7.055626e-001 1.161852e+000 -6.558182e+000 36 20 13
-8.675731e-002 -4.052997e-001 -6.708902e+000 246 245 241
-6.352418e-001 -3.062091e-001 -6.290155e+000 130 71 69
-7.699154e-001 -1.859905e-001 -6.227121e+000 26 20 12
-5.451842e-001 -2.922877e-001 -6.460878e+000 246 122 75
-7.479225e-001 -3.072676e-001 -6.306456e+000 196 78 50
-7.619394e-001 -3.584239e-001 -6.328190e+000 193 93 73
-8.099970e-001 -3.278835e-001 -6.314460e+000 221 100 57
-4.015590e-001 -4.787274e-001 -6.778612e+000 113 65 45
2.139973e-001 -5.896472e-001 -7.546474e+000 23 6 3
-9.762359e-001 -2.416571e-001 -6.270749e+000 239 214 151
-9.772796e-001 -2.449727e-001 -6.269505e+000 239 214 151
-8.809190e-001 -3.527074e-001 -6.440294e+000 170 61 28
-6.794287e-001 -3.285302e-001 -6.642545e+000 181 65 29
-6.592419e-001 -3.246013e-001 -6.661795e+000 183 67 30
-6.510400e-001 -3.373398e-001 -6.674079e+000 176 63 29
8.773280e-001 -5.041961e-001 -6.417311e+000 218 213 207
9.289832e-001 4.808204e-001 -6.257976e+000 180 33 42
8.588421e-001 6.457629e-001 -6.280132e+000 35 21 11
3.704990e-002 -5.296079e-001 -6.962456e+000 211 205 205
-8.893731e-001 -2.223475e-001 -6.238560e+000 218 192 141
-2.104369e-001 -3.533829e-001 -7.038554e+000 165 157 150
-8.330232e-001 -3.729201e-001 -6.468995e+000 172 81 53
1.077145e+000 -4.495762e-001 -6.232735e+000 254 248 243
1.095205e+000 2.599866e-001 -6.207541e+000 216 48 48
4.826594e-001 -6.437833e-002 -6.557439e+000 221 218 211
4.826594e-001 -6.437833e-002 -6.557439e+000 221 218 211
4.137259e-001 -5.038776e-002 -6.596039e+000 243 238 232
3.639058e-001 -6.929321e-001 -7.171324e+000 198 45 51
4.402829e-002 -4.916724e-001 -6.877736e+000 173 170 164
-2.620916e-001 -4.895932e-001 -6.624610e+000 192 188 185
-9.399025e-002 -4.558275e-001 -6.773702e+000 195 192 187
1.386510e-001 -4.533731e-001 -7.279868e+000 71 7 7
1.386510e-001 -4.533731e-001 -7.279868e+000 71 7 7
-1.041520e-001 -3.741894e-001 -7.103793e+000 206 202 197
-9.645130e-001 -2.067977e-001 -6.207995e+000 44 26 17
-8.066249e-001 -3.462898e-001 -6.349890e+000 152 43 22
-6.195999e-001 -3.380378e-001 -6.648333e+000 177 100 73
-8.163347e-001 -3.834303e-001 -6.463644e+000 117 29 8
9.195038e-001 -7.705799e-001 -6.539943e+000 225 128 126
-7.201719e-001 -3.421477e-001 -6.320889e+000 143 42 22
-8.807324e-001 -1.997714e-001 -6.222141e+000 38 22 6
-8.012601e-001 -2.270291e-001 -6.245788e+000 109 29 30
-7.967853e-001 -3.867181e-001 -6.434685e+000 147 46 18
-7.902625e-001 -3.843764e-001 -6.456975e+000 180 88 60
-5.945490e-001 -2.484133e-001 -6.827899e+000 36 2 2
8.223556e-001 -9.502740e-001 -6.576664e+000 215 53 58
1.177502e+000 4.739528e-001 -6.155791e+000 214 50 61
4.980927e-001 -6.874434e-001 -6.798308e+000 254 253 248
5.225203e-001 7.079704e-001 -6.780028e+000 248 245 240
3.728574e-001 -7.882030e-001 -7.186382e+000 254 250 192
1.929313e-001 -6.738971e-002 -6.648953e+000 255 255 251
-6.691769e-001 -3.401891e-001 -6.714105e+000 151 45 23
9.193121e-001 -9.672094e-001 -6.579595e+000 212 50 51
5.122034e-001 -4.974209e-001 -6.656225e+000 166 149 103
7.771799e-001 1.830192e-001 -6.425660e+000 253 252 247
6.995256e-001 -8.861192e-001 -6.751772e+000 23 10 9
-1.780740e-001 -1.204073e-001 -7.363094e+000 160 150 140
6.149035e-001 -9.264934e-001 -6.877059e+000 244 243 240
6.149035e-001 -9.264934e-001 -6.877059e+000 244 243 240
3.439344e-001 -9.818872e-001 -7.303829e+000 137 119 71
-3.905477e-001 5.883350e-001 -7.901668e+000 9 4 6
-2.107371e-001 3.325210e-002 -7.461796e+000 129 17 24
3.348970e-001 -6.874796e-001 -7.123748e+000 124 17 25
2.033914e-001 3.175227e-001 -6.569484e+000 219 215 211
-1.989967e-001 -2.575798e-001 -7.591056e+000 165 156 149
5.324665e-001 -7.374242e-001 -6.845325e+000 217 214 207
1.097351e-001 -7.795089e-001 -7.589962e+000 32 18 17
1.049099e+000 -1.076995e+000 -6.505814e+000 214 95 83
6.405425e-001 8.524502e-001 -6.757191e+000 203 200 193
-6.941223e-001 -2.660408e-001 -6.256571e+000 131 68 61
-6.998248e-001 -3.442489e-001 -6.346950e+000 185 124 96
-5.378602e-001 -3.870474e-001 -6.542452e+000 209 105 70
-8.606517e-001 -3.849679e-001 -6.383696e+000 196 83 49
-7.321464e-001 -3.365527e-001 -6.584401e+000 147 59 37
1.033775e+000 -4.524235e-001 -6.195558e+000 134 114 69
1.125402e+000 -1.534907e-001 -6.187211e+000 230 217 212
1.013545e+000 -4.515490e-001 -6.305539e+000 149 132 105
9.522596e-001 7.637933e-001 -6.319283e+000 216 52 51
6.485267e-001 -4.866300e-001 -6.671051e+000 186 179 165
-2.782454e-002 -3.419616e-001 -6.686450e+000 248 247 242
-7.928484e-001 -2.651600e-001 -6.243536e+000 135 64 63
-7.761254e-001 -2.146814e-001 -6.259668e+000 135 64 63
-8.268037e-001 -3.237818e-001 -6.312635e+000 238 118 68
-8.114106e-001 -3.882221e-001 -6.410615e+000 199 94 64
1.090310e+000 -1.043255e+000 -6.541429e+000 16 6 8
1.070467e+000 2.601678e-001 -6.230310e+000 233 213 205
4.581756e-001 -4.131551e-001 -6.683784e+000 203 187 136
4.805732e-001 -5.302333e-001 -6.729576e+000 246 243 234
3.464204e-001 -8.553590e-002 -6.692419e+000 254 252 244
-4.805784e-001 -2.491600e-001 -6.395344e+000 37 17 14
-7.321913e-001 -3.106340e-001 -6.680834e+000 155 56 27
1.199395e+000 3.324044e-001 -6.102190e+000 218 44 53
8.217123e-001 -7.921828e-001 -6.539415e+000 221 52 52
6.168978e-001 4.551661e-003 -6.472387e+000 207 201 192
5.457808e-001 -5.186170e-001 -6.668716e+000 166 146 100
7.240228e-001 7.178953e-001 -6.535964e+000 208 206 194
-3.553852e-001 -2.135738e-001 -6.449363e+000 221 100 68
-6.501888e-001 -2.848175e-001 -6.297133e+000 49 18 23
-7.081055e-001 -3.383875e-001 -6.365089e+000 158 64 35
-5.806232e-001 -3.018432e-001 -6.544871e+000 195 133 96
-5.913745e-001 -3.600640e-001 -6.906956e+000 95 19 5
3.666531e-001 -7.698728e-004 -6.608100e+000 251 246 238
3.272165e-001 -2.118316e-001 -6.695732e+000 226 222 210
2.285485e-001 3.217152e-002 -6.640289e+000 171 165 153
1.147584e-001 -5.468027e-001 -6.807384e+000 247 246 241
4.150739e-001 -7.759149e-001 -7.211034e+000 252 255 202
-5.061044e-001 -2.308455e-001 -7.058732e+000 174 163 153
9.148671e-001 -6.836488e-001 -6.456737e+000 251 250 245
5.157451e-001 -2.031903e-001 -6.655339e+000 253 253 244
4.886763e-001 -2.004261e-001 -6.691892e+000 229 221 210
4.886763e-001 -2.004261e-001 -6.691892e+000 229 221 210
4.080921e-001 -2.901083e-001 -6.708478e+000 247 243 240
5.017929e-001 1.079582e+000 -6.755110e+000 227 218 213
1.756758e-002 -1.917944e-001 -6.619541e+000 230 226 223
-3.963322e-001 -4.385107e-001 -6.548052e+000 183 56 50
2.210946e-001 -5.012108e-001 -7.303638e+000 130 94 55
1.143821e+000 -9.211601e-002 -6.202176e+000 224 219 213
1.022699e+000 5.660416e-001 -6.187101e+000 233 47 58
7.323366e-001 -4.890855e-001 -6.602891e+000 157 146 128
7.113962e-001 -5.135768e-001 -6.589098e+000 157 146 128
4.164095e-001 7.503365e-002 -6.597764e+000 182 172 163
6.195233e-001 9.743361e-001 -6.673995e+000 225 222 222
-2.798840e-002 -4.640239e-001 -7.019663e+000 193 190 186
-8.105524e-001 -2.527101e-001 -6.261064e+000 105 23 21
-4.295197e-001 -5.025787e-001 -6.663090e+000 221 173 127
-4.296911e-001 -5.029394e-001 -6.662949e+000 221 173 127
-6.402184e-002 -3.926877e-001 -7.458874e+000 105 11 21
1.105760e+000 3.580266e-002 -6.159770e+000 216 211 201
-4.032474e-001 -2.273872e-001 -6.418216e+000 240 114 66
7.607332e-001 -2.283603e-001 -6.461576e+000 225 221 212
5.943400e-001 -2.444673e-001 -6.667469e+000 252 249 242
5.505513e-001 -6.556855e-001 -6.736033e+000 204 199 188
-3.904285e-001 -4.750759e-001 -6.791169e+000 72 7 5
-2.344767e-001 -3.730087e-002 -7.746241e+000 176 169 159
1.007117e+000 -1.016364e+000 -6.511911e+000 224 49 56
-3.051112e-001 -4.687712e-001 -6.718371e+000 201 200 196
-3.984264e-003 -5.019479e-001 -7.437547e+000 208 154 112
-1.070733e-001 -3.963246e-001 -7.626953e+000 17 8 9
9.543653e-001 3.482472e-001 -6.283147e+000 232 230 223
-7.443833e-001 -1.900291e-001 -6.213967e+000 29 25 22
-1.193048e-001 -3.819945e-001 -7.114002e+000 211 210 205
-8.647742e-001 -3.209589e-001 -6.402331e+000 215 101 64
-5.416783e-001 7.234145e-001 -7.653803e+000 28 19 20
1.128045e+000 -1.405830e-001 -6.194490e+000 226 215 212
5.097697e-001 7.026826e-001 -6.742903e+000 206 203 198
-4.897040e-001 -2.295078e-001 -6.473463e+000 252 126 81
5.668616e-001 1.250892e+000 -6.697175e+000 211 50 56
-5.711050e-001 7.762862e-001 -7.956153e+000 29 12 17
-4.794397e-001 -3.644000e-001 -6.421723e+000 187 153 110
-8.481250e-001 -1.646894e-001 -6.196438e+000 199 175 125
-8.332527e-001 -3.377892e-001 -6.339650e+000 222 104 75
1.041841e+000 -1.045657e+000 -6.536028e+000 195 53 51
7.319829e-001 4.283193e-003 -6.367508e+000 214 208 197
5.806372e-001 -5.190527e-001 -6.655895e+000 151 132 89
-8.612306e-001 -3.687509e-001 -6.400979e+000 217 109 76
-8.612306e-001 -3.687509e-001 -6.400979e+000 217 109 76
-8.334904e-001 -3.847108e-001 -6.451125e+000 146 45 18
-8.818707e-001 -3.462939e-001 -6.414410e+000 217 110 76
7.612656e-001 -7.972772e-001 -6.747721e+000 206 60 63
7.238791e-002 -4.729289e-001 -6.759800e+000 251 250 246
1.209291e+000 2.347161e-001 -6.069825e+000 224 51 55
9.722279e-001 7.073583e-001 -6.295353e+000 210 50 56
1.539982e-001 -4.848568e-001 -7.264824e+000 203 160 117
9.819927e-001 -8.541544e-001 -6.397747e+000 253 253 254
1.095696e+000 -4.592753e-001 -6.231690e+000 223 33 37
1.108596e+000 -8.606644e-001 -6.368801e+000 246 83 89
1.063531e+000 -3.874297e-001 -6.270951e+000 145 126 84
1.034358e+000 -1.089684e+000 -6.498189e+000 222 117 106
5.398081e-001 -3.399574e-001 -6.669357e+000 242 238 228
5.914695e-001 7.327305e-001 -6.697859e+000 204 201 194
5.914695e-001 7.327305e-001 -6.697859e+000 204 201 194
4.105419e-001 1.356549e+000 -6.830658e+000 40 24 18
4.363820e-001 -9.057186e-001 -6.997733e+000 13 2 6
-4.160573e-001 -3.546315e-001 -6.423542e+000 135 20 28
-4.262420e-001 -3.763092e-001 -6.429019e+000 204 190 165
-4.272637e-001 -3.856849e-001 -6.424343e+000 204 190 165
-4.945655e-002 -4.481465e-001 -6.760872e+000 191 188 183
3.655977e-002 -4.863435e-001 -6.858700e+000 167 164 159
-2.691896e-001 -4.719822e-001 -6.607480e+000 191 190 186
3.851449e-001 -1.218088e+000 -7.254594e+000 164 144 94
-7.199565e-001 -2.558098e-001 -6.262011e+000 79 15 17
-5.045198e-001 -2.315951e-001 -6.480136e+000 248 123 77
-5.045198e-001 -2.315951e-001 -6.480136e+000 248 123 77
-8.544650e-001 -2.182015e-001 -6.254182e+000 159 129 79
-8.303401e-001 -2.178994e-001 -6.259669e+000 131 66 55
-6.387436e-001 -3.826435e-001 -6.467137e+000 209 150 121
-7.730725e-001 -3.716885e-001 -6.424313e+000 190 135 105
-8.534170e-001 -3.503190e-001 -6.396482e+000 182 71 38
-8.430006e-001 -3.574799e-001 -6.406629e+000 171 63 32
-1.914828e-001 -3.019208e-001 -7.444380e+000 182 172 163
7.695965e-001 7.726606e-001 -6.492882e+000 178 171 160
-4.412311e-001 -3.677567e-001 -6.426096e+000 48 35 34
-2.108003e-001 -4.621165e-001 -6.648206e+000 152 145 134
-2.846223e-002 -4.627701e-001 -6.981180e+000 180 175 172
-8.647999e-001 -1.750872e-001 -6.190717e+000 238 206 143
-8.181040e-001 -2.037697e-001 -6.242135e+000 231 213 155
-7.403263e-001 -3.355741e-001 -6.338329e+000 184 85 66
-5.346130e-001 -3.532522e-001 -6.529493e+000 183 86 50
-5.525799e-001 -3.675076e-001 -6.531544e+000 217 116 81
-9.165866e-001 -2.237142e-001 -6.254267e+000 46 29 10
-8.615113e-001 -3.022560e-001 -6.299229e+000 107 20 15
-7.606543e-001 -3.701932e-001 -6.412595e+000 136 48 32
-1.992666e-001 -3.638221e-001 -7.021583e+000 210 206 202
-8.449598e-001 -3.673839e-001 -6.381396e+000 222 115 86
-8.937478e-003 -4.378749e-001 -7.321155e+000 212 167 124
-8.270195e-001 -3.521320e-001 -6.549530e+000 127 56 38
-2.302381e-001 -3.445898e-001 -7.432889e+000 188 180 171
-9.865416e-001 3.775646e+000 -8.149767e+000 50 41 37
1.084583e+000 -4.753122e-001 -6.248679e+000 254 240 246
8.351500e-001 -9.391567e-001 -6.584797e+000 219 68 67
7.551974e-001 -5.091339e-001 -6.536921e+000 206 202 191
4.055267e-001 1.161114e+000 -6.878333e+000 197 193 194
1.781386e-002 -3.974431e-001 -6.672131e+000 221 219 214
1.781386e-002 -3.974431e-001 -6.672131e+000 221 219 214
1.247398e-001 -5.755672e-001 -6.837527e+000 222 219 214
-2.482103e-001 -4.680028e-001 -6.635869e+000 174 169 165
-7.969781e-001 -1.967619e-001 -6.234267e+000 207 182 125
-7.630422e-001 -3.265367e-001 -6.314978e+000 223 109 73
-6.668696e-001 -3.969249e-001 -6.423258e+000 208 157 112
-9.183534e-001 -2.160336e-001 -6.256064e+000 47 29 17
-8.277675e-001 -3.343393e-001 -6.324492e+000 196 77 38
-7.751878e-001 -3.648258e-001 -6.408491e+000 154 53 33
-9.196385e-001 -3.528392e-001 -6.458367e+000 133 63 57
-9.061981e-001 -3.468881e-001 -6.482104e+000 52 20 23
-8.132607e-001 -3.762876e-001 -6.511268e+000 107 35 20
7.502428e-001 -9.527741e-002 -6.405101e+000 248 245 239
7.502428e-001 -9.527741e-002 -6.405101e+000 248 245 239
7.181489e-001 -6.764353e-002 -6.431663e+000 238 235 226
3.367940e-001 -1.842907e-002 -6.624802e+000 224 219 207
4.341720e-001 1.388353e+000 -6.869558e+000 209 46 57
1.283179e-001 -2.775897e-001 -6.708617e+000 221 216 210
4.336652e-001 -1.194007e+000 -7.067008e+000 150 129 82
-1.402007e-001 -4.453692e-001 -6.763827e+000 180 173 167
-6.488206e-001 -3.178088e-001 -6.396866e+000 94 52 50
-7.979490e-001 -3.890248e-001 -6.475481e+000 116 29 13
-1.968739e-001 -4.017322e-001 -7.080302e+000 217 216 210
4.971082e-001 -5.287033e-001 -6.701077e+000 138 122 78
4.680505e-001 1.171592e+000 -6.791885e+000 202 34 41
4.820597e-001 1.048457e+000 -6.812156e+000 204 200 189
4.724767e-001 1.320446e+000 -6.801206e+000 209 43 51
3.871860e-001 1.133167e+000 -6.822148e+000 189 37 45
4.422195e-001 1.130628e+000 -6.827317e+000 226 223 218
-4.009788e-001 -3.708814e-001 -6.425607e+000 96 12 18
-1.847606e-001 1.839974e-001 -7.547719e+000 158 31 38
-5.298198e-001 8.050472e-001 -7.954655e+000 197 42 50
9.899273e-001 6.395314e-001 -6.216470e+000 36 22 21
7.725851e-001 -5.183984e-001 -6.506064e+000 142 129 112
4.895997e-001 2.981850e-002 -6.552561e+000 191 187 176
6.079378e-001 6.301339e-001 -6.640145e+000 217 213 207
5.586146e-001 1.067750e+000 -6.687369e+000 203 48 49
2.070248e-001 -4.113618e-002 -6.658003e+000 254 253 248
-4.452603e-001 -4.576235e-001 -6.758107e+000 163 105 71
1.048498e+000 -8.390451e-001 -6.373693e+000 250 244 241
8.722133e-001 6.127208e-001 -6.414824e+000 252 249 243
3.911793e-001 3.365219e-002 -6.582061e+000 183 174 161
1.448641e-001 -3.901974e-002 -6.653273e+000 159 150 140
-3.478658e-001 -3.923320e-001 -6.462024e+000 208 215 206
-4.020130e-001 -4.109766e-001 -6.458798e+000 174 49 41
3.534856e-001 -8.611867e-001 -7.276710e+000 129 108 65
-8.097501e-001 -2.460063e-001 -6.263811e+000 106 26 24
-4.575712e-001 -4.327853e-001 -6.631565e+000 217 165 123
-2.747731e-001 2.160989e-002 -7.705598e+000 25 13 12
9.148544e-001 5.506717e-001 -6.322505e+000 172 30 34
8.851206e-001 3.897223e-001 -6.400267e+000 185 172 163
8.992943e-002 -4.908005e-001 -7.123452e+000 205 160 115
-7.982690e-001 -3.530782e-001 -6.336473e+000 189 81 61
-6.702193e-001 -3.499828e-001 -6.643772e+000 178 62 31
7.971853e-001 -9.323874e-001 -6.616080e+000 13 4 6
5.649838e-003 -4.838999e-001 -7.451257e+000 197 138 104
-4.951152e-001 -3.697863e-001 -6.481537e+000 220 164 119
-3.696411e-001 2.110907e-001 -7.805946e+000 29 15 15
5.710187e-001 7.232049e-002 -6.543817e+000 179 172 158
5.089707e-001 -1.386431e-001 -6.499583e+000 224 217 207
4.747272e-001 -6.775442e-001 -6.703472e+000 208 204 193
-2.603497e-001 -1.825075e-001 -6.440213e+000 156 54 34
-1.174614e-001 -9.523062e-002 -6.580771e+000 186 181 174
-3.220702e-001 -2.685667e-001 -6.455171e+000 187 78 57
-7.800643e-002 -3.601773e-001 -6.666681e+000 230 229 224
-2.710569e-001 -4.676606e-001 -6.524111e+000 209 210 205
5.539449e-003 -4.324498e-001 -6.788970e+000 193 192 187
-4.930173e-001 -1.061325e-001 -6.505082e+000 214 102 56
-2.146265e-001 -4.544463e-001 -6.701566e+000 103 95 85
-6.963718e-001 -3.283125e-001 -6.334451e+000 144 52 31
1.140887e-001 -4.987112e-001 -7.245983e+000 93 13 5
1.140887e-001 -4.987112e-001 -7.245983e+000 93 13 5
-6.476690e-001 -3.363383e-001 -6.704869e+000 168 69 38
-6.434797e-001 -3.354227e-001 -6.768050e+000 146 56 39
1.225024e+000 -8.676189e-001 -6.272705e+000 248 75 74
1.017921e+000 -6.058473e-001 -6.206509e+000 227 42 43
1.040043e+000 -1.082354e+000 -6.522440e+000 16 9 10
3.999259e-001 1.213789e+000 -6.895633e+000 204 56 54
-3.005602e-001 -3.516846e-001 -6.470631e+000 135 55 34
-4.422482e-001 -3.750786e-001 -6.422444e+000 38 31 46
-1.264302e-001 -4.181122e-001 -6.811197e+000 132 126 120
-6.964194e-001 -3.313693e-001 -6.350851e+000 206 159 129
-6.966386e-001 -3.311486e-001 -6.350667e+000 206 159 129
-5.535541e-001 -2.483242e-001 -6.461606e+000 180 60 31
-9.294139e-001 -2.708060e-001 -6.318696e+000 219 186 138
-9.107759e-001 -2.593720e-001 -6.360290e+000 137 68 61
-8.448157e-001 -3.705662e-001 -6.379763e+000 221 113 86
-5.809280e-001 -3.373142e-001 -6.646533e+000 190 128 94
-1.367925e-001 -3.268642e-001 -7.158785e+000 178 177 172
-7.736743e-001 -3.119001e-001 -6.798178e+000 170 85 47
1.041222e+000 -5.931806e-001 -6.291274e+000 206 192 179
9.021788e-001 -5.370321e-001 -6.405166e+000 202 196 185
7.445910e-001 -4.120650e-002 -6.415355e+000 193 187 179
7.565329e-001 -1.952071e-002 -6.425445e+000 193 187 179
7.191912e-001 -6.010566e-001 -6.613747e+000 195 191 182
3.232043e-001 3.411881e-002 -6.641300e+000 241 237 228
-2.705012e-001 -2.455409e-001 -6.498999e+000 213 94 62
-3.853794e-001 -1.828505e-001 -6.467237e+000 236 118 70
-3.105504e-001 -3.580876e-001 -6.483580e+000 208 208 204
-1.631424e-001 -4.333633e-001 -6.743175e+000 115 107 100
-8.273967e-002 -4.275132e-001 -6.798095e+000 166 163 158
5.455226e-001 -1.163894e+000 -7.112933e+000 17 6 10
-3.538019e-001 -3.681002e-001 -6.445105e+000 205 208 202
-2.148930e-001 -3.573850e-001 -6.582703e+000 226 226 224
3.598405e-001 -7.512035e-001 -7.084700e+000 176 34 45
-8.830212e-001 -1.930569e-001 -6.223468e+000 33 20 12
-3.362470e-001 -4.846500e-001 -6.809439e+000 108 99 90
1.477452e-001 -4.947178e-001 -7.254371e+000 188 148 108
7.863048e-003 -5.501840e-001 -7.433240e+000 199 154 110
-2.697967e-001 3.204594e-003 -7.690591e+000 31 18 14
9.278452e-001 -9.925097e-002 -6.331073e+000 205 200 194
7.592289e-001 -2.812352e-001 -6.438553e+000 223 216 207
5.938621e-001 7.919127e-002 -6.527356e+000 177 170 154
3.314693e-001 -8.799918e-001 -7.193146e+000 170 149 102
3.314693e-001 -8.799918e-001 -7.193146e+000 170 149 102
-7.341612e-002 -3.909470e-001 -7.026367e+000 57 39 35
-7.341612e-002 -3.909470e-001 -7.026367e+000 57 39 35
2.276040e-001 -4.846949e-001 -7.309938e+000 120 86 48
-4.252022e-002 -4.304154e-001 -7.072857e+000 82 39 32
1.901288e-001 -4.788219e-001 -7.305723e+000 82 7 11
1.901288e-001 -4.788219e-001 -7.305723e+000 82 7 11
-7.894975e-001 -3.632252e-001 -6.405259e+000 154 49 28
2.126557e-002 -4.924566e-001 -7.342007e+000 235 184 140
-9.372954e-001 -3.015634e-001 -6.345443e+000 29 22 21
-7.249764e-001 -3.013837e-001 -6.781795e+000 118 36 21
7.105149e-001 3.400520e-003 -6.453370e+000 195 187 178
6.334225e-001 -3.131852e-001 -6.571605e+000 236 233 228
4.845454e-001 1.054925e+000 -6.816421e+000 205 198 190
5.557731e-001 6.647655e-001 -6.852505e+000 225 220 214
3.833365e-001 9.658328e-001 -6.875213e+000 174 165 158
2.113490e-001 -2.760352e-002 -6.663560e+000 245 242 235
-5.285413e-001 -1.721803e-001 -6.456898e+000 231 120 77
-2.350198e-001 -5.253661e-001 -6.629419e+000 134 127 117
3.617415e-002 -4.001195e-001 -7.193539e+000 59 9 13
-2.912651e-002 -3.626349e-001 -7.244966e+000 133 73 55
1.018320e+000 -8.811245e-001 -6.409354e+000 23 8 8
7.629726e-001 -6.195813e-001 -6.529294e+000 192 186 174
4.187659e-001 9.032236e-001 -6.910077e+000 223 218 211
-3.553371e-001 -4.166771e-001 -6.447475e+000 207 206 204
-6.211660e-001 -3.249260e-001 -6.427183e+000 231 188 145
-9.578733e-001 -2.423606e-001 -6.271604e+000 223 198 142
-2.261736e-001 -2.221828e-001 -6.537776e+000 131 54 35
-2.261736e-001 -2.221828e-001 -6.537776e+000 131 54 35
-7.281589e-001 -4.337745e-001 -6.518087e+000 118 40 20
-5.994948e-001 -3.530589e-001 -6.801450e+000 138 22 26
-2.176865e-001 -1.047335e-001 -7.413572e+000 129 18 25
1.130508e-002 -4.236440e-001 -7.140253e+000 62 17 15
-4.193529e-001 -5.574111e-001 -6.737456e+000 82 12 12
1.007527e+000 -1.017833e+000 -6.510504e+000 221 52 57
-8.454037e-002 4.898513e-002 -6.511199e+000 222 219 214
-4.940889e-001 -3.621579e-001 -6.484949e+000 215 164 117
3.252600e-001 -1.138926e+000 -7.323074e+000 27 17 17
-1.360141e-001 -3.025221e-001 -6.934261e+000 24 9 3
-6.763673e-001 -3.810461e-001 -6.428604e+000 216 169 123
-9.538577e-001 -2.220408e-001 -6.388249e+000 35 23 23
-2.073588e-001 4.144970e-002 -7.457206e+000 147 32 36
3.218052e-001 -9.090382e-001 -7.219127e+000 124 106 60
-1.968188e-001 -2.510887e-001 -7.598164e+000 178 171 163
4.098976e-001 -1.120347e+000 -7.186775e+000 136 117 74
-5.264381e-001 -6.515809e-001 -6.008410e+000 38 30 27
5.444231e-001 -6.938312e-001 -6.875276e+000 211 207 197
-8.432130e-001 -3.724687e-001 -6.403961e+000 171 63 32
9.361911e-001 -1.011346e+000 -6.549810e+000 173 30 38
-9.144688e-001 -2.462874e-001 -6.309973e+000 220 200 142
-6.462842e-001 -2.627065e-001 -6.274782e+000 40 28 23
-4.897788e-001 -2.311226e-001 -6.472697e+000 240 117 70
1.280610e+000 -1.528965e-001 -6.052995e+000 35 20 18
1.153964e+000 -4.127014e-001 -6.091308e+000 246 239 187
6.865520e-001 1.143403e+000 -6.575900e+000 198 51 56
3.786643e-001 1.377255e+000 -6.880720e+000 37 21 15
-9.231392e-001 -3.631499e-001 -6.482940e+000 83 33 31
-9.652149e-001 3.919999e+000 -8.197052e+000 50 39 35
1.246883e+000 -4.320385e-001 -6.075984e+000 27 2 9
7.768758e-001 -9.263979e-001 -6.561788e+000 211 57 59
-2.367865e-001 -3.256973e-001 -6.914029e+000 65 48 41
7.478246e-001 8.301340e-001 -6.539353e+000 208 199 193
6.859249e-001 9.084992e-001 -6.609054e+000 215 208 204
7.886308e-001 6.818537e-001 -6.412220e+000 245 242 236
6.513126e-001 9.836179e-001 -6.611279e+000 203 41 47
-7.621771e-001 -3.379955e-001 -6.347227e+000 145 56 38
7.023964e-002 -5.147725e-001 -6.925647e+000 164 159 153
1.196320e+000 -8.401915e-001 -6.283427e+000 242 65 75
1.198534e+000 -8.366074e-001 -6.285937e+000 242 65 75
9.255631e-001 -7.305367e-001 -6.397882e+000 217 209 198
1.003069e+000 -1.599539e-001 -6.247744e+000 206 201 197
8.022930e-001 8.938149e-001 -6.345943e+000 195 40 44
1.039403e+000 -1.086272e+000 -6.502884e+000 210 104 85
2.236048e-001 1.423695e+000 -7.096694e+000 213 47 55
-8.419194e-001 -2.174939e-001 -6.256246e+000 219 199 145
-8.272974e-001 -2.464332e-001 -6.259487e+000 131 56 57
-5.297552e-001 -3.191729e-001 -6.495383e+000 171 85 48
-7.876260e-001 -3.545578e-001 -6.318063e+000 142 36 13
-6.474799e-001 -3.710716e-001 -6.446448e+000 219 166 130
5.853263e-002 -4.019230e-001 -7.234931e+000 55 0 2
-9.007745e-001 -3.587319e-001 -6.453134e+000 83 19 11
1.199552e+000 -8.776816e-001 -6.287467e+000 218 49 56
6.444732e-001 -5.060918e-001 -6.591965e+000 170 150 100
6.332851e-001 -4.601223e-001 -6.675543e+000 151 129 89
4.034615e-001 1.143776e+000 -6.864277e+000 190 195 191
-4.264315e-001 -3.850605e-001 -6.424376e+000 193 179 162
-3.279186e-001 -4.304490e-001 -6.488664e+000 219 218 216
-4.533592e-001 -3.871608e-001 -6.429383e+000 199 187 157
-4.533813e-001 -3.872590e-001 -6.429522e+000 199 187 157
-2.102198e-001 -4.618249e-001 -6.651212e+000 132 123 115
-8.933833e-002 -4.383306e-001 -6.838618e+000 162 157 154
3.745725e-001 -8.149017e-001 -7.171807e+000 255 249 200
-7.340714e-001 -3.293806e-001 -6.314079e+000 201 97 68
-6.515898e-001 -2.975424e-001 -6.357907e+000 199 156 122
-9.416332e-001 -1.890681e-001 -6.196992e+000 252 235 177
-5.877841e-001 -3.230664e-001 -6.527993e+000 187 122 94
-8.269250e-001 -3.724005e-001 -6.379739e+000 174 70 45
-7.666723e-001 -2.597688e-001 -6.834681e+000 161 82 46
-6.430019e-002 -3.857936e-001 -7.622627e+000 13 9 5
5.022607e-001 -1.127306e+000 -7.127556e+000 145 123 76
-7.595542e-001 -3.280119e-001 -6.317016e+000 206 100 59
1.160219e-001 -4.745394e-001 -7.292661e+000 194 148 108
-8.716375e-001 -3.613553e-001 -6.459632e+000 120 38 26
7.683027e-001 -3.975703e-001 -6.364584e+000 147 128 85
2.848945e-001 6.820310e-002 -6.617318e+000 203 196 186
-4.363280e-001 -4.181566e-001 -6.502756e+000 174 114 80
-4.363280e-001 -4.181566e-001 -6.502756e+000 174 114 80
-8.862026e-001 -2.593304e-001 -6.297734e+000 81 9 10
5.192876e-001 -1.357581e-003 -6.541544e+000 230 225 219
3.058518e-001 9.641079e-001 -6.979507e+000 225 223 216
4.273154e-001 -1.135622e+000 -7.217071e+000 152 131 84
7.852982e-001 -3.945189e-001 -6.408558e+000 147 130 84
9.773262e-001 -1.025536e+000 -6.531301e+000 223 59 70
5.369172e-001 -2.942919e-002 -6.489912e+000 195 185 173
7.402092e-001 2.971744e-001 -6.522053e+000 211 203 195
7.485948e-001 -8.634739e-001 -6.680923e+000 174 49 48
-4.042066e-001 -1.977370e-001 -6.435042e+000 227 104 67
9.577053e-001 1.505854e-001 -6.315418e+000 206 199 189
9.577053e-001 1.505854e-001 -6.315418e+000 206 199 189
2.604791e-001 -5.748579e-001 -6.768225e+000 200 196 193
-2.220467e-001 -4.085715e-001 -7.644730e+000 196 187 182
-2.220467e-001 -4.085715e-001 -7.644730e+000 196 187 182
7.419326e-001 -7.687785e-001 -6.671190e+000 123 18 25
6.164086e-001 -7.405586e-001 -6.610204e+000 234 229 223
6.320546e-001 2.431244e-001 -7.008141e+000 232 229 222
1.155417e+000 -6.848876e-001 -6.197135e+000 235 62 67
2.209321e-002 -4.746195e-001 -6.980386e+000 210 209 205
1.280809e+000 -1.211995e-001 -6.068126e+000 233 49 55
1.158914e+000 -6.897199e-001 -6.178436e+000 34 14 17
-9.242431e-001 -1.793515e-001 -6.186881e+000 36 23 24
7.629086e-001 -3.814459e-001 -6.397009e+000 142 126 77
-1.077536e-001 -1.830568e-001 -6.616243e+000 221 214 208
3.796017e-002 -5.245405e-001 -7.453769e+000 158 25 33
1.021926e+000 2.138745e-001 -6.246409e+000 202 195 189
-4.691122e+000 1.581905e+001 -1.352858e+001 143 140 147
2.026419e-001 -7.092976e-001 -7.386171e+000 199 39 45
1.280204e+000 -4.061304e-001 -6.060196e+000 224 210 165
1.219255e+000 -4.043521e-001 -6.060015e+000 86 71 36
1.198768e+000 -4.347560e-001 -6.064188e+000 98 35 26
1.224725e+000 -5.533318e-001 -6.139160e+000 28 6 8
9.752049e-001 6.103113e-001 -6.229135e+000 193 47 52
5.604915e-001 6.733790e-002 -6.546374e+000 178 172 160
1.376188e-002 1.130484e+000 -7.218902e+000 210 212 200
-2.515027e-001 -2.242784e-001 -6.409142e+000 187 85 56
-1.654381e-001 -7.986711e-002 -6.602700e+000 171 78 61
-4.271401e-001 -3.668300e-001 -6.422575e+000 184 167 133
-4.139138e-001 -3.900428e-001 -6.427990e+000 40 31 30
-6.945687e-001 -3.158588e-001 -6.296423e+000 152 50 28
-1.134554e-001 -4.108646e-001 -6.886416e+000 156 143 137
6.184037e-002 -3.881229e-001 -7.248384e+000 68 6 3
-9.033244e-001 -3.002205e-001 -6.353442e+000 116 45 47
-9.077523e-001 -3.165797e-001 -6.357643e+000 115 45 41
-9.115308e-001 -3.084329e-001 -6.376264e+000 116 44 42
-9.214243e-001 -2.792587e-001 -6.445145e+000 102 44 40
6.147487e-003 -4.647999e-001 -7.409379e+000 162 101 62
3.457699e-001 -1.070776e+000 -7.331949e+000 108 89 59
9.693232e-001 6.834524e-001 -6.274913e+000 206 55 52
1.071617e+000 -4.586913e-001 -6.193708e+000 179 21 28
2.894412e-002 1.364441e+000 -7.151194e+000 29 23 15
-1.252179e-001 -8.333413e-002 -6.607958e+000 199 180 178
-2.885159e-001 -1.990690e-001 -6.521309e+000 196 88 61
-5.555445e-001 -3.167880e-001 -6.490460e+000 171 62 39
-3.125153e-002 -4.498791e-001 -6.967636e+000 195 190 186
-4.467997e-001 -5.070861e-001 -6.642134e+000 209 155 113
-9.488210e-002 -4.186335e-001 -7.230754e+000 139 35 33
-9.067852e-001 -3.185886e-001 -6.447318e+000 65 17 15
-2.193881e-002 -4.188182e-001 -7.414449e+000 157 104 63
4.014058e-001 1.279729e+000 -6.811647e+000 211 45 53
3.670254e-001 -7.413734e-002 -6.692692e+000 210 203 190
3.670254e-001 -7.413734e-002 -6.692692e+000 210 203 190
5.352088e-001 -3.660798e-001 -6.652303e+000 223 216 209
-7.126540e-001 -3.251926e-001 -6.307726e+000 196 95 69
-8.950979e-001 -2.346309e-001 -6.290933e+000 209 181 133
-6.981438e-001 -3.247457e-001 -6.354036e+000 198 153 122
1.359246e-001 -4.788965e-001 -7.284298e+000 94 8 11
2.988393e-001 -9.555144e-001 -7.330887e+000 111 89 51
1.237172e+000 -8.502244e-001 -6.287521e+000 224 61 71
6.780107e-002 1.296329e+000 -7.079679e+000 214 53 57
3.144984e-002 1.295378e+000 -7.152502e+000 205 44 52
1.640645e-001 8.353898e-001 -7.017599e+000 196 192 183
1.470332e-002 1.097397e+000 -7.153262e+000 202 48 51
-6.272967e-001 -3.101089e-001 -6.378279e+000 206 162 123
-6.275442e-001 -3.075930e-001 -6.379835e+000 206 162 123
3.657038e-001 -1.096726e+000 -7.329592e+000 123 99 64
3.756610e-001 1.129236e+000 -6.886691e+000 213 209 202
6.840838e-001 -7.627913e-001 -6.568751e+000 187 171 152
6.923223e-002 1.150653e+000 -7.168007e+000 216 209 199
-4.001735e-001 -4.340999e-001 -6.527087e+000 205 48 47
-8.649877e-001 -3.578479e-001 -6.491535e+000 33 20 19
-2.788476e-001 5.033951e-002 -7.660058e+000 191 47 56
1.239204e+000 -4.908432e-001 -6.145430e+000 227 56 64
1.142534e+000 -5.958269e-001 -6.146869e+000 186 27 34
-6.814965e-001 -2.787325e-001 -6.352879e+000 144 57 39
-6.544500e-001 -3.144305e-001 -6.392293e+000 62 54 55
-6.690029e-001 -3.478158e-001 -6.711227e+000 136 38 19
1.098785e+000 4.987896e-002 -6.146791e+000 209 197 185
2.083892e-001 -4.467330e-002 -6.650303e+000 233 226 216
-7.238708e-001 -3.248908e-001 -6.358873e+000 151 62 46
4.000615e-004 -4.473035e-001 -7.193753e+000 216 165 122
-7.298749e-001 -2.325709e-001 -6.887902e+000 32 21 19
1.059769e+000 2.149949e-001 -6.228520e+000 224 207 200
1.037996e+000 -8.658120e-001 -6.425551e+000 23 7 10
1.276559e+000 -4.402170e-001 -6.090715e+000 18 9 10
-5.004111e-001 -3.416545e-001 -6.488792e+000 215 161 117
4.058590e-001 -1.183199e+000 -7.280351e+000 177 156 108
1.086982e+000 -4.580765e-001 -6.310092e+000 232 216 212
-2.023317e-001 -3.740823e-001 -7.008556e+000 192 187 183
-3.126829e-001 -2.014661e-001 -7.738765e+000 34 19 19
-1.723530e-001 -4.086306e-001 -6.840779e+000 39 15 15
-9.509024e-001 -3.085774e-001 -6.343394e+000 33 23 22
-4.218311e-001 -4.060951e-001 -6.433921e+000 182 164 139
6.069296e-002 -6.629186e-001 -7.474513e+000 34 15 17
-8.477830e-001 -1.757639e-001 -6.199907e+000 190 166 114
4.240265e-001 -1.126503e+000 -7.159737e+000 145 123 73
4.227355e-001 -1.123175e+000 -7.164284e+000 145 123 73
-8.289348e-001 -2.009191e-001 -6.235282e+000 43 30 17
-6.520505e-001 -3.318749e-001 -6.398382e+000 80 54 53
1.355629e-001 1.105543e+000 -7.001925e+000 194 183 174
2.722424e-001 9.050794e-001 -6.992936e+000 173 166 158
1.405921e+000 -1.085823e-001 -5.945620e+000 29 18 24
1.126121e+000 -4.405520e-001 -6.068257e+000 169 30 33
-1.296093e-001 -3.007705e-002 -6.583874e+000 95 36 27
-7.808568e-001 -1.882616e-001 -6.225757e+000 57 34 25
-4.156959e-001 -2.357402e-001 -6.407807e+000 202 76 34
-3.951688e-001 -2.305539e-001 -6.412137e+000 200 76 36
-4.334477e-001 -3.545654e-001 -6.409926e+000 22 13 19
-1.985845e-001 -4.182609e-001 -6.502149e+000 147 139 132
-9.088137e-001 -3.017522e-001 -6.315757e+000 188 130 124
-2.308653e-001 -4.519439e-001 -6.668576e+000 191 191 183
2.729769e-001 -5.444907e-001 -6.668298e+000 170 163 152
1.686807e-002 -5.819122e-001 -7.352189e+000 71 31 24
5.193776e-001 -1.172911e+000 -6.968854e+000 44 33 22
9.344344e-001 6.270124e-001 -6.332343e+000 181 23 40
2.233441e-002 1.250711e+000 -7.046143e+000 32 22 25
1.315930e+000 6.507458e-002 -6.046259e+000 37 21 21
-9.338810e-002 5.332442e-001 -7.084127e+000 203 195 184
-1.699727e-001 5.889245e-001 -7.368163e+000 213 209 200
9.954565e-002 -1.787100e-001 -6.735272e+000 207 203 199
-8.647458e-001 -1.734183e-001 -6.189302e+000 233 209 149
-7.962704e-001 -1.974659e-001 -6.230321e+000 221 199 141
-5.380724e-002 -2.981737e-001 -6.638778e+000 199 194 188
-8.313096e-001 -1.992345e-001 -6.241901e+000 52 34 13
-8.405770e-001 -2.141485e-001 -6.256747e+000 219 196 149
-8.352844e-001 -2.412086e-001 -6.258822e+000 136 76 66
-6.885974e-001 -2.520480e-001 -6.262158e+000 82 20 19
-7.020734e-001 -2.621194e-001 -6.257071e+000 145 71 60
-4.744146e-001 -2.321557e-001 -6.446452e+000 163 45 13
-9.756207e-001 -2.279916e-001 -6.259510e+000 59 42 27
-9.256074e-001 -2.648886e-001 -6.310263e+000 187 161 121
-7.491402e-001 -2.929491e-001 -6.274848e+000 230 116 85
-4.135888e-001 -3.487213e-001 -6.422694e+000 31 16 22
-4.264842e-001 -3.692749e-001 -6.414029e+000 160 127 107
-1.003655e-001 -3.656212e-001 -6.643363e+000 152 140 126
4.445973e-001 -5.419281e-001 -6.722056e+000 214 214 204
-1.889902e-002 -5.383496e-001 -7.377376e+000 243 196 158
7.635050e-001 -9.322672e-001 -6.586890e+000 44 30 27
4.476619e-003 1.213336e+000 -7.113466e+000 30 21 16
7.591642e-001 -3.320795e-001 -6.449697e+000 169 159 147
1.174598e+000 -6.498431e-001 -6.204939e+000 160 15 31
1.157745e+000 -6.679552e-001 -6.188355e+000 217 61 74
3.403342e-001 -3.161950e-001 -6.678083e+000 165 156 147
-4.829681e-001 -2.076731e-001 -6.419782e+000 154 46 18
-8.900242e-001 -2.424595e-001 -6.270541e+000 209 185 136
-8.256479e-001 -2.699243e-001 -6.267956e+000 115 32 28
-4.399736e-001 -3.807631e-001 -6.417303e+000 34 28 39
-4.401049e-001 -3.801412e-001 -6.418192e+000 34 28 39
-1.209433e-001 -3.818792e-001 -6.636177e+000 160 150 141
-1.336667e-001 -4.030749e-001 -6.632254e+000 214 213 206
-7.360485e-002 -4.267406e-001 -6.666671e+000 199 198 192
-7.480949e-002 -4.351758e-001 -6.630234e+000 199 198 192
-6.339147e-001 -3.857858e-001 -6.445384e+000 197 140 109
-1.931935e-001 -4.237855e-001 -6.573641e+000 164 157 151
1.950570e-001 -7.443260e-001 -7.328083e+000 43 30 31
9.595511e-001 6.394622e-001 -6.398825e+000 208 51 62
1.055481e+000 -2.172879e-001 -6.202740e+000 172 163 147
4.003723e-001 6.419028e-002 -6.600804e+000 166 156 146
2.515049e-001 5.509105e-003 -6.614140e+000 200 190 181
8.115132e-002 -1.996872e-001 -6.559425e+000 171 164 158
6.391912e-001 -3.900498e-001 -6.536133e+000 117 99 64
1.184114e+000 -6.458365e-001 -6.180292e+000 218 63 74
-4.840988e-001 -1.218297e-001 -6.432453e+000 130 42 20
6.286548e-001 -4.178080e-001 -6.538950e+000 162 140 99
-2.457866e-001 -2.210557e-001 -6.496554e+000 190 90 58
-8.022476e-001 -2.484672e-001 -6.241779e+000 70 8 9
-7.166810e-001 -3.272844e-001 -6.311001e+000 193 88 62
-7.151213e-001 -3.305884e-001 -6.298677e+000 193 88 62
-5.267788e-001 -3.027734e-001 -6.470364e+000 212 142 105
-3.758277e-001 -3.993132e-001 -6.377938e+000 157 30 40
-3.223939e-001 -4.130262e-001 -6.449479e+000 205 200 197
4.455850e-001 -5.225871e-001 -6.700430e+000 227 226 218
4.810023e-001 -5.389013e-001 -6.680427e+000 215 211 208
-3.057550e-001 -4.328742e-001 -6.480520e+000 188 187 184
-3.057550e-001 -4.328742e-001 -6.480520e+000 188 187 184
7.190604e-001 -7.594347e-001 -6.628833e+000 235 218 212
-4.027161e-001 -5.079624e-001 -6.592815e+000 235 71 64
3.867019e-001 -1.233904e+000 -7.197443e+000 255 253 204
1.287146e+000 4.889625e-002 -6.034365e+000 188 52 64
1.217443e+000 3.481195e-002 -6.026971e+000 156 19 28
1.265878e+000 -1.201428e-001 -6.073598e+000 218 58 75
1.247581e+000 -4.542050e-001 -6.137275e+000 19 7 8
2.541431e-001 4.662596e-002 -6.644836e+000 195 185 175
-9.676964e-002 -4.352750e-002 -6.583716e+000 179 162 154
2.689789e-001 -1.586069e-001 -6.625841e+000 242 241 236
6.225632e-001 -3.011876e-001 -6.557238e+000 235 232 223
7.341589e-001 -3.671448e-001 -6.418605e+000 118 94 56
1.154973e+000 -6.070197e-001 -6.180414e+000 149 11 19
1.233493e-001 -2.611482e-001 -6.651055e+000 184 175 166
1.173403e+000 -6.901880e-001 -6.206371e+000 14 4 7
-5.167265e-001 -2.197936e-001 -6.415263e+000 152 53 32
-2.967041e-001 -3.927962e-001 -6.471475e+000 142 132 120
-1.742746e-001 -4.106670e-001 -6.588030e+000 218 218 216
4.843253e-001 -5.721670e-001 -6.724563e+000 225 225 215
1.090781e+000 -8.320149e-001 -6.364862e+000 239 81 97
1.115788e+000 -8.566650e-001 -6.354665e+000 238 81 88
-7.544285e-001 -3.583685e-001 -6.367582e+000 240 195 153
-6.570662e-001 -3.795507e-001 -6.400627e+000 179 114 73
-4.229212e-001 -4.348330e-001 -6.496614e+000 252 187 150
-4.229212e-001 -4.348330e-001 -6.496614e+000 252 187 150
-2.810489e-001 -4.187847e-001 -6.492040e+000 211 210 207
-1.660072e-001 -4.828268e-001 -7.473018e+000 41 30 28
6.969226e-001 7.088817e-001 -6.506777e+000 163 146 138
6.908474e-001 6.585232e-001 -6.494518e+000 218 209 202
5.065992e-001 5.636319e-001 -6.726179e+000 178 169 160
5.065992e-001 5.636319e-001 -6.726179e+000 178 169 160
-7.682298e-002 5.664580e-001 -7.092622e+000 170 162 151
-2.138744e-001 7.208543e-001 -7.377801e+000 173 163 153
7.396727e-001 -4.048208e-002 -6.398451e+000 177 167 156
5.820776e-001 -7.876109e-002 -6.462853e+000 162 155 148
8.601810e-001 -2.059915e-001 -6.334522e+000 183 176 168
1.212860e+000 -4.512899e-001 -6.120091e+000 217 47 56
1.085207e+000 -5.221997e-001 -6.285953e+000 199 180 173
2.372929e-001 -1.874274e-001 -6.708058e+000 185 178 170
4.669804e-001 -3.309859e-001 -6.630936e+000 210 201 192
-6.513125e-001 -3.214930e-001 -6.382875e+000 64 51 56
-5.487305e-001 -3.335969e-001 -6.473097e+000 177 67 40
-4.536996e-001 -3.676675e-001 -6.426050e+000 141 132 132
1.726359e-001 -4.323766e-001 -6.671822e+000 70 54 24
1.235615e+000 -8.579124e-001 -6.311498e+000 230 71 79
-4.475169e-001 -4.160339e-001 -6.468822e+000 251 204 157
-3.401050e-001 -5.092037e-001 -6.566175e+000 192 191 187
4.903489e-001 -7.109822e-001 -6.803009e+000 254 253 248
1.204773e+000 2.279490e-001 -6.070776e+000 207 48 53
2.894904e-001 9.156430e-001 -6.926762e+000 207 203 194
6.882567e-001 6.129298e-001 -6.545010e+000 186 177 168
5.026741e-001 6.612049e-001 -6.720607e+000 219 215 206
6.608817e-001 5.924571e-001 -6.626369e+000 183 176 167
5.564476e-001 5.781528e-001 -6.708200e+000 208 204 195
-1.541616e-001 8.578485e-001 -7.174273e+000 195 41 52
-3.754257e-001 8.735079e-001 -7.488755e+000 206 46 49
7.236526e-001 1.217330e-002 -6.448438e+000 198 188 178
1.034792e+000 -3.000872e-001 -6.189807e+000 141 122 80
5.056312e-001 9.433968e-003 -6.537769e+000 207 200 192
2.125421e-001 1.413912e-002 -6.642336e+000 157 144 135
6.275836e-001 -2.301739e-001 -6.533612e+000 209 206 197
-1.936596e-001 2.515206e-002 -6.654056e+000 82 28 24
-7.594511e-002 -2.969763e-001 -6.661326e+000 219 216 207
5.164697e-001 -5.844617e-001 -6.670975e+000 253 250 241
1.056462e+000 -8.833857e-001 -6.451012e+000 27 13 13
-7.964946e-001 -3.669554e-001 -6.341594e+000 170 58 38
5.578954e-002 1.230506e+000 -7.044756e+000 191 36 42
3.062795e-001 8.078410e-001 -6.855130e+000 181 172 165
9.861578e-001 2.305097e-001 -6.268800e+000 164 154 143
-1.567549e-002 1.001860e+000 -7.114288e+000 189 179 170
-1.117703e-001 8.925122e-001 -7.120727e+000 203 194 185
4.728651e-001 5.567194e-002 -6.564313e+000 163 154 139
7.562345e-001 -9.835888e-002 -6.365203e+000 225 220 215
3.796721e-001 2.560466e-002 -6.585743e+000 168 160 147
3.461859e-001 -2.891276e-002 -6.579492e+000 234 231 225
9.347146e-001 -3.664456e-001 -6.191725e+000 170 148 101
2.933858e-001 -5.989400e-002 -6.615738e+000 180 172 161
6.335590e-001 -4.499642e-001 -6.529025e+000 159 138 94
-7.703672e-001 -1.351052e-001 -6.322459e+000 145 66 42
8.078015e-001 -5.680138e-001 -6.495743e+000 219 210 201
-4.368031e-001 -2.604568e-001 -6.483001e+000 67 9 9
-2.542443e-001 -2.885435e-001 -6.560153e+000 126 107 92
-5.067688e-001 -3.513176e-001 -6.493365e+000 246 194 148
-6.450566e-001 -4.015339e-001 -6.634347e+000 41 25 25
-4.224567e-001 -4.569552e-001 -6.608720e+000 203 58 44
7.092921e-001 -7.910579e-001 -6.654885e+000 168 18 30
-3.248865e-003 -5.353196e-001 -7.290273e+000 240 199 147
2.758194e-001 -8.638077e-001 -7.198479e+000 157 134 90
1.001233e+000 3.096731e-001 -6.248302e+000 219 214 208
1.361733e+000 -1.105314e-001 -5.989479e+000 38 28 33
1.416199e+000 -1.424696e-001 -5.980383e+000 164 144 93
8.205379e-001 -9.583773e-002 -6.343931e+000 161 150 135
1.077620e+000 -4.748785e-001 -6.269769e+000 237 225 221
1.044393e+000 -5.625238e-001 -6.330111e+000 220 211 202
4.941968e-001 -3.662023e-001 -6.691317e+000 114 102 81
4.957919e-001 -3.631504e-001 -6.702203e+000 114 102 81
4.481995e-001 -4.352770e-001 -6.707893e+000 255 255 218
1.202897e+000 -8.374594e-001 -6.308815e+000 240 74 86
-8.462021e-001 -2.492521e-001 -6.278274e+000 106 40 38
2.558507e-001 -5.037068e-001 -6.657892e+000 64 47 29
-5.578942e-001 -4.642060e-001 -6.735690e+000 50 23 28
-4.940489e-001 -4.489004e-001 -6.665971e+000 255 213 163
-2.119200e-001 -4.708854e-001 -7.433816e+000 238 237 229
3.223523e-003 -6.070946e-001 -7.406111e+000 45 30 30
8.770652e-002 -6.601482e-001 -7.302017e+000 230 60 69
1.203947e+000 2.010494e-001 -6.080254e+000 212 48 55
3.644522e-001 7.039402e-001 -6.794210e+000 214 207 197
9.938930e-001 -4.181367e-001 -6.243666e+000 145 127 82
