ply
format ascii 1.0
element face 0
property list uchar int vertex_indices
element vertex 870
property float x
property float y
property float z
property uchar diffuse_red
property uchar diffuse_green
property uchar diffuse_blue
end_header
1.103694e+000 4.227637e-001 -6.194664e+000 75 69 66
1.074089e+000 3.943092e-001 -6.162127e+000 239 89 101
8.652747e-001 -1.456084e-001 -5.963089e+000 205 186 130
1.189320e+000 8.897735e-002 -6.068527e+000 226 85 101
1.202581e+000 1.601260e-001 -6.028670e+000 80 71 72
1.202581e+000 1.601260e-001 -6.028670e+000 80 71 72
1.086563e+000 -3.867274e-001 -6.138407e+000 169 147 98
2.445026e-002 1.115443e+000 -7.177683e+000 210 201 197
-1.550037e-001 6.175662e-001 -7.441704e+000 168 157 144
3.550728e-001 1.222471e+000 -6.905183e+000 222 62 70
3.550728e-001 1.222471e+000 -6.905183e+000 222 62 70
-8.698657e-001 -2.387979e-001 -6.423895e+000 33 9 12
-1.724717e-001 7.061925e-002 -6.700343e+000 131 119 108
3.173501e-001 3.302188e-001 -6.770623e+000 149 135 124
3.173501e-001 3.302188e-001 -6.770623e+000 149 135 124
-8.753532e-001 -1.520381e-001 -6.231201e+000 117 93 57
-8.480492e-001 -1.889658e-001 -6.283860e+000 55 27 11
6.365238e-001 6.322090e-001 -6.636584e+000 209 204 190
-7.598396e-001 -1.666718e-001 -6.261800e+000 187 159 114
-2.524586e-001 -1.649216e-001 -6.517141e+000 238 123 103
-2.524586e-001 -1.649216e-001 -6.517141e+000 238 123 103
-9.079012e-002 -2.617840e-001 -6.682694e+000 243 236 228
-8.199823e-002 -1.768628e-001 -6.637925e+000 226 221 216
-3.123172e-002 -4.019086e-001 -6.742747e+000 248 241 231
-4.144718e-002 -2.705983e-001 -6.666964e+000 71 53 29
8.194374e-001 7.302831e-001 -6.261343e+000 195 43 55
9.701371e-001 5.305455e-001 -6.444850e+000 181 35 45
9.692179e-001 5.346573e-001 -6.228594e+000 17 7 18
6.332037e-001 -6.629139e-001 -6.609461e+000 177 159 139
7.168093e-001 -3.143002e-001 -6.488827e+000 158 147 129
1.014984e+000 2.360291e-001 -6.244917e+000 232 68 73
1.059847e+000 -5.153300e-001 -6.140025e+000 180 33 44
1.365857e+000 6.100826e-001 -5.823932e+000 71 62 63
-7.795144e-002 1.202587e+000 -7.338633e+000 208 70 75
-1.699888e-001 3.839554e-001 -7.382047e+000 198 190 178
-1.223729e-001 4.695740e-001 -7.266137e+000 177 165 153
-1.794683e-001 -1.030773e-001 -7.318807e+000 194 188 174
-1.493617e-001 -2.098314e-002 -6.650487e+000 145 111 102
2.830921e-001 -1.539899e-001 -6.673174e+000 224 218 206
4.677610e-001 -3.110620e-001 -6.692481e+000 98 81 61
5.949342e-001 -2.783036e-001 -6.598927e+000 253 248 240
5.949342e-001 -2.783036e-001 -6.598927e+000 253 248 240
6.654624e-001 -4.465712e-001 -6.649862e+000 202 196 174
1.132751e+000 3.467726e-002 -6.065083e+000 181 47 54
1.207698e+000 4.867440e-002 -6.076600e+000 224 90 94
-1.664656e-001 2.911536e-001 -7.487727e+000 154 140 129
-1.327861e-001 4.201632e-001 -7.413250e+000 218 211 197
-6.512309e-002 7.045493e-001 -7.183542e+000 133 119 110
3.815039e-001 1.266260e+000 -6.835357e+000 226 64 74
-1.804586e-001 -1.347785e-001 -7.500748e+000 176 166 154
-5.398289e-001 -2.266636e-001 -6.492995e+000 138 43 34
-8.043372e-001 -1.626330e-001 -6.230396e+000 154 114 87
-8.043372e-001 -1.626330e-001 -6.230396e+000 154 114 87
-5.078163e-001 -3.040021e-001 -6.463833e+000 45 35 34
-2.804289e-002 -2.628773e-001 -6.694691e+000 250 250 243
9.361174e-001 5.299819e-001 -6.213897e+000 243 81 94
1.079785e+000 2.062642e-001 -6.181087e+000 203 52 57
1.051411e+000 -3.875407e-001 -6.202053e+000 204 181 131
3.080224e-002 1.287322e+000 -7.167729e+000 190 42 46
-1.108316e-001 3.422878e-001 -7.427263e+000 145 133 121
-1.108316e-001 3.422878e-001 -7.427263e+000 145 133 121
-1.352492e-001 3.263803e-001 -7.251862e+000 127 115 103
3.978274e-001 5.716449e-001 -7.166275e+000 205 197 186
-2.966630e-001 -7.232011e-003 -6.654986e+000 53 11 13
-1.555298e-001 -1.318456e-001 -6.614215e+000 209 194 183
-1.555298e-001 -1.318456e-001 -6.614215e+000 209 194 183
-2.010314e-001 -1.900208e-001 -6.544323e+000 102 25 19
5.426964e-001 -4.007690e-001 -6.605020e+000 132 110 69
6.542421e-001 -6.410511e-001 -6.574744e+000 229 217 203
8.326366e-001 -7.440130e-001 -6.477847e+000 255 254 249
1.072343e+000 -1.989964e-001 -6.137978e+000 196 171 115
-4.958763e-001 5.162831e-001 -7.839197e+000 43 31 31
2.429641e-002 1.294089e+000 -7.150628e+000 192 43 49
-1.172211e-001 9.981436e-001 -7.237356e+000 139 121 111
-1.123983e-001 9.865526e-001 -7.253226e+000 139 121 111
-1.533800e-001 5.315401e-001 -7.423638e+000 213 205 194
-8.600683e-002 6.065192e-001 -7.223681e+000 139 125 114
-9.406811e-002 1.177404e-001 -6.767557e+000 126 109 99
6.838261e-001 9.763734e-001 -6.505732e+000 215 63 71
-3.496075e-001 -1.297167e-001 -6.442539e+000 134 30 21
-4.245227e-003 -2.148023e-001 -6.599629e+000 62 39 29
1.058479e+000 2.470545e-001 -6.003668e+000 221 67 75
1.145006e+000 1.626905e-001 -6.083074e+000 221 67 75
-2.097170e-001 1.890946e-001 -7.323841e+000 76 4 11
-1.605566e-001 2.718483e-001 -7.227428e+000 181 169 157
-1.186417e-001 2.041456e-001 -7.069938e+000 120 106 97
-8.042750e-001 -1.206195e-001 -6.254395e+000 34 11 6
-8.042750e-001 -1.206195e-001 -6.254395e+000 34 11 6
8.565281e-001 1.103121e-001 -6.434056e+000 224 217 209
6.160135e-001 -6.996393e-001 -6.540346e+000 116 106 111
6.189602e-001 -7.071568e-001 -6.545018e+000 116 106 111
7.260792e-001 -4.294607e-001 -6.435173e+000 254 254 203
8.963260e-001 -2.700876e-001 -6.313843e+000 84 67 47
1.149537e+000 -4.784601e-002 -6.098910e+000 249 94 102
-4.342613e-001 5.643860e-001 -7.784549e+000 189 179 167
-1.789102e-002 1.211781e+000 -7.257310e+000 175 38 46
4.760267e-002 -1.573942e-001 -6.631719e+000 231 223 220
5.305831e-001 -5.048645e-001 -6.614416e+000 145 125 91
1.154713e+000 1.623324e-001 -6.135749e+000 228 73 81
9.865387e-001 -5.720877e-001 -6.275141e+000 166 35 40
-1.651212e-001 9.302463e-001 -7.397524e+000 167 153 140
-8.457100e-002 8.701728e-001 -7.261293e+000 218 214 205
-4.652893e-001 -7.610677e-002 -6.540750e+000 125 32 14
4.133937e-001 -5.471812e-001 -6.704216e+000 228 224 210
8.409621e-001 -1.318498e-001 -6.321872e+000 238 233 227
-5.872407e-002 -2.061579e-001 -6.689274e+000 241 238 233
8.869900e-001 5.093825e-001 -6.312153e+000 148 26 33
-2.808602e-001 -6.391954e-001 -6.831357e+000 161 25 25
4.275141e-001 2.342403e-001 -6.821534e+000 122 109 93
1.063319e+000 1.195021e-001 -6.006649e+000 193 56 64
-2.642993e-001 -1.291763e-001 -6.862361e+000 56 14 15
-7.184327e-002 1.064589e+000 -6.364329e+000 209 200 194
-4.664296e+000 -7.783582e+000 -1.545280e+001 129 128 134
-9.133763e+000 -9.789242e+000 -2.229879e+001 110 99 97
5.675567e-002 1.300341e+000 -7.174729e+000 78 8 14
-1.108042e-001 5.566931e-001 -7.379139e+000 155 145 133
-2.109685e-001 1.804733e-002 -7.613185e+000 87 7 6
-1.971716e-001 -1.050305e-002 -7.653561e+000 87 7 6
-2.237012e-001 -2.025165e-001 -7.564246e+000 211 203 192
-1.014085e-001 7.390341e-002 -6.762939e+000 152 136 128
-2.480400e-001 -5.051022e-002 -6.641609e+000 85 19 7
-4.696271e-001 -2.061364e-001 -6.466911e+000 147 20 3
8.372870e-001 7.982368e-001 -6.372055e+000 221 83 87
4.657821e-001 -5.977226e-001 -6.754744e+000 227 223 210
4.596554e-001 -5.876066e-001 -6.745004e+000 227 223 210
9.830652e-001 3.126553e-001 -6.273604e+000 250 87 97
-2.428360e-001 8.457385e-002 -6.756865e+000 92 43 39
-1.208584e+000 -5.297322e+000 -9.875170e+000 14 10 13
9.321812e-001 6.037563e-001 -6.325209e+000 214 65 75
1.225061e+000 3.136406e-001 -6.036096e+000 92 85 85
9.232016e-001 -6.121108e-001 -6.257466e+000 250 105 111
-3.217446e-001 7.787811e-001 -7.613277e+000 205 189 180
-2.010637e-001 1.037946e+000 -7.512512e+000 175 28 34
-1.685132e+000 -3.688054e+000 -1.025595e+001 49 45 46
-1.702339e+000 -3.993998e+000 -1.033333e+001 59 53 57
6.662914e-002 1.246989e-002 -6.741499e+000 137 120 112
1.552744e-001 8.749788e-002 -6.731135e+000 200 190 178
3.537380e-001 1.295912e+000 -6.916185e+000 16 2 8
-1.895637e-001 2.380637e-001 -7.491255e+000 206 194 178
-3.136252e-002 3.309071e-001 -6.779656e+000 118 104 93
-2.411285e-001 -1.745697e-002 -6.667960e+000 73 18 22
1.053932e+000 5.138454e-001 -6.220519e+000 67 57 58
-4.820920e-003 1.126487e+000 -7.187222e+000 187 46 45
-1.390810e+000 -5.183836e+000 -9.893882e+000 89 76 67
7.287098e-001 7.859443e-001 -6.536219e+000 207 53 61
6.039173e-001 -3.561182e-001 -6.633651e+000 134 121 104
-3.109117e-001 2.622594e-001 -7.824643e+000 30 36 25
-1.360668e-001 3.228011e-001 -7.252136e+000 127 115 103
-1.224341e+000 -1.163270e+001 -1.017521e+001 57 59 72
-8.278631e-003 1.116591e+000 -7.232707e+000 200 50 59
6.799575e-001 8.527615e-001 -6.584910e+000 220 61 68
7.444488e-001 -7.672796e-001 -6.551028e+000 252 246 237
8.379122e-001 -8.688804e-001 -6.525185e+000 201 64 68
9.329322e-001 -7.449315e-001 -6.399600e+000 253 247 241
1.207861e+000 -1.129247e-001 -6.059601e+000 16 10 14
-2.147846e-001 -8.689535e-002 -7.557633e+000 213 207 195
7.505504e-001 5.446310e-001 -6.420947e+000 254 254 249
-2.311288e-001 -4.762594e-003 -7.617175e+000 171 110 93
-1.569525e-001 -4.745561e-002 -7.478639e+000 197 185 167
1.210572e-001 6.393641e-001 -7.083738e+000 193 185 174
1.296510e-001 6.456600e-001 -7.062225e+000 197 187 175
1.793819e-001 7.833839e-001 -6.944059e+000 181 174 164
-6.849998e-001 -1.475225e-001 -6.863794e+000 122 35 18
-1.434673e+000 -4.832928e+000 -1.006349e+001 29 23 26
-6.535743e-001 -1.724325e-001 -6.855706e+000 99 21 14
-9.767001e-002 1.696290e-001 -6.983941e+000 114 98 85
-1.794926e-002 8.335022e-002 -6.777655e+000 170 157 143
-4.533650e-001 -9.951304e-002 -6.487723e+000 126 31 9
-6.799495e-002 4.197401e-002 -6.672230e+000 135 118 108
3.148310e-001 2.016430e-001 -6.809543e+000 155 141 128
4.757574e-001 -5.987722e-001 -6.732088e+000 252 249 235
4.757574e-001 -5.987722e-001 -6.732088e+000 252 249 235
1.192880e+000 1.585373e-001 -6.098212e+000 32 16 19
1.059286e+000 -5.817618e-001 -6.192663e+000 163 17 27
-1.897108e+000 -3.446165e+000 -1.048198e+001 47 42 46
-1.807710e+000 -3.676647e+000 -1.039059e+001 51 46 50
-1.702133e+000 -3.956313e+000 -1.029595e+001 63 59 60
2.011446e-001 9.824951e-001 -7.090484e+000 208 201 191
1.143624e-001 6.655812e-001 -7.079349e+000 235 226 217
-2.093010e-001 1.387724e-001 -6.892044e+000 128 111 101
-1.363108e+000 -4.934865e+000 -1.002727e+001 69 61 65
-1.212406e+000 -5.259025e+000 -9.940055e+000 43 33 36
8.548125e-003 8.235131e-002 -6.764485e+000 126 112 99
8.939654e-002 -2.100756e-001 -6.677531e+000 248 244 234
5.338516e-001 1.911342e-001 -6.733907e+000 135 122 105
4.502899e-001 1.078593e-001 -6.614450e+000 191 177 164
4.155088e-001 -6.174399e-003 -6.593105e+000 248 241 231
4.155088e-001 -6.174399e-003 -6.593105e+000 248 241 231
6.594964e-001 -6.636296e-001 -6.622214e+000 231 218 201
1.090246e+000 4.002320e-001 -6.173585e+000 26 10 15
4.512958e-001 -3.749864e+000 -7.567590e+000 179 181 193
1.155051e+000 7.184800e-002 -6.032882e+000 99 87 84
4.809125e-002 1.319772e+000 -7.113368e+000 70 10 20
-9.732935e-002 6.420874e-001 -7.270536e+000 167 157 146
-6.050034e-002 7.096029e-001 -7.220551e+000 169 157 145
-1.659885e+000 -4.062592e+000 -1.023602e+001 55 49 52
-1.662800e+000 -4.024053e+000 -1.035992e+001 31 25 27
-1.584631e-001 2.018898e-001 -7.122299e+000 155 141 128
-5.331844e-001 -2.651807e-002 -6.685418e+000 101 41 29
-1.281135e+000 -5.299746e+000 -1.009428e+001 78 69 74
-1.326685e+000 -5.328256e+000 -9.903599e+000 124 114 116
-5.391948e-001 -8.189070e-002 -6.480489e+000 114 38 26
5.733377e-001 1.578836e-001 -6.635279e+000 146 133 117
7.833222e-001 8.387523e-001 -6.372042e+000 73 4 9
7.650638e-001 7.864988e-001 -6.366442e+000 250 96 104
7.336750e-001 -1.865332e+000 -6.947675e+000 167 173 175
3.437103e-001 1.138191e+000 -6.924693e+000 211 55 54
4.888115e-001 1.040878e+000 -6.748206e+000 237 75 85
-4.982923e-001 -9.534474e-002 -6.497124e+000 132 42 21
-4.054656e-001 -2.322134e-001 -6.457418e+000 163 22 24
7.663827e-001 1.091562e-001 -6.651449e+000 186 174 162
9.982870e-001 2.455883e-001 -6.263711e+000 253 224 210
9.977729e-001 5.042893e-001 -6.186306e+000 249 97 103
1.037080e+000 -1.209736e-003 -6.157880e+000 236 87 87
1.062440e+000 -3.887746e-001 -6.121236e+000 248 231 179
-3.627603e-001 7.191734e-001 -7.675598e+000 193 183 173
-7.050197e-002 7.137113e-001 -7.379449e+000 200 191 176
2.923610e-001 8.721942e-001 -6.999365e+000 199 191 182
2.923143e-001 8.720884e-001 -6.999392e+000 199 191 182
-3.035173e-001 -1.555072e-001 -6.491613e+000 128 37 22
1.053907e+000 2.730367e-001 -6.250202e+000 241 84 93
5.846904e-002 1.302265e+000 -7.235644e+000 18 8 10
-4.142241e-002 7.456027e-001 -7.338332e+000 171 161 149
-4.142241e-002 7.456027e-001 -7.338332e+000 171 161 149
1.083309e+000 1.623181e-001 -6.163756e+000 228 73 81
8.253163e-002 1.162561e+000 -7.138314e+000 214 48 58
4.366230e-001 1.217167e+000 -6.794340e+000 213 51 62
4.428061e-001 9.721934e-001 -6.808119e+000 218 208 199
4.379298e-001 9.767980e-001 -6.801062e+000 218 208 199
6.218467e-001 9.301131e-001 -6.637483e+000 220 58 66
3.972290e-001 1.992865e-001 -6.664942e+000 152 139 122
7.522840e-001 9.050119e-001 -6.479738e+000 205 60 66
4.968653e-001 -2.588446e-001 -6.686357e+000 254 254 246
-9.640435e-001 -1.137585e+001 -9.909712e+000 45 43 56
1.284814e+000 -1.624090e-001 -5.967615e+000 255 245 192
-1.747643e-001 3.351346e-001 -7.326652e+000 197 184 173
-2.193035e-001 -2.320320e-001 -7.648191e+000 207 197 185
4.002533e-001 1.211557e-001 -6.618795e+000 212 203 190
-1.529982e-001 1.082777e+000 -7.480971e+000 214 63 69
9.792527e-001 4.798264e-001 -6.215901e+000 247 81 93
-3.496592e-001 2.906042e-001 -7.735746e+000 40 28 28
1.238075e+000 -2.289331e-001 -5.997040e+000 254 251 196
-2.843222e-001 5.834594e-001 -7.604428e+000 225 218 207
2.472057e-001 6.961358e-001 -6.959761e+000 197 189 180
-9.374593e-001 -6.781998e-003 -6.172352e+000 44 19 4
2.848605e-002 1.274760e+000 -7.238159e+000 130 23 33
-8.385940e-001 3.351153e-002 -6.088720e+000 210 134 120
1.411608e-004 1.113442e+000 -7.467643e+000 150 26 34
-8.288438e-001 6.805108e-002 -6.120034e+000 60 25 15
3.732928e-002 1.135438e+000 -7.205952e+000 204 45 60
4.419352e-001 1.222285e+000 -6.914606e+000 220 69 78
2.872763e-001 1.269375e+000 -5.855622e+000 63 51 51
-3.645463e-002 5.312694e-001 -7.157289e+000 190 180 168
2.496585e-001 7.109119e-001 -7.042044e+000 190 181 172
-1.709671e-001 1.880662e-001 -7.058225e+000 114 97 88
-1.690030e-001 1.898901e-001 -7.010357e+000 122 106 93
-9.037376e-002 2.335886e-001 -6.892270e+000 111 95 82
6.842913e-002 2.003232e-001 -6.888122e+000 131 114 101
-4.314692e-001 -3.703838e-002 -6.534253e+000 151 67 46
-4.314692e-001 -3.703838e-002 -6.534253e+000 151 67 46
-2.717273e-002 1.215415e-001 -6.756427e+000 132 117 104
2.261435e-001 2.330008e-001 -6.773260e+000 167 151 135
6.301892e-001 6.624098e-001 -6.629830e+000 205 197 184
4.887927e-002 1.297978e+000 -7.140658e+000 179 35 45
-1.404535e+000 -4.812735e+000 -1.004903e+001 67 58 61
2.906481e-001 9.886895e-001 -7.008485e+000 207 200 192
2.906481e-001 9.886895e-001 -7.008485e+000 207 200 192
-6.413594e-001 -8.405761e-002 -6.775332e+000 75 16 8
8.614235e-001 5.205375e-001 -6.374795e+000 198 52 59
3.739265e-001 1.124643e+000 -6.889428e+000 209 48 56
-5.649926e-002 2.524673e-001 -6.985599e+000 120 107 91
3.134689e-001 2.906413e-001 -6.818035e+000 123 107 92
1.089922e+000 1.732387e-001 -6.168853e+000 235 81 89
-3.872563e-001 -2.135780e-001 -6.478861e+000 239 136 95
2.589490e-002 1.066091e+000 -7.177432e+000 214 205 198
-1.239948e+000 -5.188892e+000 -9.962732e+000 48 39 42
4.184710e-001 1.247539e+000 -6.815689e+000 175 38 44
-4.467631e-001 -7.928137e-003 -6.557788e+000 139 64 45
-1.033443e-001 1.557716e-001 -6.787899e+000 119 103 90
-5.011714e-001 -8.159042e-002 -6.483045e+000 114 28 13
-4.239981e-001 -3.159920e-003 -6.560682e+000 107 31 15
-2.773294e-001 -6.771085e-003 -6.676277e+000 48 13 12
-1.231795e-001 1.118457e-001 -6.727282e+000 150 133 125
-3.504022e-001 -8.930207e-002 -6.480830e+000 114 27 12
1.487288e-001 1.235851e-001 -6.751075e+000 211 199 187
-4.504437e-001 -3.282364e-001 -6.444202e+000 87 89 104
3.577400e-001 2.661204e-001 -6.733705e+000 133 117 101
6.466556e-001 1.060502e+000 -6.601495e+000 213 61 71
2.927923e-001 -3.180050e+000 -7.727397e+000 151 154 166
3.709758e-001 -3.463713e+000 -7.703016e+000 221 230 238
4.990191e-001 -2.673062e+000 -7.433687e+000 189 199 198
1.063269e+000 1.421317e-001 -6.177530e+000 206 68 72
1.102341e+000 -2.895679e+000 -6.686756e+000 141 142 136
-3.365454e-001 9.864994e-001 -7.573732e+000 168 36 45
-2.059829e-001 8.870720e-001 -7.529337e+000 219 62 70
-1.439463e+000 -4.678196e+000 -1.005308e+001 70 65 69
-1.376157e-001 2.466741e-002 -7.481140e+000 146 93 82
-1.505477e-001 -2.810406e-002 -7.445667e+000 212 204 191
-7.287937e-002 4.700483e-001 -7.197622e+000 183 171 159
-5.210926e-001 -5.220812e-002 -6.507879e+000 102 20 8
-4.391184e-001 -2.406227e-002 -6.547748e+000 112 30 15
-1.067536e-002 8.682021e-002 -6.732004e+000 172 164 151
-8.129453e-001 1.869586e-002 -6.098201e+000 197 128 114
2.159328e-002 7.509759e-002 -6.713810e+000 137 125 113
3.389625e-001 2.442359e-001 -6.730580e+000 154 140 120
2.809020e-001 -5.417113e-001 -6.681998e+000 113 111 104
4.692243e-001 9.424376e-002 -6.613439e+000 143 130 114
5.096561e-001 -2.639729e+000 -7.399929e+000 133 142 141
8.305930e-001 1.779445e-001 -6.387611e+000 245 238 228
1.060037e+000 -8.140626e-002 -6.198537e+000 223 82 86
-2.501852e-001 1.008203e+000 -7.550982e+000 165 29 37
-1.501977e-001 6.579661e-001 -7.460579e+000 173 164 149
-1.479273e+000 -4.523476e+000 -1.005468e+001 66 61 65
-7.203444e-002 6.258464e-001 -7.365037e+000 182 170 156
-1.238376e+000 -5.210578e+000 -9.872498e+000 90 84 88
3.668638e-001 1.165565e+000 -6.911872e+000 230 75 82
-7.397711e-001 -4.841205e+000 -9.257428e+000 84 76 77
-2.623708e-001 1.165641e-002 -6.670641e+000 77 42 36
3.396159e-001 3.584399e-001 -6.859059e+000 172 160 146
-4.977986e-001 -2.110347e-001 -6.446345e+000 198 106 65
-3.753046e-001 -9.131296e-002 -6.523626e+000 88 25 16
1.309782e-001 1.885350e-001 -6.769439e+000 166 150 137
5.796018e-001 1.496519e-001 -6.639895e+000 142 129 113
5.525394e-001 -1.810179e+000 -7.239898e+000 112 118 115
7.458112e-001 2.081375e-001 -6.585981e+000 208 200 185
7.814728e-001 7.952599e-001 -6.373698e+000 107 14 25
8.839440e-001 5.525110e-001 -6.370419e+000 167 33 42
1.173796e+000 -1.700788e+000 -6.448078e+000 178 180 175
-1.577182e-001 1.009080e+000 -7.478160e+000 169 32 39
-1.698543e-001 3.702968e-001 -7.381823e+000 206 196 184
4.270831e-001 1.115964e+000 -6.824560e+000 234 78 82
4.401872e-001 1.044668e+000 -6.801145e+000 211 178 166
-6.066236e-001 -2.523231e-001 -6.312519e+000 64 22 24
1.658461e-001 -6.117703e-002 -6.658389e+000 235 227 214
4.878737e-001 -5.280623e-001 -6.694292e+000 248 244 227
8.605775e-001 8.226224e-001 -6.408302e+000 21 11 12
6.729436e-001 -3.052313e-001 -6.522214e+000 178 165 147
1.080078e+000 2.047403e-001 -6.182851e+000 215 59 70
-4.251939e-001 4.521684e-001 -7.664639e+000 220 209 191
-1.292550e-001 4.231476e-001 -7.418836e+000 215 207 194
-1.316180e-001 4.292477e-001 -7.264456e+000 131 117 106
-2.423406e-001 2.693827e-001 -7.661634e+000 185 46 50
-1.612554e-001 2.936350e-001 -7.482926e+000 157 139 127
-1.396048e-001 2.320764e-001 -7.118321e+000 159 146 130
1.642975e-001 7.564041e-001 -7.041586e+000 182 172 162
5.027441e-001 3.088968e-001 -6.812499e+000 145 136 121
6.718042e-001 6.581262e-001 -6.561594e+000 235 226 211
7.684239e-001 8.380347e-001 -6.413472e+000 89 13 18
9.954090e-001 4.991582e-001 -6.204504e+000 234 78 88
-1.377153e-001 5.147142e-001 -7.452615e+000 228 220 209
-1.757473e-001 3.375449e-002 -7.554946e+000 75 11 16
-5.036811e-002 2.395750e-001 -6.973529e+000 123 111 96
-1.409648e-001 -1.504482e-001 -6.616507e+000 230 220 213
9.114767e-001 1.340626e-001 -6.364540e+000 229 222 211
1.069774e+000 -3.204286e-001 -6.134499e+000 174 151 101
7.298093e-001 -4.565109e-001 -6.463220e+000 254 252 203
8.366792e-001 -1.872990e-001 -6.349526e+000 245 237 228
-3.491092e-001 9.269230e-001 -7.590489e+000 211 63 69
1.359739e-001 4.411684e-001 -6.981208e+000 151 142 127
-5.670271e-001 -1.290207e-001 -6.470848e+000 74 20 18
5.578863e-001 -5.670631e-001 -6.644375e+000 145 122 98
8.430038e-001 -1.208168e-001 -6.321244e+000 231 222 213
2.147954e-001 6.244092e-001 -7.007224e+000 144 132 122
3.300254e-001 -5.344698e-002 -6.627398e+000 252 250 240
4.080146e-001 2.692950e-001 -6.796877e+000 136 123 107
2.709457e-002 1.307441e+000 -7.182347e+000 85 13 23
-1.102122e-001 5.374063e-001 -7.256565e+000 162 148 134
-1.375362e-001 2.050301e-001 -6.948899e+000 118 103 89
2.127058e-001 7.122901e-001 -7.012726e+000 191 184 174
-5.187409e-001 -5.690488e-002 -6.544904e+000 126 56 44
-3.887417e-001 -1.146001e-001 -6.492462e+000 126 31 15
4.960964e-001 -2.561174e+000 -7.378342e+000 180 193 183
4.560516e-001 -5.214421e-001 -6.729403e+000 232 228 216
-3.449527e-001 7.710409e-001 -7.605623e+000 174 152 139
2.004049e-001 9.765898e-001 -7.070518e+000 205 198 190
-1.949017e-001 1.423012e-001 -7.079363e+000 123 109 96
-2.695860e-001 9.104389e-002 -6.891396e+000 67 24 18
-1.555134e-001 1.204421e-001 -6.847508e+000 140 124 111
-4.650268e-002 1.935146e-001 -6.923003e+000 115 99 86
-6.653433e-003 2.411000e-001 -6.867016e+000 174 165 150
4.247848e-002 2.330817e-001 -6.937680e+000 161 148 132
-5.312276e-001 -8.030349e-002 -6.521800e+000 81 17 8
-4.864391e-001 -3.888348e-002 -6.559338e+000 86 21 12
2.063182e-001 2.631085e-001 -6.769960e+000 163 147 131
1.129327e-001 -2.164668e-001 -6.668515e+000 209 197 184
5.901580e-001 6.061911e-001 -6.566872e+000 160 148 133
4.930725e-001 -1.138205e-001 -6.574289e+000 238 232 220
5.026589e-001 -2.071364e-002 -6.541598e+000 201 192 177
8.267074e-001 -4.686632e-001 -6.326833e+000 225 212 179
1.257318e+000 -2.220474e+000 -6.313872e+000 169 167 170
-1.913636e-001 3.215504e-001 -7.544553e+000 175 163 149
-1.913636e-001 3.215504e-001 -7.544553e+000 175 163 149
-1.055032e-001 6.193786e-001 -7.329279e+000 148 136 122
-4.437310e-001 -6.382360e-002 -6.517863e+000 180 88 59
-4.437310e-001 -6.382360e-002 -6.517863e+000 180 88 59
1.927654e-001 4.061491e-003 -6.664997e+000 179 169 156
7.604768e-001 1.172733e-001 -6.527047e+000 208 198 189
9.060176e-001 5.430183e-001 -6.403874e+000 230 84 95
1.014989e+000 5.112074e-001 -6.197355e+000 30 15 15
1.132203e+000 -4.312104e-001 -6.113081e+000 162 56 53
-3.135626e-001 8.562423e-001 -7.523979e+000 224 69 77
-2.676852e-002 2.846753e-001 -7.017572e+000 135 121 108
-1.476218e-001 1.615191e-001 -6.792623e+000 155 139 124
1.529991e-002 1.290587e-001 -6.776390e+000 128 115 99
4.554293e-001 1.647611e-001 -6.648407e+000 197 183 170
7.687371e-001 1.412873e-001 -6.537540e+000 194 184 172
1.020053e+000 -3.432334e-001 -6.169825e+000 216 193 139
6.625919e-002 6.282291e-002 -6.730387e+000 196 186 176
4.944716e-001 5.791172e-001 -6.782738e+000 193 181 174
6.385804e-001 -7.356860e-001 -6.631369e+000 252 252 242
1.040505e+000 -6.356602e-001 -6.202891e+000 237 98 109
1.327600e+000 -3.552708e-001 -5.971999e+000 255 246 198
1.327600e+000 -3.552708e-001 -5.971999e+000 255 246 198
-3.985780e-001 7.221438e-001 -7.715396e+000 178 38 48
2.721817e-002 1.285599e+000 -7.166646e+000 200 53 55
1.824778e-001 5.953367e-001 -6.976384e+000 149 137 121
4.662174e-001 7.041370e-001 -6.764016e+000 252 245 237
8.091172e-001 8.858718e-001 -6.447475e+000 40 26 27
7.292350e-001 -6.146706e-001 -6.551532e+000 213 202 182
9.379443e-001 2.271547e-001 -6.303970e+000 175 157 145
9.821534e-001 -1.785255e-001 -6.270954e+000 216 202 193
1.326014e+000 -1.941274e-001 -5.985065e+000 250 242 186
9.281338e-001 1.184991e-001 -6.371346e+000 230 224 212
-1.843019e-001 -3.235959e-001 -7.465512e+000 238 231 220
7.057920e-001 7.591147e-001 -6.553101e+000 216 209 198
-4.642995e-001 -5.279239e-002 -6.525225e+000 117 27 18
9.303019e-001 -2.361755e-001 -6.273384e+000 85 70 54
-1.548628e-001 9.362918e-001 -7.415546e+000 174 158 147
7.598815e-001 5.434334e-001 -6.426544e+000 254 251 244
-2.136483e-001 -1.037021e-001 -7.561756e+000 208 201 185
1.179967e+000 -2.434432e-002 -6.118279e+000 180 46 54
-1.365854e-001 7.252270e-001 -7.404434e+000 224 217 207
-1.386091e-001 6.659177e-002 -7.436817e+000 124 59 57
-9.785923e-002 5.112894e-001 -7.258308e+000 181 168 152
-7.297775e-001 -2.611847e-001 -6.808607e+000 210 139 115
-8.498745e-001 -3.198577e-001 -6.509482e+000 218 193 173
-8.474801e-001 -3.010719e-001 -6.519328e+000 130 47 25
-2.381345e-001 1.304932e-001 -6.844817e+000 81 40 31
2.792331e-001 1.307640e+000 -6.944705e+000 182 42 51
-6.333202e-001 -2.540317e-001 -6.307493e+000 45 15 13
-6.284209e-001 -2.481201e-001 -6.292814e+000 163 160 148
2.588199e-001 1.514969e-001 -6.715905e+000 183 171 156
2.588199e-001 1.514969e-001 -6.715905e+000 183 171 156
4.093282e-001 -5.198006e-003 -6.583851e+000 254 245 236
6.915135e-001 -1.170916e+000 -6.870025e+000 127 126 122
5.565748e-001 -4.209257e-001 -6.704714e+000 154 137 115
7.554269e-001 -1.438488e+000 -6.860347e+000 157 159 156
8.097128e-001 -1.410753e+000 -6.773862e+000 174 176 175
8.362502e-001 7.398851e-001 -6.376005e+000 250 75 85
1.038732e+000 -1.657800e+000 -6.584649e+000 183 183 185
1.123460e+000 -2.874681e+000 -6.586320e+000 162 157 163
1.123460e+000 -2.874681e+000 -6.586320e+000 162 157 163
1.066784e+000 -1.696353e+000 -6.541502e+000 182 181 187
1.035269e+000 -1.084961e+000 -6.476219e+000 171 166 170
9.565375e-001 6.654691e-001 -6.325361e+000 81 68 68
1.027063e+000 3.514900e-002 -6.157560e+000 232 92 100
1.369368e+000 -5.370206e-001 -5.965205e+000 155 149 153
-2.595233e-001 6.458159e-001 -7.548326e+000 237 233 222
-5.918896e-002 8.140459e-001 -7.209727e+000 212 202 193
-1.797507e-001 -1.126139e-001 -7.393728e+000 178 165 150
1.870576e-001 9.995098e-001 -7.081522e+000 217 210 200
1.123563e-001 6.671917e-001 -7.067544e+000 237 229 218
-8.634966e-001 -3.234078e-001 -6.518473e+000 39 17 15
-1.601541e-001 1.755482e-001 -6.874375e+000 140 124 111
6.645737e-003 -3.643440e+000 -8.071297e+000 184 192 194
-3.428014e-001 -5.451220e-002 -6.610959e+000 82 18 14
-3.423730e-001 -2.136248e-002 -6.599725e+000 87 23 13
-2.765890e-001 -1.642079e-002 -6.727260e+000 53 13 13
-4.214101e-001 -1.821469e-001 -6.476990e+000 250 148 120
3.748587e-001 2.614935e-001 -6.788690e+000 159 142 126
4.301626e-001 -4.827274e-001 -6.749512e+000 168 148 111
7.003134e-001 9.824637e-001 -6.512708e+000 216 73 82
9.282233e-001 -2.178707e+000 -6.717601e+000 170 170 172
9.309687e-001 -1.274398e+000 -6.681020e+000 169 169 169
7.178011e-001 -2.642581e-001 -6.459102e+000 183 171 159
1.016688e+000 -1.736917e+000 -6.645849e+000 153 154 156
8.850610e-001 7.488320e-001 -6.352951e+000 76 63 64
1.231154e+000 -2.316483e+000 -6.325981e+000 167 165 168
1.066413e+000 -3.799699e-001 -6.138677e+000 191 168 118
1.314298e+000 -1.694877e-001 -5.944300e+000 149 140 141
1.359279e+000 -1.207300e-001 -5.971030e+000 142 138 138
-3.025188e-001 2.970802e-001 -7.770677e+000 56 47 42
-2.613309e-001 8.765360e-002 -7.604012e+000 153 25 32
-9.936521e-002 5.835135e-001 -7.391098e+000 204 194 182
3.576813e-002 1.100536e+000 -7.209189e+000 223 207 194
6.632282e-002 1.301648e+000 -7.159843e+000 75 8 16
-1.365819e-001 5.268434e-001 -7.233793e+000 147 134 119
1.016205e-001 6.156867e-001 -7.081269e+000 214 205 194
-7.222976e-001 -1.974013e-001 -6.268606e+000 47 11 17
5.327959e-001 1.219098e+000 -6.748895e+000 72 58 55
7.520384e-001 -1.481905e+000 -6.930356e+000 158 163 157
5.972886e-001 -2.860230e-001 -6.642488e+000 180 169 149
7.072072e-001 -1.027571e+000 -6.809429e+000 154 153 149
5.883242e-001 -2.777954e-001 -6.595872e+000 254 250 238
7.695260e-001 9.094766e-001 -6.476632e+000 213 70 78
8.096183e-001 8.729717e-001 -6.431712e+000 23 14 17
1.003513e+000 -1.752356e+000 -6.624356e+000 179 180 182
9.844913e-001 -1.631959e+000 -6.608427e+000 190 190 192
7.578750e-001 -3.395803e-001 -6.323609e+000 231 211 155
1.168887e+000 4.583083e-002 -6.065986e+000 229 103 110
-1.590835e-001 2.958115e-001 -7.167281e+000 177 165 149
3.686514e-001 1.222881e+000 -6.882861e+000 209 49 61
6.529830e-001 -4.456321e-001 -6.640546e+000 214 209 190
8.405229e-001 -6.611504e-001 -6.469539e+000 254 253 249
-5.202644e-001 5.696403e-001 -7.901186e+000 230 75 79
-4.882792e-002 7.359198e-001 -7.252615e+000 136 123 110
-5.183115e-002 7.843325e-001 -7.179588e+000 169 155 143
-3.794199e-001 -1.033012e-001 -7.012186e+000 124 117 119
-3.879407e-001 1.323053e-002 -6.875980e+000 90 38 25
-3.920555e-001 1.948356e-002 -6.871419e+000 90 38 25
3.870859e-001 1.261112e+000 -6.850165e+000 229 73 86
-7.312561e-001 -2.017713e-001 -6.310661e+000 51 22 10
1.991535e-001 -1.925990e-002 -6.650967e+000 254 255 243
5.255874e-001 3.721200e-001 -6.785747e+000 211 201 192
7.355399e-001 -8.463010e-001 -6.611018e+000 169 51 49
8.686047e-001 -1.656401e+000 -6.714609e+000 156 158 157
8.696944e-001 -6.904856e-001 -6.445734e+000 220 211 196
1.356877e+000 -4.331647e-001 -5.992633e+000 127 123 124
-1.435963e-001 3.884162e-001 -7.353566e+000 147 134 117
-4.604325e-001 -1.024758e-001 -7.015008e+000 129 127 126
-5.798861e-001 -2.095191e-001 -6.414062e+000 149 70 48
4.099033e-001 1.062396e+000 -6.824385e+000 249 241 239
1.344645e-001 1.323473e-002 -6.713686e+000 141 128 115
1.344645e-001 1.323473e-002 -6.713686e+000 141 128 115
4.871738e-001 7.695741e-001 -6.803642e+000 249 245 236
4.552500e-001 -5.849119e-001 -6.681392e+000 228 222 210
5.576663e-001 -2.076525e-001 -6.561964e+000 253 246 236
7.366210e-001 -7.674773e-001 -6.542555e+000 248 237 228
7.206997e-001 -7.455647e-001 -6.532627e+000 248 237 228
7.297388e-001 -8.936881e-002 -6.406403e+000 245 241 232
1.105082e+000 -5.264895e-001 -6.184975e+000 178 35 39
1.175994e+000 7.698740e-002 -6.090812e+000 125 15 24
1.175994e+000 7.698740e-002 -6.090812e+000 125 15 24
1.342081e+000 -3.602135e-001 -5.987315e+000 255 251 205
-2.320249e-001 -3.446567e-001 -7.585997e+000 223 216 205
-1.678924e-001 -7.078699e-002 -6.625023e+000 94 33 32
-2.312669e-001 -1.803600e-001 -6.464076e+000 112 25 18
-2.414163e-001 5.685492e-001 -7.521856e+000 229 222 212
-5.006774e-001 -2.576454e-001 -6.448357e+000 246 208 163
-7.571857e-002 -1.136600e-001 -6.623069e+000 253 246 240
2.018681e-001 2.240199e-001 -6.793969e+000 222 214 203
-4.010244e-001 8.719407e-001 -7.704386e+000 215 62 67
-4.387957e-001 5.465891e-001 -7.797998e+000 194 184 172
-5.417958e-001 6.513675e-001 -7.847315e+000 202 46 50
-1.595342e-001 1.460242e-001 -7.409841e+000 88 17 24
-1.595342e-001 1.460242e-001 -7.409841e+000 88 17 24
-8.075689e-002 8.968203e-001 -7.199252e+000 229 222 212
5.940997e-001 5.982360e-001 -6.745417e+000 233 226 216
1.278607e+000 -2.716890e-001 -6.027117e+000 255 251 203
5.502964e-001 1.466968e-001 -6.566410e+000 154 141 123
9.738439e-001 1.021034e-001 -6.328301e+000 253 246 240
-3.252639e-001 1.015819e+000 -7.660156e+000 21 12 15
2.045450e-001 1.280360e+000 -7.254195e+000 16 7 10
-2.937328e-001 6.265042e-001 -7.579181e+000 226 220 208
-1.389579e+000 -1.194509e+001 -1.054447e+001 96 98 111
8.062884e-001 6.056271e-001 -6.417588e+000 244 76 87
-1.768822e-002 7.997782e-001 -7.376478e+000 222 214 203
-3.516588e-003 3.683328e-001 -7.097290e+000 145 132 115
-1.116615e-001 6.608451e-001 -7.251688e+000 168 155 141
1.078989e+000 -9.450586e-001 -6.398892e+000 142 141 139
6.367494e-001 5.585675e-001 -6.637616e+000 170 158 142
-1.919025e-001 -2.010072e-001 -7.517484e+000 178 166 150
-1.524196e-001 2.931912e-001 -7.347279e+000 175 163 151
-5.317169e-002 7.704660e-001 -7.215038e+000 187 175 161
2.635437e-001 1.143461e+000 -7.018787e+000 216 61 69
1.622349e-001 -3.629458e+000 -7.926664e+000 179 188 183
-5.137115e-001 -4.116238e-002 -6.552091e+000 83 19 10
-2.295985e-001 2.991118e-002 -6.735403e+000 63 23 19
7.595135e-001 -1.524055e+000 -6.909708e+000 116 122 118
-5.787470e-001 6.237423e-001 -7.956779e+000 44 33 30
-3.362030e-001 7.632509e-001 -7.614380e+000 169 155 139
-1.445295e-001 1.654467e-001 -7.008931e+000 152 136 121
-1.445295e-001 1.654467e-001 -7.008931e+000 152 136 121
-1.313099e-001 1.661612e-001 -7.024883e+000 121 105 90
2.974042e-001 3.108842e-001 -6.838207e+000 145 131 118
3.658153e-001 2.691626e-001 -6.788095e+000 159 142 126
6.958393e-001 -5.300050e-002 -6.459083e+000 239 231 220
1.053351e+000 -2.847514e+000 -6.703044e+000 164 162 165
9.017181e-001 5.967169e-001 -6.355754e+000 192 49 57
1.051267e+000 -2.115414e-001 -6.239545e+000 139 113 100
-8.444759e-002 5.995963e-001 -7.381034e+000 191 179 165
-1.269958e-001 3.631714e-001 -7.240896e+000 172 158 145
5.170777e-001 3.247028e-002 -6.539614e+000 177 166 147
9.247547e-001 -2.343194e-001 -6.311820e+000 158 141 129
1.000774e+000 -3.232956e-001 -6.160861e+000 227 205 154
1.066067e+000 -5.788957e-001 -6.173391e+000 235 106 111
1.396576e-001 6.146597e-001 -7.017863e+000 158 145 129
5.630888e-001 5.313484e-001 -6.735303e+000 166 157 144
6.717433e-001 7.592278e-001 -6.609925e+000 193 183 174
1.744993e+000 -1.064660e+001 -6.281949e+000 99 102 133
1.482900e+000 -1.025735e+001 -6.361192e+000 108 113 143
-4.173605e-001 7.411886e-001 -7.692872e+000 179 40 48
3.279916e-001 1.158024e+000 -6.930141e+000 217 62 68
-4.340889e-001 5.548279e-001 -7.784332e+000 195 185 173
3.283086e-001 8.530526e-001 -6.913588e+000 156 144 130
-3.523094e-001 9.655099e-001 -7.586862e+000 177 41 54
-1.182946e-001 -2.094875e+000 -8.029645e+000 153 160 152
-1.173178e-001 1.400280e-001 -7.467000e+000 140 35 37
-7.206540e-001 -2.620487e-001 -6.823563e+000 102 34 16
3.477978e-002 1.302628e+000 -7.146486e+000 175 36 46
-6.983597e-001 -2.473905e-001 -6.802765e+000 160 166 153
-6.882071e-001 -1.675912e-001 -6.815911e+000 172 80 53
-2.025872e-001 1.473358e-001 -7.064955e+000 123 106 94
-7.134196e-002 1.849229e-001 -6.948439e+000 119 103 88
-6.556959e-003 2.450796e-001 -6.950152e+000 153 137 122
-2.544649e-001 5.325087e-002 -6.702105e+000 107 79 68
-1.180293e-001 1.054838e-001 -6.730878e+000 156 140 127
1.783680e-002 5.667154e-002 -6.733808e+000 182 168 156
3.621728e-002 5.212800e-002 -6.712513e+000 143 130 117
1.001108e-001 -1.628565e-001 -6.643932e+000 212 199 184
7.447349e-001 -1.862518e+000 -6.979256e+000 137 137 139
7.927448e-001 -1.889246e+000 -6.974242e+000 132 133 135
7.044313e-001 -1.511747e+000 -6.905176e+000 183 183 183
6.492262e-001 -6.508202e-001 -6.623721e+000 236 219 199
9.496316e-001 -4.451723e-001 -6.423406e+000 172 152 126
1.054472e+000 4.850181e-001 -6.407956e+000 218 75 79
1.136235e+000 -4.869608e-001 -6.151589e+000 203 124 111
1.455232e+000 -1.060781e+000 -5.979025e+000 143 137 137
1.403417e+000 -4.860296e-001 -5.972858e+000 167 161 161
-5.111493e-001 5.856577e-001 -7.827735e+000 238 75 81
-1.928465e-001 1.427430e-002 -7.542260e+000 169 95 86
-1.709386e-001 -2.377451e+000 -8.143517e+000 155 162 155
-9.807829e-002 -1.568449e+000 -7.903169e+000 165 169 163
-9.846436e-002 -8.301534e-001 -7.783752e+000 140 140 132
-9.846436e-002 -8.301534e-001 -7.783752e+000 140 140 132
-1.141473e-001 5.775344e-001 -7.339905e+000 169 156 140
-5.694930e-002 8.079327e-001 -7.277578e+000 209 199 187
-1.661195e-001 -1.227335e-001 -7.226175e+000 246 242 229
-4.157434e-001 -2.149656e-002 -6.812313e+000 82 41 36
-1.428109e-001 2.138832e-001 -6.962960e+000 155 137 124
2.047427e-001 9.753711e-001 -7.079608e+000 214 205 196
2.037979e-001 9.771490e-001 -7.079002e+000 214 205 196
-9.042182e-001 -2.162243e-001 -6.298854e+000 177 159 132
-1.623619e-001 1.555757e-001 -6.782809e+000 113 95 83
2.514072e-001 2.740470e-001 -6.843121e+000 133 117 101
3.724310e-001 1.254022e+000 -6.868737e+000 201 47 54
3.931103e-001 2.266179e-001 -6.779796e+000 137 119 104
7.686186e-001 -2.536317e+000 -7.083707e+000 188 186 187
1.040228e+000 -2.522535e+000 -6.721745e+000 159 157 162
7.762145e-001 -5.978844e-001 -6.539395e+000 255 255 210
7.270934e-001 6.478628e-001 -6.469595e+000 155 132 116
8.806017e-001 1.319654e-001 -6.427031e+000 247 240 230
1.074131e+000 -1.052366e+000 -6.473214e+000 141 139 142
8.252251e-001 9.898285e-001 -6.392629e+000 67 55 55
9.228791e-001 5.656122e-001 -6.359643e+000 221 74 80
1.012280e+000 -3.349882e-001 -6.168928e+000 226 209 157
1.023206e+000 4.924624e-001 -6.220425e+000 227 75 88
1.128888e+000 -4.301241e-001 -6.108681e+000 175 43 49
1.571274e+000 -1.172143e+000 -5.938273e+000 130 126 125
1.458345e+000 -6.895439e-001 -5.942999e+000 168 164 163
1.293491e+000 -2.505734e-001 -5.951307e+000 155 144 141
1.520913e+000 -1.093233e+000 -5.897466e+000 121 117 114
-1.908973e-001 -2.107537e+000 -8.074506e+000 202 208 204
-8.716978e-002 6.815188e-001 -7.342903e+000 155 146 131
-8.686817e-001 -3.089704e-001 -6.492945e+000 34 8 3
2.626873e-001 8.958913e-001 -7.016698e+000 215 206 196
1.631223e-001 3.044079e-001 -6.823532e+000 145 127 107
1.971957e-001 -6.434533e-002 -6.641692e+000 219 210 194
5.123961e-001 -4.816878e-001 -6.719177e+000 203 186 139
5.517850e-001 -3.882977e-001 -6.609772e+000 145 122 78
8.488314e-001 -9.441465e-001 -6.589284e+000 132 123 124
7.744807e-001 -6.841865e-001 -6.353707e+000 138 136 141
8.170275e-001 -6.278895e-001 -6.456177e+000 253 253 244
8.530876e-001 -5.870111e-001 -6.447839e+000 254 243 184
1.691336e+000 -7.287473e+000 -6.057961e+000 56 54 65
1.087522e+000 -4.117294e-001 -6.129424e+000 252 230 176
1.183894e+000 9.269162e-002 -6.053105e+000 186 118 116
1.410613e+000 -4.680362e-001 -5.952500e+000 169 163 161
1.444591e+000 -6.890317e-001 -5.910406e+000 148 142 142
1.444591e+000 -6.890317e-001 -5.910406e+000 148 142 142
-2.735386e-001 4.177033e-002 -7.649905e+000 78 55 49
-1.561409e-001 1.114214e+000 -7.364956e+000 200 59 64
-2.266802e-001 2.869579e-001 -7.441220e+000 215 196 182
-1.243629e-001 -1.805060e+000 -8.059931e+000 154 159 153
-8.699180e-002 1.471904e-001 -7.485408e+000 130 15 23
-7.164458e-001 -2.792696e-001 -6.770646e+000 169 164 148
-6.890207e-001 -1.352232e-001 -6.756545e+000 97 29 16
-1.334482e-001 1.879172e-001 -7.105352e+000 122 105 94
1.224340e-001 1.157135e+000 -7.098585e+000 229 72 78
-8.997074e-001 -2.142177e-001 -6.317951e+000 62 27 13
-4.928108e-001 -2.230537e-001 -6.449071e+000 196 111 76
-1.408898e-001 -9.988434e-002 -6.622100e+000 95 25 19
4.982103e-001 -4.894618e-001 -6.665849e+000 132 111 77
5.355858e-001 -5.321084e-001 -6.688097e+000 132 111 77
7.542516e-001 7.508970e-001 -6.517531e+000 194 41 51
3.492236e+000 -1.121867e+001 -6.157091e+000 73 71 84
3.089684e+000 -9.182722e+000 -5.695467e+000 91 92 110
1.460769e+000 -6.926759e-001 -5.987073e+000 133 127 127
1.312215e+000 -8.866376e-002 -6.021874e+000 158 153 150
-1.221299e-001 1.052422e+000 -7.424871e+000 191 51 54
-1.322785e-001 4.479031e-001 -7.443080e+000 168 154 135
-1.587220e-001 -1.193226e-001 -6.600332e+000 246 244 229
3.271041e-001 -5.669980e-001 -6.702027e+000 248 247 236
3.271041e-001 -5.669980e-001 -6.702027e+000 248 247 236
7.525043e-001 -1.025265e+000 -6.758558e+000 169 167 169
9.335772e-001 -6.783029e-001 -6.335359e+000 249 242 236
1.085382e+000 5.063422e-001 -6.241843e+000 92 83 81
2.607532e+000 -1.075519e+001 -5.715808e+000 111 112 140
3.061583e+000 -9.366572e+000 -5.856211e+000 17 14 23
3.142411e+000 -9.597305e+000 -5.775141e+000 78 77 91
1.247929e+000 -7.263669e-002 -6.061669e+000 157 145 143
3.056100e+000 -1.023543e+001 -5.542790e+000 91 94 116
3.218771e+000 -1.033019e+001 -5.522974e+000 19 16 26
3.231763e+000 -1.012325e+001 -5.505231e+000 101 105 130
-4.151584e-001 5.145048e-001 -7.669483e+000 185 170 157
-2.057444e-001 5.123154e-001 -7.518299e+000 200 190 178
-1.454302e-001 3.443789e-001 -7.421867e+000 219 212 193
-7.550093e-002 7.073935e-001 -7.374461e+000 198 189 174
-3.220045e-001 -2.107629e-001 -6.490824e+000 144 29 20
4.889093e-001 4.617140e-001 -6.760839e+000 196 184 172
6.064539e-001 2.016051e-001 -6.682654e+000 169 157 143
1.340227e+000 -2.584643e-001 -5.953272e+000 160 153 154
-1.570592e-001 -9.416384e-002 -7.364944e+000 196 185 167
-6.528035e-001 -8.684876e-002 -6.911107e+000 80 23 13
-8.338194e-001 -2.485980e-001 -6.429048e+000 211 122 87
2.283189e-001 3.752212e-001 -6.880463e+000 210 202 187
1.543778e-001 -4.499116e-001 -6.694929e+000 255 255 245
5.017599e-001 1.176244e+000 -6.722124e+000 222 69 74
5.030979e-001 -4.155756e-001 -6.636459e+000 254 251 203
9.797680e-001 4.882351e-001 -6.218487e+000 232 85 86
-1.705973e-002 7.461073e-001 -7.143242e+000 233 225 214
3.052564e-001 -2.627381e-001 -6.667917e+000 101 79 56
-1.780665e-001 1.002720e+000 -7.454172e+000 200 53 60
-1.270243e-001 8.520800e-001 -7.315674e+000 229 221 208
1.934666e-001 8.197204e-002 -6.691990e+000 157 145 129
9.068747e-001 2.171956e-001 -6.379065e+000 252 251 241
-5.285606e-001 6.358392e-001 -7.867022e+000 207 52 56
-1.238202e-001 2.727991e-001 -7.433866e+000 199 187 173
-7.619532e-001 -1.416292e-001 -6.825424e+000 152 157 143
7.423369e-001 7.046981e-001 -6.458011e+000 149 35 40
8.414798e-001 6.909880e-001 -6.377449e+000 242 76 86
2.143802e-001 6.250274e-001 -7.005713e+000 155 140 126
-2.121205e-001 -2.370594e-002 -6.654355e+000 93 34 29
3.335244e-001 8.489451e-001 -6.918368e+000 156 142 129
8.491579e-001 5.439955e-001 -6.298964e+000 152 25 33
-2.128021e-001 1.438684e-001 -7.614085e+000 135 15 28
1.033315e+000 -4.656817e-003 -6.284534e+000 243 236 226
4.265057e-001 5.983990e-001 -6.858051e+000 230 222 211
4.851156e-001 8.771021e-001 -6.702768e+000 241 234 228
-5.049083e-002 1.264284e+000 -7.355205e+000 29 20 23
1.017560e+000 6.889849e-001 -6.415055e+000 83 69 66
6.313842e-002 8.909552e-001 -6.838036e+000 216 208 195
-1.218994e-001 9.533916e-001 -7.439368e+000 214 207 190
-1.396373e-001 3.210065e-001 -7.279077e+000 163 151 137
-2.749293e-001 7.510350e-001 -7.592050e+000 211 200 188
-8.076417e-001 -3.288629e-001 -6.533368e+000 154 152 151
-1.200620e-001 1.860133e-001 -7.004235e+000 121 105 92
-4.933518e-001 -3.430936e-002 -6.540451e+000 144 70 54
6.305271e-001 7.353066e-001 -6.583307e+000 204 190 178
7.752595e-001 8.235936e-001 -6.385998e+000 167 54 60
1.389741e+000 -1.058967e+000 -6.074926e+000 135 131 132
1.120223e+000 1.317778e-001 -6.187818e+000 224 83 90
-1.016751e-001 6.164722e-001 -7.440561e+000 165 154 138
1.073491e-001 6.712922e-001 -7.066532e+000 229 221 210
-3.061191e-001 -1.657313e-001 -6.482443e+000 132 41 27
1.170654e+000 -8.128646e-001 -6.236811e+000 133 127 128
9.449299e-001 2.576601e-001 -6.308979e+000 249 239 232
-4.593191e-001 -1.877847e-001 -7.046147e+000 58 18 19
-4.593191e-001 -1.877847e-001 -7.046147e+000 58 18 19
5.144726e-001 5.319171e-001 -6.746496e+000 206 194 180
5.638333e-001 5.256698e-001 -6.781224e+000 171 161 149
6.807822e-001 -3.167904e-001 -6.529533e+000 177 165 146
7.322884e-001 7.853699e-001 -6.541189e+000 210 63 73
-3.244186e-001 3.263086e-001 -7.745347e+000 70 56 56
-2.429505e-001 -3.473125e-001 -7.675196e+000 98 88 85
-1.453024e-001 1.278066e-001 -6.873230e+000 110 92 80
-3.702954e-001 -3.689446e-001 -6.452208e+000 110 26 26
6.798624e-001 -7.775472e-001 -6.590160e+000 164 40 44
9.713330e-001 1.987735e-001 -6.277046e+000 246 237 228
1.004885e+000 2.874346e-001 -6.265677e+000 234 90 97
1.364327e+000 -2.175779e-001 -5.986895e+000 255 243 193
-2.555497e-002 4.739290e-001 -7.182233e+000 200 189 179
9.328621e-001 -8.227509e-001 -6.435976e+000 247 238 229
7.824108e-001 -2.546459e-001 -6.413462e+000 248 242 231
4.280012e-002 1.144685e+000 -7.196982e+000 196 46 48
-8.545667e-001 -3.055337e-001 -6.490778e+000 114 59 47
-5.905235e-001 -2.241771e-001 -6.406348e+000 125 57 35
6.182427e-001 -6.326355e-001 -6.668358e+000 154 137 111
2.625820e+000 -8.892216e+000 -5.978075e+000 17 16 22
1.230987e+000 -2.984540e-002 -6.034726e+000 158 154 153
5.728665e-001 1.106602e+000 -6.656085e+000 216 71 74
1.142406e+000 -3.883337e-001 -6.125862e+000 135 118 82
2.045559e-001 8.130830e-001 -7.033393e+000 236 229 221
7.387855e-001 7.087212e-001 -6.457728e+000 138 38 36
-7.191190e-001 -2.645340e-001 -6.825383e+000 102 34 16
-6.844029e-001 -2.090725e-001 -6.797327e+000 123 32 23
5.542302e-001 1.080340e+000 -6.678168e+000 232 78 85
8.414609e-001 1.171950e-001 -6.454480e+000 240 232 220
1.124250e+000 -5.161827e-001 -6.156838e+000 178 144 145
-2.372903e-001 1.010098e+000 -7.550150e+000 171 32 39
4.806107e-001 2.314956e-001 -6.722700e+000 138 124 108
5.753928e-001 5.593895e-001 -6.660300e+000 146 134 118
8.702581e-001 5.779921e-001 -6.367061e+000 230 85 92
9.150860e-001 -2.328463e-001 -6.313844e+000 158 144 125
1.381615e+000 -1.052749e+000 -6.074942e+000 124 120 119
8.413206e-001 9.941025e-001 -6.378500e+000 63 51 51
1.059780e+000 2.476321e-001 -6.189936e+000 239 90 96
2.609312e+000 -9.132896e+000 -5.973110e+000 73 71 84
-1.250311e-001 1.079680e+000 -7.237288e+000 145 117 104
3.154319e+000 -9.121190e+000 -5.640426e+000 71 72 84
3.989021e-001 3.559931e-001 -6.842778e+000 194 180 167
3.436756e-001 1.144987e+000 -6.934463e+000 217 60 67
-2.205763e-001 -2.027050e-001 -7.566031e+000 213 201 189
-1.834087e-001 -2.330063e-001 -7.531500e+000 209 197 183
-1.223122e-001 -3.360701e-002 -7.445283e+000 131 103 92
1.373772e-001 1.103506e+000 -7.195348e+000 206 43 54
4.836027e-001 -4.026212e-001 -6.651159e+000 209 194 142
8.791117e-001 6.640057e-001 -6.348436e+000 197 53 62
-3.162512e-001 -6.588423e-003 -6.629359e+000 67 19 17
2.951904e-001 1.446876e-002 -7.064314e+000 166 153 137
-2.609691e-001 6.991777e-001 -7.458737e+000 230 223 213
-1.963047e-001 1.024856e+000 -7.529454e+000 177 33 40
-2.425663e-001 1.327530e-001 -6.837047e+000 78 36 30
2.280650e+000 -9.528520e+000 -6.657234e+000 47 45 50
3.193214e+000 -9.427540e+000 -5.639952e+000 45 44 57
1.171380e+000 1.425761e-002 -6.062414e+000 168 48 46
-1.476217e-001 6.114960e-001 -7.446827e+000 172 160 148
8.559042e-001 4.616609e-001 -6.346909e+000 185 163 149
3.351182e+000 -8.964726e+000 -5.401542e+000 59 55 64
-4.358418e-001 -7.019528e-002 -6.494964e+000 121 43 32
2.740306e+000 -9.325556e+000 -5.870921e+000 74 77 87
3.059983e+000 -1.024090e+001 -5.540664e+000 87 92 115
2.962486e+000 -9.592433e+000 -5.826349e+000 32 28 42
-2.236728e-001 3.187525e-001 -7.571138e+000 210 198 186
-1.859162e-001 -1.545513e-001 -7.569871e+000 191 179 163
-1.859162e-001 -1.545513e-001 -7.569871e+000 191 179 163
-1.969602e-001 1.306251e+000 -6.961929e+000 215 55 61
-4.696982e-002 5.276668e-001 -7.183263e+000 182 172 160
5.119116e-001 1.723001e-002 -6.538540e+000 178 165 146
-7.046999e-001 -2.537504e-001 -6.785579e+000 126 28 21
5.095021e-001 5.322732e-001 -6.747394e+000 206 194 180
3.274610e+000 -1.070355e+001 -5.131275e+000 243 247 253
3.103122e+000 -1.089585e+001 -5.395029e+000 25 24 29
3.149816e-001 -3.261068e+000 -7.746449e+000 186 185 183
1.885317e-001 -1.629281e+000 -7.652314e+000 170 169 167
-1.362754e-001 3.718462e-001 -7.441806e+000 216 204 191
4.614872e-001 -2.831883e+000 -7.493757e+000 166 164 167
-1.865458e-002 -3.863367e-001 -7.326929e+000 182 131 86
-5.176736e-002 5.406674e-001 -7.148532e+000 196 186 174
-8.471160e-001 -2.328817e-001 -6.396537e+000 178 112 88
-2.467473e-001 1.388231e-001 -6.840834e+000 82 39 32
2.565671e+000 -9.287007e+000 -6.113881e+000 32 30 41
5.438226e-001 -1.965841e-001 -6.576256e+000 222 214 201
4.584681e-001 -3.146891e-002 -6.541602e+000 224 216 205
1.131221e+000 -1.612044e+000 -6.435627e+000 145 139 139
1.472498e+000 -1.048761e+000 -5.923142e+000 156 158 157
-4.646174e-001 7.872282e-001 -7.833127e+000 15 13 23
-1.419213e-001 -7.108828e-002 -7.488489e+000 198 186 170
-1.619015e-001 3.241381e-001 -7.287527e+000 153 141 127
5.308102e-001 -2.659167e+000 -7.397870e+000 139 137 140
-1.458519e-001 1.828386e-001 -7.036111e+000 146 129 115
-1.357133e-001 1.551823e-001 -6.787296e+000 152 135 121
1.153021e-001 2.374646e-001 -6.851763e+000 165 151 138
2.062133e-001 9.611277e-001 -7.059058e+000 199 192 182
1.341451e-001 1.185235e-001 -6.759164e+000 199 192 176
-5.606800e-001 5.824500e-001 -7.974716e+000 198 56 54
-5.606800e-001 5.824500e-001 -7.974716e+000 198 56 54
-1.301011e-001 6.447278e-001 -7.442565e+000 212 203 190
-2.730843e-001 1.214926e-001 -6.823429e+000 79 48 44
-4.471436e-001 -4.296525e-002 -6.519135e+000 149 62 44
-1.555505e-001 4.510358e-002 -6.673381e+000 192 178 167
-1.226541e-001 9.546852e-002 -6.713085e+000 135 121 108
4.168002e-001 2.530457e-001 -6.763090e+000 128 112 97
4.271226e-001 1.290078e+000 -6.838191e+000 76 64 62
5.315387e-001 -1.323363e-002 -6.505043e+000 184 171 152
9.772211e-001 -6.864884e-002 -6.316532e+000 242 237 230
8.960168e-001 5.613670e-001 -6.390712e+000 233 90 99
-1.794167e-001 -1.277947e-001 -7.308319e+000 166 151 132
-6.609462e-001 -1.117986e-001 -6.794660e+000 118 51 33
-4.915104e-002 7.583405e-001 -7.314866e+000 161 149 137
