ply
format ascii 1.0
element face 0
property list uchar int vertex_indices
element vertex 870
property float x
property float y
property float z
property uchar diffuse_red
property uchar diffuse_green
property uchar diffuse_blue
end_header
1.103776e+000 -6.271937e-001 -6.144954e+000 214 52 58
-4.173716e-002 1.164721e+000 -7.264177e+000 173 35 41
-2.238391e-001 1.071510e+000 -7.545971e+000 195 44 52
-2.238391e-001 1.071510e+000 -7.545971e+000 195 44 52
-3.295024e-001 8.899091e-001 -7.590449e+000 210 44 53
-1.706271e-001 9.078027e-001 -7.507181e+000 203 195 185
-1.702592e-001 9.079719e-001 -7.507928e+000 203 195 185
-3.638423e-001 8.429409e-001 -7.688607e+000 183 34 41
-3.708870e-001 7.237224e-001 -7.680663e+000 178 166 154
2.714329e-001 7.653591e-001 -7.047717e+000 213 204 198
8.463016e-002 6.596600e-001 -7.088270e+000 195 185 177
3.104511e-001 7.334946e-001 -7.006643e+000 208 201 195
-1.036167e-001 5.332797e-001 -7.241457e+000 193 184 175
9.307104e-001 6.130123e-001 -6.331064e+000 203 45 53
9.511655e-001 6.567917e-001 -6.311439e+000 171 26 33
-2.841509e-001 2.112600e-001 -7.730975e+000 203 52 59
-4.425322e-002 2.450819e-001 -6.976532e+000 124 111 102
5.632119e-003 1.928697e-001 -6.900292e+000 122 114 103
-2.362923e-001 7.219614e-002 -6.734255e+000 130 108 100
7.743660e-001 1.359822e-001 -6.536659e+000 188 179 170
-9.496606e-001 -1.912978e-001 -6.192047e+000 158 135 82
1.175418e+000 1.669478e-001 -6.201360e+000 222 55 65
5.723002e-001 -6.938706e-002 -6.487907e+000 202 197 191
-8.464269e-001 -2.587812e-001 -6.239137e+000 98 31 28
-4.168438e-001 -3.023701e-001 -6.438549e+000 143 9 18
5.983329e-001 -3.077449e-001 -6.648389e+000 165 151 141
5.665437e-001 -4.152723e-001 -6.620433e+000 91 74 38
7.080402e-001 -3.320653e-001 -6.506149e+000 165 152 135
6.711200e-001 -3.656064e-001 -6.503794e+000 148 138 123
1.044383e+000 -2.456336e-001 -6.196834e+000 83 65 39
1.035135e+000 -2.407640e-001 -6.170037e+000 83 65 39
1.224482e+000 -1.950496e-001 -6.068907e+000 140 118 71
1.030504e+000 -5.260144e-001 -6.258612e+000 197 167 159
1.425396e+000 -3.757945e-001 -5.916754e+000 27 14 14
7.287175e-001 -8.261346e-001 -6.539468e+000 39 28 23
8.906733e-001 -8.473760e-001 -6.458304e+000 224 57 65
-3.866726e+000 9.865291e-001 -1.204290e+001 11 7 8
2.900036e-001 9.239622e-001 -7.015239e+000 192 179 173
7.832113e-001 9.634123e-001 -6.456216e+000 183 29 39
-3.060927e-002 6.034911e-001 -7.122232e+000 183 173 163
5.319364e-001 4.480279e-001 -6.755976e+000 183 175 163
-2.546686e-001 2.832208e-001 -7.627189e+000 168 33 38
2.696543e-001 9.353805e-002 -6.682423e+000 159 144 137
-3.614462e-001 -2.500010e-002 -6.606828e+000 123 51 35
4.683469e-001 1.116976e-001 -6.607869e+000 179 171 160
-9.465533e-001 -2.622818e-001 -6.268922e+000 32 23 24
-5.376785e-001 -1.848678e-001 -6.476890e+000 234 122 84
-5.184364e-001 -2.166568e-001 -6.462188e+000 166 35 18
-9.219141e-003 -1.174637e-001 -6.592232e+000 241 236 233
1.224774e+000 9.524802e-002 -6.032218e+000 119 10 23
-4.626243e-001 -4.224607e-001 -6.509545e+000 161 144 133
-2.173181e-001 -4.499126e-001 -6.637524e+000 211 204 198
9.753014e-001 -2.514880e-001 -6.285841e+000 147 129 119
9.620572e-001 -2.997536e-001 -6.205632e+000 174 151 101
7.258600e-001 -5.958459e-001 -6.444771e+000 194 185 174
1.009511e+000 -4.673497e-001 -6.226841e+000 175 151 105
1.412094e+000 -3.983688e-001 -5.926725e+000 206 183 115
1.412094e+000 -3.983688e-001 -5.926725e+000 206 183 115
9.093634e-001 -7.239226e-001 -6.427187e+000 208 200 189
4.207683e-001 -1.140783e+000 -7.222369e+000 134 114 69
5.471655e-001 -1.102451e+000 -7.098234e+000 13 5 8
1.116433e+000 -6.054302e-001 -6.158682e+000 150 2 16
-2.124451e+000 -3.011010e+000 -1.062668e+001 37 31 33
-2.106319e+000 -3.146611e+000 -1.062617e+001 37 31 33
-1.597796e+000 -2.325579e+000 -8.647444e+000 39 33 35
-5.503424e-001 7.397890e-001 -7.898154e+000 191 41 42
-7.011986e-002 6.959874e-001 -7.186254e+000 206 197 188
-4.634460e-001 4.759858e-001 -7.783704e+000 208 194 184
-1.787984e-001 5.025999e-001 -7.319820e+000 202 194 183
5.200459e-001 3.285493e-001 -6.815485e+000 141 133 122
1.688106e-001 1.303545e-001 -6.729286e+000 155 145 136
-8.918513e-001 -1.705245e-001 -6.163279e+000 39 24 28
-1.810456e-001 -1.368666e-001 -6.636568e+000 182 160 154
5.042065e-001 2.212456e-002 -6.542591e+000 220 216 210
5.043230e-001 2.199903e-002 -6.542837e+000 220 216 210
3.062061e-001 -1.128279e-001 -6.667693e+000 255 252 244
6.803891e-001 -2.360665e-002 -6.449737e+000 188 179 172
7.236084e-001 8.284429e-003 -6.441244e+000 213 205 196
8.077632e-001 -2.690020e-002 -6.411100e+000 180 172 160
8.083789e-001 -2.713331e-002 -6.412596e+000 180 172 160
5.923887e-001 -1.310394e-001 -6.536036e+000 226 221 217
5.923887e-001 -1.310394e-001 -6.536036e+000 226 221 217
1.195991e+000 -4.973386e-001 -6.132693e+000 229 58 69
-2.084753e+000 -2.931878e+000 -1.063340e+001 24 18 20
-2.033102e+000 -3.028249e+000 -1.054347e+001 20 14 16
-1.954131e+000 -3.176205e+000 -1.045710e+001 29 23 25
6.760886e-001 1.095647e+000 -6.590322e+000 199 40 48
-1.960012e-001 1.025773e+000 -7.556680e+000 191 41 48
-8.935140e-002 7.669612e-001 -7.197017e+000 177 168 159
-3.153844e-002 7.861536e-001 -7.172976e+000 218 211 201
7.516571e-001 8.210883e-001 -6.404260e+000 189 43 49
-5.453457e-001 5.384718e-001 -7.921845e+000 38 24 21
-1.172630e-001 4.820081e-001 -7.285431e+000 145 133 122
1.629062e-001 4.197734e-001 -6.906427e+000 188 175 166
4.120861e-001 3.734828e-001 -6.848108e+000 170 162 149
6.942736e-001 1.791981e-001 -6.621797e+000 155 145 134
-9.380915e-001 -2.031081e-001 -6.202675e+000 168 147 100
-9.380915e-001 -2.031081e-001 -6.202675e+000 168 147 100
-8.649332e-001 -1.942466e-001 -6.223594e+000 151 127 81
7.209198e-001 1.209481e-002 -6.428107e+000 213 205 196
1.231998e+000 -3.220991e-002 -6.074123e+000 247 80 90
5.178066e-001 -5.204030e-001 -6.705516e+000 81 64 37
6.458556e-001 -5.760547e-001 -6.573423e+000 204 191 182
1.355129e+000 -3.439990e-001 -5.968031e+000 163 139 91
4.667142e-001 -1.192608e+000 -7.161438e+000 41 28 23
-1.864372e+000 -3.136472e+000 -1.046923e+001 68 64 65
-1.199638e-001 9.749083e-001 -7.206961e+000 220 197 200
5.807601e-001 6.204936e-001 -6.731264e+000 210 201 194
1.278878e-001 4.824967e-001 -6.984562e+000 153 141 129
3.785537e-001 5.108906e-001 -6.926145e+000 178 169 160
1.543459e-002 4.175147e-001 -7.120442e+000 140 130 118
1.177202e-001 2.415447e-001 -6.844744e+000 128 116 106
1.933734e-001 2.343149e-001 -6.790046e+000 201 194 184
5.179576e-001 3.399589e-001 -6.828990e+000 151 143 132
8.180094e-001 2.741177e-001 -6.453476e+000 249 245 240
1.361337e-001 -2.514607e-003 -6.686066e+000 127 117 107
-7.427353e-001 -1.862347e-001 -6.295517e+000 155 66 34
3.218208e-002 -2.872799e-001 -6.716710e+000 244 241 236
8.165307e-001 -1.039497e-001 -6.351133e+000 133 119 108
7.272105e-001 -2.458693e-001 -6.476787e+000 234 230 221
5.631222e-001 1.074180e+000 -6.701355e+000 207 41 48
-4.047583e-001 3.630503e-001 -7.734926e+000 37 29 27
1.027466e+000 5.892965e-001 -6.184575e+000 17 7 8
-3.910346e-001 -6.721307e-002 -6.482349e+000 87 27 18
2.546565e-001 -4.861806e-001 -6.719737e+000 63 35 24
1.141941e+000 -1.998722e-001 -6.164334e+000 108 27 33
7.793731e-001 -4.021818e-001 -6.345127e+000 222 197 140
1.025223e+000 -3.081953e-001 -6.183478e+000 175 151 103
1.006841e+000 -5.310623e-001 -6.266518e+000 227 214 206
3.578839e-001 7.569267e-001 -6.733185e+000 230 221 214
6.397415e-001 7.119283e-001 -6.632599e+000 215 208 200
4.684811e-001 5.407148e-001 -6.773342e+000 211 204 196
4.712347e-001 5.403834e-001 -6.779508e+000 211 204 196
8.424891e-001 3.542896e-001 -6.425894e+000 174 159 147
4.242287e-001 1.517994e-001 -6.653941e+000 178 168 159
1.150406e+000 -3.617939e-001 -6.117070e+000 108 88 50
7.360138e-002 7.677279e-001 -7.088766e+000 217 208 201
1.143603e-002 5.529817e-001 -7.174102e+000 186 176 167
6.351980e-002 4.088656e-001 -6.999732e+000 131 121 111
9.546872e-001 3.478627e-001 -6.280431e+000 249 248 244
8.195911e-001 -2.112645e-001 -6.346825e+000 247 240 234
4.315912e-001 -1.133521e+000 -7.225948e+000 140 121 72
1.506075e-001 1.113498e+000 -7.095465e+000 210 201 196
4.351104e-001 6.573193e-001 -6.774505e+000 233 224 217
-2.785282e-001 -8.319886e-002 -6.539077e+000 76 21 19
5.920271e-001 1.399173e-001 -6.565491e+000 138 126 114
6.296454e-001 -4.415811e-001 -6.599096e+000 170 148 100
-3.052078e-001 6.079915e-001 -7.727933e+000 215 206 197
-1.811540e-002 -6.942537e-001 -6.790398e+000 39 31 29
7.835561e-001 4.641504e-001 -6.448479e+000 243 242 237
-2.304786e-001 3.485200e-002 -6.677543e+000 73 25 18
1.568912e-002 4.168257e-002 -6.724738e+000 142 132 122
-1.731483e-001 -3.667554e-001 -6.621698e+000 172 159 150
-2.478183e-001 -3.959523e-001 -6.559681e+000 171 161 150
2.745594e-001 7.380122e-001 -7.055928e+000 175 166 157
2.895772e-001 2.528648e-001 -6.797182e+000 124 113 103
-1.391894e-001 2.793154e-003 -6.673058e+000 149 136 128
-2.648812e-001 -3.073898e-001 -6.589909e+000 168 150 139
8.344689e-001 9.103172e-001 -6.406088e+000 122 32 33
-1.339065e-001 5.365179e-001 -7.311590e+000 164 156 145
-5.357579e-001 -7.379813e-002 -6.511573e+000 108 35 15
-3.777324e-001 -3.637905e-001 -6.391766e+000 168 149 148
1.254939e+000 8.756798e-002 -6.024507e+000 180 41 48
4.994471e-001 -1.043022e-001 -6.607315e+000 253 250 245
-1.492447e-001 -4.395948e-001 -6.728816e+000 240 237 230
6.958549e-001 -7.768355e-001 -6.664462e+000 181 39 35
9.186627e-001 7.003506e-001 -6.328063e+000 189 34 42
7.922681e-001 6.677684e-001 -6.404204e+000 249 64 78
1.132585e+000 2.617563e-001 -6.159208e+000 227 60 68
1.222043e+000 9.294569e-002 -6.043416e+000 121 11 20
-8.385377e+000 -6.064306e+000 -1.834956e+001 106 97 95
-4.487649e-001 9.632266e-001 -7.767347e+000 25 18 16
2.371905e-001 4.494178e-001 -6.921077e+000 134 124 111
-5.612084e-003 1.192649e+000 -7.235676e+000 181 36 41
1.374635e+000 -1.706620e-001 -5.928001e+000 190 165 111
1.374635e+000 -1.706620e-001 -5.928001e+000 190 165 111
1.917915e-001 5.966302e-002 -6.690873e+000 132 120 108
-6.284013e-001 -1.259663e-001 -6.457896e+000 69 22 15
5.870683e-001 1.007909e-001 -7.020854e+000 142 132 120
6.563898e-001 6.963843e-001 -6.597332e+000 194 186 177
-1.607913e-001 4.125550e-001 -7.257741e+000 152 140 128
-1.600982e-001 2.096632e-001 -6.963881e+000 137 127 117
-1.178353e-001 1.674306e-001 -6.693304e+000 102 88 79
-7.321238e-001 -1.393994e-001 -6.772138e+000 114 51 31
-4.797139e-001 -2.306480e-001 -6.467502e+000 186 45 12
2.598978e-001 9.499533e-001 -7.044245e+000 195 186 181
-9.374596e-001 -1.722654e-001 -6.127423e+000 140 113 65
-9.123349e-001 -3.594297e-001 -6.439031e+000 51 37 33
-5.028882e-001 -2.111966e-001 -6.381779e+000 146 24 8
-6.619632e-001 -3.400569e-001 -6.316748e+000 220 167 124
-6.325428e-001 -2.983794e-001 -6.276169e+000 82 29 13
-6.325428e-001 -2.983794e-001 -6.276169e+000 82 29 13
-4.306102e-001 9.687869e-001 -7.770231e+000 20 20 18
2.822152e-001 7.453906e-001 -6.742593e+000 209 200 191
6.497158e-001 8.412637e-001 -6.472773e+000 187 177 171
-7.479859e-002 4.958880e-001 -7.207249e+000 180 172 162
-1.918169e-001 4.678273e-002 -6.679181e+000 89 32 21
-7.007331e-001 -3.537097e-001 -6.363419e+000 252 220 167
-6.591693e-001 -3.179066e-001 -6.311173e+000 253 210 175
1.266693e-001 1.963908e-001 -6.765769e+000 162 152 142
-5.968557e-001 -3.005236e-001 -6.502530e+000 160 51 24
-5.482740e-001 -2.901857e-001 -6.478670e+000 239 157 124
-2.794335e-001 -1.763676e-001 -6.449740e+000 218 101 62
4.215778e-001 1.124290e+000 -6.819864e+000 227 214 213
-1.308668e-001 5.477236e-001 -7.302481e+000 165 155 145
7.599005e-001 7.022399e-001 -6.430068e+000 208 52 57
6.825395e-001 6.187402e-001 -6.799336e+000 150 140 128
-9.048106e-001 -1.909626e-001 -6.231885e+000 46 31 24
-2.452974e-001 -1.680970e-001 -6.423231e+000 99 24 18
-6.207317e-001 -3.342167e-001 -6.348788e+000 237 191 148
-4.422932e-001 -3.702936e-001 -6.336841e+000 99 81 63
-8.496400e-001 -1.776185e-001 -6.151091e+000 140 117 76
6.015181e-001 1.169022e+000 -6.654307e+000 196 44 50
-6.680087e-001 -3.382249e-001 -6.318661e+000 232 174 132
-8.638783e-001 -1.460117e-001 -6.334120e+000 137 59 23
-3.004554e-001 -2.118583e-001 -6.399080e+000 227 105 57
3.244735e-001 8.976589e-001 -6.920166e+000 153 142 134
-1.821005e-001 7.023814e-001 -7.499331e+000 171 163 153
-2.090477e+000 -2.698629e+000 -1.055048e+001 58 49 50
9.493685e-001 6.315641e-001 -6.310010e+000 200 52 59
7.677136e-001 -9.269171e-001 -6.566464e+000 230 98 105
-8.946587e+000 -1.026329e+001 -2.288516e+001 23 19 20
2.539875e-001 -4.903485e-001 -6.736481e+000 63 35 24
5.007762e-001 1.276212e+000 -6.712989e+000 174 44 51
1.023861e-001 7.077415e-001 -7.012802e+000 216 207 198
7.706288e-001 8.603720e-001 -6.346827e+000 188 44 48
3.694604e-001 2.705109e-001 -6.758912e+000 121 109 94
2.622264e-001 1.786823e-001 -6.638511e+000 191 178 169
-2.947398e-001 -1.226079e-001 -6.514467e+000 84 16 7
-4.104095e-001 -2.445932e-001 -6.402504e+000 167 86 64
5.092724e-001 -6.983091e-002 -6.526000e+000 214 209 202
5.133420e-001 -1.000951e-001 -6.565432e+000 223 217 211
1.274779e-002 7.168007e-001 -7.162529e+000 205 198 190
8.398448e-001 8.733562e-001 -6.386561e+000 82 12 15
7.667947e-001 8.482063e-001 -6.267368e+000 206 47 61
8.528578e-002 2.637902e-001 -6.840514e+000 152 142 133
-4.171202e-001 -2.315880e-002 -6.576533e+000 118 50 32
-4.171202e-001 -2.315880e-002 -6.576533e+000 118 50 32
-1.213857e-002 7.181356e-002 -6.740564e+000 164 151 143
-2.476315e-001 -5.223805e-002 -6.635655e+000 84 17 11
2.658722e-001 -1.214518e-001 -6.651694e+000 254 254 249
-1.841682e+000 -3.783768e+000 -1.038356e+001 45 39 41
3.579792e-001 1.353436e+000 -6.902066e+000 200 48 52
4.393222e-001 1.185315e+000 -6.893339e+000 214 51 52
4.268634e-001 1.182375e+000 -6.813851e+000 214 51 52
-1.650294e-001 9.186393e-001 -7.491061e+000 203 196 186
-2.047148e-001 6.206529e-001 -7.524147e+000 180 171 162
-1.905092e-001 6.657950e-002 -6.698708e+000 135 120 113
1.195054e+000 -3.330782e-001 -6.065703e+000 170 147 95
1.212023e+000 -3.183222e-001 -6.062377e+000 164 139 85
8.456175e-001 6.270002e-001 -6.342735e+000 245 68 80
7.086246e-001 2.507159e-001 -6.640056e+000 172 163 152
7.520986e-001 -2.647445e-001 -6.469827e+000 229 225 216
-6.486346e+000 -7.615618e+000 -1.756656e+001 31 32 36
-4.766981e+000 -6.708552e+000 -1.502884e+001 131 127 141
-4.535328e+000 -7.003223e+000 -1.515084e+001 21 19 22
-6.014574e+000 -8.805631e+000 -1.680901e+001 110 109 122
3.970110e-001 1.335719e+000 -6.850580e+000 204 47 54
4.460063e-001 1.299777e+000 -6.776867e+000 194 38 42
8.003182e-001 6.371767e-001 -6.406942e+000 250 245 244
1.306134e-001 -5.542829e-002 -6.657290e+000 160 146 135
3.182569e-001 -2.141594e-001 -6.720879e+000 218 209 202
3.182569e-001 -2.141594e-001 -6.720879e+000 218 209 202
4.538575e-001 -2.714243e-001 -6.721086e+000 217 210 200
1.256938e+000 -1.024145e-001 -6.046390e+000 25 9 12
9.141955e-001 -7.820388e-001 -6.464824e+000 210 205 196
1.027065e+000 -7.774961e-001 -6.334216e+000 250 75 86
1.190578e+000 -8.489625e-001 -6.251971e+000 250 86 94
1.190578e+000 -8.489625e-001 -6.251971e+000 250 86 94
-4.598430e+000 -6.965431e+000 -1.497480e+001 134 131 146
-5.541726e+000 -8.689774e+000 -1.687697e+001 51 51 59
1.640499e-001 -4.173137e-001 -6.713572e+000 44 28 15
1.376000e+000 -1.639016e-001 -5.913756e+000 204 174 122
1.376000e+000 -1.639016e-001 -5.913756e+000 204 174 122
1.176643e+000 -8.317024e-001 -6.232479e+000 250 78 90
1.176643e+000 -8.317024e-001 -6.232479e+000 250 78 90
1.108733e+000 4.175054e-001 -6.142321e+000 218 54 65
2.664296e-002 -5.328334e-001 -6.852072e+000 43 34 30
1.185667e+000 -1.523672e-001 -6.154037e+000 228 64 75
5.931058e-001 9.565796e-001 -6.663667e+000 230 219 215
2.696085e-001 6.581547e-001 -7.002477e+000 139 126 117
6.506339e-001 2.817811e-001 -6.683128e+000 209 202 194
-2.680295e-002 -3.381920e-001 -6.706921e+000 125 108 78
-6.300978e+000 -7.728951e+000 -1.728879e+001 115 112 119
-6.210906e+000 -8.102416e+000 -1.704789e+001 133 131 142
-6.210906e+000 -8.102416e+000 -1.704789e+001 133 131 142
5.969498e-001 9.489613e-001 -6.659411e+000 229 221 218
2.585665e-001 -4.977885e-001 -6.754262e+000 66 33 26
-4.862072e+000 -6.799509e+000 -1.554974e+001 167 169 184
-6.333752e+000 -6.408776e+000 -1.800189e+001 19 17 22
-3.040480e-001 6.101148e-001 -7.719397e+000 213 204 195
2.445543e-001 7.529353e-001 -7.165062e+000 177 170 162
8.703918e-001 8.562406e-001 -6.365302e+000 109 22 20
-1.709348e-001 1.381085e-001 -6.795236e+000 107 93 84
-1.318073e-001 1.045536e-001 -6.716234e+000 145 130 123
-4.086668e-001 -4.743108e-002 -6.603909e+000 87 19 8
-8.295731e-002 3.616699e-002 -6.661022e+000 128 114 109
-5.030466e-001 -1.271425e-001 -6.480752e+000 125 31 14
-7.774804e-001 -2.095467e-001 -6.275264e+000 87 29 14
-4.931766e+000 -6.357457e+000 -1.512544e+001 95 90 100
1.118389e+000 -6.729258e-001 -6.158863e+000 243 85 83
-1.326728e-001 9.356541e-001 -7.421962e+000 183 176 168
-5.202178e-001 6.201361e-001 -7.881978e+000 206 40 46
-1.758543e-001 6.498350e-001 -7.491671e+000 166 157 148
3.884725e-001 2.648672e-001 -6.912676e+000 144 130 119
-2.120504e-001 7.123447e-002 -6.706556e+000 79 33 28
-4.530139e-001 -5.386847e-002 -6.550413e+000 139 61 39
-6.321600e-001 -1.468661e-001 -6.441500e+000 74 17 10
3.690807e-001 -3.335171e-001 -6.734759e+000 126 110 95
7.129129e-001 -8.173027e-002 -6.410127e+000 218 214 205
7.129129e-001 -8.173027e-002 -6.410127e+000 218 214 205
-5.749503e+000 -8.855418e+000 -1.665963e+001 156 161 183
8.251712e-001 8.753153e-001 -6.407009e+000 76 7 10
1.634401e-001 2.316928e-001 -6.787663e+000 199 191 180
8.652673e-001 5.599201e-001 -6.413371e+000 207 201 195
1.096649e+000 4.054119e-001 -6.149480e+000 234 67 77
-2.802056e-001 -1.940468e-001 -6.510416e+000 214 102 65
9.010555e-001 -9.522182e-001 -6.556225e+000 226 78 79
-1.435194e+000 -2.834457e+000 -8.640203e+000 25 19 21
-5.673710e-001 5.976767e-001 -7.969792e+000 217 58 56
-1.528905e-001 3.903280e-001 -7.211405e+000 140 127 118
-6.858563e-002 4.697542e-001 -7.199358e+000 140 130 117
6.850191e-001 6.641783e-001 -6.594234e+000 166 156 146
3.241068e-001 3.024359e-001 -6.817363e+000 119 104 94
-2.713552e-001 6.416724e-002 -6.724549e+000 61 12 11
5.084680e-001 2.309293e-001 -6.703944e+000 120 108 94
-3.013279e-001 -6.364015e-002 -6.619899e+000 78 23 16
1.131921e+000 2.628871e-001 -6.159615e+000 242 73 82
-1.880874e-001 -3.876162e-001 -6.649932e+000 169 148 135
-5.024289e+000 -6.686009e+000 -1.497188e+001 9 8 14
-1.509416e+000 -5.027232e+000 -1.039822e+001 46 40 42
4.742745e-001 1.774698e-001 -6.640700e+000 203 195 185
8.265459e-001 9.889316e-002 -6.492545e+000 194 185 178
-6.210749e+000 -7.355931e+000 -1.788406e+001 84 84 92
1.143618e+000 -3.964943e-001 -6.102642e+000 110 86 48
-4.976158e+000 -6.824921e+000 -1.500372e+001 155 153 167
-4.962149e+000 -6.801030e+000 -1.496717e+001 155 153 167
-6.068425e+000 -8.841552e+000 -1.670944e+001 130 131 149
-1.968162e-001 8.886336e-001 -7.500209e+000 202 193 185
4.960144e-001 7.712734e-001 -6.792448e+000 168 157 153
4.938967e-001 7.696803e-001 -6.787859e+000 168 157 153
6.658783e-001 3.645611e-001 -6.638789e+000 194 185 176
1.003092e+000 -1.041428e+000 -6.463642e+000 231 66 80
1.003092e+000 -1.041428e+000 -6.463642e+000 231 66 80
6.710366e-001 1.093186e+000 -6.572613e+000 209 45 56
9.334146e-001 -2.861167e-001 -6.285363e+000 91 74 54
9.677916e-001 -8.630858e-002 -6.306112e+000 164 151 143
1.016433e+000 -2.899502e-001 -6.143351e+000 182 157 108
-4.587495e+000 -7.040724e+000 -1.459908e+001 161 161 173
-5.561863e+000 -8.162983e+000 -1.643100e+001 10 8 12
-5.540308e+000 -8.119797e+000 -1.636652e+001 10 8 12
1.278085e+000 -1.281698e-001 -6.022660e+000 37 26 27
-5.907077e+000 -8.838948e+000 -1.683883e+001 168 173 195
-2.201990e-001 2.697062e-001 -7.379455e+000 122 28 31
-1.384067e-001 1.483214e-001 -6.587543e+000 142 129 120
-1.597090e-001 -3.366285e-002 -6.605910e+000 109 37 21
-1.309987e-001 -2.451579e-001 -6.653542e+000 240 229 226
4.846889e-001 -1.050355e-001 -6.612403e+000 238 235 228
-3.045608e-001 1.113671e+000 -7.605142e+000 29 19 19
-2.230761e-001 8.949827e-001 -7.555332e+000 203 194 185
2.894997e-001 7.797101e-001 -7.014158e+000 190 181 174
2.946802e-001 7.705802e-001 -7.057311e+000 190 181 174
2.125225e-001 2.655922e-001 -6.716859e+000 157 141 126
-4.657801e-001 -5.605951e-002 -6.518431e+000 144 65 43
-8.903857e-002 7.432733e-002 -6.747684e+000 131 116 109
-8.489724e-001 -2.402220e-001 -6.214770e+000 91 24 17
-5.319469e-001 -2.084026e-001 -6.399901e+000 251 139 101
-1.404487e-001 -3.598026e-001 -6.632013e+000 191 183 174
-1.860713e+000 -3.712870e+000 -1.038533e+001 41 35 37
9.450793e-001 -2.559016e-001 -6.310841e+000 139 122 110
5.414045e-001 -1.156131e+000 -7.124954e+000 241 221 182
1.629100e-002 1.370586e+000 -7.186526e+000 186 39 40
-2.888989e-001 -6.237458e-003 -7.754539e+000 35 27 26
-2.888989e-001 -6.237458e-003 -7.754539e+000 35 27 26
-5.556951e-001 -2.572738e-002 -6.638800e+000 69 16 8
-5.556951e-001 -2.572738e-002 -6.638800e+000 69 16 8
9.219357e-001 6.010083e-001 -6.366506e+000 214 57 66
-6.416844e-001 -1.671544e-001 -6.319995e+000 147 63 39
4.971933e-001 7.895788e-002 -6.634240e+000 131 119 107
-1.093127e-002 -2.176974e-001 -6.636498e+000 253 250 243
1.411305e-001 -1.877387e-001 -6.684757e+000 232 225 219
-6.950864e-001 -3.354619e-001 -6.310700e+000 43 35 33
-1.941177e-001 -4.104419e-001 -6.623862e+000 232 225 221
4.494963e-001 -4.416533e-001 -6.687023e+000 196 183 131
-1.768634e+000 -3.836504e+000 -1.043399e+001 53 47 47
6.619183e-002 1.224293e+000 -7.167855e+000 203 42 49
-2.803341e-001 -1.858362e-001 -6.490265e+000 227 116 77
-3.968712e-002 -1.903882e-001 -6.607416e+000 227 224 219
-4.614088e-001 4.772666e-001 -7.705309e+000 213 200 191
9.062258e-001 5.708277e-001 -6.375612e+000 174 33 44
1.013668e-001 -3.041921e-002 -6.676906e+000 159 149 140
9.871524e-002 -2.141768e-002 -6.654909e+000 159 149 140
-1.462370e-001 -4.072412e-001 -6.670507e+000 242 236 232
1.135920e+000 2.048901e-001 -6.148831e+000 195 35 45
1.135920e+000 2.048901e-001 -6.148831e+000 195 35 45
5.404399e-001 -3.165909e-001 -6.698650e+000 244 237 231
1.222123e+000 5.557001e-002 -6.020381e+000 229 83 91
8.083086e-001 -8.597282e-001 -6.538220e+000 219 47 59
3.029604e-001 9.932458e-001 -7.050957e+000 223 217 213
-4.598795e-001 -2.056914e-001 -6.466018e+000 249 132 87
7.035506e-001 -5.978631e-001 -6.528046e+000 229 217 208
-5.873872e-001 -1.423288e-001 -6.472482e+000 94 33 26
4.260665e-001 8.285669e-002 -6.623541e+000 199 190 181
5.536588e-001 5.802636e-002 -6.519744e+000 146 134 120
5.536588e-001 5.802636e-002 -6.519744e+000 146 134 120
5.806923e-001 8.845433e-003 -6.465188e+000 214 207 199
6.215973e-001 -4.247350e-001 -6.514546e+000 178 156 106
1.372772e-001 1.357558e+000 -7.075370e+000 203 48 54
-1.797158e-001 2.821548e-001 -7.390115e+000 184 174 162
-2.677722e-001 7.171501e-002 -7.218495e+000 220 212 205
-1.129157e-001 6.731506e-001 -7.359603e+000 168 162 150
-1.129157e-001 6.731506e-001 -7.359603e+000 168 162 150
6.003718e-001 -8.105333e-001 -6.713188e+000 251 250 245
-6.410187e-001 -1.466592e-001 -6.526428e+000 65 17 12
7.309097e-001 -3.609389e-001 -6.449783e+000 100 85 64
8.445104e-001 -9.630736e-001 -6.509078e+000 50 36 36
-4.031536e-001 2.645456e-001 -7.519547e+000 38 27 27
-2.901436e-001 -9.253826e-002 -6.567901e+000 66 11 8
3.863964e-001 -1.332918e-001 -6.685264e+000 245 242 234
3.870399e-001 -1.322897e-001 -6.682673e+000 245 242 234
1.039096e-002 -6.963256e-001 -6.824368e+000 35 30 27
-2.015682e+000 -3.443443e+000 -1.060743e+001 38 32 34
7.726736e-001 -1.304018e-001 -6.352647e+000 228 220 210
-4.459018e+000 -6.760349e+000 -1.513345e+001 30 28 33
-4.539683e+000 -6.797513e+000 -1.502428e+001 165 161 175
-6.166047e+000 -8.454873e+000 -1.679362e+001 9 7 10
-7.299021e-003 2.559406e-001 -6.948153e+000 145 132 123
-4.648909e-001 -7.990001e-002 -6.517550e+000 121 37 16
-4.517326e-001 -1.201451e-001 -6.468011e+000 129 34 14
9.279267e-001 -1.027602e+000 -6.573820e+000 48 30 30
4.390127e-001 1.201067e+000 -6.847822e+000 214 50 57
6.590306e-001 6.660215e-001 -6.629689e+000 204 194 185
-5.902823e+000 -9.050195e+000 -1.667416e+001 12 10 16
1.292174e-001 1.216767e+000 -7.076390e+000 232 192 168
2.369555e-001 7.230094e-001 -7.078480e+000 181 174 164
3.751044e-001 1.193700e+000 -6.875574e+000 203 32 40
-1.620200e-002 5.627107e-001 -7.162215e+000 208 197 191
-1.620200e-002 5.627107e-001 -7.162215e+000 208 197 191
1.248110e-001 6.229415e-001 -7.029830e+000 176 167 154
6.215408e-001 6.591965e-001 -6.682271e+000 187 181 170
-4.636840e-002 2.600037e-001 -7.040994e+000 145 135 125
2.423640e-001 3.022504e-001 -6.823347e+000 122 108 97
-4.670527e-001 -5.944004e-002 -6.525827e+000 144 65 43
-2.217627e-001 -3.737377e-002 -6.643529e+000 90 21 15
-6.301917e+000 -7.862454e+000 -1.766618e+001 79 79 80
-4.967117e+000 -6.392739e+000 -1.506316e+001 101 99 108
-4.833538e+000 -7.147843e+000 -1.512897e+001 156 154 168
-4.077533e+000 -7.556921e+000 -1.486420e+001 84 87 96
-1.632314e+000 -4.524815e+000 -1.035655e+001 50 44 48
-1.779033e-001 9.355216e-001 -7.513829e+000 161 147 139
-3.550007e-002 2.880937e-001 -7.039594e+000 130 118 106
3.097642e-001 3.122165e-001 -6.899329e+000 127 115 102
-6.178619e+000 -7.688532e+000 -1.725975e+001 80 79 84
-2.260376e+000 -3.328484e+000 -1.078850e+001 55 50 54
-5.517338e+000 -8.750002e+000 -1.678283e+001 120 121 139
-1.576988e+000 -4.602661e+000 -1.027663e+001 53 48 52
6.546643e-001 6.287049e-001 -6.668706e+000 153 143 133
-2.605508e-001 2.599822e-003 -6.642663e+000 70 20 17
9.436340e-001 4.273475e-001 -6.253507e+000 252 81 93
8.884273e-001 8.058199e-001 -6.345649e+000 21 1 4
-6.099416e-001 6.907757e-001 -8.025993e+000 38 24 20
3.130389e-001 5.403924e-002 -6.644288e+000 244 240 231
6.523111e-001 1.276813e-001 -6.574435e+000 189 175 165
-4.817230e+000 -6.812150e+000 -1.523357e+001 142 138 153
-4.206834e+000 -7.848177e+000 -1.487560e+001 11 7 14
-5.781767e+000 -7.527522e+000 -1.683691e+001 10 10 12
6.901067e-001 1.094409e+000 -6.527669e+000 186 44 53
-6.181500e+000 -7.537761e+000 -1.720382e+001 80 77 84
-1.182590e-001 1.522554e-001 -6.789973e+000 108 94 83
-1.032317e-001 7.944952e-002 -6.706715e+000 162 147 140
-1.032317e-001 7.944952e-002 -6.706715e+000 162 147 140
-4.404087e+000 -6.494882e+000 -1.511682e+001 47 45 48
3.475416e-001 2.549574e-001 -6.726006e+000 143 130 114
-4.709834e-001 -1.324776e-001 -6.485299e+000 126 37 16
-5.014930e-001 -2.358873e-001 -6.436474e+000 144 27 9
-5.533091e+000 -9.012511e+000 -1.662814e+001 116 124 147
6.056494e-001 -3.986660e-001 -6.588466e+000 147 133 108
1.101668e+000 -2.595638e-001 -6.180745e+000 141 114 76
-6.096710e+000 -7.389145e+000 -1.768341e+001 66 66 74
-4.775972e+000 -6.277457e+000 -1.524064e+001 136 136 146
-2.221292e+000 -2.742240e+000 -1.067542e+001 40 36 37
7.552488e-001 5.431030e-001 -6.473212e+000 235 232 223
7.673590e-001 5.619590e-001 -6.450353e+000 236 231 227
-4.105917e-001 -1.169441e-001 -6.526543e+000 90 20 11
-6.038141e+000 -8.907199e+000 -1.664185e+001 3 4 8
5.181475e-001 -1.750963e-002 -6.522582e+000 199 192 174
-1.800351e+000 -3.923775e+000 -1.046246e+001 28 22 24
5.241253e-001 -1.179144e+000 -7.135201e+000 42 29 20
-1.420034e+000 -5.558741e+000 -1.002983e+001 22 15 17
-9.215787e-002 1.247368e+000 -7.365005e+000 142 21 30
1.416642e-002 1.400281e+000 -7.131424e+000 33 14 15
-2.286409e-001 5.365502e-001 -7.566043e+000 192 184 173
5.821127e-001 1.215420e+000 -6.663884e+000 185 40 45
1.327828e-001 4.124098e-001 -6.973740e+000 136 124 112
-5.980020e+000 -7.225879e+000 -1.769562e+001 66 66 78
-2.252599e+000 -2.592080e+000 -1.064047e+001 36 30 30
-4.995832e+000 -6.362433e+000 -1.526376e+001 130 130 139
-4.908935e+000 -6.554261e+000 -1.487332e+001 122 120 130
-4.766779e+000 -6.602309e+000 -1.504911e+001 137 137 149
-3.620229e-001 -9.814531e-003 -6.623903e+000 56 15 9
-8.130474e-001 -2.202505e-001 -6.261941e+000 136 109 66
1.615822e-001 5.527625e-002 -6.696287e+000 170 160 148
-6.040746e+000 -8.596975e+000 -1.664918e+001 105 103 115
-1.814727e-001 -2.461501e-001 -6.684317e+000 233 209 149
-2.009198e+000 -3.440420e+000 -1.058762e+001 40 34 38
-1.960215e+000 -3.561184e+000 -1.054768e+001 44 40 41
-4.392822e-001 -4.082931e-001 -6.449658e+000 164 143 123
-2.876720e-001 -4.302109e-001 -6.533144e+000 234 229 225
-2.506142e-001 -4.457929e-001 -6.575813e+000 251 251 246
6.741802e-001 -7.274124e-001 -6.640345e+000 174 161 141
9.249654e-001 -9.929421e-001 -6.616510e+000 235 82 88
-1.370714e+000 -5.564850e+000 -1.005961e+001 111 101 102
-1.369347e+000 -5.530787e+000 -1.002900e+001 111 101 102
3.827490e-001 1.374490e+000 -6.794721e+000 27 10 13
-2.644708e-001 1.042324e-001 -6.753765e+000 78 42 41
-6.167806e+000 -8.149399e+000 -1.671657e+001 11 9 17
-4.999581e+000 -6.610287e+000 -1.514480e+001 118 116 128
-1.910211e-001 -2.461657e-002 -6.679382e+000 112 43 32
-4.669470e+000 -6.876848e+000 -1.483796e+001 109 109 117
-2.052351e+000 -3.290035e+000 -1.059477e+001 49 44 46
-2.790910e-001 -1.911154e-001 -6.498712e+000 228 115 76
-3.828915e-002 -4.654295e-001 -6.759065e+000 40 33 25
1.178087e-001 -2.508632e-001 -6.677458e+000 199 189 179
1.178045e+000 3.489661e-001 -6.108125e+000 32 10 16
1.245897e+000 1.789166e-001 -6.050401e+000 32 18 19
-1.486143e+000 -4.921686e+000 -1.023628e+001 52 46 48
-1.429932e+000 -4.994286e+000 -1.012904e+001 45 40 44
-1.384457e+000 -4.999168e+000 -1.001308e+001 49 43 43
7.782771e-001 -9.433147e-001 -6.596280e+000 234 96 96
-3.946524e-001 7.556453e-001 -7.730785e+000 194 172 166
-1.614095e-001 3.898806e-001 -7.203256e+000 126 114 102
-1.614095e-001 3.898806e-001 -7.203256e+000 126 114 102
5.126560e-001 6.125808e-001 -6.781518e+000 184 177 167
5.126560e-001 6.125808e-001 -6.781518e+000 184 177 167
-5.195103e-001 -1.831687e-001 -6.473869e+000 180 74 42
4.545790e-001 -2.762769e-001 -6.727454e+000 216 210 197
4.593824e-001 -5.125969e-001 -6.717763e+000 251 251 241
-1.355288e+000 -5.461516e+000 -1.008037e+001 19 9 10
-2.092447e-001 3.699728e-002 -7.594584e+000 89 8 9
-5.451888e-001 -2.603967e-001 -6.478243e+000 212 107 66
1.266355e+000 -2.921704e-003 -6.046518e+000 32 11 18
-1.440474e+000 -5.382583e+000 -1.001706e+001 62 51 49
5.153594e-001 1.244418e+000 -6.722603e+000 211 51 56
-1.636103e-001 5.446129e-001 -7.505966e+000 203 195 184
-2.257279e-001 1.450854e-001 -7.685485e+000 132 17 24
6.840435e-001 -7.907522e-001 -6.595522e+000 45 34 32
1.598549e-001 3.430193e-001 -6.886890e+000 132 117 106
-4.031485e+000 -7.697683e+000 -1.512037e+001 15 13 18
1.048723e+000 3.360160e-001 -6.225899e+000 226 61 70
2.490765e-001 -5.075648e-001 -6.766260e+000 71 45 31
2.473078e-001 -5.005713e-001 -6.759859e+000 71 45 31
1.026173e+000 -2.910975e-001 -6.168738e+000 199 176 122
-1.933142e-001 1.165688e+000 -7.452052e+000 201 50 57
2.579648e-001 6.622948e-001 -6.994417e+000 140 128 116
5.675758e-001 -3.743334e-001 -6.673678e+000 99 84 64
8.177115e-001 -2.366672e-001 -6.384964e+000 255 252 247
-2.982963e-001 -1.481375e-001 -6.861391e+000 120 52 33
2.007904e-001 1.100172e+000 -7.097300e+000 219 212 206
9.648308e-001 1.861306e-001 -6.263596e+000 225 214 208
1.191877e-001 1.222616e+000 -7.109743e+000 219 54 62
2.826397e-001 7.846281e-001 -7.013609e+000 200 193 185
1.181063e-001 6.669249e-001 -7.065140e+000 161 147 136
-9.947085e-002 2.147164e-001 -6.958802e+000 140 127 113
6.167782e-001 5.857264e-001 -6.637989e+000 140 128 115
-1.231331e-001 6.315546e-002 -6.749290e+000 125 111 102
-8.897907e-002 4.317328e-002 -6.686892e+000 135 120 112
-9.110150e-001 -2.815171e-001 -6.393026e+000 141 75 51
-2.891073e-001 -8.842586e-002 -6.611293e+000 93 35 28
-8.151614e-001 -2.274684e-001 -6.246452e+000 77 23 21
-7.452527e-001 -2.456962e-001 -6.286038e+000 114 28 9
-2.748629e-001 -4.126421e-001 -6.554933e+000 183 174 167
4.890834e-002 -4.011346e-001 -6.696020e+000 196 180 165
5.956153e-001 -2.990715e-001 -6.572868e+000 161 145 128
-9.473800e-002 4.867336e-001 -7.282922e+000 164 153 143
1.011762e-001 7.083052e-001 -7.082752e+000 222 212 203
3.027193e-001 7.673860e-001 -6.990940e+000 190 181 172
-7.461043e-001 -1.749118e-001 -6.885007e+000 141 63 46
3.578326e-001 3.714190e-001 -6.844226e+000 162 150 138
8.718821e-001 5.631459e-001 -6.404516e+000 209 201 191
-1.786407e+000 -3.988622e+000 -1.047828e+001 29 25 26
-7.252348e-001 -3.394394e-001 -6.309779e+000 224 114 84
1.012083e+000 -7.079311e-001 -6.269549e+000 249 96 104
-1.967433e-001 1.039520e+000 -7.573189e+000 171 28 35
-2.382493e-001 -5.754001e-002 -6.643606e+000 84 20 11
-8.439774e-001 -3.371280e-001 -6.332833e+000 255 163 129
-2.636305e-001 -1.366729e-001 -6.519195e+000 116 44 32
-2.636305e-001 -1.366729e-001 -6.519195e+000 116 44 32
-1.075798e-001 -2.793980e-001 -6.673725e+000 240 231 226
-1.011529e-001 -1.858990e-001 -6.618839e+000 227 222 216
-7.034768e-003 -1.639216e-001 -6.610168e+000 253 248 242
2.719278e-001 -7.125406e-002 -6.636117e+000 221 214 206
9.780016e-001 6.644886e-001 -6.266746e+000 203 58 66
-3.679468e-001 -3.996011e-001 -6.444799e+000 198 194 187
9.036253e-003 -5.026040e-001 -6.803930e+000 36 27 22
4.827478e-001 -6.760756e-001 -6.766646e+000 252 252 240
2.236532e-002 1.360285e+000 -7.217263e+000 190 39 46
6.521539e-001 6.007846e-001 -6.613368e+000 171 159 145
7.970627e-001 6.416446e-001 -6.397280e+000 248 249 240
-3.378109e-001 -3.909024e-001 -6.462716e+000 222 213 207
8.986183e-001 4.855119e-001 -6.322637e+000 184 169 156
5.929467e-001 8.803326e-002 -6.481792e+000 191 181 168
5.225747e-001 -1.035188e-001 -6.507557e+000 217 210 200
6.828639e-001 -7.492572e-001 -6.579817e+000 56 42 40
6.828639e-001 -7.492572e-001 -6.579817e+000 56 42 40
-4.656982e-001 -8.800405e-003 -6.855943e+000 44 12 13
8.285130e-001 8.739703e-001 -6.417777e+000 88 7 15
-4.927310e-001 -3.564215e-001 -6.452653e+000 247 188 154
-9.345505e-003 -1.156488e-001 -6.597017e+000 239 232 229
-5.303143e-002 -3.145667e-001 -6.678585e+000 66 47 26
5.749877e-001 -1.098987e-001 -6.487765e+000 230 226 217
-4.395340e-001 8.799657e-001 -7.838567e+000 195 39 46
5.163532e-001 3.297696e-001 -6.810575e+000 141 129 119
8.976364e-001 7.633541e-001 -6.323046e+000 237 81 90
-8.021021e-001 -1.804599e-001 -6.257451e+000 74 22 10
-1.376527e-001 -8.107521e-002 -6.614135e+000 207 188 180
8.460481e-001 6.033084e-001 -6.387464e+000 253 253 251
-5.223419e-001 -3.496271e-001 -6.499249e+000 247 184 142
-3.539527e-001 -3.957126e-001 -6.467364e+000 190 178 171
-3.046451e-001 -3.267059e-001 -6.489225e+000 167 144 133
4.987753e-001 -3.901909e-001 -6.599332e+000 254 252 203
1.137378e+000 2.358889e-001 -6.133269e+000 207 45 57
-1.453598e-001 4.315756e-001 -7.349838e+000 133 121 109
3.821399e-001 5.065201e-001 -6.930166e+000 187 177 168
5.126195e-001 3.362983e-001 -6.802293e+000 141 130 119
7.999220e-001 8.031227e-001 -6.354528e+000 243 82 92
1.017541e+000 -5.337639e-001 -6.286307e+000 244 230 198
1.279935e-001 1.404238e+000 -7.160010e+000 14 3 9
-4.681629e-001 6.035389e-001 -7.852818e+000 188 177 168
-3.796550e-001 3.020772e-001 -7.825967e+000 42 31 29
2.092290e-001 5.569886e-001 -6.979642e+000 231 222 216
6.070573e-001 -7.944352e-001 -6.684138e+000 254 255 247
1.199786e+000 1.894761e-001 -6.087131e+000 221 60 68
1.140507e+000 -2.009733e-001 -6.166490e+000 77 11 15
-1.168927e-001 7.161609e-001 -7.258388e+000 169 160 145
4.120095e-001 -3.759702e-001 -6.724714e+000 80 62 41
9.456801e-001 3.616501e-001 -6.265921e+000 255 251 246
1.061306e+000 -6.282798e-001 -6.270721e+000 172 35 40
6.596838e-001 5.645918e-001 -6.610851e+000 136 122 111
1.868961e-002 -2.507110e-002 -6.686381e+000 136 119 111
-2.956132e-001 -3.787456e-001 -6.537358e+000 169 151 137
4.133678e-001 -5.346086e-001 -6.646486e+000 254 255 246
1.081655e+000 -4.374403e-002 -6.212689e+000 233 226 218
-6.496257e-001 -1.584723e-001 -6.555654e+000 63 22 19
8.011285e-001 5.599917e-001 -6.416692e+000 255 255 251
-4.606383e-003 5.093369e-002 -7.197336e+000 118 104 93
-4.000963e-001 1.831807e-001 -7.722898e+000 39 30 28
2.662479e-001 -2.535206e-001 -6.736302e+000 243 234 225
-7.390253e+000 -6.352311e+000 -2.201312e+001 135 124 120
-4.684080e+000 -6.906677e+000 -1.489391e+001 111 109 122
-4.946976e+000 -6.781521e+000 -1.494333e+001 165 163 172
-4.023118e-001 -2.640809e-002 -6.600351e+000 117 51 38
-8.152719e-002 3.589840e-002 -6.667494e+000 131 116 109
-2.035721e+000 -3.364443e+000 -1.059566e+001 41 35 39
7.238951e-001 2.584628e-001 -6.569828e+000 184 176 165
1.151728e+000 1.736877e-001 -6.140977e+000 227 69 77
1.150265e+000 1.716490e-001 -6.141392e+000 227 69 77
-5.270805e+000 -1.248281e+001 -1.744591e+001 43 59 116
6.538839e-001 6.304376e-001 -6.656741e+000 157 147 136
4.108418e-001 2.159030e-001 -6.831713e+000 131 115 100
1.211573e+000 2.256772e-001 -6.056819e+000 207 52 57
2.779269e-001 1.055552e+000 -7.033499e+000 203 196 188
2.772547e-001 1.056152e+000 -7.031280e+000 203 196 188
-1.906649e-001 1.566447e-001 -6.898145e+000 129 115 104
-1.443313e-001 9.527661e-002 -6.713306e+000 126 112 103
-1.405989e-001 8.836738e-002 -6.724305e+000 126 112 103
2.256492e-001 1.878774e-001 -6.707677e+000 197 187 175
4.872622e-002 6.826442e-001 -7.138659e+000 210 201 191
3.539953e-001 1.200654e+000 -6.948790e+000 209 42 51
-2.396565e-001 3.666975e-002 -6.720849e+000 108 90 76
-2.394181e-001 3.808407e-002 -6.719777e+000 108 90 76
9.734340e-001 6.654114e-001 -6.262478e+000 203 58 65
-1.980916e-001 8.910171e-001 -7.558753e+000 209 200 191
-1.581736e-001 9.970082e-001 -7.448288e+000 187 175 163
-1.306827e-001 5.310343e-001 -7.274242e+000 157 147 137
-2.383096e-001 -1.961787e-001 -7.507862e+000 202 195 182
-1.901953e-001 1.874436e-001 -7.030514e+000 120 106 95
8.643708e-001 8.738111e-001 -6.373569e+000 122 32 36
-6.585503e-001 -2.838645e-001 -6.301741e+000 49 19 16
9.227892e-001 8.635127e-002 -6.597437e+000 239 233 221
6.508308e-001 -6.083416e-001 -6.627374e+000 246 233 178
-6.143542e-001 6.200750e-001 -8.030083e+000 185 42 46
7.131109e-002 1.395242e+000 -7.186562e+000 81 18 27
-1.090661e-001 6.978995e-001 -7.257132e+000 168 159 145
-2.198790e+000 -2.912305e+000 -1.073178e+001 45 39 41
-1.762965e-001 4.876714e-001 -7.433901e+000 173 165 152
-2.742281e-001 6.877236e-003 -7.687073e+000 107 58 49
-1.672566e-001 3.705363e-001 -7.310206e+000 156 146 134
3.039777e-001 7.297491e-001 -7.094834e+000 219 215 206
6.029577e-001 1.193836e+000 -6.630175e+000 200 52 61
-2.761378e-001 -1.901663e-001 -7.537475e+000 176 169 155
-1.997826e-001 1.830348e-001 -7.057115e+000 152 138 127
-1.825905e+000 -3.829391e+000 -1.035350e+001 62 56 58
-1.822578e+000 -3.979170e+000 -1.047063e+001 64 58 60
-2.078391e-001 1.507286e-001 -6.801451e+000 101 84 76
-5.812579e-001 -6.056770e-002 -6.521290e+000 104 43 33
-9.262577e-001 -2.918778e-001 -6.389546e+000 48 16 11
-1.101741e-001 7.093082e-002 -6.684743e+000 139 127 116
4.293546e-001 2.165684e-001 -6.854849e+000 150 137 120
6.289578e-001 5.957652e-001 -6.591197e+000 126 114 99
-4.615933e-003 -1.681164e-001 -6.615338e+000 252 247 243
-1.595302e+000 -4.714047e+000 -1.003195e+001 45 41 38
4.819508e-001 1.202264e-001 -6.622845e+000 180 168 154
-1.513022e+000 -5.050706e+000 -1.007097e+001 62 54 52
9.255941e-001 5.819135e-001 -6.350248e+000 166 31 38
1.187562e+000 -4.911090e-001 -6.090359e+000 227 95 99
-2.535096e-001 5.491303e-001 -7.567000e+000 224 217 207
1.715141e-001 1.071687e+000 -7.088403e+000 212 205 197
1.716957e-001 1.067355e+000 -7.090102e+000 212 205 197
-2.202049e+000 -3.154376e+000 -1.051410e+001 60 54 54
-2.196774e-001 2.535468e-001 -7.523439e+000 207 189 185
-1.808754e+000 -3.769398e+000 -1.038569e+001 25 19 21
1.198165e-002 2.800147e-001 -6.946910e+000 121 112 98
-1.761643e+000 -3.854677e+000 -1.042106e+001 53 49 50
-1.755919e+000 -3.791679e+000 -1.034824e+001 53 49 50
-1.496121e-001 1.257970e-001 -6.841484e+000 154 138 127
5.781388e-001 5.654090e-001 -6.728752e+000 160 150 138
8.369100e-001 9.061734e-001 -6.409238e+000 159 45 49
-3.556606e-001 -1.558028e-001 -6.476325e+000 122 30 17
2.465125e-001 5.319558e-002 -6.660030e+000 194 184 175
9.290925e-001 6.197841e-001 -6.321548e+000 217 71 78
-1.274344e+000 -5.491077e+000 -1.005671e+001 73 68 71
1.186261e+000 -4.441660e-001 -6.075732e+000 153 33 37
-2.836987e-001 2.013920e-001 -7.746901e+000 215 73 82
-1.619897e-001 2.807621e-001 -7.217855e+000 174 161 145
-9.747643e-003 4.769691e-001 -7.100911e+000 148 136 124
-2.111483e-001 -1.288429e-001 -7.516355e+000 174 166 153
-4.333405e-001 2.314143e-002 -6.866894e+000 92 38 33
1.030554e-001 -3.023030e-002 -6.687013e+000 164 154 144
1.030554e-001 -3.023030e-002 -6.687013e+000 164 154 144
5.935137e-001 5.011471e-002 -6.489336e+000 198 188 179
6.271903e-001 4.962205e-002 -6.494178e+000 173 161 149
4.181812e-001 -4.502876e-001 -6.705968e+000 119 102 62
-1.349579e-001 4.829836e-001 -7.377652e+000 148 138 126
-2.782468e-001 4.863398e-002 -6.734153e+000 68 23 18
-7.577015e-001 -2.077590e-001 -6.278921e+000 163 82 52
2.709018e-001 8.670458e-002 -6.664123e+000 171 159 147
6.688785e-001 3.219480e-002 -6.476989e+000 197 187 177
5.184094e-001 -1.130348e+000 -7.111171e+000 245 230 171
5.172699e-001 -5.237760e-001 -6.707611e+000 78 60 27
9.286442e-001 2.407017e-001 -6.290297e+000 254 254 246
-1.298988e-001 3.047022e-001 -7.151989e+000 131 117 101
6.453777e-001 1.938833e-001 -6.697403e+000 158 150 139
5.803516e-001 -4.521560e-001 -6.619020e+000 114 96 56
1.057006e+000 3.005233e-001 -6.237090e+000 232 71 79
4.172177e-001 1.122022e+000 -6.816903e+000 240 236 232
6.397407e-001 9.922510e-001 -6.620422e+000 217 57 64
1.136112e+000 -7.881429e-001 -6.267580e+000 244 88 99
-4.752775e-002 1.351209e+000 -7.303369e+000 24 17 18
2.324703e-001 3.003639e-001 -6.875989e+000 136 124 110
6.680798e-001 -5.433603e-001 -6.596290e+000 232 215 159
6.542865e-001 -5.199035e-001 -6.570345e+000 232 215 159
-1.060000e-001 1.135051e+000 -7.339321e+000 144 26 31
-1.655599e-002 8.029674e-001 -7.147823e+000 222 218 209
-1.655599e-002 8.029674e-001 -7.147823e+000 222 218 209
3.257645e-001 9.076633e-001 -6.911143e+000 155 146 131
7.179801e-001 -1.501726e-001 -6.432731e+000 251 248 243
1.052727e+000 -4.052391e-001 -6.204568e+000 216 197 138
5.068118e-002 1.384160e+000 -7.215798e+000 81 15 23
-1.579722e-001 1.046369e+000 -7.289591e+000 178 159 153
-1.142441e-001 9.111831e-001 -7.252426e+000 198 191 181
-1.799873e-001 4.097095e-001 -7.423382e+000 212 201 189
-1.190199e-001 5.281936e-001 -7.356523e+000 165 153 138
-2.177589e-001 3.424596e-003 -7.593263e+000 159 85 79
-7.749023e-001 -2.915701e-001 -6.840463e+000 38 28 28
-1.412555e-001 1.307220e-001 -6.910415e+000 107 90 80
-4.902270e-001 -2.102488e-001 -6.466972e+000 236 131 101
-4.985829e-001 -2.398433e-001 -6.425630e+000 126 21 1
-4.122971e-001 -1.090167e-001 -6.462156e+000 120 29 12
8.078384e-002 9.905491e-004 -6.699793e+000 190 177 168
1.352317e-001 -5.950230e-002 -6.735030e+000 170 157 147
-4.709257e-001 -3.863402e-001 -6.453170e+000 95 90 90
-4.360090e-001 -3.884943e-001 -6.436373e+000 212 200 178
-2.791102e-001 -3.744591e-001 -6.531068e+000 175 150 146
-7.378056e-002 -2.885236e-001 -6.638956e+000 163 146 127
1.559964e-001 -5.396591e-001 -6.850943e+000 155 138 120
4.404086e-001 -5.128244e-002 -6.598247e+000 254 250 241
6.454240e-001 1.150330e-001 -6.557733e+000 192 180 166
3.446204e-001 -4.180601e-001 -6.556527e+000 225 219 207
3.446204e-001 -4.180601e-001 -6.556527e+000 225 219 207
5.860025e-001 -9.045668e-002 -6.504494e+000 222 217 211
-8.211318e-002 8.408986e-001 -7.386532e+000 217 210 200
-7.915321e-002 7.477335e-001 -7.245657e+000 164 153 141
-8.166779e-002 4.854848e-001 -7.261984e+000 168 156 147
-2.001001e-001 -1.011704e-003 -7.559949e+000 155 125 114
-1.563155e-001 3.712296e-001 -7.283435e+000 163 151 141
-2.907015e-001 1.409510e-001 -6.748137e+000 121 63 51
-2.634464e-001 1.018535e-001 -6.774476e+000 83 42 40
-2.733460e-001 5.150838e-002 -6.714459e+000 67 27 25
6.068077e-002 3.101521e-001 -6.788821e+000 161 149 136
-8.526991e-002 7.401626e-002 -6.727287e+000 133 120 110
-4.340019e-002 8.826113e-002 -6.720617e+000 137 124 114
-9.766113e-001 -2.254075e-001 -6.260817e+000 146 128 79
-9.766113e-001 -2.254075e-001 -6.260817e+000 146 128 79
-2.536624e-001 -1.423310e-001 -6.550308e+000 114 54 44
-1.333068e-001 -2.760053e-001 -6.680372e+000 87 68 37
6.690266e-002 1.677275e-003 -6.709259e+000 140 123 116
-7.242105e-001 -3.320645e-001 -6.308738e+000 213 115 70
4.715476e-001 1.407021e-001 -6.639616e+000 166 150 136
-2.533421e-001 -4.124593e-001 -6.543913e+000 252 250 246
-2.830532e-001 -4.107239e-001 -6.513194e+000 229 220 215
4.459187e-001 -2.229541e-001 -6.722518e+000 254 255 247
4.926109e-001 -7.605432e-002 -6.588059e+000 235 231 222
6.208982e-001 1.077131e-001 -6.523142e+000 185 176 161
5.826914e-001 -4.773776e-001 -6.780566e+000 155 139 123
4.785059e-001 -5.635508e-001 -6.733570e+000 229 225 211
4.481190e-001 -5.110603e-001 -6.683770e+000 229 225 211
6.297299e-001 -4.633910e-001 -6.662708e+000 179 172 146
5.705062e-001 -2.435819e-001 -6.596222e+000 177 171 159
1.118284e+000 4.650131e-001 -6.183412e+000 214 70 78
1.163874e+000 4.434465e-001 -6.164081e+000 75 69 66
1.133012e+000 4.126338e-001 -6.129844e+000 239 89 101
9.160536e-001 -1.660269e-001 -5.922109e+000 205 186 130
1.256359e+000 8.857117e-002 -6.031468e+000 226 85 101
1.273863e+000 1.608644e-001 -5.991757e+000 80 71 72
1.273863e+000 1.608644e-001 -5.991757e+000 80 71 72
1.149452e+000 -4.182475e-001 -6.108822e+000 169 147 98
1.000257e-002 1.178785e+000 -7.202584e+000 210 201 197
-1.790400e-001 6.500333e-001 -7.480587e+000 168 157 144
3.604368e-001 1.294829e+000 -6.911641e+000 222 62 70
3.604368e-001 1.294829e+000 -6.911641e+000 222 62 70
-9.331480e-001 -2.606933e-001 -6.398338e+000 33 9 12
-1.943013e-001 6.949555e-002 -6.694579e+000 131 119 108
3.236462e-001 3.470809e-001 -6.769339e+000 149 135 124
3.236462e-001 3.470809e-001 -6.769339e+000 149 135 124
-9.396272e-001 -1.702829e-001 -6.194106e+000 117 93 57
-9.103170e-001 -2.090454e-001 -6.250215e+000 55 27 11
6.651125e-001 6.650578e-001 -6.631042e+000 209 204 190
-8.164482e-001 -1.853858e-001 -6.227768e+000 187 159 114
-2.773981e-001 -1.817966e-001 -6.501414e+000 238 123 103
-2.773981e-001 -1.817966e-001 -6.501414e+000 238 123 103
-1.061363e-001 -2.818325e-001 -6.676396e+000 243 236 228
-9.702298e-002 -1.924881e-001 -6.629165e+000 226 221 216
-4.269428e-002 -4.288101e-001 -6.739820e+000 248 241 231
-5.375440e-002 -2.910408e-001 -6.659935e+000 71 53 29
8.591866e-001 7.708638e-001 -6.231649e+000 195 43 55
1.017367e+000 5.608483e-001 -6.425928e+000 181 35 45
1.019680e+000 5.627172e-001 -6.198563e+000 17 7 18
6.627318e-001 -7.028223e-001 -6.602499e+000 177 159 139
7.513722e-001 -3.359265e-001 -6.475011e+000 158 147 129
1.069148e+000 2.452508e-001 -6.217298e+000 232 68 73
1.121370e+000 -5.546815e-001 -6.110929e+000 180 33 44
1.456750e+000 6.339555e-001 -5.778476e+000 71 62 63
-9.982700e-002 1.271890e+000 -7.371952e+000 208 70 75
-1.934732e-001 4.019633e-001 -7.417867e+000 198 190 178
-1.437401e-001 4.933892e-001 -7.293995e+000 177 165 153
-2.017579e-001 -1.117849e-001 -7.348481e+000 194 188 174
-1.691399e-001 -2.801635e-002 -6.642270e+000 145 111 102
2.899995e-001 -1.668227e-001 -6.667821e+000 224 218 206
4.864785e-001 -3.325425e-001 -6.689572e+000 98 81 61
6.214452e-001 -2.977682e-001 -6.590834e+000 253 248 240
6.214452e-001 -2.977682e-001 -6.590834e+000 253 248 240
6.954487e-001 -4.735605e-001 -6.643857e+000 202 196 174
1.196333e+000 3.071237e-002 -6.027798e+000 181 47 54
1.278464e+000 4.330290e-002 -6.042574e+000 224 90 94
-1.894733e-001 3.041257e-001 -7.529312e+000 154 140 129
-1.542695e-001 4.405949e-001 -7.450881e+000 218 211 197
-8.218325e-002 7.413020e-001 -7.207239e+000 133 119 110
3.886778e-001 1.341457e+000 -6.837703e+000 226 64 74
-2.027743e-001 -1.447641e-001 -7.540758e+000 176 166 154
-5.823717e-001 -2.478362e-001 -6.474295e+000 138 43 34
-8.640293e-001 -1.814378e-001 -6.193730e+000 154 114 87
-8.640293e-001 -1.814378e-001 -6.193730e+000 154 114 87
-5.480835e-001 -3.291253e-001 -6.443134e+000 45 35 34
-3.975908e-002 -2.824177e-001 -6.689034e+000 250 250 243
9.846763e-001 5.574826e-001 -6.182956e+000 243 81 94
1.139017e+000 2.130785e-001 -6.150326e+000 203 52 57
1.110858e+000 -4.177834e-001 -6.175435e+000 204 181 131
1.547911e-002 1.362457e+000 -7.190633e+000 190 42 46
-1.307999e-001 3.585451e-001 -7.465189e+000 145 133 121
-1.307999e-001 3.585451e-001 -7.465189e+000 145 133 121
