ply
format ascii 1.0
element face 0
property list uchar int vertex_indices
element vertex 876
property float x
property float y
property float z
property uchar diffuse_red
property uchar diffuse_green
property uchar diffuse_blue
end_header
3.494358e+000 -1.928951e-001 -9.603611e+000 132 73 31
-1.242533e-001 -5.486241e-001 -8.348323e+000 182 27 36
1.426086e+000 -4.969234e-001 -8.885810e+000 191 124 89
1.429590e+000 -4.887785e-001 -8.891127e+000 191 124 89
1.357090e+000 -5.120529e-001 -8.891182e+000 192 125 89
1.380260e+000 -5.193341e-001 -8.919012e+000 188 130 108
1.380260e+000 -5.193341e-001 -8.919012e+000 188 130 108
1.519866e+000 -5.216694e-001 -8.934506e+000 123 75 62
1.519866e+000 -5.216694e-001 -8.934506e+000 123 75 62
1.559026e+000 -5.052482e-001 -8.974044e+000 195 126 97
1.680568e+000 -4.651131e-001 -8.972374e+000 125 67 44
1.962285e+000 -4.871008e-001 -9.100154e+000 196 125 94
9.676786e-001 -5.768147e-001 -8.785864e+000 147 20 33
2.473527e+000 -4.964601e-001 -9.368192e+000 193 127 99
2.412439e+000 -5.373275e-001 -9.387080e+000 113 61 47
1.694091e+000 -5.317674e-001 -9.235904e+000 192 123 94
2.420121e+000 -6.074683e-001 -9.450463e+000 180 114 89
2.420121e+000 -6.074683e-001 -9.450463e+000 180 114 89
1.686531e+000 -6.690733e-001 -9.204596e+000 187 123 94
1.626378e+000 -7.173494e-001 -9.285047e+000 106 51 44
1.626378e+000 -7.173494e-001 -9.285047e+000 106 51 44
1.697652e+000 -7.711653e-001 -9.301725e+000 189 123 97
1.697652e+000 -7.711653e-001 -9.301725e+000 189 123 97
9.286893e-001 -7.728411e-001 -9.058657e+000 7 44 67
1.039559e+000 -8.429726e-001 -9.444333e+000 168 164 172
1.911028e+000 -7.260896e-001 -9.897151e+000 188 142 118
1.911028e+000 -7.260896e-001 -9.897151e+000 188 142 118
8.192625e-001 -6.131692e-001 -9.670331e+000 173 166 174
1.141122e+000 -6.726021e-001 -9.700964e+000 60 76 143
-2.395396e-002 -5.197021e-001 -9.429155e+000 37 65 46
-2.542499e-003 -4.408934e-001 -9.538455e+000 170 166 137
3.470332e-001 -5.851887e-001 -9.497142e+000 43 68 30
2.876542e+000 -9.218020e-003 -9.220972e+000 124 15 23
3.420811e+000 -3.700534e-002 -9.373388e+000 186 93 33
5.149065e-001 -3.739059e-001 -8.520669e+000 38 54 23
5.149065e-001 -3.739059e-001 -8.520669e+000 38 54 23
1.410323e+000 -5.304950e-001 -8.898724e+000 193 127 92
3.040291e+000 -3.829446e-001 -9.486594e+000 127 105 83
4.171191e-001 -6.617297e-001 -8.696666e+000 143 139 65
4.171191e-001 -6.617297e-001 -8.696666e+000 143 139 65
1.389564e+000 -7.225100e-001 -9.226786e+000 185 120 96
1.389564e+000 -7.225100e-001 -9.226786e+000 185 120 96
1.475428e+000 -6.894901e-001 -9.189962e+000 186 121 88
8.651852e-001 -7.866473e-001 -9.104326e+000 126 11 42
1.816765e+000 -7.824001e-001 -9.665131e+000 102 17 31
3.225947e+000 -7.687175e-001 -1.021430e+001 185 146 110
1.130042e+000 -7.961444e-001 -9.452666e+000 162 37 41
1.811994e-001 -7.409324e-001 -9.269761e+000 34 65 45
7.593940e-001 -7.141174e-001 -9.494706e+000 165 166 177
1.616257e+000 -6.615856e-001 -9.890093e+000 131 38 48
2.864141e-001 -4.769766e-001 -9.610269e+000 49 67 37
4.141460e-001 -5.424838e-001 -9.582736e+000 166 163 174
4.760900e-001 1.916896e-001 -8.173158e+000 178 160 120
5.099005e-001 -2.830292e-002 -8.221667e+000 158 151 117
3.949226e-001 -2.207108e-001 -8.258030e+000 28 58 27
4.254540e-001 -2.447255e-001 -8.282106e+000 108 127 106
4.254540e-001 -2.447255e-001 -8.282106e+000 108 127 106
2.436364e+000 5.184419e-002 -9.073437e+000 166 23 37
3.647284e-001 -3.413155e-001 -8.348877e+000 29 54 32
4.622616e-001 -3.146234e-001 -8.402855e+000 32 60 29
1.108666e-001 -5.501240e-001 -8.289955e+000 53 79 59
2.048447e-001 -5.128170e-001 -8.367056e+000 118 128 61
9.712746e-001 -4.654373e-001 -8.641155e+000 163 51 45
1.595595e-001 -6.121431e-001 -8.502031e+000 103 116 69
2.895774e+000 -6.756461e-001 -9.850741e+000 99 66 49
1.690290e+000 -7.634532e-001 -9.405198e+000 192 125 108
1.305971e+000 -7.847762e-001 -9.308782e+000 189 64 66
1.853547e+000 -6.599033e-001 -9.993205e+000 73 29 39
-4.842751e-001 -5.236544e-001 -9.269822e+000 197 138 130
-1.409191e-001 -4.737623e-001 -9.422577e+000 43 63 38
1.676625e-001 -4.187929e-001 -9.615734e+000 78 97 72
6.648010e-001 -4.253739e-001 -8.543592e+000 172 152 125
2.474079e-001 -7.055868e-001 -8.643276e+000 26 50 29
2.167503e+000 -6.155762e-001 -9.373805e+000 172 24 38
2.659598e+000 -7.516349e-001 -9.971011e+000 48 20 23
3.644480e-001 -4.288538e-001 -9.702023e+000 175 167 176
-1.397411e-003 -5.496759e-001 -8.363770e+000 26 90 119
1.329644e+000 -7.039678e-001 -9.734543e+000 112 32 32
-5.995213e-001 -6.880401e-001 -8.992494e+000 164 161 179
3.057362e+000 1.939846e-001 -9.191835e+000 201 109 30
-3.571357e-001 -5.060880e-001 -8.103930e+000 24 91 120
1.833924e+000 -7.681142e-001 -9.557178e+000 108 15 25
5.413454e-001 -7.422083e-001 -9.379555e+000 169 165 179
5.024678e-001 -3.554975e-001 -8.367462e+000 30 63 24
1.031560e+000 -5.946261e-001 -9.746836e+000 164 35 47
3.071827e+000 -5.642228e-001 -9.786335e+000 64 41 40
-3.685552e-001 -6.770575e-001 -8.375079e+000 18 84 113
2.220265e+000 -6.444461e-001 -9.998245e+000 174 138 122
1.346478e+000 -3.616664e-002 -8.533514e+000 163 97 77
2.825787e+000 -7.371977e-002 -9.128729e+000 86 9 16
2.093342e+000 -1.958820e-001 -8.910715e+000 182 121 91
1.328232e+000 -2.409803e-001 -8.634750e+000 184 110 83
2.759887e+000 -3.468739e-001 -9.286944e+000 168 66 38
2.827793e+000 -3.066332e-001 -9.321648e+000 167 78 50
2.872138e+000 -3.217742e-001 -9.351960e+000 173 76 42
2.984193e+000 -2.574543e-001 -9.336602e+000 178 113 57
3.197458e+000 -2.489950e-001 -9.429316e+000 167 142 102
3.021586e+000 -3.745346e-001 -9.470465e+000 43 14 11
7.501698e-001 -4.894935e-001 -8.606636e+000 156 137 115
9.350834e-001 -5.136207e-001 -8.706848e+000 168 151 106
-9.523446e-002 -5.440285e-001 -8.319893e+000 186 133 101
1.435380e-001 -5.503753e-001 -8.442424e+000 149 142 30
1.815388e-001 -5.474059e-001 -8.448841e+000 146 130 26
2.813602e-001 -5.569804e-001 -8.494641e+000 154 135 34
-2.064788e-001 -6.146949e-001 -8.401580e+000 175 136 110
-2.064788e-001 -6.146949e-001 -8.401580e+000 175 136 110
9.247619e-001 -6.210275e-001 -8.847260e+000 183 140 103
3.604403e-001 -6.285131e-001 -8.643586e+000 146 139 38
1.940014e-001 -6.837795e-001 -8.632524e+000 151 134 24
1.508578e+000 -6.837186e-001 -9.191667e+000 174 116 104
3.202965e+000 -6.941596e-001 -9.986092e+000 158 129 111
3.202965e+000 -6.941596e-001 -9.986092e+000 158 129 111
-9.976124e-002 -7.446797e-001 -8.561434e+000 143 133 16
2.236709e+000 -7.318255e-001 -9.556014e+000 140 23 29
2.201369e+000 -7.389669e-001 -9.582467e+000 195 88 89
7.898182e-001 -7.922281e-001 -9.058179e+000 134 139 126
1.274383e+000 -7.820667e-001 -9.280073e+000 159 32 33
1.545958e+000 -7.973888e-001 -9.463287e+000 164 29 43
2.908823e+000 -1.601295e-001 -9.203261e+000 175 72 37
3.421616e+000 -8.975694e-002 -9.417967e+000 161 92 35
3.234433e+000 -1.476914e-001 -9.351992e+000 172 137 101
-2.827494e-002 -4.345886e-001 -8.291358e+000 163 21 25
3.737190e-001 -4.344474e-001 -8.387609e+000 22 41 12
1.042078e+000 -4.635207e-001 -8.697304e+000 23 69 85
2.621320e+000 -3.889274e-001 -9.313086e+000 169 55 12
2.717085e+000 -3.930874e-001 -9.350185e+000 174 51 43
1.058502e+000 -5.126962e-001 -8.754782e+000 22 68 89
-9.337917e-002 -5.855491e-001 -8.364973e+000 168 142 96
9.398449e-001 -5.387771e-001 -8.745984e+000 180 152 105
2.909900e+000 -4.743139e-001 -9.528824e+000 157 117 83
2.962641e+000 -4.813798e-001 -9.576332e+000 176 139 101
2.020733e+000 -6.037675e-001 -9.289944e+000 171 55 55
2.645263e+000 -5.704499e-001 -9.517798e+000 155 115 85
1.967454e-002 -6.510547e-001 -8.510881e+000 74 96 74
2.625119e+000 -6.150408e-001 -9.574288e+000 166 124 83
2.088283e+000 -7.193557e-001 -9.508438e+000 141 20 27
1.459497e+000 -7.908443e-001 -9.459906e+000 178 97 89
1.114600e+000 -7.964917e-001 -9.420152e+000 160 168 172
2.815017e+000 1.027309e+000 -9.946064e+000 99 48 28
2.138344e+000 -1.168587e-001 -8.882761e+000 143 26 30
3.052359e+000 -2.096180e-001 -9.321552e+000 195 121 51
3.330452e+000 -1.486972e-001 -9.401960e+000 150 80 25
9.063730e-001 -4.704431e-001 -8.637529e+000 145 140 106
2.909493e+000 -3.496981e-001 -9.379853e+000 173 76 31
1.883964e+000 -4.629324e-001 -9.053581e+000 102 56 43
6.832574e-001 -5.502962e-001 -8.657592e+000 141 138 112
2.410367e+000 -5.399445e-001 -9.384827e+000 84 36 26
2.082985e+000 -6.499952e-001 -9.383566e+000 140 13 24
2.776456e+000 -6.423667e-001 -9.690340e+000 137 103 79
1.642186e+000 -6.827331e-001 -9.242481e+000 61 11 8
2.740796e+000 -6.868885e-001 -9.740329e+000 174 127 93
2.136087e+000 -7.213940e-001 -9.548262e+000 150 23 36
1.484398e+000 -7.650554e-001 -9.409521e+000 157 25 38
1.150729e+000 -9.095928e-002 -8.482584e+000 6 43 60
1.990418e+000 -1.568993e-001 -8.863241e+000 177 119 86
4.650362e-001 -3.208328e-001 -8.353522e+000 158 140 26
2.092965e+000 -3.195963e-001 -9.014715e+000 139 15 27
2.410040e-001 -4.312633e-001 -8.340582e+000 34 53 17
3.220258e-001 -4.392682e-001 -8.392541e+000 60 90 90
1.345498e+000 -4.415145e-001 -8.794792e+000 166 111 71
1.635583e+000 -4.899941e-001 -8.975102e+000 168 105 74
2.569550e+000 -4.273435e-001 -9.326778e+000 184 109 86
-2.022142e-001 -6.693223e-001 -8.445843e+000 160 26 28
1.539446e+000 -6.962556e-001 -9.229347e+000 173 107 75
1.250765e+000 -8.084185e-001 -9.364279e+000 172 41 48
1.853229e+000 -7.918549e-001 -9.693943e+000 175 136 111
9.806885e-001 -2.773164e-001 -8.544734e+000 141 11 16
2.318664e+000 -2.116569e-001 -9.075940e+000 149 19 29
9.330795e-001 -5.796791e-001 -8.795250e+000 120 19 23
4.223830e-001 -3.243635e-001 -8.360678e+000 80 93 94
2.524048e-001 -6.850361e-001 -8.656464e+000 24 50 21
1.247215e+000 -5.450500e-001 -8.933756e+000 176 106 80
2.408310e+000 -3.674725e-002 -8.994282e+000 180 60 65
1.282737e+000 -9.999130e-002 -8.498505e+000 30 71 91
3.478701e+000 3.117324e-002 -9.342952e+000 61 15 10
2.524311e+000 -1.631616e-001 -9.057573e+000 192 135 92
3.977547e-001 -3.923082e-001 -8.372973e+000 152 147 26
1.976424e+000 -4.839229e-001 -8.950261e+000 199 123 81
2.886403e+000 -2.954595e-001 -9.345056e+000 183 91 43
3.099477e+000 -2.828056e-001 -9.416818e+000 181 82 30
8.609514e-002 -3.498770e-001 -8.354702e+000 25 49 21
2.025974e-001 -4.949867e-001 -8.372114e+000 66 91 77
2.025974e-001 -4.949867e-001 -8.372114e+000 66 91 77
2.808201e-001 -4.977498e-001 -8.432497e+000 82 104 76
3.447145e-001 -4.582981e-001 -8.477387e+000 34 54 23
7.221985e-001 -5.006606e-001 -8.586874e+000 167 145 110
2.087528e+000 -4.253862e-001 -9.065276e+000 181 58 54
2.851006e+000 -3.517827e-001 -9.379144e+000 139 40 11
2.746447e+000 -4.441823e-001 -9.427836e+000 174 107 72
2.722657e+000 -4.859695e-001 -9.447711e+000 168 127 83
1.394432e-001 -6.113212e-001 -8.476455e+000 157 133 48
3.603290e-001 -6.177839e-001 -8.610791e+000 159 148 24
7.152983e-001 -1.196453e+000 -8.569966e+000 204 162 105
2.268158e+000 -5.552446e-001 -9.319192e+000 146 15 21
2.474390e+000 -6.036275e-001 -9.453681e+000 191 127 92
3.382937e+000 -4.756458e-001 -9.821927e+000 146 82 63
-4.507033e-001 -4.931914e-001 -8.373202e+000 18 76 106
-1.796913e-001 -6.674459e-001 -8.457095e+000 176 33 33
2.072205e+000 -6.117403e-001 -9.349460e+000 176 62 58
2.237073e+000 -6.278441e-001 -9.411978e+000 153 22 28
2.243967e+000 -6.244335e-001 -9.444950e+000 152 18 26
2.216233e+000 -6.524387e-001 -9.454392e+000 156 29 38
2.718986e+000 -5.709620e-001 -9.580189e+000 126 85 52
2.718986e+000 -5.709620e-001 -9.580189e+000 126 85 52
2.824316e+000 -5.823345e-001 -9.622369e+000 172 135 91
2.822396e+000 -6.370315e-001 -9.677872e+000 110 69 48
8.857488e-001 -7.046458e-001 -8.956466e+000 203 153 109
2.029202e+000 -6.525662e-001 -9.385968e+000 149 23 27
2.233082e+000 -6.917507e-001 -9.521702e+000 187 71 66
2.901264e+000 -6.540665e-001 -9.803977e+000 175 149 106
1.536464e+000 -7.907081e-001 -9.400528e+000 161 24 30
1.484532e+000 -8.054218e-001 -9.568849e+000 203 109 102
1.681502e+000 -7.679104e-001 -9.726091e+000 6 88 158
1.681502e+000 -7.679104e-001 -9.726091e+000 6 88 158
1.694120e+000 -7.681217e-001 -9.746343e+000 168 172 157
1.694120e+000 -7.681217e-001 -9.746343e+000 168 172 157
1.760324e+000 -7.536763e-001 -9.799356e+000 32 84 162
1.831154e+000 -7.593605e-001 -9.814561e+000 80 127 175
1.114692e+000 -3.500515e-002 -8.446416e+000 53 61 82
1.569108e+000 -1.584461e-001 -8.697584e+000 191 114 68
2.232994e+000 -6.519172e-002 -8.894047e+000 193 76 67
2.947359e+000 -4.224111e-002 -9.159074e+000 206 104 30
3.257994e+000 5.730390e-002 -9.240290e+000 180 154 111
3.454282e+000 3.835452e-002 -9.332415e+000 195 101 40
2.152392e+000 -2.514856e-001 -9.015722e+000 197 77 69
2.805169e+000 -2.843165e-001 -9.272484e+000 137 41 16
-8.189733e-001 1.440807e-001 -8.191125e+000 221 188 119
7.489815e-001 -5.052856e-001 -8.618592e+000 156 141 114
1.062529e+000 -3.960058e-001 -8.687578e+000 28 70 95
3.527249e+000 -2.108938e-001 -9.649375e+000 31 19 25
3.402616e+000 -3.416849e-001 -9.682567e+000 100 39 15
2.769063e+000 -5.032445e-001 -9.505206e+000 176 133 88
3.383609e+000 -4.054644e-001 -9.771010e+000 99 36 18
3.420292e-001 -6.685114e-001 -8.673179e+000 162 152 24
3.420292e-001 -6.685114e-001 -8.673179e+000 162 152 24
2.080310e+000 -7.165585e-001 -9.397398e+000 146 12 21
2.683654e+000 -7.665000e-001 -9.888405e+000 164 102 48
4.554157e-001 -7.921052e-001 -9.278928e+000 176 179 95
1.807134e+000 -6.892077e-001 -9.908665e+000 27 81 166
1.322236e+000 -6.191745e-001 -9.846824e+000 195 147 111
-4.623996e-001 -4.577334e-001 -9.345396e+000 185 41 51
1.940253e-001 -4.536689e-001 -9.606420e+000 178 175 76
5.576434e-001 -1.741407e-001 -8.284261e+000 161 153 84
1.897551e+000 -1.327206e-001 -8.814121e+000 99 45 18
3.658426e-001 -3.216116e-001 -8.315678e+000 160 144 9
2.502217e+000 -2.368312e-001 -9.102823e+000 97 45 21
3.055195e+000 -2.425255e-001 -9.353088e+000 204 128 53
1.410396e+000 -4.683639e-001 -8.871929e+000 109 60 49
1.959452e+000 -4.462846e-001 -9.084545e+000 121 64 42
8.472751e-002 -6.175520e-001 -8.487510e+000 152 146 27
1.480956e-001 -6.108148e-001 -8.512647e+000 153 148 22
1.480956e-001 -6.108148e-001 -8.512647e+000 153 148 22
3.308518e+000 -6.215823e-001 -9.988640e+000 69 8 5
2.216848e+000 -7.234355e-001 -9.564606e+000 188 83 74
-5.458011e-001 -8.882544e-001 -8.513327e+000 160 144 118
1.916194e+000 -7.964644e-001 -9.523817e+000 175 131 92
3.168642e+000 -7.521598e-001 -1.008565e+001 70 37 31
2.832032e+000 -7.485683e-001 -1.010885e+001 180 142 114
1.815145e+000 -7.710286e-001 -9.745877e+000 104 157 202
2.528362e+000 -7.154173e-001 -1.012162e+001 83 17 21
1.897545e+000 -7.343273e-001 -9.889102e+000 186 155 110
1.897545e+000 -7.343273e-001 -9.889102e+000 186 155 110
7.453555e-003 -5.243451e-001 -9.435569e+000 46 70 56
3.112560e-001 -4.929158e-001 -9.601662e+000 32 63 63
-5.602582e-001 -4.385354e-001 -9.324296e+000 187 46 37
-2.650183e-001 -5.050190e-001 -9.352461e+000 40 66 34
1.324532e+000 -1.397759e-001 -8.597200e+000 187 116 84
2.521246e+000 -2.104598e-001 -9.119695e+000 142 91 67
2.552897e+000 -2.274368e-001 -9.133606e+000 192 134 90
-8.591976e-001 1.309692e-001 -8.162061e+000 205 44 45
2.675360e+000 -4.353304e-001 -9.402332e+000 127 26 11
3.372021e-001 -6.711753e-001 -8.664824e+000 152 147 20
3.372021e-001 -6.711753e-001 -8.664824e+000 152 147 20
9.425780e-001 -6.349934e-001 -8.858145e+000 146 23 30
2.405820e+000 -6.194730e-001 -9.477582e+000 188 120 87
2.966980e+000 -7.697804e-001 -1.012701e+001 182 142 121
2.456769e+000 -7.479160e-001 -1.000497e+001 134 68 30
8.793992e-001 -6.068291e-001 -9.708471e+000 166 35 42
1.187802e+000 -5.636016e-001 -9.875153e+000 43 70 116
3.041788e+000 -3.814199e-001 -9.487557e+000 124 105 77
1.990147e+000 -5.241801e-001 -9.177138e+000 182 113 71
2.031492e+000 -5.293939e-001 -9.215468e+000 152 18 25
8.854169e-001 -6.937826e-001 -8.947057e+000 173 78 61
2.802943e+000 -6.722401e-001 -9.752307e+000 172 128 89
2.211091e+000 -7.475040e-001 -9.616847e+000 155 13 31
1.217297e+000 -7.963469e-001 -9.306945e+000 182 43 44
1.320772e+000 -8.029780e-001 -9.551370e+000 185 56 51
2.989118e+000 -1.848823e-001 -9.276805e+000 128 49 7
2.053123e-001 -5.160157e-001 -8.365947e+000 89 109 57
8.512690e-001 -7.396921e-001 -8.983299e+000 175 100 68
4.521407e-001 -4.220038e-001 -8.423854e+000 131 137 83
3.950546e-001 -5.531483e-001 -8.511052e+000 31 53 24
2.974198e-001 -6.004852e-001 -8.550304e+000 31 54 27
1.282803e+000 -4.031075e-001 -8.745055e+000 189 116 82
2.568343e+000 -5.208578e-001 -9.435256e+000 181 127 83
1.613516e+000 -7.748429e-001 -9.449256e+000 170 35 39
2.549039e+000 -4.921517e-002 -9.009767e+000 199 132 84
1.997386e+000 -2.935316e-001 -8.990443e+000 187 128 83
1.002411e+000 -6.396650e-001 -9.071071e+000 38 86 107
2.963210e+000 -7.423555e-001 -1.007003e+001 78 31 31
-1.931539e-001 -7.197050e-001 -8.843907e+000 156 153 146
3.492621e+000 -6.661783e-002 -9.410968e+000 35 0 9
2.243312e+000 -5.244729e-001 -9.291686e+000 167 29 36
1.469482e+000 -7.742744e-001 -9.635024e+000 178 74 78
2.353860e+000 -1.836066e-001 -9.003680e+000 192 63 67
1.281939e+000 -4.668497e-001 -8.784421e+000 112 52 30
2.456653e+000 -5.249240e-001 -9.389339e+000 188 122 87
4.107400e-001 -6.655966e-001 -8.698690e+000 167 147 31
-1.066265e+000 -1.056802e-001 -8.916564e+000 106 83 58
3.192073e-001 -4.439068e-001 -8.389108e+000 65 105 98
2.705741e-001 -6.075411e-001 -8.553885e+000 26 56 22
1.178725e+000 -8.075477e-001 -9.342783e+000 172 52 52
2.077170e-001 -6.777045e-001 -8.626932e+000 113 110 61
1.355451e+000 -1.310430e-001 -8.575068e+000 116 57 29
2.732851e+000 -3.286490e-001 -9.286067e+000 194 113 63
-3.755651e-001 -4.852080e-001 -8.194965e+000 28 84 113
2.766093e+000 -3.850395e-001 -9.365686e+000 192 72 45
3.027530e+000 -3.484098e-001 -9.435522e+000 153 121 92
1.247935e+000 -5.085465e-001 -8.806638e+000 178 114 89
2.313094e+000 -5.038249e-001 -9.279888e+000 200 80 77
2.814057e+000 -4.498514e-001 -9.475007e+000 110 68 28
2.902169e+000 -4.293398e-001 -9.499242e+000 171 132 94
7.607834e-002 -5.850498e-001 -8.460068e+000 60 90 67
7.607834e-002 -5.850498e-001 -8.460068e+000 60 90 67
2.391680e-001 -6.021901e-001 -8.561300e+000 113 121 62
-3.127324e-002 -6.672240e-001 -8.518108e+000 147 142 22
3.493481e-001 -6.593243e-001 -8.651277e+000 151 147 37
1.942181e+000 -6.515193e-001 -9.279968e+000 181 111 83
2.084533e+000 -6.375795e-001 -9.387716e+000 143 13 19
2.084533e+000 -6.375795e-001 -9.387716e+000 143 13 19
2.781393e+000 -5.795962e-001 -9.614889e+000 164 127 84
2.152921e+000 -7.396600e-001 -9.560538e+000 186 76 82
2.225528e+000 -7.478695e-001 -9.635143e+000 150 5 26
2.851939e+000 -7.692529e-001 -1.000047e+001 163 128 96
1.756886e+000 -7.551651e-001 -9.773628e+000 175 182 195
1.788710e+000 -7.550564e-001 -9.766311e+000 22 88 156
2.514555e+000 -7.126343e-001 -1.009713e+001 185 133 88
8.105723e-001 -7.390340e-001 -9.492029e+000 176 169 159
1.782412e+000 -7.188491e-001 -9.849136e+000 74 118 166
1.588580e-001 -7.312021e-001 -9.257582e+000 23 59 34
1.821557e+000 -5.795172e-001 -1.008054e+001 106 24 21
1.945969e+000 -6.101833e-001 -1.008392e+001 129 18 24
1.622447e-001 -5.898615e-001 -9.423937e+000 178 177 70
1.003441e+000 -5.320462e-001 -9.826328e+000 189 106 98
-6.931974e-001 -4.796964e-001 -9.223640e+000 174 179 201
-6.931974e-001 -4.796964e-001 -9.223640e+000 174 179 201
2.281989e+000 -6.452017e-002 -8.911189e+000 204 87 80
2.635914e-001 -3.464305e-001 -8.283601e+000 58 89 94
2.738080e+000 -1.662341e-001 -9.145358e+000 182 122 65
2.382711e-001 -4.232677e-001 -8.341590e+000 23 52 18
4.042229e-001 -4.359521e-001 -8.413887e+000 171 152 24
4.042229e-001 -4.359521e-001 -8.413887e+000 171 152 24
4.874462e-001 -4.212573e-001 -8.430966e+000 23 48 6
2.215103e+000 -3.441706e-001 -9.091830e+000 190 73 66
-3.888511e-001 -4.942814e-001 -8.175830e+000 167 164 139
-3.888511e-001 -4.942814e-001 -8.175830e+000 167 164 139
-4.560327e-002 -5.175964e-001 -8.310696e+000 173 35 30
2.051967e+000 -4.518593e-001 -9.091059e+000 147 12 26
2.279209e+000 -4.856450e-001 -9.273074e+000 182 57 56
2.881754e+000 -4.828674e-001 -9.555042e+000 169 127 84
-2.042345e-001 -6.594714e-001 -8.428110e+000 176 28 30
1.200080e-001 -6.582527e-001 -8.577075e+000 17 45 7
2.113921e+000 -6.085042e-001 -9.323679e+000 168 49 45
2.762299e+000 -5.696142e-001 -9.604028e+000 98 57 28
1.474143e-001 -6.694719e-001 -8.631399e+000 13 47 22
1.999722e+000 -7.070863e-001 -9.442591e+000 146 20 24
2.112300e+000 -6.724084e-001 -9.439416e+000 154 25 30
2.185095e+000 -7.308828e-001 -9.568233e+000 154 27 36
1.276151e+000 -7.773864e-001 -9.283003e+000 176 37 35
1.560124e+000 -7.834577e-001 -9.579940e+000 173 26 39
2.294323e+000 -7.163395e-001 -1.004442e+001 175 133 82
8.511437e-001 -4.362414e-001 -9.878928e+000 185 136 127
-3.150971e-001 -4.122726e-001 -9.427552e+000 66 112 164
3.637768e+000 3.443445e+000 -9.028156e+000 62 51 45
1.199679e+000 -6.312825e-002 -8.477260e+000 25 79 113
3.458095e+000 -1.216227e-001 -9.466687e+000 156 89 37
1.822729e+000 -4.419194e-001 -9.011094e+000 120 64 44
2.919583e+000 -3.755481e-001 -9.435712e+000 188 107 44
-1.584757e-001 -5.523695e-001 -8.312228e+000 170 36 30
1.289020e+000 -5.154745e-001 -8.859687e+000 192 122 90
1.377978e+000 -5.254140e-001 -8.913239e+000 176 122 104
1.765252e+000 -4.953244e-001 -9.059441e+000 185 121 78
2.993023e+000 -4.333317e-001 -9.563310e+000 176 144 100
2.037700e+000 -5.792729e-001 -9.262691e+000 160 48 37
2.469064e+000 -5.067766e-001 -9.397303e+000 183 114 82
2.460285e+000 -5.433914e-001 -9.446939e+000 191 122 85
1.610587e+000 -6.172559e-001 -9.144570e+000 137 79 60
1.610132e+000 -6.175934e-001 -9.144324e+000 137 79 60
1.800418e+000 -6.373867e-001 -9.231099e+000 90 39 22
2.151315e+000 -6.432640e-001 -9.418236e+000 162 37 38
1.829908e+000 -7.124465e-001 -9.368038e+000 102 50 39
2.151545e+000 -6.939388e-001 -9.453641e+000 149 15 25
2.902675e+000 -6.391843e-001 -9.766872e+000 185 153 110
-9.292922e-001 2.768436e-002 -8.641139e+000 186 162 152
1.175962e+000 -8.104952e-001 -9.337850e+000 191 59 54
2.875090e+000 -7.718873e-001 -1.009853e+001 172 135 111
1.100282e+000 -7.916620e-001 -9.486842e+000 175 48 49
1.816827e+000 -7.681295e-001 -9.747041e+000 104 157 202
2.379077e+000 -7.174738e-001 -1.002474e+001 187 147 121
6.677626e-001 -6.589058e-001 -9.550084e+000 176 167 175
-5.826749e-001 -3.557358e-001 -9.397823e+000 189 42 55
-5.814873e-001 -3.526124e-001 -9.398126e+000 189 42 55
-4.676277e-001 -3.524479e-001 -9.457666e+000 188 32 43
2.522091e+000 -2.101054e-001 -9.118902e+000 142 91 67
2.470960e+000 -3.483207e-001 -9.177842e+000 83 36 20
5.416398e-001 -4.938889e-001 -8.507576e+000 165 151 109
2.454460e+000 -4.132670e-001 -9.243777e+000 169 114 80
2.452432e+000 -4.160227e-001 -9.242674e+000 169 114 80
2.006138e-001 -5.581957e-001 -8.460460e+000 35 49 29
1.785961e+000 -5.130402e-001 -9.059098e+000 155 98 75
2.054578e+000 -4.674122e-001 -9.131610e+000 146 21 25
2.412334e+000 -5.360320e-001 -9.383261e+000 103 48 25
2.412334e+000 -5.360320e-001 -9.383261e+000 103 48 25
1.315997e-001 -6.530257e-001 -8.563343e+000 170 148 26
9.834791e-001 -6.605626e-001 -8.929027e+000 16 55 79
1.551355e+000 -6.711673e-001 -9.174670e+000 186 119 86
1.691025e+000 -6.618395e-001 -9.208787e+000 179 114 82
1.819486e+000 -6.722243e-001 -9.282956e+000 181 112 81
2.405980e+000 -6.236497e-001 -9.474237e+000 188 120 87
1.566678e+000 -7.070850e-001 -9.245622e+000 126 80 70
1.566765e+000 -7.067386e-001 -9.245716e+000 126 80 70
1.592119e+000 -7.219930e-001 -9.303477e+000 180 117 85
1.592119e+000 -7.219930e-001 -9.303477e+000 180 117 85
1.792810e+000 -7.245495e-001 -9.386442e+000 182 120 91
1.792810e+000 -7.245495e-001 -9.386442e+000 182 120 91
1.254561e+000 -8.081078e-001 -9.364392e+000 180 42 36
1.772872e+000 -7.653729e-001 -9.733649e+000 14 83 165
-2.832554e-001 -4.117705e-001 -9.450721e+000 179 181 159
3.969292e-001 -2.175591e-001 -8.256746e+000 43 55 29
2.928297e-001 -4.880683e-001 -8.413303e+000 103 109 23
2.928297e-001 -4.880683e-001 -8.413303e+000 103 109 23
1.559104e+000 -7.645783e-001 -9.356465e+000 181 117 90
2.480705e+000 -6.798778e-001 -1.015210e+001 115 54 31
2.388411e-002 -3.144778e-001 -9.679964e+000 38 72 47
-3.856011e-001 -4.634224e-001 -8.150310e+000 26 91 113
2.534393e-001 -4.872925e-001 -8.395777e+000 31 53 13
1.173615e+000 -5.403106e-001 -8.818253e+000 17 57 79
7.548108e-002 -5.927129e-001 -8.461405e+000 61 92 68
1.193543e-001 -6.983825e-001 -8.640593e+000 128 129 114
1.863125e+000 -7.623637e-001 -9.790353e+000 16 88 162
1.869416e-001 -6.804682e-001 -9.302530e+000 33 69 41
2.276321e-001 -4.649848e-001 -9.578593e+000 178 173 167
2.952400e+000 9.807362e-002 -9.119418e+000 200 108 29
-3.754900e-001 -4.944837e-001 -8.133477e+000 28 89 114
1.030349e+000 -4.911329e-001 -8.732071e+000 37 80 107
-1.732674e-001 -6.946498e-001 -8.492722e+000 186 125 89
-1.734298e-001 -6.948274e-001 -8.492673e+000 186 125 89
1.223991e+000 -7.289580e-001 -9.138640e+000 191 125 90
1.614803e+000 -6.505592e-001 -9.894066e+000 129 28 32
1.599242e+000 -7.905460e-001 -9.640409e+000 179 32 42
1.505153e+000 -7.633354e-001 -9.563194e+000 158 46 45
3.561867e+000 -1.886102e-001 -9.473888e+000 41 29 29
2.021351e+000 -7.307290e-001 -9.760004e+000 185 149 123
-4.305496e-002 -6.806581e-001 -8.530901e+000 21 51 24
1.897159e+000 -7.072733e-001 -9.398244e+000 101 45 33
1.459026e+000 -7.726504e-001 -9.350811e+000 186 41 45
2.939455e+000 -2.154875e-001 -9.249254e+000 175 83 38
2.386274e+000 -2.882429e-001 -9.118823e+000 191 74 64
2.344191e-001 -5.304792e-001 -8.444468e+000 81 110 105
7.674425e-001 -5.066490e-001 -8.626145e+000 164 153 123
2.142012e+000 -4.829404e-001 -9.160438e+000 154 14 22
1.256634e-001 -5.523151e-001 -8.429194e+000 30 59 17
-5.907615e-002 -6.170460e-001 -8.441913e+000 27 88 109
9.657805e-001 -6.408139e-001 -8.903046e+000 28 80 110
3.053735e+000 -5.809594e-001 -9.746523e+000 88 73 53
2.250227e+000 -7.089194e-001 -9.542838e+000 160 16 29
1.620592e+000 -7.683218e-001 -9.417668e+000 185 37 39
1.212972e+000 -7.868565e-001 -9.262933e+000 180 158 144
1.284615e+000 -4.601338e-001 -8.787873e+000 101 42 24
1.647198e-001 -5.454345e-001 -8.440098e+000 65 100 98
2.151288e+000 -6.428220e-001 -9.419015e+000 177 51 51
-8.594190e-001 6.595104e-002 -8.530508e+000 227 202 165
1.416246e+000 -6.757850e-001 -9.116504e+000 195 126 92
1.592602e+000 -7.669551e-001 -9.376508e+000 207 131 110
3.162372e-001 -7.324317e-001 -8.756905e+000 33 59 29
8.814283e-001 -6.846582e-001 -8.907427e+000 200 159 112
6.068669e-001 -7.884088e-002 -8.281320e+000 96 90 51
1.146455e+000 -4.508071e-002 -8.496673e+000 39 68 93
2.210120e+000 6.747200e-002 -8.864885e+000 152 37 29
2.326548e+000 8.322948e-003 -8.929370e+000 176 71 58
2.907452e+000 1.382915e-001 -9.090348e+000 111 40 23
3.224679e+000 6.046960e-002 -9.228027e+000 182 155 117
3.639285e+000 2.723211e-001 -9.350873e+000 154 76 29
3.609220e+000 1.877403e-001 -9.338715e+000 163 81 32
-3.455930e-001 -1.223349e-001 -8.099002e+000 27 80 101
2.178883e+000 -2.751958e-001 -8.997045e+000 182 76 68
2.874896e+000 -2.601781e-001 -9.261356e+000 179 126 52
2.874896e+000 -2.601781e-001 -9.261356e+000 179 126 52
2.927905e+000 -2.315467e-001 -9.244498e+000 176 94 47
3.455889e+000 -1.043447e-001 -9.506847e+000 148 86 35
3.457731e+000 -1.872364e-001 -9.473285e+000 117 66 37
-1.248937e-001 -4.140598e-001 -8.244267e+000 159 32 29
4.846338e-001 -4.301704e-001 -8.429563e+000 31 47 41
7.520381e-001 -3.950895e-001 -8.553741e+000 150 141 99
7.757818e-001 -3.948019e-001 -8.547163e+000 156 136 99
7.282385e-001 -4.538965e-001 -8.604522e+000 100 21 19
1.336731e+000 -4.456292e-001 -8.791366e+000 142 85 57
2.906232e+000 -2.376267e-001 -9.349738e+000 125 48 14
2.875108e+000 -3.896531e-001 -9.409857e+000 85 37 13
2.946339e+000 -3.170846e-001 -9.416038e+000 164 81 27
3.362096e+000 -3.081859e-001 -9.594612e+000 163 127 92
3.362096e+000 -3.081859e-001 -9.594612e+000 163 127 92
6.925831e-001 -4.922829e-001 -8.633764e+000 148 132 104
2.683332e+000 -4.793511e-001 -9.423357e+000 171 126 84
2.698561e+000 -4.714591e-001 -9.466867e+000 163 126 82
3.316887e+000 -3.849075e-001 -9.696452e+000 149 125 97
-1.827133e-001 -6.334707e-001 -8.438589e+000 169 137 82
2.672021e+000 -5.270764e-001 -9.496530e+000 160 123 81
2.695912e+000 -5.611691e-001 -9.542032e+000 160 123 81
2.860007e+000 -5.804278e-001 -9.606840e+000 152 118 80
-2.125234e-001 -6.643702e-001 -8.463858e+000 160 27 30
1.943306e-001 -7.017041e-001 -8.682595e+000 145 135 46
1.605655e+000 -7.629474e-001 -9.250738e+000 99 50 27
1.689609e+000 -7.313944e-001 -9.289988e+000 90 41 19
2.198278e+000 -7.054403e-001 -9.482182e+000 135 25 28
2.837064e+000 -5.995235e-001 -9.710326e+000 152 123 83
-2.167323e-002 -7.029855e-001 -8.616601e+000 24 44 23
1.118883e+000 -7.956850e-001 -9.159128e+000 81 36 23
1.887696e+000 -7.225430e-001 -9.392687e+000 97 44 28
1.963215e+000 -7.648477e-001 -9.464182e+000 129 20 26
1.472913e+000 -8.614544e-001 -9.520351e+000 166 91 82
1.516025e+000 -7.884601e-001 -9.597629e+000 149 28 37
1.517952e+000 -7.854371e-001 -9.599223e+000 149 28 37
1.707166e+000 -7.531784e-001 -9.756919e+000 156 157 164
1.687268e+000 -7.830034e-001 -9.743305e+000 156 157 164
1.796735e+000 -7.331237e-001 -9.822643e+000 82 127 178
1.737290e+000 -7.106156e-001 -9.867208e+000 26 81 137
1.764832e+000 -6.942874e-001 -9.893410e+000 77 118 174
1.843835e+000 -7.424106e-001 -9.826385e+000 62 111 170
2.544444e+000 -7.072241e-001 -1.022179e+001 171 139 116
1.406251e-001 -7.154099e-001 -9.277089e+000 132 152 25
1.407277e-001 -7.152782e-001 -9.277097e+000 132 152 25
8.328060e-001 -6.719691e-001 -9.520422e+000 160 155 154
1.760749e+000 -6.980631e-001 -9.916063e+000 16 77 143
1.855960e+000 -5.998907e-001 -1.007576e+001 96 18 18
-4.749016e-001 -5.871387e-001 -9.191511e+000 147 147 157
-3.658283e-001 -5.966212e-001 -9.207139e+000 135 147 41
-3.544332e-001 -5.633035e-001 -9.255941e+000 155 158 170
8.995201e-001 -4.654823e-001 -9.866470e+000 140 22 35
8.631462e-001 -4.370184e-001 -9.910659e+000 153 25 38
1.083960e+000 -5.171674e-001 -9.921212e+000 129 151 182
-4.426797e-001 -4.921985e-001 -9.310031e+000 143 11 25
-4.400204e-001 -4.653504e-001 -9.318224e+000 143 11 25
-4.681043e-001 -4.065920e-001 -9.380503e+000 170 32 40
-2.029833e-001 -4.348114e-001 -9.502559e+000 34 52 19
-5.983396e-001 -3.062202e-001 -9.469478e+000 185 153 139
-5.352917e-001 -3.632532e-001 -9.494962e+000 161 33 51
-6.679045e-001 -1.315693e-001 -9.595793e+000 154 37 39
-5.283796e-001 -1.221537e-001 -9.686081e+000 41 33 21
1.784114e+000 -9.022564e-002 -8.764546e+000 117 68 27
3.229254e+000 1.092228e-001 -9.224581e+000 82 48 30
2.862101e-001 -3.980699e-001 -8.325692e+000 36 48 14
1.737501e+000 -1.935055e-001 -8.775758e+000 108 62 20
1.998952e+000 -2.121911e-001 -8.877528e+000 128 83 50
1.998952e+000 -2.121911e-001 -8.877528e+000 128 83 50
3.076821e+000 -1.774427e-001 -9.333515e+000 196 123 47
3.204293e+000 -1.190192e-001 -9.346556e+000 174 148 114
3.544902e+000 -4.208709e-002 -9.419415e+000 133 72 22
1.344000e+000 -4.617553e-001 -8.822393e+000 92 42 22
3.743431e-001 -5.143645e-001 -8.482050e+000 144 146 30
3.743431e-001 -5.143645e-001 -8.482050e+000 144 146 30
9.460138e-001 -5.350606e-001 -8.727924e+000 143 20 31
1.957888e+000 -4.485162e-001 -9.080154e+000 93 42 23
2.080326e+000 -3.709706e-001 -9.127868e+000 168 113 72
2.043791e+000 -5.484552e-001 -9.183623e+000 165 65 53
2.445867e+000 -3.481217e-001 -9.348717e+000 135 14 15
8.499349e-002 -6.152422e-001 -8.489379e+000 143 142 19
2.945095e-001 -5.818535e-001 -8.611975e+000 27 45 27
1.728874e+000 -6.495800e-001 -9.186359e+000 88 43 22
1.728874e+000 -6.495800e-001 -9.186359e+000 88 43 22
2.161844e+000 -5.204491e-001 -9.275179e+000 171 68 63
2.277732e+000 -5.972832e-001 -9.405318e+000 168 63 59
3.329526e+000 -4.549770e-001 -9.778357e+000 148 104 70
3.368422e+000 -4.534528e-001 -9.821243e+000 97 40 13
3.349561e+000 -4.840246e-001 -9.831389e+000 98 35 16
-2.040445e-001 -7.067465e-001 -8.524755e+000 166 25 22
-2.040445e-001 -7.067465e-001 -8.524755e+000 166 25 22
1.595622e+000 -6.517717e-001 -9.191296e+000 102 54 31
1.595622e+000 -6.517717e-001 -9.191296e+000 102 54 31
2.724318e+000 -6.446031e-001 -9.683113e+000 110 80 41
1.165494e+000 -7.262786e-001 -9.128043e+000 85 44 28
1.166832e+000 -7.258039e-001 -9.128868e+000 85 44 28
1.549392e+000 -7.907294e-001 -9.314765e+000 164 109 82
2.069635e+000 -6.711628e-001 -9.495079e+000 140 14 21
2.165421e+000 -7.249207e-001 -9.529608e+000 183 80 76
2.235548e+000 -6.944715e-001 -9.556969e+000 182 84 77
1.214461e+000 -7.888529e-001 -9.304303e+000 152 32 31
2.797531e+000 -7.960171e-001 -9.954683e+000 181 157 131
1.735818e+000 -7.903812e-001 -9.758154e+000 137 160 190
1.805498e+000 -7.666068e-001 -9.769391e+000 97 135 180
1.781823e+000 -7.206902e-001 -9.849227e+000 73 114 169
1.809526e+000 -7.547741e-001 -9.813815e+000 27 75 137
1.809526e+000 -7.547741e-001 -9.813815e+000 27 75 137
1.881188e+000 -6.569601e-001 -9.919479e+000 22 71 144
1.351756e+000 -5.896479e-001 -9.891635e+000 139 43 46
1.799925e-001 -5.178491e-001 -9.523557e+000 26 50 15
2.631668e-001 -5.050980e-001 -9.564855e+000 21 53 28
2.631668e-001 -5.050980e-001 -9.564855e+000 21 53 28
2.530031e-001 -4.815748e-001 -9.592479e+000 147 160 10
9.445514e-001 -5.260549e-001 -9.836672e+000 150 22 40
9.631846e-001 -5.000361e-001 -9.872900e+000 169 92 92
9.631846e-001 -5.000361e-001 -9.872900e+000 169 92 92
1.026686e+000 -4.385817e-001 -9.974052e+000 25 71 143
1.181222e+000 -4.567329e-001 -9.987405e+000 159 134 113
-5.573344e-001 -4.811074e-001 -9.302923e+000 157 39 47
-4.627343e-001 -4.839521e-001 -9.337801e+000 155 26 37
-4.267535e-001 -4.801244e-001 -9.354117e+000 162 30 36
-4.678575e-001 -3.979078e-001 -9.407958e+000 169 156 146
-1.233881e-001 -4.148983e-001 -9.546032e+000 25 61 35
6.401332e-001 -4.085685e-001 -9.913323e+000 152 24 33
6.642031e-001 -3.303679e-001 -9.946706e+000 152 24 33
8.332755e-001 -3.826859e-001 -9.970387e+000 172 139 130
8.861852e-001 -3.755943e-001 -9.978853e+000 140 29 38
2.069349e+000 -1.736441e-002 -1.070935e+001 30 28 23
-2.317832e-002 -3.146674e-001 -9.681456e+000 26 58 48
1.069065e+000 -2.119060e-001 -1.021809e+001 158 111 98
-5.481018e-001 -2.836327e-001 -9.539184e+000 165 24 36
-2.155691e-001 -2.015930e-001 -9.750519e+000 152 161 75
3.796821e+000 -9.680357e-001 -8.913076e+000 141 116 99
3.667298e+000 -1.070783e+000 -9.213378e+000 132 114 90
1.169239e+000 -2.281162e-002 -8.473791e+000 27 60 80
3.404773e+000 -5.724828e-002 -9.361468e+000 165 91 29
2.554714e+000 -1.614139e-001 -9.130590e+000 107 68 45
-1.231316e-001 -4.417083e-001 -8.219437e+000 172 28 42
1.844380e+000 -4.016716e-001 -9.021969e+000 99 48 35
-7.777943e-002 -5.907151e-001 -8.382926e+000 144 20 10
1.271252e+000 -4.901193e-001 -8.830456e+000 62 16 3
1.367619e+000 -4.775412e-001 -8.862463e+000 170 111 71
1.354748e+000 -5.175035e-001 -8.889983e+000 166 105 74
1.431252e+000 -4.868696e-001 -8.890874e+000 172 114 86
1.449880e+000 -4.472542e-001 -8.899035e+000 172 114 86
1.377849e+000 -5.263189e-001 -8.913084e+000 147 91 84
1.445713e+000 -5.259117e-001 -8.939517e+000 139 88 67
1.559734e+000 -5.036239e-001 -8.971689e+000 169 111 78
1.559734e+000 -5.036239e-001 -8.971689e+000 169 111 78
1.650837e+000 -5.148432e-001 -9.012172e+000 115 67 39
1.826745e+000 -4.386143e-001 -9.079518e+000 136 86 62
1.964044e+000 -4.855102e-001 -9.104672e+000 168 109 79
2.489986e+000 -4.594002e-001 -9.329729e+000 173 113 84
-1.935383e-001 -6.365017e-001 -8.419105e+000 163 34 36
-1.944773e-001 -6.509886e-001 -8.416204e+000 163 34 36
-2.039960e-001 -6.594702e-001 -8.448666e+000 150 19 23
1.487011e+000 -5.922448e-001 -9.048966e+000 123 76 60
1.488151e+000 -5.891426e-001 -9.049965e+000 123 76 60
1.527275e+000 -6.526831e-001 -9.148866e+000 105 58 35
1.528384e+000 -6.504451e-001 -9.149588e+000 105 58 35
1.745837e+000 -6.299547e-001 -9.223831e+000 98 48 25
2.404988e+000 -6.505248e-001 -9.527116e+000 177 109 83
1.401708e+000 -7.569737e-001 -9.250911e+000 135 84 59
1.401708e+000 -7.569737e-001 -9.250911e+000 135 84 59
1.925275e+000 -7.402031e-001 -9.392676e+000 130 11 18
1.925275e+000 -7.402031e-001 -9.392676e+000 130 11 18
2.608823e+000 -7.219296e-001 -9.909281e+000 144 88 42
2.849534e+000 -7.685877e-001 -1.003212e+001 162 124 99
1.684185e-001 -6.007598e-001 -9.424068e+000 157 165 93
-5.133448e-001 -5.859589e-001 -9.203244e+000 168 35 50
-4.226037e-001 -5.622529e-001 -9.245064e+000 156 32 38
-3.802552e-001 -5.439918e-001 -9.262632e+000 158 38 33
8.885022e-001 -4.412130e-001 -9.894900e+000 157 134 123
1.058794e+000 -4.624748e-001 -9.985003e+000 132 151 185
-5.675794e-001 -4.553233e-001 -9.331789e+000 175 39 45
7.004959e-001 -4.547894e-001 -9.839647e+000 155 34 39
2.433407e+000 -1.608388e-001 -1.073979e+001 130 25 30
2.936391e+000 -1.542474e+000 -1.066951e+001 44 35 39
-6.053078e-001 -3.737315e-001 -9.417605e+000 162 38 45
-6.053078e-001 -3.737315e-001 -9.417605e+000 162 38 45
-6.235516e-001 -3.186791e-001 -9.467086e+000 165 43 44
4.165740e-001 -2.303590e-001 -9.957496e+000 149 146 154
1.004203e+000 -1.613653e-001 -1.019924e+001 118 137 172
-6.386800e-001 -2.685868e-001 -9.510426e+000 163 35 50
-6.566263e-001 -2.668686e-001 -9.534603e+000 171 40 58
3.877857e+000 -5.505244e-001 -8.808035e+000 45 30 33
3.803832e+000 -8.106900e-001 -8.811801e+000 152 127 107
3.835693e+000 -6.720728e-001 -8.831043e+000 155 131 107
1.000038e+000 -1.920542e-001 -8.490346e+000 145 32 24
3.490187e+000 1.696098e-001 -9.313296e+000 174 101 39
2.904159e-001 -3.393817e-001 -8.294535e+000 60 88 78
1.193054e+000 -1.913195e-001 -8.570443e+000 22 49 55
3.131966e+000 -8.000587e-002 -9.286152e+000 189 109 40
3.347753e+000 -1.479651e-001 -9.445880e+000 110 50 14
4.241299e-001 -3.980622e-001 -8.455383e+000 20 42 16
1.185637e-001 -5.400710e-001 -8.440004e+000 28 45 16
1.050329e+000 -5.078370e-001 -8.738056e+000 16 41 65
9.728503e-001 -5.665045e-001 -8.783221e+000 95 21 32
1.090842e+000 -5.521591e-001 -8.797199e+000 18 47 61
1.522402e+000 -5.113710e-001 -8.953059e+000 95 49 28
1.609546e+000 -4.730168e-001 -8.987774e+000 103 54 37
2.689471e+000 -4.117896e-001 -9.403061e+000 126 30 18
9.529907e-001 -6.122451e-001 -8.817463e+000 116 33 36
9.128296e-001 -6.984054e-001 -8.927945e+000 107 20 33
1.343556e+000 -6.798883e-001 -9.124102e+000 165 109 77
2.416164e+000 -6.110867e-001 -9.477646e+000 176 117 87
9.287337e-001 -7.656697e-001 -9.076404e+000 12 50 63
1.374120e+000 -7.536915e-001 -9.214410e+000 170 115 85
1.538284e+000 -6.991646e-001 -9.276796e+000 168 110 78
2.781514e+000 -7.430284e-001 -1.006624e+001 150 107 56
1.499191e+000 -7.691582e-001 -9.620643e+000 164 75 71
2.199449e+000 -6.804297e-001 -1.005945e+001 133 59 36
2.199449e+000 -6.804297e-001 -1.005945e+001 133 59 36
3.999201e-001 -6.674610e-001 -9.418947e+000 20 50 29
3.951789e-001 -6.809506e-001 -9.413210e+000 20 50 29
7.310503e-001 -7.061361e-001 -9.530604e+000 154 152 163
1.735936e+000 -6.121094e-001 -1.001225e+001 166 129 115
3.271139e-002 -5.988352e-001 -9.362192e+000 22 52 32
3.258986e-002 -5.975185e-001 -9.361490e+000 22 52 32
2.928431e-001 -5.885722e-001 -9.477154e+000 156 157 114
2.928431e-001 -5.885722e-001 -9.477154e+000 156 157 114
7.759621e-001 -6.271493e-001 -9.616382e+000 154 154 161
1.114998e+000 -4.237260e-001 -1.002307e+001 29 80 143
-3.310323e-002 -3.361418e-001 -9.643543e+000 164 168 88
6.136701e-001 -3.337095e-001 -9.913645e+000 165 151 161
8.024081e-001 -3.682374e-001 -9.922525e+000 136 14 23
1.039554e+000 -2.800116e-001 -1.015638e+001 28 74 136
4.522924e-001 -2.550661e-001 -9.941113e+000 152 152 155
6.260424e-001 -3.181210e-001 -9.969273e+000 153 33 36
6.305977e-001 -2.968961e-001 -9.977896e+000 153 33 36
7.291343e-001 -1.189799e-001 -1.013393e+001 134 30 30
7.291343e-001 -1.189799e-001 -1.013393e+001 134 30 30
3.856751e+000 -6.238967e-001 -8.786686e+000 143 115 101
3.795568e+000 -7.948937e-001 -8.962986e+000 134 113 94
3.907188e+000 -7.111821e-001 -9.132063e+000 43 32 37
2.423210e+000 7.578215e-002 -8.963491e+000 144 15 19
3.534567e-001 -3.842269e-001 -8.343946e+000 26 52 6
9.010731e-002 -4.476341e-001 -8.313697e+000 37 60 20
3.393933e-001 -4.466021e-001 -8.437183e+000 33 49 18
2.146346e+000 -5.610240e-001 -9.085031e+000 142 15 20
2.146346e+000 -5.610240e-001 -9.085031e+000 142 15 20
3.539722e-002 -6.011146e-001 -8.440790e+000 26 53 29
1.628567e-001 -6.035305e-001 -8.503313e+000 83 106 81
8.583550e-001 -6.520433e-001 -8.880655e+000 143 34 33
2.107080e+000 -7.591030e-001 -9.574291e+000 144 15 26
2.968741e+000 -7.600203e-001 -1.012642e+001 159 123 102
1.715331e+000 -7.878107e-001 -9.709995e+000 13 78 139
4.187110e-001 -7.955057e-001 -9.253752e+000 134 147 149
1.069172e+000 -7.696798e-001 -9.505608e+000 157 158 166
2.249020e-001 -7.388045e-001 -9.291172e+000 112 131 154
2.249020e-001 -7.388045e-001 -9.291172e+000 112 131 154
4.308699e-001 -7.687742e-001 -9.305170e+000 27 60 34
2.160689e-001 -6.363879e-001 -9.390553e+000 154 155 151
2.102947e-001 -6.488957e-001 -9.391337e+000 154 155 151
7.695913e-001 -6.281573e-001 -9.659877e+000 154 33 41
1.163364e+000 -6.408267e-001 -9.775016e+000 58 87 125
1.781407e+000 -5.571955e-001 -1.009109e+001 80 28 31
-1.949707e-001 -4.927602e-001 -9.387563e+000 154 159 122
-1.974881e-001 -5.175741e-001 -9.378842e+000 154 159 122
1.632677e-001 -4.928699e-001 -9.537371e+000 23 55 31
2.370694e-001 -6.156084e-001 -9.483016e+000 152 152 129
6.946908e-001 -4.966421e-001 -9.799266e+000 164 70 62
1.049932e-001 -4.704886e-001 -9.560278e+000 146 146 112
1.071682e-001 -4.529443e-001 -9.566875e+000 146 146 112
4.349946e-001 -4.114412e-001 -9.761126e+000 174 31 43
1.150000e+000 -3.240347e-001 -1.012846e+001 153 139 113
2.632327e+000 -2.812736e-003 -1.090968e+001 169 133 123
-2.704908e-001 -3.402200e-001 -9.558768e+000 158 162 125
4.080316e-001 -2.888347e-001 -9.890649e+000 159 43 43
1.513980e-001 -5.237936e-001 -8.381653e+000 29 54 18
6.703309e-001 -4.250977e-001 -8.541130e+000 150 146 107
4.851056e-001 -5.456032e-001 -8.513852e+000 33 54 20
1.057349e-001 -6.324308e-001 -8.514079e+000 22 50 21
3.164764e+000 -6.930523e-001 -9.842800e+000 127 99 78
8.132382e-001 -7.621452e-001 -9.024321e+000 133 16 21
1.347334e+000 -7.731221e-001 -9.272928e+000 176 113 91
1.628480e+000 -7.599415e-001 -9.382327e+000 172 110 91
1.758908e+000 -7.602613e-001 -9.435233e+000 174 118 93
1.923622e+000 -7.286717e-001 -9.899081e+000 166 135 112
6.928480e-001 -7.251434e-001 -9.487707e+000 170 129 126
1.189964e+000 -6.797938e-001 -9.725150e+000 37 76 137
1.189964e+000 -6.797938e-001 -9.725150e+000 37 76 137
1.082390e-001 -6.123164e-001 -9.400159e+000 28 59 34
1.197655e-001 -5.697707e-001 -9.413586e+000 28 59 34
3.428247e-001 -6.281225e-001 -9.485765e+000 23 58 39
1.203996e+000 -5.321260e-001 -9.897417e+000 43 53 100
-2.534979e-001 -5.124335e-001 -9.364870e+000 27 55 34
-1.457023e-001 -5.440443e-001 -9.374487e+000 21 58 33
-2.381325e-002 -5.504670e-001 -9.427655e+000 26 47 37
1.033371e+000 -4.641699e-001 -9.909995e+000 36 60 112
-3.803400e-001 -4.065419e-001 -9.437080e+000 39 92 154
-2.221022e-001 -3.865364e-001 -9.536020e+000 30 61 44
-9.294470e-002 -3.739183e-001 -9.600519e+000 33 64 46
-1.017462e-001 -4.259872e-001 -9.580798e+000 33 64 46
5.298443e-002 -4.240831e-001 -9.564641e+000 22 56 28
2.182110e-002 -3.346638e-001 -9.675081e+000 31 66 44
1.571004e-001 -4.030067e-001 -9.641678e+000 17 53 30
6.994255e-001 -3.867909e-001 -9.926073e+000 155 158 156
9.810865e-001 -4.062891e-001 -9.989942e+000 52 57 96
-5.651182e-001 -3.880975e-001 -9.440399e+000 193 152 146
-3.240798e-001 -3.413510e-001 -9.539441e+000 27 61 44
1.128708e-001 -2.486153e-001 -9.834683e+000 24 57 28
1.952166e-001 -2.393677e-001 -9.843919e+000 154 152 163
3.657433e+000 -1.101825e+000 -9.190236e+000 138 117 96
2.060217e-001 -6.535058e-001 -8.585036e+000 101 113 91
2.644279e+000 -6.618157e-001 -9.653403e+000 168 132 82
1.422426e+000 -7.748704e-001 -9.302311e+000 164 108 81
1.483411e+000 -7.971513e-001 -9.469867e+000 166 93 84
1.852867e+000 -8.142973e-001 -9.678548e+000 157 129 107
2.956054e+000 -7.602609e-001 -1.007065e+001 65 21 19
3.205304e+000 -7.772221e-001 -1.020862e+001 166 132 100
2.646999e+000 -6.982452e-001 -1.016091e+001 34 12 18
2.075085e+000 -6.710475e-001 -1.004374e+001 137 63 45
2.075085e+000 -6.710475e-001 -1.004374e+001 137 63 45
8.227025e-001 -6.611382e-001 -9.640937e+000 155 155 165
-7.485485e-002 -4.867588e-001 -9.421996e+000 152 156 160
-7.405441e-002 -4.864921e-001 -9.421731e+000 152 156 160
-2.390198e-002 -5.496399e-001 -9.428943e+000 26 48 36
-2.860222e-002 -5.682187e-001 -9.421964e+000 26 48 36
6.622801e-002 -5.188585e-001 -9.449806e+000 153 156 157
2.852284e-001 -4.964717e-001 -9.605371e+000 29 58 31
7.386843e-001 -5.587268e-001 -9.769614e+000 155 149 166
-1.417860e-001 -4.379633e-001 -9.459745e+000 43 71 48
-1.426497e-001 -4.494304e-001 -9.451629e+000 43 71 48
-1.581635e-001 -3.713474e-001 -9.562887e+000 161 156 159
-2.579233e-002 -4.317100e-001 -9.557040e+000 156 155 161
-2.488536e-002 -4.160491e-001 -9.562545e+000 156 155 161
1.084973e+000 -2.982953e-001 -1.014864e+001 145 53 54
-6.017067e-001 -2.063214e-001 -9.583266e+000 179 134 135
-4.680686e-001 -2.558453e-001 -9.659040e+000 41 51 30
1.319949e+000 2.762374e-002 -8.572649e+000 27 68 86
2.517842e+000 -7.199223e-001 -9.912243e+000 167 133 106
-7.180912e-001 -5.993292e-001 -9.119082e+000 36 96 159
-9.429170e-001 -3.968063e-001 -9.363467e+000 187 173 162
1.357166e+000 -2.803537e-001 -8.733540e+000 179 114 76
1.596669e+000 -5.769876e-001 -9.082034e+000 174 114 78
-2.940270e-001 -7.384128e-001 -8.529780e+000 132 130 114
3.304503e+000 -7.407121e-001 -1.009410e+001 33 16 19
3.012339e-001 -3.978796e-001 -9.767895e+000 148 150 162
-8.054530e-001 -4.369768e-001 -9.276739e+000 15 82 152
9.375744e-001 -1.458197e-001 -8.538701e+000 161 149 109
2.811159e+000 -3.228360e-001 -9.369920e+000 140 44 20
1.877028e+000 -6.367239e-001 -1.001041e+001 60 16 21
-5.700511e-001 -7.062960e-001 -8.979602e+000 133 141 162
8.248279e-001 -2.036674e-001 -1.009506e+001 143 29 37
3.066165e+000 4.122903e-001 -9.079377e+000 42 32 30
1.789790e+000 -7.584594e-001 -9.580377e+000 124 28 32
-4.287215e-001 -6.835849e-001 -9.109065e+000 10 75 141
-1.885140e-001 -5.631595e-001 -9.335116e+000 23 57 40
1.288664e+000 -7.931128e-001 -9.407398e+000 155 31 35
2.952481e+000 -5.906485e-001 -1.031068e+001 162 134 121
-1.895451e-001 -6.732765e-001 -9.071256e+000 112 135 166
9.844996e-001 -7.377706e-001 -9.656588e+000 144 22 33
-6.566735e-001 -5.611099e-001 -9.171899e+000 13 75 148
3.266661e+000 -1.174796e-001 -9.386762e+000 160 135 98
9.930193e-001 -6.805269e-001 -9.024050e+000 126 151 137
2.140581e+000 -6.597196e-001 -9.447308e+000 180 69 66
1.011268e+000 -7.535528e-001 -9.353016e+000 155 153 154
2.444135e-001 -7.144089e-001 -9.347847e+000 22 53 36
1.281694e+000 -6.995140e-001 -9.639204e+000 13 75 148
-9.153311e-002 -7.421652e-001 -8.624522e+000 153 145 27
1.463334e+000 -7.575100e-001 -9.624035e+000 160 36 41
7.109597e-001 -5.891798e-001 -8.722287e+000 152 145 119
2.040082e-001 -3.180836e-001 -8.249731e+000 26 45 13
5.643445e-001 -2.806013e-001 -8.371921e+000 39 41 11
3.258364e+000 -9.133971e-002 -9.349964e+000 101 78 53
3.238335e+000 -1.480669e-001 -9.359943e+000 166 146 111
2.346681e-001 -5.214811e-001 -8.415808e+000 31 50 30
2.353491e+000 -4.252961e-001 -9.243466e+000 173 69 60
1.691302e+000 -5.943432e-001 -9.166791e+000 101 47 23
1.691302e+000 -5.943432e-001 -9.166791e+000 101 47 23
1.980519e+000 -7.001299e-001 -9.425195e+000 180 97 81
9.338817e-001 -8.470147e-001 -9.125945e+000 16 69 108
3.340833e+000 -7.135211e-001 -1.019018e+001 135 31 40
2.563015e+000 -7.184883e-001 -1.009246e+001 169 130 98
8.089733e-001 -7.427402e-001 -9.494450e+000 160 155 154
2.845396e+000 -2.663259e-001 -1.072954e+001 121 28 25
8.799689e-001 -5.407147e-001 -9.784386e+000 178 148 137
8.799689e-001 -5.407147e-001 -9.784386e+000 178 148 137
9.094534e-001 -5.284031e-001 -9.800813e+000 175 135 127
9.087852e-001 -5.151296e-001 -9.822304e+000 149 29 46
8.664902e-001 -4.289822e-001 -9.913735e+000 153 25 38
1.106282e+000 -4.354158e-001 -9.985465e+000 107 135 158
8.544627e-001 -4.093838e-001 -9.926757e+000 189 147 137
8.993266e-001 -3.418688e-001 -1.001843e+001 161 71 71
8.993266e-001 -3.418688e-001 -1.001843e+001 161 71 71
-5.053291e-001 -3.739340e-001 -9.444245e+000 167 27 41
-5.562130e-001 -2.441236e-001 -9.587670e+000 173 33 50
4.143288e-001 -2.458144e-001 -8.276680e+000 125 129 35
2.271258e+000 4.554208e-002 -8.889650e+000 146 28 31
