ply
format ascii 1.0
element face 0
property list uchar int vertex_indices
element vertex 895
property float x
property float y
property float z
property uchar diffuse_red
property uchar diffuse_green
property uchar diffuse_blue
end_header
-1.262098e+000 8.298736e-001 -7.704104e+000 81 50 31
-1.263073e+000 8.267664e-001 -7.710358e+000 81 50 31
-5.988934e-001 9.002271e-001 -7.878492e+000 161 30 39
-5.988934e-001 9.002271e-001 -7.878492e+000 161 30 39
1.265983e+000 9.929345e-001 -8.578860e+000 188 128 82
1.265983e+000 9.929345e-001 -8.578860e+000 188 128 82
1.508245e+000 1.018680e+000 -8.702384e+000 24 59 76
1.986236e+000 1.005935e+000 -8.847903e+000 73 48 44
1.987155e+000 1.005439e+000 -8.848673e+000 73 48 44
2.094178e+000 9.727883e-001 -8.849569e+000 69 45 41
-1.404886e+000 6.733023e-001 -7.742026e+000 106 76 38
-1.351082e+000 6.533440e-001 -7.684681e+000 206 179 136
-1.354807e+000 5.993761e-001 -7.677350e+000 120 89 48
-6.501789e-001 7.892800e-001 -7.721988e+000 179 143 89
1.845289e+000 8.643376e-001 -8.627096e+000 145 84 68
2.444415e+000 8.630369e-001 -8.858969e+000 126 105 78
-1.351586e+000 5.164420e-001 -7.638913e+000 212 181 124
-1.294746e+000 5.154181e-001 -7.579523e+000 205 176 130
-4.688955e-001 6.757707e-001 -7.646779e+000 188 121 80
-4.688955e-001 6.757707e-001 -7.646779e+000 188 121 80
2.039733e+000 8.277068e-001 -8.658729e+000 75 34 29
2.682309e+000 8.630594e-001 -8.940423e+000 68 24 21
-3.304029e-001 6.018778e-001 -7.696307e+000 142 125 29
7.548952e-001 6.141116e-001 -8.010699e+000 166 148 32
1.043166e+000 6.350234e-001 -8.152385e+000 171 140 101
1.043166e+000 6.350234e-001 -8.152385e+000 171 140 101
3.614414e+000 6.733913e-001 -9.143715e+000 174 90 33
4.037110e+000 7.635981e-001 -9.383328e+000 129 29 29
4.039339e+000 7.613119e-001 -9.387548e+000 129 29 29
3.951712e-001 5.541777e-001 -7.826264e+000 21 45 22
1.077075e+000 5.667271e-001 -8.103330e+000 163 149 97
2.056944e+000 5.767173e-001 -8.490790e+000 71 24 24
2.763335e+000 6.109009e-001 -8.764863e+000 52 16 18
3.118098e+000 5.612938e-001 -8.881838e+000 26 14 24
2.527087e+000 4.655471e-001 -8.617906e+000 131 85 30
2.761842e+000 4.518082e-001 -8.694880e+000 173 119 56
1.478348e+000 -5.209435e-001 -8.683881e+000 52 44 38
2.771860e+000 -4.245612e+000 -1.283823e+001 64 58 59
4.729563e+000 -5.188920e-001 -8.487367e+000 38 29 25
4.330705e+000 -1.609949e+000 -9.469996e+000 52 35 31
3.875744e+000 -3.160563e+000 -1.043191e+001 154 136 114
5.018018e+000 -6.185653e-001 -7.826269e+000 159 133 116
7.419173e-001 1.415915e+000 -8.936950e+000 169 137 95
1.019406e+000 1.483629e+000 -9.168817e+000 165 136 96
1.929240e+000 1.498571e+000 -9.530171e+000 16 56 72
2.003418e+000 1.563552e+000 -9.604641e+000 12 53 75
2.348970e+000 1.478108e+000 -9.601306e+000 155 112 61
1.417522e+000 1.221323e+000 -8.913581e+000 11 55 71
1.419369e+000 1.219783e+000 -8.917646e+000 11 55 71
-7.547499e-001 9.444505e-001 -7.875220e+000 157 25 32
2.556209e+000 1.239617e+000 -8.879866e+000 100 75 69
-5.672868e-001 8.580306e-001 -7.848869e+000 179 147 93
-1.611943e+000 4.897890e-001 -7.821483e+000 167 134 89
-6.295938e-001 7.667890e-001 -7.685783e+000 170 147 80
1.561093e+000 9.307752e-001 -8.618573e+000 19 56 74
-5.163323e-001 6.898782e-001 -7.637273e+000 159 34 37
-5.163323e-001 6.898782e-001 -7.637273e+000 159 34 37
1.749642e+000 7.447370e-001 -8.527785e+000 164 88 52
1.890518e+000 7.645094e-001 -8.558972e+000 159 89 74
2.160318e+000 8.119562e-001 -8.699369e+000 145 119 104
2.386533e+000 6.806318e-001 -8.674475e+000 170 127 103
4.074564e+000 7.665818e-001 -9.400848e+000 170 130 86
4.278491e+000 7.506676e-001 -9.506239e+000 132 54 28
-3.355128e-001 5.299807e-001 -7.502246e+000 57 86 83
-3.371842e-001 5.226178e-001 -7.513193e+000 57 86 83
1.667215e+000 5.286191e-001 -8.308759e+000 173 129 69
2.090489e+000 5.023364e-001 -8.493136e+000 169 129 85
3.338006e+000 6.305382e-001 -8.969383e+000 162 125 73
3.487831e+000 4.305795e-001 -8.977893e+000 148 49 19
2.617649e+000 1.557347e-001 -8.700411e+000 162 19 28
1.285733e+000 1.061711e-001 -8.163393e+000 25 73 101
1.335365e+000 -9.596339e-002 -8.306099e+000 147 93 62
1.333282e+000 -9.431679e-002 -8.303649e+000 147 93 62
4.820160e+000 -7.044969e-001 -8.594802e+000 112 90 76
4.784478e+000 -1.322694e+000 -8.714811e+000 124 98 81
3.133672e+000 -4.985418e+000 -1.186037e+001 168 155 139
4.244212e+000 -2.627455e+000 -9.454549e+000 164 139 117
-1.377022e+000 1.404451e+000 -8.373219e+000 156 135 89
1.635813e-001 1.474180e+000 -8.901405e+000 52 58 30
1.633030e-001 1.473275e+000 -8.902719e+000 52 58 30
2.845593e+000 1.587329e+000 -1.014565e+001 107 57 20
2.926434e+000 1.569444e+000 -9.994590e+000 148 96 46
-1.235533e+000 1.154661e+000 -8.068114e+000 160 138 90
2.441260e+000 1.382769e+000 -9.455974e+000 68 14 6
-1.336850e+000 8.865884e-001 -7.809711e+000 200 177 125
-1.336850e+000 8.865884e-001 -7.809711e+000 200 177 125
-1.362650e+000 8.349931e-001 -7.789047e+000 200 172 121
2.517519e+000 1.139585e+000 -9.179962e+000 93 63 44
-6.817546e-001 8.968395e-001 -7.861064e+000 172 34 37
-6.817546e-001 8.968395e-001 -7.861064e+000 172 34 37
1.302935e-001 9.007176e-001 -8.124532e+000 162 142 27
1.648982e+000 9.842804e-001 -8.609717e+000 167 128 66
-1.308806e+000 6.806497e-001 -7.653572e+000 206 178 134
-1.309420e+000 6.797262e-001 -7.654999e+000 206 178 134
2.733289e+000 8.994060e-001 -8.992155e+000 80 54 56
2.686864e+000 1.042347e+000 -8.742414e+000 71 45 51
-1.229072e+000 6.442611e-001 -7.589709e+000 189 159 112
1.063706e+000 7.948410e-001 -8.291592e+000 160 147 96
3.538401e+000 7.073248e-001 -9.069056e+000 117 26 22
4.330520e+000 6.928457e-001 -9.541567e+000 122 48 22
4.145531e+000 6.260546e-001 -9.329395e+000 174 141 90
9.213849e-001 -1.275591e-001 -8.154523e+000 189 120 86
1.142849e+000 -9.170341e-002 -8.232220e+000 15 56 74
-1.306032e+000 -7.087841e-002 -7.017843e+000 149 126 92
4.441874e+000 -1.375538e+000 -9.275532e+000 49 39 38
4.609861e+000 -9.485045e-001 -8.898941e+000 53 37 37
3.445626e+000 -3.607129e+000 -1.125677e+001 153 137 117
3.662112e+000 -3.048009e+000 -1.072749e+001 151 141 122
3.701476e+000 -3.213063e+000 -1.059615e+001 160 142 118
4.855226e+000 -1.539411e+000 -8.462727e+000 108 87 68
1.852310e+000 1.524243e+000 -9.596661e+000 24 52 75
2.001332e+000 1.422728e+000 -9.400973e+000 16 55 73
5.956549e-001 1.285782e+000 -8.709899e+000 162 143 98
1.917152e+000 9.919979e-001 -8.809723e+000 68 45 48
2.120001e+000 1.012920e+000 -8.885513e+000 67 44 42
8.147534e-001 7.592075e-001 -8.167532e+000 168 23 23
-6.016204e-001 6.656242e-001 -7.569183e+000 164 41 40
3.572065e+000 7.291437e-001 -9.175898e+000 116 22 24
3.283126e+000 6.416719e-001 -8.935863e+000 25 70 94
1.289449e+000 6.663982e-002 -8.214379e+000 14 67 85
4.065764e+000 -2.053639e+000 -9.870979e+000 48 35 35
4.420159e+000 -1.554278e+000 -9.385135e+000 151 133 111
3.281204e+000 -4.041044e+000 -1.166350e+001 153 139 126
7.031852e-001 1.364111e+000 -8.846041e+000 160 140 93
2.465762e+000 1.375869e+000 -9.503295e+000 66 14 3
2.112468e+000 1.139587e+000 -9.052849e+000 125 95 69
-1.377513e+000 7.841564e-001 -7.793346e+000 201 174 126
2.518682e-001 7.629070e-001 -7.992838e+000 160 145 49
-1.613574e+000 -2.775633e-001 -7.915808e+000 153 134 94
1.127311e-001 1.358895e-001 -7.660523e+000 139 139 112
4.851180e+000 -3.242094e-001 -8.268747e+000 150 125 105
4.761046e+000 -5.787227e-001 -8.500835e+000 163 140 124
3.882728e+000 -2.503943e+000 -1.030196e+001 48 38 37
2.018109e+000 1.545430e+000 -9.880917e+000 141 102 61
1.948186e-004 1.366327e+000 -8.617656e+000 107 108 92
5.835809e-001 1.331386e+000 -8.776056e+000 163 87 69
1.341814e+000 1.364911e+000 -9.094019e+000 23 56 71
1.343316e+000 1.361131e+000 -9.099824e+000 23 56 71
6.220969e-001 1.197859e+000 -8.602188e+000 162 140 96
-6.868513e-001 9.299149e-001 -7.900329e+000 140 36 15
1.713440e-001 1.063259e+000 -8.286279e+000 33 49 31
3.393886e-001 1.081185e+000 -8.339955e+000 28 48 18
-1.290748e+000 6.132380e-001 -7.631229e+000 208 175 130
1.564664e+000 7.276752e-001 -8.454924e+000 27 57 84
3.996019e+000 7.833919e-001 -9.417321e+000 174 134 96
4.007927e+000 7.781489e-001 -9.430259e+000 174 134 96
3.634581e+000 7.784364e-001 -9.184735e+000 170 84 27
6.555678e-002 2.323218e-001 -7.628592e+000 88 117 115
3.284228e+000 9.107393e-002 -9.032094e+000 97 26 23
3.284228e+000 9.107393e-002 -9.032094e+000 97 26 23
4.138080e+000 2.123133e-001 -9.323791e+000 206 114 46
2.985836e+000 -4.975774e+000 -1.263038e+001 44 34 32
1.625199e-001 1.362799e+000 -8.689733e+000 157 142 81
7.286858e-001 1.001896e+000 -8.394406e+000 162 137 98
7.286858e-001 1.001896e+000 -8.394406e+000 162 137 98
9.279355e-001 9.986730e-001 -8.485841e+000 156 137 96
-2.011487e-001 8.580956e-001 -7.957059e+000 21 49 21
2.551310e-001 8.706568e-001 -8.106083e+000 163 143 88
2.551310e-001 8.706568e-001 -8.106083e+000 163 143 88
4.745424e-001 8.274787e-001 -8.118760e+000 32 51 32
4.745424e-001 8.274787e-001 -8.118760e+000 32 51 32
-5.962337e-001 7.430598e-001 -7.692266e+000 185 116 89
2.595365e+000 7.670066e-001 -8.884797e+000 128 91 71
2.475376e+000 4.819301e-001 -8.637372e+000 159 110 54
3.554762e+000 -1.961426e-001 -9.394256e+000 166 109 43
3.153692e+000 1.598948e+000 -1.023330e+001 129 87 39
-1.980330e-001 9.466070e-001 -8.091434e+000 27 52 28
2.394763e+000 9.920124e-001 -8.968130e+000 135 103 78
1.970275e-001 8.207080e-001 -8.036744e+000 24 47 19
2.733082e+000 9.637860e-001 -9.035238e+000 101 76 72
5.392890e-001 7.332769e-001 -8.043181e+000 158 141 95
2.526927e+000 3.654254e-001 -8.602522e+000 52 17 19
1.225497e+000 4.035649e-003 -8.212685e+000 18 63 83
2.367614e+000 8.006723e-001 -8.802833e+000 145 110 80
1.365032e+000 5.914731e-001 -8.249740e+000 151 28 31
1.365032e+000 5.914731e-001 -8.249740e+000 151 28 31
7.707840e-001 1.090995e+000 -8.546756e+000 157 138 98
4.350828e+000 1.306425e-001 -9.370316e+000 33 23 24
-3.868996e-001 1.126839e+000 -8.261494e+000 29 54 25
1.369583e+000 1.111160e+000 -8.638423e+000 29 40 51
1.369583e+000 1.111160e+000 -8.638423e+000 29 40 51
2.810966e+000 1.390118e+000 -9.624010e+000 155 113 65
-1.856494e-001 6.129942e-001 -7.812828e+000 29 51 30
4.042328e+000 5.254168e-001 -9.316601e+000 177 110 68
4.042328e+000 5.254168e-001 -9.316601e+000 177 110 68
1.972410e+000 1.513012e+000 -9.659621e+000 16 36 39
1.957146e+000 1.530789e+000 -9.612506e+000 16 36 39
1.973496e+000 1.514555e+000 -9.599866e+000 24 41 46
6.057763e-001 1.380121e+000 -8.877517e+000 111 26 21
2.084661e+000 1.495571e+000 -9.625469e+000 52 71 71
-2.454168e-001 1.057494e+000 -8.814721e+000 115 103 22
1.341738e+000 1.337656e+000 -9.052068e+000 9 42 50
1.371464e+000 1.339218e+000 -9.062120e+000 15 46 57
-6.488482e-001 1.046129e+000 -8.231318e+000 114 105 15
1.514860e+000 1.308890e+000 -9.038989e+000 117 46 27
1.725668e+000 1.273713e+000 -9.094565e+000 60 18 10
2.483976e+000 1.272768e+000 -9.354958e+000 104 57 47
-4.101288e-001 1.091114e+000 -8.175763e+000 107 98 11
1.142005e+000 1.104398e+000 -8.672371e+000 149 115 60
1.141720e+000 1.104809e+000 -8.671340e+000 149 115 60
1.729754e+000 1.195695e+000 -8.984724e+000 108 56 44
1.977178e+000 1.150583e+000 -9.018373e+000 53 34 29
2.482187e+000 1.227380e+000 -9.276659e+000 69 31 20
-1.281297e+000 8.491749e-001 -7.764674e+000 64 35 5
3.989377e-001 1.065045e+000 -8.352932e+000 33 36 2
1.207880e+000 1.045913e+000 -8.760513e+000 108 8 6
1.179107e+000 1.063018e+000 -8.632404e+000 107 21 17
2.176284e+000 1.138410e+000 -9.074022e+000 89 61 37
-1.365047e+000 7.023334e-001 -7.721846e+000 73 48 11
-1.290598e+000 7.716924e-001 -7.673776e+000 74 46 35
-1.294351e+000 7.580492e-001 -7.694074e+000 74 46 35
-1.264104e+000 8.220323e-001 -7.716693e+000 54 30 1
-1.255128e+000 7.933090e-001 -7.659212e+000 74 49 15
1.220121e+000 9.413245e-001 -8.502283e+000 147 106 71
1.343439e+000 9.992173e-001 -8.611150e+000 107 19 17
1.849750e+000 1.020250e+000 -8.817542e+000 65 24 16
-1.375645e+000 6.880080e-001 -7.703957e+000 162 140 91
-1.391688e+000 6.379602e-001 -7.714189e+000 162 138 92
-1.390707e+000 6.423633e-001 -7.707347e+000 162 138 92
-1.338550e+000 6.278267e-001 -7.666477e+000 165 140 98
-1.338550e+000 6.278267e-001 -7.666477e+000 165 140 98
-3.159939e-001 1.553726e+000 -6.589673e+000 115 106 29
5.223081e-001 7.900839e-001 -8.125500e+000 137 110 25
1.933464e+000 8.531996e-001 -8.660795e+000 61 19 13
2.350086e+000 9.308668e-001 -8.838065e+000 102 81 57
-2.399234e-001 7.920019e-001 -7.673991e+000 111 100 11
1.904006e+000 7.839752e-001 -8.582627e+000 61 13 2
2.346109e+000 7.347339e-001 -8.723676e+000 110 80 56
1.975086e+000 6.416100e-001 -8.480951e+000 114 58 50
1.975189e+000 6.411209e-001 -8.481644e+000 114 58 50
2.254329e+000 6.450270e-001 -8.591970e+000 43 8 4
2.254329e+000 6.450270e-001 -8.591970e+000 43 8 4
2.317294e+000 7.098607e-001 -8.649361e+000 88 50 42
2.709354e+000 7.027746e-001 -8.770661e+000 46 16 15
3.881631e+000 7.194011e-001 -9.303736e+000 119 75 34
3.973530e+000 7.148557e-001 -9.315214e+000 113 24 12
4.113462e+000 6.834969e-001 -9.371374e+000 117 18 7
-9.340175e-002 5.787971e-001 -7.604494e+000 118 101 14
2.568664e+000 5.819405e-001 -8.639022e+000 47 10 8
3.339427e+000 5.369140e-001 -8.955256e+000 10 45 55
4.082826e+000 5.994943e-001 -9.272689e+000 120 45 28
-1.137659e-001 5.031732e-001 -7.526643e+000 128 114 17
3.275309e+000 4.663453e-001 -8.888101e+000 144 102 52
4.336189e+000 -1.699890e+000 -9.448100e+000 101 82 65
4.885507e+000 -3.185799e-001 -8.234640e+000 92 71 50
3.018385e+000 1.564089e+000 -1.011392e+001 114 80 36
2.089025e+000 1.489973e+000 -9.543874e+000 35 54 48
1.933903e+000 1.187458e+000 -9.048545e+000 62 42 38
-1.320123e+000 8.529182e-001 -7.775881e+000 157 133 88
-1.319688e+000 8.539127e-001 -7.775056e+000 157 133 88
-6.480025e-001 9.427126e-001 -7.932747e+000 141 106 61
2.366055e+000 1.125007e+000 -9.123523e+000 22 3 1
1.952209e+000 1.015634e+000 -8.847848e+000 78 59 51
-5.585352e-001 7.637573e-001 -7.725880e+000 134 102 62
2.504686e+000 8.723690e-001 -8.873921e+000 108 81 60
2.054129e+000 8.235241e-001 -8.668665e+000 59 29 28
-5.294148e-001 6.780206e-001 -7.611224e+000 146 103 69
-3.582216e-001 5.372897e-001 -7.522750e+000 128 114 69
-1.621019e+000 -1.613083e-001 -7.936791e+000 153 123 81
3.440327e+000 4.462498e-001 -8.959076e+000 138 95 50
3.823959e+000 1.928436e-001 -9.165531e+000 152 127 89
2.297474e+000 -9.482435e-002 -8.701700e+000 160 109 68
8.473005e-001 -1.431808e-001 -8.120825e+000 117 28 21
3.842070e+000 -2.644583e+000 -1.042054e+001 31 21 19
4.497989e+000 -1.341579e+000 -9.039135e+000 130 108 84
3.320101e+000 1.602383e+000 -1.048187e+001 91 60 41
3.379402e+000 1.655931e+000 -1.033862e+001 36 5 2
2.065803e+000 1.116176e+000 -8.990080e+000 62 45 35
1.838178e+000 8.198124e-001 -8.576804e+000 68 21 16
1.915186e+000 8.359122e-001 -8.637233e+000 118 60 39
2.099548e+000 8.172835e-001 -8.689359e+000 59 37 26
9.761435e-001 6.793081e-001 -8.134342e+000 123 108 69
4.368673e+000 5.973550e-001 -9.444050e+000 115 47 33
8.686171e-001 -6.184863e-002 -8.078108e+000 120 29 22
1.366991e-001 -3.970220e-001 -7.999210e+000 114 111 54
8.941432e-001 -1.784288e-001 -8.166672e+000 153 88 65
3.788701e+000 -2.810395e+000 -1.057872e+001 36 26 24
4.689980e+000 -7.092372e-001 -8.679163e+000 42 28 27
4.945031e+000 -8.739305e-001 -8.094473e+000 138 116 95
4.960561e+000 -6.351619e-001 -7.930228e+000 115 93 72
1.992656e+000 1.489987e+000 -1.007511e+001 101 72 34
2.376750e-001 7.164532e-001 -8.069641e+000 128 107 32
3.179177e+000 8.527029e-001 -9.027499e+000 14 43 46
3.641783e-001 7.387283e-001 -7.854950e+000 126 106 35
3.641783e-001 7.387283e-001 -7.854950e+000 126 106 35
2.157776e+000 7.308709e-001 -8.566758e+000 58 23 21
2.014838e+000 5.125338e-001 -8.426541e+000 132 94 48
-4.607035e-002 -2.757853e-001 -7.812045e+000 112 114 63
4.637449e+000 -8.994962e-001 -8.788013e+000 127 105 84
4.766021e+000 -5.253342e-001 -8.363983e+000 93 76 56
4.947495e+000 -8.778671e-001 -8.098577e+000 138 116 95
2.357564e+000 1.442588e+000 -9.574878e+000 82 20 11
2.595336e+000 1.342571e+000 -9.492830e+000 47 30 27
2.121642e+000 9.980694e-001 -8.836308e+000 52 34 30
2.373512e+000 1.030338e+000 -8.994852e+000 101 74 54
2.910963e+000 5.854207e-001 -8.837111e+000 63 37 38
3.941535e+000 2.280352e-001 -9.205447e+000 141 119 79
1.028606e+000 9.907195e-002 -8.034952e+000 24 52 63
4.808654e+000 -3.939062e-001 -8.409547e+000 35 25 23
8.846750e-001 1.090198e+000 -8.913131e+000 130 104 70
-1.235301e-001 1.100908e+000 -8.225073e+000 24 40 15
-2.547841e-001 1.019682e+000 -8.147244e+000 20 38 23
-2.832093e-001 8.480584e-001 -7.937284e+000 16 42 18
9.385430e-001 9.927863e-001 -8.498227e+000 125 105 68
4.138184e+000 1.029864e+000 -9.814163e+000 114 62 33
5.167756e-001 7.013676e-001 -7.997282e+000 130 109 66
6.159908e-002 2.724664e-001 -7.578389e+000 74 90 81
1.459027e+000 -1.181463e-002 -8.316313e+000 134 81 47
1.501066e-001 1.203655e+000 -8.470614e+000 21 37 24
6.361917e-001 1.200168e+000 -8.603829e+000 126 107 67
8.349729e-001 1.195911e+000 -8.695053e+000 125 109 71
-2.935871e-001 1.004279e+000 -8.282839e+000 25 37 23
2.079791e-001 7.201144e-001 -7.921596e+000 21 36 15
4.095998e+000 5.253184e-001 -9.297769e+000 145 111 67
3.048234e+000 3.278687e-001 -8.796642e+000 50 11 9
2.498829e-001 6.424572e-001 -7.866584e+000 22 37 16
2.489530e-001 6.517228e-001 -7.853898e+000 22 37 16
1.530494e+000 4.994131e-001 -8.227016e+000 128 113 72
1.497808e+000 1.481986e+000 -9.681494e+000 114 51 33
4.467103e+000 -1.215487e+000 -8.920703e+000 117 95 73
3.659779e+000 1.524705e+000 -1.024934e+001 115 79 43
3.720189e+000 1.482796e+000 -1.035616e+001 115 79 43
3.716529e+000 3.189955e-001 -9.207535e+000 147 76 14
-7.586375e-003 1.221272e+000 -9.075218e+000 16 33 23
3.333711e+000 1.181358e+000 -9.733443e+000 117 82 45
3.333711e+000 1.181358e+000 -9.733443e+000 117 82 45
1.158653e-001 7.637071e-001 -7.947540e+000 162 143 85
1.158653e-001 7.637071e-001 -7.947540e+000 162 143 85
2.213360e+000 1.431212e+000 -9.510586e+000 36 5 8
2.539873e+000 1.444893e+000 -9.633081e+000 107 50 37
-1.452535e+000 9.145498e-001 -7.946606e+000 157 129 87
-1.451584e+000 9.159444e-001 -7.944894e+000 157 129 87
-1.323747e+000 9.551419e-001 -7.844481e+000 73 50 10
-1.323881e+000 9.540269e-001 -7.846322e+000 73 50 10
-8.136317e-001 1.061575e+000 -7.993525e+000 123 27 19
2.476452e+000 1.177538e+000 -9.242092e+000 127 90 64
2.650064e+000 1.188761e+000 -9.324521e+000 82 63 55
2.395177e+000 1.072771e+000 -9.079697e+000 97 74 52
-6.855455e-001 8.705281e-001 -7.812300e+000 124 21 20
9.750553e-001 1.010765e+000 -8.450345e+000 129 111 74
-5.673603e-001 7.447846e-001 -7.698374e+000 108 18 12
-5.673603e-001 7.447846e-001 -7.698374e+000 108 18 12
1.921812e+000 8.048308e-001 -8.592514e+000 110 64 49
2.005788e+000 7.933753e-001 -8.606516e+000 51 20 14
2.005788e+000 7.933753e-001 -8.606516e+000 51 20 14
-2.035722e-001 6.226878e-001 -7.645477e+000 117 102 15
1.954884e+000 6.231239e-001 -8.469711e+000 67 21 11
2.791708e+000 6.460351e-001 -8.811578e+000 74 44 43
-5.972994e-001 5.612738e-001 -7.448567e+000 129 109 74
2.691657e+000 6.270895e-001 -8.736279e+000 46 16 16
1.615629e+000 5.046685e-001 -8.256862e+000 118 53 25
4.202082e+000 -1.959690e+000 -9.686874e+000 98 79 61
3.038543e+000 1.561026e+000 -1.002733e+001 116 80 36
1.480057e+000 1.338232e+000 -9.100607e+000 96 23 19
2.205090e+000 1.358782e+000 -9.378585e+000 63 9 8
1.611919e+000 1.289947e+000 -9.078598e+000 53 35 44
-1.359471e+000 9.123411e-001 -7.848304e+000 156 132 91
1.293748e+000 9.411111e-001 -8.533360e+000 101 11 16
2.531085e+000 9.591949e-001 -9.163615e+000 97 75 54
-1.600727e+000 3.963539e-001 -7.792066e+000 125 95 55
-1.593631e+000 3.658607e-001 -7.772762e+000 136 108 68
-6.202884e-001 7.303200e-001 -7.658526e+000 139 107 69
1.898721e+000 7.390611e-001 -8.502860e+000 117 62 43
2.239958e+000 6.718426e-001 -8.590907e+000 52 16 16
-1.349684e-001 5.490251e-001 -7.626387e+000 123 104 22
-4.478817e-002 5.547067e-001 -7.664247e+000 129 110 27
3.587467e+000 6.071410e-001 -9.114772e+000 104 32 12
3.185702e+000 4.796540e-001 -8.877706e+000 15 43 58
4.830926e+000 -4.286164e-001 -8.296083e+000 88 71 51
4.897900e+000 -3.929252e-001 -8.112586e+000 129 107 84
4.814411e+000 -8.740428e-001 -8.333774e+000 107 84 68
1.244461e+000 1.115808e+000 -8.722046e+000 108 18 19
1.979461e+000 1.053815e+000 -8.912950e+000 59 40 36
4.149255e+000 1.070601e+000 -9.890423e+000 100 50 23
2.016739e+000 7.575215e-001 -8.582730e+000 51 23 19
2.015569e+000 7.582498e-001 -8.583839e+000 51 23 19
2.431038e+000 8.228238e-001 -8.821152e+000 104 79 54
3.077693e+000 8.244206e-001 -9.088255e+000 117 80 43
-1.225248e-001 5.932901e-001 -7.690964e+000 53 69 60
2.729643e+000 4.479897e-001 -8.701402e+000 95 51 6
3.690858e+000 -3.009378e+000 -1.077349e+001 40 32 29
4.952765e+000 -3.795755e-001 -8.006771e+000 90 69 50
-1.521356e+000 9.684085e-001 -8.062772e+000 158 129 85
1.461674e+000 1.129256e+000 -8.818835e+000 24 46 53
1.460940e+000 1.129942e+000 -8.818550e+000 24 46 53
-4.087317e-001 8.933499e-001 -7.964449e+000 49 70 66
1.481722e-001 8.053224e-001 -7.990541e+000 20 39 18
2.449024e+000 6.156985e-001 -8.667209e+000 54 18 18
3.034126e+000 -4.704178e+000 -1.226542e+001 122 110 90
4.728477e+000 -6.446449e-001 -8.556215e+000 111 94 76
3.610639e-001 1.114085e+000 -8.413681e+000 134 114 54
3.610639e-001 1.114085e+000 -8.413681e+000 134 114 54
-1.332614e+000 7.509082e-001 -7.714609e+000 162 135 88
1.212831e+000 9.986040e-001 -8.573328e+000 88 26 4
1.536444e+000 9.660827e-001 -8.642779e+000 58 77 55
9.216741e-001 6.888725e-001 -8.133753e+000 95 36 20
2.504046e+000 6.397714e-001 -8.695652e+000 97 67 51
6.378305e-001 1.367168e+000 -8.874158e+000 134 100 60
1.076956e+000 1.172807e+000 -8.806668e+000 104 13 11
-1.341695e+000 9.310059e-001 -7.841670e+000 157 132 89
3.057098e-001 1.165018e+000 -8.440611e+000 26 39 21
-1.453154e+000 8.022068e-001 -7.859866e+000 132 104 69
-1.452469e+000 8.017551e-001 -7.861057e+000 132 104 69
7.883563e-002 1.014144e+000 -8.271273e+000 28 42 15
1.650091e+000 8.862107e-001 -8.526348e+000 10 47 51
5.229033e-001 7.175027e-001 -7.991079e+000 123 109 66
-8.569895e-002 1.439697e+000 -8.712155e+000 116 102 25
-1.314745e-001 1.395555e+000 -8.651784e+000 17 29 14
-4.770973e-002 1.397271e+000 -8.545976e+000 123 108 30
1.780723e-001 1.394649e+000 -8.740025e+000 120 97 21
-3.757388e-001 1.290733e+000 -8.414494e+000 108 99 37
2.214763e+000 1.463331e+000 -9.559160e+000 105 19 22
-1.521904e+000 1.013743e+000 -8.105000e+000 161 132 88
-1.486638e+000 9.511355e-001 -8.014966e+000 161 133 92
-3.148713e-001 1.186512e+000 -8.318326e+000 119 104 21
-2.959357e-001 1.239634e+000 -8.389686e+000 116 98 27
1.370429e+000 1.314531e+000 -9.028119e+000 115 112 74
1.396254e+000 1.318473e+000 -9.030685e+000 117 114 80
-6.278883e-001 1.086255e+000 -8.111173e+000 43 56 34
-6.335114e-001 1.075987e+000 -8.090162e+000 135 113 68
-6.335114e-001 1.075987e+000 -8.090162e+000 135 113 68
1.370384e+000 1.257023e+000 -8.953710e+000 121 108 70
1.424451e+000 1.264283e+000 -8.967428e+000 111 112 86
1.705112e+000 1.286303e+000 -9.107428e+000 104 55 45
-1.376095e+000 9.193579e-001 -7.863695e+000 67 40 9
-1.179875e+000 1.561982e+000 -6.799639e+000 71 43 18
-1.333195e+000 9.390811e-001 -7.835897e+000 153 131 82
-6.411370e-001 1.032241e+000 -8.027303e+000 151 94 67
-6.413486e-001 1.028642e+000 -8.032309e+000 151 94 67
-5.770916e-001 1.051021e+000 -8.075135e+000 41 61 59
1.125462e+000 1.167745e+000 -8.745900e+000 100 17 13
1.125462e+000 1.167745e+000 -8.745900e+000 100 17 13
1.169490e+000 1.163544e+000 -8.773910e+000 100 10 4
1.169490e+000 1.163544e+000 -8.773910e+000 100 10 4
1.117720e+000 1.152487e+000 -8.727488e+000 138 105 68
1.400426e+000 1.201906e+000 -8.889709e+000 126 122 87
1.439747e+000 1.192355e+000 -8.884598e+000 14 44 51
1.446265e+000 1.188521e+000 -8.893479e+000 14 44 51
1.464842e+000 1.156323e+000 -8.847846e+000 115 104 77
1.560934e+000 1.195505e+000 -8.914667e+000 104 33 13
1.793607e+000 1.170578e+000 -8.985505e+000 99 59 53
1.793607e+000 1.170578e+000 -8.985505e+000 99 59 53
-1.395331e+000 7.394021e-001 -7.778775e+000 92 62 36
-1.341047e+000 8.588655e-001 -7.797578e+000 60 31 22
-1.341047e+000 8.588655e-001 -7.797578e+000 60 31 22
-1.332680e+000 8.241607e-001 -7.766548e+000 68 43 14
-1.320368e+000 7.844953e-001 -7.737626e+000 61 35 16
7.320199e-001 1.036892e+000 -8.458389e+000 116 21 14
1.168175e+000 1.045772e+000 -8.614357e+000 160 106 72
1.456785e+000 1.081861e+000 -8.757825e+000 118 108 76
2.539406e+000 1.189541e+000 -9.299890e+000 100 52 42
-1.364927e+000 7.018385e-001 -7.722426e+000 70 39 9
1.279670e+000 9.654259e-001 -8.550690e+000 155 101 78
1.278845e+000 9.667802e-001 -8.548569e+000 155 101 78
1.476808e+000 1.045727e+000 -8.713928e+000 127 111 80
1.515635e+000 1.041775e+000 -8.707221e+000 107 111 87
2.027696e+000 1.038750e+000 -8.884607e+000 52 33 28
-1.212173e+000 7.238847e-001 -7.607139e+000 62 36 8
1.608569e+000 8.230318e-001 -8.513922e+000 121 109 88
1.875843e+000 8.558572e-001 -8.629259e+000 58 14 7
2.445762e+000 8.613917e-001 -8.861466e+000 93 78 67
-5.225873e-001 6.592758e-001 -7.600787e+000 121 22 23
-5.225873e-001 6.592758e-001 -7.600787e+000 121 22 23
-5.068471e-001 6.684837e-001 -7.618897e+000 150 95 64
1.960511e+000 7.802278e-001 -8.601699e+000 64 16 7
2.119112e+000 7.723855e-001 -8.645727e+000 107 83 72
2.119078e+000 6.003888e-001 -8.527967e+000 57 16 14
-1.510323e-001 4.608551e-001 -7.563890e+000 120 107 14
2.395690e+000 5.327698e-001 -8.588165e+000 138 95 52
2.721005e+000 5.628623e-001 -8.738626e+000 42 9 5
2.779887e+000 5.577037e-001 -8.766446e+000 36 7 10
4.630117e+000 -2.278829e+000 -8.857392e+000 94 74 47
4.723140e+000 -2.210477e+000 -8.872677e+000 98 78 53
7.387683e-001 1.418929e+000 -8.933936e+000 130 95 61
2.816059e+000 1.513434e+000 -9.884594e+000 86 44 6
-3.642111e-001 1.199566e+000 -8.316837e+000 61 71 46
-7.549392e-001 1.027188e+000 -7.971667e+000 139 106 61
1.254549e+000 1.185794e+000 -8.817211e+000 138 58 47
-7.258180e-001 9.417842e-001 -7.899288e+000 140 108 63
1.211210e+000 1.107912e+000 -8.703027e+000 149 106 65
2.353389e+000 1.104512e+000 -9.102716e+000 102 77 57
-1.360172e+000 6.843946e-001 -7.706480e+000 157 131 87
-6.897516e-001 9.008605e-001 -7.852821e+000 119 14 17
2.254893e+000 1.073773e+000 -9.032000e+000 105 83 57
1.220133e+000 9.412732e-001 -8.501957e+000 144 116 67
1.916834e+000 8.847340e-001 -8.671458e+000 67 23 20
1.816185e+000 7.901183e-001 -8.535064e+000 122 60 39
-5.737297e-001 5.364964e-001 -7.453618e+000 123 16 23
-5.729137e-001 5.327738e-001 -7.458086e+000 123 16 23
-1.784414e-001 5.494843e-001 -7.604714e+000 117 102 22
-5.871987e-002 5.581533e-001 -7.648820e+000 119 102 12
1.879158e+000 6.017291e-001 -8.433445e+000 134 89 47
3.906648e+000 6.980602e-001 -9.287674e+000 144 100 65
3.931351e+000 6.477945e-001 -9.274756e+000 147 107 65
3.554185e+000 5.160518e-001 -9.046747e+000 112 46 18
4.240063e+000 -2.007958e+000 -9.679317e+000 116 100 74
4.345441e+000 -1.716574e+000 -9.458659e+000 95 78 58
4.729359e+000 -7.947355e-001 -8.651605e+000 82 61 40
4.444053e+000 -1.922200e+000 -9.190164e+000 92 72 47
3.871514e+000 1.662976e+000 -1.048686e+001 120 81 42
-1.579419e+000 9.611733e-001 -8.156022e+000 158 130 81
-1.572947e+000 9.726891e-001 -8.142153e+000 158 130 81
-1.195769e+000 1.090961e+000 -7.963102e+000 118 97 58
1.621340e+000 1.252960e+000 -9.018550e+000 59 36 29
2.027262e+000 1.083035e+000 -8.929766e+000 55 36 30
1.861543e+000 9.155030e-001 -8.691442e+000 60 35 32
-2.397723e-001 7.000489e-001 -7.756318e+000 48 68 53
1.609202e+000 7.993806e-001 -8.491957e+000 19 44 51
1.843996e+000 8.146489e-001 -8.586632e+000 68 21 17
2.096671e+000 8.182626e-001 -8.684280e+000 74 48 35
-6.023701e-001 6.221325e-001 -7.557495e+000 118 23 24
9.817709e-001 6.877466e-001 -8.162324e+000 125 103 64
1.941292e+000 7.665316e-001 -8.579099e+000 113 57 45
2.048286e+000 7.762588e-001 -8.640672e+000 88 59 50
2.042431e+000 7.859637e-001 -8.629038e+000 88 59 50
2.384228e+000 6.839102e-001 -8.668787e+000 125 89 67
2.512147e+000 4.375058e-001 -8.622055e+000 130 85 46
2.803756e+000 4.309951e-001 -8.735874e+000 138 96 46
3.564877e+000 -3.541568e+000 -1.111345e+001 95 80 59
4.166901e+000 -2.125215e+000 -9.810738e+000 96 75 52
4.243009e+000 -1.916738e+000 -9.698480e+000 115 95 72
4.711614e+000 -1.241421e+000 -8.600217e+000 98 78 54
3.851089e+000 1.721559e+000 -1.048995e+001 26 14 16
7.013123e-001 1.380061e+000 -8.906134e+000 119 104 63
-3.160404e-001 1.237301e+000 -8.365295e+000 15 39 18
-3.160404e-001 1.237301e+000 -8.365295e+000 15 39 18
2.211416e+000 1.187742e+000 -9.163494e+000 66 44 30
-5.472977e-001 8.918997e-001 -7.855151e+000 129 24 23
1.066384e+000 8.875876e-001 -8.381013e+000 119 25 24
1.066766e+000 8.868096e-001 -8.381949e+000 119 25 24
1.867575e+000 6.230258e-001 -8.462630e+000 135 91 44
1.506408e+000 5.518302e-001 -8.259536e+000 99 10 11
3.531346e+000 -3.545241e+000 -1.119630e+001 117 101 78
4.284308e+000 -1.804357e+000 -9.589979e+000 114 98 72
4.197645e+000 -2.853511e+000 -9.816839e+000 130 110 81
4.971198e+000 -4.031419e-001 -8.021636e+000 84 59 40
4.418874e+000 -2.638997e+000 -9.255124e+000 100 79 55
1.913089e+000 1.547349e+000 -9.604210e+000 13 36 46
6.772999e-001 1.397185e+000 -8.941610e+000 123 104 64
-2.050472e-001 1.118816e+000 -8.274225e+000 128 106 16
-6.825843e-001 1.046081e+000 -8.038669e+000 124 19 23
-6.825843e-001 1.046081e+000 -8.038669e+000 124 19 23
2.656674e+000 1.041271e+000 -9.118994e+000 50 30 29
-6.263552e-001 7.069602e-001 -7.628789e+000 112 19 16
-6.025692e-001 6.551220e-001 -7.584008e+000 120 25 25
4.763215e+000 -5.369478e-001 -8.541332e+000 38 27 23
1.472705e+000 1.257775e+000 -8.953097e+000 17 39 51
1.472705e+000 1.257775e+000 -8.953097e+000 17 39 51
-1.374189e+000 7.880685e-001 -7.790856e+000 162 131 86
1.195358e+000 9.063879e-001 -8.466322e+000 106 13 17
3.002741e+000 1.587301e+000 -1.019647e+001 27 9 12
7.371082e-002 1.244997e+000 -8.496908e+000 124 106 38
1.363562e+000 1.156547e+000 -8.867079e+000 15 42 53
-3.196914e-001 1.004746e+000 -8.109081e+000 131 109 32
1.409796e+000 1.052713e+000 -8.695384e+000 16 43 54
-2.194218e-001 8.023143e-001 -7.882081e+000 129 107 42
5.924500e-001 1.358305e+000 -8.784647e+000 114 50 36
9.106280e-001 9.998055e-001 -8.476180e+000 123 105 68
-3.589161e-001 6.924808e-001 -7.736125e+000 34 61 56
7.489202e-002 6.609689e-001 -7.768877e+000 20 38 19
1.163322e+000 6.847494e-001 -8.253089e+000 127 110 67
-1.319105e+000 6.973788e-001 -7.682631e+000 159 134 80
3.178412e+000 -9.297766e-002 -9.243405e+000 153 106 54
8.627878e-001 1.466413e+000 -9.318570e+000 117 97 60
2.804086e+000 1.397065e+000 -9.611439e+000 112 74 37
4.357233e+000 7.690287e-001 -9.467869e+000 32 22 23
3.851153e+000 1.672205e+000 -1.056189e+001 70 19 6
1.979363e+000 1.505110e+000 -9.547616e+000 19 37 37
2.014385e+000 1.500584e+000 -9.552290e+000 46 59 52
2.061433e+000 1.481416e+000 -9.594933e+000 20 40 39
2.053971e+000 1.493781e+000 -9.577272e+000 20 40 39
-4.100516e-001 1.223186e+000 -8.331390e+000 121 99 9
-3.075125e-001 1.203357e+000 -8.332539e+000 60 71 24
-1.477379e+000 9.262673e-001 -7.969618e+000 153 128 87
-1.323925e+000 9.567894e-001 -7.842869e+000 69 43 17
2.640045e+000 1.210573e+000 -9.362150e+000 75 57 47
-1.473288e+000 7.729072e-001 -7.852917e+000 100 75 45
-3.865501e-001 9.364876e-001 -8.023528e+000 107 101 9
-1.373666e+000 7.524778e-001 -7.750591e+000 152 125 78
1.942051e+000 1.039036e+000 -8.864041e+000 54 35 31
1.942051e+000 1.039036e+000 -8.864041e+000 54 35 31
-1.363028e+000 6.301774e-001 -7.697539e+000 162 135 95
-3.656404e-001 1.105829e+000 -7.525032e+000 109 97 17
-2.536166e-001 8.649981e-001 -7.802280e+000 120 104 38
1.540817e+000 9.057014e-001 -8.593281e+000 110 110 80
1.540817e+000 9.057014e-001 -8.593281e+000 110 110 80
8.201662e-001 7.855226e-001 -8.199430e+000 119 107 56
8.201662e-001 7.855226e-001 -8.199430e+000 119 107 56
2.374350e+000 8.875384e-001 -8.869661e+000 93 72 52
2.402147e+000 8.541886e-001 -8.863027e+000 101 79 60
2.247339e+000 7.958645e-001 -8.698706e+000 52 19 17
3.361075e+000 7.088633e-001 -9.112956e+000 90 18 19
-4.956699e-001 6.314031e-001 -7.574648e+000 120 25 21
-4.956699e-001 6.314031e-001 -7.574648e+000 120 25 21
-4.727677e-001 5.793155e-001 -7.545666e+000 117 25 19
-4.727677e-001 5.793155e-001 -7.545666e+000 117 25 19
3.224764e+000 6.325821e-001 -8.989840e+000 10 39 52
3.551582e+000 6.023817e-001 -9.101190e+000 134 86 45
1.634863e+000 5.381752e-001 -8.309134e+000 23 30 34
2.792322e+000 4.592348e-001 -8.757792e+000 104 58 10
3.995842e+000 5.495932e-001 -9.232789e+000 136 68 32
4.208240e+000 -1.964697e+000 -9.693274e+000 94 77 55
1.997832e+000 1.523520e+000 -9.621031e+000 56 68 65
2.097636e+000 1.443250e+000 -9.490245e+000 17 42 48
-3.078366e-001 1.237233e+000 -8.362798e+000 15 33 6
2.198814e+000 1.243993e+000 -9.155455e+000 119 94 64
-1.279376e+000 7.453201e-001 -7.679153e+000 157 132 91
2.592125e+000 1.048705e+000 -9.129659e+000 96 73 53
-1.299011e+000 6.603965e-001 -7.642468e+000 161 136 84
1.915468e+000 8.873440e-001 -8.669256e+000 69 26 22
2.800717e+000 8.630788e-001 -9.037937e+000 83 61 48
3.231598e+000 8.149230e-001 -9.117248e+000 13 38 57
-2.658337e-001 6.657405e-001 -7.719758e+000 109 96 25
4.050382e+000 7.906523e-001 -9.464906e+000 117 92 53
4.234041e+000 8.027542e-001 -9.490475e+000 97 42 29
1.941975e+000 5.974636e-001 -8.452436e+000 125 68 48
4.080866e+000 -2.315549e+000 -1.000610e+001 95 80 57
4.543860e+000 -1.895304e+000 -9.010298e+000 128 106 82
4.376498e+000 -2.978039e+000 -9.303038e+000 102 85 57
4.930331e+000 -1.169430e+000 -8.089198e+000 116 96 72
3.222242e+000 1.457067e+000 -9.922313e+000 85 44 14
-3.045967e-001 1.103911e+000 -8.197648e+000 21 35 20
-1.423329e+000 8.187130e-001 -7.846078e+000 132 105 75
-1.282457e+000 7.887113e-001 -7.705476e+000 155 133 86
1.034315e+000 8.637168e-001 -8.356662e+000 123 100 64
1.033239e+000 8.655248e-001 -8.354446e+000 123 100 64
-5.351749e-001 7.501677e-001 -7.713036e+000 124 20 23
2.032232e+000 8.394622e-001 -8.687754e+000 82 50 40
2.807360e+000 4.249838e-001 -8.741902e+000 141 97 37
3.628177e+000 -3.210503e+000 -1.088731e+001 125 111 86
4.171819e+000 -1.971320e+000 -9.805481e+000 44 35 23
3.345808e+000 1.624795e+000 -1.028483e+001 108 74 37
1.285232e+000 1.042033e+000 -8.651348e+000 104 14 15
1.353456e+000 9.796670e-001 -8.595499e+000 111 33 23
4.181629e+000 9.214575e-001 -9.679439e+000 108 63 28
2.066805e+000 8.578609e-001 -8.705971e+000 52 23 17
-1.587366e+000 -1.825254e-001 -7.839940e+000 27 21 25
2.010025e+000 6.404959e-001 -8.503447e+000 57 20 17
-3.967168e-001 5.546252e-001 -7.533973e+000 125 24 24
4.107592e+000 -2.115180e+000 -9.954144e+000 35 28 23
4.326706e+000 -1.642511e+000 -9.518357e+000 45 35 30
4.588602e+000 -1.033739e+000 -8.905048e+000 112 94 74
2.841857e+000 1.575121e+000 -9.992918e+000 70 32 12
2.842075e+000 1.531015e+000 -9.890308e+000 90 46 18
7.882386e-001 1.330538e+000 -8.849119e+000 127 84 59
-1.556668e+000 8.689329e-001 -8.001008e+000 158 127 83
2.699344e+000 9.339292e-001 -9.011627e+000 55 36 29
9.676503e-001 5.477034e-001 -8.059578e+000 114 51 33
4.873331e+000 -2.204811e-001 -8.176750e+000 125 103 82
2.057276e+000 1.538224e+000 -9.638886e+000 18 39 48
-1.293470e+000 6.116839e-001 -7.628058e+000 161 138 90
-1.342024e+000 9.348913e-001 -7.839028e+000 148 127 85
4.357234e+000 2.840291e-001 -9.297864e+000 29 22 19
1.617224e-001 1.363643e+000 -8.688882e+000 115 102 57
1.983508e-001 8.126461e-001 -8.042292e+000 22 34 21
2.554187e+000 7.961124e-001 -8.833385e+000 94 66 44
3.820104e+000 -5.067778e+000 -1.057938e+001 125 109 74
2.256376e+000 1.512050e+000 -9.626837e+000 117 79 40
3.121518e+000 1.657188e+000 -1.014015e+001 90 56 20
4.015664e-001 1.269342e+000 -8.594822e+000 119 103 60
4.870638e-001 1.105891e+000 -8.446299e+000 124 105 62
4.508841e+000 -1.247765e+000 -8.977347e+000 109 89 64
2.065181e+000 6.772306e-001 -8.479994e+000 77 40 35
-3.923236e-001 1.150151e+000 -8.231369e+000 26 39 19
-3.899907e-001 1.140285e+000 -8.242614e+000 26 39 19
3.386598e+000 1.074260e+000 -9.785993e+000 114 79 41
-1.350007e+001 -3.533395e+001 -4.718419e+001 128 109 104
-1.264739e+001 -3.539195e+001 -4.683388e+001 158 139 137
-1.369142e+001 -3.597730e+001 -4.846280e+001 132 113 107
-1.161432e+001 -3.864780e+001 -4.352909e+001 67 60 72
-1.958641e+001 -3.799765e+001 -4.822077e+001 125 106 109
-1.896156e+001 -3.891538e+001 -4.549104e+001 147 131 136
-2.108218e+001 -3.927011e+001 -4.769655e+001 143 126 144
-1.859374e+001 -3.712621e+001 -4.589200e+001 59 60 101
-2.031678e+001 -3.773700e+001 -4.373203e+001 254 254 253
-1.903818e+001 -4.026425e+001 -4.559335e+001 144 127 135
-1.692024e+001 -3.684189e+001 -4.553834e+001 253 254 254
-2.018112e+001 -3.871064e+001 -4.719352e+001 151 128 132
-2.091499e+001 -3.881765e+001 -4.602700e+001 76 81 136
-1.413307e+001 -4.111680e+001 -4.132170e+001 54 66 115
-1.687565e+001 -3.700023e+001 -3.485449e+001 254 254 254
7.381624e-001 1.418864e+000 -8.967265e+000 138 92 65
1.472888e+000 1.205366e+000 -8.893742e+000 22 39 51
2.596104e+000 1.005123e+000 -9.067935e+000 87 62 39
2.757953e+000 8.378615e-001 -8.959043e+000 52 26 20
4.353928e+000 -2.352873e+000 -9.400734e+000 101 80 53
-3.542675e-001 1.228188e+000 -8.348284e+000 23 34 20
2.059059e+000 1.414669e+000 -9.418901e+000 49 60 56
-2.579873e-001 1.120464e+000 -8.269915e+000 118 104 15
2.007396e+000 1.019564e+000 -8.876785e+000 99 77 64
2.007396e+000 1.019564e+000 -8.876785e+000 99 77 64
-6.345659e-001 8.021258e-001 -7.748560e+000 119 11 9
2.792155e+000 8.536639e-001 -8.978162e+000 82 63 51
1.941834e+000 6.555745e-001 -8.469297e+000 57 16 12
4.954284e+000 -9.039981e-001 -8.009131e+000 122 101 80
4.804831e+000 -1.727112e+000 -8.410268e+000 129 105 79
2.197382e+000 1.491269e+000 -9.585085e+000 114 82 44
8.297639e-001 7.838151e-001 -8.197399e+000 123 103 59
-7.146931e+000 -2.458138e+001 -3.013295e+001 58 61 91
7.930874e-001 1.295696e+000 -8.800213e+000 122 102 60
2.453111e+000 7.611537e-001 -8.761661e+000 101 73 50
1.694778e+000 1.161801e+000 -8.958354e+000 59 36 39
-1.853159e+001 -4.313598e+001 -4.094730e+001 52 52 88
2.164726e-001 1.114737e+000 -8.368202e+000 125 105 51
6.422803e-001 1.372191e+000 -8.872265e+000 122 100 64
6.422803e-001 1.372191e+000 -8.872265e+000 122 100 64
-3.811712e-001 1.221949e+000 -8.324399e+000 112 100 18
-2.628573e-001 1.278875e+000 -8.399994e+000 121 103 27
6.316795e-001 1.335346e+000 -8.796311e+000 129 93 66
6.298495e-001 1.333826e+000 -8.798703e+000 129 93 66
1.403177e+000 1.306274e+000 -9.050276e+000 123 106 74
2.567031e-001 1.574324e+000 -8.008845e+000 131 109 32
1.525976e+000 1.243034e+000 -8.980520e+000 132 78 44
-4.520907e-001 1.073938e+000 -8.083487e+000 104 106 12
1.253798e+000 1.185439e+000 -8.817773e+000 143 67 58
1.456736e+000 1.201431e+000 -8.918287e+000 119 112 80
-5.778751e-001 8.805283e-001 -7.903923e+000 145 93 64
-5.778751e-001 8.805283e-001 -7.903923e+000 145 93 64
1.197874e+000 9.788270e-001 -8.564322e+000 147 112 60
2.437437e+000 9.163563e-001 -8.916599e+000 23 6 3
-5.781798e-001 7.767000e-001 -7.733055e+000 117 15 15
-5.775430e-001 7.777274e-001 -7.732362e+000 117 15 15
-5.488366e-001 7.253791e-001 -7.662256e+000 105 19 10
5.462204e-003 7.308847e-001 -8.010400e+000 17 30 15
7.202859e-001 8.024288e-001 -8.184826e+000 118 16 17
-1.173106e-002 6.297762e-001 -7.736106e+000 131 104 25
4.293315e+000 5.673918e-001 -9.332949e+000 94 26 6
4.293315e+000 5.673918e-001 -9.332949e+000 94 26 6
6.319652e-001 1.375573e+000 -8.864201e+000 127 96 62
2.572494e+000 1.452948e+000 -9.660449e+000 111 56 36
1.612569e+000 1.223371e+000 -8.963934e+000 130 74 46
2.533598e+000 1.291041e+000 -9.390318e+000 115 79 61
2.588114e+000 1.238929e+000 -9.356830e+000 57 38 30
2.603174e+000 1.210111e+000 -9.326960e+000 53 30 26
-7.477842e-001 9.891997e-001 -7.947949e+000 140 102 57
-6.194206e-001 8.784845e-001 -7.878754e+000 142 95 59
2.381381e+000 1.052373e+000 -9.033188e+000 96 77 55
2.570606e+000 8.178626e-001 -8.871054e+000 103 75 53
-1.478005e-001 7.188806e-001 -7.800133e+000 20 33 22
2.183781e+000 5.833826e-001 -8.568676e+000 56 18 15
4.230339e+000 -1.993809e+000 -9.666315e+000 110 92 68
4.259479e+000 -2.638277e+000 -9.483897e+000 128 108 81
-1.202749e+000 1.147129e+000 -7.946666e+000 113 95 59
1.954907e+000 1.192286e+000 -9.050804e+000 53 34 28
-1.423800e+000 8.193868e-001 -7.845144e+000 132 105 75
-1.355412e+000 7.476333e-001 -7.762819e+000 159 131 86
1.199049e-001 8.350546e-001 -8.021442e+000 119 99 15
1.199049e-001 8.350546e-001 -8.021442e+000 119 99 15
-5.399206e-001 6.092977e-001 -7.535568e+000 122 16 20
4.420869e+000 -1.444416e+000 -9.270100e+000 122 105 80
4.583275e+000 -1.120435e+000 -8.920854e+000 95 77 55
1.519751e+000 1.325327e+000 -9.107277e+000 62 12 15
1.444417e+000 1.169388e+000 -8.849873e+000 47 40 19
2.196890e+000 1.292947e+000 -9.224932e+000 113 88 58
2.651984e+000 1.453396e+000 -9.717815e+000 88 39 19
1.211666e+000 1.000343e+000 -8.572374e+000 95 25 15
1.192741e+000 1.047869e+000 -8.639235e+000 120 58 38
9.497972e-001 9.954042e-001 -8.498979e+000 120 99 65
2.984665e+000 1.562011e+000 -1.001322e+001 92 52 16
2.999020e+000 1.548211e+000 -1.003751e+001 92 52 16
2.007814e+000 1.544473e+000 -9.686144e+000 10 32 31
3.074782e-002 1.445816e+000 -8.765960e+000 111 103 23
1.989791e+000 1.489665e+000 -9.621824e+000 12 34 40
-6.725404e-002 1.371335e+000 -8.579995e+000 29 32 12
2.881740e+000 1.498602e+000 -9.853492e+000 77 38 10
-3.625325e-001 1.201551e+000 -8.316049e+000 58 74 40
-3.061584e-001 1.198148e+000 -8.336436e+000 65 72 50
2.452065e+000 1.355653e+000 -9.487204e+000 51 12 5
1.374636e+000 1.254953e+000 -8.954682e+000 118 119 91
2.602799e+000 1.277318e+000 -9.394048e+000 68 46 41
-2.464489e-001 1.082436e+000 -8.233664e+000 82 81 67
1.437158e+000 1.192968e+000 -8.883557e+000 16 45 49
1.452026e+000 1.177146e+000 -8.871509e+000 111 108 83
1.788849e+000 1.172378e+000 -8.982929e+000 102 60 51
1.788849e+000 1.172378e+000 -8.982929e+000 102 60 51
2.348294e+000 1.066545e+000 -9.058166e+000 98 76 67
2.663151e+000 1.160031e+000 -9.282434e+000 74 54 49
2.663151e+000 1.160031e+000 -9.282434e+000 74 54 49
1.990146e+000 1.002100e+000 -8.850353e+000 50 31 27
2.506799e+000 9.805793e-001 -9.025091e+000 95 72 54
-1.214506e+000 7.260645e-001 -7.607548e+000 85 62 27
1.954469e+000 8.671647e-001 -8.683455e+000 102 62 52
1.954469e+000 8.671647e-001 -8.683455e+000 102 62 52
-5.376463e-001 7.859326e-001 -7.728698e+000 116 20 17
1.065008e+000 8.028259e-001 -8.295171e+000 127 104 68
-5.306570e-001 6.162530e-001 -7.535905e+000 130 22 25
-3.684690e-001 6.052013e-001 -7.509506e+000 129 115 80
-3.684690e-001 6.052013e-001 -7.509506e+000 129 115 80
2.880186e+000 5.690928e-001 -8.776160e+000 133 102 56
4.443833e+000 5.289859e-001 -9.387447e+000 31 17 17
4.404974e+000 -1.490492e+000 -9.260757e+000 102 85 62
5.061802e+000 3.187005e-001 -7.661917e+000 78 59 52
9.783619e-001 1.469199e+000 -9.538761e+000 103 26 21
3.290670e+000 1.547071e+000 -1.055967e+001 95 63 43
2.884787e+000 1.511617e+000 -9.921919e+000 84 42 17
6.351124e-001 1.372712e+000 -8.865193e+000 125 101 65
6.351124e-001 1.372712e+000 -8.865193e+000 125 101 65
2.038103e+000 1.471124e+000 -9.517706e+000 49 67 70
2.038103e+000 1.471124e+000 -9.517706e+000 49 67 70
3.101078e+000 1.514583e+000 -9.966109e+000 57 21 25
2.192841e+000 1.340036e+000 -9.349484e+000 116 88 64
1.420245e+000 1.221893e+000 -8.916654e+000 15 38 53
-8.074333e-001 1.079977e+000 -8.032622e+000 125 69 57
2.660923e+000 1.175483e+000 -9.336917e+000 74 50 45
-1.391779e+000 8.372256e-001 -7.838366e+000 159 137 100
-7.254219e-001 9.405054e-001 -7.899161e+000 130 111 65
1.970025e+000 1.053544e+000 -8.935394e+000 47 27 28
2.684007e+000 1.110411e+000 -9.186216e+000 71 52 46
2.150217e-001 9.852009e-001 -8.218493e+000 20 37 17
1.948673e+000 1.021104e+000 -8.843333e+000 71 52 46
1.971747e+000 9.720937e-001 -8.799422e+000 69 50 44
-5.265291e-001 7.911483e-001 -7.768627e+000 145 89 59
-5.265291e-001 7.911483e-001 -7.768627e+000 145 89 59
-3.555735e-001 8.379094e-001 -7.870065e+000 107 95 13
-3.325474e-001 8.194911e-001 -7.862951e+000 20 33 17
1.274813e+000 9.347177e-001 -8.500790e+000 145 100 61
2.771741e+000 9.081351e-001 -9.016499e+000 75 55 49
-1.339253e+000 4.956750e-001 -7.608303e+000 166 142 98
-1.338367e+000 4.972351e-001 -7.606718e+000 166 142 98
-1.295890e+000 5.015893e-001 -7.583321e+000 168 144 100
-5.594425e-001 7.611036e-001 -7.727101e+000 139 110 70
-3.430798e-001 7.834573e-001 -7.829582e+000 111 106 25
2.623895e+000 6.789363e-001 -8.749224e+000 62 25 19
2.750828e+000 7.483669e-001 -8.875065e+000 47 18 14
4.149252e+000 6.623899e-001 -9.352518e+000 143 104 68
-3.163970e-001 6.529887e-001 -7.613343e+000 20 35 16
2.116860e+000 6.387026e-001 -8.532335e+000 75 34 31
-2.754311e-001 4.760642e-001 -7.537058e+000 18 38 23
4.930367e+000 -8.716662e-002 -8.067945e+000 120 103 86
5.106856e+000 3.733789e-001 -7.530498e+000 119 100 86
1.321572e+000 1.494296e+000 -9.694712e+000 81 20 15
2.885837e+000 1.616394e+000 -1.020839e+001 84 49 22
2.109636e+000 1.415550e+000 -9.442507e+000 10 38 45
2.668037e+000 1.439208e+000 -9.661762e+000 114 79 41
-4.023472e-001 1.203005e+000 -8.308554e+000 50 68 64
-1.398262e+000 8.902423e-001 -7.857213e+000 154 132 90
2.045710e+000 1.162966e+000 -9.039784e+000 59 40 33
-1.331360e+000 8.941418e-001 -7.808452e+000 154 133 87
-1.333126e+000 8.927226e-001 -7.808194e+000 154 133 87
2.108353e+000 1.125679e+000 -9.055451e+000 98 75 54
2.731524e+000 1.104761e+000 -9.237369e+000 50 32 31
-1.612721e+000 4.979329e-001 -7.818252e+000 139 109 71
2.072747e+000 9.721836e-001 -8.840964e+000 54 34 33
-1.316708e+000 6.760226e-001 -7.669895e+000 163 139 101
1.805471e+000 8.892646e-001 -8.637974e+000 57 17 21
7.479196e-001 7.689376e-001 -8.155620e+000 119 110 75
2.080022e+000 7.897570e-001 -8.654256e+000 55 31 29
2.995708e+000 7.661401e-001 -8.976116e+000 23 16 13
2.997037e+000 7.645144e-001 -8.975809e+000 23 16 13
3.923964e+000 7.270363e-001 -9.310959e+000 138 110 71
1.013213e-001 5.553231e-001 -7.747640e+000 19 40 25
4.075391e+000 -2.024430e+000 -9.810376e+000 112 102 83
4.202113e+000 -1.869587e+000 -9.720379e+000 37 29 23
4.246716e+000 -1.923925e+000 -9.695558e+000 109 97 75
4.291561e+000 -1.729455e+000 -9.588397e+000 35 26 28
4.182737e+000 -1.837396e+000 -9.570508e+000 92 81 61
4.357450e+000 -1.631869e+000 -9.437391e+000 122 109 89
4.636577e+000 -8.953770e-001 -8.789676e+000 122 105 87
4.965712e+000 -1.438056e-002 -8.001164e+000 122 106 91
4.854666e+000 1.614470e-001 -7.913292e+000 43 32 29
4.981421e+000 -2.021198e-001 -7.851809e+000 127 109 89
5.076482e+000 4.097496e-001 -7.622322e+000 125 108 90
3.874865e+000 1.580383e+000 -1.080881e+001 119 63 25
2.041529e+000 1.530504e+000 -9.679499e+000 16 39 56
3.271609e+000 1.545158e+000 -1.005997e+001 107 72 42
2.518063e+000 1.324282e+000 -9.420525e+000 113 77 61
1.216508e+000 1.164499e+000 -8.737194e+000 103 23 22
-5.203462e-001 8.100546e-001 -7.805905e+000 127 26 29
-5.199635e-001 8.102056e-001 -7.806342e+000 127 26 29
2.030624e+000 8.599051e-001 -8.743416e+000 106 78 66
2.030624e+000 8.599051e-001 -8.743416e+000 106 78 66
2.061457e+000 8.588710e-001 -8.702612e+000 46 17 13
2.827978e+000 8.534023e-001 -8.960392e+000 57 34 39
1.876994e+000 7.264524e-001 -8.536287e+000 75 30 27
2.533208e+000 7.075490e-001 -8.696835e+000 104 78 56
2.533208e+000 7.075490e-001 -8.696835e+000 104 78 56
2.615721e+000 3.807394e-001 -8.638187e+000 39 12 12
4.611257e+000 -9.781535e-001 -8.854473e+000 113 97 78
5.008216e+000 1.657774e-001 -7.837087e+000 113 99 83
5.041831e+000 2.149563e-001 -7.778503e+000 98 80 65
5.045369e+000 3.346734e-001 -7.749381e+000 39 29 27
5.052059e+000 3.302667e-001 -7.698902e+000 117 100 85
5.107036e+000 4.222286e-001 -7.595759e+000 120 100 83
1.074100e+000 1.396661e+000 -9.410606e+000 105 25 20
3.112277e+000 1.613646e+000 -1.025581e+001 101 71 42
-7.520408e-001 9.642913e-001 -7.917488e+000 128 24 26
1.476461e+000 1.097636e+000 -8.778199e+000 93 93 77
1.783433e+000 9.778374e-001 -8.738885e+000 47 32 34
2.887231e+000 7.615672e-001 -8.955756e+000 64 33 32
1.940806e+000 5.470909e-001 -8.434788e+000 73 27 19
1.941149e+000 5.482859e-001 -8.434685e+000 73 27 19
4.162181e+000 3.980013e-001 -9.248828e+000 151 71 23
4.426728e+000 -1.357287e+000 -9.270156e+000 39 34 33
5.098146e+000 3.222808e-001 -7.612135e+000 75 56 42
1.403344e+000 1.510082e+000 -9.654006e+000 100 43 26
