ply
format ascii 1.0
element face 0
property list uchar int vertex_indices
element vertex 603
property float x
property float y
property float z
property uchar diffuse_red
property uchar diffuse_green
property uchar diffuse_blue
end_header
-1.610846e+000 -2.751935e+000 -1.935814e-001 113 107 95
-1.596660e+000 -2.842589e+000 -4.325017e-002 109 95 79
-1.549560e+000 -2.786411e+000 -1.796213e-001 111 103 80
-1.490860e+000 -2.812783e+000 -2.108712e-001 107 96 75
1.272173e+000 -2.589936e+000 -7.872063e-001 188 174 126
-1.918824e+000 -3.129623e+000 -9.506018e-002 104 94 92
-1.881212e+000 -3.291228e+000 9.193644e-002 138 137 133
-6.624250e-001 -3.597259e+000 -7.585952e-002 73 54 37
-3.939441e+000 -3.908435e+000 1.334956e+000 76 68 59
-3.589074e+000 -4.063100e+000 1.550849e+000 110 97 88
-4.522502e+000 -4.130805e+000 1.296110e+000 71 60 60
-4.401173e+000 -4.212489e+000 1.469854e+000 124 124 114
-4.224868e+000 -4.144406e+000 1.473229e+000 98 95 82
-5.112781e-001 -4.123648e+000 1.432877e-002 97 76 52
-4.580996e+000 -4.517225e+000 1.636195e+000 149 145 133
-4.304602e+000 -4.414730e+000 1.772059e+000 116 113 99
-4.304602e+000 -4.414730e+000 1.772059e+000 116 113 99
-1.208210e+000 -4.403960e+000 6.317404e-001 91 73 59
-4.053814e+000 -4.630467e+000 1.931467e+000 92 86 74
-4.123203e+000 -4.716215e+000 1.996238e+000 91 89 77
-3.786631e+000 -4.888191e+000 1.940547e+000 78 70 59
-4.663667e+000 -4.905625e+000 1.703958e+000 94 91 74
1.421633e+000 -4.925330e+000 2.752522e-001 131 114 71
-3.530980e+000 -5.115144e+000 2.090545e+000 105 103 90
-8.417937e-001 -5.282511e+000 7.184929e-001 85 70 65
-1.976232e-001 -5.297527e+000 1.617695e+000 157 166 165
-3.826924e+000 -5.376102e+000 2.175326e+000 63 54 46
-1.715254e+000 -5.431171e+000 7.200073e-001 76 61 56
-6.694094e-001 -5.837765e+000 1.030049e+000 98 86 76
-3.353524e+000 -5.801973e+000 2.412202e+000 86 73 51
-3.282582e+000 -5.898411e+000 2.434227e+000 85 70 46
-1.754310e+000 -6.268761e+000 1.614682e-001 62 43 29
-6.932600e-001 -6.184742e+000 8.349437e-001 79 70 62
-1.310345e+000 -3.380723e+000 4.463181e-002 78 60 45
-3.654328e+000 -3.854080e+000 1.258225e+000 117 109 98
-4.096761e+000 -4.045115e+000 1.442376e+000 83 72 60
-3.946049e+000 -3.975782e+000 1.458257e+000 67 57 48
-3.973272e+000 -4.001759e+000 1.462639e+000 161 155 141
-4.427776e+000 -4.035167e+000 1.264624e+000 86 81 78
-4.158372e+000 -4.189301e+000 1.627443e+000 70 66 55
-4.178154e+000 -4.241465e+000 1.716048e+000 88 83 77
-2.361891e+000 -3.704833e+000 -1.619138e+000 169 145 112
-2.120136e-001 -3.895441e+000 -1.491831e-001 183 187 174
-2.043244e+000 -4.159644e+000 6.884212e-001 135 155 150
-2.043244e+000 -4.159644e+000 6.884212e-001 135 155 150
-1.946183e+000 -4.159890e+000 6.367213e-001 87 80 70
-8.482175e-001 -4.131975e+000 2.529213e-001 92 73 56
-4.808537e+000 -4.512197e+000 1.463759e+000 150 150 132
-4.649796e+000 -4.512030e+000 1.580224e+000 150 148 135
-1.144626e+000 -4.354275e+000 6.415693e-001 93 76 60
-5.380934e+000 -4.604596e+000 9.277522e-001 114 111 114
-4.848187e+000 -4.622299e+000 1.432858e+000 140 136 124
-4.439491e+000 -4.634400e+000 1.809590e+000 110 102 87
-5.225536e+000 -4.742027e+000 1.072582e+000 150 148 133
-4.705701e+000 -4.827480e+000 1.736585e+000 108 105 98
-4.567257e+000 -4.775372e+000 1.753019e+000 101 97 85
-4.389583e+000 -4.725664e+000 1.875506e+000 110 103 85
-4.448040e+000 -4.800572e+000 1.883348e+000 129 126 111
-4.178345e+000 -4.804396e+000 2.003780e+000 127 122 113
-4.087497e+000 -4.860031e+000 1.933204e+000 105 102 88
-3.554340e+000 -4.759264e+000 1.916817e+000 87 77 65
1.643125e+000 -4.779450e+000 8.236475e-001 178 161 105
-4.597797e+000 -4.888259e+000 1.851575e+000 121 115 101
-4.081863e+000 -5.029851e+000 1.995480e+000 76 67 60
-3.805964e+000 -4.947510e+000 2.109883e+000 110 101 90
-3.594894e+000 -4.952758e+000 2.146349e+000 75 67 57
-2.450158e-001 -5.003975e+000 1.427406e+000 96 81 65
1.656914e+000 -4.954499e+000 4.081251e-001 121 103 70
-4.333191e+000 -5.043658e+000 1.899105e+000 86 84 73
-4.167664e+000 -5.130246e+000 1.960335e+000 114 110 99
-4.165789e+000 -5.060520e+000 1.940153e+000 140 138 126
-4.165789e+000 -5.060520e+000 1.940153e+000 140 138 126
-4.100003e+000 -5.179412e+000 2.049437e+000 97 90 80
-3.555707e+000 -5.148478e+000 2.072893e+000 128 143 134
-3.398651e+000 -5.064172e+000 2.073093e+000 100 96 89
-1.548005e-001 -5.114459e+000 1.631625e+000 180 178 166
-2.020002e+000 -5.502291e+000 5.805940e-001 42 27 24
-1.611863e+000 -5.532574e+000 5.033399e-001 54 35 29
-6.035511e-001 -5.527113e+000 -8.966128e-002 82 69 61
-8.514499e-001 -5.642027e+000 8.015121e-001 54 41 34
-1.603775e+000 -5.828839e+000 4.774018e-001 55 35 32
-1.603775e+000 -5.828839e+000 4.774018e-001 55 35 32
-1.544429e+000 -5.875640e+000 4.687685e-001 56 35 32
-1.326696e+000 -5.994638e+000 3.757092e-001 46 28 26
-7.348879e-001 -6.103705e+000 8.462417e-001 35 26 19
-1.969995e+000 -6.406249e+000 2.263946e-001 71 45 30
-1.877561e+000 -6.294885e+000 3.896824e-001 62 39 25
-1.470588e+000 -6.348142e+000 2.776416e-001 78 64 61
-3.044724e+000 -6.203264e+000 2.339866e+000 70 56 44
1.886965e+000 -2.537637e+000 5.452524e-001 157 144 92
-4.637124e+000 -2.986126e+000 1.462324e+000 78 61 69
-1.791364e+000 -2.784897e+000 -2.164788e-001 81 78 72
-1.763502e+000 -3.151842e+000 1.355959e-002 66 57 48
-1.765112e+000 -3.367548e+000 2.171837e-001 101 92 82
-1.481936e+000 -3.354408e+000 1.279745e-001 77 60 48
-1.481936e+000 -3.354408e+000 1.279745e-001 77 60 48
-1.209627e+000 -3.255545e+000 -1.320495e-001 75 56 42
-1.178093e+000 -3.314328e+000 6.099387e-002 100 84 69
-1.178093e+000 -3.314328e+000 6.099387e-002 100 84 69
-2.398529e+000 -3.336909e+000 9.452275e-002 167 144 103
-2.398529e+000 -3.336909e+000 9.452275e-002 167 144 103
-1.553884e+000 -3.543931e+000 2.195111e-001 77 59 47
1.184110e+000 -3.356351e+000 -5.034315e-001 150 133 83
-3.894458e+000 -3.802677e+000 1.212306e+000 55 42 39
-1.558090e+000 -3.724781e+000 3.625917e-001 77 59 47
-3.525597e+000 -3.946204e+000 1.368936e+000 113 103 93
-3.468572e+000 -4.041869e+000 1.439923e+000 62 41 38
-1.386359e+000 -3.912332e+000 3.908919e-001 72 58 46
-9.927396e-001 -3.786356e+000 1.500379e-001 98 79 62
1.402282e+000 -3.808900e+000 -2.169955e-001 141 119 70
-4.296671e+000 -4.169943e+000 1.426424e+000 141 143 129
-4.100994e+000 -4.089524e+000 1.488545e+000 80 70 61
-3.768299e+000 -4.275120e+000 1.955635e+000 64 48 33
-3.652452e+000 -4.118567e+000 1.628083e+000 68 56 48
-2.004454e+000 -4.137144e+000 7.063335e-001 70 61 56
-1.598481e+000 -4.014566e+000 6.129411e-001 74 60 47
-1.601151e+000 -4.082048e+000 4.233691e-001 90 76 62
-4.653022e+000 -4.346218e+000 1.435269e+000 95 91 82
-4.337039e+000 -4.234721e+000 1.541227e+000 86 88 77
-4.899969e+000 -4.497226e+000 1.353150e+000 154 152 139
-3.813586e+000 -4.451103e+000 1.948625e+000 90 81 72
-4.378300e+000 -4.645743e+000 1.892193e+000 144 140 123
-4.170878e+000 -4.651793e+000 1.995103e+000 94 86 75
-4.164815e+000 -4.691833e+000 1.943472e+000 136 137 123
-3.921528e+000 -4.618739e+000 2.021908e+000 63 54 45
-3.758588e+000 -4.618321e+000 2.014989e+000 54 39 32
-3.726090e+000 -4.630162e+000 1.939407e+000 72 61 55
-3.540257e+000 -4.708212e+000 1.991163e+000 56 46 37
-3.506450e+000 -4.719796e+000 1.936154e+000 91 77 64
-2.088389e+000 -4.480644e+000 9.643352e-002 40 28 28
-4.646818e+000 -4.774999e+000 1.777347e+000 93 89 78
-4.646818e+000 -4.774999e+000 1.777347e+000 93 89 78
-4.608938e+000 -4.817110e+000 1.795405e+000 132 128 117
-4.489443e+000 -4.841821e+000 1.822517e+000 83 78 67
-3.690790e+000 -4.805688e+000 2.023975e+000 71 61 52
-1.385851e+000 -4.729975e+000 9.745247e-001 93 78 71
-1.019449e+000 -4.818445e+000 7.396483e-001 68 54 45
-9.656366e-001 -4.807356e+000 9.887700e-001 66 50 37
-9.656366e-001 -4.807356e+000 9.887700e-001 66 50 37
-4.369732e+000 -4.945058e+000 1.896216e+000 104 98 84
-4.398241e+000 -4.968575e+000 1.935026e+000 89 84 73
-4.441443e+000 -5.020354e+000 1.854268e+000 142 139 122
-4.202795e+000 -4.915952e+000 1.911658e+000 135 132 114
-4.017855e+000 -5.032989e+000 1.972518e+000 136 133 122
-3.756131e+000 -4.912039e+000 1.995942e+000 103 94 85
-1.679476e+000 -4.928357e+000 5.861991e-001 36 27 22
-1.087093e+000 -4.991668e+000 7.437625e-001 45 27 23
-4.219509e+000 -5.153067e+000 1.954914e+000 115 111 100
-3.558688e+000 -5.056396e+000 2.036932e+000 112 108 96
-1.435605e+000 -5.096960e+000 7.409812e-001 51 33 29
-4.282339e+000 -5.179759e+000 1.865464e+000 124 119 109
-4.258020e+000 -5.213354e+000 1.861066e+000 55 52 44
-4.042616e+000 -5.303935e+000 1.930941e+000 65 54 48
-3.923907e+000 -5.293644e+000 2.029877e+000 56 48 46
-3.845436e+000 -5.210102e+000 2.096550e+000 108 98 86
-3.369180e+000 -5.213424e+000 2.049882e+000 81 66 59
-3.387912e+000 -5.288686e+000 2.111210e+000 61 50 41
-3.221373e+000 -5.231385e+000 2.078791e+000 76 58 54
-1.799965e-001 -5.326220e+000 1.635667e+000 185 194 186
-3.886876e+000 -5.471794e+000 2.114347e+000 76 66 54
-3.273904e+000 -5.349098e+000 2.091300e+000 45 31 27
-2.566827e+000 -5.453277e+000 8.726682e-001 80 58 47
-1.486206e+000 -5.458265e+000 2.676036e-001 73 58 51
6.933201e-001 -5.590862e+000 -1.639997e-001 74 55 48
-3.182780e+000 -5.595504e+000 2.027550e+000 47 28 22
-2.903237e+000 -5.545330e+000 1.915487e+000 44 22 16
-2.903237e+000 -5.545330e+000 1.915487e+000 44 22 16
-1.449131e+000 -5.709979e+000 4.927325e-001 74 57 53
-7.516613e-001 -5.636344e+000 6.489383e-001 87 78 73
-1.482194e+000 -5.772035e+000 4.259882e-001 74 59 52
-1.448232e+000 -5.859312e+000 4.369551e-001 74 55 48
-1.373533e+000 -5.862051e+000 4.422455e-001 55 37 30
2.650870e+002 2.877673e+001 5.258590e+002 75 91 115
-1.164789e+000 -6.045074e+000 3.429787e-001 74 59 54
-6.643559e-001 -6.209360e+000 1.112150e+000 115 105 93
-1.818086e-001 -6.087382e+000 1.196045e+000 115 98 82
-1.446102e+000 -6.305801e+000 2.058125e-001 44 30 27
-8.371979e-001 -6.369392e+000 7.595136e-001 66 53 49
-7.631340e-001 -6.543813e+000 8.012759e-001 63 48 45
-5.681497e-001 -6.464514e+000 9.268036e-001 108 93 78
-4.531878e+000 -6.326376e+000 2.791331e+000 64 60 63
-6.809223e-001 -6.603333e+000 8.102246e-001 70 51 45
-6.548942e-001 -6.654588e+000 7.842891e-001 104 84 73
-2.635101e+000 -6.686905e+000 1.372874e+000 159 131 91
1.783329e+000 -7.091546e+000 1.173483e+000 162 142 91
-5.025235e+000 -3.347476e+000 1.492695e+000 37 21 32
-1.956393e+000 -3.307860e+000 9.780070e-002 72 64 62
-1.826112e+000 -3.348862e+000 1.647981e-001 65 58 50
1.462636e+000 -3.346005e+000 6.048519e-002 168 151 97
-2.501004e+000 -3.406222e+000 -3.165642e-001 167 145 108
-2.501004e+000 -3.406222e+000 -3.165642e-001 167 145 108
-1.699617e+000 -3.460095e+000 3.132585e-001 77 65 53
-1.500876e+000 -3.498750e+000 1.787302e-001 97 83 70
1.205796e+000 -3.386316e+000 -7.304486e-001 152 136 85
1.580720e+000 -3.531144e+000 4.156984e-001 147 134 82
-3.901044e+000 -3.736191e+000 1.185749e+000 78 65 60
-2.778976e+000 -3.518276e+000 -1.660811e-001 67 39 35
1.132929e+000 -3.455416e+000 -7.362908e-001 152 135 84
-4.021902e+000 -4.056038e+000 1.423983e+000 83 73 63
-3.650482e+000 -4.052277e+000 1.503592e+000 140 145 125
-3.650482e+000 -4.052277e+000 1.503592e+000 140 145 125
-2.145963e+000 -3.659097e+000 -1.229139e+000 166 138 112
-4.321779e+000 -4.071355e+000 1.347236e+000 109 105 96
-4.369576e+000 -4.163711e+000 1.369438e+000 130 132 121
-4.244507e+000 -4.082056e+000 1.362027e+000 80 70 68
-1.719653e+000 -3.960433e+000 5.397002e-001 75 59 46
-4.559752e+000 -4.514019e+000 1.585497e+000 148 144 132
-4.559752e+000 -4.514019e+000 1.585497e+000 148 144 132
-4.247298e+000 -4.454855e+000 1.879822e+000 90 87 73
-4.299449e+000 -4.508529e+000 1.820836e+000 91 85 73
-4.097613e+000 -4.543699e+000 2.021151e+000 153 146 130
-3.768930e+000 -4.521709e+000 1.983289e+000 106 97 84
-3.593183e+000 -4.539541e+000 1.890759e+000 80 66 56
-3.448367e+000 -4.445510e+000 1.813437e+000 86 74 61
-1.900094e+000 -4.365539e+000 7.078582e-001 83 68 63
-1.768077e+000 -4.446257e+000 7.078945e-001 83 68 61
1.645568e+000 -4.530704e+000 5.108402e-001 152 136 84
-4.673579e+000 -4.582910e+000 1.551992e+000 71 65 53
-4.397591e+000 -4.590756e+000 1.850645e+000 98 91 80
-4.413970e+000 -4.685045e+000 1.872977e+000 161 157 136
-4.323262e+000 -4.655042e+000 1.888614e+000 70 67 52
-4.323262e+000 -4.655042e+000 1.888614e+000 70 67 52
-4.254365e+000 -4.701893e+000 1.970507e+000 144 140 125
-3.828337e+000 -4.733590e+000 1.992658e+000 130 125 114
-3.769506e+000 -4.695155e+000 1.983969e+000 95 86 77
-3.649653e+000 -4.607694e+000 1.980944e+000 90 76 68
-3.589584e+000 -4.617114e+000 1.925284e+000 58 44 35
-3.321437e+000 -4.631264e+000 1.946621e+000 84 70 62
-3.321437e+000 -4.631264e+000 1.946621e+000 84 70 62
-2.892686e+000 -4.549665e+000 9.560091e-001 72 52 38
-1.966446e+000 -4.663300e+000 6.125621e-001 32 22 20
-1.797265e+000 -4.528264e+000 6.902403e-001 51 36 31
-4.757690e+000 -4.818497e+000 1.697102e+000 145 141 135
-4.525598e+000 -4.810374e+000 1.825119e+000 148 144 132
-4.021859e+000 -4.845408e+000 2.009320e+000 128 127 107
-3.900587e+000 -4.884153e+000 1.972983e+000 141 139 127
-3.742498e+000 -4.790933e+000 1.983777e+000 102 101 89
-3.661955e+000 -4.847956e+000 1.961302e+000 108 101 88
-3.661955e+000 -4.847956e+000 1.961302e+000 108 101 88
-3.015450e+000 -4.795194e+000 1.792385e+000 81 64 48
-1.409572e+000 -4.694609e+000 7.011210e-001 68 53 46
-1.049753e+000 -4.748679e+000 7.716302e-001 67 52 45
-8.425872e-001 -4.830215e+000 6.391969e-001 82 67 55
1.586191e+000 -4.827218e+000 3.620969e-001 162 148 111
-5.398936e+000 -4.813603e+000 9.378777e-001 77 70 63
-3.639902e+000 -4.933780e+000 2.035216e+000 145 146 133
-3.374101e+000 -4.923753e+000 2.004772e+000 79 64 57
-3.374101e+000 -4.923753e+000 2.004772e+000 79 64 57
-3.276406e+000 -4.927738e+000 1.941806e+000 36 26 17
-1.504758e+000 -4.928681e+000 1.300848e+000 75 60 53
-1.381581e+000 -4.911715e+000 8.501720e-001 62 44 42
-1.324853e+000 -5.003618e+000 6.297785e-001 61 46 41
-4.559573e+000 -5.062339e+000 1.887015e+000 76 67 62
-4.286651e+000 -5.071528e+000 1.899536e+000 137 138 125
-3.880052e+000 -5.165880e+000 2.068876e+000 69 52 44
-3.763613e+000 -5.100511e+000 2.108914e+000 62 55 45
-3.745772e+000 -5.154836e+000 2.076677e+000 100 93 83
-3.442572e+000 -5.041623e+000 2.067335e+000 42 32 32
-3.192198e+000 -5.100567e+000 2.043561e+000 81 64 54
-2.898642e+000 -5.144753e+000 1.879667e+000 76 62 53
-1.274835e+000 -5.185012e+000 4.884953e-001 76 58 55
-6.226737e-001 -5.099459e+000 5.877557e-001 165 173 169
-4.271905e-001 -5.109712e+000 1.509715e+000 122 103 97
-2.801235e-001 -5.187865e+000 1.485440e+000 179 184 184
3.845558e-003 -5.114343e+000 1.313859e+000 93 75 53
-4.323386e+000 -5.227446e+000 1.938422e+000 121 118 110
-3.650348e+000 -5.288099e+000 2.219740e+000 37 25 19
-3.650348e+000 -5.288099e+000 2.219740e+000 37 25 19
-3.307190e+000 -5.298863e+000 2.024930e+000 72 58 49
-1.916780e+000 -5.263478e+000 5.285929e-001 68 53 48
-1.781496e+000 -5.256995e+000 4.242223e-001 60 46 43
-1.381534e+000 -5.219539e+000 4.232509e-001 40 25 22
-1.330877e+000 -5.301436e+000 6.800999e-001 46 31 30
-1.012912e+000 -5.276080e+000 6.191288e-001 57 43 40
-2.781141e-001 -5.238606e+000 1.544567e+000 110 102 100
-3.773488e+000 -5.354440e+000 2.177279e+000 67 51 45
-3.758981e+000 -5.410596e+000 2.135800e+000 107 96 90
-3.598938e+000 -5.425607e+000 2.120638e+000 108 101 95
-3.183294e+000 -5.389710e+000 2.119260e+000 46 27 28
-6.599067e-001 -5.447582e+000 5.269466e-001 65 53 47
-6.026366e-001 -5.417389e+000 9.491809e-001 178 203 207
-6.175415e-001 -5.735055e+000 3.950787e-001 101 100 96
-6.246504e-001 -5.568117e+000 9.948388e-001 185 201 201
-5.888010e-001 -5.572869e+000 1.326488e+000 162 176 177
-5.888010e-001 -5.572869e+000 1.326488e+000 162 176 177
-5.378738e-001 -5.606819e+000 1.317898e+000 113 103 100
-3.153445e+000 -5.686790e+000 1.982009e+000 25 17 20
-7.461890e-001 -5.811479e+000 3.307815e-001 47 33 28
-7.774059e-001 -5.840226e+000 5.883724e-001 80 66 65
-7.774059e-001 -5.840226e+000 5.883724e-001 80 66 65
-6.299156e-001 -5.733097e+000 1.202826e+000 105 94 83
-5.302393e-001 -5.782620e+000 1.284169e+000 105 93 81
-4.382462e-001 -5.936612e+000 1.275541e+000 84 71 62
-2.705133e-001 -5.976660e+000 1.347545e+000 123 105 90
-4.833681e+000 -5.962306e+000 2.817745e+000 55 48 56
-1.936003e+000 -6.228999e+000 8.354875e-002 95 71 61
-3.633340e-001 -6.136378e+000 1.148187e+000 121 105 88
-3.142204e-001 -6.131755e+000 1.220523e+000 93 75 61
-1.821206e+000 -6.360805e+000 1.882765e-001 92 65 51
-6.534196e-001 -6.310801e+000 9.752837e-001 75 65 53
-5.490770e-001 -6.201828e+000 1.226942e+000 122 111 97
-3.761175e-001 -6.437755e+000 9.261689e-001 115 96 79
-5.234570e+000 -6.554410e+000 2.726841e+000 77 66 74
-5.234570e+000 -6.554410e+000 2.726841e+000 77 66 74
-2.902890e+000 -7.253190e+000 1.928862e+000 163 136 90
-2.902890e+000 -7.253190e+000 1.928862e+000 163 136 90
-2.846201e+000 -7.293617e+000 2.131010e+000 173 146 96
-1.408284e+000 -9.269891e+000 -4.840185e+000 148 126 69
4.091537e-001 -8.563184e+000 -1.341519e+000 152 128 82
-3.559836e+000 -2.765383e+000 3.209887e-001 75 49 38
1.764923e+000 -2.742760e+000 1.592474e-001 157 144 91
1.803053e+000 -2.755551e+000 4.157628e-001 175 166 109
1.803053e+000 -2.755551e+000 4.157628e-001 175 166 109
-1.796753e+000 -2.877765e+000 -2.094192e-001 159 179 178
-1.796753e+000 -2.877765e+000 -2.094192e-001 159 179 178
-1.672557e+000 -2.831176e+000 -1.938106e-001 119 114 107
-1.888187e+000 -2.922519e+000 -1.088222e-001 93 82 84
-4.308021e+000 -3.401036e+000 1.235471e+000 46 35 41
1.537576e+000 -3.276150e+000 6.126244e-002 169 152 100
1.706413e+000 -3.400052e+000 5.231041e-001 154 137 85
-1.807907e+000 -3.509081e+000 2.198358e-001 106 99 91
-3.900780e+000 -3.875838e+000 1.315041e+000 126 120 108
-3.974877e+000 -3.921533e+000 1.249180e+000 71 62 53
-3.579265e+000 -3.985130e+000 1.399579e+000 50 41 31
-2.078723e+000 -3.632364e+000 -1.109736e+000 64 45 41
-4.562680e+000 -4.127569e+000 1.277576e+000 51 41 43
-1.916146e+000 -3.975987e+000 5.594408e-001 80 67 60
-4.692243e+000 -4.519973e+000 1.548345e+000 144 142 128
-3.940753e+000 -4.542047e+000 2.120874e+000 108 95 86
-3.940753e+000 -4.542047e+000 2.120874e+000 108 95 86
-3.686104e+000 -4.554441e+000 1.971259e+000 48 32 25
-3.522883e+000 -4.448473e+000 1.884421e+000 50 35 28
-5.054700e+000 -4.655203e+000 1.299158e+000 89 80 78
-4.894625e+000 -4.677590e+000 1.394001e+000 78 71 61
-4.319544e+000 -4.584002e+000 1.846261e+000 155 152 137
-4.058655e+000 -4.688878e+000 2.007076e+000 76 69 59
-5.205261e+000 -4.678447e+000 1.153455e+000 99 85 79
-4.444309e+000 -4.743028e+000 1.876605e+000 107 95 79
-4.395235e+000 -4.843569e+000 1.873355e+000 73 66 58
-4.213337e+000 -4.753347e+000 1.967665e+000 50 41 36
-4.213337e+000 -4.753347e+000 1.967665e+000 50 41 36
-4.085578e+000 -4.761846e+000 1.970223e+000 147 149 135
-3.554461e+000 -4.837754e+000 2.037316e+000 43 34 28
-3.434852e+000 -4.891780e+000 1.979967e+000 49 35 27
-1.419110e+003 1.141131e+002 -3.249454e+003 59 74 94
-4.612180e+000 -5.014240e+000 1.832725e+000 158 158 146
-4.494068e+000 -4.994081e+000 1.850255e+000 90 77 61
-4.051688e+000 -4.904107e+000 1.990311e+000 56 52 41
-4.106904e+000 -4.973341e+000 1.975525e+000 160 162 148
-4.106904e+000 -4.973341e+000 1.975525e+000 160 162 148
-3.706569e+000 -4.948015e+000 2.045524e+000 37 27 18
-3.144014e+000 -4.969180e+000 1.889532e+000 47 32 32
-1.250440e+000 -4.875586e+000 7.586353e-001 73 58 53
-9.816123e-001 -4.871745e+000 7.677577e-001 94 80 70
-2.224183e-001 -4.973668e+000 1.565936e+000 124 113 97
-4.521745e+000 -5.076767e+000 1.787856e+000 138 134 122
-3.900761e+000 -5.040458e+000 2.028433e+000 52 50 39
-3.900761e+000 -5.040458e+000 2.028433e+000 52 50 39
-3.140819e+000 -5.115540e+000 2.002557e+000 48 31 26
-1.348256e+000 -5.090937e+000 6.550827e-001 75 58 55
-1.348256e+000 -5.090937e+000 6.550827e-001 75 58 55
-4.272343e+000 -5.243109e+000 1.845928e+000 64 56 53
-3.465475e+000 -5.329131e+000 2.132074e+000 34 26 24
-3.317713e+000 -5.232878e+000 2.077519e+000 45 30 24
-3.170869e+000 -5.266826e+000 2.041719e+000 44 29 23
-3.170869e+000 -5.266826e+000 2.041719e+000 44 29 23
-3.109807e+000 -5.298240e+000 1.953955e+000 75 57 47
-3.109807e+000 -5.298240e+000 1.953955e+000 75 57 47
-3.038396e+000 -5.334081e+000 1.932957e+000 40 25 20
-2.876616e+000 -5.327364e+000 1.888107e+000 42 23 17
-1.386176e+000 -5.236239e+000 8.023635e-001 73 55 51
-1.173476e+000 -5.286365e+000 7.048113e-001 55 37 34
-5.874992e-001 -5.291653e+000 8.206240e-001 187 204 203
-6.185932e+003 -2.497875e+002 -1.231306e+004 92 111 137
2.406972e+003 9.186524e+001 4.972772e+003 80 93 109
-3.841666e+000 -5.331663e+000 2.125802e+000 140 149 129
-3.841666e+000 -5.331663e+000 2.125802e+000 140 149 129
-3.689265e+000 -5.424790e+000 2.127799e+000 33 23 21
-3.515455e+000 -5.450844e+000 2.185448e+000 43 30 24
-3.230354e+000 -5.467204e+000 2.124162e+000 43 25 23
-1.655421e+000 -5.448520e+000 6.252700e-001 64 49 42
-5.980902e-001 -5.516996e+000 4.596720e-001 115 118 111
-4.446372e+000 -5.579424e+000 2.496936e+000 53 40 45
-3.953587e+000 -5.487668e+000 2.123677e+000 96 87 80
-3.759605e+000 -5.500093e+000 2.122191e+000 101 95 89
-3.759605e+000 -5.500093e+000 2.122191e+000 101 95 89
-3.627349e+000 -5.567088e+000 2.230730e+000 66 49 41
-6.466008e-001 -5.606204e+000 5.699402e-001 73 63 61
9.915448e+002 1.008509e+002 2.190642e+003 66 86 110
-3.215536e+000 -5.671331e+000 1.992162e+000 70 52 42
-6.763965e-001 -5.728204e+000 1.086097e+000 167 176 182
-6.462446e-001 -5.827344e+000 1.214641e+000 145 145 135
-4.290474e+000 -5.764013e+000 2.603814e+000 75 66 71
-4.248630e-001 -6.014870e+000 1.227260e+000 123 111 99
-4.248630e-001 -6.014870e+000 1.227260e+000 123 111 99
-1.574701e-001 -5.964728e+000 1.297052e+000 91 72 58
-5.418550e+000 -5.957246e+000 2.565861e+000 62 47 54
-5.393862e+000 -5.991002e+000 2.470692e+000 105 91 104
-5.393862e+000 -5.991002e+000 2.470692e+000 105 91 104
-1.945751e+000 -6.257191e+000 5.075597e-001 96 73 57
-2.951911e+000 -6.173621e+000 2.060024e+000 41 24 17
-7.669707e-001 -6.453382e+000 6.023385e-001 48 34 31
1.283435e+000 -6.698116e+000 2.042532e-001 118 100 62
1.142630e+002 3.090986e+001 2.220493e+002 30 32 44
-5.293973e+000 -6.608039e+000 2.668115e+000 42 26 36
-1.469722e+000 -7.205167e+000 -5.039488e-001 175 159 101
1.401317e+000 -7.390627e+000 4.898321e-001 154 133 83
-1.286720e+000 -9.670427e+000 -5.087183e+000 158 133 79
4.508976e-001 -8.587682e+000 -1.194558e+000 152 128 84
1.871490e+000 -3.100460e+000 8.544620e-001 184 169 111
2.008078e+000 -3.125020e+000 6.988172e-001 145 125 79
-1.906909e+000 -3.110787e+000 -4.503460e-002 55 46 39
-2.779334e+000 -3.153180e+000 -1.505789e-001 99 76 62
1.272348e+000 -3.259754e+000 -3.416014e-001 159 143 94
1.272348e+000 -3.259754e+000 -3.416014e-001 159 143 94
-2.701844e+000 -3.508125e+000 -3.345354e-001 168 143 113
-4.171392e+000 -3.926833e+000 1.314050e+000 56 42 39
-3.739516e+000 -3.975691e+000 1.412098e+000 73 56 48
-2.286633e+000 -3.698424e+000 -1.347760e+000 99 81 83
-1.810947e+000 -3.988708e+000 5.832842e-001 96 86 71
-1.646579e-001 -3.986724e+000 -1.193570e-001 155 161 157
-3.852275e+000 -4.341906e+000 1.966529e+000 71 57 46
-4.023086e+000 -4.519594e+000 2.046006e+000 58 48 39
-3.848366e+000 -4.523195e+000 1.985953e+000 46 37 28
4.052932e+002 -6.680531e+001 7.599941e+002 45 62 82
-4.009403e+000 -4.615225e+000 1.902760e+000 119 113 101
-4.009403e+000 -4.615225e+000 1.902760e+000 119 113 101
-3.699741e+000 -4.691267e+000 1.921949e+000 40 29 25
-3.181844e+000 -4.574965e+000 1.719489e+000 81 59 41
-3.235741e+000 -4.698538e+000 1.876188e+000 48 36 33
-1.384157e+002 1.838976e+001 -3.134935e+002 96 109 131
-4.997736e+000 -4.756146e+000 1.387094e+000 148 144 134
-9.663740e+001 7.142927e+000 -2.305668e+002 72 64 111
-5.210805e+000 -4.836588e+000 1.224624e+000 159 155 146
-4.574119e+000 -4.904018e+000 1.771504e+000 55 44 44
-4.574119e+000 -4.904018e+000 1.771504e+000 55 44 44
-4.450367e+000 -4.904911e+000 1.879466e+000 164 166 153
-4.226185e+000 -4.985441e+000 1.911494e+000 40 35 29
-4.226185e+000 -4.985441e+000 1.911494e+000 40 35 29
-3.814038e+000 -5.038134e+000 2.047300e+000 145 145 133
-3.561027e+000 -4.977190e+000 2.130527e+000 61 51 42
-3.122857e+000 -4.921176e+000 1.963608e+000 42 33 28
-2.736449e+003 1.789572e+002 -5.084920e+003 88 101 125
-5.266102e+002 3.039004e+001 -1.166127e+003 68 85 101
-1.651000e+002 2.830495e+000 -3.608699e+002 40 53 69
-4.401672e+000 -5.087926e+000 1.886669e+000 39 34 28
-3.951913e+000 -5.120827e+000 2.049062e+000 138 135 128
-3.951913e+000 -5.120827e+000 2.049062e+000 138 135 128
-3.623143e+000 -5.158880e+000 2.099577e+000 43 32 30
-3.325856e+000 -5.091759e+000 2.056455e+000 47 34 26
-3.797602e+000 -5.244611e+000 2.045745e+000 49 40 33
2.273482e+004 8.707619e+002 5.002022e+004 39 53 61
-3.345230e+000 -5.380608e+000 2.111726e+000 34 22 15
-3.345230e+000 -5.380608e+000 2.111726e+000 34 22 15
-3.265035e+000 -5.404531e+000 2.136533e+000 73 63 54
-3.265035e+000 -5.404531e+000 2.136533e+000 73 63 54
1.066455e+003 7.567699e+001 2.166645e+003 66 77 95
1.409993e+003 7.747055e+001 3.255890e+003 61 75 94
1.409993e+003 7.747055e+001 3.255890e+003 61 75 94
3.263164e+002 3.347833e+001 6.627682e+002 85 98 117
-4.978132e-001 -5.856122e+000 1.275712e+000 143 137 125
-5.470337e+000 -5.833554e+000 2.518448e+000 48 32 45
-5.470337e+000 -5.833554e+000 2.518448e+000 48 32 45
-3.315834e+000 -5.850568e+000 2.397954e+000 68 54 35
-4.098577e-001 -6.162760e+000 1.229281e+000 122 106 90
2.143762e+002 5.483634e+001 4.532274e+002 82 94 120
-2.939671e+000 -6.316359e+000 2.254830e+000 132 127 89
-1.293751e+000 -6.935530e+000 -7.004289e-001 174 151 103
-1.293751e+000 -6.935530e+000 -7.004289e-001 174 151 103
-4.518252e+000 -6.640355e+000 2.940465e+000 33 22 28
5.106209e+001 1.868504e+001 1.127752e+002 69 59 83
1.231732e+000 -7.656400e+000 1.484361e-001 133 116 72
1.267036e+000 -8.227854e+000 4.146279e-001 160 141 96
-5.016737e+000 -3.370240e+000 1.497851e+000 32 19 29
-9.844255e-001 -3.322470e+000 -5.834334e-002 90 70 53
-6.580115e+002 2.063247e+002 -1.257206e+003 89 86 109
-1.206809e+003 4.395889e+002 -2.622207e+003 104 46 87
-3.968946e+003 1.165355e+003 -7.698055e+003 26 28 41
-3.446728e+000 -4.171758e+000 1.495028e+000 76 55 38
-8.358847e+002 1.510279e+002 -1.544518e+003 47 53 69
-3.421591e+002 7.881193e+001 -7.562641e+002 80 65 68
-1.233514e+003 1.958530e+002 -2.322951e+003 103 122 147
1.543292e+000 -4.624054e+000 3.657130e-001 161 144 93
-7.955343e+002 8.475890e+001 -1.469846e+003 114 141 168
2.556298e+003 -4.428708e+002 5.922828e+003 77 101 127
-3.850023e+000 -4.813036e+000 1.967991e+000 53 44 37
-4.846510e+000 -4.965327e+000 1.645729e+000 114 109 103
-2.831057e+000 -4.946153e+000 1.675628e+000 47 32 31
-2.831057e+000 -4.946153e+000 1.675628e+000 47 32 31
-1.237398e+000 -4.989670e+000 7.348983e-001 86 72 63
1.067780e+003 -6.897971e+001 2.341555e+003 23 38 45
-2.988306e+000 -5.144275e+000 1.862633e+000 36 23 17
-2.988306e+000 -5.144275e+000 1.862633e+000 36 23 17
-1.217055e+000 -5.122645e+000 6.286047e-001 46 32 31
4.767480e-001 -5.160397e+000 1.306504e+000 127 111 94
3.061703e+002 -7.597030e+000 5.933052e+002 122 151 185
-1.673008e+000 -5.349813e+000 4.515991e-001 32 20 20
-8.960661e-001 -5.329296e+000 5.096908e-001 101 100 95
1.600835e+000 -5.373545e+000 6.424178e-001 138 120 84
-1.451950e+002 -6.216087e+000 -3.486439e+002 75 59 103
-3.965000e+000 -5.332925e+000 2.056637e+000 26 17 18
-3.354152e+003 -2.749989e+002 -7.883243e+003 96 113 152
-3.367824e+000 -5.540572e+000 2.070162e+000 35 24 22
-6.850477e-001 -5.896280e+000 6.157736e-001 55 44 41
-2.595764e+002 -4.888161e+001 -5.768621e+002 92 113 142
2.953577e+002 4.683691e+001 6.487883e+002 105 128 159
1.785918e+002 3.414091e+001 3.664244e+002 59 80 102
1.938275e+002 4.436930e+001 4.374532e+002 50 62 77
-7.305418e-001 -6.225799e+000 1.028233e+000 110 105 99
4.080816e+002 1.254805e+002 8.912462e+002 84 85 110
1.878646e+000 -6.680497e+000 1.188535e+000 161 147 110
8.688440e-001 -7.719013e+000 -4.982934e-001 115 93 69
5.232008e+001 2.564589e+001 1.223512e+002 65 46 76
-2.168912e+003 6.288505e+002 -4.056218e+003 28 28 38
-1.672813e+002 4.497114e+001 -3.524235e+002 132 115 147
3.457929e+002 -9.408269e+001 6.798259e+002 137 138 134
-2.755116e+000 -4.435118e+000 2.092295e-001 51 33 31
-1.687141e+000 -4.483170e+000 7.201008e-001 84 71 65
-3.617138e+003 6.327622e+002 -7.068238e+003 44 50 64
1.465698e+003 -2.301311e+002 3.191915e+003 102 124 148
1.465698e+003 -2.301311e+002 3.191915e+003 102 124 148
-2.908057e+002 3.470559e+001 -6.370245e+002 30 45 48
-2.910081e+000 -4.768140e+000 1.695940e+000 40 26 23
1.591911e+000 -4.727701e+000 5.051686e-001 164 152 119
-4.724525e+000 -4.883167e+000 1.699027e+000 144 144 135
-4.224374e+000 -5.106353e+000 1.930331e+000 126 122 111
-6.322498e-001 -5.202105e+000 2.492529e-001 63 45 46
-6.224849e-001 -5.265176e+000 8.486080e-001 184 202 204
4.314612e-001 -5.243688e+000 1.126497e+000 58 38 29
-8.383692e+003 -2.821015e+002 -1.612321e+004 63 80 98
1.845736e+003 1.322196e+002 4.125931e+003 119 145 174
1.845736e+003 1.322196e+002 4.125931e+003 119 145 174
-3.147617e+000 -5.543681e+000 2.042387e+000 66 48 35
-2.181217e+002 -3.260614e+001 -4.559004e+002 96 122 150
-3.558548e+000 -5.624853e+000 2.250232e+000 39 25 26
4.664610e+002 9.024154e+001 9.620804e+002 109 133 156
-4.932782e+000 -5.909734e+000 2.723184e+000 23 12 20
-5.260626e+000 -6.067436e+000 2.527650e+000 34 21 28
1.401632e+002 3.886232e+001 3.068148e+002 129 144 178
-1.567313e+000 -7.043223e+000 -2.840831e-001 98 71 57
-1.567313e+000 -7.043223e+000 -2.840831e-001 98 71 57
-2.782905e+000 -7.209094e+000 2.147309e+000 77 49 38
-8.648019e-001 -8.916205e+000 -4.174217e+000 151 125 88
-8.648019e-001 -8.916205e+000 -4.174217e+000 151 125 88
-1.426391e+002 2.911922e+001 -3.184498e+002 57 49 55
-5.234229e+000 -4.331197e+000 1.015315e+000 59 40 46
-3.472120e+000 -4.571145e+000 1.916444e+000 55 40 35
-3.369449e+000 -4.434682e+000 1.792109e+000 78 58 49
-1.924231e-001 -4.550006e+000 1.033399e-001 54 40 34
-3.346491e+002 9.796121e-001 -6.535414e+002 120 152 179
-4.868258e-001 -5.214022e+000 1.037578e+000 106 92 83
1.252177e+002 -3.004006e-001 2.422508e+002 129 144 170
-1.897452e+000 -6.045899e+000 5.590153e-001 86 64 50
-1.897452e+000 -6.045899e+000 5.590153e-001 86 64 50
-1.315407e+000 -6.362117e+000 3.398777e-001 73 56 48
7.593586e+001 1.675557e+001 1.505556e+002 93 85 100
1.557320e+002 4.964663e+001 3.202378e+002 132 141 174
-3.027816e+000 -7.232926e+000 2.126199e+000 54 31 23
-1.533583e+000 -2.920591e+000 -2.118010e-001 111 98 90
-1.107797e+000 -3.267770e+000 -8.147708e-002 78 63 45
-1.763894e+002 3.595915e+001 -3.616043e+002 40 32 42
-1.117879e+000 -4.875295e+000 7.107947e-001 89 74 65
-1.449601e+003 -1.407031e+001 -3.256650e+003 29 36 44
-1.178573e+002 -7.433202e+000 -2.674713e+002 98 112 143
-1.178573e+002 -7.433202e+000 -2.674713e+002 98 112 143
-3.030900e+000 -5.638131e+000 2.053680e+000 30 19 17
-5.878864e-001 -5.988941e+000 1.409512e+000 100 83 75
-7.038037e-001 -6.315441e+000 9.766074e-001 111 102 95
2.338268e+002 5.753515e+001 4.723871e+002 138 164 201
1.352122e+002 3.477011e+001 2.696924e+002 25 23 37
4.650866e+001 2.216728e+001 1.062238e+002 86 86 121
-2.134220e+000 -3.899919e+000 -4.524604e-001 48 32 33
-7.981616e-001 -3.987635e+000 2.384318e-001 63 45 33
-7.968901e+001 1.237133e+001 -1.820865e+002 145 167 191
-7.968901e+001 1.237133e+001 -1.820865e+002 145 167 191
-1.225597e+000 -4.544157e+000 6.992902e-001 74 57 47
-1.225597e+000 -4.544157e+000 6.992902e-001 74 57 47
-3.586096e+002 -3.629013e+001 -7.271903e+002 40 43 57
-3.586096e+002 -3.629013e+001 -7.271903e+002 40 43 57
-3.155867e+000 -5.767426e+000 2.268352e+000 29 18 15
-5.428465e-001 -6.584779e+000 9.837047e-001 83 63 54
4.355680e+001 1.704458e+001 9.574415e+001 20 18 27
8.767983e+001 4.273573e+001 2.026886e+002 53 39 64
-1.295504e+000 -4.098260e+000 4.898673e-001 87 74 57
-1.295504e+000 -4.098260e+000 4.898673e-001 87 74 57
-3.679075e+002 8.720835e+001 -7.177623e+002 110 118 139
-1.605678e+000 -4.632867e+000 7.257434e-001 86 72 69
-8.386723e-001 -5.025301e+000 6.734901e-001 38 28 27
-1.811091e+000 -5.714120e+000 6.370094e-001 81 61 54
-8.149234e-001 -6.005839e+000 6.191026e-001 46 36 27
1.159971e+002 4.925188e+001 2.472327e+002 83 92 126
-3.166255e+002 6.799600e+001 -6.863530e+002 73 56 62
-3.786324e+000 -4.510940e+000 1.775260e+000 97 86 74
2.354864e+002 6.652798e+001 4.913520e+002 124 140 174
1.454516e+000 -4.563480e+000 -2.003917e-001 174 161 106
-1.656506e+000 -5.176577e+000 7.426646e-001 36 24 27
-3.181431e+000 -3.299784e+000 1.147436e-001 38 24 24
-3.165337e-001 -5.438957e+000 1.033515e+000 183 197 200
1.060437e+000 -5.794649e+000 2.452850e-001 67 48 34
-2.838860e+000 -5.275939e+000 9.541627e+000 0 255 0
-2.838813e+000 -5.276269e+000 9.491628e+000 255 255 0
-2.676829e+000 -4.602915e+000 9.562060e+000 255 0 0
-2.675758e+000 -4.607838e+000 9.512315e+000 255 255 0
