ply
format ascii 1.0
element face 0
property list uchar int vertex_indices
element vertex 889
property float x
property float y
property float z
property uchar diffuse_red
property uchar diffuse_green
property uchar diffuse_blue
end_header
8.091194e+000 -2.727770e+000 -9.879661e-001 155 161 157
6.436568e+000 -2.897450e+000 -2.915848e-002 71 57 46
6.360108e+000 -2.978355e+000 1.095998e-002 58 48 39
6.442208e+000 -2.978553e+000 -1.619547e-003 46 37 28
6.371127e+000 -3.021784e+000 -4.420238e-002 119 113 101
6.371127e+000 -3.021784e+000 -4.420238e-002 119 113 101
6.513116e+000 -3.053417e+000 -1.142464e-002 40 29 25
6.741673e+000 -2.999741e+000 -1.121862e-001 81 59 41
6.715822e+000 -3.053299e+000 -5.988996e-002 48 36 33
5.941986e+000 -3.095208e+000 -2.684290e-001 148 144 134
5.858156e+000 -3.133693e+000 -3.216474e-001 159 155 146
6.130726e+000 -3.154629e+000 -7.347952e-002 55 44 44
6.130726e+000 -3.154629e+000 -7.347952e-002 55 44 44
6.178951e+000 -3.154079e+000 -4.409630e-002 164 166 153
6.277532e+000 -3.188160e+000 -3.701490e-002 40 35 29
6.277532e+000 -3.188160e+000 -3.701490e-002 40 35 29
6.460704e+000 -3.208005e+000 2.959077e-002 145 145 133
6.563685e+000 -3.181598e+000 2.448986e-002 61 51 42
6.767172e+000 -3.151497e+000 -2.089972e-002 42 33 28
6.200883e+000 -3.235091e+000 -4.660370e-002 39 34 28
6.398614e+000 -3.245879e+000 2.300900e-002 138 135 128
6.395993e+000 -3.246738e+000 2.153581e-002 138 135 128
6.544774e+000 -3.260427e+000 4.408273e-002 43 32 30
6.675908e+000 -3.229702e+000 1.128690e-002 47 34 26
6.470551e+000 -3.299041e+000 4.717607e-002 49 40 33
6.668531e+000 -3.359178e+000 2.808451e-002 34 22 15
6.668553e+000 -3.358986e+000 2.937093e-002 34 22 15
6.704603e+000 -3.369097e+000 3.787489e-002 73 63 54
6.704603e+000 -3.369097e+000 3.787489e-002 73 63 54
7.963836e+000 -3.560800e+000 -3.768518e-001 143 137 125
5.733776e+000 -3.568917e+000 2.459311e-001 48 32 45
5.733776e+000 -3.568917e+000 2.459311e-001 48 32 45
6.684456e+000 -3.567057e+000 1.777215e-001 68 54 35
8.011397e+000 -3.700931e+000 -4.170337e-001 122 106 90
6.857143e+000 -3.774781e+000 1.101039e-001 132 127 89
7.611879e+000 -4.053849e+000 -1.243887e+000 174 151 103
7.611879e+000 -4.053849e+000 -1.243887e+000 174 151 103
6.154337e+000 -3.920264e+000 4.420220e-001 33 22 28
8.752506e+000 -4.364802e+000 -9.022436e-001 133 116 72
8.766762e+000 -4.615098e+000 -7.729447e-001 160 141 96
5.924946e+000 -2.483274e+000 -2.278597e-001 32 19 29
7.715904e+000 -2.441532e+000 -9.326913e-001 90 70 53
6.621088e+000 -2.822903e+000 -2.299646e-001 76 55 38
8.857695e+000 -2.999322e+000 -7.861941e-001 161 144 93
6.444386e+000 -3.108531e+000 1.665426e-003 53 44 37
6.005019e+000 -3.185334e+000 -1.664720e-001 114 109 103
6.898176e+000 -3.161933e+000 -1.462757e-001 47 32 31
6.898176e+000 -3.161933e+000 -1.462757e-001 47 32 31
7.615363e+000 -3.177311e+000 -5.914911e-001 86 72 63
6.829150e+000 -3.250766e+000 -5.891657e-002 36 23 17
6.829220e+000 -3.250016e+000 -5.665395e-002 36 23 17
7.627363e+000 -3.236644e+000 -6.328802e-001 46 32 31
8.395478e+000 -3.239683e+000 -3.703465e-001 127 111 94
7.425861e+000 -3.341992e+000 -7.110488e-001 32 20 20
7.767532e+000 -3.326647e+000 -6.683118e-001 101 100 95
8.888864e+000 -3.331641e+000 -6.531624e-001 138 120 84
6.395321e+000 -3.340339e+000 3.614066e-002 26 17 18
6.662495e+000 -3.428908e+000 4.177604e-002 35 24 22
7.873015e+000 -3.580048e+000 -6.490785e-001 55 44 41
7.858893e+000 -3.729823e+000 -4.835118e-001 110 105 99
9.036107e+000 -3.917599e+000 -4.382452e-001 161 147 110
8.582794e+000 -4.391396e+000 -1.171966e+000 115 93 69
6.937742e+000 -2.943919e+000 -8.025593e-001 51 33 31
7.413526e+000 -2.953198e+000 -5.931031e-001 84 71 65
6.862855e+000 -3.083212e+000 -1.413299e-001 40 26 23
8.884676e+000 -3.043487e+000 -7.308100e-001 164 152 119
6.062564e+000 -3.147510e+000 -1.097089e-001 144 144 135
6.281734e+000 -3.241720e+000 -2.037030e-002 126 122 111
7.862484e+000 -3.267700e+000 -6.889259e-001 63 45 46
7.895251e+000 -3.295595e+000 -5.417303e-001 184 202 204
8.354771e+000 -3.277163e+000 -3.922164e-001 58 38 29
6.759626e+000 -3.432470e+000 -1.592714e-002 66 48 35
6.575549e+000 -3.467728e+000 1.129836e-001 39 25 26
5.962782e+000 -3.601177e+000 3.238386e-001 23 12 20
5.833995e+000 -3.668211e+000 2.718717e-001 34 21 28
7.483542e+000 -4.094903e+000 -1.020038e+000 98 71 57
7.481478e+000 -4.095472e+000 -1.019961e+000 98 71 57
6.934352e+000 -4.180070e+000 4.104933e-002 77 49 38
7.846823e+000 -4.976071e+000 -2.940914e+000 151 125 88
7.846823e+000 -4.976071e+000 -2.940914e+000 151 125 88
5.845461e+000 -2.913392e+000 -4.124627e-001 59 40 46
6.610029e+000 -2.997288e+000 -4.178935e-002 55 40 35
6.654943e+000 -2.937043e+000 -9.895974e-002 78 58 49
8.081676e+000 -2.979332e+000 -8.891100e-001 54 40 34
7.958003e+000 -3.270843e+000 -4.566012e-001 106 92 83
7.335587e+000 -3.659511e+000 -7.093997e-001 86 64 50
7.335701e+000 -3.658661e+000 -7.061331e-001 86 64 50
7.595836e+000 -3.794800e+000 -7.783632e-001 73 56 48
6.824211e+000 -4.209021e+000 -2.698754e-002 54 31 23
7.468696e+000 -2.271363e+000 -9.917231e-001 111 98 90
7.660903e+000 -2.417924e+000 -9.452697e-001 78 63 45
7.669679e+000 -3.125587e+000 -5.962907e-001 89 74 65
6.812649e+000 -3.471809e+000 1.815160e-002 30 19 17
7.946452e+000 -3.635467e+000 -4.067620e-001 100 83 75
7.867388e+000 -3.766991e+000 -4.876474e-001 111 102 95
7.215423e+000 -2.700604e+000 -1.168410e+000 48 32 33
7.806984e+000 -2.729700e+000 -8.238947e-001 63 45 33
7.622645e+000 -2.977310e+000 -6.061379e-001 74 57 47
7.622900e+000 -2.977472e+000 -6.079708e-001 74 57 47
6.756280e+000 -3.529520e+000 1.171050e-001 29 18 15
7.941758e+000 -3.887048e+000 -4.866086e-001 83 63 54
7.588531e+000 -2.781055e+000 -7.042990e-001 87 74 57
7.588531e+000 -2.781055e+000 -7.042990e-001 87 74 57
7.449034e+000 -3.019581e+000 -5.696578e-001 86 72 69
7.787068e+000 -3.191147e+000 -6.055023e-001 38 28 27
7.362629e+000 -3.509458e+000 -6.481478e-001 81 61 54
7.817191e+000 -3.630756e+000 -6.544305e-001 46 36 27
6.470518e+000 -2.974523e+000 -1.007843e-001 97 86 74
8.802177e+000 -2.976910e+000 -9.931065e-001 174 161 106
7.433078e+000 -3.263308e+000 -5.971707e-001 36 24 27
6.742627e+000 -2.448854e+000 -8.330683e-001 38 24 24
8.026577e+000 -3.368861e+000 -4.336021e-001 183 197 200
8.674632e+000 -3.529595e+000 -8.825393e-001 67 48 34
7.701400e+000 -2.435001e+000 -9.304825e-001 80 61 46
8.121942e+000 -2.777394e+000 -9.234908e-001 132 125 108
6.111478e+000 -2.994010e+000 -1.446856e-001 87 77 71
6.427551e+000 -2.999190e+000 2.085473e-002 51 41 32
6.090961e+000 -3.142291e+000 -1.061332e-001 108 104 91
6.498868e+000 -3.198312e+000 3.419367e-002 70 57 48
6.197299e+000 -3.271789e+000 -3.358290e-002 100 89 83
6.516345e+000 -3.304712e+000 6.438228e-002 100 90 81
8.927766e+000 -2.220660e+000 -7.019121e-001 154 138 85
8.927766e+000 -2.220660e+000 -7.019121e-001 154 138 85
7.644824e+000 -2.384942e+000 -9.330995e-001 75 59 44
7.568658e+000 -2.473618e+000 -8.585736e-001 78 60 45
7.940745e+000 -2.643230e+000 -9.743412e-001 66 47 30
7.848818e+000 -2.814934e+000 -8.034576e-001 92 75 59
6.140538e+000 -2.931122e+000 -1.967839e-001 130 129 114
7.662456e+000 -2.889003e+000 -6.740911e-001 93 76 60
6.657652e+000 -3.346493e+000 3.924882e-002 54 41 33
7.266372e+000 -3.409952e+000 -6.351541e-001 42 27 24
7.510146e+000 -4.203016e+000 -1.147310e+000 178 158 99
7.467066e+000 -2.471842e+000 -8.069210e-001 93 79 66
7.643346e+000 -2.478030e+000 -8.825478e-001 98 81 65
7.643346e+000 -2.478030e+000 -8.825478e-001 98 81 65
6.491286e+000 -2.702098e+000 -3.020285e-001 95 88 78
7.046180e+000 -2.897005e+000 -9.641531e-001 71 56 48
7.859022e+000 -3.067329e+000 -6.358387e-001 56 42 26
6.263689e+000 -3.249333e+000 -3.361740e-002 86 82 73
7.586067e+000 -3.264398e+000 -6.096434e-001 76 58 55
7.484903e+000 -3.469243e+000 -6.271551e-001 71 55 54
8.015908e+000 -3.673346e+000 -3.897179e-001 121 107 94
8.035193e+000 -3.831517e+000 -4.862657e-001 81 61 47
8.914216e+000 -4.063997e+000 -5.795105e-001 155 135 84
8.927124e+000 -4.069954e+000 -6.047638e-001 155 135 84
8.926405e+000 -2.141586e+000 -7.513341e-001 159 143 92
8.775275e+000 -2.330106e+000 -9.816533e-001 160 144 92
7.345599e+000 -2.396612e+000 -8.440055e-001 116 112 103
7.898855e+000 -2.722536e+000 -8.903809e-001 98 77 53
6.047060e+000 -2.938955e+000 -2.299562e-001 154 155 139
6.489788e+000 -3.097428e+000 -1.039602e-002 102 101 89
6.443010e+000 -3.153907e+000 2.274925e-002 77 69 58
6.443010e+000 -3.153907e+000 2.274925e-002 77 69 58
7.554253e+000 -3.258617e+000 -6.138709e-001 37 19 19
7.647277e+000 -3.281559e+000 -6.572505e-001 71 54 49
7.869442e+000 -3.308049e+000 -6.594282e-001 64 49 49
7.269010e+000 -3.452957e+000 -6.355957e-001 85 62 56
7.269333e+000 -3.452042e+000 -6.317200e-001 85 62 56
8.072461e+000 -3.681453e+000 -3.701234e-001 117 101 86
7.951552e+000 -3.724149e+000 -4.435127e-001 122 111 97
7.864579e+000 -3.922714e+000 -5.943639e-001 74 54 43
7.864579e+000 -3.922714e+000 -5.943639e-001 74 54 43
7.313819e+000 -2.269304e+000 -9.648775e-001 93 82 84
7.371491e+000 -2.305760e+000 -8.914759e-001 102 93 84
8.813058e+000 -2.596703e+000 -9.239838e-001 151 135 85
7.977097e+000 -2.626873e+000 -9.763445e-001 102 82 68
6.427538e+000 -3.110328e+000 7.655617e-003 51 42 38
8.897061e+000 -3.053920e+000 -7.285911e-001 169 156 121
8.896687e+000 -3.053751e+000 -7.283022e-001 169 156 121
6.342458e+000 -3.248024e+000 -3.233626e-003 52 47 44
6.212560e+000 -3.805325e+000 3.652720e-001 74 63 69
8.945593e+000 -2.365169e+000 -7.038757e-001 187 172 115
8.151662e+000 -3.625168e+000 -3.430031e-001 121 102 88
6.202017e+000 -3.287878e+000 -4.811042e-002 101 97 88
7.379496e+000 -4.042892e+000 -9.613614e-001 175 149 99
7.276718e+000 -2.552964e+000 -1.276724e+000 113 104 109
5.881254e+000 -2.762161e+000 -2.013780e-001 96 80 83
7.235264e+000 -2.821131e+000 -1.045074e+000 68 56 56
7.235264e+000 -2.821131e+000 -1.045074e+000 68 56 56
6.141227e+000 -3.001722e+000 -9.894749e-002 101 99 86
6.277110e+000 -2.935783e+000 -4.192626e-002 143 141 126
8.006835e+000 -2.872492e+000 -9.916547e-001 95 79 64
6.063498e+000 -3.028960e+000 -1.902795e-001 140 138 123
6.340448e+000 -3.045557e+000 5.338456e-002 113 107 95
6.518973e+000 -3.002933e+000 2.461870e-002 48 38 29
5.642241e+000 -3.255263e+000 -6.478152e-001 85 81 69
6.166607e+000 -3.170703e+000 -2.370656e-002 103 94 85
6.244922e+000 -3.189755e+000 -3.062442e-002 124 122 108
6.319230e+000 -3.159563e+000 -8.809830e-003 88 88 77
6.384500e+000 -3.131998e+000 3.956146e-003 82 78 67
6.448393e+000 -3.120424e+000 2.413016e-002 84 73 67
6.203223e+000 -3.213448e+000 -2.474850e-002 80 71 69
6.284460e+000 -3.223502e+000 2.508966e-003 96 90 78
6.399232e+000 -3.209922e+000 1.523528e-002 119 116 109
8.902364e+000 -3.109259e+000 -7.824491e-001 128 120 88
8.093847e+000 -3.253812e+000 -2.258988e-001 163 173 172
9.135263e+000 -3.210558e+000 -3.554334e-001 159 139 88
6.751880e+000 -3.409101e+000 -2.646844e-003 61 41 30
7.889019e+000 -3.402466e+000 -4.363121e-001 115 117 117
6.665849e+000 -3.556878e+000 1.902011e-001 65 49 34
5.581652e+000 -2.576337e+000 -4.947333e-001 65 49 62
6.514417e+000 -2.696071e+000 -3.030743e-001 66 53 47
7.038231e+000 -2.563902e+000 -9.123901e-001 172 136 114
7.289371e+000 -2.534974e+000 -1.278844e+000 70 59 60
7.738573e+000 -2.647384e+000 -8.498982e-001 65 43 30
7.738573e+000 -2.647384e+000 -8.498982e-001 65 43 30
6.369434e+000 -2.801052e+000 -2.484542e-001 107 99 87
6.365853e+000 -2.840831e+000 -1.504367e-001 72 65 60
6.435734e+000 -2.832384e+000 -1.165327e-001 98 85 70
8.048565e+000 -2.666677e+000 -1.014015e+000 134 128 110
6.161110e+000 -2.889580e+000 -2.338002e-001 132 125 115
6.212865e+000 -2.924159e+000 -8.320212e-002 89 80 71
6.332379e+000 -2.893177e+000 -8.161505e-002 74 68 68
6.410534e+000 -2.930636e+000 -2.483701e-002 68 53 46
6.012403e+000 -3.034156e+000 -2.247090e-001 141 134 126
8.104481e+000 -2.895576e+000 -9.244936e-001 85 75 64
8.068735e+000 -2.894415e+000 -6.584838e-001 79 71 60
6.192941e+000 -3.097944e+000 -3.623827e-002 130 128 115
6.362069e+000 -3.102281e+000 7.039068e-003 85 79 65
5.676355e+000 -3.228651e+000 -5.649678e-001 154 150 141
6.160113e+000 -3.157696e+000 -4.589358e-002 156 157 146
6.144765e+000 -3.233850e+000 -5.488835e-002 146 147 132
6.284337e+000 -3.238789e+000 -5.938075e-003 125 123 110
6.524946e+000 -3.196615e+000 1.404032e-002 97 91 81
6.507204e+000 -3.271141e+000 4.099749e-002 66 57 50
7.896781e+000 -3.284668e+000 -6.926637e-001 135 140 138
8.369612e+000 -3.203787e+000 -3.607484e-001 128 110 95
8.369612e+000 -3.203787e+000 -3.607484e-001 128 110 95
8.380780e+000 -3.202761e+000 -3.298955e-001 58 44 31
6.389830e+000 -3.326559e+000 2.693586e-002 32 25 19
6.389830e+000 -3.326559e+000 2.693586e-002 32 25 19
8.053229e+000 -3.301573e+000 -2.467898e-001 183 196 196
6.855824e+000 -3.373743e+000 3.927541e-005 58 39 25
7.438355e+000 -3.409129e+000 -5.650301e-001 50 35 29
7.803491e+000 -3.562861e+000 -7.097935e-001 43 30 21
7.866586e+000 -3.565808e+000 -4.708546e-001 136 141 131
7.866574e+000 -3.572170e+000 -4.119646e-001 90 81 72
5.913416e+000 -3.570108e+000 2.726453e-001 62 56 64
7.659498e+000 -3.710751e+000 -7.847807e-001 73 60 52
5.878962e+000 -3.658134e+000 3.340164e-001 29 18 24
6.955547e+000 -3.758221e+000 -4.161062e-001 58 35 21
7.635949e+000 -3.726645e+000 -7.007945e-001 50 35 30
6.220576e+000 -3.680213e+000 3.241869e-001 34 24 32
6.155538e+000 -3.780277e+000 3.586055e-001 27 20 28
7.665518e+000 -2.464179e+000 -7.914865e-001 100 81 66
7.019802e+000 -2.547290e+000 -9.361555e-001 114 78 64
6.353242e+000 -2.854908e+000 -1.528262e-001 97 93 80
6.397777e+000 -2.788809e+000 -2.142178e-001 76 67 52
6.668113e+000 -2.773517e+000 -3.135827e-001 28 18 17
7.716527e+000 -2.692276e+000 -7.597365e-001 89 70 55
6.070468e+000 -2.898012e+000 -2.624781e-001 138 131 123
6.143576e+000 -2.913897e+000 -1.966693e-001 85 78 70
6.177574e+000 -2.917153e+000 -1.811671e-001 142 140 128
6.177574e+000 -2.917153e+000 -1.811671e-001 142 140 128
6.201574e+000 -2.868191e+000 -1.995098e-001 93 84 76
6.288419e+000 -2.913214e+000 -3.706843e-002 143 148 131
6.426332e+000 -2.855919e+000 -4.755116e-002 98 88 75
6.453604e+000 -2.875487e+000 -4.271467e-002 137 141 124
6.452514e+000 -2.875467e+000 -5.606199e-002 137 141 124
7.754871e+000 -2.802460e+000 -7.471250e-001 65 47 33
6.302836e+000 -2.978509e+000 2.628013e-003 97 90 80
6.394726e+000 -2.924238e+000 -3.194774e-002 84 76 65
6.394726e+000 -2.924238e+000 -3.194774e-002 84 76 65
7.284174e+000 -2.891782e+000 -5.788815e-001 62 44 42
5.963687e+000 -3.052879e+000 -2.422690e-001 142 142 130
6.142696e+000 -3.028732e+000 -9.210301e-002 107 104 88
6.295077e+000 -3.039406e+000 -2.624441e-002 97 94 79
6.486642e+000 -2.995358e+000 -5.760260e-003 55 45 35
6.876594e+000 -3.020160e+000 -3.424421e-001 40 20 16
6.901666e+000 -3.024931e+000 -3.996781e-001 73 46 35
7.225976e+000 -2.959861e+000 -7.406954e-001 38 24 23
7.701923e+000 -2.937002e+000 -6.627316e-001 66 49 38
8.168305e+000 -2.963225e+000 -9.945106e-001 60 42 34
5.771802e+000 -3.141023e+000 -4.111106e-001 131 125 119
6.358136e+000 -3.086909e+000 4.825437e-003 151 149 136
6.275073e+000 -3.141099e+000 -4.102304e-002 104 98 85
6.394792e+000 -3.141582e+000 1.065097e-002 143 143 134
6.396053e+000 -3.141339e+000 1.136919e-002 143 143 134
6.428267e+000 -3.180912e+000 -3.551408e-003 138 136 124
8.306932e+000 -3.126289e+000 -1.041052e+000 58 41 30
5.833965e+000 -3.267402e+000 -3.495681e-001 238 255 254
5.833965e+000 -3.267402e+000 -3.495681e-001 238 255 254
6.527892e+000 -3.235336e+000 3.419484e-002 81 73 60
6.691094e+000 -3.230186e+000 3.489183e-003 46 28 26
6.211510e+000 -3.274692e+000 -4.080776e-002 137 138 122
6.243387e+000 -3.265999e+000 -1.872685e-002 91 87 75
6.254504e+000 -3.305814e+000 -1.943547e-002 56 51 48
6.402523e+000 -3.276266e+000 3.181868e-002 67 58 49
6.444263e+000 -3.364060e+000 6.077631e-002 66 57 49
6.635752e+000 -3.307128e+000 3.546431e-002 114 105 97
6.645064e+000 -3.336000e+000 5.681847e-002 118 111 105
6.645064e+000 -3.336000e+000 5.681847e-002 118 111 105
7.278452e+000 -3.368455e+000 -6.492340e-001 47 32 29
7.535841e+000 -3.357571e+000 -6.681914e-001 51 33 29
7.884677e+000 -3.310942e+000 -6.316190e-001 131 136 132
7.949250e+000 -3.304198e+000 -3.447324e-001 117 113 101
6.389281e+000 -3.388836e+000 5.476743e-002 56 46 43
6.375058e+000 -3.399274e+000 6.841594e-002 43 33 31
6.573615e+000 -3.427980e+000 4.977043e-002 75 60 55
6.843753e+000 -3.368314e+000 -4.096946e-002 87 64 49
6.843904e+000 -3.369004e+000 -4.630687e-002 87 64 49
7.842359e+000 -3.498204e+000 -7.180979e-001 80 67 61
7.285203e+000 -3.634547e+000 -6.791742e-001 82 66 55
7.457599e+000 -3.744923e+000 -8.423769e-001 78 57 52
7.597623e+000 -3.686602e+000 -6.551399e-001 42 29 23
7.584186e+000 -3.728615e+000 -7.484041e-001 46 31 27
7.657431e+000 -3.707440e+000 -6.974555e-001 46 33 27
6.163030e+000 -3.641693e+000 2.677847e-001 38 28 29
7.867923e+000 -3.747560e+000 -6.755632e-001 38 27 25
5.957170e+000 -3.732884e+000 3.001921e-001 32 19 26
6.188764e+000 -3.703572e+000 2.973125e-001 26 16 23
7.663849e+000 -3.907187e+000 -8.111889e-001 52 37 32
6.173962e+000 -3.720067e+000 3.592100e-001 31 21 26
6.223210e+000 -3.769892e+000 3.093566e-001 66 54 58
7.554805e+000 -3.992274e+000 -1.047614e+000 82 60 36
6.189713e+000 -3.843636e+000 3.698196e-001 77 67 75
6.189713e+000 -3.843636e+000 3.698196e-001 77 67 75
6.172865e+000 -3.918733e+000 3.842219e-001 41 28 35
6.103521e+000 -4.057003e+000 3.657433e-001 81 69 70
6.103521e+000 -4.057003e+000 3.657433e-001 81 69 70
6.874256e+000 -4.195511e+000 1.082607e-001 161 143 98
8.972140e+000 -2.194638e+000 -7.609850e-001 158 141 89
7.333846e+000 -2.360025e+000 -8.474317e-001 111 106 100
7.712261e+000 -2.455828e+000 -9.219411e-001 73 51 37
7.282354e+000 -2.582892e+000 -1.247791e+000 56 47 52
6.162016e+000 -2.775431e+000 -3.232711e-001 45 36 37
6.467429e+000 -2.774752e+000 -2.179733e-001 130 124 112
7.766314e+000 -2.643470e+000 -8.637410e-001 95 74 56
6.206151e+000 -2.801729e+000 -2.689769e-001 87 81 73
6.382469e+000 -2.824318e+000 -1.844525e-001 76 72 61
6.419133e+000 -2.830687e+000 -9.578490e-002 124 121 106
7.279935e+000 -2.741602e+000 -6.851291e-001 155 170 164
7.279935e+000 -2.741602e+000 -6.851291e-001 155 170 164
6.258188e+000 -2.901757e+000 -7.111649e-002 73 70 58
6.407715e+000 -2.872213e+000 -5.170509e-002 124 118 102
7.468745e+000 -2.797829e+000 -6.282664e-001 69 55 46
6.029087e+000 -2.963818e+000 -2.161858e-001 95 89 77
6.120536e+000 -2.964732e+000 -1.780780e-001 85 79 65
6.194760e+000 -2.961684e+000 -1.122330e-001 136 131 119
6.702936e+000 -2.949799e+000 -1.421119e-001 76 57 47
7.469333e+000 -2.865528e+000 -6.188030e-001 87 75 63
7.637843e+000 -2.883728e+000 -6.693390e-001 67 49 35
6.083339e+000 -3.015129e+000 -1.944073e-001 81 78 63
6.168043e+000 -3.014404e+000 -8.670971e-002 143 144 130
6.206939e+000 -3.013857e+000 -3.317776e-002 98 88 78
6.192145e+000 -3.056425e+000 -6.109562e-002 158 155 145
6.416517e+000 -3.045770e+000 9.404057e-003 125 119 107
6.459134e+000 -3.040819e+000 5.384714e-003 64 50 43
6.529300e+000 -3.015061e+000 -1.651987e-002 88 77 71
6.645498e+000 -2.999209e+000 -5.896024e-002 41 31 24
6.785713e+000 -3.031825e+000 -1.622092e-001 51 34 28
7.518661e+000 -2.958504e+000 -5.996689e-001 67 50 43
8.073876e+000 -2.929623e+000 -9.311278e-001 89 75 62
8.111534e+000 -2.936988e+000 -9.427505e-001 51 34 30
5.700034e+000 -3.155342e+000 -5.549179e-001 101 93 88
5.822707e+000 -3.096147e+000 -4.070508e-001 96 82 72
6.062102e+000 -3.094835e+000 -1.264417e-001 142 133 124
6.384422e+000 -3.057710e+000 -1.907367e-002 73 60 54
6.453471e+000 -3.070957e+000 5.241707e-004 126 121 112
6.011397e+000 -3.162465e+000 -1.310423e-001 141 138 130
6.220003e+000 -3.191942e+000 -3.349217e-002 147 144 129
7.493760e+000 -3.106324e+000 -5.600792e-001 60 43 36
7.520561e+000 -3.109499e+000 -5.379846e-001 89 72 65
7.593669e+000 -3.130925e+000 -6.640806e-001 86 71 64
8.287054e+000 -3.109377e+000 -1.043901e+000 82 66 50
6.505545e+000 -3.229511e+000 3.939577e-002 72 59 51
7.968492e+000 -3.177245e+000 -4.075312e-001 106 93 77
6.178611e+000 -3.270793e+000 -5.515164e-002 135 130 123
6.706962e+000 -3.248548e+000 -5.754193e-003 84 65 58
6.372789e+000 -3.377483e+000 5.451572e-002 79 68 66
7.930760e+000 -3.296990e+000 -3.616662e-001 160 164 160
8.058328e+000 -3.280341e+000 -2.591175e-001 112 108 109
7.897550e+000 -3.359234e+000 -4.510919e-001 183 203 202
7.934995e+000 -3.373249e+000 -3.235885e-001 122 113 111
7.903013e+000 -3.524645e+000 -6.801662e-001 70 63 57
7.629840e+000 -3.626745e+000 -7.025503e-001 48 33 28
7.887400e+000 -3.538559e+000 -4.521808e-001 108 91 81
7.887400e+000 -3.538559e+000 -4.521808e-001 108 91 81
8.026130e+000 -3.639680e+000 -3.950821e-001 88 69 54
7.962252e+000 -3.758026e+000 -4.683210e-001 80 64 49
7.840752e+000 -3.965550e+000 -6.476089e-001 62 44 38
6.912879e+000 -4.152210e+000 -2.750394e-002 87 55 46
6.442184e+000 -4.214356e+000 2.393024e-001 36 22 24
6.398202e+000 -2.659578e+000 -3.367710e-001 55 45 43
6.554845e+000 -2.660167e+000 -3.439993e-001 59 41 39
7.340489e+000 -2.585464e+000 -8.251091e-001 109 106 97
6.431992e+000 -2.757580e+000 -2.462945e-001 59 46 37
6.637619e+000 -2.749873e+000 -2.866602e-001 88 71 55
6.123524e+000 -2.937203e+000 -1.865603e-001 154 149 135
6.656512e+000 -2.897260e+000 -1.409712e-001 79 57 44
8.698702e+000 -2.730385e+000 -1.098963e+000 141 123 73
6.041614e+000 -3.039366e+000 -1.811125e-001 152 144 135
6.242704e+000 -3.009200e+000 -3.603588e-002 152 152 140
6.332577e+000 -3.114957e+000 3.323732e-003 81 73 62
6.555067e+000 -3.047304e+000 -1.814180e-002 84 73 67
6.555067e+000 -3.047304e+000 -1.814180e-002 84 73 67
6.549068e+000 -3.073856e+000 -8.912813e-003 62 52 43
6.063657e+000 -3.209033e+000 -9.108289e-002 79 68 63
6.606632e+000 -3.114414e+000 -7.203050e-003 101 93 82
6.600021e+000 -3.191620e+000 2.044566e-002 87 80 74
6.315043e+000 -3.291540e+000 -1.296258e-003 94 85 76
6.663417e+000 -3.267130e+000 5.699193e-002 74 59 52
7.273254e+000 -3.254544e+000 -6.980774e-001 37 24 18
7.273440e+000 -3.254345e+000 -7.078772e-001 37 24 18
7.898546e+000 -3.302484e+000 -4.926645e-001 184 205 203
7.224408e+000 -3.656606e+000 -7.833243e-001 86 62 50
9.138726e+000 -3.641132e+000 -3.948533e-001 153 135 87
6.180946e+000 -3.710617e+000 3.341901e-001 58 49 53
5.965769e+000 -3.839188e+000 3.613022e-001 46 31 38
5.968852e+000 -3.881403e+000 2.913802e-001 77 64 69
6.986747e+000 -4.003711e+000 -3.169215e-001 157 130 84
6.752978e+000 -4.198715e+000 -2.730525e-001 74 50 37
6.985428e+000 -4.168738e+000 4.998969e-002 166 143 93
8.753649e+000 -2.362161e+000 -1.026223e+000 157 137 87
7.920930e+000 -2.580703e+000 -9.748142e-001 99 81 61
7.917769e+000 -2.581686e+000 -9.570620e-001 99 81 61
8.847378e+000 -2.533183e+000 -9.626620e-001 176 161 101
6.433190e+000 -2.786467e+000 -2.077356e-001 67 57 45
5.648965e+000 -3.104177e+000 -6.147310e-001 77 64 90
5.998443e+000 -3.014085e+000 -2.290043e-001 83 74 67
6.239393e+000 -3.076890e+000 -1.041024e-002 143 142 133
6.258280e+000 -3.125475e+000 2.791345e-003 158 159 145
6.255614e+000 -3.126625e+000 -6.794037e-003 158 159 145
6.337825e+000 -3.085918e+000 8.530672e-003 142 141 129
6.513379e+000 -3.052178e+000 1.043605e-003 42 31 29
8.171507e+000 -3.080571e+000 -8.901615e-001 108 90 70
6.058356e+000 -3.245466e+000 -7.514172e-002 144 140 131
6.200285e+000 -3.235352e+000 -4.835352e-002 39 33 27
6.461612e+000 -3.207942e+000 2.988328e-002 149 146 134
6.145712e+000 -3.274888e+000 -5.853781e-002 57 48 45
6.145712e+000 -3.274888e+000 -5.853781e-002 57 48 45
6.545025e+000 -3.260001e+000 4.873871e-002 45 39 34
8.316891e+000 -3.227471e+000 -3.461087e-001 108 87 60
6.448017e+000 -3.418358e+000 6.040476e-002 43 32 36
6.516223e+000 -3.379546e+000 6.395381e-002 43 34 29
6.389387e+000 -3.436498e+000 1.327608e-001 40 28 27
6.991545e+000 -3.487560e+000 -3.077690e-001 90 59 37
7.201442e+000 -3.693500e+000 -6.239219e-001 91 66 51
7.733359e+000 -3.848750e+000 -6.875292e-001 76 62 55
6.954817e+000 -3.832856e+000 -2.565742e-001 58 30 26
8.164364e+000 -3.847938e+000 -5.539643e-001 109 88 64
6.159849e+000 -3.833029e+000 2.931464e-001 39 26 35
8.116902e+000 -4.891387e+000 -1.891911e+000 156 129 86
8.105350e+000 -4.872563e+000 -1.841669e+000 156 129 86
5.726849e+000 -2.500632e+000 -3.144195e-001 55 37 49
6.020823e+000 -2.485954e+000 -1.406827e-001 45 29 39
6.358807e+000 -2.652356e+000 -3.916341e-001 46 35 31
7.997322e+000 -3.081891e+000 -7.542563e-001 45 33 32
8.396875e+000 -3.241200e+000 -3.719778e-001 128 118 100
6.319717e+000 -3.503333e+000 2.424686e-001 43 28 33
6.788193e+000 -3.624575e+000 8.142361e-002 33 20 14
6.898672e+000 -2.312153e+000 -1.013926e+000 140 121 88
5.816106e+000 -2.613990e+000 -1.897136e-001 53 36 44
7.260395e+000 -2.569382e+000 -1.272934e+000 62 51 57
7.260395e+000 -2.569382e+000 -1.272934e+000 62 51 57
6.326693e+000 -2.877846e+000 -7.948806e-002 36 32 29
6.304608e+000 -2.938598e+000 -3.775834e-002 133 134 120
5.943642e+000 -3.151164e+000 -2.674257e-001 41 31 39
5.957830e+000 -3.224721e+000 -1.811054e-001 126 126 118
6.068275e+000 -3.311463e+000 -4.199745e-002 47 33 33
8.107033e+000 -3.248944e+000 -2.657501e-001 185 196 197
9.086154e+000 -3.671918e+000 -3.993412e-001 153 137 88
6.769082e+000 -4.189357e+000 -1.301130e-001 143 118 77
6.803462e+000 -2.743709e+000 -5.326801e-001 134 110 84
6.782273e+000 -3.074038e+000 -6.581448e-002 79 60 44
6.828730e+000 -3.168300e+000 -4.860599e-002 80 58 42
8.000675e+000 -3.556628e+000 -3.826086e-001 135 128 118
7.596254e+000 -3.794591e+000 -7.786379e-001 82 59 51
8.084273e+000 -3.635480e+000 -3.785725e-001 92 74 59
5.994606e+000 -3.946265e+000 1.901035e-001 72 55 64
5.928537e+000 -3.945807e+000 2.886937e-001 40 25 32
7.851424e+000 -3.402438e+000 -6.557720e-001 64 51 42
6.807291e+000 -3.485303e+000 -7.702889e-002 32 21 19
8.164483e+000 -3.733093e+000 -4.436879e-001 118 98 73
8.753116e+000 -4.009380e+000 -1.033182e+000 129 111 73
7.383987e+000 -2.816103e+000 -6.132158e-001 72 59 49
5.884611e+000 -3.607860e+000 2.877771e-001 37 26 32
7.244071e+000 -3.715215e+000 -8.035688e-001 59 38 33
6.420548e+000 -3.210420e+000 8.117223e-003 49 46 41
7.953195e+000 -3.113545e+000 -5.634518e-001 62 51 45
6.006587e+000 -3.819736e+000 7.616083e-002 38 23 28
7.481713e+000 -3.856582e+000 -9.486818e-001 45 30 28
7.449881e+000 -2.374565e+000 -9.996830e-001 91 78 64
7.449881e+000 -2.374565e+000 -9.996830e-001 91 78 64
9.020013e+000 -3.235081e+000 -6.056554e-001 179 166 111
8.338532e+000 -2.941302e+000 -8.316082e-001 53 33 24
6.510816e+000 -3.086132e+000 -2.816035e-003 93 86 78
7.637091e+000 -3.061906e+000 -5.571645e-001 113 104 97
6.196824e+000 -3.272009e+000 -3.305297e-002 100 89 83
8.716554e+000 -2.362982e+000 -1.068699e+000 179 163 111
7.691792e+000 -2.474179e+000 -9.097888e-001 104 87 69
7.654847e+000 -2.640299e+000 -7.629315e-001 99 82 62
7.294182e+000 -2.812886e+000 -6.132417e-001 87 80 70
8.880832e+000 -3.040961e+000 -7.761455e-001 176 159 116
6.694725e+000 -3.384928e+000 2.926445e-002 87 74 66
6.437109e+000 -3.057265e+000 6.050122e-003 64 50 42
6.437101e+000 -3.057126e+000 7.054996e-003 64 50 42
7.837981e+000 -3.093756e+000 -6.403030e-001 87 71 58
7.859236e+000 -3.066806e+000 -6.362743e-001 56 42 26
7.993755e+000 -3.204990e+000 -3.299921e-001 143 137 125
6.212777e+000 -3.273797e+000 -3.402809e-002 130 126 116
7.811090e+000 -3.495118e+000 -6.984277e-001 49 31 27
7.520105e+000 -3.180124e+000 -6.029197e-001 48 30 25
7.550462e+000 -3.195801e+000 -6.191590e-001 73 55 49
7.769756e+000 -3.774158e+000 -6.763523e-001 48 33 30
8.170186e+000 -2.955434e+000 -8.630283e-001 59 27 33
8.308786e+000 -3.104443e+000 -1.032774e+000 83 69 57
6.693758e+000 -3.362747e+000 3.321789e-002 93 78 74
8.094324e+000 -3.370610e+000 -2.299143e-001 160 165 157
7.955030e+000 -3.579720e+000 -3.843420e-001 105 89 81
6.457155e+000 -2.688540e+000 -3.057670e-001 40 27 21
7.833705e+000 -2.598727e+000 -9.177359e-001 69 48 30
7.830161e+000 -2.675369e+000 -8.599244e-001 92 75 59
8.829961e+000 -3.093615e+000 -9.250738e-001 143 126 72
6.092485e+000 -3.231112e+000 -6.457768e-002 91 84 77
6.283547e+000 -3.239121e+000 -6.163066e-003 125 123 110
7.657489e+000 -3.662349e+000 -7.086356e-001 53 35 31
7.335381e+000 -2.747174e+000 -6.482081e-001 97 89 76
7.335381e+000 -2.747174e+000 -6.482081e-001 97 89 76
7.713660e+000 -2.813538e+000 -7.236355e-001 63 45 32
8.164724e+000 -2.932070e+000 -9.191676e-001 131 117 101
8.028900e+000 -3.065697e+000 -7.711625e-001 51 34 27
8.345548e+000 -3.203972e+000 -3.461562e-001 57 36 25
7.526987e+000 -3.565540e+000 -7.012356e-001 69 54 47
7.328991e+000 -3.714389e+000 -7.218225e-001 66 47 32
7.793876e+000 -3.768329e+000 -6.436180e-001 70 55 52
6.436427e+000 -2.885739e+000 -3.610497e-002 75 61 52
7.431912e+000 -2.919678e+000 -5.975710e-001 85 72 63
6.559055e+000 -2.984574e+000 -1.620710e-002 90 74 64
8.056299e+000 -3.595190e+000 -3.562251e-001 103 85 66
8.887518e+000 -2.184509e+000 -7.835662e-001 163 146 93
8.827182e+000 -2.261594e+000 -9.130908e-001 157 144 91
9.045144e+000 -2.257882e+000 -5.474252e-001 188 175 124
6.293419e+000 -2.766075e+000 -2.898628e-001 128 124 112
7.334780e+000 -2.649946e+000 -7.095594e-001 103 96 88
7.312445e+000 -2.166128e+000 -1.015782e+000 129 122 115
7.943769e+000 -2.797053e+000 -8.710439e-001 70 51 34
7.974171e+000 -2.923334e+000 -8.490169e-001 59 41 30
6.473612e+000 -3.148116e+000 1.084930e-002 87 75 66
6.209996e+000 -3.293976e+000 -4.350881e-002 92 89 80
7.992781e+000 -3.221515e+000 -3.532308e-001 155 146 143
6.542609e+000 -3.389566e+000 5.342773e-002 59 46 40
5.962993e+000 -2.575911e+000 -8.186556e-002 77 64 73
6.361935e+000 -2.728904e+000 -2.739406e-001 83 74 67
7.818445e+000 -2.630057e+000 -8.868221e-001 100 81 64
7.909080e+000 -2.834901e+000 -8.003878e-001 63 44 28
6.476461e+000 -2.957285e+000 -1.180595e-003 73 58 53
6.567003e+000 -3.044546e+000 -1.584333e-002 87 80 70
6.201706e+000 -3.181314e+000 -3.112128e-002 110 107 95
6.341635e+000 -3.130595e+000 -2.063598e-003 108 102 88
6.404215e+000 -3.104367e+000 1.025627e-002 110 101 91
6.719871e+000 -3.065933e+000 -5.530591e-002 41 26 22
5.834055e+000 -3.268520e+000 -1.631561e-001 51 50 57
6.352463e+000 -3.218310e+000 3.327540e-003 122 124 113
6.443850e+000 -3.188519e+000 2.703241e-002 98 91 82
6.279034e+000 -3.318908e+000 -2.108096e-002 53 46 40
6.562325e+000 -3.288511e+000 4.301526e-002 84 71 65
7.833665e+000 -3.298759e+000 -6.703141e-001 56 41 38
7.899203e+000 -3.262635e+000 -5.434963e-001 177 195 194
6.458768e+000 -3.356860e+000 5.334280e-002 78 70 63
7.447330e+000 -3.424314e+000 -6.495555e-001 56 37 30
7.420083e+000 -3.796659e+000 -8.889287e-001 45 28 21
7.626694e+000 -2.422185e+000 -8.840038e-001 97 81 65
7.592140e+000 -2.480925e+000 -8.473379e-001 102 84 72
7.617729e+000 -2.470406e+000 -8.771100e-001 72 54 44
7.617729e+000 -2.470406e+000 -8.771100e-001 72 54 44
7.732318e+000 -2.693020e+000 -8.419748e-001 94 74 63
6.035766e+000 -2.984421e+000 -1.847799e-001 153 153 139
6.034990e+000 -2.984924e+000 -1.879294e-001 153 153 139
7.774990e+000 -2.798217e+000 -7.446946e-001 94 77 67
6.579268e+000 -3.056280e+000 -2.184717e-002 57 46 40
6.512581e+000 -3.103863e+000 4.459672e-003 75 67 61
6.457599e+000 -3.170314e+000 1.372460e-002 120 114 102
7.510202e+000 -3.213633e+000 -6.697147e-001 73 58 53
7.701941e+000 -3.291883e+000 -6.496491e-001 74 60 57
7.718319e+000 -3.310098e+000 -6.409219e-001 50 40 35
8.026524e+000 -3.193831e+000 -3.566192e-001 139 130 125
7.467212e+000 -3.417201e+000 -6.391675e-001 77 60 53
6.425483e+000 -3.444641e+000 7.551520e-002 62 55 50
7.863893e+000 -3.502786e+000 -7.135225e-001 63 48 43
8.009634e+000 -3.665845e+000 -4.139673e-001 90 72 63
6.911676e+000 -4.111001e+000 1.451150e-002 77 48 36
6.866008e+000 -2.319488e+000 -8.059219e-001 167 145 115
8.657664e+000 -2.468915e+000 -1.163202e+000 146 128 80
6.232223e+000 -2.856793e+000 -1.979037e-001 93 94 86
6.095490e+000 -3.095335e+000 -9.412693e-002 85 82 77
7.488828e+000 -3.170281e+000 -5.823476e-001 71 56 51
6.013941e+000 -3.284833e+000 -9.372982e-002 104 99 96
6.492539e+000 -3.258509e+000 4.573938e-002 107 104 97
7.878562e+000 -3.223952e+000 -7.059004e-001 53 39 36
7.582142e+000 -3.316763e+000 -6.213450e-001 50 33 26
8.168615e+000 -3.157880e+000 -2.681280e-001 120 101 80
6.437757e+000 -3.393583e+000 5.356854e-002 83 74 66
6.571396e+000 -3.355371e+000 5.157303e-002 57 44 38
6.514189e+000 -3.427277e+000 7.234416e-002 51 42 33
5.898653e+000 -3.539692e+000 2.868138e-001 30 18 32
7.917251e+000 -3.483765e+000 -3.902427e-001 101 92 83
7.629636e+000 -3.630119e+000 -7.100280e-001 48 33 30
6.770379e+000 -4.389246e+000 2.870611e-002 158 140 95
8.637501e+000 -2.496986e+000 -1.204072e+000 148 132 81
7.607850e+000 -2.652323e+000 -7.644040e-001 85 69 54
6.054133e+000 -2.936972e+000 -2.015908e-001 151 148 136
8.090090e+000 -2.687024e+000 -9.399460e-001 60 43 35
6.064579e+000 -3.207144e+000 -8.171715e-002 75 65 63
8.077569e+000 -3.198698e+000 -2.424109e-001 105 97 93
7.308992e+000 -3.745597e+000 -6.719622e-001 100 78 64
8.614508e+000 -4.842388e+000 -1.065032e+000 156 136 83
6.233217e+000 -2.831240e+000 -2.344430e-001 136 137 129
8.727743e+000 -2.695919e+000 -1.046164e+000 143 126 75
6.713051e+000 -3.056360e+000 -7.490372e-002 44 30 28
6.009567e+000 -3.246633e+000 -1.136555e-001 58 49 42
6.662856e+000 -3.429966e+000 4.467767e-002 34 23 14
6.342433e+000 -3.247857e+000 1.533127e-003 45 38 34
6.307272e+000 -3.381271e+000 2.744911e-002 29 19 19
6.573527e+000 -3.468876e+000 6.509660e-002 35 23 21
7.256212e+000 -3.654107e+000 -7.143062e-001 48 30 26
7.225204e+000 -3.872462e+000 -9.414479e-001 159 141 100
6.426582e+000 -2.853706e+000 -6.659797e-002 114 105 96
6.663275e+000 -2.938585e+000 -9.253777e-002 71 52 38
7.790198e+000 -2.556727e+000 -9.979420e-001 101 82 65
6.087783e+000 -4.021083e+000 3.319023e-001 47 30 38
8.877209e+000 -3.039006e+000 -7.640161e-001 167 158 117
6.353157e+000 -3.218574e+000 -2.910949e-003 125 121 110
7.402910e+000 -2.502496e+000 -7.900695e-001 74 58 43
7.557073e+000 -2.665496e+000 -7.740028e-001 97 80 66
7.716250e+000 -2.643528e+000 -8.488040e-001 97 78 63
7.432435e+000 -2.763179e+000 -6.545992e-001 97 83 72
6.404330e+000 -3.102988e+000 1.423670e-002 108 94 86
7.813866e+000 -3.076536e+000 -6.290528e-001 67 51 38
7.509477e+000 -3.149524e+000 -5.918551e-001 57 37 37
7.904339e+000 -3.471407e+000 -4.142264e-001 150 151 153
7.766472e+000 -4.074702e+000 -7.866114e-001 173 152 99
8.823680e+000 -2.262148e+000 -9.088000e-001 157 144 91
7.662714e+000 -2.571592e+000 -8.099871e-001 78 60 47
8.154558e+000 -2.891227e+000 -8.473728e-001 65 38 33
6.577482e+000 -3.084809e+000 -9.790715e-003 89 80 71
7.804101e+000 -2.642137e+000 -8.833439e-001 60 41 24
7.863884e+000 -2.790382e+000 -8.270805e-001 64 46 32
7.959362e+000 -2.859123e+000 -9.226006e-001 97 83 56
7.463245e+000 -3.158116e+000 -5.989997e-001 49 31 30
6.199577e+000 -3.316102e+000 -4.890796e-002 116 110 104
7.558198e+000 -3.238600e+000 -6.199086e-001 80 65 58
7.652115e+000 -2.503222e+000 -8.806354e-001 101 82 70
8.016146e+000 -2.645819e+000 -9.761239e-001 108 91 81
6.442246e+000 -2.925848e+000 -1.957721e-002 63 50 41
7.371758e+000 -2.933845e+000 -5.925699e-001 80 69 65
6.594996e+000 -3.067760e+000 -2.195107e-002 100 91 82
8.890297e+000 -3.175997e+000 -7.744122e-001 127 113 87
7.489200e+000 -3.387214e+000 -6.642275e-001 74 58 51
7.832725e+000 -3.465823e+000 -6.974850e-001 54 36 32
7.894270e+000 -3.586068e+000 -4.481592e-001 105 88 81
7.635857e+000 -3.727359e+000 -7.009433e-001 51 36 31
7.428782e+000 -2.413399e+000 -8.380577e-001 78 64 52
7.414949e+000 -2.445178e+000 -8.251759e-001 99 86 77
6.456376e+000 -2.687015e+000 -3.080143e-001 43 29 26
7.540129e+000 -2.953549e+000 -5.826749e-001 94 79 72
6.682118e+000 -3.130251e+000 -1.292627e-002 69 55 43
6.592256e+000 -3.314710e+000 4.661129e-002 80 71 65
7.898229e+000 -3.515147e+000 -4.203052e-001 99 90 81
7.986871e+000 -3.599349e+000 -3.788759e-001 104 87 80
6.511118e+000 -2.991369e+000 -7.220846e-003 49 36 28
7.622163e+000 -3.232221e+000 -6.125196e-001 39 24 21
7.300957e+000 -3.684859e+000 -7.114635e-001 87 68 56
6.776345e+000 -4.422706e+000 1.028978e-001 172 145 97
6.761366e+000 -2.462691e+000 -8.554842e-001 43 27 27
8.455188e+000 -3.407738e+000 -2.243993e+000 102 88 80
6.553039e+000 -2.638435e+000 -3.889917e-001 78 66 57
6.403180e+000 -2.700637e+000 -3.146386e-001 119 110 105
6.225854e+000 -2.811738e+000 -2.630668e-001 87 84 77
7.137006e+000 -2.754845e+000 -1.215011e+000 113 97 105
6.326499e+000 -2.850283e+000 -1.458646e-001 115 107 106
6.447523e+000 -2.883302e+000 -2.764930e-002 73 61 52
6.325783e+000 -2.947751e+000 1.622599e-003 129 126 114
7.287540e+000 -2.889704e+000 -6.263250e-001 45 32 24
6.226982e+000 -3.025613e+000 -3.870271e-002 98 98 86
6.267193e+000 -3.019062e+000 -2.191493e-002 139 137 127
8.141756e+000 -2.909145e+000 -9.248256e-001 86 76 68
5.570401e+000 -3.419289e+000 -6.894222e-001 117 104 98
6.059110e+000 -3.181549e+000 -9.946606e-002 132 129 124
6.247433e+000 -3.150852e+000 -7.734350e-003 102 94 86
5.916182e+000 -3.322954e+000 -3.763466e-002 123 121 134
6.529863e+000 -3.184384e+000 1.755448e-002 68 63 55
6.530656e+000 -3.191927e+000 2.990410e-002 126 120 106
6.538849e+000 -3.199104e+000 3.960287e-002 66 57 48
6.661521e+000 -3.178601e+000 4.674955e-003 61 45 38
6.583503e+000 -3.241347e+000 3.145446e-002 131 129 123
6.500244e+000 -3.312237e+000 4.904116e-002 61 49 43
6.516190e+000 -3.349770e+000 5.687019e-002 91 84 76
7.445949e+000 -3.365863e+000 -6.415696e-001 57 45 41
7.990594e+000 -3.218368e+000 -3.459383e-001 161 167 160
8.092700e+000 -3.176694e+000 -2.358270e-001 104 93 91
6.461527e+000 -3.415090e+000 8.386176e-002 33 27 25
8.103531e+000 -3.239799e+000 -2.133740e-001 204 212 215
7.225294e+000 -3.645946e+000 -7.004957e-001 77 57 46
8.098747e+000 -3.344505e+000 -1.890438e-001 133 125 113
6.779154e+000 -3.655222e+000 1.727285e-001 113 108 80
7.313217e+000 -2.207662e+000 -1.038595e+000 106 93 89
7.268292e+000 -2.497200e+000 -1.518458e+000 78 63 74
7.236649e+000 -2.529956e+000 -1.426188e+000 77 68 69
7.518401e+000 -2.482355e+000 -8.221299e-001 91 73 61
6.275931e+000 -2.742220e+000 -2.926883e-001 50 41 36
6.402040e+000 -2.748717e+000 -2.639869e-001 66 56 47
7.936102e+000 -2.648266e+000 -9.517918e-001 70 51 30
6.048870e+000 -2.901761e+000 -2.591157e-001 121 118 113
6.165270e+000 -2.874920e+000 -2.120023e-001 99 96 89
6.293763e+000 -2.862181e+000 -1.469359e-001 129 127 117
6.443162e+000 -2.836293e+000 -7.918088e-002 77 67 56
6.544290e+000 -2.832304e+000 -1.658902e-001 77 57 46
6.563324e+000 -2.827247e+000 -1.844958e-001 58 40 30
7.834522e+000 -2.677557e+000 -8.753745e-001 94 75 61
8.042265e+000 -2.666143e+000 -9.761177e-001 119 107 95
8.081318e+000 -2.674308e+000 -1.007417e+000 73 52 47
6.100430e+000 -2.983653e+000 -1.533137e-001 151 152 138
6.426262e+000 -2.852028e+000 -6.560466e-002 84 80 73
7.878608e+000 -2.787116e+000 -8.163857e-001 100 81 66
7.882953e+000 -2.805162e+000 -8.057379e-001 97 78 62
7.882953e+000 -2.805162e+000 -8.057379e-001 97 78 62
6.116598e+000 -3.043650e+000 -1.324392e-001 143 139 134
7.809081e+000 -2.829118e+000 -7.738509e-001 63 46 29
6.210484e+000 -3.037893e+000 -5.287579e-002 141 137 126
6.174436e+000 -3.094711e+000 -5.859327e-002 96 93 73
6.035763e+000 -3.238823e+000 -1.011819e-001 152 154 145
6.427793e+000 -3.160041e+000 7.912660e-003 91 93 81
6.305317e+000 -3.206730e+000 -7.859221e-003 96 85 81
6.603083e+000 -3.157768e+000 5.605453e-003 56 44 38
6.631310e+000 -3.168489e+000 4.256262e-003 88 79 70
6.641953e+000 -3.186829e+000 7.169645e-003 49 39 34
6.641953e+000 -3.186829e+000 7.169645e-003 49 39 34
6.159583e+000 -3.316455e+000 -6.890876e-002 90 87 82
6.502101e+000 -3.287804e+000 4.975386e-002 130 129 119
6.568094e+000 -3.239055e+000 3.210082e-002 52 48 45
6.603562e+000 -3.269897e+000 4.444820e-002 69 56 48
7.331318e+000 -3.323800e+000 -6.712596e-001 38 20 18
6.482837e+000 -3.347673e+000 5.875961e-002 58 46 40
6.492431e+000 -3.328563e+000 5.442422e-002 88 80 72
7.784277e+000 -3.302171e+000 -6.515790e-001 58 46 46
7.859642e+000 -3.301868e+000 -6.964951e-001 81 65 61
6.672974e+000 -3.389104e+000 3.583301e-002 81 67 61
7.856146e+000 -3.436933e+000 -7.098418e-001 63 43 44
8.110362e+000 -3.216229e+000 -2.080346e-001 204 210 205
8.358417e+000 -3.196436e+000 -3.267968e-001 123 111 95
7.265449e+000 -3.604983e+000 -6.884686e-001 42 28 19
7.527817e+000 -3.545147e+000 -7.121702e-001 52 34 27
7.561519e+000 -3.566615e+000 -7.103761e-001 58 41 34
7.892520e+000 -3.920335e+000 -5.775892e-001 107 86 74
7.331304e+000 -2.227802e+000 -9.818349e-001 152 150 151
7.445274e+000 -2.473425e+000 -8.085650e-001 69 51 41
7.445285e+000 -2.473312e+000 -8.075750e-001 69 51 41
6.560802e+000 -2.706051e+000 -3.074348e-001 111 111 103
6.162839e+000 -2.804436e+000 -3.133959e-001 93 87 87
6.380812e+000 -2.802823e+000 -2.023482e-001 130 126 116
7.553744e+000 -2.662110e+000 -7.599985e-001 92 74 60
7.656065e+000 -2.626652e+000 -7.905825e-001 91 74 61
7.740632e+000 -2.657013e+000 -8.377582e-001 67 50 32
6.076675e+000 -2.901005e+000 -2.553221e-001 135 134 129
6.261058e+000 -2.866569e+000 -1.714279e-001 134 136 129
6.326674e+000 -2.823879e+000 -1.950661e-001 138 131 123
6.609285e+000 -2.783335e+000 -2.402664e-001 70 52 39
6.444288e+000 -2.851749e+000 -5.020436e-002 152 152 142
6.512332e+000 -2.870254e+000 -6.224326e-002 52 37 32
6.639787e+000 -2.844310e+000 -2.205870e-001 35 21 20
7.445666e+000 -2.791378e+000 -6.752557e-001 91 75 63
7.719652e+000 -2.761231e+000 -7.577168e-001 90 73 57
7.782699e+000 -2.805050e+000 -7.767925e-001 93 76 58
7.937664e+000 -2.792919e+000 -9.132260e-001 94 77 58
6.398450e+000 -2.921300e+000 -1.941114e-002 85 76 70
6.518797e+000 -2.918770e+000 -4.294121e-002 77 63 60
6.578297e+000 -2.944857e+000 -5.253725e-002 37 21 22
7.752324e+000 -2.865176e+000 -7.333886e-001 87 70 55
6.880341e+000 -3.027365e+000 -3.712245e-001 36 19 18
6.276575e+000 -3.106999e+000 3.444127e-003 154 156 145
6.144420e+000 -3.211697e+000 -5.814582e-002 85 79 71
6.542138e+000 -3.144486e+000 -6.998748e-003 86 76 73
7.716652e+000 -3.105103e+000 -5.922935e-001 62 47 40
7.802588e+000 -3.060836e+000 -5.888980e-001 59 45 33
6.074293e+000 -3.278571e+000 -9.088691e-002 58 56 51
6.262345e+000 -3.268367e+000 -2.391644e-002 126 118 110
6.431830e+000 -3.176011e+000 1.645934e-002 139 136 118
6.572914e+000 -3.213658e+000 1.997062e-002 114 107 99
6.654398e+000 -3.149512e+000 4.208847e-003 96 86 76
7.320186e+000 -3.315125e+000 -7.009564e-001 76 58 56
6.369246e+000 -3.380092e+000 5.285661e-002 89 79 80
6.857935e+000 -3.319163e+000 -5.135695e-002 91 73 61
7.487141e+000 -3.428033e+000 -6.570012e-001 54 36 32
8.080199e+000 -3.180239e+000 -2.696687e-001 137 132 128
6.511318e+000 -3.423369e+000 7.742134e-002 50 38 35
7.526902e+000 -4.017421e+000 -9.950514e-001 106 79 50
8.008862e+000 -3.663148e+000 -4.090350e-001 90 72 61
7.992872e+000 -3.761330e+000 -4.609969e-001 122 103 88
7.000443e+000 -3.941533e+000 -2.704648e-001 163 136 91
7.697768e+000 -4.043961e+000 -8.306811e-001 176 155 105
7.350462e+000 -2.222981e+000 -9.436542e-001 82 80 69
7.605201e+000 -2.427456e+000 -8.813579e-001 71 51 40
6.165134e+000 -2.781041e+000 -3.306228e-001 32 22 23
6.251185e+000 -2.768410e+000 -2.870665e-001 68 58 57
6.277924e+000 -2.785504e+000 -2.385400e-001 61 55 49
6.426468e+000 -2.762496e+000 -2.548086e-001 52 40 34
5.986161e+000 -2.925230e+000 -3.158199e-001 116 113 108
6.177559e+000 -2.859530e+000 -2.402552e-001 127 124 115
6.534151e+000 -2.815044e+000 -1.919980e-001 39 26 20
7.294382e+000 -2.780460e+000 -6.413692e-001 91 83 80
7.478627e+000 -2.735169e+000 -7.141022e-001 85 68 60
7.540747e+000 -2.702297e+000 -7.172371e-001 78 62 47
6.062440e+000 -2.985659e+000 -1.751102e-001 149 146 137
6.188516e+000 -2.917288e+000 -1.555369e-001 162 162 153
6.465385e+000 -2.853401e+000 -6.606193e-002 69 51 40
7.300151e+000 -2.927747e+000 -6.739018e-001 53 38 35
7.551007e+000 -2.889791e+000 -6.277355e-001 66 54 40
7.845636e+000 -2.826632e+000 -8.045954e-001 90 72 54
6.486977e+000 -3.003724e+000 -1.371755e-002 57 43 34
6.706421e+000 -2.950777e+000 -1.230048e-001 84 62 52
7.465282e+000 -2.946725e+000 -5.946911e-001 59 46 40
7.465003e+000 -2.945823e+000 -5.897935e-001 59 46 40
6.026203e+000 -3.203724e+000 -1.243243e-001 161 158 153
6.097415e+000 -3.176937e+000 -8.372117e-002 79 71 68
6.098147e+000 -3.176204e+000 -8.218333e-002 79 71 68
6.645931e+000 -3.052343e+000 -2.900355e-002 46 35 31
7.562975e+000 -3.053502e+000 -5.739683e-001 89 74 67
5.861332e+000 -3.311071e+000 -1.498036e-001 109 126 135
6.157471e+000 -3.229253e+000 -6.188917e-002 155 155 145
6.488610e+000 -3.099498e+000 -9.910615e-003 116 117 112
6.533144e+000 -3.118946e+000 3.591796e-003 119 115 106
7.738090e+000 -3.075456e+000 -6.242590e-001 88 75 67
7.738090e+000 -3.075456e+000 -6.242590e-001 88 75 67
6.650943e+000 -3.207773e+000 7.764305e-003 86 79 69
6.157729e+000 -3.336308e+000 -6.497367e-002 61 44 44
7.267706e+000 -3.417066e+000 -6.503836e-001 39 24 19
6.573000e+000 -3.399228e+000 5.823460e-002 48 39 34
8.004294e+000 -3.263807e+000 -2.865598e-001 118 115 110
8.052192e+000 -3.252790e+000 -2.650660e-001 183 202 209
6.540438e+000 -3.447640e+000 7.409541e-002 92 78 75
7.899059e+000 -3.437484e+000 -4.054476e-001 109 97 91
7.899059e+000 -3.437484e+000 -4.054476e-001 109 97 91
7.938530e+000 -3.372968e+000 -3.466812e-001 118 112 108
7.584975e+000 -3.724796e+000 -7.410016e-001 51 35 33
7.542146e+000 -3.984802e+000 -1.018480e+000 75 59 38
7.569316e+000 -3.978164e+000 -1.000529e+000 149 125 89
7.565587e+000 -3.970458e+000 -9.781279e-001 149 125 89
7.764796e+000 -3.770421e+000 -6.617676e-001 46 32 29
6.168684e+000 -3.868605e+000 4.096189e-001 40 25 37
9.185029e+000 -3.882683e+000 -1.847780e-001 152 143 98
6.893222e+000 -2.353316e+000 -8.818099e-001 168 134 105
6.524499e+000 -2.775524e+000 -2.234000e-001 133 131 119
6.232390e+000 -2.859091e+000 -2.033424e-001 81 77 69
6.155286e+000 -2.957703e+000 -1.490686e-001 81 74 63
6.656132e+000 -2.896136e+000 -1.403233e-001 75 53 46
6.312629e+000 -3.027660e+000 -5.670792e-003 100 95 87
6.688991e+000 -2.967898e+000 -8.344387e-002 53 36 26
6.172715e+000 -3.151846e+000 -4.200795e-002 152 155 144
6.357207e+000 -3.054493e+000 1.901717e-002 72 67 56
7.496332e+000 -3.109733e+000 -5.705009e-001 61 45 42
6.245966e+000 -3.340862e+000 -3.828764e-002 91 90 85
7.418376e+000 -3.356670e+000 -6.467518e-001 28 15 13
7.898106e+000 -3.293324e+000 -4.609581e-001 181 202 205
7.894509e+000 -3.288937e+000 -4.489611e-001 181 202 205
6.487394e+000 -3.414502e+000 6.762068e-002 124 119 115
7.892669e+000 -3.418448e+000 -4.275314e-001 155 168 172
7.892669e+000 -3.418448e+000 -4.275314e-001 155 168 172
7.318220e+000 -3.772365e+000 -7.732050e-001 97 74 58
7.877727e+000 -3.504944e+000 -4.488089e-001 149 150 149
6.470809e+000 -2.729809e+000 -2.919406e-001 67 54 48
6.350214e+000 -2.785952e+000 -2.692407e-001 75 66 59
6.350214e+000 -2.785952e+000 -2.692407e-001 75 66 59
6.244812e+000 -2.883036e+000 -1.509472e-001 121 122 114
6.385302e+000 -2.831482e+000 -1.605976e-001 66 54 50
6.083820e+000 -2.985966e+000 -1.809293e-001 135 135 125
6.199645e+000 -2.965996e+000 -1.185856e-001 126 124 112
7.594373e+000 -2.891427e+000 -6.311728e-001 87 70 60
6.358151e+000 -2.983401e+000 5.542483e-004 56 43 35
6.744915e+000 -2.999118e+000 -1.125799e-001 75 54 39
6.236836e+000 -3.079667e+000 -2.150288e-002 150 153 144
6.711306e+000 -3.050978e+000 -5.482289e-002 40 26 23
6.111564e+000 -3.203832e+000 -6.985137e-002 149 154 147
8.373888e+000 -3.145507e+000 -1.138319e+000 80 63 47
5.956910e+000 -3.298855e+000 -1.036776e-001 50 42 46
6.200042e+000 -3.235535e+000 -4.867696e-002 73 64 59
6.675650e+000 -3.230457e+000 8.837482e-003 54 40 37
6.679266e+000 -3.473004e+000 4.373076e-002 75 56 40
6.317209e+000 -3.558046e+000 2.669769e-001 58 43 47
6.259148e+000 -3.126353e+000 -2.468374e-004 154 154 144
7.448682e+000 -3.122646e+000 -5.798018e-001 70 52 48
6.199105e+000 -3.353960e+000 -5.738397e-002 37 28 30
8.387291e+000 -3.232067e+000 -3.547740e-001 124 115 103
6.507065e+000 -3.461594e+000 1.421947e-001 35 24 22
6.507065e+000 -3.461594e+000 1.421947e-001 35 24 22
7.833413e+000 -2.849898e+000 -7.618071e-001 93 74 57
6.107897e+000 -2.442503e+000 -2.399395e-001 28 17 23
6.690776e+000 -2.767081e+000 -5.403247e-001 25 11 18
6.325244e+000 -2.883223e+000 -9.533196e-002 20 18 23
