ply
format ascii 1.0
element face 0
property list uchar int vertex_indices
element vertex 889
property float x
property float y
property float z
property uchar diffuse_red
property uchar diffuse_green
property uchar diffuse_blue
end_header
7.317536e+000 -2.434224e+000 -8.547389e-001 138 137 133
7.860741e+000 -2.560981e+000 -9.416306e-001 73 54 37
6.404319e+000 -2.712164e+000 -2.955806e-001 76 68 59
6.557515e+000 -2.775811e+000 -2.024659e-001 110 97 88
6.151144e+000 -2.816012e+000 -3.029016e-001 71 60 60
6.202380e+000 -2.849395e+000 -2.305935e-001 124 124 114
6.278966e+000 -2.817759e+000 -2.315869e-001 98 95 82
7.932461e+000 -2.791484e+000 -9.044080e-001 97 76 52
6.123544e+000 -2.984180e+000 -1.554839e-001 149 145 133
6.242370e+000 -2.935873e+000 -9.768010e-002 116 113 99
6.242370e+000 -2.935873e+000 -9.768010e-002 116 113 99
7.623566e+000 -2.915952e+000 -6.265215e-001 91 73 59
6.352197e+000 -3.028513e+000 -2.782555e-002 92 86 74
6.323047e+000 -3.066573e+000 1.314900e-002 91 89 77
6.471885e+000 -3.140973e+000 -2.242828e-002 78 70 59
6.094658e+000 -3.156009e+000 -9.617273e-002 94 91 74
8.800402e+000 -3.134422e+000 -8.126778e-001 131 114 71
6.585221e+000 -3.239526e+000 4.412057e-002 105 103 90
7.794417e+000 -3.304266e+000 -5.952854e-001 85 70 65
8.082426e+000 -3.303674e+000 -1.990496e-001 157 166 165
6.455204e+000 -3.356979e+000 8.582108e-002 63 54 46
7.405552e+000 -3.375736e+000 -5.909744e-001 76 61 56
7.872687e+000 -3.549362e+000 -4.481837e-001 98 86 76
6.665829e+000 -3.543798e+000 1.876130e-001 86 73 51
6.697920e+000 -3.586460e+000 1.973622e-001 85 70 46
7.398471e+000 -3.753351e+000 -8.604682e-001 62 43 29
7.863412e+000 -3.703744e+000 -5.256242e-001 79 70 62
7.566854e+000 -2.474505e+000 -8.492706e-001 78 60 45
6.533601e+000 -2.689583e+000 -3.035758e-001 117 109 98
6.334862e+000 -2.773020e+000 -2.468934e-001 83 72 60
6.400418e+000 -2.740889e+000 -2.420922e-001 67 57 48
6.388483e+000 -2.752520e+000 -2.403687e-001 161 155 141
6.194664e+000 -2.774523e+000 -3.068385e-001 86 81 78
6.307158e+000 -2.836138e+000 -1.611614e-001 70 66 55
6.296888e+000 -2.858198e+000 -1.288191e-001 88 83 77
7.114598e+000 -2.639424e+000 -1.532257e+000 169 145 112
8.064097e+000 -2.689320e+000 -9.816959e-001 183 187 174
7.251778e+000 -2.810697e+000 -6.190868e-001 135 155 150
7.250696e+000 -2.811161e+000 -6.104975e-001 135 155 150
7.293550e+000 -2.812746e+000 -6.174860e-001 87 80 70
7.782435e+000 -2.795639e+000 -7.964506e-001 92 73 56
6.026152e+000 -2.984745e+000 -2.311833e-001 150 150 132
6.094076e+000 -2.982752e+000 -1.800815e-001 150 148 135
7.660519e+000 -2.890208e+000 -6.705290e-001 93 76 60
5.785258e+000 -3.032802e+000 -4.641492e-001 114 111 114
6.012364e+000 -3.034096e+000 -2.336165e-001 140 136 124
6.186616e+000 -3.034361e+000 -6.651502e-002 110 102 87
5.864326e+000 -3.091228e+000 -3.509326e-001 150 148 133
6.069532e+000 -3.121498e+000 -1.104127e-001 108 105 98
6.132172e+000 -3.097658e+000 -8.714082e-002 101 97 85
6.205826e+000 -3.073486e+000 -4.999219e-002 110 103 85
6.181025e+000 -3.107030e+000 -3.773871e-002 129 126 111
6.297827e+000 -3.106193e+000 1.059930e-002 127 122 113
6.341130e+000 -3.130741e+000 -9.151288e-003 105 102 88
6.576370e+000 -3.082682e+000 -7.599918e-003 87 77 65
8.898964e+000 -3.065642e+000 -5.725284e-001 178 161 105
6.111477e+000 -3.146930e+000 -8.059037e-002 121 115 101
6.342133e+000 -3.205771e+000 8.480906e-003 76 67 60
6.462076e+000 -3.166640e+000 5.314339e-002 110 101 90
6.555318e+000 -3.167396e+000 6.877699e-002 75 67 57
8.059331e+000 -3.173322e+000 -2.838720e-001 96 81 65
8.905823e+000 -3.145538e+000 -7.574803e-001 121 103 70
6.231775e+000 -3.213864e+000 -4.151248e-002 86 84 73
6.307339e+000 -3.250428e+000 7.658309e-004 114 110 99
6.309299e+000 -3.219611e+000 -1.317148e-003 140 138 126
6.309299e+000 -3.219611e+000 -1.317148e-003 140 138 126
6.334338e+000 -3.271815e+000 2.857697e-002 97 90 80
6.574875e+000 -3.254494e+000 4.087793e-002 128 143 134
6.643742e+000 -3.216098e+000 3.468950e-002 100 96 89
8.101290e+000 -3.221315e+000 -1.964483e-001 180 178 166
7.270773e+000 -3.409753e+000 -6.523577e-001 42 27 24
7.453531e+000 -3.421260e+000 -6.902933e-001 54 35 29
7.905226e+000 -3.415285e+000 -9.624174e-001 82 69 61
7.800212e+000 -3.467032e+000 -5.978119e-001 54 41 34
7.459962e+000 -3.553856e+000 -7.072616e-001 55 35 32
7.459962e+000 -3.553856e+000 -7.072616e-001 55 35 32
7.486941e+000 -3.574517e+000 -7.122625e-001 56 35 32
7.585735e+000 -3.626918e+000 -7.573206e-001 46 28 26
7.849130e+000 -3.670644e+000 -5.456613e-001 35 26 19
7.302938e+000 -3.816260e+000 -8.336653e-001 71 45 30
7.342344e+000 -3.765044e+000 -7.564409e-001 62 39 25
7.525957e+000 -3.786297e+000 -8.032881e-001 78 64 61
6.806778e+000 -3.722080e+000 1.518724e-001 70 56 44
8.961600e+000 -2.084675e+000 -6.661336e-001 157 144 92
6.091888e+000 -2.311763e+000 -2.475549e-001 78 61 69
7.354639e+000 -2.215292e+000 -9.891443e-001 81 78 72
7.367374e+000 -2.376340e+000 -8.717424e-001 66 57 48
7.367664e+000 -2.468503e+000 -7.829502e-001 101 92 82
7.492855e+000 -2.461031e+000 -8.299363e-001 77 60 48
7.492855e+000 -2.461031e+000 -8.299363e-001 77 60 48
7.602588e+000 -2.428250e+000 -8.796353e-001 75 56 42
7.629447e+000 -2.438904e+000 -8.771184e-001 100 84 69
7.629447e+000 -2.438904e+000 -8.771184e-001 100 84 69
7.089324e+000 -2.458778e+000 -8.467954e-001 167 144 103
7.089324e+000 -2.458778e+000 -8.467954e-001 167 144 103
7.464356e+000 -2.540986e+000 -8.058620e-001 77 59 47
8.674645e+000 -2.447925e+000 -1.144759e+000 150 133 83
6.424841e+000 -2.667104e+000 -3.422095e-001 55 42 39
7.463154e+000 -2.619875e+000 -7.405681e-001 77 59 47
6.585505e+000 -2.723647e+000 -2.942847e-001 113 103 93
6.610646e+000 -2.765280e+000 -2.554181e-001 62 41 38
7.542514e+000 -2.699568e+000 -7.437755e-001 72 58 46
7.715376e+000 -2.644715e+000 -8.395621e-001 98 79 62
8.778547e+000 -2.643050e+000 -1.026704e+000 141 119 70
6.248245e+000 -2.830002e+000 -2.510941e-001 141 143 129
6.332602e+000 -2.792852e+000 -2.197293e-001 80 70 61
6.472274e+000 -2.865950e+000 -4.895123e-002 64 48 33
6.529290e+000 -2.800480e+000 -1.659689e-001 68 56 48
7.267537e+000 -2.803838e+000 -5.874219e-001 70 61 56
7.452411e+000 -2.741174e+000 -6.779926e-001 74 60 47
7.446525e+000 -2.777488e+000 -7.133307e-001 90 76 62
6.101755e+000 -2.912479e+000 -2.099109e-001 95 91 82
6.229327e+000 -2.857998e+000 -2.020547e-001 86 88 77
5.986970e+000 -2.979432e+000 -2.823440e-001 154 152 139
6.458427e+000 -2.947229e+000 -1.015510e-002 90 81 72
6.209982e+000 -3.037927e+000 -4.366698e-002 144 140 123
6.298566e+000 -3.038071e+000 -9.114139e-003 94 86 75
6.307809e+000 -3.056919e+000 3.380996e-003 136 137 123
6.410189e+000 -3.022137e+000 2.329248e-002 63 54 45
6.481238e+000 -3.020339e+000 3.367027e-003 54 39 32
6.498742e+000 -3.026215e+000 -9.549492e-003 72 61 55
6.579360e+000 -3.059021e+000 -1.886980e-003 56 46 37
6.595778e+000 -3.065050e+000 -1.139081e-002 91 77 64
7.234551e+000 -2.959120e+000 -8.529499e-001 40 28 28
6.094306e+000 -3.097685e+000 -9.355346e-002 93 89 78
6.093671e+000 -3.097302e+000 -1.034241e-001 93 89 78
6.113080e+000 -3.115963e+000 -7.432922e-002 132 128 117
6.168305e+000 -3.125627e+000 -4.784583e-002 83 78 67
6.512608e+000 -3.103230e+000 1.058966e-002 71 61 52
7.564365e+000 -3.057742e+000 -5.881311e-001 93 78 71
7.713178e+000 -3.098172e+000 -5.923875e-001 68 54 45
7.770773e+000 -3.089391e+000 -6.493075e-001 66 50 37
7.770773e+000 -3.089391e+000 -6.493075e-001 66 50 37
6.217546e+000 -3.170068e+000 -3.021357e-002 104 98 84
6.202660e+000 -3.180814e+000 -2.375956e-002 89 84 73
6.188432e+000 -3.204187e+000 -4.256760e-002 142 139 122
6.290948e+000 -3.156323e+000 -1.954826e-002 135 132 114
6.372248e+000 -3.206735e+000 -1.243942e-003 136 133 122
6.487184e+000 -3.151271e+000 1.948981e-002 103 94 85
7.417724e+000 -3.152069e+000 -6.443407e-001 36 27 22
7.682160e+000 -3.175893e+000 -5.798658e-001 45 27 23
6.280515e+000 -3.261619e+000 -2.587900e-002 115 111 100
6.573107e+000 -3.213758e+000 2.289486e-002 112 108 96
7.536925e+000 -3.224845e+000 -6.499702e-001 51 33 29
6.257972e+000 -3.273637e+000 -4.197811e-002 124 119 109
6.272629e+000 -3.287618e+000 -2.161780e-002 55 52 44
6.369234e+000 -3.324211e+000 3.217240e-002 65 54 48
6.417504e+000 -3.320211e+000 5.573685e-002 56 48 46
6.445025e+000 -3.284294e+000 3.404692e-002 108 98 86
6.657986e+000 -3.282520e+000 2.431315e-002 81 66 59
6.649015e+000 -3.316466e+000 3.934710e-002 61 50 41
6.722774e+000 -3.289935e+000 2.237361e-002 76 58 54
8.090435e+000 -3.316355e+000 -1.907814e-001 185 194 186
6.429444e+000 -3.400366e+000 5.538756e-002 76 66 54
6.698967e+000 -3.343515e+000 2.317950e-002 45 31 27
7.025028e+000 -3.389923e+000 -5.177755e-001 80 58 47
7.509888e+000 -3.388268e+000 -7.955725e-001 73 58 51
8.482955e+000 -3.436471e+000 -1.004443e+000 74 55 48
6.744384e+000 -3.451418e+000 2.135766e-002 47 28 22
6.868624e+000 -3.428710e+000 -4.230343e-002 44 22 16
6.868624e+000 -3.428710e+000 -4.230343e-002 44 22 16
7.527825e+000 -3.499671e+000 -6.986568e-001 74 57 53
7.838042e+000 -3.462087e+000 -6.301391e-001 87 78 73
7.513961e+000 -3.527896e+000 -7.299548e-001 74 59 52
7.529884e+000 -3.566742e+000 -7.266079e-001 74 55 48
7.563243e+000 -3.567514e+000 -7.244953e-001 55 37 30
7.658707e+000 -3.648712e+000 -7.736836e-001 74 59 54
7.880431e+000 -3.716668e+000 -4.249352e-001 115 105 93
8.095494e+000 -3.659013e+000 -3.896454e-001 115 98 82
7.529123e+000 -3.762352e+000 -7.995256e-001 44 30 27
7.806043e+000 -3.790753e+000 -5.877722e-001 66 53 49
7.840604e+000 -3.868583e+000 -5.712902e-001 63 48 45
7.925938e+000 -3.831502e+000 -5.144599e-001 108 93 78
6.145998e+000 -3.779767e+000 3.705355e-001 64 60 63
7.878038e+000 -3.894930e+000 -5.688408e-001 70 51 45
7.890116e+000 -3.917791e+000 -5.809018e-001 104 84 73
6.999978e+000 -3.941651e+000 -3.060262e-001 159 131 91
9.006884e+000 -4.108784e+000 -4.736714e-001 162 142 91
5.929379e+000 -2.478520e+000 -2.065489e-001 37 21 32
7.285206e+000 -2.441367e+000 -8.559820e-001 72 64 62
7.338925e+000 -2.462780e+000 -7.895073e-001 65 58 50
8.811865e+000 -2.431310e+000 -9.329981e-001 168 151 97
7.045768e+000 -2.501404e+000 -9.623690e-001 167 145 108
7.045768e+000 -2.501404e+000 -9.623690e-001 167 145 108
7.401972e+000 -2.498767e+000 -7.934754e-001 77 65 53
7.487311e+000 -2.521506e+000 -8.212748e-001 97 83 70
8.663836e+000 -2.470386e+000 -1.188695e+000 152 136 85
8.855604e+000 -2.515085e+000 -7.499231e-001 147 134 82
6.423340e+000 -2.638029e+000 -3.565081e-001 78 65 60
6.924683e+000 -2.544006e+000 -9.539447e-001 67 39 35
8.652003e+000 -2.493764e+000 -1.244124e+000 152 135 84
6.368495e+000 -2.778108e+000 -2.472059e-001 83 73 63
6.530493e+000 -2.771774e+000 -2.237502e-001 140 145 125
6.530493e+000 -2.771774e+000 -2.237502e-001 140 145 125
7.209070e+000 -2.613681e+000 -1.383127e+000 166 138 112
6.239794e+000 -2.788824e+000 -2.712833e-001 109 105 96
6.216864e+000 -2.828244e+000 -2.761551e-001 130 132 121
6.270426e+000 -2.790618e+000 -2.868462e-001 80 70 68
7.392578e+000 -2.723668e+000 -6.614963e-001 75 59 46
6.136882e+000 -2.983711e+000 -1.621296e-001 148 144 132
6.136882e+000 -2.983711e+000 -1.621296e-001 148 144 132
6.266660e+000 -2.952519e+000 -4.973656e-002 90 87 73
6.250698e+000 -2.977985e+000 -3.942738e-002 91 85 73
6.331223e+000 -2.989602e+000 1.527946e-002 153 146 130
6.476932e+000 -2.977618e+000 -5.230591e-003 106 97 84
6.558301e+000 -2.986050e+000 -1.909459e-002 80 66 56
6.619893e+000 -2.942586e+000 -8.412946e-002 86 74 61
7.315838e+000 -2.902736e+000 -5.995000e-001 83 68 63
7.374291e+000 -2.938180e+000 -5.830641e-001 83 68 61
8.908482e+000 -2.955121e+000 -7.336259e-001 152 136 84
6.085306e+000 -3.014458e+000 -1.920403e-001 71 65 53
6.204917e+000 -3.014684e+000 -4.658902e-002 98 91 80
6.194962e+000 -3.055710e+000 -5.090207e-002 161 157 136
6.237176e+000 -3.041902e+000 -2.910789e-002 70 67 52
6.237176e+000 -3.041902e+000 -2.910789e-002 70 67 52
6.263996e+000 -3.060586e+000 -2.263104e-002 144 140 125
6.450922e+000 -3.072099e+000 -6.967541e-003 130 125 114
6.479002e+000 -3.055130e+000 5.139806e-003 95 86 77
6.529749e+000 -3.014915e+000 -1.157016e-002 90 76 68
6.560854e+000 -3.020262e+000 -5.299487e-003 58 44 35
6.675627e+000 -3.023055e+000 -3.574916e-002 84 70 62
6.675627e+000 -3.023055e+000 -3.574916e-002 84 70 62
6.873564e+000 -2.990002e+000 -4.672144e-001 72 52 38
7.290390e+000 -3.034346e+000 -6.905199e-001 32 22 20
7.363202e+000 -2.974004e+000 -6.122338e-001 51 36 31
6.048039e+000 -3.118151e+000 -1.232771e-001 145 141 135
6.149775e+000 -3.112018e+000 -6.180038e-002 148 144 132
6.366784e+000 -3.123182e+000 -3.710265e-004 128 127 107
6.424232e+000 -3.139685e+000 1.417337e-002 141 139 127
6.490901e+000 -3.097085e+000 -3.312993e-004 102 101 89
6.526559e+000 -3.122148e+000 -1.435637e-002 108 101 88
6.526999e+000 -3.122213e+000 -1.113468e-002 108 101 88
6.815595e+000 -3.095528e+000 -9.697030e-002 81 64 48
7.535504e+000 -3.045466e+000 -5.961161e-001 68 53 46
7.696832e+000 -3.067329e+000 -5.671054e-001 67 52 45
7.791168e+000 -3.103125e+000 -6.310374e-001 82 67 55
8.869817e+000 -3.089448e+000 -7.714397e-001 162 148 111
5.778638e+000 -3.124358e+000 -4.586062e-001 77 70 63
6.536932e+000 -3.159788e+000 2.571174e-002 145 146 133
6.653555e+000 -3.153653e+000 -1.036840e-002 79 64 57
6.653555e+000 -3.153653e+000 -1.036840e-002 79 64 57
6.698784e+000 -3.155344e+000 -5.727745e-003 36 26 17
7.493026e+000 -3.147584e+000 -3.263873e-001 75 60 53
7.549590e+000 -3.141529e+000 -5.293369e-001 62 44 42
7.568060e+000 -3.183235e+000 -5.770882e-001 61 46 41
6.132896e+000 -3.223507e+000 -4.268113e-002 76 67 62
6.256301e+000 -3.225330e+000 -1.956299e-002 137 138 125
6.432376e+000 -3.264230e+000 3.914949e-002 69 52 44
6.480372e+000 -3.234747e+000 5.114443e-002 62 55 45
6.491719e+000 -3.258344e+000 4.580886e-002 100 93 83
6.623378e+000 -3.206644e+000 2.733558e-002 42 32 32
6.734894e+000 -3.232787e+000 -2.151516e-002 81 64 54
6.868197e+000 -3.249913e+000 -6.117670e-002 76 62 53
7.600782e+000 -3.264304e+000 -6.939626e-001 76 58 55
7.891058e+000 -3.221935e+000 -6.545997e-001 165 173 169
7.985915e+000 -3.221476e+000 -2.741807e-001 122 103 97
8.044339e+000 -3.255532e+000 -2.563616e-001 179 184 184
8.171665e+000 -3.221755e+000 -3.378370e-001 93 75 53
6.234406e+000 -3.295559e+000 -3.673361e-002 121 118 110
6.528134e+000 -3.319226e+000 6.137384e-002 37 25 19
6.528134e+000 -3.319226e+000 6.137384e-002 37 25 19
6.686226e+000 -3.320410e+000 1.151420e-002 72 58 49
7.315295e+000 -3.302456e+000 -6.710912e-001 68 53 48
7.373188e+000 -3.298331e+000 -6.950041e-001 60 46 43
7.545047e+000 -3.279263e+000 -6.676311e-001 40 25 22
7.579613e+000 -3.316386e+000 -6.263309e-001 46 31 30
7.718137e+000 -3.302804e+000 -6.383896e-001 57 43 40
8.045779e+000 -3.277998e+000 -2.308573e-001 110 102 100
6.477346e+000 -3.348614e+000 6.011926e-002 67 51 45
6.484550e+000 -3.372978e+000 6.109712e-002 107 96 90
6.557144e+000 -3.378236e+000 5.962764e-002 108 101 95
6.739183e+000 -3.361571e+000 2.462969e-002 46 27 28
7.877701e+000 -3.377699e+000 -6.841628e-001 65 53 47
7.902269e+000 -3.362258e+000 -4.953061e-001 178 203 207
7.899825e+000 -3.506452e+000 -7.474405e-001 101 100 96
7.893514e+000 -3.429619e+000 -4.751293e-001 185 201 201
7.908600e+000 -3.430247e+000 -3.247166e-001 162 176 177
7.908600e+000 -3.430247e+000 -3.247166e-001 162 176 177
7.933450e+000 -3.445656e+000 -3.366306e-001 113 103 100
6.757472e+000 -3.492947e+000 -1.029743e-002 25 17 20
7.839791e+000 -3.540158e+000 -7.580307e-001 47 33 28
7.841293e+000 -3.559527e+000 -7.126828e-001 80 66 65
7.828657e+000 -3.553696e+000 -6.597932e-001 80 66 65
7.891761e+000 -3.502698e+000 -3.810729e-001 105 94 83
7.940981e+000 -3.526699e+000 -3.650604e-001 105 93 81
7.978919e+000 -3.592505e+000 -3.498910e-001 84 71 62
8.054096e+000 -3.609226e+000 -3.182243e-001 123 105 90
6.011538e+000 -3.619216e+000 3.848627e-001 55 48 56
7.317487e+000 -3.736934e+000 -8.958863e-001 95 71 61
8.014627e+000 -3.682135e+000 -4.101442e-001 121 105 88
8.036151e+000 -3.679447e+000 -3.767415e-001 93 75 61
7.362653e+000 -3.787316e+000 -7.956463e-001 92 65 51
7.886131e+000 -3.762543e+000 -4.884473e-001 75 65 53
7.948196e+000 -3.721930e+000 -4.387618e-001 122 111 97
8.007736e+000 -3.816179e+000 -5.011155e-001 115 96 79
5.843261e+000 -3.881666e+000 3.451087e-001 77 66 74
5.843261e+000 -3.881666e+000 3.451087e-001 77 66 74
6.878880e+000 -4.201046e+000 -7.345831e-002 163 136 90
6.880097e+000 -4.193754e+000 -4.812083e-002 163 136 90
6.906002e+000 -4.214398e+000 3.422400e-002 173 146 96
7.617441e+000 -5.144642e+000 -3.310554e+000 148 126 69
8.387949e+000 -4.771226e+000 -1.574597e+000 152 128 82
6.574310e+000 -2.217286e+000 -7.428412e-001 75 49 38
8.892824e+000 -2.185261e+000 -7.966719e-001 157 144 91
8.934427e+000 -2.177564e+000 -7.345235e-001 175 166 109
8.934427e+000 -2.177564e+000 -7.345235e-001 175 166 109
7.347914e+000 -2.263309e+000 -9.442304e-001 159 179 178
7.351380e+000 -2.258453e+000 -9.726323e-001 159 179 178
7.407249e+000 -2.234141e+000 -9.809093e-001 119 114 107
7.314625e+000 -2.271097e+000 -9.612078e-001 93 82 84
6.240656e+000 -2.492844e+000 -3.425793e-001 46 35 41
8.832141e+000 -2.405940e+000 -9.043369e-001 169 152 100
8.915730e+000 -2.453220e+000 -7.194306e-001 154 137 85
7.351096e+000 -2.528128e+000 -7.996367e-001 106 99 91
6.423770e+000 -2.699238e+000 -2.873901e-001 126 120 108
6.388129e+000 -2.718280e+000 -3.376339e-001 71 62 53
6.563524e+000 -2.743506e+000 -2.567805e-001 50 41 31
7.239396e+000 -2.593574e+000 -1.389748e+000 64 45 41
6.133272e+000 -2.814604e+000 -3.160872e-001 51 41 43
7.305796e+000 -2.731557e+000 -6.566298e-001 80 67 60
6.075538e+000 -2.986590e+000 -1.996490e-001 144 142 128
6.396538e+000 -2.986331e+000 3.367394e-002 108 95 86
6.396538e+000 -2.986331e+000 3.367394e-002 108 95 86
6.513808e+000 -2.991860e+000 -5.902025e-003 48 32 25
6.586208e+000 -2.943992e+000 -5.275472e-002 50 35 28
5.921342e+000 -3.050430e+000 -3.047344e-001 89 80 78
5.999519e+000 -3.059112e+000 -2.185532e-001 78 71 61
6.241283e+000 -3.010797e+000 -4.276620e-002 155 152 137
6.351226e+000 -3.054313e+000 1.323883e-002 76 69 59
5.864517e+000 -3.062745e+000 -3.338852e-001 99 85 79
6.181626e+000 -3.081552e+000 -5.071628e-002 107 95 79
6.207578e+000 -3.125596e+000 -3.163352e-002 73 66 58
6.284018e+000 -3.083991e+000 7.944235e-005 50 41 36
6.284018e+000 -3.083991e+000 7.944235e-005 50 41 36
6.338969e+000 -3.086690e+000 6.673682e-003 147 149 135
6.573324e+000 -3.116360e+000 1.532098e-002 43 34 28
6.628261e+000 -3.140120e+000 1.582542e-003 49 35 27
6.110671e+000 -3.202890e+000 -6.649444e-002 158 158 146
6.163074e+000 -3.192736e+000 -4.749603e-002 90 77 61
6.353630e+000 -3.149494e+000 -6.541202e-004 56 52 41
6.332373e+000 -3.180781e+000 1.321232e-003 160 162 148
6.332373e+000 -3.180781e+000 1.321232e-003 160 162 148
6.507128e+000 -3.166666e+000 2.520410e-002 37 27 18
6.757810e+000 -3.173022e+000 -4.956768e-002 47 32 32
7.606426e+000 -3.125472e+000 -5.624534e-001 73 58 53
7.736144e+000 -3.121438e+000 -6.030626e-001 94 80 70
8.082920e+000 -3.158834e+000 -2.636586e-001 124 113 97
6.156418e+000 -3.229538e+000 -6.600519e-002 138 134 122
6.422550e+000 -3.208855e+000 1.987012e-002 52 50 39
6.422550e+000 -3.208855e+000 1.987012e-002 52 50 39
6.758246e+000 -3.238533e+000 -1.175214e-002 48 31 26
7.564126e+000 -3.221628e+000 -6.018837e-001 75 58 55
7.566714e+000 -3.222166e+000 -6.142224e-001 75 58 55
6.264968e+000 -3.301182e+000 -4.242078e-002 64 56 53
6.613675e+000 -3.334919e+000 5.184229e-002 34 26 24
6.679552e+000 -3.292038e+000 1.411730e-002 45 30 24
6.746301e+000 -3.307092e+000 -1.591596e-002 44 29 23
6.746581e+000 -3.305228e+000 1.863590e-002 44 29 23
6.773865e+000 -3.318964e+000 -1.106257e-002 75 57 47
6.773865e+000 -3.318964e+000 -1.106257e-002 75 57 47
6.807997e+000 -3.335040e+000 -2.908130e-002 40 25 20
6.878598e+000 -3.332538e+000 -7.681277e-002 42 23 17
7.564760e+000 -3.289555e+000 -6.323070e-001 73 55 51
7.647539e+000 -3.308336e+000 -6.061519e-001 55 37 34
7.902468e+000 -3.305855e+000 -5.247018e-001 187 204 203
6.448587e+000 -3.337638e+000 6.139033e-002 140 149 129
6.447098e+000 -3.338128e+000 5.349502e-002 140 149 129
6.516923e+000 -3.378019e+000 6.577539e-002 33 23 21
6.593422e+000 -3.388629e+000 8.666536e-002 43 30 24
6.720592e+000 -3.398058e+000 9.570448e-003 43 25 23
7.432753e+000 -3.383467e+000 -6.335004e-001 64 49 42
7.906134e+000 -3.408607e+000 -7.155420e-001 115 118 111
6.181093e+000 -3.449155e+000 2.370207e-001 53 40 45
6.400283e+000 -3.407859e+000 5.910213e-002 96 87 80
6.488261e+000 -3.411235e+000 7.387469e-002 101 95 89
6.488335e+000 -3.411390e+000 7.248671e-002 101 95 89
6.542978e+000 -3.442204e+000 9.139365e-002 66 49 41
7.885004e+000 -3.448323e+000 -6.664249e-001 73 63 61
6.730316e+000 -3.488013e+000 -2.143470e-002 70 52 42
7.870372e+000 -3.500932e+000 -4.309205e-001 167 176 182
7.896288e+000 -3.549857e+000 -4.209930e-001 145 145 135
6.249019e+000 -3.530433e+000 2.809594e-001 75 66 71
7.984179e+000 -3.627184e+000 -3.690829e-001 123 111 99
7.984179e+000 -3.627184e+000 -3.690829e-001 123 111 99
8.108486e+000 -3.604648e+000 -3.528120e-001 91 72 58
5.761032e+000 -3.620030e+000 2.756377e-001 62 47 54
5.780446e+000 -3.631833e+000 2.529506e-001 105 91 104
5.772406e+000 -3.635045e+000 2.295076e-001 105 91 104
7.310829e+000 -3.748041e+000 -7.013051e-001 96 73 57
6.850001e+000 -3.709916e+000 1.939390e-002 41 24 17
7.839106e+000 -3.828715e+000 -6.619690e-001 48 34 31
8.767145e+000 -3.930935e+000 -8.813674e-001 118 100 62
5.817737e+000 -3.906156e+000 3.159749e-001 42 26 36
7.542778e+000 -4.182122e+000 -1.215359e+000 175 159 101
8.826842e+000 -4.242753e+000 -7.622538e-001 154 133 83
7.633334e+000 -5.207572e+000 -3.043561e+000 158 133 79
8.396661e+000 -4.772661e+000 -1.480530e+000 152 128 84
8.972830e+000 -2.323340e+000 -5.480789e-001 184 169 111
9.022271e+000 -2.339154e+000 -5.952639e-001 145 125 79
7.306349e+000 -2.354541e+000 -9.257962e-001 55 46 39
6.920362e+000 -2.393121e+000 -8.975478e-001 99 76 62
8.718033e+000 -2.401507e+000 -1.088385e+000 159 143 94
8.718033e+000 -2.401507e+000 -1.088385e+000 159 143 94
6.959514e+000 -2.540638e+000 -1.025645e+000 168 143 113
6.307032e+000 -2.723986e+000 -2.904779e-001 56 42 39
6.489989e+000 -2.738083e+000 -2.739570e-001 73 56 48
7.149176e+000 -2.631382e+000 -1.444090e+000 99 81 83
7.352036e+000 -2.736496e+000 -6.414655e-001 96 86 71
8.089334e+000 -2.727948e+000 -9.850949e-001 155 161 157
6.437240e+000 -2.897806e+000 -2.569593e-002 71 57 46
6.363086e+000 -2.977795e+000 2.061351e-002 58 48 39
6.442271e+000 -2.979067e+000 -1.292560e-003 46 37 28
6.372074e+000 -3.021579e+000 -4.087417e-002 119 113 101
6.372074e+000 -3.021579e+000 -4.087417e-002 119 113 101
6.512211e+000 -3.053594e+000 -1.125043e-002 40 29 25
6.741295e+000 -2.999726e+000 -1.088829e-001 81 59 41
6.715387e+000 -3.053203e+000 -5.588407e-002 48 36 33
5.945655e+000 -3.093943e+000 -2.655968e-001 148 144 134
5.862522e+000 -3.132083e+000 -3.186256e-001 159 155 146
6.131358e+000 -3.154101e+000 -7.488397e-002 55 44 44
6.131358e+000 -3.154101e+000 -7.488397e-002 55 44 44
6.180734e+000 -3.153197e+000 -4.111493e-002 164 166 153
6.278832e+000 -3.187224e+000 -3.374085e-002 40 35 29
6.278832e+000 -3.187224e+000 -3.374085e-002 40 35 29
6.461015e+000 -3.207278e+000 3.193005e-002 145 145 133
6.566601e+000 -3.178861e+000 4.989249e-002 61 51 42
6.766334e+000 -3.151140e+000 -1.713192e-002 42 33 28
6.202513e+000 -3.233883e+000 -4.382979e-002 39 34 28
6.399119e+000 -3.244929e+000 2.623903e-002 138 135 128
6.399035e+000 -3.244980e+000 2.963420e-002 138 135 128
6.544535e+000 -3.259602e+000 4.694901e-002 43 32 30
6.675748e+000 -3.228618e+000 1.886709e-002 47 34 26
6.470495e+000 -3.298435e+000 4.492200e-002 49 40 33
6.668107e+000 -3.358069e+000 3.016880e-002 34 22 15
6.668107e+000 -3.358069e+000 3.016880e-002 34 22 15
6.703662e+000 -3.368023e+000 4.034216e-002 73 63 54
6.703662e+000 -3.368023e+000 4.034216e-002 73 63 54
7.960373e+000 -3.560285e+000 -3.786999e-001 143 137 125
5.737062e+000 -3.566205e+000 2.487413e-001 48 32 45
5.737062e+000 -3.566205e+000 2.487413e-001 48 32 45
6.682994e+000 -3.565516e+000 1.798326e-001 68 54 35
8.007702e+000 -3.699332e+000 -4.165873e-001 122 106 90
6.855070e+000 -3.772695e+000 1.108733e-001 132 127 89
7.611932e+000 -4.049872e+000 -1.249743e+000 174 151 103
7.611932e+000 -4.049872e+000 -1.249743e+000 174 151 103
6.154284e+000 -3.917016e+000 4.433093e-001 33 22 28
8.741955e+000 -4.356993e+000 -8.912739e-001 133 116 72
8.765151e+000 -4.614111e+000 -7.829279e-001 160 141 96
5.928521e+000 -2.484426e+000 -2.257791e-001 32 19 29
7.715515e+000 -2.442247e+000 -9.306044e-001 90 70 53
6.621730e+000 -2.823311e+000 -2.257710e-001 76 55 38
8.853352e+000 -2.999626e+000 -7.810294e-001 161 144 93
6.442974e+000 -3.107892e+000 -1.146154e-002 53 44 37
6.008068e+000 -3.183927e+000 -1.635885e-001 114 109 103
6.897207e+000 -3.161372e+000 -1.427874e-001 47 32 31
6.897207e+000 -3.161372e+000 -1.427874e-001 47 32 31
7.614508e+000 -3.175939e+000 -5.860433e-001 86 72 63
6.828117e+000 -3.250033e+000 -5.620331e-002 36 23 17
6.827594e+000 -3.250235e+000 -6.004390e-002 36 23 17
7.625564e+000 -3.235552e+000 -6.311528e-001 46 32 31
8.392958e+000 -3.240563e+000 -3.719237e-001 127 111 94
7.424844e+000 -3.340248e+000 -7.102261e-001 32 20 20
7.765431e+000 -3.325358e+000 -6.670639e-001 101 100 95
8.884817e+000 -3.331488e+000 -6.523778e-001 138 120 84
6.396047e+000 -3.338758e+000 4.058747e-002 26 17 18
6.661667e+000 -3.427580e+000 4.406894e-002 35 24 22
7.870494e+000 -3.578225e+000 -6.490463e-001 55 44 41
7.855722e+000 -3.727809e+000 -4.830737e-001 110 105 99
9.028910e+000 -3.916120e+000 -4.346224e-001 161 147 110
8.579503e+000 -4.386965e+000 -1.174645e+000 115 93 69
6.938744e+000 -2.942841e+000 -8.001756e-001 51 33 31
7.411432e+000 -2.953113e+000 -5.890417e-001 84 71 65
6.862060e+000 -3.082947e+000 -1.374878e-001 40 26 23
8.883224e+000 -3.044019e+000 -7.321786e-001 164 152 119
6.065132e+000 -3.146436e+000 -1.068205e-001 144 144 135
6.283050e+000 -3.240573e+000 -1.696872e-002 126 122 111
7.860185e+000 -3.266625e+000 -6.873625e-001 63 45 46
7.892354e+000 -3.294763e+000 -5.397896e-001 184 202 204
8.350404e+000 -3.277139e+000 -3.901899e-001 58 38 29
6.758592e+000 -3.431130e+000 -1.380302e-002 66 48 35
6.574805e+000 -3.466280e+000 1.154667e-001 39 25 26
5.964396e+000 -3.598833e+000 3.260277e-001 23 12 20
5.836447e+000 -3.665274e+000 2.739023e-001 34 21 28
7.482610e+000 -4.089945e+000 -1.020281e+000 98 71 57
7.482610e+000 -4.089945e+000 -1.020281e+000 98 71 57
6.932239e+000 -4.177005e+000 3.896358e-002 77 49 38
7.853023e+000 -4.971466e+000 -2.969714e+000 151 125 88
7.853023e+000 -4.971466e+000 -2.969714e+000 151 125 88
5.850228e+000 -2.912591e+000 -4.091853e-001 59 40 46
6.608672e+000 -2.997829e+000 -4.130559e-002 55 40 35
6.654967e+000 -2.937284e+000 -9.480041e-002 78 58 49
8.077231e+000 -2.977960e+000 -8.702144e-001 54 40 34
7.954678e+000 -3.270308e+000 -4.544285e-001 106 92 83
7.334700e+000 -3.656853e+000 -7.103312e-001 86 64 50
7.335173e+000 -3.657436e+000 -7.144052e-001 86 64 50
7.594499e+000 -3.792063e+000 -7.808550e-001 73 56 48
6.822431e+000 -4.205769e+000 -3.001766e-002 54 31 23
7.469290e+000 -2.272296e+000 -9.896706e-001 111 98 90
7.660433e+000 -2.418862e+000 -9.418531e-001 78 63 45
7.665739e+000 -3.124584e+000 -5.853599e-001 89 74 65
6.811247e+000 -3.470436e+000 2.041704e-002 30 19 17
7.937213e+000 -3.629049e+000 -3.800013e-001 100 83 75
7.864287e+000 -3.764997e+000 -4.880562e-001 111 102 95
7.216701e+000 -2.699926e+000 -1.164939e+000 48 32 33
7.806447e+000 -2.729888e+000 -8.198443e-001 63 45 33
7.620027e+000 -2.977638e+000 -6.053912e-001 74 57 47
7.620027e+000 -2.977638e+000 -6.053912e-001 74 57 47
6.754751e+000 -3.528075e+000 1.193068e-001 29 18 15
7.938458e+000 -3.884872e+000 -4.876963e-001 83 63 54
7.587064e+000 -2.781275e+000 -7.004208e-001 87 74 57
7.587064e+000 -2.781275e+000 -7.004208e-001 87 74 57
7.447791e+000 -3.019990e+000 -5.798703e-001 86 72 69
7.788729e+000 -3.189476e+000 -6.033552e-001 38 28 27
7.362120e+000 -3.501704e+000 -6.191670e-001 81 61 54
7.814849e+000 -3.628754e+000 -6.547909e-001 46 36 27
6.471317e+000 -2.974493e+000 -9.672050e-002 97 86 74
8.799228e+000 -2.976851e+000 -9.919389e-001 174 161 106
7.431736e+000 -3.262027e+000 -5.955601e-001 36 24 27
6.744837e+000 -2.449450e+000 -8.295842e-001 38 24 24
8.022992e+000 -3.368159e+000 -4.318294e-001 183 197 200
8.670940e+000 -3.528242e+000 -8.825007e-001 67 48 34
7.700744e+000 -2.435959e+000 -9.271094e-001 80 61 46
8.119853e+000 -2.777590e+000 -9.207148e-001 132 125 108
6.114970e+000 -2.993401e+000 -1.382114e-001 87 77 71
6.428057e+000 -2.999220e+000 2.421844e-002 51 41 32
6.093387e+000 -3.141258e+000 -1.031425e-001 108 104 91
6.498900e+000 -3.197652e+000 3.716957e-002 70 57 48
6.199097e+000 -3.270412e+000 -3.024435e-002 100 89 83
6.516144e+000 -3.303724e+000 6.711431e-002 100 90 81
8.928061e+000 -2.221422e+000 -7.038284e-001 154 138 85
8.928061e+000 -2.221422e+000 -7.038284e-001 154 138 85
7.644380e+000 -2.386018e+000 -9.296900e-001 75 59 44
7.568150e+000 -2.474506e+000 -8.551509e-001 78 60 45
7.939352e+000 -2.643618e+000 -9.712201e-001 66 47 30
7.847128e+000 -2.815019e+000 -8.006460e-001 92 75 59
6.143091e+000 -2.930840e+000 -1.934656e-001 130 129 114
7.660897e+000 -2.888945e+000 -6.713467e-001 93 76 60
6.656923e+000 -3.345441e+000 4.181593e-002 54 41 33
7.267329e+000 -3.408999e+000 -6.473744e-001 42 27 24
7.510132e+000 -4.199029e+000 -1.154390e+000 178 158 99
7.466718e+000 -2.472766e+000 -8.034677e-001 93 79 66
7.642687e+000 -2.478904e+000 -8.791674e-001 98 81 65
7.642687e+000 -2.478904e+000 -8.791674e-001 98 81 65
6.492298e+000 -2.700773e+000 -3.165716e-001 95 88 78
7.047306e+000 -2.895896e+000 -9.612149e-001 71 56 48
7.856491e+000 -3.066964e+000 -6.329936e-001 56 42 26
6.264962e+000 -3.248137e+000 -3.085014e-002 86 82 73
7.591060e+000 -3.264486e+000 -6.390700e-001 76 58 55
7.483437e+000 -3.467375e+000 -6.266109e-001 71 55 54
8.012176e+000 -3.671891e+000 -3.891798e-001 121 107 94
8.031790e+000 -3.829610e+000 -4.873122e-001 81 61 47
8.910125e+000 -4.062767e+000 -5.821735e-001 155 135 84
8.922750e+000 -4.068394e+000 -6.062711e-001 155 135 84
8.927012e+000 -2.142317e+000 -7.529620e-001 159 143 92
8.777613e+000 -2.331028e+000 -9.923896e-001 160 144 92
7.344987e+000 -2.397450e+000 -8.486641e-001 116 112 103
7.897702e+000 -2.722922e+000 -8.963097e-001 98 77 53
6.050198e+000 -2.938523e+000 -2.266062e-001 154 155 139
6.490062e+000 -3.097055e+000 -7.185033e-003 102 101 89
6.443349e+000 -3.153349e+000 2.583430e-002 77 69 58
6.443349e+000 -3.153349e+000 2.583430e-002 77 69 58
7.552995e+000 -3.256924e+000 -6.093495e-001 37 19 19
7.645273e+000 -3.280260e+000 -6.547438e-001 71 54 49
7.867060e+000 -3.306935e+000 -6.580893e-001 64 49 49
7.268185e+000 -3.450902e+000 -6.350165e-001 85 62 56
7.268140e+000 -3.451021e+000 -6.364599e-001 85 62 56
8.068590e+000 -3.680120e+000 -3.698945e-001 117 101 86
7.947724e+000 -3.720230e+000 -4.352995e-001 122 111 97
7.861963e+000 -3.920286e+000 -5.965341e-001 74 54 43
7.861963e+000 -3.920286e+000 -5.965341e-001 74 54 43
7.314518e+000 -2.270565e+000 -9.611690e-001 93 82 84
7.371796e+000 -2.307027e+000 -8.879346e-001 102 93 84
8.810454e+000 -2.597646e+000 -9.222727e-001 151 135 85
7.973370e+000 -2.628715e+000 -9.607089e-001 102 82 68
6.427687e+000 -3.110045e+000 9.941151e-003 51 42 38
8.889592e+000 -3.055231e+000 -7.195274e-001 169 156 121
8.894710e+000 -3.055139e+000 -7.310619e-001 169 156 121
6.343265e+000 -3.246963e+000 -4.406413e-004 52 47 44
6.212626e+000 -3.802880e+000 3.653586e-001 74 63 69
8.944689e+000 -2.366253e+000 -7.043386e-001 187 172 115
8.147514e+000 -3.624102e+000 -3.423753e-001 121 102 88
6.210083e+000 -3.283898e+000 -2.812124e-002 101 97 88
7.379185e+000 -4.039185e+000 -9.661833e-001 175 149 99
7.278035e+000 -2.552780e+000 -1.270733e+000 113 104 109
5.885018e+000 -2.762421e+000 -1.981404e-001 96 80 83
7.235984e+000 -2.820246e+000 -1.040959e+000 68 56 56
7.235984e+000 -2.820246e+000 -1.040959e+000 68 56 56
6.143364e+000 -3.001365e+000 -9.601029e-002 101 99 86
6.278369e+000 -2.935902e+000 -3.919580e-002 143 141 126
8.004832e+000 -2.872111e+000 -9.876989e-001 95 79 64
6.066350e+000 -3.028245e+000 -1.872828e-001 140 138 123
6.341074e+000 -3.045489e+000 5.597962e-002 113 107 95
6.518928e+000 -3.003093e+000 2.708832e-002 48 38 29
5.649127e+000 -3.252161e+000 -6.443933e-001 85 81 69
6.168329e+000 -3.169819e+000 -2.105652e-002 103 94 85
6.246266e+000 -3.188848e+000 -2.807069e-002 124 122 108
6.320151e+000 -3.158889e+000 -6.236548e-003 88 88 77
6.385325e+000 -3.131415e+000 7.824273e-003 82 78 67
6.448845e+000 -3.119985e+000 2.796067e-002 84 73 67
6.204760e+000 -3.212412e+000 -2.216274e-002 80 71 69
6.285774e+000 -3.222438e+000 6.154229e-003 96 90 78
6.400211e+000 -3.208426e+000 2.439313e-002 119 116 109
8.897718e+000 -3.109237e+000 -7.791863e-001 128 120 88
8.097322e+000 -3.259832e+000 -2.536513e-001 163 173 172
9.130806e+000 -3.211378e+000 -3.529541e-001 159 139 88
6.750954e+000 -3.407862e+000 -3.436336e-004 61 41 30
7.885978e+000 -3.401622e+000 -4.353974e-001 115 117 117
6.664498e+000 -3.555456e+000 1.920058e-001 65 49 34
5.587906e+000 -2.576576e+000 -4.908253e-001 65 49 62
6.515617e+000 -2.696684e+000 -3.000404e-001 66 53 47
7.039443e+000 -2.564152e+000 -9.078214e-001 172 136 114
7.290467e+000 -2.534800e+000 -1.273952e+000 70 59 60
7.737274e+000 -2.647836e+000 -8.459616e-001 65 43 30
7.737274e+000 -2.647836e+000 -8.459616e-001 65 43 30
6.371041e+000 -2.801322e+000 -2.453860e-001 107 99 87
6.367111e+000 -2.841141e+000 -1.475915e-001 72 65 60
6.436565e+000 -2.832828e+000 -1.138200e-001 98 85 70
8.046613e+000 -2.666992e+000 -1.009460e+000 134 128 110
6.163651e+000 -2.889422e+000 -2.305892e-001 132 125 115
6.214578e+000 -2.924200e+000 -8.037131e-002 89 80 71
6.333531e+000 -2.893411e+000 -7.886463e-002 74 68 68
6.411132e+000 -2.930890e+000 -2.223511e-002 68 53 46
6.015663e+000 -3.033306e+000 -2.215887e-001 141 134 126
8.102036e+000 -2.895332e+000 -9.207295e-001 85 75 64
8.066079e+000 -2.894702e+000 -6.559707e-001 79 71 60
6.194916e+000 -3.097259e+000 -3.200556e-002 130 128 115
6.363011e+000 -3.101807e+000 1.104649e-002 85 79 65
5.682788e+000 -3.225872e+000 -5.614338e-001 154 150 141
6.161954e+000 -3.156810e+000 -4.317079e-002 156 157 146
6.147030e+000 -3.232472e+000 -5.101940e-002 146 147 132
6.285678e+000 -3.237636e+000 -2.303889e-003 125 123 110
6.524860e+000 -3.196027e+000 1.644898e-002 97 91 81
6.507246e+000 -3.270226e+000 4.403441e-002 66 57 50
7.894093e+000 -3.283446e+000 -6.900426e-001 135 140 138
8.365282e+000 -3.204070e+000 -3.586876e-001 128 110 95
8.365282e+000 -3.204070e+000 -3.586876e-001 128 110 95
8.376488e+000 -3.203157e+000 -3.281474e-001 58 44 31
6.390255e+000 -3.325360e+000 2.918535e-002 32 25 19
6.390255e+000 -3.325360e+000 2.918535e-002 32 25 19
8.049418e+000 -3.301613e+000 -2.455468e-001 183 196 196
6.854438e+000 -3.372820e+000 1.931942e-003 58 39 25
7.436834e+000 -3.407485e+000 -5.639653e-001 50 35 29
7.801315e+000 -3.560859e+000 -7.096794e-001 43 30 21
7.863361e+000 -3.564218e+000 -4.694631e-001 136 141 131
7.863436e+000 -3.570898e+000 -4.116862e-001 90 81 72
5.915367e+000 -3.567844e+000 2.744690e-001 62 56 64
7.657915e+000 -3.708087e+000 -7.857444e-001 73 60 52
5.880835e+000 -3.655576e+000 3.355752e-001 29 18 24
6.954884e+000 -3.755282e+000 -4.162509e-001 58 35 21
7.635516e+000 -3.724763e+000 -7.051870e-001 50 35 30
6.220765e+000 -3.677972e+000 3.257589e-001 34 24 32
6.155872e+000 -3.777630e+000 3.597394e-001 27 20 28
7.664470e+000 -2.465272e+000 -7.875458e-001 100 81 66
7.020875e+000 -2.547613e+000 -9.307111e-001 114 78 64
6.354545e+000 -2.855156e+000 -1.500812e-001 97 93 80
6.399127e+000 -2.789205e+000 -2.113163e-001 76 67 52
6.668700e+000 -2.773896e+000 -3.107960e-001 28 18 17
7.715101e+000 -2.692719e+000 -7.563091e-001 89 70 55
6.073580e+000 -2.897708e+000 -2.591442e-001 138 131 123
6.148604e+000 -2.913116e+000 -1.779005e-001 85 78 70
6.179846e+000 -2.916997e+000 -1.780278e-001 142 140 128
6.179846e+000 -2.916997e+000 -1.780278e-001 142 140 128
6.203778e+000 -2.868212e+000 -1.964331e-001 93 84 76
6.291646e+000 -2.912870e+000 -2.749091e-002 143 148 131
6.426955e+000 -2.856409e+000 -4.493003e-002 98 88 75
6.454825e+000 -2.875745e+000 -3.736812e-002 137 141 124
6.453047e+000 -2.875884e+000 -5.349027e-002 137 141 124
7.753243e+000 -2.802600e+000 -7.440113e-001 65 47 33
6.303813e+000 -2.978571e+000 5.276375e-003 97 90 80
6.395416e+000 -2.924493e+000 -2.933454e-002 84 76 65
6.395416e+000 -2.924493e+000 -2.933454e-002 84 76 65
7.283442e+000 -2.891607e+000 -5.762293e-001 62 44 42
5.967421e+000 -3.051770e+000 -2.351585e-001 142 142 130
6.144810e+000 -3.028276e+000 -8.915141e-002 107 104 88
6.296192e+000 -3.039159e+000 -2.354749e-002 97 94 79
6.486841e+000 -2.995457e+000 -3.199547e-003 55 45 35
6.876387e+000 -3.019742e+000 -3.400495e-001 40 20 16
6.901545e+000 -3.024395e+000 -3.972632e-001 73 46 35
7.225824e+000 -2.959078e+000 -7.378727e-001 38 24 23
7.699852e+000 -2.936819e+000 -6.590062e-001 66 49 38
8.165786e+000 -2.962665e+000 -9.908707e-001 60 42 34
5.777097e+000 -3.139090e+000 -4.077109e-001 131 125 119
6.358843e+000 -3.086588e+000 7.429972e-003 151 149 136
6.276325e+000 -3.140391e+000 -3.835647e-002 104 98 85
6.396172e+000 -3.140996e+000 1.209513e-002 143 143 134
6.396552e+000 -3.140849e+000 1.388974e-002 143 143 134
6.428661e+000 -3.180262e+000 -1.087656e-003 138 136 124
8.304090e+000 -3.125224e+000 -1.038124e+000 58 41 30
5.838640e+000 -3.265066e+000 -3.466238e-001 238 255 254
5.838640e+000 -3.265066e+000 -3.466238e-001 238 255 254
6.527713e+000 -3.234740e+000 3.638088e-002 81 73 60
6.691995e+000 -3.227726e+000 1.741386e-002 46 28 26
6.213981e+000 -3.273034e+000 -3.653735e-002 137 138 122
6.244679e+000 -3.264800e+000 -1.630899e-002 91 87 75
6.255733e+000 -3.304460e+000 -1.710618e-002 56 51 48
6.404103e+000 -3.274800e+000 3.667566e-002 67 58 49
6.444325e+000 -3.362835e+000 6.298999e-002 66 57 49
6.633776e+000 -3.308824e+000 2.328418e-002 114 105 97
6.644296e+000 -3.335102e+000 5.894341e-002 118 111 105
6.644296e+000 -3.335102e+000 5.894341e-002 118 111 105
7.277661e+000 -3.366580e+000 -6.479785e-001 47 32 29
7.534614e+000 -3.355263e+000 -6.637836e-001 51 33 29
7.882158e+000 -3.309890e+000 -6.302835e-001 131 136 132
7.945887e+000 -3.303892e+000 -3.434366e-001 117 113 101
6.395277e+000 -3.381930e+000 9.153028e-002 56 46 43
6.375394e+000 -3.397856e+000 7.053118e-002 43 33 31
6.573350e+000 -3.427349e+000 4.751949e-002 75 60 55
6.842537e+000 -3.367309e+000 -3.910381e-002 87 64 49
6.842229e+000 -3.367696e+000 -4.180221e-002 87 64 49
7.839748e+000 -3.496127e+000 -7.158746e-001 80 67 61
7.284135e+000 -3.631312e+000 -6.764122e-001 82 66 55
7.459623e+000 -3.748746e+000 -8.760588e-001 78 57 52
7.595798e+000 -3.684162e+000 -6.555283e-001 42 29 23
7.583302e+000 -3.726987e+000 -7.535762e-001 46 31 27
7.651252e+000 -3.697259e+000 -6.628068e-001 46 33 27
6.163669e+000 -3.639449e+000 2.692984e-001 38 28 29
7.865492e+000 -3.745294e+000 -6.766556e-001 38 27 25
5.958694e+000 -3.730056e+000 3.013700e-001 32 19 26
6.189161e+000 -3.701162e+000 2.986684e-001 26 16 23
7.662307e+000 -3.904047e+000 -8.135185e-001 52 37 32
6.174265e+000 -3.717657e+000 3.607076e-001 31 21 26
6.223378e+000 -3.767275e+000 3.105182e-001 66 54 58
7.541714e+000 -3.963185e+000 -9.510074e-001 82 60 36
6.189790e+000 -3.840835e+000 3.706334e-001 77 67 75
6.189790e+000 -3.840835e+000 3.706334e-001 77 67 75
6.172907e+000 -3.915680e+000 3.846268e-001 41 28 35
6.103747e+000 -4.053435e+000 3.651351e-001 81 69 70
6.103747e+000 -4.053435e+000 3.651351e-001 81 69 70
6.872040e+000 -4.192509e+000 1.060166e-001 161 143 98
8.971430e+000 -2.195667e+000 -7.596924e-001 158 141 89
7.333990e+000 -2.361239e+000 -8.429462e-001 111 106 100
7.711313e+000 -2.456797e+000 -9.173203e-001 73 51 37
7.283553e+000 -2.582635e+000 -1.241976e+000 56 47 52
6.164880e+000 -2.775563e+000 -3.198910e-001 45 36 37
6.468497e+000 -2.775222e+000 -2.151242e-001 130 124 112
7.764807e+000 -2.643930e+000 -8.598030e-001 95 74 56
6.215096e+000 -2.800265e+000 -2.465599e-001 87 81 73
6.383787e+000 -2.824631e+000 -1.815008e-001 76 72 61
6.419963e+000 -2.831169e+000 -9.308361e-002 124 121 106
7.279592e+000 -2.741723e+000 -6.819097e-001 155 170 164
7.279592e+000 -2.741723e+000 -6.819097e-001 155 170 164
6.259629e+000 -2.901939e+000 -6.840567e-002 73 70 58
6.408431e+000 -2.872626e+000 -4.905768e-002 124 118 102
7.467673e+000 -2.797999e+000 -6.254788e-001 69 55 46
6.032234e+000 -2.963302e+000 -2.129845e-001 95 89 77
6.123087e+000 -2.964348e+000 -1.749075e-001 85 79 65
6.196659e+000 -2.961505e+000 -1.093997e-001 136 131 119
6.702748e+000 -2.949924e+000 -1.396800e-001 76 57 47
7.473117e+000 -2.866133e+000 -6.544984e-001 87 75 63
7.637847e+000 -2.884109e+000 -6.750103e-001 67 49 35
6.086135e+000 -3.014472e+000 -1.912583e-001 81 78 63
6.170004e+000 -3.014038e+000 -8.380114e-002 143 144 130
6.208512e+000 -3.013635e+000 -3.036654e-002 98 88 78
6.195306e+000 -3.055049e+000 -4.872806e-002 158 155 145
6.417210e+000 -3.045571e+000 1.362538e-002 125 119 107
6.457995e+000 -3.041349e+000 5.657282e-003 64 50 43
6.529546e+000 -3.015014e+000 -1.223789e-002 88 77 71
6.645359e+000 -2.999212e+000 -5.461446e-002 41 31 24
6.785251e+000 -3.031680e+000 -1.598775e-001 51 34 28
7.519608e+000 -2.959556e+000 -6.162920e-001 67 50 43
8.071586e+000 -2.929237e+000 -9.280132e-001 89 75 62
8.107783e+000 -2.936181e+000 -9.335511e-001 51 34 30
5.706309e+000 -3.152966e+000 -5.512146e-001 101 93 88
5.827693e+000 -3.094481e+000 -4.036314e-001 96 82 72
6.064725e+000 -3.093971e+000 -1.235945e-001 142 133 124
6.385107e+000 -3.057466e+000 -1.638287e-002 73 60 54
6.449667e+000 -3.072788e+000 -1.540499e-002 126 121 112
6.014283e+000 -3.161260e+000 -1.283247e-001 141 138 130
6.220893e+000 -3.190861e+000 -2.631495e-002 147 144 129
7.492247e+000 -3.105678e+000 -5.580927e-001 60 43 36
7.526625e+000 -3.112102e+000 -5.857541e-001 89 72 65
7.592105e+000 -3.130053e+000 -6.619509e-001 86 71 64
8.284425e+000 -3.108365e+000 -1.041369e+000 82 66 50
6.505624e+000 -3.228740e+000 4.266234e-002 72 59 51
7.965344e+000 -3.177178e+000 -4.059658e-001 106 93 77
6.179035e+000 -3.270304e+000 -5.703747e-002 135 130 123
6.707251e+000 -3.245544e+000 1.729880e-002 84 65 58
6.373391e+000 -3.376039e+000 5.720864e-002 79 68 66
7.927490e+000 -3.296649e+000 -3.603598e-001 160 164 160
8.054532e+000 -3.280406e+000 -2.577569e-001 112 108 109
7.894587e+000 -3.358504e+000 -4.501816e-001 183 203 202
7.931560e+000 -3.372783e+000 -3.224687e-001 122 113 111
7.900483e+000 -3.522901e+000 -6.797530e-001 70 63 57
7.627459e+000 -3.623565e+000 -6.984927e-001 48 33 28
7.884091e+000 -3.537124e+000 -4.507406e-001 108 91 81
7.884091e+000 -3.537124e+000 -4.507406e-001 108 91 81
8.022581e+000 -3.638484e+000 -3.952777e-001 88 69 54
7.959267e+000 -3.755564e+000 -4.671946e-001 80 64 49
7.837721e+000 -3.962025e+000 -6.468809e-001 62 44 38
6.910975e+000 -4.149094e+000 -2.973080e-002 87 55 46
6.441113e+000 -4.210818e+000 2.371440e-001 36 22 24
6.400210e+000 -2.660349e+000 -3.308902e-001 55 45 43
6.556037e+000 -2.660850e+000 -3.408882e-001 59 41 39
7.340411e+000 -2.585920e+000 -8.211411e-001 109 106 97
6.433314e+000 -2.758043e+000 -2.433688e-001 59 46 37
6.638984e+000 -2.750081e+000 -2.855203e-001 88 71 55
6.129043e+000 -2.935712e+000 -1.660505e-001 154 149 135
6.656519e+000 -2.897540e+000 -1.384420e-001 79 57 44
8.700614e+000 -2.730766e+000 -1.111534e+000 141 123 73
6.044578e+000 -3.038601e+000 -1.779894e-001 152 144 135
6.243583e+000 -3.009300e+000 -3.337062e-002 152 152 140
6.333680e+000 -3.114395e+000 7.333211e-003 81 73 62
6.555005e+000 -3.047237e+000 -1.569049e-002 84 73 67
6.555005e+000 -3.047237e+000 -1.569049e-002 84 73 67
6.548731e+000 -3.073491e+000 -5.254012e-004 62 52 43
6.069740e+000 -3.204735e+000 -7.091870e-002 79 68 63
6.605789e+000 -3.114414e+000 -5.310040e-003 101 93 82
6.598317e+000 -3.193745e+000 3.745776e-003 87 80 74
6.312210e+000 -3.292845e+000 -1.308434e-002 94 85 76
6.662728e+000 -3.266413e+000 5.998400e-002 74 59 52
7.278054e+000 -3.259085e+000 -7.597733e-001 37 24 18
7.275754e+000 -3.257797e+000 -7.461629e-001 37 24 18
7.895702e+000 -3.301811e+000 -4.915128e-001 184 205 203
7.224032e+000 -3.653499e+000 -7.834355e-001 86 62 50
9.134472e+000 -3.641317e+000 -3.949578e-001 153 135 87
6.181307e+000 -3.708512e+000 3.345288e-001 58 49 53
5.966959e+000 -3.836081e+000 3.620608e-001 46 31 38
5.970186e+000 -3.878025e+000 2.917604e-001 77 64 69
6.985560e+000 -4.000411e+000 -3.185597e-001 157 130 84
6.752316e+000 -4.194808e+000 -2.763057e-001 74 50 37
6.983054e+000 -4.165876e+000 4.777552e-002 166 143 93
8.755478e+000 -2.362476e+000 -1.032791e+000 157 137 87
7.919321e+000 -2.581301e+000 -9.700602e-001 99 81 61
7.916222e+000 -2.582245e+000 -9.534790e-001 99 81 61
8.843908e+000 -2.534270e+000 -9.580303e-001 176 161 101
6.434367e+000 -2.786899e+000 -2.048488e-001 67 57 45
5.655782e+000 -3.101880e+000 -6.107529e-001 77 64 90
6.001810e+000 -3.013300e+000 -2.257793e-001 83 74 67
6.241053e+000 -3.076381e+000 -6.117982e-003 143 142 133
6.258303e+000 -3.125912e+000 -2.395740e-003 158 159 145
6.256845e+000 -3.126035e+000 -4.126577e-003 158 159 145
6.338910e+000 -3.085482e+000 1.272059e-002 142 141 129
6.513425e+000 -3.052101e+000 3.539334e-003 42 31 29
8.168798e+000 -3.079870e+000 -8.874028e-001 108 90 70
6.061416e+000 -3.243930e+000 -7.220689e-002 144 140 131
6.202550e+000 -3.233798e+000 -4.300185e-002 39 33 27
6.462293e+000 -3.207018e+000 3.429430e-002 149 146 134
6.148667e+000 -3.273070e+000 -5.402932e-002 57 48 45
6.148667e+000 -3.273070e+000 -5.402932e-002 57 48 45
6.544572e+000 -3.259840e+000 4.542923e-002 45 39 34
8.312651e+000 -3.227685e+000 -3.442222e-001 108 87 60
6.447082e+000 -3.417273e+000 6.019632e-002 43 32 36
6.517230e+000 -3.378092e+000 6.562764e-002 43 34 29
6.389439e+000 -3.435086e+000 1.348215e-001 40 28 27
6.990577e+000 -3.485745e+000 -3.065916e-001 90 59 37
7.200650e+000 -3.690620e+000 -6.240991e-001 91 66 51
7.731287e+000 -3.846081e+000 -6.892582e-001 76 62 55
6.953634e+000 -3.830049e+000 -2.569304e-001 58 30 26
8.160887e+000 -3.846064e+000 -5.554607e-001 109 88 64
6.160299e+000 -3.830091e+000 2.938348e-001 39 26 35
8.118834e+000 -4.887295e+000 -1.909671e+000 156 129 86
8.102689e+000 -4.860316e+000 -1.836883e+000 156 129 86
5.731447e+000 -2.501510e+000 -3.113556e-001 55 37 49
6.023447e+000 -2.487349e+000 -1.380450e-001 45 29 39
6.361008e+000 -2.652918e+000 -3.882457e-001 46 35 31
7.995045e+000 -3.081786e+000 -7.548045e-001 45 33 32
8.392487e+000 -3.241382e+000 -3.700310e-001 128 118 100
6.319745e+000 -3.501779e+000 2.445459e-001 43 28 33
6.786673e+000 -3.622860e+000 8.276892e-002 33 20 14
6.900883e+000 -2.313215e+000 -1.008301e+000 140 121 88
5.819908e+000 -2.614764e+000 -1.868710e-001 53 36 44
7.261749e+000 -2.569132e+000 -1.266895e+000 62 51 57
7.261749e+000 -2.569132e+000 -1.266895e+000 62 51 57
6.331206e+000 -2.877121e+000 -5.936158e-002 36 32 29
6.306076e+000 -2.938673e+000 -3.292487e-002 133 134 120
5.947452e+000 -3.149635e+000 -2.642717e-001 41 31 39
5.961260e+000 -3.223046e+000 -1.781085e-001 126 126 118
6.070522e+000 -3.309852e+000 -3.964696e-002 47 33 33
8.103127e+000 -3.249111e+000 -2.641687e-001 185 196 197
9.084780e+000 -3.673170e+000 -4.045474e-001 153 137 88
6.767939e+000 -4.185765e+000 -1.329551e-001 143 118 77
6.804273e+000 -2.743844e+000 -5.294721e-001 134 110 84
6.777546e+000 -3.075783e+000 -6.949543e-002 79 60 44
6.827732e+000 -3.167842e+000 -4.510085e-002 80 58 42
7.997131e+000 -3.555602e+000 -3.822173e-001 135 128 118
7.594326e+000 -3.790913e+000 -7.766013e-001 82 59 51
8.080347e+000 -3.634234e+000 -3.779177e-001 92 74 59
5.996440e+000 -3.942349e+000 1.904332e-001 72 55 64
5.929970e+000 -3.942174e+000 2.886334e-001 40 25 32
7.847787e+000 -3.401591e+000 -6.579427e-001 64 51 42
6.806256e+000 -3.483767e+000 -7.546717e-002 32 21 19
8.160769e+000 -3.731753e+000 -4.445425e-001 118 98 73
8.750145e+000 -4.007030e+000 -1.037183e+000 129 111 73
7.382058e+000 -2.816626e+000 -6.090389e-001 72 59 49
5.886712e+000 -3.605372e+000 2.897104e-001 37 26 32
7.243441e+000 -3.711236e+000 -8.005496e-001 59 38 33
6.421155e+000 -3.209553e+000 1.168890e-002 49 46 41
7.950384e+000 -3.113270e+000 -5.612460e-001 62 51 45
6.008484e+000 -3.816192e+000 7.662925e-002 38 23 28
