ply
format ascii 1.0
element face 0
property list uchar int vertex_indices
element vertex 888
property float x
property float y
property float z
property uchar diffuse_red
property uchar diffuse_green
property uchar diffuse_blue
end_header
7.308972e+000 -2.391227e+000 -9.728638e-001 101 89 90
7.055791e+000 -2.540924e+000 -9.459513e-001 159 139 107
6.148634e+000 -2.831580e+000 -2.820860e-001 91 83 81
6.111580e+000 -2.859925e+000 -3.062436e-001 55 50 47
6.199139e+000 -2.846210e+000 -2.543713e-001 73 72 62
6.200294e+000 -2.842101e+000 -2.416840e-001 73 72 62
6.200875e+000 -2.831652e+000 -2.593443e-001 127 124 115
6.200875e+000 -2.831652e+000 -2.593443e-001 127 124 115
5.916762e+000 -2.986000e+000 -3.540438e-001 138 134 123
6.091607e+000 -2.928492e+000 -2.039765e-001 106 102 93
6.121689e+000 -2.882429e+000 -2.423256e-001 71 68 61
6.226035e+000 -2.884809e+000 -1.987983e-001 134 134 124
5.814610e+000 -3.082272e+000 -3.526371e-001 101 96 91
5.884512e+000 -3.031191e+000 -3.270300e-001 161 162 157
5.670432e+000 -3.245213e+000 -5.957888e-001 135 127 124
6.301089e+000 -2.923305e+000 -8.007317e-003 116 117 109
6.269804e+000 -2.987749e+000 -6.497394e-003 139 139 132
5.949212e+000 -3.212282e+000 -2.381559e-001 64 59 63
5.979322e+000 -3.184903e+000 -1.829717e-001 129 127 128
6.293480e+000 -3.060257e+000 8.517931e-003 123 123 113
6.318473e+000 -3.068567e+000 8.016538e-003 101 101 91
7.303245e+000 -2.982116e+000 -4.761564e-001 48 33 28
5.718305e+000 -3.357708e+000 -2.251668e-001 160 185 208
5.852945e+000 -3.292576e+000 -1.484391e-001 128 143 148
6.049991e+000 -3.226771e+000 -1.059251e-001 63 52 48
6.298631e+000 -3.119885e+000 1.044385e-002 95 97 84
5.891158e+000 -3.322372e+000 -1.218200e-001 50 49 59
5.935946e+000 -3.322816e+000 -4.798745e-002 60 59 68
5.968031e+000 -3.320567e+000 -1.284817e-001 43 34 39
6.473059e+000 -3.132470e+000 5.279674e-002 83 75 64
6.733260e+000 -3.097338e+000 -2.784091e-002 86 76 66
5.703500e+000 -3.457895e+000 -2.059023e-001 117 129 144
5.889606e+000 -3.353557e+000 -4.397778e-002 99 104 123
5.904956e+000 -3.370696e+000 1.845701e-002 62 53 66
6.353708e+000 -3.285104e+000 2.763858e-002 98 94 85
6.447791e+000 -3.223923e+000 7.679547e-002 93 88 79
6.570533e+000 -3.244557e+000 5.243395e-002 126 126 121
6.570533e+000 -3.244557e+000 5.243395e-002 126 126 121
6.039059e+000 -3.352263e+000 2.570897e-001 71 58 65
6.620476e+000 -3.302498e+000 7.004899e-002 61 54 49
5.885301e+000 -3.470863e+000 2.398559e-001 94 81 90
6.158694e+000 -3.432740e+000 2.076231e-001 77 68 73
5.794463e+000 -3.575708e+000 2.517877e-001 99 83 93
6.357776e+000 -3.498848e+000 1.821294e-001 93 80 87
6.651064e+000 -3.550303e+000 2.197149e-001 46 36 27
6.699838e+000 -3.535941e+000 2.437840e-001 70 59 41
6.056378e+000 -3.650749e+000 3.668634e-001 51 40 46
6.124201e+000 -3.785397e+000 3.203282e-001 67 61 66
6.124201e+000 -3.785397e+000 3.203282e-001 67 61 66
6.180972e+000 -3.679330e+000 3.697734e-001 65 54 59
6.180972e+000 -3.679330e+000 3.697734e-001 65 54 59
5.856806e+000 -3.931725e+000 3.247314e-001 68 49 58
7.363949e+000 -2.268306e+000 -9.305520e-001 106 97 92
5.799486e+000 -2.592549e+000 -2.012983e-001 86 72 85
5.834377e+000 -2.583092e+000 -2.211688e-001 51 35 45
5.946646e+000 -2.548670e+000 -1.721236e-001 39 28 36
6.851176e+000 -2.611399e+000 -6.324992e-001 71 51 42
7.566755e+000 -2.472060e+000 -8.527938e-001 66 50 37
7.705356e+000 -2.465869e+000 -9.826217e-001 98 80 66
6.379199e+000 -2.697743e+000 -2.875954e-001 54 43 41
6.357965e+000 -2.748024e+000 -3.367912e-001 67 54 57
6.507303e+000 -2.734077e+000 -3.474463e-001 73 67 61
7.461561e+000 -2.549736e+000 -7.879649e-001 65 50 38
6.047947e+000 -2.893577e+000 -3.353950e-001 106 100 96
6.172331e+000 -2.833052e+000 -2.754928e-001 101 98 93
6.316108e+000 -2.783250e+000 -2.572934e-001 144 147 136
6.394078e+000 -2.755492e+000 -2.293183e-001 125 122 114
6.644795e+000 -2.732972e+000 -3.804279e-001 70 51 45
6.061501e+000 -2.923690e+000 -2.451623e-001 66 63 56
6.174254e+000 -2.891899e+000 -1.983075e-001 132 129 120
6.172505e+000 -2.896228e+000 -2.107600e-001 132 129 120
6.262416e+000 -2.869829e+000 -1.749441e-001 134 134 124
6.450820e+000 -2.828555e+000 -2.027732e-001 103 99 89
6.450820e+000 -2.828555e+000 -2.027732e-001 103 99 89
5.583654e+000 -3.273244e+000 -7.719243e-001 148 148 142
5.685171e+000 -3.197270e+000 -5.406355e-001 142 137 133
5.761613e+000 -3.154548e+000 -4.606420e-001 140 140 132
6.089646e+000 -2.969085e+000 -1.795785e-001 141 141 132
6.275802e+000 -2.879508e+000 -1.586417e-001 83 81 69
6.333177e+000 -2.864578e+000 -1.311238e-001 26 26 24
5.622441e+000 -3.264850e+000 -6.607267e-001 135 132 127
5.613972e+000 -3.366123e+000 -7.716856e-001 131 122 119
5.714687e+000 -3.249383e+000 -5.479281e-001 152 149 144
5.929299e+000 -3.068045e+000 -2.715996e-001 142 143 135
6.037236e+000 -3.043652e+000 -2.697128e-001 97 94 85
6.037236e+000 -3.043652e+000 -2.697128e-001 97 94 85
6.175294e+000 -3.001872e+000 -1.068264e-001 89 89 81
6.175294e+000 -3.001872e+000 -1.068264e-001 89 89 81
6.243601e+000 -2.947732e+000 -1.161016e-001 124 120 112
6.281002e+000 -2.939961e+000 -5.247563e-002 144 149 143
6.326256e+000 -2.890666e+000 2.818780e-002 66 57 50
6.339214e+000 -2.896056e+000 -6.476388e-002 65 59 58
6.000384e+000 -3.157015e+000 -2.141892e-001 56 47 52
6.411600e+000 -2.979919e+000 -3.582801e-002 110 106 95
5.906953e+000 -3.257039e+000 -2.588486e-001 49 47 52
5.969699e+000 -3.180236e+000 -2.282703e-001 59 54 59
6.023917e+000 -3.172344e+000 -1.250432e-001 92 89 84
6.311701e+000 -3.056290e+000 3.734461e-003 134 134 124
6.407857e+000 -3.016873e+000 2.968869e-002 78 73 68
6.299092e+000 -3.129068e+000 4.173794e-002 134 135 125
6.621437e+000 -3.039620e+000 -2.440808e-002 87 73 63
6.486084e+000 -3.120591e+000 -1.424991e-002 62 58 49
6.073204e+000 -3.226305e+000 2.381935e-001 52 45 55
6.232889e+000 -3.237801e+000 -1.652494e-002 83 81 76
6.401680e+000 -3.292315e+000 4.401846e-002 94 84 80
6.509397e+000 -3.221936e+000 4.960366e-002 73 66 55
6.725764e+000 -3.219821e+000 3.907132e-002 84 74 65
6.369067e+000 -3.376138e+000 5.373781e-002 86 81 77
6.453436e+000 -3.356942e+000 5.600209e-002 63 54 48
6.523492e+000 -3.287310e+000 6.556325e-002 108 104 95
6.653999e+000 -3.283770e+000 1.308616e-002 87 77 68
5.735833e+000 -3.533301e+000 1.759736e-001 33 23 31
6.638320e+000 -3.325335e+000 5.212505e-002 109 103 93
6.638320e+000 -3.325335e+000 5.212505e-002 109 103 93
6.729305e+000 -3.369005e+000 1.537916e-002 46 29 22
6.670070e+000 -3.408501e+000 4.164061e-002 43 33 24
5.920330e+000 -3.619094e+000 3.336834e-001 22 12 20
6.228299e+000 -3.474661e+000 4.003487e-001 35 22 29
6.615715e+000 -3.515934e+000 1.736896e-001 105 91 63
6.317988e+000 -3.572661e+000 3.667663e-001 69 59 60
6.400954e+000 -3.591976e+000 3.194925e-001 54 42 48
5.849655e+000 -3.827813e+000 3.363445e-001 29 16 23
5.811851e+000 -3.926209e+000 2.670401e-001 54 37 47
5.609913e+000 -2.527512e+000 -4.864473e-001 51 35 48
7.348888e+000 -2.222711e+000 -9.366981e-001 78 70 67
7.317736e+000 -2.364128e+000 -9.347807e-001 53 41 43
7.308570e+000 -2.438339e+000 -8.290828e-001 99 96 94
7.702585e+000 -2.424440e+000 -1.008970e+000 102 81 67
6.213716e+000 -2.773141e+000 -2.806591e-001 99 92 84
6.664555e+000 -2.684564e+000 -3.796198e-001 32 19 17
6.076974e+000 -2.890456e+000 -2.987103e-001 68 58 57
6.324039e+000 -2.796514e+000 -2.319057e-001 73 64 54
5.923448e+000 -2.981059e+000 -2.719954e-001 97 90 82
6.102043e+000 -2.898031e+000 -2.945696e-001 77 69 65
6.125487e+000 -2.887981e+000 -1.977905e-001 123 127 118
6.125487e+000 -2.887981e+000 -1.977905e-001 123 127 118
6.491427e+000 -2.800492e+000 -3.148513e-001 50 44 36
6.493279e+000 -2.771082e+000 -2.212876e-001 50 44 36
6.007323e+000 -2.982158e+000 -2.176558e-001 164 169 161
6.007323e+000 -2.982158e+000 -2.176558e-001 164 169 161
6.063323e+000 -2.955599e+000 -1.569683e-001 80 75 64
6.094737e+000 -2.926834e+000 -1.435335e-001 92 83 74
6.111826e+000 -2.959449e+000 -1.781580e-001 96 87 78
6.111826e+000 -2.959449e+000 -1.781580e-001 96 87 78
6.357387e+000 -2.856186e+000 -1.383885e-001 93 94 90
5.670762e+000 -3.264362e+000 -6.644433e-001 95 84 84
5.872604e+000 -3.122770e+000 -3.699469e-001 73 69 58
6.255712e+000 -2.956386e+000 -7.748277e-002 68 63 57
6.153223e+000 -3.045617e+000 -9.891870e-002 95 86 84
6.684885e+000 -2.935375e+000 -1.592358e-001 71 54 35
5.959703e+000 -3.205607e+000 -1.653542e-001 145 144 139
5.986825e+000 -3.195715e+000 -1.585827e-001 81 77 73
6.534858e+000 -2.983067e+000 -1.266787e-002 61 47 40
7.541726e+000 -2.962637e+000 -6.075917e-001 77 64 55
6.401302e+000 -3.002534e+000 1.457115e-001 74 69 63
5.821391e+000 -3.393091e+000 -5.579262e-002 245 255 254
5.879121e+000 -3.397615e+000 -3.154561e-002 238 255 255
5.879121e+000 -3.397615e+000 -3.154561e-002 238 255 255
6.183414e+000 -3.259426e+000 -3.629817e-002 141 146 138
6.234098e+000 -3.293377e+000 -4.339901e-002 124 124 116
6.185819e+000 -3.375671e+000 -2.546045e-002 73 65 63
6.865592e+000 -3.248198e+000 -7.470955e-002 77 64 56
6.381562e+000 -3.435730e+000 5.709053e-002 35 26 27
6.702622e+000 -3.401875e+000 2.713125e-002 48 37 30
6.275259e+000 -3.456072e+000 2.536016e-001 34 23 29
6.725414e+000 -3.443354e+000 6.131232e-002 75 58 47
6.734219e+000 -3.545280e+000 1.927242e-001 29 17 17
6.427100e+000 -3.558764e+000 3.775757e-001 25 16 17
5.815875e+000 -3.937806e+000 3.180268e-001 61 44 60
6.086844e+000 -3.800414e+000 3.735719e-001 25 14 18
5.775567e+000 -2.495601e+000 -2.975989e-001 33 22 30
6.087750e+000 -2.398004e+000 -2.188503e-001 46 30 37
6.867218e+000 -2.326754e+000 -9.290405e-001 165 133 94
6.927307e+000 -2.388311e+000 -9.305449e-001 91 62 48
6.973051e+000 -2.480968e+000 -9.301861e-001 144 115 75
7.323054e+000 -2.472767e+000 -8.963663e-001 119 119 117
6.359283e+000 -2.681374e+000 -2.926045e-001 58 44 43
6.124542e+000 -2.809763e+000 -3.073048e-001 39 29 28
6.400096e+000 -2.718888e+000 -2.788840e-001 59 54 50
5.902041e+000 -2.961076e+000 -3.901973e-001 147 146 144
6.117263e+000 -2.838239e+000 -3.092790e-001 84 76 74
6.458728e+000 -2.775635e+000 -2.180559e-001 107 103 94
6.050291e+000 -2.938805e+000 -2.263762e-001 144 140 131
6.147963e+000 -2.910017e+000 -1.866936e-001 74 70 64
6.841866e+000 -2.871322e+000 -7.409859e-001 51 30 29
5.892503e+000 -3.039210e+000 -3.333147e-001 147 146 142
5.932210e+000 -3.040977e+000 -2.705411e-001 86 78 71
6.003874e+000 -3.018609e+000 -2.287084e-001 81 69 67
6.407434e+000 -2.856284e+000 -8.153315e-002 142 147 140
6.633609e+000 -2.818809e+000 -2.340011e-001 71 51 40
5.599234e+000 -3.338219e+000 -7.784570e-001 81 72 65
5.744392e+000 -3.220124e+000 -4.888980e-001 148 145 141
5.781664e+000 -3.168251e+000 -4.499102e-001 71 61 59
5.790630e+000 -3.155957e+000 -4.198195e-001 71 61 59
5.987817e+000 -3.073199e+000 -2.528984e-001 77 72 66
6.075345e+000 -3.051603e+000 -1.930961e-001 157 159 148
6.149748e+000 -2.980965e+000 -1.257402e-001 155 153 146
6.171459e+000 -3.010033e+000 -6.907231e-002 150 151 143
6.180677e+000 -3.077681e+000 -4.617530e-002 93 91 79
6.646578e+000 -2.997842e+000 -4.438115e-002 38 27 24
6.324537e+000 -3.099630e+000 -2.821507e-002 148 151 144
6.324537e+000 -3.099630e+000 -2.821507e-002 148 151 144
6.293828e+000 -3.282310e+000 5.116627e-002 52 45 42
6.494033e+000 -3.242742e+000 7.261253e-002 116 111 107
6.552133e+000 -3.230864e+000 5.598295e-002 50 49 45
6.552133e+000 -3.230864e+000 5.598295e-002 50 49 45
6.769797e+000 -3.176054e+000 7.479861e-003 81 70 62
5.994611e+000 -3.376064e+000 2.421698e-001 28 16 20
6.441998e+000 -3.337617e+000 5.034486e-002 133 133 125
6.401464e+000 -3.400452e+000 6.656306e-002 112 106 103
6.710333e+000 -3.364626e+000 8.084914e-003 95 85 73
5.755277e+000 -3.568078e+000 2.467541e-001 45 30 37
5.772661e+000 -3.566980e+000 2.154043e-001 91 81 92
5.764573e+000 -3.761382e+000 2.907294e-001 33 18 23
6.164635e+000 -3.670813e+000 2.681798e-001 21 16 20
6.184862e+000 -3.731705e+000 2.714475e-001 21 12 16
6.247756e+000 -3.748743e+000 4.408823e-001 37 22 27
7.364723e+000 -2.187763e+000 -1.054912e+000 172 173 176
6.955511e+000 -2.393912e+000 -8.736189e-001 159 134 96
5.902796e+000 -2.675840e+000 -1.847554e-001 45 32 39
6.433520e+000 -2.794973e+000 -2.108464e-001 57 44 36
6.554655e+000 -2.806417e+000 -2.080234e-001 106 100 88
5.748463e+000 -3.121165e+000 -4.677419e-001 106 97 99
6.125517e+000 -2.940529e+000 -1.907680e-001 141 142 128
5.573152e+000 -3.327054e+000 -7.156628e-001 156 161 154
5.592893e+000 -3.370235e+000 -7.343188e-001 68 46 49
5.855672e+000 -3.141059e+000 -3.551174e-001 144 144 136
6.038793e+000 -3.054841e+000 -2.216172e-001 147 151 138
6.229129e+000 -2.956318e+000 -1.225879e-001 118 114 105
6.229129e+000 -2.956318e+000 -1.225879e-001 118 114 105
5.577204e+000 -3.401381e+000 -7.077432e-001 57 41 41
5.933896e+000 -3.142847e+000 -2.908034e-001 31 28 28
6.496203e+000 -2.942201e+000 -1.461281e-002 47 35 29
6.091271e+000 -3.135197e+000 -6.578044e-002 144 146 141
6.920379e+000 -3.086463e+000 -2.857125e-001 80 54 41
6.108305e+000 -3.269339e+000 -5.791263e-002 114 115 107
6.847564e+000 -3.114968e+000 -1.074611e-001 33 18 15
6.834022e+000 -3.142844e+000 -7.831962e-002 83 66 53
6.469375e+000 -3.292942e+000 5.509655e-002 56 49 41
5.929258e+000 -3.692244e+000 3.940148e-001 48 36 46
6.220980e+000 -3.749097e+000 4.325963e-001 59 47 48
5.896875e+000 -2.684748e+000 -2.140362e-001 43 30 37
6.572618e+000 -2.679272e+000 -3.902448e-001 37 26 24
6.560423e+000 -2.734569e+000 -2.303703e-001 43 32 27
5.951733e+000 -3.003647e+000 -2.942717e-001 151 150 145
6.245713e+000 -2.978435e+000 -6.383687e-002 76 73 66
6.436834e+000 -2.911037e+000 -3.606508e-002 66 53 44
6.632789e+000 -2.942820e+000 -5.154754e-002 72 58 49
6.875184e+000 -2.970536e+000 -3.487604e-001 70 44 32
6.281314e+000 -3.181089e+000 -4.986212e-003 51 51 43
6.755263e+000 -3.148872e+000 -2.320901e-002 48 41 33
6.909298e+000 -3.256040e+000 -1.209624e-001 53 35 21
6.800635e+000 -3.484267e+000 -8.421344e-002 44 27 20
5.995651e+000 -2.867937e+000 -2.984594e-001 49 35 35
5.913560e+000 -3.204428e+000 -2.240603e-001 37 32 36
5.959780e+000 -3.252905e+000 -1.718075e-001 141 142 136
6.061798e+000 -3.290349e+000 -1.646772e-002 38 28 27
6.965612e+000 -3.269711e+000 -3.292271e-001 79 58 41
5.844326e+000 -3.676893e+000 2.694035e-001 35 26 31
6.089423e+000 -3.696990e+000 2.748387e-001 20 14 16
6.805978e+000 -2.790470e+000 -7.934686e-001 145 132 124
5.941904e+000 -3.156569e+000 -2.619937e-001 52 50 49
5.941904e+000 -3.156569e+000 -2.619937e-001 52 50 49
7.548909e+000 -2.549625e+000 -7.768247e-001 66 51 44
5.877940e+000 -3.001656e+000 -2.706009e-001 137 137 136
6.276053e+000 -3.394531e+000 2.310775e-002 30 20 21
7.223230e+000 -2.659588e+000 -1.447338e+000 59 40 34
9.091656e+000 -3.612524e+000 -3.136952e-001 136 120 71
7.935126e+000 -2.626819e+000 -9.617198e-001 67 48 31
7.595930e+000 -2.486813e+000 -8.726741e-001 91 75 63
7.489337e+000 -2.854825e+000 -6.301458e-001 69 53 40
8.819263e+000 -2.255723e+000 -8.736754e-001 158 142 91
8.798163e+000 -2.291309e+000 -9.182087e-001 155 138 92
8.810126e+000 -2.292930e+000 -9.390223e-001 155 138 92
6.681996e+000 -2.923778e+000 -1.203249e-001 79 58 40
6.461888e+000 -3.203850e+000 3.603230e-002 150 152 141
6.545301e+000 -3.254399e+000 5.348112e-002 50 44 38
6.784254e+000 -3.194999e+000 -3.772392e-002 76 61 56
6.781652e+000 -3.188533e+000 -2.071840e-002 76 61 56
8.673298e+000 -2.605594e+000 -1.152480e+000 163 150 96
7.264903e+000 -2.755172e+000 -1.025033e+000 42 30 34
6.401487e+000 -3.036524e+000 6.220317e-003 87 82 76
6.611091e+000 -3.122866e+000 6.158948e-003 65 60 51
6.482579e+000 -3.319288e+000 4.448176e-002 62 52 45
7.320272e+000 -2.468630e+000 -1.626178e+000 80 63 64
7.242853e+000 -2.660861e+000 -1.510868e+000 141 122 100
7.242853e+000 -2.660861e+000 -1.510868e+000 141 122 100
7.254918e+000 -2.582326e+000 -1.348105e+000 93 82 88
7.822459e+000 -2.656209e+000 -9.449554e-001 64 46 31
7.970582e+000 -3.207385e+000 -3.407547e-001 105 98 95
7.903505e+000 -3.567222e+000 -7.155034e-001 92 86 83
7.248831e+000 -2.577347e+000 -1.165059e+000 95 83 95
7.248831e+000 -2.577347e+000 -1.165059e+000 95 83 95
7.683493e+000 -2.453776e+000 -9.021626e-001 98 80 66
6.530692e+000 -2.707869e+000 -2.965692e-001 45 35 33
7.735319e+000 -2.630056e+000 -8.642760e-001 63 44 30
7.852528e+000 -2.629258e+000 -8.672366e-001 96 78 58
7.873750e+000 -2.665766e+000 -9.066112e-001 92 75 57
8.172882e+000 -3.061633e+000 -8.898280e-001 51 38 30
6.718992e+000 -3.287534e+000 6.673015e-003 71 60 53
7.493005e+000 -3.400790e+000 -6.926656e-001 73 59 53
7.547344e+000 -3.428625e+000 -6.868179e-001 54 37 30
7.894364e+000 -3.310471e+000 -4.209083e-001 110 102 94
7.779166e+000 -3.801465e+000 -7.186745e-001 46 35 33
7.805310e+000 -3.782581e+000 -6.844765e-001 63 52 48
9.063530e+000 -3.362716e+000 -2.990735e-001 137 120 75
9.063530e+000 -3.362716e+000 -2.990735e-001 137 120 75
7.166453e+000 -2.662935e+000 -1.430724e+000 105 93 99
7.496925e+000 -2.464888e+000 -8.523265e-001 69 53 40
7.303876e+000 -2.679662e+000 -1.130173e+000 47 40 44
7.290922e+000 -2.719832e+000 -1.034122e+000 51 40 46
6.611424e+000 -2.769663e+000 -2.494425e-001 40 26 17
7.252871e+000 -2.911094e+000 -8.232303e-001 48 34 33
5.544561e+000 -3.470423e+000 -7.839459e-001 109 101 91
7.834362e+000 -3.085680e+000 -6.295194e-001 80 63 52
7.788390e+000 -3.104399e+000 -6.169461e-001 81 66 58
6.562172e+000 -3.304506e+000 4.850354e-002 58 51 43
7.719328e+000 -3.305760e+000 -6.413581e-001 46 36 34
6.605187e+000 -3.413985e+000 6.191537e-002 90 83 79
7.856574e+000 -3.662465e+000 -5.079973e-001 119 110 103
7.895756e+000 -3.770220e+000 -5.059533e-001 81 68 60
7.639509e+000 -2.196005e+000 -1.503321e+000 103 84 54
7.321548e+000 -2.557317e+000 -1.271053e+000 52 41 46
7.308297e+000 -2.628786e+000 -1.165253e+000 48 34 41
7.530353e+000 -2.470862e+000 -8.462422e-001 87 72 59
6.358993e+000 -2.751615e+000 -2.647053e-001 122 116 107
7.769178e+000 -3.327147e+000 -7.004207e-001 100 95 92
6.710082e+000 -3.361250e+000 1.571829e-002 95 85 73
7.837329e+000 -3.271235e+000 -4.093359e-001 98 94 92
7.911141e+000 -3.486167e+000 -7.000764e-001 105 101 100
7.922511e+000 -3.298629e+000 -3.784218e-001 178 204 212
7.288940e+000 -2.537339e+000 -1.457070e+000 105 98 106
7.281492e+000 -2.528352e+000 -1.404740e+000 105 98 106
7.273642e+000 -2.625524e+000 -1.221678e+000 87 81 90
7.915273e+000 -2.576051e+000 -9.420801e-001 90 73 56
5.614513e+000 -3.420447e+000 -7.357041e-001 124 117 108
7.858946e+000 -4.005226e+000 -6.997981e-001 72 52 43
7.247665e+000 -2.673741e+000 -1.353307e+000 43 30 27
7.247665e+000 -2.673741e+000 -1.353307e+000 43 30 27
7.304102e+000 -2.589266e+000 -1.171700e+000 47 41 45
7.860703e+000 -3.249501e+000 -6.723560e-001 52 41 40
7.916578e+000 -2.725630e+000 -8.765025e-001 88 72 46
8.098343e+000 -3.234895e+000 -2.285427e-001 161 175 176
7.927276e+000 -3.915211e+000 -5.953516e-001 79 62 54
7.786244e+000 -2.543895e+000 -9.439642e-001 93 75 55
8.812511e+000 -2.966644e+000 -9.653919e-001 165 155 106
8.021318e+000 -3.354804e+000 -3.838860e-001 163 172 179
5.933010e+000 -3.276746e+000 -1.981243e-001 81 82 82
7.475906e+000 -3.412239e+000 -6.672638e-001 78 63 58
7.927706e+000 -3.774004e+000 -4.962066e-001 115 99 86
7.364732e+000 -2.377231e+000 -8.587325e-001 64 50 41
6.106746e+000 -2.866061e+000 -2.775004e-001 123 119 116
6.172199e+000 -2.832458e+000 -2.741136e-001 109 108 103
6.423124e+000 -3.134726e+000 1.994185e-002 137 144 135
7.360601e+000 -2.390380e+000 -7.663039e-001 74 55 48
7.360601e+000 -2.390380e+000 -7.663039e-001 74 55 48
6.488783e+000 -2.702934e+000 -2.919773e-001 69 58 57
6.330753e+000 -2.765178e+000 -2.546772e-001 69 65 56
7.878462e+000 -2.580731e+000 -9.511542e-001 72 54 40
7.878462e+000 -2.580731e+000 -9.511542e-001 72 54 40
6.193196e+000 -3.094152e+000 -3.919161e-002 126 124 112
6.440628e+000 -3.153088e+000 1.399023e-002 81 74 69
7.568098e+000 -3.081243e+000 -5.812429e-001 81 67 64
7.568098e+000 -3.081243e+000 -5.812429e-001 81 67 64
7.796985e+000 -3.035585e+000 -6.173254e-001 62 47 40
8.373917e+000 -3.188440e+000 -2.882858e-001 54 37 23
7.278122e+000 -2.697866e+000 -1.096474e+000 75 66 71
7.232420e+000 -2.789798e+000 -1.088066e+000 61 46 46
8.647515e+000 -2.488929e+000 -1.201930e+000 147 128 86
8.679999e+000 -2.467199e+000 -1.181157e+000 136 122 77
6.309068e+000 -3.026516e+000 -8.281262e-004 96 93 84
7.533528e+000 -3.059293e+000 -5.783487e-001 60 46 39
6.699327e+000 -3.098420e+000 -3.510337e-002 43 33 23
6.724134e+000 -3.103566e+000 -9.150450e-003 88 82 71
6.207588e+000 -2.961256e+000 -1.111174e-001 121 121 110
6.472165e+000 -3.061270e+000 8.228389e-003 110 105 99
6.638098e+000 -3.058063e+000 -6.716053e-003 49 38 34
6.280369e+000 -3.464257e+000 1.584558e-001 62 53 56
8.115825e+000 -2.759113e+000 -9.307825e-001 129 122 111
7.926261e+000 -2.832440e+000 -7.578824e-001 60 46 35
7.679386e+000 -2.424771e+000 -9.199488e-001 97 78 64
7.696424e+000 -2.429503e+000 -9.156261e-001 68 49 34
7.698284e+000 -2.774854e+000 -7.302252e-001 60 47 31
7.879523e+000 -2.771607e+000 -8.447777e-001 92 75 57
8.163723e+000 -3.082183e+000 -9.259969e-001 73 65 55
7.258308e+000 -3.390751e+000 -6.479798e-001 61 50 44
7.367995e+000 -2.381175e+000 -8.648398e-001 63 53 44
7.266579e+000 -2.643214e+000 -1.561264e+000 54 40 28
8.805017e+000 -2.613119e+000 -8.543596e-001 173 161 113
7.687464e+000 -2.920819e+000 -6.364174e-001 60 43 33
6.980166e+000 -3.212970e+000 -5.429724e-001 51 31 20
6.648666e+000 -3.204849e+000 1.047537e-002 86 77 72
7.874750e+000 -3.533161e+000 -4.340812e-001 101 89 83
7.914477e+000 -3.551513e+000 -3.914303e-001 95 82 74
7.641305e+000 -2.548506e+000 -3.449921e-001 59 41 31
8.840985e+000 -2.544357e+000 -8.327279e-001 144 126 83
7.064228e+000 -2.765637e+000 -1.549749e+000 147 128 86
7.064228e+000 -2.765637e+000 -1.549749e+000 147 128 86
8.529823e+000 -2.571038e+000 -8.944243e-001 161 148 96
7.279568e+000 -2.546857e+000 -1.296630e+000 98 93 97
6.518339e+000 -2.698300e+000 -2.886938e-001 48 39 33
7.491997e+000 -2.643572e+000 -7.268597e-001 93 76 68
7.494776e+000 -2.647113e+000 -7.375774e-001 93 76 68
7.258096e+000 -2.757009e+000 -6.087888e-001 69 59 60
8.082541e+000 -2.674560e+000 -9.517328e-001 54 39 32
6.226497e+000 -3.007781e+000 -4.437317e-002 149 150 142
7.652020e+000 -2.884112e+000 -6.307203e-001 79 65 52
6.405093e+000 -3.028876e+000 3.399187e-003 81 78 71
7.696073e+000 -2.929032e+000 -6.651165e-001 60 43 36
7.518280e+000 -3.243563e+000 -6.497703e-001 71 57 51
6.366256e+000 -3.298210e+000 3.162583e-002 63 52 46
6.840334e+000 -3.299921e+000 -5.979259e-002 50 38 26
8.020750e+000 -3.159474e+000 -3.720884e-001 105 92 75
7.211158e+000 -2.281151e+000 2.971506e-001 68 53 48
7.482152e+000 -2.528619e+000 -7.943155e-001 89 72 62
7.676253e+000 -2.511008e+000 -8.779424e-001 60 43 33
7.646510e+000 -2.596604e+000 -8.135071e-001 89 71 58
7.247401e+000 -2.814466e+000 -6.246908e-001 113 111 112
7.284382e+000 -2.902902e+000 -5.991332e-001 52 38 35
7.757803e+000 -2.891310e+000 -7.141802e-001 83 67 52
6.711172e+000 -3.355173e+000 2.372714e-002 101 91 79
5.851323e+000 -3.402744e+000 -5.437314e-002 39 37 51
8.139264e+000 -2.904633e+000 -9.127369e-001 89 78 76
6.525855e+000 -3.193375e+000 3.391109e-002 124 120 113
6.556181e+000 -3.156788e+000 2.164666e-002 78 72 63
7.918949e+000 -3.220958e+000 -4.612851e-001 103 97 91
6.512214e+000 -3.394705e+000 1.045973e-001 57 47 45
6.605255e+000 -3.500090e+000 2.071463e-001 70 58 45
7.694880e+000 -3.979048e+000 -7.892453e-001 79 67 52
7.316120e+000 -2.283653e+000 -9.275207e-001 79 70 73
7.294392e+000 -2.524137e+000 -1.295205e+000 59 47 47
6.228218e+000 -2.813306e+000 -2.579071e-001 71 66 63
7.191964e+000 -2.862510e+000 -9.398549e-001 55 41 44
6.273197e+000 -2.873565e+000 -1.404543e-001 75 73 68
6.440187e+000 -2.838785e+000 -6.956008e-002 85 67 55
7.675652e+000 -2.945549e+000 -6.413990e-001 81 66 59
6.327082e+000 -3.080374e+000 1.782225e-002 149 155 145
6.731253e+000 -3.219395e+000 -1.193289e-003 82 69 58
7.892434e+000 -3.501607e+000 -6.703086e-001 56 48 45
7.904850e+000 -3.273954e+000 -4.470702e-001 117 105 107
7.526873e+000 -3.908057e+000 -9.543135e-001 70 54 38
7.894293e+000 -3.564314e+000 -6.711095e-001 55 49 43
6.404175e+000 -3.477916e+000 2.107361e-001 79 71 68
8.892984e+000 -4.019499e+000 -5.472382e-001 156 139 93
7.333035e+000 -2.421252e+000 -1.492146e+000 114 105 110
7.600568e+000 -2.421736e+000 -8.779884e-001 67 51 38
6.180635e+000 -2.854462e+000 -2.300042e-001 126 126 118
6.314222e+000 -2.775177e+000 -2.390955e-001 128 129 121
5.891478e+000 -3.016509e+000 -3.072821e-001 159 157 156
6.010419e+000 -2.970600e+000 -2.015418e-001 149 152 145
6.387651e+000 -2.787675e+000 -2.116434e-001 59 49 40
5.968456e+000 -3.045740e+000 -2.427106e-001 120 119 114
6.406760e+000 -2.833202e+000 -1.674563e-001 82 79 70
7.266495e+000 -2.823036e+000 -5.993199e-001 60 49 43
7.295213e+000 -2.807417e+000 -6.203174e-001 80 70 61
6.465270e+000 -2.850590e+000 -3.853172e-002 62 47 40
6.108447e+000 -3.058227e+000 -9.897358e-002 140 142 141
6.107936e+000 -3.058718e+000 -9.938464e-002 140 142 141
6.193353e+000 -3.094359e+000 -4.026677e-002 133 130 123
7.546099e+000 -3.261058e+000 -6.182329e-001 35 21 17
7.558262e+000 -3.235556e+000 -6.301433e-001 75 64 60
7.897535e+000 -3.331762e+000 -6.868313e-001 104 98 94
7.890632e+000 -3.215266e+000 -5.468562e-001 158 178 184
6.570294e+000 -3.344084e+000 6.455421e-002 57 48 42
6.605169e+000 -3.403995e+000 7.258863e-002 102 97 89
7.867099e+000 -3.581513e+000 -4.938482e-001 112 104 101
6.397205e+000 -2.720993e+000 -2.775010e-001 50 41 39
6.279958e+000 -2.792611e+000 -2.464482e-001 57 50 47
5.541193e+000 -3.375085e+000 -6.934683e-001 150 143 145
5.852662e+000 -3.052620e+000 -3.336477e-001 96 89 81
6.228244e+000 -2.870801e+000 -2.152309e-001 68 67 62
5.999221e+000 -3.165557e+000 -1.738645e-001 130 134 131
6.144664e+000 -3.063964e+000 -7.862366e-002 137 137 129
6.398586e+000 -2.919555e+000 -2.400804e-002 92 87 81
5.914323e+000 -3.270345e+000 -1.920057e-001 57 48 53
5.912994e+000 -3.293001e+000 -1.382877e-001 45 43 48
6.018407e+000 -3.219330e+000 -9.440418e-002 67 63 64
8.153210e+000 -3.003236e+000 -9.186720e-001 47 36 30
6.201339e+000 -3.214562e+000 -2.670742e-002 58 57 52
6.320535e+000 -3.265048e+000 3.148569e-002 98 95 90
6.542539e+000 -3.323727e+000 7.736274e-002 118 115 108
6.589710e+000 -3.300040e+000 5.859847e-002 85 81 72
6.611707e+000 -3.328271e+000 5.575514e-002 47 37 36
6.450760e+000 -3.397115e+000 8.077099e-002 48 44 45
6.514783e+000 -3.364059e+000 7.802500e-002 48 40 39
6.661199e+000 -3.344612e+000 4.667422e-002 45 36 29
7.921882e+000 -3.299357e+000 -3.774876e-001 176 195 205
6.351701e+000 -2.776456e+000 -2.246265e-001 75 64 60
6.231947e+000 -2.931603e+000 -1.464141e-001 83 74 65
6.288062e+000 -2.920948e+000 -3.739861e-002 138 145 138
6.462586e+000 -2.932650e+000 6.491390e-004 103 96 88
6.462586e+000 -2.932650e+000 6.491390e-004 103 96 88
6.097056e+000 -3.128675e+000 -7.666443e-002 131 132 126
6.114012e+000 -3.194582e+000 -5.754494e-002 126 131 120
6.148179e+000 -3.255668e+000 -4.360773e-002 49 44 43
6.329591e+000 -3.172653e+000 1.837638e-002 154 156 142
7.995313e+000 -3.080372e+000 -7.444448e-001 41 27 20
6.836710e+000 -3.157458e+000 -8.657420e-002 81 61 50
7.535023e+000 -3.897833e+000 -8.823861e-001 160 142 93
7.970297e+000 -3.275238e+000 -3.769968e-001 108 106 110
7.874749e+000 -3.518787e+000 -4.663825e-001 134 132 133
6.323403e+000 -3.622059e+000 3.480332e-001 58 47 53
6.565150e+000 -2.666913e+000 -3.552462e-001 34 23 19
6.551433e+000 -2.761380e+000 -3.038558e-001 37 28 23
6.159708e+000 -2.952512e+000 -1.475081e-001 61 56 52
6.633948e+000 -2.947619e+000 -5.933941e-002 76 61 52
6.147576e+000 -3.254504e+000 -3.455159e-002 65 57 55
6.197372e+000 -3.272357e+000 -3.406022e-002 134 139 132
6.795480e+000 -3.093743e+000 -9.584783e-002 71 59 43
6.687809e+000 -3.302460e+000 1.709327e-002 56 46 37
7.729629e+000 -3.811263e+000 -6.701422e-001 84 71 63
6.999154e+000 -3.851436e+000 -2.494510e-001 155 133 84
6.242544e+000 -2.889867e+000 -1.603370e-001 111 112 104
6.882429e+000 -2.988837e+000 -4.020502e-001 69 46 30
5.969867e+000 -3.220673e+000 -1.237585e-001 136 135 133
5.967131e+000 -3.279593e+000 -8.435410e-002 53 48 53
7.873374e+000 -3.050163e+000 -6.624388e-001 90 74 60
7.758061e+000 -3.317606e+000 -6.237125e-001 87 79 77
6.300801e+000 -3.427789e+000 1.103490e-001 30 21 26
6.071696e+000 -3.002475e+000 -1.703564e-001 113 118 111
7.895913e+000 -3.227080e+000 -5.230311e-001 100 95 94
6.216296e+000 -3.626617e+000 3.247015e-001 26 17 22
7.970646e+000 -3.743403e+000 -4.950052e-001 86 72 63
7.902627e+000 -3.022044e+000 -7.812815e-001 85 74 55
5.811060e+000 -2.815069e+000 -3.217469e-001 47 30 36
8.983665e+000 -3.210581e+000 -5.570204e-001 174 161 116
7.898334e+000 -3.284784e+000 -4.228805e-001 187 209 213
7.599299e+000 -2.418308e+000 -8.718405e-001 70 52 41
6.466597e+000 -2.894745e+000 -1.966619e-002 61 53 45
7.515353e+000 -2.632569e+000 -7.544679e-001 71 54 46
7.500242e+000 -2.745531e+000 -6.782160e-001 68 53 46
7.820745e+000 -2.645586e+000 -8.731051e-001 90 71 54
8.942972e+000 -2.304593e+000 -7.461611e-001 153 141 91
6.423402e+000 -2.859269e+000 -4.506317e-002 88 85 78
8.081245e+000 -1.815163e+000 -2.155808e+000 140 125 86
7.629117e+000 -2.453211e+000 -8.491794e-001 90 74 61
6.287565e+000 -2.755653e+000 -2.825260e-001 138 144 137
7.900315e+000 -3.512787e+000 -6.878290e-001 56 48 45
7.474791e+000 -2.483093e+000 -8.462608e-001 91 75 62
6.080565e+000 -2.898767e+000 -2.464437e-001 133 132 130
6.104455e+000 -2.881236e+000 -2.518342e-001 72 69 62
6.439105e+000 -2.828052e+000 -1.367844e-001 63 51 46
6.143353e+000 -3.063764e+000 -7.860404e-002 137 137 129
7.285860e+000 -3.309693e+000 -7.185302e-001 44 33 31
7.285693e+000 -3.309913e+000 -7.190089e-001 44 33 31
6.634191e+000 -3.395811e+000 5.355799e-002 69 60 51
6.446569e+000 -2.873089e+000 -4.074730e-002 118 116 107
8.717787e+000 -2.734178e+000 -1.107971e+000 135 121 76
6.861295e+000 -3.019796e+000 -3.586208e-001 32 21 17
6.394098e+000 -3.231689e+000 4.226080e-002 135 137 132
8.932456e+000 -2.960101e+000 -7.288932e-001 143 126 77
8.054458e+000 -3.170339e+000 -3.379149e-001 109 96 84
6.308549e+000 -2.995900e+000 -1.935439e-002 128 128 120
7.404826e+000 -2.943705e+000 -5.715578e-001 80 69 65
8.750580e+000 -2.694322e+000 -1.047449e+000 138 119 79
6.054507e+000 -3.244243e+000 -7.361382e-002 145 148 143
6.164726e+000 -2.239244e+000 -3.274720e-001 79 63 71
8.521032e+000 -2.951111e+000 -1.255218e+000 62 46 34
7.379086e+000 -2.201431e+000 -9.817002e-001 111 102 102
6.261212e+000 -2.812679e+000 -2.099711e-001 134 137 130
5.585861e+000 -3.448760e+000 -6.362961e-001 173 165 158
5.608770e+000 -3.416377e+000 -5.691487e-001 101 93 92
5.597777e+000 -3.461218e+000 -6.621231e-001 82 69 61
6.337738e+000 -2.816937e+000 -2.065056e-001 56 49 44
6.337738e+000 -2.816937e+000 -2.065056e-001 56 49 44
5.578218e+000 -3.622852e+000 -5.963692e-001 167 166 158
5.691336e+000 -3.529113e+000 -6.644892e-001 37 33 32
6.207590e+000 -2.929543e+000 -1.187912e-001 92 88 77
5.998966e+000 -3.220279e+000 -1.086602e-001 131 130 126
6.390608e+000 -2.900543e+000 -3.727188e-002 50 42 39
7.931159e+000 -2.789916e+000 -8.181008e-001 69 51 39
5.928233e+000 -3.331579e+000 -3.863520e-002 90 94 102
6.459942e+000 -3.144074e+000 4.146393e-002 135 133 121
6.525194e+000 -3.079795e+000 2.114092e-002 62 54 48
6.575200e+000 -3.093345e+000 -1.897395e-002 112 109 100
6.586715e+000 -3.117932e+000 7.721805e-003 59 55 48
7.633912e+000 -3.064171e+000 -5.504382e-001 110 103 96
6.662084e+000 -3.136415e+000 -5.846116e-003 59 51 39
6.857783e+000 -3.273128e+000 -5.171337e-002 113 99 88
6.670911e+000 -3.412429e+000 1.234360e-002 107 96 86
7.602869e+000 -2.225710e+000 -1.665672e+000 99 87 90
7.341250e+000 -2.454870e+000 -1.629385e+000 104 94 93
7.340589e+000 -2.454816e+000 -1.621596e+000 104 94 93
7.316144e+000 -2.243209e+000 -1.000209e+000 82 72 75
7.944934e+000 -2.598940e+000 -1.604551e+000 62 43 29
7.269463e+000 -2.701398e+000 -9.811070e-001 65 54 57
7.542354e+000 -2.497110e+000 -8.518154e-001 62 45 37
5.532538e+000 -3.452655e+000 -7.213192e-001 90 77 83
6.194100e+000 -2.815477e+000 -2.565301e-001 70 65 62
6.417100e+000 -2.746216e+000 -2.561958e-001 109 100 95
5.604272e+000 -3.474255e+000 -6.407168e-001 136 131 122
5.620109e+000 -3.481352e+000 -6.516599e-001 64 51 43
6.037077e+000 -2.990488e+000 -1.991164e-001 154 155 147
6.231291e+000 -2.880721e+000 -1.784035e-001 145 149 135
6.353997e+000 -2.805523e+000 -2.373560e-001 59 59 44
6.407121e+000 -2.807416e+000 -1.901063e-001 120 116 110
6.407121e+000 -2.807416e+000 -1.901063e-001 120 116 110
6.536951e+000 -2.778907e+000 -2.286526e-001 56 47 38
5.642180e+000 -3.543621e+000 -6.583163e-001 65 52 44
5.858357e+000 -3.214038e+000 -2.629772e-001 36 42 60
6.307071e+000 -2.857208e+000 -1.211400e-001 48 47 45
7.702646e+000 -2.718599e+000 -7.819903e-001 62 46 33
5.805647e+000 -3.280866e+000 -1.790879e-001 76 96 116
6.229328e+000 -2.940095e+000 -7.695644e-002 141 138 129
6.271345e+000 -2.929858e+000 -4.837569e-002 92 93 85
6.399744e+000 -2.855675e+000 -8.595218e-002 61 60 58
5.649821e+000 -3.528119e+000 -3.642735e-001 82 81 88
5.948320e+000 -3.244665e+000 -1.539364e-001 90 90 92
6.144600e+000 -3.105464e+000 -5.433299e-002 163 166 159
6.296936e+000 -2.940532e+000 -2.362165e-002 109 109 104
6.399661e+000 -2.925688e+000 -1.679337e-002 105 105 97
6.415740e+000 -2.913301e+000 3.622615e-004 53 43 41
6.424997e+000 -2.930129e+000 2.628671e-003 100 94 86
6.435386e+000 -2.859759e+000 -6.960418e-003 79 70 61
6.448854e+000 -2.910029e+000 -1.798859e-002 39 34 29
5.910314e+000 -3.311163e+000 -1.053816e-001 251 253 254
5.910263e+000 -3.311959e+000 -1.068886e-001 251 253 254
6.372904e+000 -3.009399e+000 1.491964e-002 139 137 128
6.415959e+000 -2.972103e+000 6.735180e-003 128 122 110
6.517844e+000 -2.903659e+000 -1.629973e-002 88 79 72
7.949005e+000 -2.920382e+000 -8.685224e-001 60 46 33
7.945845e+000 -2.879404e+000 -8.361619e-001 100 87 71
6.499474e+000 -3.025761e+000 -5.305593e-003 108 99 93
8.139964e+000 -2.950788e+000 -8.003558e-001 126 120 108
6.377798e+000 -3.187608e+000 2.311261e-002 149 158 154
6.556855e+000 -3.085562e+000 8.652419e-003 111 107 98
6.591676e+000 -3.071710e+000 -2.106145e-002 126 119 113
6.396290e+000 -3.262531e+000 4.853675e-002 62 53 48
6.539228e+000 -3.199364e+000 4.167771e-002 69 64 57
6.629996e+000 -3.177718e+000 -4.349742e-003 98 90 77
6.629245e+000 -3.161497e+000 1.258545e-002 98 90 77
7.897096e+000 -3.248787e+000 -6.739396e-001 81 72 65
6.758143e+000 -3.287174e+000 4.749485e-003 59 51 38
7.937817e+000 -3.181344e+000 -5.483142e-001 71 54 46
6.722195e+000 -3.380507e+000 2.950509e-002 53 39 31
8.920813e+000 -3.127081e+000 -7.856510e-001 128 119 88
6.877289e+000 -4.123188e+000 5.556763e-002 142 114 103
6.938624e+000 -4.136749e+000 1.089563e-001 164 143 100
7.525908e+000 -2.261191e+000 -1.660619e+000 126 114 118
7.303062e+000 -2.580419e+000 -1.264131e+000 77 66 68
7.293589e+000 -2.465607e+000 -8.627850e-001 65 55 59
7.429526e+000 -2.415489e+000 -8.531525e-001 60 41 34
7.436787e+000 -2.439832e+000 -8.354808e-001 55 41 32
5.555938e+000 -3.405681e+000 -7.075538e-001 70 52 50
6.174013e+000 -2.809363e+000 -2.796448e-001 45 39 39
6.409674e+000 -2.716213e+000 -2.874552e-001 49 39 36
7.570459e+000 -2.478374e+000 -8.632620e-001 64 48 35
5.942684e+000 -2.986810e+000 -2.705472e-001 157 160 158
6.055641e+000 -2.890958e+000 -2.505035e-001 130 129 124
6.055641e+000 -2.890958e+000 -2.505035e-001 130 129 124
6.105909e+000 -2.873316e+000 -2.859120e-001 127 119 116
6.111766e+000 -2.899513e+000 -2.341780e-001 162 166 165
6.111766e+000 -2.899513e+000 -2.341780e-001 162 166 165
6.173682e+000 -2.847334e+000 -2.620904e-001 54 44 39
6.200386e+000 -2.843377e+000 -2.418627e-001 62 56 51
6.242314e+000 -2.836747e+000 -2.069587e-001 151 155 148
6.556200e+000 -2.709648e+000 -2.983829e-001 112 107 101
6.640021e+000 -2.700685e+000 -3.868017e-001 68 54 43
6.015711e+000 -3.030759e+000 -2.088430e-001 130 130 118
6.173983e+000 -2.888276e+000 -1.873848e-001 146 149 140
6.175483e+000 -2.880634e+000 -1.778783e-001 146 149 140
6.156561e+000 -2.944110e+000 -2.000935e-001 65 54 51
6.200687e+000 -2.907856e+000 -1.703683e-001 66 63 56
6.270009e+000 -2.857615e+000 -1.576454e-001 147 150 142
6.520561e+000 -2.780487e+000 -2.184838e-001 112 108 100
7.269911e+000 -2.860554e+000 -9.417582e-001 52 40 42
7.663971e+000 -2.574232e+000 -8.146234e-001 71 53 40
7.680511e+000 -2.632117e+000 -8.030802e-001 70 53 41
7.680511e+000 -2.632117e+000 -8.030802e-001 70 53 41
5.626621e+000 -3.572897e+000 -6.520842e-001 69 58 52
6.223966e+000 -2.911428e+000 -1.370476e-001 84 80 71
6.224213e+000 -2.907472e+000 -1.320653e-001 84 80 71
6.356726e+000 -2.858594e+000 -1.431991e-001 100 104 102
7.331670e+000 -2.751964e+000 -6.398884e-001 83 72 64
7.513863e+000 -2.753493e+000 -8.057008e-001 60 46 36
7.651347e+000 -2.682364e+000 -7.925524e-001 67 53 40
5.564226e+000 -3.592211e+000 -4.612844e-001 91 88 106
6.109512e+000 -3.065013e+000 -1.623475e-001 121 120 112
6.566703e+000 -2.824614e+000 -1.592263e-001 40 25 20
7.276526e+000 -2.869448e+000 -6.060304e-001 82 69 63
6.246619e+000 -3.009485e+000 -1.794003e-002 158 170 163
6.859751e+000 -2.975756e+000 -3.195150e-001 31 17 14
7.252419e+000 -2.946259e+000 -6.047369e-001 44 36 32
7.713309e+000 -2.824119e+000 -7.128180e-001 66 48 42
7.765448e+000 -2.775087e+000 -7.468473e-001 88 71 61
5.833348e+000 -3.368401e+000 -9.534485e-002 79 86 103
5.921692e+000 -3.296559e+000 -5.972999e-002 44 45 49
6.045928e+000 -3.220817e+000 -8.143034e-002 139 139 134
6.530202e+000 -2.924529e+000 -1.925177e-002 44 31 25
7.648671e+000 -2.868202e+000 -6.417920e-001 90 78 64
7.667380e+000 -2.859947e+000 -6.260918e-001 58 44 33
7.740463e+000 -2.906759e+000 -7.316944e-001 57 43 30
7.740463e+000 -2.906759e+000 -7.316944e-001 57 43 30
5.887270e+000 -3.348257e+000 -5.909072e-002 26 31 37
6.243110e+000 -3.186962e+000 -1.517183e-002 95 95 84
6.375723e+000 -3.102903e+000 3.217775e-002 143 143 133
7.324121e+000 -3.228395e+000 -7.303415e-001 38 27 25
6.310913e+000 -3.209058e+000 1.323910e-002 168 169 164
6.404292e+000 -3.179243e+000 2.692751e-002 136 139 132
6.448046e+000 -3.138496e+000 3.017091e-002 82 75 66
6.666466e+000 -3.057965e+000 -2.908362e-002 42 30 24
6.666822e+000 -3.064046e+000 -3.580560e-002 42 30 24
7.355925e+000 -3.300942e+000 -7.202628e-001 41 28 22
7.647935e+000 -3.056900e+000 -5.688049e-001 51 41 32
6.569336e+000 -3.196882e+000 3.623620e-002 106 105 93
6.676030e+000 -3.139388e+000 -2.457874e-002 100 97 85
7.657955e+000 -3.228368e+000 -5.852142e-001 47 33 30
7.898894e+000 -3.177179e+000 -6.175203e-001 70 52 47
8.067604e+000 -3.176800e+000 -6.443305e-001 126 113 105
6.570400e+000 -3.340491e+000 6.901841e-002 58 49 42
7.890760e+000 -3.386065e+000 -7.149536e-001 64 51 49
7.890391e+000 -3.436834e+000 -6.893279e-001 69 59 54
7.956916e+000 -3.167173e+000 -5.006925e-001 102 85 69
7.892992e+000 -3.252187e+000 -4.714983e-001 124 108 111
6.120776e+000 -3.651587e+000 2.029009e-001 32 22 30
7.957787e+000 -3.277794e+000 -3.291747e-001 157 165 170
6.087705e+000 -3.767126e+000 3.604964e-001 34 17 25
7.532798e+000 -2.297200e+000 -1.793521e+000 81 68 63
7.305129e+000 -2.598422e+000 -1.070597e+000 45 35 37
7.328557e+000 -2.497272e+000 -9.123255e-001 96 91 97
7.367023e+000 -2.379969e+000 -8.593674e-001 66 48 41
7.356344e+000 -2.489644e+000 -9.302007e-001 68 50 49
7.368864e+000 -2.464350e+000 -8.147094e-001 88 73 68
7.413796e+000 -2.444439e+000 -8.571803e-001 85 72 64
7.490988e+000 -2.455813e+000 -8.275733e-001 65 51 38
7.490988e+000 -2.455813e+000 -8.275733e-001 65 51 38
7.645614e+000 -2.395440e+000 -9.013808e-001 70 52 42
6.044342e+000 -2.858325e+000 -2.894066e-001 111 103 101
6.134703e+000 -2.831413e+000 -2.514526e-001 54 44 42
6.131899e+000 -2.850085e+000 -2.764866e-001 54 44 42
7.200379e+000 -2.783726e+000 -9.882984e-001 43 29 30
7.409092e+000 -2.519969e+000 -8.140388e-001 62 47 42
6.011124e+000 -2.969345e+000 -2.397815e-001 72 64 58
6.094955e+000 -2.918140e+000 -2.317212e-001 50 41 37
6.161059e+000 -2.864360e+000 -2.175982e-001 68 62 58
6.161059e+000 -2.864360e+000 -2.175982e-001 68 62 58
6.330939e+000 -2.804784e+000 -2.409746e-001 62 57 48
6.637775e+000 -2.693340e+000 -2.965028e-001 67 50 45
6.505686e+000 -2.793085e+000 -2.139440e-001 56 47 38
5.930988e+000 -3.114623e+000 -2.572142e-001 42 34 40
6.299183e+000 -2.857913e+000 -1.468631e-001 128 133 127
6.447778e+000 -2.819816e+000 -1.855317e-001 94 90 87
6.447778e+000 -2.819816e+000 -1.855317e-001 94 90 87
6.632449e+000 -2.822709e+000 -2.429145e-001 64 46 32
7.477807e+000 -2.748614e+000 -7.059644e-001 87 76 67
7.501633e+000 -2.672528e+000 -7.038088e-001 95 83 67
6.134710e+000 -3.011134e+000 -1.210097e-001 85 85 77
6.545819e+000 -2.832517e+000 -1.414559e-001 61 46 39
6.545819e+000 -2.832517e+000 -1.414559e-001 61 46 39
5.934588e+000 -3.276228e+000 -1.575242e-001 118 116 117
6.032727e+000 -3.175237e+000 -1.282994e-001 73 69 66
6.145286e+000 -3.069735e+000 -8.436937e-002 155 152 147
6.139460e+000 -3.095776e+000 -7.446744e-002 101 98 89
6.171543e+000 -3.069799e+000 -4.838530e-002 84 82 79
6.346925e+000 -2.910794e+000 -1.291556e-002 89 87 80
6.450079e+000 -2.871730e+000 -2.990085e-002 135 131 117
7.277310e+000 -2.951025e+000 -6.068986e-001 75 61 58
7.401288e+000 -2.932162e+000 -6.106100e-001 62 48 45
5.730769e+000 -3.543281e+000 -2.937157e-001 129 128 124
6.101211e+000 -3.159341e+000 -6.466237e-002 76 63 63
6.174631e+000 -3.143018e+000 -2.933403e-002 161 158 151
6.237779e+000 -3.062853e+000 -1.990403e-002 147 148 140
5.789421e+000 -3.432774e+000 -9.931752e-002 53 57 63
5.828908e+000 -3.380435e+000 -5.759028e-002 248 254 254
5.946126e+000 -3.302989e+000 -4.742572e-002 203 251 255
5.946126e+000 -3.302989e+000 -4.742572e-002 203 251 255
6.248542e+000 -3.205575e+000 -7.183400e-003 123 122 119
6.481346e+000 -3.060068e+000 -1.066683e-002 125 120 110
7.271073e+000 -3.254012e+000 -7.087489e-001 31 25 21
6.534115e+000 -3.110787e+000 8.980763e-003 127 124 119
6.534123e+000 -3.123679e+000 -4.744376e-003 127 124 119
7.038126e+000 -3.393832e+000 -6.397896e-001 79 60 46
7.487992e+000 -3.100480e+000 -5.536303e-001 58 45 36
7.607700e+000 -3.199455e+000 -6.592401e-001 88 77 73
7.577813e+000 -3.041991e+000 -5.385775e-001 62 53 44
7.582125e+000 -3.216885e+000 -6.385205e-001 54 43 37
7.751671e+000 -3.135429e+000 -6.271156e-001 95 82 75
6.629085e+000 -3.189442e+000 1.831082e-002 51 41 39
7.893034e+000 -3.213344e+000 -5.460437e-001 157 188 193
7.918460e+000 -3.241980e+000 -5.434025e-001 107 99 90
6.754253e+000 -3.361922e+000 -4.743591e-003 57 45 31
7.540925e+000 -3.805452e+000 -8.503343e-001 53 36 31
7.909447e+000 -3.537196e+000 -6.714450e-001 89 84 81
7.141029e+000 -3.767116e+000 -4.635625e-001 166 147 96
7.892245e+000 -3.391191e+000 -4.302527e-001 115 105 103
7.917711e+000 -3.328598e+000 -3.700457e-001 128 113 107
8.005081e+000 -3.173270e+000 -3.377226e-001 97 90 80
7.905073e+000 -3.406457e+000 -3.768406e-001 108 101 90
7.950516e+000 -3.408708e+000 -3.867274e-001 110 102 99
8.039457e+000 -3.204218e+000 -2.707814e-001 185 201 214
8.034359e+000 -3.242093e+000 -2.403732e-001 161 168 175
7.979727e+000 -3.600905e+000 -4.138650e-001 133 124 115
5.735345e+000 -2.518522e+000 -3.584057e-001 43 25 37
7.320679e+000 -2.473270e+000 -1.621467e+000 71 53 53
7.338390e+000 -2.431245e+000 -1.514432e+000 117 107 115
7.304920e+000 -2.476450e+000 -1.498101e+000 112 99 110
7.340418e+000 -2.261899e+000 -9.621723e-001 136 134 135
6.123920e+000 -2.800433e+000 -3.001612e-001 45 35 34
6.222687e+000 -2.721839e+000 -2.057915e-001 104 99 95
6.422259e+000 -2.704394e+000 -2.911532e-001 117 114 99
6.422259e+000 -2.704394e+000 -2.911532e-001 117 114 99
5.649520e+000 -3.307389e+000 -5.950072e-001 120 117 110
5.990197e+000 -2.959940e+000 -2.772506e-001 123 120 113
6.391586e+000 -2.741189e+000 -2.048721e-001 116 113 106
5.605417e+000 -3.545288e+000 -6.523158e-001 152 144 141
6.320017e+000 -2.837288e+000 -1.627046e-001 72 60 56
6.320017e+000 -2.837288e+000 -1.627046e-001 72 60 56
6.610808e+000 -2.764085e+000 -2.426632e-001 41 21 22
7.608052e+000 -2.656673e+000 -7.709634e-001 91 75 62
8.809322e+000 -2.290609e+000 -9.366098e-001 151 139 89
6.531481e+000 -2.841331e+000 -9.910220e-002 39 25 22
6.838548e+000 -2.936377e+000 -4.146524e-001 34 22 26
5.738072e+000 -3.455752e+000 -2.884513e-001 116 114 117
5.857783e+000 -3.256591e+000 -1.546506e-001 49 44 51
6.038601e+000 -3.184440e+000 -9.984438e-002 139 135 132
6.038601e+000 -3.184440e+000 -9.984438e-002 139 135 132
6.231211e+000 -3.037414e+000 -2.457349e-002 57 56 53
6.514047e+000 -2.881747e+000 -7.059891e-002 42 28 26
6.134643e+000 -3.147280e+000 -6.213129e-002 56 46 44
6.302620e+000 -3.034381e+000 -8.761538e-003 100 97 92
6.302620e+000 -3.034381e+000 -8.761538e-003 100 97 92
6.493532e+000 -2.936883e+000 -1.404238e-003 55 41 38
5.859189e+000 -3.372436e+000 -2.760735e-002 30 34 45
6.512820e+000 -3.046286e+000 3.150476e-003 55 47 44
6.512820e+000 -3.046286e+000 3.150476e-003 55 47 44
6.382388e+000 -3.169056e+000 7.327460e-003 85 77 70
6.382388e+000 -3.169056e+000 7.327460e-003 85 77 70
6.570988e+000 -3.112350e+000 1.514107e-002 39 34 29
6.506856e+000 -3.174362e+000 1.114261e-002 49 40 35
6.802518e+000 -3.118164e+000 -5.799735e-002 62 46 37
7.196969e+000 -3.767507e+000 -8.241919e-001 77 50 41
7.615904e+000 -3.328915e+000 -6.184524e-001 78 63 58
6.369341e+000 -3.429759e+000 7.098628e-002 35 25 26
6.636900e+000 -3.316304e+000 3.694917e-002 95 91 81
7.918235e+000 -3.430608e+000 -7.263625e-001 99 92 86
7.917074e+000 -3.263909e+000 -5.271596e-001 187 221 230
6.261545e+000 -3.424075e+000 2.526050e-001 34 22 26
6.572168e+000 -3.441969e+000 8.775840e-002 35 25 26
7.901200e+000 -3.482507e+000 -4.984124e-001 142 138 137
8.043763e+000 -3.173576e+000 -2.767494e-001 100 92 85
8.050189e+000 -3.261976e+000 -2.265625e-001 114 99 97
5.843961e+000 -2.369238e+000 -3.610278e-001 23 16 23
5.636060e+000 -2.697041e+000 -4.036561e-001 102 98 123
6.391554e+000 -2.647105e+000 -3.400723e-001 29 20 18
7.262495e+000 -2.771873e+000 -1.155311e+000 32 17 20
6.619405e+000 -2.662477e+000 -3.865777e-001 69 52 42
6.651320e+000 -2.677696e+000 -4.466709e-001 30 16 13
6.075175e+000 -2.886581e+000 -2.860313e-001 63 55 52
7.274361e+000 -2.742308e+000 -9.148205e-001 33 20 20
7.924914e+000 -2.582462e+000 -9.712525e-001 100 84 63
5.592480e+000 -3.557148e+000 -5.619158e-001 133 130 123
6.379333e+000 -2.825631e+000 -1.566015e-001 41 33 30
7.359114e+000 -2.750986e+000 -6.659870e-001 87 77 67
6.603371e+000 -2.778995e+000 -1.265094e-001 72 54 42
8.925732e+000 -2.145175e+000 -7.384563e-001 160 150 102
8.925732e+000 -2.145175e+000 -7.384563e-001 160 150 102
6.094815e+000 -3.136780e+000 -8.532466e-002 144 143 138
6.265504e+000 -2.969793e+000 -2.606285e-002 93 92 85
6.438551e+000 -2.911720e+000 -1.401627e-002 53 47 43
6.544791e+000 -2.887570e+000 -4.547582e-002 76 61 54
6.745400e+000 -2.990267e+000 -1.716490e-001 25 13 13
6.280206e+000 -3.179613e+000 -3.200326e-003 91 88 79
6.270219e+000 -3.233532e+000 -1.138285e-002 127 130 123
8.304117e+000 -3.158834e+000 -1.021385e+000 51 36 23
6.758544e+000 -3.146112e+000 -3.378069e-002 50 35 34
6.302139e+000 -3.367827e+000 2.820394e-002 39 29 29
6.393905e+000 -3.335250e+000 4.161046e-002 44 32 28
6.809870e+000 -3.326797e+000 -2.357039e-002 44 29 23
7.575112e+000 -4.020863e+000 -1.032662e+000 169 151 104
7.894985e+000 -3.857318e+000 -7.068641e-001 44 33 31
7.963073e+000 -3.261116e+000 -3.041900e-001 154 163 167
6.879980e+000 -4.213053e+000 3.531734e-002 157 137 84
7.342751e+000 -2.701785e+000 -7.752912e-001 83 77 71
5.907268e+000 -3.432964e+000 -1.263278e-002 29 24 31
6.208274e+000 -3.325869e+000 -2.644882e-002 37 31 31
6.179505e+000 -3.436993e+000 1.733407e-001 38 23 28
6.423527e+000 -3.569015e+000 1.884024e-001 44 31 31
5.924354e+000 -3.819579e+000 2.972109e-001 76 63 73
6.188974e+000 -2.205386e+000 -2.636922e-001 68 51 59
7.340044e+000 -2.185237e+000 -1.012268e+000 141 140 146
6.336002e+000 -2.281194e+000 -2.063488e-001 54 39 42
5.845699e+000 -2.984502e+000 -3.038867e-001 161 161 159
6.357746e+000 -2.969183e+000 -8.638080e-003 63 52 48
5.966600e+000 -3.279664e+000 -8.426744e-002 37 33 37
6.514204e+000 -2.940963e+000 -6.479126e-003 58 47 41
6.103643e+000 -3.227290e+000 -5.510481e-002 126 128 125
6.918887e+000 -4.039663e+000 -8.394013e-002 60 32 28
6.166927e+000 -4.129857e+000 2.915839e-001 65 44 52
