ply
format ascii 1.0
element face 0
property list uchar int vertex_indices
element vertex 889
property float x
property float y
property float z
property uchar diffuse_red
property uchar diffuse_green
property uchar diffuse_blue
end_header
6.386076e+000 -2.804708e+000 -1.551242e-001 94 90 87
6.591630e+000 -2.806209e+000 -2.173180e-001 64 46 32
7.527863e+000 -2.721416e+000 -7.305259e-001 87 76 67
7.554545e+000 -2.637385e+000 -7.288306e-001 95 83 67
6.039146e+000 -3.016789e+000 -8.109037e-002 85 85 77
6.495629e+000 -2.812783e+000 -9.893846e-002 61 46 39
6.495731e+000 -2.817809e+000 -1.050784e-001 61 46 39
5.817446e+000 -3.310304e+000 -1.197351e-001 118 116 117
5.925925e+000 -3.200430e+000 -8.987516e-002 73 69 66
6.051087e+000 -3.081967e+000 -4.036061e-002 155 152 147
6.044480e+000 -3.111621e+000 -3.009349e-002 101 98 89
6.080160e+000 -3.082803e+000 -1.273657e-003 84 82 79
6.275061e+000 -2.905753e+000 3.770487e-002 89 87 80
6.389684e+000 -2.862106e+000 1.861816e-002 135 131 117
7.311584e+000 -2.963176e+000 -6.420263e-001 75 61 58
7.439534e+000 -2.915914e+000 -6.121830e-001 62 48 45
5.591203e+000 -3.606169e+000 -2.694307e-001 129 128 124
6.002334e+000 -3.181397e+000 -1.811252e-002 76 63 63
6.083927e+000 -3.163440e+000 2.073605e-002 161 158 151
6.154200e+000 -3.070146e+000 3.553560e-002 147 148 140
5.656680e+000 -3.487848e+000 -5.842240e-002 53 57 63
5.704568e+000 -3.420714e+000 -7.969469e-003 248 254 254
5.823642e+000 -3.362996e+000 -1.826692e-002 203 251 255
5.830424e+000 -3.340574e+000 2.045984e-003 203 251 255
6.166198e+000 -3.232808e+000 4.531817e-002 123 122 119
6.424645e+000 -3.070865e+000 4.089532e-002 125 120 110
7.297276e+000 -3.279186e+000 -7.285719e-001 31 25 21
6.483740e+000 -3.128613e+000 6.110728e-002 127 124 119
6.483381e+000 -3.141203e+000 4.774430e-002 127 124 119
7.038978e+000 -3.432153e+000 -6.488017e-001 79 60 46
7.542739e+000 -3.119494e+000 -5.707140e-001 58 45 36
7.669839e+000 -3.217342e+000 -6.732590e-001 88 77 73
7.638495e+000 -3.044802e+000 -5.422161e-001 62 53 44
7.624452e+000 -3.195417e+000 -5.981938e-001 54 43 37
7.826238e+000 -3.139085e+000 -6.294842e-001 95 82 75
6.589153e+000 -3.216306e+000 7.135457e-002 51 41 39
7.984027e+000 -3.222869e+000 -5.401623e-001 157 188 193
8.014464e+000 -3.265251e+000 -5.473019e-001 107 99 90
6.728057e+000 -3.404511e+000 4.838458e-002 57 45 31
7.592086e+000 -3.881598e+000 -8.770080e-001 53 36 31
8.001762e+000 -3.584556e+000 -6.813250e-001 89 84 81
7.153558e+000 -3.845331e+000 -4.540511e-001 166 147 96
7.984921e+000 -3.435268e+000 -4.257891e-001 115 105 103
8.015612e+000 -3.363239e+000 -3.577658e-001 128 113 107
8.113178e+000 -3.192008e+000 -3.234124e-001 97 90 80
8.001108e+000 -3.448904e+000 -3.645476e-001 108 101 90
8.032115e+000 -3.413554e+000 -3.348269e-001 110 102 99
8.149542e+000 -3.216557e+000 -2.384934e-001 185 201 214
8.145948e+000 -3.271678e+000 -2.182772e-001 161 168 175
8.081918e+000 -3.661882e+000 -4.035338e-001 133 124 115
5.593181e+000 -2.471178e+000 -3.472798e-001 43 25 37
7.346366e+000 -2.412120e+000 -1.729463e+000 71 53 53
7.366968e+000 -2.366465e+000 -1.614004e+000 117 107 115
7.330378e+000 -2.416996e+000 -1.597416e+000 112 99 110
7.374674e+000 -2.182452e+000 -1.015231e+000 136 134 135
6.026375e+000 -2.782704e+000 -2.805930e-001 45 35 34
6.136212e+000 -2.695648e+000 -1.767409e-001 104 99 95
6.357835e+000 -2.675252e+000 -2.710925e-001 117 114 99
6.357835e+000 -2.675252e+000 -2.710925e-001 117 114 99
5.500833e+000 -3.342743e+000 -6.017708e-001 120 117 110
5.878112e+000 -2.960012e+000 -2.544000e-001 123 120 113
6.324000e+000 -2.716496e+000 -1.754659e-001 116 113 106
5.453134e+000 -3.603845e+000 -6.620597e-001 152 144 141
6.243699e+000 -2.836378e+000 -1.446369e-001 72 60 56
6.243699e+000 -2.836378e+000 -1.446369e-001 72 60 56
6.567589e+000 -2.740896e+000 -2.168835e-001 41 21 22
7.671884e+000 -2.619534e+000 -8.028927e-001 91 75 62
9.005219e+000 -2.218354e+000 -9.976304e-001 151 139 89
6.479943e+000 -2.827777e+000 -5.811007e-002 39 25 22
6.819808e+000 -2.930812e+000 -4.064407e-001 34 22 26
5.602913e+000 -3.496623e+000 -2.517046e-001 116 114 117
5.732071e+000 -3.288644e+000 -1.164110e-001 49 44 51
5.932822e+000 -3.208852e+000 -5.656321e-002 139 135 132
5.935921e+000 -3.205516e+000 -5.456982e-002 139 135 132
6.146479e+000 -3.046947e+000 2.483277e-002 57 56 53
6.460668e+000 -2.872428e+000 -2.589499e-002 42 28 26
6.039136e+000 -3.169829e+000 -1.724399e-002 56 46 44
6.225919e+000 -3.043306e+000 4.248569e-002 100 97 92
6.225919e+000 -3.043306e+000 4.248569e-002 100 97 92
6.438137e+000 -2.934383e+000 5.048986e-002 55 41 38
5.733817e+000 -3.418186e+000 2.396674e-002 30 34 45
6.459754e+000 -3.056101e+000 5.553094e-002 55 47 44
6.459688e+000 -3.055753e+000 5.591822e-002 55 47 44
6.315039e+000 -3.190044e+000 6.315054e-002 85 77 70
6.314877e+000 -3.192247e+000 6.101969e-002 85 77 70
6.524381e+000 -3.127978e+000 7.019720e-002 39 34 29
6.453177e+000 -3.197726e+000 6.531876e-002 49 40 35
6.781459e+000 -3.134296e+000 -1.158512e-002 62 46 37
7.212679e+000 -3.840881e+000 -8.479930e-001 77 50 41
7.678740e+000 -3.360129e+000 -6.273787e-001 78 63 58
6.299306e+000 -3.483403e+000 1.311142e-001 35 25 26
6.596852e+000 -3.345876e+000 1.026377e-001 95 91 81
8.011318e+000 -3.471055e+000 -7.460125e-001 99 92 86
8.012999e+000 -3.289543e+000 -5.293269e-001 187 221 230
6.181757e+000 -3.476469e+000 3.334319e-001 34 22 26
6.526347e+000 -3.494913e+000 1.503383e-001 35 25 26
7.994722e+000 -3.530488e+000 -4.962245e-001 142 138 137
8.156177e+000 -3.187304e+000 -2.518701e-001 100 92 85
8.158666e+000 -3.281250e+000 -1.913960e-001 114 99 97
5.713870e+000 -2.305141e+000 -3.512213e-001 23 16 23
5.482954e+000 -2.669325e+000 -3.959457e-001 102 98 123
6.323560e+000 -2.611629e+000 -3.255150e-001 29 20 18
7.281836e+000 -2.736612e+000 -1.208730e+000 32 17 20
6.577101e+000 -2.621366e+000 -3.684092e-001 69 52 42
6.611888e+000 -2.644755e+000 -4.435918e-001 30 16 13
5.972564e+000 -2.877856e+000 -2.638018e-001 63 55 52
7.300765e+000 -2.713549e+000 -9.595542e-001 33 20 20
8.019925e+000 -2.535863e+000 -1.021872e+000 100 84 63
5.438451e+000 -3.618305e+000 -5.632602e-001 133 130 123
6.310548e+000 -2.818042e+000 -1.300504e-001 41 33 30
7.389707e+000 -2.708402e+000 -6.643705e-001 87 77 67
6.561142e+000 -2.811634e+000 -1.508668e-001 72 54 42
9.138947e+000 -2.054991e+000 -7.786901e-001 160 150 102
9.138947e+000 -2.054991e+000 -7.786901e-001 160 150 102
5.995216e+000 -3.155710e+000 -4.053437e-002 144 143 138
6.184609e+000 -2.971206e+000 2.358775e-002 93 92 85
6.377436e+000 -2.908971e+000 3.411656e-002 53 47 43
6.496376e+000 -2.883929e+000 -4.150934e-003 76 61 54
6.718100e+000 -2.998652e+000 -1.453082e-001 25 13 13
6.201334e+000 -3.204082e+000 4.952173e-002 91 88 79
6.190307e+000 -3.263802e+000 4.066609e-002 127 130 123
8.434444e+000 -3.169584e+000 -1.071611e+000 51 36 23
6.732617e+000 -3.165813e+000 1.509515e-002 50 35 34
6.225976e+000 -3.413366e+000 8.425093e-002 39 29 29
6.329056e+000 -3.360581e+000 1.149750e-001 44 32 28
6.789776e+000 -3.365692e+000 2.708258e-002 44 29 23
7.627446e+000 -4.115571e+000 -1.074281e+000 169 151 104
7.983972e+000 -3.940194e+000 -7.217218e-001 44 33 31
8.074451e+000 -3.298434e+000 -2.969357e-001 154 163 167
6.867660e+000 -4.344972e+000 9.368050e-002 157 137 84
7.377748e+000 -2.669455e+000 -8.068618e-001 83 77 71
5.787686e+000 -3.484381e+000 4.142054e-002 29 24 31
6.123915e+000 -3.360672e+000 2.826510e-002 37 31 31
6.090220e+000 -3.491276e+000 2.451036e-001 38 23 28
6.361683e+000 -3.637452e+000 2.613692e-001 44 31 31
5.809277e+000 -3.904246e+000 3.928318e-001 76 63 73
6.098057e+000 -2.122734e+000 -2.452262e-001 68 51 59
7.373982e+000 -2.097495e+000 -1.070526e+000 141 140 146
6.261946e+000 -2.206820e+000 -1.814456e-001 54 39 42
5.717599e+000 -2.987389e+000 -2.835126e-001 161 161 159
6.287730e+000 -2.964003e+000 4.942908e-002 63 52 48
5.850740e+000 -3.327342e+000 -5.122930e-002 37 33 37
6.461114e+000 -2.938607e+000 4.513903e-002 58 47 41
6.004595e+000 -3.271140e+000 -2.137851e-002 126 128 125
6.910203e+000 -4.152985e+000 -3.830436e-002 60 32 28
6.078883e+000 -4.243901e+000 3.874514e-001 65 44 52
6.556747e+000 -2.685183e+000 -2.676931e-001 71 57 44
5.980996e+000 -3.757772e+000 3.725333e-001 25 15 23
7.440005e+000 -2.427844e+000 -9.229974e-001 65 50 47
7.867497e+000 -3.211917e+000 -6.079598e-001 59 49 47
6.159403e+000 -2.232523e+000 -2.623258e-001 35 24 30
7.262410e+000 -2.683871e+000 -1.091234e+000 28 13 16
5.860685e+000 -3.160141e+000 -1.890291e-001 41 32 40
5.863369e+000 -3.153229e+000 -1.825361e-001 41 32 40
7.423105e+000 -2.805575e+000 -6.271184e-001 61 48 42
7.203436e+000 -3.437096e+000 -8.430522e-001 84 74 62
8.089518e+000 -3.189027e+000 -7.001837e-001 35 24 21
7.619271e+000 -2.510194e+000 -8.401131e-001 61 44 38
7.620223e+000 -2.511268e+000 -8.419692e-001 61 44 38
7.859739e+000 -2.470028e+000 -9.487133e-001 96 78 54
5.706637e+000 -3.010873e+000 -4.444562e-002 80 74 74
7.599527e+000 -2.760920e+000 -6.220318e-001 89 77 63
6.856565e+000 -4.200088e+000 7.405978e-002 60 34 29
6.855720e+000 -4.591703e+000 6.286160e-002 161 138 86
8.594469e+000 -3.322712e+000 -1.156770e+000 68 55 42
8.594469e+000 -3.322712e+000 -1.156770e+000 68 55 42
7.912012e+000 -3.875775e+000 -7.379990e-001 52 42 40
9.088328e+000 -4.051222e+000 -6.945493e-001 168 152 104
5.862565e+000 -2.294045e+000 -5.423403e-001 68 58 67
5.691369e+000 -3.426438e+000 -1.093631e-001 105 102 119
6.232524e+000 -3.022925e+000 5.423025e-002 93 90 83
6.341220e+000 -2.991498e+000 6.885339e-002 95 91 83
7.580656e+000 -3.019528e+000 -5.890447e-001 85 74 70
8.278501e+000 -3.000772e+000 -1.022019e+000 70 59 53
6.473136e+000 -3.293357e+000 1.445262e-001 106 104 92
6.506860e+000 -3.270293e+000 1.763962e-001 66 59 53
7.165475e+000 -3.766552e+000 -4.235155e-001 130 108 68
6.254566e+000 -2.664694e+000 -2.701788e-001 94 84 83
5.824610e+000 -3.030210e+000 -2.298813e-001 91 90 88
5.851664e+000 -2.955503e+000 -2.516369e-001 91 83 81
6.021527e+000 -2.883435e+000 -2.585237e-001 116 110 107
6.394310e+000 -2.730620e+000 -2.016518e-001 51 49 51
6.438149e+000 -2.739621e+000 -2.143130e-001 85 78 73
6.103855e+000 -2.935751e+000 -6.391082e-002 121 125 118
6.265434e+000 -2.854393e+000 -1.028380e-001 41 37 41
6.264641e+000 -2.869293e+000 -1.181415e-001 41 37 41
7.890441e+000 -2.613076e+000 -9.212533e-001 61 43 33
8.029500e+000 -2.629560e+000 -1.042140e+000 99 82 65
5.481610e+000 -3.639014e+000 -3.230340e-001 133 128 132
5.481610e+000 -3.639014e+000 -3.230340e-001 133 128 132
5.943703e+000 -3.128926e+000 -8.773607e-002 88 85 82
7.872637e+000 -2.810228e+000 -8.159424e-001 100 87 70
6.020371e+000 -3.286801e+000 -1.575744e-002 126 128 123
6.057592e+000 -3.250001e+000 -1.474230e-003 136 135 131
6.196797e+000 -3.127212e+000 5.737115e-002 131 131 124
6.432014e+000 -2.903393e+000 4.204241e-002 103 94 86
6.397192e+000 -3.076250e+000 6.064990e-002 127 121 115
8.222785e+000 -2.868946e+000 -8.813141e-001 65 60 57
6.371118e+000 -3.191056e+000 8.206881e-002 129 128 124
6.452719e+000 -3.116509e+000 6.864707e-002 66 62 56
6.529491e+000 -3.032878e+000 7.022681e-002 75 71 63
6.528094e+000 -3.072739e+000 6.489064e-002 110 105 101
6.524245e+000 -3.457354e+000 1.398299e-001 85 78 72
6.666326e+000 -3.404381e+000 1.234013e-001 59 50 45
6.967932e+000 -4.187645e+000 1.369924e-002 138 120 74
9.443176e+000 -2.724594e+000 1.207281e-001 146 134 89
5.634171e+000 -2.444549e+000 -5.614160e-001 61 51 59
7.535366e+000 -2.391287e+000 -2.058295e+000 70 59 53
5.471311e+000 -2.700173e+000 -4.749671e-001 61 44 63
7.313000e+000 -2.473357e+000 -1.646559e+000 60 51 55
7.961494e+000 -2.559510e+000 -1.849408e+000 63 40 28
8.007827e+000 -2.592459e+000 -1.899312e+000 79 60 46
7.937493e+000 -2.508188e+000 -1.644728e+000 79 60 51
7.937493e+000 -2.508188e+000 -1.644728e+000 79 60 51
6.246258e+000 -2.714835e+000 -2.453721e-001 134 138 138
7.706389e+000 -2.412422e+000 -9.184511e-001 97 81 66
5.674291e+000 -3.386818e+000 -4.007618e-001 101 107 122
6.294014e+000 -2.742501e+000 -1.993151e-001 59 53 49
7.270737e+000 -2.887141e+000 -1.062763e+000 34 24 23
7.951959e+000 -2.554951e+000 -9.987976e-001 103 85 71
5.877504e+000 -3.090222e+000 -1.851355e-001 93 83 85
7.638896e+000 -2.636955e+000 -8.075915e-001 62 48 39
5.784725e+000 -3.308708e+000 -2.136117e-001 97 91 101
6.073578e+000 -3.025071e+000 -4.383603e-002 139 140 134
6.083102e+000 -3.064850e+000 1.599596e-002 95 90 86
6.119006e+000 -3.018412e+000 -1.251269e-003 65 54 52
5.998307e+000 -3.299010e+000 -1.384850e-002 143 148 144
6.337706e+000 -3.021928e+000 6.991492e-002 95 88 86
6.416354e+000 -2.975942e+000 5.775891e-002 120 119 114
7.407045e+000 -2.928739e+000 -6.001181e-001 81 73 70
7.501563e+000 -2.900948e+000 -6.210509e-001 58 45 39
7.705067e+000 -2.875949e+000 -6.901291e-001 58 46 32
7.410248e+000 -3.324432e+000 -7.103992e-001 64 53 51
6.612315e+000 -3.161912e+000 5.736211e-002 114 106 99
6.565907e+000 -3.193162e+000 7.718330e-002 113 109 97
6.640775e+000 -3.150413e+000 3.311247e-002 110 101 94
7.774605e+000 -3.253337e+000 -6.318447e-001 73 61 60
7.918952e+000 -3.081785e+000 -6.404453e-001 87 73 60
7.979926e+000 -3.194357e+000 -6.699299e-001 109 111 108
7.983110e+000 -3.206957e+000 -6.063890e-001 143 150 161
6.541063e+000 -3.417846e+000 1.419568e-001 63 54 49
6.559521e+000 -3.413346e+000 1.632307e-001 106 96 94
6.087845e+000 -3.542138e+000 4.896124e-001 29 20 25
8.028359e+000 -3.383161e+000 -3.438488e-001 146 149 154
8.011546e+000 -3.282791e+000 -2.850036e-001 114 111 109
7.990119e+000 -3.539168e+000 -3.808452e-001 107 100 97
7.998203e+000 -3.499705e+000 -3.753378e-001 143 139 138
8.149768e+000 -3.231243e+000 -2.162562e-001 120 117 122
6.887748e+000 -4.004047e+000 1.700046e-001 83 54 50
6.672273e+000 -2.294015e+000 -1.488189e+000 79 54 34
7.546511e+000 -2.287282e+000 -1.945095e+000 70 63 62
5.968731e+000 -2.363588e+000 -2.317463e-001 36 24 34
5.880089e+000 -2.408776e+000 -2.198416e-001 36 26 35
7.369118e+000 -2.153890e+000 -1.037315e+000 129 134 139
7.369082e+000 -2.154507e+000 -1.038160e+000 129 134 139
7.365150e+000 -2.497897e+000 -1.417982e+000 81 71 72
7.053957e+000 -2.959143e+000 -1.358971e+000 59 40 44
7.451136e+000 -2.446037e+000 -9.035142e-001 63 49 42
7.446239e+000 -2.456469e+000 -8.332272e-001 68 53 46
7.720560e+000 -2.344166e+000 -9.700604e-001 68 51 41
5.801095e+000 -2.990460e+000 -2.758501e-001 85 77 74
5.915200e+000 -2.966784e+000 -2.977365e-001 72 64 61
6.087715e+000 -2.861893e+000 -2.228526e-001 126 127 122
6.285432e+000 -2.706759e+000 -2.195820e-001 113 114 109
6.567947e+000 -2.660197e+000 -3.168151e-001 70 54 40
7.796450e+000 -2.415782e+000 -9.943367e-001 65 50 32
5.500714e+000 -3.635700e+000 -6.639778e-001 130 122 119
6.196861e+000 -2.831441e+000 -1.863323e-001 60 57 52
6.410119e+000 -2.725936e+000 -2.225957e-001 75 71 69
7.979351e+000 -2.549276e+000 -1.026103e+000 73 56 45
7.434951e+000 -2.698973e+000 -6.909415e-001 60 51 42
7.553489e+000 -2.634684e+000 -7.252528e-001 89 78 72
5.837995e+000 -3.242567e+000 -1.359417e-001 136 137 131
5.949514e+000 -3.145454e+000 -7.659317e-002 142 137 134
7.423618e+000 -2.753270e+000 -7.062349e-001 90 80 71
5.709784e+000 -3.473707e+000 -1.958403e-001 66 55 65
5.832323e+000 -3.392819e+000 -1.200304e-003 27 25 35
6.242920e+000 -2.985234e+000 6.618723e-002 141 137 134
6.649312e+000 -2.908534e+000 -7.745760e-002 65 50 44
8.221676e+000 -2.921106e+000 -9.806479e-001 52 41 34
9.144160e+000 -2.110103e+000 -7.136709e-001 145 133 91
6.166648e+000 -3.358117e+000 3.957799e-002 96 95 93
6.193247e+000 -3.316783e+000 3.822925e-002 59 57 58
6.575847e+000 -3.085657e+000 4.247089e-002 65 58 52
7.538955e+000 -3.191790e+000 -6.037509e-001 78 64 64
7.665350e+000 -3.249774e+000 -6.008103e-001 52 38 35
7.736061e+000 -3.223488e+000 -6.101946e-001 47 35 34
7.317811e+000 -3.821346e+000 -7.686723e-001 86 63 56
7.999237e+000 -3.189283e+000 -5.508099e-001 85 72 66
7.650198e+000 -3.802088e+000 -7.714498e-001 55 41 38
7.983386e+000 -3.381744e+000 -4.155562e-001 143 148 151
7.613181e+000 -2.331022e+000 -2.044048e+000 117 106 118
6.287349e+000 -2.187467e+000 -2.571014e-001 25 14 18
6.869654e+000 -2.407977e+000 -1.177860e+000 60 40 32
6.775364e+000 -2.491868e+000 -6.227114e-001 51 32 36
7.311559e+000 -2.569817e+000 -1.035705e+000 41 30 39
5.742240e+000 -3.144169e+000 -3.569694e-001 105 104 102
5.870685e+000 -3.087235e+000 -2.220266e-001 66 58 56
5.870685e+000 -3.087235e+000 -2.220266e-001 66 58 56
5.973777e+000 -2.968325e+000 -1.719671e-001 67 56 60
6.562612e+000 -2.880346e+000 -1.320511e-001 70 56 45
6.559933e+000 -2.836891e+000 -8.690103e-002 70 56 45
6.114285e+000 -3.168928e+000 -2.339173e-004 87 88 81
6.212250e+000 -3.078245e+000 8.053789e-002 87 83 80
6.246279e+000 -3.075435e+000 6.198284e-002 139 138 136
6.324716e+000 -3.069534e+000 8.080248e-002 85 82 77
6.648583e+000 -2.974355e+000 -3.586591e-002 49 33 20
7.164789e+000 -3.399249e+000 -5.660052e-001 89 73 60
6.336772e+000 -3.437858e+000 1.384220e-001 110 108 109
6.445228e+000 -3.302393e+000 1.103486e-001 114 119 115
6.426447e+000 -3.374456e+000 1.596456e-001 126 127 122
6.492729e+000 -3.375711e+000 1.282420e-001 124 130 116
6.489529e+000 -3.469696e+000 1.540004e-001 87 78 73
6.683535e+000 -3.458963e+000 1.118373e-001 82 67 60
8.060630e+000 -3.255470e+000 -3.094587e-001 114 105 106
6.765182e+000 -4.112800e+000 1.885554e-001 49 29 31
5.841684e+000 -2.319011e+000 -4.604605e-001 31 22 27
6.206883e+000 -2.259963e+000 -2.827697e-001 21 12 17
5.921980e+000 -2.437758e+000 -9.886799e-002 34 23 29
7.281602e+000 -2.657970e+000 -1.478789e+000 42 29 21
7.780984e+000 -2.364773e+000 -1.025166e+000 98 81 68
5.645205e+000 -3.336877e+000 -2.005219e-001 133 162 190
9.013445e+000 -2.168265e+000 -9.306448e-001 155 142 98
9.031464e+000 -2.183842e+000 -9.577865e-001 155 142 98
5.691796e+000 -3.584347e+000 7.006826e-003 105 102 129
6.158781e+000 -3.160637e+000 4.923781e-002 147 148 143
5.997725e+000 -3.376333e+000 1.623486e-001 50 43 50
7.522484e+000 -3.197374e+000 -6.686570e-001 86 75 73
9.127577e+000 -2.387824e+000 -7.467036e-001 148 135 91
7.969773e+000 -3.107626e+000 -6.422706e-001 45 33 26
7.275487e+000 -3.854030e+000 -8.138084e-001 163 142 93
6.528313e+000 -3.508884e+000 2.447051e-001 30 21 23
6.722086e+000 -4.235974e+000 1.067725e-001 138 108 80
6.722086e+000 -4.235974e+000 1.067725e-001 138 108 80
6.903073e+000 -4.148533e+000 2.070507e-001 82 59 41
5.524831e+000 -2.725080e+000 -4.097185e-001 47 34 50
7.184770e+000 -2.891663e+000 -1.918715e+000 69 52 42
6.700068e+000 -2.526374e+000 -7.749269e-001 37 22 25
5.403189e+000 -3.396556e+000 -8.280227e-001 133 134 129
6.628365e+000 -2.696412e+000 -2.748754e-001 24 15 18
7.322232e+000 -2.907156e+000 -1.021345e+000 31 22 25
6.125441e+000 -2.940769e+000 -5.226319e-002 142 143 137
5.713882e+000 -3.473069e+000 2.180419e-002 29 27 38
6.044196e+000 -3.314950e+000 -4.606513e-003 69 61 62
6.776112e+000 -3.106015e+000 -5.245762e-002 81 65 49
9.043086e+000 -2.497208e+000 -8.812695e-001 142 129 85
9.263082e+000 -2.174293e+000 -5.429254e-001 172 168 130
7.370994e+000 -2.096139e+000 -1.063141e+000 146 149 158
5.700230e+000 -2.506223e+000 -1.562382e-001 66 53 66
5.685432e+000 -2.552775e+000 -2.110479e-001 66 53 66
6.871327e+000 -2.762203e+000 -8.020860e-001 79 62 55
7.956008e+000 -2.565825e+000 -9.534032e-001 74 56 42
5.925021e+000 -3.365493e+000 -2.552773e-002 29 22 29
7.962904e+000 -3.027845e+000 -6.623702e-001 93 78 60
6.861393e+000 -3.216615e+000 -1.602983e-001 26 16 11
7.058807e+000 -3.564265e+000 -6.000472e-001 65 43 30
7.721851e+000 -3.115035e+000 -5.762685e-001 96 87 82
5.797857e+000 -3.693110e+000 4.179263e-001 72 58 71
6.882943e+000 -3.898126e+000 1.816606e-002 147 125 85
7.679506e+000 -2.316238e+000 -1.031244e+000 98 84 71
6.445252e+000 -2.829956e+000 -3.105154e-002 52 39 31
7.986559e+000 -2.493019e+000 -2.259522e+000 109 93 70
6.708081e+000 -2.625485e+000 -4.912803e-001 63 41 29
7.622643e+000 -3.756734e+000 -7.566751e-001 60 46 43
7.767202e+000 -3.429541e+000 -6.220253e-001 84 74 72
7.611626e+000 -2.803238e+000 -6.659493e-001 94 82 68
7.330053e+000 -2.621799e+000 -1.509221e+000 59 46 55
7.098788e+000 -2.687819e+000 -2.087375e+000 147 120 90
8.163376e+000 -2.809309e+000 -1.076816e+000 84 66 57
6.185403e+000 -2.898842e+000 -2.265435e-002 72 68 65
6.846599e+000 -3.002625e+000 -3.524009e-001 32 21 18
7.285680e+000 -2.951357e+000 -6.313552e-001 52 42 41
7.303336e+000 -3.435088e+000 -6.548502e-001 70 59 56
8.002119e+000 -2.533516e+000 -1.689786e+000 84 65 51
7.552221e+000 -2.434746e+000 -8.587534e-001 68 53 46
7.305318e+000 -2.852977e+000 -6.133986e-001 81 69 66
7.838491e+000 -2.669903e+000 -8.973199e-001 63 46 36
7.396151e+000 -3.273375e+000 -7.349870e-001 38 27 26
6.671560e+000 -3.258852e+000 6.330861e-002 127 118 114
8.014437e+000 -3.242301e+000 -4.553442e-001 111 105 105
7.322241e+000 -2.541805e+000 -1.449600e+000 91 80 88
5.495398e+000 -3.586939e+000 -6.631540e-001 56 40 37
6.289613e+000 -2.877090e+000 -3.270211e-002 26 25 24
7.327483e+000 -2.809839e+000 -6.430819e-001 90 79 71
7.736154e+000 -2.805664e+000 -7.128169e-001 57 43 32
7.798309e+000 -2.761163e+000 -7.444697e-001 92 79 63
6.585808e+000 -2.910780e+000 -4.284437e-002 48 31 23
7.704940e+000 -2.889610e+000 -6.577139e-001 61 46 39
7.710998e+000 -2.901998e+000 -6.723266e-001 61 46 39
7.993212e+000 -2.854104e+000 -8.423484e-001 94 81 64
7.591810e+000 -2.947383e+000 -6.022199e-001 87 79 68
7.593622e+000 -2.949211e+000 -6.048867e-001 87 79 68
7.984934e+000 -3.343101e+000 -4.167896e-001 114 109 108
8.139435e+000 -3.158180e+000 -2.620208e-001 128 127 123
8.139435e+000 -3.158180e+000 -2.620208e-001 128 127 123
8.231132e+000 -1.724216e+000 -2.449493e+000 145 130 87
7.397457e+000 -2.157043e+000 -1.030505e+000 70 61 66
7.482381e+000 -2.764497e+000 -6.601515e-001 87 77 70
7.480042e+000 -2.760233e+000 -6.545180e-001 87 77 70
7.557492e+000 -2.910198e+000 -6.282745e-001 66 56 48
7.552852e+000 -2.897755e+000 -6.142261e-001 66 56 48
7.808946e+000 -3.014103e+000 -5.941029e-001 72 58 54
9.267749e+000 -2.180061e+000 -4.748170e-001 145 135 99
6.007410e+000 -2.821439e+000 -2.803835e-001 98 90 88
7.296994e+000 -2.676817e+000 -1.080542e+000 72 62 70
5.441785e+000 -3.652288e+000 -6.047004e-001 143 139 135
6.178597e+000 -2.803072e+000 -1.922364e-001 146 150 143
6.327777e+000 -2.710358e+000 -2.395604e-001 89 81 79
7.288924e+000 -2.706686e+000 -7.352049e-001 74 73 71
6.033681e+000 -3.063829e+000 -7.369561e-002 77 74 65
6.191115e+000 -2.907894e+000 -1.097751e-002 133 133 131
5.813156e+000 -3.378794e+000 -1.100630e-002 61 72 84
5.843328e+000 -3.335728e+000 -4.496722e-002 31 28 37
6.251436e+000 -2.926599e+000 3.453739e-002 74 73 69
6.378013e+000 -2.899490e+000 2.192085e-002 85 77 74
6.394734e+000 -2.843943e+000 -7.347395e-003 61 51 42
6.209335e+000 -3.044006e+000 3.759983e-002 98 97 92
7.993792e+000 -2.830493e+000 -8.611811e-001 95 78 68
7.993792e+000 -2.830493e+000 -8.611811e-001 95 78 68
9.234468e+000 -1.987143e+000 -6.130427e-001 154 146 100
6.593081e+000 -3.295727e+000 9.807616e-002 97 90 79
7.344268e+000 -2.129311e+000 -1.076746e+000 76 70 74
7.240873e+000 -2.746294e+000 -1.081330e+000 74 59 62
5.897649e+000 -2.969554e+000 -1.822206e-001 158 159 154
7.248166e+000 -2.735311e+000 -9.751073e-001 40 26 26
7.570762e+000 -2.427035e+000 -8.707260e-001 96 82 73
6.189327e+000 -2.864717e+000 -1.022647e-001 75 71 66
7.894409e+000 -2.622212e+000 -9.328491e-001 62 40 27
5.657821e+000 -3.487070e+000 -1.963708e-002 248 254 254
6.025649e+000 -3.121263e+000 -1.607382e-002 140 140 138
5.698954e+000 -3.448038e+000 1.666581e-002 91 99 111
6.468158e+000 -2.926509e+000 3.426759e-002 52 38 33
7.974590e+000 -2.728748e+000 -8.436321e-001 58 42 31
7.974590e+000 -2.728748e+000 -8.436321e-001 58 42 31
8.051459e+000 -2.786638e+000 -9.345287e-001 61 47 37
6.427129e+000 -3.108453e+000 5.914755e-002 130 131 122
6.424115e+000 -3.056808e+000 5.376716e-002 128 124 114
7.044262e+000 -3.441486e+000 -6.221080e-001 83 65 51
8.019204e+000 -2.864518e+000 -8.507422e-001 57 40 30
7.289424e+000 -3.442161e+000 -6.688907e-001 74 65 60
6.301867e+000 -3.431657e+000 1.073186e-001 84 79 75
7.977065e+000 -3.224601e+000 -6.540660e-001 74 66 64
5.995373e+000 -3.614818e+000 3.415439e-001 26 17 23
6.709035e+000 -3.356254e+000 4.933557e-002 49 38 32
8.003916e+000 -3.583415e+000 -7.243829e-001 65 57 55
7.153394e+000 -3.960446e+000 -3.675619e-001 163 142 97
7.845191e+000 -3.859191e+000 -6.904032e-001 54 43 40
9.076547e+000 -3.041838e+000 -7.939492e-001 166 162 124
8.193087e+000 -3.210850e+000 -1.834473e-001 182 207 217
7.321607e+000 -2.515187e+000 -1.338790e+000 74 62 73
7.963947e+000 -2.473452e+000 -1.723195e+000 63 42 39
7.297986e+000 -2.409888e+000 -8.762403e-001 102 100 108
6.455965e+000 -2.654998e+000 -2.759642e-001 45 35 34
6.034849e+000 -2.900132e+000 -1.643509e-001 65 56 57
7.736085e+000 -2.443613e+000 -8.987549e-001 66 49 36
6.136841e+000 -2.920813e+000 -1.138243e-001 86 76 70
7.496804e+000 -2.571480e+000 -6.434469e-001 68 51 47
5.764873e+000 -3.343598e+000 -1.562332e-001 107 101 101
5.949770e+000 -3.141585e+000 -7.348113e-002 147 146 142
6.263776e+000 -2.896430e+000 -2.588344e-002 58 54 56
8.045868e+000 -2.609993e+000 -1.039222e+000 73 56 40
6.958851e+000 -3.193191e+000 -6.382461e-001 61 37 33
7.539410e+000 -2.941419e+000 -6.300176e-001 92 81 77
7.952805e+000 -2.771322e+000 -8.659786e-001 63 46 38
6.054892e+000 -3.365513e+000 -1.674856e-002 59 47 51
7.287246e+000 -3.367870e+000 -6.319084e-001 43 36 30
7.282305e+000 -3.453629e+000 -6.519098e-001 39 28 24
7.869038e+000 -3.106359e+000 -6.222926e-001 97 80 72
6.792780e+000 -3.204475e+000 7.896675e-003 102 93 82
6.564576e+000 -3.460269e+000 1.283112e-001 114 109 103
7.981909e+000 -3.231497e+000 -5.876558e-001 85 77 74
8.003893e+000 -3.518387e+000 -3.883236e-001 142 139 139
8.104111e+000 -3.244807e+000 -2.947467e-001 121 116 118
8.154691e+000 -3.282923e+000 -2.260538e-001 157 167 173
9.317673e+000 -3.674431e+000 -2.967502e-001 148 133 88
7.621068e+000 -2.220836e+000 -1.927700e+000 121 110 118
7.510612e+000 -2.273902e+000 -1.813833e+000 114 107 114
7.381312e+000 -2.422589e+000 -8.532833e-001 61 45 45
6.245438e+000 -2.717357e+000 -2.132214e-001 73 65 71
5.986979e+000 -3.075596e+000 -1.157704e-001 51 50 50
5.660168e+000 -3.489367e+000 -6.098738e-002 40 43 54
6.463356e+000 -2.860770e+000 -1.789774e-002 30 21 14
7.545459e+000 -2.852472e+000 -6.530350e-001 65 50 45
7.321271e+000 -3.258276e+000 -7.390910e-001 62 52 50
7.998771e+000 -3.241630e+000 -4.754325e-001 181 204 219
7.998314e+000 -3.241682e+000 -4.752107e-001 181 204 219
7.561551e+000 -2.233560e+000 -1.852194e+000 115 103 109
6.424232e+000 -2.598071e+000 -3.125877e-001 45 31 30
6.646738e+000 -2.913906e+000 -1.505271e-001 22 13 16
5.974628e+000 -3.418142e+000 -3.676094e-002 94 99 103
6.359600e+000 -3.226380e+000 9.607530e-002 61 53 51
6.605887e+000 -3.067358e+000 2.114219e-002 53 42 38
6.463847e+000 -3.409853e+000 1.394092e-001 51 43 41
6.322194e+000 -2.695272e+000 -2.584561e-001 51 44 41
8.024499e+000 -2.543305e+000 -1.029436e+000 101 85 62
6.349838e+000 -2.831404e+000 -2.132293e-002 130 139 138
5.980985e+000 -3.417098e+000 2.327209e-002 32 23 31
6.551891e+000 -3.004660e+000 1.646374e-002 47 36 32
6.592926e+000 -3.078266e+000 4.026327e-002 61 53 45
6.657808e+000 -3.341982e+000 6.989554e-002 73 69 58
6.810046e+000 -3.244977e+000 2.570809e-002 59 46 38
7.846385e+000 -3.373720e+000 -6.576186e-001 86 80 80
6.009640e+000 -3.632663e+000 3.900064e-001 27 21 30
7.983970e+000 -3.525501e+000 -4.808311e-001 128 128 127
9.286897e+000 -3.722643e+000 -3.543935e-001 146 133 88
7.505257e+000 -2.534727e+000 -7.832799e-001 88 79 70
6.287831e+000 -2.959421e+000 5.236011e-002 65 56 51
6.661033e+000 -2.958333e+000 -1.027763e-001 73 56 48
9.237739e+000 -2.271288e+000 -5.834492e-001 147 136 97
9.237739e+000 -2.271288e+000 -5.834492e-001 147 136 97
5.980592e+000 -3.002268e+000 -1.346575e-001 131 140 139
7.148620e+000 -2.617383e+000 -1.316813e+000 98 84 97
7.315339e+000 -2.367238e+000 -1.109921e+000 48 36 39
6.532140e+000 -2.584629e+000 -3.911869e-001 55 39 31
5.903014e+000 -3.139632e+000 -1.732769e-001 33 23 32
6.222785e+000 -3.520979e+000 2.436975e-001 61 54 61
5.979181e+000 -3.775364e+000 3.505396e-001 28 18 26
6.384430e+000 -3.504448e+000 1.958797e-001 30 20 19
7.705604e+000 -2.700809e+000 -7.858657e-001 91 78 59
7.880030e+000 -2.695267e+000 -8.538990e-001 58 44 36
8.864909e+000 -2.615237e+000 -1.284053e+000 157 150 98
5.654374e+000 -3.375117e+000 -3.431333e-001 156 177 182
6.112469e+000 -2.873554e+000 -1.377021e-001 137 136 131
6.531405e+000 -3.103506e+000 3.832121e-002 112 112 107
7.647107e+000 -2.609622e+000 -7.862100e-001 93 80 68
7.987458e+000 -2.633572e+000 -9.564445e-001 60 42 28
7.802513e+000 -2.759082e+000 -7.866882e-001 98 85 68
5.997029e+000 -3.313518e+000 -2.589854e-002 148 152 155
6.624176e+000 -3.054074e+000 7.106086e-003 97 89 83
8.056130e+000 -3.180091e+000 -4.651527e-001 79 66 51
6.141913e+000 -3.023001e+000 -4.438635e-003 144 153 145
6.055649e+000 -3.364374e+000 -1.568916e-002 59 47 51
7.993686e+000 -3.228515e+000 -5.027117e-001 108 102 98
7.326526e+000 -2.778790e+000 -6.343401e-001 88 81 72
7.367506e+000 -2.713603e+000 -6.566525e-001 91 80 74
7.367506e+000 -2.713603e+000 -6.566525e-001 91 80 74
7.541835e+000 -2.757702e+000 -6.911782e-001 91 82 71
6.589095e+000 -2.916919e+000 -4.673508e-002 51 38 33
6.694640e+000 -3.129364e+000 2.643303e-002 130 123 117
6.608036e+000 -3.010202e+000 -2.979258e-003 54 43 41
6.283323e+000 -2.180489e+000 -1.371101e+000 85 52 37
7.297887e+000 -2.539340e+000 -1.746600e+000 60 42 39
7.354082e+000 -2.084616e+000 -1.166764e+000 124 111 102
5.369460e+000 -3.482772e+000 -7.402275e-001 140 136 134
5.451567e+000 -3.534919e+000 -6.581472e-001 146 148 139
8.093896e+000 -2.711816e+000 -1.540673e+000 62 44 32
8.245902e+000 -2.752997e+000 -1.596310e+000 80 60 61
5.499085e+000 -3.630183e+000 -3.448044e-001 157 147 146
5.735866e+000 -3.272085e+000 -2.088117e-001 52 41 49
5.937549e+000 -3.075312e+000 -1.797257e-001 134 134 132
6.396719e+000 -2.747982e+000 -2.180344e-001 53 44 46
7.563772e+000 -2.561605e+000 -8.994048e-001 98 84 75
5.679465e+000 -3.356340e+000 -1.869684e-001 237 254 254
6.192527e+000 -2.886054e+000 -9.498574e-002 89 79 73
6.298869e+000 -2.800978e+000 -1.641518e-001 59 52 51
5.627238e+000 -3.549732e+000 -9.059249e-002 240 252 254
5.917848e+000 -3.220380e+000 -6.804850e-002 161 157 154
6.171841e+000 -2.902641e+000 -3.262216e-002 122 119 113
6.142400e+000 -3.090725e+000 2.035743e-002 149 148 144
6.061355e+000 -3.244691e+000 9.044160e-004 164 165 159
6.156034e+000 -3.200251e+000 4.175370e-002 94 90 86
8.149180e+000 -2.998208e+000 -1.049519e+000 64 49 42
6.446864e+000 -3.021807e+000 5.695430e-002 99 94 91
9.141034e+000 -2.123353e+000 -7.324865e-001 143 136 82
6.339783e+000 -3.512161e+000 2.821796e-001 50 41 44
6.589568e+000 -3.444674e+000 1.475969e-001 58 46 43
8.000948e+000 -3.325079e+000 -4.208093e-001 171 178 179
7.920598e+000 -4.082952e+000 -6.744843e-001 84 66 63
7.404004e+000 -2.408597e+000 -1.741440e+000 69 58 62
7.431562e+000 -2.332722e+000 -1.698462e+000 106 96 98
7.507129e+000 -2.289808e+000 -1.774489e+000 60 43 47
5.412573e+000 -3.406936e+000 -7.633002e-001 82 71 72
7.311242e+000 -2.769532e+000 -1.166734e+000 35 22 29
7.296368e+000 -2.562916e+000 -9.952034e-001 62 49 56
5.440906e+000 -3.733579e+000 -5.226257e-001 94 83 79
7.576513e+000 -2.439730e+000 -8.837283e-001 95 81 68
5.638132e+000 -3.338645e+000 -1.756283e-001 84 88 99
5.730898e+000 -3.345586e+000 -1.289443e-001 235 251 251
5.821207e+000 -3.274594e+000 -1.833702e-001 56 46 55
5.815208e+000 -3.315337e+000 -1.258572e-001 159 160 161
5.834519e+000 -3.281469e+000 -1.208020e-001 95 93 98
6.145351e+000 -2.927967e+000 -2.537397e-002 139 140 135
7.238338e+000 -3.115209e+000 -7.915871e-001 41 30 26
5.942167e+000 -3.276012e+000 -5.341511e-002 132 134 131
6.219899e+000 -2.952010e+000 2.236933e-002 98 97 92
6.933390e+000 -3.071487e+000 -5.377758e-001 55 38 29
6.097075e+000 -3.258163e+000 8.621173e-003 76 70 70
7.442445e+000 -3.365552e+000 -8.476393e-001 33 25 23
6.550176e+000 -3.198168e+000 1.046893e-001 134 131 124
6.391371e+000 -3.406535e+000 1.581665e-001 47 45 43
6.427220e+000 -3.449184e+000 1.692857e-001 68 58 57
6.530261e+000 -3.386697e+000 1.229439e-001 55 51 40
6.776460e+000 -3.257548e+000 1.684443e-002 79 67 59
8.057750e+000 -3.236005e+000 -6.088214e-001 88 74 60
8.220129e+000 -3.077890e+000 -6.911956e-001 132 123 117
6.603677e+000 -3.433817e+000 1.424825e-001 59 49 45
6.564929e+000 -3.528225e+000 2.681813e-001 100 92 69
7.923965e+000 -4.165786e+000 -7.471762e-001 89 71 64
6.680017e+000 -3.673786e+000 2.330748e-001 95 88 69
7.990958e+000 -3.654479e+000 -4.742986e-001 105 96 91
9.082282e+000 -3.102424e+000 -7.656821e-001 132 127 102
8.009265e+000 -3.468773e+000 -2.957308e-001 145 137 135
7.333418e+000 -3.920036e+000 -4.045900e+000 164 143 139
6.714554e+000 -2.195874e+000 -1.221180e+000 75 45 34
7.585096e+000 -2.323190e+000 -2.057727e+000 82 63 53
7.600735e+000 -2.253927e+000 -1.960080e+000 71 55 61
7.378270e+000 -2.410936e+000 -1.752825e+000 104 93 101
7.476212e+000 -2.371177e+000 -1.753175e+000 63 47 48
7.441669e+000 -2.121042e+000 -1.412962e+000 87 69 65
7.398152e+000 -2.097433e+000 -1.302117e+000 63 42 41
5.977948e+000 -2.326643e+000 -1.891602e-001 34 23 31
7.309178e+000 -2.591700e+000 -1.125708e+000 46 33 42
5.684677e+000 -3.347650e+000 -3.669637e-001 98 117 131
5.701252e+000 -3.361615e+000 -3.577492e-001 19 18 26
5.981135e+000 -2.881857e+000 -2.117804e-001 147 152 146
6.084984e+000 -2.810018e+000 -2.428784e-001 134 131 126
6.248941e+000 -2.728122e+000 -2.586215e-001 140 162 156
5.508510e+000 -3.675048e+000 -3.344359e-001 88 81 87
5.933543e+000 -2.981127e+000 -1.878420e-001 78 74 70
7.319143e+000 -2.911035e+000 -1.064176e+000 60 50 51
5.705886e+000 -3.289326e+000 -1.551213e-001 59 51 74
5.790175e+000 -3.299970e+000 -2.065562e-001 107 102 108
6.189539e+000 -2.885110e+000 -1.162447e-001 69 59 57
6.317567e+000 -2.783188e+000 -1.630722e-001 136 137 131
6.317330e+000 -2.781194e+000 -1.615346e-001 136 137 131
7.765883e+000 -2.574429e+000 -9.608251e-001 100 87 70
6.005529e+000 -3.118137e+000 -5.767417e-002 50 39 35
6.052074e+000 -3.081739e+000 -3.960322e-002 149 149 142
7.285612e+000 -2.804264e+000 -6.585721e-001 118 121 121
7.415431e+000 -2.721836e+000 -6.567427e-001 94 82 70
7.465687e+000 -2.779511e+000 -7.108538e-001 69 56 48
6.276584e+000 -2.905822e+000 3.531364e-002 122 118 115
7.513704e+000 -2.776022e+000 -6.582582e-001 65 50 43
6.206582e+000 -3.083482e+000 7.090825e-002 83 84 78
6.307867e+000 -2.995545e+000 7.650418e-002 132 136 123
6.489226e+000 -2.874942e+000 -1.715245e-002 87 76 71
7.603193e+000 -2.876751e+000 -6.401745e-001 66 54 44
7.640391e+000 -2.910167e+000 -6.576999e-001 92 82 69
7.640391e+000 -2.910167e+000 -6.576999e-001 92 82 69
6.480445e+000 -3.035098e+000 4.303831e-002 122 125 119
7.362402e+000 -3.375722e+000 -6.541059e-001 40 30 31
7.745703e+000 -2.939060e+000 -6.555396e-001 93 81 69
5.787281e+000 -3.405919e+000 3.532063e-001 91 76 89
6.239766e+000 -3.297347e+000 8.394253e-002 105 97 95
7.584953e+000 -3.358881e+000 -7.061073e-001 44 34 32
7.753568e+000 -3.037857e+000 -5.547552e-001 65 52 46
7.903336e+000 -3.087424e+000 -6.681841e-001 73 62 52
7.903336e+000 -3.087424e+000 -6.681841e-001 73 62 52
8.278899e+000 -3.037253e+000 -9.113016e-001 57 48 45
8.255763e+000 -2.896618e+000 -8.715827e-001 148 152 145
8.255763e+000 -2.896618e+000 -8.715827e-001 148 152 145
6.621862e+000 -3.236492e+000 8.930665e-002 68 58 48
8.000331e+000 -3.343243e+000 -7.250462e-001 100 96 93
8.151792e+000 -3.158684e+000 -6.143539e-001 128 120 109
8.151792e+000 -3.158684e+000 -6.143539e-001 128 120 109
7.981801e+000 -3.436833e+000 -4.259908e-001 113 107 109
6.094090e+000 -3.620381e+000 4.713812e-001 29 16 27
8.102741e+000 -3.244938e+000 -2.651901e-001 161 174 183
8.102894e+000 -3.244315e+000 -2.651424e-001 161 174 183
8.135423e+000 -3.199735e+000 -2.639335e-001 104 99 103
8.202244e+000 -3.117765e+000 -2.562184e-001 110 92 74
8.172279e+000 -3.248173e+000 -1.996410e-001 165 184 192
8.248919e+000 -3.178772e+000 -1.723190e-001 132 122 115
6.180934e+000 -2.170163e+000 -1.296900e+000 104 75 60
6.641149e+000 -2.181580e+000 -1.242443e+000 134 107 78
8.660490e+000 -1.177370e+000 -1.763731e+000 156 143 99
7.380140e+000 -2.470645e+000 -1.860910e+000 71 55 60
5.462832e+000 -3.683230e+000 -6.067694e-001 70 54 57
7.315395e+000 -2.723831e+000 -1.098787e+000 65 52 59
6.002565e+000 -2.806624e+000 -1.880426e-001 46 31 34
5.996891e+000 -2.881249e+000 -1.799806e-001 43 41 39
5.637001e+000 -3.283890e+000 -2.120370e-001 31 29 35
6.014807e+000 -2.982329e+000 -1.551069e-001 74 63 59
6.094566e+000 -2.857645e+000 -1.759857e-001 58 50 45
6.374360e+000 -2.689855e+000 -2.398718e-001 56 41 38
7.531821e+000 -2.470814e+000 -8.323175e-001 86 73 64
5.740396e+000 -3.290860e+000 -1.221927e-001 42 39 47
5.716873e+000 -3.414868e+000 -4.497670e-002 52 63 81
6.384066e+000 -2.844629e+000 -1.177226e-001 34 25 26
6.384066e+000 -2.844629e+000 -1.177226e-001 34 25 26
6.594525e+000 -2.839840e+000 -1.917729e-001 34 23 19
7.834461e+000 -2.581432e+000 -8.783588e-001 104 88 63
5.974811e+000 -3.344361e+000 -3.337820e-002 40 35 34
6.181517e+000 -3.154017e+000 4.794589e-002 133 134 129
6.466507e+000 -2.898162e+000 2.180029e-002 90 81 74
7.299639e+000 -3.275329e+000 -7.100916e-001 45 34 32
6.084993e+000 -3.384686e+000 -7.963756e-004 50 45 42
6.124446e+000 -3.298881e+000 2.308945e-002 128 133 129
6.277686e+000 -3.047622e+000 9.482218e-002 99 96 91
6.411541e+000 -3.103781e+000 8.031647e-002 68 64 59
7.654004e+000 -3.184357e+000 -5.890466e-001 95 85 76
5.651853e+000 -3.665171e+000 3.132278e-001 58 41 57
6.447091e+000 -3.306088e+000 1.073634e-001 130 131 126
7.689879e+000 -3.387125e+000 -6.395960e-001 87 72 69
6.730731e+000 -3.272632e+000 3.576907e-002 69 57 44
7.985139e+000 -3.342918e+000 -6.954063e-001 108 100 97
8.001547e+000 -3.179127e+000 -6.171108e-001 44 29 22
6.866140e+000 -3.921515e+000 -1.798454e-002 145 126 84
6.854135e+000 -4.169415e+000 2.004282e-001 155 129 96
5.462537e+000 -2.184711e+000 -5.680259e-001 71 57 72
7.347653e+000 -2.465112e+000 -1.664533e+000 99 92 102
6.252821e+000 -2.064841e+000 -1.151872e-001 72 62 68
7.283793e+000 -2.565566e+000 -1.302276e+000 90 80 89
7.319965e+000 -2.711214e+000 -1.198980e+000 77 65 75
5.428398e+000 -3.655747e+000 -6.133804e-001 140 140 140
8.848649e+000 -1.653746e+000 -1.284485e+000 152 133 101
5.472289e+000 -3.705712e+000 -5.102190e-001 120 110 111
5.488895e+000 -3.704665e+000 -5.553716e-001 64 53 57
6.045161e+000 -2.862527e+000 -2.097364e-001 45 38 43
6.547802e+000 -2.639514e+000 -3.461484e-001 36 23 17
7.277812e+000 -2.761752e+000 -1.047813e+000 55 44 44
5.877286e+000 -3.056141e+000 -2.001386e-001 83 77 73
6.048154e+000 -2.877215e+000 -1.740661e-001 151 158 148
6.295331e+000 -2.737353e+000 -1.800287e-001 72 64 62
6.500173e+000 -2.695765e+000 -2.479761e-001 44 33 31
5.869695e+000 -3.229494e+000 -1.230210e-001 58 56 59
7.650683e+000 -2.630927e+000 -8.384056e-001 69 54 47
7.719751e+000 -2.468868e+000 -8.738058e-001 98 84 66
5.778946e+000 -3.384453e+000 -1.415339e-001 49 44 50
6.907291e+000 -3.179255e+000 -7.070770e-001 73 50 34
6.481825e+000 -2.829811e+000 -6.253857e-002 34 20 19
6.244767e+000 -3.068193e+000 6.963390e-002 144 145 139
6.245090e+000 -3.067241e+000 7.010945e-002 144 145 139
6.403687e+000 -2.936214e+000 5.410151e-002 116 122 112
6.379994e+000 -2.969945e+000 6.716288e-002 54 43 37
6.173774e+000 -3.253135e+000 4.626080e-002 142 145 136
6.461842e+000 -3.047644e+000 6.043306e-002 69 61 58
7.345943e+000 -3.316482e+000 -6.971387e-001 74 64 62
9.029654e+000 -2.186477e+000 -9.599951e-001 146 133 90
7.322010e+000 -3.810706e+000 -7.730003e-001 77 58 57
7.305795e+000 -3.541146e+000 -6.652087e-001 93 74 70
7.373141e+000 -3.857619e+000 -7.643173e-001 164 146 97
7.545355e+000 -3.723463e+000 -7.614144e-001 57 42 39
6.905557e+000 -3.932781e+000 -1.039742e-001 159 141 95
6.919075e+000 -4.073216e+000 -2.780309e-003 62 36 24
6.916415e+000 -4.182082e+000 1.815569e-001 78 52 49
6.628545e+000 -2.170891e+000 -1.160733e+000 51 32 25
6.109786e+000 -2.129463e+000 -3.157242e-001 64 52 61
7.730850e+000 -2.429561e+000 -1.472199e+000 93 75 55
5.471251e+000 -3.685473e+000 -6.451084e-001 73 53 55
7.794877e+000 -2.388175e+000 -1.041012e+000 107 91 75
7.883252e+000 -2.483691e+000 -1.112779e+000 104 88 64
6.546620e+000 -2.744548e+000 -2.311051e-001 40 27 24
6.546620e+000 -2.744548e+000 -2.311051e-001 40 27 24
7.994685e+000 -2.687468e+000 -9.177750e-001 93 77 62
6.079594e+000 -3.189020e+000 2.392959e-002 113 114 109
6.448726e+000 -2.914864e+000 1.677184e-002 86 73 67
8.947233e+000 -2.291535e+000 -1.082934e+000 149 134 90
6.420089e+000 -3.052395e+000 7.348065e-002 136 137 132
8.888758e+000 -2.624594e+000 -1.072700e+000 144 131 86
6.420321e+000 -3.368099e+000 1.593804e-001 130 129 124
6.857243e+000 -3.909084e+000 -5.932990e-002 56 39 31
7.971113e+000 -3.607854e+000 -4.800969e-001 123 122 119
9.374716e+000 -2.010031e+000 -3.183417e-001 179 173 124
5.531957e+000 -2.299399e+000 -5.053166e-001 42 30 40
7.678056e+000 -2.138684e+000 -1.530367e+000 106 88 68
7.678056e+000 -2.138684e+000 -1.530367e+000 106 88 68
5.665791e+000 -2.473700e+000 -1.954160e-001 39 27 37
6.225198e+000 -2.734367e+000 -2.521522e-001 109 116 112
6.872529e+000 -3.022179e+000 -4.201340e-001 79 57 36
5.982003e+000 -3.422896e+000 1.956659e-002 31 26 30
6.228894e+000 -3.402712e+000 9.111305e-002 43 27 30
8.242766e+000 -3.179346e+000 -8.489567e-001 40 25 32
6.172635e+000 -3.521338e+000 4.441268e-001 55 41 48
6.359408e+000 -3.599796e+000 3.040105e-001 38 21 27
8.581501e+000 -3.530377e+000 -6.271412e-001 118 103 75
9.344754e+000 -2.091213e+000 -3.543261e-001 152 139 104
9.344754e+000 -2.091213e+000 -3.543261e-001 152 139 104
9.431638e+000 -1.972862e+000 -2.750116e-001 179 172 127
8.222027e+000 -3.246810e+000 -1.904216e-001 176 204 216
9.410620e+000 -2.039492e+000 -2.851641e-001 148 134 101
9.410620e+000 -2.039492e+000 -2.851641e-001 148 134 101
5.857699e+000 -2.243429e+000 -3.569240e-001 28 19 24
7.156461e+000 -2.821384e+000 -1.786675e+000 67 44 36
5.720920e+000 -2.508312e+000 -3.100051e-001 82 65 81
5.758187e+000 -3.407565e+000 -5.119260e-002 49 49 57
6.177214e+000 -3.091524e+000 3.975214e-002 128 133 127
6.754616e+000 -3.762192e+000 1.918853e-001 105 100 71
8.030457e+000 -3.696571e+000 -3.987894e-001 107 92 87
5.825784e+000 -2.155162e+000 -4.720231e-001 34 23 31
7.147591e+000 -2.621817e+000 -1.320626e+000 92 80 93
6.871108e+000 -2.851902e+000 -7.407136e-001 41 25 28
7.579367e+000 -2.361926e+000 -8.949291e-001 102 88 75
7.708663e+000 -2.371193e+000 -9.141394e-001 73 57 42
7.729346e+000 -2.406820e+000 -9.543376e-001 73 57 42
6.934192e+000 -3.338417e+000 -1.339359e-001 74 54 44
7.761346e+000 -3.457596e+000 -6.379162e-001 90 76 75
5.705876e+000 -2.668718e+000 -1.587225e-001 54 34 46
7.778763e+000 -2.408546e+000 -1.372713e+000 51 36 29
8.047707e+000 -2.578726e+000 -1.583947e+000 86 68 54
6.718742e+000 -2.604730e+000 -4.754015e-001 65 44 31
6.726532e+000 -2.651197e+000 -5.162367e-001 65 44 31
7.706853e+000 -2.695922e+000 -7.828064e-001 99 86 67
7.888290e+000 -2.709813e+000 -8.672751e-001 61 44 36
7.613140e+000 -2.140042e+000 -1.387214e+000 100 84 61
6.131180e+000 -3.416865e+000 1.175926e-001 42 33 38
8.402767e+000 -2.614947e+000 -1.916687e+000 59 41 37
7.683796e+000 -2.598834e+000 -8.218622e-001 98 85 69
8.242209e+000 -2.847426e+000 -9.559990e-001 108 103 103
9.140477e+000 -2.123774e+000 -7.328534e-001 143 136 82
7.979229e+000 -3.445011e+000 -7.193874e-001 92 83 83
8.222750e+000 -2.916981e+000 -9.854198e-001 55 40 38
8.278488e+000 -3.076565e+000 -9.626383e-001 77 66 59
9.301956e+000 -3.719931e+000 -3.554355e-001 149 137 86
6.661781e+000 -2.188299e+000 -1.278712e+000 84 49 40
7.618380e+000 -2.399977e+000 -8.764830e-001 67 53 40
7.217029e+000 -3.121520e+000 -7.865499e-001 72 61 53
7.357781e+000 -2.714340e+000 -6.404050e-001 92 85 77
7.357781e+000 -2.714340e+000 -6.404050e-001 92 85 77
7.593972e+000 -2.600906e+000 -7.472127e-001 98 82 71
7.603562e+000 -2.876773e+000 -6.400750e-001 66 54 44
7.660268e+000 -3.107933e+000 -5.924172e-001 61 51 49
7.992481e+000 -3.506689e+000 -6.993567e-001 87 81 81
9.479315e+000 -2.193056e+000 -1.701007e-001 166 157 114
5.501506e+000 -3.703915e+000 -6.046880e-001 83 79 83
7.611660e+000 -3.050184e+000 -5.664502e-001 96 86 77
6.614911e+000 -3.619783e+000 2.301689e-001 105 97 74
6.085968e+000 -2.840922e+000 -2.066815e-001 128 127 123
7.673512e+000 -2.457742e+000 -8.447676e-001 65 47 43
7.381574e+000 -3.024279e+000 -6.176872e-001 77 65 64
9.279330e+000 -2.139741e+000 -4.875651e-001 178 171 129
6.229869e+000 -3.413291e+000 8.237981e-002 43 27 30
9.307705e+000 -2.109100e+000 -4.502022e-001 179 168 125
6.568261e+000 -2.700132e+000 -2.595193e-001 69 54 45
7.962425e+000 -2.868224e+000 -7.959641e-001 92 81 61
7.450233e+000 -2.261113e+000 -1.795962e+000 95 80 77
5.366141e+000 -3.374516e+000 -6.980541e-001 100 97 107
5.405836e+000 -3.443190e+000 -7.038776e-001 149 135 127
5.421735e+000 -3.483592e+000 -6.686232e-001 157 153 142
5.413183e+000 -3.683303e+000 -5.121170e-001 164 159 153
7.383880e+000 -3.163170e+000 -6.807605e-001 64 54 53
7.793740e+000 -2.993056e+000 -6.568517e-001 97 80 70
6.465282e+000 -3.404881e+000 1.157246e-001 135 126 119
6.530349e+000 -3.254853e+000 7.046482e-002 119 117 103
6.716545e+000 -3.392219e+000 3.427962e-002 68 60 51
7.251948e+000 -2.423777e+000 -1.600102e+000 66 48 53
5.384158e+000 -3.485524e+000 -7.282315e-001 92 83 78
5.409177e+000 -3.510908e+000 -6.625653e-001 98 92 102
5.463163e+000 -3.690445e+000 -4.723095e-001 118 105 104
5.704363e+000 -3.328236e+000 -1.758525e-001 52 60 75
6.479013e+000 -2.649248e+000 -2.793431e-001 110 100 94
6.003922e+000 -3.061743e+000 -8.568654e-002 76 73 66
6.027137e+000 -3.119406e+000 -1.579389e-002 153 150 141
6.162917e+000 -2.964986e+000 -3.465814e-002 86 80 72
7.991036e+000 -2.650461e+000 -9.475413e-001 68 49 30
8.200253e+000 -2.644353e+000 -1.015272e+000 43 25 25
5.996953e+000 -3.302648e+000 -2.047436e-002 144 144 136
7.849684e+000 -2.760330e+000 -7.998349e-001 99 84 66
6.187025e+000 -3.273196e+000 3.610699e-002 144 147 138
6.269883e+000 -3.026845e+000 7.985399e-002 132 129 120
6.362920e+000 -2.948560e+000 4.520360e-002 113 111 99
7.695065e+000 -2.925632e+000 -6.730318e-001 97 84 68
7.550760e+000 -3.215872e+000 -6.180993e-001 88 77 71
6.308458e+000 -3.400514e+000 7.654890e-002 85 75 73
6.373262e+000 -3.196421e+000 8.133990e-002 138 139 125
6.373825e+000 -3.483286e+000 8.573464e-002 88 77 73
7.679891e+000 -3.803981e+000 -7.592189e-001 57 39 35
7.992236e+000 -3.493637e+000 -7.235289e-001 79 68 62
5.979294e+000 -3.662674e+000 3.147870e-001 69 54 61
8.044657e+000 -3.216814e+000 -5.598057e-001 72 54 45
8.164141e+000 -3.225658e+000 -6.583533e-001 72 60 48
7.954543e+000 -3.738613e+000 -4.959126e-001 117 104 96
7.303753e+000 -2.753398e+000 -2.039565e+000 92 74 47
7.922367e+000 -2.407301e+000 -1.646771e+000 57 39 26
7.999700e+000 -2.605412e+000 -1.426166e+000 80 63 45
5.476375e+000 -3.616700e+000 -3.387140e-001 84 74 72
6.233598e+000 -2.755380e+000 -2.188590e-001 133 132 123
7.736725e+000 -2.357555e+000 -9.222811e-001 112 94 71
6.085922e+000 -2.887585e+000 -1.605497e-001 134 141 126
6.193447e+000 -2.844965e+000 -1.236958e-001 139 139 131
6.354078e+000 -2.683898e+000 -2.066708e-001 107 100 92
6.076402e+000 -3.031416e+000 -7.322667e-002 110 105 93
7.561306e+000 -2.589663e+000 -7.269934e-001 64 50 39
7.710767e+000 -2.486171e+000 -8.226681e-001 66 48 36
6.191620e+000 -2.931560e+000 -4.534957e-002 76 70 65
7.417241e+000 -2.729452e+000 -6.645846e-001 102 89 73
7.480561e+000 -2.762979e+000 -6.559735e-001 100 85 70
7.700781e+000 -2.611563e+000 -7.902027e-001 75 58 40
7.743081e+000 -2.662681e+000 -8.078480e-001 109 91 71
8.844512e+000 -2.098739e+000 -1.171915e+000 148 132 80
6.102996e+000 -3.105497e+000 1.316041e-002 160 162 148
6.575283e+000 -2.845316e+000 -5.678462e-002 57 40 31
7.540102e+000 -3.115599e+000 -5.686589e-001 59 47 41
7.783133e+000 -2.959708e+000 -6.678256e-001 68 50 39
6.410017e+000 -3.309970e+000 8.086250e-002 93 87 75
6.379449e+000 -3.468120e+000 1.134807e-001 122 117 113
6.479915e+000 -3.289624e+000 8.896198e-002 135 134 118
6.409709e+000 -3.615247e+000 2.344942e-001 81 74 74
7.984856e+000 -3.451942e+000 -3.991555e-001 151 150 146
