ply
format ascii 1.0
element face 0
property list uchar int vertex_indices
element vertex 889
property float x
property float y
property float z
property uchar diffuse_red
property uchar diffuse_green
property uchar diffuse_blue
end_header
7.485417e+000 -3.862313e+000 -9.639174e-001 45 30 28
7.451584e+000 -2.374386e+000 -1.012234e+000 91 78 64
7.451584e+000 -2.374386e+000 -1.012234e+000 91 78 64
9.025005e+000 -3.233087e+000 -5.951785e-001 179 166 111
8.341622e+000 -2.940863e+000 -8.326532e-001 53 33 24
6.509325e+000 -3.083421e+000 4.118618e-003 93 86 78
7.631871e+000 -3.061568e+000 -5.535716e-001 113 104 97
6.198746e+000 -3.267195e+000 -2.770088e-002 100 89 83
8.733113e+000 -2.357639e+000 -1.081847e+000 179 163 111
7.692486e+000 -2.474535e+000 -9.164071e-001 104 87 69
7.652781e+000 -2.641256e+000 -7.645825e-001 99 82 62
7.290672e+000 -2.814258e+000 -6.119131e-001 87 80 70
8.890177e+000 -3.039946e+000 -7.747855e-001 176 159 116
6.690670e+000 -3.378351e+000 3.613744e-002 87 74 66
6.436508e+000 -3.054882e+000 1.282889e-002 64 50 42
6.436494e+000 -3.054754e+000 1.375022e-002 64 50 42
7.834485e+000 -3.093565e+000 -6.383697e-001 87 71 58
7.855627e+000 -3.066621e+000 -6.340885e-001 56 42 26
7.988131e+000 -3.203794e+000 -3.298709e-001 143 137 125
6.214530e+000 -3.268972e+000 -2.864355e-002 130 126 116
7.809883e+000 -3.495205e+000 -6.992864e-001 49 31 27
7.516145e+000 -3.179736e+000 -6.016029e-001 48 30 25
7.546762e+000 -3.195461e+000 -6.181768e-001 73 55 49
7.769016e+000 -3.774458e+000 -6.775814e-001 48 33 30
8.172872e+000 -2.955558e+000 -8.662183e-001 59 27 33
8.317862e+000 -3.105773e+000 -1.042709e+000 83 69 57
6.689703e+000 -3.356559e+000 3.987468e-002 93 78 74
8.082330e+000 -3.366334e+000 -2.171774e-001 160 165 157
7.948342e+000 -3.576830e+000 -3.784781e-001 105 89 81
6.456653e+000 -2.690762e+000 -3.009776e-001 40 27 21
7.834968e+000 -2.598821e+000 -9.231455e-001 69 48 30
7.829806e+000 -2.675695e+000 -8.611335e-001 92 75 59
8.842898e+000 -3.093388e+000 -9.280871e-001 143 126 72
6.095465e+000 -3.226901e+000 -5.955594e-002 91 84 77
6.284673e+000 -3.234491e+000 -2.389754e-004 125 123 110
7.656964e+000 -3.663243e+000 -7.124721e-001 53 35 31
7.331765e+000 -2.748455e+000 -6.473345e-001 97 89 76
7.331765e+000 -2.748455e+000 -6.473345e-001 97 89 76
7.710993e+000 -2.814106e+000 -7.235617e-001 63 45 32
8.168773e+000 -2.932308e+000 -9.244358e-001 131 117 101
8.028756e+000 -3.065898e+000 -7.721282e-001 51 34 27
8.336020e+000 -3.201108e+000 -3.335493e-001 57 36 25
7.525795e+000 -3.566046e+000 -7.050208e-001 69 54 47
7.328349e+000 -3.715480e+000 -7.281553e-001 66 47 32
7.792849e+000 -3.768732e+000 -6.450869e-001 70 55 52
6.435955e+000 -2.885628e+000 -2.895249e-002 75 61 52
7.427120e+000 -2.919906e+000 -5.934706e-001 85 72 63
6.556995e+000 -2.983184e+000 -8.625811e-003 90 74 64
8.048421e+000 -3.591569e+000 -3.470576e-001 103 85 66
8.895523e+000 -2.178114e+000 -7.799724e-001 163 146 93
8.836908e+000 -2.255741e+000 -9.106181e-001 157 144 91
9.046847e+000 -2.252262e+000 -5.340242e-001 188 175 124
6.294643e+000 -2.767383e+000 -2.833079e-001 128 124 112
7.331395e+000 -2.651449e+000 -7.070886e-001 103 96 88
7.313045e+000 -2.165841e+000 -1.023857e+000 129 122 115
7.944680e+000 -2.797189e+000 -8.742037e-001 70 51 34
7.975104e+000 -2.923638e+000 -8.520378e-001 59 41 30
6.472527e+000 -3.144579e+000 1.748390e-002 87 75 66
6.211811e+000 -3.288954e+000 -3.810466e-002 92 89 80
7.983696e+000 -3.219256e+000 -3.448050e-001 155 146 143
6.540293e+000 -3.383141e+000 5.901206e-002 59 46 40
5.968138e+000 -2.578825e+000 -7.313958e-002 77 64 73
6.362405e+000 -2.730598e+000 -2.684365e-001 83 74 67
7.818184e+000 -2.630107e+000 -8.873771e-001 100 81 64
7.908363e+000 -2.835097e+000 -8.015360e-001 63 44 28
6.475439e+000 -2.956137e+000 6.445856e-003 73 58 53
6.564778e+000 -3.042464e+000 -8.764972e-003 87 80 70
6.203826e+000 -3.177399e+000 -2.518121e-002 110 107 95
6.342161e+000 -3.127288e+000 4.089580e-003 108 102 88
6.404036e+000 -3.101311e+000 1.695742e-002 110 101 91
6.715929e+000 -3.063834e+000 -4.835378e-002 41 26 22
5.838755e+000 -3.264290e+000 -1.593363e-001 51 50 57
6.352822e+000 -3.213894e+000 9.519924e-003 122 124 113
6.442599e+000 -3.185896e+000 2.854324e-002 98 91 82
6.280097e+000 -3.313499e+000 -1.547039e-002 53 46 40
6.559959e+000 -3.283137e+000 4.960375e-002 84 71 65
7.831587e+000 -3.298867e+000 -6.708860e-001 56 41 38
7.894373e+000 -3.261660e+000 -5.398314e-001 177 195 194
6.457649e+000 -3.350516e+000 5.973467e-002 78 70 63
7.445110e+000 -3.424533e+000 -6.527427e-001 56 37 30
7.422645e+000 -3.801485e+000 -9.032439e-001 45 28 21
7.625018e+000 -2.422587e+000 -8.817810e-001 97 81 65
7.589983e+000 -2.481579e+000 -8.449386e-001 102 84 72
7.617056e+000 -2.470887e+000 -8.801955e-001 72 54 44
7.617056e+000 -2.470887e+000 -8.801955e-001 72 54 44
7.731649e+000 -2.693516e+000 -8.446358e-001 94 74 63
6.039454e+000 -2.983058e+000 -1.792687e-001 153 153 139
6.038669e+000 -2.983573e+000 -1.825727e-001 153 153 139
7.772271e+000 -2.798518e+000 -7.427681e-001 94 77 67
6.576899e+000 -3.054094e+000 -1.485965e-002 57 46 40
6.510980e+000 -3.100972e+000 1.105557e-002 75 67 61
6.456604e+000 -3.166642e+000 1.962907e-002 120 114 102
7.507667e+000 -3.213972e+000 -6.717363e-001 73 58 53
7.699204e+000 -3.291777e+000 -6.498084e-001 74 60 57
7.715557e+000 -3.310060e+000 -6.414577e-001 50 40 35
8.016966e+000 -3.191472e+000 -3.467505e-001 139 130 125
7.464795e+000 -3.417308e+000 -6.418881e-001 77 60 53
6.424660e+000 -3.437047e+000 8.191669e-002 62 55 50
7.863691e+000 -3.503733e+000 -7.166235e-001 63 48 43
8.004308e+000 -3.663784e+000 -4.095312e-001 90 72 63
6.905415e+000 -4.099265e+000 2.187151e-002 77 48 36
6.864766e+000 -2.321707e+000 -8.087555e-001 167 145 115
8.676120e+000 -2.464474e+000 -1.176040e+000 146 128 80
6.230186e+000 -2.861129e+000 -2.047385e-001 93 94 86
6.098700e+000 -3.092610e+000 -8.867180e-002 85 82 77
7.484680e+000 -3.169980e+000 -5.810586e-001 71 56 51
6.017412e+000 -3.280255e+000 -8.966751e-002 104 99 96
6.491086e+000 -3.253416e+000 5.234304e-002 107 104 97
7.877043e+000 -3.224205e+000 -7.067788e-001 53 39 36
7.578937e+000 -3.316476e+000 -6.214221e-001 50 33 26
8.156501e+000 -3.154838e+000 -2.548501e-001 120 101 80
6.437383e+000 -3.383606e+000 6.642252e-002 83 74 66
6.568756e+000 -3.349340e+000 5.736561e-002 57 44 38
6.512279e+000 -3.419965e+000 7.890544e-002 51 42 33
5.905009e+000 -3.527961e+000 2.951183e-001 30 18 32
7.909889e+000 -3.481026e+000 -3.834176e-001 101 92 83
7.628168e+000 -3.629593e+000 -7.108809e-001 48 33 30
6.765102e+000 -4.376440e+000 3.616177e-002 158 140 95
8.653839e+000 -2.492870e+000 -1.214679e+000 148 132 81
7.605468e+000 -2.653179e+000 -7.648914e-001 85 69 54
6.057485e+000 -2.936222e+000 -1.965609e-001 151 148 136
8.093148e+000 -2.686440e+000 -9.441520e-001 60 43 35
6.067851e+000 -3.203238e+000 -7.699816e-002 75 65 63
8.068877e+000 -3.196257e+000 -2.347426e-001 105 97 93
7.307911e+000 -3.746467e+000 -6.778471e-001 100 78 64
8.645243e+000 -4.874112e+000 -1.092906e+000 156 136 83
6.235074e+000 -2.831737e+000 -2.282296e-001 136 137 129
8.740458e+000 -2.692901e+000 -1.050115e+000 143 126 75
6.709284e+000 -3.054460e+000 -6.812921e-002 44 30 28
6.013101e+000 -3.242531e+000 -1.095623e-001 58 49 42
6.659100e+000 -3.423535e+000 4.959187e-002 34 23 14
6.342252e+000 -3.242186e+000 1.008864e-002 45 38 34
6.307963e+000 -3.374778e+000 3.339307e-002 29 19 19
6.570729e+000 -3.461796e+000 6.981392e-002 35 23 21
7.255444e+000 -3.655198e+000 -7.209667e-001 48 30 26
7.227814e+000 -3.878647e+000 -9.594144e-001 159 141 100
6.426333e+000 -2.853935e+000 -5.876161e-002 114 105 96
6.660111e+000 -2.938021e+000 -8.495925e-002 71 52 38
7.792621e+000 -2.556509e+000 -1.005198e+000 101 82 65
6.090318e+000 -4.002736e+000 3.419197e-001 47 30 38
8.885788e+000 -3.037954e+000 -7.626641e-001 167 158 117
6.353428e+000 -3.214216e+000 2.881976e-003 125 121 110
7.400691e+000 -2.504164e+000 -7.902911e-001 74 58 43
7.554706e+000 -2.666650e+000 -7.736709e-001 97 80 66
7.715488e+000 -2.644240e+000 -8.505211e-001 97 78 63
7.428581e+000 -2.764343e+000 -6.526084e-001 97 83 72
6.404123e+000 -3.099940e+000 2.079091e-002 108 94 86
7.810002e+000 -3.076298e+000 -6.265110e-001 67 51 38
7.505344e+000 -3.149220e+000 -5.902892e-001 57 37 37
7.897617e+000 -3.468817e+000 -4.084593e-001 150 151 153
7.769987e+000 -4.079819e+000 -7.962713e-001 173 152 99
8.833122e+000 -2.256559e+000 -9.059062e-001 157 144 91
7.660719e+000 -2.572320e+000 -8.092074e-001 78 60 47
8.156049e+000 -2.890966e+000 -8.480624e-001 65 38 33
6.575107e+000 -3.082223e+000 -2.814642e-003 89 80 71
7.803886e+000 -2.642360e+000 -8.843708e-001 60 41 24
7.863239e+000 -2.790635e+000 -8.277686e-001 64 46 32
7.961462e+000 -2.859395e+000 -9.265814e-001 97 83 56
7.459327e+000 -3.157951e+000 -5.977767e-001 49 31 30
6.201318e+000 -3.311016e+000 -4.437360e-002 116 110 104
7.554796e+000 -3.238432e+000 -6.197660e-001 80 65 58
7.651091e+000 -2.503793e+000 -8.804977e-001 101 82 70
8.019782e+000 -2.645419e+000 -9.775737e-001 108 91 81
6.441763e+000 -2.925131e+000 -1.183445e-002 63 50 41
7.367406e+000 -2.934352e+000 -5.897350e-001 80 69 65
6.591784e+000 -3.065656e+000 -1.519455e-002 100 91 82
8.899296e+000 -3.175103e+000 -7.716472e-001 127 113 87
7.487318e+000 -3.387818e+000 -6.683517e-001 74 58 51
7.831960e+000 -3.466429e+000 -6.998765e-001 54 36 32
7.889128e+000 -3.584207e+000 -4.448490e-001 105 88 81
7.635715e+000 -3.728876e+000 -7.063396e-001 51 36 31
7.426760e+000 -2.414771e+000 -8.364791e-001 78 64 52
7.412948e+000 -2.446549e+000 -8.248590e-001 99 86 77
6.455275e+000 -2.690823e+000 -3.078405e-001 43 29 26
7.535186e+000 -2.953757e+000 -5.790680e-001 94 79 72
6.678417e+000 -3.127347e+000 -6.588859e-003 69 55 43
6.589378e+000 -3.309119e+000 5.271838e-002 80 71 65
7.892128e+000 -3.512953e+000 -4.158560e-001 99 90 81
7.981232e+000 -3.597350e+000 -3.754350e-001 104 87 80
6.509623e+000 -2.989878e+000 2.348570e-005 49 36 28
7.618845e+000 -3.232222e+000 -6.130797e-001 39 24 21
7.300209e+000 -3.686044e+000 -7.179995e-001 87 68 56
6.770462e+000 -4.410338e+000 1.070535e-001 172 145 97
6.760952e+000 -2.464824e+000 -8.574324e-001 43 27 27
8.504149e+000 -3.422974e+000 -2.327071e+000 102 88 80
6.551977e+000 -2.640555e+000 -3.808451e-001 78 66 57
6.403555e+000 -2.702185e+000 -3.063503e-001 119 110 105
6.227893e+000 -2.812143e+000 -2.559024e-001 87 84 77
7.140029e+000 -2.755983e+000 -1.231423e+000 113 97 105
6.327516e+000 -2.850374e+000 -1.380600e-001 115 107 106
6.446955e+000 -2.883004e+000 -1.936266e-002 73 61 52
6.326803e+000 -2.946437e+000 9.504020e-003 129 126 114
7.283723e+000 -2.890287e+000 -6.241183e-001 45 32 24
6.229055e+000 -3.023478e+000 -3.200415e-002 98 98 86
6.268803e+000 -3.016984e+000 -1.501563e-002 139 137 127
8.144823e+000 -2.908838e+000 -9.273545e-001 86 76 68
5.569681e+000 -3.419717e+000 -7.004628e-001 117 104 98
6.062327e+000 -3.178153e+000 -9.519362e-002 132 129 124
6.249048e+000 -3.147305e+000 -1.931032e-003 102 94 86
5.920592e+000 -3.317784e+000 -3.394173e-002 123 121 134
6.527931e+000 -3.180580e+000 2.367516e-002 68 63 55
6.528678e+000 -3.187992e+000 3.598115e-002 126 120 106
6.536739e+000 -3.195025e+000 4.572690e-002 66 57 48
6.657984e+000 -3.174951e+000 1.127355e-002 61 45 38
6.580823e+000 -3.236950e+000 3.717563e-002 131 129 123
6.498502e+000 -3.306910e+000 5.432039e-002 61 49 43
6.514195e+000 -3.344039e+000 6.195341e-002 91 84 76
7.443216e+000 -3.365503e+000 -6.424930e-001 57 45 41
7.981573e+000 -3.216299e+000 -3.379316e-001 161 167 160
8.081088e+000 -3.174190e+000 -2.255024e-001 104 93 91
6.460071e+000 -3.408497e+000 8.850820e-002 33 27 25
8.091875e+000 -3.237007e+000 -2.033741e-001 204 212 215
7.224328e+000 -3.646603e+000 -7.063706e-001 77 57 46
8.087900e+000 -3.341633e+000 -1.806029e-001 133 125 113
6.773316e+000 -3.645640e+000 1.777284e-001 113 108 80
7.312935e+000 -2.207336e+000 -1.038137e+000 106 93 89
7.271787e+000 -2.492359e+000 -1.522212e+000 78 63 74
7.242100e+000 -2.528952e+000 -1.447127e+000 77 68 69
7.515563e+000 -2.482961e+000 -8.181255e-001 91 73 61
6.277564e+000 -2.743266e+000 -2.848282e-001 50 41 36
6.402317e+000 -2.749894e+000 -2.558430e-001 66 56 47
7.937182e+000 -2.647508e+000 -9.523249e-001 70 51 30
6.052394e+000 -2.901183e+000 -2.532717e-001 121 118 113
6.167939e+000 -2.874603e+000 -2.049670e-001 99 96 89
6.295185e+000 -2.862056e+000 -1.390916e-001 129 127 117
6.442771e+000 -2.836541e+000 -7.042229e-002 77 67 56
6.542782e+000 -2.832759e+000 -1.575649e-001 77 57 46
6.561613e+000 -2.827893e+000 -1.768007e-001 58 40 30
7.833682e+000 -2.677243e+000 -8.741412e-001 94 75 61
8.044617e+000 -2.665137e+000 -9.775897e-001 119 107 95
8.084762e+000 -2.673204e+000 -1.010124e+000 73 52 47
6.103687e+000 -2.982169e+000 -1.472047e-001 151 152 138
6.426069e+000 -2.852061e+000 -5.694534e-002 84 80 73
7.877146e+000 -2.786877e+000 -8.146570e-001 100 81 66
7.881361e+000 -2.804932e+000 -8.039128e-001 97 78 62
7.881361e+000 -2.804932e+000 -8.039128e-001 97 78 62
6.119612e+000 -3.041566e+000 -1.267368e-001 143 139 134
7.806952e+000 -2.829197e+000 -7.724602e-001 63 46 29
6.212677e+000 -3.035679e+000 -4.645728e-002 141 137 126
6.176935e+000 -3.091868e+000 -5.258769e-002 96 93 73
6.039080e+000 -3.234898e+000 -9.727516e-002 152 154 145
6.427183e+000 -3.156501e+000 1.389731e-002 91 93 81
6.306078e+000 -3.202739e+000 -2.601545e-003 96 85 81
6.600268e+000 -3.154434e+000 1.176468e-002 56 44 38
6.628141e+000 -3.164987e+000 1.067004e-002 88 79 70
6.638636e+000 -3.183104e+000 1.353847e-002 49 39 34
6.638636e+000 -3.183104e+000 1.353847e-002 49 39 34
6.163317e+000 -3.307513e+000 -5.588873e-002 90 87 82
6.500358e+000 -3.282725e+000 5.518711e-002 130 129 119
6.565605e+000 -3.234613e+000 3.798958e-002 52 48 45
6.600575e+000 -3.265058e+000 5.034715e-002 69 56 48
7.329594e+000 -3.323557e+000 -6.739004e-001 38 20 18
6.481240e+000 -3.342151e+000 6.327205e-002 58 46 40
6.490757e+000 -3.323036e+000 5.959196e-002 88 80 72
7.781640e+000 -3.301903e+000 -6.511601e-001 58 46 46
7.858061e+000 -3.301930e+000 -6.969928e-001 81 65 61
6.669126e+000 -3.383170e+000 4.116778e-002 81 67 61
7.855570e+000 -3.437523e+000 -7.121634e-001 63 43 44
8.098402e+000 -3.213450e+000 -1.976185e-001 204 210 205
8.349707e+000 -3.194318e+000 -3.168584e-001 123 111 95
7.264185e+000 -3.605371e+000 -6.933810e-001 42 28 19
7.526882e+000 -3.545795e+000 -7.163460e-001 52 34 27
7.560680e+000 -3.567316e+000 -7.145200e-001 58 41 34
7.892348e+000 -3.922000e+000 -5.808383e-001 107 86 74
7.330291e+000 -2.227902e+000 -9.792085e-001 152 150 151
7.442281e+000 -2.474269e+000 -8.043317e-001 69 51 41
7.442265e+000 -2.474133e+000 -8.029334e-001 69 51 41
6.559466e+000 -2.707722e+000 -2.990584e-001 111 111 103
6.165347e+000 -2.804876e+000 -3.069286e-001 93 87 87
6.381266e+000 -2.803463e+000 -1.942812e-001 130 126 116
7.550440e+000 -2.662624e+000 -7.565018e-001 92 74 60
7.653305e+000 -2.627008e+000 -7.878454e-001 91 74 61
7.738737e+000 -2.656963e+000 -8.354229e-001 67 50 32
6.080934e+000 -2.899428e+000 -2.464034e-001 135 134 129
6.262801e+000 -2.866424e+000 -1.639748e-001 134 136 129
6.324210e+000 -2.826718e+000 -1.925093e-001 138 131 123
6.605906e+000 -2.783581e+000 -2.280438e-001 70 52 39
6.442394e+000 -2.850796e+000 -3.788985e-002 152 152 142
6.511749e+000 -2.871292e+000 -5.747127e-002 52 37 32
6.636808e+000 -2.845879e+000 -2.162776e-001 35 21 20
7.441779e+000 -2.792036e+000 -6.723980e-001 91 75 63
7.718324e+000 -2.762331e+000 -7.596582e-001 90 73 57
7.780277e+000 -2.804999e+000 -7.744320e-001 93 76 58
7.938558e+000 -2.792592e+000 -9.144184e-001 94 77 58
6.398497e+000 -2.920490e+000 -1.150543e-002 85 76 70
6.517303e+000 -2.918122e+000 -3.483696e-002 77 63 60
6.576041e+000 -2.943965e+000 -4.459575e-002 37 21 22
7.749394e+000 -2.865232e+000 -7.312212e-001 87 70 55
6.876535e+000 -3.026754e+000 -3.664684e-001 36 19 18
6.277663e+000 -3.104093e+000 9.214556e-003 154 156 145
6.146909e+000 -3.207811e+000 -5.348193e-002 85 79 71
6.540129e+000 -3.141335e+000 -9.726014e-004 86 76 73
7.711927e+000 -3.104522e+000 -5.887620e-001 62 47 40
7.797631e+000 -3.060245e+000 -5.846793e-001 59 45 33
6.077195e+000 -3.274060e+000 -8.653045e-002 58 56 51
6.263486e+000 -3.263880e+000 -1.935794e-002 126 118 110
6.431503e+000 -3.170665e+000 2.638368e-002 139 136 118
6.570413e+000 -3.209563e+000 2.597993e-002 114 107 99
6.650956e+000 -3.146180e+000 1.097905e-002 96 86 76
7.318287e+000 -3.312059e+000 -6.968991e-001 76 58 56
6.369001e+000 -3.374010e+000 5.743305e-002 89 79 80
6.852408e+000 -3.314533e+000 -4.535137e-002 91 73 61
7.484841e+000 -3.427862e+000 -6.587279e-001 54 36 32
8.069361e+000 -3.177898e+000 -2.599144e-001 137 132 128
6.509258e+000 -3.416780e+000 8.211607e-002 50 38 35
7.532411e+000 -4.025423e+000 -1.012982e+000 106 79 50
8.003932e+000 -3.661627e+000 -4.057212e-001 90 72 61
7.989689e+000 -3.760770e+000 -4.597476e-001 122 103 88
6.996184e+000 -3.936854e+000 -2.702432e-001 163 136 91
7.702006e+000 -4.050251e+000 -8.433512e-001 176 155 105
7.349048e+000 -2.223387e+000 -9.413553e-001 82 80 69
7.603373e+000 -2.427642e+000 -8.789239e-001 71 51 40
6.167631e+000 -2.781474e+000 -3.231344e-001 32 22 23
6.252808e+000 -2.768644e+000 -2.771299e-001 68 58 57
6.279511e+000 -2.786190e+000 -2.306880e-001 61 55 49
6.424363e+000 -2.762583e+000 -2.411179e-001 52 40 34
5.989816e+000 -2.924572e+000 -3.112685e-001 116 113 108
6.180042e+000 -2.859446e+000 -2.335218e-001 127 124 115
6.530647e+000 -2.816723e+000 -1.863099e-001 39 26 20
7.290461e+000 -2.781379e+000 -6.383840e-001 91 83 80
7.474909e+000 -2.735729e+000 -7.103052e-001 85 68 60
7.536861e+000 -2.702808e+000 -7.129026e-001 78 62 47
6.065974e+000 -2.984192e+000 -1.693199e-001 149 146 137
6.188862e+000 -2.920459e+000 -1.579524e-001 162 162 153
6.464677e+000 -2.853462e+000 -5.738907e-002 69 51 40
7.296867e+000 -2.928111e+000 -6.720054e-001 53 38 35
7.547936e+000 -2.891613e+000 -6.311556e-001 66 54 40
7.844116e+000 -2.826563e+000 -8.035521e-001 90 72 54
6.485817e+000 -3.001984e+000 -6.233879e-003 57 43 34
6.702835e+000 -2.950056e+000 -1.152869e-001 84 62 52
7.459628e+000 -2.945779e+000 -5.872345e-001 59 46 40
7.460204e+000 -2.946378e+000 -5.878587e-001 59 46 40
6.029677e+000 -3.199920e+000 -1.194999e-001 161 158 153
6.100407e+000 -3.173457e+000 -7.900199e-002 79 71 68
6.101198e+000 -3.172622e+000 -7.709507e-002 79 71 68
6.642713e+000 -3.050227e+000 -2.174476e-002 46 35 31
7.556927e+000 -3.051986e+000 -5.671648e-001 89 74 67
5.865518e+000 -3.306858e+000 -1.472908e-001 109 126 135
6.159761e+000 -3.225266e+000 -5.742202e-002 155 155 145
6.487156e+000 -3.095412e+000 3.505008e-005 116 117 112
6.531241e+000 -3.116125e+000 9.582530e-003 119 115 106
7.734317e+000 -3.075514e+000 -6.229205e-001 88 75 67
7.734317e+000 -3.075514e+000 -6.229205e-001 88 75 67
6.648384e+000 -3.203984e+000 1.278725e-002 86 79 69
6.159701e+000 -3.331499e+000 -6.146482e-002 61 44 44
7.264217e+000 -3.414206e+000 -6.465793e-001 39 24 19
6.570261e+000 -3.392988e+000 6.331780e-002 48 39 34
7.997234e+000 -3.265848e+000 -2.882890e-001 118 115 110
8.041529e+000 -3.250138e+000 -2.556525e-001 183 202 209
6.538486e+000 -3.440377e+000 7.945424e-002 92 78 75
7.892477e+000 -3.435501e+000 -4.006697e-001 109 97 91
7.892477e+000 -3.435501e+000 -4.006697e-001 109 97 91
7.932208e+000 -3.372811e+000 -3.453190e-001 118 112 108
7.585388e+000 -3.726650e+000 -7.475302e-001 51 35 33
7.548016e+000 -3.992897e+000 -1.037066e+000 75 59 38
7.575070e+000 -3.985888e+000 -1.018174e+000 149 125 89
7.570917e+000 -3.977783e+000 -9.950066e-001 149 125 89
7.764746e+000 -3.771906e+000 -6.662080e-001 46 32 29
6.169496e+000 -3.854776e+000 4.118773e-001 40 25 37
9.193197e+000 -3.885952e+000 -1.769951e-001 152 143 98
6.892206e+000 -2.354889e+000 -8.814453e-001 168 134 105
6.523333e+000 -2.776527e+000 -2.148464e-001 133 131 119
6.234403e+000 -2.859021e+000 -1.961183e-001 81 77 69
6.158060e+000 -2.956487e+000 -1.424217e-001 81 74 63
6.653015e+000 -2.897860e+000 -1.370402e-001 75 53 46
6.313676e+000 -3.025461e+000 1.356239e-003 100 95 87
6.683882e+000 -2.966432e+000 -7.407141e-002 53 36 26
6.174773e+000 -3.148243e+000 -3.595932e-002 152 155 144
6.357620e+000 -3.052021e+000 2.573448e-002 72 67 56
7.491975e+000 -3.109776e+000 -5.693297e-001 61 45 42
6.247079e+000 -3.335794e+000 -3.426361e-002 91 90 85
7.415786e+000 -3.356441e+000 -6.481897e-001 28 15 13
7.891828e+000 -3.291800e+000 -4.559328e-001 181 202 205
7.889961e+000 -3.290848e+000 -4.520985e-001 181 202 205
6.484425e+000 -3.410122e+000 6.884467e-002 124 119 115
7.886414e+000 -3.416609e+000 -4.229602e-001 155 168 172
7.886414e+000 -3.416609e+000 -4.229602e-001 155 168 172
7.318578e+000 -3.774551e+000 -7.818533e-001 97 74 58
7.872375e+000 -3.503297e+000 -4.454224e-001 149 150 149
6.470584e+000 -2.729187e+000 -2.779242e-001 67 54 48
6.353231e+000 -2.779919e+000 -2.300122e-001 75 66 59
6.350965e+000 -2.786797e+000 -2.619887e-001 75 66 59
6.246763e+000 -2.882635e+000 -1.433842e-001 121 122 114
6.385677e+000 -2.831799e+000 -1.524436e-001 66 54 50
6.087151e+000 -2.984333e+000 -1.744258e-001 135 135 125
6.201996e+000 -2.964672e+000 -1.117453e-001 126 124 112
7.592948e+000 -2.895640e+000 -6.410353e-001 87 70 60
6.358658e+000 -2.981772e+000 7.932976e-003 56 43 35
6.742536e+000 -3.001514e+000 -1.153519e-001 75 54 39
6.238696e+000 -3.076934e+000 -1.527615e-002 150 153 144
6.707424e+000 -3.050111e+000 -5.029489e-002 40 26 23
6.114384e+000 -3.200046e+000 -6.522736e-002 149 154 147
8.386302e+000 -3.147197e+000 -1.150785e+000 80 63 47
5.960698e+000 -3.294419e+000 -1.003825e-001 50 42 46
6.201897e+000 -3.231452e+000 -4.412103e-002 73 64 59
6.671942e+000 -3.226663e+000 1.403435e-002 54 40 37
6.675284e+000 -3.466242e+000 4.871551e-002 75 56 40
6.317170e+000 -3.548262e+000 2.710808e-001 58 43 47
6.260688e+000 -3.123017e+000 5.857001e-003 154 154 144
7.444222e+000 -3.122136e+000 -5.771100e-001 70 52 48
6.200634e+000 -3.348863e+000 -5.357596e-002 37 28 30
8.380414e+000 -3.230320e+000 -3.465035e-001 124 115 103
6.504868e+000 -3.454057e+000 1.469138e-001 35 24 22
6.504868e+000 -3.454057e+000 1.469138e-001 35 24 22
7.831088e+000 -2.849834e+000 -7.598779e-001 93 74 57
6.112130e+000 -2.446144e+000 -2.261621e-001 28 17 23
6.689137e+000 -2.768316e+000 -5.363851e-001 25 11 18
6.326272e+000 -2.882882e+000 -8.746036e-002 20 18 23
6.422816e+000 -2.860094e+000 -7.843503e-002 89 85 76
6.505214e+000 -2.841277e+000 -7.768743e-002 55 35 28
6.046885e+000 -3.152647e+000 -1.302650e-001 136 135 131
8.080357e+000 -2.978995e+000 -8.884522e-001 50 36 35
6.655097e+000 -3.531202e+000 7.897766e-002 23 13 14
7.877789e+000 -3.795113e+000 -5.705377e-001 116 101 96
6.938183e+000 -4.001613e+000 -4.028799e-001 65 38 28
6.232468e+000 -2.838272e+000 -2.217637e-001 131 131 124
6.619994e+000 -3.664447e+000 1.719909e-001 27 18 19
7.663581e+000 -3.417259e+000 -6.107684e-001 85 71 69
7.428580e+000 -3.268077e+000 -6.514445e-001 42 31 27
8.157836e+000 -3.153221e+000 -1.231469e+000 71 54 47
6.023366e+000 -2.396863e+000 -2.529061e-001 62 49 56
7.294599e+000 -2.382618e+000 -9.716025e-001 60 49 51
7.294599e+000 -2.382618e+000 -9.716025e-001 60 49 51
5.969370e+000 -2.580137e+000 -1.353341e-001 38 23 30
7.016550e+000 -2.544520e+000 -1.021706e+000 155 131 93
7.016550e+000 -2.544520e+000 -1.021706e+000 155 131 93
7.008381e+000 -2.557813e+000 -9.411578e-001 160 136 99
7.019127e+000 -2.546667e+000 -8.978166e-001 89 64 34
6.150747e+000 -2.854461e+000 -2.612491e-001 107 104 99
6.193159e+000 -2.830212e+000 -2.987325e-001 79 72 62
6.416433e+000 -2.748515e+000 -2.654289e-001 87 78 71
5.824893e+000 -3.029352e+000 -3.947214e-001 153 151 152
5.878658e+000 -3.033738e+000 -3.734715e-001 127 123 120
5.940175e+000 -2.988679e+000 -2.776391e-001 150 149 144
5.957966e+000 -2.979285e+000 -2.903915e-001 135 135 127
6.045573e+000 -2.917165e+000 -2.087722e-001 133 130 121
6.028428e+000 -2.952766e+000 -2.503520e-001 126 122 113
6.028428e+000 -2.952766e+000 -2.503520e-001 126 122 113
6.259885e+000 -2.856859e+000 -2.203362e-001 131 127 118
6.339514e+000 -2.817462e+000 -2.122473e-001 77 73 64
6.361408e+000 -2.832535e+000 -2.508131e-001 72 69 60
7.243391e+000 -2.764510e+000 -6.486673e-001 76 71 65
5.712872e+000 -3.190630e+000 -5.371281e-001 137 133 129
6.238958e+000 -2.900099e+000 -1.513109e-001 136 136 128
6.278992e+000 -2.872897e+000 -9.236246e-002 111 108 99
5.986769e+000 -3.081168e+000 -2.154753e-001 118 114 109
5.986769e+000 -3.081168e+000 -2.154753e-001 118 114 109
6.272937e+000 -2.924999e+000 -4.311662e-002 105 105 100
6.304453e+000 -2.945727e+000 -2.775972e-002 147 144 135
6.456472e+000 -2.851758e+000 -1.863830e-002 96 88 76
5.627873e+000 -3.432877e+000 -6.055295e-001 83 68 67
6.057991e+000 -3.147509e+000 -1.268509e-001 143 142 137
6.246947e+000 -3.087359e+000 1.510620e-003 139 139 131
6.479172e+000 -2.987334e+000 1.812574e-002 57 48 41
6.183652e+000 -3.159706e+000 -6.075477e-003 133 131 122
6.188163e+000 -3.163641e+000 1.489520e-002 107 102 93
6.204680e+000 -3.179220e+000 -2.922000e-002 105 104 92
6.359648e+000 -3.066242e+000 3.628989e-002 82 82 74
6.360134e+000 -3.100143e+000 1.169992e-002 93 92 80
5.913375e+000 -3.310773e+000 -9.939973e-002 209 241 244
5.903869e+000 -3.325845e+000 -6.734876e-002 49 43 53
6.027163e+000 -3.262459e+000 -9.429129e-002 70 69 65
6.098932e+000 -3.225090e+000 -5.427350e-002 101 98 93
6.305275e+000 -3.156696e+000 -4.275024e-003 96 96 87
5.901682e+000 -3.336340e+000 -4.027934e-002 105 106 124
6.240001e+000 -3.259795e+000 -1.950347e-002 83 83 72
6.240001e+000 -3.259795e+000 -1.950347e-002 83 83 72
6.392777e+000 -3.184426e+000 5.255031e-002 102 101 97
6.447334e+000 -3.240487e+000 1.017908e-002 74 67 59
6.261568e+000 -3.357336e+000 -1.767695e-002 93 84 85
6.431050e+000 -3.377746e+000 1.140073e-001 71 66 62
5.773278e+000 -3.672612e+000 2.904855e-001 89 72 80
5.885466e+000 -3.648809e+000 3.124762e-001 34 27 35
7.295985e+000 -2.215410e+000 -1.030479e+000 161 138 106
5.998592e+000 -2.550783e+000 -1.418378e-001 28 18 26
7.300922e+000 -2.435557e+000 -1.004833e+000 57 47 46
7.308595e+000 -2.391244e+000 -9.723943e-001 101 89 90
7.055496e+000 -2.541052e+000 -9.455845e-001 159 139 107
6.148527e+000 -2.831758e+000 -2.822158e-001 91 83 81
6.111492e+000 -2.860109e+000 -3.063545e-001 55 50 47
6.199016e+000 -2.846357e+000 -2.544959e-001 73 72 62
6.200214e+000 -2.842205e+000 -2.417204e-001 73 72 62
6.200747e+000 -2.831810e+000 -2.594821e-001 127 124 115
6.200747e+000 -2.831810e+000 -2.594821e-001 127 124 115
5.916735e+000 -2.986218e+000 -3.541515e-001 138 134 123
6.091540e+000 -2.928611e+000 -2.041346e-001 106 102 93
6.121603e+000 -2.882575e+000 -2.424657e-001 71 68 61
6.225905e+000 -2.884911e+000 -1.989482e-001 134 134 124
5.814604e+000 -3.082489e+000 -3.527276e-001 101 96 91
5.884499e+000 -3.031390e+000 -3.271369e-001 161 162 157
5.670364e+000 -3.245613e+000 -5.958343e-001 135 127 124
6.300925e+000 -2.923247e+000 -8.185416e-003 116 117 109
6.269671e+000 -2.987662e+000 -6.655307e-003 139 139 132
5.949213e+000 -3.212369e+000 -2.382155e-001 64 59 63
5.979322e+000 -3.184947e+000 -1.830520e-001 129 127 128
6.293353e+000 -3.060091e+000 8.448836e-003 123 123 113
6.318335e+000 -3.068382e+000 7.975191e-003 101 101 91
7.302815e+000 -2.981881e+000 -4.755867e-001 48 33 28
5.718339e+000 -3.357801e+000 -2.251564e-001 160 185 208
5.852981e+000 -3.292595e+000 -1.484905e-001 128 143 148
6.049988e+000 -3.226712e+000 -1.059715e-001 63 52 48
6.298512e+000 -3.119680e+000 1.041503e-002 95 97 84
5.891194e+000 -3.322351e+000 -1.218554e-001 50 49 59
5.935986e+000 -3.322717e+000 -4.803256e-002 60 59 68
5.968054e+000 -3.320526e+000 -1.284931e-001 43 34 39
6.472841e+000 -3.132116e+000 5.292450e-002 83 75 64
6.732881e+000 -3.096922e+000 -2.746567e-002 86 76 66
5.703535e+000 -3.457963e+000 -2.058353e-001 117 129 144
5.889657e+000 -3.353457e+000 -4.401146e-002 99 104 123
5.905015e+000 -3.370528e+000 1.842082e-002 62 53 66
6.353580e+000 -3.284775e+000 2.776113e-002 98 94 85
6.447612e+000 -3.223467e+000 7.703184e-002 93 88 79
6.570285e+000 -3.244015e+000 5.284694e-002 126 126 121
6.570285e+000 -3.244015e+000 5.284694e-002 126 126 121
6.039105e+000 -3.351819e+000 2.569813e-001 71 58 65
6.620206e+000 -3.301838e+000 7.060689e-002 61 54 49
5.885405e+000 -3.470430e+000 2.398336e-001 94 81 90
6.158702e+000 -3.432203e+000 2.077354e-001 77 68 73
5.794594e+000 -3.575224e+000 2.518956e-001 99 83 93
6.357705e+000 -3.498095e+000 1.825967e-001 93 80 87
6.650793e+000 -3.549101e+000 2.207415e-001 46 36 27
6.699510e+000 -3.534655e+000 2.448782e-001 70 59 41
6.056447e+000 -3.649974e+000 3.670603e-001 51 40 46
6.124254e+000 -3.784546e+000 3.207750e-001 67 61 66
6.124254e+000 -3.784546e+000 3.207750e-001 67 61 66
6.181001e+000 -3.678406e+000 3.701384e-001 65 54 59
6.181001e+000 -3.678406e+000 3.701384e-001 65 54 59
5.856909e+000 -3.930986e+000 3.252696e-001 68 49 58
7.363483e+000 -2.268294e+000 -9.300825e-001 106 97 92
5.799495e+000 -2.592813e+000 -2.014325e-001 86 72 85
5.834368e+000 -2.583367e+000 -2.212990e-001 51 35 45
5.946590e+000 -2.548951e+000 -1.723308e-001 39 28 36
6.850807e+000 -2.611531e+000 -6.322385e-001 71 51 42
7.566324e+000 -2.471777e+000 -8.520319e-001 66 50 37
7.705052e+000 -2.465675e+000 -9.820389e-001 98 80 66
6.378963e+000 -2.697921e+000 -2.877024e-001 54 43 41
6.357761e+000 -2.748188e+000 -3.368114e-001 67 54 57
6.507029e+000 -2.734202e+000 -3.474034e-001 73 67 61
7.461214e+000 -2.549745e+000 -7.879489e-001 65 50 38
6.047882e+000 -2.893780e+000 -3.355051e-001 106 100 96
6.172227e+000 -2.833166e+000 -2.754453e-001 101 98 93
6.315920e+000 -2.783394e+000 -2.574066e-001 144 147 136
6.393842e+000 -2.755613e+000 -2.294222e-001 125 122 114
6.644464e+000 -2.733065e+000 -3.803312e-001 70 51 45
6.061466e+000 -2.923828e+000 -2.452994e-001 66 63 56
6.174167e+000 -2.891931e+000 -1.982318e-001 132 129 120
6.172402e+000 -2.896339e+000 -2.108966e-001 132 129 120
6.262268e+000 -2.869908e+000 -1.750775e-001 134 134 124
6.450574e+000 -2.828600e+000 -2.028179e-001 103 99 89
6.450574e+000 -2.828600e+000 -2.028179e-001 103 99 89
5.583514e+000 -3.273787e+000 -7.719985e-001 148 148 142
5.685126e+000 -3.197618e+000 -5.406657e-001 142 137 133
5.761589e+000 -3.154835e+000 -4.606977e-001 140 140 132
6.089588e+000 -2.969173e+000 -1.797319e-001 141 141 132
6.275649e+000 -2.879570e+000 -1.587769e-001 83 81 69
6.332993e+000 -2.864575e+000 -1.311353e-001 26 26 24
5.622342e+000 -3.265311e+000 -6.607869e-001 135 132 127
5.613832e+000 -3.366698e+000 -7.717732e-001 131 122 119
5.714638e+000 -3.249744e+000 -5.479699e-001 152 149 144
5.929288e+000 -3.068194e+000 -2.717121e-001 142 143 135
6.037202e+000 -3.043773e+000 -2.697926e-001 97 94 85
6.037202e+000 -3.043773e+000 -2.697926e-001 97 94 85
6.175210e+000 -3.001876e+000 -1.069699e-001 89 89 81
6.175210e+000 -3.001876e+000 -1.069699e-001 89 89 81
6.243476e+000 -2.947746e+000 -1.162389e-001 124 120 112
6.280854e+000 -2.939929e+000 -5.263417e-002 144 149 143
6.326064e+000 -2.890611e+000 2.794977e-002 66 57 50
6.339093e+000 -2.895944e+000 -6.467921e-002 65 59 58
6.000374e+000 -3.157083e+000 -2.142652e-001 56 47 52
6.411390e+000 -2.979791e+000 -3.587739e-002 110 106 95
5.906960e+000 -3.257145e+000 -2.588947e-001 49 47 52
5.969696e+000 -3.180316e+000 -2.283405e-001 59 54 59
6.023912e+000 -3.172333e+000 -1.251327e-001 92 89 84
6.311562e+000 -3.056127e+000 3.663297e-003 134 134 124
6.407652e+000 -3.016666e+000 2.965647e-002 78 73 68
6.298976e+000 -3.128820e+000 4.173007e-002 134 135 125
6.621437e+000 -3.042654e+000 -3.013434e-002 87 73 63
6.485867e+000 -3.120297e+000 -1.410045e-002 62 58 49
6.073217e+000 -3.225953e+000 2.379816e-001 52 45 55
6.232828e+000 -3.237574e+000 -1.647763e-002 83 81 76
6.401513e+000 -3.292122e+000 4.387378e-002 94 84 80
6.509184e+000 -3.221463e+000 4.991681e-002 73 66 55
6.725401e+000 -3.219194e+000 3.965535e-002 84 74 65
6.368925e+000 -3.375797e+000 5.379109e-002 86 81 77
6.453298e+000 -3.356315e+000 5.655528e-002 63 54 48
6.523284e+000 -3.286751e+000 6.597199e-002 108 104 95
6.653717e+000 -3.283172e+000 1.365681e-002 87 77 68
5.735955e+000 -3.532946e+000 1.760497e-001 33 23 31
6.638049e+000 -3.324653e+000 5.275069e-002 109 103 93
6.638049e+000 -3.324653e+000 5.275069e-002 109 103 93
6.728964e+000 -3.368672e+000 1.546817e-002 46 29 22
6.669817e+000 -3.407831e+000 4.222843e-002 43 33 24
5.920433e+000 -3.618472e+000 3.337793e-001 22 12 20
6.228280e+000 -3.473806e+000 4.004945e-001 35 22 29
6.615478e+000 -3.514886e+000 1.745999e-001 105 91 63
6.317938e+000 -3.571650e+000 3.672018e-001 69 59 60
6.400863e+000 -3.590897e+000 3.201240e-001 54 42 48
5.849771e+000 -3.827096e+000 3.367388e-001 29 16 23
5.811955e+000 -3.925566e+000 2.675841e-001 54 37 47
5.609862e+000 -2.527852e+000 -4.863843e-001 51 35 48
7.348413e+000 -2.222710e+000 -9.362698e-001 78 70 67
7.317317e+000 -2.364135e+000 -9.342957e-001 53 41 43
7.308114e+000 -2.438335e+000 -8.286006e-001 99 96 94
7.702296e+000 -2.424254e+000 -1.008446e+000 102 81 67
6.213625e+000 -2.773285e+000 -2.806712e-001 99 92 84
6.664199e+000 -2.684680e+000 -3.795629e-001 32 19 17
6.076904e+000 -2.890633e+000 -2.988189e-001 68 58 57
6.323849e+000 -2.796612e+000 -2.319347e-001 73 64 54
5.923434e+000 -2.981226e+000 -2.721163e-001 97 90 82
6.101965e+000 -2.898200e+000 -2.946824e-001 77 69 65
6.125399e+000 -2.888108e+000 -1.979678e-001 123 127 118
6.125399e+000 -2.888108e+000 -1.979678e-001 123 127 118
6.491173e+000 -2.800586e+000 -3.148302e-001 50 44 36
6.493029e+000 -2.771065e+000 -2.210917e-001 50 44 36
6.007291e+000 -2.982282e+000 -2.178024e-001 164 169 161
6.007291e+000 -2.982282e+000 -2.178024e-001 164 169 161
6.063271e+000 -2.955692e+000 -1.571557e-001 80 75 64
6.094673e+000 -2.926918e+000 -1.437147e-001 92 83 74
6.111758e+000 -2.959535e+000 -1.783085e-001 96 87 78
6.111758e+000 -2.959535e+000 -1.783085e-001 96 87 78
6.357186e+000 -2.856223e+000 -1.385131e-001 93 94 90
5.670673e+000 -3.264819e+000 -6.645080e-001 95 84 84
5.872591e+000 -3.122982e+000 -3.700210e-001 73 69 58
6.255617e+000 -2.956319e+000 -7.749195e-002 68 63 57
6.153157e+000 -3.045597e+000 -9.903928e-002 95 86 84
6.684533e+000 -2.935237e+000 -1.590989e-001 71 54 35
5.959711e+000 -3.205639e+000 -1.654392e-001 145 144 139
5.986782e+000 -3.195861e+000 -1.588774e-001 81 77 73
6.534570e+000 -2.982862e+000 -1.263730e-002 61 47 40
7.541528e+000 -2.962625e+000 -6.076563e-001 77 64 55
6.401079e+000 -3.002278e+000 1.455499e-001 74 69 63
5.821452e+000 -3.393008e+000 -5.579890e-002 245 255 254
5.880074e+000 -3.396152e+000 -2.983673e-002 238 255 255
5.880074e+000 -3.396152e+000 -2.983673e-002 238 255 255
6.183378e+000 -3.259229e+000 -3.625828e-002 141 146 138
6.234051e+000 -3.293132e+000 -4.327279e-002 124 124 116
6.185804e+000 -3.375391e+000 -2.529869e-002 73 65 63
6.865208e+000 -3.247768e+000 -7.433207e-002 77 64 56
6.381477e+000 -3.435164e+000 5.752808e-002 35 26 27
6.702354e+000 -3.401230e+000 2.770164e-002 48 37 30
6.275218e+000 -3.455357e+000 2.538657e-001 34 23 29
6.725107e+000 -3.442418e+000 6.230768e-002 75 58 47
6.733883e+000 -3.544046e+000 1.938593e-001 29 17 17
6.426975e+000 -3.557598e+000 3.781875e-001 25 16 17
5.815981e+000 -3.937090e+000 3.185805e-001 61 44 60
6.086913e+000 -3.799505e+000 3.740052e-001 25 14 18
5.775547e+000 -2.495920e+000 -2.976506e-001 33 22 30
6.087590e+000 -2.398356e+000 -2.190243e-001 46 30 37
6.866851e+000 -2.326973e+000 -9.287267e-001 165 133 94
6.926953e+000 -2.388495e+000 -9.301822e-001 91 62 48
6.972730e+000 -2.481125e+000 -9.298107e-001 144 115 75
7.322661e+000 -2.472762e+000 -8.958743e-001 119 119 117
6.359053e+000 -2.681560e+000 -2.926931e-001 58 44 43
6.124441e+000 -2.809963e+000 -3.074260e-001 39 29 28
6.399855e+000 -2.719041e+000 -2.789596e-001 59 54 50
5.902011e+000 -2.961317e+000 -3.902891e-001 147 146 144
6.117184e+000 -2.838375e+000 -3.092083e-001 84 76 74
6.458147e+000 -2.777204e+000 -2.211511e-001 107 103 94
6.049849e+000 -2.939304e+000 -2.270292e-001 144 140 131
6.148349e+000 -2.909382e+000 -1.854741e-001 74 70 64
6.841649e+000 -2.871441e+000 -7.406698e-001 51 30 29
5.892488e+000 -3.039408e+000 -3.334131e-001 147 146 142
5.932194e+000 -3.041136e+000 -2.706733e-001 86 78 71
6.003847e+000 -3.018728e+000 -2.288352e-001 81 69 67
6.407198e+000 -2.856278e+000 -8.167702e-002 142 147 140
6.633270e+000 -2.818799e+000 -2.339258e-001 71 51 40
5.599090e+000 -3.338791e+000 -7.785433e-001 81 72 65
5.744359e+000 -3.220438e+000 -4.889481e-001 148 145 141
5.781741e+000 -3.168336e+000 -4.494752e-001 71 61 59
5.790616e+000 -3.156211e+000 -4.198741e-001 71 61 59
5.987797e+000 -3.073320e+000 -2.530017e-001 77 72 66
6.075303e+000 -3.051670e+000 -1.932096e-001 157 159 148
6.149848e+000 -2.980971e+000 -1.258646e-001 155 153 146
6.171379e+000 -3.010011e+000 -6.923305e-002 150 151 143
6.180605e+000 -3.077604e+000 -4.629927e-002 93 91 79
6.646236e+000 -2.997556e+000 -4.415734e-002 38 27 24
6.324406e+000 -3.099449e+000 -2.820989e-002 148 151 144
6.324406e+000 -3.099449e+000 -2.820989e-002 148 151 144
6.293749e+000 -3.281945e+000 5.130570e-002 52 45 42
6.493830e+000 -3.242245e+000 7.291515e-002 116 111 107
6.551893e+000 -3.230349e+000 5.634980e-002 50 49 45
6.551893e+000 -3.230349e+000 5.634980e-002 50 49 45
6.769426e+000 -3.175613e+000 7.758143e-003 81 70 62
5.994676e+000 -3.375638e+000 2.420773e-001 28 16 20
6.441864e+000 -3.337011e+000 5.087987e-002 133 133 125
6.401317e+000 -3.400040e+000 6.673870e-002 112 106 103
6.710038e+000 -3.363919e+000 8.825169e-003 95 85 73
5.755416e+000 -3.567611e+000 2.468650e-001 45 30 37
5.772786e+000 -3.566554e+000 2.155060e-001 91 81 92
5.764711e+000 -3.760759e+000 2.910857e-001 33 18 23
6.164669e+000 -3.670045e+000 2.685529e-001 21 16 20
6.184896e+000 -3.730878e+000 2.719173e-001 21 12 16
6.247755e+000 -3.747614e+000 4.413690e-001 37 22 27
7.364322e+000 -2.187750e+000 -1.054518e+000 172 173 176
6.955129e+000 -2.394084e+000 -8.732793e-001 159 134 96
5.902773e+000 -2.676075e+000 -1.849597e-001 45 32 39
6.433181e+000 -2.794752e+000 -2.101341e-001 57 44 36
6.554348e+000 -2.806437e+000 -2.080204e-001 106 100 88
5.748435e+000 -3.121462e+000 -4.678080e-001 106 97 99
6.125465e+000 -2.940533e+000 -1.906543e-001 141 142 128
5.573022e+000 -3.327573e+000 -7.157167e-001 156 161 154
5.592758e+000 -3.370784e+000 -7.343872e-001 68 46 49
5.855665e+000 -3.141261e+000 -3.551893e-001 144 144 136
6.038762e+000 -3.054933e+000 -2.217224e-001 147 151 138
6.229012e+000 -2.956339e+000 -1.227294e-001 118 114 105
6.229012e+000 -2.956339e+000 -1.227294e-001 118 114 105
5.577072e+000 -3.401917e+000 -7.077909e-001 57 41 41
5.933888e+000 -3.142990e+000 -2.908799e-001 31 28 28
6.495930e+000 -2.942039e+000 -1.462435e-002 47 35 29
6.091243e+000 -3.135137e+000 -6.589673e-002 144 146 141
6.920002e+000 -3.086175e+000 -2.851736e-001 80 54 41
6.108294e+000 -3.269194e+000 -5.790828e-002 114 115 107
6.847150e+000 -3.114547e+000 -1.069604e-001 33 18 15
6.833609e+000 -3.142357e+000 -7.774835e-002 83 66 53
6.469280e+000 -3.291138e+000 5.730477e-002 56 49 41
5.929368e+000 -3.691489e+000 3.942035e-001 48 36 46
6.220990e+000 -3.748019e+000 4.330440e-001 59 47 48
5.896850e+000 -2.684989e+000 -2.142186e-001 43 30 37
6.572306e+000 -2.679416e+000 -3.901814e-001 37 26 24
6.560095e+000 -2.734649e+000 -2.304297e-001 43 32 27
5.951711e+000 -3.003817e+000 -2.943799e-001 151 150 145
6.245887e+000 -2.976989e+000 -6.135091e-002 76 73 66
6.436591e+000 -2.910951e+000 -3.616374e-002 66 53 44
6.632451e+000 -2.942581e+000 -5.136628e-002 72 58 49
6.874822e+000 -2.970404e+000 -3.484121e-001 70 44 32
6.281222e+000 -3.180949e+000 -5.108576e-003 51 51 43
6.754883e+000 -3.148379e+000 -2.272186e-002 48 41 33
6.908896e+000 -3.255465e+000 -1.202015e-001 53 35 21
6.800352e+000 -3.483473e+000 -8.315609e-002 44 27 20
5.995599e+000 -2.868145e+000 -2.986079e-001 49 35 35
5.913572e+000 -3.204509e+000 -2.241217e-001 37 32 36
5.959888e+000 -3.252659e+000 -1.712790e-001 141 142 136
6.061806e+000 -3.290183e+000 -1.649455e-002 38 28 27
6.965296e+000 -3.269298e+000 -3.284016e-001 79 58 41
5.844443e+000 -3.676334e+000 2.696097e-001 35 26 31
6.089482e+000 -3.696272e+000 2.751629e-001 20 14 16
6.805753e+000 -2.790611e+000 -7.930942e-001 145 132 124
5.941900e+000 -3.156684e+000 -2.620667e-001 52 50 49
5.941900e+000 -3.156684e+000 -2.620667e-001 52 50 49
7.548519e+000 -2.549549e+000 -7.765931e-001 66 51 44
5.877934e+000 -3.001832e+000 -2.707408e-001 137 137 136
6.276009e+000 -3.394123e+000 2.337306e-002 30 20 21
7.223429e+000 -2.660088e+000 -1.448052e+000 59 40 34
9.092914e+000 -3.611578e+000 -3.115676e-001 136 120 71
7.935284e+000 -2.626738e+000 -9.620634e-001 67 48 31
7.595652e+000 -2.486798e+000 -8.726664e-001 91 75 63
7.489037e+000 -2.854766e+000 -6.300055e-001 69 53 40
8.819956e+000 -2.254501e+000 -8.730617e-001 158 142 91
8.798909e+000 -2.290177e+000 -9.177069e-001 155 138 92
8.811258e+000 -2.291758e+000 -9.388029e-001 155 138 92
6.681640e+000 -2.923624e+000 -1.202410e-001 79 58 40
6.461710e+000 -3.203433e+000 3.631003e-002 150 152 141
6.545289e+000 -3.253897e+000 5.364592e-002 50 44 38
6.784804e+000 -3.196048e+000 -4.032739e-002 76 61 56
6.781303e+000 -3.188082e+000 -2.038748e-002 76 61 56
8.674594e+000 -2.605068e+000 -1.152858e+000 163 150 96
7.264752e+000 -2.755237e+000 -1.024617e+000 42 30 34
6.401296e+000 -3.036271e+000 6.344701e-003 87 82 76
6.610798e+000 -3.122495e+000 6.380220e-003 65 60 51
6.482417e+000 -3.318704e+000 4.498316e-002 62 52 45
7.320313e+000 -2.468695e+000 -1.625767e+000 80 63 64
7.242921e+000 -2.661032e+000 -1.510557e+000 141 122 100
7.242921e+000 -2.661032e+000 -1.510557e+000 141 122 100
7.254845e+000 -2.582445e+000 -1.347757e+000 93 82 88
7.822256e+000 -2.655962e+000 -9.443232e-001 64 46 31
7.970192e+000 -3.206786e+000 -3.399211e-001 105 98 95
7.903893e+000 -3.567256e+000 -7.151123e-001 92 86 83
7.248672e+000 -2.577425e+000 -1.164616e+000 95 83 95
7.248672e+000 -2.577425e+000 -1.164616e+000 95 83 95
7.683278e+000 -2.453708e+000 -9.022739e-001 98 80 66
6.530378e+000 -2.708005e+000 -2.966310e-001 45 35 33
7.735058e+000 -2.629893e+000 -8.639525e-001 63 44 30
7.852266e+000 -2.628987e+000 -8.666620e-001 96 78 58
7.873550e+000 -2.665495e+000 -9.060150e-001 92 75 57
8.173496e+000 -3.061628e+000 -8.900707e-001 51 38 30
6.718690e+000 -3.286998e+000 7.101509e-003 71 60 53
7.493073e+000 -3.400821e+000 -6.923844e-001 73 59 53
7.547433e+000 -3.428632e+000 -6.864898e-001 54 37 30
7.894343e+000 -3.311058e+000 -4.216934e-001 110 102 94
7.779694e+000 -3.801727e+000 -7.183443e-001 46 35 33
7.805782e+000 -3.782741e+000 -6.840398e-001 63 52 48
9.064501e+000 -3.361586e+000 -2.971611e-001 137 120 75
9.064501e+000 -3.361586e+000 -2.971611e-001 137 120 75
7.166483e+000 -2.663113e+000 -1.430366e+000 105 93 99
7.496516e+000 -2.464831e+000 -8.520420e-001 69 53 40
7.303757e+000 -2.679761e+000 -1.129893e+000 47 40 44
7.290753e+000 -2.719874e+000 -1.033652e+000 51 40 46
6.611098e+000 -2.769616e+000 -2.491970e-001 40 26 17
7.252665e+000 -2.911087e+000 -8.227623e-001 48 34 33
5.544565e+000 -3.470775e+000 -7.833427e-001 109 101 91
7.834256e+000 -3.085470e+000 -6.291694e-001 80 63 52
7.788271e+000 -3.104203e+000 -6.166031e-001 81 66 58
6.561955e+000 -3.303924e+000 4.897194e-002 58 51 43
7.719359e+000 -3.305663e+000 -6.410233e-001 46 36 34
6.604933e+000 -3.413459e+000 6.223985e-002 90 83 79
7.856734e+000 -3.662280e+000 -5.073242e-001 119 110 103
7.896043e+000 -3.770060e+000 -5.052120e-001 81 68 60
7.639564e+000 -2.195821e+000 -1.503181e+000 103 84 54
7.321457e+000 -2.557379e+000 -1.270621e+000 52 41 46
7.308176e+000 -2.628854e+000 -1.164843e+000 48 34 41
7.529543e+000 -2.470621e+000 -8.453526e-001 87 72 59
6.358769e+000 -2.751757e+000 -2.647651e-001 122 116 107
7.769295e+000 -3.327085e+000 -7.000894e-001 100 95 92
6.709805e+000 -3.360640e+000 1.624738e-002 95 85 73
7.837116e+000 -3.270852e+000 -4.087871e-001 98 94 92
7.911730e+000 -3.486529e+000 -7.004352e-001 105 101 100
7.922052e+000 -3.297660e+000 -3.769383e-001 178 204 212
7.288919e+000 -2.537439e+000 -1.456702e+000 105 98 106
7.281469e+000 -2.528448e+000 -1.404376e+000 105 98 106
7.273539e+000 -2.625635e+000 -1.221364e+000 87 81 90
7.915126e+000 -2.575804e+000 -9.417404e-001 90 73 56
5.614380e+000 -3.421014e+000 -7.357760e-001 124 117 108
7.859659e+000 -4.005592e+000 -6.993262e-001 72 52 43
7.247669e+000 -2.673871e+000 -1.352900e+000 43 30 27
7.247669e+000 -2.673871e+000 -1.352900e+000 43 30 27
7.303964e+000 -2.589329e+000 -1.171283e+000 47 41 45
7.860765e+000 -3.249348e+000 -6.719719e-001 52 41 40
7.916623e+000 -2.725508e+000 -8.765608e-001 88 72 46
8.097837e+000 -3.234179e+000 -2.276353e-001 161 175 176
7.927717e+000 -3.915156e+000 -5.944602e-001 79 62 54
7.785987e+000 -2.543670e+000 -9.434219e-001 93 75 55
8.811887e+000 -2.964854e+000 -9.620755e-001 165 155 106
8.021124e+000 -3.354261e+000 -3.830327e-001 163 172 179
5.933139e+000 -3.276433e+000 -1.974374e-001 81 82 82
7.475992e+000 -3.412334e+000 -6.670904e-001 78 63 58
7.928026e+000 -3.773864e+000 -4.954868e-001 115 99 86
7.364287e+000 -2.377260e+000 -8.585236e-001 64 50 41
6.106776e+000 -2.866129e+000 -2.774180e-001 123 119 116
6.172100e+000 -2.832539e+000 -2.739969e-001 109 108 103
6.422954e+000 -3.134499e+000 1.992041e-002 137 144 135
7.360112e+000 -2.390411e+000 -7.661471e-001 74 55 48
7.360112e+000 -2.390411e+000 -7.661471e-001 74 55 48
6.488540e+000 -2.702967e+000 -2.917478e-001 69 58 57
6.330555e+000 -2.765286e+000 -2.546754e-001 69 65 56
7.878575e+000 -2.580718e+000 -9.516139e-001 72 54 40
7.878575e+000 -2.580718e+000 -9.516139e-001 72 54 40
6.193149e+000 -3.094084e+000 -3.930945e-002 126 124 112
6.440446e+000 -3.152694e+000 1.428421e-002 81 74 69
7.567904e+000 -3.081138e+000 -5.810244e-001 81 67 64
7.567904e+000 -3.081138e+000 -5.810244e-001 81 67 64
7.796874e+000 -3.035418e+000 -6.170972e-001 62 47 40
8.373702e+000 -3.187624e+000 -2.872422e-001 54 37 23
7.278311e+000 -2.698575e+000 -1.098277e+000 75 66 71
7.232321e+000 -2.789948e+000 -1.087839e+000 61 46 46
8.654102e+000 -2.491840e+000 -1.213311e+000 147 128 86
8.679960e+000 -2.465960e+000 -1.179686e+000 136 122 77
6.308935e+000 -3.026257e+000 -6.464411e-004 96 93 84
7.531711e+000 -3.056246e+000 -5.726088e-001 60 46 39
6.699770e+000 -3.098260e+000 -3.546886e-002 43 33 23
6.723780e+000 -3.103222e+000 -8.978869e-003 88 82 71
6.208422e+000 -2.958986e+000 -1.077354e-001 121 121 110
6.471951e+000 -3.061009e+000 8.316146e-003 110 105 99
6.637762e+000 -3.057742e+000 -6.536721e-003 49 38 34
6.280370e+000 -3.463260e+000 1.593978e-001 62 53 56
8.115841e+000 -2.758743e+000 -9.301671e-001 129 122 111
7.926027e+000 -2.832103e+000 -7.572127e-001 60 46 35
7.679216e+000 -2.424695e+000 -9.201466e-001 97 78 64
7.696255e+000 -2.429416e+000 -9.158047e-001 68 49 34
7.698143e+000 -2.774783e+000 -7.302991e-001 60 47 31
7.879649e+000 -2.771554e+000 -8.450901e-001 92 75 57
8.164653e+000 -3.082388e+000 -9.268284e-001 73 65 55
7.258276e+000 -3.390977e+000 -6.481140e-001 61 50 44
7.367665e+000 -2.381242e+000 -8.650019e-001 63 53 44
7.266704e+000 -2.643372e+000 -1.560948e+000 54 40 28
8.806428e+000 -2.612414e+000 -8.548504e-001 173 161 113
7.687119e+000 -2.920544e+000 -6.357992e-001 60 43 33
6.979943e+000 -3.213152e+000 -5.431683e-001 51 31 20
6.648453e+000 -3.202957e+000 1.279436e-002 86 77 72
7.874672e+000 -3.532744e+000 -4.332277e-001 101 89 83
7.914354e+000 -3.551015e+000 -3.904737e-001 95 82 74
7.640341e+000 -2.548128e+000 -3.441089e-001 59 41 31
8.841912e+000 -2.543360e+000 -8.322514e-001 144 126 83
7.064365e+000 -2.765957e+000 -1.549666e+000 147 128 86
7.064365e+000 -2.765957e+000 -1.549666e+000 147 128 86
8.530356e+000 -2.570407e+000 -8.942853e-001 161 148 96
7.279863e+000 -2.547482e+000 -1.298960e+000 98 93 97
6.518087e+000 -2.698370e+000 -2.885559e-001 48 39 33
7.491744e+000 -2.643625e+000 -7.270593e-001 93 76 68
7.494467e+000 -2.647113e+000 -7.376109e-001 93 76 68
7.257778e+000 -2.757108e+000 -6.089584e-001 69 59 60
8.082914e+000 -2.674451e+000 -9.521931e-001 54 39 32
6.226525e+000 -3.007642e+000 -4.437558e-002 149 150 142
7.651795e+000 -2.883992e+000 -6.305775e-001 79 65 52
6.404967e+000 -3.028647e+000 3.447783e-003 81 78 71
7.695950e+000 -2.928950e+000 -6.650605e-001 60 43 36
7.518310e+000 -3.243703e+000 -6.499043e-001 71 57 51
6.366102e+000 -3.297948e+000 3.161230e-002 63 52 46
6.839942e+000 -3.299492e+000 -5.942570e-002 50 38 26
8.020342e+000 -3.158870e+000 -3.712219e-001 105 92 75
