ply
format ascii 1.0
element face 0
property list uchar int vertex_indices
element vertex 891
property float x
property float y
property float z
property uchar diffuse_red
property uchar diffuse_green
property uchar diffuse_blue
end_header
7.568973e+000 -2.831850e+000 -6.411225e-001 69 55 46
6.013707e+000 -3.006368e+000 -1.610225e-001 95 89 77
6.113862e+000 -3.007805e+000 -1.205215e-001 85 79 65
6.195798e+000 -3.004888e+000 -4.971693e-002 136 131 119
6.745310e+000 -2.994311e+000 -9.118488e-002 76 57 47
7.569522e+000 -2.905464e+000 -6.310280e-001 87 75 63
7.752273e+000 -2.925740e+000 -6.903862e-001 67 49 35
6.072903e+000 -3.062213e+000 -1.380044e-001 81 78 63
6.167255e+000 -3.061805e+000 -2.118960e-002 143 144 130
6.210609e+000 -3.061386e+000 3.684773e-002 98 88 78
6.192497e+000 -3.108957e+000 2.962053e-003 158 155 145
6.438149e+000 -3.096833e+000 7.982310e-002 125 119 107
6.484100e+000 -3.091708e+000 7.436467e-002 64 50 43
6.559663e+000 -3.064157e+000 4.934750e-002 88 77 71
6.684513e+000 -3.047536e+000 6.556866e-004 41 31 24
6.834180e+000 -3.083416e+000 -1.148358e-001 51 34 28
7.621181e+000 -3.004801e+000 -5.983242e-001 67 50 43
8.226080e+000 -2.976963e+000 -9.909680e-001 89 75 62
8.265518e+000 -2.984633e+000 -9.998792e-001 51 34 30
5.646048e+000 -3.212908e+000 -5.298978e-001 101 93 88
5.783939e+000 -3.148978e+000 -3.683328e-001 96 82 72
6.051088e+000 -3.148403e+000 -6.334735e-002 142 133 124
6.402819e+000 -3.109602e+000 4.927623e-002 73 60 54
6.477711e+000 -3.124284e+000 6.884784e-002 126 121 112
5.995626e+000 -3.221421e+000 -6.780152e-002 141 138 130
6.223864e+000 -3.254112e+000 3.558778e-002 147 144 129
7.595838e+000 -3.167285e+000 -5.667718e-001 60 43 36
7.625396e+000 -3.170879e+000 -5.439735e-001 89 72 65
7.703355e+000 -3.194554e+000 -6.841974e-001 86 71 64
8.458563e+000 -3.174090e+000 -1.121990e+000 82 66 50
6.534155e+000 -3.295824e+000 1.101701e-001 72 59 51
8.113558e+000 -3.245911e+000 -4.075082e-001 106 93 77
6.178120e+000 -3.339319e+000 1.221052e-002 135 130 123
6.750821e+000 -3.317469e+000 5.622414e-002 84 65 58
6.390246e+000 -3.455186e+000 1.288292e-001 79 68 66
8.072483e+000 -3.375763e+000 -3.564318e-001 160 164 160
8.212122e+000 -3.357913e+000 -2.456458e-001 112 108 109
8.035463e+000 -3.443541e+000 -4.547200e-001 183 203 202
8.077189e+000 -3.458503e+000 -3.146897e-001 122 113 111
8.039322e+000 -3.624645e+000 -7.096020e-001 70 63 57
7.741333e+000 -3.735171e+000 -7.318559e-001 48 33 28
8.024343e+000 -3.638796e+000 -4.578100e-001 108 91 81
8.024343e+000 -3.638796e+000 -4.578100e-001 108 91 81
8.175420e+000 -3.748965e+000 -3.962669e-001 88 69 54
8.105844e+000 -3.878708e+000 -4.795648e-001 80 64 49
7.971389e+000 -4.105848e+000 -6.767966e-001 62 44 38
6.969380e+000 -4.297629e+000 2.741022e-002 87 55 46
6.464530e+000 -4.360124e+000 3.291584e-001 36 22 24
6.412526e+000 -2.678272e+000 -2.987338e-001 55 45 43
6.582191e+000 -2.679601e+000 -3.099566e-001 59 41 39
7.427876e+000 -2.599745e+000 -8.572186e-001 109 106 97
6.450681e+000 -2.784860e+000 -2.005984e-001 59 46 37
6.671847e+000 -2.777944e+000 -2.515248e-001 88 71 55
6.117167e+000 -2.977949e+000 -1.284847e-001 154 149 135
6.695329e+000 -2.937258e+000 -8.883462e-002 79 57 44
8.910872e+000 -2.760397e+000 -1.187763e+000 141 123 73
6.027844e+000 -3.088263e+000 -1.227588e-001 152 144 135
6.249368e+000 -3.056493e+000 3.357695e-002 152 152 140
6.346940e+000 -3.171252e+000 7.447811e-002 81 73 62
6.587375e+000 -3.099120e+000 4.714634e-002 84 73 67
6.587375e+000 -3.099120e+000 4.714634e-002 84 73 67
6.580857e+000 -3.127852e+000 5.672193e-002 62 52 43
6.055230e+000 -3.271037e+000 -2.154624e-002 79 68 63
6.642573e+000 -3.172084e+000 5.668975e-002 101 93 82
6.635919e+000 -3.254702e+000 8.990587e-002 87 80 74
6.328706e+000 -3.359682e+000 7.725073e-002 94 85 76
6.704931e+000 -3.337144e+000 1.262912e-001 74 59 52
7.353970e+000 -3.328005e+000 -7.177985e-001 37 24 18
7.353624e+000 -3.327404e+000 -7.268823e-001 37 24 18
8.036378e+000 -3.381974e+000 -5.005920e-001 184 205 203
7.298179e+000 -3.765960e+000 -8.120399e-001 86 62 50
9.394998e+000 -3.756693e+000 -4.178481e-001 153 135 87
6.187371e+000 -3.812923e+000 4.383813e-001 58 49 53
5.954290e+000 -3.951173e+000 4.713380e-001 46 31 38
5.955597e+000 -3.997432e+000 3.947476e-001 77 64 69
7.045420e+000 -4.139477e+000 -2.928747e-001 157 130 84
6.791468e+000 -4.350430e+000 -2.411267e-001 74 50 37
7.049141e+000 -4.314975e+000 1.115839e-001 166 143 93
8.973019e+000 -2.357462e+000 -1.105826e+000 157 137 87
8.059971e+000 -2.595459e+000 -1.036703e+000 99 81 61
8.056428e+000 -2.596649e+000 -1.015817e+000 99 81 61
9.078066e+000 -2.544691e+000 -1.044584e+000 176 161 101
6.452692e+000 -2.816233e+000 -1.581789e-001 67 57 45
5.588929e+000 -3.157090e+000 -5.952057e-001 77 64 90
5.979920e+000 -3.060686e+000 -1.746860e-001 83 74 67
6.246031e+000 -3.129668e+000 6.143620e-002 143 142 133
6.266429e+000 -3.182319e+000 7.503063e-002 158 159 145
6.263390e+000 -3.183538e+000 6.465879e-002 158 159 145
6.352870e+000 -3.139871e+000 8.023278e-002 142 141 129
6.542677e+000 -3.104193e+000 6.893453e-002 42 31 29
8.332654e+000 -3.142041e+000 -9.475605e-001 108 90 70
6.047593e+000 -3.311362e+000 -7.084996e-003 144 140 131
6.201943e+000 -3.301030e+000 1.944972e-002 39 33 27
6.486491e+000 -3.272120e+000 1.012987e-001 149 146 134
6.142405e+000 -3.343601e+000 9.158783e-003 57 48 45
6.142405e+000 -3.343601e+000 9.158783e-003 57 48 45
6.576769e+000 -3.329012e+000 1.189645e-001 45 39 34
8.493830e+000 -3.301725e+000 -3.468548e-001 108 87 60
6.472743e+000 -3.498238e+000 1.369386e-001 43 32 36
6.545358e+000 -3.458182e+000 1.355337e-001 43 34 29
6.409578e+000 -3.518719e+000 2.142960e-001 40 28 27
7.052815e+000 -3.578425e+000 -2.802569e-001 90 59 37
7.275274e+000 -3.805060e+000 -6.348444e-001 91 66 51
7.853526e+000 -3.977411e+000 -7.161717e-001 76 62 55
7.012437e+000 -3.952901e+000 -2.247072e-001 58 30 26
8.325155e+000 -3.977861e+000 -5.760414e-001 109 88 64
6.162733e+000 -3.945602e+000 3.934127e-001 39 26 35
8.265933e+000 -5.145623e+000 -2.092001e+000 156 129 86
8.254240e+000 -5.125363e+000 -2.038660e+000 156 129 86
5.684477e+000 -2.502114e+000 -2.628762e-001 55 37 49
6.008316e+000 -2.488743e+000 -7.681654e-002 45 29 39
6.368607e+000 -2.670041e+000 -3.593029e-001 46 35 31
8.143001e+000 -3.142722e+000 -7.925551e-001 45 33 32
8.581110e+000 -3.317032e+000 -3.771173e-001 128 118 100
6.336343e+000 -3.590122e+000 3.355997e-001 43 28 33
6.838661e+000 -3.723965e+000 1.506678e-001 33 20 14
6.944759e+000 -2.299105e+000 -1.059653e+000 140 121 88
5.784406e+000 -2.626112e+000 -1.275775e-001 53 36 44
7.334704e+000 -2.580178e+000 -1.355769e+000 62 51 57
7.334704e+000 -2.580178e+000 -1.355769e+000 62 51 57
6.338501e+000 -2.916996e+000 -2.430810e-002 36 32 29
6.316601e+000 -2.980443e+000 3.078081e-002 133 134 120
5.918827e+000 -3.209047e+000 -2.163258e-001 41 31 39
5.936073e+000 -3.288667e+000 -1.216015e-001 126 126 118
6.058707e+000 -3.382791e+000 2.862708e-002 47 33 33
8.265230e+000 -3.324040e+000 -2.539106e-001 185 196 197
9.329787e+000 -3.786215e+000 -4.099047e-001 153 137 88
6.811574e+000 -4.338576e+000 -8.326496e-002 143 118 77
6.847977e+000 -2.770816e+000 -5.227188e-001 134 110 84
6.831908e+000 -3.129109e+000 -1.013492e-002 79 60 44
6.882108e+000 -3.231209e+000 7.764290e-003 80 58 42
8.147916e+000 -3.658409e+000 -3.817537e-001 135 128 118
7.703548e+000 -3.918861e+000 -8.172442e-001 82 59 51
8.239218e+000 -3.744780e+000 -3.800053e-001 92 74 59
5.980836e+000 -4.068358e+000 2.840776e-001 72 55 64
5.911331e+000 -4.067147e+000 3.923191e-001 40 25 32
7.987733e+000 -3.494877e+000 -6.966256e-001 64 51 42
6.857136e+000 -3.574151e+000 -2.320032e-002 32 21 19
8.325959e+000 -3.851756e+000 -4.530986e-001 118 98 73
8.970243e+000 -4.162572e+000 -1.124005e+000 129 111 73
7.476584e+000 -2.855729e+000 -6.273243e-001 72 59 49
5.866245e+000 -3.701183e+000 3.929641e-001 37 26 32
7.319311e+000 -3.830688e+000 -8.380716e-001 59 38 33
6.441718e+000 -3.274865e+000 7.763469e-002 49 46 41
8.096027e+000 -3.176854e+000 -5.798881e-001 62 51 45
5.991671e+000 -3.932399e+000 1.584054e-001 38 23 28
7.576480e+000 -3.987503e+000 -1.005514e+000 45 30 28
7.545967e+000 -2.369071e+000 -1.054731e+000 91 78 64
7.545967e+000 -2.369071e+000 -1.054731e+000 91 78 64
9.263296e+000 -3.312947e+000 -6.457212e-001 179 166 111
8.516146e+000 -2.990487e+000 -8.847309e-001 53 33 24
6.539655e+000 -3.140895e+000 6.442569e-002 93 86 78
7.752097e+000 -3.119532e+000 -5.670391e-001 113 104 97
6.198450e+000 -3.340550e+000 3.670153e-002 100 89 83
8.934495e+000 -2.358140e+000 -1.159228e+000 179 163 111
7.810496e+000 -2.479046e+000 -9.588871e-001 104 87 69
7.770875e+000 -2.660662e+000 -7.946342e-001 99 82 62
7.380094e+000 -2.848059e+000 -6.240488e-001 87 80 70
9.111780e+000 -3.101163e+000 -8.346984e-001 176 159 116
6.737661e+000 -3.464725e+000 9.447692e-002 87 74 66
6.460233e+000 -3.109376e+000 7.547179e-002 64 50 42
6.460226e+000 -3.109243e+000 7.646357e-002 64 50 42
7.970013e+000 -3.155002e+000 -6.632353e-001 87 71 58
7.993304e+000 -3.125752e+000 -6.590759e-001 56 42 26
8.146017e+000 -3.276845e+000 -3.317584e-001 143 137 125
6.215687e+000 -3.342557e+000 3.530997e-002 130 126 116
7.939132e+000 -3.592115e+000 -7.289648e-001 49 31 27
7.623889e+000 -3.247662e+000 -6.161209e-001 48 30 25
7.656699e+000 -3.264861e+000 -6.347614e-001 73 55 49
7.893674e+000 -3.896099e+000 -7.050989e-001 48 33 30
8.331733e+000 -3.005446e+000 -9.168288e-001 59 27 33
8.482444e+000 -3.168750e+000 -1.109913e+000 83 69 57
6.736791e+000 -3.440841e+000 9.867797e-002 93 78 74
8.251383e+000 -3.456006e+000 -2.144227e-001 160 165 157
8.098844e+000 -3.683817e+000 -3.854947e-001 105 89 81
6.476942e+000 -2.710051e+000 -2.658102e-001 40 27 21
7.964775e+000 -2.615216e+000 -9.703059e-001 69 48 30
7.960739e+000 -2.698993e+000 -9.039309e-001 92 75 59
9.055142e+000 -3.158434e+000 -9.990177e-001 143 126 72
6.084949e+000 -3.295921e+000 4.257740e-003 91 84 77
6.293093e+000 -3.305321e+000 6.453407e-002 125 123 110
7.771299e+000 -3.774136e+000 -7.393156e-001 53 35 31
7.423891e+000 -2.776263e+000 -6.612235e-001 97 89 76
7.423891e+000 -2.776263e+000 -6.612235e-001 97 89 76
7.834635e+000 -2.849533e+000 -7.523575e-001 63 45 32
8.325557e+000 -2.979911e+000 -9.793514e-001 131 117 101
8.177459e+000 -3.125226e+000 -8.122072e-001 51 34 27
8.524886e+000 -3.276207e+000 -3.463357e-001 57 36 25
7.629319e+000 -3.667886e+000 -7.281010e-001 69 54 47
7.412920e+000 -3.829494e+000 -7.484014e-001 66 47 32
7.920478e+000 -3.890007e+000 -6.700591e-001 70 55 52
6.459418e+000 -2.923922e+000 3.027182e-002 75 61 52
7.528767e+000 -2.964009e+000 -6.062813e-001 85 72 63
6.591944e+000 -3.031341e+000 4.918059e-002 90 74 64
8.208918e+000 -3.700620e+000 -3.545405e-001 103 85 66
9.122307e+000 -2.164379e+000 -8.397583e-001 163 146 93
9.054569e+000 -2.248122e+000 -9.803774e-001 157 144 91
9.294498e+000 -2.246146e+000 -5.784577e-001 188 175 124
6.299629e+000 -2.793299e+000 -2.441736e-001 128 124 112
7.422625e+000 -2.670302e+000 -7.270254e-001 103 96 88
7.396380e+000 -2.140941e+000 -1.068726e+000 129 122 115
8.084617e+000 -2.831978e+000 -9.208025e-001 70 51 34
8.117613e+000 -2.969852e+000 -8.974747e-001 59 41 30
6.499408e+000 -3.207764e+000 7.971737e-002 87 75 66
6.212390e+000 -3.364415e+000 2.486542e-002 92 89 80
8.140681e+000 -3.294247e+000 -3.495942e-001 155 146 143
6.573596e+000 -3.469318e+000 1.231607e-001 59 46 40
5.947501e+000 -2.586197e+000 -8.153921e-003 77 64 73
6.374319e+000 -2.753379e+000 -2.288366e-001 83 74 67
7.947674e+000 -2.649346e+000 -9.324881e-001 100 81 64
8.047102e+000 -2.873266e+000 -8.415424e-001 63 44 28
6.503083e+000 -3.001459e+000 6.744414e-002 73 58 53
6.600221e+000 -3.096273e+000 4.887939e-002 87 80 70
6.204279e+000 -3.242433e+000 3.912408e-002 110 107 95
6.356451e+000 -3.188282e+000 6.792867e-002 108 102 88
6.424584e+000 -3.160127e+000 8.070733e-002 110 101 91
6.764682e+000 -3.120079e+000 2.668373e-003 41 26 22
5.802214e+000 -3.335380e+000 -9.887521e-002 51 50 57
6.367938e+000 -3.283116e+000 7.361969e-002 122 124 113
6.466734e+000 -3.252879e+000 9.249957e-002 98 91 82
6.287472e+000 -3.391669e+000 4.792080e-002 53 46 40
6.595303e+000 -3.359916e+000 1.126188e-001 84 71 65
7.964681e+000 -3.378489e+000 -6.983395e-001 56 41 38
8.037194e+000 -3.338975e+000 -5.583015e-001 177 195 194
6.483258e+000 -3.433326e+000 1.257383e-001 78 70 63
7.543666e+000 -3.513732e+000 -6.694621e-001 56 37 30
7.510185e+000 -3.921608e+000 -9.384513e-001 45 28 21
7.739033e+000 -2.422243e+000 -9.233932e-001 97 81 65
7.701604e+000 -2.486362e+000 -8.826719e-001 102 84 72
7.729804e+000 -2.474840e+000 -9.201166e-001 72 54 44
7.729804e+000 -2.474840e+000 -9.201166e-001 72 54 44
7.854348e+000 -2.718030e+000 -8.840755e-001 94 74 63
6.021999e+000 -3.028566e+000 -1.249454e-001 153 153 139
6.021074e+000 -3.029112e+000 -1.284638e-001 153 153 139
7.901128e+000 -2.832884e+000 -7.753769e-001 94 77 67
6.613305e+000 -3.109026e+000 4.197396e-002 57 46 40
6.541528e+000 -3.160172e+000 7.178451e-002 75 67 61
6.481933e+000 -3.231839e+000 8.242703e-002 120 114 102
7.612461e+000 -3.284555e+000 -6.915854e-001 73 58 53
7.821280e+000 -3.370287e+000 -6.724679e-001 74 60 57
7.839183e+000 -3.390324e+000 -6.637927e-001 50 40 35
8.177122e+000 -3.264067e+000 -3.525566e-001 139 130 125
7.565448e+000 -3.506013e+000 -6.581965e-001 77 60 53
6.447311e+000 -3.528021e+000 1.504497e-001 62 55 50
7.996945e+000 -3.601295e+000 -7.483212e-001 63 48 43
8.158196e+000 -3.778386e+000 -4.203007e-001 90 72 63
6.969076e+000 -4.253138e+000 7.194628e-002 77 48 36
6.912504e+000 -2.308408e+000 -8.262699e-001 167 145 115
8.871394e+000 -2.474212e+000 -1.265096e+000 146 128 80
6.229015e+000 -2.897354e+000 -1.610431e-001 93 94 86
6.088244e+000 -3.148975e+000 -2.760823e-002 85 82 77
7.590246e+000 -3.236960e+000 -5.931914e-001 71 56 51
5.998777e+000 -3.353858e+000 -2.687312e-002 104 99 96
6.520070e+000 -3.327149e+000 1.170993e-001 107 104 97
8.013524e+000 -3.297208e+000 -7.381903e-001 53 39 36
7.690991e+000 -3.396842e+000 -6.390636e-001 50 33 26
8.332284e+000 -3.225241e+000 -2.565176e-001 120 101 80
6.461234e+000 -3.469093e+000 1.344367e-001 83 74 66
6.604848e+000 -3.432450e+000 1.207402e-001 57 44 38
6.543208e+000 -3.509680e+000 1.451788e-001 51 42 33
5.882356e+000 -3.627120e+000 3.933310e-001 30 18 32
8.057498e+000 -3.579102e+000 -3.897839e-001 101 92 83
7.739504e+000 -3.735717e+000 -7.325748e-001 48 33 30
6.814930e+000 -4.555082e+000 8.952059e-002 158 140 95
8.844659e+000 -2.503871e+000 -1.303088e+000 148 132 81
7.719492e+000 -2.673567e+000 -7.951239e-001 85 69 54
6.041597e+000 -2.977317e+000 -1.439839e-001 151 148 136
8.244484e+000 -2.712074e+000 -9.997594e-001 60 43 35
6.054404e+000 -3.269904e+000 -1.418981e-002 75 65 63
8.235690e+000 -3.266530e+000 -2.262395e-001 105 97 93
7.391779e+000 -3.863332e+000 -6.931438e-001 100 78 64
8.820562e+000 -5.082669e+000 -1.168159e+000 156 136 83
6.235437e+000 -2.863636e+000 -1.826387e-001 136 137 129
8.942853e+000 -2.722616e+000 -1.128436e+000 143 126 75
6.756987e+000 -3.109703e+000 -1.864967e-002 44 30 28
5.993782e+000 -3.312489e+000 -4.839478e-002 58 49 42
6.703263e+000 -3.513788e+000 1.105508e-001 34 23 14
6.355742e+000 -3.313688e+000 7.563885e-002 45 38 34
6.318783e+000 -3.459105e+000 1.003976e-001 29 19 19
6.606858e+000 -3.555417e+000 1.345029e-001 35 23 21
7.333963e+000 -3.763472e+000 -7.383121e-001 48 30 26
7.296471e+000 -4.004066e+000 -9.940915e-001 159 141 100
6.448279e+000 -2.889144e+000 -2.447518e-003 114 105 96
6.703281e+000 -2.982072e+000 -3.636574e-002 71 52 38
7.916733e+000 -2.568920e+000 -1.058834e+000 101 82 65
6.084711e+000 -4.148218e+000 4.379098e-001 47 30 38
9.107340e+000 -3.099180e+000 -8.217038e-001 167 158 117
6.368442e+000 -3.283448e+000 6.634410e-002 125 121 110
7.496468e+000 -2.509853e+000 -8.178945e-001 74 58 43
7.663927e+000 -2.687817e+000 -8.034136e-001 97 80 66
7.836806e+000 -2.664102e+000 -8.898330e-001 97 78 63
7.529335e+000 -2.794001e+000 -6.696612e-001 97 83 72
6.424756e+000 -3.158645e+000 8.480175e-002 108 94 86
7.943891e+000 -3.136140e+000 -6.500759e-001 67 51 38
7.612657e+000 -3.214394e+000 -6.037844e-001 57 37 37
8.043424e+000 -3.565676e+000 -4.166034e-001 150 151 153
7.888966e+000 -4.226235e+000 -8.313933e-001 173 152 99
9.050687e+000 -2.248881e+000 -9.753728e-001 157 144 91
7.778897e+000 -2.585622e+000 -8.445733e-001 78 60 47
8.314548e+000 -2.935236e+000 -8.974471e-001 65 38 33
6.611491e+000 -3.139842e+000 5.511309e-002 89 80 71
7.932134e+000 -2.662584e+000 -9.288451e-001 60 41 24
7.997514e+000 -2.824513e+000 -8.689370e-001 64 46 32
8.100908e+000 -2.899606e+000 -9.776263e-001 97 83 56
7.562282e+000 -3.223680e+000 -6.109989e-001 49 31 30
6.200679e+000 -3.388492e+000 1.825984e-002 116 110 104
7.665187e+000 -3.311685e+000 -6.366266e-001 80 65 58
7.766729e+000 -2.510831e+000 -9.214597e-001 101 82 70
8.164393e+000 -2.667088e+000 -1.035585e+000 108 91 81
6.465900e+000 -2.967290e+000 4.825330e-002 63 50 41
7.463515e+000 -2.979438e+000 -6.005044e-001 80 69 65
6.629522e+000 -3.121737e+000 4.124835e-002 100 91 82
9.121175e+000 -3.248424e+000 -8.324201e-001 127 113 87
7.589309e+000 -3.473692e+000 -6.867029e-001 74 58 51
7.963140e+000 -3.560662e+000 -7.293450e-001 54 36 32
8.032230e+000 -3.690952e+000 -4.554441e-001 105 88 81
7.747863e+000 -3.845254e+000 -7.315275e-001 51 36 31
7.524149e+000 -2.412626e+000 -8.691193e-001 78 64 52
7.509253e+000 -2.447199e+000 -8.561240e-001 99 86 77
6.474865e+000 -2.710751e+000 -2.770508e-001 43 29 26
7.646635e+000 -3.001430e+000 -5.927029e-001 94 79 72
6.724355e+000 -3.189561e+000 4.896383e-002 69 55 43
6.627475e+000 -3.388505e+000 1.152022e-001 80 71 65
8.036843e+000 -3.613562e+000 -4.241769e-001 99 90 81
8.134221e+000 -3.705979e+000 -3.820414e-001 104 87 80
6.540233e+000 -3.038481e+000 5.982282e-002 49 36 28
7.735088e+000 -3.305145e+000 -6.304472e-001 39 24 21
7.382645e+000 -3.797237e+000 -7.361205e-001 87 68 56
6.822368e+000 -4.592641e+000 1.668505e-001 172 145 97
6.797444e+000 -2.463954e+000 -8.770297e-001 43 27 27
8.639602e+000 -3.506032e+000 -2.484234e+000 102 88 80
6.579441e+000 -2.655589e+000 -3.564486e-001 78 66 57
6.418483e+000 -2.722522e+000 -2.720138e-001 119 110 105
6.227014e+000 -2.842184e+000 -2.128778e-001 87 84 77
7.199707e+000 -2.782385e+000 -1.288345e+000 113 97 105
6.338348e+000 -2.884746e+000 -8.699456e-002 115 107 106
6.471592e+000 -2.921286e+000 3.963072e-002 73 61 52
6.340397e+000 -2.990352e+000 7.386998e-002 129 126 114
7.371560e+000 -2.930916e+000 -6.357918e-001 45 32 24
6.232230e+000 -3.074123e+000 3.099714e-002 98 98 86
6.276118e+000 -3.067245e+000 4.857578e-002 139 137 127
8.299813e+000 -2.954401e+000 -9.826597e-001 86 76 68
5.499042e+000 -3.500247e+000 -6.775785e-001 117 104 98
6.048089e+000 -3.242313e+000 -3.372048e-002 132 129 124
6.254327e+000 -3.209816e+000 6.340104e-002 102 94 86
5.894028e+000 -3.394632e+000 3.626220e-002 123 121 134
6.560059e+000 -3.247481e+000 8.497080e-002 68 63 55
6.561126e+000 -3.255657e+000 9.835421e-002 126 120 106
6.570149e+000 -3.263426e+000 1.088082e-001 66 57 48
6.702194e+000 -3.241803e+000 6.843070e-002 61 45 38
6.618054e+000 -3.309403e+000 9.860871e-002 131 129 123
6.528042e+000 -3.385711e+000 1.190820e-001 61 49 43
6.545251e+000 -3.426433e+000 1.270258e-001 91 84 76
7.542269e+000 -3.449537e+000 -6.586309e-001 57 45 41
8.138636e+000 -3.291114e+000 -3.422532e-001 161 167 160
8.250862e+000 -3.246306e+000 -2.230877e-001 104 93 91
6.486362e+000 -3.496861e+000 1.571650e-001 33 27 25
8.262844e+000 -3.314980e+000 -1.992293e-001 204 212 215
7.300412e+000 -3.753976e+000 -7.215193e-001 77 57 46
8.258199e+000 -3.429007e+000 -1.738480e-001 133 125 113
6.830370e+000 -3.758111e+000 2.467321e-001 113 108 80
7.395827e+000 -2.186119e+000 -1.084652e+000 106 93 89
7.336942e+000 -2.496225e+000 -1.605724e+000 78 63 74
7.306206e+000 -2.535637e+000 -1.522486e+000 77 68 69
7.621213e+000 -2.487505e+000 -8.515554e-001 91 73 61
6.280986e+000 -2.766985e+000 -2.455851e-001 50 41 36
6.418043e+000 -2.774809e+000 -2.170243e-001 66 56 47
8.075108e+000 -2.668878e+000 -1.005378e+000 70 51 30
6.034913e+000 -2.938837e+000 -2.057062e-001 121 118 113
6.162277e+000 -2.910411e+000 -1.560523e-001 99 96 89
6.302903e+000 -2.897395e+000 -8.735495e-002 129 127 117
6.466059e+000 -2.870267e+000 -1.605634e-002 77 67 56
6.573616e+000 -2.866290e+000 -1.132213e-001 77 57 46
6.593803e+000 -2.860980e+000 -1.344889e-001 58 40 30
7.964774e+000 -2.700839e+000 -9.187825e-001 94 75 61
8.190960e+000 -2.688607e+000 -1.034984e+000 119 107 95
8.233588e+000 -2.697569e+000 -1.071164e+000 73 52 47
6.092845e+000 -3.027977e+000 -9.151340e-002 151 152 138
6.448007e+000 -2.887226e+000 -9.613147e-004 84 80 73
8.013184e+000 -2.820605e+000 -8.554177e-001 100 81 66
8.017984e+000 -2.840320e+000 -8.438926e-001 97 78 62
8.017984e+000 -2.840320e+000 -8.438926e-001 97 78 62
6.110481e+000 -3.093079e+000 -6.954747e-002 143 139 134
7.937876e+000 -2.866450e+000 -8.082831e-001 63 46 29
6.213967e+000 -3.087347e+000 1.565950e-002 141 137 126
6.174537e+000 -3.148655e+000 9.820857e-003 96 93 73
6.022459e+000 -3.304237e+000 -3.543265e-002 152 154 145
6.449622e+000 -3.220685e+000 7.658190e-002 91 93 81
6.316526e+000 -3.270638e+000 6.156321e-002 96 85 81
6.639094e+000 -3.219089e+000 7.043542e-002 56 44 38
6.669547e+000 -3.230774e+000 6.849191e-002 88 79 70
6.681030e+000 -3.250644e+000 7.140534e-002 49 39 34
6.681030e+000 -3.250644e+000 7.140534e-002 49 39 34
6.158917e+000 -3.384239e+000 7.042765e-003 90 87 82
6.530186e+000 -3.359273e+000 1.199728e-001 130 129 119
6.601420e+000 -3.306817e+000 9.973876e-002 52 48 45
6.639871e+000 -3.340340e+000 1.123564e-001 69 56 48
7.417500e+000 -3.402418e+000 -6.880315e-001 38 20 18
6.509232e+000 -3.424055e+000 1.296510e-001 58 46 40
6.519621e+000 -3.403347e+000 1.249994e-001 88 80 72
7.910903e+000 -3.381663e+000 -6.758196e-001 58 46 46
7.992657e+000 -3.381743e+000 -7.269665e-001 81 65 61
6.714208e+000 -3.469731e+000 1.008546e-001 81 67 61
7.988610e+000 -3.529201e+000 -7.431652e-001 63 43 44
8.270339e+000 -3.289401e+000 -1.933385e-001 204 210 205
8.540528e+000 -3.269250e+000 -3.292768e-001 123 111 95
7.344469e+000 -3.709542e+000 -7.090133e-001 42 28 19
7.630122e+000 -3.645458e+000 -7.394378e-001 52 34 27
7.666884e+000 -3.669104e+000 -7.385098e-001 58 41 34
8.029150e+000 -4.057038e+000 -6.018375e-001 107 86 74
7.416218e+000 -2.208575e+000 -1.021574e+000 152 150 151
7.541799e+000 -2.477649e+000 -8.350508e-001 69 51 41
7.541810e+000 -2.477522e+000 -8.336051e-001 69 51 41
6.589195e+000 -2.729229e+000 -2.676939e-001 111 111 103
6.157607e+000 -2.833847e+000 -2.668394e-001 93 87 87
6.396135e+000 -2.833482e+000 -1.495097e-001 130 126 116
7.659980e+000 -2.683627e+000 -7.855189e-001 92 74 60
7.771287e+000 -2.645281e+000 -8.216271e-001 91 74 61
7.862747e+000 -2.678316e+000 -8.749518e-001 67 50 32
6.066235e+000 -2.937299e+000 -2.001529e-001 135 134 129
6.266924e+000 -2.901969e+000 -1.136741e-001 134 136 129
6.332204e+000 -2.859918e+000 -1.487099e-001 138 131 123
6.641234e+000 -2.812916e+000 -1.927435e-001 70 52 39
6.466145e+000 -2.886384e+000 1.820101e-002 152 152 142
6.541696e+000 -2.908805e+000 -3.994274e-003 52 37 32
6.675078e+000 -2.881167e+000 -1.801311e-001 35 21 20
7.543147e+000 -2.824362e+000 -6.917682e-001 91 75 63
7.842511e+000 -2.793428e+000 -7.937796e-001 90 73 57
7.908892e+000 -2.839952e+000 -8.098206e-001 93 76 58
8.076901e+000 -2.826874e+000 -9.643388e-001 94 77 58
6.418548e+000 -2.962159e+000 4.933724e-002 85 76 70
6.548148e+000 -2.959983e+000 2.113324e-002 77 63 60
6.612147e+000 -2.988478e+000 9.201768e-003 37 21 22
7.876169e+000 -2.905516e+000 -7.622262e-001 87 70 55
6.932892e+000 -3.079072e+000 -3.474776e-001 36 19 18
6.286035e+000 -3.162682e+000 7.492394e-002 154 156 145
6.141316e+000 -3.275311e+000 9.692374e-003 85 79 71
6.573005e+000 -3.204465e+000 5.788446e-002 86 76 73
7.838113e+000 -3.166680e+000 -6.071953e-001 62 47 40
7.931843e+000 -3.118831e+000 -6.047791e-001 59 45 33
6.064136e+000 -3.347348e+000 -2.480296e-002 58 56 51
6.269365e+000 -3.337291e+000 4.417622e-002 126 118 110
6.454599e+000 -3.236136e+000 9.041398e-002 139 136 118
6.606509e+000 -3.279376e+000 8.652489e-002 114 107 99
6.694614e+000 -3.210298e+000 6.824277e-002 96 86 76
7.405103e+000 -3.390207e+000 -7.137981e-001 76 58 56
6.386117e+000 -3.458577e+000 1.254210e-001 89 79 80
6.913018e+000 -3.394921e+000 2.495974e-003 91 73 61
7.586780e+000 -3.517496e+000 -6.769847e-001 54 36 32
8.236971e+000 -3.250099e+000 -2.600367e-001 137 132 128
6.540026e+000 -3.506089e+000 1.490644e-001 50 38 35
7.624811e+000 -4.163692e+000 -1.057917e+000 106 79 50
8.157844e+000 -3.776045e+000 -4.161067e-001 90 72 61
8.139933e+000 -3.883373e+000 -4.739631e-001 122 103 88
7.061475e+000 -4.072800e+000 -2.449919e-001 163 136 91
7.813651e+000 -4.192877e+000 -8.795771e-001 176 155 105
7.437701e+000 -2.203713e+000 -9.810464e-001 82 80 69
7.715393e+000 -2.427660e+000 -9.191495e-001 71 51 40
6.159669e+000 -2.808462e+000 -2.855126e-001 32 22 23
6.253689e+000 -2.795183e+000 -2.385694e-001 68 58 57
6.284097e+000 -2.814075e+000 -1.867367e-001 61 55 49
6.441703e+000 -2.789070e+000 -2.023444e-001 52 40 34
5.965326e+000 -2.963955e+000 -2.671753e-001 116 113 108
6.174982e+000 -2.893787e+000 -1.873518e-001 127 124 115
6.559612e+000 -2.849110e+000 -1.457048e-001 39 26 20
7.379122e+000 -2.812106e+000 -6.516259e-001 91 83 80
7.578566e+000 -2.763076e+000 -7.338956e-001 85 68 60
7.646190e+000 -2.727478e+000 -7.381135e-001 78 62 47
6.051163e+000 -3.029949e+000 -1.146691e-001 149 146 137
6.184838e+000 -2.962266e+000 -1.083666e-001 162 162 153
6.490271e+000 -2.888917e+000 -2.333728e-003 69 51 40
7.384455e+000 -2.972144e+000 -6.882210e-001 53 38 35
7.659743e+000 -2.933761e+000 -6.503081e-001 66 54 40
7.977351e+000 -2.863672e+000 -8.425944e-001 90 72 54
6.513967e+000 -3.051754e+000 5.311044e-002 57 43 34
6.749305e+000 -2.995419e+000 -7.064609e-002 84 62 52
7.564331e+000 -2.992512e+000 -6.005013e-001 59 46 40
7.564939e+000 -2.993190e+000 -6.012124e-001 59 46 40
6.011702e+000 -3.266013e+000 -5.980881e-002 161 158 153
6.090046e+000 -3.237428e+000 -1.703178e-002 79 71 68
6.090936e+000 -3.236554e+000 -1.506849e-002 79 71 68
6.685238e+000 -3.105121e+000 3.274186e-002 46 35 31
7.670166e+000 -3.108689e+000 -5.800107e-001 89 74 67
5.831698e+000 -3.381827e+000 -8.571310e-002 109 126 135
6.155234e+000 -3.294431e+000 5.117973e-003 155 155 145
6.515211e+000 -3.153947e+000 6.029727e-002 116 117 112
6.563636e+000 -3.176786e+000 6.982897e-002 119 115 106
7.861574e+000 -3.134882e+000 -6.441716e-001 88 75 67
7.861574e+000 -3.134882e+000 -6.441716e-001 88 75 67
6.691772e+000 -3.272670e+000 7.201444e-002 86 79 69
6.154758e+000 -3.410538e+000 7.680546e-004 61 44 44
7.346635e+000 -3.501453e+000 -6.577937e-001 39 24 19
6.606472e+000 -3.480198e+000 1.272026e-001 48 39 34
8.154198e+000 -3.345982e+000 -2.870645e-001 118 115 110
8.206427e+000 -3.328871e+000 -2.550141e-001 183 202 209
6.571896e+000 -3.531585e+000 1.463451e-001 92 78 75
8.038175e+000 -3.529253e+000 -4.077601e-001 109 97 91
8.038175e+000 -3.529253e+000 -4.077601e-001 109 97 91
8.083300e+000 -3.460666e+000 -3.471164e-001 118 112 108
7.691830e+000 -3.842163e+000 -7.744584e-001 51 35 33
7.641336e+000 -4.128324e+000 -1.084421e+000 75 59 38
7.671237e+000 -4.120967e+000 -1.064602e+000 149 125 89
7.667476e+000 -4.112421e+000 -1.039793e+000 149 125 89
7.888924e+000 -3.892700e+000 -6.909273e-001 46 32 29
6.173884e+000 -3.986219e+000 5.149291e-001 40 25 37
9.449818e+000 -4.022223e+000 -1.914275e-001 152 143 98
6.940573e+000 -2.344728e+000 -9.062600e-001 168 134 105
6.551262e+000 -2.804585e+000 -1.754188e-001 133 131 119
6.235209e+000 -2.893658e+000 -1.479760e-001 81 77 69
6.152475e+000 -3.000144e+000 -8.768920e-002 81 74 63
6.694614e+000 -2.939094e+000 -9.579786e-002 75 53 46
6.325566e+000 -3.076758e+000 6.543116e-002 100 95 87
6.729415e+000 -3.013491e+000 -2.555245e-002 53 36 26
6.172311e+000 -3.210373e+000 2.806655e-002 152 155 144
6.374098e+000 -3.106097e+000 9.104300e-002 72 67 56
7.598860e+000 -3.171268e+000 -5.803987e-001 61 45 42
6.250860e+000 -3.415692e+000 2.853955e-002 91 90 85
7.512201e+000 -3.439399e+000 -6.637032e-001 28 15 13
8.036764e+000 -3.372308e+000 -4.675873e-001 181 202 205
8.034174e+000 -3.370437e+000 -4.613457e-001 181 202 205
6.512615e+000 -3.498210e+000 1.360540e-001 124 119 115
8.031021e+000 -3.508497e+000 -4.317240e-001 155 168 172
8.031021e+000 -3.508497e+000 -4.317240e-001 155 168 172
7.400339e+000 -3.892943e+000 -8.052831e-001 97 74 58
8.014459e+000 -3.602711e+000 -4.555969e-001 149 150 149
6.493731e+000 -2.751249e+000 -2.417156e-001 67 54 48
6.364602e+000 -2.807813e+000 -1.890161e-001 75 66 59
6.361577e+000 -2.814951e+000 -2.224233e-001 75 66 59
6.249756e+000 -2.919698e+000 -9.085330e-002 121 122 114
6.401765e+000 -2.864617e+000 -1.040438e-001 66 54 50
6.074045e+000 -3.030371e+000 -1.213472e-001 135 135 125
6.201146e+000 -3.009382e+000 -5.529879e-002 126 124 112
7.708093e+000 -2.938604e+000 -6.623443e-001 87 70 60
6.375097e+000 -3.029166e+000 7.145405e-002 56 43 35
6.793346e+000 -3.052331e+000 -7.293577e-002 75 54 39
6.242952e+000 -3.132724e+000 4.904980e-002 150 153 144
6.755331e+000 -3.105385e+000 -2.284365e-004 40 26 23
6.105532e+000 -3.266623e+000 -2.340172e-003 149 154 147
8.553018e+000 -3.213731e+000 -1.228134e+000 80 63 47
5.936591e+000 -3.368918e+000 -3.694761e-002 50 42 46
6.201574e+000 -3.301445e+000 1.861709e-002 73 64 59
6.717331e+000 -3.298219e+000 7.175916e-002 54 40 37
6.720780e+000 -3.560634e+000 1.088438e-001 75 56 40
6.333450e+000 -3.650404e+000 3.590677e-001 58 43 47
6.267316e+000 -3.183323e+000 7.161419e-002 154 154 144
7.546618e+000 -3.184719e+000 -5.884468e-001 70 52 48
6.199607e+000 -3.429697e+000 8.530246e-003 37 28 30
8.572092e+000 -3.308161e+000 -3.609268e-001 124 115 103
6.536554e+000 -3.547247e+000 2.197228e-001 35 24 22
6.536554e+000 -3.547247e+000 2.197228e-001 35 24 22
7.964340e+000 -2.889079e+000 -7.951150e-001 93 74 57
6.102474e+000 -2.441346e+000 -1.783165e-001 28 17 23
6.725209e+000 -2.795477e+000 -5.281020e-001 25 11 18
6.337957e+000 -2.920465e+000 -3.182391e-002 20 18 23
6.443937e+000 -2.895944e+000 -2.427946e-002 89 85 76
6.534224e+000 -2.875797e+000 -2.577964e-002 55 35 28
6.030537e+000 -3.214241e+000 -7.169027e-002 136 135 131
8.230374e+000 -3.030422e+000 -9.388571e-001 50 36 35
6.699122e+000 -3.631742e+000 1.422657e-001 23 13 14
8.013143e+000 -3.917164e+000 -5.864544e-001 116 101 96
6.994559e+000 -4.141756e+000 -3.870816e-001 65 38 28
6.232632e+000 -2.870879e+000 -1.758480e-001 131 131 124
6.662346e+000 -3.777978e+000 2.440276e-001 27 18 19
7.782819e+000 -3.506968e+000 -6.292188e-001 85 71 69
7.526403e+000 -3.342863e+000 -6.668487e-001 42 31 27
8.302738e+000 -3.218738e+000 -1.309310e+000 71 54 47
6.005085e+000 -2.387076e+000 -2.052725e-001 62 49 56
7.376800e+000 -2.376890e+000 -1.012334e+000 60 49 51
7.376800e+000 -2.376890e+000 -1.012334e+000 60 49 51
5.947661e+000 -2.587512e+000 -7.570629e-002 38 23 30
7.071768e+000 -2.551909e+000 -1.060224e+000 155 131 93
7.071768e+000 -2.551909e+000 -1.060224e+000 155 131 93
7.064850e+000 -2.566470e+000 -9.733164e-001 160 136 99
7.077721e+000 -2.554422e+000 -9.268244e-001 89 64 34
6.142442e+000 -2.888048e+000 -2.165371e-001 107 104 99
6.188107e+000 -2.861626e+000 -2.583836e-001 79 72 62
6.433288e+000 -2.773364e+000 -2.279007e-001 87 78 71
5.783679e+000 -3.076994e+000 -3.524676e-001 153 151 152
5.842677e+000 -3.082134e+000 -3.308224e-001 127 123 120
5.911718e+000 -3.033668e+000 -2.286755e-001 150 149 144
5.930909e+000 -3.023454e+000 -2.430226e-001 135 135 127
6.028387e+000 -2.956252e+000 -1.566548e-001 133 130 121
6.008696e+000 -2.994976e+000 -2.014340e-001 126 122 113
6.008696e+000 -2.994976e+000 -2.014340e-001 126 122 113
6.262584e+000 -2.891312e+000 -1.748777e-001 131 127 118
6.350009e+000 -2.848592e+000 -1.681059e-001 77 73 64
6.373061e+000 -2.865082e+000 -2.105812e-001 72 69 60
7.328011e+000 -2.793934e+000 -6.637972e-001 76 71 65
5.658711e+000 -3.251548e+000 -5.031522e-001 137 133 129
6.241002e+000 -2.938701e+000 -9.913970e-002 136 136 128
6.286142e+000 -2.909329e+000 -3.609196e-002 111 108 99
5.963531e+000 -3.135164e+000 -1.621498e-001 118 114 109
5.963531e+000 -3.135164e+000 -1.621498e-001 118 114 109
6.280370e+000 -2.966490e+000 1.774681e-002 105 105 100
6.315109e+000 -2.989405e+000 3.365453e-002 147 144 135
6.482146e+000 -2.887246e+000 3.972702e-002 96 88 76
5.564606e+000 -3.514336e+000 -5.740821e-001 83 68 67
6.042881e+000 -3.208419e+000 -6.756684e-002 143 142 137
6.252310e+000 -3.144200e+000 6.724180e-002 139 139 131
6.507285e+000 -3.035929e+000 7.943406e-002 57 48 41
6.182691e+000 -3.222937e+000 6.074842e-002 133 131 122
6.188060e+000 -3.227340e+000 8.352232e-002 107 102 93
6.205124e+000 -3.244317e+000 3.495382e-002 105 104 92
6.376492e+000 -3.121791e+000 1.023146e-001 82 82 74
6.376352e+000 -3.158832e+000 7.545253e-002 93 92 80
5.885125e+000 -3.386063e+000 -3.372070e-002 209 241 244
5.875331e+000 -3.402669e+000 1.326739e-003 49 43 53
6.009558e+000 -3.333977e+000 -3.116439e-002 70 69 65
6.088877e+000 -3.293742e+000 1.048966e-002 101 98 93
6.315762e+000 -3.220358e+000 5.948204e-002 96 96 87
5.873453e+000 -3.414263e+000 3.083339e-002 105 106 124
6.243698e+000 -3.332649e+000 4.471996e-002 83 83 72
6.243698e+000 -3.332649e+000 4.471996e-002 83 83 72
6.412681e+000 -3.251401e+000 1.192506e-001 102 101 97
6.471257e+000 -3.312783e+000 7.180936e-002 74 67 59
6.267017e+000 -3.439358e+000 4.629926e-002 93 84 85
6.455269e+000 -3.463290e+000 1.855701e-001 71 66 62
5.739369e+000 -3.782256e+000 3.947807e-001 89 72 80
5.862287e+000 -3.757212e+000 4.158893e-001 34 27 35
7.377526e+000 -2.194779e+000 -1.075823e+000 161 138 106
5.979579e+000 -2.555504e+000 -8.361288e-002 28 18 26
7.382529e+000 -2.434586e+000 -1.048265e+000 57 47 46
7.391983e+000 -2.386360e+000 -1.013494e+000 101 89 90
7.116179e+000 -2.548411e+000 -9.791223e-001 159 139 107
6.139672e+000 -2.863152e+000 -2.392876e-001 91 83 81
6.098609e+000 -2.893917e+000 -2.645497e-001 55 50 47
6.195364e+000 -2.879433e+000 -2.104487e-001 73 72 62
6.196738e+000 -2.875396e+000 -1.979959e-001 73 72 62
6.197217e+000 -2.863500e+000 -2.158738e-001 127 124 115
6.197217e+000 -2.863500e+000 -2.158738e-001 127 124 115
5.884692e+000 -3.030547e+000 -3.110225e-001 138 134 123
6.078647e+000 -2.969029e+000 -1.528500e-001 106 102 93
6.110872e+000 -2.918721e+000 -1.953730e-001 71 68 61
6.225788e+000 -2.921865e+000 -1.506141e-001 134 134 124
5.773123e+000 -3.135082e+000 -3.065106e-001 101 96 91
5.849921e+000 -3.079810e+000 -2.807863e-001 161 162 157
5.611310e+000 -3.310877e+000 -5.653002e-001 135 127 124
6.311750e+000 -2.964849e+000 5.502787e-002 116 117 109
6.277346e+000 -3.035193e+000 5.762485e-002 139 139 132
5.921741e+000 -3.278124e+000 -1.856236e-001 64 59 63
5.955752e+000 -3.248628e+000 -1.265602e-001 129 127 128
6.303322e+000 -3.114671e+000 7.349672e-002 123 123 113
6.330627e+000 -3.123864e+000 7.237278e-002 101 101 91
7.396248e+000 -3.031967e+000 -4.769489e-001 48 33 28
5.670030e+000 -3.435467e+000 -1.650183e-001 160 185 208
5.818338e+000 -3.365586e+000 -8.548234e-002 128 143 148
6.034326e+000 -3.295041e+000 -4.459969e-002 63 52 48
6.308822e+000 -3.179841e+000 7.573269e-002 95 97 84
5.860469e+000 -3.398430e+000 -5.749429e-002 50 49 59
5.910799e+000 -3.399489e+000 2.161321e-002 60 59 68
5.944184e+000 -3.396893e+000 -6.679521e-002 43 34 39
6.500565e+000 -3.194515e+000 1.177227e-001 83 75 64
6.783666e+000 -3.156987e+000 2.350117e-002 86 76 66
5.654139e+000 -3.544600e+000 -1.433578e-001 117 129 144
5.860255e+000 -3.432789e+000 2.724342e-002 99 104 123
5.878191e+000 -3.451903e+000 9.471570e-002 62 53 66
6.368930e+000 -3.360440e+000 9.409017e-002 98 94 85
6.473125e+000 -3.294495e+000 1.446461e-001 93 88 79
6.606830e+000 -3.317488e+000 1.152359e-001 126 126 121
6.606830e+000 -3.317488e+000 1.152359e-001 126 126 121
6.029537e+000 -3.433591e+000 3.512017e-001 71 58 65
6.661675e+000 -3.381073e+000 1.334197e-001 61 54 49
5.861019e+000 -3.562083e+000 3.365805e-001 94 81 90
6.159153e+000 -3.521766e+000 2.947181e-001 77 68 73
5.762003e+000 -3.675879e+000 3.522098e-001 99 83 93
6.376124e+000 -3.594801e+000 2.622833e-001 93 80 87
6.697671e+000 -3.652351e+000 2.966109e-001 46 36 27
6.751662e+000 -3.637006e+000 3.216695e-001 70 59 41
6.050192e+000 -3.760040e+000 4.710242e-001 51 40 46
6.123077e+000 -3.906951e+000 4.188700e-001 67 61 66
6.123077e+000 -3.906951e+000 4.188700e-001 67 61 66
6.186403e+000 -3.791872e+000 4.712892e-001 65 54 59
6.186403e+000 -3.791872e+000 4.712892e-001 65 54 59
5.831079e+000 -4.064542e+000 4.306981e-001 68 49 58
7.453530e+000 -2.252687e+000 -9.691521e-001 106 97 92
5.760770e+000 -2.600609e+000 -1.432568e-001 86 72 85
5.798507e+000 -2.590394e+000 -1.657782e-001 51 35 45
5.922154e+000 -2.553251e+000 -1.154494e-001 39 28 36
6.900334e+000 -2.624821e+000 -6.361709e-001 71 51 42
7.676284e+000 -2.475767e+000 -8.919314e-001 66 50 37
7.822748e+000 -2.469492e+000 -1.032033e+000 98 80 66
6.392033e+000 -2.717776e+000 -2.511584e-001 54 43 41
6.367558e+000 -2.772595e+000 -3.040525e-001 67 54 57
6.530631e+000 -2.757936e+000 -3.192416e-001 73 67 61
7.563388e+000 -2.560800e+000 -8.211124e-001 65 50 38
6.028449e+000 -2.930308e+000 -2.944515e-001 106 100 96
6.165432e+000 -2.865321e+000 -2.340790e-001 101 98 93
6.323375e+000 -2.811078e+000 -2.165984e-001 144 147 136
6.409332e+000 -2.781112e+000 -1.881850e-001 125 122 114
6.680215e+000 -2.757224e+000 -3.582861e-001 70 51 45
6.044670e+000 -2.964074e+000 -1.983942e-001 66 63 56
6.168973e+000 -2.929755e+000 -1.498076e-001 132 129 120
6.166988e+000 -2.934112e+000 -1.623411e-001 132 129 120
6.266098e+000 -2.905735e+000 -1.257069e-001 134 134 124
6.471686e+000 -2.861321e+000 -1.606216e-001 103 99 89
6.471686e+000 -2.861321e+000 -1.606216e-001 103 99 89
5.513785e+000 -3.340092e+000 -7.530342e-001 148 148 142
5.628403e+000 -3.259052e+000 -5.063704e-001 142 137 133
5.713189e+000 -3.213214e+000 -4.219242e-001 140 140 132
6.076870e+000 -3.013458e+000 -1.262192e-001 141 141 132
6.281045e+000 -2.916415e+000 -1.082866e-001 83 81 69
6.344372e+000 -2.900493e+000 -8.005750e-002 26 26 24
5.557979e+000 -3.331613e+000 -6.339041e-001 135 132 127
5.546518e+000 -3.441299e+000 -7.533668e-001 131 122 119
5.660289e+000 -3.315915e+000 -5.148281e-001 152 149 144
5.899735e+000 -3.120462e+000 -2.217583e-001 142 143 135
6.017579e+000 -3.094427e+000 -2.227233e-001 97 94 85
6.017579e+000 -3.094427e+000 -2.227233e-001 97 94 85
6.171848e+000 -3.049904e+000 -4.919227e-002 89 89 81
6.171848e+000 -3.049904e+000 -4.919227e-002 89 89 81
6.246501e+000 -2.990992e+000 -6.109414e-002 124 120 112
6.288774e+000 -2.982843e+000 7.185482e-003 144 149 143
6.340191e+000 -2.929306e+000 9.385375e-002 66 57 50
6.352319e+000 -2.935214e+000 -8.130357e-003 65 59 58
5.978177e+000 -3.218183e+000 -1.611089e-001 56 47 52
6.431880e+000 -3.027154e+000 2.224476e-002 110 106 95
5.875158e+000 -3.326612e+000 -2.068016e-001 49 47 52
5.944358e+000 -3.243312e+000 -1.755368e-001 59 54 59
6.005614e+000 -3.235389e+000 -6.483046e-002 92 89 84
6.323174e+000 -3.110366e+000 6.791120e-002 134 134 124
6.429087e+000 -3.067777e+000 9.372409e-002 78 73 68
6.309953e+000 -3.190058e+000 1.096852e-001 134 135 125
6.662232e+000 -3.099115e+000 2.009024e-002 87 73 63
6.513360e+000 -3.181363e+000 4.431729e-002 62 58 49
6.066793e+000 -3.295943e+000 3.296868e-001 52 45 55
6.236004e+000 -3.308282e+000 4.827908e-002 83 81 76
6.421742e+000 -3.368739e+000 1.105845e-001 94 84 80
6.539941e+000 -3.292495e+000 1.135339e-001 73 66 55
6.776522e+000 -3.291105e+000 9.686022e-002 84 74 65
6.386027e+000 -3.460030e+000 1.223489e-001 86 81 77
6.478456e+000 -3.439131e+000 1.233819e-001 63 54 48
6.555496e+000 -3.364027e+000 1.308141e-001 108 104 95
6.697115e+000 -3.360549e+000 7.046989e-002 87 77 68
5.696505e+000 -3.629083e+000 2.707480e-001 33 23 31
6.680700e+000 -3.406038e+000 1.134974e-001 109 103 93
6.680700e+000 -3.406038e+000 1.134974e-001 109 103 93
6.779085e+000 -3.453265e+000 7.283193e-002 46 29 22
6.714869e+000 -3.496025e+000 1.032357e-001 43 33 24
5.900904e+000 -3.724594e+000 4.380706e-001 22 12 20
6.239299e+000 -3.568833e+000 5.032818e-001 35 22 29
6.658056e+000 -3.614507e+000 2.471334e-001 105 91 63
6.336464e+000 -3.676083e+000 4.647066e-001 69 59 60
6.426149e+000 -3.697226e+000 4.113488e-001 54 42 48
5.823621e+000 -3.951451e+000 4.433465e-001 29 16 23
5.780925e+000 -4.057806e+000 3.691065e-001 54 37 47
5.549147e+000 -2.528445e+000 -4.474016e-001 51 35 48
7.437175e+000 -2.202948e+000 -9.755676e-001 78 70 67
7.402654e+000 -2.356876e+000 -9.726404e-001 53 41 43
7.395149e+000 -2.437759e+000 -8.584950e-001 99 96 94
7.819193e+000 -2.424368e+000 -1.060453e+000 102 81 67
6.210815e+000 -2.800048e+000 -2.411019e-001 99 92 84
6.702043e+000 -2.704380e+000 -3.579053e-001 32 19 17
6.060866e+000 -2.927157e+000 -2.554764e-001 68 58 57
6.332424e+000 -2.825920e+000 -1.899792e-001 73 64 54
5.893556e+000 -3.025501e+000 -2.223600e-001 97 90 82
6.088305e+000 -2.935538e+000 -2.515551e-001 77 69 65
6.115921e+000 -2.924902e+000 -1.470199e-001 123 127 118
6.115921e+000 -2.924902e+000 -1.470199e-001 123 127 118
6.513729e+000 -2.830543e+000 -2.833727e-001 50 44 36
6.517905e+000 -2.798868e+000 -1.826560e-001 50 44 36
5.986169e+000 -3.027247e+000 -1.654690e-001 164 169 161
5.986169e+000 -3.027247e+000 -1.654690e-001 164 169 161
6.048626e+000 -2.998648e+000 -1.009606e-001 80 75 64
6.083283e+000 -2.967432e+000 -8.732774e-002 92 83 74
6.101157e+000 -3.003035e+000 -1.252604e-001 96 87 78
6.101157e+000 -3.003035e+000 -1.252604e-001 96 87 78
6.370785e+000 -2.891302e+000 -8.829457e-002 93 94 90
5.610384e+000 -3.331408e+000 -6.394189e-001 95 84 84
5.835869e+000 -3.179533e+000 -3.267997e-001 73 69 58
6.260473e+000 -3.000761e+000 -1.970786e-002 68 63 57
6.147745e+000 -3.097668e+000 -4.000337e-002 95 86 84
6.728328e+000 -2.979245e+000 -1.186857e-001 71 54 35
5.934663e+000 -3.271160e+000 -1.067847e-001 145 144 139
5.964093e+000 -3.261201e+000 -1.016099e-001 81 77 73
6.567289e+000 -3.031184e+000 4.453579e-002 61 47 40
7.652983e+000 -3.011200e+000 -6.243619e-001 77 64 55
6.424526e+000 -3.052348e+000 2.204683e-001 74 69 63
5.785565e+000 -3.475440e+000 1.631455e-002 245 255 254
5.852024e+000 -3.477579e+000 4.392773e-002 238 255 255
5.850828e+000 -3.479699e+000 4.193327e-002 238 255 255
6.181442e+000 -3.331613e+000 2.796656e-002 141 146 138
6.236579e+000 -3.368930e+000 1.903095e-002 124 124 116
6.183967e+000 -3.458650e+000 3.987690e-002 73 65 63
6.926565e+000 -3.321420e+000 -2.846783e-002 77 64 56
6.399565e+000 -3.525426e+000 1.253501e-001 35 26 27
6.750154e+000 -3.488844e+000 8.670210e-002 48 37 30
6.287565e+000 -3.547985e+000 3.421755e-001 34 23 29
6.775740e+000 -3.535374e+000 1.216656e-001 75 58 47
6.788045e+000 -3.647082e+000 2.652301e-001 29 17 17
6.456162e+000 -3.661345e+000 4.741105e-001 25 16 17
5.786299e+000 -4.070826e+000 4.244652e-001 61 44 60
6.083382e+000 -3.923350e+000 4.779103e-001 25 14 18
5.733188e+000 -2.494445e+000 -2.473457e-001 33 22 30
6.075973e+000 -2.388957e+000 -1.700346e-001 46 30 37
6.911939e+000 -2.314128e+000 -9.565756e-001 165 133 94
6.977148e+000 -2.381484e+000 -9.595317e-001 91 62 48
7.026630e+000 -2.482694e+000 -9.602104e-001 144 115 75
7.409000e+000 -2.475322e+000 -9.313704e-001 119 119 117
6.370211e+000 -2.699802e+000 -2.561833e-001 58 44 43
6.112918e+000 -2.839150e+000 -2.661037e-001 39 29 28
6.414982e+000 -2.741012e+000 -2.422240e-001 59 54 50
5.868005e+000 -3.003172e+000 -3.499300e-001 147 146 144
6.104498e+000 -2.870771e+000 -2.696744e-001 84 76 74
6.479554e+000 -2.806490e+000 -1.843820e-001 107 103 94
6.032138e+000 -2.981429e+000 -1.791362e-001 144 140 131
6.140643e+000 -2.949673e+000 -1.370244e-001 74 70 64
6.886449e+000 -2.908347e+000 -7.532733e-001 51 30 29
5.858480e+000 -3.088597e+000 -2.878378e-001 147 146 142
5.903026e+000 -3.090891e+000 -2.206522e-001 86 78 71
5.982074e+000 -3.067020e+000 -1.773197e-001 81 69 67
6.426776e+000 -2.891750e+000 -2.763422e-002 142 147 140
6.670981e+000 -2.851356e+000 -1.989649e-001 71 51 40
5.530452e+000 -3.410828e+000 -7.603333e-001 81 72 65
5.693788e+000 -3.284437e+000 -4.517850e-001 148 145 141
5.734350e+000 -3.229476e+000 -4.136908e-001 71 61 59
5.745524e+000 -3.215107e+000 -3.785856e-001 71 61 59
5.963920e+000 -3.126466e+000 -2.030172e-001 77 72 66
6.060730e+000 -3.103506e+000 -1.403513e-001 157 159 148
6.143356e+000 -3.027409e+000 -6.989121e-002 155 153 146
6.168415e+000 -3.058928e+000 -8.014773e-003 150 151 143
6.178770e+000 -3.132976e+000 1.687187e-002 93 91 79
6.688790e+000 -3.047440e+000 8.162000e-003 38 27 24
6.336381e+000 -3.157717e+000 3.288003e-002 148 151 144
6.336381e+000 -3.157717e+000 3.288003e-002 148 151 144
6.303950e+000 -3.357484e+000 1.205758e-001 52 45 42
6.523576e+000 -3.315221e+000 1.390945e-001 116 111 107
6.586824e+000 -3.302452e+000 1.195160e-001 50 49 45
6.586824e+000 -3.302452e+000 1.195160e-001 50 49 45
6.824120e+000 -3.242449e+000 6.318664e-002 81 70 62
5.980644e+000 -3.459187e+000 3.362437e-001 28 16 20
6.465881e+000 -3.417984e+000 1.173953e-001 133 133 125
6.421650e+000 -3.486714e+000 1.357542e-001 112 106 103
6.758312e+000 -3.449058e+000 6.395024e-002 95 85 73
5.719143e+000 -3.667320e+000 3.476601e-001 45 30 37
5.737473e+000 -3.666113e+000 3.130061e-001 91 81 92
5.730017e+000 -3.878145e+000 3.958762e-001 33 18 23
6.166385e+000 -3.781950e+000 3.609096e-001 21 16 20
6.188430e+000 -3.848463e+000 3.640871e-001 21 12 16
6.260786e+000 -3.868440e+000 5.471784e-001 37 22 27
7.451417e+000 -2.165059e+000 -1.103261e+000 172 173 176
7.009274e+000 -2.387730e+000 -8.988444e-001 159 134 96
5.873622e+000 -2.692098e+000 -1.277257e-001 45 32 39
6.452433e+000 -2.824900e+000 -1.699957e-001 57 44 36
6.585246e+000 -2.837529e+000 -1.688628e-001 106 100 88
5.698848e+000 -3.176682e+000 -4.292374e-001 106 97 99
6.115685e+000 -2.982754e+000 -1.403546e-001 141 142 128
5.503301e+000 -3.398788e+000 -6.917611e-001 156 161 154
5.524318e+000 -3.445789e+000 -7.123394e-001 68 46 49
5.817653e+000 -3.199455e+000 -3.102349e-001 144 144 136
6.020226e+000 -3.106790e+000 -1.704424e-001 147 151 138
6.230516e+000 -3.000288e+000 -6.774532e-002 118 114 105
6.230516e+000 -3.000288e+000 -6.774532e-002 118 114 105
5.507700e+000 -3.479698e+000 -6.831148e-001 57 41 41
5.904165e+000 -3.202078e+000 -2.425751e-001 31 28 28
6.525083e+000 -2.986331e+000 4.318600e-002 47 35 29
6.080492e+000 -3.195343e+000 -2.115730e-003 144 146 141
6.982265e+000 -3.145061e+000 -2.615470e-001 80 54 41
6.098891e+000 -3.342009e+000 6.267859e-003 114 115 107
6.906796e+000 -3.176492e+000 -6.588244e-002 33 18 15
6.892554e+000 -3.207017e+000 -3.379699e-002 83 66 53
6.496544e+000 -3.366147e+000 1.262376e-001 56 49 41
5.911823e+000 -3.804647e+000 5.038775e-001 48 36 46
6.231318e+000 -3.868662e+000 5.387488e-001 59 47 48
5.866571e+000 -2.701760e+000 -1.593455e-001 43 30 37
6.601308e+000 -2.698204e+000 -3.672670e-001 37 26 24
6.591347e+000 -2.758902e+000 -1.933461e-001 43 32 27
5.923920e+000 -3.050222e+000 -2.471911e-001 151 150 145
6.252233e+000 -3.016688e+000 8.654316e-003 76 73 66
6.459743e+000 -2.951903e+000 2.123733e-002 66 53 44
6.673789e+000 -2.987199e+000 4.911080e-004 72 58 49
6.931838e+000 -3.017972e+000 -3.291258e-001 70 44 32
6.289356e+000 -3.246718e+000 5.931571e-002 51 51 43
6.807643e+000 -3.213450e+000 2.812849e-002 48 41 33
6.973372e+000 -3.330866e+000 -8.171409e-002 53 35 21
6.854398e+000 -3.579673e+000 -3.846098e-002 44 27 20
5.972197e+000 -2.902148e+000 -2.530360e-001 49 35 35
5.883110e+000 -3.269503e+000 -1.695968e-001 37 32 36
5.934163e+000 -3.323285e+000 -1.147980e-001 141 142 136
6.048911e+000 -3.364847e+000 5.265038e-002 38 28 27
7.029811e+000 -3.345254e+000 -3.095472e-001 79 58 41
5.816628e+000 -3.786630e+000 3.702741e-001 35 26 31
6.084296e+000 -3.810105e+000 3.700476e-001 20 14 16
6.846383e+000 -2.819819e+000 -8.091076e-001 145 132 124
5.913419e+000 -3.217228e+000 -2.115368e-001 52 50 49
5.913419e+000 -3.217228e+000 -2.115368e-001 52 50 49
7.658371e+000 -2.560610e+000 -8.088887e-001 66 51 44
5.843937e+000 -3.047698e+000 -2.194033e-001 137 137 136
6.283578e+000 -3.479862e+000 9.066276e-002 30 20 21
7.285213e+000 -2.678093e+000 -1.522958e+000 59 40 34
9.341930e+000 -3.725182e+000 -3.383519e-001 136 120 71
8.073281e+000 -2.646378e+000 -1.017131e+000 67 48 31
