ply
format ascii 1.0
element face 0
property list uchar int vertex_indices
element vertex 890
property float x
property float y
property float z
property uchar diffuse_red
property uchar diffuse_green
property uchar diffuse_blue
end_header
7.566790e+000 -3.223154e+000 -6.152001e-001 75 58 55
6.265566e+000 -3.301399e+000 -4.233882e-002 64 56 53
6.612059e+000 -3.334780e+000 4.964866e-002 34 26 24
6.678922e+000 -3.290838e+000 2.127203e-002 45 30 24
6.745894e+000 -3.305750e+000 -9.916371e-003 44 29 23
6.745563e+000 -3.304692e+000 1.808236e-002 44 29 23
6.772565e+000 -3.318289e+000 -8.265598e-003 75 57 47
6.772565e+000 -3.318289e+000 -8.265598e-003 75 57 47
6.808524e+000 -3.334070e+000 -2.722646e-002 40 25 20
6.877346e+000 -3.331689e+000 -7.259696e-002 42 23 17
7.563846e+000 -3.288733e+000 -6.205446e-001 73 55 51
7.647803e+000 -3.309750e+000 -6.096943e-001 55 37 34
7.902970e+000 -3.306013e+000 -5.237166e-001 187 204 203
6.448041e+000 -3.337285e+000 6.039419e-002 140 149 129
6.444049e+000 -3.338271e+000 5.217709e-002 140 149 129
6.515469e+000 -3.377921e+000 6.422027e-002 33 23 21
6.589466e+000 -3.389730e+000 6.484668e-002 43 30 24
6.721089e+000 -3.395847e+000 1.949222e-002 43 25 23
7.432887e+000 -3.385005e+000 -6.342366e-001 64 49 42
7.908074e+000 -3.409927e+000 -7.159523e-001 115 118 111
6.181203e+000 -3.448156e+000 2.358416e-001 53 40 45
6.399859e+000 -3.407447e+000 5.869243e-002 96 87 80
6.487791e+000 -3.410595e+000 7.372707e-002 101 95 89
6.487744e+000 -3.410776e+000 7.212102e-002 101 95 89
6.542500e+000 -3.441311e+000 9.159843e-002 66 49 41
7.886635e+000 -3.449510e+000 -6.662495e-001 73 63 61
6.729449e+000 -3.487413e+000 -2.122740e-002 70 52 42
7.870557e+000 -3.500895e+000 -4.284905e-001 167 176 182
7.897938e+000 -3.550518e+000 -4.232708e-001 145 145 135
6.249337e+000 -3.528865e+000 2.805044e-001 75 66 71
7.984489e+000 -3.626768e+000 -3.653491e-001 123 111 99
7.984489e+000 -3.626768e+000 -3.653491e-001 123 111 99
8.108951e+000 -3.603957e+000 -3.486947e-001 91 72 58
5.760988e+000 -3.619296e+000 2.749899e-001 62 47 54
5.780159e+000 -3.631385e+000 2.513804e-001 105 91 104
5.771981e+000 -3.634803e+000 2.276870e-001 105 91 104
7.311414e+000 -3.750673e+000 -6.999147e-001 96 73 57
6.849346e+000 -3.708382e+000 2.202467e-002 41 24 17
7.841112e+000 -3.830744e+000 -6.591974e-001 48 34 31
8.777005e+000 -3.934601e+000 -8.796303e-001 118 100 62
5.817838e+000 -3.905149e+000 3.154751e-001 42 26 36
7.547005e+000 -4.190575e+000 -1.217919e+000 175 159 101
8.841804e+000 -4.250489e+000 -7.680540e-001 154 133 83
7.648861e+000 -5.250254e+000 -3.085577e+000 158 133 79
8.410256e+000 -4.787717e+000 -1.481018e+000 152 128 84
8.974293e+000 -2.319749e+000 -5.441409e-001 184 169 111
9.023837e+000 -2.335551e+000 -5.905908e-001 145 125 79
7.305930e+000 -2.353852e+000 -9.345720e-001 55 46 39
6.918519e+000 -2.393186e+000 -9.069707e-001 99 76 62
8.727527e+000 -2.397320e+000 -1.097274e+000 159 143 94
8.727527e+000 -2.397320e+000 -1.097274e+000 159 143 94
6.958132e+000 -2.541399e+000 -1.035927e+000 168 143 113
6.307127e+000 -2.725229e+000 -2.951189e-001 56 42 39
6.488140e+000 -2.739254e+000 -2.768771e-001 73 56 48
7.149809e+000 -2.632452e+000 -1.462492e+000 99 81 83
7.351227e+000 -2.737021e+000 -6.455364e-001 96 86 71
8.093270e+000 -2.727374e+000 -9.911898e-001 155 161 157
6.436080e+000 -2.898467e+000 -2.739040e-002 71 57 46
6.360096e+000 -2.978921e+000 1.321486e-002 58 48 39
6.441664e+000 -2.979104e+000 9.123638e-004 46 37 28
6.371044e+000 -3.022176e+000 -4.273731e-002 119 113 101
6.371044e+000 -3.022176e+000 -4.273731e-002 119 113 101
6.512316e+000 -3.053555e+000 -9.240934e-003 40 29 25
6.739880e+000 -3.000168e+000 -1.098151e-001 81 59 41
6.714036e+000 -3.053401e+000 -5.770899e-002 48 36 33
5.943262e+000 -3.095663e+000 -2.695014e-001 148 144 134
5.859453e+000 -3.134129e+000 -3.235465e-001 159 155 146
6.131810e+000 -3.154449e+000 -7.247384e-002 55 44 44
6.131810e+000 -3.154449e+000 -7.247384e-002 55 44 44
6.179755e+000 -3.153857e+000 -4.328334e-002 164 166 153
6.277920e+000 -3.187717e+000 -3.591949e-002 40 35 29
6.277920e+000 -3.187717e+000 -3.591949e-002 40 35 29
6.460372e+000 -3.206959e+000 3.320053e-002 145 145 133
6.562370e+000 -3.181446e+000 2.406809e-002 61 51 42
6.765064e+000 -3.150996e+000 -1.841636e-002 42 33 28
6.201619e+000 -3.234468e+000 -4.572787e-002 39 34 28
6.398417e+000 -3.244953e+000 2.465777e-002 138 135 128
6.395784e+000 -3.245841e+000 2.304149e-002 138 135 128
6.543808e+000 -3.259295e+000 4.637701e-002 43 32 30
6.674243e+000 -3.228782e+000 1.348574e-002 47 34 26
6.470003e+000 -3.297745e+000 4.887541e-002 49 40 33
6.666918e+000 -3.357538e+000 3.011361e-002 34 22 15
6.666570e+000 -3.357067e+000 3.278414e-002 34 22 15
6.702806e+000 -3.367285e+000 4.066298e-002 73 63 54
6.702806e+000 -3.367285e+000 4.066298e-002 73 63 54
7.960808e+000 -3.559446e+000 -3.741140e-001 143 137 125
5.736606e+000 -3.565957e+000 2.464865e-001 48 32 45
5.736606e+000 -3.565957e+000 2.464865e-001 48 32 45
6.682490e+000 -3.563621e+000 1.807820e-001 68 54 35
8.008850e+000 -3.699487e+000 -4.138842e-001 122 106 90
6.854436e+000 -3.770405e+000 1.139343e-001 132 127 89
7.616516e+000 -4.057855e+000 -1.253771e+000 174 151 103
7.616516e+000 -4.057855e+000 -1.253771e+000 174 151 103
6.155389e+000 -3.913730e+000 4.446996e-001 33 22 28
8.760989e+000 -4.368797e+000 -9.052111e-001 133 116 72
8.773971e+000 -4.619229e+000 -7.721742e-001 160 141 96
5.925894e+000 -2.485796e+000 -2.286268e-001 32 19 29
7.716742e+000 -2.441239e+000 -9.375052e-001 90 70 53
6.619992e+000 -2.824205e+000 -2.288995e-001 76 55 38
8.860288e+000 -2.998306e+000 -7.844499e-001 161 144 93
6.443949e+000 -3.108376e+000 3.606772e-003 53 44 37
6.006309e+000 -3.185261e+000 -1.668126e-001 114 109 103
6.895838e+000 -3.161545e+000 -1.439358e-001 47 32 31
6.895838e+000 -3.161545e+000 -1.439358e-001 47 32 31
7.612209e+000 -3.177281e+000 -5.896459e-001 86 72 63
6.826901e+000 -3.249784e+000 -5.610509e-002 36 23 17
6.827397e+000 -3.248582e+000 -5.246045e-002 36 23 17
7.625930e+000 -3.236544e+000 -6.324044e-001 46 32 31
8.392213e+000 -3.238463e+000 -3.658135e-001 127 111 94
7.425175e+000 -3.342102e+000 -7.118114e-001 32 20 20
7.766487e+000 -3.326464e+000 -6.678274e-001 101 100 95
8.891685e+000 -3.330797e+000 -6.510028e-001 138 120 84
6.395140e+000 -3.338765e+000 3.819168e-002 26 17 18
6.660949e+000 -3.426775e+000 4.448434e-002 35 24 22
7.872155e+000 -3.579607e+000 -6.479156e-001 55 44 41
7.857036e+000 -3.728722e+000 -4.816930e-001 110 105 99
9.037685e+000 -3.916207e+000 -4.310855e-001 161 147 110
8.594031e+000 -4.398208e+000 -1.181437e+000 115 93 69
6.937648e+000 -2.944873e+000 -8.059667e-001 51 33 31
7.411686e+000 -2.953674e+000 -5.924698e-001 84 71 65
6.860606e+000 -3.083192e+000 -1.390342e-001 40 26 23
8.890541e+000 -3.043124e+000 -7.344725e-001 164 152 119
6.063734e+000 -3.147474e+000 -1.095900e-001 144 144 135
6.282147e+000 -3.240962e+000 -1.904331e-002 126 122 111
7.861605e+000 -3.267545e+000 -6.884432e-001 63 45 46
7.893035e+000 -3.295012e+000 -5.394391e-001 184 202 204
8.351410e+000 -3.275908e+000 -3.873559e-001 58 38 29
6.757709e+000 -3.430458e+000 -1.310049e-002 66 48 35
6.574345e+000 -3.465188e+000 1.155411e-001 39 25 26
5.964813e+000 -3.597474e+000 3.251413e-001 23 12 20
5.836406e+000 -3.664516e+000 2.727523e-001 34 21 28
7.486462e+000 -4.097949e+000 -1.028343e+000 98 71 57
7.484429e+000 -4.098625e+000 -1.028663e+000 98 71 57
6.931768e+000 -4.174906e+000 4.419379e-002 77 49 38
7.869098e+000 -5.005050e+000 -2.996924e+000 151 125 88
7.869098e+000 -5.005050e+000 -2.996924e+000 151 125 88
5.846493e+000 -2.914521e+000 -4.151215e-001 59 40 46
6.608495e+000 -2.998014e+000 -4.121559e-002 55 40 35
6.653487e+000 -2.937793e+000 -9.713167e-002 78 58 49
8.082840e+000 -2.979260e+000 -8.906457e-001 54 40 34
7.954970e+000 -3.270046e+000 -4.534488e-001 106 92 83
7.335323e+000 -3.659468e+000 -7.105759e-001 86 64 50
7.335592e+000 -3.658823e+000 -7.087206e-001 86 64 50
7.596169e+000 -3.795038e+000 -7.794320e-001 73 56 48
6.822311e+000 -4.204053e+000 -2.355313e-002 54 31 23
7.469533e+000 -2.270976e+000 -9.982772e-001 111 98 90
7.661636e+000 -2.417736e+000 -9.499289e-001 78 63 45
7.667520e+000 -3.125596e+000 -5.953469e-001 89 74 65
6.810346e+000 -3.469461e+000 2.109074e-002 30 19 17
7.943892e+000 -3.634190e+000 -4.045485e-001 100 83 75
7.865347e+000 -3.765690e+000 -4.846842e-001 111 102 95
7.217072e+000 -2.701158e+000 -1.176946e+000 48 32 33
7.805710e+000 -2.729884e+000 -8.221445e-001 63 45 33
7.620560e+000 -2.977435e+000 -6.042547e-001 74 57 47
7.620924e+000 -2.977682e+000 -6.066737e-001 74 57 47
6.754025e+000 -3.526510e+000 1.202025e-001 29 18 15
7.939943e+000 -3.885691e+000 -4.833228e-001 83 63 54
7.587205e+000 -2.781569e+000 -7.043096e-001 87 74 57
7.587205e+000 -2.781569e+000 -7.043096e-001 87 74 57
7.447458e+000 -3.020096e+000 -5.706930e-001 86 72 69
7.785491e+000 -3.191010e+000 -6.050309e-001 38 28 27
7.362024e+000 -3.509571e+000 -6.505479e-001 81 61 54
7.816474e+000 -3.630363e+000 -6.536859e-001 46 36 27
6.469971e+000 -2.975163e+000 -9.945532e-002 97 86 74
8.808288e+000 -2.975927e+000 -9.952970e-001 174 161 106
7.431546e+000 -3.263212e+000 -5.965627e-001 36 24 27
6.742413e+000 -2.450045e+000 -8.379845e-001 38 24 24
8.023496e+000 -3.367813e+000 -4.301440e-001 183 197 200
8.679415e+000 -3.530000e+000 -8.836725e-001 67 48 34
7.702081e+000 -2.434824e+000 -9.347716e-001 80 61 46
8.123727e+000 -2.777006e+000 -9.265840e-001 132 125 108
6.112622e+000 -2.994672e+000 -1.435782e-001 87 77 71
6.427118e+000 -2.999632e+000 2.273202e-002 51 41 32
6.092047e+000 -3.142261e+000 -1.058735e-001 108 104 91
6.498137e+000 -3.197583e+000 3.629810e-002 70 57 48
6.198083e+000 -3.270949e+000 -3.252932e-002 100 89 83
6.515516e+000 -3.303294e+000 6.665362e-002 100 90 81
8.931642e+000 -2.217212e+000 -7.026779e-001 154 138 85
8.931642e+000 -2.217212e+000 -7.026779e-001 154 138 85
7.645426e+000 -2.384772e+000 -9.376332e-001 75 59 44
7.568547e+000 -2.473906e+000 -8.617644e-001 78 60 45
7.942444e+000 -2.642891e+000 -9.786992e-001 66 47 30
7.848651e+000 -2.815041e+000 -8.048527e-001 92 75 59
6.141309e+000 -2.932093e+000 -1.968139e-001 130 129 114
7.661035e+000 -2.889325e+000 -6.739676e-001 93 76 60
6.656103e+000 -3.344831e+000 4.190799e-002 54 41 33
7.265300e+000 -3.410242e+000 -6.375555e-001 42 27 24
7.513954e+000 -4.206976e+000 -1.156041e+000 178 158 99
7.466503e+000 -2.472408e+000 -8.095228e-001 93 79 66
7.643523e+000 -2.478138e+000 -8.860330e-001 98 81 65
7.643523e+000 -2.478138e+000 -8.860330e-001 98 81 65
6.490861e+000 -2.704019e+000 -3.000945e-001 95 88 78
7.046733e+000 -2.897982e+000 -9.693325e-001 71 56 48
7.857420e+000 -3.067232e+000 -6.347549e-001 56 42 26
6.264169e+000 -3.248582e+000 -3.247367e-002 86 82 73
7.584550e+000 -3.264262e+000 -6.092848e-001 76 58 55
7.483750e+000 -3.468927e+000 -6.268454e-001 71 55 54
8.013021e+000 -3.671776e+000 -3.862083e-001 121 107 94
8.033439e+000 -3.830255e+000 -4.830875e-001 81 61 47
8.917604e+000 -4.064295e+000 -5.752990e-001 155 135 84
8.931183e+000 -4.070558e+000 -6.013025e-001 155 135 84
8.929729e+000 -2.138345e+000 -7.499906e-001 159 143 92
8.781593e+000 -2.327358e+000 -9.843143e-001 160 144 92
7.345620e+000 -2.397542e+000 -8.468449e-001 116 112 103
7.899373e+000 -2.722823e+000 -8.938527e-001 98 77 53
6.048074e+000 -2.939915e+000 -2.305032e-001 154 155 139
6.489122e+000 -3.097341e+000 -8.434442e-003 102 101 89
6.442571e+000 -3.153473e+000 2.465267e-002 77 69 58
6.442571e+000 -3.153473e+000 2.465267e-002 77 69 58
7.552259e+000 -3.258747e+000 -6.143335e-001 37 19 19
7.646145e+000 -3.281478e+000 -6.573192e-001 71 54 49
7.868342e+000 -3.307793e+000 -6.585736e-001 64 49 49
7.268121e+000 -3.452785e+000 -6.359356e-001 85 62 56
7.268507e+000 -3.451942e+000 -6.328835e-001 85 62 56
8.069214e+000 -3.679683e+000 -3.656080e-001 117 101 86
7.949589e+000 -3.723033e+000 -4.419162e-001 122 111 97
7.863909e+000 -3.922062e+000 -5.929411e-001 74 54 43
7.863909e+000 -3.922062e+000 -5.929411e-001 74 54 43
7.314178e+000 -2.269364e+000 -9.707238e-001 93 82 84
7.371438e+000 -2.306049e+000 -8.959739e-001 102 93 84
8.819079e+000 -2.594386e+000 -9.276596e-001 151 135 85
7.978876e+000 -2.626703e+000 -9.797906e-001 102 82 68
6.427411e+000 -3.109950e+000 1.061570e-002 51 42 38
8.900136e+000 -3.052707e+000 -7.263165e-001 169 156 121
8.898873e+000 -3.052412e+000 -7.246982e-001 169 156 121
6.342571e+000 -3.247173e+000 -1.730883e-003 52 47 44
6.213222e+000 -3.799881e+000 3.677478e-001 74 63 69
8.949503e+000 -2.362133e+000 -7.043356e-001 187 172 115
8.148066e+000 -3.623349e+000 -3.380298e-001 121 102 88
6.202772e+000 -3.287004e+000 -4.720784e-002 101 97 88
7.381410e+000 -4.044834e+000 -9.667850e-001 175 149 99
7.279063e+000 -2.552968e+000 -1.287080e+000 113 104 109
5.882581e+000 -2.763748e+000 -2.022485e-001 96 80 83
7.236320e+000 -2.821913e+000 -1.050919e+000 68 56 56
7.236320e+000 -2.821913e+000 -1.050919e+000 68 56 56
6.142114e+000 -3.002308e+000 -9.837769e-002 101 99 86
6.277436e+000 -2.936625e+000 -4.055279e-002 143 141 126
8.008876e+000 -2.872409e+000 -9.954162e-001 95 79 64
6.064551e+000 -3.029541e+000 -1.905999e-001 140 138 123
6.340500e+000 -3.045703e+000 5.528598e-002 113 107 95
6.518086e+000 -3.003295e+000 2.709339e-002 48 38 29
5.642445e+000 -3.256315e+000 -6.545339e-001 85 81 69
6.167487e+000 -3.170360e+000 -2.280042e-002 103 94 85
6.245483e+000 -3.189300e+000 -2.948781e-002 124 122 108
6.319457e+000 -3.159185e+000 -7.268826e-003 88 88 77
6.384395e+000 -3.131716e+000 5.798143e-003 82 78 67
6.447929e+000 -3.120152e+000 2.619270e-002 84 73 67
6.203966e+000 -3.212878e+000 -2.372430e-002 80 71 69
6.284868e+000 -3.222773e+000 4.009678e-003 96 90 78
6.399035e+000 -3.209220e+000 1.688619e-002 119 116 109
8.906647e+000 -3.108189e+000 -7.819221e-001 128 120 88
8.087949e+000 -3.251478e+000 -2.176150e-001 163 173 172
9.134473e+000 -3.208522e+000 -3.482042e-001 159 139 88
6.749948e+000 -3.407283e+000 -5.067717e-004 61 41 30
7.885881e+000 -3.401385e+000 -4.327864e-001 115 117 117
6.663980e+000 -3.553415e+000 1.934777e-001 65 49 34
5.582198e+000 -2.577969e+000 -4.990629e-001 65 49 62
6.513815e+000 -2.697881e+000 -3.022003e-001 66 53 47
7.038325e+000 -2.564823e+000 -9.168731e-001 172 136 114
7.291644e+000 -2.534965e+000 -1.288343e+000 70 59 60
7.738511e+000 -2.647550e+000 -8.518615e-001 65 43 30
7.738511e+000 -2.647550e+000 -8.518615e-001 65 43 30
6.369385e+000 -2.802523e+000 -2.477810e-001 107 99 87
6.365784e+000 -2.842148e+000 -1.491976e-001 72 65 60
6.435331e+000 -2.833731e+000 -1.148394e-001 98 85 70
8.050889e+000 -2.666147e+000 -1.018319e+000 134 128 110
6.161797e+000 -2.890725e+000 -2.338942e-001 132 125 115
6.213448e+000 -2.925090e+000 -8.225732e-002 89 80 71
6.332450e+000 -2.894242e+000 -8.018296e-002 74 68 68
6.410228e+000 -2.931470e+000 -2.289090e-002 68 53 46
6.013547e+000 -3.034765e+000 -2.254456e-001 141 134 126
8.106135e+000 -2.895367e+000 -9.270366e-001 85 75 64
8.067311e+000 -2.894154e+000 -6.568884e-001 79 71 60
6.193766e+000 -3.097947e+000 -3.483538e-002 130 128 115
6.362071e+000 -3.102160e+000 8.907515e-003 85 79 65
5.676917e+000 -3.229496e+000 -5.704164e-001 154 150 141
6.161009e+000 -3.157460e+000 -4.508319e-002 156 157 146
6.145788e+000 -3.233241e+000 -5.389811e-002 146 147 132
6.284746e+000 -3.238004e+000 -4.507595e-003 125 123 110
6.524143e+000 -3.195891e+000 1.641434e-002 97 91 81
6.506438e+000 -3.269996e+000 4.297866e-002 66 57 50
7.896101e+000 -3.284541e+000 -6.926447e-001 135 140 138
8.365674e+000 -3.202499e+000 -3.553780e-001 128 110 95
8.365674e+000 -3.202499e+000 -3.553780e-001 128 110 95
8.376449e+000 -3.201388e+000 -3.241092e-001 58 44 31
6.389732e+000 -3.325179e+000 2.875570e-002 32 25 19
6.389732e+000 -3.325179e+000 2.875570e-002 32 25 19
8.047911e+000 -3.300036e+000 -2.410372e-001 183 196 196
6.853319e+000 -3.371912e+000 3.338884e-003 58 39 25
7.436772e+000 -3.408701e+000 -5.640826e-001 50 35 29
7.803203e+000 -3.562749e+000 -7.099010e-001 43 30 21
7.864337e+000 -3.564837e+000 -4.689550e-001 136 141 131
7.863526e+000 -3.570753e+000 -4.084509e-001 90 81 72
5.915513e+000 -3.566889e+000 2.735443e-001 62 56 64
7.660005e+000 -3.711112e+000 -7.865178e-001 73 60 52
5.881227e+000 -3.654193e+000 3.349470e-001 29 18 24
6.954495e+000 -3.756858e+000 -4.157985e-001 58 35 21
7.636079e+000 -3.726966e+000 -7.032547e-001 50 35 30
6.221211e+000 -3.675761e+000 3.263440e-001 34 24 32
6.156468e+000 -3.775135e+000 3.606815e-001 27 20 28
7.664805e+000 -2.464471e+000 -7.929005e-001 100 81 66
7.019935e+000 -2.548233e+000 -9.401961e-001 114 78 64
6.353227e+000 -2.856164e+000 -1.517141e-001 97 93 80
6.397585e+000 -2.790337e+000 -2.132317e-001 76 67 52
6.667026e+000 -2.774992e+000 -3.122965e-001 28 18 17
7.715647e+000 -2.692584e+000 -7.602965e-001 89 70 55
6.071375e+000 -2.899138e+000 -2.631409e-001 138 131 123
6.144609e+000 -2.914885e+000 -1.952963e-001 85 78 70
6.178258e+000 -2.918165e+000 -1.808484e-001 142 140 128
6.178258e+000 -2.918165e+000 -1.808484e-001 142 140 128
6.202134e+000 -2.869410e+000 -1.992218e-001 93 84 76
6.288818e+000 -2.914135e+000 -3.480526e-002 143 148 131
6.425920e+000 -2.857150e+000 -4.557828e-002 98 88 75
6.453122e+000 -2.876592e+000 -4.006621e-002 137 141 124
6.451995e+000 -2.876592e+000 -5.406706e-002 137 141 124
7.753957e+000 -2.802695e+000 -7.473472e-001 65 47 33
6.303057e+000 -2.979091e+000 4.245640e-003 97 90 80
6.394497e+000 -2.925113e+000 -3.009062e-002 84 76 65
6.394497e+000 -2.925113e+000 -3.009062e-002 84 76 65
7.282422e+000 -2.892457e+000 -5.780636e-001 62 44 42
5.965265e+000 -3.053353e+000 -2.419297e-001 142 142 130
6.143598e+000 -3.029184e+000 -9.148966e-002 107 104 88
6.295375e+000 -3.039694e+000 -2.479172e-002 97 94 79
6.485972e+000 -2.995800e+000 -3.472175e-003 55 45 35
6.874995e+000 -3.020624e+000 -3.407069e-001 40 20 16
6.900195e+000 -3.025422e+000 -3.983175e-001 73 46 35
7.225348e+000 -2.960559e+000 -7.419817e-001 38 24 23
7.700349e+000 -2.937201e+000 -6.620103e-001 66 49 38
8.171024e+000 -2.963072e+000 -9.980920e-001 60 42 34
5.772875e+000 -3.141652e+000 -4.144478e-001 131 125 119
6.358147e+000 -3.086882e+000 6.605561e-003 151 149 136
6.275503e+000 -3.140892e+000 -3.975168e-002 104 98 85
6.394619e+000 -3.141243e+000 1.245994e-002 143 143 134
6.395893e+000 -3.140989e+000 1.326862e-002 143 143 134
6.427976e+000 -3.180362e+000 -1.613989e-003 138 136 124
8.310975e+000 -3.126366e+000 -1.045233e+000 58 41 30
5.835156e+000 -3.267584e+000 -3.521825e-001 238 255 254
5.835156e+000 -3.267584e+000 -3.521825e-001 238 255 254
6.527563e+000 -3.234549e+000 3.507827e-002 81 73 60
6.689365e+000 -3.229306e+000 5.604928e-003 46 28 26
6.212234e+000 -3.273853e+000 -3.983687e-002 137 138 122
6.243964e+000 -3.265137e+000 -1.759329e-002 91 87 75
6.255038e+000 -3.304752e+000 -1.828947e-002 56 51 48
6.402292e+000 -3.275182e+000 3.335409e-002 67 58 49
6.443868e+000 -3.362334e+000 6.294207e-002 66 57 49
6.634273e+000 -3.305800e+000 3.739962e-002 114 105 97
6.643563e+000 -3.334327e+000 5.962342e-002 118 111 105
6.643563e+000 -3.334327e+000 5.962342e-002 118 111 105
7.277599e+000 -3.368440e+000 -6.496061e-001 47 32 29
7.534978e+000 -3.357593e+000 -6.690394e-001 51 33 29
7.883287e+000 -3.310574e+000 -6.302228e-001 131 136 132
7.945019e+000 -3.302995e+000 -3.401105e-001 117 113 101
6.389087e+000 -3.387129e+000 5.610667e-002 56 46 43
6.375005e+000 -3.397387e+000 7.030022e-002 43 33 31
6.572473e+000 -3.426031e+000 5.139697e-002 75 60 55
6.841456e+000 -3.366645e+000 -3.785699e-002 87 64 49
6.841600e+000 -3.367526e+000 -4.433014e-002 87 64 49
7.842309e+000 -3.498271e+000 -7.192297e-001 80 67 61
7.284996e+000 -3.634768e+000 -6.820189e-001 82 66 55
7.458652e+000 -3.745994e+000 -8.471260e-001 78 57 52
7.597015e+000 -3.686315e+000 -6.553327e-001 42 29 23
7.584660e+000 -3.729165e+000 -7.515645e-001 46 31 27
7.657506e+000 -3.707691e+000 -6.996635e-001 46 33 27
6.163947e+000 -3.637835e+000 2.695070e-001 38 28 29
7.867749e+000 -3.747378e+000 -6.753958e-001 38 27 25
5.958992e+000 -3.728609e+000 3.013721e-001 32 19 26
6.189536e+000 -3.699175e+000 2.992711e-001 26 16 23
7.664976e+000 -3.908030e+000 -8.138781e-001 52 37 32
6.174852e+000 -3.715233e+000 3.613546e-001 31 21 26
6.223783e+000 -3.764989e+000 3.115991e-001 66 54 58
7.558042e+000 -3.995370e+000 -1.056501e+000 82 60 36
6.190412e+000 -3.838030e+000 3.720805e-001 77 67 75
6.190412e+000 -3.838030e+000 3.720805e-001 77 67 75
6.173595e+000 -3.912651e+000 3.865429e-001 41 28 35
6.104418e+000 -4.050515e+000 3.678933e-001 81 69 70
6.104418e+000 -4.050515e+000 3.678933e-001 81 69 70
6.871635e+000 -4.189690e+000 1.120301e-001 161 143 98
8.975947e+000 -2.191004e+000 -7.600772e-001 158 141 89
7.333420e+000 -2.360624e+000 -8.505940e-001 111 106 100
7.712760e+000 -2.455711e+000 -9.254306e-001 73 51 37
7.284555e+000 -2.583020e+000 -1.257576e+000 56 47 52
6.162561e+000 -2.776976e+000 -3.239935e-001 45 36 37
6.466959e+000 -2.776325e+000 -2.167302e-001 130 124 112
7.766212e+000 -2.643612e+000 -8.649674e-001 95 74 56
6.206314e+000 -2.803460e+000 -2.687917e-001 87 81 73
6.382349e+000 -2.825704e+000 -1.833099e-001 76 72 61
6.418783e+000 -2.832046e+000 -9.404416e-002 124 121 106
7.278732e+000 -2.742501e+000 -6.856015e-001 155 170 164
7.278732e+000 -2.742501e+000 -6.856015e-001 155 170 164
6.258570e+000 -2.902788e+000 -6.995711e-002 73 70 58
6.407409e+000 -2.873364e+000 -4.983213e-002 124 118 102
7.466945e+000 -2.798471e+000 -6.274910e-001 69 55 46
6.030178e+000 -2.964679e+000 -2.167378e-001 95 89 77
6.121426e+000 -2.965550e+000 -1.779844e-001 85 79 65
6.195421e+000 -2.962459e+000 -1.115491e-001 136 131 119
6.701406e+000 -2.950494e+000 -1.396649e-001 76 57 47
7.467472e+000 -2.866103e+000 -6.178458e-001 87 75 63
7.636283e+000 -2.884066e+000 -6.688288e-001 67 49 35
6.084343e+000 -3.015763e+000 -1.946060e-001 81 78 63
6.168847e+000 -3.014913e+000 -8.597665e-002 143 144 130
6.207609e+000 -3.014306e+000 -3.205113e-002 98 88 78
6.193200e+000 -3.056489e+000 -5.886966e-002 158 155 145
6.416215e+000 -3.045939e+000 1.149634e-002 125 119 107
6.458605e+000 -3.041007e+000 7.593138e-003 64 50 43
6.528415e+000 -3.015394e+000 -1.422248e-002 88 77 71
6.644067e+000 -2.999624e+000 -5.653040e-002 41 31 24
6.783898e+000 -3.032100e+000 -1.596080e-001 51 34 28
7.514675e+000 -2.957070e+000 -5.866035e-001 67 50 43
8.075366e+000 -2.929492e+000 -9.332016e-001 89 75 62
8.111810e+000 -2.936449e+000 -9.413359e-001 51 34 30
5.700664e+000 -3.156236e+000 -5.600742e-001 101 93 88
5.823773e+000 -3.096857e+000 -4.101088e-001 96 82 72
6.063246e+000 -3.095060e+000 -1.264224e-001 142 133 124
6.384318e+000 -3.057860e+000 -1.722055e-002 73 60 54
6.452976e+000 -3.071000e+000 2.572100e-003 126 121 112
6.012681e+000 -3.162432e+000 -1.313196e-001 141 138 130
6.220711e+000 -3.191471e+000 -3.224675e-002 147 144 129
7.491699e+000 -3.106364e+000 -5.585679e-001 60 43 36
7.518333e+000 -3.109505e+000 -5.365331e-001 89 72 65
7.592347e+000 -3.131021e+000 -6.636181e-001 86 71 64
8.290895e+000 -3.109417e+000 -1.047756e+000 82 66 50
6.504779e+000 -3.228596e+000 4.142552e-002 72 59 51
7.964688e+000 -3.176447e+000 -4.033466e-001 106 93 77
6.179476e+000 -3.270018e+000 -5.426623e-002 135 130 123
6.705174e+000 -3.247586e+000 -3.682437e-003 84 65 58
6.372730e+000 -3.375789e+000 5.616160e-002 79 68 66
7.926698e+000 -3.295862e+000 -3.572370e-001 160 164 160
8.053108e+000 -3.278891e+000 -2.534597e-001 112 108 109
7.894469e+000 -3.358259e+000 -4.476058e-001 183 203 202
7.930680e+000 -3.371837e+000 -3.188718e-001 122 113 111
7.902478e+000 -3.524379e+000 -6.796256e-001 70 63 57
7.629779e+000 -3.626941e+000 -7.046153e-001 48 33 28
7.884906e+000 -3.537516e+000 -4.499324e-001 108 91 81
7.884906e+000 -3.537516e+000 -4.499324e-001 108 91 81
8.023030e+000 -3.638087e+000 -3.910223e-001 88 69 54
7.960658e+000 -3.757176e+000 -4.672108e-001 80 64 49
7.841160e+000 -3.965902e+000 -6.492187e-001 62 44 38
6.910597e+000 -4.147593e+000 -2.451532e-002 87 55 46
6.441339e+000 -4.207745e+000 2.423629e-001 36 22 24
6.398081e+000 -2.661534e+000 -3.356953e-001 55 45 43
6.554134e+000 -2.662049e+000 -3.432774e-001 59 41 39
7.340029e+000 -2.586222e+000 -8.274681e-001 109 106 97
6.431673e+000 -2.759214e+000 -2.453815e-001 59 46 37
6.636311e+000 -2.751677e+000 -2.859625e-001 88 71 55
6.124619e+000 -2.938071e+000 -1.850744e-001 154 149 135
6.655169e+000 -2.898227e+000 -1.385987e-001 79 57 44
8.704449e+000 -2.728737e+000 -1.100824e+000 141 123 73
6.042752e+000 -3.039895e+000 -1.814101e-001 152 144 135
6.243334e+000 -3.009628e+000 -3.418147e-002 152 152 140
6.332733e+000 -3.114782e+000 5.091522e-003 81 73 62
6.554082e+000 -3.047448e+000 -1.572568e-002 84 73 67
6.554082e+000 -3.047448e+000 -1.572568e-002 84 73 67
6.548076e+000 -3.073861e+000 -6.685255e-003 62 52 43
6.066097e+000 -3.207891e+000 -8.786535e-002 79 68 63
6.605080e+000 -3.114216e+000 -4.933939e-003 101 93 82
6.598724e+000 -3.190979e+000 2.229765e-002 87 80 74
6.316172e+000 -3.289311e+000 4.341296e-003 94 85 76
6.661744e+000 -3.265907e+000 5.935065e-002 74 59 52
7.272590e+000 -3.254857e+000 -6.993580e-001 37 24 18
7.272872e+000 -3.254723e+000 -7.098085e-001 37 24 18
7.895782e+000 -3.301721e+000 -4.895725e-001 184 205 203
7.224726e+000 -3.657061e+000 -7.862140e-001 86 62 50
9.139704e+000 -3.639720e+000 -3.881558e-001 153 135 87
6.181802e+000 -3.705935e+000 3.364266e-001 58 49 53
5.967535e+000 -3.834003e+000 3.627294e-001 46 31 38
5.970448e+000 -3.876439e+000 2.926688e-001 77 64 69
6.985353e+000 -4.001458e+000 -3.160120e-001 157 130 84
6.752070e+000 -4.196199e+000 -2.728202e-001 74 50 37
6.982525e+000 -4.163396e+000 5.381568e-002 166 143 93
8.758325e+000 -2.359356e+000 -1.025850e+000 157 137 87
7.922434e+000 -2.580291e+000 -9.787828e-001 99 81 61
7.918757e+000 -2.581389e+000 -9.593263e-001 99 81 61
8.853689e+000 -2.530504e+000 -9.658760e-001 176 161 101
6.432855e+000 -2.788001e+000 -2.065518e-001 67 57 45
5.649337e+000 -3.105238e+000 -6.207790e-001 77 64 90
5.999611e+000 -3.014773e+000 -2.297871e-001 83 74 67
6.240004e+000 -3.076956e+000 -8.783105e-003 143 142 133
6.258794e+000 -3.125253e+000 4.462450e-003 158 159 145
6.256120e+000 -3.126441e+000 -5.447730e-003 158 159 145
6.337945e+000 -3.085889e+000 1.038255e-002 142 141 129
6.512588e+000 -3.052288e+000 3.396003e-003 42 31 29
8.173134e+000 -3.080468e+000 -8.919013e-001 108 90 70
6.059715e+000 -3.244872e+000 -7.443404e-002 144 140 131
6.201069e+000 -3.234715e+000 -4.731320e-002 39 33 27
6.461092e+000 -3.206868e+000 3.298373e-002 149 146 134
6.146713e+000 -3.274111e+000 -5.772576e-002 57 48 45
6.146713e+000 -3.274111e+000 -5.772576e-002 57 48 45
6.544002e+000 -3.258913e+000 5.061013e-002 45 39 34
8.312714e+000 -3.226159e+000 -3.406892e-001 108 87 60
6.448073e+000 -3.415828e+000 6.353402e-002 43 32 36
6.515344e+000 -3.377828e+000 6.553134e-002 43 34 29
6.389207e+000 -3.434176e+000 1.348745e-001 40 28 27
6.989723e+000 -3.486257e+000 -3.058960e-001 90 59 37
7.200902e+000 -3.693176e+000 -6.249244e-001 91 66 51
7.733380e+000 -3.848737e+000 -6.881078e-001 76 62 55
6.953144e+000 -3.830439e+000 -2.549139e-001 58 30 26
8.163676e+000 -3.847240e+000 -5.517083e-001 109 88 64
6.160672e+000 -3.827995e+000 2.950946e-001 39 26 35
8.134404e+000 -4.910844e+000 -1.923560e+000 156 129 86
8.122979e+000 -4.892683e+000 -1.875773e+000 156 129 86
5.727924e+000 -2.502817e+000 -3.163890e-001 55 37 49
6.021662e+000 -2.488711e+000 -1.403768e-001 45 29 39
6.358734e+000 -2.654229e+000 -3.921202e-001 46 35 31
7.996947e+000 -3.081750e+000 -7.539490e-001 45 33 32
8.393188e+000 -3.239866e+000 -3.666641e-001 128 118 100
6.319861e+000 -3.500239e+000 2.446863e-001 43 28 33
6.785917e+000 -3.621170e+000 8.471161e-002 33 20 14
6.898949e+000 -2.312628e+000 -1.021008e+000 140 121 88
5.817478e+000 -2.616085e+000 -1.905952e-001 53 36 44
7.262697e+000 -2.569453e+000 -1.283339e+000 62 51 57
7.262697e+000 -2.569453e+000 -1.283339e+000 62 51 57
6.326411e+000 -2.879351e+000 -7.969067e-002 36 32 29
6.304873e+000 -2.939407e+000 -3.582564e-002 133 134 120
5.944892e+000 -3.151445e+000 -2.687776e-001 41 31 39
5.959210e+000 -3.224555e+000 -1.817887e-001 126 126 118
6.069487e+000 -3.310549e+000 -4.167066e-002 47 33 33
8.101825e+000 -3.247559e+000 -2.600483e-001 185 196 197
9.080322e+000 -3.667160e+000 -3.823328e-001 153 137 88
6.767693e+000 -4.185615e+000 -1.284222e-001 143 118 77
6.802535e+000 -2.745088e+000 -5.328089e-001 134 110 84
6.780158e+000 -3.074024e+000 -6.327560e-002 79 60 44
6.826399e+000 -3.167754e+000 -4.607424e-002 80 58 42
7.997274e+000 -3.555082e+000 -3.784375e-001 135 128 118
7.597110e+000 -3.795424e+000 -7.824473e-001 82 59 51
8.081250e+000 -3.633962e+000 -3.749195e-001 92 74 59
5.996040e+000 -3.941467e+000 1.916886e-001 72 55 64
5.930176e+000 -3.940668e+000 2.898182e-001 40 25 32
7.854415e+000 -3.405628e+000 -6.690436e-001 64 51 42
6.805365e+000 -3.483234e+000 -7.433398e-002 32 21 19
8.162246e+000 -3.731710e+000 -4.398974e-001 118 98 73
8.762144e+000 -4.012671e+000 -1.037924e+000 129 111 73
7.381453e+000 -2.816177e+000 -6.063718e-001 72 59 49
5.886860e+000 -3.604367e+000 2.887591e-001 37 26 32
7.244732e+000 -3.716155e+000 -8.085540e-001 59 38 33
6.420269e+000 -3.209706e+000 9.896798e-003 49 46 41
7.950920e+000 -3.113163e+000 -5.610666e-001 62 51 45
6.007840e+000 -3.816249e+000 7.676361e-002 38 23 28
7.483832e+000 -3.858616e+000 -9.558400e-001 45 30 28
7.450611e+000 -2.374547e+000 -1.005151e+000 91 78 64
7.450611e+000 -2.374547e+000 -1.005151e+000 91 78 64
9.021614e+000 -3.233591e+000 -6.001571e-001 179 166 111
8.339677e+000 -2.940734e+000 -8.313664e-001 53 33 24
6.510021e+000 -3.086088e+000 -7.356682e-004 93 86 78
7.634815e+000 -3.061916e+000 -5.555690e-001 113 104 97
6.197605e+000 -3.271173e+000 -3.198843e-002 100 89 83
8.723143e+000 -2.360196e+000 -1.073135e+000 179 163 111
7.692017e+000 -2.474352e+000 -9.124590e-001 104 87 69
7.653878e+000 -2.640817e+000 -7.634994e-001 99 82 62
7.292463e+000 -2.813757e+000 -6.123784e-001 87 80 70
8.884420e+000 -3.039909e+000 -7.745892e-001 176 159 116
6.692965e+000 -3.383114e+000 3.131000e-002 87 74 66
6.436691e+000 -3.057400e+000 8.095376e-003 64 50 42
6.436676e+000 -3.057261e+000 9.106825e-003 64 50 42
7.836445e+000 -3.093659e+000 -6.393634e-001 87 71 58
7.857636e+000 -3.066712e+000 -6.351939e-001 56 42 26
7.990456e+000 -3.204510e+000 -3.292967e-001 143 137 125
6.213488e+000 -3.272947e+000 -3.293919e-002 130 126 116
7.810721e+000 -3.494968e+000 -6.989736e-001 49 31 27
7.518474e+000 -3.180108e+000 -6.025613e-001 48 30 25
7.548947e+000 -3.195772e+000 -6.189276e-001 73 55 49
7.769723e+000 -3.774041e+000 -6.773290e-001 48 33 30
8.171221e+000 -2.955166e+000 -8.638412e-001 59 27 33
8.312578e+000 -3.104439e+000 -1.036388e+000 83 69 57
6.691990e+000 -3.361098e+000 3.519134e-002 93 78 74
8.089053e+000 -3.368859e+000 -2.242559e-001 160 165 157
7.952178e+000 -3.578450e+000 -3.819250e-001 105 89 81
6.456793e+000 -2.690432e+000 -3.044325e-001 40 27 21
7.834160e+000 -2.598681e+000 -9.196377e-001 69 48 30
7.829918e+000 -2.675441e+000 -8.599154e-001 92 75 59
8.835129e+000 -3.092769e+000 -9.253219e-001 143 126 72
6.093704e+000 -3.230562e+000 -6.371178e-002 91 84 77
6.283956e+000 -3.238337e+000 -4.739046e-003 125 123 110
7.657537e+000 -3.662539e+000 -7.106959e-001 53 35 31
7.333806e+000 -2.748039e+000 -6.478820e-001 97 89 76
7.333806e+000 -2.748039e+000 -6.478820e-001 97 89 76
7.712448e+000 -2.813838e+000 -7.233693e-001 63 45 32
8.166352e+000 -2.931822e+000 -9.208532e-001 131 117 101
8.028775e+000 -3.065567e+000 -7.712168e-001 51 34 27
8.341252e+000 -3.202642e+000 -3.402234e-001 57 36 25
7.526751e+000 -3.565676e+000 -7.033104e-001 69 54 47
7.329145e+000 -3.714803e+000 -7.252784e-001 66 47 32
7.793684e+000 -3.768257e+000 -6.446384e-001 70 55 52
6.435994e+000 -2.886814e+000 -3.378178e-002 75 61 52
7.429885e+000 -2.920077e+000 -5.961331e-001 85 72 63
6.557995e+000 -2.985053e+000 -1.364905e-002 90 74 64
8.052934e+000 -3.593580e+000 -3.523341e-001 103 85 66
8.890031e+000 -2.181548e+000 -7.804679e-001 163 146 93
8.830653e+000 -2.258701e+000 -9.104828e-001 157 144 91
9.044602e+000 -2.255426e+000 -5.400328e-001 188 175 124
6.293804e+000 -2.767669e+000 -2.879771e-001 128 124 112
7.333358e+000 -2.650903e+000 -7.087499e-001 103 96 88
7.312660e+000 -2.166135e+000 -1.019123e+000 129 122 115
7.944086e+000 -2.796951e+000 -8.719491e-001 70 51 34
7.974517e+000 -2.923270e+000 -8.499211e-001 59 41 30
6.473025e+000 -3.147730e+000 1.277642e-002 87 75 66
6.210754e+000 -3.293025e+000 -4.240541e-002 92 89 80
7.988765e+000 -3.220606e+000 -3.493853e-001 155 146 143
6.541598e+000 -3.387894e+000 5.486030e-002 59 46 40
5.964716e+000 -2.578442e+000 -7.919375e-002 77 64 73
6.361988e+000 -2.730620e+000 -2.723417e-001 83 74 67
7.818241e+000 -2.629998e+000 -8.864660e-001 100 81 64
7.908696e+000 -2.834881e+000 -8.004876e-001 63 44 28
6.475823e+000 -2.957910e+000 1.372645e-003 73 58 53
6.565908e+000 -3.044715e+000 -1.352487e-002 87 80 70
6.202519e+000 -3.180860e+000 -2.971651e-002 110 107 95
6.341748e+000 -3.130343e+000 -3.395993e-004 108 102 88
6.403991e+000 -3.104220e+000 1.220559e-002 110 101 91
6.718061e+000 -3.066008e+000 -5.302208e-002 41 26 22
5.836102e+000 -3.267991e+000 -1.629230e-001 51 50 57
6.352530e+000 -3.217593e+000 4.927659e-003 122 124 113
6.443028e+000 -3.189173e+000 2.469130e-002 98 91 82
6.279470e+000 -3.317774e+000 -1.985932e-002 53 46 40
6.561239e+000 -3.287306e+000 4.488553e-002 84 71 65
7.832830e+000 -3.298706e+000 -6.705988e-001 56 41 38
7.897099e+000 -3.262181e+000 -5.418156e-001 177 195 194
6.458242e+000 -3.355291e+000 5.501071e-002 78 70 63
7.446605e+000 -3.424493e+000 -6.514304e-001 56 37 30
7.421683e+000 -3.798453e+000 -8.958136e-001 45 28 21
7.626043e+000 -2.422410e+000 -8.831948e-001 97 81 65
7.591274e+000 -2.481301e+000 -8.464734e-001 102 84 72
7.617361e+000 -2.470670e+000 -8.780690e-001 72 54 44
7.617361e+000 -2.470670e+000 -8.780690e-001 72 54 44
7.731974e+000 -2.693223e+000 -8.427713e-001 94 74 63
6.037250e+000 -2.985026e+000 -1.835197e-001 153 153 139
6.036477e+000 -2.985529e+000 -1.867116e-001 153 153 139
7.773874e+000 -2.798410e+000 -7.440096e-001 94 77 67
6.578121e+000 -3.056394e+000 -1.956888e-002 57 46 40
6.511766e+000 -3.103722e+000 6.487588e-003 75 67 61
6.457065e+000 -3.169858e+000 1.540654e-002 120 114 102
7.509243e+000 -3.213881e+000 -6.708524e-001 73 58 53
7.700810e+000 -3.291808e+000 -6.497177e-001 74 60 57
7.717221e+000 -3.310065e+000 -6.413148e-001 50 40 35
8.022285e+000 -3.192882e+000 -3.521430e-001 139 130 125
7.466388e+000 -3.417332e+000 -6.408158e-001 77 60 53
6.425111e+000 -3.442558e+000 7.712202e-002 62 55 50
7.863942e+000 -3.502966e+000 -7.150104e-001 63 48 43
8.007387e+000 -3.664843e+000 -4.121717e-001 90 72 63
6.909294e+000 -4.106695e+000 1.643334e-002 77 48 36
6.865447e+000 -2.320884e+000 -8.073852e-001 167 145 115
8.666631e+000 -2.466636e+000 -1.170646e+000 146 128 80
6.232232e+000 -2.858780e+000 -1.993980e-001 93 94 86
6.096777e+000 -3.095382e+000 -9.286111e-002 85 82 77
7.487108e+000 -3.170322e+000 -5.819152e-001 71 56 51
6.015442e+000 -3.284108e+000 -9.322873e-002 104 99 96
6.491826e+000 -3.257465e+000 4.758676e-002 107 104 97
7.877937e+000 -3.223932e+000 -7.062084e-001 53 39 36
7.580843e+000 -3.316682e+000 -6.214797e-001 50 33 26
8.163210e+000 -3.156633e+000 -2.620081e-001 120 101 80
6.437856e+000 -3.390961e+000 5.704144e-002 83 74 66
6.570230e+000 -3.353858e+000 5.313367e-002 57 44 38
6.513345e+000 -3.425274e+000 7.407022e-002 51 42 33
5.901193e+000 -3.536262e+000 2.889409e-001 30 18 32
7.914097e+000 -3.482611e+000 -3.874064e-001 101 92 83
7.630023e+000 -3.631059e+000 -7.142120e-001 48 33 30
6.768558e+000 -4.384538e+000 3.034732e-002 158 140 95
8.643548e+000 -2.494378e+000 -1.206124e+000 148 132 81
7.606759e+000 -2.652800e+000 -7.643398e-001 85 69 54
6.055445e+000 -2.937829e+000 -2.005923e-001 151 148 136
8.091278e+000 -2.686518e+000 -9.411184e-001 60 43 35
6.065946e+000 -3.206699e+000 -8.084960e-002 75 65 63
8.073128e+000 -3.197582e+000 -2.380269e-001 105 97 93
7.308908e+000 -3.745945e+000 -6.751684e-001 100 78 64
8.627796e+000 -4.853997e+000 -1.077071e+000 156 136 83
6.233892e+000 -2.832521e+000 -2.326465e-001 136 137 129
8.732760e+000 -2.693993e+000 -1.046512e+000 143 126 75
6.711325e+000 -3.056509e+000 -7.269183e-002 44 30 28
6.011090e+000 -3.246101e+000 -1.131190e-001 58 49 42
6.661235e+000 -3.428218e+000 4.586928e-002 34 23 14
6.342601e+000 -3.246476e+000 4.538486e-003 45 38 34
6.307547e+000 -3.379688e+000 2.881490e-002 29 19 19
6.572324e+000 -3.466897e+000 6.614940e-002 35 23 21
7.256276e+000 -3.654569e+000 -7.177850e-001 48 30 26
7.226970e+000 -3.874851e+000 -9.500880e-001 159 141 100
6.426260e+000 -2.854901e+000 -6.393788e-002 114 105 96
6.661774e+000 -2.939318e+000 -8.988164e-002 71 52 38
7.791187e+000 -2.556523e+000 -1.000599e+000 101 82 65
6.088911e+000 -4.014765e+000 3.344803e-001 47 30 38
8.880812e+000 -3.038246e+000 -7.637281e-001 167 158 117
6.353207e+000 -3.217870e+000 -1.418398e-003 125 121 110
7.401908e+000 -2.503437e+000 -7.899767e-001 74 58 43
7.556010e+000 -2.666126e+000 -7.735732e-001 97 80 66
7.715847e+000 -2.643845e+000 -8.491152e-001 97 78 63
7.430748e+000 -2.763935e+000 -6.536652e-001 97 83 72
6.404099e+000 -3.102844e+000 1.616829e-002 108 94 86
7.812150e+000 -3.076431e+000 -6.277268e-001 67 51 38
7.507755e+000 -3.149557e+000 -5.912744e-001 57 37 37
7.901461e+000 -3.470295e+000 -4.117925e-001 150 151 153
7.768372e+000 -4.076386e+000 -7.913009e-001 173 152 99
8.827028e+000 -2.259365e+000 -9.060191e-001 157 144 91
7.661770e+000 -2.571963e+000 -8.092035e-001 78 60 47
8.155056e+000 -2.890832e+000 -8.470137e-001 65 38 33
6.576339e+000 -3.084761e+000 -7.536285e-003 89 80 71
7.803925e+000 -2.642164e+000 -8.832193e-001 60 41 24
7.863524e+000 -2.790397e+000 -8.268827e-001 64 46 32
7.960189e+000 -2.859019e+000 -9.237506e-001 97 83 56
7.461608e+000 -3.158228e+000 -5.985322e-001 49 31 30
6.200340e+000 -3.315107e+000 -4.810813e-002 116 110 104
7.556822e+000 -3.238623e+000 -6.199714e-001 80 65 58
7.651607e+000 -2.503497e+000 -8.800844e-001 101 82 70
8.016268e+000 -2.644410e+000 -9.685476e-001 108 91 81
6.441832e+000 -2.926662e+000 -1.697667e-002 63 50 41
7.369886e+000 -2.934356e+000 -5.913294e-001 80 69 65
6.593498e+000 -3.067467e+000 -1.820826e-002 100 91 82
8.893739e+000 -3.174929e+000 -7.722403e-001 127 113 87
7.488652e+000 -3.387710e+000 -6.670425e-001 74 58 51
7.832489e+000 -3.465885e+000 -6.985476e-001 54 36 32
7.892097e+000 -3.585212e+000 -4.468777e-001 105 88 81
7.636031e+000 -3.727810e+000 -7.036538e-001 51 36 31
7.427864e+000 -2.414158e+000 -8.370728e-001 78 64 52
7.414033e+000 -2.445952e+000 -8.247349e-001 99 86 77
6.455555e+000 -2.689803e+000 -3.103775e-001 43 29 26
7.537963e+000 -2.953845e+000 -5.810032e-001 94 79 72
6.680427e+000 -3.130018e+000 -1.093585e-002 69 55 43
6.590973e+000 -3.313387e+000 4.832534e-002 80 71 65
7.895617e+000 -3.514196e+000 -4.184897e-001 99 90 81
7.984580e+000 -3.598593e+000 -3.779133e-001 104 87 80
6.510299e+000 -2.991828e+000 -4.837822e-003 49 36 28
7.620895e+000 -3.232425e+000 -6.134596e-001 39 24 21
7.301022e+000 -3.685335e+000 -7.148619e-001 87 68 56
6.774235e+000 -4.418295e+000 1.030090e-001 172 145 97
6.761288e+000 -2.464085e+000 -8.564445e-001 43 27 27
8.475824e+000 -3.412387e+000 -2.277297e+000 102 88 80
6.552489e+000 -2.640160e+000 -3.859510e-001 78 66 57
6.403227e+000 -2.702226e+000 -3.116698e-001 119 110 105
6.226631e+000 -2.812934e+000 -2.607426e-001 87 84 77
7.138593e+000 -2.755332e+000 -1.221767e+000 113 97 105
6.326774e+000 -2.851396e+000 -1.432651e-001 115 107 106
6.447059e+000 -2.884285e+000 -2.478503e-002 73 61 52
6.326002e+000 -2.948368e+000 4.201200e-003 129 126 114
7.285928e+000 -2.890249e+000 -6.253910e-001 45 32 24
6.227721e+000 -3.025874e+000 -3.670627e-002 98 98 86
6.267721e+000 -3.019346e+000 -1.980797e-002 139 137 127
8.142899e+000 -2.908636e+000 -9.250590e-001 86 76 68
5.570905e+000 -3.420188e+000 -6.951613e-001 117 104 98
6.060475e+000 -3.181260e+000 -9.865071e-002 132 129 124
6.248022e+000 -3.150509e+000 -6.172564e-003 102 94 86
5.918046e+000 -3.322035e+000 -3.730599e-002 123 121 134
6.528945e+000 -3.183820e+000 1.939583e-002 68 63 55
6.529714e+000 -3.191315e+000 3.172338e-002 126 120 106
6.537847e+000 -3.198433e+000 4.144170e-002 66 57 48
6.659915e+000 -3.178036e+000 6.797087e-003 61 45 38
6.582280e+000 -3.240500e+000 3.313959e-002 131 129 123
6.499448e+000 -3.311036e+000 5.042678e-002 61 49 43
6.515298e+000 -3.348385e+000 5.816231e-002 91 84 76
7.444886e+000 -3.365737e+000 -6.420689e-001 57 45 41
7.986587e+000 -3.217523e+000 -3.422145e-001 161 167 160
8.087536e+000 -3.175695e+000 -2.309919e-001 104 93 91
6.460879e+000 -3.413375e+000 8.489101e-002 33 27 25
8.098358e+000 -3.238678e+000 -2.087185e-001 204 212 215
7.225238e+000 -3.646179e+000 -7.034851e-001 77 57 46
8.094067e+000 -3.343452e+000 -1.854130e-001 133 125 113
6.776653e+000 -3.652047e+000 1.740695e-001 113 108 80
7.313093e+000 -2.207622e+000 -1.037983e+000 106 93 89
7.270976e+000 -2.495650e+000 -1.523957e+000 78 63 74
7.239175e+000 -2.529369e+000 -1.433983e+000 77 68 69
7.517126e+000 -2.482731e+000 -8.200043e-001 91 73 61
6.276516e+000 -2.743657e+000 -2.900147e-001 50 41 36
6.402035e+000 -2.750182e+000 -2.611175e-001 66 56 47
7.936439e+000 -2.647728e+000 -9.512010e-001 70 51 30
6.050314e+000 -2.902606e+000 -2.575230e-001 121 118 113
6.166303e+000 -2.875872e+000 -2.098381e-001 99 96 89
6.294218e+000 -2.863210e+000 -1.443323e-001 129 127 117
6.442786e+000 -2.837476e+000 -7.609491e-002 77 67 56
6.543501e+000 -2.833465e+000 -1.628903e-001 77 57 46
6.562455e+000 -2.828479e+000 -1.817933e-001 58 40 30
7.834055e+000 -2.677306e+000 -8.741623e-001 94 75 61
8.043131e+000 -2.665436e+000 -9.759007e-001 119 107 95
8.082644e+000 -2.673520e+000 -1.007704e+000 73 52 47
6.101731e+000 -2.984159e+000 -1.516125e-001 151 152 138
6.425969e+000 -2.853134e+000 -6.257863e-002 84 80 73
7.877863e+000 -2.786886e+000 -8.150006e-001 100 81 66
7.882150e+000 -2.804935e+000 -8.043159e-001 97 78 62
7.882150e+000 -2.804935e+000 -8.043159e-001 97 78 62
6.117817e+000 -3.043902e+000 -1.309333e-001 143 139 134
7.808336e+000 -2.829298e+000 -7.737020e-001 63 46 29
6.211294e+000 -3.038113e+000 -5.100902e-002 141 137 126
6.175406e+000 -3.094670e+000 -5.696249e-002 96 93 73
6.037198e+000 -3.238313e+000 -1.005808e-001 152 154 145
6.427437e+000 -3.159630e+000 9.654538e-003 91 93 81
6.305543e+000 -3.206174e+000 -6.544288e-003 96 85 81
6.601778e+000 -3.157368e+000 7.524496e-003 56 44 38
6.629860e+000 -3.168001e+000 6.294450e-003 88 79 70
6.640446e+000 -3.186240e+000 9.180814e-003 49 39 34
6.640446e+000 -3.186240e+000 9.180814e-003 49 39 34
6.162267e+000 -3.311079e+000 -5.860348e-002 90 87 82
6.501293e+000 -3.286713e+000 5.122443e-002 130 129 119
6.566953e+000 -3.238201e+000 3.383348e-002 52 48 45
6.602212e+000 -3.268864e+000 4.617343e-002 69 56 48
7.331306e+000 -3.324841e+000 -6.753566e-001 38 20 18
6.482098e+000 -3.346381e+000 5.983060e-002 58 46 40
6.491669e+000 -3.327281e+000 5.574884e-002 88 80 72
7.783128e+000 -3.301935e+000 -6.512288e-001 58 46 46
7.858963e+000 -3.301710e+000 -6.965222e-001 81 65 61
6.671311e+000 -3.387535e+000 3.729182e-002 81 67 61
7.855929e+000 -3.436968e+000 -7.107884e-001 63 43 44
8.105056e+000 -3.215120e+000 -2.031859e-001 204 210 205
8.354471e+000 -3.195424e+000 -3.219925e-001 123 111 95
7.265208e+000 -3.605122e+000 -6.909920e-001 42 28 19
7.527616e+000 -3.545279e+000 -7.141667e-001 52 34 27
7.561327e+000 -3.566753e+000 -7.123401e-001 58 41 34
7.892638e+000 -3.920746e+000 -5.793692e-001 107 86 74
7.330855e+000 -2.227960e+000 -9.803569e-001 152 150 151
7.443934e+000 -2.473944e+000 -8.063691e-001 69 51 41
7.443935e+000 -2.473822e+000 -8.052107e-001 69 51 41
6.560116e+000 -2.707636e+000 -3.043336e-001 111 111 103
6.163847e+000 -2.805637e+000 -3.114039e-001 93 87 87
6.380868e+000 -2.804106e+000 -1.995529e-001 130 126 116
7.552266e+000 -2.662443e+000 -7.581132e-001 92 74 60
7.654792e+000 -2.626849e+000 -7.889134e-001 91 74 61
7.739730e+000 -2.656956e+000 -8.361747e-001 67 50 32
6.077932e+000 -2.901862e+000 -2.536186e-001 135 134 129
6.261671e+000 -2.867581e+000 -1.690019e-001 134 136 129
6.325342e+000 -2.826232e+000 -1.954398e-001 138 131 123
6.607504e+000 -2.784305e+000 -2.351749e-001 70 52 39
6.443074e+000 -2.853338e+000 -4.828909e-002 152 152 142
6.511897e+000 -2.871761e+000 -6.098148e-002 52 37 32
6.638453e+000 -2.846691e+000 -2.219856e-001 35 21 20
7.443976e+000 -2.791870e+000 -6.738766e-001 91 75 63
7.718268e+000 -2.761274e+000 -7.559347e-001 90 73 57
7.781560e+000 -2.804974e+000 -7.752305e-001 93 76 58
7.937941e+000 -2.792568e+000 -9.130554e-001 94 77 58
6.398261e+000 -2.922086e+000 -1.675565e-002 85 76 70
6.517973e+000 -2.919558e+000 -4.012249e-002 77 63 60
6.577167e+000 -2.945504e+000 -4.976060e-002 37 21 22
7.750994e+000 -2.865187e+000 -7.320580e-001 87 70 55
6.878750e+000 -3.027725e+000 -3.695411e-001 36 19 18
6.276723e+000 -3.106886e+000 5.271210e-003 154 156 145
6.145457e+000 -3.211197e+000 -5.714890e-002 85 79 71
6.541182e+000 -3.144186e+000 -5.170728e-003 86 76 73
7.714550e+000 -3.104876e+000 -5.905102e-001 62 47 40
7.800364e+000 -3.060577e+000 -5.867537e-001 59 45 33
6.075490e+000 -3.277856e+000 -9.022472e-002 58 56 51
6.262818e+000 -3.267571e+000 -2.292247e-002 126 118 110
6.431841e+000 -3.173705e+000 2.271742e-002 139 136 118
6.571764e+000 -3.212946e+000 2.177285e-002 114 107 99
6.652819e+000 -3.149092e+000 6.418352e-003 96 86 76
7.320237e+000 -3.314947e+000 -7.020544e-001 76 58 56
6.369120e+000 -3.378612e+000 5.385324e-002 89 79 80
6.855552e+000 -3.318006e+000 -4.944508e-002 91 73 61
7.486279e+000 -3.427938e+000 -6.578829e-001 54 36 32
8.075386e+000 -3.179301e+000 -2.651190e-001 137 132 128
6.510419e+000 -3.421621e+000 7.850140e-002 50 38 35
7.529726e+000 -4.020248e+000 -1.003270e+000 106 79 50
8.006759e+000 -3.662362e+000 -4.076772e-001 90 72 61
7.991577e+000 -3.760899e+000 -4.606418e-001 122 103 88
6.998970e+000 -3.939965e+000 -2.714801e-001 163 136 91
7.699979e+000 -4.046253e+000 -8.368981e-001 176 155 105
7.349790e+000 -2.223286e+000 -9.421687e-001 82 80 69
7.604328e+000 -2.427576e+000 -8.797459e-001 71 51 40
6.166044e+000 -2.782324e+000 -3.285743e-001 32 22 23
6.251787e+000 -2.769781e+000 -2.846229e-001 68 58 57
6.278474e+000 -2.786823e+000 -2.358955e-001 61 55 49
6.425921e+000 -2.763001e+000 -2.481692e-001 52 40 34
5.987722e+000 -2.926020e+000 -3.148109e-001 116 113 108
6.178533e+000 -2.860549e+000 -2.381706e-001 127 124 115
6.532503e+000 -2.817509e+000 -1.926926e-001 39 26 20
7.292698e+000 -2.781165e+000 -6.400569e-001 91 83 80
7.476981e+000 -2.735577e+000 -7.121556e-001 85 68 60
7.539010e+000 -2.702654e+000 -7.150057e-001 78 62 47
6.063875e+000 -2.986170e+000 -1.735666e-001 149 146 137
6.189159e+000 -2.918670e+000 -1.551749e-001 162 162 153
6.464876e+000 -2.854504e+000 -6.300826e-002 69 51 40
7.298769e+000 -2.928133e+000 -6.729498e-001 53 38 35
7.550284e+000 -2.891539e+000 -6.325427e-001 66 54 40
7.844900e+000 -2.826505e+000 -8.036442e-001 90 72 54
6.486319e+000 -3.004068e+000 -1.121638e-002 57 43 34
6.704766e+000 -2.951387e+000 -1.202315e-001 84 62 52
7.462986e+000 -2.946679e+000 -5.917976e-001 59 46 40
7.463585e+000 -2.947238e+000 -5.922475e-001 59 46 40
6.027612e+000 -3.203331e+000 -1.234861e-001 161 158 153
6.098663e+000 -3.176618e+000 -8.271249e-002 79 71 68
6.099412e+000 -3.175848e+000 -8.103019e-002 79 71 68
6.644425e+000 -3.052437e+000 -2.652874e-002 46 35 31
7.561086e+000 -3.053882e+000 -5.737564e-001 89 74 67
5.863203e+000 -3.310473e+000 -1.499601e-001 109 126 135
6.158439e+000 -3.228694e+000 -6.096894e-002 155 155 145
6.487779e+000 -3.097984e+000 -4.189825e-003 116 117 112
6.532209e+000 -3.118800e+000 5.426168e-003 119 115 106
7.736621e+000 -3.075744e+000 -6.243366e-001 88 75 67
7.736621e+000 -3.075744e+000 -6.243366e-001 88 75 67
6.649694e+000 -3.208317e+000 6.681881e-003 86 79 69
6.158626e+000 -3.335372e+000 -6.452098e-002 61 44 44
7.265866e+000 -3.414515e+000 -6.457058e-001 39 24 19
6.571809e+000 -3.397600e+000 5.949415e-002 48 39 34
8.001193e+000 -3.264724e+000 -2.872076e-001 118 115 110
8.047448e+000 -3.251717e+000 -2.607020e-001 183 202 209
6.539938e+000 -3.444830e+000 7.680346e-002 92 78 75
7.896185e+000 -3.436628e+000 -4.033635e-001 109 97 91
7.896185e+000 -3.436628e+000 -4.033635e-001 109 97 91
7.935504e+000 -3.372526e+000 -3.451863e-001 118 112 108
