ply
format ascii 1.0
element face 0
property list uchar int vertex_indices
element vertex 890
property float x
property float y
property float z
property uchar diffuse_red
property uchar diffuse_green
property uchar diffuse_blue
end_header
8.035481e+000 -3.272355e+000 -2.184893e-001 110 102 100
6.476031e+000 -3.341452e+000 6.672339e-002 67 51 45
6.483036e+000 -3.365531e+000 6.604374e-002 107 96 90
6.553916e+000 -3.371374e+000 6.216818e-002 108 101 95
6.734864e+000 -3.354381e+000 3.135201e-002 46 27 28
7.877449e+000 -3.378196e+000 -6.819912e-001 65 53 47
7.897935e+000 -3.360074e+000 -4.879660e-001 178 203 207
7.901414e+000 -3.508220e+000 -7.455913e-001 101 100 96
7.888906e+000 -3.427095e+000 -4.666755e-001 185 201 201
7.900797e+000 -3.425498e+000 -3.132554e-001 162 176 177
7.900797e+000 -3.425498e+000 -3.132554e-001 162 176 177
7.925788e+000 -3.440953e+000 -3.246185e-001 113 103 100
6.753336e+000 -3.484660e+000 -1.032023e-003 25 17 20
7.841577e+000 -3.542385e+000 -7.574154e-001 47 33 28
7.845938e+000 -3.562065e+000 -7.197614e-001 80 66 65
7.828111e+000 -3.554232e+000 -6.551943e-001 80 66 65
7.885359e+000 -3.498613e+000 -3.699145e-001 105 94 83
7.939881e+000 -3.525271e+000 -3.713920e-001 105 93 81
7.972268e+000 -3.587617e+000 -3.366067e-001 84 71 62
8.046950e+000 -3.603710e+000 -3.037300e-001 123 105 90
6.016745e+000 -3.604716e+000 3.908779e-001 55 48 56
7.318879e+000 -3.742871e+000 -8.987072e-001 95 71 61
8.009738e+000 -3.678157e+000 -3.966677e-001 121 105 88
8.030566e+000 -3.674856e+000 -3.625543e-001 93 75 61
7.363437e+000 -3.791777e+000 -7.967150e-001 92 65 51
7.885159e+000 -3.761721e+000 -4.847708e-001 75 65 53
7.944967e+000 -3.719168e+000 -4.296323e-001 122 111 97
8.006933e+000 -3.815042e+000 -4.931577e-001 115 96 79
5.849159e+000 -3.865281e+000 3.541685e-001 77 66 74
5.849159e+000 -3.865281e+000 3.541685e-001 77 66 74
6.874641e+000 -4.189829e+000 -6.014625e-002 163 136 90
6.875761e+000 -4.179439e+000 -2.687323e-002 163 136 90
6.900887e+000 -4.198031e+000 5.533967e-002 173 146 96
7.670975e+000 -5.276830e+000 -3.504600e+000 148 126 69
8.415123e+000 -4.801860e+000 -1.562420e+000 152 128 82
6.569872e+000 -2.219120e+000 -7.545259e-001 75 49 38
8.904678e+000 -2.175008e+000 -7.980222e-001 157 144 91
8.950850e+000 -2.164787e+000 -7.451591e-001 175 166 109
8.950850e+000 -2.164787e+000 -7.451591e-001 175 166 109
7.347061e+000 -2.261789e+000 -9.674146e-001 159 179 178
7.351313e+000 -2.257057e+000 -9.915912e-001 159 179 178
7.407553e+000 -2.232459e+000 -9.992687e-001 119 114 107
7.314168e+000 -2.270036e+000 -9.795249e-001 93 82 84
6.238431e+000 -2.495727e+000 -3.451305e-001 46 35 41
8.851728e+000 -2.396657e+000 -9.190853e-001 169 152 100
8.917713e+000 -2.446765e+000 -7.009548e-001 154 137 85
7.349024e+000 -2.528907e+000 -8.097230e-001 106 99 91
6.420889e+000 -2.701063e+000 -2.896835e-001 126 120 108
6.385826e+000 -2.720036e+000 -3.391232e-001 71 62 53
6.559601e+000 -2.744613e+000 -2.615356e-001 50 41 31
7.244255e+000 -2.595090e+000 -1.428731e+000 64 45 41
6.132019e+000 -2.815745e+000 -3.186660e-001 51 41 43
7.300728e+000 -2.732126e+000 -6.432142e-001 80 67 60
6.075558e+000 -2.985999e+000 -2.004043e-001 144 142 128
6.396465e+000 -2.984154e+000 -5.950743e-003 108 95 86
6.393131e+000 -2.983708e+000 4.679498e-003 108 95 86
6.510233e+000 -2.989690e+000 -9.493921e-004 48 32 25
6.583103e+000 -2.942381e+000 -4.971503e-002 50 35 28
5.920642e+000 -3.050385e+000 -3.076432e-001 89 80 78
5.998075e+000 -3.058604e+000 -2.191351e-001 78 71 61
6.243545e+000 -3.008301e+000 -3.234501e-002 155 152 137
6.350831e+000 -3.051264e+000 1.692130e-002 76 69 59
5.860070e+000 -3.063616e+000 -3.415420e-001 99 85 79
6.182158e+000 -3.078899e+000 -4.905280e-002 107 95 79
6.206830e+000 -3.122872e+000 -3.027081e-002 73 66 58
6.284128e+000 -3.080780e+000 4.144468e-003 50 41 36
6.284351e+000 -3.080446e+000 6.378340e-003 50 41 36
6.338570e+000 -3.083365e+000 9.816160e-003 147 149 135
6.569873e+000 -3.113343e+000 1.467696e-002 43 34 28
6.625559e+000 -3.135564e+000 3.385572e-003 49 35 27
6.111640e+000 -3.199359e+000 -6.448645e-002 158 158 146
6.163038e+000 -3.189167e+000 -4.479929e-002 90 77 61
6.353554e+000 -3.144635e+000 1.070049e-002 56 52 41
6.332072e+000 -3.176483e+000 4.877654e-003 160 162 148
6.332856e+000 -3.175917e+000 9.009824e-003 160 162 148
6.505057e+000 -3.162584e+000 2.277545e-002 37 27 18
6.753310e+000 -3.168733e+000 -4.405863e-002 47 32 32
7.603636e+000 -3.125701e+000 -5.684674e-001 73 58 53
7.733204e+000 -3.119894e+000 -5.956406e-001 94 80 70
8.072620e+000 -3.153945e+000 -2.515114e-001 124 113 97
6.157065e+000 -3.225724e+000 -6.383816e-002 138 134 122
6.422885e+000 -3.202038e+000 3.511052e-002 52 50 39
6.422788e+000 -3.202783e+000 3.249236e-002 52 50 39
6.753764e+000 -3.234701e+000 -1.208188e-002 48 31 26
7.560192e+000 -3.222552e+000 -6.067202e-001 75 58 55
7.563571e+000 -3.222208e+000 -6.126289e-001 75 58 55
6.266461e+000 -3.296096e+000 -3.758661e-002 64 56 53
6.610279e+000 -3.329216e+000 5.210890e-002 34 26 24
6.676089e+000 -3.285101e+000 2.728289e-002 45 30 24
6.742545e+000 -3.300200e+000 -4.389632e-003 44 29 23
6.742205e+000 -3.298699e+000 2.563223e-002 44 29 23
6.768959e+000 -3.312623e+000 -2.616416e-003 75 57 47
6.768959e+000 -3.312623e+000 -2.616416e-003 75 57 47
6.804674e+000 -3.328423e+000 -2.158107e-002 40 25 20
6.873076e+000 -3.326337e+000 -6.652410e-002 42 23 17
7.561133e+000 -3.287853e+000 -6.196334e-001 73 55 51
7.644918e+000 -3.308715e+000 -6.081523e-001 55 37 34
7.898530e+000 -3.304079e+000 -5.183836e-001 187 204 203
6.447548e+000 -3.330681e+000 6.722616e-002 140 149 129
6.443308e+000 -3.332049e+000 5.695675e-002 140 149 129
6.514093e+000 -3.371137e+000 6.960743e-002 33 23 21
6.587404e+000 -3.382674e+000 7.083705e-002 43 30 24
6.717861e+000 -3.389194e+000 2.565320e-002 43 25 23
7.430125e+000 -3.383956e+000 -6.315740e-001 64 49 42
7.906829e+000 -3.409584e+000 -7.138788e-001 115 118 111
6.183637e+000 -3.438866e+000 2.426668e-001 53 40 45
6.399778e+000 -3.400181e+000 6.557443e-002 96 87 80
6.486882e+000 -3.403122e+000 8.109906e-002 101 95 89
6.486766e+000 -3.403397e+000 7.880386e-002 101 95 89
6.541020e+000 -3.433352e+000 9.933262e-002 66 49 41
7.884603e+000 -3.448697e+000 -6.629491e-001 73 63 61
6.726348e+000 -3.480229e+000 -1.418816e-002 70 52 42
7.864952e+000 -3.497656e+000 -4.208629e-001 167 176 182
7.893399e+000 -3.547696e+000 -4.188261e-001 145 145 135
6.251048e+000 -3.518214e+000 2.876319e-001 75 66 71
7.978095e+000 -3.622568e+000 -3.558142e-001 123 111 99
7.978095e+000 -3.622568e+000 -3.558142e-001 123 111 99
8.102276e+000 -3.599699e+000 -3.386185e-001 91 72 58
5.767014e+000 -3.607921e+000 2.822540e-001 62 47 54
5.785631e+000 -3.620309e+000 2.578380e-001 105 91 104
5.777563e+000 -3.623927e+000 2.345083e-001 105 91 104
7.309766e+000 -3.750064e+000 -6.974748e-001 96 73 57
6.845022e+000 -3.698573e+000 3.232504e-002 41 24 17
7.839495e+000 -3.829932e+000 -6.538587e-001 48 34 31
8.788292e+000 -3.939358e+000 -8.797158e-001 118 100 62
5.823343e+000 -3.890324e+000 3.250713e-001 42 26 36
7.553039e+000 -4.201022e+000 -1.231139e+000 175 159 101
8.857023e+000 -4.259169e+000 -7.723726e-001 154 133 83
7.686147e+000 -5.338679e+000 -3.227534e+000 158 133 79
8.435010e+000 -4.815538e+000 -1.505332e+000 152 128 84
8.982672e+000 -2.312554e+000 -5.504477e-001 184 169 111
9.028365e+000 -2.329998e+000 -5.872701e-001 145 125 79
7.305504e+000 -2.354292e+000 -9.420806e-001 55 46 39
6.917650e+000 -2.394253e+000 -9.142210e-001 99 76 62
8.742246e+000 -2.392435e+000 -1.113651e+000 159 143 94
8.742246e+000 -2.392435e+000 -1.113651e+000 159 143 94
6.958032e+000 -2.542492e+000 -1.045809e+000 168 143 113
6.308176e+000 -2.725778e+000 -2.900112e-001 56 42 39
6.487341e+000 -2.739514e+000 -2.734570e-001 73 56 48
7.153481e+000 -2.633728e+000 -1.486175e+000 99 81 83
7.348241e+000 -2.737404e+000 -6.456631e-001 96 86 71
8.096618e+000 -2.727172e+000 -9.976698e-001 155 161 157
6.435737e+000 -2.896733e+000 -2.216698e-002 71 57 46
6.360544e+000 -2.976211e+000 1.888036e-002 58 48 39
6.441388e+000 -2.976074e+000 8.533885e-003 46 37 28
6.371268e+000 -3.019313e+000 -3.759197e-002 119 113 101
6.371268e+000 -3.019313e+000 -3.759197e-002 119 113 101
6.511203e+000 -3.050241e+000 -3.541849e-003 40 29 25
6.736895e+000 -2.997811e+000 -1.037418e-001 81 59 41
6.711149e+000 -3.050307e+000 -5.157861e-002 48 36 33
5.945362e+000 -3.093330e+000 -2.675371e-001 148 144 134
5.861498e+000 -3.131872e+000 -3.225804e-001 159 155 146
6.133912e+000 -3.150523e+000 -6.784646e-002 55 44 44
6.133912e+000 -3.150523e+000 -6.784646e-002 55 44 44
6.181460e+000 -3.149779e+000 -3.869384e-002 164 166 153
6.278874e+000 -3.183285e+000 -3.067269e-002 40 35 29
6.278874e+000 -3.183285e+000 -3.067269e-002 40 35 29
6.458941e+000 -3.202013e+000 3.857003e-002 145 145 133
6.559778e+000 -3.177083e+000 2.865712e-002 61 51 42
6.761601e+000 -3.146748e+000 -1.166189e-002 42 33 28
6.203112e+000 -3.229699e+000 -4.080199e-002 39 34 28
6.398386e+000 -3.239555e+000 3.070664e-002 138 135 128
6.395655e+000 -3.240546e+000 2.822636e-002 138 135 128
6.542389e+000 -3.253567e+000 5.318062e-002 43 32 30
6.671497e+000 -3.223662e+000 1.950557e-002 47 34 26
6.469189e+000 -3.291527e+000 5.507329e-002 49 40 33
6.664196e+000 -3.351115e+000 3.624401e-002 34 22 15
6.663359e+000 -3.351129e+000 3.708779e-002 34 22 15
6.699803e+000 -3.360499e+000 4.842736e-002 73 63 54
6.699803e+000 -3.360499e+000 4.842736e-002 73 63 54
7.955288e+000 -3.555961e+000 -3.679783e-001 143 137 125
5.742557e+000 -3.555629e+000 2.525010e-001 48 32 45
5.742557e+000 -3.555629e+000 2.525010e-001 48 32 45
6.679376e+000 -3.553424e+000 1.898880e-001 68 54 35
8.003995e+000 -3.696045e+000 -4.064082e-001 122 106 90
6.849686e+000 -3.758769e+000 1.254107e-001 132 127 89
7.623257e+000 -4.067670e+000 -1.268041e+000 174 151 103
7.623257e+000 -4.067670e+000 -1.268041e+000 174 151 103
6.158469e+000 -3.896243e+000 4.554298e-001 33 22 28
8.779207e+000 -4.381334e+000 -9.145105e-001 133 116 72
8.786751e+000 -4.628810e+000 -7.668546e-001 160 141 96
5.928287e+000 -2.487177e+000 -2.273519e-001 32 19 29
7.717577e+000 -2.440914e+000 -9.450676e-001 90 70 53
6.618211e+000 -2.823736e+000 -2.245651e-001 76 55 38
8.867871e+000 -2.997314e+000 -7.863732e-001 161 144 93
6.443465e+000 -3.104450e+000 9.145218e-003 53 44 37
6.008628e+000 -3.181711e+000 -1.635373e-001 114 109 103
6.891707e+000 -3.157995e+000 -1.379250e-001 47 32 31
6.891707e+000 -3.157995e+000 -1.379250e-001 47 32 31
7.606983e+000 -3.176892e+000 -5.886842e-001 86 72 63
6.823011e+000 -3.244858e+000 -4.881530e-002 36 23 17
6.825200e+000 -3.242067e+000 -4.244198e-002 36 23 17
7.622907e+000 -3.235676e+000 -6.299642e-001 46 32 31
8.386229e+000 -3.235324e+000 -3.579263e-001 127 111 94
7.423224e+000 -3.341795e+000 -7.110008e-001 32 20 20
7.764208e+000 -3.325750e+000 -6.657469e-001 101 100 95
8.896961e+000 -3.329706e+000 -6.474271e-001 138 120 84
6.394785e+000 -3.332235e+000 4.423892e-002 26 17 18
6.658359e+000 -3.419367e+000 5.248866e-002 35 24 22
7.869975e+000 -3.578571e+000 -6.435153e-001 55 44 41
7.853284e+000 -3.726050e+000 -4.760942e-001 110 105 99
9.044809e+000 -3.916755e+000 -4.248561e-001 161 147 110
8.613914e+000 -4.414033e+000 -1.195509e+000 115 93 69
6.936508e+000 -2.945707e+000 -8.098054e-001 51 33 31
7.408023e+000 -2.953316e+000 -5.901377e-001 84 71 65
6.856718e+000 -3.080236e+000 -1.327038e-001 40 26 23
8.897894e+000 -3.042144e+000 -7.354582e-001 164 152 119
6.065960e+000 -3.143859e+000 -1.060055e-001 144 144 135
6.283088e+000 -3.235931e+000 -1.362074e-002 126 122 111
7.859690e+000 -3.266983e+000 -6.867408e-001 63 45 46
7.888762e+000 -3.293220e+000 -5.341938e-001 184 202 204
8.345433e+000 -3.272785e+000 -3.789520e-001 58 38 29
6.754340e+000 -3.423539e+000 -5.007189e-003 66 48 35
6.572531e+000 -3.456740e+000 1.236389e-001 39 25 26
5.969389e+000 -3.585729e+000 3.319323e-001 23 12 20
5.841612e+000 -3.652776e+000 2.796936e-001 34 21 28
7.490192e+000 -4.104990e+000 -1.038798e+000 98 71 57
7.488433e+000 -4.106003e+000 -1.040434e+000 98 71 57
6.926797e+000 -4.162173e+000 5.544113e-002 77 49 38
7.910091e+000 -5.078178e+000 -3.119725e+000 151 125 88
7.910091e+000 -5.078178e+000 -3.119725e+000 151 125 88
5.848065e+000 -2.913771e+000 -4.159815e-001 59 40 46
6.606491e+000 -2.995384e+000 -3.536489e-002 55 40 35
6.651210e+000 -2.935939e+000 -9.175131e-002 78 58 49
8.084418e+000 -2.979401e+000 -8.930979e-001 54 40 34
7.949500e+000 -3.267653e+000 -4.474683e-001 106 92 83
7.333849e+000 -3.659117e+000 -7.095587e-001 86 64 50
7.334519e+000 -3.658916e+000 -7.105617e-001 86 64 50
7.595703e+000 -3.795676e+000 -7.778184e-001 73 56 48
6.818403e+000 -4.191555e+000 -1.062179e-002 54 31 23
7.470234e+000 -2.270606e+000 -1.008095e+000 111 98 90
7.662312e+000 -2.417503e+000 -9.576182e-001 78 63 45
7.662610e+000 -3.123902e+000 -5.891700e-001 89 74 65
6.806365e+000 -3.461856e+000 2.963407e-002 30 19 17
7.939151e+000 -3.630986e+000 -3.990404e-001 100 83 75
7.860922e+000 -3.762514e+000 -4.760664e-001 111 102 95
7.218815e+000 -2.702468e+000 -1.190695e+000 48 32 33
7.804302e+000 -2.730323e+000 -8.243452e-001 63 45 33
7.617322e+000 -2.976982e+000 -6.027866e-001 74 57 47
7.617202e+000 -2.977139e+000 -6.043765e-001 74 57 47
6.750289e+000 -3.517341e+000 1.292217e-001 29 18 15
7.935774e+000 -3.882449e+000 -4.736855e-001 83 63 54
7.584523e+000 -2.781738e+000 -7.042583e-001 87 74 57
7.584523e+000 -2.781738e+000 -7.042583e-001 87 74 57
7.445379e+000 -3.021216e+000 -5.773087e-001 86 72 69
7.782318e+000 -3.190008e+000 -6.029615e-001 38 28 27
7.360206e+000 -3.508985e+000 -6.514299e-001 81 61 54
7.814593e+000 -3.629475e+000 -6.501206e-001 46 36 27
6.469318e+000 -2.973000e+000 -9.430601e-002 97 86 74
8.819593e+000 -2.975379e+000 -1.001003e+000 174 161 106
7.428322e+000 -3.262103e+000 -5.939132e-001 36 24 27
6.741360e+000 -2.451431e+000 -8.433662e-001 38 24 24
8.017920e+000 -3.364997e+000 -4.234233e-001 183 197 200
8.687981e+000 -3.531982e+000 -8.855059e-001 67 48 34
7.702697e+000 -2.434577e+000 -9.419304e-001 80 61 46
8.126578e+000 -2.776693e+000 -9.324610e-001 132 125 108
6.114870e+000 -2.992426e+000 -1.390588e-001 87 77 71
6.426866e+000 -2.996691e+000 2.825784e-002 51 41 32
6.094147e+000 -3.138652e+000 -1.019692e-001 108 104 91
6.497171e+000 -3.192563e+000 4.260158e-002 70 57 48
6.199653e+000 -3.265758e+000 -2.735146e-002 100 89 83
6.514355e+000 -3.296971e+000 7.356616e-002 100 90 81
8.941820e+000 -2.209914e+000 -7.107767e-001 154 138 85
8.941820e+000 -2.209914e+000 -7.107767e-001 154 138 85
7.645874e+000 -2.384530e+000 -9.450694e-001 75 59 44
7.567794e+000 -2.474171e+000 -8.667524e-001 78 60 45
7.944975e+000 -2.642632e+000 -9.864838e-001 66 47 30
7.847992e+000 -2.815028e+000 -8.072487e-001 92 75 59
6.142861e+000 -2.930586e+000 -1.938395e-001 130 129 114
7.658195e+000 -2.889166e+000 -6.733462e-001 93 76 60
6.653569e+000 -3.338258e+000 4.947552e-002 54 41 33
7.263036e+000 -3.409468e+000 -6.378623e-001 42 27 24
7.519022e+000 -4.216344e+000 -1.167112e+000 178 158 99
7.464983e+000 -2.472950e+000 -8.132950e-001 93 79 66
7.643279e+000 -2.478202e+000 -8.916915e-001 98 81 65
7.643279e+000 -2.478202e+000 -8.916915e-001 98 81 65
6.490174e+000 -2.704689e+000 -2.953316e-001 95 88 78
7.046587e+000 -2.899385e+000 -9.767499e-001 71 56 48
7.854369e+000 -3.066457e+000 -6.326652e-001 56 42 26
6.265208e+000 -3.243578e+000 -2.712543e-002 86 82 73
7.581553e+000 -3.263270e+000 -6.077844e-001 76 58 55
7.481071e+000 -3.467723e+000 -6.241329e-001 71 55 54
8.007588e+000 -3.667965e+000 -3.781618e-001 121 107 94
8.029670e+000 -3.827350e+000 -4.746298e-001 81 61 47
8.923931e+000 -4.065606e+000 -5.660522e-001 155 135 84
8.938875e+000 -4.072595e+000 -5.935336e-001 155 135 84
8.938001e+000 -2.131726e+000 -7.529751e-001 159 143 92
8.789022e+000 -2.322937e+000 -9.821854e-001 160 144 92
7.343575e+000 -2.398342e+000 -8.415299e-001 116 112 103
7.899198e+000 -2.722804e+000 -8.948747e-001 98 77 53
6.050017e+000 -2.938434e+000 -2.281069e-001 154 155 139
6.488280e+000 -3.093587e+000 -2.511800e-003 102 101 89
6.442151e+000 -3.148972e+000 3.060956e-002 77 69 58
6.442151e+000 -3.148972e+000 3.060956e-002 77 69 58
7.549404e+000 -3.257838e+000 -6.132065e-001 37 19 19
7.643715e+000 -3.280781e+000 -6.561845e-001 71 54 49
7.866045e+000 -3.306974e+000 -6.561086e-001 64 49 49
7.265753e+000 -3.451700e+000 -6.340787e-001 85 62 56
7.266373e+000 -3.451036e+000 -6.328771e-001 85 62 56
8.063019e+000 -3.675423e+000 -3.556011e-001 117 101 86
7.945832e+000 -3.720280e+000 -4.371009e-001 122 111 97
7.861874e+000 -3.920607e+000 -5.868878e-001 74 54 43
7.861874e+000 -3.920607e+000 -5.868878e-001 74 54 43
7.314091e+000 -2.269477e+000 -9.795370e-001 93 82 84
7.370722e+000 -2.306379e+000 -9.026936e-001 102 93 84
8.830650e+000 -2.590886e+000 -9.370551e-001 151 135 85
7.979985e+000 -2.626473e+000 -9.818430e-001 102 82 68
6.427214e+000 -3.105505e+000 1.811304e-002 51 42 38
8.905609e+000 -3.050922e+000 -7.231535e-001 169 156 121
8.903296e+000 -3.050624e+000 -7.208995e-001 169 156 121
6.343010e+000 -3.241951e+000 4.033352e-003 52 47 44
6.215147e+000 -3.785032e+000 3.766873e-001 74 63 69
8.959045e+000 -2.356072e+000 -7.106180e-001 187 172 115
8.141331e+000 -3.618951e+000 -3.276372e-001 121 102 88
6.204185e+000 -3.281841e+000 -4.252557e-002 101 97 88
7.383253e+000 -4.049450e+000 -9.720324e-001 175 149 99
7.282031e+000 -2.553607e+000 -1.304717e+000 113 104 109
5.885390e+000 -2.763242e+000 -2.009752e-001 96 80 83
7.237162e+000 -2.823328e+000 -1.060505e+000 68 56 56
7.237162e+000 -2.823328e+000 -1.060505e+000 68 56 56
6.144026e+000 -2.999839e+000 -9.457550e-002 101 99 86
6.278488e+000 -2.934536e+000 -3.593433e-002 143 141 126
8.012207e+000 -2.872807e+000 -1.002846e+000 95 79 64
6.066532e+000 -3.027295e+000 -1.880282e-001 140 138 123
6.341124e+000 -3.042110e+000 6.081165e-002 113 107 95
6.516961e+000 -3.000288e+000 3.317336e-002 48 38 29
5.641487e+000 -3.256124e+000 -6.613727e-001 85 81 69
6.169358e+000 -3.166011e+000 -1.812572e-002 103 94 85
6.246714e+000 -3.184828e+000 -2.450980e-002 124 122 108
6.320148e+000 -3.154831e+000 -1.845108e-003 88 88 77
6.384519e+000 -3.127546e+000 1.139975e-002 82 78 67
6.447448e+000 -3.115981e+000 3.198073e-002 84 73 67
6.205534e+000 -3.208150e+000 -1.875976e-002 80 71 69
6.285845e+000 -3.217749e+000 9.489278e-003 96 90 78
6.398923e+000 -3.204305e+000 2.222107e-002 119 116 109
8.915284e+000 -3.107044e+000 -7.833147e-001 128 120 88
8.078965e+000 -3.247597e+000 -2.095502e-001 163 173 172
9.135365e+000 -3.204426e+000 -3.380432e-001 159 139 88
6.746564e+000 -3.400713e+000 6.010673e-003 61 41 30
7.880215e+000 -3.398493e+000 -4.258807e-001 115 117 117
6.660981e+000 -3.543176e+000 2.025418e-001 65 49 34
5.582783e+000 -2.578078e+000 -5.038475e-001 65 49 62
6.512875e+000 -2.698474e+000 -2.988660e-001 66 53 47
7.037665e+000 -2.565916e+000 -9.235561e-001 172 136 114
7.294509e+000 -2.535582e+000 -1.304592e+000 70 59 60
7.737997e+000 -2.647651e+000 -8.556946e-001 65 43 30
7.737997e+000 -2.647651e+000 -8.556946e-001 65 43 30
6.369457e+000 -2.802244e+000 -2.444178e-001 107 99 87
6.365980e+000 -2.841295e+000 -1.449735e-001 72 65 60
6.434989e+000 -2.832870e+000 -1.100580e-001 98 85 70
8.054701e+000 -2.665740e+000 -1.026960e+000 134 128 110
6.163172e+000 -2.889684e+000 -2.313109e-001 132 125 115
6.214908e+000 -2.923246e+000 -7.820879e-002 89 80 71
6.332990e+000 -2.892706e+000 -7.558780e-002 74 68 68
6.410144e+000 -2.929390e+000 -1.759439e-002 68 53 46
6.015624e+000 -3.032640e+000 -2.234098e-001 141 134 126
8.108896e+000 -2.895434e+000 -9.324549e-001 85 75 64
8.064740e+000 -2.893287e+000 -6.549933e-001 79 71 60
6.195562e+000 -3.094282e+000 -2.971066e-002 130 128 115
6.362422e+000 -3.098252e+000 1.446888e-002 85 79 65
5.676901e+000 -3.228663e+000 -5.750800e-001 154 150 141
6.162881e+000 -3.153365e+000 -4.053861e-002 156 157 146
6.147780e+000 -3.228514e+000 -4.892493e-002 146 147 132
6.285691e+000 -3.232911e+000 9.036428e-004 125 123 110
6.522962e+000 -3.190991e+000 2.297987e-002 97 91 81
6.505316e+000 -3.264269e+000 4.904891e-002 66 57 50
7.894620e+000 -3.284122e+000 -6.920104e-001 135 140 138
8.358921e+000 -3.199261e+000 -3.468258e-001 128 110 95
8.358921e+000 -3.199261e+000 -3.468258e-001 128 110 95
8.369033e+000 -3.197908e+000 -3.149092e-001 58 44 31
6.389743e+000 -3.318987e+000 3.502804e-002 32 25 19
6.389743e+000 -3.318987e+000 3.502804e-002 32 25 19
8.038646e+000 -3.295774e+000 -2.310393e-001 183 196 196
6.848954e+000 -3.365382e+000 1.148713e-002 58 39 25
7.433442e+000 -3.407069e+000 -5.607974e-001 50 35 29
7.802219e+000 -3.562624e+000 -7.086592e-001 43 30 21
7.860108e+000 -3.562338e+000 -4.640882e-001 136 141 131
7.857896e+000 -3.567247e+000 -4.008190e-001 90 81 72
5.920091e+000 -3.556151e+000 2.797205e-001 62 56 64
7.660125e+000 -3.712139e+000 -7.872942e-001 73 60 52
5.886225e+000 -3.641872e+000 3.415677e-001 29 18 24
6.951696e+000 -3.752817e+000 -4.110533e-001 58 35 21
7.635744e+000 -3.727637e+000 -7.052455e-001 50 35 30
6.223088e+000 -3.662839e+000 3.345817e-001 34 24 32
6.158957e+000 -3.760718e+000 3.693413e-001 27 20 28
7.663152e+000 -2.464605e+000 -7.956929e-001 100 81 66
7.019328e+000 -2.549394e+000 -9.464311e-001 114 78 64
6.353488e+000 -2.855201e+000 -1.477404e-001 97 93 80
6.397473e+000 -2.790074e+000 -2.095208e-001 76 67 52
6.665084e+000 -2.775079e+000 -3.085439e-001 28 18 17
7.713760e+000 -2.692666e+000 -7.616285e-001 89 70 55
6.073097e+000 -2.898095e+000 -2.613209e-001 138 131 123
6.146608e+000 -2.913448e+000 -1.906917e-001 85 78 70
6.179712e+000 -2.916735e+000 -1.775731e-001 142 140 128
6.179712e+000 -2.916735e+000 -1.775731e-001 142 140 128
6.203368e+000 -2.868429e+000 -1.961842e-001 93 84 76
6.289975e+000 -2.912190e+000 -2.909945e-002 143 148 131
6.425685e+000 -2.855869e+000 -4.038257e-002 98 88 75
6.452679e+000 -2.875092e+000 -3.407652e-002 137 141 124
6.451514e+000 -2.875159e+000 -4.886161e-002 137 141 124
7.752049e+000 -2.802666e+000 -7.480870e-001 65 47 33
6.303961e+000 -2.976414e+000 9.250486e-003 97 90 80
6.394550e+000 -2.923121e+000 -2.492540e-002 84 76 65
6.394550e+000 -2.923121e+000 -2.492540e-002 84 76 65
7.278948e+000 -2.892342e+000 -5.760104e-001 62 44 42
5.968039e+000 -3.051032e+000 -2.383885e-001 142 142 130
6.145525e+000 -3.026452e+000 -8.752663e-002 107 104 88
6.296290e+000 -3.036567e+000 -1.980637e-002 97 94 79
6.485190e+000 -2.993005e+000 2.431842e-003 55 45 35
6.871890e+000 -3.019152e+000 -3.360851e-001 40 20 16
6.897221e+000 -3.024196e+000 -3.943342e-001 73 46 35
7.223555e+000 -2.960969e+000 -7.433381e-001 38 24 23
7.697309e+000 -2.936865e+000 -6.608077e-001 66 49 38
8.175715e+000 -2.963564e+000 -1.005433e+000 60 42 34
5.774281e+000 -3.139987e+000 -4.159837e-001 131 125 119
6.358542e+000 -3.083137e+000 1.211557e-002 151 149 136
6.276522e+000 -3.136910e+000 -3.468921e-002 104 98 85
6.394587e+000 -3.136985e+000 1.782577e-002 143 143 134
6.395927e+000 -3.136677e+000 1.905629e-002 143 143 134
6.427696e+000 -3.175761e+000 4.332877e-003 138 136 124
8.318173e+000 -3.127700e+000 -1.053716e+000 58 41 30
5.836799e+000 -3.264976e+000 -3.522146e-001 238 255 254
5.836799e+000 -3.264976e+000 -3.522146e-001 238 255 254
6.526087e+000 -3.229486e+000 3.996066e-002 81 73 60
6.686468e+000 -3.224320e+000 1.138379e-002 46 28 26
6.213599e+000 -3.268758e+000 -3.517543e-002 137 138 122
6.245178e+000 -3.259905e+000 -1.238455e-002 91 87 75
6.256130e+000 -3.299175e+000 -1.293949e-002 56 51 48
6.402083e+000 -3.269551e+000 3.864141e-002 67 58 49
6.443388e+000 -3.355455e+000 6.984582e-002 66 57 49
6.631820e+000 -3.299893e+000 4.320356e-002 114 105 97
6.641098e+000 -3.327719e+000 6.709811e-002 118 111 105
6.641098e+000 -3.327719e+000 6.709811e-002 118 111 105
7.275339e+000 -3.367671e+000 -6.484754e-001 47 32 29
7.533028e+000 -3.357179e+000 -6.693879e-001 51 33 29
7.880618e+000 -3.309555e+000 -6.273581e-001 131 136 132
7.937572e+000 -3.299571e+000 -3.317987e-001 117 113 101
6.388896e+000 -3.380330e+000 6.139589e-002 56 46 43
6.375138e+000 -3.390147e+000 7.692748e-002 43 33 31
6.570550e+000 -3.418975e+000 5.706254e-002 75 60 55
6.837382e+000 -3.360523e+000 -2.996798e-002 87 64 49
6.837516e+000 -3.361798e+000 -3.850748e-002 87 64 49
7.841794e+000 -3.498426e+000 -7.197730e-001 80 67 61
7.283687e+000 -3.634732e+000 -6.838554e-001 82 66 55
7.459596e+000 -3.748463e+000 -8.530102e-001 78 57 52
7.595233e+000 -3.685610e+000 -6.532431e-001 42 29 23
7.584809e+000 -3.730414e+000 -7.547585e-001 46 31 27
7.657073e+000 -3.708246e+000 -7.014433e-001 46 33 27
6.166226e+000 -3.626164e+000 2.769343e-001 38 28 29
7.866883e+000 -3.747185e+000 -6.729522e-001 38 27 25
5.963052e+000 -3.715817e+000 3.087088e-001 32 19 26
6.191594e+000 -3.686410e+000 3.073510e-001 26 16 23
7.666000e+000 -3.910178e+000 -8.154080e-001 52 37 32
6.177290e+000 -3.701420e+000 3.698256e-001 31 21 26
6.225482e+000 -3.751236e+000 3.205004e-001 66 54 58
7.562685e+000 -4.002746e+000 -1.069373e+000 82 60 36
6.192471e+000 -3.822712e+000 3.813107e-001 77 67 75
6.192471e+000 -3.822712e+000 3.813107e-001 77 67 75
6.175737e+000 -3.896319e+000 3.963218e-001 41 28 35
6.106822e+000 -4.033262e+000 3.784055e-001 81 69 70
6.106822e+000 -4.033262e+000 3.784055e-001 81 69 70
6.866685e+000 -4.175152e+000 1.252530e-001 161 143 98
8.986529e+000 -2.183359e+000 -7.661886e-001 158 141 89
7.332133e+000 -2.361261e+000 -8.556697e-001 111 106 100
7.713146e+000 -2.455505e+000 -9.319184e-001 73 51 37
7.287303e+000 -2.583806e+000 -1.274262e+000 56 47 52
6.163621e+000 -2.776939e+000 -3.226353e-001 45 36 37
6.466342e+000 -2.776195e+000 -2.127251e-001 130 124 112
7.765639e+000 -2.643717e+000 -8.678206e-001 95 74 56
6.205792e+000 -2.804615e+000 -2.685003e-001 87 81 73
6.382401e+000 -2.825085e+000 -1.792070e-001 76 72 61
6.418590e+000 -2.831138e+000 -8.918588e-002 124 121 106
7.276138e+000 -2.743062e+000 -6.858779e-001 155 170 164
7.276138e+000 -2.743062e+000 -6.858779e-001 155 170 164
6.259700e+000 -2.901117e+000 -6.574902e-002 73 70 58
6.407339e+000 -2.871938e+000 -4.472672e-002 124 118 102
7.463449e+000 -2.798567e+000 -6.259586e-001 69 55 46
6.032266e+000 -2.962990e+000 -2.145871e-001 95 89 77
6.123225e+000 -2.963723e+000 -1.748746e-001 85 79 65
6.196910e+000 -2.960410e+000 -1.077972e-001 136 131 119
6.698833e+000 -2.948695e+000 -1.338818e-001 76 57 47
7.463736e+000 -2.865991e+000 -6.153200e-001 87 75 63
7.632994e+000 -2.883846e+000 -6.666886e-001 67 49 35
6.086256e+000 -3.013631e+000 -1.917990e-001 81 78 63
6.170615e+000 -3.012285e+000 -8.192089e-002 143 144 130
6.209241e+000 -3.011432e+000 -2.749686e-002 98 88 78
6.194083e+000 -3.054224e+000 -5.605143e-002 158 155 145
6.416066e+000 -3.042578e+000 1.713467e-002 125 119 107
6.458014e+000 -3.037729e+000 1.325585e-002 64 50 43
6.527182e+000 -3.012471e+000 -8.472518e-003 88 77 71
6.641782e+000 -2.997048e+000 -5.074007e-002 41 31 24
6.780715e+000 -3.029680e+000 -1.534731e-001 51 34 28
7.510698e+000 -2.956510e+000 -5.836609e-001 67 50 43
8.077739e+000 -2.929709e+000 -9.375480e-001 89 75 62
8.114207e+000 -2.936549e+000 -9.443648e-001 51 34 30
5.700877e+000 -3.155457e+000 -5.645100e-001 101 93 88
5.825218e+000 -3.095355e+000 -4.114013e-001 96 82 72
6.065465e+000 -3.091978e+000 -1.231732e-001 142 133 124
6.384486e+000 -3.054516e+000 -1.161627e-002 73 60 54
6.452424e+000 -3.067478e+000 8.030196e-003 126 121 112
6.015077e+000 -3.158872e+000 -1.283168e-001 141 138 130
6.222153e+000 -3.187012e+000 -2.739723e-002 147 144 129
7.487743e+000 -3.105351e+000 -5.553262e-001 60 43 36
7.514183e+000 -3.108396e+000 -5.336171e-001 89 72 65
7.589642e+000 -3.130544e+000 -6.623464e-001 86 71 64
8.297553e+000 -3.110628e+000 -1.055254e+000 82 66 50
6.503688e+000 -3.223279e+000 4.742395e-002 72 59 51
7.958011e+000 -3.173900e+000 -3.962179e-001 106 93 77
6.181084e+000 -3.265073e+000 -4.971419e-002 135 130 123
6.702140e+000 -3.242496e+000 2.056876e-003 84 65 58
6.372831e+000 -3.368961e+000 6.218524e-002 79 68 66
7.919535e+000 -3.292607e+000 -3.492433e-001 160 164 160
8.044017e+000 -3.274819e+000 -2.436956e-001 112 108 109
7.888922e+000 -3.355590e+000 -4.409540e-001 183 203 202
7.923055e+000 -3.367990e+000 -3.101219e-001 122 113 111
7.901180e+000 -3.523913e+000 -6.775607e-001 70 63 57
7.629112e+000 -3.627302e+000 -7.062805e-001 48 33 28
7.880285e+000 -3.534822e+000 -4.446118e-001 108 91 81
7.880285e+000 -3.534822e+000 -4.446118e-001 108 91 81
8.017323e+000 -3.634355e+000 -3.824636e-001 88 69 54
7.957591e+000 -3.755127e+000 -4.633612e-001 80 64 49
7.841230e+000 -3.966719e+000 -6.489230e-001 62 44 38
6.906014e+000 -4.135885e+000 -1.283981e-002 87 55 46
6.440058e+000 -4.190800e+000 2.550508e-001 36 22 24
6.397967e+000 -2.662411e+000 -3.322044e-001 55 45 43
6.552951e+000 -2.662926e+000 -3.402510e-001 59 41 39
7.338638e+000 -2.586987e+000 -8.311387e-001 109 106 97
6.431295e+000 -2.759263e+000 -2.418727e-001 59 46 37
6.634229e+000 -2.752005e+000 -2.807579e-001 88 71 55
6.126845e+000 -2.936340e+000 -1.800225e-001 154 149 135
6.652988e+000 -2.896878e+000 -1.329064e-001 79 57 44
8.715136e+000 -2.727059e+000 -1.107079e+000 141 123 73
6.044920e+000 -3.037509e+000 -1.786626e-001 152 144 135
6.244816e+000 -3.006770e+000 -2.884202e-002 152 152 140
6.333345e+000 -3.110774e+000 1.056381e-002 81 73 62
6.552640e+000 -3.044206e+000 -9.617649e-003 84 73 67
6.552640e+000 -3.044206e+000 -9.617649e-003 84 73 67
6.546588e+000 -3.070363e+000 -1.004026e-003 62 52 43
6.069265e+000 -3.203574e+000 -8.343934e-002 79 68 63
6.602921e+000 -3.110510e+000 -9.422118e-005 101 93 82
6.596538e+000 -3.185651e+000 3.014586e-002 87 80 74
6.317211e+000 -3.282772e+000 1.238498e-002 94 85 76
6.659034e+000 -3.260111e+000 6.573313e-002 74 59 52
7.270788e+000 -3.254752e+000 -7.005583e-001 37 24 18
7.270862e+000 -3.254467e+000 -7.101102e-001 37 24 18
7.890796e+000 -3.299533e+000 -4.837979e-001 184 205 203
7.224098e+000 -3.657865e+000 -7.883957e-001 86 62 50
9.143471e+000 -3.637438e+000 -3.774803e-001 153 135 87
6.183975e+000 -3.692676e+000 3.444159e-001 58 49 53
5.971610e+000 -3.819273e+000 3.709633e-001 46 31 38
5.974029e+000 -3.862310e+000 3.010282e-001 77 64 69
6.981949e+000 -3.995418e+000 -3.088976e-001 157 130 84
6.749443e+000 -4.189117e+000 -2.652452e-001 74 50 37
6.976948e+000 -4.150092e+000 6.686713e-002 166 143 93
8.767291e+000 -2.355051e+000 -1.029135e+000 157 137 87
7.924704e+000 -2.579861e+000 -9.865699e-001 99 81 61
7.920102e+000 -2.581095e+000 -9.643357e-001 99 81 61
8.866261e+000 -2.526358e+000 -9.756795e-001 176 161 101
6.432499e+000 -2.787751e+000 -2.025569e-001 67 57 45
5.648959e+000 -3.104905e+000 -6.268390e-001 77 64 90
6.001759e+000 -3.012791e+000 -2.278156e-001 83 74 67
6.241469e+000 -3.073359e+000 -3.500890e-003 143 142 133
6.260070e+000 -3.121144e+000 9.668963e-003 158 159 145
6.257372e+000 -3.122382e+000 -3.317051e-004 158 159 145
6.338526e+000 -3.082133e+000 1.585661e-002 142 141 129
6.511537e+000 -3.048899e+000 9.481361e-003 42 31 29
8.175933e+000 -3.080822e+000 -8.957524e-001 108 90 70
6.062228e+000 -3.240220e+000 -7.005019e-002 144 140 131
6.202576e+000 -3.230001e+000 -4.263868e-002 39 33 27
6.460314e+000 -3.202025e+000 3.786566e-002 149 146 134
6.148563e+000 -3.269151e+000 -5.323448e-002 57 48 45
6.148563e+000 -3.269151e+000 -5.323448e-002 57 48 45
6.542420e+000 -3.253319e+000 5.620336e-002 45 39 34
8.305512e+000 -3.222801e+000 -3.318965e-001 108 87 60
6.447771e+000 -3.408317e+000 6.974046e-002 43 32 36
6.513951e+000 -3.371076e+000 7.105122e-002 43 34 29
6.389226e+000 -3.425961e+000 1.419076e-001 40 28 27
6.985972e+000 -3.481854e+000 -2.997537e-001 90 59 37
7.198920e+000 -3.691978e+000 -6.234026e-001 91 66 51
7.732646e+000 -3.848848e+000 -6.862024e-001 76 62 55
6.949466e+000 -3.823890e+000 -2.473877e-001 58 30 26
8.162043e+000 -3.845904e+000 -5.456252e-001 109 88 64
6.162781e+000 -3.813965e+000 3.039142e-001 39 26 35
8.165039e+000 -4.954857e+000 -1.978688e+000 156 129 86
8.153716e+000 -4.937086e+000 -1.933641e+000 156 129 86
5.730104e+000 -2.503550e+000 -3.175789e-001 55 37 49
6.024038e+000 -2.490314e+000 -1.380041e-001 45 29 39
6.358644e+000 -2.655125e+000 -3.908036e-001 46 35 31
7.996154e+000 -3.081471e+000 -7.539675e-001 45 33 32
8.386878e+000 -3.236624e+000 -3.581386e-001 128 118 100
6.320703e+000 -3.490201e+000 2.521684e-001 43 28 33
6.781922e+000 -3.611509e+000 9.402533e-002 33 20 14
6.898606e+000 -2.313237e+000 -1.031900e+000 140 121 88
5.820487e+000 -2.616407e+000 -1.897851e-001 53 36 44
7.265579e+000 -2.570187e+000 -1.301107e+000 62 51 57
7.265579e+000 -2.570187e+000 -1.301107e+000 62 51 57
6.327001e+000 -2.878644e+000 -7.701679e-002 36 32 29
6.305775e+000 -2.937266e+000 -3.053959e-002 133 134 120
5.946962e+000 -3.148815e+000 -2.672220e-001 41 31 39
5.961661e+000 -3.220855e+000 -1.789178e-001 126 126 118
6.071804e+000 -3.305173e+000 -3.735809e-002 47 33 33
8.092776e+000 -3.243651e+000 -2.503880e-001 185 196 197
9.084948e+000 -3.665757e+000 -3.745265e-001 153 137 88
6.764501e+000 -4.175725e+000 -1.184178e-001 143 118 77
6.800500e+000 -2.745729e+000 -5.314946e-001 134 110 84
6.776579e+000 -3.070813e+000 -5.732143e-002 79 60 44
6.822417e+000 -3.163590e+000 -3.984792e-002 80 58 42
7.991103e+000 -3.551335e+000 -3.699908e-001 135 128 118
7.597766e+000 -3.797275e+000 -7.861278e-001 82 59 51
8.075777e+000 -3.630374e+000 -3.672816e-001 92 74 59
5.998860e+000 -3.928177e+000 2.003936e-001 72 55 64
5.933817e+000 -3.926136e+000 2.983522e-001 40 25 32
7.853198e+000 -3.405255e+000 -6.690515e-001 64 51 42
6.801783e+000 -3.476520e+000 -6.657779e-002 32 21 19
8.158023e+000 -3.728679e+000 -4.316740e-001 118 98 73
8.778687e+000 -4.021312e+000 -1.045745e+000 129 111 73
7.377472e+000 -2.816468e+000 -6.036225e-001 72 59 49
5.891781e+000 -3.593005e+000 2.954371e-001 37 26 32
7.244704e+000 -3.717916e+000 -8.138058e-001 59 38 33
6.420009e+000 -3.204789e+000 1.557029e-002 49 46 41
7.946837e+000 -3.111804e+000 -5.571339e-001 62 51 45
6.010272e+000 -3.805627e+000 8.389219e-002 38 23 28
7.486402e+000 -3.863272e+000 -9.650659e-001 45 30 28
7.451216e+000 -2.374559e+000 -1.014484e+000 91 78 64
7.451216e+000 -2.374559e+000 -1.014484e+000 91 78 64
9.025515e+000 -3.231234e+000 -5.922402e-001 179 166 111
8.341668e+000 -2.940092e+000 -8.321865e-001 53 33 24
6.508956e+000 -3.082389e+000 5.111731e-003 93 86 78
7.630594e+000 -3.060914e+000 -5.525280e-001 113 104 97
6.199174e+000 -3.265980e+000 -2.680685e-002 100 89 83
8.735263e+000 -2.356080e+000 -1.083896e+000 179 163 111
7.691921e+000 -2.474524e+000 -9.174241e-001 104 87 69
7.651818e+000 -2.641161e+000 -7.646931e-001 99 82 62
7.289522e+000 -2.814174e+000 -6.111896e-001 87 80 70
8.891367e+000 -3.038604e+000 -7.736160e-001 176 159 116
6.689965e+000 -3.376400e+000 3.752907e-002 87 74 66
6.436303e+000 -3.053952e+000 1.371200e-002 64 50 42
6.436291e+000 -3.053822e+000 1.463214e-002 64 50 42
7.833509e+000 -3.092896e+000 -6.374211e-001 87 71 58
7.854606e+000 -3.065941e+000 -6.331227e-001 56 42 26
7.986594e+000 -3.202064e+000 -3.279211e-001 143 137 125
6.214927e+000 -3.267745e+000 -2.773696e-002 130 126 116
7.809606e+000 -3.494598e+000 -6.982961e-001 49 31 27
7.515216e+000 -3.179174e+000 -6.007741e-001 48 30 25
7.545887e+000 -3.194905e+000 -6.173693e-001 73 55 49
7.769000e+000 -3.773829e+000 -6.762774e-001 48 33 30
8.172902e+000 -2.955036e+000 -8.661452e-001 59 27 33
8.319188e+000 -3.105559e+000 -1.043544e+000 83 69 57
6.688983e+000 -3.354689e+000 4.117545e-002 93 78 74
8.079854e+000 -3.364221e+000 -2.142673e-001 160 165 157
7.947020e+000 -3.575208e+000 -3.764059e-001 105 89 81
6.456260e+000 -2.691116e+000 -3.006308e-001 40 27 21
7.834563e+000 -2.598650e+000 -9.238442e-001 69 48 30
7.829161e+000 -2.675486e+000 -8.611751e-001 92 75 59
8.844837e+000 -3.092410e+000 -9.276281e-001 143 126 72
6.096077e+000 -3.225919e+000 -5.880558e-002 91 84 77
6.284911e+000 -3.233243e+000 6.660316e-004 125 123 110
7.656972e+000 -3.662897e+000 -7.118984e-001 53 35 31
7.330663e+000 -2.748464e+000 -6.471134e-001 97 89 76
7.330663e+000 -2.748464e+000 -6.471134e-001 97 89 76
7.710027e+000 -2.813822e+000 -7.232676e-001 63 45 32
8.169049e+000 -2.931881e+000 -9.247185e-001 131 117 101
8.028364e+000 -3.065352e+000 -7.716450e-001 51 34 27
8.333844e+000 -3.199266e+000 -3.307248e-001 57 36 25
7.525642e+000 -3.565720e+000 -7.046032e-001 69 54 47
7.328427e+000 -3.715398e+000 -7.280337e-001 66 47 32
7.792789e+000 -3.768103e+000 -6.439399e-001 70 55 52
6.435667e+000 -2.885216e+000 -2.822813e-002 75 61 52
7.425936e+000 -2.919594e+000 -5.927097e-001 85 72 63
6.556454e+000 -2.982414e+000 -7.685780e-003 90 74 64
8.046870e+000 -3.589699e+000 -3.443742e-001 103 85 66
8.895992e+000 -2.175862e+000 -7.793498e-001 163 146 93
8.837689e+000 -2.253814e+000 -9.100326e-001 157 144 91
9.046295e+000 -2.249681e+000 -5.316832e-001 188 175 124
6.294661e+000 -2.767628e+000 -2.827166e-001 128 124 112
7.330296e+000 -2.651588e+000 -7.067125e-001 103 96 88
7.312358e+000 -2.166179e+000 -1.025337e+000 129 122 115
7.944302e+000 -2.796846e+000 -8.742741e-001 70 51 34
7.974813e+000 -2.923253e+000 -8.519680e-001 59 41 30
6.472265e+000 -3.143415e+000 1.840131e-002 87 75 66
6.212213e+000 -3.287725e+000 -3.723553e-002 92 89 80
7.981685e+000 -3.217755e+000 -3.427348e-001 155 146 143
6.539932e+000 -3.381302e+000 6.008946e-002 59 46 40
5.968802e+000 -2.579379e+000 -7.254980e-002 77 64 73
6.362231e+000 -2.730877e+000 -2.680071e-001 83 74 67
7.817531e+000 -2.629897e+000 -8.873556e-001 100 81 64
7.907715e+000 -2.834698e+000 -8.012820e-001 63 44 28
6.475093e+000 -2.955457e+000 7.315626e-003 73 58 53
6.564243e+000 -3.041550e+000 -7.829755e-003 87 80 70
6.204222e+000 -3.176383e+000 -2.437345e-002 110 107 95
6.342215e+000 -3.126269e+000 4.875692e-003 108 102 88
6.403929e+000 -3.100290e+000 1.780825e-002 110 101 91
6.715054e+000 -3.062866e+000 -4.735987e-002 41 26 22
5.839701e+000 -3.263606e+000 -1.588561e-001 51 50 57
6.352889e+000 -3.212643e+000 1.042730e-002 122 124 113
6.442410e+000 -3.184657e+000 2.935457e-002 98 91 82
6.280363e+000 -3.312123e+000 -1.452896e-002 53 46 40
6.559526e+000 -3.281518e+000 5.068935e-002 84 71 65
7.831025e+000 -3.298260e+000 -6.701483e-001 56 41 38
7.893246e+000 -3.260685e+000 -5.385119e-001 177 195 194
6.457504e+000 -3.348760e+000 6.084907e-002 78 70 63
7.444684e+000 -3.424157e+000 -6.524366e-001 56 37 30
7.423389e+000 -3.802265e+000 -9.044048e-001 45 28 21
7.624005e+000 -2.422607e+000 -8.814374e-001 97 81 65
7.588931e+000 -2.481608e+000 -8.445457e-001 102 84 72
7.616240e+000 -2.470910e+000 -8.806276e-001 72 54 44
7.616240e+000 -2.470910e+000 -8.806276e-001 72 54 44
7.730958e+000 -2.693364e+000 -8.447886e-001 94 74 63
6.040054e+000 -2.982833e+000 -1.787689e-001 153 153 139
6.039271e+000 -2.983354e+000 -1.821093e-001 153 153 139
7.771251e+000 -2.798166e+000 -7.421120e-001 94 77 67
6.576341e+000 -3.053157e+000 -1.391604e-002 57 46 40
6.510600e+000 -3.099911e+000 1.195416e-002 75 67 61
6.456385e+000 -3.165439e+000 2.050661e-002 120 114 102
7.507033e+000 -3.213624e+000 -6.714205e-001 73 58 53
7.698552e+000 -3.291226e+000 -6.491842e-001 74 60 57
7.714899e+000 -3.309465e+000 -6.407494e-001 50 40 35
8.014864e+000 -3.189944e+000 -3.445033e-001 139 130 125
7.464324e+000 -3.416887e+000 -6.415096e-001 77 60 53
6.424624e+000 -3.435041e+000 8.312528e-002 62 55 50
7.863618e+000 -3.503289e+000 -7.160690e-001 63 48 43
8.003303e+000 -3.662308e+000 -4.075917e-001 90 72 63
6.904695e+000 -4.096088e+000 2.443038e-002 77 48 36
6.863961e+000 -2.322487e+000 -8.095138e-001 167 145 115
8.678203e+000 -2.463013e+000 -1.176533e+000 146 128 80
6.229495e+000 -2.861905e+000 -2.057182e-001 93 94 86
6.099262e+000 -3.091975e+000 -8.809231e-002 85 82 77
7.483722e+000 -3.169453e+000 -5.803772e-001 71 56 51
6.018130e+000 -3.279307e+000 -8.911384e-002 104 99 96
6.490816e+000 -3.251894e+000 5.337821e-002 107 104 97
7.876524e+000 -3.223649e+000 -7.061400e-001 53 39 36
7.578241e+000 -3.315927e+000 -6.207958e-001 50 33 26
8.153854e+000 -3.153000e+000 -2.520877e-001 120 101 80
6.437176e+000 -3.382130e+000 6.671414e-002 83 74 66
6.568312e+000 -3.347561e+000 5.844752e-002 57 44 38
6.512019e+000 -3.417959e+000 8.014925e-002 51 42 33
5.906441e+000 -3.525239e+000 2.965928e-001 30 18 32
7.908417e+000 -3.479479e+000 -3.813259e-001 101 92 83
7.628768e+000 -3.630088e+000 -7.125376e-001 48 33 30
6.764761e+000 -4.372978e+000 3.927461e-002 158 140 95
8.656189e+000 -2.491724e+000 -1.216244e+000 148 132 81
7.604460e+000 -2.653094e+000 -7.648012e-001 85 69 54
6.058004e+000 -2.936121e+000 -1.961098e-001 151 148 136
8.093050e+000 -2.685978e+000 -9.444227e-001 60 43 35
6.068487e+000 -3.202376e+000 -7.642127e-002 75 65 63
8.066411e+000 -3.193982e+000 -2.316248e-001 105 97 93
7.307936e+000 -3.746362e+000 -6.778458e-001 100 78 64
8.651869e+000 -4.879275e+000 -1.094599e+000 156 136 83
6.235235e+000 -2.831810e+000 -2.276849e-001 136 137 129
8.742108e+000 -2.691692e+000 -1.050310e+000 143 126 75
6.708437e+000 -3.053557e+000 -6.716633e-002 44 30 28
6.013811e+000 -3.241702e+000 -1.090451e-001 58 49 42
6.658472e+000 -3.421597e+000 5.071552e-002 34 23 14
6.342138e+000 -3.240803e+000 1.113339e-002 45 38 34
6.308190e+000 -3.373119e+000 3.444121e-002 29 19 19
6.570315e+000 -3.459769e+000 7.090628e-002 35 23 21
7.255486e+000 -3.655237e+000 -7.212577e-001 48 30 26
7.228642e+000 -3.879883e+000 -9.611879e-001 159 141 100
6.426081e+000 -2.853636e+000 -5.795275e-002 114 105 96
6.659330e+000 -2.937431e+000 -8.398084e-002 71 52 38
7.792399e+000 -2.556406e+000 -1.006138e+000 101 82 65
6.091354e+000 -3.998400e+000 3.446290e-001 47 30 38
8.886813e+000 -3.036557e+000 -7.613336e-001 167 158 117
6.353481e+000 -3.212974e+000 3.743919e-003 125 121 110
7.399685e+000 -2.504417e+000 -7.904252e-001 74 58 43
7.553740e+000 -2.666656e+000 -7.735543e-001 97 80 66
7.714770e+000 -2.644160e+000 -8.506784e-001 97 78 63
7.427423e+000 -2.764270e+000 -6.521767e-001 97 83 72
6.404015e+000 -3.098907e+000 2.164386e-002 108 94 86
7.808952e+000 -3.075647e+000 -6.255861e-001 67 51 38
7.504363e+000 -3.148689e+000 -5.895512e-001 57 37 37
7.896234e+000 -3.467341e+000 -4.065365e-001 150 151 153
7.771015e+000 -4.080289e+000 -7.963254e-001 173 152 99
8.833871e+000 -2.254677e+000 -9.052715e-001 157 144 91
7.659725e+000 -2.572249e+000 -8.090141e-001 78 60 47
8.155805e+000 -2.890381e+000 -8.476765e-001 65 38 33
6.574560e+000 -3.081197e+000 -1.850190e-003 89 80 71
7.803243e+000 -2.642177e+000 -8.843946e-001 60 41 24
7.862597e+000 -2.790322e+000 -8.275658e-001 64 46 32
7.961371e+000 -2.859123e+000 -9.268329e-001 97 83 56
7.458407e+000 -3.157481e+000 -5.971260e-001 49 31 30
6.201714e+000 -3.309788e+000 -4.364357e-002 116 110 104
7.554004e+000 -3.237918e+000 -6.191652e-001 80 65 58
7.650244e+000 -2.503796e+000 -8.805093e-001 101 82 70
8.019439e+000 -2.644997e+000 -9.772554e-001 108 91 81
6.441500e+000 -2.924579e+000 -1.099434e-002 63 50 41
7.366278e+000 -2.934087e+000 -5.890681e-001 80 69 65
6.591191e+000 -3.064690e+000 -1.424951e-002 100 91 82
8.900472e+000 -3.173755e+000 -7.700441e-001 127 113 87
7.486891e+000 -3.387493e+000 -6.681900e-001 74 58 51
7.831771e+000 -3.465961e+000 -6.993879e-001 54 36 32
7.888140e+000 -3.582905e+000 -4.432429e-001 105 88 81
7.635858e+000 -3.728704e+000 -7.061619e-001 51 36 31
7.425726e+000 -2.415032e+000 -8.364024e-001 78 64 52
7.411939e+000 -2.446798e+000 -8.249205e-001 99 86 77
6.454996e+000 -2.691028e+000 -3.065394e-001 43 29 26
7.533922e+000 -2.953320e+000 -5.782008e-001 94 79 72
6.677635e+000 -3.126171e+000 -5.572605e-003 69 55 43
6.588862e+000 -3.307421e+000 5.381761e-002 80 71 65
7.890909e+000 -3.511562e+000 -4.141457e-001 99 90 81
7.980040e+000 -3.595816e+000 -3.736144e-001 104 87 80
6.509198e+000 -2.989112e+000 8.981076e-004 49 36 28
7.618013e+000 -3.231660e+000 -6.124451e-001 39 24 21
7.300263e+000 -3.686058e+000 -7.182184e-001 87 68 56
6.769995e+000 -4.406886e+000 1.095460e-001 172 145 97
6.760419e+000 -2.465633e+000 -8.581055e-001 43 27 27
8.513675e+000 -3.426862e+000 -2.341219e+000 102 88 80
6.551466e+000 -2.640946e+000 -3.800246e-001 78 66 57
6.403358e+000 -2.702473e+000 -3.055543e-001 119 110 105
6.228087e+000 -2.812255e+000 -2.552772e-001 87 84 77
7.140302e+000 -2.756792e+000 -1.234308e+000 113 97 105
6.327523e+000 -2.850211e+000 -1.372611e-001 115 107 106
6.446664e+000 -2.882537e+000 -1.843742e-002 73 61 52
6.326855e+000 -2.945826e+000 1.033576e-002 129 126 114
7.282705e+000 -2.890163e+000 -6.236600e-001 45 32 24
6.229355e+000 -3.022820e+000 -3.130612e-002 98 98 86
6.269009e+000 -3.016290e+000 -1.428479e-002 139 137 127
8.144962e+000 -2.908397e+000 -9.274702e-001 86 76 68
5.569661e+000 -3.420783e+000 -7.025000e-001 117 104 98
6.062936e+000 -3.177433e+000 -9.476646e-002 132 129 124
6.249327e+000 -3.146315e+000 -1.231572e-003 102 94 86
5.921493e+000 -3.316748e+000 -3.352608e-002 123 121 134
6.527534e+000 -3.179308e+000 2.459140e-002 68 63 55
6.528276e+000 -3.186677e+000 3.689845e-002 126 120 106
6.536315e+000 -3.193665e+000 4.665810e-002 66 57 48
6.657267e+000 -3.173631e+000 1.233000e-002 61 45 38
6.580311e+000 -3.235502e+000 3.811706e-002 131 129 123
6.498212e+000 -3.305318e+000 5.523059e-002 61 49 43
6.513876e+000 -3.342343e+000 6.288650e-002 91 84 76
7.442686e+000 -3.365099e+000 -6.421124e-001 57 45 41
7.979566e+000 -3.214824e+000 -3.359385e-001 161 167 160
8.078500e+000 -3.172416e+000 -2.231028e-001 104 93 91
6.459894e+000 -3.406635e+000 8.941844e-002 33 27 25
8.089323e+000 -3.235129e+000 -2.009802e-001 204 212 215
7.224355e+000 -3.646655e+000 -7.067403e-001 77 57 46
8.085465e+000 -3.339622e+000 -1.781790e-001 133 125 113
6.772406e+000 -3.642848e+000 1.790990e-001 113 108 80
7.312185e+000 -2.207673e+000 -1.038543e+000 106 93 89
7.272375e+000 -2.492884e+000 -1.525965e+000 78 63 74
7.242696e+000 -2.529596e+000 -1.451014e+000 77 68 69
7.514432e+000 -2.483024e+000 -8.176536e-001 91 73 61
6.277637e+000 -2.743512e+000 -2.841276e-001 50 41 36
6.402130e+000 -2.750042e+000 -2.550351e-001 66 56 47
7.936810e+000 -2.647186e+000 -9.523851e-001 70 51 30
6.052925e+000 -2.901213e+000 -2.528482e-001 121 118 113
6.168282e+000 -2.874555e+000 -2.043363e-001 99 96 89
6.295277e+000 -2.861880e+000 -1.383148e-001 129 127 117
6.442491e+000 -2.836254e+000 -6.947634e-002 77 67 56
6.542281e+000 -2.832547e+000 -1.566106e-001 77 57 46
6.561069e+000 -2.827720e+000 -1.759010e-001 58 40 30
7.832983e+000 -2.676968e+000 -8.738992e-001 94 75 61
8.044469e+000 -2.664725e+000 -9.777315e-001 119 107 95
8.084807e+000 -2.672773e+000 -1.010391e+000 73 52 47
6.104201e+000 -2.981862e+000 -1.466647e-001 151 152 138
6.425836e+000 -2.851727e+000 -5.601465e-002 84 80 73
7.876387e+000 -2.786497e+000 -8.142200e-001 100 81 66
7.880589e+000 -2.804534e+000 -8.034414e-001 97 78 62
7.880589e+000 -2.804534e+000 -8.034414e-001 97 78 62
6.120109e+000 -3.041106e+000 -1.262018e-001 143 139 134
7.806044e+000 -2.828806e+000 -7.718243e-001 63 46 29
6.213007e+000 -3.035035e+000 -4.579677e-002 141 137 126
6.177355e+000 -3.091131e+000 -5.193756e-002 96 93 73
6.039736e+000 -3.234095e+000 -9.685850e-002 152 154 145
6.427033e+000 -3.155365e+000 1.471735e-002 91 93 81
6.306230e+000 -3.201595e+000 -1.832619e-003 96 85 81
6.599683e+000 -3.153212e+000 1.270714e-002 56 44 38
6.627491e+000 -3.163717e+000 1.167377e-002 88 79 70
6.637967e+000 -3.181780e+000 1.455771e-002 49 39 34
6.637967e+000 -3.181780e+000 1.455771e-002 49 39 34
6.163727e+000 -3.306456e+000 -5.540360e-002 90 87 82
6.500055e+000 -3.281179e+000 5.609476e-002 130 129 119
6.565128e+000 -3.233169e+000 3.894861e-002 52 48 45
6.600018e+000 -3.263492e+000 5.136326e-002 69 56 48
7.329175e+000 -3.323551e+000 -6.743025e-001 38 20 18
6.480999e+000 -3.340485e+000 6.415742e-002 58 46 40
6.490489e+000 -3.321402e+000 6.049947e-002 88 80 72
7.781017e+000 -3.301312e+000 -6.504939e-001 58 46 46
7.857633e+000 -3.301409e+000 -6.964607e-001 81 65 61
6.668462e+000 -3.381348e+000 4.227024e-002 81 67 61
7.855428e+000 -3.437116e+000 -7.118201e-001 63 43 44
8.095760e+000 -3.211565e+000 -1.951491e-001 204 210 205
8.347560e+000 -3.192510e+000 -3.142493e-001 123 111 95
7.264114e+000 -3.605295e+000 -6.935164e-001 42 28 19
7.526816e+000 -3.545645e+000 -7.163958e-001 52 34 27
7.560632e+000 -3.567139e+000 -7.144890e-001 58 41 34
7.892589e+000 -3.921597e+000 -5.801551e-001 107 86 74
7.329402e+000 -2.228241e+000 -9.792567e-001 152 150 151
7.441133e+000 -2.474406e+000 -8.038505e-001 69 51 41
7.441111e+000 -2.474268e+000 -8.024074e-001 69 51 41
6.558935e+000 -2.707916e+000 -2.981599e-001 111 111 103
