ply
format ascii 1.0
element face 0
property list uchar int vertex_indices
element vertex 890
property float x
property float y
property float z
property uchar diffuse_red
property uchar diffuse_green
property uchar diffuse_blue
end_header
8.170713e+000 -3.218954e+000 -3.318630e-001 93 75 53
6.232169e+000 -3.291814e+000 -3.391267e-002 121 118 110
6.525449e+000 -3.314450e+000 6.563657e-002 37 25 19
6.525908e+000 -3.314543e+000 6.044908e-002 37 25 19
6.683105e+000 -3.315929e+000 1.612692e-002 72 58 49
7.316431e+000 -3.305946e+000 -6.874230e-001 68 53 48
7.373605e+000 -3.299120e+000 -6.965802e-001 60 46 43
7.544997e+000 -3.279717e+000 -6.680808e-001 40 25 22
7.579341e+000 -3.316583e+000 -6.255710e-001 46 31 30
7.718609e+000 -3.302963e+000 -6.376673e-001 57 43 40
8.042805e+000 -3.274555e+000 -2.235438e-001 110 102 100
6.474943e+000 -3.343723e+000 6.490924e-002 67 51 45
6.482123e+000 -3.367803e+000 6.532329e-002 107 96 90
6.553511e+000 -3.373849e+000 6.085900e-002 108 101 95
6.735812e+000 -3.356811e+000 2.946070e-002 46 27 28
7.879663e+000 -3.378423e+000 -6.833373e-001 65 53 47
7.902088e+000 -3.361243e+000 -4.912349e-001 178 203 207
7.902808e+000 -3.508343e+000 -7.466745e-001 101 100 96
7.893135e+000 -3.428589e+000 -4.703017e-001 185 201 201
7.906530e+000 -3.427817e+000 -3.179460e-001 162 176 177
7.906530e+000 -3.427817e+000 -3.179460e-001 162 176 177
7.931421e+000 -3.443291e+000 -3.292243e-001 113 103 100
6.754218e+000 -3.487997e+000 -4.053954e-003 25 17 20
7.842702e+000 -3.542405e+000 -7.580303e-001 47 33 28
7.846680e+000 -3.561882e+000 -7.180765e-001 80 66 65
7.830234e+000 -3.554920e+000 -6.572447e-001 80 66 65
7.890381e+000 -3.500909e+000 -3.744664e-001 105 94 83
7.943942e+000 -3.527081e+000 -3.728236e-001 105 93 81
7.977661e+000 -3.590530e+000 -3.419153e-001 84 71 62
8.052809e+000 -3.606943e+000 -3.095002e-001 123 105 90
6.011392e+000 -3.610536e+000 3.900936e-001 55 48 56
7.318399e+000 -3.741739e+000 -8.971838e-001 95 71 61
8.014413e+000 -3.681012e+000 -4.019988e-001 121 105 88
8.035635e+000 -3.677947e+000 -3.681641e-001 93 75 61
7.363434e+000 -3.791423e+000 -7.962820e-001 92 65 51
7.887795e+000 -3.763571e+000 -4.864836e-001 75 65 53
7.948618e+000 -3.721598e+000 -4.329993e-001 122 111 97
8.009697e+000 -3.817165e+000 -4.961563e-001 115 96 79
5.842718e+000 -3.872816e+000 3.521431e-001 77 66 74
5.842718e+000 -3.872816e+000 3.521431e-001 77 66 74
6.875510e+000 -4.196593e+000 -6.394063e-002 163 136 90
6.876819e+000 -4.187374e+000 -3.352834e-002 163 136 90
6.902341e+000 -4.206848e+000 4.880521e-002 173 146 96
7.645538e+000 -5.223938e+000 -3.412214e+000 148 126 69
8.398132e+000 -4.784986e+000 -1.540833e+000 152 128 82
6.570296e+000 -2.214713e+000 -7.512186e-001 75 49 38
8.904295e+000 -2.177083e+000 -7.976316e-001 157 144 91
8.947782e+000 -2.168269e+000 -7.392945e-001 175 166 109
8.947782e+000 -2.168269e+000 -7.392945e-001 175 166 109
7.348602e+000 -2.258580e+000 -9.664891e-001 159 179 178
7.352272e+000 -2.254529e+000 -9.864911e-001 159 179 178
7.408426e+000 -2.230156e+000 -9.936618e-001 119 114 107
7.315171e+000 -2.267390e+000 -9.746354e-001 93 82 84
6.236995e+000 -2.491304e+000 -3.445474e-001 46 35 41
8.848010e+000 -2.398830e+000 -9.133874e-001 169 152 100
8.920473e+000 -2.448013e+000 -7.059964e-001 154 137 85
7.350722e+000 -2.526339e+000 -8.070723e-001 106 99 91
6.419776e+000 -2.697728e+000 -2.921292e-001 126 120 108
6.384828e+000 -2.716872e+000 -3.390115e-001 71 62 53
6.559440e+000 -2.741678e+000 -2.636244e-001 50 41 31
7.242414e+000 -2.592700e+000 -1.416316e+000 64 45 41
6.129698e+000 -2.813008e+000 -3.179388e-001 51 41 43
7.303411e+000 -2.728725e+000 -6.428709e-001 80 67 60
6.072496e+000 -2.984425e+000 -2.001367e-001 144 142 128
6.395657e+000 -2.983046e+000 -7.723418e-003 108 95 86
6.391651e+000 -2.982804e+000 3.208307e-003 108 95 86
6.509680e+000 -2.988922e+000 -2.590881e-003 48 32 25
6.583182e+000 -2.941212e+000 -5.077135e-002 50 35 28
5.917298e+000 -3.048812e+000 -3.064368e-001 89 80 78
5.994238e+000 -3.057408e+000 -2.198936e-001 78 71 61
6.240936e+000 -3.007406e+000 -3.362920e-002 155 152 137
6.349034e+000 -3.050895e+000 1.598941e-002 76 69 59
5.855963e+000 -3.062020e+000 -3.417264e-001 99 85 79
6.179335e+000 -3.078425e+000 -4.932765e-002 107 95 79
6.203879e+000 -3.122836e+000 -3.146153e-002 73 66 58
6.281754e+000 -3.080569e+000 2.937209e-003 50 41 36
6.281939e+000 -3.080259e+000 5.051851e-003 50 41 36
6.336649e+000 -3.083217e+000 8.768630e-003 147 149 135
6.569756e+000 -3.113605e+000 1.336416e-002 43 34 28
6.625877e+000 -3.135987e+000 2.129037e-003 49 35 27
6.108337e+000 -3.199626e+000 -6.482031e-002 158 158 146
6.159855e+000 -3.189504e+000 -4.573959e-002 90 77 61
6.351678e+000 -3.144981e+000 9.558815e-003 56 52 41
6.330041e+000 -3.177045e+000 3.743895e-003 160 162 148
6.330807e+000 -3.176493e+000 7.871508e-003 160 162 148
6.504370e+000 -3.163218e+000 2.159392e-002 37 27 18
6.754434e+000 -3.169461e+000 -4.598724e-002 47 32 32
7.606721e+000 -3.125217e+000 -5.690465e-001 73 58 53
7.736474e+000 -3.119632e+000 -5.968632e-001 94 80 70
8.079931e+000 -3.155500e+000 -2.562124e-001 124 113 97
6.153899e+000 -3.226239e+000 -6.472131e-002 138 134 122
6.421544e+000 -3.202681e+000 3.492435e-002 52 50 39
6.421442e+000 -3.203679e+000 3.152194e-002 52 50 39
6.754932e+000 -3.235889e+000 -1.315592e-002 48 31 26
7.562792e+000 -3.222340e+000 -6.075369e-001 75 58 55
7.566167e+000 -3.222005e+000 -6.137703e-001 75 58 55
6.263947e+000 -3.297297e+000 -3.850854e-002 64 56 53
6.610392e+000 -3.331168e+000 5.156673e-002 34 26 24
6.676669e+000 -3.286881e+000 2.575674e-002 45 30 24
6.743566e+000 -3.301963e+000 -5.673876e-003 44 29 23
6.743236e+000 -3.300708e+000 2.334370e-002 44 29 23
6.770178e+000 -3.314505e+000 -3.984933e-003 75 57 47
6.770178e+000 -3.314505e+000 -3.984933e-003 75 57 47
6.806098e+000 -3.330367e+000 -2.299523e-002 40 25 20
6.874887e+000 -3.328180e+000 -6.833909e-002 42 23 17
7.563376e+000 -3.287691e+000 -6.196547e-001 73 55 51
7.647471e+000 -3.308817e+000 -6.089203e-001 55 37 34
7.902471e+000 -3.304923e+000 -5.211727e-001 187 204 203
6.446253e+000 -3.332829e+000 6.559436e-002 140 149 129
6.442093e+000 -3.334005e+000 5.621696e-002 140 149 129
6.513394e+000 -3.373560e+000 6.859851e-002 33 23 21
6.587255e+000 -3.385340e+000 6.949815e-002 43 30 24
6.718670e+000 -3.391777e+000 2.406268e-002 43 25 23
7.432027e+000 -3.384007e+000 -6.326226e-001 64 49 42
7.908694e+000 -3.409734e+000 -7.150133e-001 115 118 111
6.179991e+000 -3.442534e+000 2.415616e-001 53 40 45
6.398072e+000 -3.402827e+000 6.385417e-002 96 87 80
6.485835e+000 -3.405977e+000 7.908989e-002 101 95 89
6.485765e+000 -3.406198e+000 7.718650e-002 101 95 89
6.540391e+000 -3.436610e+000 9.711092e-002 66 49 41
7.886883e+000 -3.449173e+000 -6.647190e-001 73 63 61
6.727025e+000 -3.483326e+000 -1.630990e-002 70 52 42
7.869386e+000 -3.499615e+000 -4.247963e-001 167 176 182
7.897168e+000 -3.549496e+000 -4.207192e-001 145 145 135
6.247862e+000 -3.522922e+000 2.863401e-001 75 66 71
7.983135e+000 -3.625448e+000 -3.607988e-001 123 111 99
7.983135e+000 -3.625448e+000 -3.607988e-001 123 111 99
8.107755e+000 -3.602679e+000 -3.439452e-001 91 72 58
5.760291e+000 -3.612773e+000 2.810028e-001 62 47 54
5.779324e+000 -3.624992e+000 2.572038e-001 105 91 104
5.771243e+000 -3.628465e+000 2.338091e-001 105 91 104
7.310440e+000 -3.750486e+000 -6.986082e-001 96 73 57
6.846477e+000 -3.703835e+000 2.817342e-002 41 24 17
7.841116e+000 -3.831118e+000 -6.568663e-001 48 34 31
8.783782e+000 -3.938322e+000 -8.803868e-001 118 100 62
5.816914e+000 -3.897723e+000 3.230245e-001 42 26 36
7.549075e+000 -4.195970e+000 -1.224172e+000 175 159 101
8.849749e+000 -4.256291e+000 -7.698373e-001 154 133 83
7.661929e+000 -5.288017e+000 -3.145325e+000 158 133 79
8.420722e+000 -4.801949e+000 -1.492671e+000 152 128 84
8.982602e+000 -2.315343e+000 -5.480129e-001 184 169 111
9.030354e+000 -2.332047e+000 -5.899334e-001 145 125 79
7.306623e+000 -2.351570e+000 -9.378387e-001 55 46 39
6.918306e+000 -2.390881e+000 -9.098072e-001 99 76 62
8.736979e+000 -2.394302e+000 -1.105578e+000 159 143 94
8.736979e+000 -2.394302e+000 -1.105578e+000 159 143 94
6.958146e+000 -2.539515e+000 -1.039512e+000 168 143 113
6.305968e+000 -2.722873e+000 -2.945854e-001 56 42 39
6.486865e+000 -2.736561e+000 -2.739527e-001 73 56 48
7.151526e+000 -2.631119e+000 -1.472582e+000 99 81 83
7.350670e+000 -2.735316e+000 -6.449690e-001 96 86 71
8.096769e+000 -2.726203e+000 -9.951051e-001 155 161 157
6.434728e+000 -2.895123e+000 -2.315544e-002 71 57 46
6.358775e+000 -2.975274e+000 1.733125e-002 58 48 39
6.440247e+000 -2.975163e+000 6.712507e-003 46 37 28
6.369690e+000 -3.018567e+000 -3.849524e-002 119 113 101
6.369690e+000 -3.018567e+000 -3.849524e-002 119 113 101
6.510616e+000 -3.049951e+000 -5.079825e-003 40 29 25
6.737959e+000 -2.997069e+000 -1.054992e-001 81 59 41
6.712070e+000 -3.050073e+000 -5.311360e-002 48 36 33
5.941940e+000 -3.092116e+000 -2.666290e-001 148 144 134
5.857926e+000 -3.130620e+000 -3.212579e-001 159 155 146
6.130553e+000 -3.150496e+000 -6.883953e-002 55 44 44
6.130553e+000 -3.150496e+000 -6.883953e-002 55 44 44
6.178531e+000 -3.149846e+000 -3.918212e-002 164 166 153
6.276559e+000 -3.183713e+000 -3.144450e-002 40 35 29
6.276559e+000 -3.183713e+000 -3.144450e-002 40 35 29
6.457967e+000 -3.202863e+000 3.788739e-002 145 145 133
6.559547e+000 -3.177844e+000 2.764132e-002 61 51 42
6.762875e+000 -3.147429e+000 -1.353017e-002 42 33 28
6.200276e+000 -3.230354e+000 -4.148995e-002 39 34 28
6.396813e+000 -3.240762e+000 2.950243e-002 138 135 128
6.394070e+000 -3.241719e+000 2.717687e-002 138 135 128
6.541893e+000 -3.255129e+000 5.142885e-002 43 32 30
6.672073e+000 -3.224938e+000 1.797872e-002 47 34 26
6.468224e+000 -3.293129e+000 5.451320e-002 49 40 33
6.664630e+000 -3.353422e+000 3.473801e-002 34 22 15
6.663825e+000 -3.353256e+000 3.636505e-002 34 22 15
6.700471e+000 -3.363069e+000 4.600178e-002 73 63 54
6.700471e+000 -3.363069e+000 4.600178e-002 73 63 54
7.959795e+000 -3.558262e+000 -3.709524e-001 143 137 125
5.736012e+000 -3.559677e+000 2.523077e-001 48 32 45
5.736012e+000 -3.559677e+000 2.523077e-001 48 32 45
6.679893e+000 -3.558397e+000 1.869433e-001 68 54 35
8.008034e+000 -3.698624e+000 -4.101304e-001 122 106 90
6.851356e+000 -3.765242e+000 1.207704e-001 132 127 89
7.619104e+000 -4.062814e+000 -1.260500e+000 174 151 103
7.619104e+000 -4.062814e+000 -1.260500e+000 174 151 103
6.153957e+000 -3.905665e+000 4.525308e-001 33 22 28
8.767934e+000 -4.374510e+000 -9.051133e-001 133 116 72
8.781051e+000 -4.626408e+000 -7.709958e-001 160 141 96
5.925133e+000 -2.482593e+000 -2.265025e-001 32 19 29
7.718586e+000 -2.439204e+000 -9.408244e-001 90 70 53
6.618511e+000 -2.821489e+000 -2.253133e-001 76 55 38
8.867178e+000 -2.998915e+000 -7.886441e-001 161 144 93
6.442313e+000 -3.104560e+000 7.778262e-003 53 44 37
6.005040e+000 -3.181405e+000 -1.633747e-001 114 109 103
6.893621e+000 -3.158443e+000 -1.398353e-001 47 32 31
6.893621e+000 -3.158443e+000 -1.398353e-001 47 32 31
7.609827e+000 -3.176563e+000 -5.891976e-001 86 72 63
6.824565e+000 -3.246217e+000 -5.122342e-002 36 23 17
6.826852e+000 -3.243100e+000 -4.317127e-002 36 23 17
7.625465e+000 -3.235513e+000 -6.309663e-001 46 32 31
8.392121e+000 -3.237217e+000 -3.622636e-001 127 111 94
7.424644e+000 -3.341332e+000 -7.110734e-001 32 20 20
7.766532e+000 -3.325818e+000 -6.668222e-001 101 100 95
8.897021e+000 -3.331074e+000 -6.500543e-001 138 120 84
6.393256e+000 -3.334017e+000 4.385370e-002 26 17 18
6.658643e+000 -3.422391e+000 4.995383e-002 35 24 22
7.872211e+000 -3.579418e+000 -6.459071e-001 55 44 41
7.856329e+000 -3.728104e+000 -4.787992e-001 110 105 99
9.043037e+000 -3.918081e+000 -4.274088e-001 161 147 110
8.603210e+000 -4.406985e+000 -1.188057e+000 115 93 69
6.936864e+000 -2.943410e+000 -8.068568e-001 51 33 31
7.410903e+000 -2.952067e+000 -5.914243e-001 84 71 65
6.858494e+000 -3.080140e+000 -1.345808e-001 40 26 23
8.898690e+000 -3.042292e+000 -7.375013e-001 164 152 119
6.062535e+000 -3.143557e+000 -1.059969e-001 144 144 135
6.280693e+000 -3.236828e+000 -1.470477e-002 126 122 111
7.862022e+000 -3.266941e+000 -6.876742e-001 63 45 46
7.892567e+000 -3.293950e+000 -5.368697e-001 184 202 204
8.351269e+000 -3.274668e+000 -3.835706e-001 58 38 29
6.755281e+000 -3.426388e+000 -7.774727e-003 66 48 35
6.572145e+000 -3.460362e+000 1.212605e-001 39 25 26
5.963929e+000 -3.590924e+000 3.311176e-001 23 12 20
5.835522e+000 -3.657972e+000 2.787851e-001 34 21 28
7.487572e+000 -4.101685e+000 -1.032929e+000 98 71 57
7.485582e+000 -4.102362e+000 -1.033288e+000 98 71 57
6.928405e+000 -4.170220e+000 5.077057e-002 77 49 38
7.884097e+000 -5.036594e+000 -3.048682e+000 151 125 88
7.884097e+000 -5.036594e+000 -3.048682e+000 151 125 88
5.844957e+000 -2.911258e+000 -4.138513e-001 59 40 46
6.606667e+000 -2.994684e+000 -3.726298e-002 55 40 35
6.651757e+000 -2.934703e+000 -9.290154e-002 78 58 49
8.085329e+000 -2.978652e+000 -8.923038e-001 54 40 34
7.954208e+000 -3.268725e+000 -4.504920e-001 106 92 83
7.334557e+000 -3.659237e+000 -7.099396e-001 86 64 50
7.334955e+000 -3.658736e+000 -7.090796e-001 86 64 50
7.596164e+000 -3.795718e+000 -7.787302e-001 73 56 48
6.819118e+000 -4.199463e+000 -1.652674e-002 54 31 23
7.471007e+000 -2.268459e+000 -1.002463e+000 111 98 90
7.663373e+000 -2.415614e+000 -9.535322e-001 78 63 45
7.665699e+000 -3.123466e+000 -5.898478e-001 89 74 65
6.807749e+000 -3.465240e+000 2.664753e-002 30 19 17
7.943082e+000 -3.633258e+000 -4.016792e-001 100 83 75
7.864383e+000 -3.764976e+000 -4.806857e-001 111 102 95
7.218119e+000 -2.699864e+000 -1.182819e+000 48 32 33
7.807015e+000 -2.728890e+000 -8.259939e-001 63 45 33
7.621012e+000 -2.976059e+000 -6.045332e-001 74 57 47
7.620527e+000 -2.976260e+000 -6.058155e-001 74 57 47
6.751360e+000 -3.521703e+000 1.261739e-001 29 18 15
7.939123e+000 -3.885263e+000 -4.789564e-001 83 63 54
7.587279e+000 -2.780054e+000 -7.046139e-001 87 74 57
7.587279e+000 -2.780054e+000 -7.046139e-001 87 74 57
7.448753e+000 -3.020775e+000 -5.804324e-001 86 72 69
7.785399e+000 -3.189964e+000 -6.039923e-001 38 28 27
7.361286e+000 -3.508895e+000 -6.503162e-001 81 61 54
7.816517e+000 -3.630291e+000 -6.520848e-001 46 36 27
6.468522e+000 -2.971862e+000 -9.520086e-002 97 86 74
8.816046e+000 -2.975784e+000 -9.988956e-001 174 161 106
7.430626e+000 -3.261944e+000 -5.950020e-001 36 24 27
6.741787e+000 -2.447845e+000 -8.394341e-001 38 24 24
8.022733e+000 -3.366571e+000 -4.268177e-001 183 197 200
8.685257e+000 -3.531745e+000 -8.850954e-001 67 48 34
7.703866e+000 -2.432749e+000 -9.381617e-001 80 61 46
8.126901e+000 -2.775914e+000 -9.295883e-001 132 125 108
6.111523e+000 -2.991074e+000 -1.401997e-001 87 77 71
6.425686e+000 -2.995967e+000 2.722428e-002 51 41 32
6.090852e+000 -3.138354e+000 -1.021282e-001 108 104 91
6.496370e+000 -3.193536e+000 4.112996e-002 70 57 48
6.196697e+000 -3.266732e+000 -2.829174e-002 100 89 83
6.513607e+000 -3.298944e+000 7.180126e-002 100 90 81
8.940399e+000 -2.212682e+000 -7.073877e-001 154 138 85
8.940399e+000 -2.212682e+000 -7.073877e-001 154 138 85
7.647081e+000 -2.382560e+000 -9.411318e-001 75 59 44
7.569514e+000 -2.471948e+000 -8.640334e-001 78 60 45
7.945245e+000 -2.641430e+000 -9.824730e-001 66 47 30
7.849906e+000 -2.813826e+000 -8.060335e-001 92 75 59
6.140179e+000 -2.928716e+000 -1.937123e-001 130 129 114
7.661027e+000 -2.887959e+000 -6.735498e-001 93 76 60
6.653882e+000 -3.340606e+000 4.720344e-002 54 41 33
7.264199e+000 -3.409184e+000 -6.369804e-001 42 27 24
7.515577e+000 -4.211929e+000 -1.161306e+000 178 158 99
7.466983e+000 -2.470439e+000 -8.111499e-001 93 79 66
7.644827e+000 -2.476187e+000 -8.886711e-001 98 81 65
7.644827e+000 -2.476187e+000 -8.886711e-001 98 81 65
6.489565e+000 -2.701382e+000 -2.973543e-001 95 88 78
7.046582e+000 -2.896809e+000 -9.722282e-001 71 56 48
7.857611e+000 -3.066131e+000 -6.339018e-001 56 42 26
6.262736e+000 -3.244450e+000 -2.805793e-002 86 82 73
7.584121e+000 -3.263193e+000 -6.085736e-001 76 58 55
7.482977e+000 -3.468088e+000 -6.253829e-001 71 55 54
8.012016e+000 -3.670709e+000 -3.821675e-001 121 107 94
8.033019e+000 -3.829937e+000 -4.792561e-001 81 61 47
8.922824e+000 -4.067027e+000 -5.718152e-001 155 135 84
8.936792e+000 -4.073537e+000 -5.981935e-001 155 135 84
8.937833e+000 -2.133951e+000 -7.526857e-001 159 143 92
8.789423e+000 -2.324176e+000 -9.855307e-001 160 144 92
7.347074e+000 -2.395633e+000 -8.486920e-001 116 112 103
7.901153e+000 -2.721483e+000 -8.953379e-001 98 77 53
6.046949e+000 -2.936497e+000 -2.276387e-001 154 155 139
6.487485e+000 -3.093608e+000 -3.840690e-003 102 101 89
6.440960e+000 -3.149499e+000 2.934557e-002 77 69 58
6.440960e+000 -3.149499e+000 2.934557e-002 77 69 58
7.551764e+000 -3.257613e+000 -6.134042e-001 37 19 19
7.645961e+000 -3.280637e+000 -6.567387e-001 71 54 49
7.868599e+000 -3.307160e+000 -6.574484e-001 64 49 49
7.267059e+000 -3.451760e+000 -6.347374e-001 85 62 56
7.267561e+000 -3.451008e+000 -6.326658e-001 85 62 56
8.068061e+000 -3.678525e+000 -3.609043e-001 117 101 86
7.949086e+000 -3.722470e+000 -4.393809e-001 122 111 97
7.863743e+000 -3.922376e+000 -5.902581e-001 74 54 43
7.863743e+000 -3.922376e+000 -5.902581e-001 74 54 43
7.315098e+000 -2.266823e+000 -9.746432e-001 93 82 84
7.372195e+000 -2.303659e+000 -8.989836e-001 102 93 84
8.827348e+000 -2.592301e+000 -9.327548e-001 151 135 85
7.981303e+000 -2.625205e+000 -9.817451e-001 102 82 68
6.425926e+000 -3.105647e+000 1.675278e-002 51 42 38
8.905604e+000 -3.052211e+000 -7.255283e-001 169 156 121
8.903009e+000 -3.052110e+000 -7.230194e-001 169 156 121
6.341036e+000 -3.243013e+000 2.876693e-003 52 47 44
6.211539e+000 -3.792766e+000 3.744568e-001 74 63 69
8.957795e+000 -2.358474e+000 -7.081103e-001 187 172 115
8.146912e+000 -3.622089e+000 -3.331506e-001 121 102 88
6.201256e+000 -3.282861e+000 -4.340701e-002 101 97 88
7.381683e+000 -4.047446e+000 -9.693122e-001 175 149 99
7.280844e+000 -2.551259e+000 -1.295116e+000 113 104 109
5.881597e+000 -2.760252e+000 -2.000349e-001 96 80 83
7.236978e+000 -2.820830e+000 -1.055302e+000 68 56 56
7.236978e+000 -2.820830e+000 -1.055302e+000 68 56 56
6.141017e+000 -2.998655e+000 -9.488555e-002 101 99 86
6.276280e+000 -2.933091e+000 -3.670648e-002 143 141 126
8.011948e+000 -2.871705e+000 -9.992187e-001 95 79 64
6.063332e+000 -3.026000e+000 -1.877919e-001 140 138 123
6.339188e+000 -3.041795e+000 5.975197e-002 113 107 95
6.516447e+000 -2.999703e+000 3.162456e-002 48 38 29
5.639277e+000 -3.253794e+000 -6.562044e-001 85 81 69
6.166264e+000 -3.166270e+000 -1.874709e-002 103 94 85
6.244126e+000 -3.185270e+000 -2.536157e-002 124 122 108
6.318044e+000 -3.155200e+000 -2.934352e-003 88 88 77
6.382890e+000 -3.127810e+000 1.013914e-002 82 78 67
6.446319e+000 -3.116266e+000 3.067465e-002 84 73 67
6.202652e+000 -3.208750e+000 -1.955173e-002 80 71 69
6.283437e+000 -3.218616e+000 8.353578e-003 96 90 78
6.397370e+000 -3.205201e+000 2.103204e-002 119 116 109
8.913397e+000 -3.108058e+000 -7.830995e-001 128 120 88
8.086063e+000 -3.249581e+000 -2.133751e-001 163 173 172
9.138774e+000 -3.207427e+000 -3.436635e-001 159 139 88
6.747524e+000 -3.403284e+000 4.265153e-003 61 41 30
7.884811e+000 -3.400066e+000 -4.294600e-001 115 117 117
6.661400e+000 -3.548120e+000 1.997164e-001 65 49 34
5.580039e+000 -2.574255e+000 -4.998027e-001 65 49 62
6.512533e+000 -2.695273e+000 -2.996453e-001 66 53 47
7.038256e+000 -2.562911e+000 -9.198531e-001 172 136 114
7.293563e+000 -2.533102e+000 -1.297917e+000 70 59 60
7.739779e+000 -2.645988e+000 -8.539357e-001 65 43 30
7.739779e+000 -2.645988e+000 -8.539357e-001 65 43 30
6.368147e+000 -2.799622e+000 -2.449723e-001 107 99 87
6.364542e+000 -2.839046e+000 -1.458240e-001 72 65 60
6.434006e+000 -2.830653e+000 -1.112019e-001 98 85 70
8.054410e+000 -2.664789e+000 -1.022755e+000 134 128 110
6.160634e+000 -2.887505e+000 -2.312406e-001 132 125 115
6.212354e+000 -2.921595e+000 -7.871683e-002 89 80 71
6.331232e+000 -2.890910e+000 -7.647355e-002 74 68 68
6.408866e+000 -2.928035e+000 -1.878464e-002 68 53 46
6.012284e+000 -3.031250e+000 -2.228912e-001 141 134 126
8.109167e+000 -2.894636e+000 -9.299472e-001 85 75 64
8.068232e+000 -2.892897e+000 -6.563129e-001 79 71 60
6.192583e+000 -3.094033e+000 -3.083114e-002 130 128 115
6.360639e+000 -3.098279e+000 1.323579e-002 85 79 65
5.674193e+000 -3.226670e+000 -5.710260e-001 154 150 141
6.159792e+000 -3.153448e+000 -4.112117e-002 156 157 146
6.144480e+000 -3.229131e+000 -4.993896e-002 146 147 132
6.283290e+000 -3.233851e+000 -2.031254e-004 125 123 110
6.522332e+000 -3.191933e+000 2.121128e-002 97 91 81
6.504558e+000 -3.265830e+000 4.766602e-002 66 57 50
7.896782e+000 -3.284080e+000 -6.925042e-001 135 140 138
8.365328e+000 -3.201066e+000 -3.514723e-001 128 110 95
8.365328e+000 -3.201066e+000 -3.514723e-001 128 110 95
8.375871e+000 -3.199854e+000 -3.198721e-001 58 44 31
6.388028e+000 -3.320839e+000 3.351451e-002 32 25 19
6.388028e+000 -3.320839e+000 3.351451e-002 32 25 19
8.045862e+000 -3.298052e+000 -2.361107e-001 183 196 196
6.850730e+000 -3.367973e+000 8.611859e-003 58 39 25
7.435712e+000 -3.407527e+000 -5.623449e-001 50 35 29
7.803638e+000 -3.562866e+000 -7.094277e-001 43 30 21
7.863599e+000 -3.563959e+000 -4.663183e-001 136 141 131
7.862281e+000 -3.569502e+000 -4.047459e-001 90 81 72
5.914541e+000 -3.560683e+000 2.790386e-001 62 56 64
7.660458e+000 -3.711868e+000 -7.869588e-001 73 60 52
5.880266e+000 -3.647480e+000 3.407669e-001 29 18 24
6.952394e+000 -3.754938e+000 -4.129777e-001 58 35 21
7.636283e+000 -3.727507e+000 -7.037890e-001 50 35 30
6.219618e+000 -3.669175e+000 3.327193e-001 34 24 32
6.154905e+000 -3.768087e+000 3.673056e-001 27 20 28
7.665659e+000 -2.462475e+000 -7.945304e-001 100 81 66
7.019876e+000 -2.546227e+000 -9.444412e-001 114 78 64
6.351969e+000 -2.853037e+000 -1.484827e-001 97 93 80
6.396327e+000 -2.787427e+000 -2.102601e-001 76 67 52
6.665563e+000 -2.772463e+000 -3.096655e-001 28 18 17
7.716305e+000 -2.691034e+000 -7.611546e-001 89 70 55
6.070192e+000 -2.895868e+000 -2.608165e-001 138 131 123
6.143501e+000 -2.911542e+000 -1.922217e-001 85 78 70
6.177128e+000 -2.914832e+000 -1.777789e-001 142 140 128
6.177128e+000 -2.914832e+000 -1.777789e-001 142 140 128
6.200995e+000 -2.866194e+000 -1.963549e-001 93 84 76
6.287703e+000 -2.910630e+000 -3.076986e-002 143 148 131
6.424594e+000 -2.853912e+000 -4.160363e-002 98 88 75
6.451721e+000 -2.873332e+000 -3.599777e-002 137 141 124
6.450601e+000 -2.873357e+000 -5.012602e-002 137 141 124
7.754585e+000 -2.801341e+000 -7.479024e-001 65 47 33
6.301848e+000 -2.975408e+000 8.357087e-003 97 90 80
6.393166e+000 -2.921691e+000 -2.605526e-002 84 76 65
6.393166e+000 -2.921691e+000 -2.605526e-002 84 76 65
7.281445e+000 -2.890732e+000 -5.768919e-001 62 44 42
5.963990e+000 -3.049804e+000 -2.393443e-001 142 142 130
6.142489e+000 -3.025475e+000 -8.789221e-002 107 104 88
6.294111e+000 -3.035953e+000 -2.070937e-002 97 94 79
6.484420e+000 -2.992262e+000 9.493340e-004 55 45 35
6.873258e+000 -3.018142e+000 -3.377346e-001 40 20 16
6.898554e+000 -3.023093e+000 -3.957337e-001 73 46 35
7.224850e+000 -2.959190e+000 -7.424521e-001 38 24 23
7.700381e+000 -2.935902e+000 -6.617936e-001 66 49 38
8.174857e+000 -2.962728e+000 -1.001897e+000 60 42 34
5.770900e+000 -3.138373e+000 -4.135759e-001 131 125 119
6.356747e+000 -3.083028e+000 1.096820e-002 151 149 136
6.274162e+000 -3.136992e+000 -3.561558e-002 104 98 85
6.393028e+000 -3.137350e+000 1.654926e-002 143 143 134
6.394370e+000 -3.137046e+000 1.775765e-002 143 143 134
6.426355e+000 -3.176415e+000 2.905083e-003 138 136 124
8.315897e+000 -3.126809e+000 -1.049578e+000 58 41 30
5.833256e+000 -3.264188e+000 -3.505733e-001 238 255 254
5.833256e+000 -3.264188e+000 -3.505733e-001 238 255 254
6.525556e+000 -3.230664e+000 3.896592e-002 81 73 60
6.687159e+000 -3.225544e+000 9.947845e-003 46 28 26
6.210711e+000 -3.269758e+000 -3.615392e-002 137 138 122
6.242530e+000 -3.260946e+000 -1.333156e-002 91 87 75
6.253540e+000 -3.300511e+000 -1.397124e-002 56 51 48
6.400536e+000 -3.270996e+000 3.755811e-002 67 58 49
6.442038e+000 -3.357828e+000 6.804692e-002 66 57 49
6.632066e+000 -3.301776e+000 4.180719e-002 114 105 97
6.641345e+000 -3.330064e+000 6.484457e-002 118 111 105
6.641345e+000 -3.330064e+000 6.484457e-002 118 111 105
7.276673e+000 -3.367407e+000 -6.488461e-001 47 32 29
7.534751e+000 -3.356927e+000 -6.691576e-001 51 33 29
7.883443e+000 -3.309886e+000 -6.289822e-001 131 136 132
7.943464e+000 -3.301290e+000 -3.360547e-001 117 113 101
6.387219e+000 -3.382683e+000 6.039076e-002 56 46 43
6.373256e+000 -3.392745e+000 7.531416e-002 43 33 31
6.570253e+000 -3.421718e+000 5.588375e-002 75 60 55
6.838964e+000 -3.362859e+000 -3.277700e-002 87 64 49
6.839108e+000 -3.363905e+000 -4.009451e-002 87 64 49
7.843053e+000 -3.498406e+000 -7.194933e-001 80 67 61
7.284205e+000 -3.634568e+000 -6.825043e-001 82 66 55
7.458951e+000 -3.747138e+000 -8.492958e-001 78 57 52
7.596637e+000 -3.686246e+000 -6.543444e-001 42 29 23
7.584905e+000 -3.729874e+000 -7.525115e-001 46 31 27
7.657702e+000 -3.708146e+000 -6.999743e-001 46 33 27
6.162439e+000 -3.631643e+000 2.753944e-001 38 28 29
7.868202e+000 -3.747883e+000 -6.743815e-001 38 27 25
5.957736e+000 -3.721944e+000 3.073628e-001 32 19 26
6.187934e+000 -3.692683e+000 3.054976e-001 26 16 23
7.665626e+000 -3.909639e+000 -8.147192e-001 52 37 32
6.173363e+000 -3.708312e+000 3.679368e-001 31 21 26
6.222048e+000 -3.758261e+000 3.181963e-001 66 54 58
7.559679e+000 -3.998974e+000 -1.061573e+000 82 60 36
6.188680e+000 -3.830788e+000 3.789298e-001 77 67 75
6.188680e+000 -3.830788e+000 3.789298e-001 77 67 75
6.171793e+000 -3.905145e+000 3.936288e-001 41 28 35
6.102451e+000 -4.042893e+000 3.751674e-001 81 69 70
6.102451e+000 -4.042893e+000 3.751674e-001 81 69 70
6.868154e+000 -4.184283e+000 1.194810e-001 161 143 98
8.984777e+000 -2.186397e+000 -7.636706e-001 158 141 89
7.333854e+000 -2.358369e+000 -8.531482e-001 111 106 100
7.714494e+000 -2.453679e+000 -9.288091e-001 73 51 37
7.286239e+000 -2.581409e+000 -1.265215e+000 56 47 52
6.161377e+000 -2.773985e+000 -3.221063e-001 45 36 37
6.465641e+000 -2.773500e+000 -2.136792e-001 130 124 112
7.767667e+000 -2.642046e+000 -8.673977e-001 95 74 56
6.202819e+000 -2.802357e+000 -2.726110e-001 87 81 73
6.381102e+000 -2.822693e+000 -1.800472e-001 76 72 61
6.417487e+000 -2.828923e+000 -9.032189e-002 124 121 106
7.278218e+000 -2.740803e+000 -6.856420e-001 155 170 164
7.278218e+000 -2.740803e+000 -6.856420e-001 155 170 164
6.257438e+000 -2.899352e+000 -6.638028e-002 73 70 58
6.406101e+000 -2.870086e+000 -4.588690e-002 124 118 102
7.466400e+000 -2.796839e+000 -6.267448e-001 69 55 46
6.029007e+000 -2.961218e+000 -2.141448e-001 95 89 77
6.120297e+000 -2.962097e+000 -1.749255e-001 85 79 65
6.194277e+000 -2.958951e+000 -1.081806e-001 136 131 119
6.699598e+000 -2.947509e+000 -1.357468e-001 76 57 47
7.466879e+000 -2.864482e+000 -6.169270e-001 87 75 63
7.636136e+000 -2.882630e+000 -6.680767e-001 67 49 35
6.083154e+000 -3.012257e+000 -1.916786e-001 81 78 63
6.167728e+000 -3.011238e+000 -8.235470e-002 143 144 130
6.206497e+000 -3.010544e+000 -2.812652e-002 98 88 78
6.190700e+000 -3.054335e+000 -5.928255e-002 158 155 145
6.414738e+000 -3.042210e+000 1.584575e-002 125 119 107
6.457009e+000 -3.037363e+000 1.172067e-002 64 50 43
6.526748e+000 -3.011887e+000 -9.934314e-003 88 77 71
6.642221e+000 -2.996341e+000 -5.236370e-002 41 31 24
6.781940e+000 -3.029108e+000 -1.555779e-001 51 34 28
7.514054e+000 -2.955516e+000 -5.856165e-001 67 50 43
8.078296e+000 -2.928869e+000 -9.361404e-001 89 75 62
8.114752e+000 -2.935801e+000 -9.434577e-001 51 34 30
5.698126e+000 -3.153324e+000 -5.606067e-001 101 93 88
5.821928e+000 -3.093608e+000 -4.091781e-001 96 82 72
6.062055e+000 -3.091281e+000 -1.231749e-001 142 133 124
6.382907e+000 -3.054139e+000 -1.286227e-002 73 60 54
6.451347e+000 -3.067315e+000 6.580167e-003 126 121 112
6.011414e+000 -3.158548e+000 -1.281593e-001 141 138 130
6.219309e+000 -3.187479e+000 -2.850920e-002 147 144 129
7.490761e+000 -3.104884e+000 -5.568980e-001 60 43 36
7.517455e+000 -3.108016e+000 -5.352347e-001 89 72 65
7.592071e+000 -3.129937e+000 -6.630182e-001 86 71 64
8.295740e+000 -3.109791e+000 -1.052174e+000 82 66 50
6.502945e+000 -3.224510e+000 4.607473e-002 72 59 51
7.963580e+000 -3.174879e+000 -3.999601e-001 106 93 77
6.177986e+000 -3.265963e+000 -5.068017e-002 135 130 123
6.702922e+000 -3.243836e+000 6.043732e-004 84 65 58
6.370993e+000 -3.371266e+000 6.091451e-002 79 68 66
7.925223e+000 -3.294199e+000 -3.533431e-001 160 164 160
8.051157e+000 -3.276949e+000 -2.486689e-001 112 108 109
7.893496e+000 -3.356954e+000 -4.444192e-001 183 203 202
7.928968e+000 -3.370081e+000 -3.145656e-001 122 113 111
7.903020e+000 -3.524367e+000 -6.787973e-001 70 63 57
7.629908e+000 -3.627152e+000 -7.049711e-001 48 33 28
7.884080e+000 -3.536520e+000 -4.470789e-001 108 91 81
7.884080e+000 -3.536520e+000 -4.470789e-001 108 91 81
8.022010e+000 -3.637021e+000 -3.869477e-001 88 69 54
7.960401e+000 -3.756966e+000 -4.650796e-001 80 64 49
7.841673e+000 -3.967140e+000 -6.487556e-001 62 44 38
6.907375e+000 -4.143291e+000 -1.802419e-002 87 55 46
6.438431e+000 -4.200959e+000 2.500439e-001 36 22 24
6.396853e+000 -2.658867e+000 -3.336754e-001 55 45 43
6.552865e+000 -2.659540e+000 -3.409613e-001 59 41 39
7.340232e+000 -2.584436e+000 -8.292393e-001 109 106 97
6.430401e+000 -2.756412e+000 -2.425970e-001 59 46 37
6.634465e+000 -2.749413e+000 -2.846896e-001 88 71 55
6.123504e+000 -2.934653e+000 -1.818607e-001 154 149 135
6.653476e+000 -2.895277e+000 -1.346864e-001 79 57 44
8.711961e+000 -2.727630e+000 -1.104975e+000 141 123 73
6.041570e+000 -3.036292e+000 -1.784565e-001 152 144 135
6.242165e+000 -3.005920e+000 -3.028648e-002 152 152 140
6.331338e+000 -3.110862e+000 9.382226e-003 81 73 62
6.552351e+000 -3.043899e+000 -1.127940e-002 84 73 67
6.552351e+000 -3.043899e+000 -1.127940e-002 84 73 67
6.546271e+000 -3.070278e+000 -2.584356e-003 62 52 43
6.065577e+000 -3.203747e+000 -8.415629e-002 79 68 63
6.603058e+000 -3.110714e+000 -1.441144e-003 101 93 82
6.596593e+000 -3.186502e+000 2.913155e-002 87 80 74
6.315118e+000 -3.283977e+000 1.192665e-002 94 85 76
6.659544e+000 -3.261825e+000 6.424805e-002 74 59 52
7.272011e+000 -3.253928e+000 -7.002281e-001 37 24 18
7.271890e+000 -3.253405e+000 -7.086228e-001 37 24 18
7.895077e+000 -3.300511e+000 -4.868500e-001 184 205 203
7.224085e+000 -3.657225e+000 -7.870944e-001 86 62 50
9.144792e+000 -3.640271e+000 -3.835548e-001 153 135 87
6.180251e+000 -3.699241e+000 3.427024e-001 58 49 53
5.966189e+000 -3.826778e+000 3.692026e-001 46 31 38
5.968880e+000 -3.869566e+000 2.990035e-001 77 64 69
6.982867e+000 -3.999255e+000 -3.120695e-001 157 130 84
6.749262e+000 -4.193746e+000 -2.685579e-001 74 50 37
6.979044e+000 -4.158536e+000 6.105190e-002 166 143 93
8.765864e+000 -2.356415e+000 -1.028950e+000 157 137 87
7.925192e+000 -2.578624e+000 -9.828087e-001 99 81 61
7.921353e+000 -2.579720e+000 -9.630172e-001 99 81 61
8.862431e+000 -2.528090e+000 -9.711031e-001 176 161 101
6.431568e+000 -2.785118e+000 -2.034511e-001 67 57 45
5.646540e+000 -3.102393e+000 -6.220743e-001 77 64 90
5.998375e+000 -3.011267e+000 -2.272506e-001 83 74 67
6.238802e+000 -3.073052e+000 -4.624022e-003 143 142 133
6.257456e+000 -3.121287e+000 8.403459e-003 158 159 145
6.254845e+000 -3.122453e+000 -1.212968e-003 158 159 145
6.336577e+000 -3.082012e+000 1.470039e-002 142 141 129
6.510929e+000 -3.048645e+000 7.908403e-003 42 31 29
8.176150e+000 -3.080249e+000 -8.940672e-001 108 90 70
6.058388e+000 -3.240780e+000 -7.095504e-002 144 140 131
6.199615e+000 -3.230694e+000 -4.366034e-002 39 33 27
6.459263e+000 -3.202952e+000 3.685511e-002 149 146 134
6.145257e+000 -3.270026e+000 -5.415572e-002 57 48 45
6.145257e+000 -3.270026e+000 -5.415572e-002 57 48 45
6.541997e+000 -3.254822e+000 5.499122e-002 45 39 34
8.312065e+000 -3.224670e+000 -3.366232e-001 108 87 60
6.446672e+000 -3.410578e+000 6.977578e-002 43 32 36
6.513257e+000 -3.373495e+000 6.993587e-002 43 34 29
6.387402e+000 -3.429211e+000 1.402022e-001 40 28 27
6.987550e+000 -3.483632e+000 -3.022196e-001 90 59 37
7.199659e+000 -3.692550e+000 -6.239629e-001 91 66 51
7.733537e+000 -3.849448e+000 -6.873075e-001 76 62 55
6.950632e+000 -3.827621e+000 -2.505867e-001 58 30 26
8.164336e+000 -3.847725e+000 -5.490617e-001 109 88 64
6.158919e+000 -3.821241e+000 3.015871e-001 39 26 35
8.146524e+000 -4.931565e+000 -1.948505e+000 156 129 86
8.134788e+000 -4.912994e+000 -1.900403e+000 156 129 86
5.726630e+000 -2.499238e+000 -3.154934e-001 55 37 49
6.020939e+000 -2.485611e+000 -1.378458e-001 45 29 39
6.357550e+000 -2.651574e+000 -3.905502e-001 46 35 31
7.998326e+000 -3.081068e+000 -7.544387e-001 45 33 32
8.393033e+000 -3.238535e+000 -3.627881e-001 128 118 100
6.318196e+000 -3.494570e+000 2.505278e-001 43 28 33
6.783125e+000 -3.616408e+000 9.069744e-002 33 20 14
6.898971e+000 -2.310011e+000 -1.025951e+000 140 121 88
5.816549e+000 -2.612573e+000 -1.886528e-001 53 36 44
7.264404e+000 -2.567791e+000 -1.291458e+000 62 51 57
7.264404e+000 -2.567791e+000 -1.291458e+000 62 51 57
6.324679e+000 -2.877597e+000 -8.177002e-002 36 32 29
6.303683e+000 -2.935882e+000 -3.181917e-002 133 134 120
5.943431e+000 -3.147896e+000 -2.664045e-001 41 31 39
5.957856e+000 -3.220691e+000 -1.786573e-001 126 126 118
6.068147e+000 -3.306239e+000 -3.776687e-002 47 33 33
8.100017e+000 -3.245668e+000 -2.553514e-001 185 196 197
9.085058e+000 -3.667781e+000 -3.779728e-001 153 137 88
6.764703e+000 -4.181998e+000 -1.228170e-001 143 118 77
6.801327e+000 -2.742940e+000 -5.316374e-001 134 110 84
6.778003e+000 -3.070781e+000 -5.925770e-002 79 60 44
6.824096e+000 -3.164321e+000 -4.160949e-002 80 58 42
7.996097e+000 -3.553817e+000 -3.743845e-001 135 128 118
7.597541e+000 -3.796586e+000 -7.839062e-001 82 59 51
8.080372e+000 -3.632944e+000 -3.709671e-001 92 74 59
5.994177e+000 -3.935123e+000 1.978688e-001 72 55 64
5.928486e+000 -3.933741e+000 2.961846e-001 40 25 32
7.854925e+000 -3.405197e+000 -6.684204e-001 64 51 42
6.802896e+000 -3.479433e+000 -6.939021e-002 32 21 19
8.161996e+000 -3.731253e+000 -4.361168e-001 118 98 73
8.770847e+000 -4.018105e+000 -1.042117e+000 129 111 73
7.381056e+000 -2.818884e+000 -6.147311e-001 72 59 49
5.885953e+000 -3.597940e+000 2.945549e-001 37 26 32
7.244282e+000 -3.716834e+000 -8.107020e-001 59 38 33
6.418618e+000 -3.205679e+000 1.434064e-002 49 46 41
7.950841e+000 -3.111990e+000 -5.593454e-001 62 51 45
6.005981e+000 -3.810735e+000 8.211374e-002 38 23 28
7.484723e+000 -3.860965e+000 -9.599064e-001 45 30 28
7.451984e+000 -2.372261e+000 -1.009723e+000 91 78 64
7.451984e+000 -2.372261e+000 -1.009723e+000 91 78 64
9.026613e+000 -3.233232e+000 -5.969735e-001 179 166 111
8.342938e+000 -2.939991e+000 -8.325489e-001 53 33 24
6.508346e+000 -3.082369e+000 3.741012e-003 93 86 78
7.634186e+000 -3.060460e+000 -5.541907e-001 113 104 97
6.196212e+000 -3.266948e+000 -2.775602e-002 100 89 83
8.731856e+000 -2.357317e+000 -1.079579e+000 179 163 111
7.693631e+000 -2.472363e+000 -9.156584e-001 104 87 69
7.654482e+000 -2.639149e+000 -7.645962e-001 99 82 62
7.292393e+000 -2.812342e+000 -6.139759e-001 87 80 70
8.890583e+000 -3.039573e+000 -7.748912e-001 176 159 116
6.690595e+000 -3.378964e+000 3.593555e-002 87 74 66
6.435132e+000 -3.053663e+000 1.231905e-002 64 50 42
6.435107e+000 -3.053539e+000 1.321972e-002 64 50 42
7.836627e+000 -3.092592e+000 -6.385749e-001 87 71 58
7.857849e+000 -3.065607e+000 -6.343646e-001 56 42 26
7.992139e+000 -3.203028e+000 -3.299531e-001 143 137 125
6.212071e+000 -3.268737e+000 -2.870227e-002 130 126 116
7.811167e+000 -3.494839e+000 -6.986444e-001 49 31 27
7.517816e+000 -3.178825e+000 -6.015849e-001 48 30 25
7.548412e+000 -3.194582e+000 -6.180889e-001 73 55 49
7.769969e+000 -3.774467e+000 -6.766847e-001 48 33 30
8.174032e+000 -2.954505e+000 -8.656944e-001 59 27 33
8.317447e+000 -3.104770e+000 -1.040611e+000 83 69 57
6.689636e+000 -3.357039e+000 3.968399e-002 93 78 74
8.086973e+000 -3.366863e+000 -2.190105e-001 160 165 157
7.951275e+000 -3.577410e+000 -3.790483e-001 105 89 81
6.455502e+000 -2.687773e+000 -3.021134e-001 40 27 21
7.836188e+000 -2.597040e+000 -9.228008e-001 69 48 30
7.831358e+000 -2.673956e+000 -8.613813e-001 92 75 59
8.842208e+000 -3.092922e+000 -9.272904e-001 143 126 72
6.092442e+000 -3.226439e+000 -5.982918e-002 91 84 77
6.282503e+000 -3.234184e+000 -4.450878e-004 125 123 110
7.657733e+000 -3.662893e+000 -7.110641e-001 53 35 31
7.333237e+000 -2.746307e+000 -6.479538e-001 97 89 76
7.333237e+000 -2.746307e+000 -6.479538e-001 97 89 76
7.712882e+000 -2.812450e+000 -7.239120e-001 63 45 32
8.169583e+000 -2.931210e+000 -9.235361e-001 131 117 101
8.030366e+000 -3.064918e+000 -7.719285e-001 51 34 27
8.340506e+000 -3.201106e+000 -3.356024e-001 57 36 25
7.526571e+000 -3.565601e+000 -7.037122e-001 69 54 47
7.328580e+000 -3.715058e+000 -7.262039e-001 66 47 32
7.793912e+000 -3.768702e+000 -6.440493e-001 70 55 52
6.434623e+000 -2.883510e+000 -2.969977e-002 75 61 52
7.429112e+000 -2.918357e+000 -5.947310e-001 85 72 63
6.556281e+000 -2.981641e+000 -9.491836e-003 90 74 64
8.051810e+000 -3.592341e+000 -3.482015e-001 103 85 66
8.896979e+000 -2.177636e+000 -7.813280e-001 163 146 93
8.837817e+000 -2.255273e+000 -9.118753e-001 157 144 91
9.050120e+000 -2.251641e+000 -5.369675e-001 188 175 124
6.292601e+000 -2.764753e+000 -2.851145e-001 128 124 112
7.332942e+000 -2.649069e+000 -7.084675e-001 103 96 88
7.313794e+000 -2.163108e+000 -1.024837e+000 129 122 115
7.946109e+000 -2.795812e+000 -8.742302e-001 70 51 34
7.976486e+000 -2.922437e+000 -8.518439e-001 59 41 30
6.471325e+000 -3.143869e+000 1.716013e-002 87 75 66
6.209304e+000 -3.288855e+000 -3.830988e-002 92 89 80
7.987514e+000 -3.219058e+000 -3.461466e-001 155 146 143
6.539439e+000 -3.383692e+000 5.908204e-002 59 46 40
5.964330e+000 -2.575165e+000 -7.521227e-002 77 64 73
6.360738e+000 -2.727811e+000 -2.698768e-001 83 74 67
7.819715e+000 -2.628382e+000 -8.878998e-001 100 81 64
7.910118e+000 -2.833718e+000 -8.018228e-001 63 44 28
6.474280e+000 -2.954450e+000 5.541663e-003 73 58 53
6.564091e+000 -3.041241e+000 -9.496360e-003 87 80 70
6.201229e+000 -3.176804e+000 -2.562895e-002 110 107 95
6.340246e+000 -3.126487e+000 3.582525e-003 108 102 88
6.402468e+000 -3.100373e+000 1.654194e-002 110 101 91
6.716017e+000 -3.062689e+000 -4.884790e-002 41 26 22
5.834737e+000 -3.263924e+000 -1.598710e-001 51 50 57
6.350981e+000 -3.213519e+000 9.255048e-003 122 124 113
6.441228e+000 -3.185385e+000 2.834083e-002 98 91 82
6.277909e+000 -3.313561e+000 -1.562461e-002 53 46 40
6.559228e+000 -3.283170e+000 4.957814e-002 84 71 65
7.833257e+000 -3.298200e+000 -6.704704e-001 56 41 38
7.896890e+000 -3.261181e+000 -5.402014e-001 177 195 194
6.456358e+000 -3.350911e+000 5.971823e-002 78 70 63
7.446095e+000 -3.423917e+000 -6.516835e-001 56 37 30
7.422171e+000 -3.800292e+000 -8.995239e-001 45 28 21
7.626789e+000 -2.420295e+000 -8.835713e-001 97 81 65
7.591793e+000 -2.479298e+000 -8.466850e-001 102 84 72
7.618533e+000 -2.468673e+000 -8.810076e-001 72 54 44
7.618533e+000 -2.468673e+000 -8.810076e-001 72 54 44
7.733187e+000 -2.691758e+000 -8.449986e-001 94 74 63
6.036183e+000 -2.981443e+000 -1.803405e-001 153 153 139
6.035407e+000 -2.981953e+000 -1.835923e-001 153 153 139
7.774339e+000 -2.796941e+000 -7.436373e-001 94 77 67
6.576272e+000 -3.052928e+000 -1.557042e-002 57 46 40
6.509988e+000 -3.100050e+000 1.056036e-002 75 67 61
6.455306e+000 -3.166036e+000 1.934531e-002 120 114 102
7.508958e+000 -3.213006e+000 -6.712096e-001 73 58 53
7.700862e+000 -3.291081e+000 -6.494788e-001 74 60 57
7.717206e+000 -3.309403e+000 -6.410296e-001 50 40 35
8.020922e+000 -3.191182e+000 -3.481325e-001 139 130 125
7.465866e+000 -3.416707e+000 -6.409038e-001 77 60 53
6.423197e+000 -3.437910e+000 8.199812e-002 62 55 50
7.864798e+000 -3.503193e+000 -7.154617e-001 63 48 43
8.006942e+000 -3.664334e+000 -4.097816e-001 90 72 63
6.906101e+000 -4.102611e+000 2.182970e-002 77 48 36
6.864887e+000 -2.318369e+000 -8.103461e-001 167 145 115
8.675784e+000 -2.464496e+000 -1.176869e+000 146 128 80
6.226626e+000 -2.860251e+000 -2.095309e-001 93 94 86
6.095621e+000 -3.091548e+000 -8.937657e-002 85 82 77
7.486383e+000 -3.169029e+000 -5.811158e-001 71 56 51
6.014040e+000 -3.280037e+000 -8.997377e-002 104 99 96
6.489978e+000 -3.253313e+000 5.220678e-002 107 104 97
7.878687e+000 -3.223408e+000 -7.064179e-001 53 39 36
7.580500e+000 -3.315835e+000 -6.211422e-001 50 33 26
8.161355e+000 -3.154664e+000 -2.568011e-001 120 101 80
6.436053e+000 -3.383903e+000 6.712740e-002 83 74 66
6.568059e+000 -3.349735e+000 5.736554e-002 57 44 38
6.511275e+000 -3.420760e+000 7.893312e-002 51 42 33
5.900495e+000 -3.529885e+000 2.949851e-001 30 18 32
7.912941e+000 -3.481305e+000 -3.840006e-001 101 92 83
7.628465e+000 -3.627983e+000 -7.064722e-001 48 33 30
6.765171e+000 -4.380531e+000 3.606338e-002 158 140 95
8.651875e+000 -2.491610e+000 -1.211622e+000 148 132 81
7.607233e+000 -2.651157e+000 -7.656947e-001 85 69 54
6.054343e+000 -2.934369e+000 -1.976377e-001 151 148 136
8.094348e+000 -2.685147e+000 -9.441631e-001 60 43 35
6.064655e+000 -3.202696e+000 -7.744088e-002 75 65 63
8.072691e+000 -3.193545e+000 -2.320680e-001 105 97 93
7.308189e+000 -3.746098e+000 -6.757672e-001 100 78 64
8.638026e+000 -4.866983e+000 -1.084186e+000 156 136 83
6.232733e+000 -2.829411e+000 -2.296776e-001 136 137 129
8.739909e+000 -2.692577e+000 -1.049621e+000 143 126 75
6.709321e+000 -3.053247e+000 -6.862437e-002 44 30 28
6.009720e+000 -3.242119e+000 -1.099468e-001 58 49 42
6.658860e+000 -3.424171e+000 4.998840e-002 34 23 14
6.339816e+000 -3.241688e+000 1.079842e-002 45 38 34
6.305904e+000 -3.375219e+000 3.337392e-002 29 19 19
6.570034e+000 -3.462643e+000 7.028413e-002 35 23 21
7.255574e+000 -3.654597e+000 -7.187152e-001 48 30 26
7.226980e+000 -3.877141e+000 -9.548144e-001 159 141 100
6.424914e+000 -2.851689e+000 -5.996818e-002 114 105 96
6.659934e+000 -2.936256e+000 -8.610393e-002 71 52 38
7.793594e+000 -2.554793e+000 -1.005140e+000 101 82 65
6.087012e+000 -4.007421e+000 3.415192e-001 47 30 38
8.886258e+000 -3.037707e+000 -7.630540e-001 167 158 117
6.351577e+000 -3.213840e+000 2.572122e-003 125 121 110
7.402102e+000 -2.501535e+000 -7.912246e-001 74 58 43
7.556359e+000 -2.664515e+000 -7.743796e-001 97 80 66
7.716998e+000 -2.642291e+000 -8.508231e-001 97 78 63
7.430348e+000 -2.762276e+000 -6.535497e-001 97 83 72
6.402547e+000 -3.098994e+000 2.032399e-002 108 94 86
7.812252e+000 -3.075299e+000 -6.269672e-001 67 51 38
7.507113e+000 -3.148243e+000 -5.904930e-001 57 37 37
7.900520e+000 -3.469090e+000 -4.090376e-001 150 151 153
7.769562e+000 -4.078919e+000 -7.928418e-001 173 152 99
8.834127e+000 -2.256001e+000 -9.073040e-001 157 144 91
7.662503e+000 -2.570212e+000 -8.101969e-001 78 60 47
8.157500e+000 -2.889908e+000 -8.481482e-001 65 38 33
6.574460e+000 -3.081197e+000 -3.461448e-003 89 80 71
7.805394e+000 -2.640610e+000 -8.848200e-001 60 41 24
7.864898e+000 -2.789138e+000 -8.281092e-001 64 46 32
7.962529e+000 -2.858100e+000 -9.262018e-001 97 83 56
7.460981e+000 -3.156966e+000 -5.980550e-001 49 31 30
6.198738e+000 -3.311032e+000 -4.458281e-002 116 110 104
7.556413e+000 -3.237608e+000 -6.195428e-001 80 65 58
7.652592e+000 -2.501653e+000 -8.813434e-001 101 82 70
8.021096e+000 -2.644124e+000 -9.784793e-001 108 91 81
6.440403e+000 -2.923256e+000 -1.285426e-002 63 50 41
7.369114e+000 -2.932751e+000 -5.906832e-001 80 69 65
6.591209e+000 -3.064562e+000 -1.594282e-002 100 91 82
8.899667e+000 -3.174947e+000 -7.721001e-001 127 113 87
7.488287e+000 -3.387022e+000 -6.669057e-001 74 58 51
7.833189e+000 -3.465879e+000 -6.987975e-001 54 36 32
7.891552e+000 -3.584494e+000 -4.448431e-001 105 88 81
7.636333e+000 -3.728424e+000 -7.043743e-001 51 36 31
7.428174e+000 -2.412137e+000 -8.378043e-001 78 64 52
7.414366e+000 -2.443939e+000 -8.261463e-001 99 86 77
6.453884e+000 -2.688347e+000 -3.117908e-001 43 29 26
7.537329e+000 -2.952317e+000 -5.799965e-001 94 79 72
6.678338e+000 -3.126511e+000 -6.930303e-003 69 55 43
6.588795e+000 -3.309314e+000 5.261033e-002 80 71 65
7.894848e+000 -3.513204e+000 -4.161293e-001 99 90 81
7.983906e+000 -3.597733e+000 -3.753459e-001 104 87 80
6.508638e+000 -2.988350e+000 -7.172088e-004 49 36 28
7.620535e+000 -3.231349e+000 -6.125845e-001 39 24 21
7.300408e+000 -3.685486e+000 -7.157032e-001 87 68 56
6.770620e+000 -4.414685e+000 1.073890e-001 172 145 97
6.760647e+000 -2.461843e+000 -8.587302e-001 43 27 27
8.493166e+000 -3.419274e+000 -2.307702e+000 102 88 80
6.551200e+000 -2.637543e+000 -3.831456e-001 78 66 57
6.402054e+000 -2.699365e+000 -3.084274e-001 119 110 105
6.225521e+000 -2.809771e+000 -2.575427e-001 87 84 77
7.139504e+000 -2.754133e+000 -1.229883e+000 113 97 105
6.325557e+000 -2.848193e+000 -1.396557e-001 115 107 106
6.445642e+000 -2.880991e+000 -2.070346e-002 73 61 52
6.324806e+000 -2.944746e+000 8.422485e-003 129 126 114
7.285144e+000 -2.888549e+000 -6.250185e-001 45 32 24
6.226547e+000 -3.022151e+000 -3.289543e-002 98 98 86
6.266497e+000 -3.015640e+000 -1.591528e-002 139 137 127
8.145835e+000 -2.907829e+000 -9.270630e-001 86 76 68
5.566568e+000 -3.418513e+000 -6.984441e-001 117 104 98
6.059124e+000 -3.177446e+000 -9.561440e-002 132 129 124
6.246641e+000 -3.146615e+000 -2.462766e-003 102 94 86
5.916807e+000 -3.317678e+000 -3.389568e-002 123 121 134
6.527025e+000 -3.180128e+000 2.321744e-002 68 63 55
6.527781e+000 -3.187593e+000 3.555533e-002 126 120 106
6.535892e+000 -3.194668e+000 4.534554e-002 66 57 48
6.657796e+000 -3.174490e+000 1.070605e-002 61 45 38
6.580206e+000 -3.236769e+000 3.696231e-002 131 129 123
6.497429e+000 -3.307091e+000 5.423567e-002 61 49 43
6.513207e+000 -3.344411e+000 6.195155e-002 91 84 76
7.444380e+000 -3.364880e+000 -6.419555e-001 57 45 41
7.985484e+000 -3.216181e+000 -3.394796e-001 161 167 160
8.085960e+000 -3.174238e+000 -2.277157e-001 104 93 91
6.458800e+000 -3.409198e+000 8.868933e-002 33 27 25
8.096751e+000 -3.237244e+000 -2.054134e-001 204 212 215
7.224384e+000 -3.645944e+000 -7.039791e-001 77 57 46
8.092449e+000 -3.342005e+000 -1.819650e-001 133 125 113
6.773761e+000 -3.647683e+000 1.782081e-001 113 108 80
7.313677e+000 -2.204686e+000 -1.038996e+000 106 93 89
7.270816e+000 -2.490904e+000 -1.519518e+000 78 63 74
7.241219e+000 -2.527259e+000 -1.444327e+000 77 68 69
7.517276e+000 -2.480567e+000 -8.196031e-001 91 73 61
6.275454e+000 -2.740597e+000 -2.866777e-001 50 41 36
6.400792e+000 -2.747265e+000 -2.578139e-001 66 56 47
7.938481e+000 -2.646048e+000 -9.526492e-001 70 51 30
6.049264e+000 -2.899170e+000 -2.544708e-001 121 118 113
6.165236e+000 -2.872518e+000 -2.064406e-001 99 96 89
6.293069e+000 -2.859918e+000 -1.406078e-001 129 127 117
6.441445e+000 -2.834289e+000 -7.201852e-002 77 67 56
6.541974e+000 -2.830524e+000 -1.593127e-001 77 57 46
6.560886e+000 -2.825642e+000 -1.785366e-001 58 40 30
7.835330e+000 -2.675641e+000 -8.748488e-001 94 75 61
8.045741e+000 -2.663844e+000 -9.777144e-001 119 107 95
8.085741e+000 -2.672006e+000 -1.010204e+000 73 52 47
6.100661e+000 -2.980562e+000 -1.482325e-001 151 152 138
6.424647e+000 -2.849885e+000 -5.846398e-002 84 80 73
7.878997e+000 -2.785459e+000 -8.153737e-001 100 81 66
7.883249e+000 -2.803544e+000 -8.046353e-001 97 78 62
7.883249e+000 -2.803544e+000 -8.046353e-001 97 78 62
6.116646e+000 -3.040246e+000 -1.276026e-001 143 139 134
7.808909e+000 -2.827740e+000 -7.731658e-001 63 46 29
6.210099e+000 -3.034400e+000 -4.731653e-002 141 137 126
6.174181e+000 -3.090859e+000 -5.332800e-002 96 93 73
6.035796e+000 -3.234425e+000 -9.755645e-002 152 154 145
6.425719e+000 -3.155909e+000 1.336810e-002 91 93 81
6.303963e+000 -3.202276e+000 -2.862454e-003 96 85 81
6.599762e+000 -3.153834e+000 1.129107e-002 56 44 38
6.627789e+000 -3.164468e+000 1.011923e-002 88 79 70
6.638339e+000 -3.182672e+000 1.304921e-002 49 39 34
6.638339e+000 -3.182672e+000 1.304921e-002 49 39 34
6.160584e+000 -3.307332e+000 -5.575367e-002 90 87 82
6.499299e+000 -3.282797e+000 5.504103e-002 130 129 119
6.564905e+000 -3.234444e+000 3.768905e-002 52 48 45
6.600071e+000 -3.265065e+000 5.008828e-002 69 56 48
7.330127e+000 -3.322070e+000 -6.715426e-001 38 20 18
6.480082e+000 -3.342359e+000 6.362643e-002 58 46 40
6.489643e+000 -3.323299e+000 5.955181e-002 88 80 72
7.783392e+000 -3.301271e+000 -6.508898e-001 58 46 46
7.859613e+000 -3.301222e+000 -6.964256e-001 81 65 61
6.668947e+000 -3.383703e+000 4.119944e-002 81 67 61
7.856804e+000 -3.436929e+000 -7.111792e-001 63 43 44
