ply
format ascii 1.0
element face 0
property list uchar int vertex_indices
element vertex 888
property float x
property float y
property float z
property uchar diffuse_red
property uchar diffuse_green
property uchar diffuse_blue
end_header
5.517978e+000 -3.625629e+000 -7.116405e-001 136 122 109
5.534715e+000 -3.631304e+000 -7.516100e-001 56 42 33
5.580399e+000 -3.602207e+000 -8.568704e-001 105 95 83
5.580399e+000 -3.602207e+000 -8.568704e-001 105 95 83
5.496890e+000 -3.551787e+000 -8.277523e-001 69 55 52
5.473566e+000 -3.516399e+000 -7.988286e-001 131 122 109
5.461518e+000 -3.496037e+000 -6.757299e-001 163 156 140
5.504357e+000 -3.459728e+000 -8.654132e-001 64 46 46
5.732555e+000 -3.255086e+000 -1.031150e+000 47 30 25
5.576915e+000 -3.189573e+000 -8.337469e-001 141 133 114
5.710136e+000 -3.108530e+000 -6.850666e-001 58 44 42
5.909017e+000 -3.040573e+000 -1.076801e+000 30 18 16
5.747120e+000 -3.036406e+000 -8.357306e-001 125 120 113
7.777248e+000 -2.650928e+000 -3.103824e+000 166 142 94
7.198725e+000 -2.585763e+000 -1.513505e+000 49 35 31
5.648419e+000 -3.710140e+000 -8.555949e-001 224 249 255
5.450463e+000 -3.519831e+000 -7.513388e-001 86 66 55
5.737980e+000 -3.553825e+000 -1.000282e+000 51 40 38
5.677501e+000 -3.540366e+000 -2.556167e-001 159 146 132
6.288641e+000 -3.509821e+000 -1.092907e+000 29 24 20
6.288641e+000 -3.509821e+000 -1.092907e+000 29 24 20
5.719223e+000 -3.408451e+000 -1.728345e-001 34 27 34
5.534072e+000 -3.217231e+000 -8.114557e-001 64 46 42
5.814682e+000 -3.141341e+000 -1.043496e+000 43 29 28
5.654315e+000 -3.130406e+000 -6.473226e-001 141 135 119
5.737603e+000 -3.015414e+000 -6.141879e-001 147 142 128
5.474598e+000 -2.513337e+000 -7.910104e-001 57 44 51
6.569709e+000 -3.915685e+000 -8.543511e-001 49 41 32
5.741996e+000 -3.589896e+000 -7.022656e-002 28 22 26
5.678328e+000 -3.157906e+000 -8.000982e-001 70 55 52
5.667666e+000 -3.156296e+000 -8.086978e-001 70 55 52
7.572826e+000 -2.977386e+000 -3.249050e+000 177 143 107
5.768736e+000 -3.106565e+000 -9.607124e-001 100 92 79
7.091687e+000 -3.061495e+000 -1.952928e+000 90 74 61
7.272493e+000 -2.863739e+000 -1.777986e+000 41 26 23
5.533527e+000 -2.455513e+000 -6.821420e-001 28 15 22
5.533527e+000 -2.455513e+000 -6.821420e-001 28 15 22
7.943436e+000 -4.061557e+000 -2.716492e+000 177 160 106
5.629490e+000 -3.229442e+000 -5.464408e-001 155 149 133
5.668691e+000 -2.984986e+000 -9.945591e-001 45 29 32
7.614689e+000 -2.283672e+000 -1.878839e+000 84 66 53
5.539255e+000 -3.627073e+000 -4.948524e-001 49 40 43
5.510121e+000 -3.360434e+000 -7.623867e-001 131 118 102
7.748174e+000 -3.983652e+000 -3.030231e+000 191 174 120
7.748174e+000 -3.983652e+000 -3.030231e+000 191 174 120
5.531608e+000 -3.682192e+000 -8.171471e-001 73 58 54
5.668039e+000 -3.431595e+000 -4.430826e-001 26 20 22
6.356152e+000 -3.441692e+000 -1.132684e+000 22 16 16
7.361024e+000 -3.042905e+000 -2.161748e+000 61 42 36
5.776418e+000 -2.960344e+000 -9.100413e-001 52 36 37
7.196734e+000 -2.742771e+000 -1.350746e+000 80 60 53
5.538469e+000 -2.705203e+000 -9.646846e-001 69 53 57
5.538469e+000 -2.705203e+000 -9.646846e-001 69 53 57
5.514780e+000 -3.510033e+000 -7.188289e-001 96 74 61
6.328966e+000 -3.213414e+000 -1.141151e+000 80 46 44
5.668844e+000 -3.471792e+000 -9.037709e-001 61 42 37
6.208737e+000 -2.959216e+000 -1.185318e+000 30 15 17
8.424516e+000 -4.477598e+000 -2.255125e+000 174 157 101
7.540638e+000 -2.335959e+000 -1.284339e+000 58 40 36
7.460644e+000 -3.974511e+000 -3.368041e+000 165 145 95
7.235982e+000 -2.821997e+000 -2.021681e+000 81 70 64
7.233252e+000 -2.821798e+000 -2.019497e+000 81 70 64
7.478003e+000 -4.008127e+000 -3.398541e+000 170 149 102
7.684867e+000 -3.486815e+000 -3.166453e+000 176 155 112
5.524080e+000 -3.388831e+000 -9.196005e-001 97 78 63
7.596980e+000 -2.325540e+000 -1.875779e+000 90 71 65
7.551752e+000 -2.207436e+000 -1.268024e+000 94 72 59
7.551752e+000 -2.207436e+000 -1.268024e+000 94 72 59
7.456533e+000 -3.984069e+000 -3.404355e+000 197 178 128
6.051031e+000 -3.184685e+000 -1.141532e+000 52 32 25
7.575189e+000 -2.320836e+000 -1.271939e+000 73 51 43
7.583926e+000 -2.270026e+000 -1.254219e+000 86 64 50
7.678990e+000 -3.130568e+000 -3.209804e+000 179 156 106
7.662011e+000 -2.825575e+000 -3.233706e+000 164 141 97
5.478936e+000 -3.516643e+000 -8.646602e-001 70 50 47
7.945262e+000 -3.842171e+000 -2.705229e+000 163 142 97
5.664163e+000 -4.093045e+000 1.761544e-002 58 39 45
7.915484e+000 -3.885998e+000 -2.776234e+000 186 165 113
7.798233e+000 -2.873635e+000 -2.281340e+000 93 76 66
7.798233e+000 -2.873635e+000 -2.281340e+000 93 76 66
5.739434e+000 -3.777277e+000 -8.941115e-001 117 106 89
5.555801e+000 -3.799625e+000 -3.407411e-001 105 89 74
5.827000e+000 -3.965221e+000 -7.043233e-001 62 44 34
5.497144e+000 -3.806479e+000 -3.475984e-001 64 58 57
5.559533e+000 -3.748584e+000 -7.633296e-001 63 48 43
5.981516e+000 -3.712146e+000 -1.052074e+000 59 41 29
5.710286e+000 -2.798328e+000 -1.090949e+000 32 17 20
5.619749e+000 -3.923196e+000 -6.277343e-001 86 76 66
5.636917e+000 -3.922242e+000 -6.667124e-001 123 109 95
5.469402e+000 -3.780890e+000 -6.317607e-001 86 75 69
5.490737e+000 -3.747454e+000 -4.149266e-001 167 160 144
7.711849e+000 -3.793057e+000 -3.081044e+000 161 141 91
7.711849e+000 -3.793057e+000 -3.081044e+000 161 141 91
6.041654e+000 -3.703147e+000 -1.043724e+000 85 64 49
6.059848e+000 -3.642221e+000 -1.058742e+000 92 71 52
6.043316e+000 -3.638525e+000 -1.069448e+000 92 71 52
5.449570e+000 -3.451377e+000 -7.001602e-001 104 95 85
5.691403e+000 -3.478225e+000 -1.016976e+000 88 69 63
5.987844e+000 -3.528009e+000 -1.061167e+000 36 16 16
5.858147e+000 -3.293354e+000 -4.601950e-002 44 41 42
5.793738e+000 -3.134387e+000 -9.176680e-001 145 138 127
5.746544e+000 -3.092197e+000 -7.987892e-001 147 144 127
5.540728e+000 -2.479734e+000 -8.454288e-001 28 17 23
7.540898e+000 -2.282778e+000 -1.305666e+000 62 42 31
5.886735e+000 -1.933050e+000 -5.247859e-001 108 99 105
8.516492e+000 -4.768824e+000 -1.653037e+000 142 129 84
5.581812e+000 -3.863475e+000 -7.071038e-001 102 89 80
5.609393e+000 -3.871453e+000 -7.313829e-001 69 52 45
5.535279e+000 -3.755751e+000 -7.231071e-001 78 60 56
5.510475e+000 -3.694119e+000 -6.536803e-001 148 137 128
5.558008e+000 -3.609316e+000 -7.780066e-001 89 75 72
5.610776e+000 -3.651901e+000 -8.072457e-001 107 102 98
6.098843e+000 -3.649952e+000 -1.062506e+000 64 43 29
7.765033e+000 -3.552545e+000 -3.053440e+000 160 139 99
5.857559e+000 -3.426370e+000 -1.063979e+000 49 32 25
6.076510e+000 -3.456556e+000 -1.126671e+000 59 36 28
5.768609e+000 -3.428621e+000 -2.516960e-001 46 40 39
5.962960e+000 -3.222826e+000 -1.074344e+000 82 59 56
5.703797e+000 -3.140684e+000 -5.289575e-001 143 137 123
5.748734e+000 -3.076788e+000 -8.120921e-001 86 82 71
5.884489e+000 -2.976825e+000 -4.036900e-001 143 148 136
7.311398e+000 -2.719149e+000 -1.628360e+000 63 42 36
7.749219e+000 -2.625754e+000 -2.093421e+000 60 39 26
7.456911e+000 -2.495678e+000 -1.639009e+000 88 73 70
5.625483e+000 -2.468960e+000 -7.437122e-001 62 53 58
5.625483e+000 -2.468960e+000 -7.437122e-001 62 53 58
5.961026e+000 -3.880285e+000 -9.248191e-001 61 42 28
5.479713e+000 -3.753670e+000 -4.871657e-001 143 138 119
5.461563e+000 -3.551720e+000 -7.818105e-001 144 138 124
5.955225e+000 -3.580008e+000 -1.009878e+000 51 31 30
5.457586e+000 -3.294799e+000 -8.149306e-001 76 66 56
5.968330e+000 -3.237218e+000 -1.103889e+000 43 25 21
7.483535e+000 -3.004139e+000 -2.074437e+000 56 41 40
7.799576e+000 -3.065015e+000 -2.321753e+000 88 64 54
5.575288e+000 -2.720424e+000 -4.783786e-001 40 29 36
7.222267e+000 -2.644636e+000 -1.639725e+000 98 75 69
7.617758e+000 -2.518188e+000 -1.893132e+000 58 41 31
7.523594e+000 -2.312279e+000 -1.205792e+000 85 66 51
6.628827e+000 -4.312378e+000 -5.745698e-001 88 60 46
5.563168e+000 -3.819252e+000 -3.123616e-001 152 141 125
6.996455e+000 -3.938373e+000 -1.111677e+000 175 161 114
5.557239e+000 -3.324720e+000 -9.581825e-001 99 88 84
5.637752e+000 -2.829349e+000 -1.000445e+000 37 22 25
5.502833e+000 -2.384018e+000 -5.260009e-001 66 49 55
5.678805e+000 -3.852946e+000 -7.635871e-001 54 38 39
6.825102e+000 -3.885547e+000 -1.469476e+000 140 145 140
8.046929e+000 -3.997281e+000 -2.558296e+000 116 95 68
6.208490e+000 -3.394273e+000 -1.084481e+000 72 52 41
5.634296e+000 -3.237620e+000 -9.088670e-001 45 32 27
5.634296e+000 -3.237620e+000 -9.088670e-001 45 32 27
5.785525e+000 -3.065150e+000 -1.014818e+000 34 19 21
7.279450e+000 -2.951218e+000 -2.013992e+000 96 82 73
5.875016e+000 -2.905661e+000 -4.644423e-001 45 34 32
5.497887e+000 -2.515976e+000 -6.985942e-001 31 20 26
5.659992e+000 -3.536763e+000 -2.772482e-001 153 148 133
6.055121e+000 -4.175189e+000 -4.828838e-001 32 27 31
7.676894e+000 -4.146560e+000 -1.561644e+000 107 90 73
5.547707e+000 -3.769821e+000 -2.370548e-001 29 21 26
5.531066e+000 -3.636735e+000 -6.563845e-001 123 111 97
5.531066e+000 -3.636735e+000 -6.563845e-001 123 111 97
6.757009e+000 -3.472080e+000 -1.859853e+000 150 157 164
5.718016e+000 -3.465483e+000 -4.974518e-002 92 110 117
7.972861e+000 -2.772446e+000 -2.209654e+000 67 47 38
5.578565e+000 -2.411839e+000 -8.013887e-001 29 16 23
6.837388e+000 -3.667443e+000 -2.021149e+000 133 126 113
7.552848e+000 -2.430903e+000 -1.923234e+000 105 92 83
7.204611e+000 -2.664272e+000 -1.707426e+000 82 63 56
7.388724e+000 -2.941271e+000 -1.970598e+000 104 92 80
7.804129e+000 -2.296868e+000 -1.703821e+000 84 68 55
7.036827e+000 -2.973615e+000 -1.413492e+000 83 69 66
5.523743e+000 -3.720330e+000 -6.989166e-001 146 139 123
5.576861e+000 -3.610676e+000 -8.374983e-001 141 131 119
5.482560e+000 -3.471078e+000 -8.531047e-001 75 59 57
7.941850e+000 -3.248178e+000 -2.836026e+000 145 123 82
7.941850e+000 -3.248178e+000 -2.836026e+000 145 123 82
5.628747e+000 -3.272685e+000 -9.931562e-001 110 97 88
7.911852e+000 -4.297674e+000 -2.740303e+000 163 146 90
5.543471e+000 -3.402014e+000 -9.382639e-001 42 31 26
5.629682e+000 -3.247180e+000 -9.572241e-001 138 127 119
7.699397e+000 -2.820523e+000 -3.232324e+000 161 143 93
7.828994e+000 -2.352034e+000 -3.047887e+000 166 138 91
8.234860e+000 -4.620751e+000 -2.320414e+000 159 147 89
5.514920e+000 -3.707046e+000 -6.341273e-001 95 85 73
7.639145e+000 -3.340572e+000 -3.324008e+000 181 163 117
5.609304e+000 -3.697624e+000 -7.368906e-001 70 56 53
7.602814e+000 -2.981347e+000 -3.374826e+000 152 138 91
7.723400e+000 -2.794070e+000 -3.184874e+000 153 137 86
6.429554e+000 -4.379244e+000 -6.241440e-001 71 44 35
5.588153e+000 -3.842676e+000 -7.092551e-001 71 56 49
5.556056e+000 -3.753094e+000 -3.096682e-001 95 80 73
7.994482e+000 -3.974962e+000 -2.716244e+000 179 157 110
5.524444e+000 -3.690789e+000 -5.246534e-001 67 56 54
5.504631e+000 -3.676897e+000 -6.232728e-001 87 73 62
6.001929e+000 -3.582559e+000 -1.083512e+000 53 36 28
5.486933e+000 -3.423232e+000 -8.554160e-001 71 58 49
5.512518e+000 -3.414059e+000 -8.730412e-001 60 47 39
6.074915e+000 -3.510276e+000 -1.034500e+000 67 48 41
7.536692e+000 -2.252639e+000 -1.314202e+000 94 72 58
7.572852e+000 -2.258529e+000 -1.329212e+000 69 46 34
7.417589e+000 -2.158960e+000 -1.279678e+000 103 85 63
6.158708e+000 -4.264686e+000 -4.287087e-001 30 22 25
5.517181e+000 -3.783219e+000 -5.144226e-001 135 127 117
5.506285e+000 -3.720623e+000 -6.511113e-001 94 79 69
5.518193e+000 -3.687510e+000 -6.725136e-001 83 67 59
6.144530e+000 -3.745938e+000 -9.903042e-001 56 34 21
5.504332e+000 -3.513795e+000 -8.748424e-001 123 109 102
5.708041e+000 -3.519597e+000 -9.947909e-001 73 55 51
6.342205e+000 -3.503765e+000 -1.127330e+000 64 54 56
5.484121e+000 -3.369087e+000 -7.861426e-001 87 73 62
5.905660e+000 -3.376734e+000 -1.080685e+000 46 27 29
5.938629e+000 -3.378293e+000 -1.092279e+000 78 61 51
5.642700e+000 -3.336173e+000 -1.034365e+000 49 33 36
5.633420e+000 -3.336601e+000 -1.041765e+000 49 33 36
5.869884e+000 -3.275275e+000 -1.080957e+000 71 53 51
5.873305e+000 -3.275823e+000 -1.078535e+000 71 53 51
6.003322e+000 -3.284631e+000 -1.130062e+000 59 38 35
5.740597e+000 -3.205637e+000 -1.046666e+000 90 73 68
5.995213e+000 -3.048984e+000 -1.120517e+000 69 49 43
7.717757e+000 -3.044874e+000 -2.300168e+000 61 38 30
7.560470e+000 -2.932274e+000 -2.170670e+000 73 55 53
7.216613e+000 -2.848812e+000 -1.936886e+000 56 40 43
7.615026e+000 -2.648408e+000 -3.341145e+000 168 147 102
7.526756e+000 -2.368517e+000 -1.364400e+000 82 60 49
7.625372e+000 -2.552062e+000 -3.347117e+000 167 139 92
7.634684e+000 -2.549651e+000 -3.347003e+000 167 139 92
7.816089e+000 -2.359651e+000 -3.045693e+000 174 142 95
6.410318e+000 -4.402961e+000 -6.226846e-001 74 47 40
8.321326e+000 -4.588369e+000 -2.039348e+000 148 125 75
7.593411e+000 -4.324267e+000 -1.185254e+000 104 87 70
6.336279e+000 -3.840296e+000 -8.606655e-001 90 68 48
5.561128e+000 -3.666981e+000 -2.514208e-001 47 38 38
5.511089e+000 -3.578367e+000 -6.908750e-001 81 68 53
5.663475e+000 -3.587149e+000 -9.489149e-001 55 45 43
5.740204e+000 -3.359982e+000 -1.043980e+000 53 36 32
6.048558e+000 -3.244895e+000 -1.155089e+000 46 28 26
5.701014e+000 -3.136432e+000 -8.931544e-001 134 125 118
5.818478e+000 -3.190204e+000 -1.115357e+000 87 65 67
7.635667e+000 -3.150332e+000 -3.312359e+000 171 150 95
5.842842e+000 -2.937521e+000 -4.336466e-001 61 49 51
5.533040e+000 -2.608372e+000 -8.780139e-001 32 21 27
7.579415e+000 -2.573796e+000 -3.386225e+000 166 147 99
7.579415e+000 -2.573796e+000 -3.386225e+000 166 147 99
7.631748e+000 -2.516257e+000 -3.333438e+000 196 172 122
7.638975e+000 -2.516374e+000 -3.332622e+000 196 172 122
6.008868e+000 -3.823105e+000 -9.560541e-001 62 42 31
6.099206e+000 -3.093901e+000 -1.138726e+000 68 48 41
7.721097e+000 -3.004180e+000 -2.334605e+000 100 77 69
5.465288e+000 -2.576940e+000 -6.074647e-001 45 29 39
7.627308e+000 -2.476109e+000 -3.355675e+000 172 139 101
7.598193e+000 -2.482327e+000 -3.355714e+000 172 139 101
5.656829e+000 -3.661823e+000 -8.163495e-001 49 37 35
7.647911e+000 -3.425895e+000 -3.279381e+000 177 153 107
7.598228e+000 -3.363465e+000 -3.356411e+000 187 163 119
5.786390e+000 -2.978876e+000 -6.223672e-001 78 68 62
6.189054e+000 -4.320456e+000 -3.970432e-001 80 62 49
5.553442e+000 -3.215628e+000 -7.910397e-001 65 47 45
7.668653e+000 -2.573183e+000 -3.276533e+000 180 153 104
7.673580e+000 -2.980104e+000 -3.249719e+000 182 147 109
7.073516e+000 -3.237690e+000 -2.371085e+000 94 67 58
5.737367e+000 -2.904750e+000 -2.822838e-001 66 49 57
7.670736e+000 -2.892687e+000 -2.283655e+000 109 91 87
6.350830e+000 -3.211822e+000 -1.138309e+000 82 50 45
8.151574e+000 -3.507448e+000 -2.292817e+000 70 45 41
5.698409e+000 -3.853960e+000 -7.729478e-001 70 62 60
5.788428e+000 -3.713549e+000 -9.632935e-001 99 90 71
6.262210e+000 -3.320983e+000 -1.113123e+000 44 25 21
7.593777e+000 -2.400329e+000 -3.357887e+000 172 139 98
7.954508e+000 -4.329460e+000 -2.688539e+000 162 143 87
5.683996e+000 -3.595064e+000 -8.836941e-001 89 77 79
7.542580e+000 -2.530973e+000 -3.438568e+000 171 150 97
8.081044e+000 -4.269518e+000 -2.495268e+000 149 123 81
7.459815e+000 -2.464627e+000 -1.896623e+000 77 59 57
7.525024e+000 -2.364391e+000 -1.928926e+000 80 61 53
7.923466e+000 -4.291743e+000 -2.735621e+000 166 147 91
5.747796e+000 -3.903935e+000 -7.699371e-001 58 43 40
7.616259e+000 -2.648333e+000 -3.339462e+000 168 147 102
8.597507e+000 -4.758145e+000 -1.589412e+000 142 125 81
7.732835e+000 -4.166748e+000 -3.080308e+000 170 152 103
5.459966e+000 -3.468811e+000 -7.526331e-001 141 136 122
5.534795e+000 -2.609991e+000 -8.769143e-001 32 21 27
5.858414e+000 -3.600039e+000 -1.041647e+000 46 31 26
7.701343e+000 -2.515106e+000 -3.183827e+000 177 150 96
7.701343e+000 -2.515106e+000 -3.183827e+000 177 150 96
7.578483e+000 -2.531711e+000 -3.389080e+000 192 174 124
7.508582e+000 -4.237945e+000 -1.220527e+000 127 117 106
5.535097e+000 -3.757265e+000 -3.933225e-001 91 74 64
5.500450e+000 -3.767706e+000 -6.808081e-001 161 151 139
5.835512e+000 -3.716321e+000 -1.087239e+000 115 98 88
5.481330e+000 -3.426328e+000 -8.648308e-001 57 44 38
5.739926e+000 -3.038796e+000 -8.125294e-001 163 161 149
5.508043e+000 -2.595484e+000 -6.725003e-001 36 25 33
5.670633e+000 -4.041354e+000 -3.329772e-002 56 39 47
5.677020e+000 -4.023988e+000 -6.754891e-002 37 24 31
5.522256e+000 -3.855469e+000 -3.438554e-001 47 41 40
5.527457e+000 -3.829817e+000 -4.561239e-001 98 85 76
5.510529e+000 -3.835743e+000 -5.578252e-001 88 78 66
6.010438e+000 -3.804687e+000 -9.408002e-001 45 26 19
5.496267e+000 -3.702019e+000 -5.766726e-001 158 150 138
5.498447e+000 -3.724834e+000 -6.985935e-001 73 59 48
5.563821e+000 -3.680983e+000 -7.747546e-001 68 58 55
5.459267e+000 -3.537582e+000 -6.927652e-001 97 84 75
5.920655e+000 -3.567085e+000 -1.038986e+000 39 21 17
5.741797e+000 -3.409198e+000 -2.795771e-001 38 37 46
5.519146e+000 -3.453979e+000 -8.954732e-001 128 114 108
5.510148e+000 -3.387580e+000 -9.059051e-001 73 58 54
5.618412e+000 -3.400897e+000 -9.763663e-001 83 65 63
5.825198e+000 -3.251526e+000 -1.708332e-001 102 109 119
6.265514e+000 -3.334698e+000 -1.122652e+000 64 49 46
6.482633e+000 -3.404227e+000 -1.363087e+000 102 72 70
5.549880e+000 -3.275343e+000 -8.980914e-001 129 116 107
5.832637e+000 -3.286906e+000 -1.059839e+000 79 58 55
5.823974e+000 -3.189173e+000 -1.120306e+000 100 81 77
5.759823e+000 -3.065104e+000 -9.229449e-001 79 70 61
7.534774e+000 -2.542978e+000 -3.456769e+000 168 142 93
7.885942e+000 -4.734522e+000 -2.712902e+000 189 170 112
5.672282e+000 -3.935416e+000 -6.333332e-001 153 139 128
5.511353e+000 -3.839139e+000 -5.826172e-001 172 166 150
5.577990e+000 -3.827547e+000 -6.993705e-001 98 87 75
5.517750e+000 -3.755036e+000 -3.524136e-001 104 91 81
5.531602e+000 -3.758467e+000 -3.706905e-001 172 159 146
5.511535e+000 -3.797422e+000 -5.890190e-001 81 71 64
5.517491e+000 -3.762814e+000 -6.898654e-001 101 83 76
5.585636e+000 -3.634501e+000 -8.021658e-001 43 28 31
5.645769e+000 -3.488992e+000 -9.992181e-001 93 75 71
5.652671e+000 -3.488205e+000 -9.948341e-001 93 75 71
5.915273e+000 -3.490551e+000 -1.045322e+000 71 52 48
6.789912e+000 -3.495395e+000 -2.056188e+000 146 142 133
6.082778e+000 -3.372781e+000 -1.142148e+000 81 60 54
5.735163e+000 -3.287430e+000 -1.056617e+000 81 62 62
5.696115e+000 -3.190500e+000 -9.896137e-001 64 45 44
5.723698e+000 -3.198127e+000 -1.019507e+000 85 71 62
5.893248e+000 -3.136406e+000 -1.104745e+000 80 58 59
5.759322e+000 -3.057415e+000 -8.614586e-001 98 91 82
7.369764e+000 -2.479673e+000 -1.710956e+000 73 55 51
7.550575e+000 -2.216045e+000 -1.297063e+000 72 52 38
7.874947e+000 -4.763111e+000 -2.706612e+000 158 131 80
6.479490e+000 -4.391822e+000 -6.626759e-001 82 50 39
5.694281e+000 -3.971141e+000 -5.463807e-001 63 53 43
5.693146e+000 -3.949529e+000 -6.398502e-001 50 33 26
5.616158e+000 -3.907218e+000 -6.648151e-001 73 59 50
7.959556e+000 -4.287946e+000 -2.634941e+000 166 143 91
5.588171e+000 -3.865972e+000 -5.515228e-001 150 136 127
5.715826e+000 -3.902458e+000 -7.534843e-001 84 68 56
6.075618e+000 -3.924935e+000 -8.461440e-001 60 40 33
7.885832e+000 -4.193396e+000 -2.694951e+000 157 134 88
5.531534e+000 -3.782389e+000 -4.627545e-001 89 70 65
5.494613e+000 -3.791150e+000 -6.063740e-001 87 78 71
5.501724e+000 -3.721087e+000 -6.558633e-001 83 65 51
6.148781e+000 -3.781450e+000 -9.606692e-001 58 39 25
5.578140e+000 -3.614974e+000 -3.081973e-001 146 144 131
5.840494e+000 -3.597104e+000 -1.033467e+000 49 29 27
5.483063e+000 -3.504948e+000 -8.621676e-001 61 46 39
5.585929e+000 -3.507491e+000 -9.553849e-001 54 38 37
5.478922e+000 -3.433268e+000 -8.221508e-001 158 152 138
5.570851e+000 -3.491487e+000 -9.003889e-001 50 38 35
5.855983e+000 -3.515607e+000 -1.037223e+000 42 28 25
6.026413e+000 -3.523641e+000 -1.118254e+000 85 64 54
6.044556e+000 -3.441382e+000 -1.124733e+000 75 56 49
6.039248e+000 -3.351771e+000 -1.153894e+000 51 32 33
6.039248e+000 -3.351771e+000 -1.153894e+000 51 32 33
6.050038e+000 -3.279490e+000 -1.133182e+000 84 61 54
6.032039e+000 -3.009455e+000 -1.140492e+000 58 40 36
5.702289e+000 -2.788312e+000 -7.440597e-001 52 35 41
7.697751e+000 -3.004713e+000 -3.229523e+000 171 139 97
7.643262e+000 -2.998421e+000 -3.298974e+000 181 163 115
7.138233e+000 -2.653878e+000 -1.606162e+000 78 50 46
5.527390e+000 -2.641162e+000 -6.003350e-001 41 26 33
7.265591e+000 -2.594019e+000 -1.621271e+000 65 46 44
8.808185e+000 -4.574774e+000 -1.237652e+000 117 101 68
5.577296e+000 -3.905652e+000 -5.851743e-001 67 53 42
5.658022e+000 -3.927550e+000 -5.819902e-001 83 68 61
5.525748e+000 -3.733639e+000 -4.040152e-001 80 61 54
5.499025e+000 -3.760562e+000 -4.657207e-001 154 146 131
5.522310e+000 -3.805158e+000 -6.455696e-001 75 61 53
5.562314e+000 -3.693666e+000 -7.602247e-001 142 131 127
7.832297e+000 -4.052916e+000 -2.917648e+000 166 142 96
5.611053e+000 -3.650843e+000 -8.064160e-001 111 107 100
5.666102e+000 -3.516107e+000 -9.846940e-001 46 28 26
5.925956e+000 -3.569125e+000 -1.069608e+000 79 55 50
5.758072e+000 -3.454305e+000 -1.018312e+000 59 40 36
6.086625e+000 -3.459828e+000 -1.117909e+000 41 25 17
5.611738e+000 -3.419139e+000 -9.559684e-001 49 31 29
5.814280e+000 -3.399966e+000 -1.073021e+000 78 57 49
5.915432e+000 -3.427268e+000 -1.099530e+000 84 63 62
5.915432e+000 -3.427268e+000 -1.099530e+000 84 63 62
5.518259e+000 -3.317705e+000 -8.941441e-001 144 134 121
5.867547e+000 -3.340022e+000 -1.063731e+000 40 25 20
5.791352e+000 -3.080270e+000 -1.027972e+000 39 28 26
7.202177e+000 -2.645941e+000 -1.649583e+000 108 83 77
7.284306e+000 -2.566346e+000 -1.650862e+000 89 77 77
5.518613e+000 -2.627860e+000 -6.620680e-001 43 32 38
7.492483e+000 -2.524386e+000 -1.927724e+000 70 50 43
5.477356e+000 -2.349020e+000 -7.021434e-001 59 43 49
5.849608e+000 -4.068091e+000 -3.123070e-001 83 81 84
7.562944e+000 -4.311166e+000 -1.121776e+000 180 178 119
5.682907e+000 -3.903747e+000 -6.921921e-001 93 77 70
5.531698e+000 -3.810706e+000 -4.057160e-001 94 80 71
5.542896e+000 -3.839185e+000 -6.110846e-001 58 45 36
5.568899e+000 -3.839432e+000 -6.394070e-001 127 119 106
5.494635e+000 -3.736330e+000 -6.268065e-001 98 82 69
5.783020e+000 -3.568513e+000 -1.011794e+000 50 32 32
5.612297e+000 -3.299644e+000 -1.040968e+000 52 38 37
7.116715e+000 -2.964079e+000 -1.792546e+000 76 59 53
6.088297e+000 -2.084885e+000 -9.821040e-001 80 53 43
6.023023e+000 -4.235209e+000 -2.525502e-001 29 23 27
7.843091e+000 -4.641902e+000 -2.711640e+000 169 150 95
5.703188e+000 -4.030864e+000 -1.225593e-001 27 20 24
5.533536e+000 -3.654672e+000 -7.402760e-001 51 32 31
5.499241e+000 -3.552493e+000 -6.310884e-001 142 134 124
6.113524e+000 -3.376008e+000 -1.145091e+000 80 56 49
5.734299e+000 -3.255077e+000 -1.030355e+000 52 37 36
5.614730e+000 -3.231951e+000 -9.274129e-001 53 39 36
5.649416e+000 -3.126488e+000 -6.424938e-001 142 144 127
5.821897e+000 -2.995301e+000 -4.102940e-001 81 71 69
5.654567e+000 -2.786576e+000 -8.682834e-001 42 25 31
5.657670e+000 -2.778131e+000 -1.184150e+000 33 21 21
5.546888e+000 -2.648266e+000 -6.710014e-001 85 70 75
7.414122e+000 -2.479876e+000 -1.743390e+000 98 84 83
7.540719e+000 -2.313700e+000 -1.649939e+000 112 93 84
6.285311e+000 -2.312685e+000 -1.190118e+000 56 33 25
7.633721e+000 -2.283187e+000 -1.897768e+000 93 73 62
5.601326e+000 -2.663587e+000 -7.340378e-001 29 20 24
5.601326e+000 -2.663587e+000 -7.340378e-001 29 20 24
7.552037e+000 -2.192567e+000 -1.293104e+000 92 70 57
5.473875e+000 -3.729909e+000 -6.709519e-001 103 89 78
5.473875e+000 -3.729909e+000 -6.709519e-001 103 89 78
5.611922e+000 -2.686636e+000 -9.021983e-001 49 36 43
6.345667e+000 -3.441798e+000 -1.132983e+000 43 39 39
6.347063e+000 -3.441965e+000 -1.134065e+000 43 39 39
5.770423e+000 -2.949094e+000 -9.302388e-001 47 33 33
6.686524e+000 -4.154487e+000 -7.782115e-001 170 157 93
5.656232e+000 -3.468278e+000 -9.033901e-001 50 35 40
5.712632e+000 -2.790369e+000 -4.635310e-001 34 20 30
5.712632e+000 -2.790369e+000 -4.635310e-001 34 20 30
8.236031e+000 -4.417280e+000 -2.306171e+000 163 148 91
8.460448e+000 -4.289094e+000 -1.655168e+000 74 54 41
7.329676e+000 -3.382989e+000 -1.636216e+000 132 139 145
7.329676e+000 -3.382989e+000 -1.636216e+000 132 139 145
8.003316e+000 -3.617152e+000 -2.647254e+000 97 72 50
7.815465e+000 -3.298813e+000 -2.989975e+000 163 129 85
8.455115e+000 -4.864909e+000 -1.766289e+000 182 169 114
7.933212e+000 -3.237284e+000 -2.782872e+000 163 144 104
7.933212e+000 -3.237284e+000 -2.782872e+000 163 144 104
7.411308e+000 -2.497786e+000 -1.828771e+000 66 46 45
7.504619e+000 -2.236829e+000 -1.263258e+000 99 75 59
7.538782e+000 -2.190396e+000 -1.300459e+000 104 82 69
7.676017e+000 -2.553608e+000 -3.265775e+000 171 143 92
6.798682e+000 -3.980451e+000 -9.407255e-001 104 70 43
7.938977e+000 -3.220320e+000 -2.791460e+000 134 115 75
8.441476e+000 -4.949294e+000 -1.689529e+000 171 159 103
5.480958e+000 -3.438813e+000 -8.491191e-001 85 70 65
6.292071e+000 -3.330067e+000 -1.107724e+000 64 49 46
7.877918e+000 -3.267185e+000 -2.908728e+000 176 149 106
7.703596e+000 -3.905837e+000 -3.103676e+000 161 143 93
9.025506e+000 -4.823465e+000 -8.328223e-001 168 163 107
5.556081e+000 -3.821016e+000 -6.405901e-001 139 131 120
5.491379e+000 -3.706659e+000 -6.334127e-001 163 153 140
5.654518e+000 -3.437675e+000 -1.005802e+000 47 30 27
7.933867e+000 -3.253976e+000 -2.798681e+000 163 142 103
7.225643e+000 -2.685766e+000 -1.686875e+000 107 89 78
6.296570e+000 -3.316896e+000 -1.130809e+000 81 53 49
7.869496e+000 -3.329388e+000 -2.900271e+000 179 159 108
7.802630e+000 -2.898075e+000 -2.354277e+000 67 44 36
8.853408e+000 -4.771444e+000 -1.074604e+000 157 150 98
6.299308e+000 -2.173155e+000 -1.240866e+000 148 126 83
7.840227e+000 -3.989867e+000 -2.818672e+000 154 133 86
5.579235e+000 -3.601439e+000 -8.603234e-001 97 88 80
5.504338e+000 -2.383930e+000 -7.392147e-001 82 67 74
6.396589e+000 -4.223585e+000 -5.488415e-001 52 36 36
5.591065e+000 -3.896009e+000 -3.735240e-001 100 91 89
5.571093e+000 -3.643677e+000 -3.378451e-001 131 120 112
5.665114e+000 -3.574520e+000 -2.873498e-001 94 77 70
5.620340e+000 -3.297513e+000 -9.678469e-001 63 52 48
7.641179e+000 -3.199291e+000 -3.271505e+000 174 158 106
6.054113e+000 -4.115409e+000 -6.016952e-001 54 43 41
5.795184e+000 -4.020123e+000 -5.586633e-001 121 116 104
5.645198e+000 -3.949896e+000 -5.743374e-001 112 104 91
5.804643e+000 -3.994047e+000 -6.778559e-001 85 68 60
6.038522e+000 -4.021417e+000 -7.986977e-001 102 89 70
5.564030e+000 -3.809978e+000 -2.773157e-001 57 48 47
6.017710e+000 -3.923676e+000 -8.624822e-001 74 56 44
6.020698e+000 -3.578868e+000 -1.070132e+000 52 31 28
5.635781e+000 -3.486101e+000 -9.926786e-001 60 44 44
5.902474e+000 -3.495596e+000 -1.074676e+000 47 28 22
5.937898e+000 -3.420226e+000 -1.080796e+000 88 68 61
6.283613e+000 -3.336755e+000 -1.090481e+000 38 25 24
5.726487e+000 -3.163894e+000 -9.723352e-001 108 98 91
6.072383e+000 -3.173332e+000 -1.128360e+000 57 34 28
6.078256e+000 -3.165638e+000 -1.144247e+000 87 64 60
5.780024e+000 -3.104092e+000 -9.928502e-001 84 74 68
5.761728e+000 -3.018531e+000 -7.805464e-001 94 95 81
7.515287e+000 -2.441159e+000 -1.880115e+000 81 63 59
7.477041e+000 -2.425476e+000 -1.875283e+000 104 85 79
8.217177e+000 -4.897282e+000 -1.957398e+000 194 188 130
6.487233e+000 -4.350318e+000 -6.737115e-001 85 57 36
6.035352e+000 -4.073907e+000 -6.521693e-001 91 76 68
6.054743e+000 -4.035502e+000 -6.962260e-001 56 38 28
6.054743e+000 -4.035502e+000 -6.962260e-001 56 38 28
7.822587e+000 -4.424313e+000 -2.782202e+000 162 136 87
7.822587e+000 -4.424313e+000 -2.782202e+000 162 136 87
5.596525e+000 -3.893648e+000 -6.220644e-001 87 74 66
6.015400e+000 -3.852618e+000 -9.544516e-001 43 25 13
6.471730e+000 -3.880874e+000 -8.914450e-001 57 52 48
6.032936e+000 -3.800367e+000 -9.787244e-001 58 38 27
5.485158e+000 -3.711675e+000 -6.113705e-001 82 68 60
6.029049e+000 -3.678582e+000 -1.054371e+000 79 52 40
5.687739e+000 -3.495431e+000 -2.583415e-001 146 141 134
5.583821e+000 -3.586249e+000 -8.529236e-001 137 130 120
5.887558e+000 -3.621195e+000 -1.031873e+000 44 29 25
5.660449e+000 -3.471848e+000 -1.016912e+000 52 34 31
5.660449e+000 -3.471848e+000 -1.016912e+000 52 34 31
5.958000e+000 -3.497166e+000 -1.090127e+000 53 32 29
6.018068e+000 -3.506600e+000 -1.096969e+000 48 29 23
6.083062e+000 -3.504017e+000 -1.131386e+000 89 61 57
5.475985e+000 -3.351695e+000 -7.672888e-001 163 157 143
5.502953e+000 -3.406125e+000 -8.812498e-001 57 43 40
6.870471e+000 -3.584011e+000 -2.424896e+000 52 36 29
5.641389e+000 -3.371687e+000 -9.930897e-001 91 71 62
6.018613e+000 -3.349909e+000 -1.138955e+000 82 58 54
5.538003e+000 -3.265706e+000 -8.779688e-001 147 139 126
5.901034e+000 -3.275752e+000 -1.091919e+000 51 37 28
6.011359e+000 -3.288422e+000 -1.104867e+000 75 51 47
5.530611e+000 -2.654205e+000 -6.178399e-001 71 58 60
7.498967e+000 -2.549642e+000 -1.861165e+000 67 48 41
7.527531e+000 -2.544969e+000 -1.915713e+000 95 75 68
7.622241e+000 -2.273990e+000 -1.244130e+000 68 44 38
7.522735e+000 -2.505067e+000 -1.851934e+000 92 74 70
7.522694e+000 -2.523606e+000 -1.881691e+000 102 83 79
7.590916e+000 -2.535187e+000 -3.483411e+000 162 135 82
7.581201e+000 -4.326894e+000 -1.194980e+000 104 81 51
5.671636e+000 -3.972300e+000 -5.673363e-001 72 62 53
5.741826e+000 -3.974106e+000 -6.777481e-001 53 36 30
5.695938e+000 -3.956443e+000 -7.033639e-001 82 65 57
6.035206e+000 -3.996121e+000 -7.954038e-001 64 45 38
5.564539e+000 -3.870577e+000 -5.743264e-001 145 136 119
5.796383e+000 -3.912587e+000 -8.005406e-001 51 38 27
5.823747e+000 -3.927308e+000 -8.545682e-001 51 35 28
5.950265e+000 -3.929552e+000 -8.505877e-001 77 58 42
6.118902e+000 -3.900320e+000 -9.084873e-001 52 33 19
6.092781e+000 -3.786617e+000 -9.960567e-001 64 40 30
6.014698e+000 -3.674443e+000 -1.038297e+000 50 31 24
5.697572e+000 -3.514475e+000 -2.966102e-001 57 43 43
5.769350e+000 -3.352660e+000 -1.579247e-001 42 38 40
6.343009e+000 -3.503479e+000 -1.126749e+000 61 57 63
5.642138e+000 -3.490994e+000 -9.453114e-001 82 64 64
5.936427e+000 -3.496518e+000 -1.077344e+000 81 62 53
5.637969e+000 -3.243822e+000 -9.514619e-001 128 117 108
5.674578e+000 -3.255756e+000 -1.008957e+000 91 70 66
5.976292e+000 -3.266779e+000 -1.111763e+000 73 49 47
5.962122e+000 -3.220806e+000 -1.079149e+000 75 57 47
6.049417e+000 -3.278643e+000 -1.132960e+000 84 59 52
5.869972e+000 -3.088895e+000 -1.068630e+000 48 28 27
7.688782e+000 -3.271096e+000 -3.220614e+000 179 161 111
7.946118e+000 -3.048870e+000 -2.828300e+000 160 137 94
7.277723e+000 -2.836370e+000 -1.906888e+000 54 39 39
7.493870e+000 -2.532386e+000 -1.826542e+000 72 50 44
7.579773e+000 -2.537148e+000 -1.933333e+000 104 86 77
7.648125e+000 -2.124784e+000 -1.359672e+000 98 77 61
5.503517e+000 -2.430876e+000 -7.306841e-001 29 17 23
6.138315e+000 -4.124114e+000 -5.697520e-001 69 61 58
5.531186e+000 -3.850762e+000 -4.298279e-001 167 160 150
6.098116e+000 -3.745112e+000 -1.017542e+000 51 33 19
6.123022e+000 -3.740830e+000 -1.001551e+000 51 33 19
6.106680e+000 -3.650971e+000 -1.053970e+000 56 38 29
5.493810e+000 -3.551691e+000 -7.919087e-001 67 53 52
6.583434e+000 -3.653123e+000 -1.357956e+000 67 51 46
5.503764e+000 -3.515404e+000 -8.765804e-001 129 120 114
5.664874e+000 -3.516776e+000 -9.863133e-001 47 29 29
5.743179e+000 -3.497898e+000 -1.037737e+000 76 53 45
5.883739e+000 -3.457291e+000 -1.078566e+000 51 30 35
5.879299e+000 -3.463535e+000 -1.117697e+000 81 58 53
5.490266e+000 -3.367786e+000 -7.806211e-001 88 71 67
5.694581e+000 -3.401656e+000 -1.034753e+000 80 59 54
5.497910e+000 -3.321736e+000 -8.786714e-001 72 59 50
6.071534e+000 -3.132789e+000 -1.126696e+000 53 32 29
7.648536e+000 -3.142404e+000 -3.315326e+000 173 153 102
6.716736e+000 -2.301614e+000 -1.302890e+000 84 50 25
6.046824e+000 -2.229690e+000 -1.237462e+000 136 116 83
5.804077e+000 -3.981741e+000 -6.796353e-001 89 71 61
5.516802e+000 -3.850062e+000 -5.237750e-001 159 153 136
5.600373e+000 -3.878745e+000 -6.930962e-001 92 77 72
5.982604e+000 -3.877186e+000 -8.920223e-001 42 23 18
6.640506e+000 -3.750205e+000 -1.237609e+000 78 37 38
5.753052e+000 -3.444217e+000 -1.622569e-001 37 35 40
5.545421e+000 -3.517191e+000 -9.021689e-001 40 26 24
5.476905e+000 -3.421583e+000 -7.868192e-001 71 56 50
5.479955e+000 -3.453812e+000 -8.255942e-001 129 124 107
5.868693e+000 -3.430667e+000 -1.051690e+000 46 28 26
5.976708e+000 -3.429346e+000 -1.096399e+000 58 38 37
5.557823e+000 -3.318471e+000 -9.128142e-001 64 49 46
5.614384e+000 -3.321707e+000 -9.917468e-001 105 95 86
7.852165e+000 -3.365931e+000 -2.959617e+000 181 159 112
5.951897e+000 -3.136947e+000 -1.100993e+000 42 22 21
7.333949e+000 -2.762869e+000 -1.720348e+000 92 75 68
5.628792e+000 -2.820750e+000 -9.554296e-001 72 57 62
7.520995e+000 -2.404872e+000 -1.900345e+000 115 97 93
6.641713e+000 -2.326580e+000 -1.286077e+000 152 129 88
6.727754e+000 -2.219297e+000 -1.258408e+000 85 57 35
7.859549e+000 -2.341437e+000 -3.043993e+000 171 144 91
8.439013e+000 -4.967195e+000 -1.621401e+000 165 152 100
8.065059e+000 -4.817901e+000 -2.430501e+000 171 150 96
6.051080e+000 -4.094197e+000 -4.534881e-001 111 106 100
5.784024e+000 -3.990502e+000 -6.366863e-001 71 53 51
5.996323e+000 -3.732423e+000 -1.004775e+000 63 43 34
5.950901e+000 -3.644460e+000 -1.038875e+000 40 22 21
6.976661e+000 -3.756858e+000 -1.942417e+000 111 98 81
7.002290e+000 -3.753756e+000 -1.934479e+000 111 98 81
5.604715e+000 -3.550938e+000 -9.265477e-001 43 29 28
5.613277e+000 -3.547621e+000 -9.191955e-001 43 29 28
5.744690e+000 -3.101500e+000 -7.929124e-001 128 120 110
6.903920e+000 -3.030412e+000 -1.710067e+000 117 109 110
5.523540e+000 -2.587125e+000 -6.951987e-001 65 48 58
7.680546e+000 -2.567132e+000 -3.275147e+000 177 149 99
5.574230e+000 -3.209476e+000 -7.707816e-001 65 47 43
5.693431e+000 -2.839085e+000 -8.940590e-001 86 74 78
7.340843e+000 -2.503853e+000 -1.610718e+000 76 58 55
5.527723e+000 -2.495240e+000 -6.743732e-001 43 27 37
5.744476e+000 -2.793285e+000 -7.126746e-001 61 44 50
7.484653e+000 -2.581010e+000 -1.735823e+000 71 51 44
6.067981e+000 -2.196677e+000 -1.203782e+000 110 86 58
6.014437e+000 -2.256277e+000 -1.340845e+000 67 37 29
6.887901e+000 -4.080124e+000 -4.713264e-001 80 54 39
8.302043e+000 -3.881640e+000 -1.940899e+000 108 94 94
6.594198e+000 -3.388568e+000 -1.384581e+000 63 42 47
7.883394e+000 -3.785768e+000 -2.854077e+000 173 155 103
7.954613e+000 -3.795634e+000 -2.872649e+000 178 161 109
7.312746e+000 -2.667368e+000 -1.852736e+000 70 50 41
6.053091e+000 -4.092474e+000 -5.635299e-001 54 44 34
5.806738e+000 -4.027886e+000 -5.606022e-001 83 65 51
5.612094e+000 -3.929452e+000 -5.159783e-001 140 122 105
6.058721e+000 -4.003114e+000 -8.323657e-001 68 45 29
5.979420e+000 -3.355946e+000 -1.115855e+000 53 33 26
5.767254e+000 -3.065453e+000 -9.189814e-001 83 74 59
7.251156e+000 -2.871963e+000 -1.899830e+000 122 103 88
7.474723e+000 -2.481373e+000 -1.796014e+000 105 85 74
8.421760e+000 -4.732728e+000 -1.980586e+000 147 117 57
8.286261e+000 -4.684221e+000 -2.140570e+000 168 143 77
5.685655e+000 -4.069682e+000 4.549476e-002 43 23 32
5.826344e+000 -4.033715e+000 -4.646103e-001 90 76 64
5.615431e+000 -3.925699e+000 -4.392468e-001 157 149 130
5.695362e+000 -3.923838e+000 -6.748719e-001 94 76 64
6.002803e+000 -3.932510e+000 -8.135313e-001 88 66 52
8.092781e+000 -4.264872e+000 -2.493565e+000 156 122 73
7.909742e+000 -4.310562e+000 -2.787618e+000 164 135 78
5.524406e+000 -3.756536e+000 -4.038599e-001 96 84 63
5.517631e+000 -3.700684e+000 -3.697256e-001 113 96 78
5.434773e+000 -3.474856e+000 -7.427306e-001 95 80 65
6.057985e+000 -3.519362e+000 -1.123688e+000 66 36 27
5.612514e+000 -3.263074e+000 -5.409070e-001 162 157 136
5.611253e+000 -3.404701e+000 -9.826252e-001 80 60 54
5.912670e+000 -3.203303e+000 -1.111935e+000 87 62 54
5.816402e+000 -3.111478e+000 -1.076781e+000 118 100 91
7.136026e+000 -2.670301e+000 -1.777544e+000 87 59 47
7.680101e+000 -3.082820e+000 -3.278906e+000 182 156 97
5.528805e+000 -2.667342e+000 -6.418766e-001 47 30 34
7.505660e+000 -2.220315e+000 -1.286630e+000 109 82 66
7.519980e+000 -2.487479e+000 -1.873393e+000 65 45 36
7.552759e+000 -3.074035e+000 -3.447732e+000 172 145 86
6.329945e+000 -2.204927e+000 -1.255232e+000 171 139 91
6.109183e+000 -4.267958e+000 -4.713220e-001 25 15 14
5.528854e+000 -3.930277e+000 1.515955e-001 109 88 93
5.713180e+000 -3.977925e+000 -4.338428e-001 86 76 60
6.032006e+000 -4.077727e+000 -6.203016e-001 57 40 32
5.709794e+000 -3.991969e+000 -6.717862e-001 60 40 33
6.227677e+000 -3.927327e+000 -9.057154e-001 38 29 22
5.497608e+000 -3.799445e+000 -5.062411e-001 93 75 56
5.683906e+000 -3.858294e+000 -7.914325e-001 63 50 42
6.040308e+000 -3.802771e+000 -1.003271e+000 86 60 47
5.488847e+000 -3.720686e+000 -6.666143e-001 105 86 66
5.433565e+000 -3.658280e+000 -7.446152e-001 123 109 83
5.865931e+000 -3.579101e+000 -1.079212e+000 48 32 25
5.448850e+000 -3.484565e+000 -8.033261e-001 108 91 75
5.668822e+000 -3.481719e+000 -9.843458e-001 91 69 60
5.941923e+000 -3.518926e+000 -1.069784e+000 89 64 57
5.940101e+000 -3.462096e+000 -1.027954e+000 81 58 50
6.030774e+000 -3.410389e+000 -1.129834e+000 89 66 57
6.030085e+000 -3.448721e+000 -1.160190e+000 54 27 18
5.523405e+000 -3.390465e+000 -9.002056e-001 76 59 46
5.626743e+000 -3.399299e+000 -9.951320e-001 55 35 28
5.919578e+000 -3.377874e+000 -1.074066e+000 50 22 21
5.809487e+000 -3.215252e+000 -1.062485e+000 103 79 69
6.014473e+000 -3.156640e+000 -1.133719e+000 87 64 56
7.557112e+000 -2.565080e+000 -1.911838e+000 64 42 29
5.550125e+000 -2.681747e+000 -6.619393e-001 56 35 37
7.348131e+000 -2.513004e+000 -1.649384e+000 73 53 46
7.391716e+000 -2.451211e+000 -1.642868e+000 81 58 47
7.661152e+000 -2.145866e+000 -1.289000e+000 73 47 32
7.646001e+000 -2.641752e+000 -3.345779e+000 173 140 85
6.523869e+000 -4.369401e+000 -6.127201e-001 145 124 77
7.969816e+000 -4.636512e+000 -2.696427e+000 156 129 74
5.898407e+000 -4.044996e+000 -5.067781e-001 73 62 48
6.819371e+000 -3.998034e+000 -5.502516e-001 137 113 69
5.684316e+000 -3.962992e+000 -5.156700e-001 129 117 103
5.798336e+000 -3.966023e+000 -7.337265e-001 55 35 26
5.502279e+000 -3.787730e+000 -5.308928e-001 140 123 104
5.902211e+000 -3.908013e+000 -8.583950e-001 49 29 22
5.493324e+000 -3.706216e+000 -6.311488e-001 171 159 140
5.737448e+000 -3.426472e+000 -2.836370e-001 55 45 46
5.569202e+000 -3.569139e+000 -8.066416e-001 106 94 80
6.067817e+000 -3.548314e+000 -1.081899e+000 88 60 49
5.681673e+000 -3.481166e+000 -1.030896e+000 85 65 56
5.850394e+000 -3.523149e+000 -1.040767e+000 47 28 24
6.661053e+000 -3.432644e+000 -1.354906e+000 67 49 47
5.628127e+000 -3.415917e+000 -1.048010e+000 62 42 33
5.868777e+000 -3.384778e+000 -1.079756e+000 86 64 53
5.747629e+000 -3.089753e+000 -9.160970e-001 149 143 121
6.035174e+000 -2.940560e+000 -1.102685e+000 60 39 34
7.533004e+000 -2.546398e+000 -1.799467e+000 96 70 57
7.566847e+000 -2.610091e+000 -1.883010e+000 59 35 23
7.738840e+000 -2.605600e+000 -2.095071e+000 75 53 42
7.709471e+000 -2.977220e+000 -3.306056e+000 193 168 111
5.519076e+000 -2.632174e+000 -6.565056e-001 45 27 29
5.581711e+000 -2.543908e+000 -8.680118e-001 34 18 21
6.699349e+000 -2.217606e+000 -1.301026e+000 176 149 78
6.293378e+000 -2.091678e+000 -1.249843e+000 167 136 82
5.770240e+000 -4.155537e+000 -5.550047e-002 34 24 28
9.004125e+000 -4.539018e+000 -9.309860e-001 155 135 84
6.088759e+000 -4.130443e+000 -4.347847e-001 26 20 20
5.865582e+000 -4.024531e+000 -4.707064e-001 80 62 48
5.832313e+000 -4.004622e+000 -6.051489e-001 62 42 33
5.714644e+000 -3.972347e+000 -6.384597e-001 95 77 65
5.510943e+000 -3.737715e+000 -4.103151e-001 81 60 46
5.494979e+000 -3.760046e+000 -4.683587e-001 163 147 128
5.764332e+000 -3.467846e+000 -7.377274e-002 110 111 116
5.442111e+000 -3.474619e+000 -7.715135e-001 163 151 134
5.447501e+000 -3.471727e+000 -7.673487e-001 163 151 134
5.694752e+000 -3.507716e+000 -1.034121e+000 50 30 23
5.780986e+000 -3.416317e+000 -1.095501e+000 93 65 59
6.058628e+000 -3.349073e+000 -1.142346e+000 65 40 33
5.634445e+000 -3.170234e+000 -5.660141e-001 98 86 70
5.707689e+000 -3.092890e+000 -7.618007e-001 150 138 122
5.753789e+000 -3.212315e+000 -1.044072e+000 103 82 73
5.749303e+000 -3.043775e+000 -7.677216e-001 74 62 45
5.659860e+000 -2.918554e+000 -8.072679e-001 45 27 27
6.747547e+000 -2.291985e+000 -1.328735e+000 178 148 86
6.003070e+000 -2.211841e+000 -1.171908e+000 92 61 43
5.858591e+000 -4.051365e+000 -2.142967e-001 21 16 20
6.646467e+000 -4.103818e+000 -5.853891e-001 53 30 17
5.604289e+000 -3.866810e+000 1.237234e-002 31 18 27
5.553204e+000 -3.820351e+000 -3.262438e-001 163 154 131
5.567414e+000 -3.869824e+000 -4.461515e-001 109 94 78
5.661952e+000 -3.898470e+000 -6.587758e-001 51 32 25
5.661952e+000 -3.898470e+000 -6.587758e-001 51 32 25
6.824254e+000 -4.021828e+000 -1.646013e+000 155 157 144
5.483994e+000 -3.731482e+000 -5.828750e-001 155 144 121
5.640626e+000 -3.604994e+000 -3.059118e-001 69 50 39
5.640626e+000 -3.604994e+000 -3.059118e-001 69 50 39
6.642491e+000 -3.748854e+000 -1.236512e+000 82 37 32
5.801593e+000 -3.725203e+000 -9.782523e-001 47 35 22
5.521164e+000 -3.574794e+000 -6.818333e-001 91 69 54
5.497931e+000 -3.559127e+000 -7.439694e-001 139 126 105
5.475973e+000 -3.421969e+000 -7.875457e-001 75 59 44
5.727530e+000 -3.365516e+000 -1.053036e+000 44 26 16
6.082577e+000 -3.235027e+000 -1.134490e+000 58 35 27
6.060940e+000 -3.173335e+000 -1.166607e+000 87 59 48
5.741557e+000 -3.124234e+000 -8.986722e-001 84 71 54
5.817050e+000 -3.043566e+000 -9.556334e-001 48 30 26
7.654333e+000 -3.416866e+000 -3.286758e+000 181 146 92
5.643780e+000 -2.789157e+000 -7.211090e-001 18 10 16
6.236636e+000 -2.193633e+000 -1.219209e+000 80 46 36
7.963189e+000 -4.818583e+000 -2.655299e+000 188 164 102
6.808860e+000 -4.047244e+000 -4.175437e-001 114 92 56
5.565720e+000 -3.703984e+000 -7.155615e-001 61 42 38
5.653548e+000 -3.539452e+000 -2.901242e-001 156 151 131
5.469596e+000 -3.511437e+000 -7.369819e-001 81 57 47
5.855072e+000 -3.601744e+000 -1.054552e+000 56 39 32
5.770170e+000 -3.028479e+000 -8.145198e-001 130 123 105
5.601464e+000 -2.834439e+000 -1.024130e+000 30 16 16
6.374148e+000 -2.246044e+000 -1.142735e+000 59 31 21
5.779491e+000 -3.991297e+000 -6.390914e-001 63 44 37
5.756328e+000 -3.915726e+000 -7.655117e-001 53 35 30
5.724611e+000 -3.596382e+000 -5.548167e-002 42 32 33
5.709166e+000 -3.819755e+000 -7.256316e-001 46 32 32
5.610952e+000 -3.624430e+000 -2.538992e-001 157 144 127
6.134435e+000 -3.501579e+000 -1.110191e+000 75 45 37
5.884737e+000 -3.003698e+000 -1.050249e+000 40 22 20
7.612350e+000 -2.323690e+000 -1.749159e+000 75 57 45
5.735502e+000 -3.915905e+000 -1.756797e-001 30 19 23
8.426288e+000 -4.172300e+000 -1.875360e+000 62 43 28
7.455962e+000 -3.507440e+000 -2.105948e+000 68 42 35
6.373333e+000 -3.203433e+000 -1.128176e+000 102 64 55
6.377050e+000 -2.980857e+000 -1.113094e+000 38 20 21
6.609893e+000 -3.905876e+000 -8.316679e-001 31 21 19
5.675930e+000 -3.084787e+000 -8.288797e-001 73 60 47
7.492818e+000 -3.345251e+000 -1.571535e+000 143 143 141
7.492818e+000 -3.345251e+000 -1.571535e+000 143 143 141
3.583425e+001 1.876988e+001 4.227358e+001 121 83 70
3.394774e+001 1.680279e+001 4.054984e+001 123 128 142
3.300127e+001 1.442952e+001 4.072294e+001 137 154 174
3.300127e+001 1.442952e+001 4.072294e+001 137 154 174
3.451715e+001 1.223173e+001 4.166023e+001 126 138 162
3.362942e+001 1.315737e+001 4.031947e+001 82 90 111
3.504486e+001 1.421509e+001 4.013699e+001 141 158 184
5.724368e+000 -3.896974e+000 -7.691109e-001 81 63 59
6.116713e+000 -4.235802e+000 -4.261536e-001 20 17 20
7.875984e+000 -4.318345e+000 -2.782086e+000 162 147 90
6.028014e+000 -3.798914e+000 -9.569021e-001 74 54 44
5.631691e+000 -3.860297e+000 -4.827888e-003 55 40 44
5.599947e+000 -3.897379e+000 -6.495907e-001 126 113 97
6.066226e+000 -3.926772e+000 -8.536647e-001 49 29 18
5.483784e+000 -3.705421e+000 -5.895136e-001 147 134 118
5.979763e+000 -3.711709e+000 -9.883472e-001 114 97 81
5.496871e+000 -3.590954e+000 -6.247562e-001 51 46 38
7.787277e+000 -3.739937e+000 -3.001584e+000 160 133 78
5.511623e+000 -3.830253e+000 -5.474238e-001 100 88 68
6.044264e+000 -3.777399e+000 -1.000849e+000 84 59 39
5.777221e+000 -3.495666e+000 -1.046890e+000 65 43 32
7.985334e+000 -4.279765e+000 -2.627285e+000 170 138 81
5.943670e+000 -3.441887e+000 -1.078474e+000 87 63 51
7.508587e+000 -2.747356e+000 -3.504496e+000 178 149 89
7.567513e+000 -3.367724e+000 -3.352558e+000 192 162 108
8.131868e+000 -4.158175e+000 -1.803808e+000 98 73 51
5.569440e+000 -3.816499e+000 -6.696156e-001 98 88 76
5.564678e+000 -3.818536e+000 -6.733826e-001 98 88 76
6.379652e+000 -3.740426e+000 -1.129713e+000 104 79 75
6.379652e+000 -3.740426e+000 -1.129713e+000 104 79 75
5.567293e+000 -3.469959e+000 -9.526253e-001 83 65 62
6.060633e+000 -4.092644e+000 -4.655122e-001 68 61 52
6.119504e+000 -3.972690e+000 -8.199071e-001 53 30 22
6.115703e+000 -3.956022e+000 -8.237788e-001 87 65 52
5.521671e+000 -3.792963e+000 -5.819218e-001 85 75 66
5.693010e+000 -3.828969e+000 -7.735325e-001 68 54 51
5.659322e+000 -3.415236e+000 -1.967806e-001 44 39 43
5.485439e+000 -3.579470e+000 -6.654897e-001 105 97 78
5.895657e+000 -3.520971e+000 -1.060588e+000 84 63 58
5.918292e+000 -3.487906e+000 -1.065948e+000 53 32 31
5.986338e+000 -3.400501e+000 -1.124158e+000 91 70 65
6.078753e+000 -3.375304e+000 -1.145336e+000 96 73 67
5.645185e+000 -2.907928e+000 -9.538200e-001 48 29 33
7.505728e+000 -3.091632e+000 -3.443281e+000 170 149 92
6.065034e+000 -4.109736e+000 -4.628984e-001 111 110 99
6.036154e+000 -4.080194e+000 -4.673366e-001 126 122 111
5.972758e+000 -4.053170e+000 -4.054279e-001 109 104 97
5.579255e+000 -3.885444e+000 -3.980818e-001 135 121 112
5.741005e+000 -3.963976e+000 -5.992391e-001 102 83 76
5.514697e+000 -3.860055e+000 -5.066244e-001 163 153 138
5.507940e+000 -3.829243e+000 -5.146447e-001 153 141 125
5.537426e+000 -3.767897e+000 -7.251755e-001 75 54 51
5.497490e+000 -3.723068e+000 -6.971174e-001 94 76 64
5.514399e+000 -3.610923e+000 -7.435049e-001 68 51 42
5.571019e+000 -3.640884e+000 -8.113637e-001 39 26 29
6.012059e+000 -3.653229e+000 -1.015959e+000 72 52 44
6.067165e+000 -3.538400e+000 -1.134626e+000 85 61 51
5.597509e+000 -3.503887e+000 -9.451320e-001 59 38 35
6.071839e+000 -3.428686e+000 -1.110836e+000 85 62 56
5.659511e+000 -3.400810e+000 -1.028221e+000 59 40 36
5.872381e+000 -3.274491e+000 -1.083195e+000 82 59 53
5.655312e+000 -2.881923e+000 -8.024250e-001 49 30 32
5.756187e+000 -4.013182e+000 -5.649824e-001 60 42 35
5.579858e+000 -3.896488e+000 -4.778477e-001 140 133 123
5.654003e+000 -3.940786e+000 -5.302466e-001 61 47 34
5.620446e+000 -3.912517e+000 -5.266309e-001 64 50 37
5.941699e+000 -3.977116e+000 -7.525670e-001 56 37 33
5.562647e+000 -3.880339e+000 -6.753818e-001 63 55 44
6.475381e+000 -3.879125e+000 -8.894927e-001 59 54 51
5.523627e+000 -3.733031e+000 -6.954603e-001 126 107 98
5.564975e+000 -3.541613e+000 -9.205251e-001 89 72 68
5.642142e+000 -3.483220e+000 -9.760057e-001 60 41 40
5.765915e+000 -2.998643e+000 -8.481138e-001 58 45 37
5.541738e+000 -2.419623e+000 -6.785180e-001 25 12 19
5.866921e+000 -2.161457e+000 -1.357163e+000 78 48 34
6.206961e+000 -4.238553e+000 -4.587923e-001 68 57 61
5.766893e+000 -4.006547e+000 -4.740273e-001 71 61 51
5.568002e+000 -3.737453e+000 4.843839e-002 44 28 38
6.162783e+000 -3.961144e+000 -8.087788e-001 58 35 29
5.782764e+000 -3.905247e+000 -7.215240e-001 33 17 23
5.698964e+000 -3.877039e+000 -7.355433e-001 57 39 35
8.158892e+000 -4.081509e+000 -1.936160e+000 91 68 60
5.584583e+000 -3.783212e+000 -7.510810e-001 49 34 28
6.131949e+000 -3.827107e+000 -9.535197e-001 60 37 31
6.139179e+000 -3.734353e+000 -9.922252e-001 56 33 25
5.583703e+000 -3.616959e+000 -8.414454e-001 129 119 110
5.986583e+000 -3.525774e+000 -1.061289e+000 40 21 17
5.440366e+000 -3.509396e+000 -7.859916e-001 82 66 55
5.748606e+000 -3.493912e+000 -1.032737e+000 80 56 52
6.119470e+000 -3.464708e+000 -1.143425e+000 79 55 45
5.472607e+000 -3.381196e+000 -8.280242e-001 157 144 129
5.859194e+000 -3.343399e+000 -1.072183e+000 58 34 32
5.533985e+000 -3.332065e+000 -9.350073e-001 78 59 53
6.010098e+000 -2.988684e+000 -1.127180e+000 63 44 40
5.661575e+000 -2.858850e+000 -7.587593e-001 63 47 49
5.944046e+000 -2.327752e+000 -1.117106e+000 49 25 25
6.300679e+000 -2.266754e+000 -1.295332e+000 110 74 48
5.639862e+000 -3.984940e+000 5.308808e-002 36 23 33
5.596052e+000 -3.870552e+000 4.007540e-003 32 23 28
5.962875e+000 -4.044711e+000 -4.036483e-001 95 88 85
5.552234e+000 -3.808686e+000 -3.717180e-001 89 73 60
6.134798e+000 -3.644224e+000 -1.032421e+000 55 35 34
