ply
format ascii 1.0
element face 0
property list uchar int vertex_indices
element vertex 891
property float x
property float y
property float z
property uchar diffuse_red
property uchar diffuse_green
property uchar diffuse_blue
end_header
6.396945e+000 -2.866009e+000 1.156270e-002 137 141 124
6.395716e+000 -2.865989e+000 -3.890267e-003 137 141 124
7.826964e+000 -2.784339e+000 -7.717257e-001 65 47 33
6.232337e+000 -2.978419e+000 6.035572e-002 97 90 80
6.332641e+000 -2.919220e+000 2.253016e-002 84 76 65
6.332641e+000 -2.919220e+000 2.253016e-002 84 76 65
7.307783e+000 -2.883187e+000 -5.835684e-001 62 44 42
5.860825e+000 -3.059616e+000 -2.113203e-001 142 142 130
6.057136e+000 -3.033238e+000 -4.512150e-002 107 104 88
6.223837e+000 -3.044887e+000 2.829368e-002 97 94 79
6.433021e+000 -2.996832e+000 5.181908e-002 55 45 35
6.859860e+000 -3.024060e+000 -3.207878e-001 40 20 16
6.887551e+000 -3.029310e+000 -3.844824e-001 73 46 35
7.245256e+000 -2.957917e+000 -7.651423e-001 38 24 23
7.767751e+000 -2.932399e+000 -6.776692e-001 66 49 38
8.287550e+000 -2.960675e+000 -1.051194e+000 60 42 34
5.648805e+000 -3.156451e+000 -4.020388e-001 131 125 119
6.292743e+000 -3.096703e+000 6.281777e-002 151 149 136
6.201954e+000 -3.155911e+000 1.168089e-002 104 98 85
6.332662e+000 -3.156415e+000 6.874255e-002 143 143 134
6.334136e+000 -3.156087e+000 7.003760e-002 143 143 134
6.369296e+000 -3.199301e+000 5.354540e-002 138 136 124
8.442194e+000 -3.140595e+000 -1.104130e+000 58 41 30
5.717391e+000 -3.294847e+000 -3.334336e-001 238 255 254
5.717391e+000 -3.294847e+000 -3.334336e-001 238 255 254
6.478439e+000 -3.258986e+000 9.292005e-002 81 73 60
6.656027e+000 -3.253194e+000 6.074016e-002 46 28 26
6.132299e+000 -3.301869e+000 1.081529e-002 137 138 122
6.167282e+000 -3.292248e+000 3.582880e-002 91 87 75
6.179404e+000 -3.335730e+000 3.497879e-002 56 51 48
6.341026e+000 -3.303386e+000 9.144514e-002 67 58 49
6.386714e+000 -3.398939e+000 1.244756e-001 66 57 49
6.595557e+000 -3.337122e+000 9.560916e-002 114 105 97
6.605788e+000 -3.368321e+000 1.206361e-001 118 111 105
6.605788e+000 -3.368321e+000 1.206361e-001 118 111 105
7.302555e+000 -3.406565e+000 -6.638726e-001 47 32 29
7.585938e+000 -3.394855e+000 -6.865163e-001 51 33 29
7.968983e+000 -3.343190e+000 -6.430675e-001 131 136 132
8.035836e+000 -3.334737e+000 -3.219192e-001 117 113 101
6.326487e+000 -3.426237e+000 1.162254e-001 56 46 43
6.311135e+000 -3.437380e+000 1.324759e-001 43 33 31
6.527698e+000 -3.469040e+000 1.108326e-001 75 60 55
6.822878e+000 -3.403943e+000 1.292731e-002 87 64 49
6.823036e+000 -3.405030e+000 5.107154e-003 87 64 49
7.924387e+000 -3.549911e+000 -7.427338e-001 80 67 61
7.310837e+000 -3.699837e+000 -7.015094e-001 82 66 55
7.502343e+000 -3.822681e+000 -8.848997e-001 78 57 52
7.654076e+000 -3.756586e+000 -6.715882e-001 42 29 23
7.640884e+000 -3.804047e+000 -7.790124e-001 46 31 27
7.720957e+000 -3.780363e+000 -7.214895e-001 46 33 27
6.079749e+000 -3.700851e+000 3.518444e-001 38 28 29
7.952240e+000 -3.824052e+000 -6.942508e-001 38 27 25
5.854844e+000 -3.800318e+000 3.870492e-001 32 19 26
6.107839e+000 -3.768074e+000 3.846378e-001 26 16 23
7.729457e+000 -4.001209e+000 -8.482647e-001 52 37 32
6.091891e+000 -3.785511e+000 4.532141e-001 31 21 26
6.145392e+000 -3.840218e+000 3.982704e-001 66 54 58
7.612425e+000 -4.098165e+000 -1.118345e+000 82 60 36
6.108814e+000 -3.920226e+000 4.647789e-001 77 67 75
6.108814e+000 -3.920226e+000 4.647789e-001 77 67 75
6.090310e+000 -4.002054e+000 4.806638e-001 41 28 35
6.014159e+000 -4.153444e+000 4.599562e-001 81 69 70
6.014159e+000 -4.153444e+000 4.599562e-001 81 69 70
6.855635e+000 -4.307511e+000 1.769526e-001 161 143 98
9.176429e+000 -2.109167e+000 -7.889478e-001 158 141 89
7.364488e+000 -2.297716e+000 -8.851692e-001 111 106 100
7.782291e+000 -2.402100e+000 -9.689935e-001 73 51 37
7.311289e+000 -2.541662e+000 -1.336840e+000 56 47 52
6.077536e+000 -2.756161e+000 -3.015595e-001 45 36 37
6.411987e+000 -2.755762e+000 -1.831985e-001 130 124 112
7.840974e+000 -2.609067e+000 -9.025300e-001 95 74 56
6.122956e+000 -2.787517e+000 -2.479596e-001 87 81 73
6.319148e+000 -2.809965e+000 -1.462255e-001 76 72 61
6.359246e+000 -2.817048e+000 -4.783390e-002 124 121 106
7.303924e+000 -2.718187e+000 -7.023987e-001 155 170 164
7.303924e+000 -2.718187e+000 -7.023987e-001 155 170 164
6.183403e+000 -2.894617e+000 -2.142266e-002 73 70 58
6.346807e+000 -2.862428e+000 8.676196e-004 124 118 102
7.510795e+000 -2.779832e+000 -6.383464e-001 69 55 46
5.932305e+000 -2.962295e+000 -1.832960e-001 95 89 77
6.032639e+000 -2.963328e+000 -1.404326e-001 85 79 65
6.113985e+000 -2.960033e+000 -6.733566e-002 136 131 119
6.669320e+000 -2.947125e+000 -9.857762e-002 76 57 47
7.511413e+000 -2.854161e+000 -6.279290e-001 87 75 63
7.697182e+000 -2.873892e+000 -6.843889e-001 67 49 35
5.991844e+000 -3.018422e+000 -1.588831e-001 81 78 63
6.084868e+000 -3.017594e+000 -3.905786e-002 143 144 130
6.127523e+000 -3.016978e+000 2.040052e-002 98 88 78
6.110092e+000 -3.065042e+000 -1.401604e-002 158 155 145
6.356472e+000 -3.051818e+000 6.819872e-002 125 119 107
6.402924e+000 -3.046459e+000 6.358368e-002 64 50 43
6.479549e+000 -3.018350e+000 3.976990e-002 88 77 71
6.606411e+000 -3.001076e+000 -6.992261e-003 41 31 24
6.759829e+000 -3.036715e+000 -1.207331e-001 51 34 28
7.563334e+000 -2.954240e+000 -5.938788e-001 67 50 43
8.181857e+000 -2.923735e+000 -9.791407e-001 89 75 62
8.221855e+000 -2.931314e+000 -9.872751e-001 51 34 30
5.568856e+000 -3.172432e+000 -5.631564e-001 101 93 88
5.704812e+000 -3.107263e+000 -3.972048e-001 96 82 72
5.968760e+000 -3.105494e+000 -8.388582e-002 142 133 124
6.321456e+000 -3.064858e+000 3.669077e-002 73 60 54
6.396710e+000 -3.079370e+000 5.787947e-002 126 121 112
5.913155e+000 -3.179430e+000 -8.945141e-002 141 138 130
6.141698e+000 -3.211457e+000 1.941835e-002 147 144 129
7.537844e+000 -3.118416e+000 -5.626579e-001 60 43 36
7.567233e+000 -3.121914e+000 -5.389678e-001 89 72 65
7.648838e+000 -3.145554e+000 -6.792764e-001 86 71 64
8.420145e+000 -3.121928e+000 -1.107150e+000 82 66 50
6.453576e+000 -3.252270e+000 1.007252e-001 72 59 51
8.057692e+000 -3.195635e+000 -3.916839e-001 106 93 77
6.096315e+000 -3.297664e+000 -5.071073e-003 135 130 123
6.673349e+000 -3.273263e+000 5.039965e-002 84 65 58
6.308632e+000 -3.413707e+000 1.168111e-001 79 68 66
8.015741e+000 -3.326894e+000 -3.408274e-001 160 164 160
8.154413e+000 -3.308250e+000 -2.261859e-001 112 108 109
7.980621e+000 -3.395533e+000 -4.408621e-001 183 203 202
8.020000e+000 -3.410397e+000 -2.985295e-001 122 113 111
7.990387e+000 -3.578555e+000 -6.983970e-001 70 63 57
7.690404e+000 -3.691423e+000 -7.266968e-001 48 33 28
7.970283e+000 -3.592756e+000 -4.441940e-001 108 91 81
7.970283e+000 -3.592756e+000 -4.441940e-001 108 91 81
8.122029e+000 -3.703341e+000 -3.789799e-001 88 69 54
8.054057e+000 -3.834752e+000 -4.646768e-001 80 64 49
7.923182e+000 -4.064869e+000 -6.665722e-001 62 44 38
6.898470e+000 -4.261801e+000 2.607611e-002 87 55 46
6.383447e+000 -4.326590e+000 3.211621e-001 36 22 24
6.336161e+000 -2.629490e+000 -3.146022e-001 55 45 43
6.507613e+000 -2.630136e+000 -3.227549e-001 59 41 39
7.371632e+000 -2.546047e+000 -8.595090e-001 109 106 97
6.373213e+000 -2.736919e+000 -2.148253e-001 59 46 37
6.597378e+000 -2.729032e+000 -2.617262e-001 88 71 55
6.036050e+000 -2.933167e+000 -1.482668e-001 154 149 135
6.618603e+000 -2.889739e+000 -9.717251e-002 79 57 44
8.876566e+000 -2.702190e+000 -1.164860e+000 141 123 73
5.946181e+000 -3.044897e+000 -1.443529e-001 152 144 135
6.166687e+000 -3.011879e+000 1.788293e-002 152 152 140
6.264829e+000 -3.127306e+000 6.105176e-002 81 73 62
6.507702e+000 -3.053527e+000 3.810320e-002 84 73 67
6.507702e+000 -3.053527e+000 3.810320e-002 84 73 67
6.501049e+000 -3.082553e+000 4.763199e-002 62 52 43
5.972699e+000 -3.229226e+000 -4.146813e-002 79 68 63
6.563509e+000 -3.126957e+000 4.874621e-002 101 93 82
6.556490e+000 -3.210372e+000 8.213926e-002 87 80 74
6.247138e+000 -3.317587e+000 6.346600e-002 94 85 76
6.625770e+000 -3.293277e+000 1.202942e-001 74 59 52
7.297275e+000 -3.281750e+000 -7.198549e-001 37 24 18
7.297138e+000 -3.281136e+000 -7.290186e-001 37 24 18
7.982207e+000 -3.333381e+000 -4.872226e-001 184 205 203
7.244598e+000 -3.724374e+000 -8.162925e-001 86 62 50
9.354179e+000 -3.706245e+000 -3.772672e-001 153 135 87
6.099461e+000 -3.775417e+000 4.255691e-001 58 49 53
5.864246e+000 -3.915827e+000 4.545605e-001 46 31 38
5.867183e+000 -3.962575e+000 3.772739e-001 77 64 69
6.980795e+000 -4.102166e+000 -2.962062e-001 157 130 84
6.724292e+000 -4.316147e+000 -2.487206e-001 74 50 37
6.977407e+000 -4.278888e+000 1.126827e-001 166 143 93
8.935928e+000 -2.294933e+000 -1.080779e+000 157 137 87
8.013473e+000 -2.539106e+000 -1.028824e+000 99 81 61
8.009410e+000 -2.540339e+000 -1.007483e+000 99 81 61
9.041807e+000 -2.483568e+000 -1.017314e+000 176 161 101
6.374560e+000 -2.768576e+000 -1.719296e-001 67 57 45
5.512177e+000 -3.116323e+000 -6.302853e-001 77 64 90
5.898674e+000 -3.017269e+000 -1.977464e-001 83 74 67
6.163076e+000 -3.085748e+000 4.592966e-002 143 142 133
6.183614e+000 -3.138804e+000 6.005927e-002 158 159 145
6.180750e+000 -3.140050e+000 4.953553e-002 158 159 145
6.270576e+000 -3.095607e+000 6.696525e-002 142 141 129
6.462199e+000 -3.058823e+000 5.924595e-002 42 31 29
8.289384e+000 -3.090029e+000 -9.334268e-001 108 90 70
5.964841e+000 -3.269980e+000 -2.706876e-002 144 140 131
6.120067e+000 -3.258914e+000 2.695889e-003 39 33 27
6.405543e+000 -3.228552e+000 9.078893e-002 149 146 134
6.060346e+000 -3.302134e+000 -8.843919e-003 57 48 45
6.060346e+000 -3.302134e+000 -8.843919e-003 57 48 45
6.496540e+000 -3.285598e+000 1.103950e-001 45 39 34
8.440640e+000 -3.250411e+000 -3.230318e-001 108 87 60
6.391907e+000 -3.456859e+000 1.264586e-001 43 32 36
6.465042e+000 -3.416107e+000 1.265191e-001 43 34 29
6.326781e+000 -3.477697e+000 2.035886e-001 40 28 27
6.985726e+000 -3.535635e+000 -2.835240e-001 90 59 37
7.218158e+000 -3.763826e+000 -6.375600e-001 91 66 51
7.804371e+000 -3.935611e+000 -7.085383e-001 76 62 55
6.945416e+000 -3.913852e+000 -2.280365e-001 58 30 26
8.277811e+000 -3.934032e+000 -5.577220e-001 109 88 64
6.076020e+000 -3.909414e+000 3.799081e-001 39 26 35
8.253645e+000 -5.116323e+000 -2.092925e+000 156 129 86
8.240771e+000 -5.095960e+000 -2.039546e+000 156 129 86
5.599887e+000 -2.454600e+000 -2.926147e-001 55 37 49
5.923226e+000 -2.439816e+000 -9.837121e-002 45 29 39
6.292933e+000 -2.621357e+000 -3.767562e-001 46 35 31
8.094681e+000 -3.091438e+000 -7.801965e-001 45 33 32
8.529448e+000 -3.265522e+000 -3.519261e-001 128 118 100
6.250867e+000 -3.549987e+000 3.247041e-001 43 28 33
6.761832e+000 -3.683148e+000 1.477336e-001 33 20 14
6.886532e+000 -2.244414e+000 -1.073483e+000 140 121 88
5.698725e+000 -2.579371e+000 -1.539959e-001 53 36 44
7.287255e+000 -2.526658e+000 -1.365490e+000 62 51 57
7.287255e+000 -2.526658e+000 -1.365490e+000 62 51 57
6.257170e+000 -2.870674e+000 -3.862833e-002 36 32 29
6.234279e+000 -2.934848e+000 1.631665e-002 133 134 120
5.838376e+000 -3.167305e+000 -2.409752e-001 41 31 39
5.854327e+000 -3.247576e+000 -1.449187e-001 126 126 118
5.975651e+000 -3.342026e+000 9.215755e-003 47 33 33
8.208053e+000 -3.273837e+000 -2.335192e-001 185 196 197
9.288491e+000 -3.736425e+000 -3.708487e-001 153 137 88
6.741499e+000 -4.303910e+000 -8.879257e-002 143 118 77
6.780357e+000 -2.721150e+000 -5.326033e-001 134 110 84
6.755693e+000 -3.082817e+000 -1.503032e-002 79 60 44
6.806430e+000 -3.185669e+000 4.014255e-003 80 58 42
8.093589e+000 -3.612001e+000 -3.648724e-001 135 128 118
7.654705e+000 -3.877183e+000 -8.137396e-001 82 59 51
8.186124e+000 -3.698862e+000 -3.613942e-001 92 74 59
5.894966e+000 -4.034211e+000 2.658803e-001 72 55 64
5.822836e+000 -4.033121e+000 3.740049e-001 40 25 32
7.937514e+000 -3.447710e+000 -6.863618e-001 64 51 42
6.783222e+000 -3.531963e+000 -2.759956e-002 32 21 19
8.275607e+000 -3.806575e+000 -4.334764e-001 118 98 73
8.941411e+000 -4.118543e+000 -1.099442e+000 129 111 73
7.417215e+000 -2.804221e+000 -6.256221e-001 72 59 49
5.775871e+000 -3.663956e+000 3.735883e-001 37 26 32
7.266727e+000 -3.789690e+000 -8.422110e-001 59 38 33
6.360829e+000 -3.231505e+000 6.607743e-002 49 46 41
8.043163e+000 -3.126036e+000 -5.662550e-001 62 51 45
5.907754e+000 -3.896995e+000 1.392388e-001 38 23 28
7.530394e+000 -3.947196e+000 -1.006582e+000 45 30 28
7.493810e+000 -2.312594e+000 -1.056923e+000 91 78 64
7.493810e+000 -2.312594e+000 -1.056923e+000 91 78 64
9.223866e+000 -3.258703e+000 -6.101333e-001 179 166 111
8.472718e+000 -2.936177e+000 -8.661692e-001 53 33 24
6.459379e+000 -3.095883e+000 5.462063e-002 93 86 78
7.695392e+000 -3.069566e+000 -5.598558e-001 113 104 97
6.116366e+000 -3.298814e+000 2.006063e-002 100 89 83
8.898238e+000 -2.295779e+000 -1.135788e+000 179 163 111
7.759466e+000 -2.422609e+000 -9.547675e-001 104 87 69
7.716958e+000 -2.606172e+000 -7.895203e-001 99 82 62
7.319764e+000 -2.796970e+000 -6.243877e-001 87 80 70
9.073822e+000 -3.045510e+000 -8.041917e-001 176 159 116
6.659929e+000 -3.421937e+000 8.879661e-002 87 74 66
6.378887e+000 -3.064390e+000 6.423778e-002 64 50 42
6.378858e+000 -3.064257e+000 6.523228e-002 64 50 42
7.917487e+000 -3.104519e+000 -6.528779e-001 87 71 58
7.940799e+000 -3.074885e+000 -6.482276e-001 56 42 26
8.089151e+000 -3.226754e+000 -3.147310e-001 143 137 125
6.133796e+000 -3.300770e+000 1.898755e-002 130 126 116
7.889458e+000 -3.546112e+000 -7.198783e-001 49 31 27
7.567470e+000 -3.199486e+000 -6.119353e-001 48 30 25
7.601036e+000 -3.216727e+000 -6.301397e-001 73 55 49
7.844360e+000 -3.853301e+000 -6.966058e-001 48 33 30
8.287190e+000 -2.952058e+000 -9.021789e-001 59 27 33
8.444004e+000 -3.116439e+000 -1.094494e+000 83 69 57
6.658870e+000 -3.397838e+000 9.300298e-002 93 78 74
8.193840e+000 -3.407118e+000 -1.938836e-001 160 165 157
8.044271e+000 -3.637888e+000 -3.697516e-001 105 89 81
6.400670e+000 -2.661307e+000 -2.801192e-001 40 27 21
7.916031e+000 -2.559475e+000 -9.632637e-001 69 48 30
7.910960e+000 -2.644097e+000 -8.961904e-001 92 75 59
9.020197e+000 -3.103629e+000 -9.713395e-001 143 126 72
6.002263e+000 -3.254237e+000 -1.487988e-002 91 84 77
6.211213e+000 -3.262856e+000 4.998812e-002 125 123 110
7.720965e+000 -3.730656e+000 -7.336226e-001 53 35 31
7.364468e+000 -2.724309e+000 -6.613133e-001 97 89 76
7.364468e+000 -2.724309e+000 -6.613133e-001 97 89 76
7.781272e+000 -2.796617e+000 -7.455034e-001 63 45 32
8.282104e+000 -2.926308e+000 -9.654987e-001 131 117 101
8.129803e+000 -3.073636e+000 -7.994030e-001 51 34 27
8.471870e+000 -3.224516e+000 -3.218927e-001 57 36 25
7.576927e+000 -3.623909e+000 -7.250245e-001 69 54 47
7.359493e+000 -3.788039e+000 -7.497506e-001 66 47 32
7.870717e+000 -3.847039e+000 -6.607326e-001 70 55 52
6.378184e+000 -2.877218e+000 1.855465e-002 75 61 52
7.470010e+000 -2.913430e+000 -6.036658e-001 85 72 63
6.511991e+000 -2.985095e+000 4.023752e-002 90 74 64
8.154827e+000 -3.654369e+000 -3.362473e-001 103 85 66
9.080560e+000 -2.099300e+000 -8.091056e-001 163 146 93
9.015292e+000 -2.184173e+000 -9.524195e-001 157 144 91
9.249488e+000 -2.181169e+000 -5.416791e-001 188 175 124
6.221659e+000 -2.746056e+000 -2.615591e-001 128 124 112
7.364008e+000 -2.617331e+000 -7.276704e-001 103 96 88
7.342040e+000 -2.082878e+000 -1.073447e+000 129 122 115
8.036944e+000 -2.777866e+000 -9.108169e-001 70 51 34
8.070386e+000 -2.916966e+000 -8.866244e-001 59 41 30
6.418737e+000 -3.163540e+000 6.928119e-002 87 75 66
6.130755e+000 -3.322858e+000 8.362774e-003 92 89 80
8.084120e+000 -3.244318e+000 -3.326754e-001 155 146 143
6.493819e+000 -3.427251e+000 1.145497e-001 59 46 40
5.860974e+000 -2.538428e+000 -3.009007e-002 77 64 73
6.296573e+000 -2.705453e+000 -2.447172e-001 83 74 67
7.898108e+000 -2.594000e+000 -9.252200e-001 100 81 64
7.997657e+000 -2.819706e+000 -8.314469e-001 63 44 28
6.421847e+000 -2.955293e+000 5.696050e-002 73 58 53
6.520610e+000 -3.050603e+000 4.008259e-002 87 80 70
6.121818e+000 -3.199747e+000 2.261720e-002 110 107 95
6.274618e+000 -3.144461e+000 5.461824e-002 108 102 88
6.343019e+000 -3.115760e+000 6.883610e-002 110 101 91
6.687569e+000 -3.073975e+000 -3.412473e-003 41 26 22
5.719029e+000 -3.295248e+000 -1.244522e-001 51 50 57
6.286482e+000 -3.240137e+000 6.059569e-002 122 124 113
6.385697e+000 -3.209218e+000 8.152059e-002 98 91 82
6.206198e+000 -3.350054e+000 3.309634e-002 53 46 40
6.515489e+000 -3.316725e+000 1.043432e-001 84 71 65
7.913732e+000 -3.330230e+000 -6.883949e-001 56 41 38
7.983996e+000 -3.289982e+000 -5.455252e-001 177 195 194
6.402462e+000 -3.391274e+000 1.154483e-001 78 70 63
7.488632e+000 -3.468524e+000 -6.673689e-001 56 37 30
7.461845e+000 -3.880839e+000 -9.400331e-001 45 28 21
7.686267e+000 -2.365537e+000 -9.198803e-001 97 81 65
7.647944e+000 -2.430438e+000 -8.794709e-001 102 84 72
7.677155e+000 -2.418681e+000 -9.169115e-001 72 54 44
7.677155e+000 -2.418681e+000 -9.169115e-001 72 54 44
7.803214e+000 -2.663740e+000 -8.781165e-001 94 74 63
5.940135e+000 -2.984645e+000 -1.465418e-001 153 153 139
5.939274e+000 -2.985199e+000 -1.501101e-001 153 153 139
7.848751e+000 -2.779521e+000 -7.673562e-001 94 77 67
6.533999e+000 -3.063425e+000 3.336080e-002 57 46 40
6.461200e+000 -3.115334e+000 6.207407e-002 75 67 61
6.401143e+000 -3.187919e+000 7.165374e-002 120 114 102
7.557563e+000 -3.236799e+000 -6.883477e-001 73 58 53
7.768397e+000 -3.322530e+000 -6.650630e-001 74 60 57
7.786377e+000 -3.342681e+000 -6.559073e-001 50 40 35
8.120828e+000 -3.213683e+000 -3.349041e-001 139 130 125
7.510371e+000 -3.460636e+000 -6.555651e-001 77 60 53
6.366091e+000 -3.487000e+000 1.397097e-001 62 55 50
7.948264e+000 -3.555161e+000 -7.383316e-001 63 48 43
8.105311e+000 -3.733192e+000 -4.038010e-001 90 72 63
6.897129e+000 -4.217037e+000 7.056463e-002 77 48 36
6.849493e+000 -2.254017e+000 -8.377762e-001 167 145 115
8.836849e+000 -2.413248e+000 -1.243424e+000 146 128 80
6.149236e+000 -2.851319e+000 -1.788150e-001 93 94 86
6.005620e+000 -3.105898e+000 -4.699620e-002 85 82 77
7.532994e+000 -3.188797e+000 -5.893742e-001 71 56 51
5.916121e+000 -3.313083e+000 -4.798957e-002 104 99 96
6.439352e+000 -3.283950e+000 1.074320e-001 107 104 97
7.963499e+000 -3.247958e+000 -7.277121e-001 53 39 36
7.636296e+000 -3.349865e+000 -6.338233e-001 50 33 26
8.275383e+000 -3.173812e+000 -2.348864e-001 120 101 80
6.380229e+000 -3.427501e+000 1.236908e-001 83 74 66
6.525256e+000 -3.389907e+000 1.127108e-001 57 44 38
6.462896e+000 -3.468095e+000 1.362460e-001 51 42 33
5.791782e+000 -3.589171e+000 3.741318e-001 30 18 32
8.002148e+000 -3.532307e+000 -3.748356e-001 101 92 83
7.688754e+000 -3.692220e+000 -7.280602e-001 48 33 30
6.742423e+000 -4.522547e+000 8.540023e-002 158 140 95
8.810634e+000 -2.443096e+000 -1.281923e+000 148 132 81
7.665103e+000 -2.619394e+000 -7.908255e-001 85 69 54
5.960058e+000 -2.932843e+000 -1.654263e-001 151 148 136
8.199453e+000 -2.656120e+000 -9.875297e-001 60 43 35
5.971690e+000 -3.228104e+000 -3.410991e-002 75 65 63
8.177745e+000 -3.216290e+000 -2.069442e-001 105 97 93
7.337220e+000 -3.822275e+000 -6.943507e-001 100 78 64
8.795323e+000 -5.049340e+000 -1.147470e+000 156 136 83
6.155981e+000 -2.817305e+000 -2.006890e-001 136 137 129
8.907467e+000 -2.663876e+000 -1.104211e+000 143 126 75
6.680173e+000 -3.063539e+000 -2.509456e-002 44 30 28
5.911326e+000 -3.271350e+000 -6.981597e-002 58 49 42
6.625102e+000 -3.471635e+000 1.042794e-001 34 23 14
6.274271e+000 -3.271056e+000 6.235358e-002 45 38 34
6.237064e+000 -3.417979e+000 8.668541e-002 29 19 19
6.527519e+000 -3.514037e+000 1.266117e-001 35 23 21
7.279307e+000 -3.721662e+000 -7.410777e-001 48 30 26
7.247452e+000 -3.965064e+000 -1.000463e+000 159 141 100
6.367432e+000 -2.842165e+000 -1.466626e-002 114 105 96
6.625792e+000 -2.934928e+000 -4.398500e-002 71 52 38
7.869047e+000 -2.512906e+000 -1.053498e+000 101 82 65
5.997187e+000 -4.114290e+000 4.231958e-001 47 30 38
9.069063e+000 -3.043513e+000 -7.911221e-001 167 158 117
6.287132e+000 -3.240469e+000 5.325599e-002 125 121 110
7.439698e+000 -2.455029e+000 -8.181286e-001 74 58 43
7.609221e+000 -2.634035e+000 -8.002979e-001 97 80 66
7.785399e+000 -2.609378e+000 -8.843248e-001 97 78 63
7.471148e+000 -2.741792e+000 -6.677584e-001 97 83 72
6.343107e+000 -3.114262e+000 7.297456e-002 108 94 86
7.890754e+000 -3.085570e+000 -6.400501e-001 67 51 38
7.555739e+000 -3.165929e+000 -5.996593e-001 57 37 37
7.988428e+000 -3.518821e+000 -4.022459e-001 150 151 153
7.843581e+000 -4.186979e+000 -8.245743e-001 173 152 99
9.011267e+000 -2.184968e+000 -9.474206e-001 157 144 91
7.725678e+000 -2.530352e+000 -8.396127e-001 78 60 47
8.269113e+000 -2.881201e+000 -8.828284e-001 65 38 33
6.532041e+000 -3.094535e+000 4.659071e-002 89 80 71
7.882396e+000 -2.607436e+000 -9.218398e-001 60 41 24
7.947918e+000 -2.770684e+000 -8.600835e-001 64 46 32
8.054818e+000 -2.846109e+000 -9.679552e-001 97 83 56
7.505053e+000 -3.175505e+000 -6.078966e-001 49 31 30
6.119164e+000 -3.347208e+000 1.467061e-003 116 110 104
7.609830e+000 -3.263967e+000 -6.318312e-001 80 65 58
7.714593e+000 -2.454880e+000 -9.175042e-001 101 82 70
8.119003e+000 -2.611013e+000 -1.025068e+000 108 91 81
6.384559e+000 -2.920961e+000 3.687809e-002 63 50 41
7.404103e+000 -2.929275e+000 -5.991293e-001 80 69 65
6.550425e+000 -3.076197e+000 3.292064e-002 100 91 82
9.083862e+000 -3.194185e+000 -8.016150e-001 127 113 87
7.534913e+000 -3.427917e+000 -6.839722e-001 74 58 51
7.913591e+000 -3.514256e+000 -7.198524e-001 54 36 32
7.978457e+000 -3.645423e+000 -4.417662e-001 105 88 81
7.697472e+000 -3.802599e+000 -7.262863e-001 51 36 31
7.468223e+000 -2.356728e+000 -8.692335e-001 78 64 52
7.453082e+000 -2.391696e+000 -8.564227e-001 99 86 77
6.398793e+000 -2.661984e+000 -2.911933e-001 43 29 26
7.588913e+000 -2.950733e+000 -5.877439e-001 94 79 72
6.646254e+000 -3.144272e+000 4.252328e-002 69 55 43
6.548019e+000 -3.345455e+000 1.075558e-001 80 71 65
7.982155e+000 -3.567227e+000 -4.100709e-001 99 90 81
8.080062e+000 -3.660159e+000 -3.656805e-001 104 87 80
6.459633e+000 -2.992514e+000 4.996750e-002 49 36 28
7.680265e+000 -3.257081e+000 -6.242691e-001 39 24 21
7.328562e+000 -3.755572e+000 -7.379452e-001 87 68 56
6.748597e+000 -4.560373e+000 1.636188e-001 172 145 97
6.734958e+000 -2.411540e+000 -8.911515e-001 43 27 27
8.632074e+000 -3.457130e+000 -2.481873e+000 102 88 80
6.505654e+000 -2.605893e+000 -3.694730e-001 78 66 57
6.341866e+000 -2.674109e+000 -2.873126e-001 119 110 105
6.147983e+000 -2.795674e+000 -2.313224e-001 87 84 77
7.150419e+000 -2.731442e+000 -1.299195e+000 113 97 105
6.258101e+000 -2.838171e+000 -1.020921e-001 115 107 106
6.390278e+000 -2.874496e+000 2.830157e-002 73 61 52
6.257512e+000 -2.944733e+000 6.034506e-002 129 126 114
7.311765e+000 -2.880665e+000 -6.365546e-001 45 32 24
6.149515e+000 -3.029737e+000 1.496643e-002 98 98 86
6.193441e+000 -3.022612e+000 3.356034e-002 139 137 127
8.256032e+000 -2.900640e+000 -9.692751e-001 86 76 68
5.424511e+000 -3.463209e+000 -7.149641e-001 117 104 98
5.965582e+000 -3.200283e+000 -5.395188e-002 132 129 124
6.171733e+000 -3.166613e+000 4.808283e-002 102 94 86
5.809366e+000 -3.354658e+000 1.371396e-002 123 121 134
6.479996e+000 -3.203391e+000 7.572770e-002 68 63 55
6.480849e+000 -3.211634e+000 8.926401e-002 126 120 106
6.489785e+000 -3.219438e+000 9.998686e-002 66 57 48
6.623727e+000 -3.197090e+000 6.176266e-002 61 45 38
6.538511e+000 -3.265659e+000 9.060824e-002 131 129 123
6.447589e+000 -3.343049e+000 1.095357e-001 61 49 43
6.464968e+000 -3.384082e+000 1.178878e-001 91 84 76
7.486753e+000 -3.403706e+000 -6.564942e-001 57 45 41
8.081904e+000 -3.241174e+000 -3.253307e-001 161 167 160
8.192623e+000 -3.195427e+000 -2.027756e-001 104 93 91
6.405243e+000 -3.455406e+000 1.471788e-001 33 27 25
8.204545e+000 -3.264713e+000 -1.784600e-001 204 212 215
7.245075e+000 -3.712198e+000 -7.247623e-001 77 57 46
8.199865e+000 -3.379872e+000 -1.529508e-001 133 125 113
6.751738e+000 -3.717705e+000 2.442441e-001 113 108 80
7.341948e+000 -2.128506e+000 -1.089381e+000 106 93 89
7.293935e+000 -2.441762e+000 -1.616595e+000 78 63 74
7.261525e+000 -2.481800e+000 -1.533816e+000 77 68 69
7.566175e+000 -2.431926e+000 -8.496179e-001 91 73 61
6.202777e+000 -2.719549e+000 -2.632879e-001 50 41 36
6.340576e+000 -2.726887e+000 -2.318137e-001 66 56 47
8.028320e+000 -2.613201e+000 -9.964468e-001 70 51 30
5.954360e+000 -2.894019e+000 -2.278033e-001 121 118 113
6.081836e+000 -2.864803e+000 -1.752143e-001 99 96 89
6.222391e+000 -2.851081e+000 -1.031306e-001 129 127 117
6.385560e+000 -2.823025e+000 -2.799485e-002 77 67 56
6.495949e+000 -2.818589e+000 -1.240381e-001 77 57 46
6.516710e+000 -2.813152e+000 -1.451403e-001 58 40 30
7.915314e+000 -2.645930e+000 -9.110521e-001 94 75 61
8.145991e+000 -2.632649e+000 -1.024153e+000 119 107 95
8.189806e+000 -2.641523e+000 -1.059900e+000 73 52 47
6.011006e+000 -2.983746e+000 -1.114002e-001 151 152 138
6.367121e+000 -2.840215e+000 -1.310788e-002 84 80 73
7.963450e+000 -2.766674e+000 -8.461309e-001 100 81 66
7.968153e+000 -2.786563e+000 -8.343997e-001 97 78 62
7.968153e+000 -2.786563e+000 -8.343997e-001 97 78 62
6.028642e+000 -3.049391e+000 -8.889963e-002 143 139 134
7.886643e+000 -2.813263e+000 -7.998915e-001 63 46 29
6.131431e+000 -3.043163e+000 -8.721233e-004 141 137 126
6.091993e+000 -3.105213e+000 -7.538024e-003 96 93 73
5.939992e+000 -3.262903e+000 -5.618788e-002 152 154 145
6.368605e+000 -3.176790e+000 6.514292e-002 91 93 81
6.234781e+000 -3.227760e+000 4.740915e-002 96 85 81
6.559920e+000 -3.174412e+000 6.258034e-002 56 44 38
6.590735e+000 -3.186086e+000 6.120381e-002 88 79 70
6.602348e+000 -3.206099e+000 6.435820e-002 49 39 34
6.602348e+000 -3.206099e+000 6.435820e-002 49 39 34
6.077232e+000 -3.343098e+000 -1.068682e-002 90 87 82
6.449629e+000 -3.316350e+000 1.104804e-001 130 129 119
6.521692e+000 -3.263116e+000 9.142646e-002 52 48 45
6.560386e+000 -3.296796e+000 1.049031e-001 69 56 48
7.361201e+000 -3.356605e+000 -6.885495e-001 38 20 18
6.428560e+000 -3.381834e+000 1.198243e-001 58 46 40
6.439048e+000 -3.360883e+000 1.153472e-001 88 80 72
7.859016e+000 -3.333670e+000 -6.667616e-001 58 46 46
7.942582e+000 -3.333435e+000 -7.168613e-001 81 65 61
6.636153e+000 -3.427121e+000 9.470712e-002 81 67 61
7.939460e+000 -3.482394e+000 -7.333495e-001 63 43 44
8.211877e+000 -3.238849e+000 -1.723485e-001 204 210 205
8.487309e+000 -3.217434e+000 -3.044075e-001 123 111 95
7.289128e+000 -3.667131e+000 -7.112641e-001 42 28 19
7.577887e+000 -3.601268e+000 -7.365045e-001 52 34 27
7.615097e+000 -3.625006e+000 -7.348750e-001 58 41 34
7.979862e+000 -4.015321e+000 -5.898307e-001 107 86 74
7.361388e+000 -2.151108e+000 -1.025241e+000 152 150 151
7.485633e+000 -2.422303e+000 -8.344610e-001 69 51 41
7.485616e+000 -2.422173e+000 -8.329920e-001 69 51 41
6.514089e+000 -2.680185e+000 -2.796776e-001 111 111 103
6.078934e+000 -2.787544e+000 -2.871456e-001 93 87 87
6.317410e+000 -2.786195e+000 -1.640742e-001 130 126 116
7.604843e+000 -2.629799e+000 -7.822138e-001 92 74 60
7.717784e+000 -2.590622e+000 -8.165782e-001 91 74 61
7.811322e+000 -2.623604e+000 -8.687009e-001 67 50 32
5.985883e+000 -2.892267e+000 -2.213723e-001 135 134 129
6.186604e+000 -2.855847e+000 -1.303929e-001 134 136 129
6.252979e+000 -2.813073e+000 -1.643100e-001 138 131 123
6.565490e+000 -2.764426e+000 -2.029299e-001 70 52 39
6.385024e+000 -2.839297e+000 6.592901e-003 152 152 142
6.461791e+000 -2.861611e+000 -1.435320e-002 52 37 32
6.599682e+000 -2.833184e+000 -1.895887e-001 35 21 20
7.485642e+000 -2.772378e+000 -6.897833e-001 91 75 63
7.789711e+000 -2.739890e+000 -7.869269e-001 90 73 57
7.857316e+000 -2.786636e+000 -8.020576e-001 93 76 58
8.029991e+000 -2.772755e+000 -9.549775e-001 94 77 58
6.336730e+000 -2.915964e+000 3.707751e-002 85 76 70
6.468043e+000 -2.913244e+000 1.111087e-002 77 63 60
6.532969e+000 -2.941751e+000 2.821033e-004 37 21 22
7.823613e+000 -2.852973e+000 -7.546106e-001 87 70 55
6.863945e+000 -3.031981e+000 -3.537588e-001 36 19 18
6.203322e+000 -3.118902e+000 6.033464e-002 154 156 145
6.058972e+000 -3.233204e+000 -8.331866e-003 85 79 71
6.493410e+000 -3.159921e+000 4.864396e-002 86 76 73
7.783230e+000 -3.116833e+000 -5.987783e-001 62 47 40
7.877611e+000 -3.068129e+000 -5.945192e-001 59 45 33
5.982034e+000 -3.306239e+000 -4.463025e-002 58 56 51
6.187785e+000 -3.295240e+000 2.894365e-002 126 118 110
6.373422e+000 -3.192371e+000 7.917735e-002 139 136 118
6.526970e+000 -3.235398e+000 7.818859e-002 114 107 99
6.615953e+000 -3.165316e+000 6.143494e-002 96 86 76
7.349182e+000 -3.344418e+000 -7.149950e-001 76 58 56
6.304536e+000 -3.417176e+000 1.132076e-001 89 79 80
6.838393e+000 -3.350836e+000 -7.811666e-004 91 73 61
7.532347e+000 -3.472170e+000 -6.742007e-001 54 36 32
8.179356e+000 -3.199326e+000 -2.403654e-001 137 132 128
6.459592e+000 -3.464506e+000 1.400363e-001 50 38 35
7.581044e+000 -4.125039e+000 -1.058674e+000 106 79 50
8.104878e+000 -3.730848e+000 -3.996126e-001 90 72 61
8.088418e+000 -3.839360e+000 -4.584333e-001 122 103 88
6.995859e+000 -4.034858e+000 -2.479245e-001 163 136 91
7.768351e+000 -4.153626e+000 -8.747304e-001 176 155 105
7.382272e+000 -2.146116e+000 -9.839306e-001 82 80 69
7.662358e+000 -2.371102e+000 -9.161282e-001 71 51 40
6.081277e+000 -2.761903e+000 -3.059073e-001 32 22 23
6.175212e+000 -2.748085e+000 -2.565867e-001 68 58 57
6.204979e+000 -2.767065e+000 -2.038173e-001 61 55 49
6.364220e+000 -2.741114e+000 -2.163228e-001 52 40 34
5.885396e+000 -2.919667e+000 -2.912216e-001 116 113 108
6.095192e+000 -2.847972e+000 -2.065590e-001 127 124 115
6.482355e+000 -2.801298e+000 -1.570461e-001 39 26 20
7.319211e+000 -2.760670e+000 -6.523687e-001 91 83 80
7.521966e+000 -2.710353e+000 -7.316338e-001 85 68 60
7.590171e+000 -2.674131e+000 -7.345940e-001 78 62 47
5.969390e+000 -2.985911e+000 -1.355827e-001 149 146 137
6.103907e+000 -2.916976e+000 -1.264456e-001 162 162 153
6.409803e+000 -2.841751e+000 -1.368110e-002 69 51 40
7.325981e+000 -2.922249e+000 -6.892661e-001 53 38 35
7.602958e+000 -2.882341e+000 -6.455745e-001 66 54 40
7.927198e+000 -2.810311e+000 -8.338646e-001 90 72 54
6.433308e+000 -3.006011e+000 4.271528e-002 57 43 34
6.672950e+000 -2.948216e+000 -7.770301e-002 84 62 52
7.505907e+000 -2.942048e+000 -5.971157e-001 59 46 40
7.506538e+000 -2.942727e+000 -5.978195e-001 59 46 40
5.929464e+000 -3.224349e+000 -8.096073e-002 161 158 153
6.007590e+000 -3.195178e+000 -3.629462e-002 79 71 68
6.008447e+000 -3.194289e+000 -3.428812e-002 79 71 68
6.606748e+000 -3.059193e+000 2.542609e-002 46 35 31
7.612866e+000 -3.058939e+000 -5.744871e-001 89 74 67
5.748720e+000 -3.342029e+000 -1.106467e-001 109 126 135
6.073181e+000 -3.252450e+000 -1.268446e-002 155 155 145
6.434833e+000 -3.109168e+000 4.995210e-002 116 117 112
6.483610e+000 -3.132025e+000 6.049889e-002 119 115 106
7.807510e+000 -3.084631e+000 -6.356607e-001 88 75 67
7.807510e+000 -3.084631e+000 -6.356607e-001 88 75 67
6.613283e+000 -3.228318e+000 6.509870e-002 86 79 69
6.073242e+000 -3.369667e+000 -1.710086e-002 61 44 44
7.289469e+000 -3.456939e+000 -6.594649e-001 39 24 19
6.526961e+000 -3.438116e+000 1.192309e-001 48 39 34
8.097168e+000 -3.297219e+000 -2.703098e-001 118 115 110
8.148755e+000 -3.278982e+000 -2.358702e-001 183 202 209
6.491919e+000 -3.490154e+000 1.378216e-001 92 78 75
7.982820e+000 -3.482094e+000 -3.934921e-001 109 97 91
7.982820e+000 -3.482094e+000 -3.934921e-001 109 97 91
8.027075e+000 -3.412881e+000 -3.318914e-001 118 112 108
7.641736e+000 -3.799734e+000 -7.707575e-001 51 35 33
7.598100e+000 -4.089254e+000 -1.085127e+000 75 59 38
7.627883e+000 -4.081685e+000 -1.064522e+000 149 125 89
7.623552e+000 -4.073051e+000 -1.039507e+000 149 125 89
7.839330e+000 -3.849943e+000 -6.825618e-001 46 32 29
6.085010e+000 -3.950472e+000 5.023934e-001 40 25 37
9.406472e+000 -3.974349e+000 -1.478947e-001 152 143 98
6.879526e+000 -2.290560e+000 -9.178900e-001 168 134 105
6.474332e+000 -2.756405e+000 -1.872621e-001 133 131 119
6.155220e+000 -2.847591e+000 -1.656393e-001 81 77 69
6.071000e+000 -2.955410e+000 -1.063870e-001 81 74 63
6.618013e+000 -2.891551e+000 -1.040651e-001 75 53 46
6.243052e+000 -3.032015e+000 5.151271e-002 100 95 87
6.652074e+000 -2.966536e+000 -3.256885e-002 53 36 26
6.089650e+000 -3.167514e+000 1.084075e-002 152 155 144
6.291651e+000 -3.061427e+000 7.830103e-002 72 67 56
7.541162e+000 -3.122432e+000 -5.762969e-001 61 45 42
6.169727e+000 -3.374466e+000 1.279223e-002 91 90 85
7.456452e+000 -3.393590e+000 -6.621925e-001 28 15 13
7.981907e+000 -3.323628e+000 -4.539322e-001 181 202 205
7.979224e+000 -3.321792e+000 -4.478027e-001 181 202 205
6.432162e+000 -3.456709e+000 1.262861e-001 124 119 115
7.975983e+000 -3.461170e+000 -4.178293e-001 155 168 172
7.975983e+000 -3.461170e+000 -4.178293e-001 155 168 172
7.348208e+000 -3.852220e+000 -8.075245e-001 97 74 58
7.960147e+000 -3.556398e+000 -4.422857e-001 149 150 149
6.417327e+000 -2.702717e+000 -2.550351e-001 67 54 48
6.286233e+000 -2.760400e+000 -2.044767e-001 75 66 59
6.283855e+000 -2.767642e+000 -2.383851e-001 75 66 59
6.168912e+000 -2.873811e+000 -1.076943e-001 121 122 114
6.322344e+000 -2.817595e+000 -1.180700e-001 66 54 50
5.992619e+000 -2.986235e+000 -1.418512e-001 135 135 125
6.119535e+000 -2.964532e+000 -7.275198e-002 126 124 112
7.652016e+000 -2.887044e+000 -6.568292e-001 87 70 60
6.292724e+000 -2.983777e+000 5.854878e-002 56 43 35
6.717686e+000 -3.005483e+000 -7.919138e-002 75 54 39
6.160224e+000 -3.088842e+000 3.338949e-002 150 153 144
6.678132e+000 -3.059187e+000 -6.542949e-003 40 26 23
6.023053e+000 -3.224583e+000 -2.116936e-002 149 154 147
8.517848e+000 -3.161610e+000 -1.212607e+000 80 63 47
5.853611e+000 -3.328553e+000 -5.938416e-002 50 42 46
6.119717e+000 -3.259338e+000 1.837729e-003 73 64 59
6.639168e+000 -3.253991e+000 6.537232e-002 54 40 37
6.643000e+000 -3.518864e+000 1.028940e-001 75 56 40
6.247678e+000 -3.610924e+000 3.480789e-001 58 43 47
6.184578e+000 -3.139816e+000 5.662483e-002 154 154 144
7.488634e+000 -3.136226e+000 -5.854233e-001 70 52 48
6.118442e+000 -3.388817e+000 -8.392306e-003 37 28 30
8.520031e+000 -3.256627e+000 -3.358403e-001 124 115 103
6.454895e+000 -3.506038e+000 2.113040e-001 35 24 22
6.454895e+000 -3.506038e+000 2.113040e-001 35 24 22
7.913223e+000 -2.836016e+000 -7.861453e-001 93 74 57
6.020047e+000 -2.391580e+000 -1.987000e-001 28 17 23
6.656658e+000 -2.746531e+000 -5.400899e-001 25 11 18
6.256793e+000 -2.874220e+000 -4.640431e-002 20 18 23
6.363497e+000 -2.849036e+000 -3.673394e-002 89 85 76
6.454537e+000 -2.828331e+000 -3.649128e-002 55 35 28
5.948481e+000 -3.172027e+000 -9.261775e-002 136 135 131
8.185310e+000 -2.977663e+000 -9.262249e-001 50 36 35
6.620789e+000 -3.590726e+000 1.362144e-001 23 13 14
7.962968e+000 -3.874273e+000 -5.749718e-001 116 101 96
6.931359e+000 -4.104881e+000 -3.927747e-001 65 38 28
6.153061e+000 -2.824611e+000 -1.938249e-001 131 131 124
6.582302e+000 -3.738448e+000 2.382672e-001 27 18 19
7.729301e+000 -3.460726e+000 -6.221711e-001 85 71 69
7.470471e+000 -3.296041e+000 -6.650924e-001 42 31 27
8.266701e+000 -3.167716e+000 -1.299507e+000 71 54 47
5.922085e+000 -2.337174e+000 -2.276627e-001 62 49 56
7.322095e+000 -2.321216e+000 -1.016629e+000 60 49 51
7.322095e+000 -2.321216e+000 -1.016629e+000 60 49 51
5.862471e+000 -2.539715e+000 -9.803879e-002 38 23 30
7.015818e+000 -2.499199e+000 -1.070964e+000 155 131 93
7.015818e+000 -2.499199e+000 -1.070964e+000 155 131 93
7.007198e+000 -2.513932e+000 -9.832660e-001 160 136 99
7.019231e+000 -2.501709e+000 -9.360050e-001 89 64 34
6.062891e+000 -2.842304e+000 -2.366296e-001 107 104 99
6.109669e+000 -2.815451e+000 -2.779956e-001 79 72 62
6.356167e+000 -2.725344e+000 -2.424235e-001 87 78 71
5.704096e+000 -3.034576e+000 -3.809954e-001 153 151 152
5.763261e+000 -3.039516e+000 -3.579825e-001 127 123 120
5.830829e+000 -2.990267e+000 -2.534361e-001 150 149 144
5.850431e+000 -2.979880e+000 -2.675479e-001 135 135 127
5.946913e+000 -2.911615e+000 -1.783993e-001 133 130 121
5.928042e+000 -2.950799e+000 -2.240192e-001 126 122 113
5.928042e+000 -2.950799e+000 -2.240192e-001 126 122 113
6.183356e+000 -2.845101e+000 -1.922326e-001 131 127 118
6.271283e+000 -2.801617e+000 -1.836832e-001 77 73 64
6.295425e+000 -2.818176e+000 -2.261412e-001 72 69 60
7.267717e+000 -2.742470e+000 -6.653805e-001 76 71 65
5.581447e+000 -3.211409e+000 -5.357571e-001 137 133 129
6.160318e+000 -2.893013e+000 -1.161885e-001 136 136 128
6.204549e+000 -2.863168e+000 -5.164043e-002 111 108 99
5.882259e+000 -3.092509e+000 -1.852857e-001 118 114 109
5.882259e+000 -3.092509e+000 -1.852857e-001 118 114 109
6.197923e+000 -2.920882e+000 2.582721e-003 105 105 100
6.232765e+000 -2.943869e+000 1.930431e-002 147 144 135
6.400791e+000 -2.840067e+000 2.869910e-002 96 88 76
5.488767e+000 -3.477239e+000 -6.093935e-001 83 68 67
5.960835e+000 -3.166111e+000 -8.825618e-002 143 142 137
6.169366e+000 -3.100380e+000 5.194122e-002 139 139 131
6.425994e+000 -2.990042e+000 6.920894e-002 57 48 41
6.099545e+000 -3.180155e+000 4.400923e-002 133 131 122
6.104546e+000 -3.184572e+000 6.710362e-002 107 102 93
6.122762e+000 -3.201653e+000 1.839447e-002 105 104 92
6.293919e+000 -3.077244e+000 8.975472e-002 82 82 74
6.294441e+000 -3.114643e+000 6.261885e-002 93 92 80
5.801660e+000 -3.346110e+000 -5.720537e-002 209 241 244
5.791176e+000 -3.362901e+000 -2.200429e-002 49 43 53
5.927001e+000 -3.293004e+000 -5.218902e-002 70 69 65
6.006104e+000 -3.252039e+000 -8.576460e-003 101 98 93
6.233848e+000 -3.177006e+000 4.530557e-002 96 96 87
5.788766e+000 -3.374603e+000 7.751778e-003 105 106 124
6.161853e+000 -3.290670e+000 2.897331e-002 83 83 72
6.161853e+000 -3.290670e+000 2.897331e-002 83 83 72
6.330631e+000 -3.207933e+000 1.075053e-001 102 101 97
6.390899e+000 -3.269678e+000 6.071965e-002 74 67 59
6.185778e+000 -3.398308e+000 3.098880e-002 93 84 85
6.373183e+000 -3.421649e+000 1.752248e-001 71 66 62
5.647944e+000 -3.746563e+000 3.725118e-001 89 72 80
5.771508e+000 -3.720749e+000 3.962091e-001 34 27 35
7.323315e+000 -2.137322e+000 -1.080737e+000 161 138 106
5.894705e+000 -2.507278e+000 -1.053865e-001 28 18 26
7.328832e+000 -2.379450e+000 -1.052865e+000 57 47 46
7.337485e+000 -2.330715e+000 -1.017506e+000 101 89 90
7.059052e+000 -2.495481e+000 -9.881163e-001 159 139 107
6.060429e+000 -2.817187e+000 -2.596487e-001 91 83 81
6.019589e+000 -2.848417e+000 -2.859734e-001 55 50 47
6.116150e+000 -2.833389e+000 -2.294512e-001 73 72 62
6.117289e+000 -2.829278e+000 -2.167572e-001 73 72 62
6.118060e+000 -2.817298e+000 -2.348866e-001 127 124 115
6.118060e+000 -2.817298e+000 -2.348866e-001 127 124 115
5.805097e+000 -2.987250e+000 -3.371378e-001 138 134 123
5.997615e+000 -2.924306e+000 -1.735852e-001 106 102 93
6.030748e+000 -2.873395e+000 -2.158812e-001 71 68 61
6.145881e+000 -2.876089e+000 -1.684550e-001 134 134 124
5.692796e+000 -3.093259e+000 -3.348072e-001 101 96 91
5.769619e+000 -3.037124e+000 -3.072964e-001 161 162 157
5.534984e+000 -3.271548e+000 -5.995102e-001 135 127 124
6.228868e+000 -2.919091e+000 4.082876e-002 116 117 109
6.194381e+000 -2.990239e+000 4.275772e-002 139 139 132
5.841079e+000 -3.237030e+000 -2.098631e-001 64 59 63
5.874174e+000 -3.207086e+000 -1.495389e-001 129 127 128
6.220606e+000 -3.070361e+000 5.925285e-002 123 123 113
6.248219e+000 -3.079530e+000 5.864101e-002 101 101 91
7.333968e+000 -2.982541e+000 -4.755465e-001 48 33 28
5.587209e+000 -3.396952e+000 -1.940250e-001 160 185 208
5.735149e+000 -3.325735e+000 -1.107749e-001 128 143 148
5.952103e+000 -3.253593e+000 -6.525745e-002 63 52 48
6.226373e+000 -3.136127e+000 6.159132e-002 95 97 84
5.777271e+000 -3.358710e+000 -8.170006e-002 50 49 59
5.826575e+000 -3.359538e+000 -8.366872e-004 60 59 68
5.861940e+000 -3.356811e+000 -8.945715e-002 43 34 39
6.419116e+000 -3.150148e+000 1.076755e-001 83 75 64
6.706463e+000 -3.111141e+000 1.801134e-002 86 76 66
5.571171e+000 -3.507218e+000 -1.725051e-001 117 129 144
5.775582e+000 -3.393370e+000 3.853879e-003 99 104 123
5.792482e+000 -3.412563e+000 7.233391e-002 62 53 66
6.287405e+000 -3.318217e+000 8.119389e-002 98 94 85
6.391312e+000 -3.251185e+000 1.342944e-001 93 88 79
6.526896e+000 -3.273863e+000 1.071714e-001 126 126 121
6.526896e+000 -3.273863e+000 1.071714e-001 126 126 121
5.940281e+000 -3.393342e+000 3.342220e-001 71 58 65
6.582149e+000 -3.337828e+000 1.265693e-001 61 54 49
5.770986e+000 -3.523778e+000 3.161558e-001 94 81 90
6.072500e+000 -3.481854e+000 2.796812e-001 77 68 73
5.671187e+000 -3.639088e+000 3.299774e-001 99 83 93
6.292368e+000 -3.554708e+000 2.511250e-001 93 80 87
6.616428e+000 -3.611487e+000 2.919733e-001 46 36 27
6.670365e+000 -3.595768e+000 3.183069e-001 70 59 41
5.960111e+000 -3.722778e+000 4.555253e-001 51 40 46
6.035233e+000 -3.870830e+000 4.042839e-001 67 61 66
6.035233e+000 -3.870830e+000 4.042839e-001 67 61 66
6.097689e+000 -3.754348e+000 4.584312e-001 65 54 59
6.097689e+000 -3.754348e+000 4.584312e-001 65 54 59
5.740899e+000 -4.031209e+000 4.105149e-001 68 49 58
7.398181e+000 -2.195491e+000 -9.714501e-001 106 97 92
5.675194e+000 -2.553699e+000 -1.698912e-001 86 72 85
5.713663e+000 -2.543235e+000 -1.918959e-001 51 35 45
5.837349e+000 -2.505239e+000 -1.386492e-001 39 28 36
6.834802e+000 -2.573508e+000 -6.457412e-001 71 51 42
7.622313e+000 -2.419739e+000 -8.888427e-001 66 50 37
7.773145e+000 -2.412888e+000 -1.028101e+000 98 80 66
6.314757e+000 -2.669400e+000 -2.666782e-001 54 43 41
6.291290e+000 -2.724847e+000 -3.206085e-001 67 54 57
6.456095e+000 -2.709385e+000 -3.327920e-001 73 67 61
7.507388e+000 -2.506101e+000 -8.196365e-001 65 50 38
5.949490e+000 -2.885451e+000 -3.175547e-001 106 100 96
6.086344e+000 -2.819254e+000 -2.538386e-001 101 98 93
6.245182e+000 -2.763863e+000 -2.331507e-001 144 147 136
6.331261e+000 -2.733259e+000 -2.027808e-001 125 122 114
6.607805e+000 -2.708057e+000 -3.693334e-001 70 51 45
5.964195e+000 -2.919409e+000 -2.201076e-001 66 63 56
6.088564e+000 -2.884274e+000 -1.687060e-001 132 129 120
6.086813e+000 -2.888696e+000 -1.814418e-001 132 129 120
6.186020e+000 -2.859638e+000 -1.425163e-001 134 134 124
6.393980e+000 -2.813970e+000 -1.737822e-001 103 99 89
6.393980e+000 -2.813970e+000 -1.737822e-001 103 99 89
5.440145e+000 -3.301540e+000 -7.911559e-001 148 148 142
5.550939e+000 -3.219111e+000 -5.395957e-001 142 137 133
5.634770e+000 -3.172440e+000 -4.526024e-001 140 140 132
5.995490e+000 -2.969160e+000 -1.467453e-001 141 141 132
6.200813e+000 -2.870354e+000 -1.246409e-001 83 81 69
6.264106e+000 -2.854042e+000 -9.496674e-002 26 26 24
5.482500e+000 -3.292747e+000 -6.699038e-001 135 132 127
5.473592e+000 -3.403627e+000 -7.908954e-001 131 122 119
5.583507e+000 -3.276408e+000 -5.475489e-001 152 149 144
5.818940e+000 -3.077946e+000 -2.467225e-001 142 143 135
5.937802e+000 -3.051171e+000 -2.453873e-001 97 94 85
5.937802e+000 -3.051171e+000 -2.453873e-001 97 94 85
6.090018e+000 -3.005546e+000 -6.713903e-002 89 89 81
6.090018e+000 -3.005546e+000 -6.713903e-002 89 89 81
6.165348e+000 -2.945771e+000 -7.768798e-002 124 120 112
6.206671e+000 -2.937358e+000 -7.925385e-003 144 149 143
6.256683e+000 -2.883091e+000 8.059141e-002 66 57 50
6.270879e+000 -2.889019e+000 -2.213689e-002 65 59 58
5.897346e+000 -3.176265e+000 -1.839804e-001 56 47 52
6.350967e+000 -2.981502e+000 1.002153e-002 110 106 95
5.794647e+000 -3.286193e+000 -2.321832e-001 49 47 52
5.863582e+000 -3.201783e+000 -1.992200e-001 59 54 59
5.923276e+000 -3.193493e+000 -8.622403e-002 92 89 84
6.240729e+000 -3.065935e+000 5.399768e-002 134 134 124
6.346940e+000 -3.022507e+000 8.211446e-002 78 73 68
6.226905e+000 -3.146426e+000 9.588993e-002 134 135 125
6.583759e+000 -3.053215e+000 1.221498e-002 87 73 63
6.433387e+000 -3.136839e+000 3.381898e-002 62 58 49
5.977749e+000 -3.254248e+000 3.132453e-001 52 45 55
6.153923e+000 -3.266101e+000 3.242221e-002 83 81 76
6.340423e+000 -3.326373e+000 9.886112e-002 94 84 80
6.459327e+000 -3.248904e+000 1.041721e-001 73 66 55
6.698386e+000 -3.246551e+000 9.188418e-002 84 74 65
6.304517e+000 -3.418688e+000 1.100161e-001 86 81 77
6.397684e+000 -3.397202e+000 1.128662e-001 63 54 48
6.474981e+000 -3.321050e+000 1.218992e-001 108 104 95
6.619046e+000 -3.316984e+000 6.370489e-002 87 77 68
5.606453e+000 -3.592131e+000 2.465079e-001 33 23 31
6.601835e+000 -3.362962e+000 1.068163e-001 109 103 93
6.601835e+000 -3.362962e+000 1.068163e-001 109 103 93
6.702138e+000 -3.410324e+000 6.751602e-002 46 29 22
6.636890e+000 -3.453715e+000 9.702590e-002 43 33 24
5.809941e+000 -3.687627e+000 4.193750e-001 22 12 20
6.149578e+000 -3.528948e+000 4.917561e-001 35 22 29
6.577252e+000 -3.573464e+000 2.412632e-001 105 91 63
6.248787e+000 -3.636837e+000 4.546907e-001 69 59 60
6.340397e+000 -3.657843e+000 4.025566e-001 54 42 48
5.732700e+000 -3.917030e+000 4.231490e-001 29 16 23
5.691414e+000 -4.024665e+000 3.473467e-001 54 37 47
5.467027e+000 -2.481729e+000 -4.811991e-001 51 35 48
7.381583e+000 -2.145335e+000 -9.782111e-001 78 70 67
7.347329e+000 -2.300903e+000 -9.760000e-001 53 41 43
7.337845e+000 -2.382610e+000 -8.608147e-001 99 96 94
7.769922e+000 -2.367329e+000 -1.056854e+000 102 81 67
6.132017e+000 -2.753161e+000 -2.599661e-001 99 92 84
6.629610e+000 -2.654619e+000 -3.684926e-001 32 19 17
5.981456e+000 -2.882128e+000 -2.775563e-001 68 58 57
6.253857e+000 -2.778822e+000 -2.061483e-001 73 64 54
5.812347e+000 -2.982095e+000 -2.474031e-001 97 90 82
6.009108e+000 -2.890476e+000 -2.730681e-001 77 69 65
6.034948e+000 -2.879605e+000 -1.669559e-001 123 127 118
6.034948e+000 -2.879605e+000 -1.669559e-001 123 127 118
6.438642e+000 -2.782745e+000 -2.969209e-001 50 44 36
6.440775e+000 -2.750736e+000 -1.951008e-001 50 44 36
5.904750e+000 -2.983462e+000 -1.881490e-001 164 169 161
5.904750e+000 -2.983462e+000 -1.881490e-001 164 169 161
5.966447e+000 -2.954319e+000 -1.217814e-001 80 75 64
6.001042e+000 -2.922660e+000 -1.073255e-001 92 83 74
6.019941e+000 -2.958537e+000 -1.453015e-001 96 87 78
6.019941e+000 -2.958537e+000 -1.453015e-001 96 87 78
6.290891e+000 -2.844634e+000 -1.027079e-001 93 94 90
5.535521e+000 -3.292317e+000 -6.744359e-001 95 84 84
5.756690e+000 -3.137886e+000 -3.540914e-001 73 69 58
6.178690e+000 -2.955560e+000 -3.561717e-002 68 63 57
6.065707e+000 -3.053860e+000 -5.834489e-002 95 86 84
6.652639e+000 -2.931957e+000 -1.265339e-001 71 54 35
5.852599e+000 -3.229919e+000 -1.299914e-001 145 144 139
5.882229e+000 -3.219667e+000 -1.240356e-001 81 77 73
6.487195e+000 -2.985015e+000 3.513534e-002 61 47 40
7.595950e+000 -2.960553e+000 -6.195193e-001 77 64 55
6.339843e+000 -3.006922e+000 2.099812e-001 74 69 63
5.700562e+000 -3.436754e+000 -8.654794e-003 245 255 254
5.767234e+000 -3.438640e+000 2.051817e-002 238 255 255
5.766085e+000 -3.440714e+000 1.856697e-002 238 255 255
6.099339e+000 -3.289886e+000 1.085214e-002 141 146 138
6.155302e+000 -3.327337e+000 2.887027e-003 124 124 116
6.102162e+000 -3.418128e+000 2.289675e-002 73 65 63
6.852379e+000 -3.276634e+000 -3.187206e-002 77 64 56
6.318375e+000 -3.484631e+000 1.133419e-001 35 26 27
6.672790e+000 -3.446327e+000 8.101526e-002 48 37 30
6.201282e+000 -3.507778e+000 3.300635e-001 34 23 29
6.698119e+000 -3.493155e+000 1.168590e-001 75 58 47
6.708214e+000 -3.605815e+000 2.620394e-001 29 17 17
6.369333e+000 -3.621472e+000 4.664830e-001 25 16 17
5.695843e+000 -4.037746e+000 4.033553e-001 61 44 60
5.994106e+000 -3.887533e+000 4.630977e-001 25 14 18
5.648906e+000 -2.446653e+000 -2.754984e-001 33 22 30
5.992957e+000 -2.338787e+000 -1.907015e-001 46 30 37
6.851456e+000 -2.259763e+000 -9.691454e-001 165 133 94
6.917621e+000 -2.327504e+000 -9.709224e-001 91 62 48
6.968008e+000 -2.429494e+000 -9.707055e-001 144 115 75
7.353423e+000 -2.420478e+000 -9.342202e-001 119 119 117
6.292758e+000 -2.651347e+000 -2.721706e-001 58 44 43
6.033844e+000 -2.793070e+000 -2.872401e-001 39 29 28
6.337837e+000 -2.692763e+000 -2.572269e-001 59 54 50
5.788883e+000 -2.959689e+000 -3.767495e-001 147 146 144
6.025553e+000 -2.825001e+000 -2.909376e-001 84 76 74
6.402135e+000 -2.758477e+000 -1.973767e-001 107 103 94
5.951256e+000 -2.936951e+000 -2.008574e-001 144 140 131
6.059805e+000 -2.904416e+000 -1.561825e-001 74 70 64
6.824239e+000 -2.859850e+000 -7.644632e-001 51 30 29
5.778426e+000 -3.045962e+000 -3.142537e-001 147 146 142
5.822126e+000 -3.048078e+000 -2.455334e-001 86 78 71
5.900997e+000 -3.023636e+000 -2.002131e-001 81 69 67
6.346230e+000 -2.844848e+000 -4.037636e-002 142 147 140
6.595795e+000 -2.803103e+000 -2.086555e-001 71 51 40
5.457382e+000 -3.372920e+000 -7.982387e-001 81 72 65
