ply
format ascii 1.0
element face 0
property list uchar int vertex_indices
element vertex 887
property float x
property float y
property float z
property uchar diffuse_red
property uchar diffuse_green
property uchar diffuse_blue
end_header
7.584904e+000 -4.185449e+000 -3.117356e+000 174 154 104
5.537372e+000 -3.798761e+000 -6.197581e-001 165 156 139
5.539998e+000 -3.792207e+000 -6.649291e-001 73 59 48
5.594565e+000 -3.821809e+000 -6.531674e-001 126 114 96
5.562161e+000 -3.791245e+000 -4.036454e-001 89 76 59
5.542121e+000 -3.789134e+000 -4.827888e-001 99 83 68
5.610741e+000 -3.772530e+000 -7.517380e-001 50 35 30
5.563314e+000 -3.725890e+000 -4.208834e-001 75 57 51
5.563314e+000 -3.725890e+000 -4.208834e-001 75 57 51
5.528961e+000 -3.734860e+000 -5.410406e-001 79 62 55
5.528782e+000 -3.712116e+000 -5.745035e-001 159 152 136
5.543335e+000 -3.673817e+000 -6.842290e-001 79 61 51
5.604118e+000 -3.674378e+000 -7.461625e-001 122 115 108
5.597212e+000 -3.672686e+000 -7.559484e-001 122 115 108
5.816019e+000 -3.710545e+000 -9.859730e-001 81 66 56
5.560936e+000 -3.683634e+000 -4.852685e-001 117 104 96
5.671046e+000 -3.533665e+000 -9.086553e-001 57 36 31
5.681368e+000 -3.530890e+000 -9.527056e-001 79 59 52
5.687273e+000 -3.509749e+000 -9.874657e-001 57 37 38
5.678514e+000 -3.506996e+000 -9.940308e-001 57 37 38
5.791809e+000 -3.506228e+000 -1.024969e+000 81 58 44
5.685702e+000 -3.596197e+000 -2.495075e-001 112 104 93
5.950330e+000 -3.465463e+000 -1.155086e+000 46 28 24
6.726517e+000 -3.491977e+000 -1.975601e+000 127 121 109
5.899220e+000 -3.368079e+000 -1.098383e+000 40 21 17
5.978745e+000 -3.425284e+000 -1.105850e+000 45 26 19
5.519871e+000 -3.330046e+000 -7.818805e-001 157 146 130
5.532606e+000 -3.301015e+000 -7.300605e-001 149 149 128
5.559064e+000 -3.259963e+000 -7.692747e-001 160 147 139
5.559064e+000 -3.259963e+000 -7.692747e-001 160 147 139
5.627093e+000 -3.212623e+000 -6.555854e-001 151 137 124
6.023836e+000 -3.213901e+000 -1.182650e+000 50 29 24
7.688921e+000 -3.131040e+000 -3.079766e+000 177 155 108
5.701326e+000 -3.133640e+000 -8.168001e-001 65 51 48
5.775311e+000 -3.139992e+000 -1.008089e+000 140 133 120
5.775311e+000 -3.139992e+000 -1.008089e+000 140 133 120
5.858207e+000 -3.108142e+000 -1.132400e+000 84 66 62
5.720048e+000 -3.095461e+000 -7.676604e-001 165 162 149
5.767852e+000 -3.107773e+000 -8.912198e-001 47 36 28
5.798417e+000 -3.112883e+000 -8.672374e-001 47 36 28
5.778784e+000 -3.082180e+000 -9.110310e-001 133 127 108
5.927290e+000 -3.086307e+000 -1.078164e+000 57 42 37
6.071393e+000 -3.054732e+000 -1.114218e+000 38 17 16
7.486408e+000 -2.946739e+000 -2.345044e+000 93 73 62
7.104818e+000 -2.909873e+000 -1.808289e+000 80 60 52
7.676590e+000 -2.529608e+000 -3.033850e+000 176 154 98
7.414285e+000 -2.481660e+000 -1.813418e+000 96 78 72
5.547350e+000 -2.592508e+000 -7.479440e-001 54 39 46
5.525507e+000 -2.455245e+000 -8.199900e-001 32 18 18
7.873770e+000 -4.379995e+000 -2.723627e+000 160 136 85
7.754258e+000 -4.215363e+000 -3.076621e+000 166 146 96
6.194491e+000 -4.296265e+000 -4.241519e-001 94 76 62
8.522310e+000 -4.704323e+000 -1.576926e+000 138 123 84
7.698148e+000 -4.089083e+000 -3.019631e+000 196 176 123
5.681191e+000 -4.010379e+000 -3.597961e-002 107 89 95
5.636252e+000 -3.946176e+000 -8.169484e-002 36 25 31
5.567160e+000 -3.840866e+000 -4.163140e-001 150 136 126
5.552041e+000 -3.769594e+000 -5.773164e-001 71 61 52
5.569959e+000 -3.769395e+000 -6.919967e-001 89 71 62
5.756735e+000 -3.768518e+000 -9.194908e-001 88 74 65
7.913732e+000 -3.910722e+000 -2.701292e+000 150 123 86
5.520340e+000 -3.743608e+000 -4.872780e-001 138 126 111
5.618076e+000 -3.599587e+000 -3.644588e-001 65 46 42
5.583896e+000 -3.504587e+000 -9.415913e-001 97 81 72
5.576997e+000 -3.429046e+000 -9.601538e-001 117 104 92
5.626130e+000 -3.369421e+000 -9.749375e-001 54 40 40
7.630365e+000 -3.344314e+000 -2.927686e+000 189 167 118
5.773850e+000 -3.451690e+000 -2.710084e-001 45 29 32
5.716806e+000 -3.311500e+000 -1.037744e+000 70 52 43
5.867959e+000 -3.233377e+000 -1.073870e+000 51 35 30
5.662849e+000 -3.256273e+000 -5.872148e-001 95 78 68
7.396923e+000 -3.083404e+000 -2.076804e+000 58 39 34
5.739477e+000 -3.066480e+000 -6.138237e-001 65 52 46
5.762685e+000 -3.045073e+000 -7.813825e-001 62 46 47
7.320909e+000 -2.900693e+000 -1.592304e+000 82 68 65
7.270499e+000 -2.878490e+000 -1.664434e+000 74 59 57
7.231241e+000 -2.614441e+000 -1.454517e+000 46 28 26
7.291651e+000 -2.465260e+000 -1.780912e+000 59 40 34
7.671572e+000 -2.381153e+000 -3.004496e+000 171 140 93
7.548593e+000 -2.358347e+000 -1.211064e+000 48 30 26
7.801002e+000 -4.147594e+000 -2.617963e+000 181 160 108
7.791859e+000 -4.145291e+000 -2.617814e+000 181 160 108
5.681512e+000 -4.071427e+000 -1.045549e-002 58 39 45
5.530582e+000 -3.748066e+000 -6.672638e-001 166 161 139
8.016736e+000 -3.977297e+000 -2.522329e+000 123 100 66
5.614769e+000 -3.673724e+000 -7.968690e-001 49 35 34
5.539701e+000 -3.613407e+000 -7.252311e-001 136 122 109
5.556802e+000 -3.619090e+000 -7.636591e-001 56 42 33
5.601503e+000 -3.590560e+000 -8.664787e-001 105 95 83
5.601503e+000 -3.590560e+000 -8.664787e-001 105 95 83
5.519604e+000 -3.541328e+000 -8.384661e-001 69 55 52
5.495939e+000 -3.506821e+000 -8.110604e-001 131 122 109
5.485101e+000 -3.487089e+000 -6.897412e-001 163 156 140
5.526161e+000 -3.451513e+000 -8.759473e-001 64 46 46
5.750887e+000 -3.251779e+000 -1.035949e+000 47 30 25
5.598172e+000 -3.187884e+000 -8.437792e-001 141 133 114
5.727662e+000 -3.108741e+000 -6.985452e-001 58 44 42
5.922711e+000 -3.042334e+000 -1.080418e+000 30 18 16
5.764537e+000 -3.038393e+000 -8.452327e-001 125 120 113
7.755472e+000 -2.660524e+000 -3.056750e+000 166 142 94
7.183033e+000 -2.597968e+000 -1.503558e+000 49 35 31
5.667892e+000 -3.695887e+000 -8.651083e-001 224 249 255
5.473950e+000 -3.510155e+000 -7.640710e-001 86 66 55
5.754686e+000 -3.543263e+000 -1.006938e+000 51 40 38
5.694894e+000 -3.530399e+000 -2.791535e-001 159 146 132
6.293809e+000 -3.500165e+000 -1.095158e+000 29 24 20
6.293809e+000 -3.500165e+000 -1.095158e+000 29 24 20
5.735442e+000 -3.401622e+000 -1.982132e-001 34 27 34
5.556377e+000 -3.214910e+000 -8.220284e-001 64 46 42
5.830822e+000 -3.140759e+000 -1.048069e+000 43 29 28
5.673290e+000 -3.130148e+000 -6.616204e-001 141 135 119
5.754298e+000 -3.017872e+000 -6.292649e-001 147 142 128
5.497653e+000 -2.527904e+000 -8.022688e-001 57 44 51
6.567243e+000 -3.896141e+000 -8.621284e-001 49 41 32
5.757468e+000 -3.578818e+000 -9.788405e-002 28 22 26
5.697113e+000 -3.156957e+000 -8.107270e-001 70 55 52
5.686903e+000 -3.155414e+000 -8.190101e-001 70 55 52
7.554957e+000 -2.979885e+000 -3.199170e+000 177 143 107
5.785724e+000 -3.106842e+000 -9.674107e-001 100 92 79
7.079261e+000 -3.062293e+000 -1.932890e+000 90 74 61
7.256034e+000 -2.869268e+000 -1.761512e+000 41 26 23
5.555221e+000 -2.471391e+000 -6.955259e-001 28 15 22
5.555221e+000 -2.471391e+000 -6.955259e-001 28 15 22
7.916696e+000 -4.039884e+000 -2.678092e+000 177 160 106
5.648625e+000 -3.226796e+000 -5.633450e-001 155 149 133
5.687965e+000 -2.988179e+000 -1.000626e+000 45 29 32
7.591297e+000 -2.302458e+000 -1.859261e+000 84 66 53
5.560451e+000 -3.615016e+000 -5.130581e-001 49 40 43
5.532740e+000 -3.354664e+000 -7.743000e-001 131 118 102
7.726479e+000 -3.963725e+000 -2.985135e+000 191 174 120
7.726479e+000 -3.963725e+000 -2.985135e+000 191 174 120
5.553382e+000 -3.668581e+000 -8.281042e-001 73 58 54
5.686040e+000 -3.424124e+000 -4.623548e-001 26 20 22
6.359467e+000 -3.433588e+000 -1.133995e+000 22 16 16
7.343359e+000 -3.044081e+000 -2.136224e+000 61 42 36
5.793188e+000 -2.964139e+000 -9.177280e-001 52 36 37
7.180466e+000 -2.751281e+000 -1.344828e+000 80 60 53
5.560595e+000 -2.715195e+000 -9.717103e-001 69 53 57
5.560595e+000 -2.715195e+000 -9.717103e-001 69 53 57
5.537216e+000 -3.500709e+000 -7.317362e-001 96 74 61
6.332646e+000 -3.210815e+000 -1.142418e+000 80 46 44
5.688123e+000 -3.463256e+000 -9.119957e-001 61 42 37
6.216603e+000 -2.962950e+000 -1.184987e+000 30 15 17
8.385172e+000 -4.446042e+000 -2.226121e+000 174 157 101
7.519296e+000 -2.353718e+000 -1.278018e+000 58 40 36
7.446485e+000 -3.955006e+000 -3.316060e+000 165 145 95
7.221034e+000 -2.828479e+000 -1.999530e+000 81 70 64
7.219302e+000 -2.828313e+000 -1.997100e+000 81 70 64
7.463661e+000 -3.987916e+000 -3.345899e+000 170 149 102
7.664367e+000 -3.477891e+000 -3.118310e+000 176 155 112
5.546859e+000 -3.382350e+000 -9.276702e-001 97 78 63
7.574383e+000 -2.343378e+000 -1.856167e+000 90 71 65
7.529297e+000 -2.228207e+000 -1.262404e+000 94 72 59
7.529297e+000 -2.228207e+000 -1.262404e+000 94 72 59
7.442644e+000 -3.964382e+000 -3.351598e+000 197 178 128
6.061731e+000 -3.182934e+000 -1.143166e+000 52 32 25
7.553011e+000 -2.338947e+000 -1.265872e+000 73 51 43
7.560543e+000 -2.289375e+000 -1.248929e+000 86 64 50
7.658333e+000 -3.129580e+000 -3.160691e+000 179 156 106
7.641884e+000 -2.831405e+000 -3.184051e+000 164 141 97
5.502478e+000 -3.507085e+000 -8.742549e-001 70 50 47
7.917635e+000 -3.825106e+000 -2.666770e+000 163 142 97
5.681403e+000 -4.070472e+000 -1.173584e-002 58 39 45
7.889460e+000 -3.868146e+000 -2.736313e+000 186 165 113
7.771495e+000 -2.878602e+000 -2.252276e+000 93 76 66
7.771495e+000 -2.878602e+000 -2.252276e+000 93 76 66
5.756822e+000 -3.761358e+000 -9.025422e-001 117 106 89
5.576263e+000 -3.783597e+000 -3.623932e-001 105 89 74
5.841752e+000 -3.944895e+000 -7.171669e-001 62 44 34
5.518794e+000 -3.790269e+000 -3.693803e-001 64 58 57
5.580654e+000 -3.733448e+000 -7.753846e-001 63 48 43
5.993379e+000 -3.697603e+000 -1.056303e+000 59 41 29
5.729350e+000 -2.806035e+000 -1.094103e+000 32 17 20
5.639124e+000 -3.903990e+000 -6.428303e-001 86 76 66
5.655969e+000 -3.903022e+000 -6.808716e-001 123 109 95
5.492301e+000 -3.765105e+000 -6.470848e-001 86 75 69
5.512703e+000 -3.732591e+000 -4.351870e-001 167 160 144
7.690750e+000 -3.777306e+000 -3.034827e+000 161 141 91
7.690750e+000 -3.777306e+000 -3.034827e+000 161 141 91
6.052323e+000 -3.688861e+000 -1.047872e+000 85 64 49
6.070006e+000 -3.629359e+000 -1.062544e+000 92 71 52
6.054107e+000 -3.625803e+000 -1.072897e+000 92 71 52
5.473319e+000 -3.443447e+000 -7.137817e-001 104 95 85
5.710525e+000 -3.469509e+000 -1.022342e+000 88 69 63
5.999948e+000 -3.517992e+000 -1.064946e+000 36 16 16
5.871030e+000 -3.289255e+000 -7.389736e-002 44 41 42
5.810278e+000 -3.133965e+000 -9.250850e-001 145 138 127
5.763932e+000 -3.092831e+000 -8.091783e-001 147 144 127
5.562211e+000 -2.495146e+000 -8.553528e-001 28 17 23
7.520116e+000 -2.301625e+000 -1.298632e+000 62 42 31
5.900150e+000 -1.960726e+000 -5.403511e-001 108 99 105
8.477963e+000 -4.731798e+000 -1.636085e+000 142 129 84
5.602233e+000 -3.845636e+000 -7.204477e-001 102 89 80
5.629218e+000 -3.853396e+000 -7.441049e-001 69 52 45
5.556973e+000 -3.740512e+000 -7.360310e-001 78 60 56
5.532085e+000 -3.680305e+000 -6.687265e-001 148 137 128
5.579343e+000 -3.597526e+000 -7.896159e-001 89 75 72
5.630567e+000 -3.639019e+000 -8.183830e-001 107 102 98
6.108082e+000 -3.636890e+000 -1.066135e+000 64 43 29
7.742603e+000 -3.542140e+000 -3.007736e+000 160 139 99
5.872662e+000 -3.418801e+000 -1.067974e+000 49 32 25
6.086561e+000 -3.448180e+000 -1.128666e+000 59 36 28
5.783999e+000 -3.421282e+000 -2.750682e-001 46 40 39
5.975837e+000 -3.220188e+000 -1.077647e+000 82 59 56
5.721467e+000 -3.140185e+000 -5.458419e-001 143 137 123
5.765864e+000 -3.077803e+000 -8.223611e-001 86 82 71
5.897801e+000 -2.980207e+000 -4.229684e-001 143 148 136
7.294686e+000 -2.728081e+000 -1.614955e+000 63 42 36
7.723703e+000 -2.636500e+000 -2.068517e+000 60 39 26
7.437345e+000 -2.509721e+000 -1.624916e+000 88 73 70
5.645529e+000 -2.484470e+000 -7.552063e-001 62 53 58
5.645529e+000 -2.484470e+000 -7.552063e-001 62 53 58
5.973082e+000 -3.861786e+000 -9.321690e-001 61 42 28
5.502085e+000 -3.738619e+000 -5.057937e-001 143 138 119
5.485142e+000 -3.541335e+000 -7.935522e-001 144 138 124
5.967806e+000 -3.568697e+000 -1.015053e+000 51 31 30
5.481567e+000 -3.290612e+000 -8.256931e-001 76 66 56
5.981581e+000 -3.234271e+000 -1.106211e+000 43 25 21
7.463160e+000 -3.006211e+000 -2.050609e+000 56 41 40
7.772854e+000 -3.065531e+000 -2.291787e+000 88 64 54
5.595778e+000 -2.729976e+000 -4.964638e-001 40 29 36
7.207628e+000 -2.655354e+000 -1.626224e+000 98 75 69
7.594851e+000 -2.531553e+000 -1.872979e+000 58 41 31
7.503047e+000 -2.330486e+000 -1.201084e+000 85 66 51
6.625389e+000 -4.283978e+000 -5.882149e-001 88 60 46
5.583018e+000 -3.802682e+000 -3.348853e-001 152 141 125
6.985223e+000 -3.918362e+000 -1.111897e+000 175 161 114
5.578789e+000 -3.319750e+000 -9.657534e-001 99 88 84
5.658317e+000 -2.836327e+000 -1.005938e+000 37 22 25
5.524932e+000 -2.401495e+000 -5.429381e-001 66 49 55
5.697179e+000 -3.835306e+000 -7.753102e-001 54 38 39
6.818029e+000 -3.866687e+000 -1.461720e+000 140 145 140
8.021117e+000 -3.976252e+000 -2.521377e+000 116 95 68
6.215488e+000 -3.387398e+000 -1.087097e+000 72 52 41
5.654454e+000 -3.234742e+000 -9.169438e-001 45 32 27
5.654454e+000 -3.234742e+000 -9.169438e-001 45 32 27
5.802580e+000 -3.066400e+000 -1.019812e+000 34 19 21
7.263465e+000 -2.954618e+000 -1.991942e+000 96 82 73
5.888702e+000 -2.910742e+000 -4.822700e-001 45 34 32
5.519657e+000 -2.530555e+000 -7.124553e-001 31 20 26
5.677761e+000 -3.526865e+000 -3.003476e-001 153 148 133
6.064342e+000 -4.150094e+000 -5.001955e-001 32 27 31
7.651732e+000 -4.121915e+000 -1.549569e+000 107 90 73
5.567860e+000 -3.754493e+000 -2.612624e-001 29 21 26
5.552782e+000 -3.624368e+000 -6.708500e-001 123 111 97
5.552782e+000 -3.624368e+000 -6.708500e-001 123 111 97
6.752069e+000 -3.463107e+000 -1.842783e+000 150 157 164
5.734039e+000 -3.457361e+000 -7.787223e-002 92 110 117
7.942571e+000 -2.779675e+000 -2.181787e+000 67 47 38
5.599860e+000 -2.428700e+000 -8.115392e-001 29 16 23
6.830639e+000 -3.653763e+000 -2.000275e+000 133 126 113
7.536194e+000 -2.445263e+000 -1.900799e+000 105 92 83
7.192209e+000 -2.674394e+000 -1.691744e+000 82 63 56
7.370472e+000 -2.944876e+000 -1.949263e+000 104 92 80
7.777271e+000 -2.315214e+000 -1.687482e+000 84 68 55
7.025670e+000 -2.976663e+000 -1.405899e+000 83 69 66
5.545531e+000 -3.705920e+000 -7.125350e-001 146 139 123
5.598007e+000 -3.598849e+000 -8.475692e-001 141 131 119
5.506060e+000 -3.462645e+000 -8.629071e-001 75 59 57
7.914854e+000 -3.244516e+000 -2.794582e+000 145 123 82
7.914854e+000 -3.244516e+000 -2.794582e+000 145 123 82
5.649298e+000 -3.268970e+000 -9.992287e-001 110 97 88
7.886266e+000 -4.270762e+000 -2.701331e+000 163 146 90
5.565345e+000 -3.395171e+000 -9.463019e-001 42 31 26
5.650303e+000 -3.244102e+000 -9.639966e-001 138 127 119
7.678234e+000 -2.826457e+000 -3.182761e+000 161 143 93
7.804318e+000 -2.368435e+000 -3.002233e+000 166 138 91
8.201567e+000 -4.586688e+000 -2.290150e+000 159 147 89
5.536937e+000 -3.693022e+000 -6.490970e-001 95 85 73
7.619719e+000 -3.334901e+000 -3.272564e+000 181 163 117
5.629418e+000 -3.683737e+000 -7.492685e-001 70 56 53
7.584527e+000 -2.983673e+000 -3.322352e+000 152 138 91
7.702485e+000 -2.800495e+000 -3.136302e+000 153 137 86
6.430015e+000 -4.349119e+000 -6.375043e-001 71 44 35
5.606383e+000 -3.825324e+000 -7.236281e-001 71 56 49
5.576201e+000 -3.738120e+000 -3.321383e-001 95 80 73
7.966619e+000 -3.955081e+000 -2.677488e+000 179 157 110
5.545713e+000 -3.677163e+000 -5.423922e-001 67 56 54
5.526629e+000 -3.663565e+000 -6.387417e-001 87 73 62
6.013948e+000 -3.571208e+000 -1.086574e+000 53 36 28
5.510461e+000 -3.415943e+000 -8.650425e-001 71 58 49
5.535527e+000 -3.406978e+000 -8.821772e-001 60 47 39
6.085248e+000 -3.500672e+000 -1.038506e+000 67 48 41
7.518797e+000 -2.271492e+000 -1.305808e+000 94 72 58
7.554629e+000 -2.277153e+000 -1.320189e+000 69 46 34
7.399622e+000 -2.180638e+000 -1.273515e+000 103 85 63
6.165399e+000 -4.237513e+000 -4.468852e-001 30 22 25
5.538524e+000 -3.767405e+000 -5.324205e-001 135 127 117
5.528290e+000 -3.706234e+000 -6.659279e-001 94 79 69
5.539570e+000 -3.673880e+000 -6.871850e-001 83 67 59
6.152673e+000 -3.730606e+000 -9.955238e-001 56 34 21
5.526873e+000 -3.504295e+000 -8.845420e-001 123 109 102
5.726230e+000 -3.509870e+000 -1.001079e+000 73 55 51
6.346447e+000 -3.494274e+000 -1.128436e+000 64 54 56
5.506758e+000 -3.363124e+000 -7.981156e-001 87 73 62
5.920292e+000 -3.370408e+000 -1.083779e+000 46 27 29
5.951945e+000 -3.371945e+000 -1.095444e+000 78 61 51
5.662508e+000 -3.330931e+000 -1.039843e+000 49 33 36
5.653973e+000 -3.331324e+000 -1.046671e+000 49 33 36
5.884878e+000 -3.271450e+000 -1.084489e+000 71 53 51
5.888145e+000 -3.271968e+000 -1.082167e+000 71 53 51
6.015874e+000 -3.280509e+000 -1.131674e+000 59 38 35
5.759123e+000 -3.203501e+000 -1.050835e+000 90 73 68
6.008290e+000 -3.050550e+000 -1.122076e+000 69 49 43
7.694499e+000 -3.045881e+000 -2.270397e+000 61 38 30
7.540506e+000 -2.935935e+000 -2.143975e+000 73 55 53
7.203917e+000 -2.854581e+000 -1.916033e+000 56 40 43
7.596378e+000 -2.658123e+000 -3.289385e+000 168 147 102
7.506807e+000 -2.385296e+000 -1.355890e+000 82 60 49
7.607494e+000 -2.563678e+000 -3.295184e+000 167 139 92
7.616163e+000 -2.561440e+000 -3.295076e+000 167 139 92
7.793387e+000 -2.375565e+000 -3.000078e+000 174 142 95
6.411788e+000 -4.372477e+000 -6.356156e-001 74 47 40
8.286825e+000 -4.555960e+000 -2.015627e+000 148 125 75
7.568592e+000 -4.295255e+000 -1.182475e+000 104 87 70
6.340124e+000 -3.822768e+000 -8.682409e-001 90 68 48
5.580813e+000 -3.654028e+000 -2.754283e-001 47 38 38
5.532898e+000 -3.567352e+000 -7.049761e-001 81 68 53
5.682599e+000 -3.575798e+000 -9.563902e-001 55 45 43
5.757866e+000 -3.354133e+000 -1.048928e+000 53 36 32
6.060322e+000 -3.241717e+000 -1.155828e+000 46 28 26
5.719962e+000 -3.135995e+000 -9.011810e-001 134 125 118
5.835465e+000 -3.188413e+000 -1.117606e+000 87 65 67
7.616158e+000 -3.148906e+000 -3.261159e+000 171 150 95
5.856928e+000 -2.941863e+000 -4.525781e-001 61 49 51
5.554452e+000 -2.620869e+000 -8.875742e-001 32 21 27
7.561873e+000 -2.585124e+000 -3.333504e+000 166 147 99
7.561873e+000 -2.585124e+000 -3.333504e+000 166 147 99
7.613225e+000 -2.528805e+000 -3.281871e+000 196 172 122
7.620310e+000 -2.528919e+000 -3.281057e+000 196 172 122
6.020289e+000 -3.806009e+000 -9.622483e-001 62 42 31
6.109945e+000 -3.094353e+000 -1.139593e+000 68 48 41
7.697756e+000 -3.006120e+000 -2.304097e+000 100 77 69
5.487549e+000 -2.590107e+000 -6.235910e-001 45 29 39
7.609120e+000 -2.489483e+000 -3.303567e+000 172 139 101
7.580157e+000 -2.495670e+000 -3.303637e+000 172 139 101
5.675525e+000 -3.648719e+000 -8.272039e-001 49 37 35
7.628152e+000 -3.418320e+000 -3.228908e+000 177 153 107
7.577586e+000 -3.357911e+000 -3.304534e+000 187 163 119
5.802312e+000 -2.982246e+000 -6.369401e-001 78 68 62
6.195016e+000 -4.292034e+000 -4.158161e-001 80 62 49
5.575342e+000 -3.213333e+000 -8.019842e-001 65 47 45
7.649882e+000 -2.584284e+000 -3.226056e+000 180 153 104
7.653894e+000 -2.982377e+000 -3.199841e+000 182 147 109
7.064144e+000 -3.234427e+000 -2.340939e+000 94 67 58
5.753175e+000 -2.909910e+000 -3.051962e-001 66 49 57
7.648462e+000 -2.897204e+000 -2.254329e+000 109 91 87
6.355083e+000 -3.209405e+000 -1.139031e+000 82 50 45
8.120180e+000 -3.497801e+000 -2.262178e+000 70 45 41
5.716335e+000 -3.836275e+000 -7.844065e-001 70 62 60
5.804961e+000 -3.699129e+000 -9.698622e-001 99 90 71
6.268798e+000 -3.315925e+000 -1.114484e+000 44 25 21
7.576108e+000 -2.415445e+000 -3.305812e+000 172 139 98
7.927789e+000 -4.301857e+000 -2.650701e+000 162 143 87
5.702795e+000 -3.583544e+000 -8.924185e-001 89 77 79
7.526178e+000 -2.543211e+000 -3.384755e+000 171 150 97
8.051701e+000 -4.243219e+000 -2.461154e+000 149 123 81
7.443078e+000 -2.478924e+000 -1.875834e+000 77 59 57
7.506166e+000 -2.381063e+000 -1.907607e+000 80 61 53
7.897384e+000 -4.265005e+000 -2.696918e+000 166 147 91
5.764558e+000 -3.885053e+000 -7.813470e-001 58 43 40
7.597609e+000 -2.658055e+000 -3.287745e+000 168 147 102
8.556531e+000 -4.721181e+000 -1.573843e+000 142 125 81
7.710565e+000 -4.142648e+000 -3.034410e+000 170 152 103
5.483449e+000 -3.460420e+000 -7.651154e-001 141 136 122
5.556184e+000 -2.622419e+000 -8.865060e-001 32 21 27
5.873708e+000 -3.588322e+000 -1.046027e+000 46 31 26
7.680484e+000 -2.527808e+000 -3.135380e+000 177 150 96
7.680484e+000 -2.527808e+000 -3.135380e+000 177 150 96
7.561067e+000 -2.543955e+000 -3.336328e+000 192 174 124
7.487570e+000 -4.211340e+000 -1.216164e+000 127 117 106
5.555422e+000 -3.742132e+000 -4.143351e-001 91 74 64
5.522322e+000 -3.752199e+000 -6.952025e-001 161 151 139
5.851412e+000 -3.701775e+000 -1.090593e+000 115 98 88
5.504327e+000 -3.419022e+000 -8.748544e-001 57 44 38
5.757117e+000 -3.040840e+000 -8.229459e-001 163 161 149
5.529087e+000 -2.608395e+000 -6.873359e-001 36 25 33
5.687166e+000 -4.019727e+000 -6.179398e-002 56 39 47
5.693476e+000 -4.002738e+000 -9.530115e-002 37 24 31
5.542742e+000 -3.838034e+000 -3.658884e-001 47 41 40
5.548043e+000 -3.812929e+000 -4.756851e-001 98 85 76
5.531774e+000 -3.818671e+000 -5.750914e-001 88 78 66
6.021326e+000 -3.788049e+000 -9.476653e-001 45 26 19
5.517972e+000 -3.688134e+000 -5.935402e-001 158 150 138
5.520445e+000 -3.710347e+000 -7.125704e-001 73 59 48
5.584415e+000 -3.667501e+000 -7.869108e-001 68 58 55
5.482192e+000 -3.527625e+000 -7.070008e-001 97 84 75
5.934728e+000 -3.556137e+000 -1.043168e+000 39 21 17
5.757661e+000 -3.402304e+000 -3.024809e-001 38 37 46
5.541434e+000 -3.445975e+000 -9.046106e-001 128 114 108
5.532647e+000 -3.381201e+000 -9.148348e-001 73 58 54
5.638806e+000 -3.394133e+000 -9.831833e-001 83 65 63
5.839074e+000 -3.248360e+000 -1.959163e-001 102 109 119
6.271251e+000 -3.329447e+000 -1.124257e+000 64 49 46
6.485171e+000 -3.397037e+000 -1.357528e+000 102 72 70
5.571464e+000 -3.271699e+000 -9.070963e-001 129 116 107
5.848598e+000 -3.282839e+000 -1.063877e+000 79 58 55
5.840145e+000 -3.187523e+000 -1.122965e+000 100 81 77
5.776849e+000 -3.066517e+000 -9.306487e-001 79 70 61
7.517980e+000 -2.555117e+000 -3.402404e+000 168 142 93
7.860089e+000 -4.697943e+000 -2.674821e+000 189 170 112
5.690035e+000 -3.915877e+000 -6.483936e-001 153 139 128
5.532354e+000 -3.821981e+000 -5.995377e-001 172 166 150
5.597822e+000 -3.810585e+000 -7.133883e-001 98 87 75
5.537623e+000 -3.740040e+000 -3.748540e-001 104 91 81
5.551237e+000 -3.743375e+000 -3.926712e-001 172 159 146
5.532738e+000 -3.781242e+000 -6.056601e-001 81 71 64
5.538793e+000 -3.747414e+000 -7.041913e-001 101 83 76
5.605780e+000 -3.622136e+000 -8.136569e-001 43 28 31
5.665648e+000 -3.480056e+000 -1.005365e+000 93 75 71
5.671896e+000 -3.479335e+000 -1.001456e+000 93 75 71
5.929505e+000 -3.481464e+000 -1.049360e+000 71 52 48
6.786406e+000 -3.486063e+000 -2.033651e+000 146 142 133
6.093029e+000 -3.366575e+000 -1.143635e+000 81 60 54
5.753202e+000 -3.283395e+000 -1.061092e+000 81 62 62
5.714127e+000 -3.189003e+000 -9.963798e-001 64 45 44
5.741825e+000 -3.196299e+000 -1.024965e+000 85 71 62
5.907856e+000 -3.136020e+000 -1.107552e+000 80 58 59
5.775905e+000 -3.059083e+000 -8.708982e-001 98 91 82
7.353722e+000 -2.493949e+000 -1.694838e+000 73 55 51
7.532157e+000 -2.235648e+000 -1.289228e+000 72 52 38
7.849309e+000 -4.725915e+000 -2.668784e+000 158 131 80
6.480055e+000 -4.361597e+000 -6.739480e-001 82 50 39
5.711487e+000 -3.950811e+000 -5.632725e-001 63 53 43
5.709711e+000 -3.929662e+000 -6.554766e-001 50 33 26
5.635399e+000 -3.888353e+000 -6.791939e-001 73 59 50
7.932755e+000 -4.261237e+000 -2.598196e+000 166 143 91
5.600455e+000 -3.850576e+000 -5.751402e-001 150 136 127
5.730076e+000 -3.884697e+000 -7.686537e-001 84 68 56
6.085628e+000 -3.905437e+000 -8.545141e-001 60 40 33
7.860199e+000 -4.168718e+000 -2.657015e+000 157 134 88
5.552064e+000 -3.766621e+000 -4.821755e-001 89 70 65
5.516369e+000 -3.775121e+000 -6.225549e-001 87 78 71
5.523530e+000 -3.706708e+000 -6.708436e-001 83 65 51
6.157672e+000 -3.765303e+000 -9.659641e-001 58 39 25
5.597396e+000 -3.603241e+000 -3.310401e-001 146 144 131
5.855567e+000 -3.585510e+000 -1.038573e+000 49 29 27
5.505616e+000 -3.495766e+000 -8.725899e-001 61 46 39
5.606959e+000 -3.498138e+000 -9.628203e-001 54 38 37
5.501572e+000 -3.425828e+000 -8.334572e-001 158 152 138
5.592048e+000 -3.482544e+000 -9.092171e-001 50 38 35
5.871459e+000 -3.505933e+000 -1.041674e+000 42 28 25
6.037521e+000 -3.513788e+000 -1.120703e+000 85 64 54
6.055604e+000 -3.433506e+000 -1.126778e+000 75 56 49
6.051000e+000 -3.346018e+000 -1.154885e+000 51 32 33
6.051000e+000 -3.346018e+000 -1.154885e+000 51 32 33
6.060916e+000 -3.275601e+000 -1.135039e+000 84 61 54
6.043596e+000 -3.012124e+000 -1.141997e+000 58 40 36
5.719814e+000 -2.796454e+000 -7.563385e-001 52 35 41
7.677473e+000 -3.006423e+000 -3.180109e+000 171 139 97
7.623754e+000 -3.000379e+000 -3.248131e+000 181 163 115
7.127236e+000 -2.664212e+000 -1.592943e+000 78 50 46
5.547960e+000 -2.652912e+000 -6.167481e-001 41 26 33
7.253200e+000 -2.605296e+000 -1.606896e+000 65 46 44
8.775343e+000 -4.540490e+000 -1.222878e+000 117 101 68
5.597029e+000 -3.886876e+000 -6.016404e-001 67 53 42
5.674606e+000 -3.909281e+000 -6.016631e-001 83 68 61
5.546310e+000 -3.719066e+000 -4.248183e-001 80 61 54
5.520309e+000 -3.745329e+000 -4.851789e-001 154 146 131
5.543420e+000 -3.788761e+000 -6.608619e-001 75 61 53
5.583245e+000 -3.679228e+000 -7.717176e-001 142 131 127
7.802538e+000 -4.032081e+000 -2.875422e+000 166 142 96
5.630530e+000 -3.638105e+000 -8.181106e-001 111 107 100
5.684910e+000 -3.506568e+000 -9.915834e-001 46 28 26
5.939983e+000 -3.558120e+000 -1.073027e+000 79 55 50
5.774951e+000 -3.446249e+000 -1.024069e+000 59 40 36
6.096376e+000 -3.451534e+000 -1.120184e+000 41 25 17
5.631740e+000 -3.411997e+000 -9.636954e-001 49 31 29
5.830718e+000 -3.393129e+000 -1.076773e+000 78 57 49
5.929760e+000 -3.419720e+000 -1.102268e+000 84 63 62
5.929760e+000 -3.419720e+000 -1.102268e+000 84 63 62
5.540525e+000 -3.313037e+000 -9.033484e-001 144 134 121
5.882207e+000 -3.334725e+000 -1.067958e+000 40 25 20
5.807926e+000 -3.081313e+000 -1.033037e+000 39 28 26
7.189809e+000 -2.656430e+000 -1.635228e+000 108 83 77
7.270510e+000 -2.578537e+000 -1.636182e+000 89 77 77
5.539473e+000 -2.639975e+000 -6.770878e-001 43 32 38
7.475066e+000 -2.537198e+000 -1.906269e+000 70 50 43
5.498684e+000 -2.367884e+000 -7.165013e-001 59 43 49
5.862906e+000 -4.045605e+000 -3.340271e-001 83 81 84
7.542993e+000 -4.283001e+000 -1.118455e+000 180 178 119
5.699509e+000 -3.885127e+000 -7.068789e-001 93 77 70
5.552099e+000 -3.794300e+000 -4.264427e-001 94 80 71
5.565029e+000 -3.821694e+000 -6.273768e-001 58 45 36
5.586981e+000 -3.823267e+000 -6.577003e-001 127 119 106
5.515280e+000 -3.721838e+000 -6.436704e-001 98 82 69
5.799273e+000 -3.557648e+000 -1.017651e+000 50 32 32
5.632925e+000 -3.295368e+000 -1.046279e+000 52 38 37
7.106293e+000 -2.967164e+000 -1.775100e+000 76 59 53
6.097531e+000 -2.109369e+000 -9.873134e-001 80 53 43
6.032469e+000 -4.208883e+000 -2.749362e-001 29 23 27
7.818446e+000 -4.607410e+000 -2.673737e+000 169 150 95
5.719195e+000 -4.009413e+000 -1.490168e-001 27 20 24
5.555177e+000 -3.641418e+000 -7.528101e-001 51 32 31
5.520948e+000 -3.542187e+000 -6.468082e-001 142 134 124
6.123671e+000 -3.369633e+000 -1.146027e+000 80 56 49
5.751765e+000 -3.251932e+000 -1.035873e+000 52 37 36
5.634988e+000 -3.229341e+000 -9.354834e-001 53 39 36
5.668162e+000 -3.126418e+000 -6.572536e-001 142 144 127
5.836452e+000 -2.998259e+000 -4.298139e-001 81 71 69
5.673369e+000 -2.794829e+000 -8.778273e-001 42 25 31
5.676677e+000 -2.786832e+000 -1.186305e+000 33 21 21
5.567229e+000 -2.659870e+000 -6.856826e-001 85 70 75
7.397236e+000 -2.494092e+000 -1.726408e+000 98 84 83
7.522557e+000 -2.331147e+000 -1.634393e+000 112 93 84
6.290826e+000 -2.331911e+000 -1.189787e+000 56 33 25
7.616339e+000 -2.300348e+000 -1.875857e+000 93 73 62
5.621097e+000 -2.674625e+000 -7.465449e-001 29 20 24
5.621097e+000 -2.674625e+000 -7.465449e-001 29 20 24
7.536025e+000 -2.211841e+000 -1.284294e+000 92 70 57
5.496309e+000 -3.715322e+000 -6.856728e-001 103 89 78
5.496309e+000 -3.715322e+000 -6.856728e-001 103 89 78
5.631044e+000 -2.697558e+000 -9.115036e-001 49 36 43
6.349659e+000 -3.433886e+000 -1.134065e+000 43 39 39
6.349473e+000 -3.434272e+000 -1.135371e+000 43 39 39
5.786853e+000 -2.953419e+000 -9.379959e-001 47 33 33
6.683498e+000 -4.129635e+000 -7.859620e-001 170 157 93
5.675111e+000 -3.459928e+000 -9.122451e-001 50 35 40
5.729359e+000 -2.798323e+000 -4.822829e-001 34 20 30
5.729359e+000 -2.798323e+000 -4.822829e-001 34 20 30
8.204475e+000 -4.387828e+000 -2.275656e+000 163 148 91
8.424071e+000 -4.262065e+000 -1.637534e+000 74 54 41
7.314742e+000 -3.376101e+000 -1.621717e+000 132 139 145
7.314742e+000 -3.376101e+000 -1.621717e+000 132 139 145
7.975604e+000 -3.605236e+000 -2.609589e+000 97 72 50
7.791841e+000 -3.294065e+000 -2.945427e+000 163 129 85
8.418615e+000 -4.826107e+000 -1.747032e+000 182 169 114
7.907260e+000 -3.233861e+000 -2.742297e+000 163 144 104
7.907260e+000 -3.233861e+000 -2.742297e+000 163 144 104
7.395652e+000 -2.511393e+000 -1.809488e+000 66 46 45
7.487532e+000 -2.256139e+000 -1.255885e+000 99 75 59
7.519238e+000 -2.211134e+000 -1.292948e+000 104 82 69
7.656585e+000 -2.565297e+000 -3.215424e+000 171 143 92
6.792463e+000 -3.959444e+000 -9.448876e-001 104 70 43
7.912686e+000 -3.217223e+000 -2.750947e+000 134 115 75
8.407133e+000 -4.908885e+000 -1.671432e+000 171 159 103
5.503335e+000 -3.431249e+000 -8.600177e-001 85 70 65
6.297980e+000 -3.324780e+000 -1.109180e+000 64 49 46
7.853126e+000 -3.263068e+000 -2.865886e+000 176 149 106
7.682245e+000 -3.887547e+000 -3.057177e+000 161 143 93
8.982215e+000 -4.786031e+000 -8.295398e-001 168 163 107
5.576273e+000 -3.804237e+000 -6.560210e-001 139 131 120
5.513059e+000 -3.692645e+000 -6.492031e-001 163 153 140
5.673775e+000 -3.430014e+000 -1.012131e+000 47 30 27
7.907635e+000 -3.250142e+000 -2.758038e+000 163 142 103
7.213739e+000 -2.695089e+000 -1.671239e+000 107 89 78
6.302389e+000 -3.311934e+000 -1.131712e+000 81 53 49
7.844921e+000 -3.323880e+000 -2.857561e+000 179 159 108
7.777921e+000 -2.902352e+000 -2.323145e+000 67 44 36
8.812499e+000 -4.734861e+000 -1.067247e+000 157 150 98
6.305359e+000 -2.195233e+000 -1.238850e+000 148 126 83
7.815494e+000 -3.969682e+000 -2.778080e+000 154 133 86
5.599755e+000 -3.589833e+000 -8.703930e-001 97 88 80
5.526012e+000 -2.401599e+000 -7.520106e-001 82 67 74
6.399639e+000 -4.197365e+000 -5.625644e-001 52 36 36
5.610295e+000 -3.877557e+000 -3.944790e-001 100 91 89
5.590407e+000 -3.631275e+000 -3.601055e-001 131 120 112
5.682282e+000 -3.563751e+000 -3.105442e-001 94 77 70
5.639256e+000 -3.293674e+000 -9.759412e-001 63 52 48
7.620975e+000 -3.196886e+000 -3.221254e+000 174 158 106
6.064379e+000 -4.091584e+000 -6.154857e-001 54 43 41
5.808928e+000 -3.998772e+000 -5.758683e-001 121 116 104
5.663559e+000 -3.930060e+000 -5.906999e-001 112 104 91
5.819419e+000 -3.973091e+000 -6.915570e-001 85 68 60
6.048296e+000 -3.999718e+000 -8.088789e-001 102 89 70
5.583661e+000 -3.793600e+000 -3.005188e-001 57 48 47
6.028808e+000 -3.904223e+000 -8.708097e-001 74 56 44
6.031296e+000 -3.567837e+000 -1.074090e+000 52 31 28
5.654028e+000 -3.477733e+000 -1.000188e+000 60 44 44
5.916022e+000 -3.486566e+000 -1.078705e+000 47 28 22
5.950496e+000 -3.413111e+000 -1.084725e+000 88 68 61
6.289329e+000 -3.331425e+000 -1.092557e+000 38 25 24
5.743183e+000 -3.163297e+000 -9.798468e-001 108 98 91
6.082044e+000 -3.172294e+000 -1.130672e+000 57 34 28
6.087944e+000 -3.164749e+000 -1.146084e+000 87 64 60
5.795628e+000 -3.104939e+000 -9.996310e-001 84 74 68
5.777674e+000 -3.021301e+000 -7.921858e-001 94 95 81
7.495688e+000 -2.456523e+000 -1.859991e+000 81 63 59
7.463262e+000 -2.439311e+000 -1.854043e+000 104 85 79
8.186558e+000 -4.857710e+000 -1.934456e+000 194 188 130
6.489179e+000 -4.321146e+000 -6.837839e-001 85 57 36
6.044935e+000 -4.051004e+000 -6.657022e-001 91 76 68
6.065018e+000 -4.013476e+000 -7.080295e-001 56 38 28
6.065018e+000 -4.013476e+000 -7.080295e-001 56 38 28
7.797126e+000 -4.394558e+000 -2.742834e+000 162 136 87
7.797126e+000 -4.394558e+000 -2.742834e+000 162 136 87
5.615830e+000 -3.875151e+000 -6.377088e-001 87 74 66
6.025917e+000 -3.834872e+000 -9.610982e-001 43 25 13
6.472328e+000 -3.862017e+000 -8.973626e-001 57 52 48
6.043014e+000 -3.783894e+000 -9.848145e-001 58 38 27
5.506761e+000 -3.697597e+000 -6.278201e-001 82 68 60
6.039910e+000 -3.665023e+000 -1.058397e+000 79 52 40
5.704341e+000 -3.486579e+000 -2.821458e-001 146 141 134
5.603981e+000 -3.575109e+000 -8.633437e-001 137 130 120
5.901300e+000 -3.609107e+000 -1.037062e+000 44 29 25
5.679397e+000 -3.463468e+000 -1.023074e+000 52 34 31
5.679397e+000 -3.463468e+000 -1.023074e+000 52 34 31
5.970227e+000 -3.488128e+000 -1.093721e+000 53 32 29
6.030034e+000 -3.496925e+000 -1.099441e+000 48 29 23
6.092748e+000 -3.494743e+000 -1.133458e+000 89 61 57
5.497717e+000 -3.346521e+000 -7.806117e-001 163 157 143
5.524276e+000 -3.399619e+000 -8.918342e-001 57 43 40
6.864583e+000 -3.572852e+000 -2.394360e+000 52 36 29
5.659953e+000 -3.365979e+000 -1.000462e+000 91 71 62
6.029853e+000 -3.344393e+000 -1.140962e+000 82 58 54
5.559459e+000 -3.262363e+000 -8.877803e-001 147 139 126
5.914306e+000 -3.272272e+000 -1.095803e+000 51 37 28
6.022436e+000 -3.284531e+000 -1.107915e+000 75 51 47
5.551999e+000 -2.665192e+000 -6.331628e-001 71 58 60
7.478754e+000 -2.562722e+000 -1.841791e+000 67 48 41
7.512255e+000 -2.556313e+000 -1.893576e+000 95 75 68
7.607134e+000 -2.290388e+000 -1.235187e+000 68 44 38
7.502549e+000 -2.519107e+000 -1.832499e+000 92 74 70
7.507684e+000 -2.535365e+000 -1.860241e+000 102 83 79
7.573289e+000 -2.547454e+000 -3.428501e+000 162 135 82
7.559380e+000 -4.298413e+000 -1.190585e+000 104 81 51
5.689128e+000 -3.951937e+000 -5.839758e-001 72 62 53
5.757986e+000 -3.953636e+000 -6.916609e-001 53 36 30
5.713191e+000 -3.936383e+000 -7.168157e-001 82 65 57
6.044875e+000 -3.975041e+000 -8.057945e-001 64 45 38
5.584466e+000 -3.852660e+000 -5.911528e-001 145 136 119
5.804395e+000 -3.896504e+000 -8.166075e-001 51 38 27
5.838772e+000 -3.907824e+000 -8.639269e-001 51 35 28
5.962703e+000 -3.909983e+000 -8.594906e-001 77 58 42
6.127010e+000 -3.881421e+000 -9.158833e-001 52 33 19
6.102354e+000 -3.770408e+000 -1.001105e+000 64 40 30
6.024448e+000 -3.661291e+000 -1.043347e+000 50 31 24
5.714031e+000 -3.505162e+000 -3.195341e-001 57 43 43
5.784823e+000 -3.346980e+000 -1.829622e-001 42 38 40
6.347498e+000 -3.494059e+000 -1.127746e+000 61 57 63
5.661300e+000 -3.482137e+000 -9.532921e-001 82 64 64
5.949282e+000 -3.487453e+000 -1.081188e+000 81 62 53
5.656486e+000 -3.241301e+000 -9.598648e-001 128 117 108
5.693284e+000 -3.252680e+000 -1.015205e+000 91 70 66
5.988052e+000 -3.263463e+000 -1.114828e+000 73 49 47
5.974148e+000 -3.218628e+000 -1.083044e+000 75 57 47
6.059525e+000 -3.275031e+000 -1.135285e+000 84 59 52
5.884728e+000 -3.089709e+000 -1.072606e+000 48 28 27
7.668485e+000 -3.266898e+000 -3.171457e+000 179 161 111
7.922327e+000 -3.049081e+000 -2.786663e+000 160 137 94
7.264999e+000 -2.842069e+000 -1.886213e+000 54 39 39
7.474188e+000 -2.545838e+000 -1.807766e+000 72 50 44
7.558077e+000 -2.550401e+000 -1.912107e+000 104 86 77
7.624348e+000 -2.147706e+000 -1.351377e+000 98 77 61
5.524481e+000 -2.447809e+000 -7.443014e-001 29 17 23
6.145441e+000 -4.100063e+000 -5.848344e-001 69 61 58
5.551297e+000 -3.833435e+000 -4.502210e-001 167 160 150
6.107574e+000 -3.729906e+000 -1.022092e+000 51 33 19
6.131288e+000 -3.725794e+000 -1.006731e+000 51 33 19
6.115974e+000 -3.638049e+000 -1.057657e+000 56 38 29
5.515966e+000 -3.541389e+000 -8.039403e-001 67 53 52
6.582042e+000 -3.640132e+000 -1.353024e+000 67 51 46
5.525744e+000 -3.505998e+000 -8.867040e-001 129 120 114
5.682454e+000 -3.507755e+000 -9.940419e-001 47 29 29
5.759770e+000 -3.488968e+000 -1.043538e+000 76 53 45
5.897450e+000 -3.449291e+000 -1.082788e+000 51 30 35
5.893116e+000 -3.455393e+000 -1.121025e+000 81 58 53
5.512571e+000 -3.361948e+000 -7.928703e-001 88 71 67
5.712828e+000 -3.394961e+000 -1.040373e+000 80 59 54
5.520273e+000 -3.317022e+000 -8.885799e-001 72 59 50
6.081848e+000 -3.132507e+000 -1.128655e+000 53 32 29
7.621928e+000 -3.144203e+000 -3.264144e+000 173 153 102
6.713535e+000 -2.320793e+000 -1.298373e+000 84 50 25
6.058632e+000 -2.250297e+000 -1.236263e+000 136 116 83
5.818778e+000 -3.960977e+000 -6.937964e-001 89 71 61
5.537687e+000 -3.832666e+000 -5.418793e-001 159 153 136
5.620468e+000 -3.859767e+000 -7.062055e-001 92 77 72
5.993546e+000 -3.858937e+000 -9.003848e-001 42 23 18
6.637593e+000 -3.734876e+000 -1.235433e+000 78 37 38
5.768837e+000 -3.436386e+000 -1.872610e-001 37 35 40
5.562453e+000 -3.509769e+000 -9.142353e-001 40 26 24
5.498684e+000 -3.414676e+000 -7.996580e-001 71 56 50
5.501278e+000 -3.446466e+000 -8.378762e-001 129 124 107
5.882819e+000 -3.423299e+000 -1.056513e+000 46 28 26
5.988735e+000 -3.421903e+000 -1.099620e+000 58 38 37
5.577991e+000 -3.314130e+000 -9.224610e-001 64 49 46
5.633451e+000 -3.317278e+000 -9.993081e-001 105 95 86
7.825900e+000 -3.360258e+000 -2.915828e+000 181 159 112
5.964075e+000 -3.136880e+000 -1.104452e+000 42 22 21
7.320745e+000 -2.769995e+000 -1.703376e+000 92 75 68
5.647238e+000 -2.828717e+000 -9.638083e-001 72 57 62
7.500998e+000 -2.421054e+000 -1.879934e+000 115 97 93
6.640059e+000 -2.345240e+000 -1.282214e+000 152 129 88
6.724502e+000 -2.240248e+000 -1.254793e+000 85 57 35
7.836767e+000 -2.357437e+000 -2.998372e+000 171 144 91
8.405490e+000 -4.926459e+000 -1.604447e+000 165 152 100
8.038027e+000 -4.780054e+000 -2.398379e+000 171 150 96
6.058141e+000 -4.071156e+000 -4.724793e-001 111 106 100
5.799139e+000 -3.969665e+000 -6.514290e-001 71 53 51
6.007868e+000 -3.717559e+000 -1.010058e+000 63 43 34
5.963175e+000 -3.631786e+000 -1.043688e+000 40 22 21
6.967131e+000 -3.741562e+000 -1.922793e+000 111 98 81
6.992895e+000 -3.738457e+000 -1.914786e+000 111 98 81
5.624607e+000 -3.540636e+000 -9.351329e-001 43 29 28
5.633052e+000 -3.537401e+000 -9.278589e-001 43 29 28
5.760991e+000 -3.102274e+000 -8.043753e-001 128 120 110
6.897642e+000 -3.032093e+000 -1.695217e+000 117 109 110
5.545134e+000 -2.599775e+000 -7.088018e-001 65 48 58
7.662946e+000 -2.577729e+000 -3.224736e+000 177 149 99
5.594618e+000 -3.207505e+000 -7.830342e-001 65 47 43
5.710644e+000 -2.846435e+000 -9.034785e-001 86 74 78
7.323811e+000 -2.518263e+000 -1.597387e+000 76 58 55
5.549355e+000 -2.509868e+000 -6.882179e-001 43 27 37
5.760762e+000 -2.801406e+000 -7.257801e-001 61 44 50
7.469911e+000 -2.591675e+000 -1.717668e+000 71 51 44
6.078922e+000 -2.218216e+000 -1.203450e+000 110 86 58
6.025995e+000 -2.276937e+000 -1.337905e+000 67 37 29
6.879044e+000 -4.057150e+000 -4.860480e-001 80 54 39
8.265519e+000 -3.863760e+000 -1.918063e+000 108 94 94
6.592118e+000 -3.382191e+000 -1.379206e+000 63 42 47
7.857363e+000 -3.770232e+000 -2.812559e+000 173 155 103
7.927817e+000 -3.779839e+000 -2.830580e+000 178 161 109
7.299306e+000 -2.676761e+000 -1.833036e+000 70 50 41
6.060772e+000 -4.069510e+000 -5.800419e-001 54 44 34
5.820588e+000 -4.006348e+000 -5.774353e-001 83 65 51
5.630536e+000 -3.910234e+000 -5.341897e-001 140 122 105
6.066960e+000 -3.982081e+000 -8.424572e-001 68 45 29
5.991187e+000 -3.350394e+000 -1.118764e+000 53 33 26
5.784374e+000 -3.066594e+000 -9.266168e-001 83 74 59
7.231957e+000 -2.879416e+000 -1.881166e+000 122 103 88
7.447881e+000 -2.499635e+000 -1.779881e+000 105 85 74
8.383388e+000 -4.696623e+000 -1.957402e+000 147 117 57
8.251411e+000 -4.649087e+000 -2.114144e+000 168 143 77
5.700262e+000 -4.047765e+000 1.419970e-002 43 23 32
5.839394e+000 -4.012144e+000 -4.837351e-001 90 76 64
5.633440e+000 -3.906668e+000 -4.593578e-001 157 149 130
5.711442e+000 -3.904886e+000 -6.898759e-001 94 76 64
6.012357e+000 -3.913178e+000 -8.242319e-001 88 66 52
8.062318e+000 -4.238749e+000 -2.459681e+000 156 122 73
7.884375e+000 -4.283341e+000 -2.747818e+000 164 135 78
5.544790e+000 -3.741445e+000 -4.247461e-001 96 84 63
5.538048e+000 -3.686958e+000 -3.914718e-001 113 96 78
5.459257e+000 -3.465914e+000 -7.551156e-001 95 80 65
6.067414e+000 -3.509948e+000 -1.126482e+000 66 36 27
5.631725e+000 -3.259673e+000 -5.582449e-001 162 157 136
5.629560e+000 -3.398826e+000 -9.908330e-001 80 60 54
5.926529e+000 -3.201268e+000 -1.114787e+000 87 62 54
5.832928e+000 -3.111409e+000 -1.080398e+000 118 100 91
7.119366e+000 -2.682814e+000 -1.762106e+000 87 59 47
7.661659e+000 -3.082306e+000 -3.228525e+000 182 156 97
5.551500e+000 -2.677122e+000 -6.556435e-001 47 30 34
7.474019e+000 -2.247092e+000 -1.284198e+000 109 82 66
7.492481e+000 -2.505415e+000 -1.855201e+000 65 45 36
7.537830e+000 -3.073472e+000 -3.393914e+000 172 145 86
6.334647e+000 -2.226814e+000 -1.253288e+000 171 139 91
6.115502e+000 -4.240943e+000 -4.895703e-001 25 15 14
5.546728e+000 -3.911695e+000 1.174529e-001 109 88 93
5.728856e+000 -3.957678e+000 -4.538932e-001 86 76 60
6.040361e+000 -4.055057e+000 -6.354955e-001 57 40 32
5.726293e+000 -3.971171e+000 -6.861863e-001 60 40 33
6.231739e+000 -3.908194e+000 -9.138472e-001 38 29 22
5.518947e+000 -3.783242e+000 -5.247438e-001 93 75 56
5.701596e+000 -3.840550e+000 -8.029488e-001 63 50 42
6.049539e+000 -3.786482e+000 -1.009230e+000 86 60 47
5.510498e+000 -3.706391e+000 -6.817703e-001 105 86 66
5.457720e+000 -3.645080e+000 -7.572144e-001 123 109 83
5.880320e+000 -3.567998e+000 -1.083274e+000 48 32 25
5.472128e+000 -3.475834e+000 -8.151579e-001 108 91 75
5.688229e+000 -3.472752e+000 -9.907797e-001 91 69 60
5.955708e+000 -3.508832e+000 -1.073104e+000 89 64 57
5.952392e+000 -3.454009e+000 -1.033242e+000 81 58 50
6.041806e+000 -3.403321e+000 -1.131981e+000 89 66 57
6.040545e+000 -3.440944e+000 -1.161995e+000 54 27 18
5.545436e+000 -3.383934e+000 -9.094001e-001 76 59 46
5.646826e+000 -3.392443e+000 -1.001617e+000 55 35 28
5.932763e+000 -3.371734e+000 -1.078091e+000 50 22 21
5.825941e+000 -3.212760e+000 -1.066607e+000 103 79 69
6.026398e+000 -3.155591e+000 -1.135524e+000 87 64 56
7.529194e+000 -2.580866e+000 -1.892524e+000 64 42 29
5.572338e+000 -2.691265e+000 -6.752683e-001 56 35 37
7.324028e+000 -2.530554e+000 -1.637174e+000 73 53 46
7.366324e+000 -2.470444e+000 -1.630783e+000 81 58 47
7.624755e+000 -2.175056e+000 -1.286415e+000 73 47 32
7.625982e+000 -2.652014e+000 -3.293749e+000 173 140 85
6.521843e+000 -4.339915e+000 -6.258945e-001 145 124 77
7.942313e+000 -4.602210e+000 -2.658666e+000 156 129 74
5.909666e+000 -4.023174e+000 -5.249384e-001 73 62 48
6.807541e+000 -3.977708e+000 -5.661686e-001 137 113 69
5.700909e+000 -3.943026e+000 -5.338696e-001 129 117 103
5.812802e+000 -3.945839e+000 -7.465863e-001 55 35 26
5.521717e+000 -3.772574e+000 -5.506968e-001 140 123 104
5.914752e+000 -3.889110e+000 -8.679042e-001 49 29 22
5.515432e+000 -3.692068e+000 -6.465556e-001 171 159 140
5.752151e+000 -3.419643e+000 -3.075456e-001 55 45 46
5.589447e+000 -3.558472e+000 -8.182790e-001 106 94 80
6.076754e+000 -3.538252e+000 -1.085794e+000 88 60 49
5.700653e+000 -3.472274e+000 -1.036340e+000 85 65 56
5.865096e+000 -3.513424e+000 -1.045790e+000 47 28 24
6.654961e+000 -3.425992e+000 -1.351114e+000 67 49 47
5.649061e+000 -3.408339e+000 -1.052721e+000 62 42 33
5.883385e+000 -3.378364e+000 -1.083636e+000 86 64 53
5.765257e+000 -3.090265e+000 -9.238085e-001 149 143 121
6.046006e+000 -2.945072e+000 -1.105502e+000 60 39 34
7.504423e+000 -2.563169e+000 -1.783181e+000 96 70 57
7.538386e+000 -2.624870e+000 -1.864418e+000 59 35 23
7.707008e+000 -2.620277e+000 -2.070969e+000 75 53 42
7.690148e+000 -2.979156e+000 -3.254992e+000 193 168 111
5.542206e+000 -2.642611e+000 -6.697725e-001 45 27 29
5.604436e+000 -2.556072e+000 -8.758725e-001 34 18 21
6.693282e+000 -2.240854e+000 -1.298040e+000 176 149 78
6.299277e+000 -2.115876e+000 -1.247930e+000 167 136 82
5.783278e+000 -4.131518e+000 -8.415727e-002 34 24 28
8.972890e+000 -4.506265e+000 -9.211505e-001 155 135 84
6.095313e+000 -4.106690e+000 -4.541994e-001 26 20 20
5.877612e+000 -4.003203e+000 -4.897210e-001 80 62 48
5.845523e+000 -3.983643e+000 -6.210494e-001 62 42 33
5.730027e+000 -3.952285e+000 -6.543512e-001 95 77 65
5.531667e+000 -3.723064e+000 -4.310790e-001 81 60 46
5.515887e+000 -3.744928e+000 -4.881153e-001 163 147 128
5.777526e+000 -3.460225e+000 -1.027622e-001 110 111 116
5.464847e+000 -3.466400e+000 -7.845201e-001 163 151 134
5.468953e+000 -3.464268e+000 -7.814750e-001 163 151 134
5.713071e+000 -3.498341e+000 -1.039708e+000 50 30 23
5.798023e+000 -3.408959e+000 -1.099003e+000 93 65 59
6.068329e+000 -3.343804e+000 -1.144544e+000 65 40 33
5.653325e+000 -3.169030e+000 -5.826293e-001 98 86 70
5.725607e+000 -3.093460e+000 -7.734651e-001 150 138 122
5.771714e+000 -3.209770e+000 -1.048628e+000 103 82 73
5.766172e+000 -3.045609e+000 -7.792239e-001 74 62 45
5.679618e+000 -2.922894e+000 -8.174153e-001 45 27 27
6.740019e+000 -2.313658e+000 -1.325091e+000 178 148 86
6.016556e+000 -2.232220e+000 -1.171946e+000 92 61 43
5.870039e+000 -4.029638e+000 -2.392950e-001 21 16 20
6.639590e+000 -4.080770e+000 -6.003598e-001 53 30 17
5.621659e+000 -3.849380e+000 -1.758111e-002 31 18 27
5.572390e+000 -3.803880e+000 -3.490743e-001 163 154 131
5.585705e+000 -3.852341e+000 -4.668468e-001 109 94 78
5.679599e+000 -3.879901e+000 -6.736071e-001 51 32 25
5.679599e+000 -3.879901e+000 -6.736071e-001 51 32 25
6.816737e+000 -4.000321e+000 -1.634157e+000 155 157 144
5.506108e+000 -3.716777e+000 -5.994633e-001 155 144 121
5.657897e+000 -3.593685e+000 -3.291208e-001 69 50 39
5.657897e+000 -3.593685e+000 -3.291208e-001 69 50 39
6.638646e+000 -3.733671e+000 -1.234236e+000 82 37 32
5.817008e+000 -3.710611e+000 -9.850514e-001 47 35 22
5.542354e+000 -3.563964e+000 -6.964280e-001 91 69 54
5.519515e+000 -3.549053e+000 -7.581740e-001 139 126 105
5.499692e+000 -3.414278e+000 -7.987726e-001 75 59 44
5.745911e+000 -3.359310e+000 -1.057566e+000 44 26 16
6.091727e+000 -3.232591e+000 -1.136799e+000 58 35 27
6.070976e+000 -3.172280e+000 -1.168006e+000 87 59 48
5.759175e+000 -3.123969e+000 -9.068989e-001 84 71 54
5.833043e+000 -3.045288e+000 -9.623108e-001 48 30 26
7.636728e+000 -3.409379e+000 -3.237322e+000 181 146 92
5.663748e+000 -2.796485e+000 -7.331974e-001 18 10 16
6.243830e+000 -2.215428e+000 -1.218146e+000 80 46 36
7.933359e+000 -4.780182e+000 -2.618645e+000 188 164 102
6.797298e+000 -4.025765e+000 -4.365098e-001 114 92 56
5.584864e+000 -3.690487e+000 -7.302319e-001 61 42 38
5.670427e+000 -3.529758e+000 -3.137621e-001 156 151 131
5.490497e+000 -3.502905e+000 -7.517576e-001 81 57 47
5.869622e+000 -3.590102e+000 -1.059264e+000 56 39 32
5.787068e+000 -3.030484e+000 -8.245761e-001 130 123 105
5.622042e+000 -2.841322e+000 -1.029815e+000 30 16 16
6.376721e+000 -2.267659e+000 -1.143834e+000 59 31 21
5.794073e+000 -3.970595e+000 -6.542774e-001 63 44 37
5.775951e+000 -3.894758e+000 -7.746178e-001 53 35 30
5.739644e+000 -3.585284e+000 -8.384772e-002 42 32 33
5.725950e+000 -3.803032e+000 -7.387920e-001 46 32 32
5.628786e+000 -3.612661e+000 -2.783079e-001 157 144 127
6.142946e+000 -3.492303e+000 -1.112559e+000 75 45 37
5.899431e+000 -3.006372e+000 -1.054439e+000 40 22 20
7.581347e+000 -2.346342e+000 -1.734051e+000 75 57 45
5.749919e+000 -3.897349e+000 -2.017207e-001 30 19 23
8.396712e+000 -4.148213e+000 -1.852877e+000 62 43 28
7.433728e+000 -3.498854e+000 -2.081876e+000 68 42 35
6.374193e+000 -3.202418e+000 -1.130604e+000 102 64 55
6.377941e+000 -2.985403e+000 -1.115802e+000 38 20 21
6.603772e+000 -3.887581e+000 -8.411655e-001 31 21 19
5.695094e+000 -3.085337e+000 -8.387526e-001 73 60 47
7.464814e+000 -3.341669e+000 -1.561025e+000 143 143 141
7.464814e+000 -3.341669e+000 -1.561025e+000 143 143 141
3.714314e+001 1.971782e+001 4.423822e+001 121 83 70
3.450280e+001 1.720399e+001 4.146453e+001 123 128 142
3.349296e+001 1.475848e+001 4.157499e+001 137 154 174
3.349296e+001 1.475848e+001 4.157499e+001 137 154 174
3.504742e+001 1.252982e+001 4.255400e+001 126 138 162
3.412070e+001 1.345740e+001 4.114869e+001 82 90 111
3.558794e+001 1.454815e+001 4.100096e+001 141 158 184
5.740935e+000 -3.878303e+000 -7.811451e-001 81 63 59
6.124149e+000 -4.209265e+000 -4.444319e-001 20 17 20
7.850581e+000 -4.291107e+000 -2.742636e+000 162 147 90
6.038115e+000 -3.782591e+000 -9.635956e-001 74 54 44
5.648428e+000 -3.843046e+000 -3.440038e-002 55 40 44
5.618088e+000 -3.879083e+000 -6.654997e-001 126 113 97
6.075524e+000 -3.906804e+000 -8.620244e-001 49 29 18
5.505365e+000 -3.691494e+000 -6.064458e-001 147 134 118
