ply
format ascii 1.0
element face 0
property list uchar int vertex_indices
element vertex 876
property float x
property float y
property float z
property uchar diffuse_red
property uchar diffuse_green
property uchar diffuse_blue
end_header
5.694834e+000 -3.417427e+000 -1.755465e-001 46 37 40
7.265467e+000 -2.941065e+000 -1.757246e+000 41 26 19
8.044505e+000 -2.440441e+000 -2.857212e+000 155 138 95
5.665546e+000 -3.123092e+000 -3.359714e-001 63 55 52
6.982637e+000 -2.832272e+000 -1.501684e+000 71 58 52
5.834670e+000 -3.293524e+000 -8.460339e-002 68 54 54
8.251594e+000 -2.014616e+000 -2.427733e+000 146 128 92
7.809953e+000 -2.309300e+000 -1.504166e+000 54 32 21
8.967245e+000 -1.928551e+000 -1.606782e+000 163 147 95
8.792879e+000 -1.722868e+000 -1.772518e+000 167 151 94
8.839641e+000 -1.601783e+000 -1.895763e+000 177 166 111
8.839641e+000 -1.601783e+000 -1.895763e+000 177 166 111
7.778325e+000 -3.210798e+000 -3.233214e+000 179 166 113
7.709562e+000 -3.081979e+000 -3.330856e+000 206 195 141
7.709562e+000 -3.081979e+000 -3.330856e+000 206 195 141
7.708342e+000 -3.051167e+000 -3.335917e+000 180 165 110
7.746216e+000 -3.042484e+000 -3.348482e+000 200 187 132
7.846062e+000 -3.281263e+000 -3.110261e+000 194 174 124
7.730305e+000 -3.087931e+000 -3.215754e+000 186 165 112
7.678773e+000 -3.020804e+000 -3.177212e+000 187 167 114
7.811759e+000 -3.071928e+000 -3.198375e+000 210 199 145
7.813875e+000 -2.992548e+000 -3.170555e+000 181 166 111
7.813875e+000 -2.992548e+000 -3.170555e+000 181 166 111
7.726955e+000 -2.847322e+000 -3.330138e+000 200 185 131
5.455801e+000 -3.698713e+000 -6.900456e-001 159 152 136
5.435944e+000 -3.456985e+000 -8.960014e-001 79 60 50
7.959743e+000 -3.272124e+000 -2.922775e+000 183 160 115
7.861304e+000 -3.061149e+000 -3.090188e+000 183 167 116
5.421846e+000 -3.383561e+000 -7.325226e-001 166 161 141
5.583142e+000 -3.263006e+000 -9.852964e-001 83 66 59
7.760137e+000 -2.674217e+000 -3.181004e+000 165 149 98
5.453769e+000 -3.728840e+000 -3.646478e-001 150 132 118
5.476581e+000 -3.754877e+000 -4.029747e-001 146 137 120
5.432895e+000 -3.335769e+000 -7.341884e-001 78 64 51
5.412028e+000 -3.261280e+000 -8.031786e-001 106 90 75
5.503672e+000 -3.272351e+000 -8.683084e-001 126 112 103
7.793495e+000 -2.556619e+000 -3.162840e+000 204 191 138
5.640713e+000 -3.135102e+000 -8.952523e-001 70 53 48
5.666406e+000 -3.159926e+000 -9.730119e-001 101 87 84
7.924722e+000 -2.673640e+000 -3.038464e+000 158 138 88
5.668452e+000 -3.548255e+000 -3.936110e-001 30 19 23
5.542608e+000 -3.163475e+000 -7.613320e-001 143 138 119
5.698661e+000 -3.115245e+000 -8.361856e-001 146 138 127
7.637216e+000 -2.954849e+000 -2.359427e+000 74 50 37
7.913595e+000 -2.527004e+000 -3.099912e+000 172 150 100
7.938697e+000 -2.496640e+000 -3.049008e+000 197 190 137
5.628023e+000 -3.590938e+000 -2.905980e-001 77 63 61
7.661485e+000 -3.031730e+000 -2.269141e+000 92 73 59
7.648370e+000 -2.916048e+000 -2.338137e+000 94 72 58
5.701877e+000 -3.037058e+000 -7.020024e-001 132 124 105
8.025961e+000 -2.488251e+000 -2.844845e+000 141 123 83
5.669530e+000 -3.218035e+000 -4.051637e-001 158 150 137
5.660370e+000 -3.070490e+000 -5.213178e-001 83 73 56
5.683267e+000 -3.054854e+000 -6.148973e-001 135 126 111
5.685269e+000 -3.056499e+000 -6.137218e-001 135 126 111
5.697703e+000 -3.025490e+000 -6.450697e-001 71 58 50
5.757496e+000 -3.042296e+000 -6.438801e-001 71 51 45
5.734224e+000 -3.029916e+000 -6.355218e-001 161 155 139
5.757926e+000 -2.547533e+000 -9.387264e-001 25 14 18
7.372496e+000 -2.751678e+000 -1.722668e+000 42 27 21
5.870011e+000 -3.338069e+000 -2.760225e-002 111 102 100
7.498002e+000 -2.477754e+000 -1.985136e+000 60 37 27
7.437437e+000 -2.449354e+000 -1.845902e+000 46 27 20
6.027335e+000 -3.443478e+000 3.589776e-001 69 53 53
7.441906e+000 -2.359111e+000 -1.686544e+000 44 30 19
8.758666e+000 -2.098676e+000 -2.101174e+000 155 142 100
7.533160e+000 -2.135954e+000 -1.285121e+000 58 39 24
8.516845e+000 -1.609014e+000 -2.216070e+000 166 152 92
7.631209e+000 -3.357407e+000 -3.529254e+000 207 191 140
7.663497e+000 -3.183281e+000 -3.425290e+000 206 193 136
7.763306e+000 -3.138315e+000 -3.327916e+000 175 158 103
7.760156e+000 -3.116468e+000 -3.270071e+000 206 193 138
5.424698e+000 -3.711758e+000 -5.768778e-001 98 81 66
5.428084e+000 -3.609618e+000 -7.570975e-001 87 72 68
5.444852e+000 -3.397682e+000 -8.975376e-001 128 114 103
5.444852e+000 -3.397682e+000 -8.975376e-001 128 114 103
5.535522e+000 -3.228438e+000 -1.094019e+000 99 79 68
7.832043e+000 -2.864666e+000 -3.225432e+000 198 181 129
5.434679e+000 -3.665243e+000 -5.868008e-001 92 73 66
5.434679e+000 -3.665243e+000 -5.868008e-001 92 73 66
5.354130e+000 -3.440437e+000 -7.348805e-001 80 60 52
7.860456e+000 -2.893400e+000 -3.105920e+000 170 154 102
7.770731e+000 -2.627658e+000 -3.240711e+000 192 178 123
5.468958e+000 -3.709329e+000 -3.923725e-001 91 72 58
5.468958e+000 -3.709329e+000 -3.923725e-001 91 72 58
5.451710e+000 -3.352623e+000 -7.489976e-001 147 137 118
5.551304e+000 -3.200977e+000 -8.442141e-001 62 41 40
5.686793e+000 -3.122422e+000 -8.629289e-001 147 146 126
7.645926e+000 -3.006699e+000 -2.310402e+000 68 44 32
7.879297e+000 -2.700272e+000 -2.899606e+000 144 132 93
5.695531e+000 -3.500280e+000 -3.722654e-001 39 29 37
5.632609e+000 -3.118495e+000 -7.836484e-001 49 35 34
5.667148e+000 -3.082680e+000 -7.225547e-001 138 135 116
8.148041e+000 -2.822226e+000 -2.709681e+000 156 144 102
7.492657e+000 -2.791890e+000 -2.175681e+000 73 54 47
8.139124e+000 -2.745981e+000 -2.632930e+000 124 111 79
8.008597e+000 -2.552260e+000 -2.876736e+000 149 135 86
8.040135e+000 -2.525965e+000 -2.871426e+000 177 163 116
5.707872e+000 -3.390340e+000 -1.573287e-001 129 123 113
5.788487e+000 -3.389364e+000 -9.060179e-002 115 107 96
5.678207e+000 -3.108407e+000 -3.528948e-001 145 137 126
5.688574e+000 -3.048402e+000 -5.008458e-001 146 142 130
5.786606e+000 -3.252654e+000 -6.466328e-002 42 34 32
5.804574e+000 -3.120381e+000 -1.817282e-001 61 46 47
7.458934e+000 -2.425302e+000 -1.870986e+000 76 55 44
7.473778e+000 -2.435226e+000 -1.943057e+000 80 60 46
8.262002e+000 -2.226196e+000 -2.655488e+000 158 150 106
7.563053e+000 -2.296344e+000 -1.966255e+000 65 45 36
8.269314e+000 -2.142919e+000 -2.523891e+000 116 99 69
8.342107e+000 -2.021648e+000 -2.527910e+000 126 113 79
8.605778e+000 -1.931253e+000 -2.039718e+000 162 148 98
7.452241e+000 -2.077084e+000 -1.191404e+000 97 81 57
7.478444e+000 -2.122853e+000 -1.017292e+000 103 88 74
9.281953e+000 -2.589405e+000 -9.348091e-001 157 141 82
7.606144e+000 -3.460770e+000 -3.451078e+000 176 155 99
7.575904e+000 -3.366508e+000 -3.436583e+000 196 180 129
7.665251e+000 -3.377997e+000 -3.410184e+000 203 183 135
7.772071e+000 -3.198097e+000 -3.266251e+000 209 197 143
7.802502e+000 -3.160823e+000 -3.135043e+000 202 192 141
7.809082e+000 -2.949677e+000 -3.152380e+000 204 193 139
5.442297e+000 -3.723526e+000 -5.321378e-001 154 142 130
5.379831e+000 -3.458772e+000 -6.733779e-001 182 175 159
5.424920e+000 -3.453272e+000 -6.675769e-001 96 87 76
5.424920e+000 -3.453272e+000 -6.675769e-001 96 87 76
5.419638e+000 -3.375139e+000 -7.725793e-001 92 78 65
5.903751e+000 -3.489869e+000 -1.107549e+000 89 65 53
7.908022e+000 -2.966204e+000 -3.102590e+000 201 190 134
5.462717e+000 -3.808007e+000 -3.459225e-001 108 92 76
5.509491e+000 -3.264716e+000 -7.158700e-001 136 132 117
7.848004e+000 -3.058089e+000 -2.396816e+000 97 70 57
5.668768e+000 -3.524392e+000 -2.294673e-001 62 50 47
5.672010e+000 -3.310026e+000 -3.578365e-001 28 19 26
7.968385e+000 -2.521801e+000 -2.821464e+000 167 155 107
7.968385e+000 -2.521801e+000 -2.821464e+000 167 155 107
5.605723e+000 -3.544388e+000 -2.836459e-002 32 22 30
5.640969e+000 -3.128259e+000 -5.240520e-001 144 139 119
5.697107e+000 -3.055713e+000 -5.435327e-001 71 55 57
5.675327e+000 -3.071230e+000 -3.947313e-001 77 58 44
7.372569e+000 -2.806536e+000 -1.677392e+000 37 24 21
7.398436e+000 -2.710881e+000 -1.749988e+000 77 52 43
7.625522e+000 -2.424347e+000 -2.215353e+000 52 36 23
5.436430e+000 -2.332472e+000 -6.952883e-001 58 42 43
7.527117e+000 -2.239699e+000 -1.059490e+000 67 49 37
7.523604e+000 -3.170534e+000 -3.036414e+000 187 167 112
5.401008e+000 -3.438073e+000 -7.835040e-001 79 65 58
5.354879e+000 -3.354560e+000 -8.737021e-001 147 138 121
5.428501e+000 -3.381392e+000 -8.637764e-001 86 70 58
5.586448e+000 -3.516002e+000 -9.428184e-001 91 72 65
7.884689e+000 -3.155229e+000 -2.934619e+000 175 153 106
5.417745e+000 -3.345295e+000 -8.279936e-001 150 138 124
5.519757e+000 -3.329178e+000 -9.340303e-001 96 87 78
5.908324e+000 -3.420413e+000 -1.134074e+000 79 57 38
7.888088e+000 -2.790018e+000 -3.126885e+000 197 181 129
5.502153e+000 -3.723103e+000 -4.241890e-001 111 104 89
5.652872e+000 -3.252711e+000 -9.962035e-001 91 78 72
5.642333e+000 -3.240203e+000 -1.001246e+000 91 78 72
7.811979e+000 -2.605635e+000 -3.202066e+000 163 146 94
5.612853e+000 -3.982067e+000 2.627454e-002 42 25 33
5.669994e+000 -3.064478e+000 -9.568101e-001 119 113 101
5.608860e+000 -3.638613e+000 -1.444117e-001 38 28 35
7.631424e+000 -2.862443e+000 -2.400610e+000 93 70 58
5.631193e+000 -3.580794e+000 -1.441785e-001 47 38 44
5.596918e+000 -3.149031e+000 -5.485304e-001 69 48 45
5.700048e+000 -2.930684e+000 -6.717650e-001 62 44 40
7.174441e+000 -2.957846e+000 -1.296338e+000 33 26 17
8.114731e+000 -2.250984e+000 -2.810450e+000 171 161 115
7.260667e+000 -2.848908e+000 -1.425525e+000 46 31 28
5.438572e+000 -2.281874e+000 -7.247999e-001 92 74 80
5.606654e+000 -2.264209e+000 -6.697534e-001 38 27 31
5.870799e+000 -2.115667e+000 -1.013423e+000 37 25 25
5.608122e+000 -2.202982e+000 -6.282202e-001 44 32 35
7.895365e+000 -3.122525e+000 -3.006512e+000 163 141 96
5.416752e+000 -3.414988e+000 -7.235382e-001 137 133 116
5.416752e+000 -3.414988e+000 -7.235382e-001 137 133 116
5.599022e+000 -3.294741e+000 -1.013909e+000 45 28 24
6.428982e+000 -3.703965e+000 -1.165022e+000 83 55 44
5.628284e+000 -3.225095e+000 -4.597663e-001 154 143 130
7.399094e+000 -2.875983e+000 -2.118432e+000 98 83 65
5.736655e+000 -3.067484e+000 -6.501795e-001 143 141 120
7.663227e+000 -2.717136e+000 -2.298263e+000 38 21 14
5.719809e+000 -3.008454e+000 -4.804195e-001 61 50 46
7.337076e+000 -2.859360e+000 -1.660460e+000 65 50 46
5.449630e+000 -2.392220e+000 -5.551183e-001 46 30 33
7.550812e+000 -2.481486e+000 -1.558602e+000 79 62 48
7.819210e+000 -2.470292e+000 -1.411515e+000 75 56 41
7.535754e+000 -2.179347e+000 -1.002798e+000 125 111 98
5.659568e+000 -3.183620e+000 -3.806063e-001 156 149 141
7.990116e+000 -2.344413e+000 -2.894442e+000 168 158 109
5.459805e+000 -2.233439e+000 -7.193517e-001 35 23 27
7.640945e+000 -2.920116e+000 -3.341808e+000 169 133 97
5.498543e+000 -3.527450e+000 -8.563223e-001 95 78 70
5.665487e+000 -3.384097e+000 -3.512610e-001 41 32 36
5.512553e+000 -2.671722e+000 -6.047609e-001 50 35 35
5.848133e+000 -2.216668e+000 -1.257885e+000 54 37 37
5.848133e+000 -2.216668e+000 -1.257885e+000 54 37 37
5.674322e+000 -3.164489e+000 -1.042458e+000 82 62 51
5.620830e+000 -3.472389e+000 2.496570e-002 29 19 24
5.464660e+000 -2.078889e+000 -8.144940e-001 61 44 49
7.118646e+000 -2.411209e+000 -6.890071e-001 64 48 35
7.709855e+000 -2.864462e+000 -2.344297e+000 89 69 56
5.563693e+000 -2.636311e+000 -9.268669e-001 67 54 54
5.765445e+000 -3.299182e+000 -1.509158e-001 58 44 43
7.323996e+000 -2.651835e+000 -1.706514e+000 76 52 42
7.689590e+000 -2.174031e+000 -1.870412e+000 85 68 52
5.617452e+000 -2.536451e+000 -2.338861e-001 44 27 33
6.068164e+000 -1.918542e+000 -5.101369e-001 63 44 40
5.528819e+000 -3.506058e+000 -4.764621e-001 46 37 41
5.507751e+000 -2.879222e+000 -6.311018e-001 83 71 55
7.450879e+000 -2.705117e+000 -1.954141e+000 32 22 20
5.442670e+000 -3.279842e+000 -8.267073e-001 77 67 58
7.465757e+000 -2.254750e+000 -9.362911e-001 86 78 59
5.800386e+000 -3.409780e+000 1.178978e-001 193 222 233
8.175122e+000 -2.078561e+000 -2.721479e+000 167 164 119
8.219779e+000 -3.011090e+000 -1.928500e+000 68 49 43
7.679995e+000 -3.264938e+000 -3.370583e+000 201 186 127
7.793733e+000 -3.273945e+000 -3.203346e+000 176 154 107
5.409262e+000 -3.456675e+000 -8.165923e-001 158 149 132
5.409262e+000 -3.456675e+000 -8.165923e-001 158 149 132
7.847924e+000 -3.020390e+000 -3.038475e+000 179 163 108
7.903278e+000 -3.031876e+000 -3.077231e+000 200 185 125
5.502905e+000 -3.260877e+000 -9.129262e-001 111 98 92
5.569734e+000 -3.273703e+000 -9.746983e-001 60 45 40
7.943904e+000 -3.090749e+000 -2.998853e+000 196 184 131
7.885992e+000 -2.824812e+000 -3.046449e+000 162 144 98
5.697682e+000 -3.348246e+000 -6.555533e-002 56 61 60
7.827360e+000 -2.434364e+000 -1.434383e+000 48 32 18
7.421311e+000 -2.075964e+000 -1.162153e+000 104 91 76
8.591666e+000 -1.885565e+000 -2.027777e+000 142 128 79
7.598214e+000 -3.310351e+000 -3.518739e+000 182 166 114
7.959055e+000 -4.342108e+000 -2.766847e+000 167 152 93
7.959055e+000 -4.342108e+000 -2.766847e+000 167 152 93
5.445739e+000 -3.715094e+000 -5.881524e-001 155 148 132
7.925885e+000 -2.855026e+000 -3.013159e+000 197 184 133
5.496101e+000 -3.250331e+000 -6.714857e-001 141 129 119
5.502544e+000 -3.193230e+000 -7.523914e-001 83 64 58
5.527297e+000 -3.172572e+000 -7.553767e-001 61 47 37
7.918046e+000 -2.610363e+000 -2.994067e+000 191 175 127
7.930258e+000 -2.492962e+000 -3.068575e+000 167 147 94
5.693412e+000 -3.485769e+000 -2.004483e-001 99 88 83
5.428292e+000 -2.243865e+000 -6.710604e-001 32 19 26
7.568397e+000 -3.720530e+000 -3.122374e+000 171 150 97
7.922924e+000 -4.152694e+000 -2.938918e+000 168 149 93
7.758729e+000 -3.522471e+000 -3.331961e+000 194 175 124
7.691701e+000 -3.484088e+000 -3.251835e+000 194 174 123
8.090953e+000 -4.660736e+000 -2.551890e+000 159 140 82
8.102244e+000 -4.247873e+000 -2.616679e+000 156 130 81
7.800324e+000 -3.345677e+000 -3.262303e+000 172 152 102
8.102807e+000 -4.291360e+000 -2.569164e+000 156 132 85
7.879571e+000 -2.754343e+000 -3.102689e+000 178 158 108
5.669124e+000 -3.133844e+000 -7.916362e-001 109 96 90
5.680417e+000 -3.065795e+000 -7.442184e-001 61 51 41
5.680403e+000 -3.066059e+000 -7.438102e-001 61 51 41
5.658309e+000 -3.094938e+000 -5.019234e-001 123 115 96
8.018103e+000 -2.357499e+000 -2.939416e+000 182 170 120
7.458362e+000 -2.485183e+000 -1.883729e+000 77 56 42
7.536117e+000 -2.339956e+000 -1.920116e+000 53 34 20
8.302942e+000 -5.162314e+000 -2.182429e+000 191 180 124
7.892144e+000 -3.468574e+000 -2.914333e+000 157 133 85
8.085525e+000 -3.952606e+000 -2.377702e+000 104 83 54
7.975424e+000 -3.444761e+000 -2.853672e+000 141 115 78
5.461281e+000 -3.281723e+000 -7.366538e-001 93 78 71
5.464156e+000 -3.284466e+000 -7.358590e-001 93 78 71
7.890608e+000 -2.789947e+000 -3.057985e+000 163 142 97
7.990192e+000 -2.829779e+000 -2.822590e+000 154 140 93
7.653811e+000 -2.942195e+000 -2.306252e+000 70 48 37
7.805517e+000 -2.807864e+000 -2.383806e+000 95 78 62
7.364232e+000 -2.464867e+000 -1.615274e+000 62 47 42
7.574452e+000 -2.301170e+000 -1.966413e+000 65 45 36
7.559352e+000 -2.286259e+000 -1.854698e+000 51 37 28
7.650647e+000 -3.551614e+000 -3.466676e+000 196 175 122
7.977053e+000 -4.219982e+000 -2.782201e+000 166 140 89
7.977008e+000 -4.218528e+000 -2.781933e+000 166 140 89
8.316081e+000 -5.198187e+000 -2.126108e+000 156 140 91
7.963962e+000 -3.936009e+000 -2.824231e+000 150 128 79
7.851315e+000 -2.326790e+000 -1.534052e+000 80 63 47
5.673974e+000 -3.405870e+000 -1.392505e-001 36 30 34
7.958443e+000 -4.097551e+000 -2.825112e+000 183 168 114
7.847120e+000 -3.707025e+000 -2.922101e+000 185 170 115
7.556673e+000 -3.415579e+000 -3.515619e+000 190 170 109
7.590673e+000 -3.320377e+000 -3.545628e+000 191 171 112
7.699037e+000 -3.262131e+000 -3.381349e+000 193 171 111
7.708401e+000 -3.203496e+000 -3.364215e+000 221 201 140
7.745018e+000 -3.166410e+000 -3.413358e+000 181 152 94
7.775859e+000 -3.174651e+000 -3.339926e+000 208 186 130
7.852067e+000 -3.315466e+000 -3.091033e+000 194 160 112
5.580888e+000 -3.264801e+000 -9.507084e-001 91 74 67
5.664657e+000 -3.189032e+000 -9.681130e-001 75 59 52
5.505035e+000 -3.605288e+000 -2.515105e-001 103 85 71
5.569488e+000 -3.116616e+000 -6.069003e-001 90 73 55
8.098135e+000 -2.148833e+000 -2.720130e+000 150 129 80
7.935215e+000 -4.356318e+000 -2.869145e+000 174 150 87
7.784883e+000 -3.822608e+000 -3.181803e+000 169 146 84
7.742790e+000 -3.791287e+000 -3.175393e+000 169 146 84
7.685099e+000 -3.309374e+000 -3.392149e+000 193 171 114
7.672558e+000 -3.165126e+000 -3.395250e+000 207 189 123
7.747312e+000 -3.210079e+000 -3.412207e+000 207 189 123
7.725803e+000 -3.061841e+000 -3.377928e+000 215 190 126
5.418597e+000 -3.493717e+000 -7.975304e-001 109 94 75
7.905687e+000 -3.295632e+000 -3.042496e+000 198 160 113
7.864903e+000 -3.125731e+000 -3.093539e+000 212 190 135
5.498525e+000 -3.745681e+000 -3.910972e-001 86 67 53
7.817558e+000 -2.820805e+000 -3.216432e+000 179 156 102
5.553754e+000 -3.205232e+000 -6.403869e-001 152 135 115
5.591690e+000 -3.200786e+000 -5.328923e-001 143 128 108
5.638168e+000 -3.352965e+000 -2.878415e-001 26 23 22
5.689692e+000 -3.395786e+000 -2.581471e-001 114 130 121
5.733525e+000 -3.349091e+000 -1.542945e-002 173 189 188
5.733525e+000 -3.349091e+000 -1.542945e-002 173 189 188
5.682758e+000 -3.068629e+000 -4.299086e-001 101 84 64
8.112980e+000 -2.192191e+000 -2.830185e+000 187 168 111
7.675022e+000 -3.565808e+000 -3.378906e+000 175 148 93
7.895527e+000 -3.886305e+000 -3.103403e+000 174 148 89
7.636713e+000 -3.352124e+000 -3.377113e+000 208 189 128
7.750323e+000 -3.475292e+000 -3.283933e+000 206 176 121
8.085880e+000 -4.279251e+000 -2.608469e+000 181 157 97
7.754406e+000 -3.258402e+000 -3.288570e+000 192 170 113
7.765451e+000 -3.233610e+000 -3.260220e+000 192 171 114
7.769838e+000 -3.145016e+000 -3.252360e+000 187 168 109
5.406485e+000 -3.464017e+000 -6.975397e-001 98 79 64
5.445284e+000 -3.304958e+000 -8.509183e-001 89 72 57
8.014094e+000 -3.249916e+000 -2.878371e+000 177 153 105
8.014094e+000 -3.249916e+000 -2.878371e+000 177 153 105
7.797419e+000 -2.893487e+000 -3.135848e+000 185 164 109
5.546456e+000 -3.205192e+000 -8.745612e-001 112 93 87
5.676704e+000 -3.116946e+000 -9.377898e-001 65 51 42
5.707745e+000 -3.119058e+000 -9.916477e-001 108 90 78
7.884725e+000 -2.705683e+000 -3.164249e+000 175 151 91
5.647988e+000 -3.503305e+000 -4.753566e-003 62 59 60
5.645879e+000 -3.089624e+000 -6.136332e-001 140 127 112
7.332309e+000 -2.862522e+000 -2.090559e+000 80 60 36
5.811429e+000 -3.168221e+000 -1.699291e-001 163 176 168
5.811429e+000 -3.168221e+000 -1.699291e-001 163 176 168
5.829712e+000 -3.174280e+000 -1.053803e-001 89 84 77
7.224656e+000 -2.589052e+000 -1.643076e+000 87 60 43
7.474587e+000 -2.323348e+000 -1.701289e+000 74 55 40
7.797511e+000 -2.306424e+000 -1.505749e+000 56 35 18
7.756609e+000 -2.201451e+000 -1.704148e+000 61 43 33
5.758143e+000 -2.457402e+000 -6.114906e-002 67 52 57
7.672149e+000 -3.599375e+000 -3.368475e+000 194 168 111
7.625239e+000 -3.425449e+000 -3.527975e+000 212 193 135
8.238098e+000 -3.545847e+000 -2.826565e+000 123 96 60
7.907946e+000 -3.187962e+000 -2.867828e+000 177 153 105
7.904765e+000 -3.083298e+000 -3.047171e+000 221 201 144
5.708350e+000 -3.187977e+000 -1.019169e+000 85 65 56
7.851475e+000 -2.850491e+000 -3.108459e+000 198 177 120
5.492487e+000 -3.625606e+000 -2.520146e-001 157 141 123
5.680221e+000 -3.111973e+000 -8.189388e-001 63 48 42
7.677043e+000 -3.041514e+000 -2.270091e+000 93 67 51
5.647544e+000 -3.464476e+000 -5.528418e-002 36 29 27
7.450160e+000 -2.811559e+000 -2.198083e+000 58 38 27
5.683196e+000 -3.064039e+000 -4.710231e-001 77 61 45
5.677313e+000 -2.998632e+000 -5.343343e-001 82 70 53
5.723093e+000 -2.990057e+000 -6.164756e-001 150 138 116
8.120612e+000 -2.330348e+000 -2.728706e+000 119 97 58
5.918304e+000 -3.308618e+000 3.833774e-001 78 51 44
7.373639e+000 -2.438857e+000 -1.750555e+000 52 30 19
7.372356e+000 -2.440717e+000 -1.573245e+000 47 29 18
7.303387e+000 -2.402935e+000 -1.698543e+000 50 31 25
7.542674e+000 -2.315174e+000 -1.931465e+000 91 68 50
7.515111e+000 -2.281650e+000 -1.749742e+000 80 61 46
7.358389e+000 -2.090239e+000 -1.109212e+000 102 84 69
7.773627e+000 -3.614434e+000 -3.231589e+000 173 143 91
7.952967e+000 -4.052507e+000 -2.875609e+000 193 169 107
7.960051e+000 -3.910004e+000 -2.862230e+000 192 169 109
7.731832e+000 -3.699752e+000 -2.738546e+000 142 111 65
5.408384e+000 -3.516262e+000 -7.992792e-001 172 154 139
5.518835e+000 -3.517266e+000 -8.787585e-001 70 50 36
5.480891e+000 -3.503931e+000 -5.632924e-001 36 24 27
5.525645e+000 -3.236618e+000 -8.655467e-001 69 55 47
5.528693e+000 -3.259210e+000 -6.487156e-001 159 144 121
5.661736e+000 -3.082582e+000 -4.567671e-001 157 142 119
5.844762e+000 -3.225261e+000 -2.236489e-002 63 49 44
8.307480e+000 -1.841760e+000 -2.405293e+000 143 114 70
7.402328e+000 -2.169000e+000 -1.062878e+000 142 133 116
7.571998e+000 -3.482902e+000 -3.486669e+000 181 155 98
8.360291e+000 -5.265954e+000 -2.045224e+000 201 185 133
5.468507e+000 -3.759736e+000 -4.676839e-001 89 67 54
5.414505e+000 -3.370599e+000 -7.773513e-001 102 84 65
5.560513e+000 -3.626751e+000 -2.797193e-001 61 42 38
5.717371e+000 -3.018083e+000 -5.473066e-001 140 129 110
5.696940e+000 -2.998187e+000 -5.609424e-001 140 129 110
8.041851e+000 -2.420675e+000 -2.819771e+000 134 106 66
5.819814e+000 -2.060388e+000 -1.146591e+000 35 19 17
7.332074e+000 -2.245449e+000 -1.103382e+000 50 31 23
7.691122e+000 -3.518750e+000 -3.387715e+000 197 171 117
8.005565e+000 -2.806862e+000 -3.004621e+000 165 142 98
5.599652e+000 -3.114631e+000 -6.286926e-001 146 130 108
5.724851e+000 -3.011005e+000 -4.804910e-001 65 47 40
5.412983e+000 -2.251244e+000 -6.428422e-001 45 30 31
5.653460e+000 -1.878096e+000 -6.869591e-001 82 72 73
5.653460e+000 -1.878096e+000 -6.869591e-001 82 72 73
5.743178e+000 -1.862806e+000 -6.575159e-001 89 84 81
5.743178e+000 -1.862806e+000 -6.575159e-001 89 84 81
7.849045e+000 -3.806215e+000 -3.111572e+000 176 150 93
6.294772e+000 -1.982914e+000 -8.032050e-001 53 33 26
6.743129e+000 -3.721970e+000 -1.427163e+000 122 103 92
5.594033e+000 -2.878440e+000 -9.954969e-001 58 38 39
6.209227e+000 -1.966965e+000 -6.855466e-001 180 162 100
5.443650e+000 -2.319272e+000 -7.475602e-001 72 49 52
6.912329e+000 -2.149596e+000 -9.225387e-001 201 193 130
7.817219e+000 -4.201686e+000 -3.083679e+000 172 155 99
7.815423e+000 -3.834764e+000 -3.097035e+000 167 145 95
7.739598e+000 -2.403127e+000 -1.308484e+000 50 30 19
7.958962e+000 -4.337830e+000 -2.828005e+000 169 152 96
7.802642e+000 -2.372171e+000 -1.457522e+000 83 64 54
7.669080e+000 -2.285420e+000 -1.302719e+000 51 31 20
7.723226e+000 -4.253291e+000 -3.232204e+000 169 146 92
7.882782e+000 -4.134214e+000 -2.984528e+000 175 146 90
5.581439e+000 -3.527214e+000 -9.334792e-002 27 18 20
7.691080e+000 -3.002722e+000 -3.384342e+000 198 172 114
7.808050e+000 -2.906950e+000 -3.242608e+000 178 152 95
7.845625e+000 -3.755290e+000 -3.121051e+000 198 169 111
7.796476e+000 -3.562682e+000 -3.162569e+000 171 141 88
7.990766e+000 -3.869234e+000 -2.843151e+000 168 138 84
7.773309e+000 -3.206609e+000 -3.232331e+000 186 166 107
7.816095e+000 -2.567478e+000 -3.167168e+000 211 193 135
7.981805e+000 -4.441946e+000 -2.873180e+000 206 183 116
8.004468e+000 -4.347538e+000 -2.785450e+000 208 184 122
5.669713e+000 -3.134877e+000 -7.950447e-001 116 96 91
7.368055e+000 -2.243867e+000 -1.057071e+000 80 64 51
7.768495e+000 -2.922947e+000 -3.260445e+000 193 163 109
7.998513e+000 -2.893573e+000 -2.818664e+000 172 155 103
6.063033e+000 -2.048174e+000 -6.865235e-001 115 91 60
7.989409e+000 -4.119892e+000 -2.824512e+000 189 168 105
7.741704e+000 -3.501278e+000 -3.257261e+000 202 176 119
7.670730e+000 -3.237723e+000 -3.409874e+000 193 177 118
5.463503e+000 -3.745798e+000 -5.992427e-001 100 84 68
7.807057e+000 -3.364613e+000 -3.169239e+000 199 173 117
7.936629e+000 -3.247247e+000 -2.975550e+000 184 158 107
5.536261e+000 -3.643460e+000 -2.230493e-001 98 82 68
5.496592e+000 -3.213553e+000 -7.437632e-001 92 76 61
5.665978e+000 -3.120213e+000 -8.580281e-001 83 70 58
7.906763e+000 -2.870884e+000 -3.013137e+000 172 153 96
5.712000e+000 -3.450676e+000 1.001186e-001 50 44 44
7.620515e+000 -3.631414e+000 -3.444589e+000 181 156 99
7.738449e+000 -3.889963e+000 -3.177501e+000 170 144 85
7.653031e+000 -3.428440e+000 -3.415781e+000 174 144 90
8.017806e+000 -4.191850e+000 -2.745709e+000 166 137 81
7.742404e+000 -3.466684e+000 -3.324921e+000 184 155 99
7.707592e+000 -3.368928e+000 -3.332398e+000 179 152 94
7.735720e+000 -3.326194e+000 -3.277190e+000 184 154 102
7.669948e+000 -3.287242e+000 -3.399352e+000 219 199 141
7.784721e+000 -3.368426e+000 -3.187190e+000 201 174 119
7.752693e+000 -3.249391e+000 -3.263796e+000 212 192 133
7.975442e+000 -3.569164e+000 -2.956441e+000 163 134 84
7.894500e+000 -3.394479e+000 -3.030301e+000 174 147 92
5.870406e+000 -3.488248e+000 -1.063880e+000 57 31 19
5.439201e+000 -3.293570e+000 -8.125279e-001 149 132 109
5.487664e+000 -3.235925e+000 -7.648083e-001 62 48 37
7.944553e+000 -3.035180e+000 -2.952166e+000 200 183 127
7.880223e+000 -2.771005e+000 -3.075090e+000 199 170 115
7.887745e+000 -2.517062e+000 -3.096727e+000 167 139 86
8.025874e+000 -2.427330e+000 -2.831858e+000 130 101 59
7.954645e+000 -2.353104e+000 -2.955349e+000 194 180 121
7.757628e+000 -2.350159e+000 -1.377047e+000 54 31 15
7.640707e+000 -2.266088e+000 -1.316450e+000 47 23 13
7.604995e+000 -2.204005e+000 -1.330120e+000 64 39 19
7.604995e+000 -2.204005e+000 -1.330120e+000 64 39 19
7.538862e+000 -2.221642e+000 -1.248825e+000 68 42 25
7.597778e+000 -2.162144e+000 -1.317385e+000 67 45 22
7.755664e+000 -3.836943e+000 -3.208234e+000 167 143 83
7.640363e+000 -3.419011e+000 -3.433984e+000 209 184 127
7.980322e+000 -3.865166e+000 -2.843648e+000 162 134 86
7.851952e+000 -3.648389e+000 -3.014469e+000 194 171 114
7.931901e+000 -3.633081e+000 -2.956060e+000 189 167 109
5.427661e+000 -3.508101e+000 -5.787056e-001 43 33 31
5.425039e+000 -3.386990e+000 -7.294310e-001 157 146 124
5.645417e+000 -3.212903e+000 -9.798983e-001 116 98 91
5.671618e+000 -3.202369e+000 -9.925886e-001 52 33 26
8.025150e+000 -3.222466e+000 -2.848070e+000 161 136 95
8.035596e+000 -2.950308e+000 -2.802832e+000 133 105 63
7.864619e+000 -2.669544e+000 -3.094461e+000 192 170 116
5.754201e+000 -3.471209e+000 9.160108e-002 66 68 67
8.090630e+000 -2.699097e+000 -2.804104e+000 171 154 102
7.920373e+000 -2.378018e+000 -2.997850e+000 203 188 129
8.028888e+000 -2.200360e+000 -2.877906e+000 185 165 106
7.391516e+000 -2.387929e+000 -1.715262e+000 59 39 30
7.804172e+000 -2.191776e+000 -1.691001e+000 88 65 51
7.400311e+000 -2.224037e+000 -1.036259e+000 66 50 34
7.405815e+000 -2.194858e+000 -1.074077e+000 64 51 34
8.374466e+000 -5.338272e+000 -2.018568e+000 187 173 112
8.374466e+000 -5.338272e+000 -2.018568e+000 187 173 112
7.727366e+000 -3.809492e+000 -3.233679e+000 198 172 112
7.951759e+000 -4.007444e+000 -2.842187e+000 188 164 109
7.979942e+000 -3.993570e+000 -2.815840e+000 177 154 98
7.793210e+000 -3.547822e+000 -3.267519e+000 200 173 115
5.430471e+000 -3.435968e+000 -8.102301e-001 141 125 102
5.961117e+000 -3.442198e+000 -1.090595e+000 70 47 31
7.902363e+000 -2.675274e+000 -3.003537e+000 195 174 119
5.704569e+000 -3.064371e+000 -6.499111e-001 123 110 94
8.064532e+000 -2.129083e+000 -2.825190e+000 188 168 114
7.390227e+000 -2.364960e+000 -1.738532e+000 75 57 45
7.428085e+000 -2.277404e+000 -1.112669e+000 80 53 38
7.425464e+000 -2.179010e+000 -1.093178e+000 73 56 38
8.640371e+000 -1.868292e+000 -1.989101e+000 149 125 77
9.002786e+000 -1.646905e+000 -1.330402e+000 170 144 83
7.784110e+000 -3.626196e+000 -3.187806e+000 198 171 116
5.502154e+000 -3.765048e+000 -3.591971e-001 90 68 57
5.456140e+000 -3.302140e+000 -6.948826e-001 155 143 126
5.695933e+000 -3.160448e+000 -9.853263e-001 68 51 43
7.795906e+000 -2.943801e+000 -3.148334e+000 215 192 138
5.593287e+000 -3.622885e+000 -1.615173e-001 31 20 19
7.983856e+000 -2.759015e+000 -2.916257e+000 142 123 81
5.816722e+000 -2.185388e+000 -1.299811e+000 81 60 59
8.306651e+000 -1.692082e+000 -2.468128e+000 162 135 84
7.950285e+000 -4.159247e+000 -2.914530e+000 173 147 88
7.727348e+000 -3.660303e+000 -3.235197e+000 203 178 119
8.276697e+000 -4.497212e+000 -2.134870e+000 181 159 102
6.593903e+000 -3.754353e+000 -1.294768e+000 166 142 94
5.791070e+000 -3.128305e+000 -1.025754e+000 48 33 31
7.981731e+000 -3.045218e+000 -2.920044e+000 163 135 85
7.790609e+000 -3.098157e+000 -2.368355e+000 96 65 52
7.446696e+000 -2.489445e+000 -1.846619e+000 79 53 38
5.435285e+000 -3.527587e+000 -6.160614e-001 152 140 124
5.478858e+000 -3.281009e+000 -8.178394e-001 74 57 50
6.367021e+000 -1.959272e+000 -7.384910e-001 185 172 114
7.782066e+000 -3.389558e+000 -3.283733e+000 194 160 112
5.490875e+000 -3.705551e+000 -2.862419e-001 135 122 103
5.523281e+000 -3.653431e+000 -2.459688e-001 123 106 88
7.777666e+000 -2.771023e+000 -2.309376e+000 47 27 18
7.755714e+000 -3.053004e+000 -3.294974e+000 209 194 135
7.290159e+000 -2.543602e+000 -1.509811e+000 36 22 19
7.300992e+000 -2.547935e+000 -1.507453e+000 36 22 19
5.979487e+000 -1.935399e+000 -6.968878e-001 54 34 26
8.025193e+000 -4.165101e+000 -2.955673e+000 189 165 109
8.001611e+000 -2.935946e+000 -2.889041e+000 191 176 121
7.703919e+000 -2.850428e+000 -2.352625e+000 71 50 29
5.979742e+000 -1.877493e+000 -5.862366e-001 72 49 41
8.016498e+000 -3.790984e+000 -2.930872e+000 194 172 114
6.056325e+000 -2.132605e+000 -8.740442e-001 43 29 28
6.038781e+000 -1.977846e+000 -3.745065e-001 84 72 76
6.038781e+000 -1.977846e+000 -3.745065e-001 84 72 76
8.085884e+000 -4.233677e+000 -2.648862e+000 190 165 108
7.688142e+000 -3.430794e+000 -3.360208e+000 176 145 91
7.816374e+000 -3.331530e+000 -3.178439e+000 204 174 120
8.173047e+000 -4.175814e+000 -2.508112e+000 136 110 70
8.026544e+000 -2.911846e+000 -2.807098e+000 176 157 105
7.324822e+000 -2.518185e+000 -1.452913e+000 62 45 38
8.300199e+000 -1.690663e+000 -2.466667e+000 162 135 84
7.773687e+000 -3.904824e+000 -3.145425e+000 213 192 141
5.469806e+000 -3.738504e+000 -6.780907e-001 155 140 121
7.684508e+000 -3.250926e+000 -3.348889e+000 216 200 148
5.376523e+000 -3.479113e+000 -7.149920e-001 76 60 47
5.959640e+000 -3.514610e+000 -1.092476e+000 78 54 41
7.772365e+000 -3.212243e+000 -3.214786e+000 214 198 148
7.720528e+000 -3.159141e+000 -3.303187e+000 204 187 135
5.518564e+000 -3.331786e+000 -9.420118e-001 117 100 92
7.799249e+000 -3.146734e+000 -3.268289e+000 210 197 143
5.713124e+000 -3.466318e+000 6.707993e-002 60 65 68
5.664247e+000 -3.124577e+000 -8.003492e-001 134 123 118
7.806853e+000 -2.705421e+000 -3.192978e+000 169 148 95
7.986146e+000 -4.374458e+000 -2.775571e+000 167 148 89
7.780980e+000 -4.122238e+000 -3.090129e+000 170 149 94
7.782138e+000 -4.010608e+000 -3.238005e+000 205 184 127
7.804834e+000 -3.880077e+000 -3.137030e+000 171 149 99
5.469922e+000 -3.841550e+000 -4.830083e-001 96 73 65
5.453550e+000 -3.705066e+000 -6.155718e-001 145 129 113
5.474166e+000 -3.775283e+000 -3.045391e-001 107 90 80
5.478882e+000 -3.777414e+000 -3.366932e-001 162 147 128
5.462218e+000 -3.740701e+000 -3.093448e-001 176 163 150
5.429078e+000 -3.445099e+000 -8.290291e-001 97 80 63
5.495271e+000 -3.405002e+000 -9.263186e-001 55 36 32
7.746761e+000 -3.155851e+000 -3.331154e+000 218 201 147
5.503421e+000 -3.646184e+000 -2.833448e-001 100 80 69
5.399583e+000 -3.378162e+000 -7.636454e-001 96 83 66
7.861861e+000 -3.189124e+000 -3.174624e+000 183 165 116
5.481490e+000 -3.275757e+000 -8.693593e-001 61 44 34
5.530929e+000 -3.206626e+000 -7.929501e-001 78 62 46
7.790124e+000 -2.882176e+000 -3.245901e+000 197 178 125
5.649075e+000 -3.144404e+000 -9.551924e-001 61 47 41
5.812134e+000 -3.518513e+000 1.854848e-001 248 253 254
5.702286e+000 -3.346760e+000 -9.066774e-002 88 87 85
5.840764e+000 -3.318730e+000 -5.361847e-002 101 93 80
7.138673e+000 -2.944702e+000 -1.780809e+000 61 43 35
5.729551e+000 -3.022696e+000 -4.526209e-001 50 33 29
7.950980e+000 -2.399257e+000 -2.985817e+000 170 159 103
5.470349e+000 -2.568620e+000 -7.790860e-001 67 53 53
7.429938e+000 -2.356593e+000 -1.690164e+000 56 36 25
7.575864e+000 -2.216825e+000 -1.280024e+000 82 59 45
7.644765e+000 -2.193769e+000 -1.335650e+000 61 38 20
7.698110e+000 -4.006814e+000 -3.273550e+000 206 184 127
7.857895e+000 -3.584846e+000 -3.029924e+000 166 139 92
7.906098e+000 -3.566732e+000 -3.095056e+000 191 172 119
5.408355e+000 -3.483219e+000 -8.044209e-001 77 60 44
5.643039e+000 -3.502208e+000 -1.003510e+000 85 66 59
7.794461e+000 -3.376137e+000 -3.188208e+000 196 174 124
7.789452e+000 -3.339023e+000 -3.217594e+000 195 167 119
7.726588e+000 -3.276263e+000 -3.337137e+000 178 158 107
7.708019e+000 -3.270847e+000 -3.336317e+000 178 158 107
5.469040e+000 -3.435634e+000 -8.825440e-001 145 129 113
5.469040e+000 -3.435634e+000 -8.825440e-001 145 129 113
5.611861e+000 -3.448875e+000 -9.905812e-001 62 44 39
5.535227e+000 -3.631326e+000 -2.514193e-001 156 142 128
5.980472e+000 -3.390369e+000 -1.120477e+000 48 28 21
5.815099e+000 -3.323476e+000 -1.075153e+000 53 29 25
5.468559e+000 -3.238811e+000 -7.141476e-001 88 71 55
5.682332e+000 -3.413897e+000 -2.499158e-001 38 31 31
5.536939e+000 -3.205127e+000 -6.706772e-001 143 133 114
5.551419e+000 -3.146736e+000 -7.714943e-001 84 70 62
5.686267e+000 -3.130128e+000 -8.643758e-001 138 130 114
5.693162e+000 -3.113499e+000 -9.495409e-001 140 135 116
5.594092e+000 -3.111659e+000 -7.348947e-001 54 39 34
7.647587e+000 -3.141537e+000 -2.235673e+000 62 39 24
7.922270e+000 -2.852784e+000 -3.012834e+000 187 170 118
7.729336e+000 -3.025405e+000 -2.327480e+000 87 61 46
7.887953e+000 -2.556644e+000 -3.131488e+000 200 183 129
7.461158e+000 -2.483975e+000 -1.898587e+000 78 56 44
7.328529e+000 -2.491358e+000 -1.461046e+000 51 34 27
7.329283e+000 -2.484352e+000 -1.524305e+000 40 23 16
7.992703e+000 -2.032251e+000 -2.921339e+000 158 132 83
7.577885e+000 -2.242936e+000 -1.858307e+000 61 39 25
8.042364e+000 -1.984812e+000 -2.881231e+000 180 157 107
7.823247e+000 -2.379500e+000 -1.372881e+000 81 59 46
7.781673e+000 -2.188048e+000 -1.697866e+000 92 73 59
7.590203e+000 -2.259800e+000 -1.293832e+000 67 48 34
7.585332e+000 -2.182143e+000 -1.325327e+000 88 64 47
7.611731e+000 -2.134349e+000 -1.341354e+000 58 36 19
8.023667e+000 -4.279914e+000 -2.678679e+000 162 135 80
7.704533e+000 -3.594538e+000 -3.351587e+000 201 184 132
7.719839e+000 -3.587286e+000 -3.383563e+000 180 158 106
7.718394e+000 -3.499090e+000 -3.335800e+000 203 183 132
5.449242e+000 -3.815987e+000 -4.501528e-001 94 74 56
5.461780e+000 -3.753317e+000 -5.136592e-001 155 146 131
5.460054e+000 -3.709812e+000 -6.891623e-001 152 136 117
5.509204e+000 -3.690405e+000 -7.316224e-001 130 111 100
5.480048e+000 -3.717467e+000 -5.591505e-001 73 54 46
5.417863e+000 -3.465478e+000 -8.252761e-001 148 133 114
5.530328e+000 -3.534345e+000 -9.030621e-001 127 113 100
5.910230e+000 -3.628413e+000 -1.038063e+000 98 72 57
5.408761e+000 -3.477820e+000 -7.234549e-001 144 128 112
5.423545e+000 -3.432592e+000 -8.119711e-001 138 123 104
5.468163e+000 -3.453578e+000 -8.516722e-001 55 37 30
5.414418e+000 -3.319831e+000 -7.772402e-001 133 122 101
5.461722e+000 -3.327711e+000 -8.370576e-001 70 54 39
5.851633e+000 -3.371586e+000 -1.087393e+000 47 27 18
7.826006e+000 -3.136748e+000 -3.229154e+000 183 155 108
7.908836e+000 -3.083588e+000 -3.092919e+000 183 166 112
5.467404e+000 -3.268242e+000 -6.773280e-001 150 138 122
5.766680e+000 -3.175619e+000 -1.043345e+000 73 52 47
5.746328e+000 -3.489489e+000 -2.197445e-001 69 54 54
5.738525e+000 -3.118395e+000 -1.001807e+000 57 41 30
5.728951e+000 -3.091893e+000 -9.746425e-001 58 50 39
5.837953e+000 -3.149282e+000 -1.094221e+000 38 22 16
5.768433e+000 -3.429530e+000 -1.061979e-001 144 135 125
7.622221e+000 -2.989988e+000 -2.418029e+000 100 74 61
7.894711e+000 -2.663392e+000 -3.122182e+000 168 145 91
7.969626e+000 -2.652183e+000 -3.043012e+000 188 168 117
7.896772e+000 -2.588138e+000 -3.130766e+000 167 143 91
7.719774e+000 -2.590741e+000 -2.166036e+000 55 33 25
5.474791e+000 -2.606475e+000 -6.856399e-001 119 103 106
7.331232e+000 -2.451165e+000 -1.616204e+000 65 50 43
7.447010e+000 -2.352310e+000 -1.713516e+000 52 35 27
7.470186e+000 -2.339308e+000 -1.686781e+000 74 60 49
7.377974e+000 -2.249395e+000 -1.098883e+000 60 40 31
7.550943e+000 -2.115138e+000 -1.329298e+000 96 73 55
8.483382e+000 -1.697594e+000 -2.180230e+000 159 140 82
8.626559e+000 -4.973854e+000 -1.691034e+000 186 177 128
5.491166e+000 -3.715410e+000 -7.057897e-001 65 41 40
5.607230e+000 -4.049183e+000 1.982996e-002 126 108 109
7.784364e+000 -3.309219e+000 -3.230616e+000 179 152 100
5.486388e+000 -3.436729e+000 -9.109478e-001 56 37 31
7.778754e+000 -3.199460e+000 -3.267751e+000 220 204 153
5.611770e+000 -3.311520e+000 -1.053439e+000 77 57 50
7.820440e+000 -3.166669e+000 -3.135090e+000 201 183 134
7.768305e+000 -3.121407e+000 -3.274392e+000 215 204 150
5.454517e+000 -3.278673e+000 -7.399833e-001 62 49 33
5.548443e+000 -3.228348e+000 -9.233016e-001 46 33 25
5.628017e+000 -3.236222e+000 -9.666867e-001 49 34 29
5.528703e+000 -3.225803e+000 -8.598016e-001 59 42 35
5.620752e+000 -3.180281e+000 -9.073086e-001 132 124 113
5.746572e+000 -3.202190e+000 -1.038739e+000 45 26 22
5.788370e+000 -3.219360e+000 -1.082767e+000 51 33 23
5.722444e+000 -3.062794e+000 -8.733228e-001 111 98 90
5.741791e+000 -3.009469e+000 -3.523793e-001 138 124 111
8.038007e+000 -2.306618e+000 -2.929142e+000 159 139 86
7.263518e+000 -2.589913e+000 -1.442479e+000 38 23 22
7.474701e+000 -2.420846e+000 -1.868418e+000 76 56 47
7.416597e+000 -2.076050e+000 -1.114343e+000 167 164 153
5.472545e+000 -3.740272e+000 -6.327278e-001 84 62 48
5.540730e+000 -3.623489e+000 -8.268881e-001 141 129 117
5.471471e+000 -3.793363e+000 -4.125462e-001 126 114 98
5.417375e+000 -3.530305e+000 -7.806945e-001 156 146 126
5.723451e+000 -3.572725e+000 -9.855569e-001 58 40 29
5.406284e+000 -3.422267e+000 -7.817981e-001 79 60 53
5.567700e+000 -3.466108e+000 -9.403621e-001 50 37 28
5.834887e+000 -3.442366e+000 -1.079097e+000 41 20 14
7.871626e+000 -3.316801e+000 -3.056917e+000 163 120 85
5.429980e+000 -3.366039e+000 -8.092691e-001 160 146 133
5.579656e+000 -3.593898e+000 -2.328849e-001 133 120 107
7.856136e+000 -3.018210e+000 -3.165032e+000 188 169 113
7.866042e+000 -3.019626e+000 -3.166317e+000 188 169 113
5.663638e+000 -3.072355e+000 -9.085963e-001 49 36 30
5.720848e+000 -3.100895e+000 -3.475407e-001 91 75 60
5.720848e+000 -3.100895e+000 -3.475407e-001 91 75 60
5.692421e+000 -3.052309e+000 -5.630587e-001 57 44 35
5.692875e+000 -3.040938e+000 -4.207064e-001 165 152 133
7.885804e+000 -2.395307e+000 -3.094135e+000 184 164 109
7.884854e+000 -2.342529e+000 -3.099954e+000 194 180 125
7.916707e+000 -2.280361e+000 -3.079789e+000 177 145 101
5.434561e+000 -3.553134e+000 -6.823634e-001 90 77 59
6.821484e+000 -3.857894e+000 -1.430372e+000 130 118 102
5.439134e+000 -3.383620e+000 -8.559072e-001 71 53 45
5.597764e+000 -3.296750e+000 -1.012264e+000 45 27 23
7.929371e+000 -3.039205e+000 -2.981681e+000 196 179 127
5.685881e+000 -3.295401e+000 -3.062439e-001 50 39 37
5.621865e+000 -3.157996e+000 -4.179214e-001 166 158 143
5.679730e+000 -3.026236e+000 -6.982837e-001 132 121 103
8.546301e+000 -5.033190e+000 -1.820255e+000 192 181 127
5.794901e+000 -3.368630e+000 -3.676118e-002 36 30 30
5.668044e+000 -3.095062e+000 -6.543233e-001 51 36 36
5.738554e+000 -2.943953e+000 -5.247538e-001 122 109 95
8.012584e+000 -2.476407e+000 -2.926867e+000 155 132 84
5.384303e+000 -2.387493e+000 -7.326707e-001 34 23 29
7.632701e+000 -2.434793e+000 -1.309203e+000 73 52 35
5.718762e+000 -2.998838e+000 -5.676381e-001 123 110 96
7.934014e+000 -4.127095e+000 -2.965737e+000 186 163 113
5.521679e+000 -3.715248e+000 -7.631422e-001 68 50 46
7.898427e+000 -3.231119e+000 -2.286896e+000 104 77 60
5.782078e+000 -3.488374e+000 9.541227e-002 183 207 199
7.982278e+000 -2.800875e+000 -2.927376e+000 165 146 113
7.735863e+000 -2.858724e+000 -2.349935e+000 87 65 52
7.963539e+000 -2.425865e+000 -3.016383e+000 190 178 120
5.827767e+000 -2.097232e+000 -8.056599e-001 33 19 18
7.894798e+000 -4.041107e+000 -3.112631e+000 202 183 127
6.337209e+000 -3.439119e+000 -1.150037e+000 27 22 19
7.720724e+000 -3.080866e+000 -2.171834e+000 66 47 40
7.405921e+000 -2.671189e+000 -1.708074e+000 67 43 31
6.028486e+000 -3.712583e+000 -9.689364e-001 94 72 57
5.738176e+000 -3.570059e+000 2.802649e-001 37 25 29
8.003543e+000 -4.294705e+000 -2.361031e+000 178 163 106
8.191511e+000 -2.116289e+000 -2.753897e+000 173 155 108
7.756401e+000 -4.154868e+000 -3.224166e+000 174 153 98
7.756401e+000 -4.154868e+000 -3.224166e+000 174 153 98
7.681865e+000 -3.993783e+000 -3.396784e+000 186 165 112
7.838398e+000 -4.012596e+000 -3.248176e+000 176 157 101
7.812705e+000 -3.856567e+000 -3.139387e+000 197 176 122
7.834586e+000 -3.708990e+000 -3.075770e+000 193 173 122
7.800341e+000 -3.484176e+000 -3.329564e+000 169 145 98
5.480944e+000 -3.652809e+000 -6.548137e-001 144 133 115
5.563143e+000 -3.302003e+000 -9.518247e-001 56 42 36
7.887801e+000 -3.360487e+000 -3.127866e+000 185 147 108
7.952944e+000 -3.335895e+000 -3.049970e+000 159 119 84
5.715267e+000 -2.978637e+000 -5.535012e-001 143 131 117
7.547889e+000 -2.143720e+000 -1.310490e+000 90 67 51
7.737375e+000 -4.036064e+000 -3.312758e+000 166 145 92
7.961009e+000 -4.340973e+000 -2.793724e+000 192 176 119
7.993468e+000 -4.226130e+000 -2.773258e+000 149 127 78
8.016009e+000 -4.167147e+000 -2.978585e+000 189 165 112
7.884950e+000 -3.840603e+000 -3.160468e+000 155 133 84
7.691633e+000 -3.665785e+000 -3.393944e+000 172 150 103
7.704918e+000 -3.629052e+000 -3.375553e+000 203 183 132
7.837955e+000 -3.758590e+000 -3.122654e+000 192 169 117
7.843451e+000 -3.285391e+000 -3.270161e+000 212 192 142
5.447580e+000 -3.278505e+000 -8.175222e-001 85 69 56
7.850890e+000 -3.139902e+000 -3.140205e+000 187 171 120
5.622510e+000 -3.090326e+000 -5.155624e-001 109 97 81
5.707047e+000 -3.039619e+000 -6.111754e-001 91 81 69
7.842931e+000 -2.479066e+000 -3.048640e+000 193 173 123
7.465048e+000 -2.325192e+000 -1.934628e+000 56 38 26
7.543484e+000 -2.321007e+000 -1.188586e+000 67 48 41
7.768069e+000 -4.001332e+000 -3.238460e+000 202 183 127
7.882275e+000 -3.839189e+000 -3.113456e+000 190 167 115
7.864882e+000 -3.775070e+000 -3.102840e+000 153 129 80
5.439866e+000 -3.734580e+000 -5.697294e-001 96 76 65
8.090355e+000 -3.877740e+000 -2.740939e+000 162 134 95
5.437077e+000 -3.344949e+000 -9.063427e-001 95 76 67
8.026043e+000 -3.488800e+000 -2.869065e+000 141 108 77
7.790059e+000 -3.264419e+000 -3.289212e+000 183 161 112
7.962891e+000 -3.255457e+000 -2.946730e+000 140 111 70
7.962891e+000 -3.255457e+000 -2.946730e+000 140 111 70
5.672522e+000 -3.161161e+000 -9.195515e-001 89 76 67
5.727642e+000 -3.063944e+000 -9.767835e-001 106 98 85
7.954353e+000 -2.606446e+000 -3.033691e+000 170 148 98
7.220962e+000 -2.826321e+000 -1.434039e+000 36 21 16
7.314668e+000 -2.426772e+000 -1.773034e+000 56 37 31
7.752223e+000 -2.369019e+000 -1.393828e+000 75 55 44
7.757885e+000 -2.179117e+000 -1.769338e+000 55 35 24
7.345300e+000 -2.209517e+000 -1.115469e+000 97 77 66
7.727656e+000 -2.097478e+000 -1.674247e+000 90 67 44
7.391774e+000 -2.059070e+000 -1.088451e+000 132 125 112
8.469212e+000 -5.008503e+000 -1.894999e+000 200 188 130
8.479926e+000 -4.962304e+000 -1.900627e+000 169 152 98
8.260867e+000 -4.206939e+000 -2.686746e+000 156 132 88
5.656680e+000 -3.609677e+000 -9.170948e-001 68 56 54
5.668341e+000 -3.410067e+000 -1.028781e+000 92 70 57
5.526680e+000 -3.270180e+000 -9.068071e-001 81 67 64
5.536589e+000 -3.240915e+000 -8.895380e-001 90 73 66
5.879225e+000 -3.288856e+000 -1.077380e+000 53 33 24
5.786460e+000 -3.185574e+000 -1.030758e+000 72 55 48
5.714337e+000 -3.124589e+000 -9.874969e-001 104 90 79
5.714337e+000 -3.124589e+000 -9.874969e-001 104 90 79
5.602346e+000 -3.184844e+000 -4.894945e-001 153 140 124
5.680774e+000 -3.006222e+000 -8.142243e-001 141 137 125
5.664110e+000 -3.036878e+000 -5.198828e-001 118 106 93
7.444787e+000 -2.491057e+000 -1.959643e+000 75 54 37
7.972770e+000 -2.305979e+000 -2.897628e+000 175 155 105
7.396651e+000 -2.344531e+000 -1.727858e+000 56 36 27
7.532696e+000 -2.264919e+000 -1.955764e+000 87 70 60
7.404200e+000 -2.274442e+000 -1.124306e+000 75 52 39
7.814721e+000 -4.166448e+000 -3.163637e+000 200 183 126
6.766317e+000 -3.476277e+000 -1.902093e+000 159 157 158
5.559337e+000 -3.376610e+000 -9.513455e-001 55 40 35
5.531296e+000 -3.305720e+000 -9.167771e-001 93 78 71
5.577269e+000 -3.314368e+000 -9.678102e-001 107 89 86
7.970794e+000 -2.846244e+000 -2.927149e+000 152 120 87
7.365216e+000 -2.418788e+000 -1.791635e+000 83 65 57
7.410510e+000 -2.139957e+000 -1.047833e+000 93 79 81
8.374177e+000 -4.638549e+000 -2.096882e+000 158 136 87
7.904295e+000 -3.960059e+000 -2.931735e+000 186 169 113
7.870055e+000 -3.420511e+000 -3.105603e+000 185 165 115
7.870055e+000 -3.420511e+000 -3.105603e+000 185 165 115
7.840729e+000 -3.753902e+000 -3.275552e+000 198 177 122
7.840729e+000 -3.753902e+000 -3.275552e+000 198 177 122
7.745899e+000 -3.537716e+000 -3.390943e+000 199 178 128
5.526534e+000 -3.545575e+000 -8.545665e-001 65 48 38
5.568565e+000 -3.286935e+000 -9.325796e-001 43 31 33
5.553379e+000 -3.190388e+000 -7.890637e-001 137 125 109
5.578592e+000 -3.138260e+000 -7.167847e-001 127 114 98
7.597922e+000 -2.255106e+000 -1.804972e+000 90 72 52
5.681216e+000 -2.986460e+000 -5.120309e-001 59 46 43
5.808839e+000 -1.810734e+000 -7.053292e-001 70 49 50
7.974225e+000 -4.078159e+000 -3.114132e+000 195 179 120
5.479429e+000 -3.366977e+000 -7.280728e-001 137 124 107
5.488809e+000 -3.357119e+000 -5.288631e-001 31 25 29
7.708606e+000 -3.125662e+000 -3.362099e+000 218 201 150
7.578889e+000 -3.951969e+000 -3.461683e+000 172 152 99
7.608154e+000 -3.949432e+000 -3.446632e+000 167 146 92
7.910319e+000 -3.265863e+000 -3.007386e+000 187 157 107
7.787770e+000 -2.899754e+000 -3.243773e+000 167 141 90
7.939383e+000 -4.360354e+000 -2.866345e+000 171 150 93
8.027813e+000 -4.324064e+000 -2.716265e+000 171 146 90
7.752663e+000 -3.928073e+000 -3.206960e+000 169 147 89
5.451354e+000 -3.724594e+000 -5.872163e-001 162 145 129
5.567787e+000 -3.727170e+000 -7.942943e-001 93 85 74
7.760295e+000 -2.923407e+000 -3.281002e+000 168 139 95
7.766315e+000 -2.350153e+000 -1.375252e+000 48 26 15
7.738702e+000 -2.305545e+000 -1.348918e+000 62 40 26
7.751781e+000 -4.187910e+000 -3.168384e+000 164 140 92
7.729691e+000 -4.166957e+000 -3.208252e+000 199 180 121
5.582610e+000 -3.439889e+000 -9.807151e-001 85 67 55
7.721043e+000 -3.087559e+000 -3.324699e+000 213 200 150
7.741528e+000 -2.996704e+000 -3.342172e+000 166 133 94
7.882714e+000 -2.760320e+000 -3.130123e+000 201 184 130
7.953987e+000 -4.459487e+000 -2.849834e+000 167 142 85
7.739812e+000 -3.215649e+000 -3.300414e+000 213 199 149
5.903269e+000 -3.125039e+000 -1.101326e+000 39 18 14
8.075567e+000 -4.026922e+000 -2.645294e+000 128 102 72
7.780883e+000 -4.198950e+000 -3.129794e+000 171 148 98
6.466214e+000 -2.894981e+000 -9.427837e-001 23 11 11
7.617841e+000 -2.242249e+000 -1.315747e+000 81 60 45
7.520933e+000 -2.107461e+000 -1.281219e+000 108 85 69
7.367687e+000 -2.462357e+000 -1.602850e+000 73 55 47
7.504701e+000 -2.415115e+000 -1.943026e+000 56 36 25
7.687039e+000 -2.287369e+000 -1.332949e+000 77 57 39
7.961304e+000 -3.308068e+000 -2.965094e+000 187 163 119
5.447286e+000 -3.723598e+000 -6.174431e-001 98 74 66
5.567614e+000 -3.233857e+000 -5.357474e-001 104 90 77
7.946689e+000 -4.358642e+000 -2.779536e+000 167 145 91
5.592202e+000 -3.850124e+000 -7.904614e-001 80 68 67
5.464706e+000 -3.457749e+000 -8.970324e-001 73 53 46
7.793965e+000 -3.151209e+000 -3.254027e+000 180 161 111
7.880144e+000 -4.131759e+000 -2.937723e+000 163 136 89
5.526129e+000 -3.625826e+000 -2.585666e-001 152 139 129
5.502718e+000 -3.274964e+000 -8.947690e-001 64 49 42
6.331112e+000 -3.510141e+000 -1.125435e+000 57 52 48
7.789046e+000 -3.213920e+000 -3.233085e+000 185 164 118
5.847650e+000 -3.328070e+000 -9.758802e-002 92 80 75
7.981674e+000 -2.329033e+000 -3.013492e+000 161 144 92
7.611964e+000 -2.187631e+000 -1.313601e+000 82 61 44
7.892850e+000 -4.136085e+000 -3.047872e+000 169 148 98
7.812361e+000 -4.069017e+000 -3.019956e+000 165 137 89
5.462368e+000 -3.745225e+000 -6.565081e-001 79 58 52
5.534481e+000 -3.805496e+000 -6.837082e-001 131 113 98
7.800981e+000 -3.783937e+000 -3.176103e+000 197 174 124
5.851603e+000 -3.187919e+000 -1.098466e+000 46 27 21
8.058082e+000 -3.242048e+000 -2.859405e+000 160 138 95
