ply
format ascii 1.0
element face 0
property list uchar int vertex_indices
element vertex 889
property float x
property float y
property float z
property uchar diffuse_red
property uchar diffuse_green
property uchar diffuse_blue
end_header
6.357599e+000 -3.498816e+000 1.829582e-001 93 80 87
6.651525e+000 -3.549741e+000 2.211226e-001 46 36 27
6.700382e+000 -3.535256e+000 2.451825e-001 70 59 41
6.055860e+000 -3.650900e+000 3.682655e-001 51 40 46
6.124081e+000 -3.785559e+000 3.222885e-001 67 61 66
6.124081e+000 -3.785559e+000 3.222885e-001 67 61 66
6.180717e+000 -3.679365e+000 3.713281e-001 65 54 59
6.180717e+000 -3.679365e+000 3.713281e-001 65 54 59
5.856743e+000 -3.931758e+000 3.276922e-001 68 49 58
7.363127e+000 -2.268210e+000 -9.311471e-001 106 97 92
5.797580e+000 -2.592434e+000 -2.033424e-001 86 72 85
5.832513e+000 -2.582985e+000 -2.232870e-001 51 35 45
5.944764e+000 -2.548285e+000 -1.746708e-001 39 28 36
6.850809e+000 -2.611200e+000 -6.341381e-001 71 51 42
7.566088e+000 -2.470975e+000 -8.525067e-001 66 50 37
7.704467e+000 -2.465588e+000 -9.819410e-001 98 80 66
6.378195e+000 -2.697424e+000 -2.899123e-001 54 43 41
6.357004e+000 -2.747920e+000 -3.388305e-001 67 54 57
6.506577e+000 -2.733808e+000 -3.495878e-001 73 67 61
7.461780e+000 -2.549607e+000 -7.903476e-001 65 50 38
6.046768e+000 -2.893991e+000 -3.366208e-001 106 100 96
6.171049e+000 -2.833340e+000 -2.777739e-001 101 98 93
6.315069e+000 -2.783089e+000 -2.593571e-001 144 147 136
6.393128e+000 -2.755140e+000 -2.315806e-001 125 122 114
6.644312e+000 -2.732623e+000 -3.825573e-001 70 51 45
6.060178e+000 -2.924243e+000 -2.472670e-001 66 63 56
6.173000e+000 -2.892070e+000 -2.002951e-001 132 129 120
6.171339e+000 -2.896318e+000 -2.124007e-001 132 129 120
6.261328e+000 -2.869721e+000 -1.768155e-001 134 134 124
6.450044e+000 -2.828227e+000 -2.048653e-001 103 99 89
6.450044e+000 -2.828227e+000 -2.048653e-001 103 99 89
5.583853e+000 -3.274636e+000 -7.691015e-001 148 148 142
5.684696e+000 -3.198407e+000 -5.393757e-001 142 137 133
5.760900e+000 -3.155544e+000 -4.599849e-001 140 140 132
6.088435e+000 -2.969307e+000 -1.809090e-001 141 141 132
6.274737e+000 -2.879372e+000 -1.605089e-001 83 81 69
6.332157e+000 -2.864326e+000 -1.331743e-001 26 26 24
5.622382e+000 -3.266089e+000 -6.584621e-001 135 132 127
5.614270e+000 -3.367488e+000 -7.686283e-001 131 122 119
5.714291e+000 -3.250529e+000 -5.465050e-001 152 149 144
5.928193e+000 -3.068649e+000 -2.721405e-001 142 143 135
6.036159e+000 -3.044182e+000 -2.705769e-001 97 94 85
6.036159e+000 -3.044182e+000 -2.705769e-001 97 94 85
6.174180e+000 -3.001949e+000 -1.082091e-001 89 89 81
6.174180e+000 -3.001949e+000 -1.082091e-001 89 89 81
6.242534e+000 -2.947671e+000 -1.177400e-001 124 120 112
6.279950e+000 -2.939734e+000 -5.422456e-002 144 149 143
6.325190e+000 -2.890137e+000 2.619137e-002 66 57 50
6.338239e+000 -2.895791e+000 -6.689853e-002 65 59 58
5.999385e+000 -3.157604e+000 -2.146261e-001 56 47 52
6.410856e+000 -2.979598e+000 -3.747419e-002 110 106 95
5.906118e+000 -3.257802e+000 -2.586142e-001 49 47 52
5.968730e+000 -3.180883e+000 -2.285405e-001 59 54 59
6.022871e+000 -3.172807e+000 -1.255762e-001 92 89 84
6.310831e+000 -3.056136e+000 2.428469e-003 134 134 124
6.407127e+000 -3.016504e+000 2.818058e-002 78 73 68
6.298276e+000 -3.128989e+000 4.072456e-002 134 135 125
6.622015e+000 -3.044609e+000 -3.509488e-002 87 73 63
6.485668e+000 -3.120385e+000 -1.529358e-002 62 58 49
6.072002e+000 -3.226222e+000 2.377615e-001 52 45 55
6.232149e+000 -3.238006e+000 -1.697899e-002 83 81 76
6.401296e+000 -3.292448e+000 4.364180e-002 94 84 80
6.509151e+000 -3.221726e+000 4.905521e-002 73 66 55
6.726000e+000 -3.219369e+000 3.854872e-002 84 74 65
6.368743e+000 -3.376156e+000 5.405912e-002 86 81 77
6.453282e+000 -3.356519e+000 5.685617e-002 63 54 48
6.523359e+000 -3.287120e+000 6.535988e-002 108 104 95
6.654141e+000 -3.283520e+000 1.285600e-002 87 77 68
5.734933e+000 -3.533656e+000 1.772451e-001 33 23 31
6.638478e+000 -3.325062e+000 5.213684e-002 109 103 93
6.638478e+000 -3.325062e+000 5.213684e-002 109 103 93
6.729595e+000 -3.368635e+000 1.586844e-002 46 29 22
6.670374e+000 -3.407824e+000 4.287249e-002 43 33 24
5.919585e+000 -3.619333e+000 3.350114e-001 22 12 20
6.227746e+000 -3.474478e+000 4.010941e-001 35 22 29
6.616062e+000 -3.515520e+000 1.748323e-001 105 91 63
6.317806e+000 -3.572452e+000 3.680013e-001 69 59 60
6.400985e+000 -3.591674e+000 3.209193e-001 54 42 48
5.849341e+000 -3.827904e+000 3.388434e-001 29 16 23
5.811825e+000 -3.926242e+000 2.701039e-001 54 37 47
5.608427e+000 -2.528159e+000 -4.874270e-001 51 35 48
7.348020e+000 -2.222658e+000 -9.374600e-001 78 70 67
7.317021e+000 -2.364075e+000 -9.351244e-001 53 41 43
7.308110e+000 -2.438014e+000 -8.298354e-001 99 96 94
7.701608e+000 -2.424257e+000 -1.008324e+000 102 81 67
6.212479e+000 -2.773354e+000 -2.834119e-001 99 92 84
6.664059e+000 -2.684111e+000 -3.819055e-001 32 19 17
6.075773e+000 -2.890784e+000 -3.000939e-001 68 58 57
6.322965e+000 -2.796429e+000 -2.343170e-001 73 64 54
5.922209e+000 -2.981575e+000 -2.728779e-001 97 90 82
6.100874e+000 -2.898337e+000 -2.959585e-001 77 69 65
6.124238e+000 -2.888069e+000 -1.994125e-001 123 127 118
6.124238e+000 -2.888069e+000 -1.994125e-001 123 127 118
6.490731e+000 -2.800293e+000 -3.168625e-001 50 44 36
6.492521e+000 -2.770753e+000 -2.239076e-001 50 44 36
6.006084e+000 -2.982525e+000 -2.187650e-001 164 169 161
6.006084e+000 -2.982525e+000 -2.187650e-001 164 169 161
6.062042e+000 -2.955775e+000 -1.583334e-001 80 75 64
6.093439e+000 -2.926927e+000 -1.450941e-001 92 83 74
6.110628e+000 -2.959637e+000 -1.795538e-001 96 87 78
6.110628e+000 -2.959637e+000 -1.795538e-001 96 87 78
6.356431e+000 -2.855883e+000 -1.404160e-001 93 94 90
5.670636e+000 -3.265635e+000 -6.623759e-001 95 84 84
5.871689e+000 -3.123599e+000 -3.699488e-001 73 69 58
6.254641e+000 -2.956316e+000 -7.926047e-002 68 63 57
6.152126e+000 -3.045776e+000 -1.001336e-001 95 86 84
6.684706e+000 -2.934917e+000 -1.610687e-001 71 54 35
5.958704e+000 -3.206177e+000 -1.655681e-001 145 144 139
5.985698e+000 -3.196681e+000 -1.597576e-001 81 77 73
6.534388e+000 -2.982573e+000 -1.432989e-002 61 47 40
7.542354e+000 -2.961987e+000 -6.079214e-001 77 64 55
6.400500e+000 -3.001916e+000 1.441941e-001 74 69 63
5.820527e+000 -3.393681e+000 -5.511066e-002 245 255 254
5.879930e+000 -3.397427e+000 -3.058083e-002 238 255 255
5.879930e+000 -3.397427e+000 -3.058083e-002 238 255 255
6.182640e+000 -3.259737e+000 -3.664591e-002 141 146 138
6.233458e+000 -3.293696e+000 -4.362233e-002 124 124 116
6.185225e+000 -3.376090e+000 -2.532226e-002 73 65 63
6.866032e+000 -3.247434e+000 -7.429055e-002 77 64 56
6.381361e+000 -3.435828e+000 5.758808e-002 35 26 27
6.702975e+000 -3.401174e+000 2.834794e-002 48 37 30
6.274834e+000 -3.455996e+000 2.542464e-001 34 23 29
6.725878e+000 -3.442995e+000 6.201209e-002 75 58 47
6.734829e+000 -3.544638e+000 1.941388e-001 29 17 17
6.427124e+000 -3.558310e+000 3.789427e-001 25 16 17
5.815820e+000 -3.937793e+000 3.211216e-001 61 44 60
6.086677e+000 -3.800517e+000 3.756491e-001 25 14 18
5.773695e+000 -2.495602e+000 -2.996740e-001 33 22 30
6.085945e+000 -2.397323e+000 -2.219711e-001 46 30 37
6.866400e+000 -2.327121e+000 -9.297972e-001 165 133 94
6.926572e+000 -2.388625e+000 -9.311192e-001 91 62 48
6.972436e+000 -2.481261e+000 -9.305878e-001 144 115 75
7.322535e+000 -2.472620e+000 -8.966976e-001 119 119 117
6.358232e+000 -2.681058e+000 -2.949451e-001 58 44 43
6.123310e+000 -2.809936e+000 -3.089834e-001 39 29 28
6.399144e+000 -2.718566e+000 -2.811692e-001 59 54 50
5.900936e+000 -2.961767e+000 -3.907891e-001 147 146 144
6.115922e+000 -2.838699e+000 -3.115504e-001 84 76 74
6.457322e+000 -2.778135e+000 -2.263008e-001 107 103 94
6.048498e+000 -2.940019e+000 -2.295779e-001 144 140 131
6.146993e+000 -2.910224e+000 -1.887773e-001 74 70 64
6.841712e+000 -2.871682e+000 -7.416892e-001 51 30 29
5.891420e+000 -3.039898e+000 -3.337609e-001 147 146 142
5.931071e+000 -3.041534e+000 -2.711588e-001 86 78 71
6.002693e+000 -3.019051e+000 -2.296651e-001 81 69 67
6.406554e+000 -2.855814e+000 -8.363775e-002 142 147 140
6.633195e+000 -2.818325e+000 -2.361431e-001 71 51 40
5.599523e+000 -3.339599e+000 -7.754217e-001 81 72 65
5.743841e+000 -3.221178e+000 -4.878358e-001 148 145 141
5.780685e+000 -3.169609e+000 -4.501774e-001 71 61 59
5.789840e+000 -3.156905e+000 -4.193807e-001 71 61 59
5.986729e+000 -3.073756e+000 -2.535743e-001 77 72 66
6.074243e+000 -3.051979e+000 -1.940755e-001 157 159 148
6.149203e+000 -2.980294e+000 -1.263068e-001 155 153 146
6.170320e+000 -3.010061e+000 -7.045529e-002 150 151 143
6.179631e+000 -3.077766e+000 -4.729442e-002 93 91 79
6.646356e+000 -2.997152e+000 -4.554954e-002 38 27 24
6.323766e+000 -3.099592e+000 -2.933597e-002 148 151 144
6.323766e+000 -3.099592e+000 -2.933597e-002 148 151 144
6.293230e+000 -3.282404e+000 5.088732e-002 52 45 42
6.493778e+000 -3.242528e+000 7.218455e-002 116 111 107
6.551992e+000 -3.230602e+000 5.549208e-002 50 49 45
6.551992e+000 -3.230602e+000 5.549208e-002 50 49 45
6.770052e+000 -3.175151e+000 7.588212e-003 81 70 62
5.993562e+000 -3.376198e+000 2.424363e-001 28 16 20
6.441798e+000 -3.337204e+000 5.110145e-002 133 133 125
6.401229e+000 -3.400382e+000 6.713310e-002 112 106 103
6.710678e+000 -3.364374e+000 8.287859e-003 95 85 73
5.754416e+000 -3.568278e+000 2.482559e-001 45 30 37
5.771829e+000 -3.567256e+000 2.168224e-001 91 81 92
5.764141e+000 -3.761430e+000 2.931902e-001 33 18 23
6.164386e+000 -3.670980e+000 2.696655e-001 21 16 20
6.184758e+000 -3.731851e+000 2.732050e-001 21 12 16
6.247706e+000 -3.748695e+000 4.427067e-001 37 22 27
7.363628e+000 -2.188093e+000 -1.055124e+000 172 173 176
6.954838e+000 -2.394045e+000 -8.745190e-001 159 134 96
5.901040e+000 -2.675739e+000 -1.867799e-001 45 32 39
6.432484e+000 -2.794724e+000 -2.132518e-001 57 44 36
6.554064e+000 -2.805944e+000 -2.102241e-001 106 100 88
5.747726e+000 -3.122141e+000 -4.671146e-001 106 97 99
6.124241e+000 -2.940817e+000 -1.925417e-001 141 142 128
5.573358e+000 -3.328345e+000 -7.128083e-001 156 161 154
5.593172e+000 -3.371538e+000 -7.312977e-001 68 46 49
5.854762e+000 -3.141888e+000 -3.550521e-001 144 144 136
6.037685e+000 -3.055299e+000 -2.225057e-001 147 151 138
6.228053e+000 -2.956296e+000 -1.241695e-001 118 114 105
6.228053e+000 -2.956296e+000 -1.241695e-001 118 114 105
5.577514e+000 -3.402635e+000 -7.046545e-001 57 41 41
5.932923e+000 -3.143563e+000 -2.910445e-001 31 28 28
6.495597e+000 -2.941676e+000 -1.644092e-002 47 35 29
6.090194e+000 -3.135469e+000 -6.657812e-002 144 146 141
6.920787e+000 -3.086225e+000 -2.868283e-001 80 54 41
6.107452e+000 -3.269760e+000 -5.818288e-002 114 115 107
6.847933e+000 -3.114529e+000 -1.085540e-001 33 18 15
6.834395e+000 -3.142394e+000 -7.925921e-002 83 66 53
6.469441e+000 -3.289890e+000 5.912033e-002 56 49 41
5.928645e+000 -3.692373e+000 3.957448e-001 48 36 46
6.220882e+000 -3.749103e+000 4.343885e-001 59 47 48
5.895168e+000 -2.684731e+000 -2.159593e-001 43 30 37
6.571958e+000 -2.678929e+000 -3.924648e-001 37 26 24
6.559774e+000 -2.733998e+000 -2.327850e-001 43 32 27
5.950572e+000 -3.004210e+000 -2.950714e-001 151 150 145
6.246667e+000 -2.970748e+000 -5.320732e-002 76 73 66
6.436063e+000 -2.910557e+000 -3.799774e-002 66 53 44
6.632509e+000 -2.942076e+000 -5.299972e-002 72 58 49
6.875369e+000 -2.970294e+000 -3.502669e-001 70 44 32
6.280574e+000 -3.181335e+000 -6.001160e-003 51 51 43
6.755483e+000 -3.148420e+000 -2.412052e-002 48 41 33
6.909909e+000 -3.255722e+000 -1.213763e-001 53 35 21
6.801245e+000 -3.484093e+000 -8.336877e-002 44 27 20
5.994358e+000 -2.868283e+000 -2.997573e-001 49 35 35
5.912582e+000 -3.205136e+000 -2.241974e-001 37 32 36
5.958809e+000 -3.253537e+000 -1.718221e-001 141 142 136
6.060893e+000 -3.290748e+000 -1.660949e-002 38 28 27
6.966230e+000 -3.269696e+000 -3.294782e-001 79 58 41
5.843730e+000 -3.677122e+000 2.711974e-001 35 26 31
6.089111e+000 -3.697213e+000 2.764386e-001 20 14 16
6.805677e+000 -2.790854e+000 -7.940384e-001 145 132 124
5.940917e+000 -3.157260e+000 -2.622689e-001 52 50 49
5.940917e+000 -3.157260e+000 -2.622689e-001 52 50 49
7.548950e+000 -2.549206e+000 -7.783704e-001 66 51 44
5.876721e+000 -3.002193e+000 -2.712562e-001 137 137 136
6.275611e+000 -3.394795e+000 2.334054e-002 30 20 21
7.222181e+000 -2.661042e+000 -1.444052e+000 59 40 34
9.091995e+000 -3.608769e+000 -3.102195e-001 136 120 71
7.934764e+000 -2.626546e+000 -9.621048e-001 67 48 31
7.595652e+000 -2.486491e+000 -8.737550e-001 91 75 63
7.489704e+000 -2.854125e+000 -6.304415e-001 69 53 40
8.818712e+000 -2.254310e+000 -8.755966e-001 158 142 91
8.797352e+000 -2.290105e+000 -9.197607e-001 155 138 92
8.810421e+000 -2.291670e+000 -9.414081e-001 155 138 92
6.681794e+000 -2.923052e+000 -1.216866e-001 79 58 40
6.461546e+000 -3.203534e+000 3.583505e-002 150 152 141
6.545849e+000 -3.254602e+000 5.226358e-002 50 44 38
6.785814e+000 -3.196002e+000 -4.111513e-002 76 61 56
6.781962e+000 -3.187828e+000 -2.073906e-002 76 61 56
8.671195e+000 -2.605153e+000 -1.151112e+000 163 150 96
7.264586e+000 -2.755517e+000 -1.024419e+000 42 30 34
6.400784e+000 -3.036072e+000 5.231988e-003 87 82 76
6.610960e+000 -3.122186e+000 5.835363e-003 65 60 51
6.482425e+000 -3.318861e+000 4.512188e-002 62 52 45
7.318451e+000 -2.470300e+000 -1.620728e+000 80 63 64
7.241498e+000 -2.661971e+000 -1.505638e+000 141 122 100
7.241498e+000 -2.661971e+000 -1.505638e+000 141 122 100
7.253791e+000 -2.583281e+000 -1.345036e+000 93 82 88
7.821765e+000 -2.655684e+000 -9.438213e-001 64 46 31
7.971692e+000 -3.205650e+000 -3.399584e-001 105 98 95
7.903594e+000 -3.565603e+000 -7.113907e-001 92 86 83
7.248067e+000 -2.577956e+000 -1.163727e+000 95 83 95
7.248067e+000 -2.577956e+000 -1.163727e+000 95 83 95
7.683434e+000 -2.453683e+000 -9.041921e-001 98 80 66
6.529956e+000 -2.707507e+000 -2.992203e-001 45 35 33
7.735111e+000 -2.629610e+000 -8.646129e-001 63 44 30
7.851978e+000 -2.628538e+000 -8.665742e-001 96 78 58
7.873113e+000 -2.665108e+000 -9.056013e-001 92 75 57
8.172403e+000 -3.060686e+000 -8.879111e-001 51 38 30
6.719256e+000 -3.286835e+000 7.272180e-003 71 60 53
7.493372e+000 -3.399891e+000 -6.895856e-001 73 59 53
7.547701e+000 -3.427603e+000 -6.835609e-001 54 37 30
7.895591e+000 -3.311651e+000 -4.229481e-001 110 102 94
7.779352e+000 -3.799648e+000 -7.133873e-001 46 35 33
7.805511e+000 -3.780686e+000 -6.793358e-001 63 52 48
9.064770e+000 -3.359560e+000 -2.974881e-001 137 120 75
9.064770e+000 -3.359560e+000 -2.974881e-001 137 120 75
7.165492e+000 -2.664190e+000 -1.427408e+000 105 93 99
7.496727e+000 -2.464646e+000 -8.538555e-001 69 53 40
7.303176e+000 -2.680026e+000 -1.128385e+000 47 40 44
7.290533e+000 -2.720136e+000 -1.033413e+000 51 40 46
6.610899e+000 -2.769236e+000 -2.519635e-001 40 26 17
7.253028e+000 -2.911197e+000 -8.233846e-001 48 34 33
5.544816e+000 -3.472192e+000 -7.812397e-001 109 101 91
7.834799e+000 -3.084570e+000 -6.284665e-001 80 63 52
7.788859e+000 -3.103293e+000 -6.158104e-001 81 66 58
6.562154e+000 -3.303961e+000 4.910442e-002 58 51 43
7.719741e+000 -3.304599e+000 -6.389719e-001 46 36 34
6.605339e+000 -3.413616e+000 6.276230e-002 90 83 79
7.856954e+000 -3.660389e+000 -5.038213e-001 119 110 103
7.896319e+000 -3.768253e+000 -5.017818e-001 81 68 60
7.637300e+000 -2.197583e+000 -1.500243e+000 103 84 54
7.320553e+000 -2.558111e+000 -1.268944e+000 52 41 46
7.307585e+000 -2.629345e+000 -1.163866e+000 48 34 41
7.530448e+000 -2.471441e+000 -8.502372e-001 87 72 59
6.357936e+000 -2.751501e+000 -2.673264e-001 122 116 107
7.769414e+000 -3.325940e+000 -6.975947e-001 100 95 92
6.710406e+000 -3.360587e+000 1.668554e-002 95 85 73
7.838309e+000 -3.269786e+000 -4.081374e-001 98 94 92
7.911311e+000 -3.484687e+000 -6.965628e-001 105 101 100
7.922885e+000 -3.296837e+000 -3.764304e-001 178 204 212
7.287555e+000 -2.538551e+000 -1.453156e+000 105 98 106
7.280284e+000 -2.529526e+000 -1.401703e+000 105 98 106
7.272761e+000 -2.626147e+000 -1.219469e+000 87 81 90
7.914799e+000 -2.575726e+000 -9.423617e-001 90 73 56
5.614843e+000 -3.421740e+000 -7.325675e-001 124 117 108
7.859014e+000 -4.002814e+000 -6.934905e-001 72 52 43
7.246757e+000 -2.674746e+000 -1.350529e+000 43 30 27
7.246757e+000 -2.674746e+000 -1.350529e+000 43 30 27
7.303326e+000 -2.589843e+000 -1.170306e+000 47 41 45
7.860976e+000 -3.248263e+000 -6.701245e-001 52 41 40
7.916470e+000 -2.725189e+000 -8.767436e-001 88 72 46
8.099464e+000 -3.232731e+000 -2.276271e-001 161 175 176
7.927293e+000 -3.912540e+000 -5.894279e-001 79 62 54
7.785483e+000 -2.543439e+000 -9.432588e-001 93 75 55
8.805940e+000 -2.963169e+000 -9.571773e-001 165 155 106
8.022219e+000 -3.352986e+000 -3.821692e-001 163 172 179
5.932060e+000 -3.277435e+000 -1.979460e-001 81 82 82
7.476207e+000 -3.411013e+000 -6.637281e-001 78 63 58
7.928196e+000 -3.771846e+000 -4.918789e-001 115 99 86
7.364558e+000 -2.377281e+000 -8.613639e-001 64 50 41
6.105510e+000 -2.866660e+000 -2.800815e-001 123 119 116
6.170900e+000 -2.832771e+000 -2.764531e-001 109 108 103
6.422160e+000 -3.134647e+000 1.908388e-002 137 144 135
7.360627e+000 -2.390200e+000 -7.694210e-001 74 55 48
7.360627e+000 -2.390200e+000 -7.694210e-001 74 55 48
6.487977e+000 -2.702754e+000 -2.950609e-001 69 58 57
6.329662e+000 -2.765121e+000 -2.572922e-001 69 65 56
7.878366e+000 -2.580764e+000 -9.524841e-001 72 54 40
7.878366e+000 -2.580764e+000 -9.524841e-001 72 54 40
6.192167e+000 -3.094481e+000 -4.066703e-002 126 124 112
6.440179e+000 -3.152532e+000 1.390140e-002 81 74 69
7.568569e+000 -3.080178e+000 -5.801123e-001 81 67 64
7.568569e+000 -3.080178e+000 -5.801123e-001 81 67 64
7.797560e+000 -3.034587e+000 -6.168176e-001 62 47 40
8.375524e+000 -3.186596e+000 -2.885134e-001 54 37 23
7.278009e+000 -2.699045e+000 -1.097871e+000 75 66 71
7.231807e+000 -2.789907e+000 -1.085586e+000 61 46 46
8.650367e+000 -2.491841e+000 -1.211047e+000 147 128 86
8.675857e+000 -2.465782e+000 -1.177036e+000 136 122 77
6.308157e+000 -3.026145e+000 -1.862288e-003 96 93 84
7.532019e+000 -3.054857e+000 -5.709401e-001 60 46 39
6.700525e+000 -3.097561e+000 -3.600300e-002 43 33 23
6.724225e+000 -3.102581e+000 -9.278663e-003 88 82 71
6.208891e+000 -2.956559e+000 -1.065193e-001 121 121 110
6.471653e+000 -3.060813e+000 7.247427e-003 110 105 99
6.637894e+000 -3.057480e+000 -7.728679e-003 49 38 34
6.280026e+000 -3.463814e+000 1.599294e-001 62 53 56
8.114811e+000 -2.758184e+000 -9.288365e-001 129 122 111
7.926104e+000 -2.831396e+000 -7.569949e-001 60 46 35
7.679320e+000 -2.424709e+000 -9.221623e-001 97 78 64
7.696365e+000 -2.429414e+000 -9.178038e-001 68 49 34
7.698775e+000 -2.774357e+000 -7.313745e-001 60 47 31
7.879621e+000 -2.771117e+000 -8.451425e-001 92 75 57
8.163275e+000 -3.081317e+000 -9.239786e-001 73 65 55
7.258783e+000 -3.390464e+000 -6.459863e-001 61 50 44
7.367956e+000 -2.381214e+000 -8.678930e-001 63 53 44
7.265303e+000 -2.644661e+000 -1.556805e+000 54 40 28
8.804385e+000 -2.611780e+000 -8.547206e-001 173 161 113
7.687946e+000 -2.919973e+000 -6.364562e-001 60 43 33
6.980431e+000 -3.213025e+000 -5.425676e-001 51 31 20
6.648727e+000 -3.202935e+000 1.224998e-002 86 77 72
7.875468e+000 -3.531359e+000 -4.311198e-001 101 89 83
7.915236e+000 -3.549571e+000 -3.884565e-001 95 82 74
7.642359e+000 -2.546884e+000 -3.478686e-001 59 41 31
8.840892e+000 -2.542957e+000 -8.338945e-001 144 126 83
7.063374e+000 -2.767223e+000 -1.545639e+000 147 128 86
7.063374e+000 -2.767223e+000 -1.545639e+000 147 128 86
8.528499e+000 -2.569847e+000 -8.935497e-001 161 148 96
7.279081e+000 -2.548410e+000 -1.297697e+000 98 93 97
6.517612e+000 -2.698029e+000 -2.917513e-001 48 39 33
7.492470e+000 -2.643367e+000 -7.291917e-001 93 76 68
7.495169e+000 -2.646850e+000 -7.396079e-001 93 76 68
7.258558e+000 -2.756772e+000 -6.109289e-001 69 59 60
8.082316e+000 -2.674347e+000 -9.523387e-001 54 39 32
6.225518e+000 -3.007906e+000 -4.625919e-002 149 150 142
7.652656e+000 -2.883377e+000 -6.313078e-001 79 65 52
6.404419e+000 -3.028631e+000 1.872760e-003 81 78 71
7.696632e+000 -2.928297e+000 -6.652813e-001 60 43 36
7.518871e+000 -3.242942e+000 -6.484173e-001 71 57 51
6.365818e+000 -3.298194e+000 3.158527e-002 63 52 46
6.840725e+000 -3.299152e+000 -5.909523e-002 50 38 26
8.021748e+000 -3.157756e+000 -3.714481e-001 105 92 75
7.212308e+000 -2.277446e+000 2.928865e-001 68 53 48
7.482461e+000 -2.528534e+000 -7.969585e-001 89 72 62
7.676394e+000 -2.510956e+000 -8.800646e-001 60 43 33
7.646818e+000 -2.596404e+000 -8.154360e-001 89 71 58
7.247764e+000 -2.814194e+000 -6.261743e-001 113 111 112
7.284911e+000 -2.902639e+000 -6.003498e-001 52 38 35
7.758273e+000 -2.890651e+000 -7.144295e-001 83 67 52
6.711532e+000 -3.356057e+000 2.238085e-002 101 91 79
5.853926e+000 -3.397490e+000 -4.753495e-002 39 37 51
8.139371e+000 -2.904608e+000 -9.129706e-001 89 78 76
6.525590e+000 -3.193348e+000 3.318616e-002 124 120 113
6.555943e+000 -3.156543e+000 2.094864e-002 78 72 63
7.919638e+000 -3.219279e+000 -4.598459e-001 103 97 91
6.512149e+000 -3.394810e+000 1.048299e-001 57 47 45
6.605540e+000 -3.500288e+000 2.076501e-001 70 58 45
7.694515e+000 -3.976316e+000 -7.817909e-001 79 67 52
7.316118e+000 -2.284223e+000 -9.315138e-001 79 70 73
7.297186e+000 -2.532919e+000 -1.312346e+000 59 47 47
6.227108e+000 -2.813621e+000 -2.606746e-001 71 66 63
7.192572e+000 -2.865007e+000 -9.439346e-001 55 41 44
6.272096e+000 -2.873754e+000 -1.430565e-001 75 73 68
6.439148e+000 -2.838595e+000 -7.226365e-002 85 67 55
7.676331e+000 -2.944968e+000 -6.417994e-001 81 66 59
6.326291e+000 -3.080734e+000 1.601577e-002 149 155 145
6.730496e+000 -3.221424e+000 -3.655495e-003 82 69 58
7.892725e+000 -3.500255e+000 -6.670471e-001 56 48 45
7.905490e+000 -3.272186e+000 -4.452850e-001 117 105 107
7.526797e+000 -3.906955e+000 -9.479594e-001 70 54 38
7.894472e+000 -3.562730e+000 -6.672938e-001 55 49 43
6.403971e+000 -3.478526e+000 2.108358e-001 79 71 68
8.891050e+000 -4.014690e+000 -5.403940e-001 156 139 93
7.332571e+000 -2.424362e+000 -1.494718e+000 114 105 110
7.600894e+000 -2.422078e+000 -8.814241e-001 67 51 38
6.177752e+000 -2.861726e+000 -2.420079e-001 126 126 118
6.313118e+000 -2.775328e+000 -2.420738e-001 128 129 121
5.890057e+000 -3.017930e+000 -3.095904e-001 159 157 156
6.008958e+000 -2.971666e+000 -2.041605e-001 149 152 145
6.387866e+000 -2.784252e+000 -2.100199e-001 59 49 40
5.967105e+000 -3.048629e+000 -2.472231e-001 120 119 114
6.405880e+000 -2.833112e+000 -1.700249e-001 82 79 70
7.267299e+000 -2.823611e+000 -6.023491e-001 60 49 43
7.296035e+000 -2.808007e+000 -6.234061e-001 80 70 61
6.464087e+000 -2.853055e+000 -4.420392e-002 62 47 40
6.107195e+000 -3.058817e+000 -1.006974e-001 140 142 141
6.105223e+000 -3.066009e+000 -1.090113e-001 140 142 141
6.192267e+000 -3.094860e+000 -4.186359e-002 133 130 123
7.546368e+000 -3.264217e+000 -6.208880e-001 35 21 17
7.553793e+000 -3.220548e+000 -6.106911e-001 75 64 60
7.898027e+000 -3.330907e+000 -6.849074e-001 104 98 94
7.891383e+000 -3.214082e+000 -5.457122e-001 158 178 184
6.570269e+000 -3.344354e+000 6.431211e-002 57 48 42
6.605301e+000 -3.404017e+000 7.294892e-002 102 97 89
7.867338e+000 -3.579198e+000 -4.898088e-001 112 104 101
6.396241e+000 -2.721001e+000 -2.806518e-001 50 41 39
6.278893e+000 -2.792806e+000 -2.493006e-001 57 50 47
5.539625e+000 -3.378751e+000 -6.946054e-001 150 143 145
5.851083e+000 -3.054442e+000 -3.360988e-001 96 89 81
6.224241e+000 -2.873449e+000 -2.196955e-001 68 67 62
5.994692e+000 -3.174372e+000 -1.836287e-001 130 134 131
6.143565e+000 -3.064707e+000 -8.066486e-002 137 137 129
6.398774e+000 -2.918753e+000 -2.593825e-002 92 87 81
5.913108e+000 -3.272017e+000 -1.933303e-001 57 48 53
5.911695e+000 -3.294405e+000 -1.392222e-001 45 43 48
6.014950e+000 -3.229875e+000 -1.062628e-001 67 63 64
8.152782e+000 -3.002570e+000 -9.172140e-001 47 36 30
6.200420e+000 -3.215204e+000 -2.771652e-002 58 57 52
6.319904e+000 -3.265518e+000 3.079257e-002 98 95 90
6.542100e+000 -3.327405e+000 7.337155e-002 118 115 108
6.589332e+000 -3.299959e+000 5.869508e-002 85 81 72
6.611773e+000 -3.328234e+000 5.576799e-002 47 37 36
6.450582e+000 -3.397982e+000 8.023198e-002 48 44 45
6.515030e+000 -3.363064e+000 7.908201e-002 48 40 39
6.658836e+000 -3.346581e+000 4.579204e-002 45 36 29
7.922674e+000 -3.297440e+000 -3.757494e-001 176 195 205
6.350684e+000 -2.776502e+000 -2.275564e-001 75 64 60
6.230815e+000 -2.931823e+000 -1.485247e-001 83 74 65
6.286465e+000 -2.921176e+000 -3.954806e-002 138 145 138
6.461771e+000 -2.927106e+000 5.208287e-003 103 96 88
6.461594e+000 -2.928580e+000 3.567150e-003 103 96 88
6.095853e+000 -3.129385e+000 -7.811372e-002 131 132 126
6.112912e+000 -3.195372e+000 -5.872175e-002 126 131 120
6.147212e+000 -3.256522e+000 -4.453210e-002 49 44 43
6.325282e+000 -3.186230e+000 3.666183e-003 154 156 142
7.995441e+000 -3.079352e+000 -7.431370e-001 41 27 20
6.837044e+000 -3.156982e+000 -8.700943e-002 81 61 50
7.534978e+000 -3.896440e+000 -8.760707e-001 160 142 93
7.960857e+000 -3.254768e+000 -3.514451e-001 108 106 110
7.875117e+000 -3.516597e+000 -4.628728e-001 134 132 133
6.323134e+000 -3.623287e+000 3.483102e-001 58 47 53
6.563668e+000 -2.667139e+000 -3.588936e-001 34 23 19
6.550781e+000 -2.761299e+000 -3.066383e-001 37 28 23
6.159769e+000 -2.951402e+000 -1.484327e-001 61 56 52
6.634746e+000 -2.950957e+000 -6.641128e-002 76 61 52
6.146603e+000 -3.255331e+000 -3.546893e-002 65 57 55
6.196520e+000 -3.273415e+000 -3.521859e-002 134 139 132
6.795692e+000 -3.093366e+000 -9.677204e-002 71 59 43
6.687946e+000 -3.302527e+000 1.683607e-002 56 46 37
7.729570e+000 -3.809004e+000 -6.643508e-001 84 71 63
6.999872e+000 -3.850996e+000 -2.461049e-001 155 133 84
6.240663e+000 -2.890264e+000 -1.626156e-001 111 112 104
6.882485e+000 -2.988872e+000 -4.033036e-001 69 46 30
5.965792e+000 -3.233015e+000 -1.371826e-001 136 135 133
5.965934e+000 -3.280972e+000 -8.556135e-002 53 48 53
7.874184e+000 -3.049702e+000 -6.626095e-001 90 74 60
7.760426e+000 -3.320552e+000 -6.269008e-001 87 79 77
6.300297e+000 -3.428915e+000 1.097720e-001 30 21 26
6.070363e+000 -3.003450e+000 -1.727851e-001 113 118 111
7.886632e+000 -3.205127e+000 -4.938693e-001 100 95 94
6.215595e+000 -3.623370e+000 3.291453e-001 26 17 22
7.970729e+000 -3.740809e+000 -4.902388e-001 86 72 63
7.900649e+000 -3.018431e+000 -7.756899e-001 85 74 55
5.809105e+000 -2.816159e+000 -3.247763e-001 47 30 36
8.984506e+000 -3.210527e+000 -5.575863e-001 174 161 116
7.899059e+000 -3.283116e+000 -4.211983e-001 187 209 213
7.601298e+000 -2.420743e+000 -8.823266e-001 70 52 41
6.465875e+000 -2.894148e+000 -2.164931e-002 61 53 45
7.515730e+000 -2.632349e+000 -7.565063e-001 71 54 46
7.500573e+000 -2.744962e+000 -6.793308e-001 68 53 46
7.820869e+000 -2.645524e+000 -8.744075e-001 90 71 54
8.946108e+000 -2.303065e+000 -7.508547e-001 153 141 91
6.421305e+000 -2.852891e+000 -3.863953e-002 88 85 78
8.083561e+000 -1.822853e+000 -2.171638e+000 140 125 86
7.629311e+000 -2.453207e+000 -8.518001e-001 90 74 61
6.286500e+000 -2.755828e+000 -2.854915e-001 138 144 137
7.905155e+000 -3.518333e+000 -6.936866e-001 56 48 45
7.475116e+000 -2.483452e+000 -8.494473e-001 91 75 62
6.079334e+000 -2.899461e+000 -2.490255e-001 133 132 130
6.103098e+000 -2.882003e+000 -2.546323e-001 72 69 62
6.438252e+000 -2.827823e+000 -1.393366e-001 63 51 46
6.142140e+000 -3.064560e+000 -8.071696e-002 137 137 129
7.286275e+000 -3.309912e+000 -7.170801e-001 44 33 31
7.286181e+000 -3.310207e+000 -7.177106e-001 44 33 31
6.634571e+000 -3.397037e+000 5.247302e-002 69 60 51
6.444259e+000 -2.876070e+000 -4.706839e-002 118 116 107
8.709666e+000 -2.725216e+000 -1.091598e+000 135 121 76
6.861380e+000 -3.019696e+000 -3.595433e-001 32 21 17
6.392153e+000 -3.238929e+000 3.446502e-002 135 137 132
8.921480e+000 -2.953777e+000 -7.183204e-001 143 126 77
8.055214e+000 -3.168227e+000 -3.368711e-001 109 96 84
6.308642e+000 -2.998547e+000 -2.555719e-002 128 128 120
7.405486e+000 -2.943340e+000 -5.722795e-001 80 69 65
8.748805e+000 -2.693500e+000 -1.046335e+000 138 119 79
6.053461e+000 -3.245475e+000 -7.501617e-002 145 148 143
6.163029e+000 -2.238218e+000 -3.321207e-001 79 63 71
8.548183e+000 -2.986020e+000 -1.314883e+000 62 46 34
7.378714e+000 -2.201567e+000 -9.845875e-001 111 102 102
6.260109e+000 -2.813123e+000 -2.131132e-001 134 137 130
5.583878e+000 -3.453329e+000 -6.379029e-001 173 165 158
5.607390e+000 -3.419082e+000 -5.694111e-001 101 93 92
5.596688e+000 -3.463880e+000 -6.617936e-001 82 69 61
6.336823e+000 -2.816967e+000 -2.091676e-001 56 49 44
6.336823e+000 -2.816967e+000 -2.091676e-001 56 49 44
5.577167e+000 -3.625419e+000 -5.952322e-001 167 166 158
5.690732e+000 -3.531421e+000 -6.635139e-001 37 33 32
6.206563e+000 -2.929984e+000 -1.213161e-001 92 88 77
5.997880e+000 -3.221663e+000 -1.102333e-001 131 130 126
6.389802e+000 -2.900510e+000 -3.975459e-002 50 42 39
7.930717e+000 -2.788440e+000 -8.170097e-001 69 51 39
5.923538e+000 -3.342372e+000 -4.718939e-002 90 94 102
6.459361e+000 -3.150745e+000 3.391767e-002 135 133 121
6.524806e+000 -3.080038e+000 1.941305e-002 62 54 48
6.574877e+000 -3.093147e+000 -2.007863e-002 112 109 100
6.586474e+000 -3.118110e+000 6.309255e-003 59 55 48
7.634478e+000 -3.062883e+000 -5.497047e-001 110 103 96
6.661651e+000 -3.130018e+000 -5.055273e-004 59 51 39
6.858138e+000 -3.273052e+000 -5.191171e-002 113 99 88
6.671088e+000 -3.413108e+000 1.219075e-002 107 96 86
7.600199e+000 -2.226504e+000 -1.660954e+000 99 87 90
7.333992e+000 -2.442852e+000 -1.596656e+000 104 94 93
7.339087e+000 -2.456068e+000 -1.618500e+000 104 94 93
7.316425e+000 -2.244250e+000 -1.004765e+000 82 72 75
7.936532e+000 -2.590725e+000 -1.582624e+000 62 43 29
7.269195e+000 -2.701377e+000 -9.814660e-001 65 54 57
7.542389e+000 -2.496788e+000 -8.537519e-001 62 45 37
5.531189e+000 -3.455731e+000 -7.212114e-001 90 77 83
6.192910e+000 -2.816202e+000 -2.597998e-001 70 65 62
6.416339e+000 -2.744823e+000 -2.575011e-001 109 100 95
5.603193e+000 -3.476862e+000 -6.403296e-001 136 131 122
5.620829e+000 -3.477113e+000 -6.432138e-001 64 51 43
6.035710e+000 -2.991972e+000 -2.021213e-001 154 155 147
6.230287e+000 -2.881011e+000 -1.809407e-001 145 149 135
6.353047e+000 -2.805687e+000 -2.401910e-001 59 59 44
6.406976e+000 -2.805643e+000 -1.910035e-001 120 116 110
6.406284e+000 -2.807288e+000 -1.927516e-001 120 116 110
6.536288e+000 -2.778587e+000 -2.312618e-001 56 47 38
5.641416e+000 -3.546079e+000 -6.573910e-001 65 52 44
5.856886e+000 -3.216298e+000 -2.650780e-001 36 42 60
6.306052e+000 -2.857514e+000 -1.240777e-001 48 47 45
7.702827e+000 -2.717866e+000 -7.826828e-001 62 46 33
5.804201e+000 -3.282600e+000 -1.803228e-001 76 96 116
6.228321e+000 -2.940512e+000 -7.949627e-002 141 138 129
6.270388e+000 -2.934336e+000 -5.572246e-002 92 93 85
6.398625e+000 -2.841134e+000 -7.147491e-002 61 60 58
5.648476e+000 -3.530112e+000 -3.637252e-001 82 81 88
5.947186e+000 -3.246158e+000 -1.553619e-001 90 90 92
6.143489e+000 -3.108424e+000 -5.846886e-002 163 166 159
6.295951e+000 -2.940969e+000 -2.633779e-002 109 109 104
6.399067e+000 -2.922094e+000 -1.532118e-002 105 105 97
6.414868e+000 -2.918387e+000 -7.546954e-003 53 43 41
6.424082e+000 -2.929976e+000 4.706219e-004 100 94 86
6.434602e+000 -2.859449e+000 -9.507886e-003 79 70 61
6.448258e+000 -2.911774e+000 -2.248066e-002 39 34 29
5.906845e+000 -3.322007e+000 -1.152990e-001 251 253 254
5.909063e+000 -3.313587e+000 -1.080751e-001 251 253 254
6.372157e+000 -3.009672e+000 1.274652e-002 139 137 128
6.415236e+000 -2.972189e+000 4.517741e-003 128 122 110
6.517246e+000 -2.903361e+000 -1.856279e-002 88 79 72
7.948308e+000 -2.918700e+000 -8.662405e-001 60 46 33
7.945269e+000 -2.877762e+000 -8.343256e-001 100 87 71
6.498961e+000 -3.025818e+000 -7.136145e-003 108 99 93
8.139003e+000 -2.948668e+000 -7.978294e-001 126 120 108
6.377262e+000 -3.188455e+000 2.149400e-002 149 158 154
6.556833e+000 -3.093309e+000 -6.362763e-004 111 107 98
6.592104e+000 -3.071643e+000 -2.282552e-002 126 119 113
6.395854e+000 -3.263605e+000 4.711734e-002 62 53 48
6.538998e+000 -3.199886e+000 4.038907e-002 69 64 57
6.630245e+000 -3.164141e+000 8.604435e-003 98 90 77
6.629473e+000 -3.160469e+000 1.239419e-002 98 90 77
7.896652e+000 -3.246145e+000 -6.701363e-001 81 72 65
6.758388e+000 -3.287438e+000 4.242950e-003 59 51 38
7.937691e+000 -3.178700e+000 -5.454924e-001 71 54 46
6.722491e+000 -3.381179e+000 2.912464e-002 53 39 31
8.917822e+000 -3.123421e+000 -7.810765e-001 128 119 88
6.878424e+000 -4.124767e+000 5.786809e-002 142 114 103
6.940827e+000 -4.152462e+000 1.016485e-001 164 143 100
7.523493e+000 -2.262067e+000 -1.656134e+000 126 114 118
7.302329e+000 -2.581074e+000 -1.263693e+000 77 66 68
7.293630e+000 -2.465687e+000 -8.654911e-001 65 55 59
7.429562e+000 -2.415321e+000 -8.557521e-001 60 41 34
7.434925e+000 -2.436422e+000 -8.328207e-001 55 41 32
5.554894e+000 -3.407271e+000 -7.059963e-001 70 52 50
6.172928e+000 -2.809730e+000 -2.824070e-001 45 39 39
6.408805e+000 -2.716010e+000 -2.903292e-001 49 39 36
7.570488e+000 -2.478072e+000 -8.652292e-001 64 48 35
5.942303e+000 -2.980508e+000 -2.638520e-001 157 160 158
6.054276e+000 -2.892167e+000 -2.537420e-001 130 129 124
6.054276e+000 -2.892167e+000 -2.537420e-001 130 129 124
6.104802e+000 -2.873951e+000 -2.884938e-001 127 119 116
6.111652e+000 -2.896486e+000 -2.327314e-001 162 166 165
6.111670e+000 -2.896432e+000 -2.326789e-001 162 166 165
6.175492e+000 -2.839334e+000 -2.554762e-001 54 44 39
6.199605e+000 -2.843333e+000 -2.442685e-001 62 56 51
6.241629e+000 -2.837183e+000 -2.103033e-001 151 155 148
6.555510e+000 -2.709260e+000 -3.011882e-001 112 107 101
6.639240e+000 -2.706108e+000 -3.968373e-001 68 54 43
6.014547e+000 -3.031807e+000 -2.110471e-001 130 130 118
6.173819e+000 -2.884947e+000 -1.858022e-001 146 149 140
6.174319e+000 -2.884471e+000 -1.850079e-001 146 149 140
6.155370e+000 -2.945223e+000 -2.030638e-001 65 54 51
6.200994e+000 -2.901357e+000 -1.653568e-001 66 63 56
6.268938e+000 -2.858048e+000 -1.606094e-001 147 150 142
6.519080e+000 -2.783162e+000 -2.244033e-001 112 108 100
7.269791e+000 -2.860574e+000 -9.417075e-001 52 40 42
7.664027e+000 -2.573522e+000 -8.157953e-001 71 53 40
7.680555e+000 -2.631276e+000 -8.038361e-001 70 53 41
7.680555e+000 -2.631276e+000 -8.038361e-001 70 53 41
5.624382e+000 -3.575013e+000 -6.499318e-001 69 58 52
6.222942e+000 -2.911783e+000 -1.395743e-001 84 80 71
6.223088e+000 -2.908178e+000 -1.350360e-001 84 80 71
6.356099e+000 -2.857325e+000 -1.443520e-001 100 104 102
7.331892e+000 -2.750952e+000 -6.406815e-001 83 72 64
7.514046e+000 -2.753031e+000 -8.064532e-001 60 46 36
7.651525e+000 -2.681732e+000 -7.935112e-001 67 53 40
5.562852e+000 -3.594345e+000 -4.601585e-001 91 88 106
6.109996e+000 -3.050678e+000 -1.476589e-001 121 120 112
6.566100e+000 -2.824112e+000 -1.615059e-001 40 25 20
7.274841e+000 -2.862726e+000 -5.987107e-001 82 69 63
6.244262e+000 -3.014866e+000 -2.505020e-002 158 170 163
6.859690e+000 -2.975210e+000 -3.204731e-001 31 17 14
7.252684e+000 -2.945602e+000 -6.050211e-001 44 36 32
7.713376e+000 -2.822675e+000 -7.122832e-001 66 48 42
7.765436e+000 -2.773741e+000 -7.464963e-001 88 71 61
5.831857e+000 -3.370291e+000 -9.637920e-002 79 86 103
5.920265e+000 -3.298570e+000 -6.148149e-002 44 45 49
6.044895e+000 -3.222126e+000 -8.302501e-002 139 139 134
6.529656e+000 -2.924014e+000 -2.112363e-002 44 31 25
7.649127e+000 -2.867154e+000 -6.420448e-001 90 78 64
7.667594e+000 -2.858275e+000 -6.255325e-001 58 44 33
7.740387e+000 -2.905133e+000 -7.303808e-001 57 43 30
7.740387e+000 -2.905133e+000 -7.303808e-001 57 43 30
5.888653e+000 -3.339624e+000 -5.079534e-002 26 31 37
6.242337e+000 -3.188007e+000 -1.690560e-002 95 95 84
6.375078e+000 -3.103452e+000 3.030240e-002 143 143 133
7.321643e+000 -3.220716e+000 -7.200344e-001 38 27 25
6.310271e+000 -3.210060e+000 1.162396e-002 168 169 164
6.403543e+000 -3.184621e+000 2.102492e-002 136 139 132
6.447582e+000 -3.139056e+000 2.850238e-002 82 75 66
6.666093e+000 -3.061437e+000 -3.401796e-002 42 30 24
6.666626e+000 -3.063360e+000 -3.657835e-002 42 30 24
7.355623e+000 -3.298801e+000 -7.161273e-001 41 28 22
7.648371e+000 -3.057107e+000 -5.695508e-001 51 41 32
6.569131e+000 -3.197186e+000 3.516687e-002 106 105 93
6.675955e+000 -3.139381e+000 -2.564026e-002 100 97 85
7.657915e+000 -3.225920e+000 -5.819677e-001 47 33 30
7.899163e+000 -3.175537e+000 -6.156525e-001 70 52 47
8.067055e+000 -3.174143e+000 -6.411140e-001 126 113 105
6.570397e+000 -3.341408e+000 6.815403e-002 58 49 42
7.890724e+000 -3.384341e+000 -7.114878e-001 64 51 49
7.890472e+000 -3.435118e+000 -6.858263e-001 69 59 54
7.961588e+000 -3.172529e+000 -5.078428e-001 102 85 69
7.895303e+000 -3.254473e+000 -4.735473e-001 124 108 111
6.120199e+000 -3.652090e+000 2.041080e-001 32 22 30
7.958600e+000 -3.275776e+000 -3.276598e-001 157 165 170
6.087059e+000 -3.766141e+000 3.634841e-001 34 17 25
7.530689e+000 -2.299156e+000 -1.789934e+000 81 68 63
7.304761e+000 -2.598690e+000 -1.071227e+000 45 35 37
7.328515e+000 -2.497378e+000 -9.145101e-001 96 91 97
7.365053e+000 -2.376113e+000 -8.554470e-001 66 48 41
7.356286e+000 -2.489780e+000 -9.323332e-001 68 50 49
7.370747e+000 -2.467846e+000 -8.242172e-001 88 73 68
7.413796e+000 -2.444274e+000 -8.595888e-001 85 72 64
7.493745e+000 -2.460390e+000 -8.386450e-001 65 51 38
7.492680e+000 -2.458546e+000 -8.354944e-001 65 51 38
7.650728e+000 -2.403673e+000 -9.193018e-001 70 52 42
6.042957e+000 -2.859557e+000 -2.927686e-001 111 103 101
6.133422e+000 -2.832341e+000 -2.548280e-001 54 44 42
6.130803e+000 -2.850565e+000 -2.790910e-001 54 44 42
7.200049e+000 -2.783682e+000 -9.881069e-001 43 29 30
7.405030e+000 -2.510459e+000 -8.013949e-001 62 47 42
6.011335e+000 -2.964759e+000 -2.360056e-001 72 64 58
6.093951e+000 -2.917920e+000 -2.331545e-001 50 41 37
6.159976e+000 -2.864775e+000 -2.202231e-001 68 62 58
6.159976e+000 -2.864775e+000 -2.202231e-001 68 62 58
6.331393e+000 -2.796517e+000 -2.337721e-001 62 57 48
6.637232e+000 -2.692710e+000 -2.992070e-001 67 50 45
6.504963e+000 -2.792728e+000 -2.164210e-001 56 47 38
5.929797e+000 -3.116031e+000 -2.590928e-001 42 34 40
6.298161e+000 -2.858221e+000 -1.497231e-001 128 133 127
6.446540e+000 -2.820502e+000 -1.892691e-001 94 90 87
6.446540e+000 -2.820502e+000 -1.892691e-001 94 90 87
6.631943e+000 -2.822251e+000 -2.450654e-001 64 46 32
7.478140e+000 -2.747964e+000 -7.070509e-001 87 76 67
7.502005e+000 -2.671889e+000 -7.053408e-001 95 83 67
6.133640e+000 -3.011918e+000 -1.233433e-001 85 85 77
6.545091e+000 -2.827703e+000 -1.384821e-001 61 46 39
6.545210e+000 -2.832144e+000 -1.438723e-001 61 46 39
5.933456e+000 -3.277813e+000 -1.588320e-001 118 116 117
6.031388e+000 -3.178443e+000 -1.318731e-001 73 69 66
6.144279e+000 -3.070643e+000 -8.652728e-002 155 152 147
6.138302e+000 -3.097273e+000 -7.710662e-002 101 98 89
6.170424e+000 -3.071059e+000 -5.101050e-002 84 82 79
6.346038e+000 -2.910872e+000 -1.548442e-002 89 87 80
6.449346e+000 -2.871526e+000 -3.243890e-002 135 131 117
7.283044e+000 -2.966542e+000 -6.278808e-001 75 61 58
7.398311e+000 -2.923500e+000 -6.004228e-001 62 48 45
5.729003e+000 -3.546785e+000 -2.946990e-001 129 128 124
6.100199e+000 -3.160474e+000 -6.652021e-002 76 63 63
6.173708e+000 -3.143993e+000 -3.123110e-002 161 158 151
6.237081e+000 -3.059630e+000 -1.785061e-002 147 148 140
5.788021e+000 -3.438242e+000 -1.036717e-001 53 57 63
5.827874e+000 -3.389131e+000 -6.589639e-002 248 254 254
5.939090e+000 -3.328783e+000 -7.041857e-002 203 251 255
5.944919e+000 -3.304460e+000 -4.865877e-002 203 251 255
6.247799e+000 -3.206614e+000 -8.813258e-003 123 122 119
6.480824e+000 -3.060174e+000 -1.229820e-002 125 120 110
7.271193e+000 -3.253386e+000 -7.067608e-001 31 25 21
6.534024e+000 -3.112449e+000 5.962646e-003 127 124 119
6.533759e+000 -3.123748e+000 -5.950805e-003 127 124 119
7.037877e+000 -3.392198e+000 -6.358980e-001 79 60 46
7.491715e+000 -3.107427e+000 -5.625750e-001 58 45 36
7.607537e+000 -3.197143e+000 -6.558955e-001 88 77 73
7.577995e+000 -3.039822e+000 -5.367711e-001 62 53 44
7.565857e+000 -3.176332e+000 -5.873067e-001 54 43 37
7.748170e+000 -3.125349e+000 -6.150095e-001 95 82 75
6.629034e+000 -3.192040e+000 1.524099e-002 51 41 39
7.891839e+000 -3.205160e+000 -5.373829e-001 157 188 193
7.918302e+000 -3.239221e+000 -5.401793e-001 107 99 90
6.754504e+000 -3.362004e+000 -4.607016e-003 57 45 31
7.540106e+000 -3.802047e+000 -8.422183e-001 53 36 31
7.909312e+000 -3.531182e+000 -6.634451e-001 89 84 81
7.141233e+000 -3.765600e+000 -4.588453e-001 166 147 96
7.891956e+000 -3.393775e+000 -4.312653e-001 115 105 103
7.918451e+000 -3.326653e+000 -3.681599e-001 128 113 107
8.005763e+000 -3.171091e+000 -3.365469e-001 97 90 80
7.905656e+000 -3.404352e+000 -3.743564e-001 108 101 90
7.933407e+000 -3.372104e+000 -3.473277e-001 110 102 99
8.033289e+000 -3.185373e+000 -2.531024e-001 185 201 214
8.035143e+000 -3.241317e+000 -2.403265e-001 161 168 175
7.979711e+000 -3.597840e+000 -4.095046e-001 133 124 115
5.732555e+000 -2.519840e+000 -3.640825e-001 43 25 37
7.319040e+000 -2.474299e+000 -1.617773e+000 71 53 53
7.336956e+000 -2.432191e+000 -1.512007e+000 117 107 115
7.303710e+000 -2.477495e+000 -1.496077e+000 112 99 110
7.340147e+000 -2.262043e+000 -9.650296e-001 136 134 135
6.122630e+000 -2.801392e+000 -3.036256e-001 45 35 34
6.221455e+000 -2.722196e+000 -2.094713e-001 104 99 95
6.421363e+000 -2.704347e+000 -2.943412e-001 117 114 99
6.421363e+000 -2.704347e+000 -2.943412e-001 117 114 99
5.648145e+000 -3.310108e+000 -5.958880e-001 120 117 110
5.988788e+000 -2.961480e+000 -2.802777e-001 123 120 113
6.390648e+000 -2.741093e+000 -2.079878e-001 116 113 106
5.604485e+000 -3.547866e+000 -6.514760e-001 152 144 141
6.318235e+000 -2.849181e+000 -1.802768e-001 72 60 56
6.318235e+000 -2.849181e+000 -1.802768e-001 72 60 56
6.610250e+000 -2.763417e+000 -2.449536e-001 41 21 22
7.608299e+000 -2.656058e+000 -7.722004e-001 91 75 62
8.813854e+000 -2.292115e+000 -9.447534e-001 151 139 89
6.530857e+000 -2.840902e+000 -1.014907e-001 39 25 22
6.838365e+000 -2.935964e+000 -4.156731e-001 34 22 26
5.739745e+000 -3.447326e+000 -2.785998e-001 116 114 117
5.856424e+000 -3.258180e+000 -1.560118e-001 49 44 51
6.037550e+000 -3.185580e+000 -1.014568e-001 139 135 132
6.040330e+000 -3.182869e+000 -9.995952e-002 139 135 132
6.230165e+000 -3.038503e+000 -2.730333e-002 57 56 53
6.513424e+000 -2.881212e+000 -7.262144e-002 42 28 26
6.133401e+000 -3.150064e+000 -6.572642e-002 56 46 44
6.301721e+000 -3.035154e+000 -1.122641e-002 100 97 92
6.301721e+000 -3.035154e+000 -1.122641e-002 100 97 92
6.492923e+000 -2.936680e+000 -3.563864e-003 55 41 38
5.857708e+000 -3.374145e+000 -2.856003e-002 30 34 45
6.512406e+000 -3.046902e+000 8.431124e-004 55 47 44
6.512352e+000 -3.046373e+000 1.405575e-003 55 47 44
6.381954e+000 -3.167990e+000 7.452260e-003 85 77 70
6.381824e+000 -3.169807e+000 5.709796e-003 85 77 70
6.570607e+000 -3.112011e+000 1.410862e-002 39 34 29
6.506495e+000 -3.174737e+000 9.919120e-003 49 40 35
6.802614e+000 -3.117765e+000 -5.874912e-002 62 46 37
7.196475e+000 -3.764910e+000 -8.168929e-001 77 50 41
7.615717e+000 -3.326302e+000 -6.143407e-001 78 63 58
6.367501e+000 -3.433518e+000 6.871284e-002 35 25 26
6.635941e+000 -3.308777e+000 4.390330e-002 95 91 81
7.917478e+000 -3.427574e+000 -7.210962e-001 99 92 86
7.916937e+000 -3.261101e+000 -5.238617e-001 187 221 230
6.260986e+000 -3.425342e+000 2.517690e-001 34 22 26
6.572269e+000 -3.443188e+000 8.716838e-002 35 25 26
7.901058e+000 -3.479515e+000 -4.941031e-001 142 138 137
8.043283e+000 -3.166468e+000 -2.711194e-001 100 92 85
8.046638e+000 -3.251648e+000 -2.173533e-001 114 99 97
5.841483e+000 -2.369998e+000 -3.671878e-001 23 16 23
5.632901e+000 -2.699234e+000 -4.088058e-001 102 98 123
6.390595e+000 -2.647140e+000 -3.435674e-001 29 20 18
7.258333e+000 -2.764238e+000 -1.141529e+000 32 17 20
6.619135e+000 -2.655677e+000 -3.811202e-001 69 52 42
6.650764e+000 -2.677472e+000 -4.494360e-001 30 16 13
6.074039e+000 -2.887304e+000 -2.886068e-001 63 55 52
7.274261e+000 -2.742302e+000 -9.155208e-001 33 20 20
7.924112e+000 -2.581593e+000 -9.707563e-001 100 84 63
5.591282e+000 -3.559704e+000 -5.612209e-001 133 130 123
6.378280e+000 -2.830922e+000 -1.652407e-001 41 33 30
7.353748e+000 -2.738874e+000 -6.501199e-001 87 77 67
6.603343e+000 -2.814238e+000 -1.731961e-001 72 54 42
8.931702e+000 -2.142782e+000 -7.446642e-001 160 150 102
8.931702e+000 -2.142782e+000 -7.446642e-001 160 150 102
6.093832e+000 -3.137647e+000 -8.708611e-002 144 143 138
6.264553e+000 -2.970112e+000 -2.844003e-002 93 92 85
6.437756e+000 -2.912060e+000 -1.681870e-002 53 47 43
6.545498e+000 -2.891443e+000 -5.283435e-002 76 61 54
6.745835e+000 -2.996021e+000 -1.799447e-001 25 13 13
6.279483e+000 -3.180589e+000 -4.939701e-003 91 88 79
6.269537e+000 -3.234688e+000 -1.294873e-002 127 130 123
8.301795e+000 -3.156160e+000 -1.015908e+000 51 36 23
6.758521e+000 -3.146501e+000 -3.510927e-002 50 35 34
6.301563e+000 -3.369598e+000 2.680885e-002 39 29 29
6.394393e+000 -3.322541e+000 5.395458e-002 44 32 28
6.810189e+000 -3.326941e+000 -2.368247e-002 44 29 23
7.573839e+000 -4.016825e+000 -1.022254e+000 169 151 104
7.894054e+000 -3.853499e+000 -6.993165e-001 44 33 31
7.971317e+000 -3.269655e+000 -3.143445e-001 154 163 167
6.881125e+000 -4.214431e+000 3.816536e-002 157 137 84
7.342917e+000 -2.701467e+000 -7.766553e-001 83 77 71
5.906085e+000 -3.434502e+000 -1.314154e-002 29 24 31
6.209583e+000 -3.323144e+000 -2.487359e-002 37 31 31
6.178703e+000 -3.438902e+000 1.721348e-001 38 23 28
6.423437e+000 -3.571199e+000 1.876162e-001 44 31 31
5.924369e+000 -3.812509e+000 3.053774e-001 76 63 73
6.187350e+000 -2.205169e+000 -2.704896e-001 68 51 59
7.339637e+000 -2.185493e+000 -1.015147e+000 141 140 146
6.334715e+000 -2.280829e+000 -2.127640e-001 54 39 42
5.844023e+000 -2.986324e+000 -3.068837e-001 161 161 159
6.357405e+000 -2.963603e+000 -5.021727e-003 63 52 48
5.963389e+000 -3.292909e+000 -9.692014e-002 37 33 37
6.513645e+000 -2.940605e+000 -8.432381e-003 58 47 41
6.102137e+000 -3.242180e+000 -6.988690e-002 126 128 125
6.919909e+000 -4.041215e+000 -8.174701e-002 60 32 28
6.167460e+000 -4.120996e+000 3.016237e-001 65 44 52
6.600559e+000 -2.712892e+000 -2.902825e-001 71 57 44
6.079637e+000 -3.679483e+000 2.874094e-001 25 15 23
7.399176e+000 -2.483483e+000 -8.815664e-001 65 50 47
7.785570e+000 -3.191216e+000 -5.954508e-001 59 49 47
6.242606e+000 -2.304282e+000 -2.859538e-001 35 24 30
7.240352e+000 -2.716668e+000 -1.036068e+000 28 13 16
5.972805e+000 -3.142204e+000 -2.213317e-001 41 32 40
5.975170e+000 -3.136000e+000 -2.155287e-001 41 32 40
7.383226e+000 -2.823579e+000 -6.136705e-001 61 48 42
7.187397e+000 -3.398047e+000 -8.118442e-001 84 74 62
7.986971e+000 -3.171274e+000 -6.788512e-001 35 24 21
7.560506e+000 -2.556986e+000 -8.053318e-001 61 44 38
7.561485e+000 -2.558201e+000 -8.073683e-001 61 44 38
7.778147e+000 -2.520929e+000 -9.031420e-001 96 78 54
5.833822e+000 -3.006047e+000 -9.060908e-002 80 74 74
7.542354e+000 -2.783122e+000 -6.086338e-001 89 77 63
6.871070e+000 -4.083454e+000 1.975753e-002 60 34 29
6.870678e+000 -4.439189e+000 1.048403e-002 161 138 86
8.448141e+000 -3.295831e+000 -1.093395e+000 68 55 42
8.448141e+000 -3.295831e+000 -1.093395e+000 68 55 42
7.828823e+000 -3.795162e+000 -7.143893e-001 52 42 40
8.895360e+000 -3.953705e+000 -6.706783e-001 168 152 104
5.975683e+000 -2.360926e+000 -5.397956e-001 68 58 67
5.819352e+000 -3.383618e+000 -1.502813e-001 105 102 119
6.307642e+000 -3.016995e+000 -9.292002e-004 93 90 83
6.405557e+000 -2.988212e+000 1.279312e-002 95 91 83
7.525618e+000 -3.016533e+000 -5.785103e-001 85 74 70
8.159082e+000 -3.001876e+000 -9.697626e-001 70 59 53
6.524249e+000 -3.260873e+000 8.152635e-002 106 104 92
6.554547e+000 -3.239816e+000 1.103793e-001 66 59 53
7.151544e+000 -3.692966e+000 -4.303050e-001 130 108 68
6.328336e+000 -2.694470e+000 -2.933247e-001 94 84 83
5.940375e+000 -3.025142e+000 -2.585788e-001 91 90 88
5.964900e+000 -2.957613e+000 -2.780906e-001 91 83 81
6.118185e+000 -2.892320e+000 -2.837268e-001 116 110 107
6.454076e+000 -2.753653e+000 -2.310956e-001 51 49 51
6.493587e+000 -2.761979e+000 -2.425781e-001 85 78 73
6.192016e+000 -2.938526e+000 -1.076562e-001 121 125 118
6.337720e+000 -2.865200e+000 -1.424255e-001 41 37 41
6.337044e+000 -2.878673e+000 -1.561745e-001 41 37 41
7.806221e+000 -2.650354e+000 -8.786301e-001 61 43 33
7.932712e+000 -2.665770e+000 -9.880678e-001 99 82 65
5.629686e+000 -3.578111e+000 -3.445233e-001 133 128 132
5.629686e+000 -3.578111e+000 -3.445233e-001 133 128 132
