ply
format ascii 1.0
element face 0
property list uchar int vertex_indices
element vertex 888
property float x
property float y
property float z
property uchar diffuse_red
property uchar diffuse_green
property uchar diffuse_blue
end_header
6.276907e+000 -2.783595e+000 -2.323017e-001 61 55 49
6.421830e+000 -2.760004e+000 -2.433415e-001 52 40 34
5.986081e+000 -2.922539e+000 -3.120378e-001 116 113 108
6.176981e+000 -2.857171e+000 -2.347975e-001 127 124 115
6.529188e+000 -2.814702e+000 -1.892412e-001 39 26 20
7.291343e+000 -2.779245e+000 -6.397306e-001 91 83 80
7.476056e+000 -2.733679e+000 -7.117986e-001 85 68 60
7.538160e+000 -2.700730e+000 -7.144880e-001 78 62 47
6.062393e+000 -2.982450e+000 -1.700771e-001 149 146 137
6.184876e+000 -2.919696e+000 -1.615757e-001 162 162 153
6.463029e+000 -2.851157e+000 -5.883327e-002 69 51 40
7.297537e+000 -2.926418e+000 -6.730197e-001 53 38 35
7.549574e+000 -2.890041e+000 -6.328752e-001 66 54 40
7.845253e+000 -2.825023e+000 -8.043766e-001 90 72 54
6.484279e+000 -3.000446e+000 -7.165519e-003 57 43 34
6.702404e+000 -2.948269e+000 -1.166163e-001 84 62 52
7.461128e+000 -2.944247e+000 -5.887239e-001 59 46 40
7.461704e+000 -2.944865e+000 -5.893606e-001 59 46 40
6.025898e+000 -3.199217e+000 -1.198457e-001 161 158 153
6.096959e+000 -3.172609e+000 -7.923008e-002 79 71 68
6.097741e+000 -3.171791e+000 -7.738738e-002 79 71 68
6.642027e+000 -3.048936e+000 -2.259861e-002 46 35 31
7.558463e+000 -3.050642e+000 -5.678179e-001 89 74 67
5.861321e+000 -3.306367e+000 -1.469418e-001 109 126 135
6.156585e+000 -3.224679e+000 -5.754303e-002 155 155 145
6.485609e+000 -3.094280e+000 -4.043443e-004 116 117 112
6.529954e+000 -3.115067e+000 9.289180e-003 119 115 106
7.735809e+000 -3.074253e+000 -6.233000e-001 88 75 67
7.735809e+000 -3.074253e+000 -6.233000e-001 88 75 67
6.647847e+000 -3.202746e+000 1.375501e-002 86 79 69
6.156570e+000 -3.331352e+000 -6.131693e-002 61 44 44
7.264169e+000 -3.413167e+000 -6.449566e-001 39 24 19
6.569190e+000 -3.393365e+000 6.352745e-002 48 39 34
7.999115e+000 -3.267512e+000 -2.904172e-001 118 115 110
8.045514e+000 -3.250096e+000 -2.579257e-001 183 202 209
6.537260e+000 -3.440679e+000 8.045549e-002 92 78 75
7.894862e+000 -3.435437e+000 -4.014192e-001 109 97 91
7.894862e+000 -3.435437e+000 -4.014192e-001 109 97 91
7.935191e+000 -3.372425e+000 -3.457700e-001 118 112 108
7.585098e+000 -3.725810e+000 -7.451811e-001 51 35 33
7.545971e+000 -3.990696e+000 -1.031491e+000 75 59 38
7.573070e+000 -3.983743e+000 -1.012687e+000 149 125 89
7.569068e+000 -3.975771e+000 -9.898459e-001 149 125 89
7.764864e+000 -3.771306e+000 -6.643429e-001 46 32 29
6.166552e+000 -3.858102e+000 4.131024e-001 40 25 37
9.192337e+000 -3.884152e+000 -1.751868e-001 152 143 98
6.891641e+000 -2.351761e+000 -8.830480e-001 168 134 105
6.521927e+000 -2.773963e+000 -2.169328e-001 133 131 119
6.231568e+000 -2.856747e+000 -1.974636e-001 81 77 69
6.154840e+000 -2.954663e+000 -1.434236e-001 81 74 63
6.652480e+000 -2.896748e+000 -1.407451e-001 75 53 46
6.311203e+000 -3.024010e+000 6.589487e-004 100 95 87
6.683355e+000 -2.964816e+000 -7.552854e-002 53 36 26
6.171613e+000 -3.147331e+000 -3.626003e-002 152 155 144
6.355374e+000 -3.050713e+000 2.515368e-002 72 67 56
7.493194e+000 -3.108438e+000 -5.694678e-001 61 45 42
6.244337e+000 -3.335652e+000 -3.394813e-002 91 90 85
7.416211e+000 -3.355531e+000 -6.473261e-001 28 15 13
7.894174e+000 -3.291359e+000 -4.568742e-001 181 202 205
7.891820e+000 -3.289757e+000 -4.515189e-001 181 202 205
6.482924e+000 -3.410277e+000 6.978029e-002 124 119 115
7.888694e+000 -3.416460e+000 -4.236574e-001 155 168 172
7.888694e+000 -3.416460e+000 -4.236574e-001 155 168 172
7.317839e+000 -3.773640e+000 -7.789906e-001 97 74 58
7.874334e+000 -3.503230e+000 -4.457530e-001 149 150 149
6.470190e+000 -2.725176e+000 -2.785623e-001 67 54 48
6.350858e+000 -2.777535e+000 -2.327025e-001 75 66 59
6.348684e+000 -2.784241e+000 -2.637100e-001 75 66 59
6.243969e+000 -2.880462e+000 -1.446389e-001 121 122 114
6.383580e+000 -2.829405e+000 -1.540062e-001 66 54 50
6.083552e+000 -2.982743e+000 -1.756702e-001 135 135 125
6.198969e+000 -2.962895e+000 -1.127290e-001 126 124 112
7.594237e+000 -2.894339e+000 -6.430146e-001 87 70 60
6.356408e+000 -2.980128e+000 7.027963e-003 56 43 35
6.743069e+000 -3.000399e+000 -1.178315e-001 75 54 39
6.235842e+000 -3.075724e+000 -1.582198e-002 150 153 144
6.706985e+000 -3.049066e+000 -5.167225e-002 40 26 23
6.111000e+000 -3.199327e+000 -6.538093e-002 149 154 147
8.384358e+000 -3.146116e+000 -1.148531e+000 80 63 47
5.956770e+000 -3.293987e+000 -1.001614e-001 50 42 46
6.198910e+000 -3.230921e+000 -4.425068e-002 73 64 59
6.671393e+000 -3.226075e+000 1.415440e-002 54 40 37
6.674730e+000 -3.466919e+000 4.899974e-002 75 56 40
6.314859e+000 -3.549762e+000 2.719179e-001 58 43 47
6.257950e+000 -3.122044e+000 5.461991e-003 154 154 144
7.445384e+000 -3.120989e+000 -5.777731e-001 70 52 48
6.197684e+000 -3.348752e+000 -5.325598e-002 37 28 30
8.383913e+000 -3.230151e+000 -3.486057e-001 124 115 103
6.503511e+000 -3.454854e+000 1.474056e-001 35 24 22
6.503511e+000 -3.454854e+000 1.474056e-001 35 24 22
7.832416e+000 -2.848308e+000 -7.608307e-001 93 74 57
6.108898e+000 -2.441883e+000 -2.282998e-001 28 17 23
6.688189e+000 -2.765890e+000 -5.381346e-001 25 11 18
6.323861e+000 -2.880721e+000 -8.875404e-002 20 18 23
6.420928e+000 -2.857823e+000 -7.985727e-002 89 85 76
6.503752e+000 -2.839018e+000 -7.955813e-002 55 35 28
6.043225e+000 -3.151674e+000 -1.306092e-001 136 135 131
8.080586e+000 -2.977713e+000 -8.879996e-001 50 36 35
6.654456e+000 -3.532189e+000 7.948020e-002 23 13 14
7.877394e+000 -3.793343e+000 -5.664033e-001 116 101 96
6.937562e+000 -4.002118e+000 -4.007309e-001 65 38 28
6.229635e+000 -2.835908e+000 -2.231720e-001 131 131 124
6.619270e+000 -3.666234e+000 1.727358e-001 27 18 19
7.664550e+000 -3.416620e+000 -6.103082e-001 85 71 69
7.428999e+000 -3.266741e+000 -6.501915e-001 42 31 27
8.155727e+000 -3.151881e+000 -1.228249e+000 71 54 47
6.019856e+000 -2.392382e+000 -2.547953e-001 62 49 56
7.294633e+000 -2.379947e+000 -9.723088e-001 60 49 51
7.294633e+000 -2.379947e+000 -9.723088e-001 60 49 51
5.965435e+000 -2.576332e+000 -1.366228e-001 38 23 30
7.015852e+000 -2.542027e+000 -1.021951e+000 155 131 93
7.015852e+000 -2.542027e+000 -1.021951e+000 155 131 93
7.007868e+000 -2.555246e+000 -9.419307e-001 160 136 99
7.018753e+000 -2.544019e+000 -8.988258e-001 89 64 34
6.147621e+000 -2.852067e+000 -2.622126e-001 107 104 99
6.190226e+000 -2.827747e+000 -2.998539e-001 79 72 62
6.414506e+000 -2.745757e+000 -2.672492e-001 87 78 71
5.820990e+000 -3.027340e+000 -3.940183e-001 153 151 152
5.874837e+000 -3.031797e+000 -3.729621e-001 127 123 120
5.936349e+000 -2.986695e+000 -2.776493e-001 150 149 144
5.954204e+000 -2.977282e+000 -2.904841e-001 135 135 127
6.042011e+000 -2.914962e+000 -2.092676e-001 133 130 121
6.024838e+000 -2.950723e+000 -2.507600e-001 126 122 113
6.024838e+000 -2.950723e+000 -2.507600e-001 126 122 113
6.257194e+000 -2.854538e+000 -2.215994e-001 131 127 118
6.337200e+000 -2.814984e+000 -2.137637e-001 77 73 64
6.359189e+000 -2.830161e+000 -2.523631e-001 72 69 60
7.244438e+000 -2.762646e+000 -6.514552e-001 76 71 65
5.709177e+000 -3.188778e+000 -5.350817e-001 137 133 129
6.236151e+000 -2.897944e+000 -1.523413e-001 136 136 128
6.276361e+000 -2.870636e+000 -9.354445e-002 111 108 99
5.983044e+000 -3.079595e+000 -2.153700e-001 118 114 109
5.983044e+000 -3.079595e+000 -2.153700e-001 118 114 109
6.270261e+000 -2.923005e+000 -4.410240e-002 105 105 100
6.301929e+000 -2.943879e+000 -2.878066e-002 147 144 135
6.454801e+000 -2.849481e+000 -2.017511e-002 96 88 76
5.624502e+000 -3.431150e+000 -6.020615e-001 83 68 67
6.054450e+000 -3.146336e+000 -1.267669e-001 143 142 137
6.244139e+000 -3.086180e+000 1.081994e-003 139 139 131
6.477612e+000 -2.985820e+000 1.696885e-002 57 48 41
6.180570e+000 -3.158784e+000 -6.123882e-003 133 131 122
6.185100e+000 -3.162745e+000 1.490362e-002 107 102 93
6.201698e+000 -3.178414e+000 -2.934623e-002 105 104 92
6.357420e+000 -3.065062e+000 3.563418e-002 82 82 74
6.357898e+000 -3.099151e+000 1.102763e-002 93 92 80
5.909429e+000 -3.310055e+000 -9.843280e-002 209 241 244
5.899864e+000 -3.325222e+000 -6.633990e-002 49 43 53
6.023544e+000 -3.261723e+000 -9.376827e-002 70 69 65
6.095535e+000 -3.224329e+000 -5.400757e-002 101 98 93
6.302758e+000 -3.155925e+000 -4.704256e-003 96 96 87
5.897649e+000 -3.335784e+000 -3.922305e-002 105 106 124
6.237200e+000 -3.259392e+000 -1.948360e-002 83 83 72
6.237200e+000 -3.259392e+000 -1.948360e-002 83 83 72
6.390728e+000 -3.183910e+000 5.211646e-002 102 101 97
6.445558e+000 -3.240240e+000 9.729185e-003 74 67 59
6.258899e+000 -3.357347e+000 -1.740515e-002 93 84 85
6.429258e+000 -3.378177e+000 1.142447e-001 71 66 62
5.768984e+000 -3.673242e+000 2.933889e-001 89 72 80
5.881451e+000 -3.649692e+000 3.150390e-001 34 27 35
7.295893e+000 -2.212645e+000 -1.031072e+000 161 138 106
5.994785e+000 -2.546853e+000 -1.433014e-001 28 18 26
7.300824e+000 -2.433042e+000 -1.005277e+000 57 47 46
7.308644e+000 -2.388600e+000 -9.730767e-001 101 89 90
7.055084e+000 -2.538474e+000 -9.463226e-001 159 139 107
6.145411e+000 -2.829266e+000 -2.832157e-001 91 83 81
6.108246e+000 -2.857735e+000 -3.071974e-001 55 50 47
6.196081e+000 -2.843954e+000 -2.556104e-001 73 72 62
6.197140e+000 -2.840143e+000 -2.439415e-001 73 72 62
6.197830e+000 -2.829330e+000 -2.605947e-001 127 124 115
6.197830e+000 -2.829330e+000 -2.605947e-001 127 124 115
5.912958e+000 -2.984169e+000 -3.539621e-001 138 134 123
6.088138e+000 -2.926507e+000 -2.047739e-001 106 102 93
6.118344e+000 -2.880294e+000 -2.433108e-001 71 68 61
6.223061e+000 -2.882674e+000 -1.999837e-001 134 134 124
5.810638e+000 -3.080644e+000 -3.518841e-001 101 96 91
5.880614e+000 -3.029479e+000 -3.267589e-001 161 162 157
5.666809e+000 -3.243734e+000 -5.932198e-001 135 127 124
6.298383e+000 -2.921280e+000 -9.231189e-003 116 117 109
6.266969e+000 -2.985999e+000 -7.423743e-003 139 139 132
5.945459e+000 -3.211212e+000 -2.376045e-001 64 59 63
5.975581e+000 -3.183785e+000 -1.826456e-001 129 127 128
6.290766e+000 -3.058848e+000 7.787890e-003 123 123 113
6.315878e+000 -3.067200e+000 7.284733e-003 101 101 91
7.304374e+000 -2.980693e+000 -4.779404e-001 48 33 28
5.714195e+000 -3.356727e+000 -2.233237e-001 160 185 208
5.848923e+000 -3.291659e+000 -1.473708e-001 128 143 148
6.046429e+000 -3.225881e+000 -1.056717e-001 63 52 48
6.295966e+000 -3.118698e+000 1.000095e-002 95 97 84
5.887226e+000 -3.321600e+000 -1.207696e-001 50 49 59
5.932069e+000 -3.322122e+000 -4.704983e-002 60 59 68
5.964302e+000 -3.319895e+000 -1.276830e-001 43 34 39
6.471241e+000 -3.131374e+000 5.225515e-002 83 75 64
6.732708e+000 -3.096197e+000 -2.899933e-002 86 76 66
5.699470e+000 -3.457088e+000 -2.035975e-001 117 129 144
5.885625e+000 -3.352898e+000 -4.279990e-002 99 104 123
5.900969e+000 -3.370153e+000 1.964229e-002 62 53 66
6.351362e+000 -3.284342e+000 2.828010e-002 98 94 85
6.445876e+000 -3.223202e+000 7.666747e-002 93 88 79
6.569215e+000 -3.243941e+000 5.222886e-002 126 126 121
6.569215e+000 -3.243941e+000 5.222886e-002 126 126 121
6.035354e+000 -3.351881e+000 2.582360e-001 71 58 65
6.619423e+000 -3.302090e+000 7.010493e-002 61 54 49
5.881200e+000 -3.470647e+000 2.417707e-001 94 81 90
6.155600e+000 -3.432635e+000 2.089305e-001 77 68 73
5.790251e+000 -3.575570e+000 2.544290e-001 99 83 93
6.355601e+000 -3.499004e+000 1.834985e-001 93 80 87
6.650299e+000 -3.550540e+000 2.213703e-001 46 36 27
6.699330e+000 -3.536146e+000 2.454065e-001 70 59 41
6.053049e+000 -3.651325e+000 3.693344e-001 51 40 46
6.121311e+000 -3.786268e+000 3.231377e-001 67 61 66
6.121311e+000 -3.786268e+000 3.231377e-001 67 61 66
6.178196e+000 -3.680038e+000 3.722730e-001 65 54 59
6.178196e+000 -3.680038e+000 3.722730e-001 65 54 59
5.853267e+000 -3.932347e+000 3.286803e-001 68 49 58
7.363835e+000 -2.265416e+000 -9.312004e-001 106 97 92
5.795067e+000 -2.589115e+000 -2.022380e-001 86 72 85
5.830083e+000 -2.579663e+000 -2.222394e-001 51 35 45
5.942623e+000 -2.545043e+000 -1.736605e-001 39 28 36
6.850470e+000 -2.608679e+000 -6.342883e-001 71 51 42
7.567505e+000 -2.469348e+000 -8.548644e-001 66 50 37
7.705376e+000 -2.463541e+000 -9.822810e-001 98 80 66
6.376883e+000 -2.694903e+000 -2.894863e-001 54 43 41
6.355551e+000 -2.745462e+000 -3.385235e-001 67 54 57
6.505501e+000 -2.731480e+000 -3.494278e-001 73 67 61
7.462842e+000 -2.547844e+000 -7.919718e-001 65 50 38
6.044445e+000 -2.891499e+000 -3.360272e-001 106 100 96
6.169005e+000 -2.831101e+000 -2.777601e-001 101 98 93
6.313514e+000 -2.780747e+000 -2.589101e-001 144 147 136
6.391812e+000 -2.752857e+000 -2.311755e-001 125 122 114
6.643556e+000 -2.730413e+000 -3.825284e-001 70 51 45
6.057801e+000 -2.922091e+000 -2.470126e-001 66 63 56
6.170930e+000 -2.890058e+000 -2.001519e-001 132 129 120
6.169325e+000 -2.894150e+000 -2.118461e-001 132 129 120
6.259574e+000 -2.867643e+000 -1.763048e-001 134 134 124
6.448800e+000 -2.826239e+000 -2.045596e-001 103 99 89
6.448800e+000 -2.826239e+000 -2.045596e-001 103 99 89
5.580395e+000 -3.271602e+000 -7.681347e-001 148 148 142
5.681399e+000 -3.195777e+000 -5.385722e-001 142 137 133
5.757763e+000 -3.153054e+000 -4.592209e-001 140 140 132
6.086159e+000 -2.967255e+000 -1.802672e-001 141 141 132
6.273012e+000 -2.877355e+000 -1.599960e-001 83 81 69
6.330575e+000 -2.862468e+000 -1.329419e-001 26 26 24
5.618971e+000 -3.263264e+000 -6.575296e-001 135 132 127
5.610765e+000 -3.364633e+000 -7.677327e-001 131 122 119
5.710997e+000 -3.248010e+000 -5.457370e-001 152 149 144
5.925453e+000 -3.066489e+000 -2.714432e-001 142 143 135
6.033661e+000 -3.042126e+000 -2.700373e-001 97 94 85
6.033661e+000 -3.042126e+000 -2.700373e-001 97 94 85
6.172093e+000 -3.000186e+000 -1.075950e-001 89 89 81
6.172093e+000 -3.000186e+000 -1.075950e-001 89 89 81
6.240670e+000 -2.945845e+000 -1.171828e-001 124 120 112
6.278216e+000 -2.938023e+000 -5.362484e-002 144 149 143
6.323669e+000 -2.888449e+000 2.690969e-002 66 57 50
6.336670e+000 -2.894108e+000 -6.657535e-002 65 59 58
5.996712e+000 -3.155828e+000 -2.140174e-001 56 47 52
6.409429e+000 -2.978183e+000 -3.701884e-002 110 106 95
5.903157e+000 -3.256036e+000 -2.579572e-001 49 47 52
5.965968e+000 -3.179094e+000 -2.279168e-001 59 54 59
6.020252e+000 -3.171237e+000 -1.249147e-001 92 89 84
6.309075e+000 -3.054852e+000 3.000938e-003 134 134 124
6.405684e+000 -3.015288e+000 2.868587e-002 78 73 68
6.296423e+000 -3.127952e+000 4.128940e-002 134 135 125
6.621127e+000 -3.043552e+000 -3.472136e-002 87 73 63
6.484297e+000 -3.119471e+000 -1.497281e-002 62 58 49
6.069551e+000 -3.225416e+000 2.388774e-001 52 45 55
6.229995e+000 -3.237039e+000 -1.643446e-002 83 81 76
6.399564e+000 -3.291756e+000 4.440067e-002 94 84 80
6.507771e+000 -3.221226e+000 4.934898e-002 73 66 55
6.725222e+000 -3.219163e+000 3.853614e-002 84 74 65
6.366840e+000 -3.375691e+000 5.473668e-002 86 81 77
6.451613e+000 -3.356153e+000 5.741290e-002 63 54 48
6.521956e+000 -3.286825e+000 6.564205e-002 108 104 95
6.653063e+000 -3.283318e+000 1.289384e-002 87 77 68
5.731440e+000 -3.533009e+000 1.783729e-001 33 23 31
6.637340e+000 -3.325014e+000 5.221957e-002 109 103 93
6.637340e+000 -3.325014e+000 5.221957e-002 109 103 93
6.728603e+000 -3.368379e+000 1.645653e-002 46 29 22
6.669204e+000 -3.407735e+000 4.335708e-002 43 33 24
5.916461e+000 -3.619429e+000 3.361621e-001 22 12 20
6.225540e+000 -3.474809e+000 4.021773e-001 35 22 29
6.614739e+000 -3.516109e+000 1.750532e-001 105 91 63
6.315737e+000 -3.573086e+000 3.688706e-001 69 59 60
6.399096e+000 -3.592380e+000 3.216134e-001 54 42 48
5.845919e+000 -3.828318e+000 3.399255e-001 29 16 23
5.808249e+000 -3.926626e+000 2.710631e-001 54 37 47
5.605686e+000 -2.524207e+000 -4.862136e-001 51 35 48
7.348744e+000 -2.219763e+000 -9.374472e-001 78 70 67
7.317534e+000 -2.361379e+000 -9.352489e-001 53 41 43
7.308676e+000 -2.435526e+000 -8.300834e-001 99 96 94
7.702505e+000 -2.422113e+000 -1.008575e+000 102 81 67
6.210617e+000 -2.770987e+000 -2.833596e-001 99 92 84
6.663412e+000 -2.681797e+000 -3.818220e-001 32 19 17
6.073521e+000 -2.888375e+000 -2.995272e-001 68 58 57
6.321380e+000 -2.794291e+000 -2.342729e-001 73 64 54
5.919539e+000 -2.979224e+000 -2.721638e-001 97 90 82
6.098673e+000 -2.895977e+000 -2.954041e-001 77 69 65
6.122131e+000 -2.885831e+000 -1.987624e-001 123 127 118
6.122131e+000 -2.885831e+000 -1.987624e-001 123 127 118
6.489557e+000 -2.798144e+000 -3.166859e-001 50 44 36
6.491423e+000 -2.768772e+000 -2.240124e-001 50 44 36
6.003601e+000 -2.980350e+000 -2.180798e-001 164 169 161
6.003601e+000 -2.980350e+000 -2.180798e-001 164 169 161
6.059728e+000 -2.953682e+000 -1.576139e-001 80 75 64
6.091226e+000 -2.924832e+000 -1.444126e-001 92 83 74
6.108414e+000 -2.957591e+000 -1.789315e-001 96 87 78
6.108414e+000 -2.957591e+000 -1.789315e-001 96 87 78
6.354950e+000 -2.853930e+000 -1.399462e-001 93 94 90
5.667282e+000 -3.262880e+000 -6.615357e-001 95 84 84
5.868776e+000 -3.121337e+000 -3.692791e-001 73 69 58
6.252784e+000 -2.954640e+000 -7.882927e-002 68 63 57
6.149940e+000 -3.044113e+000 -9.952880e-002 95 86 84
6.683986e+000 -2.933554e+000 -1.610138e-001 71 54 35
5.955913e+000 -3.204521e+000 -1.648642e-001 145 144 139
5.982941e+000 -3.195066e+000 -1.591541e-001 81 77 73
6.533309e+000 -2.981356e+000 -1.397106e-002 61 47 40
7.543136e+000 -2.961174e+000 -6.090052e-001 77 64 55
6.399124e+000 -3.000791e+000 1.449625e-001 74 69 63
5.817301e+000 -3.392429e+000 -5.424373e-002 245 255 254
5.877984e+000 -3.394046e+000 -2.743116e-002 238 255 255
5.876956e+000 -3.395858e+000 -2.911435e-002 238 255 255
6.180333e+000 -3.258729e+000 -3.609710e-002 141 146 138
6.231235e+000 -3.292836e+000 -4.317406e-002 124 124 116
6.182811e+000 -3.375389e+000 -2.484868e-002 73 65 63
6.865456e+000 -3.247040e+000 -7.407665e-002 77 64 56
6.379417e+000 -3.435677e+000 5.794747e-002 35 26 27
6.701884e+000 -3.401077e+000 2.880241e-002 48 37 30
6.272702e+000 -3.456078e+000 2.550412e-001 34 23 29
6.724853e+000 -3.443416e+000 6.187462e-002 75 58 47
6.733819e+000 -3.545486e+000 1.942605e-001 29 17 17
6.425377e+000 -3.559085e+000 3.797364e-001 25 16 17
5.812255e+000 -3.938310e+000 3.221393e-001 61 44 60
6.083826e+000 -3.801313e+000 3.765981e-001 25 14 18
5.771251e+000 -2.491936e+000 -2.985689e-001 33 22 30
6.084306e+000 -2.393813e+000 -2.210567e-001 46 30 37
6.866146e+000 -2.323784e+000 -9.295851e-001 165 133 94
6.926356e+000 -2.385474e+000 -9.310363e-001 91 62 48
6.972195e+000 -2.478336e+000 -9.306395e-001 144 115 75
7.322988e+000 -2.470155e+000 -8.969606e-001 119 119 117
6.356885e+000 -2.678477e+000 -2.945229e-001 58 44 43
6.121254e+000 -2.807376e+000 -3.084103e-001 39 29 28
6.397861e+000 -2.716141e+000 -2.807999e-001 59 54 50
5.898238e+000 -2.959173e+000 -3.900972e-001 147 146 144
6.113720e+000 -2.836384e+000 -3.115725e-001 84 76 74
6.456290e+000 -2.775713e+000 -2.259521e-001 107 103 94
6.046035e+000 -2.937969e+000 -2.294118e-001 144 140 131
6.144796e+000 -2.908298e+000 -1.886788e-001 74 70 64
6.840930e+000 -2.869597e+000 -7.421040e-001 51 30 29
5.888628e+000 -3.037541e+000 -3.330599e-001 147 146 142
5.928370e+000 -3.039309e+000 -2.704254e-001 86 78 71
6.000162e+000 -3.016943e+000 -2.290109e-001 81 69 67
6.405234e+000 -2.853991e+000 -8.313578e-002 142 147 140
6.632419e+000 -2.816502e+000 -2.360591e-001 71 51 40
5.596027e+000 -3.336671e+000 -7.744939e-001 81 72 65
5.740620e+000 -3.218736e+000 -4.870673e-001 148 145 141
5.777378e+000 -3.167501e+000 -4.502150e-001 71 61 59
5.786745e+000 -3.154528e+000 -4.186571e-001 71 61 59
5.984105e+000 -3.071715e+000 -2.529445e-001 77 72 66
6.071845e+000 -3.050088e+000 -1.934755e-001 157 159 148
6.146319e+000 -2.979410e+000 -1.267308e-001 155 153 146
6.168228e+000 -3.008368e+000 -6.979518e-002 150 151 143
6.177501e+000 -3.076285e+000 -4.664235e-002 93 91 79
6.645546e+000 -2.996044e+000 -4.527117e-002 38 27 24
6.321980e+000 -3.098397e+000 -2.886308e-002 148 151 144
6.321980e+000 -3.098397e+000 -2.886308e-002 148 151 144
6.291213e+000 -3.281750e+000 5.141679e-002 52 45 42
6.492349e+000 -3.242086e+000 7.254467e-002 116 111 107
6.550724e+000 -3.230191e+000 5.574918e-002 50 49 45
6.550724e+000 -3.230191e+000 5.574918e-002 50 49 45
6.769397e+000 -3.174584e+000 8.048710e-003 81 70 62
5.990785e+000 -3.375668e+000 2.435386e-001 28 16 20
6.440114e+000 -3.336781e+000 5.164910e-002 133 133 125
6.399384e+000 -3.400033e+000 6.778817e-002 112 106 103
6.709655e+000 -3.364428e+000 8.238936e-003 95 85 73
5.750950e+000 -3.567854e+000 2.494603e-001 45 30 37
5.768397e+000 -3.566797e+000 2.179653e-001 91 81 92
5.760575e+000 -3.761492e+000 2.943310e-001 33 18 23
6.161786e+000 -3.671414e+000 2.704642e-001 21 16 20
6.182158e+000 -3.732444e+000 2.739567e-001 21 12 16
6.245333e+000 -3.749753e+000 4.436681e-001 37 22 27
7.364238e+000 -2.185093e+000 -1.054993e+000 172 173 176
6.954728e+000 -2.390981e+000 -8.744706e-001 159 134 96
5.898661e+000 -2.672746e+000 -1.857907e-001 45 32 39
6.431182e+000 -2.792843e+000 -2.135077e-001 57 44 36
6.553115e+000 -2.804020e+000 -2.100164e-001 106 100 88
5.744605e+000 -3.119550e+000 -4.662993e-001 106 97 99
6.121999e+000 -2.938882e+000 -1.923650e-001 141 142 128
5.569835e+000 -3.325465e+000 -7.118441e-001 156 161 154
5.589638e+000 -3.368718e+000 -7.303698e-001 68 46 49
5.851800e+000 -3.139664e+000 -3.543633e-001 144 144 136
6.035193e+000 -3.053332e+000 -2.219074e-001 147 151 138
6.226143e+000 -2.954461e+000 -1.235995e-001 118 114 105
6.226143e+000 -2.954461e+000 -1.235995e-001 118 114 105
5.573930e+000 -3.399886e+000 -7.037253e-001 57 41 41
5.930114e+000 -3.141548e+000 -2.904136e-001 31 28 28
6.494456e+000 -2.940307e+000 -1.605129e-002 47 35 29
6.087783e+000 -3.133986e+000 -6.588851e-002 144 146 141
6.920391e+000 -3.085402e+000 -2.873283e-001 80 54 41
6.104949e+000 -3.268642e+000 -5.759425e-002 114 115 107
6.847486e+000 -3.113952e+000 -1.087889e-001 33 18 15
6.833908e+000 -3.141938e+000 -7.950578e-002 83 66 53
6.467932e+000 -3.289120e+000 6.010327e-002 56 49 41
5.925506e+000 -3.692755e+000 3.969389e-001 48 36 46
6.218435e+000 -3.750106e+000 4.353595e-001 59 47 48
5.892765e+000 -2.681721e+000 -2.149970e-001 43 30 37
6.571082e+000 -2.676491e+000 -3.923389e-001 37 26 24
6.558911e+000 -2.731853e+000 -2.325086e-001 43 32 27
5.947935e+000 -3.001912e+000 -2.944125e-001 151 150 145
6.244765e+000 -2.969157e+000 -5.279072e-002 76 73 66
6.434784e+000 -2.908984e+000 -3.751801e-002 66 53 44
6.631719e+000 -2.940786e+000 -5.267945e-002 72 58 49
6.874931e+000 -2.969009e+000 -3.506336e-001 70 44 32
6.278604e+000 -3.180244e+000 -5.338864e-003 51 51 43
6.754818e+000 -3.147954e+000 -2.418895e-002 48 41 33
6.909442e+000 -3.255572e+000 -1.217928e-001 53 35 21
6.800239e+000 -3.484413e+000 -8.374732e-002 44 27 20
5.991963e+000 -2.865710e+000 -2.990436e-001 49 35 35
5.909676e+000 -3.203346e+000 -2.235490e-001 37 32 36
5.955871e+000 -3.252183e+000 -1.715929e-001 141 142 136
6.058278e+000 -3.289674e+000 -1.590936e-002 38 28 27
6.965676e+000 -3.269331e+000 -3.302320e-001 79 58 41
5.840384e+000 -3.677098e+000 2.722885e-001 35 26 31
6.086310e+000 -3.697602e+000 2.773048e-001 20 14 16
6.804871e+000 -2.788506e+000 -7.944144e-001 145 132 124
5.938113e+000 -3.155335e+000 -2.616431e-001 52 50 49
5.938113e+000 -3.155335e+000 -2.616431e-001 52 50 49
7.550026e+000 -2.547392e+000 -7.793343e-001 66 51 44
5.873950e+000 -2.999814e+000 -2.704460e-001 137 137 136
6.273421e+000 -3.394346e+000 2.377540e-002 30 20 21
7.221573e+000 -2.658388e+000 -1.444548e+000 59 40 34
9.093996e+000 -3.611127e+000 -3.123420e-001 136 120 71
7.936083e+000 -2.625250e+000 -9.634691e-001 67 48 31
7.596726e+000 -2.484531e+000 -8.746924e-001 91 75 63
7.490429e+000 -2.852946e+000 -6.312069e-001 69 53 40
8.821621e+000 -2.253863e+000 -8.773294e-001 158 142 91
8.800053e+000 -2.289640e+000 -9.214333e-001 155 138 92
8.813194e+000 -2.291357e+000 -9.436048e-001 155 138 92
6.681101e+000 -2.921687e+000 -1.214899e-001 79 58 40
6.460045e+000 -3.202826e+000 3.634823e-002 150 152 141
6.544595e+000 -3.253820e+000 5.322262e-002 50 44 38
6.785193e+000 -3.195311e+000 -4.058410e-002 76 61 56
6.781301e+000 -3.187330e+000 -2.042779e-002 76 61 56
8.672710e+000 -2.604736e+000 -1.152714e+000 163 150 96
7.264422e+000 -2.753358e+000 -1.024887e+000 42 30 34
6.399277e+000 -3.034856e+000 5.731457e-003 87 82 76
6.609939e+000 -3.121365e+000 6.310333e-003 65 60 51
6.480861e+000 -3.318439e+000 4.564124e-002 62 52 45
7.317903e+000 -2.467244e+000 -1.620526e+000 80 63 64
7.240773e+000 -2.659134e+000 -1.505639e+000 141 122 100
7.240773e+000 -2.659134e+000 -1.505639e+000 141 122 100
7.253428e+000 -2.580539e+000 -1.345334e+000 93 82 88
7.822674e+000 -2.654138e+000 -9.443935e-001 64 46 31
7.973224e+000 -3.206073e+000 -3.408990e-001 105 98 95
7.903583e+000 -3.565704e+000 -7.120985e-001 92 86 83
7.247892e+000 -2.575323e+000 -1.163883e+000 95 83 95
7.247892e+000 -2.575323e+000 -1.163883e+000 95 83 95
7.684796e+000 -2.451842e+000 -9.056136e-001 98 80 66
6.528992e+000 -2.705283e+000 -2.993409e-001 45 35 33
7.736205e+000 -2.628062e+000 -8.655249e-001 63 44 30
7.853090e+000 -2.627057e+000 -8.671151e-001 96 78 58
7.874135e+000 -2.663676e+000 -9.061723e-001 92 75 57
8.173392e+000 -3.060377e+000 -8.891930e-001 51 38 30
6.718328e+000 -3.286495e+000 7.695795e-003 71 60 53
7.493105e+000 -3.399394e+000 -6.900429e-001 73 59 53
7.547482e+000 -3.427208e+000 -6.840396e-001 54 37 30
7.896646e+000 -3.311866e+000 -4.236386e-001 110 102 94
7.778760e+000 -3.799817e+000 -7.139507e-001 46 35 33
7.805042e+000 -3.780930e+000 -6.799248e-001 63 52 48
9.067321e+000 -3.361615e+000 -2.994967e-001 137 120 75
9.067321e+000 -3.361615e+000 -2.994967e-001 137 120 75
7.164745e+000 -2.661315e+000 -1.427339e+000 105 93 99
7.497711e+000 -2.462525e+000 -8.547717e-001 69 53 40
7.303066e+000 -2.677720e+000 -1.128960e+000 47 40 44
7.290446e+000 -2.717942e+000 -1.033877e+000 51 40 46
6.610110e+000 -2.767351e+000 -2.521780e-001 40 26 17
7.252938e+000 -2.909585e+000 -8.241156e-001 48 34 33
5.540881e+000 -3.469776e+000 -7.812457e-001 109 101 91
7.835716e+000 -3.084145e+000 -6.292821e-001 80 63 52
7.789692e+000 -3.102852e+000 -6.165759e-001 81 66 58
6.560822e+000 -3.303580e+000 4.962636e-002 58 51 43
7.720072e+000 -3.304313e+000 -6.396114e-001 46 36 34
6.603999e+000 -3.413507e+000 6.331612e-002 90 83 79
7.857043e+000 -3.660829e+000 -5.043434e-001 119 110 103
7.896340e+000 -3.769020e+000 -5.026005e-001 81 68 60
7.637485e+000 -2.194704e+000 -1.499600e+000 103 84 54
7.320355e+000 -2.555433e+000 -1.268987e+000 52 41 46
7.307436e+000 -2.626863e+000 -1.164082e+000 48 34 41
7.532180e+000 -2.469412e+000 -8.523052e-001 87 72 59
6.356475e+000 -2.749244e+000 -2.673437e-001 122 116 107
7.769671e+000 -3.325633e+000 -6.982396e-001 100 95 92
6.709372e+000 -3.360416e+000 1.710590e-002 95 85 73
7.839327e+000 -3.270004e+000 -4.088977e-001 98 94 92
7.911472e+000 -3.484695e+000 -6.972323e-001 105 101 100
7.924236e+000 -3.297794e+000 -3.777596e-001 178 204 212
7.287138e+000 -2.535698e+000 -1.453323e+000 105 98 106
7.279871e+000 -2.526627e+000 -1.401500e+000 105 98 106
7.272548e+000 -2.623631e+000 -1.219963e+000 87 81 90
7.916078e+000 -2.574275e+000 -9.433607e-001 90 73 56
5.611291e+000 -3.419023e+000 -7.316887e-001 124 117 108
7.858191e+000 -4.003274e+000 -6.941453e-001 72 52 43
7.246212e+000 -2.672070e+000 -1.350621e+000 43 30 27
7.246212e+000 -2.672070e+000 -1.350621e+000 43 30 27
7.303208e+000 -2.587287e+000 -1.170468e+000 47 41 45
7.861558e+000 -3.248023e+000 -6.708873e-001 52 41 40
7.917810e+000 -2.724164e+000 -8.782020e-001 88 72 46
8.101464e+000 -3.233588e+000 -2.287231e-001 161 175 176
7.926887e+000 -3.913203e+000 -5.901340e-001 79 62 54
7.786465e+000 -2.541653e+000 -9.436685e-001 93 75 55
8.807299e+000 -2.963537e+000 -9.588877e-001 165 155 106
8.023455e+000 -3.353618e+000 -3.831359e-001 163 172 179
5.929017e+000 -3.276111e+000 -1.978133e-001 81 82 82
7.475881e+000 -3.410429e+000 -6.639700e-001 78 63 58
7.928241e+000 -3.772619e+000 -4.926603e-001 115 99 86
7.365467e+000 -2.374910e+000 -8.625453e-001 64 50 41
6.103248e+000 -2.864462e+000 -2.800697e-001 123 119 116
6.168843e+000 -2.830581e+000 -2.765344e-001 109 108 103
6.420643e+000 -3.133538e+000 1.983758e-002 137 144 135
7.361654e+000 -2.387924e+000 -7.706142e-001 74 55 48
7.361654e+000 -2.387924e+000 -7.706142e-001 74 55 48
6.486900e+000 -2.700591e+000 -2.954070e-001 69 58 57
6.328110e+000 -2.762932e+000 -2.573843e-001 69 65 56
7.879796e+000 -2.579436e+000 -9.540999e-001 72 54 40
7.879796e+000 -2.579436e+000 -9.540999e-001 72 54 40
6.190025e+000 -3.093089e+000 -4.009451e-002 126 124 112
6.438663e+000 -3.151599e+000 1.447300e-002 81 74 69
7.569112e+000 -3.079444e+000 -5.806464e-001 81 67 64
7.569112e+000 -3.079444e+000 -5.806464e-001 81 67 64
7.798659e+000 -3.034190e+000 -6.179513e-001 62 47 40
8.377856e+000 -3.187682e+000 -2.899937e-001 54 37 23
7.277955e+000 -2.696932e+000 -1.099035e+000 75 66 71
7.231480e+000 -2.787703e+000 -1.086071e+000 61 46 46
8.651231e+000 -2.490766e+000 -1.211931e+000 147 128 86
8.677847e+000 -2.465621e+000 -1.179678e+000 136 122 77
6.306400e+000 -3.024810e+000 -1.360473e-003 96 93 84
7.532669e+000 -3.054141e+000 -5.717466e-001 60 46 39
6.699789e+000 -3.096682e+000 -3.562810e-002 43 33 23
6.723519e+000 -3.101744e+000 -8.771474e-003 88 82 71
6.206862e+000 -2.954861e+000 -1.062186e-001 121 121 110
6.470319e+000 -3.059698e+000 7.785872e-003 110 105 99
6.637025e+000 -3.056561e+000 -7.381073e-003 49 38 34
6.277836e+000 -3.463751e+000 1.605670e-001 62 53 56
8.115907e+000 -2.757171e+000 -9.294690e-001 129 122 111
7.927283e+000 -2.830495e+000 -7.577925e-001 60 46 35
7.680697e+000 -2.422784e+000 -9.236444e-001 97 78 64
7.697772e+000 -2.427523e+000 -9.192887e-001 68 49 34
7.699955e+000 -2.773253e+000 -7.326726e-001 60 47 31
7.880933e+000 -2.770156e+000 -8.466838e-001 92 75 57
8.164135e+000 -3.080952e+000 -9.252350e-001 73 65 55
7.258231e+000 -3.389936e+000 -6.466788e-001 61 50 44
7.368897e+000 -2.378829e+000 -8.692609e-001 63 53 44
7.264526e+000 -2.641743e+000 -1.556536e+000 54 40 28
8.806116e+000 -2.611534e+000 -8.552315e-001 173 161 113
7.688905e+000 -2.919127e+000 -6.373196e-001 60 43 33
6.979688e+000 -3.212073e+000 -5.431109e-001 51 31 20
6.647747e+000 -3.202278e+000 1.280908e-002 86 77 72
7.876063e+000 -3.531978e+000 -4.319470e-001 101 89 83
7.915927e+000 -3.550320e+000 -3.892740e-001 95 82 74
7.644435e+000 -2.545620e+000 -3.488324e-001 59 41 31
8.843272e+000 -2.542904e+000 -8.353998e-001 144 126 83
7.062214e+000 -2.764203e+000 -1.545339e+000 147 128 86
7.062214e+000 -2.764203e+000 -1.545339e+000 147 128 86
8.530166e+000 -2.569152e+000 -8.940702e-001 161 148 96
7.278941e+000 -2.545841e+000 -1.298781e+000 98 93 97
6.516634e+000 -2.695826e+000 -2.919551e-001 48 39 33
7.493495e+000 -2.641818e+000 -7.305439e-001 93 76 68
7.496241e+000 -2.645384e+000 -7.412106e-001 93 76 68
7.259056e+000 -2.755241e+000 -6.119612e-001 69 59 60
8.083881e+000 -2.673424e+000 -9.540149e-001 54 39 32
6.223539e+000 -3.006401e+000 -4.580883e-002 149 150 142
7.653762e+000 -2.882557e+000 -6.325268e-001 79 65 52
6.402937e+000 -3.027410e+000 2.343288e-003 81 78 71
7.697656e+000 -2.927523e+000 -6.664381e-001 60 43 36
7.519042e+000 -3.242460e+000 -6.492996e-001 71 57 51
6.363967e+000 -3.297524e+000 3.223399e-002 63 52 46
6.840020e+000 -3.298834e+000 -5.882247e-002 50 38 26
8.023411e+000 -3.158133e+000 -3.724969e-001 105 92 75
7.214591e+000 -2.275398e+000 2.933979e-001 68 53 48
7.483577e+000 -2.526730e+000 -7.985162e-001 89 72 62
7.677770e+000 -2.509311e+000 -8.817397e-001 60 43 33
7.648106e+000 -2.594915e+000 -8.170030e-001 89 71 58
7.248151e+000 -2.812776e+000 -6.272637e-001 113 111 112
7.285248e+000 -2.901414e+000 -6.012849e-001 52 38 35
7.759400e+000 -2.889860e+000 -7.157118e-001 83 67 52
6.710537e+000 -3.355622e+000 2.315837e-002 101 91 79
5.850912e+000 -3.395704e+000 -4.596953e-002 39 37 51
8.140874e+000 -2.904405e+000 -9.150132e-001 89 78 76
6.524262e+000 -3.192624e+000 3.376081e-002 124 120 113
6.554731e+000 -3.155733e+000 2.151084e-002 78 72 63
7.920927e+000 -3.219557e+000 -4.609266e-001 103 97 91
6.510612e+000 -3.394450e+000 1.056941e-001 57 47 45
6.604206e+000 -3.500381e+000 2.086309e-001 70 58 45
7.693401e+000 -3.976516e+000 -7.824108e-001 79 67 52
7.317178e+000 -2.281837e+000 -9.336165e-001 79 70 73
7.297047e+000 -2.530536e+000 -1.313735e+000 59 47 47
6.225197e+000 -2.811533e+000 -2.608463e-001 71 66 63
7.192482e+000 -2.863676e+000 -9.458623e-001 55 41 44
6.270317e+000 -2.871897e+000 -1.428885e-001 75 73 68
6.437914e+000 -2.837131e+000 -7.238790e-002 85 67 55
7.677466e+000 -2.944455e+000 -6.432617e-001 81 66 59
6.324544e+000 -3.079537e+000 1.660880e-002 149 155 145
6.729708e+000 -3.220630e+000 -2.931711e-003 82 69 58
7.893080e+000 -3.500672e+000 -6.682524e-001 56 48 45
7.906639e+000 -3.272463e+000 -4.462043e-001 117 105 107
7.525461e+000 -3.906991e+000 -9.489233e-001 70 54 38
7.894687e+000 -3.563180e+000 -6.684246e-001 55 49 43
6.402153e+000 -3.478286e+000 2.120004e-001 79 71 68
8.890628e+000 -4.015744e+000 -5.412057e-001 156 139 93
7.332455e+000 -2.421655e+000 -1.495892e+000 114 105 110
7.602423e+000 -2.420372e+000 -8.835056e-001 67 51 38
6.175631e+000 -2.859810e+000 -2.422067e-001 126 126 118
6.311524e+000 -2.773085e+000 -2.419740e-001 128 129 121
5.887206e+000 -3.015576e+000 -3.091325e-001 159 157 156
6.006415e+000 -2.969571e+000 -2.037737e-001 149 152 145
6.386440e+000 -2.782527e+000 -2.105140e-001 59 49 40
5.964374e+000 -3.046572e+000 -2.468003e-001 120 119 114
6.404495e+000 -2.831306e+000 -1.700392e-001 82 79 70
7.267840e+000 -2.822492e+000 -6.037574e-001 60 49 43
7.296642e+000 -2.806870e+000 -6.248649e-001 80 70 61
6.462947e+000 -2.851666e+000 -4.425658e-002 62 47 40
6.104868e+000 -3.057024e+000 -9.999764e-002 140 142 141
6.102656e+000 -3.064883e+000 -1.089240e-001 140 142 141
6.190134e+000 -3.093354e+000 -4.115111e-002 133 130 123
7.546475e+000 -3.263482e+000 -6.211981e-001 35 21 17
7.553966e+000 -3.219680e+000 -6.109175e-001 75 64 60
7.898737e+000 -3.331185e+000 -6.863261e-001 104 98 94
7.892524e+000 -3.214328e+000 -5.470160e-001 158 178 184
6.568919e+000 -3.343886e+000 6.510354e-002 57 48 42
6.603966e+000 -3.403811e+000 7.362306e-002 102 97 89
7.867558e+000 -3.579434e+000 -4.902034e-001 112 104 101
6.394891e+000 -2.718836e+000 -2.809665e-001 50 41 39
6.277144e+000 -2.790776e+000 -2.495529e-001 57 50 47
5.536187e+000 -3.375331e+000 -6.930806e-001 150 143 145
5.848132e+000 -3.052052e+000 -3.355938e-001 96 89 81
6.221672e+000 -2.870093e+000 -2.176283e-001 68 67 62
5.991760e+000 -3.171336e+000 -1.814240e-001 130 134 131
6.141307e+000 -3.063107e+000 -8.010521e-002 137 137 129
6.398848e+000 -2.912894e+000 -2.233985e-002 92 87 81
5.910188e+000 -3.270095e+000 -1.923674e-001 57 48 53
5.908744e+000 -3.292687e+000 -1.383099e-001 45 43 48
6.012302e+000 -3.227938e+000 -1.050532e-001 67 63 64
8.153857e+000 -3.002235e+000 -9.186749e-001 47 36 30
6.198203e+000 -3.213937e+000 -2.691551e-002 58 57 52
6.317962e+000 -3.264602e+000 3.160007e-002 98 95 90
6.540732e+000 -3.326666e+000 7.442743e-002 118 115 108
6.588123e+000 -3.298879e+000 5.999082e-002 85 81 72
6.610533e+000 -3.327913e+000 5.635199e-002 47 37 36
6.448894e+000 -3.397326e+000 8.130866e-002 48 44 45
6.513579e+000 -3.361876e+000 8.062826e-002 48 40 39
6.657731e+000 -3.345533e+000 4.714487e-002 45 36 29
7.923932e+000 -3.297884e+000 -3.766461e-001 176 195 205
6.349176e+000 -2.774459e+000 -2.277000e-001 75 64 60
6.228891e+000 -2.929880e+000 -1.480619e-001 83 74 65
6.282096e+000 -2.928832e+000 -4.636274e-002 138 145 138
6.460570e+000 -2.925813e+000 5.484405e-003 103 96 88
6.460296e+000 -2.929536e+000 1.502714e-003 103 96 88
6.093447e+000 -3.127738e+000 -7.733503e-002 131 132 126
6.110494e+000 -3.193897e+000 -5.790173e-002 126 131 120
6.144823e+000 -3.255232e+000 -4.370474e-002 49 44 43
6.323458e+000 -3.184813e+000 4.742150e-003 154 156 142
7.996561e+000 -3.079153e+000 -7.444802e-001 41 27 20
6.836511e+000 -3.156467e+000 -8.695463e-002 81 61 50
7.533752e+000 -3.896529e+000 -8.769464e-001 160 142 93
7.962320e+000 -3.255194e+000 -3.523340e-001 108 106 110
7.875560e+000 -3.516900e+000 -4.633852e-001 134 132 133
6.321084e+000 -3.623319e+000 3.498007e-001 58 47 53
6.562817e+000 -2.665354e+000 -3.601252e-001 34 23 19
6.549794e+000 -2.759497e+000 -3.072537e-001 37 28 23
6.157581e+000 -2.949610e+000 -1.481961e-001 61 56 52
6.633971e+000 -2.949891e+000 -6.643052e-002 76 61 52
6.144220e+000 -3.254044e+000 -3.462015e-002 65 57 55
6.194246e+000 -3.272189e+000 -3.434955e-002 134 139 132
6.795126e+000 -3.092671e+000 -9.674711e-002 71 59 43
6.686924e+000 -3.302043e+000 1.747900e-002 56 46 37
7.728651e+000 -3.808451e+000 -6.639312e-001 84 71 63
6.998415e+000 -3.850373e+000 -2.449948e-001 155 133 84
6.238742e+000 -2.888521e+000 -1.626402e-001 111 112 104
6.881998e+000 -2.987683e+000 -4.038469e-001 69 46 30
5.965134e+000 -3.224066e+000 -1.302494e-001 136 135 133
5.963149e+000 -3.279275e+000 -8.448153e-002 53 48 53
7.875458e+000 -3.049615e+000 -6.642055e-001 90 74 60
7.760786e+000 -3.320201e+000 -6.274149e-001 87 79 77
6.298222e+000 -3.428244e+000 1.109006e-001 30 21 26
6.067947e+000 -3.001521e+000 -1.723578e-001 113 118 111
7.887791e+000 -3.205143e+000 -4.947513e-001 100 95 94
6.213404e+000 -3.622581e+000 3.312378e-001 26 17 22
7.970595e+000 -3.740923e+000 -4.902424e-001 86 72 63
7.901687e+000 -3.017999e+000 -7.770379e-001 85 74 55
5.806331e+000 -2.813167e+000 -3.241586e-001 47 30 36
8.992515e+000 -3.220202e+000 -5.674520e-001 174 161 116
7.900202e+000 -3.283429e+000 -4.220858e-001 187 209 213
7.602869e+000 -2.419179e+000 -8.849863e-001 70 52 41
6.464697e+000 -2.892669e+000 -2.136546e-002 61 53 45
7.516792e+000 -2.630809e+000 -7.579821e-001 71 54 46
7.501608e+000 -2.743757e+000 -6.808722e-001 68 53 46
7.822425e+000 -2.644566e+000 -8.765029e-001 90 71 54
8.950024e+000 -2.303397e+000 -7.539841e-001 153 141 91
6.420032e+000 -2.851414e+000 -3.862808e-002 88 85 78
8.083044e+000 -1.820362e+000 -2.170155e+000 140 125 86
7.630942e+000 -2.451726e+000 -8.541180e-001 90 74 61
6.284786e+000 -2.753671e+000 -2.858460e-001 138 144 137
7.904817e+000 -3.517467e+000 -6.931775e-001 56 48 45
7.476320e+000 -2.481722e+000 -8.514284e-001 91 75 62
6.076980e+000 -2.897301e+000 -2.488915e-001 133 132 130
6.100828e+000 -2.879801e+000 -2.544944e-001 72 69 62
6.436977e+000 -2.826103e+000 -1.393848e-001 63 51 46
6.139877e+000 -3.062939e+000 -8.014454e-002 137 137 129
7.285734e+000 -3.309014e+000 -7.174212e-001 44 33 31
7.285646e+000 -3.309307e+000 -7.180492e-001 44 33 31
6.633355e+000 -3.396438e+000 5.352517e-002 69 60 51
6.441687e+000 -2.872672e+000 -4.424863e-002 118 116 107
8.712177e+000 -2.727935e+000 -1.096325e+000 135 121 76
6.860836e+000 -3.018554e+000 -3.599155e-001 32 21 17
6.390486e+000 -3.237620e+000 3.568765e-002 135 137 132
8.923697e+000 -2.954696e+000 -7.205128e-001 143 126 77
8.057133e+000 -3.168824e+000 -3.381058e-001 109 96 84
6.306902e+000 -2.997052e+000 -2.503969e-002 128 128 120
7.406134e+000 -2.942509e+000 -5.733797e-001 80 69 65
8.750640e+000 -2.693646e+000 -1.048513e+000 138 119 79
6.050878e+000 -3.243921e+000 -7.407508e-002 145 148 143
6.161446e+000 -2.234798e+000 -3.335205e-001 79 63 71
8.548139e+000 -2.985548e+000 -1.315771e+000 62 46 34
7.380111e+000 -2.199367e+000 -9.874602e-001 111 102 102
6.258293e+000 -2.811379e+000 -2.135201e-001 134 137 130
5.580661e+000 -3.449222e+000 -6.354491e-001 173 165 158
5.604111e+000 -3.415474e+000 -5.674086e-001 101 93 92
5.593493e+000 -3.459762e+000 -6.593084e-001 82 69 61
6.335219e+000 -2.815360e+000 -2.096621e-001 56 49 44
6.335219e+000 -2.815360e+000 -2.096621e-001 56 49 44
5.573953e+000 -3.621166e+000 -5.923418e-001 167 166 158
5.687584e+000 -3.527316e+000 -6.608957e-001 37 33 32
6.204539e+000 -2.928440e+000 -1.212980e-001 92 88 77
5.995198e+000 -3.219862e+000 -1.092380e-001 131 130 126
6.388375e+000 -2.899321e+000 -3.985136e-002 50 42 39
7.932107e+000 -2.787553e+000 -8.184235e-001 69 51 39
5.920723e+000 -3.340113e+000 -4.541248e-002 90 94 102
6.457935e+000 -3.149698e+000 3.467268e-002 135 133 121
6.523623e+000 -3.079172e+000 1.979895e-002 62 54 48
6.573774e+000 -3.092271e+000 -1.973910e-002 112 109 100
6.585406e+000 -3.117301e+000 6.731099e-003 59 55 48
7.635392e+000 -3.062428e+000 -5.507325e-001 110 103 96
6.660790e+000 -3.129170e+000 -5.582606e-006 59 51 39
6.857514e+000 -3.272465e+000 -5.138463e-002 113 99 88
6.669840e+000 -3.412372e+000 1.324663e-002 107 96 86
7.599771e+000 -2.222880e+000 -1.659569e+000 99 87 90
7.333358e+000 -2.439746e+000 -1.596902e+000 104 94 93
7.338231e+000 -2.452384e+000 -1.617415e+000 104 94 93
7.317663e+000 -2.242294e+000 -1.008062e+000 82 72 75
7.929389e+000 -2.578993e+000 -1.565590e+000 62 43 29
7.269130e+000 -2.698964e+000 -9.819951e-001 65 54 57
7.543814e+000 -2.495341e+000 -8.561048e-001 62 45 37
5.527995e+000 -3.451350e+000 -7.185696e-001 90 77 83
6.190890e+000 -2.814291e+000 -2.601789e-001 70 65 62
6.415010e+000 -2.743219e+000 -2.583696e-001 109 100 95
5.599994e+000 -3.472796e+000 -6.378518e-001 136 131 122
5.617585e+000 -3.473276e+000 -6.409841e-001 64 51 43
6.033184e+000 -2.990116e+000 -2.019178e-001 154 155 147
6.228340e+000 -2.879356e+000 -1.811317e-001 145 149 135
6.351488e+000 -2.803969e+000 -2.406671e-001 59 59 44
6.405598e+000 -2.804155e+000 -1.915781e-001 120 116 110
6.404905e+000 -2.805791e+000 -1.933155e-001 120 116 110
6.535307e+000 -2.777162e+000 -2.320525e-001 56 47 38
5.638241e+000 -3.541893e+000 -6.546933e-001 65 52 44
5.853887e+000 -3.214078e+000 -2.641691e-001 36 42 60
6.304367e+000 -2.856046e+000 -1.243397e-001 48 47 45
7.704235e+000 -2.716944e+000 -7.846050e-001 62 46 33
5.801130e+000 -3.280362e+000 -1.790639e-001 76 96 116
6.226368e+000 -2.939079e+000 -7.942102e-002 141 138 129
6.268564e+000 -2.932955e+000 -5.562144e-002 92 93 85
6.397270e+000 -2.839760e+000 -7.167521e-002 61 60 58
5.645180e+000 -3.527003e+000 -3.616947e-001 82 81 88
5.944381e+000 -3.244184e+000 -1.542957e-001 90 90 92
6.141204e+000 -3.106793e+000 -5.768354e-002 163 166 159
6.294212e+000 -2.939749e+000 -2.628523e-002 109 109 104
6.397664e+000 -2.920899e+000 -1.525438e-002 105 105 97
6.413530e+000 -2.917106e+000 -7.371747e-003 53 43 41
6.422762e+000 -2.928841e+000 5.691666e-004 100 94 86
6.433374e+000 -2.858332e+000 -9.698631e-003 79 70 61
6.447011e+000 -2.910616e+000 -2.248129e-002 39 34 29
5.903941e+000 -3.320024e+000 -1.139870e-001 251 253 254
5.906179e+000 -3.311626e+000 -1.067795e-001 251 253 254
6.370603e+000 -3.008599e+000 1.303458e-002 139 137 128
6.413834e+000 -2.971173e+000 4.630031e-003 128 122 110
6.516219e+000 -2.902359e+000 -1.870397e-002 88 79 72
7.949159e+000 -2.917618e+000 -8.670452e-001 60 46 33
7.946351e+000 -2.876807e+000 -8.353817e-001 100 87 71
6.497743e+000 -3.024869e+000 -6.918126e-003 108 99 93
8.140293e+000 -2.948135e+000 -7.989937e-001 126 120 108
6.375559e+000 -3.187407e+000 2.226717e-002 149 158 154
6.555731e+000 -3.092172e+000 -7.664964e-006 111 107 98
6.591112e+000 -3.070527e+000 -2.232615e-002 126 119 113
6.394148e+000 -3.262623e+000 4.807935e-002 62 53 48
6.537728e+000 -3.199076e+000 4.109724e-002 69 64 57
6.629275e+000 -3.162953e+000 9.517232e-003 98 90 77
6.628503e+000 -3.159408e+000 1.318556e-002 98 90 77
7.897080e+000 -3.245425e+000 -6.703965e-001 81 72 65
6.757546e+000 -3.286821e+000 4.951384e-003 59 51 38
7.938798e+000 -3.178573e+000 -5.463507e-001 71 54 46
6.721443e+000 -3.380514e+000 3.011898e-002 53 39 31
8.919368e+000 -3.124272e+000 -7.828371e-001 128 119 88
6.876568e+000 -4.123499e+000 6.011028e-002 142 114 103
6.939043e+000 -4.150451e+000 1.044668e-001 164 143 100
7.522958e+000 -2.258316e+000 -1.654640e+000 126 114 118
7.301935e+000 -2.577907e+000 -1.263451e+000 77 66 68
7.294406e+000 -2.463583e+000 -8.672462e-001 65 55 59
7.430890e+000 -2.413618e+000 -8.582183e-001 60 41 34
7.436426e+000 -2.435168e+000 -8.359076e-001 55 41 32
5.551617e+000 -3.403324e+000 -7.038798e-001 70 52 50
6.170844e+000 -2.807775e+000 -2.828372e-001 45 39 39
6.407474e+000 -2.714273e+000 -2.912609e-001 49 39 36
7.571972e+000 -2.476609e+000 -8.675784e-001 64 48 35
5.939519e+000 -2.978496e+000 -2.637273e-001 157 160 158
6.051847e+000 -2.890166e+000 -2.538262e-001 130 129 124
6.051847e+000 -2.890166e+000 -2.538262e-001 130 129 124
6.102495e+000 -2.871931e+000 -2.886778e-001 127 119 116
6.109318e+000 -2.894664e+000 -2.328933e-001 162 166 165
6.109341e+000 -2.894548e+000 -2.327727e-001 162 166 165
6.173363e+000 -2.837526e+000 -2.558859e-001 54 44 39
6.197550e+000 -2.841527e+000 -2.446188e-001 62 56 51
6.239716e+000 -2.835461e+000 -2.106487e-001 151 155 148
6.554618e+000 -2.707672e+000 -3.022506e-001 112 107 101
6.638550e+000 -2.704504e+000 -3.981156e-001 68 54 43
6.011955e+000 -3.029861e+000 -2.106590e-001 130 130 118
6.171693e+000 -2.883268e+000 -1.859979e-001 146 149 140
6.172193e+000 -2.882796e+000 -1.852094e-001 146 149 140
6.153169e+000 -2.943472e+000 -2.030449e-001 65 54 51
6.198940e+000 -2.899641e+000 -1.653761e-001 66 63 56
6.267130e+000 -2.856454e+000 -1.608631e-001 147 150 142
6.518046e+000 -2.781734e+000 -2.251594e-001 112 108 100
7.269561e+000 -2.858573e+000 -9.423744e-001 52 40 42
7.665506e+000 -2.572174e+000 -8.176618e-001 71 53 40
7.681946e+000 -2.629996e+000 -8.055423e-001 70 53 41
7.681946e+000 -2.629996e+000 -8.055423e-001 70 53 41
5.621521e+000 -3.568162e+000 -6.447294e-001 69 58 52
6.220967e+000 -2.910212e+000 -1.396329e-001 84 80 71
6.221119e+000 -2.906628e+000 -1.351199e-001 84 80 71
6.354542e+000 -2.855878e+000 -1.446665e-001 100 104 102
7.332585e+000 -2.749565e+000 -6.419436e-001 83 72 64
7.514882e+000 -2.751744e+000 -8.080069e-001 60 46 36
7.652887e+000 -2.680687e+000 -7.954763e-001 67 53 40
5.559507e+000 -3.590764e+000 -4.578049e-001 91 88 106
6.107260e+000 -3.050234e+000 -1.482389e-001 121 120 112
6.565205e+000 -2.822873e+000 -1.620977e-001 40 25 20
7.275325e+000 -2.861599e+000 -5.999387e-001 82 69 63
6.242318e+000 -3.013531e+000 -2.466133e-002 158 170 163
6.859258e+000 -2.974111e+000 -3.209782e-001 31 17 14
7.252895e+000 -2.944435e+000 -6.059563e-001 44 36 32
7.714573e+000 -2.821718e+000 -7.135945e-001 66 48 42
7.766783e+000 -2.772786e+000 -7.479686e-001 88 71 61
5.828785e+000 -3.368403e+000 -9.508757e-002 79 86 103
5.917378e+000 -3.296925e+000 -6.041072e-002 44 45 49
6.042319e+000 -3.220443e+000 -8.204954e-002 139 139 134
6.528633e+000 -2.923036e+000 -2.122035e-002 44 31 25
7.650385e+000 -2.866516e+000 -6.436313e-001 90 78 64
7.668846e+000 -2.857507e+000 -6.268730e-001 58 44 33
7.741355e+000 -2.904152e+000 -7.314008e-001 57 43 30
7.741355e+000 -2.904152e+000 -7.314008e-001 57 43 30
5.885732e+000 -3.337716e+000 -4.937276e-002 26 31 37
6.240267e+000 -3.186724e+000 -1.609634e-002 95 95 84
6.373456e+000 -3.102427e+000 3.086200e-002 143 143 133
7.321087e+000 -3.219049e+000 -7.197535e-001 38 27 25
6.308371e+000 -3.208909e+000 1.247785e-002 168 169 164
6.401939e+000 -3.183148e+000 2.218184e-002 136 139 132
6.446122e+000 -3.138114e+000 2.910835e-002 82 75 66
6.665320e+000 -3.060400e+000 -3.362468e-002 42 30 24
6.665806e+000 -3.062546e+000 -3.638559e-002 42 30 24
7.354878e+000 -3.296893e+000 -7.153128e-001 41 28 22
7.649291e+000 -3.056611e+000 -5.705658e-001 51 41 32
6.567931e+000 -3.196453e+000 3.579519e-002 106 105 93
6.675078e+000 -3.138629e+000 -2.527466e-002 100 97 85
7.658210e+000 -3.225053e+000 -5.820974e-001 47 33 30
7.900136e+000 -3.175340e+000 -6.166334e-001 70 52 47
8.068086e+000 -3.173909e+000 -6.419427e-001 126 113 105
6.569063e+000 -3.340644e+000 6.921489e-002 58 49 42
7.890765e+000 -3.383624e+000 -7.115806e-001 64 51 49
7.890431e+000 -3.434418e+000 -6.858297e-001 69 59 54
7.962951e+000 -3.172616e+000 -5.089089e-001 102 85 69
7.897146e+000 -3.259035e+000 -4.770673e-001 124 108 111
6.117688e+000 -3.651008e+000 2.060209e-001 32 22 30
7.960130e+000 -3.276350e+000 -3.286280e-001 157 165 170
6.084624e+000 -3.764632e+000 3.661556e-001 34 17 25
7.529791e+000 -2.295400e+000 -1.788190e+000 81 68 63
7.304902e+000 -2.596424e+000 -1.072447e+000 45 35 37
7.329183e+000 -2.495213e+000 -9.160305e-001 96 91 97
7.366477e+000 -2.374656e+000 -8.586851e-001 66 48 41
7.356986e+000 -2.487598e+000 -9.338285e-001 68 50 49
7.371990e+000 -2.466393e+000 -8.269451e-001 88 73 68
7.415023e+000 -2.442572e+000 -8.619833e-001 85 72 64
7.495279e+000 -2.459088e+000 -8.414592e-001 65 51 38
7.495360e+000 -2.459355e+000 -8.412473e-001 65 51 38
