ply
format ascii 1.0
element face 0
property list uchar int vertex_indices
element vertex 882
property float x
property float y
property float z
property uchar diffuse_red
property uchar diffuse_green
property uchar diffuse_blue
end_header
7.951097e+000 -3.484143e+000 -7.008124e-001 87 81 81
9.371186e+000 -2.230758e+000 -1.986142e-001 166 157 114
5.574379e+000 -3.670281e+000 -6.068409e-001 83 79 83
7.587688e+000 -3.047906e+000 -5.736616e-001 96 86 77
6.637643e+000 -3.589786e+000 1.879000e-001 105 97 74
6.133276e+000 -2.847017e+000 -2.287088e-001 128 127 123
7.646415e+000 -2.482996e+000 -8.395106e-001 65 47 43
7.368146e+000 -3.023098e+000 -6.222426e-001 77 65 64
9.179784e+000 -2.180088e+000 -5.013729e-001 178 171 129
6.270409e+000 -3.392910e+000 4.712565e-002 43 27 30
9.206923e+000 -2.150828e+000 -4.657789e-001 179 168 125
6.593093e+000 -2.713145e+000 -2.798511e-001 69 54 45
7.922190e+000 -2.874767e+000 -7.932472e-001 92 81 61
7.432358e+000 -2.295581e+000 -1.746460e+000 95 80 77
5.445179e+000 -3.357306e+000 -6.967549e-001 100 97 107
5.482982e+000 -3.422852e+000 -7.023026e-001 149 135 127
5.498170e+000 -3.461395e+000 -6.686600e-001 157 153 142
5.489985e+000 -3.652120e+000 -5.192972e-001 164 159 153
7.370163e+000 -3.155399e+000 -6.821580e-001 64 54 53
7.761216e+000 -2.993356e+000 -6.600257e-001 97 80 70
6.494958e+000 -3.384882e+000 7.866971e-002 135 126 119
6.557030e+000 -3.241731e+000 3.533060e-002 119 117 103
6.734455e+000 -3.372904e+000 7.451347e-004 68 60 51
7.243310e+000 -2.450345e+000 -1.558958e+000 66 48 53
5.462187e+000 -3.463340e+000 -7.255277e-001 92 83 78
5.486152e+000 -3.487508e+000 -6.628756e-001 98 92 102
5.537765e+000 -3.658831e+000 -4.813220e-001 118 105 104
5.768891e+000 -3.312294e+000 -1.987838e-001 52 60 75
6.507964e+000 -2.664226e+000 -2.984234e-001 110 100 94
6.055038e+000 -3.057526e+000 -1.131184e-001 76 73 66
6.077214e+000 -3.112627e+000 -4.654113e-002 153 150 141
6.206782e+000 -2.965241e+000 -6.473789e-002 86 80 72
7.949235e+000 -2.666952e+000 -9.378647e-001 68 49 30
8.148948e+000 -2.661434e+000 -1.002941e+000 43 25 25
6.048250e+000 -3.287569e+000 -5.086527e-002 144 144 136
7.814450e+000 -2.771491e+000 -7.966277e-001 99 84 66
6.229616e+000 -3.259304e+000 2.913490e-003 144 147 138
6.308868e+000 -3.024162e+000 4.435465e-002 132 129 120
6.397568e+000 -2.949492e+000 1.118207e-002 113 111 99
7.667038e+000 -2.928950e+000 -6.753368e-001 97 84 68
7.529435e+000 -3.205764e+000 -6.225997e-001 88 77 71
6.345371e+000 -3.380797e+000 4.144788e-002 85 75 73
6.407310e+000 -3.185964e+000 4.580349e-002 138 139 125
6.407656e+000 -3.459770e+000 5.022448e-002 88 77 73
7.652625e+000 -3.767681e+000 -7.572679e-001 57 39 35
7.950737e+000 -3.471486e+000 -7.237575e-001 79 68 62
6.031498e+000 -3.631076e+000 2.691612e-001 69 54 61
8.000821e+000 -3.207052e+000 -5.677202e-001 72 54 45
8.114824e+000 -3.215738e+000 -6.619492e-001 72 60 48
7.914978e+000 -3.705072e+000 -5.063172e-001 117 104 96
7.292270e+000 -2.765309e+000 -1.978710e+000 92 74 47
7.883162e+000 -2.435461e+000 -1.605179e+000 57 39 26
7.957153e+000 -2.624372e+000 -1.394677e+000 80 63 45
5.550682e+000 -3.588244e+000 -3.538932e-001 84 74 72
6.274059e+000 -2.765393e+000 -2.404829e-001 133 132 123
7.706505e+000 -2.387275e+000 -9.133651e-001 112 94 71
6.133260e+000 -2.891495e+000 -1.847092e-001 134 141 126
6.235866e+000 -2.850894e+000 -1.497665e-001 139 139 131
6.388964e+000 -2.697198e+000 -2.290125e-001 107 100 92
6.124188e+000 -3.028697e+000 -1.013959e-001 110 105 93
7.539340e+000 -2.608346e+000 -7.267033e-001 64 50 39
7.681835e+000 -2.509847e+000 -8.182578e-001 66 48 36
6.234158e+000 -2.933342e+000 -7.497009e-002 76 70 65
7.401994e+000 -2.741534e+000 -6.669138e-001 102 89 73
7.462398e+000 -2.773553e+000 -6.587822e-001 100 85 70
7.672347e+000 -2.629413e+000 -7.872261e-001 75 58 40
7.712697e+000 -2.678225e+000 -8.041100e-001 109 91 71
8.764637e+000 -2.141971e+000 -1.154562e+000 148 132 80
6.149601e+000 -3.099297e+000 -1.900933e-002 160 162 148
6.599926e+000 -2.851137e+000 -8.632966e-002 57 40 31
7.519303e+000 -3.109993e+000 -5.754579e-001 59 47 41
7.751250e+000 -2.961906e+000 -6.707601e-001 68 50 39
6.442280e+000 -3.294347e+000 4.539476e-002 93 87 75
6.413067e+000 -3.445278e+000 7.665756e-002 122 117 113
6.508947e+000 -3.274893e+000 5.304503e-002 135 134 118
6.441973e+000 -3.585581e+000 1.921774e-001 81 74 74
7.944087e+000 -3.431626e+000 -4.144157e-001 151 150 146
7.944087e+000 -3.431626e+000 -4.144157e-001 151 150 146
9.247105e+000 -1.836104e+000 -4.453834e-001 152 143 100
5.934562e+000 -2.218554e+000 -4.074985e-001 75 64 68
5.922687e+000 -2.234833e+000 -3.923370e-001 25 15 23
7.849767e+000 -2.471689e+000 -1.422970e+000 83 64 50
5.517143e+000 -3.657512e+000 -5.504041e-001 92 84 84
6.473377e+000 -2.666510e+000 -2.710026e-001 70 57 51
7.691892e+000 -2.592627e+000 -8.510557e-001 104 87 69
6.088967e+000 -3.151911e+000 -3.864388e-002 78 71 61
7.482892e+000 -2.836107e+000 -6.093697e-001 96 84 68
7.453830e+000 -2.914749e+000 -6.050076e-001 97 84 76
6.359139e+000 -3.089713e+000 3.196110e-002 89 85 74
6.397699e+000 -3.053838e+000 2.656804e-002 138 136 127
8.943191e+000 -2.231436e+000 -9.567772e-001 154 138 89
6.464976e+000 -3.154230e+000 3.993821e-002 134 131 116
6.484251e+000 -3.188062e+000 4.407254e-002 65 56 49
6.484251e+000 -3.188062e+000 4.407254e-002 65 56 49
7.566916e+000 -3.262659e+000 -6.281467e-001 52 37 32
7.814101e+000 -3.050988e+000 -6.051257e-001 102 89 71
6.528409e+000 -3.409471e+000 6.583379e-002 143 139 130
6.560230e+000 -3.534859e+000 8.360529e-002 61 44 37
6.604774e+000 -3.390755e+000 5.775442e-002 65 56 47
6.626448e+000 -3.382787e+000 3.706920e-002 123 117 102
7.923922e+000 -3.617759e+000 -5.520719e-001 67 56 52
8.065822e+000 -3.180430e+000 -3.376462e-001 107 96 87
8.345391e+000 -1.044339e+000 -1.735196e+000 158 138 103
5.982380e+000 -2.134844e+000 -4.520402e-001 63 53 58
7.287762e+000 -2.199847e+000 -1.045516e+000 49 33 33
5.549667e+000 -3.642002e+000 -4.978718e-001 125 115 113
5.725716e+000 -3.309870e+000 -3.901850e-001 25 20 28
5.994788e+000 -2.924205e+000 -2.108049e-001 151 145 131
6.351363e+000 -2.745368e+000 -2.312718e-001 114 107 91
6.351363e+000 -2.745368e+000 -2.312718e-001 114 107 91
6.203850e+000 -2.889784e+000 -1.331546e-001 124 121 109
6.511676e+000 -2.713501e+000 -1.464754e-001 95 89 70
6.032701e+000 -3.121073e+000 -8.802820e-002 82 77 66
5.795815e+000 -3.446767e+000 -3.948748e-002 36 31 42
6.165611e+000 -3.147550e+000 -9.683187e-003 104 105 91
5.743513e+000 -3.523421e+000 2.115729e-001 40 26 39
6.455920e+000 -3.078893e+000 2.066431e-002 129 127 114
6.446703e+000 -3.323686e+000 7.780978e-002 73 67 54
6.568128e+000 -3.402523e+000 7.521602e-002 78 70 59
6.667174e+000 -3.659622e+000 1.358648e-001 31 13 19
8.157687e+000 -3.128990e+000 -2.319642e-001 123 106 83
8.444205e+000 -3.274606e+000 -3.740917e-001 116 93 61
6.244043e+000 -2.837356e+000 -1.808754e-001 74 62 58
6.600426e+000 -2.670035e+000 -3.218033e-001 71 54 36
6.159201e+000 -3.066616e+000 -8.324627e-002 85 81 70
6.509359e+000 -2.793456e+000 -1.566155e-001 52 39 33
6.094853e+000 -3.315561e+000 -4.742083e-002 77 74 69
6.860123e+000 -3.025549e+000 -3.584852e-001 32 20 21
8.186824e+000 -2.947220e+000 -9.115582e-001 53 38 33
7.690763e+000 -3.127250e+000 -5.948966e-001 107 97 85
9.131924e+000 -2.300898e+000 -5.876208e-001 143 131 75
8.228289e+000 -3.174370e+000 -2.282293e-001 117 96 64
5.970293e+000 -3.083718e+000 -2.357696e-001 128 123 117
5.888059e+000 -2.261909e+000 -4.491080e-001 62 52 60
6.439324e+000 -3.608818e+000 1.980991e-001 70 64 64
6.439324e+000 -3.608818e+000 1.980991e-001 70 64 64
5.790325e+000 -2.471408e+000 -2.867993e-001 78 62 72
6.107439e+000 -2.196435e+000 -1.745428e-001 62 47 54
6.667234e+000 -2.673761e+000 -4.505526e-001 33 22 20
6.667234e+000 -2.673761e+000 -4.505526e-001 33 22 20
5.867805e+000 -3.407884e+000 2.539320e-001 80 63 73
5.896392e+000 -2.971868e+000 -2.299826e-001 150 149 141
5.896392e+000 -2.971868e+000 -2.299826e-001 150 149 141
8.105064e+000 -2.917956e+000 -8.639120e-001 51 38 32
8.331186e+000 -3.288865e+000 -3.649712e-001 109 87 73
5.664500e+000 -2.661815e+000 -3.827386e-001 45 32 41
7.591998e+000 -2.529882e+000 -8.316947e-001 68 50 38
8.734882e+000 -2.596648e+000 -1.208911e+000 164 154 93
7.104898e+000 -3.504932e+000 -4.765399e-001 169 148 93
7.318390e+000 -3.727979e+000 -5.444121e-001 175 156 98
7.318390e+000 -3.727979e+000 -5.444121e-001 175 156 98
7.906606e+000 -2.589293e+000 -1.497353e+000 64 43 32
7.623495e+000 -2.629898e+000 -7.859955e-001 94 81 67
7.927845e+000 -2.529751e+000 -1.652143e+000 61 45 38
7.927845e+000 -2.529751e+000 -1.652143e+000 61 45 38
8.907691e+000 -2.248454e+000 -9.780636e-001 144 130 85
6.081022e+000 -2.129043e+000 -1.322563e+000 82 50 36
7.950210e+000 -3.467099e+000 -4.087131e-001 120 110 100
7.447684e+000 -2.445325e+000 -8.504635e-001 98 85 72
7.635844e+000 -2.476242e+000 -8.808486e-001 101 89 65
7.777245e+000 -2.902423e+000 -7.091344e-001 64 48 33
7.620155e+000 -2.428777e+000 -9.025839e-001 103 88 67
6.057970e+000 -3.070922e+000 -9.406981e-002 151 146 135
6.244753e+000 -2.838488e+000 -1.813677e-001 74 62 58
7.349387e+000 -2.124018e+000 -1.092749e+000 116 107 98
5.587162e+000 -3.562762e+000 -3.530255e-001 66 54 56
6.377991e+000 -2.847826e+000 -8.432552e-002 68 63 60
6.002772e+000 -3.372139e+000 2.571664e-002 56 48 59
7.982472e+000 -3.183126e+000 -6.004911e-001 95 85 75
8.480281e+000 -3.256597e+000 -3.758551e-001 159 147 104
7.529616e+000 -2.256538e+000 -1.836907e+000 99 84 77
7.479787e+000 -2.449098e+000 -8.686343e-001 65 52 43
6.291487e+000 -2.922309e+000 4.466958e-003 72 71 67
8.818111e+000 -2.153125e+000 -1.131304e+000 173 165 118
6.393314e+000 -3.416644e+000 1.073533e-001 65 57 55
7.882310e+000 -3.899828e+000 -5.828829e-001 72 56 56
7.960087e+000 -3.342074e+000 -4.344368e-001 109 108 104
7.453367e+000 -2.325245e+000 -1.678087e+000 81 69 64
7.333516e+000 -2.166625e+000 -1.065428e+000 83 75 66
7.326652e+000 -2.318193e+000 -9.178555e-001 49 38 34
5.832057e+000 -3.319323e+000 -1.053270e-001 217 254 254
5.876122e+000 -3.297251e+000 -1.493802e-001 129 131 129
6.312010e+000 -2.790669e+000 -1.820288e-001 76 71 65
7.546954e+000 -2.446394e+000 -8.609034e-001 99 87 73
7.698951e+000 -2.385222e+000 -9.623559e-001 68 56 34
6.295741e+000 -2.835711e+000 -1.331761e-001 106 107 102
7.925317e+000 -2.549271e+000 -9.838595e-001 72 55 37
7.750228e+000 -2.604558e+000 -8.735500e-001 107 90 72
8.829510e+000 -2.145146e+000 -1.151244e+000 147 140 89
6.464058e+000 -2.898450e+000 5.326965e-003 103 101 89
8.756648e+000 -2.717607e+000 -1.164744e+000 130 117 73
7.964875e+000 -3.297730e+000 -4.085556e-001 129 117 119
8.073713e+000 -3.244279e+000 -2.660956e-001 114 110 109
7.440186e+000 -2.369079e+000 -1.607006e+000 56 41 34
7.501821e+000 -2.317906e+000 -1.619790e+000 80 63 56
7.501821e+000 -2.317906e+000 -1.619790e+000 80 63 56
7.542653e+000 -2.332514e+000 -1.657590e+000 53 36 28
7.341205e+000 -2.247671e+000 -9.766003e-001 71 65 65
7.997579e+000 -2.528787e+000 -1.651303e+000 84 70 61
7.263658e+000 -2.750718e+000 -1.059815e+000 31 19 19
6.187812e+000 -2.875997e+000 -1.677581e-001 144 146 133
5.962283e+000 -3.246294e+000 -9.101774e-002 87 87 87
6.465251e+000 -2.752629e+000 -2.165461e-001 55 48 40
6.413079e+000 -2.833380e+000 -5.415061e-002 74 63 53
8.160662e+000 -2.717112e+000 -9.905573e-001 176 179 168
7.590101e+000 -2.452294e+000 -8.650139e-001 67 53 42
6.085809e+000 -3.035330e+000 -9.269215e-002 105 98 90
6.262660e+000 -2.857907e+000 -1.459580e-001 113 116 105
6.329394e+000 -3.431953e+000 1.011803e-001 39 31 28
7.985234e+000 -3.825877e+000 -4.639987e-001 179 159 109
7.956225e+000 -3.715096e+000 -4.693622e-001 107 97 87
7.960606e+000 -3.312412e+000 -4.354554e-001 180 185 183
7.286651e+000 -2.571287e+000 -8.068265e-001 89 89 87
7.940299e+000 -2.436152e+000 -2.640201e+000 111 96 57
7.860715e+000 -3.886600e+000 -6.566629e-001 70 59 57
7.412137e+000 -2.365024e+000 -1.636326e+000 79 64 57
7.621171e+000 -2.432072e+000 -8.939758e-001 102 91 69
7.462346e+000 -2.350946e+000 -1.624912e+000 74 57 50
7.332649e+000 -2.348804e+000 -8.925762e-001 51 40 34
7.470010e+000 -2.633800e+000 -7.411796e-001 101 92 75
5.722749e+000 -3.342813e+000 -3.520497e-001 154 172 169
5.888454e+000 -3.297586e+000 -4.690049e-002 47 45 46
5.963631e+000 -3.395188e+000 -1.367509e-002 48 44 43
8.206079e+000 -2.884089e+000 -9.358710e-001 150 152 138
7.957721e+000 -3.783052e+000 -5.249626e-001 119 111 93
7.975985e+000 -3.219134e+000 -4.715037e-001 120 123 112
7.975826e+000 -3.386126e+000 -3.721085e-001 157 158 147
7.978226e+000 -3.331294e+000 -3.653014e-001 121 113 100
7.994440e+000 -3.300504e+000 -3.848318e-001 124 117 105
7.994984e+000 -3.323729e+000 -3.529157e-001 123 111 95
8.064200e+000 -3.176527e+000 -3.761771e-001 93 81 61
8.329663e+000 -3.261897e+000 -4.133502e-001 81 63 45
8.329695e+000 -3.226861e+000 -3.811929e-001 116 94 60
8.373722e+000 -3.242399e+000 -3.697866e-001 85 65 31
8.419851e+000 -3.220709e+000 -3.246074e-001 180 166 119
7.806821e+000 -2.371108e+000 -3.022947e+000 153 131 71
7.444091e+000 -2.366782e+000 -1.833165e+000 64 47 27
5.576164e+000 -3.556310e+000 -3.397400e-001 127 123 113
5.600247e+000 -3.529989e+000 -3.608098e-001 91 89 74
8.033540e+000 -2.564632e+000 -1.633257e+000 80 67 51
5.719427e+000 -3.364424e+000 -3.224424e-001 60 62 57
5.864104e+000 -3.310161e+000 -7.854068e-002 90 103 93
5.864104e+000 -3.310161e+000 -7.854068e-002 90 103 93
7.439604e+000 -2.766559e+000 -6.690666e-001 72 55 35
7.597477e+000 -2.626878e+000 -7.751930e-001 77 61 35
5.942829e+000 -3.548596e+000 7.050891e-002 35 27 31
5.956096e+000 -3.535566e+000 6.283778e-002 198 204 197
5.956096e+000 -3.535566e+000 6.283778e-002 198 204 197
7.291540e+000 -3.374101e+000 -6.535887e-001 40 32 23
7.349630e+000 -3.322338e+000 -6.807383e-001 52 38 29
7.929709e+000 -3.768453e+000 -5.523839e-001 105 98 82
8.098229e+000 -3.205609e+000 -5.980503e-001 75 56 41
8.932802e+000 -2.186742e+000 -9.432342e-001 179 170 103
7.913000e+000 -3.469849e+000 -4.394130e-001 105 98 82
7.918699e+000 -3.481256e+000 -4.423339e-001 105 98 82
7.940099e+000 -3.427741e+000 -4.463692e-001 116 111 96
7.944674e+000 -3.434227e+000 -4.475143e-001 116 111 96
7.925333e+000 -3.525621e+000 -4.392608e-001 147 142 123
7.939333e+000 -3.456876e+000 -4.362516e-001 149 152 133
7.958362e+000 -3.364626e+000 -4.522246e-001 120 114 101
7.953971e+000 -3.284787e+000 -4.541075e-001 120 112 99
7.992443e+000 -3.448677e+000 -3.952182e-001 174 178 164
7.950979e+000 -3.373313e+000 -3.781418e-001 174 178 164
8.992189e+000 -3.101735e+000 -7.915523e-001 158 154 106
8.986334e+000 -3.042223e+000 -7.903526e-001 176 169 110
8.043924e+000 -3.228944e+000 -2.925686e-001 205 214 206
8.043924e+000 -3.228944e+000 -2.925686e-001 205 214 206
8.135967e+000 -3.267177e+000 -1.791045e-001 152 149 130
7.374268e+000 -2.884156e+000 -1.993335e+000 71 50 31
7.440846e+000 -2.325978e+000 -1.785576e+000 93 78 60
7.509607e+000 -2.320328e+000 -1.859431e+000 92 76 61
7.522681e+000 -2.312506e+000 -1.601572e+000 50 33 23
7.265868e+000 -2.550362e+000 -1.416306e+000 67 55 53
7.256830e+000 -2.500502e+000 -1.433620e+000 63 53 44
5.781113e+000 -3.231633e+000 -1.124141e-001 72 75 75
5.804251e+000 -3.222707e+000 -1.065430e-001 135 166 163
5.832247e+000 -3.332700e+000 -8.608161e-002 45 36 41
7.431324e+000 -2.484853e+000 -8.194218e-001 72 60 39
7.421058e+000 -2.468674e+000 -8.096143e-001 72 60 39
7.448320e+000 -2.490403e+000 -8.034530e-001 99 87 61
5.879076e+000 -3.332516e+000 -4.569103e-002 176 210 203
5.974261e+000 -3.192223e+000 -9.064215e-002 146 147 129
6.186677e+000 -3.000517e+000 -2.407431e-002 132 131 111
6.313613e+000 -2.902864e+000 2.878022e-003 129 131 117
7.335537e+000 -2.907697e+000 -6.094609e-001 86 75 57
7.665437e+000 -2.881722e+000 -6.623640e-001 77 63 37
7.939516e+000 -3.219452e+000 -5.906748e-001 107 97 85
6.477901e+000 -3.500363e+000 2.109489e-001 82 74 53
7.913489e+000 -3.709357e+000 -5.609667e-001 65 53 41
7.892075e+000 -3.561315e+000 -5.239278e-001 75 62 53
9.158472e+000 -5.726506e+000 -2.976415e-001 174 167 100
5.860490e+000 -2.166806e+000 -1.336292e+000 100 72 58
7.778719e+000 -3.302109e+000 -2.869739e+000 171 150 97
7.884489e+000 -3.254753e+000 -2.773732e+000 153 133 80
7.863050e+000 -3.223009e+000 -2.746780e+000 153 133 80
7.538000e+000 -2.280712e+000 -1.817284e+000 90 74 60
7.459650e+000 -2.332716e+000 -1.682227e+000 77 61 48
7.655610e+000 -2.268788e+000 -1.663869e+000 55 37 26
7.688227e+000 -2.220175e+000 -1.674703e+000 54 40 28
5.570571e+000 -3.623185e+000 -6.304450e-001 53 39 30
7.311167e+000 -2.498766e+000 -1.350915e+000 48 33 27
7.401161e+000 -2.469220e+000 -1.363163e+000 48 31 23
7.367416e+000 -2.348337e+000 -9.086486e-001 90 80 68
5.795420e+000 -3.226932e+000 -1.463497e-001 231 255 255
5.795420e+000 -3.226932e+000 -1.463497e-001 231 255 255
5.895985e+000 -3.235800e+000 -1.642717e-001 136 134 115
7.311691e+000 -2.428914e+000 -8.824325e-001 51 43 32
7.362477e+000 -2.436425e+000 -8.350430e-001 64 51 35
5.751180e+000 -3.391561e+000 -5.757074e-002 65 73 72
5.770006e+000 -3.379143e+000 -3.618966e-002 242 255 255
5.977833e+000 -3.171100e+000 -1.101723e-001 68 65 50
5.857246e+000 -3.310855e+000 -5.691967e-002 33 37 39
6.045086e+000 -3.134808e+000 -6.361885e-002 150 153 135
6.201521e+000 -2.878738e+000 -1.294128e-001 136 131 109
6.175460e+000 -3.056869e+000 -1.801569e-002 85 79 61
6.429800e+000 -2.811248e+000 -1.010909e-001 77 65 49
8.757223e+000 -2.802004e+000 -1.241021e+000 111 97 53
7.966497e+000 -3.183102e+000 -6.284574e-001 64 46 34
8.914813e+000 -2.202910e+000 -9.359103e-001 151 141 82
7.946981e+000 -3.307624e+000 -4.603026e-001 162 182 171
6.021329e+000 -2.162788e+000 -1.355601e+000 133 105 68
5.625075e+000 -2.393274e+000 -4.967182e-001 97 85 85
7.398379e+000 -2.358975e+000 -1.618876e+000 75 59 46
7.370750e+000 -2.171592e+000 -1.000086e+000 79 69 57
6.005545e+000 -3.110977e+000 -1.068115e-001 126 121 99
6.155234e+000 -3.002923e+000 -5.389733e-002 82 79 61
6.156191e+000 -3.007245e+000 -5.508593e-002 82 79 61
6.606959e+000 -2.792794e+000 -2.289317e-001 83 65 43
6.334697e+000 -2.937318e+000 1.850618e-002 66 55 43
6.434897e+000 -2.833188e+000 -2.250987e-002 74 58 43
7.527292e+000 -2.992838e+000 -5.935318e-001 102 88 64
6.366146e+000 -3.383470e+000 1.000167e-001 109 110 94
8.191825e+000 -2.861674e+000 -8.690983e-001 168 184 166
8.837241e+000 -2.680439e+000 -1.088836e+000 145 133 77
8.838162e+000 -2.681416e+000 -1.089149e+000 145 133 77
9.026935e+000 -2.375413e+000 -7.130250e-001 149 139 77
9.172732e+000 -2.178491e+000 -5.060066e-001 189 183 120
6.125959e+000 -2.902489e+000 -1.141384e-001 60 48 37
6.209656e+000 -2.975791e+000 -3.499425e-002 80 71 54
5.974861e+000 -3.454542e+000 4.545453e-002 26 20 26
7.970941e+000 -2.730966e+000 -9.210795e-001 104 88 63
8.005503e+000 -3.196255e+000 -4.009527e-001 135 129 116
9.003056e+000 -3.340814e+000 -7.156484e-001 135 124 78
8.139026e+000 -3.182023e+000 -1.932721e-001 149 172 166
8.413564e+000 -3.224543e+000 -3.519204e-001 108 93 45
7.281295e+000 -2.771058e+000 -1.200498e+000 27 18 19
7.281295e+000 -2.771058e+000 -1.200498e+000 27 18 19
6.386797e+000 -3.533141e+000 2.780305e-001 46 27 29
8.225470e+000 -3.168732e+000 -2.285978e-001 119 99 64
5.902156e+000 -2.403955e+000 -3.378321e-001 59 49 50
5.944298e+000 -3.328074e+000 -5.954036e-002 41 32 31
7.474916e+000 -2.555316e+000 -7.924593e-001 98 90 62
5.796249e+000 -3.567594e+000 2.799757e-001 54 37 40
6.962756e+000 -3.219660e+000 -2.092660e-001 152 135 69
5.901478e+000 -2.329378e+000 -1.234648e+000 66 41 34
6.927822e+000 -3.230569e+000 -1.293573e-001 67 48 30
6.097201e+000 -2.201160e+000 -1.299927e+000 90 64 49
5.768466e+000 -2.286536e+000 -3.573101e-001 37 25 29
7.667245e+000 -2.968751e+000 -6.171346e-001 76 60 43
6.114420e+000 -2.216474e+000 -3.313541e-001 63 53 54
7.341770e+000 -2.386819e+000 -1.171015e+000 36 25 21
8.301501e+000 -3.252491e+000 -3.448585e-001 79 57 40
5.803658e+000 -3.295788e+000 -1.960190e-001 96 96 89
5.745204e+000 -3.428737e+000 1.996805e-001 69 57 68
7.748561e+000 -2.664095e+000 -8.401030e-001 73 62 40
8.198449e+000 -2.918422e+000 -8.585976e-001 77 84 77
8.221692e+000 -3.025283e+000 -7.658100e-001 147 145 141
7.966917e+000 -3.373846e+000 -3.696371e-001 148 153 143
9.008702e+000 -4.065460e+000 -6.538218e-001 154 149 91
8.210365e+000 -3.141465e+000 -3.736459e-001 99 82 61
5.709594e+000 -3.487067e+000 -8.508586e-002 166 184 184
5.736065e+000 -3.491705e+000 -6.180996e-002 125 128 137
5.823372e+000 -3.351408e+000 -2.841481e-002 241 255 255
6.017186e+000 -3.162098e+000 -7.016196e-002 126 127 115
7.628276e+000 -2.485239e+000 -8.991188e-001 77 64 36
7.714510e+000 -2.400186e+000 -9.655958e-001 77 62 39
7.346768e+000 -2.728315e+000 -6.536834e-001 104 95 78
7.516292e+000 -2.841523e+000 -6.396774e-001 79 71 51
8.233528e+000 -2.934057e+000 -9.198502e-001 90 86 76
8.195462e+000 -2.858581e+000 -9.068458e-001 87 92 80
8.267172e+000 -3.164807e+000 -9.097734e-001 43 33 28
6.436042e+000 -3.379589e+000 1.180742e-001 64 60 51
7.819557e+000 -3.501150e+000 -5.093512e-001 84 74 71
7.819557e+000 -3.501150e+000 -5.093512e-001 84 74 71
6.708891e+000 -3.649008e+000 2.655414e-001 42 38 52
8.074317e+000 -3.778318e+000 -4.313673e-001 115 103 90
8.009731e+000 -3.398899e+000 -3.852295e-001 100 102 88
8.899824e+000 -2.611299e+000 -9.172740e-001 144 144 83
8.012029e+000 -3.455639e+000 -3.473446e-001 145 145 134
8.002279e+000 -3.285364e+000 -3.292983e-001 152 158 151
8.084512e+000 -3.242501e+000 -2.415149e-001 152 155 146
8.119090e+000 -3.301085e+000 -2.294581e-001 112 112 102
9.239799e+000 -3.682433e+000 -3.286537e-001 140 138 82
6.100794e+000 -2.238383e+000 -1.402671e+000 97 72 42
5.567209e+000 -3.717089e+000 -5.557732e-001 50 39 33
5.534850e+000 -3.612317e+000 -4.120874e-001 73 60 54
5.542940e+000 -3.615174e+000 -3.146863e-001 86 53 82
5.683826e+000 -3.468416e+000 -2.968576e-001 131 127 118
7.328601e+000 -2.211495e+000 -1.064534e+000 96 92 80
5.874856e+000 -3.279530e+000 -1.446381e-001 122 122 122
5.718814e+000 -3.416538e+000 -3.427129e-002 40 29 37
5.824418e+000 -3.357714e+000 5.219112e-003 219 253 253
5.824418e+000 -3.357714e+000 5.219112e-003 219 253 253
7.444777e+000 -2.463531e+000 -8.178417e-001 101 89 67
6.149857e+000 -3.016236e+000 -3.420725e-002 140 142 131
7.414269e+000 -2.705442e+000 -6.796442e-001 70 60 40
7.535313e+000 -2.659217e+000 -7.429073e-001 105 94 70
7.369584e+000 -2.949807e+000 -6.003493e-001 61 52 37
7.461356e+000 -2.769474e+000 -6.623828e-001 103 96 73
8.146151e+000 -2.691245e+000 -9.818731e-001 138 133 117
6.381814e+000 -2.839464e+000 -2.214895e-002 80 73 61
7.568742e+000 -2.947749e+000 -6.156838e-001 93 84 67
7.877880e+000 -3.867334e+000 -6.639374e-001 38 31 25
8.195596e+000 -3.105351e+000 -7.836337e-001 78 80 74
6.716171e+000 -3.609674e+000 1.566921e-001 54 45 33
8.917287e+000 -3.095784e+000 -8.813624e-001 152 147 92
8.046597e+000 -3.209434e+000 -3.293316e-001 210 238 238
8.922964e+000 -2.349470e+000 -7.706668e-001 180 183 125
5.869674e+000 -2.296884e+000 -1.290331e+000 92 70 56
7.442149e+000 -2.333845e+000 -1.794108e+000 78 64 57
7.488723e+000 -2.304794e+000 -1.805561e+000 77 63 52
7.489644e+000 -2.305678e+000 -1.806178e+000 77 63 52
7.491980e+000 -2.270924e+000 -1.767542e+000 48 34 23
5.637722e+000 -3.545756e+000 -3.364235e-001 134 131 122
5.704577e+000 -3.405727e+000 -3.102585e-001 90 84 84
5.704577e+000 -3.405727e+000 -3.102585e-001 90 84 84
5.782918e+000 -3.279192e+000 -1.723332e-001 30 31 41
7.342203e+000 -2.252358e+000 -1.049140e+000 95 89 75
5.758200e+000 -3.409573e+000 -9.051820e-002 168 201 208
5.755169e+000 -3.384714e+000 -8.762067e-002 168 201 208
5.813286e+000 -3.220411e+000 -1.288611e-001 50 43 51
7.303118e+000 -2.337495e+000 -9.150601e-001 68 58 49
5.827313e+000 -3.321682e+000 4.079389e-002 25 20 24
5.871906e+000 -3.419546e+000 5.798510e-002 25 18 25
8.888453e+000 -2.867854e+000 -1.245475e+000 132 124 75
8.805255e+000 -2.388112e+000 -1.171905e+000 145 143 86
8.805255e+000 -2.388112e+000 -1.171905e+000 145 143 86
7.985605e+000 -3.325889e+000 -5.641066e-001 120 109 100
8.158653e+000 -3.315762e+000 -5.347055e-001 163 155 106
8.190317e+000 -3.260268e+000 -4.729596e-001 171 168 112
8.916074e+000 -2.586666e+000 -9.179661e-001 169 170 110
8.917388e+000 -2.398839e+000 -9.566480e-001 153 149 93
8.949126e+000 -2.376657e+000 -9.226956e-001 154 152 95
9.023203e+000 -1.990298e+000 -6.450241e-001 175 175 118
5.977825e+000 -2.159646e+000 -1.379160e+000 94 70 44
6.032761e+000 -2.168308e+000 -1.388255e+000 104 80 56
6.085402e+000 -2.202381e+000 -1.082766e+000 73 59 60
6.541728e+000 -2.343040e+000 -1.273741e+000 91 77 72
7.314353e+000 -2.827656e+000 -2.037310e+000 75 63 40
7.514490e+000 -3.065378e+000 -2.148354e+000 132 115 85
7.514490e+000 -3.065378e+000 -2.148354e+000 132 115 85
7.378364e+000 -2.543856e+000 -1.780283e+000 77 63 53
7.649849e+000 -2.369016e+000 -1.927617e+000 52 39 30
7.463268e+000 -2.442472e+000 -1.680600e+000 70 57 51
5.604330e+000 -3.604484e+000 -3.344578e-001 61 50 44
5.686302e+000 -3.507537e+000 -3.425818e-001 43 36 32
5.943784e+000 -3.198786e+000 -1.656529e-001 114 113 108
5.589995e+000 -3.505655e+000 1.167815e-001 69 52 60
6.238368e+000 -2.789161e+000 -1.323533e-001 97 98 85
5.695029e+000 -3.534314e+000 2.276375e-001 49 38 46
7.235880e+000 -3.381652e+000 -6.314231e-001 55 44 39
6.261277e+000 -2.931266e+000 1.611302e-002 128 133 113
7.892222e+000 -2.699760e+000 -8.980334e-001 75 67 48
8.741394e+000 -2.414075e+000 -1.217121e+000 136 133 80
6.391190e+000 -3.465566e+000 1.234129e-001 42 33 30
8.282573e+000 -3.121703e+000 -9.042899e-001 64 55 46
8.001567e+000 -3.230443e+000 -5.704035e-001 81 69 55
8.885383e+000 -2.292175e+000 -1.026296e+000 143 139 84
8.931167e+000 -2.968142e+000 -8.181569e-001 141 132 75
8.954857e+000 -2.517083e+000 -8.750579e-001 139 129 80
8.987606e+000 -2.122095e+000 -8.144315e-001 156 154 97
9.027720e+000 -2.105663e+000 -7.337985e-001 172 170 113
9.027720e+000 -2.105663e+000 -7.337985e-001 172 170 113
9.243997e+000 -3.889295e+000 -1.537228e-001 157 154 103
5.964414e+000 -2.243522e+000 -1.400639e+000 145 126 83
5.662372e+000 -2.054320e+000 -5.754560e-001 40 25 32
5.560580e+000 -3.597271e+000 -3.334062e-001 132 130 118
5.614588e+000 -3.593444e+000 -2.943680e-001 131 137 128
5.833038e+000 -3.236859e+000 -1.323587e-001 41 39 40
5.976579e+000 -3.471900e+000 4.417243e-002 28 24 31
6.126917e+000 -3.197557e+000 -3.098065e-002 128 132 117
6.331801e+000 -2.965947e+000 5.868104e-002 120 121 113
7.956243e+000 -2.888565e+000 -8.309176e-001 101 92 75
8.764193e+000 -1.914479e+000 -1.219382e+000 163 161 110
6.571260e+000 -3.057283e+000 2.034302e-002 132 136 122
6.212630e+000 -3.430645e+000 2.441401e-001 32 20 22
6.729634e+000 -3.625860e+000 1.836756e-001 107 104 73
6.080462e+000 -2.316049e+000 -1.399091e+000 61 44 32
7.635035e+000 -2.262367e+000 -1.870126e+000 85 78 61
5.842409e+000 -2.460260e+000 -1.996083e-001 65 50 57
6.070027e+000 -2.316176e+000 -3.513172e-001 73 62 70
6.138139e+000 -2.224328e+000 -2.967884e-001 75 65 73
5.812682e+000 -3.440724e+000 -1.037912e-001 43 50 53
6.177067e+000 -2.845194e+000 -1.454465e-001 114 112 97
7.689396e+000 -2.453570e+000 -9.224316e-001 103 92 63
7.845893e+000 -2.788002e+000 -8.298118e-001 76 65 46
6.393689e+000 -2.858500e+000 -5.322900e-002 115 118 99
6.646352e+000 -2.896217e+000 -1.258366e-001 87 74 53
6.995815e+000 -3.291035e+000 -9.217129e-002 161 148 93
7.921403e+000 -3.549559e+000 -4.785365e-001 119 119 114
5.861612e+000 -2.328932e+000 -3.531110e-001 55 44 49
6.134584e+000 -2.307676e+000 -3.844418e-001 61 56 62
7.311597e+000 -2.751732e+000 -8.334568e-001 26 18 16
7.853643e+000 -2.474241e+000 -9.867112e-001 106 95 61
6.202511e+000 -3.046034e+000 1.511377e-002 136 141 127
5.849439e+000 -3.401301e+000 2.752868e-001 86 71 78
7.571526e+000 -2.826958e+000 -6.628015e-001 106 99 71
8.157038e+000 -2.759305e+000 -9.381685e-001 140 146 144
6.081192e+000 -2.314685e+000 -2.860615e-001 28 20 23
6.081192e+000 -2.314685e+000 -2.860615e-001 28 20 23
7.265076e+000 -3.289727e+000 -6.376158e-001 52 45 38
6.466043e+000 -2.840438e+000 -5.475046e-002 55 45 33
7.538519e+000 -3.097838e+000 -6.034622e-001 99 93 70
8.215690e+000 -3.052385e+000 -8.058337e-001 160 190 192
8.329242e+000 -2.101637e+000 -2.040852e+000 119 114 76
5.775142e+000 -3.331493e+000 -2.748780e-001 44 34 33
6.295156e+000 -2.871352e+000 -6.419778e-002 39 35 36
6.295156e+000 -2.871352e+000 -6.419778e-002 39 35 36
8.893476e+000 -1.969987e+000 -9.685344e-001 152 148 99
6.270389e+000 -2.390498e+000 -1.227446e+000 47 29 25
7.464097e+000 -3.397891e+000 -6.896584e-001 38 31 23
8.871076e+000 -2.453656e+000 -1.012195e+000 172 173 113
8.879321e+000 -2.460910e+000 -1.013340e+000 172 173 113
8.330628e+000 -3.293346e+000 -3.507457e-001 75 64 42
7.650526e+000 -2.288729e+000 -1.779590e+000 75 62 50
7.220523e+000 -2.831458e+000 -1.408765e+000 63 45 39
6.125727e+000 -3.373723e+000 4.667105e-002 25 20 23
7.810915e+000 -3.596186e+000 -5.850153e-001 61 47 44
8.877398e+000 -2.973253e+000 -9.990418e-001 167 167 107
8.689612e+000 -3.194566e+000 -8.170211e-001 74 56 42
8.689612e+000 -3.194566e+000 -8.170211e-001 74 56 42
7.894810e+000 -3.193771e+000 -2.706285e+000 151 132 89
7.982058e+000 -3.379050e+000 -3.481091e-001 124 117 106
7.811887e+000 -3.217510e+000 -2.799748e+000 140 107 61
7.371860e+000 -2.394120e+000 -1.629040e+000 52 35 25
9.161547e+000 -3.316178e+000 -4.754176e-001 182 173 104
7.779101e+000 -3.270079e+000 -2.890249e+000 152 119 74
5.840454e+000 -3.332111e+000 -5.432431e-002 47 46 44
8.247984e+000 -3.243046e+000 -3.837419e-001 67 55 36
8.989615e+000 -2.291578e+000 -7.876063e-001 180 179 122
9.003600e+000 -2.242659e+000 -7.248367e-001 158 156 95
9.025596e+000 -2.241992e+000 -7.360742e-001 178 176 115
8.527887e+000 -1.691283e+000 -1.670177e+000 149 139 88
7.916660e+000 -3.508540e+000 -4.360045e-001 138 138 129
8.862018e+000 -3.182097e+000 -9.275549e-001 132 118 79
7.935827e+000 -3.353841e+000 -4.293496e-001 149 155 151
8.013952e+000 -3.485752e+000 -4.301499e-001 112 109 99
8.299894e+000 -3.259021e+000 -3.796293e-001 67 54 38
8.190142e+000 -3.161077e+000 -1.967336e-001 118 114 102
9.096292e+000 -2.518293e+000 -6.332200e-001 182 182 122
7.321555e+000 -2.449874e+000 -1.667155e+000 74 61 52
7.473087e+000 -2.467803e+000 -8.242636e-001 76 62 47
7.535159e+000 -2.657242e+000 -7.431708e-001 105 94 70
8.008303e+000 -3.223964e+000 -3.274397e-001 119 120 110
9.006093e+000 -2.058881e+000 -7.854866e-001 180 181 124
7.490863e+000 -2.337506e+000 -1.867958e+000 56 39 29
7.306960e+000 -2.419679e+000 -8.794853e-001 55 45 42
7.346370e+000 -2.376800e+000 -8.849831e-001 53 42 33
7.373061e+000 -2.394952e+000 -8.485075e-001 87 78 61
8.877936e+000 -1.885581e+000 -9.981941e-001 177 180 125
8.407641e+000 -3.218189e+000 -3.083115e-001 170 166 105
5.543094e+000 -3.671478e+000 -5.906552e-001 56 43 37
8.559772e+000 -1.748603e+000 -1.620711e+000 151 145 93
8.911994e+000 -2.568929e+000 -9.485962e-001 136 129 77
8.961947e+000 -2.550826e+000 -9.540126e-001 176 177 119
5.854779e+000 -2.438683e+000 -1.265077e+000 154 140 90
8.644792e+000 -2.227850e+000 -1.391492e+000 137 129 83
8.879511e+000 -1.715748e+000 -9.625608e-001 170 164 116
7.368327e+000 -2.155753e+000 -1.058704e+000 139 148 148
7.287512e+000 -2.725865e+000 -7.176264e-001 63 68 62
7.937630e+000 -3.516094e+000 -4.247704e-001 139 138 128
8.916585e+000 -3.096623e+000 -9.111000e-001 141 140 84
9.045400e+000 -3.976229e+000 -6.270532e-001 156 153 98
8.340688e+000 -3.250447e+000 -3.481861e-001 106 94 64
8.164081e+000 -3.306883e+000 -1.830847e-001 144 146 134
7.668026e+000 -2.198130e+000 -1.583879e+000 81 65 55
7.653373e+000 -2.163080e+000 -1.553275e+000 55 39 31
7.625075e+000 -2.379367e+000 -9.146275e-001 87 76 48
7.957384e+000 -2.464671e+000 -9.627052e-001 46 32 23
7.571399e+000 -3.066421e+000 -5.844062e-001 72 64 45
8.194140e+000 -2.941410e+000 -9.022847e-001 59 56 46
8.946225e+000 -6.057721e+000 -6.101115e-001 159 140 98
7.927022e+000 -3.579421e+000 -4.521415e-001 108 103 94
8.794494e+000 -2.361078e+000 -1.151539e+000 135 132 81
8.000205e+000 -3.461117e+000 -3.941374e-001 149 152 141
8.072374e+000 -3.192175e+000 -4.218144e-001 65 56 41
8.095824e+000 -3.341045e+000 -2.980681e-001 119 120 115
8.052024e+000 -3.277633e+000 -3.122008e-001 160 170 162
8.236300e+000 -3.226438e+000 -3.797280e-001 66 54 30
8.103889e+000 -3.243327e+000 -2.147470e-001 115 116 108
9.161828e+000 -3.253544e+000 -4.264162e-001 181 179 119
7.460689e+000 -2.771934e+000 -2.025433e+000 72 59 51
5.509586e+000 -3.527973e+000 -6.375594e-001 83 76 73
7.278923e+000 -2.484369e+000 -1.605398e+000 67 56 52
7.258068e+000 -2.423713e+000 -1.503694e+000 50 37 31
7.275572e+000 -2.448115e+000 -1.516588e+000 50 37 31
8.325570e+000 -1.849984e+000 -1.829132e+000 127 120 78
7.436258e+000 -2.363140e+000 -8.654550e-001 70 62 41
7.518029e+000 -2.549598e+000 -7.887019e-001 73 62 43
8.784601e+000 -2.331621e+000 -1.153240e+000 170 167 114
8.833884e+000 -2.326368e+000 -1.098773e+000 139 135 87
8.346329e+000 -3.263161e+000 -3.290079e-001 70 57 31
9.316992e+000 -4.539118e+000 -8.251753e-002 136 133 78
9.280830e+000 -3.724295e+000 -3.328135e-001 142 137 79
7.519726e+000 -2.285247e+000 -1.891451e+000 52 38 27
7.521331e+000 -2.286714e+000 -1.892956e+000 52 38 27
7.352234e+000 -2.291056e+000 -1.593097e+000 69 58 52
7.255624e+000 -2.539250e+000 -1.394755e+000 60 49 47
7.639160e+000 -2.275820e+000 -1.590790e+000 44 28 29
5.806983e+000 -3.186324e+000 -2.000318e-001 53 39 39
5.830099e+000 -3.336307e+000 -1.120648e-001 104 126 127
7.329045e+000 -2.261672e+000 -9.980418e-001 107 108 98
7.351931e+000 -2.345506e+000 -8.756157e-001 91 81 69
8.089330e+000 -3.339906e+000 -3.515115e-001 116 116 110
7.498363e+000 -2.234902e+000 -1.777427e+000 76 61 56
6.456728e+000 -2.892800e+000 -2.601723e-002 69 62 44
8.724169e+000 -1.990991e+000 -1.164643e+000 180 183 132
9.010335e+000 -2.603892e+000 -9.295398e-001 139 134 79
8.022133e+000 -3.291657e+000 -3.155133e-001 160 165 159
8.050686e+000 -1.685114e+000 -2.243668e+000 136 129 85
8.111368e+000 -1.847705e+000 -2.198110e+000 125 110 78
5.621463e+000 -2.371862e+000 -4.962960e-001 87 75 79
5.747192e+000 -2.541357e+000 -3.348600e-001 33 22 29
7.618033e+000 -2.230895e+000 -1.492392e+000 63 50 41
6.222123e+000 -3.010585e+000 -3.598300e-002 69 62 54
6.331317e+000 -2.994847e+000 2.219454e-002 71 69 56
7.606171e+000 -3.003786e+000 -5.920844e-001 68 61 45
9.211385e+000 -3.681572e+000 -4.229590e-001 175 174 116
5.732447e+000 -1.966237e+000 -6.970839e-001 75 70 76
5.741568e+000 -1.900954e+000 -6.400121e-001 34 25 28
5.647209e+000 -2.403465e+000 -4.680787e-001 42 29 36
7.299789e+000 -2.634302e+000 -1.286845e+000 54 44 42
7.290810e+000 -2.300414e+000 -9.580836e-001 39 28 24
5.896786e+000 -3.428433e+000 4.402028e-003 35 32 37
5.725586e+000 -3.636356e+000 1.786812e-001 59 48 56
7.681146e+000 -2.677184e+000 -7.821223e-001 108 98 71
8.182682e+000 -2.919552e+000 -8.260780e-001 168 188 189
5.826646e+000 -2.440433e+000 -3.654789e-001 28 22 24
7.295170e+000 -2.664094e+000 -7.328709e-001 122 135 131
8.897537e+000 -1.961647e+000 -1.086392e+000 183 186 137
8.108691e+000 -3.284610e+000 -2.185890e-001 141 142 130
5.634991e+000 -2.074457e+000 -7.590779e-001 41 29 29
7.222029e+000 -2.555409e+000 -1.469043e+000 41 32 25
8.110576e+000 -2.922299e+000 -8.881952e-001 45 36 28
8.145174e+000 -3.228659e+000 -4.176270e-001 72 57 39
7.948898e+000 -3.083057e+000 -5.880674e-001 73 57 42
8.313590e+000 -2.971342e+000 -1.351058e+000 43 33 24
8.299478e+000 -3.336909e+000 -5.708728e-001 171 172 115
7.567522e+000 -2.198976e+000 -1.722100e+000 80 66 53
7.530429e+000 -2.304341e+000 -1.487149e+000 42 31 29
5.816175e+000 -2.312694e+000 -1.126666e+000 152 135 83
5.816175e+000 -2.312694e+000 -1.126666e+000 152 135 83
7.351550e+000 -2.440034e+000 -1.511719e+000 66 54 42
7.902497e+000 -3.239358e+000 -2.759228e+000 151 138 96
8.135877e+000 -2.035265e+000 -2.358998e+000 119 111 72
7.307620e+000 -2.439497e+000 -1.594524e+000 67 54 48
7.307620e+000 -2.439497e+000 -1.594524e+000 67 54 48
8.937381e+000 -2.503066e+000 -9.099909e-001 172 172 114
7.824475e+000 -3.299339e+000 -2.886404e+000 151 117 82
8.992435e+000 -3.100534e+000 -7.653388e-001 135 130 94
7.386499e+000 -4.401482e+000 -3.213459e+000 123 103 52
7.713143e+000 -2.217964e+000 -1.692100e+000 83 69 60
5.838310e+000 -3.353220e+000 1.887330e-002 69 64 71
8.934854e+000 -2.393767e+000 -9.329250e-001 176 174 117
9.098419e+000 -3.427718e+000 -5.929125e-001 177 172 114
8.140993e+000 -3.336592e+000 -1.656290e-001 182 176 126
7.448874e+000 -2.322741e+000 -1.676597e+000 67 54 45
7.467947e+000 -2.324021e+000 -1.608427e+000 45 35 25
8.195567e+000 -2.863376e+000 -8.866000e-001 154 184 180
7.923891e+000 -3.517747e+000 -4.372207e-001 134 134 125
8.300287e+000 -3.241029e+000 -3.935968e-001 99 88 67
8.936201e+000 -2.606993e+000 -8.787446e-001 178 181 126
8.943793e+000 -2.613299e+000 -8.796515e-001 178 181 126
7.325013e+000 -2.131161e+000 -1.120608e+000 106 106 93
7.928585e+000 -3.718309e+000 -5.007177e-001 115 113 100
9.022304e+000 -3.135999e+000 -8.584340e-001 157 152 100
8.796210e+000 -1.759101e+000 -1.191575e+000 184 190 143
5.489417e+000 -3.267668e+000 -8.128602e-001 114 112 102
7.297783e+000 -2.506133e+000 -1.613590e+000 66 56 47
5.800322e+000 -3.326321e+000 -1.383475e-002 42 52 57
8.692238e+000 -2.261719e+000 -1.397108e+000 132 130 82
8.750335e+000 -2.106887e+000 -1.265782e+000 186 188 138
7.954739e+000 -3.213462e+000 -5.107436e-001 107 108 107
8.841084e+000 -2.326606e+000 -1.126674e+000 168 169 112
8.971011e+000 -3.082828e+000 -7.908919e-001 155 156 115
8.936815e+000 -2.565950e+000 -8.935841e-001 166 169 114
8.940600e+000 -2.217433e+000 -9.434525e-001 147 147 97
8.934377e+000 -2.213197e+000 -9.421593e-001 147 147 97
7.928943e+000 -3.371413e+000 -2.869553e+000 158 146 98
7.295513e+000 -2.501338e+000 -1.665517e+000 74 61 55
7.527614e+000 -2.263467e+000 -1.837558e+000 79 69 60
5.690105e+000 -3.292856e+000 -3.378164e-001 43 33 39
5.700947e+000 -3.458454e+000 -9.057219e-002 106 117 121
7.334644e+000 -2.237830e+000 -9.746952e-001 64 59 53
5.929646e+000 -3.425075e+000 5.434507e-002 137 169 170
5.935869e+000 -3.444777e+000 5.492671e-002 137 169 170
7.280269e+000 -2.702094e+000 -6.599671e-001 99 102 91
8.742205e+000 -1.980587e+000 -1.362841e+000 164 166 116
8.783089e+000 -2.042292e+000 -1.241969e+000 162 162 112
8.802600e+000 -2.080520e+000 -1.226881e+000 182 187 136
5.952110e+000 -3.410333e+000 4.155616e-002 26 25 30
9.085359e+000 -3.326676e+000 -6.577435e-001 159 159 105
7.334056e+000 -2.479534e+000 -1.734542e+000 76 64 55
7.561420e+000 -2.256188e+000 -1.897337e+000 81 70 61
8.861054e+000 -2.152352e+000 -1.140188e+000 148 151 98
5.732397e+000 -1.964948e+000 -6.959773e-001 71 68 75
8.847938e+000 -2.003115e+000 -1.143764e+000 187 192 145
8.311901e+000 -3.276554e+000 -3.497929e-001 95 83 61
7.424668e+000 -6.148183e+001 -4.627651e+000 92 126 97
6.667090e+000 -5.960719e+001 -4.740977e+000 124 102 99
9.146057e+000 -5.699178e+001 -5.096924e+000 138 68 118
6.380488e+000 -6.889606e+001 -4.859185e+000 156 95 113
1.058295e+001 -4.866999e+001 -3.692989e+000 118 139 168
1.022120e+001 -4.895028e+001 -2.857783e+000 76 53 109
8.059089e+000 -3.167913e+000 -3.757487e-001 85 77 57
7.669750e+000 -2.263449e+000 -1.621595e+000 72 58 47
8.759759e+000 -2.812102e+000 -1.213992e+000 131 125 85
7.944107e+000 -3.306062e+000 -4.209853e-001 106 110 106
8.928314e+000 -3.400562e+000 -7.242350e-001 129 125 83
8.105155e+000 -3.261051e+000 -2.412297e-001 150 158 146
8.359647e+000 -3.256045e+000 -3.836562e-001 109 100 72
9.001882e+000 -2.565144e+000 -8.109849e-001 179 182 127
7.303925e+000 -2.462816e+000 -1.682438e+000 53 42 36
7.659548e+000 -2.270757e+000 -1.666905e+000 46 31 28
7.957540e+000 -3.257800e+000 -5.332449e-001 94 99 96
7.957540e+000 -3.257800e+000 -5.332449e-001 94 99 96
7.290663e+000 -2.531793e+000 -1.617756e+000 53 40 34
7.526495e+000 -2.307916e+000 -1.637937e+000 48 34 25
9.189790e+000 -3.668523e+000 -4.877807e-001 153 148 90
5.723897e+000 -3.325225e+000 -3.345489e-001 48 49 51
5.741861e+000 -3.293094e+000 -1.538231e-001 65 70 76
5.968097e+000 -3.504933e+000 5.583918e-002 47 48 56
6.000285e+000 -3.491214e+000 9.693763e-002 41 36 40
6.008266e+000 -3.458986e+000 8.649078e-002 80 78 81
7.251578e+000 -2.639323e+000 -7.418922e-001 75 76 71
7.927259e+000 -3.521884e+000 -4.370406e-001 139 140 123
7.888239e+000 -3.434159e+000 -4.122116e-001 135 132 115
8.153551e+000 -3.216226e+000 -6.108035e-001 123 127 100
8.168011e+000 -3.063441e+000 -7.373780e-001 82 88 74
8.173400e+000 -3.014292e+000 -7.319155e-001 212 241 236
8.175699e+000 -2.906816e+000 -8.161638e-001 210 239 236
7.985865e+000 -3.488186e+000 -3.925513e-001 114 111 96
8.849532e+000 -2.931828e+000 -1.059565e+000 157 159 102
8.834892e+000 -2.761450e+000 -1.034531e+000 163 162 105
8.038603e+000 -3.183249e+000 -4.524416e-001 77 69 49
8.038603e+000 -3.183249e+000 -4.524416e-001 77 69 49
8.836291e+000 -2.455239e+000 -1.084039e+000 187 193 131
8.126463e+000 -3.300640e+000 -2.426274e-001 150 153 134
8.126463e+000 -3.300640e+000 -2.426274e-001 150 153 134
8.839552e+000 -2.645031e+000 -9.580552e-001 183 185 127
8.907698e+000 -2.670326e+000 -9.463073e-001 185 185 126
8.797655e+000 -2.188581e+000 -1.166800e+000 153 150 95
8.343310e+000 -3.239107e+000 -3.424050e-001 117 101 75
8.951045e+000 -2.224890e+000 -9.623429e-001 178 179 121
9.214842e+000 -3.412979e+000 -3.582487e-001 153 148 84
7.730451e+000 -5.422225e+000 -3.031969e+000 132 120 62
7.276560e+000 -2.512669e+000 -1.673665e+000 30 19 15
5.701975e+000 -3.446025e+000 -2.766208e-001 67 63 59
5.749444e+000 -3.253542e+000 -1.502794e-001 54 59 67
5.780220e+000 -3.364666e+000 -5.785044e-002 138 149 151
7.699484e+000 -2.337719e+000 -1.444984e+000 52 38 29
5.948258e+000 -3.424745e+000 9.728162e-002 63 58 62
7.318348e+000 -2.063989e+000 -1.018110e+000 106 101 80
7.902928e+000 -3.398554e+000 -4.247117e-001 136 147 135
7.902928e+000 -3.398554e+000 -4.247117e-001 136 147 135
8.173968e+000 -2.814361e+000 -8.429885e-001 78 61 43
8.637234e+000 -2.055830e+000 -1.427209e+000 189 194 140
8.604092e+000 -2.012171e+000 -1.421563e+000 164 168 117
8.733875e+000 -2.369204e+000 -1.188999e+000 146 145 89
8.642585e+000 -1.942985e+000 -1.391436e+000 195 199 148
8.670688e+000 -1.958185e+000 -1.395775e+000 195 199 148
7.987202e+000 -3.312568e+000 -3.749469e-001 160 162 148
7.987202e+000 -3.312568e+000 -3.749469e-001 160 162 148
8.079562e+000 -3.199579e+000 -4.491304e-001 98 87 65
8.880643e+000 -2.728515e+000 -1.009554e+000 181 185 125
8.880643e+000 -2.728515e+000 -1.009554e+000 181 185 125
8.785995e+000 -2.355835e+000 -1.152792e+000 147 145 89
8.692370e+000 -2.276221e+000 -1.147817e+000 177 177 119
8.719517e+000 -2.059915e+000 -1.308191e+000 189 190 132
8.900133e+000 -2.609236e+000 -9.442605e-001 183 184 124
8.193133e+000 -3.285751e+000 -2.248666e-001 114 110 98
8.193133e+000 -3.285751e+000 -2.248666e-001 114 110 98
9.774686e+000 -3.778570e+000 -6.865262e-001 169 167 106
8.761256e+000 -1.993201e+000 -1.124277e+000 166 175 118
7.771272e+000 -3.248346e+000 -2.939934e+000 165 151 100
7.773857e+000 -3.516283e+000 -2.855466e+000 144 127 75
5.539486e+000 -3.682518e+000 -4.535361e-001 81 72 65
5.535535e+000 -3.578485e+000 -3.862836e-001 148 140 129
5.692046e+000 -3.445904e+000 -3.090122e-001 68 59 50
5.720570e+000 -3.332968e+000 -3.502409e-001 138 154 151
5.776883e+000 -3.377176e+000 -2.202456e-001 93 89 71
5.746817e+000 -3.499823e+000 -5.074877e-002 87 93 93
5.760007e+000 -3.472323e+000 -5.778413e-002 54 60 64
7.707565e+000 -2.235460e+000 -1.605803e+000 77 60 49
7.676049e+000 -2.186701e+000 -1.591456e+000 50 37 28
5.904065e+000 -3.378992e+000 -5.962006e-003 46 51 53
5.786908e+000 -3.457282e+000 2.417715e-001 69 58 64
6.042935e+000 -3.468893e+000 7.617349e-002 64 63 63
7.283924e+000 -2.263020e+000 -1.024983e+000 77 67 57
7.257435e+000 -2.731160e+000 -6.458666e-001 67 62 46
7.354238e+000 -2.313552e+000 -8.818198e-001 71 63 42
8.166648e+000 -2.880282e+000 -8.845659e-001 166 189 189
8.817292e+000 -2.708853e+000 -1.311152e+000 160 164 105
8.528846e+000 -2.041697e+000 -1.420004e+000 179 186 134
8.564711e+000 -1.909217e+000 -1.519953e+000 151 151 101
8.590967e+000 -1.890195e+000 -1.515581e+000 179 177 126
8.191417e+000 -2.912481e+000 -8.593749e-001 78 83 80
8.704622e+000 -2.753875e+000 -1.122308e+000 171 172 114
7.962088e+000 -3.184950e+000 -5.261590e-001 121 124 114
9.116440e+000 -3.484890e+000 -7.490699e-001 120 110 71
9.452724e+000 -4.937949e+000 3.060305e-002 173 176 119
8.223499e+000 -3.242725e+000 -4.013308e-001 94 82 56
8.358590e+000 -3.242127e+000 -3.629701e-001 66 54 30
8.797054e+000 -2.122004e+000 -1.140652e+000 145 144 87
8.324950e+000 -3.231543e+000 -3.203558e-001 66 52 26
9.027282e+000 -2.945619e+000 -7.659129e-001 182 184 119
8.770095e+000 -1.920157e+000 -1.185857e+000 192 197 140
8.788420e+000 -1.764286e+000 -1.300264e+000 157 156 108
8.788420e+000 -1.764286e+000 -1.300264e+000 157 156 108
9.157560e+000 -3.373889e+000 -5.182531e-001 181 182 116
8.971062e+000 -2.555030e+000 -8.660592e-001 174 174 114
7.722602e+000 -4.128796e+000 -3.018742e+000 146 134 76
7.798427e+000 -3.164090e+000 -2.719026e+000 162 147 102
7.894295e+000 -2.857473e+000 -2.776629e+000 142 131 88
5.493650e+000 -3.286430e+000 -8.135195e-001 113 110 101
5.592220e+000 -3.148345e+000 -9.197268e-001 96 89 81
5.473695e+000 -3.376191e+000 -7.446956e-001 110 105 93
5.491302e+000 -3.276753e+000 -7.869275e-001 77 73 63
5.560419e+000 -3.188319e+000 -7.310878e-001 143 141 128
5.601750e+000 -3.155433e+000 -8.077126e-001 118 110 98
7.635261e+000 -2.948282e+000 -2.234174e+000 98 82 63
7.438721e+000 -2.867628e+000 -2.026236e+000 56 44 32
7.451246e+000 -2.858033e+000 -2.069053e+000 80 67 54
7.474851e+000 -2.850429e+000 -2.084939e+000 50 38 26
7.297385e+000 -2.979298e+000 -1.723957e+000 51 43 40
7.409380e+000 -2.430503e+000 -1.852060e+000 60 43 33
7.440710e+000 -2.297103e+000 -1.807909e+000 51 36 31
7.440710e+000 -2.297103e+000 -1.807909e+000 51 36 31
5.657805e+000 -3.587348e+000 -2.959036e-001 84 79 64
7.284430e+000 -2.448246e+000 -1.644787e+000 47 38 31
7.284430e+000 -2.448246e+000 -1.644787e+000 47 38 31
7.312731e+000 -2.536671e+000 -1.335094e+000 58 49 41
7.312731e+000 -2.536671e+000 -1.335094e+000 58 49 41
5.732736e+000 -3.486845e+000 -3.523865e-002 28 23 27
5.759162e+000 -3.381202e+000 -1.079423e-001 61 65 76
5.759162e+000 -3.381202e+000 -1.079423e-001 61 65 76
5.752022e+000 -3.367891e+000 -8.402916e-002 169 205 200
5.757953e+000 -3.384602e+000 -8.198358e-002 169 205 200
7.305569e+000 -2.532834e+000 -1.276399e+000 54 44 35
7.695275e+000 -2.281559e+000 -1.564451e+000 49 37 25
5.826730e+000 -3.363102e+000 8.441547e-003 234 255 254
5.995838e+000 -3.494397e+000 3.682883e-002 69 67 68
6.008727e+000 -3.472881e+000 9.529540e-002 72 67 71
7.284946e+000 -2.396648e+000 -8.699226e-001 52 44 36
7.284946e+000 -2.396648e+000 -8.699226e-001 52 44 36
8.643596e+000 -2.238995e+000 -1.485620e+000 167 168 113
8.577036e+000 -2.150663e+000 -1.558247e+000 166 169 126
8.577036e+000 -2.150663e+000 -1.558247e+000 166 169 126
8.711260e+000 -2.558661e+000 -1.369840e+000 129 129 77
8.711260e+000 -2.558661e+000 -1.369840e+000 129 129 77
8.639950e+000 -2.209116e+000 -1.421300e+000 146 140 90
8.552144e+000 -1.854705e+000 -1.528821e+000 162 162 110
7.958136e+000 -3.230277e+000 -5.486583e-001 170 192 185
8.159559e+000 -3.070841e+000 -7.319541e-001 84 85 68
8.159559e+000 -3.070841e+000 -7.319541e-001 84 85 68
8.803067e+000 -2.712660e+000 -1.093787e+000 172 174 111
8.752246e+000 -2.089990e+000 -1.291155e+000 160 159 103
8.903309e+000 -2.932881e+000 -8.520867e-001 185 187 122
8.823332e+000 -2.188246e+000 -1.185565e+000 148 143 87
8.858079e+000 -1.913186e+000 -1.192860e+000 193 200 148
9.593552e+000 -5.039959e+000 1.878744e-001 173 167 107
9.207838e+000 -3.730213e+000 -3.422427e-001 190 200 138
8.928734e+000 -2.500833e+000 -8.782723e-001 144 139 84
5.592437e+000 -3.185225e+000 -9.728419e-001 60 49 43
5.782172e+000 -2.638020e+000 -1.188620e+000 138 121 74
7.888322e+000 -3.756031e+000 -2.626587e+000 147 135 93
5.494754e+000 -3.292773e+000 -8.472786e-001 82 76 60
5.565812e+000 -3.149005e+000 -9.428018e-001 102 99 90
5.565812e+000 -3.149005e+000 -9.428018e-001 102 99 90
5.577974e+000 -3.126348e+000 -7.392356e-001 132 129 114
5.596382e+000 -3.544683e+000 -3.287053e-001 66 51 46
5.633765e+000 -3.530244e+000 -3.303246e-001 124 125 111
