ply
format ascii 1.0
element face 0
property list uchar int vertex_indices
element vertex 889
property float x
property float y
property float z
property uchar diffuse_red
property uchar diffuse_green
property uchar diffuse_blue
end_header
7.567612e+000 -2.950631e+000 -5.959253e-001 94 79 72
6.664718e+000 -3.136386e+000 1.099484e-002 69 55 43
6.570626e+000 -3.329385e+000 7.361774e-002 80 71 65
7.945310e+000 -3.542121e+000 -4.263105e-001 99 90 81
8.039355e+000 -3.631282e+000 -3.839266e-001 104 87 80
6.485710e+000 -2.990796e+000 1.859720e-002 49 36 28
7.655180e+000 -3.244563e+000 -6.312384e-001 39 24 21
7.317448e+000 -3.722857e+000 -7.395156e-001 87 68 56
6.763105e+000 -4.494807e+000 1.272786e-001 172 145 97
6.747541e+000 -2.433194e+000 -8.849931e-001 43 27 27
8.564842e+000 -3.436474e+000 -2.417202e+000 102 88 80
6.528830e+000 -2.619796e+000 -3.838270e-001 78 66 57
6.371894e+000 -2.685253e+000 -3.046231e-001 119 110 105
6.186011e+000 -2.801884e+000 -2.504737e-001 87 84 77
7.145213e+000 -2.740081e+000 -1.277787e+000 113 97 105
6.291993e+000 -2.842689e+000 -1.267585e-001 115 107 106
6.419135e+000 -2.877566e+000 -1.986300e-003 73 61 52
6.291843e+000 -2.944945e+000 2.905804e-002 129 126 114
7.301580e+000 -2.883392e+000 -6.421089e-001 45 32 24
6.188101e+000 -3.026486e+000 -1.424016e-002 98 98 86
6.230293e+000 -3.019655e+000 3.494703e-003 139 137 127
8.206946e+000 -2.902475e+000 -9.636367e-001 86 76 68
5.490294e+000 -3.442356e+000 -7.130900e-001 117 104 98
6.011415e+000 -3.190098e+000 -7.995939e-002 132 129 124
6.209488e+000 -3.157806e+000 1.745727e-002 102 94 86
5.861681e+000 -3.338203e+000 -1.465291e-002 123 121 134
6.505299e+000 -3.193093e+000 4.325148e-002 68 63 55
6.506151e+000 -3.201004e+000 5.623062e-002 126 120 106
6.514750e+000 -3.208490e+000 6.649975e-002 66 57 48
6.643152e+000 -3.187046e+000 2.952433e-002 61 45 38
6.561467e+000 -3.252834e+000 5.737163e-002 131 129 123
6.474282e+000 -3.327072e+000 7.575669e-002 61 49 43
6.490971e+000 -3.366439e+000 8.372540e-002 91 84 76
7.469420e+000 -3.385232e+000 -6.616783e-001 57 45 41
8.041199e+000 -3.229281e+000 -3.451893e-001 161 167 160
8.147694e+000 -3.185389e+000 -2.278198e-001 104 93 91
6.433741e+000 -3.434861e+000 1.119706e-001 33 27 25
8.159187e+000 -3.251867e+000 -2.045249e-001 204 212 215
7.237369e+000 -3.681259e+000 -7.267181e-001 77 57 46
8.154755e+000 -3.362347e+000 -1.800332e-001 133 125 113
6.766373e+000 -3.686466e+000 2.043147e-001 113 108 80
7.329504e+000 -2.161523e+000 -1.076566e+000 106 93 89
7.282209e+000 -2.462016e+000 -1.582989e+000 78 63 74
7.251285e+000 -2.500436e+000 -1.503188e+000 77 68 69
7.545206e+000 -2.452763e+000 -8.470686e-001 91 73 61
6.238507e+000 -2.728844e+000 -2.812475e-001 50 41 36
6.370797e+000 -2.735901e+000 -2.513856e-001 66 56 47
7.988359e+000 -2.626653e+000 -9.891410e-001 70 51 30
6.000229e+000 -2.896228e+000 -2.466614e-001 121 118 113
6.122685e+000 -2.868213e+000 -1.964903e-001 99 96 89
6.257731e+000 -2.855070e+000 -1.276721e-001 129 127 117
6.414470e+000 -2.828178e+000 -5.597568e-002 77 67 56
6.520128e+000 -2.823908e+000 -1.483752e-001 77 57 46
6.539990e+000 -2.818690e+000 -1.686730e-001 58 40 30
7.880095e+000 -2.658086e+000 -9.069108e-001 94 75 61
8.101228e+000 -2.645300e+000 -1.016011e+000 119 107 95
8.143192e+000 -2.653801e+000 -1.050400e+000 73 52 47
6.054879e+000 -2.982339e+000 -1.351376e-001 151 152 138
6.396818e+000 -2.844670e+000 -4.165219e-002 84 80 73
7.926426e+000 -2.773959e+000 -8.447299e-001 100 81 66
7.930963e+000 -2.793045e+000 -8.334830e-001 97 78 62
7.930963e+000 -2.793045e+000 -8.334830e-001 97 78 62
6.071853e+000 -3.045323e+000 -1.136032e-001 143 139 134
7.852824e+000 -2.818677e+000 -8.001864e-001 63 46 29
6.170706e+000 -3.039364e+000 -2.939649e-002 141 137 126
6.132844e+000 -3.098891e+000 -3.570296e-002 96 93 73
5.986848e+000 -3.250174e+000 -8.204236e-002 152 154 145
6.398409e+000 -3.167574e+000 3.335661e-002 91 93 81
6.269968e+000 -3.216466e+000 1.666500e-002 96 85 81
6.581942e+000 -3.165298e+000 3.043609e-002 56 44 38
6.611500e+000 -3.176493e+000 2.905412e-002 88 79 70
6.622647e+000 -3.195691e+000 3.205675e-002 49 39 34
6.622647e+000 -3.195691e+000 3.205675e-002 49 39 34
6.118623e+000 -3.327123e+000 -3.872091e-002 90 87 82
6.476244e+000 -3.301460e+000 7.665726e-002 130 129 119
6.545334e+000 -3.250390e+000 5.821072e-002 52 48 45
6.582488e+000 -3.282700e+000 7.105296e-002 69 56 48
7.348862e+000 -3.340110e+000 -6.922993e-001 38 20 18
6.456045e+000 -3.364283e+000 8.566871e-002 58 46 40
6.466101e+000 -3.344182e+000 8.135163e-002 88 80 72
7.826595e+000 -3.318027e+000 -6.723811e-001 58 46 46
7.906678e+000 -3.317801e+000 -7.206677e-001 81 65 61
6.655137e+000 -3.407721e+000 6.109470e-002 81 67 61
7.903644e+000 -3.460729e+000 -7.364830e-001 63 43 44
8.166233e+000 -3.227047e+000 -1.986622e-001 204 210 205
8.430229e+000 -3.206468e+000 -3.259329e-001 123 111 95
7.279663e+000 -3.637997e+000 -7.138059e-001 42 28 19
7.556693e+000 -3.574810e+000 -7.387355e-001 52 34 27
7.592389e+000 -3.597575e+000 -7.372149e-001 58 41 34
7.942729e+000 -3.972068e+000 -5.987963e-001 107 86 74
7.348306e+000 -2.183237e+000 -1.015050e+000 152 150 151
7.467956e+000 -2.443536e+000 -8.323237e-001 69 51 41
7.467943e+000 -2.443412e+000 -8.309122e-001 69 51 41
6.537145e+000 -2.691094e+000 -2.977109e-001 111 111 103
6.119613e+000 -2.794070e+000 -3.038712e-001 93 87 87
6.348741e+000 -2.792815e+000 -1.863591e-001 130 126 116
7.582458e+000 -2.642649e+000 -7.825188e-001 92 74 60
7.690754e+000 -2.605044e+000 -8.157531e-001 91 74 61
7.780396e+000 -2.636677e+000 -8.660119e-001 67 50 32
6.030529e+000 -2.894558e+000 -2.406036e-001 135 134 129
6.223324e+000 -2.859638e+000 -1.537510e-001 134 136 129
6.286963e+000 -2.818610e+000 -1.864922e-001 138 131 123
6.586664e+000 -2.771929e+000 -2.242204e-001 70 52 39
6.414084e+000 -2.843774e+000 -2.276992e-002 152 152 142
6.487655e+000 -2.865202e+000 -4.308903e-002 52 37 32
6.619491e+000 -2.837902e+000 -2.115257e-001 35 21 20
7.468292e+000 -2.779480e+000 -6.935763e-001 91 75 63
7.759842e+000 -2.748280e+000 -7.875078e-001 90 73 57
7.824674e+000 -2.793126e+000 -8.021820e-001 93 76 58
7.990048e+000 -2.779770e+000 -9.493651e-001 94 77 58
6.367782e+000 -2.917348e+000 6.549114e-003 85 76 70
6.493692e+000 -2.914741e+000 -1.868139e-002 77 63 60
6.555949e+000 -2.942087e+000 -2.922187e-002 37 21 22
7.792437e+000 -2.856788e+000 -7.565781e-001 87 70 55
6.872590e+000 -3.028608e+000 -3.696992e-001 36 19 18
6.239834e+000 -3.112038e+000 2.913403e-002 154 156 145
6.101141e+000 -3.221686e+000 -3.640774e-002 85 79 71
6.518101e+000 -3.151395e+000 1.722143e-002 86 76 73
7.754026e+000 -3.109980e+000 -6.069411e-001 62 47 40
7.844597e+000 -3.063248e+000 -6.030696e-001 59 45 33
6.027213e+000 -3.291744e+000 -7.103199e-002 58 56 51
6.224822e+000 -3.281209e+000 -9.599847e-004 126 118 110
6.403064e+000 -3.182523e+000 4.680744e-002 139 136 118
6.550366e+000 -3.223800e+000 4.549790e-002 114 107 99
6.635695e+000 -3.156566e+000 2.922680e-002 96 86 76
7.337230e+000 -3.328343e+000 -7.175011e-001 76 58 56
6.337043e+000 -3.398188e+000 7.960629e-002 89 79 80
6.848922e+000 -3.334534e+000 -3.098387e-002 91 73 61
7.513127e+000 -3.450923e+000 -6.787796e-001 54 36 32
8.134887e+000 -3.189131e+000 -2.638676e-001 137 132 128
6.485863e+000 -3.443592e+000 1.049880e-001 50 38 35
7.558975e+000 -4.077445e+000 -1.047970e+000 106 79 50
8.063080e+000 -3.699081e+000 -4.164915e-001 90 72 61
8.047166e+000 -3.803205e+000 -4.729106e-001 122 103 88
6.999353e+000 -3.990772e+000 -2.684234e-001 163 136 91
7.739137e+000 -4.104831e+000 -8.717843e-001 176 155 105
7.368438e+000 -2.178462e+000 -9.754425e-001 82 80 69
7.637351e+000 -2.394374e+000 -9.111131e-001 71 51 40
6.121822e+000 -2.769456e+000 -3.218439e-001 32 22 23
6.212105e+000 -2.756215e+000 -2.747575e-001 68 58 57
6.240771e+000 -2.774445e+000 -2.242107e-001 61 55 49
6.393557e+000 -2.749567e+000 -2.366314e-001 52 40 34
5.933879e+000 -2.920824e+000 -3.073611e-001 116 113 108
6.135419e+000 -2.852063e+000 -2.266063e-001 127 124 115
6.507031e+000 -2.807296e+000 -1.799849e-001 39 26 20
7.308689e+000 -2.768256e+000 -6.572789e-001 91 83 80
7.503048e+000 -2.719955e+000 -7.337943e-001 85 68 60
7.568485e+000 -2.685197e+000 -7.367858e-001 78 62 47
6.014883e+000 -2.984411e+000 -1.582427e-001 149 146 137
6.144023e+000 -2.918302e+000 -1.498476e-001 162 162 153
6.437763e+000 -2.846145e+000 -4.230475e-002 69 51 40
7.315094e+000 -2.923280e+000 -6.927178e-001 53 38 35
7.580961e+000 -2.884995e+000 -6.514476e-001 66 54 40
7.891663e+000 -2.815834e+000 -8.328745e-001 90 72 54
6.460442e+000 -3.003737e+000 1.171205e-002 57 43 34
6.690042e+000 -2.948281e+000 -1.043722e-001 84 62 52
7.487949e+000 -2.942294e+000 -6.047286e-001 59 46 40
7.488552e+000 -2.942947e+000 -6.054058e-001 59 46 40
5.976688e+000 -3.213172e+000 -1.057526e-001 161 158 153
6.051772e+000 -3.185200e+000 -6.310842e-002 79 71 68
6.052602e+000 -3.184345e+000 -6.117951e-002 79 71 68
6.626782e+000 -3.054757e+000 -5.289514e-003 46 35 31
7.590623e+000 -3.054449e+000 -5.832708e-001 89 74 67
5.803149e+000 -3.326084e+000 -1.338391e-001 109 126 135
6.114760e+000 -3.240152e+000 -4.062274e-002 155 155 145
6.461917e+000 -3.102700e+000 1.863652e-002 116 117 112
6.508735e+000 -3.124631e+000 2.863379e-002 119 115 106
7.777251e+000 -3.079089e+000 -6.424297e-001 88 75 67
7.777251e+000 -3.079089e+000 -6.424297e-001 88 75 67
6.633115e+000 -3.217025e+000 3.271706e-002 86 79 69
6.114791e+000 -3.352612e+000 -4.487198e-002 61 44 44
7.280095e+000 -3.436326e+000 -6.641104e-001 39 24 19
6.550446e+000 -3.418266e+000 8.488665e-002 48 39 34
8.055864e+000 -3.282791e+000 -2.921107e-001 118 115 110
8.105517e+000 -3.265547e+000 -2.594565e-001 183 202 209
6.516852e+000 -3.468189e+000 1.028100e-001 92 78 75
7.945977e+000 -3.460423e+000 -4.103696e-001 109 97 91
7.945977e+000 -3.460423e+000 -4.103696e-001 109 97 91
7.988535e+000 -3.393921e+000 -3.511847e-001 118 112 108
7.617869e+000 -3.765231e+000 -7.717054e-001 51 35 33
7.575287e+000 -4.043101e+000 -1.073393e+000 75 59 38
7.603913e+000 -4.035842e+000 -1.053696e+000 149 125 89
7.599813e+000 -4.027540e+000 -1.029646e+000 149 125 89
7.807665e+000 -3.813386e+000 -6.874723e-001 46 32 29
6.127358e+000 -3.909783e+000 4.535906e-001 40 25 37
9.313570e+000 -3.933199e+000 -1.783725e-001 152 143 98
6.886191e+000 -2.317093e+000 -9.109228e-001 168 134 105
6.499239e+000 -2.764232e+000 -2.089547e-001 133 131 119
6.193122e+000 -2.851708e+000 -1.874879e-001 81 77 69
6.112458e+000 -2.955156e+000 -1.304598e-001 81 74 63
6.637279e+000 -2.893934e+000 -1.295629e-001 75 53 46
6.277937e+000 -3.028678e+000 2.060519e-002 100 95 87
6.670132e+000 -2.965860e+000 -6.102462e-002 53 36 26
6.130634e+000 -3.158666e+000 -1.807856e-002 152 155 144
6.324633e+000 -3.056897e+000 4.618548e-002 72 67 56
7.521818e+000 -3.115374e+000 -5.848612e-001 61 45 42
6.207441e+000 -3.357211e+000 -1.640227e-002 91 90 85
7.440341e+000 -3.375539e+000 -6.671218e-001 28 15 13
7.944975e+000 -3.308391e+000 -4.683884e-001 181 202 205
7.942433e+000 -3.306661e+000 -4.625650e-001 181 202 205
6.459489e+000 -3.436112e+000 9.186892e-002 124 119 115
7.939367e+000 -3.440352e+000 -4.337197e-001 155 168 172
7.939367e+000 -3.440352e+000 -4.337197e-001 155 168 172
7.336124e+000 -3.815604e+000 -8.063360e-001 97 74 58
7.924117e+000 -3.531715e+000 -4.571471e-001 149 150 149
6.444412e+000 -2.712728e+000 -2.738940e-001 67 54 48
6.318757e+000 -2.768049e+000 -2.250327e-001 75 66 59
6.316355e+000 -2.774997e+000 -2.575614e-001 75 66 59
6.206409e+000 -2.876872e+000 -1.319248e-001 121 122 114
6.353591e+000 -2.822948e+000 -1.422378e-001 66 54 50
6.037162e+000 -2.984712e+000 -1.642831e-001 135 135 125
6.159113e+000 -2.963915e+000 -9.830675e-002 126 124 112
7.628006e+000 -2.889490e+000 -6.623258e-001 87 70 60
6.325622e+000 -2.982398e+000 2.725603e-002 56 43 35
6.732937e+000 -3.003235e+000 -1.059305e-001 75 54 39
6.198416e+000 -3.083193e+000 3.395419e-003 150 153 144
6.695169e+000 -3.054766e+000 -3.615305e-002 40 26 23
6.066645e+000 -3.213412e+000 -4.863576e-002 149 154 147
8.457717e+000 -3.152864e+000 -1.197832e+000 80 63 47
5.903944e+000 -3.313157e+000 -8.490245e-002 50 42 46
6.159447e+000 -3.246762e+000 -2.680184e-002 73 64 59
6.657969e+000 -3.241639e+000 3.293225e-002 54 40 37
6.661721e+000 -3.495726e+000 6.894884e-002 75 56 40
6.283081e+000 -3.584045e+000 3.050975e-001 58 43 47
6.221838e+000 -3.132097e+000 2.562833e-002 154 154 144
7.471392e+000 -3.128597e+000 -5.934617e-001 70 52 48
6.158176e+000 -3.370979e+000 -3.660581e-002 37 28 30
8.461597e+000 -3.244079e+000 -3.562246e-001 124 115 103
6.481534e+000 -3.483431e+000 1.733780e-001 35 24 22
6.481534e+000 -3.483431e+000 1.733780e-001 35 24 22
7.878356e+000 -2.840508e+000 -7.870433e-001 93 74 57
6.063411e+000 -2.414159e+000 -2.186015e-001 28 17 23
6.673268e+000 -2.754701e+000 -5.479580e-001 25 11 18
6.290880e+000 -2.877283e+000 -7.333669e-002 20 18 23
6.393279e+000 -2.853127e+000 -6.430843e-002 89 85 76
6.480643e+000 -2.833265e+000 -6.428896e-002 55 35 28
5.994911e+000 -3.162979e+000 -1.169954e-001 136 135 131
8.139192e+000 -2.976418e+000 -9.222295e-001 50 36 35
6.640488e+000 -3.564661e+000 1.009760e-001 23 13 14
7.926518e+000 -3.836716e+000 -5.844715e-001 116 101 96
6.937113e+000 -4.057987e+000 -4.072865e-001 65 38 28
6.190978e+000 -2.829656e+000 -2.145219e-001 131 131 124
6.603811e+000 -3.706361e+000 1.990025e-001 27 18 19
7.702225e+000 -3.439938e+000 -6.292898e-001 85 71 69
7.453768e+000 -3.281950e+000 -6.699377e-001 42 31 27
8.216496e+000 -3.158741e+000 -1.280731e+000 71 54 47
5.969343e+000 -2.361954e+000 -2.462383e-001 62 49 56
7.310609e+000 -2.346473e+000 -1.006702e+000 60 49 51
7.310609e+000 -2.346473e+000 -1.006702e+000 60 49 51
5.912467e+000 -2.556312e+000 -1.218260e-001 38 23 30
7.016581e+000 -2.517241e+000 -1.058146e+000 155 131 93
7.016581e+000 -2.517241e+000 -1.058146e+000 155 131 93
7.008520e+000 -2.531401e+000 -9.739494e-001 160 136 99
7.020183e+000 -2.519690e+000 -9.286369e-001 89 64 34
6.104348e+000 -2.846624e+000 -2.554026e-001 107 104 99
6.149126e+000 -2.820851e+000 -2.951874e-001 79 72 62
6.385730e+000 -2.734421e+000 -2.616131e-001 87 78 71
5.759632e+000 -3.031071e+000 -3.931464e-001 153 151 152
5.816470e+000 -3.035821e+000 -3.712132e-001 127 123 120
5.881606e+000 -2.988577e+000 -2.710251e-001 150 149 144
5.900381e+000 -2.978608e+000 -2.846053e-001 135 135 127
5.993208e+000 -2.913135e+000 -1.992949e-001 133 130 121
5.974976e+000 -2.950715e+000 -2.430136e-001 126 122 113
5.974976e+000 -2.950715e+000 -2.430136e-001 126 122 113
6.220049e+000 -2.849318e+000 -2.130820e-001 131 127 118
6.304435e+000 -2.807607e+000 -2.050791e-001 77 73 64
6.327486e+000 -2.823483e+000 -2.458658e-001 72 69 60
7.259257e+000 -2.750803e+000 -6.696772e-001 76 71 65
5.641456e+000 -3.200750e+000 -5.414538e-001 137 133 129
6.198137e+000 -2.895307e+000 -1.401022e-001 136 136 128
6.240747e+000 -2.866683e+000 -7.826310e-002 111 108 99
5.931121e+000 -3.086697e+000 -2.057978e-001 118 114 109
5.931121e+000 -3.086697e+000 -2.057978e-001 118 114 109
6.234525e+000 -2.922061e+000 -2.623874e-002 105 105 100
6.267995e+000 -2.944112e+000 -1.026833e-002 147 144 135
6.429230e+000 -2.844536e+000 -1.627476e-003 96 88 76
5.552227e+000 -3.455879e+000 -6.120174e-001 83 68 67
6.006767e+000 -3.157329e+000 -1.128979e-001 143 142 137
6.207233e+000 -3.094273e+000 2.115167e-002 139 139 131
6.453497e+000 -2.988417e+000 3.715287e-002 57 48 41
6.140209e+000 -3.170816e+000 1.367547e-002 133 131 122
6.145066e+000 -3.175058e+000 3.581363e-002 107 102 93
6.162416e+000 -3.191431e+000 -1.093888e-002 105 104 92
6.326832e+000 -3.072078e+000 5.714948e-002 82 82 74
6.327260e+000 -3.107946e+000 3.113099e-002 93 92 80
5.854075e+000 -3.330044e+000 -8.277209e-002 209 241 244
5.844108e+000 -3.346152e+000 -4.896462e-002 49 43 53
5.974375e+000 -3.279086e+000 -7.824159e-002 70 69 65
6.050402e+000 -3.239782e+000 -3.657136e-002 101 98 93
6.269074e+000 -3.167774e+000 1.465157e-002 96 96 87
5.841873e+000 -3.357381e+000 -2.040904e-002 105 106 124
6.199939e+000 -3.276829e+000 -8.774936e-004 83 83 72
6.199939e+000 -3.276829e+000 -8.774936e-004 83 83 72
6.362085e+000 -3.197440e+000 7.411449e-002 102 101 97
6.419777e+000 -3.256668e+000 2.909046e-002 74 67 59
6.222885e+000 -3.380095e+000 9.975220e-004 93 84 85
6.403058e+000 -3.402460e+000 1.389876e-001 71 66 62
5.707631e+000 -3.714291e+000 3.298889e-001 89 72 80
5.826272e+000 -3.689527e+000 3.522986e-001 34 27 35
7.311638e+000 -2.169983e+000 -1.068187e+000 161 138 106
5.943381e+000 -2.525191e+000 -1.289365e-001 28 18 26
7.316985e+000 -2.402342e+000 -1.041506e+000 57 47 46
7.325375e+000 -2.355589e+000 -1.007591e+000 101 89 90
7.058267e+000 -2.513701e+000 -9.787487e-001 159 139 107
6.101928e+000 -2.822520e+000 -2.774745e-001 91 83 81
6.062669e+000 -2.852474e+000 -3.026373e-001 55 50 47
6.155470e+000 -2.838074e+000 -2.486357e-001 73 72 62
6.156613e+000 -2.834127e+000 -2.364495e-001 73 72 62
6.157288e+000 -2.822637e+000 -2.538614e-001 127 124 115
6.157288e+000 -2.822637e+000 -2.538614e-001 127 124 115
5.856686e+000 -2.985670e+000 -3.512856e-001 138 134 123
6.041871e+000 -2.925309e+000 -1.947867e-001 106 102 93
6.073558e+000 -2.876454e+000 -2.354248e-001 71 68 61
6.184148e+000 -2.879061e+000 -1.902129e-001 134 134 124
5.748901e+000 -3.087392e+000 -3.488259e-001 101 96 91
5.822712e+000 -3.033530e+000 -3.225832e-001 161 162 157
5.596670e+000 -3.258460e+000 -6.025564e-001 135 127 124
6.264316e+000 -2.920344e+000 1.039524e-002 116 117 109
6.231224e+000 -2.988605e+000 1.230169e-002 139 139 132
5.891511e+000 -3.225368e+000 -2.293229e-001 64 59 63
5.923438e+000 -3.196639e+000 -1.715069e-001 129 127 128
6.256420e+000 -3.065464e+000 2.807470e-002 123 123 113
6.282908e+000 -3.074260e+000 2.742446e-002 101 101 91
7.323237e+000 -2.981136e+000 -4.875792e-001 48 33 28
5.647886e+000 -3.378826e+000 -2.135612e-001 160 185 208
5.790106e+000 -3.310493e+000 -1.340174e-001 128 143 148
5.998436e+000 -3.241263e+000 -9.081686e-002 63 52 48
6.261947e+000 -3.128569e+000 3.027190e-002 95 97 84
5.830600e+000 -3.342137e+000 -1.062260e-001 50 49 59
5.878132e+000 -3.342934e+000 -2.875275e-002 60 59 68
5.911833e+000 -3.340306e+000 -1.138540e-001 43 34 39
6.446981e+000 -3.142012e+000 7.405979e-002 83 75 64
6.722417e+000 -3.104561e+000 -1.257118e-002 86 76 66
5.632522e+000 -3.484651e+000 -1.929114e-001 117 129 144
5.829203e+000 -3.375399e+000 -2.413943e-002 99 104 123
5.845604e+000 -3.393811e+000 4.153473e-002 62 53 66
6.320522e+000 -3.303246e+000 4.895427e-002 98 94 85
6.420365e+000 -3.238929e+000 9.967959e-002 93 88 79
6.550365e+000 -3.260670e+000 7.336875e-002 126 126 121
6.550365e+000 -3.260670e+000 7.336875e-002 126 126 121
5.988135e+000 -3.375362e+000 2.924630e-001 71 58 65
6.603414e+000 -3.322022e+000 9.186626e-002 61 54 49
5.825607e+000 -3.500530e+000 2.755039e-001 94 81 90
6.114833e+000 -3.460279e+000 2.398163e-001 77 68 73
5.729845e+000 -3.611177e+000 2.890025e-001 99 83 93
6.325703e+000 -3.530119e+000 2.119814e-001 93 80 87
6.636686e+000 -3.584501e+000 2.505354e-001 46 36 27
6.688493e+000 -3.569397e+000 2.757058e-001 70 59 41
6.007410e+000 -3.691443e+000 4.087706e-001 51 40 46
6.079323e+000 -3.833500e+000 3.594286e-001 67 61 66
6.079323e+000 -3.833500e+000 3.594286e-001 67 61 66
6.139421e+000 -3.721703e+000 4.112569e-001 65 54 59
6.139421e+000 -3.721703e+000 4.112569e-001 65 54 59
5.796846e+000 -3.987456e+000 3.660939e-001 68 49 58
7.383733e+000 -2.225846e+000 -9.635152e-001 106 97 92
5.732580e+000 -2.569673e+000 -1.902714e-001 86 72 85
5.769434e+000 -2.559634e+000 -2.114760e-001 51 35 45
5.888260e+000 -2.523217e+000 -1.607023e-001 39 28 36
6.843933e+000 -2.588660e+000 -6.496681e-001 71 51 42
7.598976e+000 -2.441048e+000 -8.847881e-001 66 50 37
7.743411e+000 -2.434430e+000 -1.018852e+000 98 80 66
6.345942e+000 -2.680744e+000 -2.847877e-001 54 43 41
6.323284e+000 -2.733917e+000 -3.364523e-001 67 54 57
6.481371e+000 -2.719087e+000 -3.485245e-001 73 67 61
7.488860e+000 -2.523938e+000 -8.181360e-001 65 50 38
5.995315e+000 -2.887999e+000 -3.327928e-001 106 100 96
6.126819e+000 -2.824487e+000 -2.719080e-001 101 98 93
6.279268e+000 -2.771376e+000 -2.524767e-001 144 147 136
6.361937e+000 -2.742024e+000 -2.235288e-001 125 122 114
6.626829e+000 -2.717814e+000 -3.839528e-001 70 51 45
6.009691e+000 -2.920593e+000 -2.393267e-001 66 63 56
6.129166e+000 -2.886887e+000 -1.902536e-001 132 129 120
6.127441e+000 -2.891144e+000 -2.025178e-001 132 129 120
6.222733e+000 -2.863276e+000 -1.653957e-001 134 134 124
6.422176e+000 -2.819462e+000 -1.958618e-001 103 99 89
6.422176e+000 -2.819462e+000 -1.958618e-001 103 99 89
5.505100e+000 -3.287225e+000 -7.862827e-001 148 148 142
5.612169e+000 -3.208130e+000 -5.450424e-001 142 137 133
5.692874e+000 -3.163359e+000 -4.617534e-001 140 140 132
6.039897e+000 -2.968349e+000 -1.690411e-001 141 141 132
6.236972e+000 -2.873562e+000 -1.482858e-001 83 81 69
6.297786e+000 -2.857901e+000 -1.199110e-001 26 26 24
5.546087e+000 -3.278809e+000 -6.700269e-001 135 132 127
5.537178e+000 -3.385216e+000 -7.861653e-001 131 122 119
5.643387e+000 -3.263128e+000 -5.527964e-001 152 149 144
5.870198e+000 -3.072712e+000 -2.645906e-001 142 143 135
5.984270e+000 -3.047013e+000 -2.635501e-001 97 94 85
5.984270e+000 -3.047013e+000 -2.635501e-001 97 94 85
6.130801e+000 -3.003275e+000 -9.289615e-002 89 89 81
6.130801e+000 -3.003275e+000 -9.289615e-002 89 89 81
6.203059e+000 -2.945925e+000 -1.031755e-001 124 120 112
6.242889e+000 -2.937865e+000 -3.633875e-002 144 149 143
6.291107e+000 -2.885823e+000 4.845958e-002 66 57 50
6.304484e+000 -2.891492e+000 -5.012170e-002 65 59 58
5.945588e+000 -3.167060e+000 -2.045937e-001 56 47 52
6.381368e+000 -2.980217e+000 -1.945634e-002 110 106 95
5.846881e+000 -3.272546e+000 -2.506560e-001 49 47 52
5.913142e+000 -3.191544e+000 -2.191475e-001 59 54 59
5.970730e+000 -3.183598e+000 -1.108598e-001 92 89 84
6.275711e+000 -3.061224e+000 2.297159e-002 134 134 124
6.377687e+000 -3.019556e+000 4.972748e-002 78 73 68
6.262550e+000 -3.138438e+000 6.320797e-002 134 135 125
6.604686e+000 -3.049055e+000 -1.796111e-002 87 73 63
6.460484e+000 -3.129237e+000 3.173767e-003 62 58 49
6.024050e+000 -3.241926e+000 2.722388e-001 52 45 55
6.192340e+000 -3.253268e+000 2.430660e-003 83 81 76
6.371421e+000 -3.311093e+000 6.574574e-002 94 84 80
6.485539e+000 -3.236733e+000 7.063653e-002 73 66 55
6.714840e+000 -3.234440e+000 5.835969e-002 84 74 65
6.336993e+000 -3.399633e+000 7.656860e-002 86 81 77
6.426401e+000 -3.379020e+000 7.908041e-002 63 54 48
6.500593e+000 -3.305945e+000 8.760150e-002 108 104 95
6.638653e+000 -3.302023e+000 3.147299e-002 87 77 68
5.667522e+000 -3.566095e+000 2.091222e-001 33 23 31
6.622246e+000 -3.346125e+000 7.288367e-002 109 103 93
6.622246e+000 -3.346125e+000 7.288367e-002 109 103 93
6.718337e+000 -3.391605e+000 3.486662e-002 46 29 22
6.655839e+000 -3.433238e+000 6.331317e-002 43 33 24
5.863228e+000 -3.657729e+000 3.744505e-001 22 12 20
6.189338e+000 -3.505429e+000 4.431264e-001 35 22 29
6.598981e+000 -3.548043e+000 2.019548e-001 105 91 63
6.284407e+000 -3.608908e+000 4.073685e-001 69 59 60
6.372157e+000 -3.629047e+000 3.571590e-001 54 42 48
5.789047e+000 -3.877878e+000 3.782414e-001 29 16 23
5.749188e+000 -3.981192e+000 3.055979e-001 54 37 47
5.531963e+000 -2.500489e+000 -4.884126e-001 51 35 48
7.367795e+000 -2.177715e+000 -9.699631e-001 78 70 67
7.334919e+000 -2.326996e+000 -9.677701e-001 53 41 43
7.326083e+000 -2.405437e+000 -8.572177e-001 99 96 94
7.740260e+000 -2.390705e+000 -1.046450e+000 102 81 67
6.170644e+000 -2.761087e+000 -2.779156e-001 99 92 84
6.647755e+000 -2.666552e+000 -3.832036e-001 32 19 17
6.026098e+000 -2.884815e+000 -2.944747e-001 68 58 57
6.287671e+000 -2.785712e+000 -2.265296e-001 73 64 54
5.863893e+000 -2.980729e+000 -2.651737e-001 97 90 82
6.052639e+000 -2.892831e+000 -2.902465e-001 77 69 65
6.077715e+000 -2.882428e+000 -1.885116e-001 123 127 118
6.077715e+000 -2.882428e+000 -1.885116e-001 123 127 118
6.464712e+000 -2.789481e+000 -3.140992e-001 50 44 36
6.467045e+000 -2.758791e+000 -2.164106e-001 50 44 36
5.952716e+000 -2.982061e+000 -2.085541e-001 164 169 161
5.952716e+000 -2.982061e+000 -2.085541e-001 164 169 161
6.012097e+000 -2.954117e+000 -1.450287e-001 80 75 64
6.045338e+000 -2.923737e+000 -1.312104e-001 92 83 74
6.063364e+000 -2.958158e+000 -1.677091e-001 96 87 78
6.063364e+000 -2.958158e+000 -1.677091e-001 96 87 78
6.323454e+000 -2.848894e+000 -1.274498e-001 93 94 90
5.596971e+000 -3.278391e+000 -6.744864e-001 95 84 84
5.810158e+000 -3.130213e+000 -3.674892e-001 73 69 58
6.215984e+000 -2.955321e+000 -6.283954e-002 68 63 57
6.107494e+000 -3.049625e+000 -8.440141e-002 95 86 84
6.670436e+000 -2.932669e+000 -1.511538e-001 71 54 35
5.902781e+000 -3.218556e+000 -1.527196e-001 145 144 139
5.931212e+000 -3.208709e+000 -1.470331e-001 81 77 73
6.512123e+000 -2.983590e+000 4.325034e-003 61 47 40
7.574296e+000 -2.960049e+000 -6.264454e-001 77 64 55
6.371209e+000 -3.004638e+000 1.723711e-001 74 69 63
5.757165e+000 -3.417032e+000 -3.597604e-002 245 255 254
5.821122e+000 -3.418802e+000 -8.022406e-003 238 255 255
5.820013e+000 -3.420811e+000 -9.917783e-003 238 255 255
6.139909e+000 -3.276086e+000 -1.813705e-002 141 146 138
6.193580e+000 -3.312007e+000 -2.589331e-002 124 124 116
6.142632e+000 -3.399116e+000 -6.578413e-003 73 65 63
6.862256e+000 -3.263336e+000 -6.082072e-002 77 64 56
6.350306e+000 -3.462897e+000 7.972223e-002 35 26 27
6.690241e+000 -3.426155e+000 4.785965e-002 48 37 30
6.238522e+000 -3.485127e+000 2.878769e-001 34 23 29
6.714623e+000 -3.470965e+000 8.239199e-002 75 58 47
6.724660e+000 -3.579047e+000 2.216239e-001 29 17 17
6.400087e+000 -3.594142e+000 4.184256e-001 25 16 17
5.753589e+000 -3.993724e+000 3.593501e-001 61 44 60
6.040007e+000 -3.849542e+000 4.159352e-001 25 14 18
5.707081e+000 -2.466928e+000 -2.914762e-001 33 22 30
6.037440e+000 -2.363527e+000 -2.109629e-001 46 30 37
6.859133e+000 -2.287516e+000 -9.599965e-001 165 133 94
6.922611e+000 -2.352518e+000 -9.618622e-001 91 62 48
6.970952e+000 -2.450384e+000 -9.617951e-001 144 115 75
7.340858e+000 -2.441749e+000 -9.277079e-001 119 119 117
6.324825e+000 -2.663417e+000 -2.899820e-001 58 44 43
6.076351e+000 -2.799371e+000 -3.038722e-001 39 29 28
6.368109e+000 -2.703158e+000 -2.757642e-001 59 54 50
5.841026e+000 -2.959213e+000 -3.892362e-001 147 146 144
6.068392e+000 -2.829988e+000 -3.073554e-001 84 76 74
6.429984e+000 -2.766267e+000 -2.186067e-001 107 103 94
5.997340e+000 -2.937424e+000 -2.208289e-001 144 140 131
6.101642e+000 -2.906252e+000 -1.782788e-001 74 70 64
6.833487e+000 -2.863369e+000 -7.636209e-001 51 30 29
5.831144e+000 -3.042008e+000 -3.292760e-001 147 146 142
5.873261e+000 -3.044058e+000 -2.634638e-001 86 78 71
5.949076e+000 -3.020605e+000 -2.201291e-001 81 69 67
6.376706e+000 -2.849115e+000 -6.778796e-002 142 147 140
6.615706e+000 -2.809032e+000 -2.297774e-001 71 51 40
5.521606e+000 -3.355740e+000 -7.931602e-001 81 72 65
5.674773e+000 -3.232475e+000 -4.911027e-001 148 145 141
5.713428e+000 -3.178841e+000 -4.529621e-001 71 61 59
5.723550e+000 -3.165048e+000 -4.191901e-001 71 61 59
5.932102e+000 -3.078269e+000 -2.453759e-001 77 72 66
6.024810e+000 -3.055639e+000 -1.830596e-001 157 159 148
6.103503e+000 -2.981515e+000 -1.132488e-001 155 153 146
6.126867e+000 -3.012024e+000 -5.306555e-002 150 151 143
6.136773e+000 -3.083704e+000 -2.884041e-002 93 91 79
6.630392e+000 -2.998898e+000 -2.904714e-002 38 27 24
6.289225e+000 -3.107032e+000 -1.076006e-002 148 151 144
6.289225e+000 -3.107032e+000 -1.076006e-002 148 151 144
6.257179e+000 -3.300623e+000 7.357227e-002 52 45 42
6.469373e+000 -3.258807e+000 9.510592e-002 116 111 107
6.530871e+000 -3.246189e+000 7.718797e-002 50 49 45
6.530871e+000 -3.246189e+000 7.718797e-002 50 49 45
6.761284e+000 -3.187246e+000 2.630655e-002 81 70 62
5.941103e+000 -3.400380e+000 2.771357e-001 28 16 20
6.414242e+000 -3.358587e+000 7.308752e-002 133 133 125
6.371375e+000 -3.425332e+000 9.012803e-002 112 106 103
6.698347e+000 -3.387502e+000 2.613611e-002 95 85 73
5.688378e+000 -3.603045e+000 2.839322e-001 45 30 37
5.706664e+000 -3.601818e+000 2.506587e-001 91 81 92
5.698862e+000 -3.807269e+000 3.307445e-001 33 18 23
6.121733e+000 -3.712237e+000 3.040251e-001 21 16 20
6.143268e+000 -3.776579e+000 3.074580e-001 21 12 16
6.210532e+000 -3.795484e+000 4.860103e-001 37 22 27
7.383563e+000 -2.140873e+000 -1.093613e+000 172 173 176
6.952768e+000 -2.358469e+000 -9.024812e-001 159 134 96
5.841947e+000 -2.657868e+000 -1.735188e-001 45 32 39
6.403562e+000 -2.784237e+000 -2.051788e-001 57 44 36
6.532165e+000 -2.795979e+000 -2.019930e-001 106 100 88
5.678959e+000 -3.128023e+000 -4.690683e-001 106 97 99
6.077615e+000 -2.938416e+000 -1.819675e-001 141 142 128
5.494200e+000 -3.344158e+000 -7.270868e-001 156 161 154
5.515044e+000 -3.389649e+000 -7.467492e-001 68 46 49
5.792326e+000 -3.149584e+000 -3.517437e-001 144 144 136
5.986063e+000 -3.058979e+000 -2.128691e-001 147 151 138
6.187719e+000 -2.954993e+000 -1.098908e-001 118 114 105
6.187719e+000 -2.954993e+000 -1.098908e-001 118 114 105
5.498606e+000 -3.422578e+000 -7.186994e-001 57 41 41
5.875101e+000 -3.151768e+000 -2.847452e-001 31 28 28
6.471115e+000 -2.940313e+000 2.372963e-003 47 35 29
6.042125e+000 -3.144502e+000 -4.886681e-002 144 146 141
6.919254e+000 -3.092269e+000 -2.855076e-001 80 54 41
6.060342e+000 -3.286489e+000 -4.050131e-002 114 115 107
6.843141e+000 -3.122979e+000 -9.716536e-002 33 18 15
6.828952e+000 -3.152584e+000 -6.630744e-002 83 66 53
6.443581e+000 -3.308317e+000 8.206767e-002 56 49 41
5.873046e+000 -3.735223e+000 4.383265e-001 48 36 46
6.182132e+000 -3.795830e+000 4.773626e-001 59 47 48
5.835638e+000 -2.667248e+000 -2.042792e-001 43 30 37
6.550341e+000 -2.660956e+000 -3.938871e-001 37 26 24
6.538161e+000 -2.719812e+000 -2.255789e-001 43 32 27
5.893773e+000 -3.004563e+000 -2.887699e-001 151 150 145
6.207630e+000 -2.970768e+000 -3.549510e-002 76 73 66
6.408076e+000 -2.907237e+000 -1.994338e-002 66 53 44
6.615761e+000 -2.940612e+000 -3.667746e-002 72 58 49
6.871021e+000 -2.969383e+000 -3.517734e-001 70 44 32
6.243603e+000 -3.193423e+000 1.402510e-002 51 51 43
6.745773e+000 -3.159139e+000 -7.706341e-003 48 41 33
6.908459e+000 -3.272222e+000 -1.114484e-001 53 35 21
6.793529e+000 -3.513642e+000 -7.148366e-002 44 27 20
5.940089e+000 -2.860943e+000 -2.935596e-001 49 35 35
5.853822e+000 -3.217147e+000 -2.143762e-001 37 32 36
5.902671e+000 -3.268918e+000 -1.602167e-001 141 142 136
6.011295e+000 -3.308809e+000 3.589039e-003 38 28 27
6.966859e+000 -3.285994e+000 -3.312939e-001 79 58 41
5.782850e+000 -3.718250e+000 3.073582e-001 35 26 31
6.042188e+000 -3.739868e+000 3.115077e-001 20 14 16
6.795232e+000 -2.777746e+000 -8.183459e-001 145 132 124
5.883640e+000 -3.166398e+000 -2.545122e-001 52 50 49
5.883640e+000 -3.166398e+000 -2.545122e-001 52 50 49
7.580733e+000 -2.523424e+000 -8.049536e-001 66 51 44
5.815855e+000 -3.002442e+000 -2.631766e-001 137 137 136
6.238374e+000 -3.419242e+000 4.424152e-002 30 20 21
7.231504e+000 -2.638599e+000 -1.503945e+000 59 40 34
9.209517e+000 -3.645265e+000 -3.218166e-001 136 120 71
7.986628e+000 -2.604838e+000 -1.000382e+000 67 48 31
7.629453e+000 -2.456867e+000 -9.052980e-001 91 75 63
7.518601e+000 -2.845909e+000 -6.493083e-001 69 53 40
8.919949e+000 -2.213590e+000 -9.123876e-001 158 142 91
8.896969e+000 -2.251176e+000 -9.587874e-001 155 138 92
8.910826e+000 -2.252902e+000 -9.822200e-001 155 138 92
6.667552e+000 -2.920234e+000 -1.093177e-001 79 58 40
6.435144e+000 -3.217296e+000 5.720395e-002 150 152 141
6.524392e+000 -3.271051e+000 7.460158e-002 50 44 38
6.777719e+000 -3.208933e+000 -2.504063e-002 76 61 56
6.773725e+000 -3.200628e+000 -3.844089e-003 76 61 56
8.761469e+000 -2.582524e+000 -1.202248e+000 163 150 96
7.278570e+000 -2.739860e+000 -1.062628e+000 42 30 34
6.370861e+000 -3.040089e+000 2.559308e-002 87 82 76
6.593086e+000 -3.131212e+000 2.519925e-002 65 60 51
6.457181e+000 -3.339211e+000 6.664087e-002 62 52 45
7.332221e+000 -2.436817e+000 -1.689351e+000 80 63 64
7.251507e+000 -2.639306e+000 -1.568567e+000 141 122 100
7.251507e+000 -2.639306e+000 -1.568567e+000 141 122 100
7.265548e+000 -2.556915e+000 -1.399747e+000 93 82 88
7.867178e+000 -2.635348e+000 -9.797710e-001 64 46 31
8.028810e+000 -3.218807e+000 -3.462280e-001 105 98 95
7.953492e+000 -3.596462e+000 -7.375676e-001 92 86 83
7.260479e+000 -2.551849e+000 -1.208384e+000 95 83 95
7.260479e+000 -2.551849e+000 -1.208384e+000 95 83 95
7.722207e+000 -2.422354e+000 -9.383244e-001 98 80 66
6.506343e+000 -2.691572e+000 -2.956946e-001 45 35 33
7.776522e+000 -2.608156e+000 -8.965700e-001 63 44 30
7.899634e+000 -2.607034e+000 -8.985555e-001 96 78 58
7.921596e+000 -2.645498e+000 -9.397830e-001 92 75 57
8.236909e+000 -3.063453e+000 -9.239677e-001 51 38 30
6.707457e+000 -3.305281e+000 2.582892e-002 71 60 53
7.521139e+000 -3.421541e+000 -7.124061e-001 73 59 53
7.578463e+000 -3.450834e+000 -7.063450e-001 54 37 30
7.947559e+000 -3.329915e+000 -4.330781e-001 110 102 94
7.821931e+000 -3.843052e+000 -7.394725e-001 46 35 33
7.849789e+000 -3.823277e+000 -7.037272e-001 63 52 48
9.181621e+000 -3.382465e+000 -3.075670e-001 137 120 75
9.181621e+000 -3.382465e+000 -3.075670e-001 137 120 75
7.171673e+000 -2.641697e+000 -1.485163e+000 105 93 99
7.525236e+000 -2.433782e+000 -8.840162e-001 69 53 40
7.318850e+000 -2.659903e+000 -1.172408e+000 47 40 44
7.305945e+000 -2.702500e+000 -1.072095e+000 51 40 46
6.592113e+000 -2.757165e+000 -2.465535e-001 40 26 17
7.267414e+000 -2.905115e+000 -8.516610e-001 48 34 33
5.463194e+000 -3.496451e+000 -8.014517e-001 109 101 91
7.882502e+000 -3.089456e+000 -6.491441e-001 80 63 52
7.834063e+000 -3.109225e+000 -6.356201e-001 81 66 58
6.541523e+000 -3.323513e+000 7.058349e-002 58 51 43
7.760557e+000 -3.321442e+000 -6.600061e-001 46 36 34
6.587148e+000 -3.439422e+000 8.459562e-002 90 83 79
7.905407e+000 -3.697354e+000 -5.187603e-001 119 110 103
7.946865e+000 -3.811373e+000 -5.174523e-001 81 68 60
7.669274e+000 -2.149824e+000 -1.562040e+000 103 84 54
7.336337e+000 -2.530568e+000 -1.319133e+000 52 41 46
7.323231e+000 -2.606142e+000 -1.208941e+000 48 34 41
7.561848e+000 -2.441317e+000 -8.823424e-001 87 72 59
6.324540e+000 -2.738100e+000 -2.614232e-001 122 116 107
7.812528e+000 -3.343688e+000 -7.219703e-001 100 95 92
6.698073e+000 -3.383252e+000 3.559685e-002 95 85 73
7.887370e+000 -3.286020e+000 -4.174810e-001 98 94 92
7.961832e+000 -3.511124e+000 -7.216603e-001 105 101 100
7.976517e+000 -3.314515e+000 -3.839621e-001 178 204 212
7.300580e+000 -2.509387e+000 -1.513463e+000 105 98 106
7.293059e+000 -2.499854e+000 -1.458218e+000 105 98 106
7.286273e+000 -2.602670e+000 -1.267989e+000 87 81 90
7.965677e+000 -2.551218e+000 -9.791088e-001 90 73 56
5.537894e+000 -3.442631e+000 -7.483318e-001 124 117 108
7.905644e+000 -4.057296e+000 -7.193352e-001 72 52 43
7.257854e+000 -2.653231e+000 -1.404870e+000 43 30 27
7.257854e+000 -2.653231e+000 -1.404870e+000 43 30 27
7.318741e+000 -2.564423e+000 -1.215561e+000 47 41 45
7.909495e+000 -3.261981e+000 -6.933833e-001 52 41 40
7.967842e+000 -2.709359e+000 -9.108604e-001 88 72 46
8.164481e+000 -3.248105e+000 -2.286121e-001 161 175 176
7.978492e+000 -3.962769e+000 -6.098630e-001 79 62 54
7.829053e+000 -2.516837e+000 -9.787059e-001 93 75 55
8.903954e+000 -2.960923e+000 -9.992866e-001 165 155 106
8.081485e+000 -3.374117e+000 -3.912277e-001 163 172 179
5.874265e+000 -3.294087e+000 -1.878268e-001 81 82 82
7.503100e+000 -3.433238e+000 -6.848681e-001 78 63 58
7.980504e+000 -3.815165e+000 -5.070989e-001 115 99 86
7.385821e+000 -2.341452e+000 -8.915537e-001 64 50 41
6.057458e+000 -2.859747e+000 -2.742930e-001 123 119 116
6.126650e+000 -2.823951e+000 -2.706331e-001 109 108 103
6.393489e+000 -3.144210e+000 4.010231e-002 137 144 135
7.382223e+000 -2.355399e+000 -7.947250e-001 74 55 48
7.382223e+000 -2.355399e+000 -7.947250e-001 74 55 48
6.461973e+000 -2.686709e+000 -2.915422e-001 69 58 57
6.294668e+000 -2.752573e+000 -2.508454e-001 69 65 56
7.927439e+000 -2.556657e+000 -9.903585e-001 72 54 40
7.927439e+000 -2.556657e+000 -9.903585e-001 72 54 40
6.150003e+000 -3.101467e+000 -2.208864e-002 126 124 112
6.412487e+000 -3.163193e+000 3.439208e-002 81 74 69
7.601775e+000 -3.084739e+000 -5.968422e-001 81 67 64
7.601775e+000 -3.084739e+000 -5.968422e-001 81 67 64
7.843518e+000 -3.036862e+000 -6.369597e-001 62 47 40
8.455532e+000 -3.199526e+000 -2.943711e-001 54 37 23
7.292582e+000 -2.680312e+000 -1.141087e+000 75 66 71
7.243622e+000 -2.775957e+000 -1.127237e+000 61 46 46
8.738863e+000 -2.462770e+000 -1.264974e+000 147 128 86
8.766875e+000 -2.435958e+000 -1.230511e+000 136 122 77
6.272867e+000 -3.029507e+000 1.850906e-002 96 93 84
7.563390e+000 -3.058062e+000 -5.871967e-001 60 46 39
6.687661e+000 -3.105005e+000 -1.929265e-002 43 33 23
6.712808e+000 -3.110393e+000 8.956552e-003 88 82 71
6.167441e+000 -2.955579e+000 -9.167734e-002 121 121 110
6.445811e+000 -3.066269e+000 2.740426e-002 110 105 99
6.621578e+000 -3.062830e+000 1.079331e-002 49 38 34
6.243567e+000 -3.492943e+000 1.881448e-001 62 53 56
8.176128e+000 -2.743849e+000 -9.652820e-001 129 122 111
7.978331e+000 -2.821704e+000 -7.841430e-001 60 46 35
7.717808e+000 -2.391678e+000 -9.572518e-001 97 78 64
7.735821e+000 -2.396680e+000 -9.527347e-001 68 49 34
7.738991e+000 -2.761575e+000 -7.569072e-001 60 47 31
7.929147e+000 -2.757925e+000 -8.776341e-001 92 75 57
8.226959e+000 -3.085015e+000 -9.618885e-001 73 65 55
7.273812e+000 -3.411844e+000 -6.658459e-001 61 50 44
7.389455e+000 -2.345578e+000 -8.987944e-001 63 53 44
7.276182e+000 -2.620665e+000 -1.621270e+000 54 40 28
8.903455e+000 -2.590451e+000 -8.894259e-001 173 161 113
7.727772e+000 -2.915587e+000 -6.567026e-001 60 43 33
6.980669e+000 -3.224916e+000 -5.553924e-001 51 31 20
6.633002e+000 -3.216518e+000 3.172895e-002 86 77 72
7.925872e+000 -3.561916e+000 -4.423966e-001 101 89 83
7.968083e+000 -3.581372e+000 -3.976619e-001 95 82 74
7.682353e+000 -2.522709e+000 -3.518916e-001 59 41 31
8.942929e+000 -2.518248e+000 -8.688756e-001 144 126 83
7.063157e+000 -2.749761e+000 -1.609013e+000 147 128 86
7.063157e+000 -2.749761e+000 -1.609013e+000 147 128 86
8.612636e+000 -2.545732e+000 -9.291094e-001 161 148 96
7.292724e+000 -2.520554e+000 -1.351107e+000 98 93 97
6.493339e+000 -2.681666e+000 -2.879886e-001 48 39 33
7.521436e+000 -2.623132e+000 -7.536739e-001 93 76 68
7.524314e+000 -2.626877e+000 -7.649818e-001 93 76 68
7.274855e+000 -2.743105e+000 -6.281157e-001 69 59 60
8.142428e+000 -2.655637e+000 -9.911823e-001 54 39 32
6.185288e+000 -3.010031e+000 -2.806135e-002 149 150 142
7.690794e+000 -2.877085e+000 -6.514858e-001 79 65 52
6.374706e+000 -3.032237e+000 2.199101e-002 81 78 71
7.736876e+000 -2.924353e+000 -6.874447e-001 60 43 36
7.548672e+000 -3.256334e+000 -6.693174e-001 71 57 51
6.333835e+000 -3.317154e+000 5.303908e-002 63 52 46
6.835505e+000 -3.317991e+000 -4.475585e-002 50 38 26
8.081547e+000 -3.168167e+000 -3.795967e-001 105 92 75
7.232034e+000 -2.239431e+000 3.275614e-001 68 53 48
7.510699e+000 -2.501651e+000 -8.250423e-001 89 72 62
7.714965e+000 -2.483010e+000 -9.133504e-001 60 43 33
7.684003e+000 -2.573416e+000 -8.452266e-001 89 71 58
7.263307e+000 -2.803718e+000 -6.443204e-001 113 111 112
7.302512e+000 -2.897198e+000 -6.172420e-001 52 38 35
7.801712e+000 -2.884498e+000 -7.395010e-001 83 67 52
6.699299e+000 -3.378175e+000 4.204876e-002 101 91 79
5.792467e+000 -3.420591e+000 -2.756880e-002 39 37 51
8.202553e+000 -2.899041e+000 -9.506751e-001 89 78 76
6.502857e+000 -3.206500e+000 5.425958e-002 124 120 113
6.534932e+000 -3.167543e+000 4.132202e-002 78 72 63
7.973034e+000 -3.232572e+000 -4.723505e-001 103 97 91
6.488819e+000 -3.419462e+000 1.297359e-001 57 47 45
6.587984e+000 -3.531454e+000 2.376012e-001 70 58 45
7.731499e+000 -4.028712e+000 -8.112877e-001 79 67 52
7.334748e+000 -2.243295e+000 -9.664633e-001 79 70 73
7.311844e+000 -2.504512e+000 -1.367191e+000 59 47 47
6.186125e+000 -2.803966e+000 -2.544220e-001 71 66 63
7.203206e+000 -2.856571e+000 -9.799327e-001 55 41 44
6.234195e+000 -2.867922e+000 -1.303359e-001 75 73 68
6.411246e+000 -2.831428e+000 -5.662164e-002 85 67 55
7.715718e+000 -2.942291e+000 -6.630174e-001 81 66 59
6.292097e+000 -3.087306e+000 3.719019e-002 149 155 145
6.719366e+000 -3.235735e+000 1.482285e-002 82 69 58
7.942582e+000 -3.528045e+000 -6.911165e-001 56 48 45
7.958026e+000 -3.288361e+000 -4.568883e-001 117 105 107
7.553853e+000 -3.955071e+000 -9.858263e-001 70 54 38
7.944249e+000 -3.593870e+000 -6.914137e-001 55 49 43
6.374895e+000 -3.508238e+000 2.420268e-001 79 71 68
8.993241e+000 -4.070024e+000 -5.620654e-001 156 139 93
7.348235e+000 -2.389206e+000 -1.558604e+000 114 105 110
7.635577e+000 -2.389331e+000 -9.148471e-001 67 51 38
6.133938e+000 -2.855032e+000 -2.348010e-001 126 126 118
6.277229e+000 -2.763448e+000 -2.347921e-001 128 129 121
5.829574e+000 -3.019097e+000 -3.044181e-001 159 157 156
5.955663e+000 -2.970847e+000 -1.937142e-001 149 152 145
6.356384e+000 -2.773491e+000 -2.019704e-001 59 49 40
5.911189e+000 -3.051963e+000 -2.391180e-001 120 119 114
6.375600e+000 -2.824980e+000 -1.593848e-001 82 79 70
7.284188e+000 -2.814104e+000 -6.197778e-001 60 49 43
7.314454e+000 -2.797562e+000 -6.420850e-001 80 70 61
6.437763e+000 -2.846898e+000 -2.716718e-002 62 47 40
6.059945e+000 -3.063277e+000 -8.480735e-002 140 142 141
6.057565e+000 -3.071729e+000 -9.444405e-002 140 142 141
6.150115e+000 -3.101735e+000 -2.318945e-002 133 130 123
7.577607e+000 -3.278373e+000 -6.396062e-001 35 21 17
7.585538e+000 -3.232188e+000 -6.286465e-001 75 64 60
7.948522e+000 -3.349482e+000 -7.098758e-001 104 98 94
7.942712e+000 -3.226839e+000 -5.629543e-001 158 178 184
6.550124e+000 -3.366020e+000 8.681557e-002 57 48 42
6.587144e+000 -3.429199e+000 9.552380e-002 102 97 89
7.916519e+000 -3.611594e+000 -5.036714e-001 112 104 101
6.364995e+000 -2.706083e+000 -2.760859e-001 50 41 39
6.240950e+000 -2.782093e+000 -2.426803e-001 57 50 47
5.458317e+000 -3.397208e+000 -7.082818e-001 150 143 145
5.788295e+000 -3.057477e+000 -3.322150e-001 96 89 81
6.182594e+000 -2.866006e+000 -2.091768e-001 68 67 62
5.940406e+000 -3.183584e+000 -1.704613e-001 130 134 131
6.098449e+000 -3.069772e+000 -6.404184e-002 137 137 129
6.370270e+000 -2.911649e+000 -4.059876e-003 92 87 81
5.854393e+000 -3.287709e+000 -1.818935e-001 57 48 53
5.853121e+000 -3.311601e+000 -1.248404e-001 45 43 48
5.962382e+000 -3.243507e+000 -9.017562e-002 67 63 64
8.216180e+000 -3.002093e+000 -9.547751e-001 47 36 30
6.158741e+000 -3.228874e+000 -8.437202e-003 58 57 52
6.285295e+000 -3.282432e+000 5.266158e-002 98 95 90
6.520424e+000 -3.347885e+000 9.682453e-002 118 115 108
6.570328e+000 -3.318476e+000 8.153480e-002 85 81 72
6.593977e+000 -3.349149e+000 7.744809e-002 47 37 36
6.423626e+000 -3.422456e+000 1.042472e-001 48 44 45
6.491818e+000 -3.384968e+000 1.034484e-001 48 40 39
6.643686e+000 -3.367534e+000 6.766717e-002 45 36 29
7.976584e+000 -3.315362e+000 -3.837468e-001 176 195 205
6.317004e+000 -2.764902e+000 -2.198595e-001 75 64 60
6.190505e+000 -2.929047e+000 -1.357242e-001 83 74 65
6.246988e+000 -2.928898e+000 -2.934578e-002 138 145 138
6.435480e+000 -2.925203e+000 2.516097e-002 103 96 88
6.435183e+000 -2.929150e+000 2.093254e-002 103 96 88
6.048024e+000 -3.137890e+000 -6.100333e-002 131 132 126
6.066113e+000 -3.207681e+000 -4.071145e-002 126 131 120
6.102404e+000 -3.272365e+000 -2.600414e-002 49 44 43
6.290948e+000 -3.198259e+000 2.446282e-002 154 156 142
8.051366e+000 -3.083742e+000 -7.709868e-001 41 27 20
6.831661e+000 -3.167865e+000 -7.412749e-002 81 61 50
7.562924e+000 -3.944301e+000 -9.100778e-001 160 142 93
8.017179e+000 -3.270501e+000 -3.582728e-001 108 106 110
7.925107e+000 -3.545818e+000 -4.753435e-001 134 132 133
6.290009e+000 -3.661593e+000 3.872913e-001 58 47 53
6.541789e+000 -2.649519e+000 -3.602506e-001 34 23 19
6.528283e+000 -2.748828e+000 -3.044777e-001 37 28 23
6.115300e+000 -2.949983e+000 -1.357720e-001 61 56 52
6.618092e+000 -2.950149e+000 -5.117503e-002 76 61 52
6.101802e+000 -3.271141e+000 -1.642220e-002 65 57 55
6.154560e+000 -3.290284e+000 -1.641633e-002 134 139 132
6.787966e+000 -3.100613e+000 -8.417478e-002 71 59 43
6.674361e+000 -3.321689e+000 3.626714e-002 56 46 37
7.769206e+000 -3.852153e+000 -6.863661e-001 84 71 63
7.001691e+000 -3.898296e+000 -2.425733e-001 155 133 84
6.200822e+000 -2.885400e+000 -1.510641e-001 111 112 104
6.878245e+000 -2.988930e+000 -4.079082e-001 69 46 30
5.912505e+000 -3.239469e+000 -1.166141e-001 136 135 133
5.910657e+000 -3.297692e+000 -6.838396e-002 53 48 53
7.924200e+000 -3.052934e+000 -6.859778e-001 90 74 60
7.803464e+000 -3.338206e+000 -6.473345e-001 87 79 77
6.264854e+000 -3.455212e+000 1.359507e-001 30 21 26
6.020695e+000 -3.004597e+000 -1.608915e-001 113 118 111
7.937879e+000 -3.217175e+000 -5.076583e-001 100 95 94
6.176337e+000 -3.660758e+000 3.681882e-001 26 17 22
8.024945e+000 -3.781537e+000 -5.043479e-001 86 72 63
7.951290e+000 -3.019282e+000 -8.048443e-001 85 74 55
5.744109e+000 -2.805678e+000 -3.195447e-001 47 30 36
9.099595e+000 -3.230734e+000 -5.869106e-001 174 161 116
7.951402e+000 -3.300056e+000 -4.315419e-001 187 209 213
7.636157e+000 -2.388109e+000 -9.166099e-001 70 52 41
6.439702e+000 -2.890038e+000 -2.928802e-003 61 53 45
7.545882e+000 -2.611454e+000 -7.826660e-001 71 54 46
7.530262e+000 -2.730715e+000 -7.016082e-001 68 53 46
7.867420e+000 -2.625556e+000 -9.086638e-001 90 71 54
9.056125e+000 -2.266094e+000 -7.832890e-001 153 141 91
6.392517e+000 -2.846676e+000 -2.107786e-002 88 85 78
8.135911e+000 -1.754163e+000 -2.270240e+000 140 125 86
7.665825e+000 -2.422465e+000 -8.841226e-001 90 74 61
6.248857e+000 -2.742865e+000 -2.809049e-001 138 144 137
7.954547e+000 -3.545163e+000 -7.168307e-001 56 48 45
7.502846e+000 -2.454143e+000 -8.807860e-001 91 75 62
6.029885e+000 -2.894493e+000 -2.414172e-001 133 132 130
6.055008e+000 -2.876007e+000 -2.473660e-001 72 69 62
6.409979e+000 -2.819567e+000 -1.271765e-001 63 51 46
6.096941e+000 -3.069587e+000 -6.407058e-002 137 137 129
7.302447e+000 -3.326334e+000 -7.402568e-001 44 33 31
7.302357e+000 -3.326641e+000 -7.409185e-001 44 33 31
6.618033e+000 -3.421334e+000 7.426144e-002 69 60 51
6.415337e+000 -2.869593e+000 -2.757319e-002 118 116 107
8.803326e+000 -2.712605e+000 -1.143425e+000 135 121 76
6.856123e+000 -3.021605e+000 -3.615722e-001 32 21 17
6.361782e+000 -3.253972e+000 5.674457e-002 135 137 132
9.027719e+000 -2.952167e+000 -7.487297e-001 143 126 77
8.117184e+000 -3.179460e+000 -3.434394e-001 109 96 84
6.273295e+000 -3.000294e+000 -6.571993e-003 128 128 120
7.430078e+000 -2.940572e+000 -5.883974e-001 80 69 65
8.844004e+000 -2.676411e+000 -1.092968e+000 138 119 79
6.003193e+000 -3.260424e+000 -5.768972e-002 145 148 143
6.118365e+000 -2.195621e+000 -3.298901e-001 79 63 71
8.629183e+000 -2.983124e+000 -1.373927e+000 62 46 34
7.400918e+000 -2.156240e+000 -1.023346e+000 111 102 102
6.221218e+000 -2.803912e+000 -2.046360e-001 134 137 130
5.505390e+000 -3.475121e+000 -6.477307e-001 173 165 158
5.530312e+000 -3.440068e+000 -5.764212e-001 101 93 92
5.518875e+000 -3.486293e+000 -6.730920e-001 82 69 61
6.302370e+000 -2.808108e+000 -2.009022e-001 56 49 44
6.302370e+000 -2.808108e+000 -2.009022e-001 56 49 44
5.498626e+000 -3.656548e+000 -6.027350e-001 167 166 158
5.618133e+000 -3.557374e+000 -6.751951e-001 37 33 32
6.164920e+000 -2.927664e+000 -1.074718e-001 92 88 77
5.944310e+000 -3.235039e+000 -9.454186e-002 131 130 126
6.359138e+000 -2.897099e+000 -2.222366e-002 50 42 39
7.983245e+000 -2.776374e+000 -8.481721e-001 69 51 39
5.866067e+000 -3.361925e+000 -2.712317e-002 90 94 102
6.432884e+000 -3.161173e+000 5.567593e-002 135 133 121
6.502087e+000 -3.086824e+000 3.981133e-002 62 54 48
6.554825e+000 -3.100438e+000 -2.035586e-003 112 109 100
6.567207e+000 -3.126942e+000 2.572965e-002 59 55 48
7.671769e+000 -3.066852e+000 -5.655529e-001 110 103 96
6.646680e+000 -3.139306e+000 1.840986e-002 59 51 39
6.853946e+000 -3.290144e+000 -3.685061e-002 113 99 88
6.656346e+000 -3.437959e+000 3.164167e-002 107 96 86
7.629081e+000 -2.179179e+000 -1.731133e+000 99 87 90
7.348843e+000 -2.408058e+000 -1.665093e+000 104 94 93
7.353759e+000 -2.421181e+000 -1.686357e+000 104 94 93
7.335062e+000 -2.201498e+000 -1.044997e+000 82 72 75
7.976843e+000 -2.554940e+000 -1.634751e+000 62 43 29
7.283833e+000 -2.682783e+000 -1.017842e+000 65 54 57
7.574013e+000 -2.468489e+000 -8.860378e-001 62 45 37
