ply
format ascii 1.0
element face 0
property list uchar int vertex_indices
element vertex 890
property float x
property float y
property float z
property uchar diffuse_red
property uchar diffuse_green
property uchar diffuse_blue
end_header
6.332095e+000 -2.815722e+000 -1.140024e-001 66 54 50
6.002786e+000 -2.984028e+000 -1.367372e-001 135 135 125
6.129769e+000 -2.962481e+000 -6.820267e-002 126 124 112
7.657379e+000 -2.884216e+000 -6.567326e-001 87 70 60
6.303194e+000 -2.981924e+000 6.217661e-002 56 43 35
6.726929e+000 -3.003394e+000 -7.694937e-002 75 54 39
6.170790e+000 -3.086775e+000 3.739709e-002 150 153 144
6.687718e+000 -3.057125e+000 -4.354742e-003 40 26 23
6.033624e+000 -3.222184e+000 -1.672062e-002 149 154 147
8.519036e+000 -3.157314e+000 -1.214657e+000 80 63 47
5.864306e+000 -3.325900e+000 -5.435827e-002 50 42 46
6.130221e+000 -3.256928e+000 5.821354e-003 73 64 59
6.649091e+000 -3.251711e+000 6.730852e-002 54 40 37
6.653041e+000 -3.516196e+000 1.043573e-001 75 56 40
6.259284e+000 -3.608550e+000 3.504262e-001 58 43 47
6.195195e+000 -3.137704e+000 6.043119e-002 154 154 144
7.494506e+000 -3.133042e+000 -5.851540e-001 70 52 48
6.128897e+000 -3.386170e+000 -4.564696e-003 37 28 30
8.524959e+000 -3.253689e+000 -3.401331e-001 124 115 103
6.465657e+000 -3.503594e+000 2.132758e-001 35 24 22
6.465657e+000 -3.503594e+000 2.132758e-001 35 24 22
7.917525e+000 -2.833073e+000 -7.865888e-001 93 74 57
6.029987e+000 -2.390217e+000 -1.926833e-001 28 17 23
6.664239e+000 -2.744092e+000 -5.363209e-001 25 11 18
6.266917e+000 -2.872370e+000 -4.229635e-002 20 18 23
6.373493e+000 -2.847250e+000 -3.302126e-002 89 85 76
6.464413e+000 -2.826585e+000 -3.310634e-002 55 35 28
5.958903e+000 -3.169587e+000 -8.767679e-002 136 135 131
8.188495e+000 -2.974254e+000 -9.276383e-001 50 36 35
6.630987e+000 -3.587990e+000 1.376001e-001 23 13 14
7.967681e+000 -3.869521e+000 -5.771967e-001 116 101 96
6.938881e+000 -4.100154e+000 -3.921531e-001 65 38 28
6.162789e+000 -2.822588e+000 -1.889798e-001 131 131 124
6.592949e+000 -3.735643e+000 2.393844e-001 27 18 19
7.734497e+000 -3.456851e+000 -6.231285e-001 85 71 69
7.475997e+000 -3.292415e+000 -6.647831e-001 42 31 27
8.268042e+000 -3.163248e+000 -1.300407e+000 71 54 47
5.932050e+000 -2.335865e+000 -2.212751e-001 62 49 56
7.326675e+000 -2.318805e+000 -1.013713e+000 60 49 51
7.326675e+000 -2.318805e+000 -1.013713e+000 60 49 51
5.873005e+000 -2.538298e+000 -9.194282e-002 38 23 30
7.020703e+000 -2.496350e+000 -1.066972e+000 155 131 93
7.020703e+000 -2.496350e+000 -1.066972e+000 155 131 93
7.012447e+000 -2.511197e+000 -9.794783e-001 160 136 99
7.024652e+000 -2.499079e+000 -9.323895e-001 89 64 34
6.072595e+000 -2.840184e+000 -2.314110e-001 107 104 99
6.119145e+000 -2.813308e+000 -2.728337e-001 79 72 62
6.365392e+000 -2.723434e+000 -2.381755e-001 87 78 71
5.713845e+000 -3.031834e+000 -3.742983e-001 153 151 152
5.772996e+000 -3.036815e+000 -3.515800e-001 127 123 120
5.840840e+000 -2.987844e+000 -2.474619e-001 150 149 144
5.860358e+000 -2.977451e+000 -2.616064e-001 135 135 127
5.957016e+000 -2.909471e+000 -1.729441e-001 133 130 121
5.938006e+000 -2.948504e+000 -2.184375e-001 126 122 113
5.938006e+000 -2.948504e+000 -2.184375e-001 126 122 113
6.193038e+000 -2.843061e+000 -1.875720e-001 131 127 118
6.280861e+000 -2.799673e+000 -1.793267e-001 77 73 64
6.304803e+000 -2.816132e+000 -2.218041e-001 72 69 60
7.273775e+000 -2.739911e+000 -6.637758e-001 76 71 65
5.590844e+000 -3.208057e+000 -5.284453e-001 137 133 129
6.170322e+000 -2.891026e+000 -1.116640e-001 136 136 128
6.214730e+000 -2.861344e+000 -4.737452e-002 111 108 99
5.892439e+000 -3.090036e+000 -1.797906e-001 118 114 109
5.892439e+000 -3.090036e+000 -1.797906e-001 118 114 109
6.208318e+000 -2.919055e+000 6.696823e-003 105 105 100
6.243171e+000 -2.942032e+000 2.323103e-002 147 144 135
6.410981e+000 -2.838428e+000 3.209755e-002 96 88 76
5.498069e+000 -3.473239e+000 -6.018778e-001 83 68 67
5.971251e+000 -3.163691e+000 -8.335994e-002 143 142 137
6.179987e+000 -3.098334e+000 5.584645e-002 139 139 131
6.436291e+000 -2.988224e+000 7.225026e-002 57 48 41
6.110240e+000 -3.177956e+000 4.809050e-002 133 131 122
6.115321e+000 -3.182408e+000 7.111366e-002 107 102 93
6.133324e+000 -3.199372e+000 2.241496e-002 105 104 92
6.304493e+000 -3.075309e+000 9.314557e-002 82 82 74
6.304909e+000 -3.112593e+000 6.602150e-002 93 92 80
5.812446e+000 -3.343417e+000 -5.198384e-002 209 241 244
5.802110e+000 -3.360240e+000 -1.683368e-002 49 43 53
5.937605e+000 -3.290425e+000 -4.739781e-002 70 69 65
6.016746e+000 -3.249617e+000 -4.124945e-003 101 98 93
6.244341e+000 -3.174816e+000 4.889147e-002 96 96 87
5.799814e+000 -3.371976e+000 1.285705e-002 105 106 124
6.172391e+000 -3.288252e+000 3.271440e-002 83 83 72
6.172391e+000 -3.288252e+000 3.271440e-002 83 83 72
6.341210e+000 -3.205800e+000 1.105736e-001 102 101 97
6.401199e+000 -3.267356e+000 6.357125e-002 74 67 59
6.196283e+000 -3.395705e+000 3.449708e-002 93 84 85
6.383942e+000 -3.419263e+000 1.777315e-001 71 66 62
5.660577e+000 -3.743931e+000 3.769919e-001 89 72 80
5.784032e+000 -3.718227e+000 4.001858e-001 34 27 35
7.327661e+000 -2.135134e+000 -1.077414e+000 161 138 106
5.905164e+000 -2.505902e+000 -9.935982e-002 28 18 26
7.333239e+000 -2.376876e+000 -1.049948e+000 57 47 46
7.342033e+000 -2.328288e+000 -1.014666e+000 101 89 90
7.064194e+000 -2.492782e+000 -9.845157e-001 159 139 107
6.070052e+000 -2.815069e+000 -2.543401e-001 91 83 81
6.029177e+000 -2.846197e+000 -2.804852e-001 55 50 47
6.125798e+000 -2.831301e+000 -2.244418e-001 73 72 62
6.126985e+000 -2.827235e+000 -2.118288e-001 73 72 62
6.127684e+000 -2.815229e+000 -2.298580e-001 127 124 115
6.127684e+000 -2.815229e+000 -2.298580e-001 127 124 115
5.814840e+000 -2.984681e+000 -3.308788e-001 138 134 123
6.007657e+000 -2.922151e+000 -1.683491e-001 106 102 93
6.040581e+000 -2.871255e+000 -2.106190e-001 71 68 61
6.155709e+000 -2.874040e+000 -1.637485e-001 134 134 124
5.702734e+000 -3.090497e+000 -3.282437e-001 101 96 91
5.779530e+000 -3.034518e+000 -3.010255e-001 161 162 157
5.544233e+000 -3.267961e+000 -5.919388e-001 135 127 124
6.239363e+000 -2.917332e+000 4.475949e-002 116 117 109
6.204933e+000 -2.988364e+000 4.672294e-002 139 139 132
5.851234e+000 -3.234257e+000 -2.043399e-001 64 59 63
5.884500e+000 -3.204478e+000 -1.442325e-001 129 127 128
6.231178e+000 -3.068377e+000 6.299581e-002 123 123 113
6.258745e+000 -3.077531e+000 6.226979e-002 101 101 91
7.340605e+000 -2.979836e+000 -4.747762e-001 48 33 28
5.597847e+000 -3.393888e+000 -1.877314e-001 160 185 208
5.745845e+000 -3.322972e+000 -1.051553e-001 128 143 148
5.962618e+000 -3.251060e+000 -6.048329e-002 63 52 48
6.236941e+000 -3.134040e+000 6.521556e-002 95 97 84
5.788006e+000 -3.355948e+000 -7.634964e-002 50 49 59
5.837531e+000 -3.356927e+000 4.155931e-003 60 59 68
5.872509e+000 -3.354046e+000 -8.441910e-002 43 34 39
6.429561e+000 -3.148123e+000 1.104729e-001 83 75 64
6.716108e+000 -3.109028e+000 1.996742e-002 86 76 66
5.581919e+000 -3.503991e+000 -1.663360e-001 117 129 144
5.786637e+000 -3.390702e+000 8.993291e-003 99 104 123
5.803765e+000 -3.409988e+000 7.724693e-002 62 53 66
6.297936e+000 -3.315832e+000 8.435646e-002 98 94 85
6.401896e+000 -3.249025e+000 1.370308e-001 93 88 79
6.537159e+000 -3.271616e+000 1.094273e-001 126 126 121
6.537159e+000 -3.271616e+000 1.094273e-001 126 126 121
5.952312e+000 -3.391288e+000 3.380959e-001 71 58 65
6.592394e+000 -3.335500e+000 1.285035e-001 61 54 49
5.783210e+000 -3.521452e+000 3.205471e-001 94 81 90
6.084123e+000 -3.479556e+000 2.830308e-001 77 68 73
5.683624e+000 -3.636570e+000 3.345896e-001 99 83 93
6.303538e+000 -3.552226e+000 2.536118e-001 93 80 87
6.627235e+000 -3.608960e+000 2.931192e-001 46 36 27
6.681188e+000 -3.593307e+000 3.192384e-001 70 59 41
5.972564e+000 -3.720384e+000 4.586510e-001 51 40 46
6.047371e+000 -3.868088e+000 4.069963e-001 67 61 66
6.047371e+000 -3.868088e+000 4.069963e-001 67 61 66
6.109941e+000 -3.751908e+000 4.609808e-001 65 54 59
6.109941e+000 -3.751908e+000 4.609808e-001 65 54 59
5.753528e+000 -4.028152e+000 4.141586e-001 68 49 58
7.402835e+000 -2.193383e+000 -9.687945e-001 106 97 92
5.685753e+000 -2.552116e+000 -1.629121e-001 86 72 85
5.724082e+000 -2.541636e+000 -1.850106e-001 51 35 45
5.847772e+000 -2.503805e+000 -1.323245e-001 39 28 36
6.841690e+000 -2.571217e+000 -6.422283e-001 71 51 42
7.626971e+000 -2.417439e+000 -8.877476e-001 66 50 37
7.776814e+000 -2.410327e+000 -1.026917e+000 98 80 66
6.323957e+000 -2.667541e+000 -2.621622e-001 54 43 41
6.300320e+000 -2.722796e+000 -3.159312e-001 67 54 57
6.464815e+000 -2.707352e+000 -3.287000e-001 73 67 61
7.512463e+000 -2.503726e+000 -8.182892e-001 65 50 38
5.959072e+000 -2.883106e+000 -3.117741e-001 106 100 96
6.095947e+000 -2.817148e+000 -2.486572e-001 101 98 93
6.254615e+000 -2.761897e+000 -2.285491e-001 144 147 136
6.340677e+000 -2.731402e+000 -1.985335e-001 125 122 114
6.616139e+000 -2.705979e+000 -3.657491e-001 70 51 45
5.974102e+000 -2.917205e+000 -2.147201e-001 66 63 56
6.098483e+000 -2.882204e+000 -1.637843e-001 132 129 120
6.096686e+000 -2.886595e+000 -1.764875e-001 132 129 120
6.195886e+000 -2.857660e+000 -1.379877e-001 134 134 124
6.403403e+000 -2.812030e+000 -1.699258e-001 103 99 89
6.403403e+000 -2.812030e+000 -1.699258e-001 103 99 89
5.448875e+000 -3.297528e+000 -7.827714e-001 148 148 142
5.560377e+000 -3.215732e+000 -5.321579e-001 142 137 133
5.644377e+000 -3.169316e+000 -4.456449e-001 140 140 132
6.005635e+000 -2.966976e+000 -1.416123e-001 141 141 132
6.210723e+000 -2.868391e+000 -1.202199e-001 83 81 69
6.274043e+000 -2.852137e+000 -9.076178e-002 26 26 24
5.491589e+000 -3.288984e+000 -6.619804e-001 135 132 127
5.482264e+000 -3.399426e+000 -7.827832e-001 131 122 119
5.592859e+000 -3.272915e+000 -5.403018e-001 152 149 144
5.828995e+000 -3.075382e+000 -2.408294e-001 142 143 135
5.947670e+000 -3.048665e+000 -2.399197e-001 97 94 85
5.947670e+000 -3.048665e+000 -2.399197e-001 97 94 85
6.100313e+000 -3.003447e+000 -6.257909e-002 89 89 81
6.100313e+000 -3.003447e+000 -6.257909e-002 89 89 81
6.175488e+000 -2.943760e+000 -7.332002e-002 124 120 112
6.217012e+000 -2.935485e+000 -3.842351e-003 144 149 143
6.267287e+000 -2.881465e+000 8.437381e-002 66 57 50
6.281093e+000 -2.887208e+000 -1.821267e-002 65 59 58
5.907506e+000 -3.173650e+000 -1.786517e-001 56 47 52
6.361153e+000 -2.979593e+000 1.346963e-002 110 106 95
5.804796e+000 -3.283287e+000 -2.264952e-001 49 47 52
5.873741e+000 -3.199093e+000 -1.937609e-001 59 54 59
5.933760e+000 -3.191025e+000 -8.121966e-002 92 89 84
6.251249e+000 -3.063954e+000 5.767335e-002 134 134 124
6.357407e+000 -3.020649e+000 8.539837e-002 78 73 68
6.237604e+000 -3.144376e+000 9.944692e-002 134 135 125
6.593575e+000 -3.051208e+000 1.469974e-002 87 73 63
6.443525e+000 -3.134708e+000 3.671924e-002 62 58 49
5.989645e+000 -3.252395e+000 3.171947e-001 52 45 55
6.164487e+000 -3.263735e+000 3.621138e-002 83 81 76
6.350930e+000 -3.324017e+000 1.017669e-001 94 84 80
6.469688e+000 -3.246695e+000 1.067162e-001 73 66 55
6.708317e+000 -3.244316e+000 9.358581e-002 84 74 65
6.315121e+000 -3.416174e+000 1.129392e-001 86 81 77
6.408161e+000 -3.394741e+000 1.154430e-001 63 54 48
6.485379e+000 -3.318747e+000 1.242550e-001 108 104 95
6.628988e+000 -3.314583e+000 6.564632e-002 87 77 68
5.618680e+000 -3.589536e+000 2.515885e-001 33 23 31
6.611968e+000 -3.360552e+000 1.086867e-001 109 103 93
6.611968e+000 -3.360552e+000 1.086867e-001 109 103 93
6.711914e+000 -3.407734e+000 6.907847e-002 46 29 22
6.646912e+000 -3.451119e+000 9.867652e-002 43 33 24
5.822490e+000 -3.685215e+000 4.231984e-001 22 12 20
6.161887e+000 -3.526951e+000 4.943783e-001 35 22 29
6.587928e+000 -3.570916e+000 2.426977e-001 105 91 63
6.260800e+000 -3.634585e+000 4.568566e-001 69 59 60
6.352067e+000 -3.655456e+000 4.044448e-001 54 42 48
5.745389e+000 -3.914202e+000 4.269634e-001 29 16 23
5.703890e+000 -4.021488e+000 3.513176e-001 54 37 47
5.476791e+000 -2.479716e+000 -4.726035e-001 51 35 48
7.386252e+000 -2.143304e+000 -9.754300e-001 78 70 67
7.352034e+000 -2.298596e+000 -9.732632e-001 53 41 43
7.343023e+000 -2.380342e+000 -8.584332e-001 99 96 94
7.773493e+000 -2.364809e+000 -1.055551e+000 102 81 67
6.141532e+000 -2.751174e+000 -2.549192e-001 99 92 84
6.637918e+000 -2.652639e+000 -3.649436e-001 32 19 17
5.991136e+000 -2.879860e+000 -2.719776e-001 68 58 57
6.263388e+000 -2.776856e+000 -2.015922e-001 73 64 54
5.822411e+000 -2.979692e+000 -2.413546e-001 97 90 82
6.018760e+000 -2.888206e+000 -2.676209e-001 77 69 65
6.044956e+000 -2.877542e+000 -1.618263e-001 123 127 118
6.044956e+000 -2.877542e+000 -1.618263e-001 123 127 118
6.447523e+000 -2.780650e+000 -2.929381e-001 50 44 36
6.450068e+000 -2.748869e+000 -1.913044e-001 50 44 36
5.914884e+000 -2.981173e+000 -1.825941e-001 164 169 161
5.914884e+000 -2.981173e+000 -1.825941e-001 164 169 161
5.976731e+000 -2.952203e+000 -1.165721e-001 80 75 64
6.011327e+000 -2.920622e+000 -1.022331e-001 92 83 74
6.030053e+000 -2.956376e+000 -1.402525e-001 96 87 78
6.030053e+000 -2.956376e+000 -1.402525e-001 96 87 78
6.300745e+000 -2.842758e+000 -9.864543e-002 93 94 90
5.544498e+000 -3.288554e+000 -6.667165e-001 95 84 84
5.766452e+000 -3.135018e+000 -3.477958e-001 73 69 58
6.188980e+000 -2.953609e+000 -3.140023e-002 68 63 57
6.076073e+000 -3.051692e+000 -5.376581e-002 95 86 84
6.661826e+000 -2.929916e+000 -1.239024e-001 71 54 35
5.863032e+000 -3.227305e+000 -1.246728e-001 145 144 139
5.892585e+000 -3.217130e+000 -1.189206e-001 81 77 73
6.497266e+000 -2.983150e+000 3.801614e-002 61 47 40
7.601547e+000 -2.957667e+000 -6.194200e-001 77 64 55
6.350812e+000 -3.005319e+000 2.130559e-001 74 69 63
5.711694e+000 -3.433977e+000 -3.249697e-003 245 255 254
5.778252e+000 -3.435893e+000 2.565308e-002 238 255 255
5.777087e+000 -3.438018e+000 2.363583e-002 238 255 255
6.109907e+000 -3.287436e+000 1.486280e-002 141 146 138
6.165751e+000 -3.324808e+000 6.657155e-003 124 124 116
6.112768e+000 -3.415472e+000 2.671192e-002 73 65 63
6.861554e+000 -3.274119e+000 -3.051943e-002 77 64 56
6.328978e+000 -3.482025e+000 1.160808e-001 35 26 27
6.682692e+000 -3.443720e+000 8.256578e-002 48 37 30
6.212897e+000 -3.505526e+000 3.328039e-001 34 23 29
6.708119e+000 -3.490507e+000 1.182196e-001 75 58 47
6.718755e+000 -3.603242e+000 2.629052e-001 29 17 17
6.381207e+000 -3.619261e+000 4.682059e-001 25 16 17
5.708519e+000 -4.034655e+000 4.071851e-001 61 44 60
6.006531e+000 -3.884867e+000 4.658438e-001 25 14 18
5.659118e+000 -2.445060e+000 -2.680524e-001 33 22 30
6.002952e+000 -2.337543e+000 -1.846762e-001 46 30 37
6.857077e+000 -2.257495e+000 -9.645304e-001 165 133 94
6.923108e+000 -2.325118e+000 -9.666196e-001 91 62 48
6.973391e+000 -2.426932e+000 -9.667134e-001 144 115 75
7.358265e+000 -2.418025e+000 -9.317544e-001 119 119 117
6.301974e+000 -2.649504e+000 -2.675254e-001 58 44 43
6.043406e+000 -2.790942e+000 -2.817369e-001 39 29 28
6.347037e+000 -2.690880e+000 -2.528379e-001 59 54 50
5.798507e+000 -2.957095e+000 -3.703007e-001 147 146 144
6.035108e+000 -2.822823e+000 -2.854711e-001 84 76 74
6.411489e+000 -2.756686e+000 -1.936239e-001 107 103 94
5.961256e+000 -2.934766e+000 -1.955161e-001 144 140 131
6.069833e+000 -2.902399e+000 -1.513562e-001 74 70 64
6.830636e+000 -2.856843e+000 -7.609656e-001 51 30 29
5.788298e+000 -3.043329e+000 -3.080122e-001 147 146 142
5.832179e+000 -3.045570e+000 -2.396211e-001 86 78 71
5.911092e+000 -3.021256e+000 -1.946682e-001 81 69 67
6.356238e+000 -2.843084e+000 -3.665374e-002 142 147 140
6.604766e+000 -2.801134e+000 -2.054755e-001 71 51 40
5.466057e+000 -3.368761e+000 -7.900013e-001 81 72 65
5.625547e+000 -3.241146e+000 -4.761801e-001 148 145 141
5.665681e+000 -3.185574e+000 -4.368931e-001 71 61 59
5.676320e+000 -3.171157e+000 -4.014537e-001 71 61 59
5.893419e+000 -3.081204e+000 -2.209538e-001 77 72 66
5.989936e+000 -3.057772e+000 -1.562593e-001 157 159 148
6.071847e+000 -2.980837e+000 -8.380029e-002 155 153 146
6.096262e+000 -3.012618e+000 -2.114906e-002 150 151 143
6.106607e+000 -3.087242e+000 3.963371e-003 93 91 79
6.620313e+000 -2.999004e+000 3.179058e-003 38 27 24
6.265278e+000 -3.111566e+000 2.250126e-002 148 151 144
6.265278e+000 -3.111566e+000 2.250126e-002 148 151 144
6.232044e+000 -3.313151e+000 1.100497e-001 52 45 42
6.452896e+000 -3.269703e+000 1.321785e-001 116 111 107
6.516876e+000 -3.256551e+000 1.134526e-001 50 49 45
6.516876e+000 -3.256551e+000 1.134526e-001 50 49 45
6.756603e+000 -3.195081e+000 6.038366e-002 81 70 62
5.903367e+000 -3.417269e+000 3.222116e-001 28 16 20
6.395499e+000 -3.373470e+000 1.092499e-001 133 133 125
6.350917e+000 -3.442943e+000 1.269582e-001 112 106 103
6.691103e+000 -3.403526e+000 5.988417e-002 95 85 73
5.640469e+000 -3.628104e+000 3.293681e-001 45 30 37
5.659463e+000 -3.626765e+000 2.947286e-001 91 81 92
5.651496e+000 -3.840632e+000 3.777905e-001 33 18 23
6.091414e+000 -3.741839e+000 3.494541e-001 21 16 20
6.113838e+000 -3.808791e+000 3.528966e-001 21 12 16
6.184036e+000 -3.828865e+000 5.385083e-001 37 22 27
7.402439e+000 -2.104833e+000 -1.103900e+000 172 173 176
6.954572e+000 -2.331389e+000 -9.049525e-001 159 134 96
5.799593e+000 -2.643905e+000 -1.456976e-001 45 32 39
6.384011e+000 -2.775376e+000 -1.795863e-001 57 44 36
6.517860e+000 -2.787589e+000 -1.764387e-001 106 100 88
5.629891e+000 -3.132543e+000 -4.531825e-001 106 97 99
6.044851e+000 -2.935839e+000 -1.551614e-001 141 142 128
5.437605e+000 -3.356834e+000 -7.212701e-001 156 161 154
5.459282e+000 -3.404103e+000 -7.417769e-001 68 46 49
5.747920e+000 -3.155195e+000 -3.314149e-001 144 144 136
5.949590e+000 -3.061197e+000 -1.872143e-001 147 151 138
6.159519e+000 -2.953183e+000 -8.028845e-002 118 114 105
6.159519e+000 -2.953183e+000 -8.028845e-002 118 114 105
5.442219e+000 -3.438396e+000 -7.126293e-001 57 41 41
5.834093e+000 -3.157593e+000 -2.618805e-001 31 28 28
6.454583e+000 -2.938112e+000 3.608592e-002 47 35 29
6.008105e+000 -3.150461e+000 -1.679455e-002 144 146 141
6.920561e+000 -3.095787e+000 -2.642182e-001 80 54 41
6.027091e+000 -3.298212e+000 -8.295762e-003 114 115 107
6.841628e+000 -3.128058e+000 -6.823894e-002 33 18 15
6.826904e+000 -3.158921e+000 -3.616400e-002 83 66 53
6.426049e+000 -3.321140e+000 1.186832e-001 56 49 41
5.832796e+000 -3.765953e+000 4.895498e-001 48 36 46
6.154472e+000 -3.829198e+000 5.295563e-001 59 47 48
5.793004e+000 -2.653619e+000 -1.776911e-001 43 30 37
6.536531e+000 -2.646798e+000 -3.759153e-001 37 26 24
6.524070e+000 -2.708290e+000 -2.008937e-001 43 32 27
5.853483e+000 -3.004449e+000 -2.659585e-001 151 150 145
6.180311e+000 -2.969734e+000 -2.968830e-003 76 73 66
6.388945e+000 -2.903647e+000 1.300785e-002 66 53 44
6.605077e+000 -2.938340e+000 -4.677314e-003 72 58 49
6.870281e+000 -2.967807e+000 -3.329109e-001 70 44 32
6.217838e+000 -3.201491e+000 4.826622e-002 51 51 43
6.740421e+000 -3.165838e+000 2.491697e-002 48 41 33
6.909572e+000 -3.283341e+000 -8.340100e-002 53 35 21
6.790016e+000 -3.534618e+000 -4.201862e-002 44 27 20
5.901645e+000 -2.855014e+000 -2.708563e-001 49 35 35
5.812030e+000 -3.225739e+000 -1.887533e-001 37 32 36
5.862875e+000 -3.279782e+000 -1.327371e-001 141 142 136
5.976108e+000 -3.321502e+000 3.762987e-002 38 28 27
6.970013e+000 -3.297279e+000 -3.121687e-001 79 58 41
5.738822e+000 -3.748002e+000 3.534632e-001 35 26 31
6.008660e+000 -3.770570e+000 3.573401e-001 20 14 16
6.790764e+000 -2.767684e+000 -8.177125e-001 145 132 124
5.843007e+000 -3.172870e+000 -2.304748e-001 52 50 49
5.843007e+000 -3.172870e+000 -2.304748e-001 52 50 49
7.608017e+000 -2.503190e+000 -8.045712e-001 66 51 44
5.772444e+000 -3.002272e+000 -2.391980e-001 137 137 136
6.212454e+000 -3.436521e+000 7.940165e-002 30 20 21
7.243507e+000 -2.621946e+000 -1.530553e+000 59 40 34
9.302428e+000 -3.671029e+000 -3.060855e-001 136 120 71
8.029799e+000 -2.587640e+000 -1.008300e+000 67 48 31
7.658503e+000 -2.433804e+000 -9.088245e-001 91 75 63
7.543572e+000 -2.838876e+000 -6.429396e-001 69 53 40
9.000597e+000 -2.181093e+000 -9.178223e-001 158 142 91
8.976581e+000 -2.220110e+000 -9.660353e-001 155 138 92
8.990937e+000 -2.221862e+000 -9.903202e-001 155 138 92
6.658879e+000 -2.917016e+000 -8.027519e-002 79 58 40
6.417225e+000 -3.226423e+000 9.288591e-002 150 152 141
6.510141e+000 -3.282354e+000 1.108583e-001 50 44 38
6.773636e+000 -3.217553e+000 6.927803e-003 76 61 56
6.769508e+000 -3.208977e+000 2.895149e-002 76 61 56
8.834999e+000 -2.564293e+000 -1.219059e+000 163 150 96
7.293196e+000 -2.727928e+000 -1.072214e+000 42 30 34
6.350277e+000 -3.041959e+000 6.031612e-002 87 82 76
6.581558e+000 -3.136778e+000 5.951359e-002 65 60 51
6.440175e+000 -3.353301e+000 1.025120e-001 62 52 45
7.347985e+000 -2.411895e+000 -1.723182e+000 80 63 64
7.264219e+000 -2.622612e+000 -1.597777e+000 141 122 100
7.264219e+000 -2.622612e+000 -1.597777e+000 141 122 100
7.279117e+000 -2.537169e+000 -1.422345e+000 93 82 88
7.905565e+000 -2.619378e+000 -9.866520e-001 64 46 31
8.074797e+000 -3.227338e+000 -3.289608e-001 105 98 95
7.995531e+000 -3.619379e+000 -7.360967e-001 92 86 83
7.274157e+000 -2.532154e+000 -1.223434e+000 95 83 95
7.274157e+000 -2.532154e+000 -1.223434e+000 95 83 95
7.754989e+000 -2.397903e+000 -9.433826e-001 98 80 66
6.490871e+000 -2.678787e+000 -2.737108e-001 45 35 33
7.811481e+000 -2.591225e+000 -9.001422e-001 63 44 30
7.939491e+000 -2.590049e+000 -9.022532e-001 96 78 58
7.962237e+000 -2.629999e+000 -9.451637e-001 92 75 57
8.290067e+000 -3.064771e+000 -9.296550e-001 51 38 30
6.700581e+000 -3.317913e+000 5.978528e-002 71 60 53
7.545962e+000 -3.437510e+000 -7.091419e-001 73 59 53
7.605589e+000 -3.467986e+000 -7.029513e-001 54 37 30
7.990010e+000 -3.342689e+000 -4.191680e-001 110 102 94
7.858620e+000 -3.875774e+000 -7.381544e-001 46 35 33
7.887667e+000 -3.855288e+000 -7.010237e-001 63 52 48
9.273645e+000 -3.397793e+000 -2.909199e-001 137 120 75
9.273645e+000 -3.397793e+000 -2.909199e-001 137 120 75
7.181319e+000 -2.625191e+000 -1.510929e+000 105 93 99
7.550162e+000 -2.409822e+000 -8.866098e-001 69 53 40
7.334921e+000 -2.644605e+000 -1.186271e+000 47 40 44
7.321660e+000 -2.689055e+000 -1.082044e+000 51 40 46
6.580192e+000 -2.747134e+000 -2.228254e-001 40 26 17
7.281925e+000 -2.900157e+000 -8.531286e-001 48 34 33
5.405168e+000 -3.515317e+000 -7.992663e-001 109 101 91
7.922052e+000 -3.092252e+000 -6.435421e-001 80 63 52
7.871687e+000 -3.112831e+000 -6.294310e-001 81 66 58
6.527955e+000 -3.336969e+000 1.065314e-001 58 51 43
7.795114e+000 -3.333507e+000 -6.548969e-001 46 36 34
6.575459e+000 -3.457602e+000 1.208890e-001 90 83 79
7.945901e+000 -3.724719e+000 -5.086914e-001 119 110 103
7.989007e+000 -3.843319e+000 -5.075728e-001 81 68 60
7.698694e+000 -2.113628e+000 -1.590790e+000 103 84 54
7.352867e+000 -2.509870e+000 -1.338561e+000 52 41 46
7.339417e+000 -2.588629e+000 -1.224153e+000 48 34 41
7.588378e+000 -2.417775e+000 -8.852712e-001 87 72 59
6.301714e+000 -2.727258e+000 -2.378868e-001 122 116 107
7.849043e+000 -3.356532e+000 -7.194051e-001 100 95 92
6.690827e+000 -3.399064e+000 6.984970e-002 95 85 73
7.927509e+000 -3.297116e+000 -4.029175e-001 98 94 92
8.004241e+000 -3.530647e+000 -7.194384e-001 105 101 100
8.020141e+000 -3.326581e+000 -3.678946e-001 178 204 212
7.315368e+000 -2.487593e+000 -1.540499e+000 105 98 106
7.307620e+000 -2.477728e+000 -1.482944e+000 105 98 106
7.300887e+000 -2.584941e+000 -1.285509e+000 87 81 90
8.008081e+000 -2.531920e+000 -9.861600e-001 90 73 56
5.483058e+000 -3.459195e+000 -7.435076e-001 124 117 108
7.945636e+000 -4.098567e+000 -7.175967e-001 72 52 43
7.271079e+000 -2.637311e+000 -1.427657e+000 43 30 27
7.271079e+000 -2.637311e+000 -1.427657e+000 43 30 27
7.334741e+000 -2.545227e+000 -1.230980e+000 47 41 45
7.949980e+000 -3.271616e+000 -6.897476e-001 52 41 40
8.010439e+000 -2.696510e+000 -9.153946e-001 88 72 46
8.216126e+000 -3.258015e+000 -2.068542e-001 161 175 176
8.021646e+000 -4.000542e+000 -6.038476e-001 79 62 54
7.865948e+000 -2.496110e+000 -9.853846e-001 93 75 55
8.983354e+000 -2.958076e+000 -1.008620e+000 165 155 106
8.129438e+000 -3.388815e+000 -3.760169e-001 163 172 179
5.833289e+000 -3.305943e+000 -1.614866e-001 81 82 82
7.527231e+000 -3.449690e+000 -6.804475e-001 78 63 58
8.023997e+000 -3.847264e+000 -4.968401e-001 115 99 86
7.405144e+000 -2.313752e+000 -8.942110e-001 64 50 41
6.023749e+000 -2.853860e+000 -2.511346e-001 123 119 116
6.095768e+000 -2.816601e+000 -2.473471e-001 109 108 103
6.373852e+000 -3.150315e+000 7.527940e-002 137 144 135
7.401566e+000 -2.328383e+000 -7.935445e-001 74 55 48
7.401566e+000 -2.328383e+000 -7.935445e-001 74 55 48
6.444694e+000 -2.673762e+000 -2.694103e-001 69 58 57
6.270638e+000 -2.742337e+000 -2.268657e-001 69 65 56
7.968315e+000 -2.537569e+000 -9.978523e-001 72 54 40
7.968315e+000 -2.537569e+000 -9.978523e-001 72 54 40
6.120376e+000 -3.105750e+000 1.091623e-002 126 124 112
6.393616e+000 -3.170068e+000 6.927503e-002 81 74 69
7.630133e+000 -3.087394e+000 -5.887313e-001 81 67 64
7.630133e+000 -3.087394e+000 -5.887313e-001 81 67 64
7.881549e+000 -3.037568e+000 -6.307800e-001 62 47 40
8.518831e+000 -3.207493e+000 -2.758157e-001 54 37 23
7.307686e+000 -2.665922e+000 -1.153869e+000 75 66 71
7.256728e+000 -2.765362e+000 -1.139308e+000 61 46 46
8.811656e+000 -2.439942e+000 -1.284572e+000 147 128 86
8.840705e+000 -2.411906e+000 -1.248430e+000 136 122 77
6.248281e+000 -3.030937e+000 5.307961e-002 96 93 84
7.590233e+000 -3.059669e+000 -5.786557e-001 60 46 39
6.679926e+000 -3.109417e+000 1.314951e-002 43 33 23
6.706133e+000 -3.115065e+000 4.251870e-002 88 82 71
6.138416e+000 -2.953851e+000 -6.136950e-002 121 121 110
6.428284e+000 -3.069202e+000 6.207469e-002 110 105 99
6.611192e+000 -3.065593e+000 4.457049e-002 49 38 34
6.218025e+000 -3.513515e+000 2.289414e-001 62 53 56
8.226821e+000 -2.732265e+000 -9.719992e-001 129 122 111
8.021507e+000 -2.813516e+000 -7.836436e-001 60 46 35
7.750390e+000 -2.365965e+000 -9.630377e-001 97 78 64
7.769134e+000 -2.371177e+000 -9.583672e-001 68 49 34
7.772686e+000 -2.751022e+000 -7.550941e-001 60 47 31
7.970249e+000 -2.747067e+000 -8.808515e-001 92 75 57
8.279624e+000 -3.087127e+000 -9.690602e-001 73 65 55
7.288789e+000 -3.427533e+000 -6.604583e-001 61 50 44
7.408939e+000 -2.318044e+000 -9.018434e-001 63 53 44
7.289773e+000 -2.603127e+000 -1.652387e+000 54 40 28
8.983025e+000 -2.572919e+000 -8.936097e-001 173 161 113
7.761148e+000 -2.911376e+000 -6.510234e-001 60 43 33
6.984033e+000 -3.233293e+000 -5.450289e-001 51 31 20
6.623110e+000 -3.225545e+000 6.616059e-002 86 77 72
7.967409e+000 -3.584046e+000 -4.292212e-001 101 89 83
8.011394e+000 -3.604368e+000 -3.827969e-001 95 82 74
7.714606e+000 -2.503086e+000 -3.336262e-001 59 41 31
9.024439e+000 -2.497975e+000 -8.727654e-001 144 126 83
7.068258e+000 -2.737372e+000 -1.639524e+000 147 128 86
7.068258e+000 -2.737372e+000 -1.639524e+000 147 128 86
8.680709e+000 -2.526309e+000 -9.345260e-001 161 148 96
7.307524e+000 -2.499471e+000 -1.372031e+000 98 93 97
6.477341e+000 -2.668511e+000 -2.657381e-001 48 39 33
7.546429e+000 -2.606996e+000 -7.513471e-001 93 76 68
7.549419e+000 -2.610887e+000 -7.631460e-001 93 76 68
7.290077e+000 -2.731964e+000 -6.205708e-001 69 59 60
8.191863e+000 -2.640547e+000 -9.990584e-001 54 39 32
6.157074e+000 -3.010601e+000 4.756573e-003 149 150 142
7.722719e+000 -2.871336e+000 -6.455320e-001 79 65 52
6.354272e+000 -3.033778e+000 5.657702e-002 81 78 71
7.770569e+000 -2.920450e+000 -6.830204e-001 60 43 36
7.574729e+000 -3.265777e+000 -6.642562e-001 71 57 51
6.311800e+000 -3.330307e+000 8.857701e-002 63 52 46
6.833736e+000 -3.331006e+000 -1.383779e-002 50 38 26
8.129606e+000 -3.174613e+000 -3.636818e-001 105 92 75
7.247202e+000 -2.209061e+000 3.743194e-001 68 53 48
7.535183e+000 -2.480530e+000 -8.254664e-001 89 72 62
7.747518e+000 -2.461046e+000 -9.175178e-001 60 43 33
7.715403e+000 -2.555174e+000 -8.467167e-001 89 71 58
7.278030e+000 -2.795000e+000 -6.374704e-001 113 111 112
7.318834e+000 -2.892285e+000 -6.094356e-001 52 38 35
7.837926e+000 -2.878920e+000 -7.371941e-001 83 67 52
6.692114e+000 -3.393747e+000 7.662344e-002 101 91 79
5.748411e+000 -3.437754e+000 5.308804e-003 39 37 51
8.254345e+000 -2.893728e+000 -9.571888e-001 89 78 76
6.487693e+000 -3.215180e+000 8.975541e-002 124 120 113
6.521057e+000 -3.174629e+000 7.629160e-002 78 72 63
8.016485e+000 -3.241386e+000 -4.599667e-001 103 97 91
6.473191e+000 -3.436892e+000 1.680353e-001 57 47 45
6.576537e+000 -3.553628e+000 2.799613e-001 70 58 45
7.764395e+000 -4.068739e+000 -8.129785e-001 79 67 52
7.352001e+000 -2.211633e+000 -9.722635e-001 79 70 73
7.327451e+000 -2.482861e+000 -1.388976e+000 59 47 47
6.157657e+000 -2.795861e+000 -2.305896e-001 71 66 63
7.214960e+000 -2.849540e+000 -9.864819e-001 55 41 44
6.207838e+000 -2.862572e+000 -1.015770e-001 75 73 68
6.392190e+000 -2.824711e+000 -2.507308e-002 85 67 55
7.748608e+000 -2.939161e+000 -6.576328e-001 81 66 59
6.268321e+000 -3.091104e+000 7.243860e-002 149 155 145
6.712961e+000 -3.245477e+000 4.846724e-002 82 69 58
7.984309e+000 -3.548362e+000 -6.877821e-001 56 48 45
8.000879e+000 -3.299435e+000 -4.439244e-001 117 105 107
7.579371e+000 -3.991831e+000 -9.940505e-001 70 54 38
7.986018e+000 -3.616815e+000 -6.881688e-001 55 49 43
6.354783e+000 -3.529439e+000 2.849219e-001 79 71 68
9.076434e+000 -4.111801e+000 -5.554810e-001 156 139 93
7.364968e+000 -2.362668e+000 -1.587754e+000 114 105 110
7.664974e+000 -2.363614e+000 -9.189551e-001 67 51 38
6.103366e+000 -2.849050e+000 -2.101858e-001 126 126 118
6.252495e+000 -2.753714e+000 -2.102256e-001 128 129 121
5.786619e+000 -3.019605e+000 -2.823256e-001 159 157 156
5.917926e+000 -2.969565e+000 -1.672549e-001 149 152 145
6.334908e+000 -2.764226e+000 -1.762090e-001 59 49 40
5.871608e+000 -3.053919e+000 -2.145515e-001 120 119 114
6.354966e+000 -2.817850e+000 -1.319483e-001 82 79 70
7.299810e+000 -2.805904e+000 -6.120761e-001 60 49 43
7.331266e+000 -2.788661e+000 -6.352957e-001 80 70 61
6.419827e+000 -2.840855e+000 5.525711e-003 62 47 40
6.026587e+000 -3.065876e+000 -5.413240e-002 140 142 141
6.024079e+000 -3.074732e+000 -6.425219e-002 140 142 141
6.120494e+000 -3.105997e+000 9.809474e-003 133 130 123
7.604837e+000 -3.288690e+000 -6.333271e-001 35 21 17
7.613121e+000 -3.240679e+000 -6.219045e-001 75 64 60
7.990516e+000 -3.362623e+000 -7.070912e-001 104 98 94
7.984809e+000 -3.235322e+000 -5.542065e-001 158 178 184
6.536932e+000 -3.381196e+000 1.233894e-001 57 48 42
6.575470e+000 -3.446976e+000 1.322816e-001 102 97 89
7.957494e+000 -3.635535e+000 -4.928893e-001 112 104 101
6.343782e+000 -2.693973e+000 -2.532651e-001 50 41 39
6.214726e+000 -2.773117e+000 -2.184229e-001 57 50 47
5.400187e+000 -3.412191e+000 -7.021538e-001 150 143 145
5.743660e+000 -3.059476e+000 -3.112041e-001 96 89 81
6.154030e+000 -2.860524e+000 -1.836160e-001 68 67 62
5.902116e+000 -3.190940e+000 -1.432675e-001 130 134 131
6.066671e+000 -3.072696e+000 -3.262515e-002 137 137 129
6.349614e+000 -2.908323e+000 2.953778e-002 92 87 81
5.812645e+000 -3.299221e+000 -1.551363e-001 57 48 53
5.811403e+000 -3.324112e+000 -9.573041e-002 45 43 48
5.925089e+000 -3.253405e+000 -5.982612e-002 67 63 64
8.268461e+000 -3.000895e+000 -9.615675e-001 47 36 30
6.129508e+000 -3.238304e+000 2.500232e-002 58 57 52
6.261283e+000 -3.294150e+000 8.832217e-002 98 95 90
6.506040e+000 -3.362312e+000 1.339006e-001 118 115 108
6.557953e+000 -3.331660e+000 1.179897e-001 85 81 72
6.582556e+000 -3.363657e+000 1.135695e-001 47 37 36
6.405317e+000 -3.439922e+000 1.416425e-001 48 44 45
6.476284e+000 -3.400868e+000 1.408175e-001 48 40 39
6.634274e+000 -3.382668e+000 1.034121e-001 45 36 29
8.020315e+000 -3.327647e+000 -3.679278e-001 176 195 205
6.293906e+000 -2.755252e+000 -1.947467e-001 75 64 60
6.162373e+000 -2.926157e+000 -1.071726e-001 83 74 65
6.221264e+000 -2.926291e+000 3.321182e-003 138 145 138
6.417521e+000 -2.922407e+000 5.991372e-002 103 96 88
6.417211e+000 -2.926508e+000 5.550728e-002 103 96 88
6.014223e+000 -3.143540e+000 -2.942513e-002 131 132 126
6.033081e+000 -3.216186e+000 -8.415024e-003 126 131 120
6.070872e+000 -3.283511e+000 6.760405e-003 49 44 43
6.267126e+000 -3.206508e+000 5.909296e-002 154 156 142
8.097429e+000 -3.086108e+000 -7.704191e-001 41 27 20
6.829709e+000 -3.174801e+000 -4.425559e-002 81 61 50
7.588943e+000 -3.980791e+000 -9.153351e-001 160 142 93
8.062589e+000 -3.281007e+000 -3.414143e-001 108 106 110
7.966509e+000 -3.567184e+000 -4.633758e-001 134 132 133
6.266646e+000 -3.689241e+000 4.359748e-001 58 47 53
6.527675e+000 -2.635031e+000 -3.410594e-001 34 23 19
6.513686e+000 -2.738416e+000 -2.830587e-001 37 28 23
6.084097e+000 -2.947974e+000 -1.071910e-001 61 56 52
6.607484e+000 -2.948249e+000 -1.978327e-002 76 61 52
6.070256e+000 -3.282254e+000 1.673173e-002 65 57 55
6.125156e+000 -3.302196e+000 1.661580e-002 134 139 132
6.784226e+000 -3.104805e+000 -5.456832e-002 71 59 43
6.666154e+000 -3.334978e+000 7.069687e-002 56 46 37
7.803818e+000 -3.885260e+000 -6.827866e-001 84 71 63
7.006276e+000 -3.934187e+000 -2.204413e-001 155 133 84
6.173078e+000 -2.880747e+000 -1.231431e-001 111 112 104
6.877716e+000 -2.988064e+000 -3.912989e-001 69 46 30
5.873142e+000 -3.249207e+000 -8.729875e-002 136 135 133
5.871308e+000 -3.309794e+000 -3.712775e-002 53 48 53
7.965375e+000 -3.054225e+000 -6.818927e-001 90 74 60
7.839718e+000 -3.350917e+000 -6.417356e-001 87 79 77
6.240135e+000 -3.474059e+000 1.747868e-001 30 21 26
5.985641e+000 -3.004729e+000 -1.332197e-001 113 118 111
7.979828e+000 -3.225270e+000 -4.965557e-001 100 95 94
6.148352e+000 -3.688296e+000 4.162716e-001 26 17 22
8.070138e+000 -3.812180e+000 -4.938564e-001 86 72 63
7.993304e+000 -3.019000e+000 -8.054107e-001 85 74 55
5.697652e+000 -2.797487e+000 -2.976655e-001 47 30 36
9.186993e+000 -3.238738e+000 -5.800151e-001 174 161 116
7.994056e+000 -3.311677e+000 -4.176021e-001 187 209 213
7.665636e+000 -2.362346e+000 -9.208740e-001 70 52 41
6.421881e+000 -2.885760e+000 3.072844e-002 61 53 45
7.571821e+000 -2.594814e+000 -7.815295e-001 71 54 46
7.555692e+000 -2.718993e+000 -6.973351e-001 68 53 46
7.906066e+000 -2.609367e+000 -9.129836e-001 90 71 54
9.142374e+000 -2.235831e+000 -7.836779e-001 153 141 91
6.372742e+000 -2.840636e+000 1.191819e-002 88 85 78
8.182654e+000 -1.701680e+000 -2.326961e+000 140 125 86
7.696520e+000 -2.398142e+000 -8.871228e-001 90 74 61
6.222907e+000 -2.732246e+000 -2.581745e-001 138 144 137
7.996566e+000 -3.565938e+000 -7.142811e-001 56 48 45
7.526954e+000 -2.431083e+000 -8.834687e-001 91 75 62
5.995091e+000 -2.890063e+000 -2.169311e-001 133 132 130
6.021231e+000 -2.870816e+000 -2.231296e-001 72 69 62
6.390789e+000 -2.812263e+000 -9.847071e-002 63 51 46
6.065104e+000 -3.072500e+000 -3.265132e-002 137 137 129
7.318458e+000 -3.338462e+000 -7.377371e-001 44 33 31
7.318363e+000 -3.338778e+000 -7.384209e-001 44 33 31
6.607588e+000 -3.438692e+000 1.102046e-001 69 60 51
6.396492e+000 -2.864573e+000 5.010858e-003 118 116 107
8.878633e+000 -2.699736e+000 -1.158207e+000 135 121 76
6.854760e+000 -3.022128e+000 -3.430971e-001 32 21 17
6.340889e+000 -3.264519e+000 9.253417e-002 135 137 132
9.112504e+000 -2.949301e+000 -7.483049e-001 143 126 77
8.166694e+000 -3.186366e+000 -3.260641e-001 109 96 84
6.248689e+000 -3.000497e+000 2.701876e-002 128 128 120
7.451600e+000 -2.937485e+000 -5.796754e-001 80 69 65
8.920953e+000 -2.662049e+000 -1.105605e+000 138 119 79
5.967595e+000 -3.271048e+000 -2.608893e-002 145 148 143
6.086974e+000 -2.162747e+000 -3.086846e-001 79 63 71
8.696855e+000 -2.980512e+000 -1.397536e+000 62 46 34
7.420828e+000 -2.121054e+000 -1.031550e+000 111 102 102
6.194233e+000 -2.795881e+000 -1.788365e-001 134 137 130
5.449198e+000 -3.493437e+000 -6.394475e-001 173 165 158
5.475118e+000 -3.457240e+000 -5.654536e-001 101 93 92
5.463213e+000 -3.504979e+000 -6.658018e-001 82 69 61
6.278695e+000 -2.800256e+000 -1.750656e-001 56 49 44
6.278695e+000 -2.800256e+000 -1.750656e-001 56 49 44
5.442291e+000 -3.682121e+000 -5.927475e-001 167 166 158
5.566479e+000 -3.578869e+000 -6.681518e-001 37 33 32
6.135768e+000 -2.924797e+000 -7.778569e-002 92 88 77
5.906274e+000 -3.244621e+000 -6.436202e-002 131 130 126
6.338002e+000 -2.893103e+000 1.071759e-002 50 42 39
8.026592e+000 -2.766338e+000 -8.503542e-001 69 51 39
5.824976e+000 -3.376691e+000 5.771024e-003 90 94 102
6.414874e+000 -3.167970e+000 9.142814e-002 135 133 121
6.486870e+000 -3.090595e+000 7.490290e-002 62 54 48
6.541701e+000 -3.104662e+000 3.131163e-002 112 109 100
6.554625e+000 -3.132310e+000 6.012489e-002 59 55 48
7.703002e+000 -3.068830e+000 -5.562882e-001 110 103 96
6.637324e+000 -3.145143e+000 5.240826e-002 59 51 39
6.852928e+000 -3.301976e+000 -5.526382e-003 113 99 88
6.647394e+000 -3.455850e+000 6.583889e-002 107 96 86
7.656849e+000 -2.144141e+000 -1.767341e+000 99 87 90
7.365486e+000 -2.382220e+000 -1.698608e+000 104 94 93
7.370531e+000 -2.395817e+000 -1.720641e+000 104 94 93
7.352278e+000 -2.168122e+000 -1.054045e+000 82 72 75
8.018569e+000 -2.535145e+000 -1.667952e+000 62 43 29
7.298810e+000 -2.668691e+000 -1.025802e+000 65 54 57
7.601009e+000 -2.446029e+000 -8.890741e-001 62 45 37
5.391093e+000 -3.495534e+000 -7.304067e-001 90 77 83
6.120000e+000 -2.798930e+000 -2.297062e-001 70 65 62
6.366005e+000 -2.720804e+000 -2.286500e-001 109 100 95
5.470447e+000 -3.519379e+000 -6.423993e-001 136 131 122
5.489686e+000 -3.519936e+000 -6.459807e-001 64 51 43
5.947296e+000 -2.992242e+000 -1.655870e-001 154 155 147
6.161554e+000 -2.870660e+000 -1.434010e-001 145 149 135
6.296389e+000 -2.787545e+000 -2.090354e-001 59 59 44
6.356053e+000 -2.787922e+000 -1.554621e-001 120 116 110
6.355278e+000 -2.789785e+000 -1.574628e-001 120 116 110
6.498207e+000 -2.758124e+000 -2.005451e-001 56 47 38
5.512413e+000 -3.594911e+000 -6.611535e-001 65 52 44
5.750386e+000 -3.237765e+000 -2.337007e-001 36 42 60
6.245306e+000 -2.845246e+000 -8.135620e-002 48 47 45
7.777175e+000 -2.689169e+000 -8.120147e-001 62 46 33
5.693014e+000 -3.310737e+000 -1.401206e-001 76 96 116
6.159957e+000 -2.936648e+000 -3.198859e-002 141 138 129
6.206405e+000 -2.929918e+000 -5.967495e-003 92 93 85
6.347574e+000 -2.827669e+000 -2.413098e-002 61 60 58
5.521245e+000 -3.580503e+000 -3.405519e-001 82 81 88
5.850300e+000 -3.271097e+000 -1.135940e-001 90 90 92
6.066689e+000 -3.120829e+000 -8.268479e-003 163 166 159
6.234722e+000 -2.937553e+000 2.599774e-002 109 109 104
6.348346e+000 -2.916754e+000 3.773958e-002 105 105 97
6.365808e+000 -2.912807e+000 4.611868e-002 53 43 41
6.375987e+000 -2.925513e+000 5.495915e-002 100 94 86
6.387556e+000 -2.848240e+000 4.369820e-002 79 70 61
6.402477e+000 -2.905397e+000 2.959837e-002 39 34 29
5.806163e+000 -3.354563e+000 -6.949501e-002 251 253 254
5.808679e+000 -3.345306e+000 -6.148979e-002 251 253 254
6.318828e+000 -3.013251e+000 6.849620e-002 139 137 128
6.366230e+000 -2.972066e+000 5.923626e-002 128 122 110
6.478475e+000 -2.896444e+000 3.326456e-002 88 79 72
8.044758e+000 -2.908569e+000 -9.038985e-001 60 46 33
8.041966e+000 -2.864023e+000 -8.691580e-001 100 87 71
6.458294e+000 -3.030912e+000 4.590865e-002 108 99 93
8.254624e+000 -2.942288e+000 -8.305226e-001 126 120 108
6.324404e+000 -3.209431e+000 7.801518e-002 149 158 154
6.522005e+000 -3.104723e+000 5.298765e-002 111 107 98
6.560709e+000 -3.080847e+000 2.839540e-002 126 119 113
6.344984e+000 -3.292036e+000 1.059810e-001 62 53 48
6.502512e+000 -3.222213e+000 9.778943e-002 69 64 57
6.602791e+000 -3.182340e+000 6.284205e-002 98 90 77
6.601968e+000 -3.178458e+000 6.688657e-002 98 90 77
7.988759e+000 -3.268567e+000 -6.891339e-001 81 72 65
6.743567e+000 -3.318087e+000 5.671507e-002 59 51 38
8.035455e+000 -3.195986e+000 -5.534300e-001 71 54 46
6.704109e+000 -3.420978e+000 8.417805e-002 53 39 31
9.107430e+000 -3.135073e+000 -8.174667e-001 128 119 88
6.874522e+000 -4.235232e+000 1.134176e-001 142 114 103
6.943321e+000 -4.265377e+000 1.613044e-001 164 143 100
7.572719e+000 -2.182996e+000 -1.761685e+000 126 114 118
7.332996e+000 -2.534809e+000 -1.333689e+000 77 66 68
7.327417e+000 -2.411191e+000 -8.998825e-001 65 55 59
7.477236e+000 -2.356462e+000 -8.906759e-001 60 41 34
7.483565e+000 -2.380377e+000 -8.666784e-001 55 41 32
5.416877e+000 -3.443391e+000 -7.147928e-001 70 52 50
6.097872e+000 -2.791723e+000 -2.544790e-001 45 39 39
6.357536e+000 -2.688959e+000 -2.646839e-001 49 39 36
7.631822e+000 -2.425444e+000 -9.017329e-001 64 48 35
5.844156e+000 -2.979328e+000 -2.329234e-001 157 160 158
5.967450e+000 -2.882332e+000 -2.223039e-001 130 129 124
5.967450e+000 -2.882332e+000 -2.223039e-001 130 129 124
6.022860e+000 -2.862116e+000 -2.607074e-001 127 119 116
6.030638e+000 -2.887399e+000 -1.997366e-001 162 166 165
6.030670e+000 -2.887297e+000 -1.996349e-001 162 166 165
6.100787e+000 -2.824574e+000 -2.251265e-001 54 44 39
6.127399e+000 -2.829042e+000 -2.129530e-001 62 56 51
6.173860e+000 -2.822519e+000 -1.758920e-001 151 155 148
6.519004e+000 -2.681582e+000 -2.774636e-001 112 107 101
6.610606e+000 -2.677676e+000 -3.830602e-001 68 54 43
5.923995e+000 -3.035760e+000 -1.751226e-001 130 130 118
6.099347e+000 -2.874954e+000 -1.484431e-001 146 149 140
6.099898e+000 -2.874437e+000 -1.475740e-001 146 149 140
6.078964e+000 -2.940947e+000 -1.672414e-001 65 54 51
6.129373e+000 -2.893135e+000 -1.261718e-001 66 63 56
6.204234e+000 -2.845563e+000 -1.212476e-001 147 150 142
6.479306e+000 -2.763106e+000 -1.928088e-001 112 108 100
7.299481e+000 -2.843816e+000 -9.828516e-001 52 40 42
7.734606e+000 -2.530371e+000 -8.477009e-001 71 53 40
7.752657e+000 -2.593786e+000 -8.346190e-001 70 53 41
7.752657e+000 -2.593786e+000 -8.346190e-001 70 53 41
5.494231e+000 -3.623030e+000 -6.495517e-001 69 58 52
6.153695e+000 -2.904704e+000 -9.792840e-002 84 80 71
6.153886e+000 -2.900774e+000 -9.294353e-002 84 80 71
6.300279e+000 -2.844911e+000 -1.038840e-001 100 104 102
7.370576e+000 -2.725597e+000 -6.538107e-001 83 72 64
7.569404e+000 -2.727261e+000 -8.367571e-001 60 46 36
7.720846e+000 -2.649403e+000 -8.235880e-001 67 53 40
5.426892e+000 -3.649944e+000 -4.456501e-001 91 88 106
6.028935e+000 -3.058375e+000 -1.072499e-001 121 120 112
6.531429e+000 -2.808559e+000 -1.240729e-001 40 25 20
7.308025e+000 -2.848697e+000 -6.078684e-001 82 69 63
6.177800e+000 -3.018491e+000 2.786943e-002 158 170 163
6.853248e+000 -2.973518e+000 -3.002356e-001 31 17 14
7.283325e+000 -2.939455e+000 -6.145264e-001 44 36 32
7.788882e+000 -2.804272e+000 -7.344834e-001 66 48 42
7.845924e+000 -2.750500e+000 -7.723129e-001 88 71 61
5.723806e+000 -3.407874e+000 -4.866938e-002 79 86 103
5.821141e+000 -3.329589e+000 -1.083661e-002 44 45 49
5.958124e+000 -3.245364e+000 -3.479661e-002 139 139 134
6.492096e+000 -2.919021e+000 3.047938e-002 44 31 25
7.718983e+000 -2.853725e+000 -6.576752e-001 90 78 64
7.739327e+000 -2.843898e+000 -6.393497e-001 58 44 33
7.818030e+000 -2.894502e+000 -7.542952e-001 57 43 30
7.818030e+000 -2.894502e+000 -7.542952e-001 57 43 30
5.786516e+000 -3.374268e+000 1.437645e-003 26 31 37
6.175698e+000 -3.208581e+000 3.663443e-002 95 95 84
6.322101e+000 -3.116266e+000 8.773328e-002 143 143 133
7.357101e+000 -3.239475e+000 -7.397923e-001 38 27 25
6.250615e+000 -3.233010e+000 6.755220e-002 168 169 164
6.353358e+000 -3.204715e+000 7.782520e-002 136 139 132
6.401872e+000 -3.155351e+000 8.531827e-002 82 75 66
6.642093e+000 -3.069618e+000 1.566678e-002 42 30 24
6.642613e+000 -3.071891e+000 1.270025e-002 42 30 24
7.394191e+000 -3.324905e+000 -7.354739e-001 41 28 22
7.718113e+000 -3.062375e+000 -5.780906e-001 51 41 32
6.535633e+000 -3.219240e+000 9.187499e-002 106 105 93
6.652867e+000 -3.155480e+000 2.448843e-002 100 97 85
7.727625e+000 -3.246762e+000 -5.910773e-001 47 33 30
7.992569e+000 -3.192082e+000 -6.301258e-001 70 52 47
8.176414e+000 -3.190354e+000 -6.587756e-001 126 113 105
6.537107e+000 -3.377592e+000 1.279752e-001 58 49 42
7.981369e+000 -3.419652e+000 -7.344737e-001 64 51 49
7.981130e+000 -3.475392e+000 -7.064066e-001 69 59 54
8.062179e+000 -3.189677e+000 -5.125802e-001 102 85 69
7.989501e+000 -3.282958e+000 -4.761792e-001 124 108 111
6.042655e+000 -3.719048e+000 2.791395e-001 32 22 30
8.060272e+000 -3.304173e+000 -3.153606e-001 157 165 170
6.007340e+000 -3.844233e+000 4.547492e-001 34 17 25
7.579301e+000 -2.223119e+000 -1.907743e+000 81 68 63
7.337539e+000 -2.555984e+000 -1.124914e+000 45 35 37
7.365216e+000 -2.445655e+000 -9.535293e-001 96 91 97
7.407103e+000 -2.314683e+000 -8.922408e-001 66 48 41
7.395589e+000 -2.437223e+000 -9.731306e-001 68 50 49
7.412855e+000 -2.414445e+000 -8.562324e-001 88 73 68
7.459785e+000 -2.388190e+000 -8.947807e-001 85 72 64
7.547961e+000 -2.406338e+000 -8.727051e-001 65 51 38
7.548523e+000 -2.407554e+000 -8.738170e-001 65 51 38
7.719922e+000 -2.343894e+000 -9.619320e-001 70 52 42
5.954791e+000 -2.846270e+000 -2.650685e-001 111 103 101
6.054547e+000 -2.816679e+000 -2.239428e-001 54 44 42
6.051525e+000 -2.836524e+000 -2.505496e-001 54 44 42
7.222552e+000 -2.758693e+000 -1.032412e+000 43 29 30
7.450714e+000 -2.461680e+000 -8.318276e-001 62 47 42
5.920231e+000 -2.962244e+000 -2.027267e-001 72 64 58
6.011174e+000 -2.910849e+000 -2.000250e-001 50 41 37
6.083949e+000 -2.852539e+000 -1.861207e-001 68 62 58
6.083949e+000 -2.852539e+000 -1.861207e-001 68 62 58
6.272575e+000 -2.777653e+000 -2.020597e-001 62 57 48
6.609012e+000 -2.663274e+000 -2.754879e-001 67 50 45
6.463791e+000 -2.773710e+000 -1.840262e-001 56 47 38
5.830575e+000 -3.127713e+000 -2.273032e-001 42 34 40
6.236469e+000 -2.845830e+000 -1.094492e-001 128 133 127
6.399624e+000 -2.804419e+000 -1.539510e-001 94 90 87
6.399624e+000 -2.804419e+000 -1.539510e-001 94 90 87
6.603373e+000 -2.806021e+000 -2.162039e-001 64 46 32
7.530903e+000 -2.722371e+000 -7.278806e-001 87 76 67
7.557417e+000 -2.639003e+000 -7.262508e-001 95 83 67
6.055491e+000 -3.014641e+000 -7.957539e-002 85 85 77
6.508455e+000 -2.812487e+000 -9.849762e-002 61 46 39
6.508535e+000 -2.817480e+000 -1.045973e-001 61 46 39
5.835205e+000 -3.305751e+000 -1.173241e-001 118 116 117
5.943000e+000 -3.196801e+000 -8.800266e-002 73 69 66
6.067408e+000 -3.079318e+000 -3.920461e-002 155 152 147
6.060864e+000 -3.108725e+000 -2.898939e-002 101 98 89
6.096363e+000 -3.080151e+000 -4.935480e-004 84 82 79
6.289951e+000 -2.904610e+000 3.764189e-002 89 87 80
6.403642e+000 -2.861371e+000 1.839897e-002 135 131 117
7.316440e+000 -2.962168e+000 -6.395598e-001 75 61 58
7.443483e+000 -2.915312e+000 -6.102501e-001 62 48 45
5.610042e+000 -3.599276e+000 -2.652877e-001 129 128 124
6.019031e+000 -3.177942e+000 -1.699987e-002 76 63 63
6.100106e+000 -3.160168e+000 2.132088e-002 161 158 151
6.169931e+000 -3.067639e+000 3.581731e-002 147 148 140
5.675709e+000 -3.481852e+000 -5.606666e-002 53 57 63
5.723420e+000 -3.415245e+000 -6.125303e-003 248 254 254
5.841590e+000 -3.358047e+000 -1.667732e-002 203 251 255
5.848403e+000 -3.335779e+000 3.474023e-003 203 251 255
6.181754e+000 -3.229039e+000 4.548457e-002 123 122 119
6.438258e+000 -3.068518e+000 4.038480e-002 125 120 110
7.301857e+000 -3.275730e+000 -7.254328e-001 31 25 21
6.496904e+000 -3.125828e+000 6.029551e-002 127 124 119
6.496506e+000 -3.138336e+000 4.702044e-002 127 124 119
7.045706e+000 -3.427423e+000 -6.456548e-001 79 60 46
7.545899e+000 -3.117385e+000 -5.694215e-001 58 45 36
7.671715e+000 -3.214584e+000 -6.715695e-001 88 77 73
7.641026e+000 -3.043338e+000 -5.414148e-001 62 53 44
7.626872e+000 -3.192772e+000 -5.969223e-001 54 43 37
7.827034e+000 -3.136972e+000 -6.284909e-001 95 82 75
6.601455e+000 -3.212893e+000 7.017774e-002 51 41 39
7.983744e+000 -3.220085e+000 -5.401824e-001 157 188 193
8.013968e+000 -3.262273e+000 -5.474687e-001 107 99 90
6.739099e+000 -3.399723e+000 4.699780e-002 57 45 31
7.593735e+000 -3.873800e+000 -8.736658e-001 53 36 31
8.000877e+000 -3.579115e+000 -6.804338e-001 89 84 81
7.159697e+000 -3.837481e+000 -4.527202e-001 166 147 96
7.984872e+000 -3.430919e+000 -4.267806e-001 115 105 103
8.015537e+000 -3.359470e+000 -3.593731e-001 128 113 107
8.112501e+000 -3.189601e+000 -3.255243e-001 97 90 80
8.001092e+000 -3.444470e+000 -3.660699e-001 108 101 90
8.031944e+000 -3.409397e+000 -3.366495e-001 110 102 99
8.148742e+000 -3.213950e+000 -2.412852e-001 185 201 214
8.145208e+000 -3.268565e+000 -2.212067e-001 161 168 175
8.081106e+000 -3.655894e+000 -4.050083e-001 133 124 115
5.612643e+000 -2.472951e+000 -3.422595e-001 43 25 37
7.348345e+000 -2.415288e+000 -1.718638e+000 71 53 53
7.369110e+000 -2.369997e+000 -1.604069e+000 117 107 115
7.332820e+000 -2.420116e+000 -1.587502e+000 112 99 110
7.378404e+000 -2.187465e+000 -1.009790e+000 136 134 135
