ply
format ascii 1.0
element face 0
property list uchar int vertex_indices
element vertex 875
property float x
property float y
property float z
property uchar diffuse_red
property uchar diffuse_green
property uchar diffuse_blue
end_header
7.321889e+000 -2.413355e+000 -1.639171e+000 67 54 48
9.028223e+000 -2.477654e+000 -9.158617e-001 172 172 114
7.865889e+000 -3.312424e+000 -2.990949e+000 151 117 82
9.084084e+000 -3.102663e+000 -7.639126e-001 135 130 94
7.406797e+000 -4.464487e+000 -3.332240e+000 123 103 52
7.747864e+000 -2.180676e+000 -1.740502e+000 83 69 60
5.776306e+000 -3.375786e+000 5.080788e-002 69 64 71
9.023821e+000 -2.361746e+000 -9.395188e-001 176 174 117
9.193145e+000 -3.443943e+000 -5.828252e-001 177 172 114
8.191037e+000 -3.351711e+000 -1.372836e-001 182 176 126
7.470584e+000 -2.290941e+000 -1.725041e+000 67 54 45
7.490441e+000 -2.292270e+000 -1.653416e+000 45 35 25
8.250753e+000 -2.856093e+000 -8.933037e-001 154 184 180
7.964169e+000 -3.541653e+000 -4.226818e-001 134 134 125
8.358544e+000 -3.251221e+000 -3.759433e-001 99 88 67
9.024935e+000 -2.585107e+000 -8.827959e-001 178 181 126
9.034678e+000 -2.593037e+000 -8.840258e-001 178 181 126
7.339794e+000 -2.090670e+000 -1.141763e+000 106 106 93
7.969008e+000 -3.751396e+000 -4.893020e-001 115 113 100
9.115363e+000 -3.139515e+000 -8.614356e-001 157 152 100
8.881462e+000 -1.697767e+000 -1.211722e+000 184 190 143
5.412773e+000 -3.290059e+000 -8.240335e-001 114 112 102
7.312332e+000 -2.484049e+000 -1.659449e+000 66 56 47
5.736936e+000 -3.349289e+000 1.661150e-002 42 52 57
8.772030e+000 -2.224323e+000 -1.427333e+000 132 130 82
8.831915e+000 -2.061516e+000 -1.289270e+000 186 188 138
7.997082e+000 -3.223215e+000 -4.996511e-001 107 108 107
8.927622e+000 -2.292452e+000 -1.143335e+000 168 169 112
9.061689e+000 -3.084063e+000 -7.907839e-001 155 156 115
9.026674e+000 -2.542843e+000 -8.985217e-001 166 169 114
9.032127e+000 -2.178421e+000 -9.510146e-001 147 147 97
9.023782e+000 -2.172778e+000 -9.493747e-001 147 147 97
7.975713e+000 -3.388202e+000 -2.973132e+000 158 146 98
7.310163e+000 -2.479109e+000 -1.714035e+000 74 61 55
7.553983e+000 -2.229045e+000 -1.893938e+000 79 69 60
5.621813e+000 -3.313801e+000 -3.240338e-001 43 33 39
5.633247e+000 -3.489548e+000 -6.422239e-002 106 117 121
7.349614e+000 -2.202729e+000 -9.884774e-001 64 59 53
5.872585e+000 -3.452089e+000 8.843663e-002 137 169 170
5.879200e+000 -3.473037e+000 8.907754e-002 137 169 170
7.291210e+000 -2.689411e+000 -6.579615e-001 99 102 91
8.825815e+000 -1.930473e+000 -1.391701e+000 164 166 116
8.866115e+000 -1.993744e+000 -1.264237e+000 162 162 112
8.888640e+000 -2.035171e+000 -1.248827e+000 182 187 136
5.896251e+000 -3.436878e+000 7.510507e-002 26 25 30
9.178788e+000 -3.337427e+000 -6.507347e-001 159 159 105
7.350731e+000 -2.456117e+000 -1.786369e+000 76 64 55
7.589563e+000 -2.221334e+000 -1.956567e+000 81 70 61
8.949537e+000 -2.110381e+000 -1.157673e+000 148 151 98
5.666236e+000 -1.920922e+000 -7.002524e-001 71 68 75
8.932302e+000 -1.951555e+000 -1.160955e+000 187 192 145
8.370541e+000 -3.288383e+000 -3.299926e-001 95 83 61
7.429908e+000 -6.117397e+001 -4.620847e+000 92 126 97
6.674553e+000 -5.939305e+001 -4.741197e+000 124 102 99
9.155305e+000 -5.693814e+001 -5.102751e+000 138 68 118
6.393406e+000 -6.807772e+001 -4.824656e+000 156 95 113
1.061041e+001 -4.891330e+001 -3.711789e+000 118 139 168
1.024402e+001 -4.918996e+001 -2.871607e+000 76 53 109
8.105975e+000 -3.175268e+000 -3.577580e-001 85 77 57
7.702257e+000 -2.228548e+000 -1.666671e+000 72 58 47
8.841814e+000 -2.800784e+000 -1.234915e+000 131 125 85
7.985640e+000 -3.320257e+000 -4.055443e-001 106 110 106
9.015371e+000 -3.415641e+000 -7.208647e-001 129 125 83
8.153749e+000 -3.272643e+000 -2.165965e-001 150 158 146
8.420163e+000 -3.266393e+000 -3.652904e-001 109 100 72
9.094242e+000 -2.541650e+000 -8.116469e-001 179 182 127
7.319228e+000 -2.438908e+000 -1.731911e+000 53 42 36
7.691964e+000 -2.236488e+000 -1.714331e+000 46 31 28
8.000066e+000 -3.269692e+000 -5.232536e-001 94 99 96
8.000066e+000 -3.269692e+000 -5.232536e-001 94 99 96
7.304943e+000 -2.511089e+000 -1.663880e+000 53 40 34
7.552391e+000 -2.275755e+000 -1.684380e+000 48 34 25
9.287058e+000 -3.694628e+000 -4.724699e-001 153 148 90
5.658149e+000 -3.350377e+000 -3.203062e-001 48 49 51
5.676233e+000 -3.315766e+000 -1.303835e-001 65 70 76
5.913331e+000 -3.536708e+000 9.023033e-002 47 48 56
5.946999e+000 -3.522203e+000 1.334851e-001 41 36 40
5.955384e+000 -3.488415e+000 1.225669e-001 80 78 81
7.262389e+000 -2.624807e+000 -7.441290e-001 75 76 71
7.968099e+000 -3.546474e+000 -4.224504e-001 139 140 123
7.927301e+000 -3.454840e+000 -3.964789e-001 135 132 115
8.205532e+000 -3.225559e+000 -6.040958e-001 123 127 100
8.221157e+000 -3.065533e+000 -7.368266e-001 82 88 74
8.226784e+000 -3.014015e+000 -7.310825e-001 212 241 236
8.229519e+000 -2.901449e+000 -8.194653e-001 210 239 236
8.029252e+000 -3.510905e+000 -3.756423e-001 114 111 96
8.933447e+000 -2.924626e+000 -1.072618e+000 157 159 102
8.918186e+000 -2.746323e+000 -1.046457e+000 163 162 105
8.084855e+000 -3.191470e+000 -4.382683e-001 77 69 49
8.084855e+000 -3.191470e+000 -4.382683e-001 77 69 49
8.919901e+000 -2.425665e+000 -1.098399e+000 187 193 131
8.175726e+000 -3.313751e+000 -2.180676e-001 150 153 134
8.175726e+000 -3.313751e+000 -2.180676e-001 150 153 134
8.922808e+000 -2.624359e+000 -9.662939e-001 183 185 127
8.993764e+000 -2.650531e+000 -9.537637e-001 185 185 126
8.880019e+000 -2.146522e+000 -1.185355e+000 153 150 95
8.402608e+000 -3.248334e+000 -3.222022e-001 117 101 75
9.039170e+000 -2.183882e+000 -9.704854e-001 178 179 121
9.310952e+000 -3.425650e+000 -3.369529e-001 153 148 84
7.759109e+000 -5.517148e+000 -3.134467e+000 132 120 62
7.290521e+000 -2.491223e+000 -1.722739e+000 30 19 15
5.634796e+000 -3.476128e+000 -2.596509e-001 67 63 59
5.684417e+000 -3.275123e+000 -1.264707e-001 54 59 67
5.716322e+000 -3.390599e+000 -2.950391e-002 138 149 151
7.733055e+000 -2.306474e+000 -1.481122e+000 52 38 29
5.892355e+000 -3.452800e+000 1.338005e-001 63 58 62
7.333262e+000 -2.020819e+000 -1.034240e+000 106 101 80
7.942741e+000 -3.417511e+000 -4.095471e-001 136 147 135
7.942741e+000 -3.417511e+000 -4.095471e-001 136 147 135
8.227835e+000 -2.804597e+000 -8.476212e-001 78 61 43
8.713652e+000 -2.008096e+000 -1.459099e+000 189 194 140
8.678943e+000 -1.962389e+000 -1.453290e+000 164 168 117
8.813466e+000 -2.335977e+000 -1.208809e+000 146 145 89
8.719245e+000 -1.889806e+000 -1.421609e+000 195 199 148
8.747968e+000 -1.905323e+000 -1.425956e+000 195 199 148
8.030683e+000 -3.327083e+000 -3.570924e-001 160 162 148
8.030683e+000 -3.327083e+000 -3.570924e-001 160 162 148
8.127637e+000 -3.208374e+000 -4.347010e-001 98 87 65
8.965629e+000 -2.711537e+000 -1.020105e+000 181 185 125
8.965629e+000 -2.711537e+000 -1.020105e+000 181 185 125
8.867716e+000 -2.321764e+000 -1.170669e+000 147 145 89
8.770085e+000 -2.238710e+000 -1.165792e+000 177 177 119
8.799068e+000 -2.012038e+000 -1.333941e+000 189 190 132
8.985913e+000 -2.586611e+000 -9.516500e-001 183 184 124
8.245272e+000 -3.297785e+000 -1.993095e-001 114 110 98
8.245272e+000 -3.297785e+000 -1.993095e-001 114 110 98
9.894324e+000 -3.804874e+000 -6.791710e-001 169 167 106
8.842124e+000 -1.941950e+000 -1.140943e+000 166 175 118
7.810281e+000 -3.259111e+000 -3.047190e+000 165 151 100
7.810562e+000 -3.537023e+000 -2.956886e+000 144 127 75
5.464865e+000 -3.724271e+000 -4.461322e-001 81 72 65
5.460774e+000 -3.616750e+000 -3.753300e-001 148 140 129
5.624768e+000 -3.477074e+000 -2.936130e-001 68 59 50
5.655075e+000 -3.359548e+000 -3.366769e-001 138 154 151
5.713624e+000 -3.404907e+000 -1.999969e-001 93 89 71
5.681345e+000 -3.532317e+000 -2.225599e-002 87 93 93
5.695186e+000 -3.503456e+000 -2.958852e-002 54 60 64
7.742016e+000 -2.199245e+000 -1.649999e+000 77 60 49
7.709188e+000 -2.148345e+000 -1.635134e+000 50 37 28
5.846219e+000 -3.405100e+000 2.529934e-002 46 51 53
5.722605e+000 -3.487447e+000 2.851441e-001 69 58 64
5.991816e+000 -3.498688e+000 1.118088e-001 64 63 63
7.297214e+000 -2.229874e+000 -1.041537e+000 77 67 57
7.268195e+000 -2.721089e+000 -6.432344e-001 67 62 46
7.370502e+000 -2.282685e+000 -8.908768e-001 71 63 42
8.220301e+000 -2.873716e+000 -8.912591e-001 166 189 189
8.900663e+000 -2.691372e+000 -1.336481e+000 160 164 105
8.600291e+000 -1.993537e+000 -1.451916e+000 179 186 134
8.638187e+000 -1.854614e+000 -1.556695e+000 151 151 101
8.665654e+000 -1.834616e+000 -1.552025e+000 179 177 126
8.246067e+000 -2.907319e+000 -8.647523e-001 78 83 80
8.782637e+000 -2.738991e+000 -1.138907e+000 171 172 114
8.005137e+000 -3.193651e+000 -5.157866e-001 121 124 114
9.210090e+000 -3.501741e+000 -7.464359e-001 120 110 71
9.555006e+000 -5.016073e+000 6.981150e-002 173 176 119
8.277642e+000 -3.252752e+000 -3.842128e-001 94 82 56
8.417643e+000 -3.250712e+000 -3.437241e-001 66 54 30
8.879402e+000 -2.076791e+000 -1.157961e+000 145 144 87
8.383345e+000 -3.240477e+000 -2.991266e-001 66 52 26
9.117388e+000 -2.937958e+000 -7.643201e-001 182 184 119
8.851687e+000 -1.865427e+000 -1.205522e+000 192 197 140
8.871571e+000 -1.702100e+000 -1.325538e+000 157 156 108
8.871571e+000 -1.702100e+000 -1.325538e+000 157 156 108
9.252092e+000 -3.385282e+000 -5.046052e-001 181 182 116
9.059579e+000 -2.529523e+000 -8.694783e-001 174 174 114
7.755124e+000 -4.174591e+000 -3.125587e+000 146 134 76
7.837083e+000 -3.169667e+000 -2.815042e+000 162 147 102
7.938238e+000 -2.849018e+000 -2.875719e+000 142 131 88
5.417207e+000 -3.309377e+000 -8.245048e-001 113 110 101
5.521180e+000 -3.165090e+000 -9.359758e-001 96 89 81
5.396183e+000 -3.403584e+000 -7.522195e-001 110 105 93
5.414667e+000 -3.299294e+000 -7.965588e-001 77 73 63
5.487025e+000 -3.206402e+000 -7.376478e-001 143 141 128
5.531031e+000 -3.172872e+000 -8.181754e-001 118 110 98
7.666410e+000 -2.945498e+000 -2.308558e+000 98 82 63
7.460464e+000 -2.862014e+000 -2.091541e+000 56 44 32
7.473608e+000 -2.851827e+000 -2.136374e+000 80 67 54
7.499092e+000 -2.844552e+000 -2.153295e+000 50 38 26
7.311851e+000 -2.979806e+000 -1.774943e+000 51 43 40
7.429362e+000 -2.403868e+000 -1.909409e+000 60 43 33
7.462983e+000 -2.264685e+000 -1.863202e+000 51 36 31
7.462983e+000 -2.264685e+000 -1.863202e+000 51 36 31
5.588601e+000 -3.624303e+000 -2.801276e-001 84 79 64
7.298838e+000 -2.423752e+000 -1.692469e+000 47 38 31
7.298838e+000 -2.423752e+000 -1.692469e+000 47 38 31
7.327899e+000 -2.516633e+000 -1.367116e+000 58 49 41
7.327899e+000 -2.516633e+000 -1.367116e+000 58 49 41
5.666884e+000 -3.520156e+000 -5.708634e-003 28 23 27
5.694360e+000 -3.408030e+000 -8.220182e-002 61 65 76
5.694360e+000 -3.408030e+000 -8.220182e-002 61 65 76
5.687354e+000 -3.395941e+000 -5.670766e-002 169 205 200
5.693023e+000 -3.411584e+000 -5.493386e-002 169 205 200
7.320283e+000 -2.512680e+000 -1.305498e+000 54 44 35
7.729292e+000 -2.247831e+000 -1.606678e+000 49 37 25
5.765313e+000 -3.389917e+000 4.052383e-002 234 255 254
5.942509e+000 -3.525613e+000 7.035067e-002 69 67 68
5.955859e+000 -3.502982e+000 1.318034e-001 72 67 71
7.297820e+000 -2.370105e+000 -8.785716e-001 52 44 36
7.297820e+000 -2.370105e+000 -8.785716e-001 52 44 36
8.720195e+000 -2.199953e+000 -1.520221e+000 167 168 113
8.650963e+000 -2.107631e+000 -1.596687e+000 166 169 126
8.650963e+000 -2.107631e+000 -1.596687e+000 166 169 126
8.790321e+000 -2.534544e+000 -1.398446e+000 129 129 77
8.790321e+000 -2.534544e+000 -1.398446e+000 129 129 77
8.716309e+000 -2.168687e+000 -1.452816e+000 146 140 90
8.625142e+000 -1.797506e+000 -1.566077e+000 162 162 110
8.001038e+000 -3.241135e+000 -5.394070e-001 170 192 185
8.212304e+000 -3.073320e+000 -7.311599e-001 84 85 68
8.212304e+000 -3.073320e+000 -7.311599e-001 84 85 68
8.884205e+000 -2.694769e+000 -1.108564e+000 172 174 111
8.832494e+000 -2.043073e+000 -1.315869e+000 160 159 103
8.988824e+000 -2.925414e+000 -8.550068e-001 185 187 122
8.900996e+000 -2.142882e+000 -1.204359e+000 148 143 87
8.943635e+000 -1.857902e+000 -1.212576e+000 193 200 148
9.700488e+000 -5.121121e+000 2.343321e-001 173 167 107
9.303441e+000 -3.757374e+000 -3.202567e-001 190 200 138
9.015359e+000 -2.472859e+000 -8.823914e-001 144 139 84
5.521238e+000 -3.202682e+000 -9.916951e-001 60 49 43
5.720670e+000 -2.627946e+000 -1.218213e+000 138 121 74
7.915042e+000 -3.770994e+000 -2.711418e+000 147 135 93
5.418458e+000 -3.315975e+000 -8.599878e-001 82 76 60
5.493172e+000 -3.164906e+000 -9.602113e-001 102 99 90
5.493172e+000 -3.164906e+000 -9.602113e-001 102 99 90
5.505424e+000 -3.141380e+000 -7.461589e-001 132 129 114
5.525654e+000 -3.583850e+000 -3.143641e-001 66 51 46
5.563822e+000 -3.566085e+000 -3.161839e-001 124 125 111
7.497963e+000 -2.224953e+000 -1.819462e+000 47 37 28
5.614305e+000 -3.411471e+000 -2.005042e-001 248 255 253
5.694696e+000 -3.418055e+000 -2.229780e-002 52 59 64
5.745700e+000 -3.218005e+000 -1.245472e-001 228 255 255
5.745700e+000 -3.218005e+000 -1.245472e-001 228 255 255
5.727637e+000 -3.471203e+000 4.543003e-002 29 25 32
5.767709e+000 -3.213924e+000 -1.046275e-001 34 31 32
5.963491e+000 -3.443909e+000 1.309167e-001 22 17 21
8.693555e+000 -2.095883e+000 -1.609269e+000 144 140 93
8.693555e+000 -2.095883e+000 -1.609269e+000 144 140 93
8.920199e+000 -3.049330e+000 -9.912706e-001 170 173 116
8.802083e+000 -1.950242e+000 -1.381436e+000 195 202 151
8.865133e+000 -2.219722e+000 -1.254983e+000 179 180 123
8.841444e+000 -2.008364e+000 -1.241325e+000 196 203 146
8.872476e+000 -1.882339e+000 -1.257120e+000 159 161 108
9.324946e+000 -3.648236e+000 -3.412605e-001 189 189 127
8.831374e+000 -1.648106e+000 -1.236252e+000 192 197 143
8.903215e+000 -1.735165e+000 -1.123195e+000 189 192 137
8.903215e+000 -1.735165e+000 -1.123195e+000 189 192 137
5.489945e+000 -3.204414e+000 -8.854595e-001 138 135 120
5.496170e+000 -3.150489e+000 -9.161959e-001 48 34 31
5.431239e+000 -3.237175e+000 -8.136402e-001 90 83 77
5.460464e+000 -3.167473e+000 -8.534486e-001 61 47 44
5.470837e+000 -3.189649e+000 -8.003331e-001 139 140 126
5.460035e+000 -3.219768e+000 -7.697594e-001 85 78 65
7.583381e+000 -2.909594e+000 -2.234645e+000 99 82 64
5.868288e+000 -2.096697e+000 -9.648057e-001 48 37 41
5.543303e+000 -3.597480e+000 -2.749634e-001 149 146 137
5.635191e+000 -3.387986e+000 -2.879166e-001 84 84 84
5.728914e+000 -3.368778e+000 -6.160072e-002 29 35 36
7.726387e+000 -2.283851e+000 -1.583147e+000 71 59 47
8.278711e+000 -2.989182e+000 -7.417628e-001 134 127 87
8.963075e+000 -2.305257e+000 -1.089272e+000 152 153 96
9.421845e+000 -3.804873e+000 -3.948859e-001 173 176 118
7.692231e+000 -4.079395e+000 -3.048696e+000 146 133 78
7.728839e+000 -2.570000e+000 -3.114169e+000 153 140 87
5.620563e+000 -2.935998e+000 -1.404631e+000 163 147 85
5.688834e+000 -2.667075e+000 -1.309285e+000 158 141 85
5.489753e+000 -2.090900e+000 -6.915631e-001 81 69 72
5.569228e+000 -3.539323e+000 -2.185235e-001 53 41 49
5.569228e+000 -3.539323e+000 -2.185235e-001 53 41 49
5.604924e+000 -3.504799e+000 -2.702336e-001 132 133 117
5.603187e+000 -3.363863e+000 -1.613577e-001 35 30 32
5.684137e+000 -2.427830e+000 -3.473965e-001 77 68 71
6.075377e+000 -2.264259e+000 -2.753410e-001 78 68 70
8.877812e+000 -2.793932e+000 -1.169470e+000 162 163 106
8.971276e+000 -2.561104e+000 -1.060917e+000 185 190 126
7.658663e+000 -2.211118e+000 -1.912725e+000 81 73 60
5.797784e+000 -2.328684e+000 -3.421968e-001 56 46 47
6.032900e+000 -2.305556e+000 -2.728246e-001 35 26 27
8.727023e+000 -2.192338e+000 -1.432916e+000 150 146 94
8.825318e+000 -1.746123e+000 -1.367524e+000 167 164 111
8.926887e+000 -1.876238e+000 -1.093741e+000 193 202 145
5.578374e+000 -3.622947e+000 -2.834338e-001 89 87 73
5.509117e+000 -2.025892e+000 -5.842089e-001 92 81 85
5.509117e+000 -2.025892e+000 -5.842089e-001 92 81 85
5.697829e+000 -1.914373e+000 -6.509753e-001 36 28 30
5.649672e+000 -3.484065e+000 1.611758e-002 26 16 24
7.324520e+000 -2.669088e+000 -7.266310e-001 127 140 131
8.747661e+000 -2.120900e+000 -1.480273e+000 172 179 127
5.590336e+000 -2.083939e+000 -7.631654e-001 22 13 16
7.282849e+000 -2.583777e+000 -1.232659e+000 56 47 42
8.831177e+000 -2.061903e+000 -1.166254e+000 160 158 101
8.856823e+000 -1.773081e+000 -1.264601e+000 190 197 145
7.563410e+000 -2.418427e+000 -2.035839e+000 88 72 47
7.563410e+000 -2.418427e+000 -2.035839e+000 88 72 47
7.453932e+000 -2.354526e+000 -1.790770e+000 48 34 32
5.639304e+000 -1.966072e+000 -5.429015e-001 67 55 55
8.212019e+000 -3.148405e+000 -5.429075e-001 173 175 112
8.212019e+000 -3.148405e+000 -5.429075e-001 173 175 112
7.365154e+000 -2.468789e+000 -1.471165e+000 61 51 41
7.365154e+000 -2.468789e+000 -1.471165e+000 61 51 41
7.574645e+000 -2.293637e+000 -1.564745e+000 42 31 25
5.738756e+000 -3.324074e+000 -7.437026e-002 51 56 60
8.921431e+000 -2.932525e+000 -1.015018e+000 176 180 119
4.778292e+000 -5.523819e+001 -1.402279e+001 86 86 146
4.778292e+000 -5.523819e+001 -1.402279e+001 86 86 146
9.164416e+000 -2.524407e+000 -6.200033e-001 189 193 134
8.238084e+000 -2.921766e+000 -2.021706e+000 44 29 24
7.263737e+000 -2.473344e+000 -1.549255e+000 46 35 33
7.992683e+000 -3.580569e+000 -2.668886e+000 82 66 40
9.051644e+000 -3.077125e+000 -8.699532e-001 152 152 90
7.357488e+000 -2.378014e+000 -1.726077e+000 64 53 47
7.357488e+000 -2.378014e+000 -1.726077e+000 64 53 47
8.158840e+000 -3.256086e+000 -2.258933e-001 110 108 96
8.394530e+000 -3.220693e+000 -2.901859e-001 114 103 73
7.546552e+000 -2.816762e+000 -2.167617e+000 46 33 25
8.598670e+000 -1.715399e+000 -1.722092e+000 158 158 104
7.707542e+000 -2.742037e+000 -3.218709e+000 151 140 84
7.921301e+000 -4.437732e+000 -2.819270e+000 150 138 80
7.828905e+000 -3.987294e+000 -2.857064e+000 164 157 102
7.360207e+000 -2.374673e+000 -1.706518e+000 65 52 46
7.446383e+000 -2.322066e+000 -1.644385e+000 39 29 19
7.479027e+000 -2.258438e+000 -1.732557e+000 48 37 27
7.690420e+000 -2.399879e+000 -1.484855e+000 38 25 17
7.717890e+000 -2.379396e+000 -1.496710e+000 60 47 38
8.820477e+000 -2.053793e+000 -1.286851e+000 201 206 149
7.369373e+000 -2.347316e+000 -1.666027e+000 46 35 29
7.789545e+000 -3.254781e+000 -2.985497e+000 149 120 78
7.639144e+000 -2.912754e+000 -3.266832e+000 156 132 88
8.075438e+000 -3.265247e+000 -2.899656e-001 182 183 165
8.956505e+000 -2.699832e+000 -1.040978e+000 166 163 99
8.147737e+000 -3.273477e+000 -1.986396e-001 119 113 91
8.979821e+000 -2.234631e+000 -1.043381e+000 187 179 116
7.913632e+000 -4.750655e+000 -2.736875e+000 142 122 69
7.890517e+000 -2.629826e+000 -2.919709e+000 145 124 69
5.770872e+000 -3.343630e+000 1.669236e-002 142 161 160
8.786236e+000 -2.045538e+000 -1.346121e+000 169 159 103
8.786236e+000 -2.045538e+000 -1.346121e+000 169 159 103
8.762555e+000 -1.930190e+000 -1.420204e+000 176 171 115
8.472848e+000 -3.249660e+000 -3.857085e-001 198 194 137
8.951416e+000 -1.912975e+000 -1.131272e+000 206 208 145
5.591639e+000 -3.489137e+000 -3.661608e-001 73 58 55
5.573546e+000 -3.581588e+000 -2.845048e-001 98 87 73
5.654501e+000 -3.358461e+000 -3.370434e-001 130 150 141
7.515398e+000 -2.295402e+000 -1.710668e+000 52 35 25
5.698639e+000 -3.386587e+000 3.154423e-004 220 251 247
5.785790e+000 -3.284223e+000 -6.021980e-002 94 94 92
5.812942e+000 -3.319377e+000 -1.300209e-002 144 167 161
7.760345e+000 -2.211018e+000 -1.651562e+000 83 67 54
7.635664e+000 -2.601200e+000 -1.174713e+000 39 29 20
8.782978e+000 -2.542489e+000 -1.268008e+000 184 179 115
8.793712e+000 -2.140008e+000 -1.355001e+000 163 157 99
8.704368e+000 -1.922034e+000 -1.518464e+000 191 188 133
8.670859e+000 -1.850881e+000 -1.538766e+000 166 157 101
8.863244e+000 -2.142310e+000 -1.352289e+000 200 194 134
8.789143e+000 -1.917058e+000 -1.394563e+000 175 166 111
8.955477e+000 -2.518076e+000 -9.968591e-001 199 194 129
9.305420e+000 -3.369860e+000 -3.336924e-001 185 172 107
8.931178e+000 -1.888344e+000 -1.140674e+000 176 170 112
7.933411e+000 -3.777068e+000 -2.649905e+000 112 92 57
5.477468e+000 -3.604748e+000 -3.533961e-001 92 76 63
7.430301e+000 -2.404619e+000 -1.909295e+000 52 33 19
7.257144e+000 -2.529259e+000 -1.623697e+000 45 32 26
7.431026e+000 -2.434126e+000 -1.714064e+000 74 57 50
5.674246e+000 -3.360047e+000 -1.956771e-001 42 37 43
7.492436e+000 -2.313080e+000 -1.696095e+000 69 51 41
7.272945e+000 -2.485174e+000 -1.443514e+000 48 35 27
7.745827e+000 -2.228459e+000 -1.666569e+000 50 33 23
7.745827e+000 -2.228459e+000 -1.666569e+000 50 33 23
7.745454e+000 -2.259106e+000 -1.609947e+000 47 34 20
8.453189e+000 -2.034544e+000 -2.052662e+000 139 132 85
8.430550e+000 -1.994492e+000 -2.018405e+000 146 138 92
8.688298e+000 -1.830040e+000 -1.576461e+000 169 163 105
8.953295e+000 -2.682604e+000 -1.062759e+000 184 179 115
8.846465e+000 -2.258807e+000 -1.282771e+000 190 182 120
8.905864e+000 -2.282870e+000 -1.210939e+000 193 185 122
8.905864e+000 -2.282870e+000 -1.210939e+000 193 185 122
8.728432e+000 -1.919395e+000 -1.444887e+000 205 202 147
8.921288e+000 -2.343077e+000 -1.091227e+000 187 181 119
8.996350e+000 -2.505067e+000 -9.214125e-001 148 133 74
9.023350e+000 -2.026144e+000 -9.966472e-001 167 161 100
7.896709e+000 -4.606530e+000 -2.730753e+000 148 135 83
7.865634e+000 -3.810579e+000 -2.777882e+000 166 149 95
7.989180e+000 -3.946840e+000 -2.586247e+000 119 103 72
7.932296e+000 -2.341513e+000 -2.800449e+000 162 145 91
7.343272e+000 -2.394352e+000 -1.619543e+000 47 32 27
7.718292e+000 -2.181003e+000 -1.721511e+000 50 33 24
8.860328e+000 -2.850623e+000 -1.246124e+000 107 95 56
8.793920e+000 -2.556440e+000 -1.363172e+000 161 155 98
8.824107e+000 -2.576792e+000 -1.365612e+000 161 155 98
8.786172e+000 -2.001931e+000 -1.497562e+000 202 200 143
8.637702e+000 -1.835150e+000 -1.439263e+000 185 178 124
8.931868e+000 -2.419882e+000 -9.247014e-001 195 190 124
5.586391e+000 -2.778606e+000 -1.245804e+000 153 129 82
7.962317e+000 -2.879567e+000 -2.757848e+000 159 144 93
5.525725e+000 -3.144788e+000 -7.736560e-001 73 52 53
5.558827e+000 -3.119415e+000 -7.599735e-001 130 121 104
5.832947e+000 -3.214420e+000 -9.446299e-002 111 107 95
5.805928e+000 -3.382296e+000 6.143368e-002 31 27 28
8.807909e+000 -2.024187e+000 -1.421548e+000 204 199 144
5.448835e+000 -3.660293e+000 -5.626612e-001 69 54 42
5.437125e+000 -3.479913e+000 -6.606143e-001 141 134 118
9.020677e+000 -2.295813e+000 -9.749022e-001 189 182 118
5.445042e+000 -3.682103e+000 -3.852447e-001 146 135 122
7.275120e+000 -2.548953e+000 -1.679816e+000 75 57 45
5.717594e+000 -1.882396e+000 -7.002024e-001 71 71 73
8.566750e+000 -2.134764e+000 -1.716811e+000 131 124 80
7.444078e+000 -2.385285e+000 -1.614608e+000 74 58 45
8.432987e+000 -2.076962e+000 -2.112262e+000 132 120 82
1.632109e+001 -4.181176e+001 6.072942e+000 109 76 113
1.632109e+001 -4.181176e+001 6.072942e+000 109 76 113
1.649708e+001 -4.352838e+001 7.301306e+000 126 83 111
1.617001e+001 -4.263633e+001 7.526724e+000 52 36 77
1.688765e+001 -4.255638e+001 7.712679e+000 101 23 47
7.819775e+000 -3.199622e+000 -2.900107e+000 137 106 60
5.760135e+000 -3.374201e+000 1.616555e-002 44 49 56
7.906634e+000 -4.254338e+000 -2.753845e+000 157 141 81
7.734652e+000 -2.339844e+000 -1.523119e+000 42 28 19
8.886412e+000 -2.886446e+000 -1.202128e+000 142 134 86
8.933095e+000 -2.393203e+000 -1.119466e+000 192 188 125
8.866070e+000 -2.726429e+000 -1.146285e+000 178 170 108
7.846425e+000 -3.855954e+000 -2.825395e+000 178 161 105
7.899357e+000 -2.879989e+000 -2.811155e+000 161 145 89
7.738498e+000 -3.242880e+000 -3.017864e+000 180 149 103
7.930033e+000 -4.258838e+000 -2.778648e+000 184 165 107
7.790231e+000 -3.211561e+000 -2.953381e+000 181 152 105
5.698471e+000 -3.365177e+000 -1.278702e-001 143 148 141
8.154195e+000 -3.285580e+000 -2.344462e-001 121 115 97
8.727734e+000 -1.791520e+000 -1.775924e+000 190 179 123
8.769780e+000 -2.038705e+000 -1.496056e+000 202 196 138
8.880633e+000 -2.131761e+000 -1.230344e+000 183 175 113
7.786928e+000 -3.666919e+000 -2.736228e+000 153 132 80
5.378067e+000 -3.345430e+000 -8.369543e-001 113 101 85
7.839913e+000 -3.083655e+000 -2.741539e+000 147 128 86
5.629252e+000 -3.465452e+000 -2.571690e-001 74 63 57
7.409676e+000 -2.456738e+000 -1.891925e+000 47 31 16
5.755287e+000 -3.365429e+000 -3.095634e-002 102 105 109
5.770614e+000 -3.265803e+000 -8.410704e-002 62 67 68
5.830894e+000 -3.358107e+000 2.274199e-002 55 53 55
7.779526e+000 -2.338888e+000 -1.481037e+000 50 31 19
8.722797e+000 -2.325471e+000 -1.541925e+000 112 100 58
8.352867e+000 -3.229967e+000 -3.272979e-001 100 85 52
8.548715e+000 -3.286673e+000 -3.919181e-001 143 136 81
8.417680e+000 -3.245992e+000 -3.175216e-001 113 94 61
8.477436e+000 -3.197832e+000 -3.458098e-001 195 194 137
8.781063e+000 -2.038708e+000 -1.460812e+000 211 205 148
8.661346e+000 -1.758095e+000 -1.593323e+000 204 195 138
8.635950e+000 -1.706140e+000 -1.644475e+000 194 188 130
8.866361e+000 -2.116874e+000 -1.323197e+000 209 203 143
8.822380e+000 -2.007597e+000 -1.369393e+000 205 200 142
8.755745e+000 -1.704342e+000 -1.631794e+000 163 150 97
8.741015e+000 -1.564464e+000 -1.512046e+000 163 148 90
7.718188e+000 -3.697607e+000 -3.022324e+000 175 156 98
7.691093e+000 -3.145409e+000 -2.992288e+000 184 156 107
7.735380e+000 -2.559392e+000 -2.942748e+000 178 157 100
5.413123e+000 -3.772722e+000 -5.808872e-001 98 84 75
5.400653e+000 -3.644907e+000 -6.498055e-001 87 69 55
5.381611e+000 -3.363620e+000 -7.562985e-001 106 94 78
5.381611e+000 -3.363620e+000 -7.562985e-001 106 94 78
5.424966e+000 -3.346008e+000 -7.350184e-001 128 119 102
5.457495e+000 -3.739220e+000 -4.475670e-001 101 84 73
5.444173e+000 -3.706027e+000 -4.290021e-001 131 115 100
7.971844e+000 -2.449611e+000 -2.729749e+000 146 129 86
7.551471e+000 -2.820856e+000 -2.168505e+000 52 38 25
5.556661e+000 -3.155264e+000 -6.054990e-001 123 111 95
5.633916e+000 -3.486389e+000 -2.294054e-001 124 113 101
5.654950e+000 -3.384772e+000 -2.952731e-001 85 83 84
7.212727e+000 -2.612750e+000 -1.618911e+000 77 55 42
7.362681e+000 -2.739786e+000 -1.694746e+000 45 28 20
5.752377e+000 -3.294684e+000 -6.787207e-002 46 47 49
5.823934e+000 -3.340407e+000 -4.358482e-003 163 193 191
7.733818e+000 -2.319536e+000 -1.549574e+000 50 32 26
8.564132e+000 -2.108810e+000 -1.823910e+000 113 95 59
8.635954e+000 -2.086640e+000 -1.773374e+000 136 124 82
6.785813e+000 -2.374147e+000 -5.410820e-001 180 168 114
8.711218e+000 -2.184543e+000 -1.510037e+000 191 188 131
8.384210e+000 -3.270488e+000 -3.990795e-001 64 54 19
9.006359e+000 -3.059959e+000 -8.336248e-001 140 125 70
8.774970e+000 -2.077649e+000 -1.583884e+000 187 182 124
8.369673e+000 -3.226839e+000 -2.988266e-001 67 52 21
8.808657e+000 -2.176519e+000 -1.370970e+000 162 153 95
8.902952e+000 -2.197087e+000 -1.379583e+000 193 185 124
8.852127e+000 -2.052687e+000 -1.409575e+000 207 204 149
8.674818e+000 -1.841912e+000 -1.559282e+000 194 188 130
8.655474e+000 -1.681723e+000 -1.651184e+000 167 154 100
8.924612e+000 -2.321789e+000 -1.169482e+000 192 180 122
8.906595e+000 -1.986553e+000 -1.243904e+000 164 153 91
9.642262e+000 -4.038777e+000 4.582110e-001 180 176 116
9.642262e+000 -4.038777e+000 4.582110e-001 180 176 116
9.037233e+000 -2.400401e+000 -8.462910e-001 192 185 120
7.502036e+000 -3.349973e+000 -3.166078e+000 178 155 101
7.776448e+000 -3.275258e+000 -2.955280e+000 178 157 104
7.750665e+000 -2.599996e+000 -3.027514e+000 164 144 88
7.836446e+000 -2.922064e+000 -2.903510e+000 164 146 90
7.836446e+000 -2.922064e+000 -2.903510e+000 164 146 90
5.369021e+000 -3.442663e+000 -7.765352e-001 91 74 64
5.410593e+000 -3.283333e+000 -8.621768e-001 87 70 54
5.445378e+000 -3.262411e+000 -9.231411e-001 125 114 96
7.795436e+000 -2.440418e+000 -2.972339e+000 162 142 91
5.396878e+000 -3.697608e+000 -6.230484e-001 123 105 100
5.408586e+000 -3.273931e+000 -8.282630e-001 115 104 86
5.426777e+000 -3.253085e+000 -8.308196e-001 95 84 66
5.414384e+000 -3.163642e+000 -7.997374e-001 91 78 61
5.536860e+000 -3.210599e+000 -6.281932e-001 92 80 64
5.650563e+000 -3.033398e+000 -7.887008e-001 64 49 42
7.535669e+000 -2.833464e+000 -2.134559e+000 71 57 44
5.592048e+000 -3.061842e+000 -6.777332e-001 71 59 48
7.274216e+000 -2.472643e+000 -1.667876e+000 46 31 24
7.260573e+000 -2.430774e+000 -1.641094e+000 66 52 43
7.260573e+000 -2.430774e+000 -1.641094e+000 66 52 43
5.689170e+000 -3.396789e+000 -2.572130e-002 56 57 62
5.679908e+000 -3.379686e+000 -8.638355e-002 55 58 63
7.359026e+000 -2.513786e+000 -1.601838e+000 64 49 44
7.287153e+000 -2.454467e+000 -1.598322e+000 64 49 44
7.422467e+000 -2.455508e+000 -1.711332e+000 48 35 27
7.518202e+000 -2.243757e+000 -1.822110e+000 49 35 27
7.254839e+000 -2.506202e+000 -1.436820e+000 65 48 44
7.266788e+000 -2.463840e+000 -1.357847e+000 64 51 42
7.266788e+000 -2.463840e+000 -1.357847e+000 64 51 42
7.775745e+000 -2.255653e+000 -1.725103e+000 77 58 43
7.613369e+000 -2.716226e+000 -9.896743e-001 59 48 42
7.613369e+000 -2.716226e+000 -9.896743e-001 59 48 42
7.631256e+000 -2.705716e+000 -1.018005e+000 60 50 40
7.388694e+000 -2.141924e+000 -1.047303e+000 133 130 108
8.597128e+000 -2.025194e+000 -1.765653e+000 170 162 113
8.919624e+000 -2.882565e+000 -1.114652e+000 184 178 117
8.973226e+000 -2.813292e+000 -1.206616e+000 138 125 72
8.877517e+000 -2.100860e+000 -1.562683e+000 193 191 130
8.737988e+000 -1.852890e+000 -1.579342e+000 169 158 102
8.775218e+000 -1.778972e+000 -1.524360e+000 205 195 137
8.742961e+000 -1.728335e+000 -1.582330e+000 198 191 136
9.782295e+000 -4.484180e+000 6.206207e-001 183 168 104
9.161431e+000 -2.867670e+000 -6.610585e-001 176 165 99
8.949339e+000 -2.456769e+000 -9.477387e-001 196 191 126
9.022312e+000 -2.378550e+000 -9.621969e-001 160 149 83
9.056164e+000 -2.241282e+000 -9.848244e-001 161 150 86
8.876209e+000 -1.886074e+000 -1.256988e+000 168 157 101
7.683441e+000 -2.508377e+000 -3.123952e+000 187 169 111
5.370388e+000 -3.351397e+000 -8.604808e-001 93 80 64
5.497052e+000 -3.184974e+000 -9.633270e-001 101 91 79
7.860387e+000 -2.781094e+000 -2.834303e+000 147 125 79
5.365004e+000 -3.402663e+000 -7.417411e-001 155 147 128
5.428056e+000 -3.447617e+000 -7.130748e-001 83 66 50
5.407788e+000 -3.284994e+000 -7.969520e-001 84 72 57
5.425734e+000 -3.214594e+000 -8.580503e-001 140 134 110
5.415568e+000 -3.158818e+000 -8.518487e-001 137 130 108
5.452217e+000 -3.197423e+000 -7.699439e-001 91 78 61
5.441334e+000 -3.806482e+000 -3.747911e-001 40 36 41
8.050410e+000 -2.782139e+000 -2.635205e+000 139 125 83
5.636024e+000 -3.053767e+000 -7.771568e-001 114 104 95
5.674851e+000 -3.353380e+000 -2.253741e-001 110 104 90
5.674851e+000 -3.353380e+000 -2.253741e-001 110 104 90
7.600891e+000 -2.226493e+000 -1.876732e+000 50 33 26
8.547632e+000 -2.163465e+000 -1.809216e+000 122 108 73
7.364780e+000 -2.136146e+000 -1.080681e+000 87 80 64
8.732252e+000 -2.534994e+000 -1.324381e+000 150 141 84
8.727673e+000 -1.891735e+000 -1.653394e+000 171 165 107
8.796197e+000 -1.770898e+000 -1.559516e+000 172 162 101
8.796197e+000 -1.770898e+000 -1.559516e+000 172 162 101
8.696751e+000 -1.609953e+000 -1.552731e+000 199 190 131
9.483778e+000 -3.444677e+000 4.572940e-002 204 200 136
7.795994e+000 -3.036803e+000 -2.974107e+000 187 169 113
7.830890e+000 -2.679706e+000 -2.952268e+000 181 160 104
5.531076e+000 -3.227170e+000 -9.916686e-001 50 33 25
5.588727e+000 -3.185711e+000 -1.025507e+000 52 37 30
5.422023e+000 -3.666498e+000 -6.093542e-001 140 130 109
5.383679e+000 -3.337435e+000 -7.929485e-001 140 128 110
5.493359e+000 -3.216509e+000 -8.825192e-001 130 122 103
5.552508e+000 -3.144748e+000 -9.466280e-001 53 42 33
5.605010e+000 -3.155548e+000 -9.446228e-001 106 100 86
5.561107e+000 -3.194717e+000 -6.386979e-001 140 132 111
5.578325e+000 -3.131386e+000 -6.163860e-001 65 46 39
5.580150e+000 -3.103669e+000 -6.746145e-001 138 136 109
5.616011e+000 -3.120933e+000 -5.876316e-001 136 131 102
7.190436e+000 -2.634245e+000 -1.694824e+000 74 54 43
7.360305e+000 -2.516653e+000 -1.716659e+000 71 57 46
5.468937e+000 -2.097699e+000 -7.155527e-001 35 25 26
5.517704e+000 -2.125761e+000 -7.425974e-001 58 44 44
5.911865e+000 -2.162563e+000 -9.541279e-001 46 36 37
5.911865e+000 -2.162563e+000 -9.541279e-001 46 36 37
5.769648e+000 -3.314411e+000 -4.613813e-002 47 49 48
5.811054e+000 -3.283219e+000 -6.654837e-002 35 31 28
7.750897e+000 -2.137095e+000 -1.639647e+000 78 59 42
8.696151e+000 -1.849522e+000 -1.771106e+000 165 153 101
8.696151e+000 -1.849522e+000 -1.771106e+000 165 153 101
8.732619e+000 -1.980015e+000 -1.624146e+000 172 163 108
8.934744e+000 -2.101023e+000 -1.151830e+000 159 146 87
9.643118e+000 -3.468970e+000 1.536572e-001 203 202 137
5.480874e+000 -3.194661e+000 -8.435121e-001 56 39 32
5.450112e+000 -3.661799e+000 -5.626213e-001 72 53 47
5.551893e+000 -3.139233e+000 -7.089959e-001 74 62 47
5.845270e+000 -2.116231e+000 -1.233122e+000 77 57 56
5.608959e+000 -3.510400e+000 -2.688930e-001 139 129 112
7.375061e+000 -2.701584e+000 -1.715580e+000 72 55 36
7.169265e+000 -2.565431e+000 -1.533513e+000 65 47 37
8.457407e+000 -1.909970e+000 -1.946204e+000 162 157 106
8.593873e+000 -1.781621e+000 -1.735518e+000 170 159 105
9.372759e+000 -3.394832e+000 -9.345312e-002 160 147 84
7.885822e+000 -2.435905e+000 -2.838029e+000 147 131 82
5.601506e+000 -3.084625e+000 -7.794600e-001 54 41 35
5.629107e+000 -3.507226e+000 -3.185008e-001 44 29 26
7.344907e+000 -2.453800e+000 -1.780045e+000 77 59 47
8.775884e+000 -2.222220e+000 -1.439917e+000 154 141 86
8.801587e+000 -1.942425e+000 -1.341618e+000 211 209 152
5.522605e+000 -3.231546e+000 -7.132143e-001 142 134 113
5.575334e+000 -3.580456e+000 -2.879053e-001 109 99 86
5.575707e+000 -3.580068e+000 -2.883232e-001 109 99 86
7.158215e+000 -2.474514e+000 -1.494234e+000 33 19 16
5.735236e+000 -1.943464e+000 -6.343944e-001 38 24 23
5.654683e+000 -3.475193e+000 -3.792414e-001 37 27 28
7.320278e+000 -2.609529e+000 -1.238229e+000 62 50 38
9.007493e+000 -2.454482e+000 -1.013635e+000 187 182 118
5.477031e+000 -2.266221e+000 -7.631327e-001 32 22 23
7.358578e+000 -2.473610e+000 -1.466257e+000 66 50 39
7.492786e+000 -2.644329e+000 -1.127839e+000 37 28 22
7.456172e+000 -2.356526e+000 -1.790361e+000 42 27 20
7.665533e+000 -2.213783e+000 -1.818043e+000 90 69 48
7.949038e+000 -2.874776e+000 -6.127652e-001 199 200 137
2.159690e+000 -5.978743e+001 -1.678035e+001 132 124 178
7.539293e+000 -5.569346e+001 -9.427214e+000 159 51 93
7.323329e+000 -5.417099e+001 -1.003135e+001 128 19 54
6.551029e+000 -5.379289e+001 -1.082012e+001 128 83 126
7.776929e+000 -5.442848e+001 -1.019156e+001 125 86 138
6.922085e+000 -5.535121e+001 -1.035721e+001 144 35 74
7.338435e+000 -5.590744e+001 -8.248084e+000 107 119 185
7.154551e+000 -5.497170e+001 -9.512817e+000 160 112 160
9.024423e+000 -5.291114e+001 -6.059393e+000 164 47 92
6.129671e+000 -5.461820e+001 -9.917946e+000 128 112 156
6.463247e+000 -5.501368e+001 -8.802115e+000 35 26 81
1.324631e+001 -5.895991e+001 9.355822e+000 108 102 106
1.374850e+001 -5.412869e+001 6.086549e+000 88 83 87
1.482079e+001 -5.430270e+001 7.267682e+000 80 76 99
1.367213e+001 -5.498596e+001 9.451647e+000 85 79 83
1.570873e+001 -5.177865e+001 8.148795e+000 88 82 92
1.569999e+001 -5.175161e+001 8.146013e+000 88 82 92
1.520622e+001 -5.118708e+001 8.318670e+000 126 120 124
1.368916e+001 -6.164142e+001 1.182889e+001 107 94 104
1.600308e+001 -5.259234e+001 9.302080e+000 101 90 96
1.556775e+001 -5.278692e+001 1.005386e+001 76 75 81
1.640032e+001 -5.217671e+001 8.527162e+000 117 114 121
5.741640e+000 -3.381816e+000 -1.943556e-001 49 39 32
9.321281e+000 -3.413999e+000 -1.789333e+000 45 31 21
7.349141e+000 -2.278658e+000 -1.027161e+000 77 63 52
7.296500e+000 -2.420699e+000 -1.729429e+000 41 26 21
5.569868e+000 -3.220395e+000 -9.959517e-001 81 64 56
5.562733e+000 -3.204451e+000 -9.987735e-001 81 64 56
5.486419e+000 -3.480134e+000 -6.507207e-001 44 35 33
5.641584e+000 -3.053266e+000 -6.598435e-001 86 76 64
7.693800e+000 -2.581354e+000 -3.140325e+000 181 164 112
5.547042e+000 -3.138014e+000 -8.128639e-001 66 54 42
7.948748e+000 -2.216909e+000 -2.874125e+000 153 140 87
7.261694e+000 -2.506478e+000 -1.526044e+000 57 44 38
7.742560e+000 -2.388345e+000 -1.459952e+000 42 27 20
7.349807e+000 -2.258961e+000 -1.011045e+000 53 45 34
7.388454e+000 -2.166887e+000 -1.016541e+000 111 105 89
8.562224e+000 -1.575949e+000 -1.817878e+000 195 189 131
7.568199e+000 -2.681541e+000 -3.246240e+000 180 165 108
7.846267e+000 -3.234772e+000 -2.879619e+000 174 152 104
7.823708e+000 -2.582000e+000 -2.932020e+000 172 159 104
7.907240e+000 -2.208949e+000 -2.786195e+000 170 156 109
5.591609e+000 -3.130126e+000 -5.140690e-001 139 136 118
5.724700e+000 -3.312456e+000 -1.916308e-001 102 95 85
7.557167e+000 -2.296684e+000 -1.902606e+000 76 58 47
7.533498e+000 -2.280339e+000 -1.902335e+000 76 58 47
7.363886e+000 -2.375362e+000 -1.679874e+000 64 49 42
7.339243e+000 -2.357695e+000 -1.680262e+000 64 49 42
5.671564e+000 -2.428639e+000 -3.141670e-001 36 26 27
8.472070e+000 -1.823893e+000 -2.014362e+000 151 144 92
7.573990e+000 -3.065954e+000 -3.328245e+000 164 145 89
7.626494e+000 -3.233646e+000 -3.225586e+000 187 170 118
7.688469e+000 -2.726826e+000 -3.207421e+000 155 135 84
7.721172e+000 -2.602181e+000 -3.091588e+000 179 164 107
7.868870e+000 -2.980181e+000 -2.838860e+000 141 124 78
6.544227e+000 -3.530818e+000 -1.401621e+000 99 86 70
5.491154e+000 -3.136925e+000 -8.077606e-001 72 55 47
7.936731e+000 -2.391964e+000 -2.799567e+000 136 121 78
7.892467e+000 -2.271511e+000 -2.844911e+000 154 140 91
7.152595e+000 -2.529130e+000 -1.623442e+000 39 24 17
7.416138e+000 -2.355478e+000 -1.894395e+000 76 58 44
8.137914e+000 -1.972300e+000 -2.444932e+000 125 113 75
7.730944e+000 -2.191531e+000 -1.719242e+000 53 36 26
8.341931e+000 -1.814348e+000 -2.234626e+000 147 137 88
8.360461e+000 -1.705921e+000 -2.122764e+000 151 139 89
8.737106e+000 -1.700749e+000 -1.685360e+000 197 191 133
8.743916e+000 -1.512239e+000 -1.604696e+000 165 150 95
7.525443e+000 -3.271996e+000 -3.376647e+000 179 156 104
7.755451e+000 -3.215740e+000 -3.072361e+000 172 127 98
7.801517e+000 -2.362028e+000 -3.006512e+000 174 159 100
5.556031e+000 -3.145466e+000 -8.507409e-001 52 37 32
7.856345e+000 -2.302297e+000 -2.908090e+000 154 140 91
7.856345e+000 -2.302297e+000 -2.908090e+000 154 140 91
5.545234e+000 -3.127660e+000 -7.113429e-001 66 51 44
5.557957e+000 -3.186409e+000 -6.420450e-001 138 131 112
5.603344e+000 -3.096464e+000 -5.950344e-001 136 128 107
8.284893e+000 -1.865739e+000 -2.332853e+000 131 112 69
8.537139e+000 -2.102331e+000 -1.816465e+000 114 99 68
8.714143e+000 -2.165748e+000 -1.632152e+000 176 172 125
5.590733e+000 -3.281242e+000 -1.060084e+000 49 30 23
8.049555e+000 -4.161178e+000 -2.496156e+000 149 127 85
7.827934e+000 -2.894496e+000 -2.950005e+000 184 173 117
5.615851e+000 -3.144981e+000 -8.714289e-001 33 19 16
7.955802e+000 -2.269543e+000 -2.771500e+000 136 122 75
8.106658e+000 -2.118757e+000 -2.579743e+000 137 124 82
8.430475e+000 -1.885454e+000 -2.008998e+000 133 119 84
8.430475e+000 -1.885454e+000 -2.008998e+000 133 119 84
7.973776e+000 -2.398974e+000 -2.757722e+000 130 111 69
5.417850e+000 -2.320887e+000 -8.784675e-001 85 69 70
7.608935e+000 -2.217178e+000 -1.941173e+000 76 62 49
8.344202e+000 -1.953909e+000 -2.156287e+000 116 101 62
8.593761e+000 -1.630005e+000 -1.840043e+000 192 187 131
8.646872e+000 -1.650431e+000 -1.840809e+000 192 187 131
8.062716e+000 -2.251102e+000 -2.699629e+000 158 150 104
5.504061e+000 -2.179404e+000 -8.343134e-001 67 57 58
7.850051e+000 -2.401885e+000 -2.927730e+000 179 167 115
7.606435e+000 -2.817198e+000 -2.287274e+000 85 67 54
7.595076e+000 -2.454968e+000 -2.030097e+000 84 65 42
8.042294e+000 -2.781442e+000 -2.705662e+000 153 147 95
5.477784e+000 -5.665949e+001 -1.007476e+001 34 26 53
5.723211e+000 -5.659513e+001 -9.403560e+000 87 87 120
9.809745e+000 -5.960595e+001 3.776279e-001 114 101 95
7.602699e+000 -2.960635e+000 -3.335774e+000 162 139 87
7.787185e+000 -3.271296e+000 -3.000349e+000 146 114 72
7.961107e+000 -2.246421e+000 -2.755359e+000 135 121 74
7.920355e+000 -3.731258e+000 -2.722881e+000 136 119 73
7.823444e+000 -3.199421e+000 -2.901760e+000 138 101 64
7.902847e+000 -3.198276e+000 -2.853284e+000 135 111 72
7.794395e+000 -2.634333e+000 -3.010339e+000 182 165 111
7.946699e+000 -2.990386e+000 -2.738598e+000 139 125 86
7.373538e+000 -2.464955e+000 -1.855515e+000 73 57 45
7.819757e+000 -4.350350e+000 -2.837903e+000 167 151 92
7.885021e+000 -4.622612e+000 -2.690244e+000 173 161 103
7.732283e+000 -2.661713e+000 -3.103721e+000 155 136 84
8.075688e+000 -4.193451e+000 -2.482957e+000 125 105 68
7.804357e+000 -2.556506e+000 -3.048397e+000 160 143 87
8.456614e+000 -2.152074e+000 -1.932943e+000 110 94 68
8.446723e+000 -1.665646e+000 -1.948502e+000 188 183 128
7.667957e+000 -3.720576e+000 -3.069346e+000 173 157 97
7.827349e+000 -3.937130e+000 -2.912742e+000 186 174 114
7.684330e+000 -3.173164e+000 -3.132603e+000 189 168 115
7.669090e+000 -2.858957e+000 -3.217199e+000 177 160 104
7.884635e+000 -3.919374e+000 -2.764031e+000 171 156 104
7.837073e+000 -3.274221e+000 -2.964746e+000 151 113 73
7.881424e+000 -3.213213e+000 -2.842213e+000 165 148 102
7.766375e+000 -2.608168e+000 -3.029938e+000 163 146 92
7.881038e+000 -2.651254e+000 -2.876694e+000 154 139 84
7.940403e+000 -2.490344e+000 -2.790064e+000 159 145 97
5.593517e+000 -3.571710e+000 -2.535180e-001 137 127 118
7.722890e+000 -2.245862e+000 -1.667391e+000 73 57 44
7.611632e+000 -2.626201e+000 -1.100124e+000 58 48 39
8.460822e+000 -1.957258e+000 -2.004461e+000 131 116 72
7.795261e+000 -3.342398e+000 -3.012766e+000 177 157 106
7.799920e+000 -2.651154e+000 -2.986037e+000 165 148 94
5.529894e+000 -3.226187e+000 -5.839099e-001 143 136 117
7.575197e+000 -2.210364e+000 -1.896925e+000 53 36 28
7.326750e+000 -2.268276e+000 -1.076875e+000 53 37 29
8.453527e+000 -1.630024e+000 -1.949429e+000 159 150 95
7.859287e+000 -4.766693e+000 -2.763973e+000 163 142 85
7.904957e+000 -3.461541e+000 -2.786792e+000 153 134 92
8.376094e+000 -2.057813e+000 -2.120459e+000 130 123 82
5.373307e+000 -3.438985e+000 -7.568436e-001 128 118 106
5.398684e+000 -3.274887e+000 -8.866724e-001 159 151 138
5.476749e+000 -3.268113e+000 -1.006728e+000 110 98 91
5.452488e+000 -3.227924e+000 -9.333496e-001 55 45 36
5.446172e+000 -3.661592e+000 -4.033797e-001 132 125 118
5.542471e+000 -3.126411e+000 -7.447258e-001 73 60 51
5.571092e+000 -3.095710e+000 -7.537056e-001 74 64 55
5.414076e+000 -3.235648e+000 -8.772838e-001 128 118 108
5.447365e+000 -3.213187e+000 -9.066860e-001 68 57 55
5.528835e+000 -3.136096e+000 -8.343885e-001 80 63 54
5.489871e+000 -3.560825e+000 -3.385659e-001 128 122 110
5.629831e+000 -3.042541e+000 -7.464340e-001 59 50 45
7.351797e+000 -2.066533e+000 -1.127117e+000 121 118 98
8.607552e+000 -1.564169e+000 -1.790507e+000 189 177 125
5.360816e+000 -3.393481e+000 -8.085006e-001 132 121 109
5.477348e+000 -3.221237e+000 -9.540861e-001 52 38 35
5.464893e+000 -3.199693e+000 -9.614753e-001 52 38 35
5.598935e+000 -3.152408e+000 -1.020874e+000 50 39 34
7.819979e+000 -2.625172e+000 -2.949537e+000 163 147 98
5.441325e+000 -3.216384e+000 -8.371899e-001 152 148 133
7.804944e+000 -2.579238e+000 -2.900907e+000 153 141 89
5.575721e+000 -3.504656e+000 -3.185849e-001 117 104 96
5.555201e+000 -3.136907e+000 -5.827297e-001 141 135 123
5.625327e+000 -3.076170e+000 -6.707968e-001 138 135 126
5.645601e+000 -3.064277e+000 -6.232509e-001 142 143 130
5.645505e+000 -3.064082e+000 -6.233626e-001 142 143 130
5.647276e+000 -3.382381e+000 -2.918255e-001 103 101 113
5.615162e+000 -3.077958e+000 -5.017450e-001 92 79 71
5.635895e+000 -3.055330e+000 -5.813601e-001 68 58 47
8.046361e+000 -2.290824e+000 -2.627654e+000 120 107 75
5.677193e+000 -3.388106e+000 -8.789686e-002 63 78 74
7.262730e+000 -2.531634e+000 -1.620569e+000 42 27 20
7.339075e+000 -2.362602e+000 -1.713565e+000 62 49 40
7.470593e+000 -2.297169e+000 -1.692235e+000 73 59 48
7.465580e+000 -2.283427e+000 -1.724961e+000 70 56 45
7.348535e+000 -2.155811e+000 -1.043556e+000 76 72 60
7.337103e+000 -2.112716e+000 -1.055610e+000 118 114 102
8.502938e+000 -1.597910e+000 -1.895593e+000 161 155 105
5.414624e+000 -3.208846e+000 -8.652535e-001 144 135 122
5.479656e+000 -3.175787e+000 -9.401762e-001 55 46 39
5.498725e+000 -3.145463e+000 -8.841867e-001 127 110 103
5.633257e+000 -3.109426e+000 -9.752486e-001 110 102 95
5.527756e+000 -3.173427e+000 -7.055491e-001 133 125 110
7.899141e+000 -2.278629e+000 -2.812492e+000 172 164 117
5.606984e+000 -3.043867e+000 -6.246590e-001 51 44 34
5.742088e+000 -3.331234e+000 -2.105375e-001 51 36 37
7.944167e+000 -2.085469e+000 -2.721555e+000 181 179 131
7.251645e+000 -2.496432e+000 -1.602345e+000 64 49 45
7.251645e+000 -2.496432e+000 -1.602345e+000 64 49 45
7.738830e+000 -2.251461e+000 -1.611548e+000 47 34 28
7.733064e+000 -2.190963e+000 -1.720162e+000 55 41 30
5.683404e+000 -1.958587e+000 -6.506196e-001 40 28 30
8.363530e+000 -1.706062e+000 -2.122435e+000 151 143 97
7.334652e+000 -2.116213e+000 -1.086472e+000 82 79 70
7.350348e+000 -2.073848e+000 -1.160553e+000 98 87 75
7.592782e+000 -3.245133e+000 -3.263045e+000 193 179 130
7.732670e+000 -2.899582e+000 -3.065488e+000 192 182 133
7.783373e+000 -3.193701e+000 -2.871246e+000 176 155 108
7.751822e+000 -2.921591e+000 -3.019591e+000 168 157 103
5.372518e+000 -3.433505e+000 -7.345774e-001 165 161 148
6.601999e+000 -3.596353e+000 -1.342069e+000 136 118 98
7.957480e+000 -2.780259e+000 -2.668459e+000 151 147 100
7.921303e+000 -2.416615e+000 -2.884452e+000 183 177 127
7.914396e+000 -2.401423e+000 -2.707894e+000 147 138 100
7.914396e+000 -2.401423e+000 -2.707894e+000 147 138 100
7.922635e+000 -2.287990e+000 -2.850583e+000 148 135 90
5.584128e+000 -3.406003e+000 -1.950246e-001 239 255 255
5.584128e+000 -3.406003e+000 -1.950246e-001 239 255 255
5.621771e+000 -3.053442e+000 -5.268205e-001 149 141 132
5.711414e+000 -3.320104e+000 -1.187193e-001 30 29 28
8.259727e+000 -2.066654e+000 -2.331385e+000 101 90 60
5.513119e+000 -2.113733e+000 -7.414097e-001 54 43 45
5.531054e+000 -2.132621e+000 -7.302675e-001 54 43 45
7.389406e+000 -2.108920e+000 -1.088051e+000 150 150 139
7.451629e+000 -2.112219e+000 -1.024074e+000 117 105 91
8.573685e+000 -1.775627e+000 -1.809560e+000 183 176 124
8.904995e+000 -2.019268e+000 -1.231491e+000 194 192 136
7.918388e+000 -5.079121e+000 -2.752098e+000 158 140 92
7.918388e+000 -5.079121e+000 -2.752098e+000 158 140 92
7.495173e+000 -3.278898e+000 -3.279718e+000 164 146 98
7.881698e+000 -2.990851e+000 -2.892793e+000 190 180 131
5.657450e+000 -3.195414e+000 -1.071772e+000 55 39 39
7.892452e+000 -2.799269e+000 -2.842206e+000 143 128 91
5.572231e+000 -3.122547e+000 -6.189420e-001 55 42 34
5.645928e+000 -3.172252e+000 -5.102822e-001 69 59 49
7.934697e+000 -2.348532e+000 -2.700164e+000 126 115 79
5.691223e+000 -3.311534e+000 -3.333749e-001 32 26 28
7.389184e+000 -2.221376e+000 -9.766580e-001 84 75 60
8.492582e+000 -1.632669e+000 -1.944279e+000 166 158 108
8.890636e+000 -1.866754e+000 -1.237108e+000 172 166 114
5.458301e+000 -3.246704e+000 -9.655559e-001 45 30 27
7.812708e+000 -2.469497e+000 -2.994172e+000 172 156 107
7.817178e+000 -2.472536e+000 -2.994443e+000 172 156 107
5.645071e+000 -3.080438e+000 -7.045987e-001 47 35 37
8.042685e+000 -2.304447e+000 -2.646683e+000 112 99 67
8.139261e+000 -2.345251e+000 -2.532190e+000 90 75 50
7.151709e+000 -2.607744e+000 -1.684465e+000 76 53 45
5.683303e+000 -1.935995e+000 -6.899970e-001 83 80 86
7.649753e+000 -3.083179e+000 -3.092645e+000 188 176 126
7.934826e+000 -4.006651e+000 -2.562401e+000 163 146 99
5.599076e+000 -2.807187e+000 -8.062258e-001 58 41 46
7.184611e+000 -2.522600e+000 -1.564004e+000 28 18 18
8.237281e+000 -1.886050e+000 -2.295020e+000 158 157 113
7.746040e+000 -3.029373e+000 -3.210709e+000 187 180 125
5.582162e+000 -3.118435e+000 -8.746525e-001 47 31 35
5.559288e+000 -3.546121e+000 -3.048869e-001 135 128 120
5.535442e+000 -3.183922e+000 -6.062044e-001 127 119 109
7.573453e+000 -2.268006e+000 -1.760110e+000 75 59 44
8.535128e+000 -1.930526e+000 -2.032498e+000 132 122 87
7.888441e+000 -3.985628e+000 -3.013581e+000 188 177 121
6.358090e+000 -3.491509e+000 -1.205646e+000 66 50 44
7.369391e+000 -2.366133e+000 -9.657919e-001 43 34 27
7.553653e+000 -3.048608e+000 -3.194709e+000 186 170 118
7.811127e+000 -3.134108e+000 -2.907315e+000 189 164 123
7.659545e+000 -2.742182e+000 -3.128421e+000 174 157 106
7.659545e+000 -2.742182e+000 -3.128421e+000 174 157 106
7.857868e+000 -3.124691e+000 -2.800524e+000 138 119 76
5.450682e+000 -3.661005e+000 -4.882106e-001 87 73 60
7.807941e+000 -2.730588e+000 -2.985116e+000 192 173 123
