ply
format ascii 1.0
element face 0
property list uchar int vertex_indices
element vertex 876
property float x
property float y
property float z
property uchar diffuse_red
property uchar diffuse_green
property uchar diffuse_blue
end_header
7.417623e+000 -2.554346e+000 -1.367247e+000 58 49 41
7.417623e+000 -2.554346e+000 -1.367247e+000 58 49 41
5.733065e+000 -3.576598e+000 8.455048e-002 28 23 27
5.759693e+000 -3.460389e+000 4.345299e-003 61 65 76
5.759693e+000 -3.460389e+000 4.345299e-003 61 65 76
5.753596e+000 -3.449042e+000 3.103178e-002 169 205 200
5.758999e+000 -3.463937e+000 3.252796e-002 169 205 200
7.411349e+000 -2.549953e+000 -1.303470e+000 54 44 35
7.826855e+000 -2.279953e+000 -1.625700e+000 49 37 25
5.836511e+000 -3.442500e+000 1.292690e-001 234 255 254
6.019119e+000 -3.582558e+000 1.558654e-001 69 67 68
6.034599e+000 -3.559025e+000 2.188416e-001 72 67 71
7.399844e+000 -2.400831e+000 -8.628266e-001 52 44 36
7.399844e+000 -2.400831e+000 -8.628266e-001 52 44 36
8.851345e+000 -2.236404e+000 -1.561842e+000 167 168 113
8.778587e+000 -2.141116e+000 -1.639356e+000 166 169 126
8.778587e+000 -2.141116e+000 -1.639356e+000 166 169 126
8.924726e+000 -2.581327e+000 -1.436601e+000 129 129 77
8.924726e+000 -2.581327e+000 -1.436601e+000 129 129 77
8.848620e+000 -2.203476e+000 -1.492208e+000 146 140 90
8.754537e+000 -1.821094e+000 -1.608406e+000 162 162 110
8.128656e+000 -3.302166e+000 -5.273167e-001 170 192 185
8.342585e+000 -3.130947e+000 -7.312425e-001 84 85 68
8.342585e+000 -3.130947e+000 -7.312425e-001 84 85 68
9.027922e+000 -2.745847e+000 -1.139337e+000 172 174 111
8.973070e+000 -2.074454e+000 -1.354493e+000 160 159 103
9.140478e+000 -2.983094e+000 -8.794854e-001 185 187 122
9.046997e+000 -2.177858e+000 -1.240989e+000 148 143 87
9.090987e+000 -1.883723e+000 -1.251547e+000 193 200 148
9.886156e+000 -5.244070e+000 2.337406e-001 173 167 107
9.472503e+000 -3.839910e+000 -3.328012e-001 190 200 138
9.169545e+000 -2.516548e+000 -9.102800e-001 144 139 84
5.558777e+000 -3.251437e+000 -9.307439e-001 60 49 43
5.761832e+000 -2.660013e+000 -1.172122e+000 138 121 74
7.995240e+000 -3.873084e+000 -2.768623e+000 147 135 93
5.455463e+000 -3.367134e+000 -7.916865e-001 82 76 60
5.530786e+000 -3.212095e+000 -8.976762e-001 102 99 90
5.530786e+000 -3.212095e+000 -8.976762e-001 102 99 90
5.548993e+000 -3.186887e+000 -6.771154e-001 132 129 114
5.578942e+000 -3.643538e+000 -2.298404e-001 66 51 46
5.618427e+000 -3.624671e+000 -2.330768e-001 124 125 111
7.583206e+000 -2.256158e+000 -1.839633e+000 47 37 28
5.674007e+000 -3.463968e+000 -1.156756e-001 248 255 253
5.761537e+000 -3.470493e+000 6.618318e-002 52 59 64
5.812554e+000 -3.264703e+000 -4.137339e-002 228 255 255
5.812554e+000 -3.264703e+000 -4.137339e-002 228 255 255
5.797008e+000 -3.525250e+000 1.354186e-001 29 25 32
5.835803e+000 -3.260529e+000 -2.139488e-002 34 31 32
6.042756e+000 -3.498090e+000 2.175108e-001 22 17 21
8.822045e+000 -2.129252e+000 -1.653380e+000 144 140 93
8.822045e+000 -2.129252e+000 -1.653380e+000 144 140 93
9.065676e+000 -3.111133e+000 -1.017755e+000 170 173 116
8.940511e+000 -1.978821e+000 -1.421713e+000 195 202 151
9.007274e+000 -2.256511e+000 -1.291810e+000 179 180 123
8.984481e+000 -2.038428e+000 -1.278027e+000 196 203 146
9.015862e+000 -1.908355e+000 -1.295472e+000 159 161 108
9.495274e+000 -3.727965e+000 -3.554656e-001 189 189 127
8.975765e+000 -1.666859e+000 -1.273960e+000 192 197 143
9.052115e+000 -1.756529e+000 -1.158828e+000 189 192 137
9.052115e+000 -1.756529e+000 -1.158828e+000 189 192 137
5.529334e+000 -3.253155e+000 -8.202762e-001 138 135 120
5.535272e+000 -3.197820e+000 -8.523665e-001 48 34 31
5.470220e+000 -3.285640e+000 -7.444909e-001 90 83 77
5.499725e+000 -3.214079e+000 -7.866117e-001 61 47 44
5.511909e+000 -3.237705e+000 -7.319270e-001 139 140 126
5.501149e+000 -3.267649e+000 -7.000018e-001 85 78 65
7.657065e+000 -2.965376e+000 -2.267357e+000 99 82 64
5.923345e+000 -2.110671e+000 -9.163971e-001 48 37 41
5.597439e+000 -3.655151e+000 -1.902573e-001 149 146 137
5.693495e+000 -3.440425e+000 -2.064806e-001 84 84 84
5.796082e+000 -3.419982e+000 2.457458e-002 29 35 36
7.821369e+000 -2.315104e+000 -1.600774e+000 71 59 47
8.411336e+000 -3.044608e+000 -7.442308e-001 134 127 87
9.107025e+000 -2.341749e+000 -1.123152e+000 152 153 96
9.592228e+000 -3.889773e+000 -4.125883e-001 173 176 118
7.744592e+000 -4.179843e+000 -3.106184e+000 146 133 78
7.785963e+000 -2.619273e+000 -3.178915e+000 153 140 87
5.652186e+000 -2.978462e+000 -1.360735e+000 163 147 85
5.726451e+000 -2.700653e+000 -1.265181e+000 158 141 85
5.539384e+000 -2.101303e+000 -6.245630e-001 81 69 72
5.626390e+000 -3.595759e+000 -1.326358e-001 53 41 49
5.626390e+000 -3.595759e+000 -1.326358e-001 53 41 49
5.662437e+000 -3.561841e+000 -1.868500e-001 132 133 117
5.664158e+000 -3.415855e+000 -7.496090e-002 35 30 32
5.747271e+000 -2.449194e+000 -2.728558e-001 77 68 71
6.154005e+000 -2.282241e+000 -2.091289e-001 78 68 70
9.019223e+000 -2.848336e+000 -1.201591e+000 162 163 106
9.119800e+000 -2.608452e+000 -1.092979e+000 185 190 126
7.746710e+000 -2.243254e+000 -1.939968e+000 81 73 60
5.865271e+000 -2.347417e+000 -2.707828e-001 56 46 47
6.109982e+000 -2.324638e+000 -2.052800e-001 35 26 27
8.860705e+000 -2.228247e+000 -1.472000e+000 150 146 94
8.965484e+000 -1.768289e+000 -1.408726e+000 167 164 111
9.076449e+000 -1.901880e+000 -1.128460e+000 193 202 145
5.633748e+000 -3.682432e+000 -1.995234e-001 89 87 73
5.562460e+000 -2.033806e+000 -5.144658e-001 92 81 85
5.562460e+000 -2.033806e+000 -5.144658e-001 92 81 85
5.756220e+000 -1.919939e+000 -5.886895e-001 36 28 30
5.715823e+000 -3.538483e+000 1.072531e-001 26 16 24
7.429574e+000 -2.709038e+000 -7.054614e-001 127 140 131
8.882955e+000 -2.155811e+000 -1.521937e+000 172 179 127
5.641473e+000 -2.095007e+000 -7.011042e-001 22 13 16
7.374195e+000 -2.622858e+000 -1.227041e+000 56 47 42
8.974804e+000 -2.092851e+000 -1.200005e+000 160 158 101
9.000023e+000 -1.795657e+000 -1.303216e+000 190 197 145
7.644107e+000 -2.457205e+000 -2.063736e+000 88 72 47
7.644107e+000 -2.457205e+000 -2.063736e+000 88 72 47
7.539215e+000 -2.390724e+000 -1.808763e+000 48 34 32
5.698290e+000 -1.972607e+000 -4.753830e-001 67 55 55
8.346547e+000 -3.207560e+000 -5.367301e-001 173 175 112
8.346547e+000 -3.207560e+000 -5.367301e-001 173 175 112
7.453725e+000 -2.505648e+000 -1.475798e+000 61 51 41
7.453725e+000 -2.505648e+000 -1.475798e+000 61 51 41
7.668480e+000 -2.326435e+000 -1.578431e+000 42 31 25
5.806136e+000 -3.373942e+000 1.097930e-002 51 56 60
9.066927e+000 -2.990696e+000 -1.042754e+000 176 180 119
4.235488e+000 -5.549055e+001 -1.377353e+001 86 86 146
4.235488e+000 -5.549055e+001 -1.377353e+001 86 86 146
9.329490e+000 -2.569516e+000 -6.433124e-001 189 193 134
8.336687e+000 -2.979751e+000 -2.063773e+000 44 29 24
7.346575e+000 -2.509632e+000 -1.553709e+000 46 35 33
8.063862e+000 -3.661269e+000 -2.722331e+000 82 66 40
9.203961e+000 -3.139940e+000 -8.958960e-001 152 152 90
7.439558e+000 -2.412713e+000 -1.738963e+000 64 53 47
7.439558e+000 -2.412713e+000 -1.738963e+000 64 53 47
8.299411e+000 -3.317331e+000 -2.079169e-001 110 108 96
8.540881e+000 -3.282269e+000 -2.804681e-001 114 103 73
7.621365e+000 -2.869002e+000 -2.197688e+000 46 33 25
8.723329e+000 -1.736945e+000 -1.768800e+000 158 158 104
7.759171e+000 -2.795949e+000 -3.284515e+000 151 140 84
7.981811e+000 -4.546016e+000 -2.871933e+000 150 138 80
7.898069e+000 -4.093500e+000 -2.914600e+000 164 157 102
7.443275e+000 -2.409548e+000 -1.719011e+000 65 52 46
7.533673e+000 -2.355121e+000 -1.657145e+000 39 29 19
7.565431e+000 -2.289990e+000 -1.749214e+000 48 37 27
7.789117e+000 -2.436220e+000 -1.498392e+000 38 25 17
7.817233e+000 -2.415260e+000 -1.511400e+000 60 47 38
8.960782e+000 -2.084937e+000 -1.324131e+000 201 206 149
7.454016e+000 -2.381300e+000 -1.677583e+000 46 35 29
7.850754e+000 -3.327911e+000 -3.046623e+000 149 120 78
7.687779e+000 -2.973100e+000 -3.332672e+000 156 132 88
8.211912e+000 -3.326714e+000 -2.718110e-001 182 183 165
9.103574e+000 -2.750858e+000 -1.071418e+000 166 163 99
8.288717e+000 -3.335216e+000 -1.794351e-001 119 113 91
9.129802e+000 -2.271182e+000 -1.076363e+000 187 179 116
7.974783e+000 -4.869041e+000 -2.785827e+000 142 122 69
7.957265e+000 -2.680929e+000 -2.982261e+000 145 124 69
5.841683e+000 -3.394320e+000 1.042753e-001 142 161 160
8.923628e+000 -2.076289e+000 -1.384385e+000 169 159 103
8.923628e+000 -2.076289e+000 -1.384385e+000 169 159 103
8.899058e+000 -1.958176e+000 -1.460764e+000 176 171 115
8.619122e+000 -3.312997e+000 -3.809106e-001 198 194 137
9.099779e+000 -1.939738e+000 -1.167547e+000 206 208 145
5.646047e+000 -3.544990e+000 -2.857107e-001 73 58 55
5.629337e+000 -3.640933e+000 -2.004772e-001 98 87 73
5.712750e+000 -3.411518e+000 -2.575480e-001 130 150 141
7.603120e+000 -2.328120e+000 -1.727366e+000 52 35 25
5.766842e+000 -3.439213e+000 8.958666e-002 220 251 247
5.855389e+000 -3.333365e+000 2.430028e-002 94 94 92
5.884808e+000 -3.370456e+000 7.266721e-002 144 167 161
7.858440e+000 -2.242721e+000 -1.673071e+000 83 67 54
7.739419e+000 -2.642405e+000 -1.176146e+000 39 29 20
8.919847e+000 -2.588504e+000 -1.301782e+000 184 179 115
8.931688e+000 -2.174379e+000 -1.393476e+000 163 157 99
8.836579e+000 -1.949799e+000 -1.560667e+000 191 188 133
8.801914e+000 -1.876339e+000 -1.581037e+000 166 157 101
9.003428e+000 -2.177194e+000 -1.392430e+000 200 194 134
8.927189e+000 -1.944707e+000 -1.435041e+000 175 166 111
9.104557e+000 -2.563190e+000 -1.026627e+000 199 194 129
9.477025e+000 -3.440793e+000 -3.483229e-001 185 172 107
9.078862e+000 -1.914284e+000 -1.176826e+000 176 170 112
8.001678e+000 -3.863054e+000 -2.700291e+000 112 92 57
5.528396e+000 -3.665107e+000 -2.689181e-001 92 76 63
7.512057e+000 -2.443165e+000 -1.930357e+000 52 33 19
7.337692e+000 -2.567739e+000 -1.630143e+000 45 32 26
7.515243e+000 -2.470848e+000 -1.728172e+000 74 57 50
5.736683e+000 -3.412378e+000 -1.122027e-001 42 37 43
7.579710e+000 -2.346172e+000 -1.711678e+000 69 51 41
7.360433e+000 -2.523101e+000 -1.444980e+000 48 35 27
7.842985e+000 -2.260701e+000 -1.688121e+000 50 33 23
7.842985e+000 -2.260701e+000 -1.688121e+000 50 33 23
7.843899e+000 -2.292097e+000 -1.629561e+000 47 34 20
8.563170e+000 -2.066488e+000 -2.104816e+000 139 132 85
8.539917e+000 -2.024274e+000 -2.068797e+000 146 138 92
8.817770e+000 -1.854460e+000 -1.620239e+000 169 163 105
9.100445e+000 -2.733540e+000 -1.093917e+000 184 179 115
8.986277e+000 -2.296326e+000 -1.319745e+000 190 182 120
9.050141e+000 -2.321753e+000 -1.247159e+000 193 185 122
9.050141e+000 -2.321753e+000 -1.247159e+000 193 185 122
8.862109e+000 -1.946269e+000 -1.485253e+000 205 202 147
9.067797e+000 -2.382876e+000 -1.123778e+000 187 181 119
9.149390e+000 -2.550139e+000 -9.499442e-001 148 133 74
9.176773e+000 -2.056296e+000 -1.030119e+000 167 161 100
7.956826e+000 -4.718849e+000 -2.779276e+000 148 135 83
7.929333e+000 -3.898898e+000 -2.830921e+000 166 149 95
8.068906e+000 -4.047655e+000 -2.639124e+000 119 103 72
8.005294e+000 -2.383197e+000 -2.862036e+000 162 145 91
7.427388e+000 -2.428926e+000 -1.628592e+000 47 32 27
7.812713e+000 -2.211263e+000 -1.744128e+000 50 33 24
8.998511e+000 -2.906733e+000 -1.279935e+000 107 95 56
8.928607e+000 -2.603348e+000 -1.400148e+000 161 155 98
8.960313e+000 -2.624997e+000 -1.403449e+000 161 155 98
8.919851e+000 -2.031958e+000 -1.540705e+000 202 200 143
8.769200e+000 -1.858821e+000 -1.477489e+000 185 178 124
9.082556e+000 -2.461474e+000 -9.520091e-001 195 190 124
5.621596e+000 -2.814726e+000 -1.196478e+000 153 129 82
8.034370e+000 -2.938416e+000 -2.816393e+000 159 144 93
5.572015e+000 -3.197712e+000 -7.046751e-001 73 52 53
5.603576e+000 -3.164178e+000 -6.930585e-001 130 121 104
5.903532e+000 -3.261687e+000 -1.250890e-002 111 107 95
5.879186e+000 -3.435116e+000 1.499128e-001 31 27 28
8.944100e+000 -2.054720e+000 -1.462790e+000 204 199 144
5.493175e+000 -3.723174e+000 -4.840045e-001 69 54 42
5.479496e+000 -3.537625e+000 -5.854149e-001 141 134 118
9.174324e+000 -2.334800e+000 -1.006576e+000 189 182 118
5.493626e+000 -3.744415e+000 -3.008001e-001 146 135 122
7.356748e+000 -2.590374e+000 -1.688799e+000 75 57 45
5.775899e+000 -1.887976e+000 -6.400491e-001 71 71 73
8.690417e+000 -2.170205e+000 -1.761143e+000 131 124 80
7.528130e+000 -2.417144e+000 -1.626325e+000 74 58 45
8.539563e+000 -2.109736e+000 -2.165302e+000 132 120 82
1.649830e+001 -4.244012e+001 6.116732e+000 109 76 113
1.649830e+001 -4.244012e+001 6.116732e+000 109 76 113
1.668634e+001 -4.412533e+001 7.354822e+000 126 83 111
1.637127e+001 -4.324492e+001 7.592815e+000 52 36 77
1.709326e+001 -4.313488e+001 7.756560e+000 101 23 47
7.885835e+000 -3.272440e+000 -2.960247e+000 137 106 60
5.830825e+000 -3.426857e+000 1.043447e-001 44 49 56
7.959678e+000 -4.347439e+000 -2.805761e+000 157 141 81
7.834642e+000 -2.375089e+000 -1.539411e+000 42 28 19
9.026955e+000 -2.944049e+000 -1.235174e+000 142 134 86
9.079981e+000 -2.435350e+000 -1.153094e+000 192 188 125
9.008322e+000 -2.778669e+000 -1.177703e+000 178 170 108
7.908144e+000 -3.945962e+000 -2.879344e+000 178 161 105
7.968171e+000 -2.938851e+000 -2.869875e+000 161 145 89
7.815160e+000 -3.330847e+000 -3.084713e+000 180 149 103
7.996163e+000 -4.365005e+000 -2.832455e+000 184 165 107
7.855199e+000 -3.285356e+000 -3.014531e+000 181 152 105
5.764327e+000 -3.419355e+000 -4.216411e-002 143 148 141
8.294193e+000 -3.347652e+000 -2.165674e-001 121 115 97
8.857605e+000 -1.817921e+000 -1.827469e+000 190 179 123
8.906502e+000 -2.071643e+000 -1.538814e+000 202 196 138
9.026975e+000 -2.167123e+000 -1.267067e+000 183 175 113
7.852563e+000 -3.752632e+000 -2.787522e+000 153 132 80
5.415292e+000 -3.400198e+000 -7.663969e-001 113 101 85
7.909855e+000 -3.150292e+000 -2.796574e+000 147 128 86
5.688621e+000 -3.522392e+000 -1.737108e-001 74 63 57
7.490982e+000 -2.496780e+000 -1.911546e+000 47 31 16
5.825553e+000 -3.419621e+000 5.649116e-002 102 105 109
5.840464e+000 -3.316895e+000 8.034819e-004 62 67 68
5.905008e+000 -3.412150e+000 1.099431e-001 55 53 55
7.883410e+000 -2.375113e+000 -1.497109e+000 50 31 19
8.854867e+000 -2.367088e+000 -1.583833e+000 112 100 58
8.497009e+000 -3.291715e+000 -3.176930e-001 100 85 52
8.696802e+000 -3.351405e+000 -3.891980e-001 143 136 81
8.563875e+000 -3.308471e+000 -3.092388e-001 113 94 61
8.625137e+000 -3.259304e+000 -3.401292e-001 195 194 137
8.919011e+000 -2.071552e+000 -1.502730e+000 211 205 148
8.794082e+000 -1.782209e+000 -1.637531e+000 204 195 138
8.766924e+000 -1.728745e+000 -1.689870e+000 194 188 130
9.009949e+000 -2.152062e+000 -1.362578e+000 209 203 143
8.964285e+000 -2.039419e+000 -1.409561e+000 205 200 142
8.890844e+000 -1.727673e+000 -1.679797e+000 163 150 97
8.876528e+000 -1.581731e+000 -1.556243e+000 163 148 90
7.778179e+000 -3.789690e+000 -3.082523e+000 175 156 98
7.749390e+000 -3.214234e+000 -3.051132e+000 184 156 107
7.799313e+000 -2.609194e+000 -3.003331e+000 178 157 100
5.455990e+000 -3.840705e+000 -5.011249e-001 98 84 75
5.441962e+000 -3.708908e+000 -5.724835e-001 87 69 55
5.420933e+000 -3.418672e+000 -6.831020e-001 106 94 78
5.420933e+000 -3.418672e+000 -6.831020e-001 106 94 78
5.466329e+000 -3.400605e+000 -6.623016e-001 128 119 102
5.505402e+000 -3.805798e+000 -3.647063e-001 101 84 73
5.492021e+000 -3.770891e+000 -3.453780e-001 131 115 100
8.049327e+000 -2.496232e+000 -2.790011e+000 146 129 86
7.628453e+000 -2.874971e+000 -2.199186e+000 52 38 25
5.606093e+000 -3.202679e+000 -5.328298e-001 123 111 95
5.694414e+000 -3.544615e+000 -1.449090e-001 124 113 101
5.714917e+000 -3.439966e+000 -2.138704e-001 85 83 84
7.293676e+000 -2.655585e+000 -1.624017e+000 77 55 42
7.445882e+000 -2.787972e+000 -1.705603e+000 45 28 20
5.821911e+000 -3.346583e+000 1.814765e-002 46 47 49
5.897196e+000 -3.393909e+000 8.206198e-002 163 193 191
7.833863e+000 -2.354664e+000 -1.566732e+000 50 32 26
8.685461e+000 -2.144001e+000 -1.871662e+000 113 95 59
8.761009e+000 -2.121392e+000 -1.821408e+000 136 124 82
6.881265e+000 -2.402031e+000 -5.009889e-001 180 168 114
8.844721e+000 -2.221622e+000 -1.551194e+000 191 188 131
8.527270e+000 -3.333968e+000 -3.923855e-001 64 54 19
9.159232e+000 -3.122284e+000 -8.573846e-001 140 125 70
8.909317e+000 -2.112184e+000 -1.629418e+000 187 182 124
8.515025e+000 -3.288428e+000 -2.887803e-001 67 52 21
8.948838e+000 -2.213381e+000 -1.410182e+000 162 153 95
9.045773e+000 -2.235243e+000 -1.421374e+000 193 185 124
8.993540e+000 -2.086211e+000 -1.451599e+000 207 204 149
8.808251e+000 -1.868491e+000 -1.602424e+000 194 188 130
8.787057e+000 -1.703760e+000 -1.697373e+000 167 154 100
9.072410e+000 -2.362912e+000 -1.204641e+000 192 180 122
9.054521e+000 -2.017769e+000 -1.282277e+000 164 153 91
9.837471e+000 -4.126915e+000 4.611050e-001 180 176 116
9.837471e+000 -4.126915e+000 4.611050e-001 180 176 116
9.195958e+000 -2.443178e+000 -8.737471e-001 192 185 120
7.548666e+000 -3.425078e+000 -3.224685e+000 178 155 101
7.846567e+000 -3.356473e+000 -3.017746e+000 178 157 104
7.824938e+000 -2.660323e+000 -3.095433e+000 164 144 88
7.911303e+000 -2.990565e+000 -2.967041e+000 164 146 90
7.914131e+000 -2.992565e+000 -2.967697e+000 164 146 90
5.407026e+000 -3.500345e+000 -7.033690e-001 91 74 64
5.449770e+000 -3.339912e+000 -7.921873e-001 87 70 54
5.491401e+000 -3.327465e+000 -8.558530e-001 125 114 96
7.861100e+000 -2.486887e+000 -3.035723e+000 162 142 91
5.438494e+000 -3.763203e+000 -5.445477e-001 123 105 100
5.447380e+000 -3.326452e+000 -7.584858e-001 115 104 86
5.466201e+000 -3.305014e+000 -7.616765e-001 95 84 66
5.454636e+000 -3.212390e+000 -7.296114e-001 91 78 61
5.585976e+000 -3.259240e+000 -5.565490e-001 92 80 64
5.699443e+000 -3.078871e+000 -7.247976e-001 64 49 42
7.612942e+000 -2.887759e+000 -2.163696e+000 71 57 44
5.642756e+000 -3.109876e+000 -6.075881e-001 71 59 48
7.357566e+000 -2.512152e+000 -1.676717e+000 46 31 24
7.343492e+000 -2.467960e+000 -1.648880e+000 66 52 43
7.343492e+000 -2.467960e+000 -1.648880e+000 66 52 43
5.756828e+000 -3.450892e+000 6.346224e-002 56 57 62
5.746190e+000 -3.434141e+000 1.224671e-003 55 58 63
7.445569e+000 -2.553999e+000 -1.610489e+000 64 49 44
7.372101e+000 -2.492643e+000 -1.605258e+000 64 49 44
7.508643e+000 -2.494677e+000 -1.725394e+000 48 35 27
7.606819e+000 -2.277591e+000 -1.843176e+000 49 35 27
7.342199e+000 -2.544839e+000 -1.437474e+000 65 48 44
7.356717e+000 -2.500769e+000 -1.356398e+000 64 51 42
7.356717e+000 -2.500769e+000 -1.356398e+000 64 51 42
7.873886e+000 -2.290307e+000 -1.749317e+000 77 58 43
7.721774e+000 -2.761292e+000 -9.840943e-001 59 48 42
7.721774e+000 -2.761292e+000 -9.840943e-001 59 48 42
7.739601e+000 -2.750680e+000 -1.013838e+000 60 50 40
7.492248e+000 -2.167722e+000 -1.040128e+000 133 130 108
8.721483e+000 -2.057731e+000 -1.812699e+000 170 162 113
9.064479e+000 -2.940477e+000 -1.145743e+000 184 178 117
9.118024e+000 -2.869857e+000 -1.242256e+000 138 125 72
9.015480e+000 -2.136686e+000 -1.610034e+000 193 191 130
8.872860e+000 -1.880337e+000 -1.624670e+000 169 158 102
8.913244e+000 -1.804221e+000 -1.569158e+000 205 195 137
8.878871e+000 -1.752115e+000 -1.628355e+000 198 191 136
9.981933e+000 -4.584896e+000 6.261464e-001 183 168 104
9.324833e+000 -2.924363e+000 -6.840894e-001 176 165 99
9.102464e+000 -2.501191e+000 -9.759497e-001 196 191 126
9.177970e+000 -2.421134e+000 -9.930250e-001 160 149 83
9.214862e+000 -2.280651e+000 -1.017808e+000 161 150 86
9.023671e+000 -1.914151e+000 -1.295394e+000 168 157 101
7.740466e+000 -2.556424e+000 -3.188528e+000 187 169 111
5.406735e+000 -3.406430e+000 -7.904771e-001 93 80 64
5.535032e+000 -3.234451e+000 -9.006224e-001 101 91 79
7.929981e+000 -2.838279e+000 -2.893844e+000 147 125 79
5.403967e+000 -3.458853e+000 -6.674870e-001 155 147 128
5.469244e+000 -3.504835e+000 -6.393744e-001 83 66 50
5.447304e+000 -3.337742e+000 -7.260784e-001 84 72 57
5.464615e+000 -3.265351e+000 -7.899341e-001 140 134 110
5.454548e+000 -3.207635e+000 -7.834926e-001 137 130 108
5.493813e+000 -3.246385e+000 -6.997949e-001 91 78 61
5.490274e+000 -3.874885e+000 -2.888832e-001 40 36 41
8.102654e+000 -2.818139e+000 -2.685394e+000 139 125 83
5.684625e+000 -3.099810e+000 -7.124159e-001 114 104 95
5.737463e+000 -3.407419e+000 -1.422972e-001 110 104 90
5.737463e+000 -3.407419e+000 -1.422972e-001 110 104 90
7.689875e+000 -2.259947e+000 -1.901578e+000 50 33 26
8.670575e+000 -2.201003e+000 -1.856176e+000 122 108 73
7.466778e+000 -2.161775e+000 -1.074006e+000 87 80 64
8.868589e+000 -2.582123e+000 -1.358758e+000 150 141 84
8.860025e+000 -1.920608e+000 -1.700669e+000 171 165 107
8.934037e+000 -1.796207e+000 -1.605990e+000 172 162 101
8.934037e+000 -1.796207e+000 -1.605990e+000 172 162 101
8.832762e+000 -1.629724e+000 -1.597096e+000 199 190 131
9.669234e+000 -3.516826e+000 3.830736e-002 204 200 136
7.874300e+000 -3.115425e+000 -3.040867e+000 187 169 113
7.908325e+000 -2.741938e+000 -3.018419e+000 181 160 104
5.570242e+000 -3.280393e+000 -9.301446e-001 50 33 25
5.632355e+000 -3.242733e+000 -9.657589e-001 52 37 30
5.464719e+000 -3.730738e+000 -5.311855e-001 140 130 109
5.422259e+000 -3.391790e+000 -7.211152e-001 140 128 110
5.531557e+000 -3.263433e+000 -8.185332e-001 130 122 103
5.591267e+000 -3.192816e+000 -8.835147e-001 53 42 33
5.646881e+000 -3.202862e+000 -8.852128e-001 106 100 86
5.610116e+000 -3.244534e+000 -5.669032e-001 140 132 111
5.628780e+000 -3.179074e+000 -5.445513e-001 65 46 39
5.628843e+000 -3.149916e+000 -6.049357e-001 138 136 109
5.668482e+000 -3.168328e+000 -5.158612e-001 136 131 102
7.268717e+000 -2.678086e+000 -1.701765e+000 74 54 43
7.444048e+000 -2.557540e+000 -1.729079e+000 71 57 46
5.518515e+000 -2.110548e+000 -6.482894e-001 35 25 26
5.568034e+000 -2.139875e+000 -6.773871e-001 58 44 44
5.969507e+000 -2.180615e+000 -9.059720e-001 46 36 37
5.969507e+000 -2.180615e+000 -9.059720e-001 46 36 37
5.840213e+000 -3.366980e+000 4.022806e-002 47 49 48
5.882554e+000 -3.334962e+000 1.794260e-002 35 31 28
7.851179e+000 -2.167458e+000 -1.660952e+000 78 59 42
8.824666e+000 -1.877393e+000 -1.821480e+000 165 153 101
8.824666e+000 -1.877393e+000 -1.821480e+000 165 153 101
8.865265e+000 -2.011469e+000 -1.670275e+000 172 163 108
9.085675e+000 -2.135600e+000 -1.187693e+000 159 146 87
9.835724e+000 -3.542197e+000 1.454751e-001 203 202 137
5.520671e+000 -3.244742e+000 -7.753137e-001 56 39 32
5.494889e+000 -3.725699e+000 -4.837008e-001 72 53 47
5.599073e+000 -3.187449e+000 -6.395018e-001 74 62 47
5.893901e+000 -2.133593e+000 -1.192728e+000 77 57 56
5.666951e+000 -3.565963e+000 -1.868311e-001 139 129 112
7.458354e+000 -2.748681e+000 -1.727587e+000 72 55 36
7.251792e+000 -2.606718e+000 -1.534813e+000 65 47 37
8.573431e+000 -1.938869e+000 -1.995921e+000 162 157 106
8.718279e+000 -1.805453e+000 -1.782284e+000 170 159 105
9.551928e+000 -3.465563e+000 -1.024350e-001 160 147 84
7.965537e+000 -2.486657e+000 -2.902333e+000 147 131 82
5.649395e+000 -3.131716e+000 -7.139996e-001 54 41 35
5.686697e+000 -3.565818e+000 -2.368633e-001 44 29 26
7.419454e+000 -2.488319e+000 -1.793607e+000 77 59 47
8.910069e+000 -2.259328e+000 -1.480115e+000 154 141 86
8.941643e+000 -1.970806e+000 -1.380650e+000 211 209 152
5.572645e+000 -3.289416e+000 -6.412909e-001 142 134 113
5.631968e+000 -3.641768e+000 -2.034477e-001 109 99 86
5.631995e+000 -3.640706e+000 -2.040382e-001 109 99 86
7.241247e+000 -2.511889e+000 -1.494445e+000 33 19 16
5.796643e+000 -1.952272e+000 -5.718613e-001 38 24 23
5.712032e+000 -3.533750e+000 -3.002196e-001 37 27 28
7.413858e+000 -2.650918e+000 -1.233579e+000 62 50 38
9.160700e+000 -2.499423e+000 -1.045435e+000 187 182 118
5.524750e+000 -2.284942e+000 -6.970033e-001 32 22 23
7.445245e+000 -2.509214e+000 -1.470774e+000 66 50 39
7.594853e+000 -2.687625e+000 -1.123832e+000 37 28 22
7.538992e+000 -2.390982e+000 -1.808029e+000 42 27 20
7.757185e+000 -2.246218e+000 -1.842557e+000 90 69 48
8.076236e+000 -2.924859e+000 -6.030885e-001 199 200 137
1.528044e+000 -5.990658e+001 -1.641727e+001 132 124 178
7.116618e+000 -5.593092e+001 -9.226940e+000 159 51 93
6.893436e+000 -5.444507e+001 -9.840742e+000 128 19 54
6.100682e+000 -5.407595e+001 -1.061719e+001 128 83 126
7.343424e+000 -5.469331e+001 -1.000937e+001 125 86 138
6.476331e+000 -5.559733e+001 -1.014759e+001 144 35 74
6.943708e+000 -5.614444e+001 -8.039095e+000 107 119 185
6.732709e+000 -5.522866e+001 -9.310040e+000 160 112 160
8.708723e+000 -5.321102e+001 -5.904542e+000 164 47 92
5.696208e+000 -5.488754e+001 -9.695734e+000 128 112 156
6.056822e+000 -5.527523e+001 -8.581311e+000 35 26 81
1.332355e+001 -5.937768e+001 9.512610e+000 108 102 106
1.377564e+001 -5.457474e+001 6.199249e+000 88 83 87
1.488300e+001 -5.474215e+001 7.361015e+000 80 76 99
1.380038e+001 -5.554262e+001 9.614312e+000 85 79 83
1.583389e+001 -5.230866e+001 8.234934e+000 88 82 92
1.582746e+001 -5.229386e+001 8.234727e+000 88 82 92
1.533830e+001 -5.172851e+001 8.420307e+000 126 120 124
1.384113e+001 -6.220483e+001 1.202639e+001 107 94 104
1.615207e+001 -5.310796e+001 9.390790e+000 101 90 96
1.573315e+001 -5.330791e+001 1.016244e+001 76 75 81
1.653498e+001 -5.269376e+001 8.597693e+000 117 114 121
5.801709e+000 -3.429470e+000 -1.138008e-001 49 39 32
9.459781e+000 -3.494955e+000 -1.849851e+000 45 31 21
7.450810e+000 -2.308512e+000 -1.017702e+000 77 63 52
7.377365e+000 -2.457375e+000 -1.740854e+000 41 26 21
5.609333e+000 -3.271448e+000 -9.361244e-001 81 64 56
5.602851e+000 -3.255399e+000 -9.393699e-001 81 64 56
5.530701e+000 -3.538045e+000 -5.764603e-001 44 35 33
5.692841e+000 -3.098035e+000 -5.914761e-001 86 76 64
7.750097e+000 -2.631636e+000 -3.205347e+000 181 164 112
5.590503e+000 -3.185280e+000 -7.467829e-001 66 54 42
8.021107e+000 -2.255488e+000 -2.938449e+000 153 140 87
7.338139e+000 -2.538853e+000 -1.530892e+000 57 44 38
7.834604e+000 -2.418540e+000 -1.476066e+000 42 27 20
7.452019e+000 -2.288103e+000 -1.001167e+000 53 45 34
7.491797e+000 -2.192920e+000 -1.008290e+000 111 105 89
8.682182e+000 -1.593002e+000 -1.867018e+000 195 189 131
7.616714e+000 -2.734384e+000 -3.310658e+000 180 165 108
7.949377e+000 -3.334652e+000 -2.948108e+000 174 152 104
7.901570e+000 -2.639970e+000 -2.997644e+000 172 159 104
7.981520e+000 -2.247038e+000 -2.847183e+000 170 156 109
5.644318e+000 -3.176010e+000 -4.395993e-001 139 136 118
5.789320e+000 -3.364102e+000 -1.092889e-001 102 95 85
7.642257e+000 -2.331191e+000 -1.926785e+000 76 58 47
7.621546e+000 -2.316523e+000 -1.926291e+000 76 58 47
7.450991e+000 -2.412520e+000 -1.691741e+000 64 49 42
7.422371e+000 -2.391831e+000 -1.691501e+000 64 49 42
5.734989e+000 -2.450187e+000 -2.383831e-001 36 26 27
8.584127e+000 -1.848995e+000 -2.066599e+000 151 144 92
7.624086e+000 -3.136251e+000 -3.396296e+000 164 145 89
7.691890e+000 -3.319302e+000 -3.292458e+000 187 170 118
7.742153e+000 -2.782054e+000 -3.273821e+000 155 135 84
7.784247e+000 -2.656438e+000 -3.157547e+000 179 164 107
7.942627e+000 -3.047515e+000 -2.899620e+000 141 124 78
6.601678e+000 -3.596441e+000 -1.378884e+000 99 86 70
5.532943e+000 -3.183554e+000 -7.402727e-001 72 55 47
8.011569e+000 -2.436613e+000 -2.861369e+000 136 121 78
7.964572e+000 -2.311861e+000 -2.907145e+000 154 140 91
7.230193e+000 -2.567555e+000 -1.627394e+000 39 24 17
7.510940e+000 -2.399971e+000 -1.914256e+000 76 58 44
8.228824e+000 -2.002366e+000 -2.501811e+000 125 113 75
7.826450e+000 -2.222657e+000 -1.742334e+000 53 36 26
8.448304e+000 -1.841249e+000 -2.290914e+000 147 137 88
8.456422e+000 -1.723861e+000 -2.174796e+000 151 139 89
8.865453e+000 -1.722112e+000 -1.734416e+000 197 191 133
8.874945e+000 -1.527717e+000 -1.652034e+000 165 150 95
7.571920e+000 -3.349400e+000 -3.444332e+000 179 156 104
7.812545e+000 -3.286062e+000 -3.140744e+000 172 127 98
7.865407e+000 -2.405105e+000 -3.070796e+000 174 159 100
5.592562e+000 -3.181783e+000 -7.921643e-001 52 37 32
7.925315e+000 -2.343612e+000 -2.971165e+000 154 140 91
7.925315e+000 -2.343612e+000 -2.971165e+000 154 140 91
5.590818e+000 -3.173820e+000 -6.418583e-001 66 51 44
5.600243e+000 -3.224730e+000 -5.743298e-001 138 131 112
5.654465e+000 -3.141514e+000 -5.236671e-001 136 128 107
8.343867e+000 -1.876541e+000 -2.386299e+000 131 112 69
8.658405e+000 -2.137082e+000 -1.863456e+000 114 99 68
8.842484e+000 -2.201504e+000 -1.677354e+000 176 172 125
5.628464e+000 -3.333920e+000 -1.002832e+000 49 30 23
8.118319e+000 -4.256417e+000 -2.544478e+000 149 127 85
7.888328e+000 -2.953279e+000 -3.010698e+000 184 173 117
5.659884e+000 -3.192498e+000 -8.092568e-001 33 19 16
8.033752e+000 -2.310986e+000 -2.833821e+000 136 122 75
8.197571e+000 -2.156595e+000 -2.640701e+000 137 124 82
8.544477e+000 -1.913930e+000 -2.059867e+000 133 119 84
8.544477e+000 -1.913930e+000 -2.059867e+000 133 119 84
8.053082e+000 -2.445191e+000 -2.819809e+000 130 111 69
5.459051e+000 -2.339675e+000 -8.148803e-001 85 69 70
7.700521e+000 -2.252963e+000 -1.968404e+000 76 62 49
8.437359e+000 -1.978100e+000 -2.208323e+000 116 101 62
8.720112e+000 -1.651208e+000 -1.890995e+000 192 187 131
8.768533e+000 -1.670393e+000 -1.892521e+000 192 187 131
8.144245e+000 -2.291208e+000 -2.761774e+000 158 150 104
5.549870e+000 -2.193725e+000 -7.720940e-001 67 57 58
7.922877e+000 -2.449684e+000 -2.992549e+000 179 167 115
7.681231e+000 -2.871123e+000 -2.323006e+000 85 67 54
7.663382e+000 -2.487786e+000 -2.057761e+000 84 65 42
8.121878e+000 -2.839458e+000 -2.766045e+000 153 147 95
5.028651e+000 -5.689158e+001 -9.821979e+000 34 26 53
5.291779e+000 -5.682856e+001 -9.155497e+000 87 87 120
9.621745e+000 -5.985860e+001 5.636938e-001 114 101 95
7.652538e+000 -3.026410e+000 -3.404703e+000 162 139 87
7.835007e+000 -3.334078e+000 -3.057429e+000 146 114 72
8.049631e+000 -2.293314e+000 -2.819748e+000 135 121 74
7.996038e+000 -3.825587e+000 -2.778496e+000 136 119 73
7.893073e+000 -3.274778e+000 -2.962700e+000 138 101 64
7.974967e+000 -3.272212e+000 -2.914598e+000 135 111 72
7.863446e+000 -2.691531e+000 -3.075487e+000 182 165 111
8.025445e+000 -3.058356e+000 -2.798094e+000 139 125 86
7.454864e+000 -2.505111e+000 -1.873044e+000 73 57 45
7.886867e+000 -4.467294e+000 -2.892402e+000 167 151 92
7.952717e+000 -4.743522e+000 -2.739295e+000 173 161 103
7.793774e+000 -2.717168e+000 -3.169833e+000 155 136 84
8.142138e+000 -4.286364e+000 -2.529008e+000 125 105 68
7.861529e+000 -2.603646e+000 -3.111961e+000 160 143 87
8.572204e+000 -2.188598e+000 -1.981535e+000 110 94 68
8.564201e+000 -1.687315e+000 -1.998878e+000 188 183 128
7.726255e+000 -3.816595e+000 -3.126779e+000 173 157 97
7.896976e+000 -4.040958e+000 -2.973632e+000 186 174 114
7.763210e+000 -3.263229e+000 -3.202415e+000 189 168 115
7.744856e+000 -2.935550e+000 -3.290489e+000 177 160 104
7.956623e+000 -4.019547e+000 -2.819116e+000 171 156 104
7.901881e+000 -3.348629e+000 -3.027589e+000 151 113 73
7.956182e+000 -3.289632e+000 -2.903838e+000 165 148 102
7.832198e+000 -2.662483e+000 -3.095149e+000 163 146 92
7.955045e+000 -2.707537e+000 -2.940044e+000 154 139 84
8.018792e+000 -2.540581e+000 -2.852540e+000 159 145 97
5.650210e+000 -3.630859e+000 -1.686389e-001 137 127 118
7.823010e+000 -2.280890e+000 -1.688657e+000 73 57 44
7.720005e+000 -2.670748e+000 -1.098031e+000 58 48 39
8.578178e+000 -1.989164e+000 -2.056519e+000 131 116 72
7.860797e+000 -3.423223e+000 -3.076043e+000 177 157 106
7.873517e+000 -2.710791e+000 -3.052172e+000 165 148 94
5.578022e+000 -3.275195e+000 -5.095574e-001 143 136 117
7.664418e+000 -2.243975e+000 -1.922123e+000 53 36 28
7.427471e+000 -2.298511e+000 -1.068393e+000 53 37 29
8.573662e+000 -1.652210e+000 -1.999390e+000 159 150 95
7.923881e+000 -4.893058e+000 -2.814269e+000 163 142 85
7.970978e+000 -3.538674e+000 -2.843313e+000 153 134 92
8.436932e+000 -2.073268e+000 -2.167754e+000 130 123 82
5.410800e+000 -3.495234e+000 -6.830639e-001 128 118 106
5.435384e+000 -3.327532e+000 -8.181792e-001 159 151 138
5.513099e+000 -3.321502e+000 -9.442251e-001 110 98 91
5.489374e+000 -3.278469e+000 -8.682315e-001 55 45 36
5.495107e+000 -3.726016e+000 -3.183517e-001 132 125 118
5.587385e+000 -3.172820e+000 -6.763627e-001 73 60 51
5.617855e+000 -3.142616e+000 -6.860427e-001 74 64 55
5.451695e+000 -3.286941e+000 -8.090649e-001 128 118 108
5.485481e+000 -3.264033e+000 -8.403863e-001 68 57 55
5.571920e+000 -3.184462e+000 -7.681297e-001 80 63 54
5.542245e+000 -3.621475e+000 -2.531000e-001 128 122 110
5.678097e+000 -3.086726e+000 -6.806994e-001 59 50 45
7.452530e+000 -2.089957e+000 -1.121821e+000 121 118 98
8.737547e+000 -1.583523e+000 -1.840365e+000 189 177 125
5.403671e+000 -3.459123e+000 -7.326296e-001 132 121 109
5.515232e+000 -3.272718e+000 -8.900901e-001 52 38 35
5.511141e+000 -3.264462e+000 -8.921728e-001 52 38 35
5.639628e+000 -3.202590e+000 -9.624622e-001 50 39 34
7.910233e+000 -2.691780e+000 -3.018539e+000 163 147 98
5.480969e+000 -3.266981e+000 -7.684391e-001 152 148 133
7.916998e+000 -2.656096e+000 -2.971572e+000 153 141 89
5.633677e+000 -3.566464e+000 -2.339169e-001 117 104 96
5.605476e+000 -3.184288e+000 -5.089046e-001 141 135 123
5.676095e+000 -3.122348e+000 -6.018977e-001 138 135 126
5.698303e+000 -3.109957e+000 -5.533663e-001 142 143 130
5.695542e+000 -3.106292e+000 -5.549726e-001 142 143 130
5.706874e+000 -3.437452e+000 -2.097530e-001 103 101 113
5.668513e+000 -3.121619e+000 -4.278106e-001 92 79 71
5.688158e+000 -3.098861e+000 -5.105558e-001 68 58 47
8.137604e+000 -2.336126e+000 -2.688706e+000 120 107 75
5.744951e+000 -3.446519e+000 2.968183e-003 63 78 74
7.333296e+000 -2.564170e+000 -1.627845e+000 42 27 20
7.426039e+000 -2.400134e+000 -1.725777e+000 62 49 40
7.561363e+000 -2.332255e+000 -1.707321e+000 73 59 48
7.555414e+000 -2.318127e+000 -1.741074e+000 70 56 45
7.451340e+000 -2.182287e+000 -1.034852e+000 76 72 60
7.439448e+000 -2.137699e+000 -1.047191e+000 118 114 102
8.648830e+000 -1.625348e+000 -1.945198e+000 161 155 105
5.468412e+000 -3.285581e+000 -7.834581e-001 144 135 122
5.518191e+000 -3.225666e+000 -8.759753e-001 55 46 39
5.541559e+000 -3.196710e+000 -8.179981e-001 127 110 103
5.682391e+000 -3.166876e+000 -9.128603e-001 110 102 95
5.573857e+000 -3.222467e+000 -6.348794e-001 133 125 110
7.980545e+000 -2.323536e+000 -2.875823e+000 172 164 117
5.656885e+000 -3.087268e+000 -5.540485e-001 51 44 34
5.807031e+000 -3.384558e+000 -1.285873e-001 51 36 37
8.030042e+000 -2.123563e+000 -2.783563e+000 181 179 131
7.337323e+000 -2.537319e+000 -1.608042e+000 64 49 45
7.337323e+000 -2.537319e+000 -1.608042e+000 64 49 45
7.840566e+000 -2.286127e+000 -1.631000e+000 47 34 28
7.834426e+000 -2.225108e+000 -1.743296e+000 55 41 30
5.741289e+000 -1.966381e+000 -5.875470e-001 40 28 30
8.479562e+000 -1.731146e+000 -2.176051e+000 151 143 97
7.436142e+000 -2.141434e+000 -1.078982e+000 82 79 70
7.447500e+000 -2.096616e+000 -1.156191e+000 98 87 75
7.648475e+000 -3.324542e+000 -3.330097e+000 193 179 130
7.799552e+000 -2.966326e+000 -3.130989e+000 192 182 133
7.919791e+000 -3.315588e+000 -2.944306e+000 176 155 108
7.820515e+000 -2.989036e+000 -3.084054e+000 168 157 103
5.411518e+000 -3.490939e+000 -6.596468e-001 165 161 148
6.666848e+000 -3.669796e+000 -1.317631e+000 136 118 98
8.060148e+000 -2.852355e+000 -2.729269e+000 151 147 100
7.999796e+000 -2.465567e+000 -2.952355e+000 183 177 127
8.016397e+000 -2.459648e+000 -2.770418e+000 147 138 100
8.047542e+000 -2.475041e+000 -2.774427e+000 147 138 100
7.998657e+000 -2.331621e+000 -2.913337e+000 148 135 90
5.635433e+000 -3.448947e+000 -1.143322e-001 239 255 255
5.635433e+000 -3.448947e+000 -1.143322e-001 239 255 255
5.674877e+000 -3.096488e+000 -4.539446e-001 149 141 132
5.775837e+000 -3.370029e+000 -3.426860e-002 30 29 28
8.365773e+000 -2.103694e+000 -2.388576e+000 101 90 60
5.562519e+000 -2.126387e+000 -6.761804e-001 54 43 45
5.580755e+000 -2.145176e+000 -6.656598e-001 54 43 45
7.469521e+000 -2.121517e+000 -1.088471e+000 150 150 139
7.490980e+000 -2.102240e+000 -1.038804e+000 117 105 91
8.702890e+000 -1.802080e+000 -1.858109e+000 183 176 124
9.056927e+000 -2.052376e+000 -1.269044e+000 194 192 136
7.990774e+000 -5.224243e+000 -2.802978e+000 158 140 92
7.990774e+000 -5.224243e+000 -2.802978e+000 158 140 92
7.638031e+000 -3.434182e+000 -3.373266e+000 164 146 98
7.961676e+000 -3.063573e+000 -2.956830e+000 190 180 131
5.711444e+000 -3.264322e+000 -1.010455e+000 55 39 39
7.978811e+000 -2.866901e+000 -2.907010e+000 143 128 91
5.615190e+000 -3.165428e+000 -5.437907e-001 55 42 34
5.676791e+000 -3.186685e+000 -4.538103e-001 69 59 49
8.017105e+000 -2.393749e+000 -2.760091e+000 126 115 79
5.749973e+000 -3.362502e+000 -2.550469e-001 32 26 28
7.450671e+000 -2.225811e+000 -9.796951e-001 84 75 60
8.616035e+000 -1.654534e+000 -1.995983e+000 166 158 108
9.042131e+000 -1.894662e+000 -1.275159e+000 172 166 114
5.514815e+000 -3.325825e+000 -8.896846e-001 45 30 27
7.885445e+000 -2.521170e+000 -3.060467e+000 172 156 107
7.888136e+000 -2.523183e+000 -3.060393e+000 172 156 107
5.685837e+000 -3.113159e+000 -6.448689e-001 47 35 37
8.132864e+000 -2.349993e+000 -2.708116e+000 112 99 67
8.235944e+000 -2.392544e+000 -2.592270e+000 90 75 50
7.230908e+000 -2.651941e+000 -1.689724e+000 76 53 45
5.740348e+000 -1.943233e+000 -6.282750e-001 83 80 86
7.780262e+000 -3.208199e+000 -3.174115e+000 188 176 126
8.020652e+000 -4.115834e+000 -2.612207e+000 163 146 99
5.646804e+000 -2.844620e+000 -7.422544e-001 58 41 46
7.270915e+000 -2.566911e+000 -1.565202e+000 28 18 18
8.350615e+000 -1.919517e+000 -2.351034e+000 158 157 113
7.809373e+000 -3.101716e+000 -3.280760e+000 187 180 125
5.619836e+000 -3.159076e+000 -8.140455e-001 47 31 35
5.614897e+000 -3.606458e+000 -2.202005e-001 135 128 120
5.581131e+000 -3.228485e+000 -5.348829e-001 127 119 109
7.670361e+000 -2.305552e+000 -1.779668e+000 75 59 44
8.657605e+000 -1.963028e+000 -2.087127e+000 132 122 87
7.960648e+000 -4.094885e+000 -3.077959e+000 188 177 121
6.419373e+000 -3.560384e+000 -1.170595e+000 66 50 44
7.474128e+000 -2.399834e+000 -9.540861e-001 43 34 27
7.618310e+000 -3.125370e+000 -3.261119e+000 186 170 118
7.894560e+000 -3.215793e+000 -2.970513e+000 189 164 123
7.729795e+000 -2.807181e+000 -3.195917e+000 174 157 106
7.729795e+000 -2.807181e+000 -3.195917e+000 174 157 106
7.945959e+000 -3.205899e+000 -2.861131e+000 138 119 76
5.509972e+000 -3.746159e+000 -3.947301e-001 87 73 60
7.888588e+000 -2.796036e+000 -3.051884e+000 192 173 123
5.515538e+000 -3.699730e+000 -2.794077e-001 162 157 139
5.533950e+000 -3.221497e+000 -8.237294e-001 85 71 58
8.002675e+000 -2.972069e+000 -2.828416e+000 177 165 117
8.073562e+000 -2.469171e+000 -2.857331e+000 124 107 64
5.755715e+000 -3.369956e+000 -6.578718e-002 79 77 80
8.067441e+000 -2.341821e+000 -2.682909e+000 132 115 79
8.068387e+000 -2.221793e+000 -2.806314e+000 147 135 87
7.733357e+000 -3.509886e+000 -3.252067e+000 176 154 105
7.746633e+000 -3.517915e+000 -3.254238e+000 176 154 105
7.669384e+000 -3.197509e+000 -3.356940e+000 179 164 109
7.609637e+000 -3.038756e+000 -3.330695e+000 177 158 105
7.792247e+000 -2.960325e+000 -3.264719e+000 164 141 91
7.972053e+000 -3.270676e+000 -2.914473e+000 147 124 82
7.832501e+000 -3.168208e+000 -2.907710e+000 183 161 112
5.458145e+000 -3.798686e+000 -3.641093e-001 101 89 80
5.440833e+000 -3.379585e+000 -8.467611e-001 73 56 46
7.914356e+000 -3.098357e+000 -2.998740e+000 178 162 111
7.923030e+000 -3.103666e+000 -3.000284e+000 178 162 111
7.885988e+000 -3.002606e+000 -3.038394e+000 174 158 100
7.946515e+000 -3.005830e+000 -2.859227e+000 158 138 95
7.935043e+000 -2.969120e+000 -2.925222e+000 174 162 110
7.935043e+000 -2.969120e+000 -2.925222e+000 174 162 110
8.040173e+000 -3.012624e+000 -2.825235e+000 145 126 83
7.891074e+000 -2.770438e+000 -3.000174e+000 157 140 98
7.935005e+000 -2.776912e+000 -2.973380e+000 144 125 81
7.883151e+000 -2.594415e+000 -3.095586e+000 163 143 90
8.100128e+000 -2.865090e+000 -2.834559e+000 152 138 91
7.667160e+000 -3.009602e+000 -2.304562e+000 91 67 55
7.667160e+000 -3.009602e+000 -2.304562e+000 91 67 55
5.672001e+000 -3.523516e+000 -1.978583e-001 148 146 133
5.693777e+000 -3.490636e+000 -1.877502e-001 119 108 103
5.717886e+000 -3.419065e+000 -2.776781e-001 57 52 56
5.513279e+000 -2.660391e+000 -9.688963e-001 83 67 68
5.711821e+000 -3.430024e+000 -1.749171e-001 46 37 40
7.267796e+000 -2.959185e+000 -1.747162e+000 41 26 19
8.038091e+000 -2.463295e+000 -2.840087e+000 155 138 95
5.682508e+000 -3.138197e+000 -3.343430e-001 63 55 52
6.987538e+000 -2.850958e+000 -1.493262e+000 71 58 52
5.850796e+000 -3.307126e+000 -8.494379e-002 68 54 54
8.244112e+000 -2.040394e+000 -2.414846e+000 146 128 92
7.807913e+000 -2.331830e+000 -1.497683e+000 54 32 21
8.955459e+000 -1.954071e+000 -1.601744e+000 163 147 95
8.782167e+000 -1.750248e+000 -1.766084e+000 167 151 94
8.828500e+000 -1.630312e+000 -1.888529e+000 177 166 111
8.828500e+000 -1.630312e+000 -1.888529e+000 177 166 111
7.773617e+000 -3.227965e+000 -3.211852e+000 179 166 113
7.705180e+000 -3.100248e+000 -3.308713e+000 206 195 141
7.705180e+000 -3.100248e+000 -3.308713e+000 206 195 141
7.703951e+000 -3.069684e+000 -3.313761e+000 180 165 110
7.741507e+000 -3.061085e+000 -3.326297e+000 200 187 132
7.841066e+000 -3.297757e+000 -3.089947e+000 194 174 124
7.725961e+000 -3.106037e+000 -3.194575e+000 186 165 112
7.674867e+000 -3.039390e+000 -3.156321e+000 187 167 114
7.806818e+000 -3.090155e+000 -3.177493e+000 210 199 145
7.808946e+000 -3.011376e+000 -3.149978e+000 181 166 111
7.808946e+000 -3.011376e+000 -3.149978e+000 181 166 111
7.722296e+000 -2.867403e+000 -3.308239e+000 200 185 131
5.473808e+000 -3.709526e+000 -6.847403e-001 159 152 136
5.453709e+000 -3.469845e+000 -8.893325e-001 79 60 50
7.954223e+000 -3.288528e+000 -2.904186e+000 183 160 115
7.856181e+000 -3.079366e+000 -3.070281e+000 183 167 116
5.440070e+000 -3.396955e+000 -7.271521e-001 166 161 141
5.599652e+000 -3.277611e+000 -9.783107e-001 83 66 59
7.755434e+000 -2.695528e+000 -3.160543e+000 165 149 98
5.472398e+000 -3.739197e+000 -3.618144e-001 150 132 118
5.494966e+000 -3.765071e+000 -3.998447e-001 146 137 120
5.451003e+000 -3.349516e+000 -7.288871e-001 78 64 51
5.430143e+000 -3.275627e+000 -7.974089e-001 106 90 75
5.521007e+000 -3.286759e+000 -8.621143e-001 126 112 103
7.788512e+000 -2.578842e+000 -3.142694e+000 204 191 138
5.656899e+000 -3.150621e+000 -8.892073e-001 70 53 48
5.682242e+000 -3.175321e+000 -9.663609e-001 101 87 84
7.919210e+000 -2.694936e+000 -3.019451e+000 158 138 88
5.685372e+000 -3.560155e+000 -3.910215e-001 30 19 23
5.559795e+000 -3.178633e+000 -7.561595e-001 143 138 119
5.714471e+000 -3.130850e+000 -8.307216e-001 146 138 127
7.635413e+000 -2.973342e+000 -2.345179e+000 74 50 37
7.907787e+000 -2.549409e+000 -3.080511e+000 172 150 100
7.932871e+000 -2.519285e+000 -3.030108e+000 197 190 137
5.645437e+000 -3.602399e+000 -2.887062e-001 77 63 61
7.659746e+000 -3.049578e+000 -2.255576e+000 92 73 59
7.646490e+000 -2.934811e+000 -2.324115e+000 94 72 58
5.717899e+000 -3.053166e+000 -6.976726e-001 132 124 105
8.019738e+000 -2.510715e+000 -2.827745e+000 141 123 83
5.686366e+000 -3.232484e+000 -4.028796e-001 158 150 137
5.677051e+000 -3.086183e+000 -5.182910e-001 83 73 56
5.699566e+000 -3.070721e+000 -6.112075e-001 135 126 111
5.701545e+000 -3.072347e+000 -6.100424e-001 135 126 111
5.713850e+000 -3.041630e+000 -6.411948e-001 71 58 50
5.773224e+000 -3.058360e+000 -6.400549e-001 71 51 45
5.750141e+000 -3.046059e+000 -6.317458e-001 161 155 139
5.773037e+000 -2.567696e+000 -9.331856e-001 25 14 18
7.373897e+000 -2.771149e+000 -1.713240e+000 42 27 21
5.885974e+000 -3.351286e+000 -2.837494e-002 111 102 100
7.497628e+000 -2.499486e+000 -1.974146e+000 60 37 27
7.437809e+000 -2.471181e+000 -1.835953e+000 46 27 20
6.042666e+000 -3.455425e+000 3.550351e-001 69 53 53
7.442464e+000 -2.381461e+000 -1.677974e+000 44 30 19
8.747802e+000 -2.123409e+000 -2.091655e+000 155 142 100
7.533493e+000 -2.159589e+000 -1.280127e+000 58 39 24
8.507697e+000 -1.637856e+000 -2.205739e+000 166 152 92
7.627230e+000 -3.373730e+000 -3.505131e+000 207 191 140
7.659389e+000 -3.200871e+000 -3.402221e+000 206 193 136
7.758523e+000 -3.156138e+000 -3.305834e+000 175 158 103
7.755492e+000 -3.134405e+000 -3.248474e+000 206 193 138
5.443157e+000 -3.722379e+000 -5.723916e-001 98 81 66
5.446174e+000 -3.621164e+000 -7.513342e-001 87 72 68
5.462545e+000 -3.411025e+000 -8.909304e-001 128 114 103
5.462545e+000 -3.411025e+000 -8.909304e-001 128 114 103
5.552157e+000 -3.243325e+000 -1.086178e+000 99 79 68
7.826838e+000 -2.884561e+000 -3.204563e+000 198 181 129
5.453040e+000 -3.676244e+000 -5.823011e-001 92 73 66
5.453040e+000 -3.676244e+000 -5.823011e-001 92 73 66
5.372826e+000 -3.453276e+000 -7.293753e-001 80 60 52
7.855261e+000 -2.912956e+000 -3.086043e+000 170 154 102
7.765807e+000 -2.649390e+000 -3.219824e+000 192 178 123
5.487418e+000 -3.719868e+000 -3.893658e-001 91 72 58
5.487418e+000 -3.719868e+000 -3.893658e-001 91 72 58
5.469625e+000 -3.366225e+000 -7.436018e-001 147 137 118
5.568284e+000 -3.215915e+000 -8.383657e-001 62 41 40
5.702673e+000 -3.138018e+000 -8.572186e-001 147 146 126
7.644204e+000 -3.024769e+000 -2.296508e+000 68 44 32
7.874249e+000 -2.721137e+000 -2.881620e+000 144 132 93
5.712276e+000 -3.512543e+000 -3.699310e-001 39 29 37
5.649045e+000 -3.134036e+000 -7.784854e-001 49 35 34
5.683400e+000 -3.098437e+000 -7.179630e-001 138 135 116
8.141396e+000 -2.842001e+000 -2.693572e+000 156 144 102
7.492241e+000 -2.811454e+000 -2.162829e+000 73 54 47
8.132638e+000 -2.766264e+000 -2.617495e+000 124 111 79
8.002483e+000 -2.574254e+000 -2.859287e+000 149 135 86
8.033778e+000 -2.548163e+000 -2.854098e+000 177 163 116
5.724873e+000 -3.403246e+000 -1.568135e-001 129 123 113
5.804874e+000 -3.402103e+000 -9.080287e-002 115 107 96
5.695009e+000 -3.123609e+000 -3.511910e-001 145 137 126
5.705012e+000 -3.064192e+000 -4.980817e-001 146 142 130
5.803064e+000 -3.266460e+000 -6.520301e-002 42 34 32
5.820725e+000 -3.135386e+000 -1.814947e-001 61 46 47
7.459051e+000 -2.447331e+000 -1.860891e+000 76 55 44
7.473657e+000 -2.457249e+000 -1.932406e+000 80 60 46
8.254150e+000 -2.250538e+000 -2.640565e+000 158 150 106
7.562155e+000 -2.319494e+000 -1.955700e+000 65 45 36
8.261591e+000 -2.167779e+000 -2.510127e+000 116 99 69
8.333769e+000 -2.047483e+000 -2.514354e+000 126 113 79
8.596124e+000 -1.957254e+000 -2.030621e+000 162 148 98
7.453384e+000 -2.101103e+000 -1.187090e+000 97 81 57
7.479687e+000 -2.146319e+000 -1.014347e+000 103 88 74
9.269477e+000 -2.609052e+000 -9.348139e-001 157 141 82
7.602452e+000 -3.476155e+000 -3.427419e+000 176 155 99
7.572451e+000 -3.382621e+000 -3.413081e+000 196 180 129
7.661179e+000 -3.394020e+000 -3.387045e+000 203 183 135
7.767356e+000 -3.215398e+000 -3.244627e+000 209 197 143
7.797776e+000 -3.178290e+000 -3.114574e+000 202 192 141
7.804212e+000 -2.968826e+000 -3.131984e+000 204 193 139
5.460702e+000 -3.734022e+000 -5.280153e-001 154 142 130
5.398442e+000 -3.471437e+000 -6.683632e-001 182 175 159
5.443195e+000 -3.466003e+000 -6.626699e-001 96 87 76
5.443195e+000 -3.466003e+000 -6.626699e-001 96 87 76
5.437823e+000 -3.388641e+000 -7.669024e-001 92 78 65
5.917609e+000 -3.502914e+000 -1.099824e+000 89 65 53
7.902487e+000 -2.985185e+000 -3.082751e+000 201 190 134
5.481318e+000 -3.817737e+000 -3.431553e-001 108 92 76
5.527029e+000 -3.279032e+000 -7.108942e-001 136 132 117
7.844582e+000 -3.075850e+000 -2.382511e+000 97 70 57
5.685902e+000 -3.536227e+000 -2.282390e-001 62 50 47
5.688928e+000 -3.323728e+000 -3.558110e-001 28 19 26
7.962688e+000 -2.543986e+000 -2.804428e+000 167 155 107
7.962688e+000 -2.543986e+000 -2.804428e+000 167 155 107
5.623756e+000 -3.555958e+000 -2.853645e-002 32 22 30
5.657806e+000 -3.143505e+000 -5.209083e-001 144 139 119
5.713435e+000 -3.071518e+000 -5.404189e-001 71 55 57
5.692106e+000 -3.086796e+000 -3.927175e-001 77 58 44
7.373942e+000 -2.825457e+000 -1.668282e+000 37 24 21
7.399426e+000 -2.730602e+000 -1.740451e+000 77 52 43
7.623640e+000 -2.446704e+000 -2.202768e+000 52 36 23
5.454397e+000 -2.354013e+000 -6.914976e-001 58 42 43
7.527907e+000 -2.262263e+000 -1.056165e+000 67 49 37
7.521283e+000 -3.187846e+000 -3.016280e+000 187 167 112
5.419290e+000 -3.451045e+000 -7.776598e-001 79 65 58
5.373307e+000 -3.368179e+000 -8.672093e-001 147 138 121
5.446383e+000 -3.394833e+000 -8.574277e-001 86 70 58
5.603007e+000 -3.528551e+000 -9.359073e-001 91 72 65
7.879815e+000 -3.172631e+000 -2.915942e+000 175 153 106
5.435814e+000 -3.359050e+000 -8.219225e-001 150 138 124
5.536864e+000 -3.343211e+000 -9.272765e-001 96 87 78
5.922098e+000 -3.434028e+000 -1.126223e+000 79 57 38
7.882558e+000 -2.810384e+000 -3.106975e+000 197 181 129
