ply
format ascii 1.0
element face 0
property list uchar int vertex_indices
element vertex 890
property float x
property float y
property float z
property uchar diffuse_red
property uchar diffuse_green
property uchar diffuse_blue
end_header
7.756940e+000 -2.395641e+000 -9.464114e-001 98 80 66
6.479845e+000 -2.679163e+000 -2.765523e-001 45 35 33
7.813773e+000 -2.590512e+000 -9.025669e-001 63 44 30
7.942828e+000 -2.589286e+000 -9.041643e-001 96 78 58
7.965946e+000 -2.629556e+000 -9.473194e-001 92 75 57
8.296486e+000 -3.067746e+000 -9.302808e-001 51 38 30
6.690095e+000 -3.323427e+000 6.058404e-002 71 60 53
7.545593e+000 -3.443748e+000 -7.110753e-001 73 59 53
7.605689e+000 -3.474454e+000 -7.045917e-001 54 37 30
7.992036e+000 -3.348024e+000 -4.169716e-001 110 102 94
7.861052e+000 -3.885486e+000 -7.390451e-001 46 35 33
7.890176e+000 -3.864825e+000 -7.014971e-001 63 52 48
9.285554e+000 -3.403178e+000 -2.824428e-001 137 120 75
9.285554e+000 -3.403178e+000 -2.824428e-001 137 120 75
7.181038e+000 -2.625006e+000 -1.520830e+000 105 93 99
7.550222e+000 -2.407715e+000 -8.900296e-001 69 53 40
7.334536e+000 -2.644484e+000 -1.192884e+000 47 40 44
7.320763e+000 -2.689306e+000 -1.087949e+000 51 40 46
6.569702e+000 -2.748031e+000 -2.248613e-001 40 26 17
7.279830e+000 -2.902118e+000 -8.573438e-001 48 34 33
5.387905e+000 -3.522855e+000 -8.107318e-001 109 101 91
7.924354e+000 -3.095561e+000 -6.434162e-001 80 63 52
7.873529e+000 -3.116322e+000 -6.293970e-001 81 66 58
6.515868e+000 -3.342694e+000 1.069972e-001 58 51 43
7.796509e+000 -3.338819e+000 -6.553726e-001 46 36 34
6.563749e+000 -3.464308e+000 1.216543e-001 90 83 79
7.948067e+000 -3.733195e+000 -5.074123e-001 119 110 103
7.991544e+000 -3.852728e+000 -5.060729e-001 81 68 60
7.702749e+000 -2.109161e+000 -1.599246e+000 103 84 54
7.353222e+000 -2.508683e+000 -1.346401e+000 52 41 46
7.339217e+000 -2.588073e+000 -1.231127e+000 48 34 41
7.588738e+000 -2.415720e+000 -8.885152e-001 87 72 59
6.289009e+000 -2.728091e+000 -2.412189e-001 122 116 107
7.851146e+000 -3.362016e+000 -7.201747e-001 100 95 92
6.680247e+000 -3.405246e+000 7.069049e-002 95 85 73
7.928940e+000 -3.302086e+000 -4.008238e-001 98 94 92
8.007660e+000 -3.537500e+000 -7.195716e-001 105 101 100
8.022236e+000 -3.331865e+000 -3.652641e-001 178 204 212
7.316228e+000 -2.486235e+000 -1.549966e+000 105 98 106
7.308194e+000 -2.476310e+000 -1.492118e+000 105 98 106
7.300616e+000 -2.584356e+000 -1.293045e+000 87 81 90
8.012299e+000 -2.530674e+000 -9.884733e-001 90 73 56
5.466160e+000 -3.466226e+000 -7.541315e-001 124 117 108
7.948765e+000 -4.110070e+000 -7.179782e-001 72 52 43
7.271182e+000 -2.637188e+000 -1.436527e+000 43 30 27
7.271182e+000 -2.637188e+000 -1.436527e+000 43 30 27
7.334518e+000 -2.544322e+000 -1.238033e+000 47 41 45
7.952754e+000 -3.276377e+000 -6.898680e-001 52 41 40
8.014431e+000 -2.696586e+000 -9.170957e-001 88 72 46
8.219094e+000 -3.262573e+000 -2.019964e-001 161 175 176
8.024916e+000 -4.011259e+000 -6.030555e-001 79 62 54
7.869001e+000 -2.494616e+000 -9.882798e-001 93 75 55
8.995640e+000 -2.959990e+000 -1.007045e+000 165 155 106
8.132436e+000 -3.394479e+000 -3.728936e-001 163 172 179
5.816658e+000 -3.311662e+000 -1.661118e-001 81 82 82
7.526597e+000 -3.456031e+000 -6.822261e-001 78 63 58
8.026776e+000 -3.856695e+000 -4.951120e-001 115 99 86
7.404027e+000 -2.310910e+000 -8.983000e-001 64 50 41
6.008874e+000 -2.855814e+000 -2.556913e-001 123 119 116
6.081454e+000 -2.818237e+000 -2.516050e-001 109 108 103
6.360572e+000 -3.154548e+000 7.486472e-002 137 144 135
7.400011e+000 -2.325652e+000 -7.968502e-001 74 55 48
7.400011e+000 -2.325652e+000 -7.968502e-001 74 55 48
6.433264e+000 -2.674106e+000 -2.723910e-001 69 58 57
6.257638e+000 -2.743306e+000 -2.302393e-001 69 65 56
7.972253e+000 -2.536375e+000 -1.000399e+000 72 54 40
7.972253e+000 -2.536375e+000 -1.000399e+000 72 54 40
6.105278e+000 -3.109711e+000 8.916826e-003 126 124 112
6.380528e+000 -3.174470e+000 6.887524e-002 81 74 69
7.629837e+000 -3.090751e+000 -5.893622e-001 81 67 64
7.629837e+000 -3.090751e+000 -5.893622e-001 81 67 64
7.883448e+000 -3.040442e+000 -6.307143e-001 62 47 40
8.524539e+000 -3.211563e+000 -2.703045e-001 54 37 23
7.306957e+000 -2.665971e+000 -1.160310e+000 75 66 71
7.255557e+000 -2.766236e+000 -1.145850e+000 61 46 46
8.823577e+000 -2.437730e+000 -1.285995e+000 147 128 86
8.852678e+000 -2.409481e+000 -1.249445e+000 136 122 77
6.234021e+000 -3.034254e+000 5.192629e-002 96 93 84
7.589569e+000 -3.062821e+000 -5.793877e-001 60 46 39
6.669399e+000 -3.113226e+000 1.347685e-002 43 33 23
6.695693e+000 -3.118913e+000 4.319513e-002 88 82 71
6.123704e+000 -2.956558e+000 -6.387587e-002 121 121 110
6.415472e+000 -3.072762e+000 6.176152e-002 110 105 99
6.599950e+000 -3.069068e+000 4.486597e-002 49 38 34
6.202956e+000 -3.520776e+000 2.291338e-001 62 53 56
8.232804e+000 -2.732569e+000 -9.732523e-001 129 122 111
8.025094e+000 -2.814531e+000 -7.842374e-001 60 46 35
7.752375e+000 -2.363449e+000 -9.662496e-001 97 78 64
7.771254e+000 -2.368696e+000 -9.614641e-001 68 49 34
7.774116e+000 -2.751603e+000 -7.564831e-001 60 47 31
7.973789e+000 -2.747564e+000 -8.824331e-001 92 75 57
8.286121e+000 -3.090286e+000 -9.700334e-001 73 65 55
7.286140e+000 -3.433772e+000 -6.630665e-001 61 50 44
7.407886e+000 -2.315239e+000 -9.059867e-001 63 53 44
7.290943e+000 -2.602742e+000 -1.662959e+000 54 40 28
8.994698e+000 -2.571696e+000 -8.910832e-001 173 161 113
7.762115e+000 -2.913262e+000 -6.516272e-001 60 43 33
6.978362e+000 -3.238037e+000 -5.479572e-001 51 31 20
6.611941e+000 -3.230324e+000 6.668690e-002 86 77 72
7.969376e+000 -3.591363e+000 -4.272096e-001 101 89 83
8.013537e+000 -3.611839e+000 -3.802322e-001 95 82 74
7.713774e+000 -2.501641e+000 -3.319265e-001 59 41 31
9.036386e+000 -2.496148e+000 -8.699937e-001 144 126 83
7.067634e+000 -2.738136e+000 -1.650880e+000 147 128 86
7.067634e+000 -2.738136e+000 -1.650880e+000 147 128 86
8.690121e+000 -2.524804e+000 -9.336015e-001 161 148 96
7.307641e+000 -2.498195e+000 -1.380214e+000 98 93 97
6.466161e+000 -2.668802e+000 -2.685551e-001 48 39 33
7.545961e+000 -2.606475e+000 -7.536524e-001 93 76 68
7.549024e+000 -2.610400e+000 -7.655390e-001 93 76 68
7.287027e+000 -2.732528e+000 -6.228657e-001 69 59 60
8.197645e+000 -2.640121e+000 -1.000681e+000 54 39 32
6.142261e+000 -3.013773e+000 2.854749e-003 149 150 142
7.723332e+000 -2.872905e+000 -6.462429e-001 79 65 52
6.340862e+000 -3.037072e+000 5.591385e-002 81 78 71
7.771740e+000 -2.922406e+000 -6.838314e-001 60 43 36
7.574354e+000 -3.270605e+000 -6.657109e-001 71 57 51
6.298026e+000 -3.336043e+000 8.800462e-002 63 52 46
6.824659e+000 -3.336596e+000 -1.311051e-002 50 38 26
8.132484e+000 -3.178527e+000 -3.604594e-001 105 92 75
7.239524e+000 -2.205277e+000 3.798283e-001 68 53 48
7.534888e+000 -2.478994e+000 -8.284370e-001 89 72 62
7.749319e+000 -2.459296e+000 -9.203550e-001 60 43 33
7.716682e+000 -2.554189e+000 -8.491021e-001 89 71 58
7.274975e+000 -2.796085e+000 -6.399513e-001 113 111 112
7.316026e+000 -2.894144e+000 -6.115066e-001 52 38 35
7.839851e+000 -2.880519e+000 -7.381621e-001 83 67 52
6.681536e+000 -3.399884e+000 7.751588e-002 101 91 79
5.730476e+000 -3.444523e+000 1.757045e-003 39 37 51
8.260519e+000 -2.895309e+000 -9.581555e-001 89 78 76
6.475306e+000 -3.219921e+000 8.991103e-002 124 120 113
6.508984e+000 -3.179040e+000 7.645813e-002 78 72 63
8.018850e+000 -3.245877e+000 -4.579728e-001 103 97 91
6.460441e+000 -3.443484e+000 1.687392e-001 57 47 45
6.564206e+000 -3.561148e+000 2.820056e-001 70 58 45
7.766493e+000 -4.080148e+000 -8.149943e-001 79 67 52
7.350746e+000 -2.207998e+000 -9.772483e-001 79 70 73
7.327802e+000 -2.481467e+000 -1.397263e+000 59 47 47
6.143761e+000 -2.797293e+000 -2.344278e-001 71 66 63
7.212845e+000 -2.851066e+000 -9.919085e-001 55 41 44
6.193832e+000 -2.864514e+000 -1.041372e-001 75 73 68
6.379345e+000 -2.826282e+000 -2.625376e-002 85 67 55
7.749501e+000 -2.941270e+000 -6.583232e-001 81 66 59
6.254164e+000 -3.094883e+000 7.156509e-002 149 155 145
6.702614e+000 -3.250389e+000 4.922093e-002 82 69 58
7.987460e+000 -3.555394e+000 -6.877862e-001 56 48 45
8.003073e+000 -3.304408e+000 -4.418704e-001 117 105 107
7.580671e+000 -4.002602e+000 -9.981899e-001 70 54 38
7.989212e+000 -3.624412e+000 -6.881807e-001 55 49 43
6.340606e+000 -3.536811e+000 2.861109e-001 79 71 68
9.088073e+000 -4.123106e+000 -5.499934e-001 156 139 93
7.366399e+000 -2.360308e+000 -1.597441e+000 114 105 110
7.666083e+000 -2.361098e+000 -9.221635e-001 67 51 38
6.088953e+000 -2.850928e+000 -2.140666e-001 126 126 118
6.239275e+000 -2.754756e+000 -2.134893e-001 128 129 121
5.770026e+000 -3.022977e+000 -2.880845e-001 159 157 156
5.901885e+000 -2.972471e+000 -1.715295e-001 149 152 145
6.322212e+000 -2.765336e+000 -1.788707e-001 59 49 40
5.855427e+000 -3.057535e+000 -2.194019e-001 120 119 114
6.342274e+000 -2.819385e+000 -1.341596e-001 82 79 70
7.296825e+000 -2.807054e+000 -6.142357e-001 60 49 43
7.328627e+000 -2.789664e+000 -6.375146e-001 80 70 61
6.407086e+000 -2.842537e+000 4.721690e-003 62 47 40
6.010988e+000 -3.069529e+000 -5.703439e-002 140 142 141
6.008507e+000 -3.078406e+000 -6.719454e-002 140 142 141
6.105405e+000 -3.109941e+000 7.823222e-003 133 130 123
7.604604e+000 -3.293715e+000 -6.344420e-001 35 21 17
7.612890e+000 -3.245307e+000 -6.228909e-001 75 64 60
7.993721e+000 -3.368118e+000 -7.071911e-001 104 98 94
7.987305e+000 -3.239782e+000 -5.531116e-001 158 178 184
6.524874e+000 -3.387285e+000 1.240214e-001 57 48 42
6.563713e+000 -3.453615e+000 1.331182e-001 102 97 89
7.959667e+000 -3.643292e+000 -4.914462e-001 112 104 101
6.331463e+000 -2.694513e+000 -2.565292e-001 50 41 39
6.201234e+000 -2.774340e+000 -2.219231e-001 57 50 47
5.382511e+000 -3.418849e+000 -7.128136e-001 150 143 145
5.726867e+000 -3.063178e+000 -3.173572e-001 96 89 81
6.139923e+000 -2.862474e+000 -1.870629e-001 68 67 62
5.885938e+000 -3.195669e+000 -1.474113e-001 130 134 131
6.051307e+000 -3.076392e+000 -3.518732e-002 137 137 129
6.336236e+000 -2.910487e+000 2.872791e-002 92 87 81
5.795849e+000 -3.304837e+000 -1.597205e-001 57 48 53
5.794348e+000 -3.329935e+000 -9.984097e-002 45 43 48
5.908772e+000 -3.258614e+000 -6.317643e-002 67 63 64
8.274806e+000 -3.003351e+000 -9.625251e-001 47 36 30
6.114481e+000 -3.243339e+000 2.316560e-002 58 57 52
6.247083e+000 -3.299606e+000 8.753862e-002 98 95 90
6.493685e+000 -3.368237e+000 1.345097e-001 118 115 108
6.546083e+000 -3.337311e+000 1.186865e-001 85 81 72
6.570903e+000 -3.369600e+000 1.142946e-001 47 37 36
6.392133e+000 -3.446517e+000 1.418985e-001 48 44 45
6.463679e+000 -3.407105e+000 1.413712e-001 48 40 39
6.623114e+000 -3.388722e+000 1.042951e-001 45 36 29
8.022369e+000 -3.332844e+000 -3.651837e-001 176 195 205
6.280956e+000 -2.756302e+000 -1.977301e-001 75 64 60
6.148049e+000 -2.928638e+000 -1.099677e-001 83 74 65
6.206960e+000 -2.928578e+000 1.822343e-003 138 145 138
6.404565e+000 -2.924755e+000 5.954851e-002 103 96 88
6.404273e+000 -2.928880e+000 5.511603e-002 103 96 88
5.998450e+000 -3.147831e+000 -3.217414e-002 131 132 126
6.017403e+000 -3.221066e+000 -1.091538e-002 126 131 120
6.055465e+000 -3.288931e+000 4.538389e-003 49 44 43
6.253070e+000 -3.211225e+000 5.811781e-002 154 156 142
8.101653e+000 -3.089308e+000 -7.705683e-001 41 27 20
6.820670e+000 -3.179124e+000 -4.380670e-002 81 61 50
7.589998e+000 -3.991492e+000 -9.188335e-001 160 142 93
8.064873e+000 -3.285824e+000 -3.383017e-001 108 106 110
7.968609e+000 -3.574378e+000 -4.616535e-001 134 132 133
6.251171e+000 -3.697951e+000 4.380375e-001 58 47 53
6.517204e+000 -2.635035e+000 -3.442781e-001 34 23 19
6.502901e+000 -2.739263e+000 -2.858507e-001 37 28 23
6.069132e+000 -2.950649e+000 -1.102924e-001 61 56 52
6.596436e+000 -2.950762e+000 -2.002859e-002 76 61 52
6.054800e+000 -3.287664e+000 1.458746e-002 65 57 55
6.110158e+000 -3.307755e+000 1.469581e-002 134 139 132
6.774831e+000 -3.108557e+000 -5.437585e-002 71 59 43
6.655359e+000 -3.340644e+000 7.143490e-002 56 46 37
7.805607e+000 -3.895079e+000 -6.834846e-001 84 71 63
6.999720e+000 -3.944685e+000 -2.207211e-001 155 133 84
6.158882e+000 -2.882858e+000 -1.260310e-001 111 112 104
6.870456e+000 -2.990838e+000 -3.934443e-001 69 46 30
5.856531e+000 -3.254321e+000 -9.102118e-002 136 135 133
5.854482e+000 -3.315483e+000 -4.051936e-002 53 48 53
7.968163e+000 -3.057204e+000 -6.818802e-001 90 74 60
7.841435e+000 -3.356368e+000 -6.419393e-001 87 79 77
6.225472e+000 -3.480987e+000 1.746312e-001 30 21 26
5.970021e+000 -3.007895e+000 -1.369317e-001 113 118 111
7.982048e+000 -3.229657e+000 -4.950292e-001 100 95 94
6.132016e+000 -3.696987e+000 4.177233e-001 26 17 22
8.073283e+000 -3.821334e+000 -4.919503e-001 86 72 63
7.996807e+000 -3.021694e+000 -8.062764e-001 85 74 55
5.680307e+000 -2.799079e+000 -3.039352e-001 47 30 36
9.199413e+000 -3.243030e+000 -5.743392e-001 174 161 116
7.996092e+000 -3.316748e+000 -4.153609e-001 187 209 213
7.666756e+000 -2.359829e+000 -9.241136e-001 70 52 41
6.409078e+000 -2.887824e+000 3.012083e-002 61 53 45
7.571679e+000 -2.594189e+000 -7.839777e-001 71 54 46
7.555111e+000 -2.719380e+000 -6.991662e-001 68 53 46
7.909174e+000 -2.608767e+000 -9.151037e-001 90 71 54
9.154786e+000 -2.231816e+000 -7.796921e-001 153 141 91
6.359586e+000 -2.842330e+000 1.097359e-002 88 85 78
8.193371e+000 -1.693873e+000 -2.338981e+000 140 125 86
7.697766e+000 -2.395897e+000 -8.899506e-001 90 74 61
6.209635e+000 -2.733136e+000 -2.619692e-001 138 144 137
7.999931e+000 -3.573102e+000 -7.144342e-001 56 48 45
7.526815e+000 -2.429152e+000 -8.869443e-001 91 75 62
5.979851e+000 -2.892311e+000 -2.213141e-001 133 132 130
6.006227e+000 -2.872899e+000 -2.274572e-001 72 69 62
6.378247e+000 -2.813736e+000 -1.002596e-001 63 51 46
6.049728e+000 -3.076196e+000 -3.522111e-002 137 137 129
7.316344e+000 -3.343955e+000 -7.408241e-001 44 33 31
7.316247e+000 -3.344270e+000 -7.415074e-001 44 33 31
6.596197e+000 -3.445218e+000 1.110309e-001 69 60 51
6.383597e+000 -2.866308e+000 4.226160e-003 118 116 107
8.890631e+000 -2.699609e+000 -1.158308e+000 135 121 76
6.847122e+000 -3.025189e+000 -3.449523e-001 32 21 17
6.327322e+000 -3.269684e+000 9.213771e-002 135 137 132
9.124781e+000 -2.951085e+000 -7.441236e-001 143 126 77
8.169719e+000 -3.190357e+000 -3.223732e-001 109 96 84
6.234522e+000 -3.003535e+000 2.570140e-002 128 128 120
7.449765e+000 -2.939673e+000 -5.809716e-001 80 69 65
8.933020e+000 -2.661575e+000 -1.105052e+000 138 119 79
5.951485e+000 -3.276393e+000 -2.899720e-002 145 148 143
6.072547e+000 -2.159069e+000 -3.136273e-001 79 63 71
8.708363e+000 -2.982685e+000 -1.400149e+000 62 46 34
7.420359e+000 -2.116684e+000 -1.036791e+000 111 102 102
6.180412e+000 -2.797296e+000 -1.821005e-001 134 137 130
5.431698e+000 -3.500776e+000 -6.494536e-001 173 165 158
5.457452e+000 -3.464321e+000 -5.748073e-001 101 93 92
5.445926e+000 -3.512412e+000 -6.759593e-001 82 69 61
6.265550e+000 -2.801679e+000 -1.779479e-001 56 49 44
6.265550e+000 -2.801679e+000 -1.779479e-001 56 49 44
5.424617e+000 -3.690969e+000 -6.023815e-001 167 166 158
5.550066e+000 -3.586860e+000 -6.778917e-001 37 33 32
6.121093e+000 -2.927273e+000 -8.044892e-002 92 88 77
5.889820e+000 -3.249774e+000 -6.783909e-002 131 130 126
6.324590e+000 -2.895242e+000 9.615431e-003 50 42 39
8.030475e+000 -2.766981e+000 -8.514745e-001 69 51 39
5.807630e+000 -3.382927e+000 2.546590e-003 90 94 102
6.401870e+000 -3.172321e+000 9.132314e-002 135 133 121
6.474491e+000 -3.094298e+000 7.495007e-002 62 54 48
6.529961e+000 -3.108469e+000 3.122459e-002 112 109 100
6.542881e+000 -3.136334e+000 6.033122e-002 59 55 48
7.703154e+000 -3.072009e+000 -5.563540e-001 110 103 96
6.626300e+000 -3.149251e+000 5.288487e-002 59 51 39
6.843970e+000 -3.307299e+000 -4.630462e-003 113 99 88
6.636517e+000 -3.462474e+000 6.649257e-002 107 96 86
7.661343e+000 -2.140023e+000 -1.777456e+000 99 87 90
7.367412e+000 -2.380074e+000 -1.709257e+000 104 94 93
7.372617e+000 -2.393834e+000 -1.731550e+000 104 94 93
7.351352e+000 -2.164157e+000 -1.059722e+000 82 72 75
8.025695e+000 -2.534056e+000 -1.675700e+000 62 43 29
7.297500e+000 -2.668793e+000 -1.031335e+000 65 54 57
7.601507e+000 -2.444213e+000 -8.923160e-001 62 45 37
5.373509e+000 -3.502921e+000 -7.413869e-001 90 77 83
6.105791e+000 -2.800403e+000 -2.336956e-001 70 65 62
6.353767e+000 -2.721559e+000 -2.316222e-001 109 100 95
5.453124e+000 -3.526927e+000 -6.523426e-001 136 131 122
5.472557e+000 -3.527459e+000 -6.558530e-001 64 51 43
5.931490e+000 -2.995342e+000 -1.697470e-001 154 155 147
6.147346e+000 -2.872693e+000 -1.465010e-001 145 149 135
6.283530e+000 -2.788865e+000 -2.121273e-001 59 59 44
6.343450e+000 -2.789217e+000 -1.578652e-001 120 116 110
6.342680e+000 -2.791094e+000 -1.598843e-001 120 116 110
6.486950e+000 -2.759133e+000 -2.027316e-001 56 47 38
5.495547e+000 -3.603046e+000 -6.710583e-001 65 52 44
5.733391e+000 -3.242941e+000 -2.392218e-001 36 42 60
6.231507e+000 -2.847037e+000 -8.360417e-002 48 47 45
7.778856e+000 -2.689259e+000 -8.138614e-001 62 46 33
5.675191e+000 -3.316505e+000 -1.450981e-001 76 96 116
6.145288e+000 -2.939208e+000 -3.417438e-002 141 138 129
6.191999e+000 -2.932402e+000 -7.743937e-003 92 93 85
6.334356e+000 -2.829276e+000 -2.548498e-002 61 60 58
5.503035e+000 -3.588550e+000 -3.478880e-001 82 81 88
5.833616e+000 -3.276488e+000 -1.177041e-001 90 90 92
6.051240e+000 -3.124906e+000 -1.061713e-002 163 166 159
6.220418e+000 -2.940085e+000 2.460226e-002 109 109 104
6.334912e+000 -2.919082e+000 3.690405e-002 105 105 97
6.352478e+000 -2.915091e+000 4.543046e-002 53 43 41
6.362710e+000 -2.927903e+000 5.437905e-002 100 94 86
6.374390e+000 -2.849993e+000 4.306862e-002 79 70 61
6.389517e+000 -2.907617e+000 2.891639e-002 39 34 29
5.788976e+000 -3.360630e+000 -7.341038e-002 251 253 254
5.791470e+000 -3.351309e+000 -6.534320e-002 251 253 254
6.305066e+000 -3.016373e+000 6.779875e-002 139 137 128
6.352877e+000 -2.974837e+000 5.865593e-002 128 122 110
6.466120e+000 -2.898565e+000 3.292500e-002 88 79 72
8.049050e+000 -2.910366e+000 -9.053586e-001 60 46 33
8.046080e+000 -2.865457e+000 -8.703562e-001 100 87 71
6.445779e+000 -3.034137e+000 4.559932e-002 108 99 93
8.260325e+000 -2.944287e+000 -8.305297e-001 126 120 108
6.310735e+000 -3.214152e+000 7.742749e-002 149 158 154
6.510015e+000 -3.108525e+000 5.300677e-002 111 107 98
6.549131e+000 -3.084445e+000 2.836875e-002 126 119 113
6.331399e+000 -3.297423e+000 1.057112e-001 62 53 48
6.490220e+000 -3.226983e+000 9.809555e-002 69 64 57
6.591460e+000 -3.186751e+000 6.327221e-002 98 90 77
6.590606e+000 -3.182835e+000 6.735087e-002 98 90 77
7.991839e+000 -3.273293e+000 -6.890919e-001 81 72 65
6.733460e+000 -3.323571e+000 5.767271e-002 59 51 38
8.038335e+000 -3.200099e+000 -5.521061e-001 71 54 46
6.693606e+000 -3.427311e+000 8.520129e-002 53 39 31
9.119998e+000 -3.138371e+000 -8.138488e-001 128 119 88
6.865603e+000 -4.248072e+000 1.154153e-001 142 114 103
6.934815e+000 -4.278552e+000 1.638837e-001 164 143 100
7.576521e+000 -2.179214e+000 -1.772083e+000 126 114 118
7.333196e+000 -2.533856e+000 -1.341554e+000 77 66 68
7.325721e+000 -2.409170e+000 -9.043235e-001 65 55 59
7.476707e+000 -2.353959e+000 -8.944629e-001 60 41 34
7.482990e+000 -2.378062e+000 -8.702362e-001 55 41 32
5.399422e+000 -3.450311e+000 -7.255046e-001 70 52 50
6.083582e+000 -2.793151e+000 -2.587681e-001 45 39 39
6.345370e+000 -2.689458e+000 -2.679855e-001 49 39 36
7.632615e+000 -2.423452e+000 -9.049520e-001 64 48 35
5.827787e+000 -2.982370e+000 -2.380651e-001 157 160 158
5.952001e+000 -2.884535e+000 -2.268550e-001 130 129 124
5.952001e+000 -2.884535e+000 -2.268550e-001 130 129 124
6.008017e+000 -2.864145e+000 -2.653509e-001 127 119 116
6.015602e+000 -2.889617e+000 -2.038336e-001 162 166 165
6.015630e+000 -2.889509e+000 -2.037238e-001 162 166 165
6.086405e+000 -2.826257e+000 -2.291462e-001 54 44 39
6.113182e+000 -2.830748e+000 -2.167570e-001 62 56 51
6.159862e+000 -2.824150e+000 -1.791989e-001 151 155 148
6.508213e+000 -2.681968e+000 -2.802025e-001 112 107 101
6.601012e+000 -2.678020e+000 -3.862905e-001 68 54 43
5.908060e+000 -3.039224e+000 -1.794535e-001 130 130 118
6.084649e+000 -2.877043e+000 -1.518397e-001 146 149 140
6.085201e+000 -2.876522e+000 -1.509613e-001 146 149 140
6.064217e+000 -2.943587e+000 -1.708770e-001 65 54 51
6.114831e+000 -2.895349e+000 -1.292459e-001 66 63 56
6.190270e+000 -2.847374e+000 -1.239921e-001 147 150 142
6.467863e+000 -2.764168e+000 -1.950190e-001 112 108 100
7.298062e+000 -2.845339e+000 -9.880257e-001 52 40 42
7.736038e+000 -2.529183e+000 -8.500265e-001 71 53 40
7.754202e+000 -2.593108e+000 -8.367579e-001 70 53 41
7.754202e+000 -2.593108e+000 -8.367579e-001 70 53 41
5.477191e+000 -3.631473e+000 -6.595101e-001 69 58 52
6.139244e+000 -2.907013e+000 -1.006853e-001 84 80 71
6.139414e+000 -2.903049e+000 -9.565869e-002 84 80 71
6.287024e+000 -2.846684e+000 -1.060896e-001 100 104 102
7.368321e+000 -2.726103e+000 -6.560688e-001 83 72 64
7.569518e+000 -2.727733e+000 -8.396584e-001 60 46 36
7.722106e+000 -2.649190e+000 -8.257671e-001 67 53 40
5.408415e+000 -3.658600e+000 -4.542382e-001 91 88 106
6.013570e+000 -3.061974e+000 -1.105761e-001 121 120 112
6.520141e+000 -2.809960e+000 -1.254912e-001 40 25 20
7.305119e+000 -2.850227e+000 -6.100113e-001 82 69 63
6.163056e+000 -3.021707e+000 2.625779e-002 158 170 163
6.845402e+000 -2.976180e+000 -3.017498e-001 31 17 14
7.280275e+000 -2.941724e+000 -6.168033e-001 44 36 32
7.790378e+000 -2.805290e+000 -7.356528e-001 66 48 42
7.848020e+000 -2.751064e+000 -7.735533e-001 88 71 61
5.705879e+000 -3.414428e+000 -5.278366e-002 79 86 103
5.803804e+000 -3.335464e+000 -1.423130e-002 44 45 49
5.941965e+000 -3.250503e+000 -3.781586e-002 139 139 134
6.479875e+000 -2.921325e+000 3.017202e-002 44 31 25
7.719610e+000 -2.855155e+000 -6.585034e-001 90 78 64
7.740045e+000 -2.845247e+000 -6.399585e-001 58 44 33
7.819873e+000 -2.896248e+000 -7.554979e-001 57 43 30
7.819873e+000 -2.896248e+000 -7.554979e-001 57 43 30
5.768875e+000 -3.380488e+000 -1.973110e-003 26 31 37
6.160990e+000 -3.213345e+000 3.509661e-002 95 95 84
6.308329e+000 -3.120226e+000 8.721335e-002 143 143 133
7.355295e+000 -3.244173e+000 -7.427703e-001 38 27 25
6.236397e+000 -3.237946e+000 6.657790e-002 168 169 164
6.339929e+000 -3.209377e+000 7.736472e-002 136 139 132
6.388781e+000 -3.159607e+000 8.510616e-002 82 75 66
6.631231e+000 -3.073106e+000 1.586279e-002 42 30 24
6.631765e+000 -3.075404e+000 1.286918e-002 42 30 24
7.392690e+000 -3.330299e+000 -7.382760e-001 41 28 22
7.718485e+000 -3.065518e+000 -5.782968e-001 51 41 32
6.523634e+000 -3.223974e+000 9.227150e-002 106 105 93
6.642088e+000 -3.159665e+000 2.480673e-002 100 97 85
7.728189e+000 -3.251399e+000 -5.913379e-001 47 33 30
7.995404e+000 -3.196167e+000 -6.295769e-001 70 52 47
8.180860e+000 -3.194379e+000 -6.577134e-001 126 113 105
6.525036e+000 -3.383617e+000 1.286745e-001 58 49 42
7.984613e+000 -3.425585e+000 -7.347936e-001 64 51 49
7.984275e+000 -3.481775e+000 -7.065002e-001 69 59 54
8.065116e+000 -3.193747e+000 -5.108399e-001 102 85 69
7.991791e+000 -3.287973e+000 -4.745693e-001 124 108 111
6.026056e+000 -3.728009e+000 2.790390e-001 32 22 30
8.062414e+000 -3.309143e+000 -3.120063e-001 157 165 170
5.989766e+000 -3.854278e+000 4.558900e-001 34 17 25
7.583793e+000 -2.219717e+000 -1.919336e+000 81 68 63
7.336920e+000 -2.555188e+000 -1.131125e+000 45 35 37
7.364062e+000 -2.443910e+000 -9.582396e-001 96 91 97
7.405960e+000 -2.311794e+000 -8.962366e-001 66 48 41
7.394761e+000 -2.435403e+000 -9.778752e-001 68 50 49
7.411673e+000 -2.412424e+000 -8.599825e-001 88 73 68
7.459143e+000 -2.385952e+000 -8.986691e-001 85 72 64
7.547943e+000 -2.404211e+000 -8.760351e-001 65 51 38
7.548475e+000 -2.405355e+000 -8.770478e-001 65 51 38
7.721652e+000 -2.341220e+000 -9.652881e-001 70 52 42
5.939406e+000 -2.848190e+000 -2.700283e-001 111 103 101
6.039786e+000 -2.818318e+000 -2.281543e-001 54 44 42
6.036860e+000 -2.838333e+000 -2.549926e-001 54 44 42
7.220688e+000 -2.759555e+000 -1.038307e+000 43 29 30
7.449755e+000 -2.460031e+000 -8.352225e-001 62 47 42
5.904342e+000 -2.965109e+000 -2.072966e-001 72 64 58
5.995994e+000 -2.913269e+000 -2.042081e-001 50 41 37
6.069280e+000 -2.854457e+000 -1.898961e-001 68 62 58
6.069280e+000 -2.854457e+000 -1.898961e-001 68 62 58
6.259483e+000 -2.778896e+000 -2.051896e-001 62 57 48
6.598942e+000 -2.663482e+000 -2.778421e-001 67 50 45
6.452190e+000 -2.774856e+000 -1.862190e-001 56 47 38
5.814150e+000 -3.131961e+000 -2.324401e-001 42 34 40
6.222719e+000 -2.847631e+000 -1.119633e-001 128 133 127
6.387380e+000 -2.805824e+000 -1.561484e-001 94 90 87
6.387380e+000 -2.805824e+000 -1.561484e-001 94 90 87
6.593065e+000 -2.807389e+000 -2.180803e-001 64 46 32
7.530252e+000 -2.722803e+000 -7.300663e-001 87 76 67
7.556946e+000 -2.638747e+000 -7.283235e-001 95 83 67
6.040208e+000 -3.017878e+000 -8.257833e-002 85 85 77
6.496871e+000 -2.813931e+000 -9.980716e-002 61 46 39
6.496980e+000 -2.818960e+000 -1.059496e-001 61 46 39
5.818432e+000 -3.311428e+000 -1.215254e-001 118 116 117
5.926923e+000 -3.201543e+000 -9.151038e-002 73 69 66
6.052080e+000 -3.083072e+000 -4.182143e-002 155 152 147
6.045453e+000 -3.112720e+000 -3.154682e-002 101 98 89
6.081106e+000 -3.083896e+000 -2.668403e-003 84 82 79
6.276035e+000 -2.906858e+000 3.656263e-002 89 87 80
6.390722e+000 -2.863230e+000 1.762750e-002 135 131 117
7.313781e+000 -2.964632e+000 -6.419277e-001 75 61 58
7.441710e+000 -2.917345e+000 -6.118530e-001 62 48 45
5.592256e+000 -3.607374e+000 -2.715807e-001 129 128 124
6.003259e+000 -3.182512e+000 -1.962592e-002 76 63 63
6.084823e+000 -3.164562e+000 1.934372e-002 161 158 151
6.155112e+000 -3.071252e+000 3.424651e-002 147 148 140
5.657480e+000 -3.488976e+000 -6.039760e-002 53 57 63
5.705336e+000 -3.421653e+000 -9.740640e-003 248 254 254
5.824477e+000 -3.364041e+000 -1.995390e-002 203 251 255
5.831231e+000 -3.341687e+000 3.169023e-004 203 251 255
6.167067e+000 -3.233966e+000 4.404628e-002 123 122 119
6.425618e+000 -3.072059e+000 3.994810e-002 125 120 110
7.299543e+000 -3.280722e+000 -7.284962e-001 31 25 21
6.484686e+000 -3.129815e+000 6.026705e-002 127 124 119
6.484343e+000 -3.142428e+000 4.688212e-002 127 124 119
7.041058e+000 -3.433762e+000 -6.491778e-001 79 60 46
7.544860e+000 -3.121030e+000 -5.702649e-001 58 45 36
7.672147e+000 -3.218983e+000 -6.727085e-001 88 77 73
7.640613e+000 -3.046343e+000 -5.416389e-001 62 53 44
7.626630e+000 -3.197008e+000 -5.976549e-001 54 43 37
7.828519e+000 -3.140688e+000 -6.286459e-001 95 82 75
6.590095e+000 -3.217554e+000 7.066293e-002 51 41 39
7.986221e+000 -3.224564e+000 -5.390994e-001 157 188 193
8.016671e+000 -3.266931e+000 -5.461837e-001 107 99 90
6.729026e+000 -3.405869e+000 4.786574e-002 57 45 31
7.594609e+000 -3.883555e+000 -8.767224e-001 53 36 31
8.004144e+000 -3.586386e+000 -6.803012e-001 89 84 81
7.155317e+000 -3.847080e+000 -4.541951e-001 166 147 96
7.986929e+000 -3.437002e+000 -4.246914e-001 115 105 103
8.017513e+000 -3.364906e+000 -3.565574e-001 128 113 107
8.115072e+000 -3.193620e+000 -3.220378e-001 97 90 80
8.003008e+000 -3.450602e+000 -3.633670e-001 108 101 90
8.034005e+000 -3.415280e+000 -3.336334e-001 110 102 99
8.151333e+000 -3.218310e+000 -2.370837e-001 185 201 214
8.147734e+000 -3.273372e+000 -2.168831e-001 161 168 175
8.083894e+000 -3.663708e+000 -4.022789e-001 133 124 115
5.594615e+000 -2.471966e+000 -3.493451e-001 43 25 37
7.350234e+000 -2.413430e+000 -1.729527e+000 71 53 53
7.370673e+000 -2.367748e+000 -1.613980e+000 117 107 115
7.334053e+000 -2.418315e+000 -1.597495e+000 112 99 110
7.377517e+000 -2.183645e+000 -1.015005e+000 136 134 135
6.027770e+000 -2.783737e+000 -2.821323e-001 45 35 34
6.137504e+000 -2.696673e+000 -1.781028e-001 104 99 95
6.359318e+000 -2.676352e+000 -2.721924e-001 117 114 99
6.359318e+000 -2.676352e+000 -2.721924e-001 117 114 99
5.502403e+000 -3.343832e+000 -6.040984e-001 120 117 110
5.879393e+000 -2.961045e+000 -2.561264e-001 123 120 113
6.325331e+000 -2.717590e+000 -1.765932e-001 116 113 106
5.454699e+000 -3.605068e+000 -6.645265e-001 152 144 141
6.244944e+000 -2.837470e+000 -1.458555e-001 72 60 56
6.244944e+000 -2.837470e+000 -1.458555e-001 72 60 56
6.569030e+000 -2.742077e+000 -2.177077e-001 41 21 22
7.674426e+000 -2.620914e+000 -8.022341e-001 91 75 62
9.008596e+000 -2.219771e+000 -9.951228e-001 151 139 89
6.481119e+000 -2.828920e+000 -5.899075e-002 39 25 22
6.821546e+000 -2.932100e+000 -4.069343e-001 34 22 26
5.603971e+000 -3.497783e+000 -2.538285e-001 116 114 117
5.733028e+000 -3.289739e+000 -1.183132e-001 49 44 51
5.933777e+000 -3.209956e+000 -5.817374e-002 139 135 132
5.936870e+000 -3.206623e+000 -5.617735e-002 139 135 132
6.147412e+000 -3.048055e+000 2.352039e-002 57 56 53
6.461784e+000 -2.873591e+000 -2.681664e-002 42 28 26
6.040072e+000 -3.170945e+000 -1.870359e-002 56 46 44
6.226847e+000 -3.044431e+000 4.128296e-002 100 97 92
6.226847e+000 -3.044431e+000 4.128296e-002 100 97 92
6.439125e+000 -2.935531e+000 4.957471e-002 55 41 38
5.734558e+000 -3.419237e+000 2.217745e-002 30 34 45
6.460717e+000 -3.057279e+000 5.465496e-002 55 47 44
6.460650e+000 -3.056936e+000 5.503646e-002 55 47 44
6.315929e+000 -3.191219e+000 6.208642e-002 85 77 70
6.315770e+000 -3.193429e+000 5.994857e-002 85 77 70
6.525325e+000 -3.129186e+000 6.941625e-002 39 34 29
6.454096e+000 -3.198949e+000 6.442963e-002 49 40 35
6.782577e+000 -3.135586e+000 -1.204237e-002 62 46 37
7.215044e+000 -3.842728e+000 -8.482257e-001 77 50 41
7.680968e+000 -3.361825e+000 -6.268168e-001 78 63 58
6.300030e+000 -3.484636e+000 1.300740e-001 35 25 26
6.597724e+000 -3.347166e+000 1.019641e-001 95 91 81
8.013813e+000 -3.472867e+000 -7.450089e-001 99 92 86
8.015176e+000 -3.291230e+000 -5.282053e-001 187 221 230
6.182154e+000 -3.477628e+000 3.323044e-001 34 22 26
6.527100e+000 -3.496209e+000 1.496024e-001 35 25 26
7.996828e+000 -3.532276e+000 -4.951463e-001 142 138 137
8.158018e+000 -3.188961e+000 -2.504586e-001 100 92 85
8.160374e+000 -3.282886e+000 -1.899164e-001 114 99 97
5.715378e+000 -2.305915e+000 -3.531105e-001 23 16 23
5.484354e+000 -2.670204e+000 -3.982694e-001 102 98 123
6.325125e+000 -2.612696e+000 -3.266555e-001 29 20 18
7.284880e+000 -2.737994e+000 -1.208746e+000 32 17 20
6.578786e+000 -2.622490e+000 -3.691978e-001 69 52 42
6.613681e+000 -2.645912e+000 -4.443608e-001 30 16 13
5.973898e+000 -2.878911e+000 -2.654273e-001 63 55 52
7.303442e+000 -2.714907e+000 -9.594691e-001 33 20 20
8.022903e+000 -2.537286e+000 -1.020775e+000 100 84 63
5.439882e+000 -3.619461e+000 -5.656517e-001 133 130 123
6.311794e+000 -2.819185e+000 -1.312157e-001 41 33 30
7.391964e+000 -2.709776e+000 -6.641088e-001 87 77 67
6.562491e+000 -2.812824e+000 -1.516907e-001 72 54 42
9.142096e+000 -2.056354e+000 -7.759360e-001 160 150 102
9.142096e+000 -2.056354e+000 -7.759360e-001 160 150 102
5.996173e+000 -3.156818e+000 -4.206094e-002 144 143 138
6.185568e+000 -2.972300e+000 2.232740e-002 93 92 85
6.378460e+000 -2.910023e+000 3.315461e-002 53 47 43
6.497468e+000 -2.885075e+000 -4.991171e-003 76 61 54
6.719429e+000 -2.999894e+000 -1.458754e-001 25 13 13
6.202212e+000 -3.205242e+000 4.829421e-002 91 88 79
6.191182e+000 -3.264978e+000 3.942289e-002 127 130 123
8.437598e+000 -3.171365e+000 -1.070062e+000 51 36 23
6.733681e+000 -3.167099e+000 1.457629e-002 50 35 34
6.226767e+000 -3.414556e+000 8.310538e-002 39 29 29
6.329837e+000 -3.361799e+000 1.139537e-001 44 32 28
6.790798e+000 -3.367040e+000 2.665686e-002 44 29 23
7.630254e+000 -4.117697e+000 -1.074063e+000 169 151 104
7.986376e+000 -3.942197e+000 -7.207722e-001 44 33 31
8.076285e+000 -3.300068e+000 -2.956155e-001 154 163 167
6.868412e+000 -4.346561e+000 9.353167e-002 157 137 84
7.380222e+000 -2.670802e+000 -8.066281e-001 83 77 71
5.788389e+000 -3.485522e+000 3.965165e-002 29 24 31
6.124766e+000 -3.361856e+000 2.694004e-002 37 31 31
6.090725e+000 -3.492391e+000 2.438638e-001 38 23 28
6.362200e+000 -3.638674e+000 2.605074e-001 44 31 31
5.809397e+000 -3.905307e+000 3.913702e-001 76 63 73
6.099544e+000 -2.123560e+000 -2.465561e-001 68 51 59
7.376919e+000 -2.098661e+000 -1.070312e+000 141 140 146
6.263361e+000 -2.207723e+000 -1.825703e-001 54 39 42
5.718870e+000 -2.988376e+000 -2.854433e-001 161 161 159
6.288676e+000 -2.965112e+000 4.832202e-002 63 52 48
5.851633e+000 -3.328450e+000 -5.293461e-002 37 33 37
6.462115e+000 -2.939781e+000 4.423310e-002 58 47 41
6.005502e+000 -3.272281e+000 -2.288421e-002 126 128 125
6.911207e+000 -4.154606e+000 -3.851633e-002 60 32 28
6.079006e+000 -4.245107e+000 3.864027e-001 65 44 52
6.558271e+000 -2.686303e+000 -2.684820e-001 71 57 44
5.981228e+000 -3.758850e+000 3.712650e-001 25 15 23
7.442695e+000 -2.429130e+000 -9.226813e-001 65 50 47
7.869755e+000 -3.213562e+000 -6.070751e-001 59 49 47
6.160902e+000 -2.233431e+000 -2.636433e-001 35 24 30
7.265283e+000 -2.685241e+000 -1.091271e+000 28 13 16
5.861818e+000 -3.161234e+000 -1.907778e-001 41 32 40
5.864496e+000 -3.154322e+000 -1.842828e-001 41 32 40
7.425309e+000 -2.806968e+000 -6.268019e-001 61 48 42
7.205847e+000 -3.438683e+000 -8.431676e-001 84 74 62
8.091989e+000 -3.190721e+000 -6.990102e-001 35 24 21
7.621862e+000 -2.511535e+000 -8.395302e-001 61 44 38
7.622819e+000 -2.512601e+000 -8.413748e-001 61 44 38
7.862561e+000 -2.471404e+000 -9.478221e-001 96 78 54
5.707561e+000 -3.011820e+000 -4.631085e-002 80 74 74
7.601770e+000 -2.762336e+000 -6.214646e-001 89 77 63
6.857385e+000 -4.201726e+000 7.379513e-002 60 34 29
6.856466e+000 -4.593371e+000 6.272243e-002 161 138 86
8.597810e+000 -3.324608e+000 -1.155051e+000 68 55 42
8.597810e+000 -3.324608e+000 -1.155051e+000 68 55 42
7.914424e+000 -3.877743e+000 -7.371637e-001 52 42 40
9.091132e+000 -4.053462e+000 -6.919270e-001 168 152 104
5.864349e+000 -2.294995e+000 -5.442645e-001 68 58 67
5.692258e+000 -3.427621e+000 -1.113595e-001 105 102 119
6.233439e+000 -3.024030e+000 5.305471e-002 93 90 83
6.342147e+000 -2.992627e+000 6.781965e-002 95 91 83
7.582790e+000 -3.020953e+000 -5.884398e-001 85 74 70
8.281494e+000 -3.002388e+000 -1.020571e+000 70 59 53
6.473924e+000 -3.294587e+000 1.437020e-001 106 104 92
6.507613e+000 -3.271525e+000 1.756217e-001 66 59 53
7.167179e+000 -3.768104e+000 -4.234824e-001 130 108 68
6.256026e+000 -2.665761e+000 -2.714133e-001 94 84 83
5.825812e+000 -3.031303e+000 -2.317340e-001 91 90 88
5.852922e+000 -2.956583e+000 -2.534584e-001 91 83 81
6.022866e+000 -2.884518e+000 -2.600965e-001 116 110 107
6.395693e+000 -2.731717e+000 -2.026640e-001 51 49 51
6.439563e+000 -2.740757e+000 -2.152979e-001 85 78 73
6.104924e+000 -2.936821e+000 -6.529495e-002 121 125 118
6.266620e+000 -2.855496e+000 -1.040240e-001 41 37 41
6.265848e+000 -2.870393e+000 -1.193235e-001 41 37 41
7.893214e+000 -2.614497e+000 -9.203136e-001 61 43 33
8.032496e+000 -2.631020e+000 -1.041044e+000 99 82 65
5.482674e+000 -3.640270e+000 -3.253945e-001 133 128 132
5.482674e+000 -3.640270e+000 -3.253945e-001 133 128 132
5.944720e+000 -3.130028e+000 -8.935372e-002 88 85 82
7.875213e+000 -2.811682e+000 -8.149868e-001 100 87 70
6.021274e+000 -3.287947e+000 -1.723874e-002 126 128 123
6.058493e+000 -3.251164e+000 -2.921446e-003 136 135 131
6.197677e+000 -3.128359e+000 5.612808e-002 131 131 124
6.433018e+000 -2.904517e+000 4.113135e-002 103 94 86
6.398129e+000 -3.077406e+000 5.970004e-002 127 121 115
8.225572e+000 -2.870507e+000 -8.799128e-001 65 60 57
6.371994e+000 -3.192234e+000 8.109182e-002 129 128 124
6.453650e+000 -3.117694e+000 6.777011e-002 66 62 56
6.530451e+000 -3.034052e+000 6.945853e-002 75 71 63
6.529054e+000 -3.073917e+000 6.412632e-002 110 105 101
6.525023e+000 -3.458646e+000 1.390816e-001 85 78 72
6.667169e+000 -3.405686e+000 1.228439e-001 59 50 45
6.968890e+000 -4.189383e+000 1.351818e-002 138 120 74
9.445160e+000 -2.726296e+000 1.241549e-001 146 134 89
5.635872e+000 -2.445499e+000 -5.636856e-001 61 51 59
7.539833e+000 -2.392735e+000 -2.058437e+000 70 59 53
5.472778e+000 -2.701161e+000 -4.774435e-001 61 44 63
7.316749e+000 -2.474729e+000 -1.646740e+000 60 51 55
7.965734e+000 -2.561036e+000 -1.848766e+000 63 40 28
8.012152e+000 -2.594004e+000 -1.898619e+000 79 60 46
7.941379e+000 -2.509615e+000 -1.643923e+000 79 60 51
7.941379e+000 -2.509615e+000 -1.643923e+000 79 60 51
6.247672e+000 -2.715911e+000 -2.466143e-001 134 138 138
7.709142e+000 -2.413759e+000 -9.177774e-001 97 81 66
5.675610e+000 -3.388008e+000 -4.028656e-001 101 107 122
6.295369e+000 -2.743579e+000 -2.004689e-001 59 53 49
7.273524e+000 -2.888508e+000 -1.062697e+000 34 24 23
7.954880e+000 -2.556386e+000 -9.978145e-001 103 85 71
5.878652e+000 -3.091291e+000 -1.868535e-001 93 83 85
7.641424e+000 -2.638318e+000 -8.069587e-001 62 48 39
5.785831e+000 -3.309869e+000 -2.155039e-001 97 91 101
6.074592e+000 -3.026160e+000 -4.525978e-002 139 140 134
6.084023e+000 -3.065962e+000 1.458377e-002 95 90 86
6.119970e+000 -3.019503e+000 -2.599130e-003 65 54 52
5.999196e+000 -3.300182e+000 -1.538398e-002 143 148 144
6.338623e+000 -3.023058e+000 6.888404e-002 95 88 86
6.417318e+000 -2.977082e+000 5.682754e-002 120 119 114
7.409193e+000 -2.930159e+000 -5.998263e-001 81 73 70
7.503742e+000 -2.902329e+000 -6.205614e-001 58 45 39
7.707400e+000 -2.877373e+000 -6.893718e-001 58 46 32
7.412480e+000 -3.325897e+000 -7.100498e-001 64 53 51
6.613293e+000 -3.163148e+000 5.669915e-002 114 106 99
6.566837e+000 -3.194391e+000 7.646634e-002 113 109 97
6.641795e+000 -3.151661e+000 3.247961e-002 110 101 94
7.776825e+000 -3.254882e+000 -6.309914e-001 73 61 60
7.921280e+000 -3.083386e+000 -6.394713e-001 87 73 60
7.982312e+000 -3.196024e+000 -6.688970e-001 109 111 108
7.985387e+000 -3.208620e+000 -6.053171e-001 143 150 161
6.541848e+000 -3.419127e+000 1.412308e-001 63 54 49
6.560278e+000 -3.414627e+000 1.625369e-001 106 96 94
6.087954e+000 -3.543396e+000 4.883351e-001 29 20 25
8.030264e+000 -3.384873e+000 -3.426565e-001 146 149 154
8.013338e+000 -3.284405e+000 -2.837633e-001 114 111 109
7.992058e+000 -3.540943e+000 -3.797315e-001 107 100 97
8.000150e+000 -3.501499e+000 -3.742390e-001 143 139 138
8.151513e+000 -3.232862e+000 -2.147964e-001 120 117 122
6.888479e+000 -4.005666e+000 1.697630e-001 83 54 50
6.675646e+000 -2.295227e+000 -1.489301e+000 79 54 34
7.550786e+000 -2.288596e+000 -1.944988e+000 70 63 62
5.970105e+000 -2.364541e+000 -2.334096e-001 36 24 34
5.881410e+000 -2.409723e+000 -2.216321e-001 36 26 35
7.371984e+000 -2.155076e+000 -1.037095e+000 129 134 139
7.371950e+000 -2.155688e+000 -1.037932e+000 129 134 139
7.368561e+000 -2.499249e+000 -1.417965e+000 81 71 72
7.057127e+000 -2.960519e+000 -1.359303e+000 59 40 44
7.453796e+000 -2.447332e+000 -9.031818e-001 63 49 42
7.448780e+000 -2.457744e+000 -8.328549e-001 68 53 46
7.723394e+000 -2.345481e+000 -9.693634e-001 68 51 41
5.802363e+000 -2.991543e+000 -2.777500e-001 85 77 74
5.916545e+000 -2.967879e+000 -2.994759e-001 72 64 61
6.089029e+000 -2.862968e+000 -2.243098e-001 126 127 122
6.286820e+000 -2.707830e+000 -2.207535e-001 113 114 109
6.569545e+000 -2.661318e+000 -3.175974e-001 70 54 40
7.799342e+000 -2.417143e+000 -9.935630e-001 65 50 32
5.502291e+000 -3.636991e+000 -6.664242e-001 130 122 119
6.198156e+000 -2.832526e+000 -1.876263e-001 60 57 52
6.411541e+000 -2.727034e+000 -2.235919e-001 75 71 69
7.982322e+000 -2.550705e+000 -1.025077e+000 73 56 45
7.437259e+000 -2.700325e+000 -6.905955e-001 60 51 42
7.555874e+000 -2.636023e+000 -7.247177e-001 89 78 72
5.839025e+000 -3.243671e+000 -1.377016e-001 136 137 131
5.950510e+000 -3.146559e+000 -7.819562e-002 142 137 134
7.425928e+000 -2.754608e+000 -7.058737e-001 90 80 71
5.710796e+000 -3.474922e+000 -1.978402e-001 66 55 65
5.833119e+000 -3.393961e+000 -2.933016e-003 27 25 35
6.243825e+000 -2.986332e+000 6.502813e-002 141 137 134
6.650534e+000 -2.909705e+000 -7.807810e-002 65 50 44
8.224601e+000 -2.922687e+000 -9.792707e-001 52 41 34
9.147244e+000 -2.111483e+000 -7.109156e-001 145 133 91
6.167497e+000 -3.359325e+000 3.829903e-002 96 95 93
6.194114e+000 -3.317954e+000 3.701062e-002 59 57 58
6.576849e+000 -3.086864e+000 4.175559e-002 65 58 52
7.541120e+000 -3.193359e+000 -6.033272e-001 78 64 64
7.667495e+000 -3.251288e+000 -6.001003e-001 52 38 35
7.738241e+000 -3.225012e+000 -6.093871e-001 47 35 34
7.320044e+000 -3.822947e+000 -7.684810e-001 86 63 56
8.001428e+000 -3.190890e+000 -5.496682e-001 85 72 66
7.652528e+000 -3.803789e+000 -7.708179e-001 55 41 38
7.985381e+000 -3.383464e+000 -4.144521e-001 143 148 151
7.617665e+000 -2.332461e+000 -2.044086e+000 117 106 118
6.288874e+000 -2.188438e+000 -2.582960e-001 25 14 18
6.872607e+000 -2.409201e+000 -1.178484e+000 60 40 32
6.777471e+000 -2.493024e+000 -6.232674e-001 51 32 36
7.314366e+000 -2.571124e+000 -1.035596e+000 41 30 39
5.743571e+000 -3.145301e+000 -3.589792e-001 105 104 102
5.871881e+000 -3.088346e+000 -2.238047e-001 66 58 56
5.871881e+000 -3.088346e+000 -2.238047e-001 66 58 56
5.974958e+000 -2.969393e+000 -1.735616e-001 67 56 60
6.563902e+000 -2.881496e+000 -1.328024e-001 70 56 45
6.561170e+000 -2.838070e+000 -8.769264e-002 70 56 45
6.115218e+000 -3.170079e+000 -1.606436e-003 87 88 81
6.213111e+000 -3.079373e+000 7.932601e-002 87 83 80
6.247176e+000 -3.076573e+000 6.081190e-002 139 138 136
6.325606e+000 -3.070672e+000 7.975681e-002 85 82 77
6.649737e+000 -2.975564e+000 -3.650653e-002 49 33 20
7.166748e+000 -3.400671e+000 -5.659740e-001 89 73 60
6.337505e+000 -3.439094e+000 1.374230e-001 110 108 109
6.446057e+000 -3.303600e+000 1.094964e-001 114 119 115
6.427185e+000 -3.375696e+000 1.587668e-001 126 127 122
6.493531e+000 -3.376970e+000 1.274452e-001 124 130 116
6.490273e+000 -3.470981e+000 1.532112e-001 87 78 73
6.684390e+000 -3.460295e+000 1.112994e-001 82 67 60
8.062498e+000 -3.257130e+000 -3.081954e-001 114 105 106
6.765832e+000 -4.114466e+000 1.881377e-001 49 29 31
5.843343e+000 -2.319955e+000 -4.623869e-001 31 22 27
6.208415e+000 -2.260938e+000 -2.840893e-001 21 12 17
5.923138e+000 -2.438709e+000 -1.005659e-001 34 23 29
7.285053e+000 -2.659345e+000 -1.478882e+000 42 29 21
7.783930e+000 -2.366124e+000 -1.024433e+000 98 81 68
5.646229e+000 -3.338038e+000 -2.026190e-001 133 162 190
9.016833e+000 -2.169742e+000 -9.282481e-001 155 142 98
9.034787e+000 -2.185237e+000 -9.552131e-001 155 142 98
5.692474e+000 -3.585586e+000 5.043143e-003 105 102 129
6.159657e+000 -3.161778e+000 4.794968e-002 147 148 143
5.998334e+000 -3.377519e+000 1.608585e-001 50 43 50
7.524696e+000 -3.198832e+000 -6.681444e-001 86 75 73
9.130641e+000 -2.389276e+000 -7.439607e-001 148 135 91
7.972081e+000 -3.109175e+000 -6.411461e-001 45 33 26
7.277770e+000 -3.855628e+000 -8.136805e-001 163 142 93
6.528924e+000 -3.510212e+000 2.439726e-001 30 21 23
6.722821e+000 -4.237680e+000 1.062810e-001 138 108 80
6.722821e+000 -4.237680e+000 1.062810e-001 138 108 80
6.903733e+000 -4.150244e+000 2.068345e-001 82 59 41
5.526226e+000 -2.726074e+000 -4.120897e-001 47 34 50
7.188818e+000 -2.893142e+000 -1.919125e+000 69 52 42
6.702376e+000 -2.527534e+000 -7.756276e-001 37 22 25
5.404998e+000 -3.397780e+000 -8.306867e-001 133 134 129
6.629908e+000 -2.697552e+000 -2.755662e-001 24 15 18
7.324962e+000 -2.908523e+000 -1.021181e+000 31 22 25
6.126506e+000 -2.941841e+000 -5.362215e-002 142 143 137
5.714574e+000 -3.474267e+000 1.987388e-002 29 27 38
6.045082e+000 -3.316133e+000 -6.074150e-003 69 61 62
6.777299e+000 -3.107305e+000 -5.294025e-002 81 65 49
9.046351e+000 -2.498817e+000 -8.787987e-001 142 129 85
9.265852e+000 -2.175669e+000 -5.398434e-001 172 168 130
7.373918e+000 -2.097358e+000 -1.062986e+000 146 149 158
5.701389e+000 -2.507083e+000 -1.581808e-001 66 53 66
5.686645e+000 -2.553725e+000 -2.131227e-001 66 53 66
6.873671e+000 -2.763438e+000 -8.025233e-001 79 62 55
7.958860e+000 -2.567263e+000 -9.524022e-001 74 56 42
5.925887e+000 -3.366677e+000 -2.716815e-002 29 22 29
7.965252e+000 -3.029374e+000 -6.612626e-001 93 78 60
6.862725e+000 -3.217901e+000 -1.606234e-001 26 16 11
7.060769e+000 -3.565710e+000 -6.001719e-001 65 43 30
7.724028e+000 -3.116608e+000 -5.755673e-001 96 87 82
5.797933e+000 -3.694386e+000 4.162380e-001 72 58 71
6.883913e+000 -3.899688e+000 1.787975e-002 147 125 85
7.682441e+000 -2.317557e+000 -1.030654e+000 98 84 71
6.446382e+000 -2.831076e+000 -3.196478e-002 52 39 31
7.991476e+000 -2.494591e+000 -2.259125e+000 109 93 70
6.709963e+000 -2.626634e+000 -4.918873e-001 63 41 29
7.625035e+000 -3.758633e+000 -7.562969e-001 60 46 43
7.769384e+000 -3.431134e+000 -6.211811e-001 84 74 72
7.613928e+000 -2.804668e+000 -6.653743e-001 94 82 68
7.333571e+000 -2.623186e+000 -1.509277e+000 59 46 55
7.103105e+000 -2.689282e+000 -2.088088e+000 147 120 90
8.166435e+000 -2.810842e+000 -1.075533e+000 84 66 57
6.186440e+000 -2.899918e+000 -2.391812e-002 72 68 65
6.848268e+000 -3.003953e+000 -3.528805e-001 32 21 18
7.287843e+000 -2.952758e+000 -6.312404e-001 52 42 41
7.305497e+000 -3.436700e+000 -6.548021e-001 70 59 56
8.006166e+000 -2.535067e+000 -1.689087e+000 84 65 51
7.554839e+000 -2.436067e+000 -8.582829e-001 68 53 46
7.307469e+000 -2.854339e+000 -6.132351e-001 81 69 66
7.841203e+000 -2.671332e+000 -8.964495e-001 63 46 36
7.398479e+000 -3.274973e+000 -7.348345e-001 38 27 26
6.672523e+000 -3.260132e+000 6.272686e-002 127 118 114
8.016510e+000 -3.243968e+000 -4.542017e-001 111 105 105
7.325665e+000 -2.543113e+000 -1.449562e+000 91 80 88
5.496996e+000 -3.588178e+000 -6.655811e-001 56 40 37
6.290698e+000 -2.878185e+000 -3.382573e-002 26 25 24
7.329686e+000 -2.811200e+000 -6.428900e-001 90 79 71
7.738553e+000 -2.807115e+000 -7.120704e-001 57 43 32
7.800775e+000 -2.762610e+000 -7.436351e-001 92 79 63
6.586970e+000 -2.911956e+000 -4.357026e-002 48 31 23
7.707234e+000 -2.891065e+000 -6.569900e-001 61 46 39
7.713324e+000 -2.903478e+000 -6.716217e-001 61 46 39
7.995872e+000 -2.855629e+000 -8.412767e-001 94 81 64
7.594014e+000 -2.948884e+000 -6.017132e-001 87 79 68
7.595817e+000 -2.950683e+000 -6.043415e-001 87 79 68
7.986936e+000 -3.344795e+000 -4.156845e-001 114 109 108
8.141255e+000 -3.159779e+000 -2.605924e-001 128 127 123
8.141255e+000 -3.159779e+000 -2.605924e-001 128 127 123
8.236496e+000 -1.725385e+000 -2.448649e+000 145 130 87
7.400321e+000 -2.158242e+000 -1.030250e+000 70 61 66
7.484646e+000 -2.765878e+000 -6.597426e-001 87 77 70
7.482297e+000 -2.761608e+000 -6.541095e-001 87 77 70
7.559706e+000 -2.911622e+000 -6.277490e-001 66 56 48
7.555054e+000 -2.899198e+000 -6.137316e-001 66 56 48
7.811175e+000 -3.015645e+000 -5.932609e-001 72 58 54
9.270424e+000 -2.181451e+000 -4.717137e-001 145 135 99
6.008789e+000 -2.822476e+000 -2.819506e-001 98 90 88
7.299847e+000 -2.678138e+000 -1.080447e+000 72 62 70
5.443261e+000 -3.653527e+000 -6.071791e-001 143 139 135
6.179901e+000 -2.804137e+000 -1.935477e-001 146 150 143
6.329208e+000 -2.711467e+000 -2.407039e-001 89 81 79
7.291268e+000 -2.708012e+000 -7.350751e-001 74 73 71
6.034718e+000 -3.064901e+000 -7.516337e-002 77 74 65
6.192136e+000 -2.908960e+000 -1.222137e-002 133 133 131
5.813965e+000 -3.379884e+000 -1.273511e-002 61 72 84
5.844205e+000 -3.336840e+000 -4.668597e-002 31 28 37
6.252400e+000 -2.927689e+000 3.337917e-002 74 73 69
6.379035e+000 -2.900604e+000 2.093090e-002 85 77 74
6.395813e+000 -2.845056e+000 -8.325598e-003 61 51 42
6.210263e+000 -3.045108e+000 3.639274e-002 98 97 92
7.996493e+000 -2.832033e+000 -8.601316e-001 95 78 68
7.996493e+000 -2.832033e+000 -8.601316e-001 95 78 68
9.237214e+000 -1.988361e+000 -6.098937e-001 154 146 100
6.593970e+000 -3.297004e+000 9.739250e-002 97 90 79
7.347183e+000 -2.130453e+000 -1.076526e+000 76 70 74
7.243709e+000 -2.747629e+000 -1.081324e+000 74 59 62
5.898820e+000 -2.970598e+000 -1.839167e-001 158 159 154
7.250850e+000 -2.736646e+000 -9.750754e-001 40 26 26
7.573407e+000 -2.428367e+000 -8.702418e-001 96 82 73
6.190491e+000 -2.865789e+000 -1.035401e-001 75 71 66
7.897198e+000 -2.623642e+000 -9.319106e-001 62 40 27
5.658565e+000 -3.488178e+000 -2.158909e-002 248 254 254
6.026587e+000 -3.122348e+000 -1.754062e-002 140 140 138
5.699665e+000 -3.449145e+000 1.477532e-002 91 99 111
6.469178e+000 -2.927664e+000 3.339159e-002 52 38 33
7.977264e+000 -2.730236e+000 -8.425841e-001 58 42 31
7.977264e+000 -2.730236e+000 -8.425841e-001 58 42 31
8.054289e+000 -2.788170e+000 -9.334058e-001 61 47 37
6.428069e+000 -3.109632e+000 5.823231e-002 130 131 122
6.425072e+000 -3.057973e+000 5.284593e-002 128 124 114
7.046341e+000 -3.443119e+000 -6.224790e-001 83 65 51
8.021915e+000 -2.866113e+000 -8.497005e-001 57 40 30
7.291641e+000 -3.443880e+000 -6.689536e-001 74 65 60
6.302639e+000 -3.432877e+000 1.062681e-001 84 79 75
