ply
format ascii 1.0
element face 0
property list uchar int vertex_indices
element vertex 889
property float x
property float y
property float z
property uchar diffuse_red
property uchar diffuse_green
property uchar diffuse_blue
end_header
7.482818e+000 -3.468220e+000 -6.247486e-001 71 55 54
8.011227e+000 -3.669936e+000 -3.817352e-001 121 107 94
8.032327e+000 -3.828947e+000 -4.785359e-001 81 61 47
8.921142e+000 -4.064992e+000 -5.707677e-001 155 135 84
8.935065e+000 -4.071475e+000 -5.970180e-001 155 135 84
8.934674e+000 -2.134640e+000 -7.525646e-001 159 143 92
8.786525e+000 -2.324917e+000 -9.848742e-001 160 144 92
7.345782e+000 -2.397269e+000 -8.466102e-001 116 112 103
7.899672e+000 -2.722471e+000 -8.944856e-001 98 77 53
6.048483e+000 -2.938499e+000 -2.281049e-001 154 155 139
6.488561e+000 -3.094896e+000 -4.559102e-003 102 101 89
6.442160e+000 -3.150727e+000 2.860275e-002 77 69 58
6.442160e+000 -3.150727e+000 2.860275e-002 77 69 58
7.551304e+000 -3.257983e+000 -6.128245e-001 37 19 19
7.645399e+000 -3.280921e+000 -6.561502e-001 71 54 49
7.867735e+000 -3.307211e+000 -6.568779e-001 64 49 49
7.267208e+000 -3.452112e+000 -6.341112e-001 85 62 56
7.267699e+000 -3.451352e+000 -6.319637e-001 85 62 56
8.067192e+000 -3.677681e+000 -3.605113e-001 117 101 86
7.948422e+000 -3.721681e+000 -4.387327e-001 122 111 97
7.863376e+000 -3.921439e+000 -5.892444e-001 74 54 43
7.863376e+000 -3.921439e+000 -5.892444e-001 74 54 43
7.314145e+000 -2.268980e+000 -9.742550e-001 93 82 84
7.371193e+000 -2.305695e+000 -8.986495e-001 102 93 84
8.824603e+000 -2.592616e+000 -9.321362e-001 151 135 85
7.979627e+000 -2.626300e+000 -9.808235e-001 102 82 68
6.427107e+000 -3.106964e+000 1.599468e-002 51 42 38
8.903086e+000 -3.051724e+000 -7.248319e-001 169 156 121
8.900256e+000 -3.051337e+000 -7.216463e-001 169 156 121
6.342460e+000 -3.244199e+000 2.217632e-003 52 47 44
6.213696e+000 -3.793027e+000 3.735134e-001 74 63 69
8.954803e+000 -2.358837e+000 -7.080568e-001 187 172 115
8.145877e+000 -3.621250e+000 -3.328425e-001 121 102 88
6.202910e+000 -3.284130e+000 -4.393925e-002 101 97 88
7.382125e+000 -4.046917e+000 -9.674573e-001 175 149 99
7.280168e+000 -2.553159e+000 -1.294157e+000 113 104 109
5.883221e+000 -2.762634e+000 -2.005946e-001 96 80 83
7.236606e+000 -2.822306e+000 -1.054480e+000 68 56 56
7.236606e+000 -2.822306e+000 -1.054480e+000 68 56 56
6.142513e+000 -3.000423e+000 -9.548376e-002 101 99 86
6.277541e+000 -2.934817e+000 -3.739941e-002 143 141 126
8.010529e+000 -2.872412e+000 -9.984149e-001 95 79 64
6.064940e+000 -3.027834e+000 -1.882229e-001 140 138 123
6.340463e+000 -3.043258e+000 5.893827e-002 113 107 95
6.517414e+000 -3.001089e+000 3.086161e-002 48 38 29
5.641506e+000 -3.255881e+000 -6.558376e-001 85 81 69
6.167880e+000 -3.167730e+000 -1.939186e-002 103 94 85
6.245643e+000 -3.186636e+000 -2.597571e-002 124 122 108
6.319430e+000 -3.156538e+000 -3.600954e-003 88 88 77
6.384156e+000 -3.129129e+000 9.415378e-003 82 78 67
6.447484e+000 -3.117539e+000 2.990625e-002 84 73 67
6.204249e+000 -3.210116e+000 -2.017555e-002 80 71 69
6.284929e+000 -3.219883e+000 7.690291e-003 96 90 78
6.398681e+000 -3.206383e+000 2.033966e-002 119 116 109
8.910954e+000 -3.107527e+000 -7.824549e-001 128 120 88
8.084810e+000 -3.249299e+000 -2.134804e-001 163 173 172
9.136147e+000 -3.206330e+000 -3.435452e-001 159 139 88
6.748472e+000 -3.403858e+000 3.759732e-003 61 41 30
7.883991e+000 -3.399848e+000 -4.291559e-001 115 117 117
6.662633e+000 -3.548454e+000 1.989183e-001 65 49 34
5.581711e+000 -2.577231e+000 -5.001929e-001 65 49 62
6.513191e+000 -2.697264e+000 -2.999854e-001 66 53 47
7.037949e+000 -2.564874e+000 -9.193300e-001 172 136 114
7.292826e+000 -2.535036e+000 -1.296636e+000 70 59 60
7.738537e+000 -2.647200e+000 -8.534207e-001 65 43 30
7.738537e+000 -2.647200e+000 -8.534207e-001 65 43 30
6.369115e+000 -2.801557e+000 -2.453820e-001 107 99 87
6.365570e+000 -2.840885e+000 -1.463681e-001 72 65 60
6.434931e+000 -2.832431e+000 -1.117946e-001 98 85 70
8.052752e+000 -2.665760e+000 -1.022021e+000 134 128 110
6.161976e+000 -2.889480e+000 -2.316657e-001 132 125 115
6.213690e+000 -2.923411e+000 -7.935113e-002 89 80 71
6.332367e+000 -2.892670e+000 -7.711214e-002 74 68 68
6.409928e+000 -2.929647e+000 -1.949609e-002 68 53 46
6.013957e+000 -3.033136e+000 -2.232771e-001 141 134 126
8.107623e+000 -2.895197e+000 -9.292186e-001 85 75 64
8.066707e+000 -2.893381e+000 -6.559229e-001 79 71 60
6.194096e+000 -3.095586e+000 -3.150097e-002 130 128 115
6.361914e+000 -3.099661e+000 1.248767e-002 85 79 65
5.676372e+000 -3.228728e+000 -5.708257e-001 154 150 141
6.161400e+000 -3.154944e+000 -4.174121e-002 156 157 146
6.146175e+000 -3.230529e+000 -5.048706e-002 146 147 132
6.284794e+000 -3.235098e+000 -8.376177e-004 125 123 110
6.523446e+000 -3.193025e+000 2.053018e-002 97 91 81
6.505764e+000 -3.266813e+000 4.696638e-002 66 57 50
7.895844e+000 -3.284146e+000 -6.918000e-001 135 140 138
8.363612e+000 -3.200690e+000 -3.513995e-001 128 110 95
8.363612e+000 -3.200690e+000 -3.513995e-001 128 110 95
8.374128e+000 -3.199454e+000 -3.198297e-001 58 44 31
6.389456e+000 -3.321845e+000 3.287665e-002 32 25 19
6.389456e+000 -3.321845e+000 3.287665e-002 32 25 19
8.044697e+000 -3.297754e+000 -2.361738e-001 183 196 196
6.851492e+000 -3.368508e+000 8.081078e-003 58 39 25
7.435577e+000 -3.407760e+000 -5.618500e-001 50 35 29
7.803083e+000 -3.562611e+000 -7.085563e-001 43 30 21
7.862947e+000 -3.563522e+000 -4.658118e-001 136 141 131
7.861637e+000 -3.569031e+000 -4.043623e-001 90 81 72
5.916915e+000 -3.561624e+000 2.780882e-001 62 56 64
7.660233e+000 -3.711550e+000 -7.858268e-001 73 60 52
5.882774e+000 -3.648287e+000 3.397706e-001 29 18 24
6.953284e+000 -3.754988e+000 -4.124640e-001 58 35 21
7.636094e+000 -3.727127e+000 -7.027053e-001 50 35 30
6.221652e+000 -3.669647e+000 3.317343e-001 34 24 32
6.157130e+000 -3.768440e+000 3.663382e-001 27 20 28
7.664358e+000 -2.464000e+000 -7.941584e-001 100 81 66
7.019576e+000 -2.548247e+000 -9.437424e-001 114 78 64
6.353030e+000 -2.854866e+000 -1.489979e-001 97 93 80
6.397253e+000 -2.789342e+000 -2.107098e-001 76 67 52
6.666056e+000 -2.774209e+000 -3.099317e-001 28 18 17
7.715132e+000 -2.692166e+000 -7.607388e-001 89 70 55
6.071660e+000 -2.897921e+000 -2.612044e-001 138 131 123
6.144915e+000 -2.913476e+000 -1.926781e-001 85 78 70
6.178481e+000 -2.916731e+000 -1.782835e-001 142 140 128
6.178481e+000 -2.916731e+000 -1.782835e-001 142 140 128
6.202272e+000 -2.868152e+000 -1.968292e-001 93 84 76
6.288931e+000 -2.912377e+000 -3.153817e-002 143 148 131
6.425567e+000 -2.855634e+000 -4.230168e-002 98 88 75
6.452672e+000 -2.874997e+000 -3.676965e-002 137 141 124
6.451549e+000 -2.875030e+000 -5.079389e-002 137 141 124
7.753454e+000 -2.802273e+000 -7.474575e-001 65 47 33
6.303115e+000 -2.977028e+000 7.608088e-003 97 90 80
6.394245e+000 -2.923329e+000 -2.675630e-002 84 76 65
6.394245e+000 -2.923329e+000 -2.675630e-002 84 76 65
7.281092e+000 -2.891874e+000 -5.766786e-001 62 44 42
5.965763e+000 -3.051705e+000 -2.396417e-001 142 142 130
6.144005e+000 -3.027199e+000 -8.849806e-002 107 104 88
6.295431e+000 -3.037500e+000 -2.139600e-002 97 94 79
6.485423e+000 -2.993701e+000 2.229482e-004 55 45 35
6.873644e+000 -3.019347e+000 -3.378638e-001 40 20 16
6.898900e+000 -3.024295e+000 -3.957698e-001 73 46 35
7.224632e+000 -2.960350e+000 -7.419771e-001 38 24 23
7.699439e+000 -2.936647e+000 -6.613662e-001 66 49 38
8.173287e+000 -2.963164e+000 -1.001034e+000 60 42 34
5.772929e+000 -3.140398e+000 -4.136449e-001 131 125 119
6.358019e+000 -3.084435e+000 1.025117e-002 151 149 136
6.275591e+000 -3.138411e+000 -3.624360e-002 104 98 85
6.394290e+000 -3.138641e+000 1.582350e-002 143 143 134
6.395632e+000 -3.138335e+000 1.705654e-002 143 143 134
6.427599e+000 -3.177622e+000 2.248382e-003 138 136 124
8.314273e+000 -3.126911e+000 -1.048541e+000 58 41 30
5.835332e+000 -3.265949e+000 -3.506583e-001 238 255 254
5.835332e+000 -3.265949e+000 -3.506583e-001 238 255 254
6.526701e+000 -3.231681e+000 3.828483e-002 81 73 60
6.688049e+000 -3.226446e+000 9.298028e-003 46 28 26
6.212342e+000 -3.271031e+000 -3.669872e-002 137 138 122
6.244116e+000 -3.262193e+000 -1.392755e-002 91 87 75
6.255143e+000 -3.301689e+000 -1.454370e-002 56 51 48
6.401901e+000 -3.272067e+000 3.687785e-002 67 58 49
6.443421e+000 -3.358716e+000 6.736132e-002 66 57 49
6.633107e+000 -3.302593e+000 4.115637e-002 114 105 97
6.642403e+000 -3.330817e+000 6.417558e-002 118 111 105
6.642403e+000 -3.330817e+000 6.417558e-002 118 111 105
7.276735e+000 -3.367883e+000 -6.482576e-001 47 32 29
7.534405e+000 -3.357187e+000 -6.684198e-001 51 33 29
7.882559e+000 -3.309903e+000 -6.284275e-001 131 136 132
7.942467e+000 -3.301127e+000 -3.359625e-001 117 113 101
6.388701e+000 -3.383583e+000 5.974695e-002 56 46 43
6.374776e+000 -3.393634e+000 7.464234e-002 43 33 31
6.571491e+000 -3.422397e+000 5.528349e-002 75 60 55
6.839734e+000 -3.363433e+000 -3.324122e-002 87 64 49
6.839875e+000 -3.364481e+000 -4.054289e-002 87 64 49
7.842372e+000 -3.498208e+000 -7.185845e-001 80 67 61
7.284468e+000 -3.634635e+000 -6.815578e-001 82 66 55
7.459036e+000 -3.746964e+000 -8.479715e-001 78 57 52
7.596490e+000 -3.685956e+000 -6.534585e-001 42 29 23
7.584794e+000 -3.729564e+000 -7.513570e-001 46 31 27
7.657464e+000 -3.707777e+000 -6.989178e-001 46 33 27
6.164519e+000 -3.632249e+000 2.745094e-001 38 28 29
7.867695e+000 -3.747265e+000 -6.733895e-001 38 27 25
5.960196e+000 -3.722579e+000 3.064838e-001 32 19 26
6.190033e+000 -3.693157e+000 3.045934e-001 26 16 23
7.665548e+000 -3.909017e+000 -8.133322e-001 52 37 32
6.175505e+000 -3.708748e+000 3.669072e-001 31 21 26
6.224153e+000 -3.758597e+000 3.173055e-001 66 54 58
7.559813e+000 -3.998436e+000 -1.059679e+000 82 60 36
6.190913e+000 -3.831001e+000 3.779965e-001 77 67 75
6.190913e+000 -3.831001e+000 3.779965e-001 77 67 75
6.174120e+000 -3.905244e+000 3.927351e-001 41 28 35
6.104999e+000 -4.042835e+000 3.744492e-001 81 69 70
6.104999e+000 -4.042835e+000 3.744492e-001 81 69 70
6.869604e+000 -4.183402e+000 1.194330e-001 161 143 98
8.981747e+000 -2.186917e+000 -7.637860e-001 158 141 89
7.332948e+000 -2.360353e+000 -8.527588e-001 111 106 100
7.713123e+000 -2.455217e+000 -9.282827e-001 73 51 37
7.285582e+000 -2.583253e+000 -1.264266e+000 56 47 52
6.162605e+000 -2.776165e+000 -3.224241e-001 45 36 37
6.466452e+000 -2.775379e+000 -2.141226e-001 130 124 112
7.766354e+000 -2.643250e+000 -8.667264e-001 95 74 56
6.204087e+000 -2.804429e+000 -2.729643e-001 87 81 73
6.382083e+000 -2.824556e+000 -1.805531e-001 76 72 61
6.418439e+000 -2.830710e+000 -9.095104e-002 124 121 106
7.277734e+000 -2.742213e+000 -6.853346e-001 155 170 164
7.277734e+000 -2.742213e+000 -6.853346e-001 155 170 164
6.258695e+000 -2.901158e+000 -6.702488e-002 73 70 58
6.407113e+000 -2.871800e+000 -4.657515e-002 124 118 102
7.465689e+000 -2.797980e+000 -6.264859e-001 69 55 46
6.030599e+000 -2.963190e+000 -2.145785e-001 95 89 77
6.121769e+000 -2.963973e+000 -1.754258e-001 85 79 65
6.195663e+000 -2.960738e+000 -1.087496e-001 136 131 119
6.700214e+000 -2.948887e+000 -1.362322e-001 76 57 47
7.466214e+000 -2.865522e+000 -6.166004e-001 87 75 63
7.635237e+000 -2.883515e+000 -6.676740e-001 67 49 35
6.084717e+000 -3.014098e+000 -1.921308e-001 81 78 63
6.169198e+000 -3.012959e+000 -8.296803e-002 143 144 130
6.207923e+000 -3.012209e+000 -2.882336e-002 98 88 78
6.192178e+000 -3.056001e+000 -6.001674e-002 158 155 145
6.415886e+000 -3.043629e+000 1.506236e-002 125 119 107
6.458092e+000 -3.038753e+000 1.094590e-002 64 50 43
6.527697e+000 -3.013266e+000 -1.068699e-002 88 77 71
6.642976e+000 -2.997662e+000 -5.304496e-002 41 31 24
6.782496e+000 -3.030298e+000 -1.560003e-001 51 34 28
7.513387e+000 -2.956354e+000 -5.852270e-001 67 50 43
8.076779e+000 -2.929407e+000 -9.352119e-001 89 75 62
8.113146e+000 -2.936293e+000 -9.424103e-001 51 34 30
5.700214e+000 -3.155458e+000 -5.604625e-001 101 93 88
5.823857e+000 -3.095650e+000 -4.092655e-001 96 82 72
6.063735e+000 -3.092991e+000 -1.236821e-001 142 133 124
6.384109e+000 -3.055579e+000 -1.356295e-002 73 60 54
6.452466e+000 -3.068666e+000 5.836891e-003 126 121 112
6.013222e+000 -3.160203e+000 -1.286213e-001 141 138 130
6.220862e+000 -3.188866e+000 -2.912156e-002 147 144 129
7.490286e+000 -3.105517e+000 -5.565998e-001 60 43 36
7.516932e+000 -3.108607e+000 -5.348985e-001 89 72 65
7.591467e+000 -3.130493e+000 -6.625438e-001 86 71 64
8.294064e+000 -3.109922e+000 -1.050936e+000 82 66 50
6.504118e+000 -3.225558e+000 4.535181e-002 72 59 51
7.962443e+000 -3.174920e+000 -3.998292e-001 106 93 77
6.179660e+000 -3.267276e+000 -5.120030e-002 135 130 123
6.703801e+000 -3.244700e+000 -1.458239e-005 84 65 58
6.372493e+000 -3.372196e+000 6.026259e-002 79 68 66
7.924248e+000 -3.294071e+000 -3.532277e-001 160 164 160
8.049966e+000 -3.276686e+000 -2.487251e-001 112 108 109
7.892626e+000 -3.356801e+000 -4.441127e-001 183 203 202
7.928052e+000 -3.369815e+000 -3.144698e-001 122 113 111
7.902286e+000 -3.524069e+000 -6.780066e-001 70 63 57
7.629647e+000 -3.626936e+000 -7.039757e-001 48 33 28
7.883375e+000 -3.536099e+000 -4.466310e-001 108 91 81
7.883375e+000 -3.536099e+000 -4.466310e-001 108 91 81
8.021175e+000 -3.636293e+000 -3.865312e-001 88 69 54
7.959743e+000 -3.756121e+000 -4.643504e-001 80 64 49
7.841373e+000 -3.966175e+000 -6.475737e-001 62 44 38
6.908711e+000 -4.142519e+000 -1.784223e-002 87 55 46
6.440591e+000 -4.200379e+000 2.497306e-001 36 22 24
6.397649e+000 -2.661024e+000 -3.340037e-001 55 45 43
6.553425e+000 -2.661566e+000 -3.412499e-001 59 41 39
7.339516e+000 -2.586076e+000 -8.287984e-001 109 106 97
6.431244e+000 -2.758358e+000 -2.430008e-001 59 46 37
6.635016e+000 -2.751204e+000 -2.850221e-001 88 71 55
6.124975e+000 -2.936563e+000 -1.823105e-001 154 149 135
6.654118e+000 -2.896775e+000 -1.352069e-001 79 57 44
8.709356e+000 -2.727956e+000 -1.103756e+000 141 123 73
6.043215e+000 -3.038127e+000 -1.789218e-001 152 144 135
6.243537e+000 -3.007562e+000 -3.100563e-002 152 152 140
6.332668e+000 -3.112251e+000 8.651688e-003 81 73 62
6.553292e+000 -3.045204e+000 -1.195136e-002 84 73 67
6.553292e+000 -3.045204e+000 -1.195136e-002 84 73 67
6.547244e+000 -3.071547e+000 -3.308255e-003 62 52 43
6.067349e+000 -3.205280e+000 -8.467276e-002 79 68 63
6.603966e+000 -3.111884e+000 -2.171175e-003 101 93 82
6.597586e+000 -3.187536e+000 2.841446e-002 87 80 74
6.316614e+000 -3.285110e+000 1.132895e-002 94 85 76
6.660515e+000 -3.262670e+000 6.352653e-002 74 59 52
7.271967e+000 -3.254587e+000 -6.995116e-001 37 24 18
7.271844e+000 -3.254047e+000 -7.078212e-001 37 24 18
7.894158e+000 -3.300463e+000 -4.865137e-001 184 205 203
7.224458e+000 -3.657381e+000 -7.860449e-001 86 62 50
9.142523e+000 -3.638584e+000 -3.831250e-001 153 135 87
6.182379e+000 -3.699678e+000 3.417846e-001 58 49 53
5.968740e+000 -3.827207e+000 3.682966e-001 46 31 38
5.971452e+000 -3.869959e+000 2.982661e-001 77 64 69
6.983930e+000 -3.998820e+000 -3.114799e-001 157 130 84
6.750859e+000 -4.193163e+000 -2.678466e-001 74 50 37
6.980287e+000 -4.157631e+000 6.109405e-002 166 143 93
8.762911e+000 -2.357166e+000 -1.028092e+000 157 137 87
7.923637e+000 -2.579816e+000 -9.821684e-001 99 81 61
7.919751e+000 -2.580919e+000 -9.621849e-001 99 81 61
8.859660e+000 -2.528463e+000 -9.706105e-001 176 161 101
6.432440e+000 -2.787004e+000 -2.039151e-001 67 57 45
5.648627e+000 -3.104669e+000 -6.218796e-001 77 64 90
6.000047e+000 -3.013197e+000 -2.276505e-001 83 74 67
6.240236e+000 -3.074586e+000 -5.351177e-003 143 142 133
6.258910e+000 -3.122722e+000 7.695456e-003 158 159 145
6.256298e+000 -3.123895e+000 -1.904836e-003 158 159 145
6.337876e+000 -3.083438e+000 1.394500e-002 142 141 129
6.511940e+000 -3.049971e+000 7.197505e-003 42 31 29
8.174663e+000 -3.080469e+000 -8.932676e-001 108 90 70
6.060210e+000 -3.242245e+000 -7.145779e-002 144 140 131
6.201229e+000 -3.232039e+000 -4.421671e-002 39 33 27
6.460485e+000 -3.204071e+000 3.615339e-002 149 146 134
6.146981e+000 -3.271363e+000 -5.466801e-002 57 48 45
6.146981e+000 -3.271363e+000 -5.466801e-002 57 48 45
6.543137e+000 -3.255787e+000 5.427046e-002 45 39 34
8.310445e+000 -3.224299e+000 -3.365614e-001 108 87 60
6.448080e+000 -3.411369e+000 6.917305e-002 43 32 36
6.514541e+000 -3.374293e+000 6.927510e-002 43 34 29
6.388944e+000 -3.430000e+000 1.394380e-001 40 28 27
6.988168e+000 -3.484019e+000 -3.021276e-001 90 59 37
7.200109e+000 -3.692587e+000 -6.231396e-001 91 66 51
7.733311e+000 -3.848794e+000 -6.861945e-001 76 62 55
6.951605e+000 -3.827472e+000 -2.502928e-001 58 30 26
8.163463e+000 -3.846627e+000 -5.481974e-001 109 88 64
6.161175e+000 -3.821535e+000 3.007976e-001 39 26 35
8.146453e+000 -4.929399e+000 -1.943858e+000 156 129 86
8.134774e+000 -4.910942e+000 -1.896120e+000 156 129 86
5.728149e+000 -2.502140e+000 -3.160885e-001 55 37 49
6.022159e+000 -2.488259e+000 -1.385766e-001 45 29 39
6.358381e+000 -2.653797e+000 -3.907793e-001 46 35 31
7.997048e+000 -3.081371e+000 -7.536976e-001 45 33 32
8.391311e+000 -3.238084e+000 -3.626763e-001 128 118 100
6.319916e+000 -3.495268e+000 2.495813e-001 43 28 33
6.784215e+000 -3.616576e+000 9.017083e-002 33 20 14
6.898631e+000 -2.312484e+000 -1.025424e+000 140 121 88
5.818130e+000 -2.615212e+000 -1.892886e-001 53 36 44
7.263764e+000 -2.569682e+000 -1.290486e+000 62 51 57
7.263764e+000 -2.569682e+000 -1.290486e+000 62 51 57
6.325840e+000 -2.879385e+000 -8.249617e-002 36 32 29
6.304901e+000 -2.937579e+000 -3.257057e-002 133 134 120
5.945279e+000 -3.149692e+000 -2.666907e-001 41 31 39
5.959765e+000 -3.222330e+000 -1.790594e-001 126 126 118
6.070020e+000 -3.307582e+000 -3.829967e-002 47 33 33
8.098726e+000 -3.245414e+000 -2.554158e-001 185 196 197
9.082758e+000 -3.666002e+000 -3.772333e-001 153 137 88
6.766284e+000 -4.181345e+000 -1.224014e-001 143 118 77
6.801561e+000 -2.744699e+000 -5.315920e-001 134 110 84
6.778617e+000 -3.071870e+000 -5.986487e-002 79 60 44
6.824719e+000 -3.165219e+000 -4.219500e-002 80 58 42
7.995235e+000 -3.553237e+000 -3.740618e-001 135 128 118
7.597466e+000 -3.796175e+000 -7.826353e-001 82 59 51
8.079449e+000 -3.632164e+000 -3.705825e-001 92 74 59
5.996763e+000 -3.935403e+000 1.974809e-001 72 55 64
5.931171e+000 -3.934069e+000 2.955182e-001 40 25 32
7.854132e+000 -3.405095e+000 -6.676137e-001 64 51 42
6.803816e+000 -3.479876e+000 -6.971557e-002 32 21 19
8.161026e+000 -3.730279e+000 -4.355358e-001 118 98 73
8.769287e+000 -4.016492e+000 -1.040305e+000 129 111 73
7.380109e+000 -2.817473e+000 -6.096482e-001 72 59 49
5.888392e+000 -3.598849e+000 2.935749e-001 37 26 32
7.244661e+000 -3.716873e+000 -8.094622e-001 59 38 33
6.419898e+000 -3.206845e+000 1.366191e-002 49 46 41
7.949683e+000 -3.112212e+000 -5.590188e-001 62 51 45
6.008403e+000 -3.811302e+000 8.171239e-002 38 23 28
7.484857e+000 -3.860643e+000 -9.582733e-001 45 30 28
7.450919e+000 -2.374170e+000 -1.009143e+000 91 78 64
7.450919e+000 -2.374170e+000 -1.009143e+000 91 78 64
9.024050e+000 -3.232317e+000 -5.963586e-001 179 166 111
8.341034e+000 -2.940234e+000 -8.317556e-001 53 33 24
6.509383e+000 -3.083652e+000 2.993487e-003 93 86 78
7.633448e+000 -3.061038e+000 -5.538718e-001 113 104 97
6.197864e+000 -3.268239e+000 -2.833873e-002 100 89 83
8.728951e+000 -2.358138e+000 -1.078664e+000 179 163 111
7.692285e+000 -2.473912e+000 -9.150540e-001 104 87 69
7.653348e+000 -2.640425e+000 -7.641849e-001 99 82 62
7.291914e+000 -2.813599e+000 -6.135379e-001 87 80 70
8.888023e+000 -3.039152e+000 -7.741097e-001 176 159 116
6.691611e+000 -3.379615e+000 3.534456e-002 87 74 66
6.436262e+000 -3.055048e+000 1.154891e-002 64 50 42
6.436240e+000 -3.054922e+000 1.245342e-002 64 50 42
7.835618e+000 -3.092981e+000 -6.381236e-001 87 71 58
7.856785e+000 -3.066017e+000 -6.339332e-001 56 42 26
7.990890e+000 -3.202925e+000 -3.297401e-001 143 137 125
6.213702e+000 -3.270012e+000 -2.928102e-002 130 126 116
7.810530e+000 -3.494672e+000 -6.978005e-001 49 31 27
7.517361e+000 -3.179352e+000 -6.011705e-001 48 30 25
7.547923e+000 -3.195066e+000 -6.176331e-001 73 55 49
7.769618e+000 -3.773889e+000 -6.756315e-001 48 33 30
8.172391e+000 -2.954895e+000 -8.648640e-001 59 27 33
8.315731e+000 -3.104888e+000 -1.039398e+000 83 69 57
6.690636e+000 -3.357721e+000 3.907922e-002 93 78 74
8.085818e+000 -3.366419e+000 -2.190963e-001 160 165 157
7.950490e+000 -3.576813e+000 -3.786164e-001 105 89 81
6.456242e+000 -2.689823e+000 -3.024839e-001 40 27 21
7.834730e+000 -2.598276e+000 -9.220527e-001 69 48 30
7.829966e+000 -2.675061e+000 -8.606718e-001 92 75 59
8.839741e+000 -3.092534e+000 -9.262236e-001 143 126 72
6.094207e+000 -3.227892e+000 -6.036845e-002 91 84 77
6.284008e+000 -3.235431e+000 -1.078466e-003 125 123 110
7.657464e+000 -3.662604e+000 -7.100435e-001 53 35 31
7.332680e+000 -2.747648e+000 -6.476722e-001 97 89 76
7.332680e+000 -2.747648e+000 -6.476722e-001 97 89 76
7.711810e+000 -2.813394e+000 -7.234365e-001 63 45 32
8.167929e+000 -2.931662e+000 -9.226204e-001 131 117 101
8.029038e+000 -3.065230e+000 -7.712160e-001 51 34 27
8.338824e+000 -3.200744e+000 -3.355565e-001 57 36 25
7.526419e+000 -3.565574e+000 -7.027877e-001 69 54 47
7.328841e+000 -3.714986e+000 -7.251152e-001 66 47 32
7.793526e+000 -3.768093e+000 -6.430526e-001 70 55 52
6.435603e+000 -2.885171e+000 -3.047917e-002 75 61 52
7.428530e+000 -2.919328e+000 -5.943432e-001 85 72 63
6.557166e+000 -2.983036e+000 -1.024886e-002 90 74 64
8.050896e+000 -3.591637e+000 -3.478868e-001 103 85 66
8.893779e+000 -2.178364e+000 -7.809472e-001 163 146 93
8.834681e+000 -2.256047e+000 -9.112094e-001 157 144 91
9.046920e+000 -2.251961e+000 -5.369882e-001 188 175 124
6.293677e+000 -2.766813e+000 -2.854466e-001 128 124 112
7.332284e+000 -2.650585e+000 -7.080661e-001 103 96 88
7.312708e+000 -2.165483e+000 -1.023891e+000 129 122 115
7.944655e+000 -2.796629e+000 -8.734171e-001 70 51 34
7.975102e+000 -2.923031e+000 -8.510178e-001 59 41 30
6.472472e+000 -3.145087e+000 1.642156e-002 87 75 66
6.210956e+000 -3.290097e+000 -3.882977e-002 92 89 80
7.986377e+000 -3.218974e+000 -3.460423e-001 155 146 143
6.540689e+000 -3.384456e+000 5.845099e-002 59 46 40
5.965758e+000 -2.577704e+000 -7.598664e-002 77 64 73
6.361658e+000 -2.729872e+000 -2.703027e-001 83 74 67
7.818297e+000 -2.629567e+000 -8.871479e-001 100 81 64
7.908756e+000 -2.834483e+000 -8.011356e-001 63 44 28
6.475271e+000 -2.955958e+000 4.722386e-003 73 58 53
6.565014e+000 -3.042542e+000 -1.022879e-002 87 80 70
6.202801e+000 -3.178222e+000 -2.625928e-002 110 107 95
6.341577e+000 -3.127848e+000 2.869764e-003 108 102 88
6.403682e+000 -3.101718e+000 1.577263e-002 110 101 91
6.716716e+000 -3.063847e+000 -4.951597e-002 41 26 22
5.836879e+000 -3.265580e+000 -1.601668e-001 51 50 57
6.352366e+000 -3.214736e+000 8.583720e-003 122 124 113
6.442461e+000 -3.186549e+000 2.764760e-002 98 91 82
6.279484e+000 -3.314695e+000 -1.617040e-002 53 46 40
6.560366e+000 -3.284077e+000 4.889106e-002 84 71 65
7.832421e+000 -3.298285e+000 -6.697702e-001 56 41 38
7.895922e+000 -3.261205e+000 -5.397311e-001 177 195 194
6.457711e+000 -3.351797e+000 5.905965e-002 78 70 63
7.445942e+000 -3.424139e+000 -6.509277e-001 56 37 30
7.422345e+000 -3.800076e+000 -8.980172e-001 45 28 21
7.625482e+000 -2.421965e+000 -8.829693e-001 97 81 65
7.590590e+000 -2.480896e+000 -8.461191e-001 102 84 72
7.617275e+000 -2.470268e+000 -8.803080e-001 72 54 44
7.617275e+000 -2.470268e+000 -8.803080e-001 72 54 44
7.731963e+000 -2.692905e+000 -8.443048e-001 94 74 63
6.037812e+000 -2.983358e+000 -1.807747e-001 153 153 139
6.037040e+000 -2.983868e+000 -1.840234e-001 153 153 139
7.773155e+000 -2.797865e+000 -7.431307e-001 94 77 67
6.577185e+000 -3.054203e+000 -1.628287e-002 57 46 40
6.511042e+000 -3.101302e+000 9.818230e-003 75 67 61
6.456501e+000 -3.167227e+000 1.863980e-002 120 114 102
7.508535e+000 -3.213502e+000 -6.705764e-001 73 58 53
7.700210e+000 -3.291280e+000 -6.488002e-001 74 60 57
7.716556e+000 -3.309559e+000 -6.403795e-001 50 40 35
8.019722e+000 -3.191129e+000 -3.481080e-001 139 130 125
7.465678e+000 -3.416918e+000 -6.401711e-001 77 60 53
6.424678e+000 -3.438676e+000 8.136765e-002 62 55 50
7.864085e+000 -3.502959e+000 -7.145288e-001 63 48 43
8.006134e+000 -3.663556e+000 -4.092015e-001 90 72 63
6.907396e+000 -4.101880e+000 2.191318e-002 77 48 36
6.864641e+000 -2.320814e+000 -8.098476e-001 167 145 115
8.672970e+000 -2.465144e+000 -1.175357e+000 146 128 80
6.227910e+000 -2.862198e+000 -2.099935e-001 93 94 86
6.097268e+000 -3.093212e+000 -8.993366e-002 85 82 77
7.485953e+000 -3.169569e+000 -5.806424e-001 71 56 51
6.015953e+000 -3.281488e+000 -9.040868e-002 104 99 96
6.491195e+000 -3.254328e+000 5.148468e-002 107 104 97
7.877718e+000 -3.223580e+000 -7.056973e-001 53 39 36
7.580054e+000 -3.316090e+000 -6.205074e-001 50 33 26
8.159911e+000 -3.154504e+000 -2.569653e-001 120 101 80
6.437445e+000 -3.384761e+000 6.648102e-002 83 74 66
6.569237e+000 -3.350527e+000 5.671340e-002 57 44 38
6.512608e+000 -3.421479e+000 7.829432e-002 51 42 33
5.902874e+000 -3.530858e+000 2.940555e-001 30 18 32
7.912146e+000 -3.480912e+000 -3.836984e-001 101 92 83
7.628219e+000 -3.627774e+000 -7.055036e-001 48 33 30
6.766923e+000 -4.379413e+000 3.643553e-002 158 140 95
8.649698e+000 -2.492850e+000 -1.211345e+000 148 132 81
7.606168e+000 -2.652445e+000 -7.651800e-001 85 69 54
6.055896e+000 -2.936349e+000 -1.980759e-001 151 148 136
8.092561e+000 -2.686024e+000 -9.432253e-001 60 43 35
6.066436e+000 -3.204214e+000 -7.795104e-002 75 65 63
8.071537e+000 -3.194004e+000 -2.328800e-001 105 97 93
7.308502e+000 -3.745967e+000 -6.747349e-001 100 78 64
8.637295e+000 -4.864148e+000 -1.081375e+000 156 136 83
6.233948e+000 -2.831406e+000 -2.300891e-001 136 137 129
8.737233e+000 -2.692895e+000 -1.048508e+000 143 126 75
6.710020e+000 -3.054433e+000 -6.925908e-002 44 30 28
6.011605e+000 -3.243639e+000 -1.103680e-001 58 49 42
6.659960e+000 -3.424769e+000 4.941296e-002 34 23 14
6.341220e+000 -3.242926e+000 1.005831e-002 45 38 34
6.307499e+000 -3.376210e+000 3.278440e-002 29 19 19
6.571303e+000 -3.463246e+000 6.970842e-002 35 23 21
7.255886e+000 -3.654674e+000 -7.176849e-001 48 30 26
7.227495e+000 -3.877003e+000 -9.531369e-001 159 141 100
6.425884e+000 -2.853423e+000 -6.071929e-002 114 105 96
6.660615e+000 -2.937665e+000 -8.674233e-002 71 52 38
7.792143e+000 -2.556150e+000 -1.004177e+000 101 82 65
6.089559e+000 -4.007376e+000 3.410108e-001 47 30 38
8.883750e+000 -3.037268e+000 -7.622781e-001 167 158 117
6.352961e+000 -3.215057e+000 1.922493e-003 125 121 110
7.401198e+000 -2.503249e+000 -7.906763e-001 74 58 43
7.555371e+000 -2.665841e+000 -7.738260e-001 97 80 66
7.715742e+000 -2.643542e+000 -8.501197e-001 97 78 63
7.429642e+000 -2.763516e+000 -6.531592e-001 97 83 72
6.403763e+000 -3.100333e+000 1.956922e-002 108 94 86
7.811250e+000 -3.075724e+000 -6.264731e-001 67 51 38
7.506633e+000 -3.148809e+000 -5.900272e-001 57 37 37
7.899722e+000 -3.468731e+000 -4.086540e-001 150 151 153
7.769448e+000 -4.077909e+000 -7.912853e-001 173 152 99
8.830989e+000 -2.256779e+000 -9.066382e-001 157 144 91
7.661261e+000 -2.571594e+000 -8.095636e-001 78 60 47
8.155808e+000 -2.890391e+000 -8.473064e-001 65 38 33
6.575400e+000 -3.082426e+000 -4.179228e-003 89 80 71
7.804001e+000 -2.641791e+000 -8.840496e-001 60 41 24
7.863547e+000 -2.790021e+000 -8.273527e-001 64 46 32
7.961089e+000 -2.858833e+000 -9.252243e-001 97 83 56
7.460576e+000 -3.157554e+000 -5.975632e-001 49 31 30
6.200417e+000 -3.312255e+000 -4.507987e-002 116 110 104
7.555929e+000 -3.238000e+000 -6.189485e-001 80 65 58
7.651308e+000 -2.503171e+000 -8.806469e-001 101 82 70
8.019310e+000 -2.645131e+000 -9.773873e-001 108 91 81
6.441416e+000 -2.924848e+000 -1.365439e-002 63 50 41
7.368655e+000 -2.933754e+000 -5.903341e-001 80 69 65
6.592110e+000 -3.065810e+000 -1.665467e-002 100 91 82
8.897173e+000 -3.174290e+000 -7.711327e-001 127 113 87
7.488041e+000 -3.387292e+000 -6.662209e-001 74 58 51
7.832481e+000 -3.465717e+000 -6.978924e-001 54 36 32
7.890861e+000 -3.583969e+000 -4.442817e-001 105 88 81
7.636141e+000 -3.728038e+000 -7.032773e-001 51 36 31
7.427151e+000 -2.413969e+000 -8.372107e-001 78 64 52
7.413384e+000 -2.445735e+000 -8.255073e-001 99 86 77
6.454678e+000 -2.690383e+000 -3.120775e-001 43 29 26
7.536635e+000 -2.953141e+000 -5.796576e-001 94 79 72
6.679159e+000 -3.127583e+000 -7.621702e-003 69 55 43
6.589908e+000 -3.310153e+000 5.194354e-002 80 71 65
7.894095e+000 -3.512776e+000 -4.156809e-001 99 90 81
7.983100e+000 -3.597073e+000 -3.749054e-001 104 87 80
6.509601e+000 -2.989779e+000 -1.507232e-003 49 36 28
7.619962e+000 -3.231709e+000 -6.120829e-001 39 24 21
7.300680e+000 -3.685475e+000 -7.146559e-001 87 68 56
6.772375e+000 -4.413424e+000 1.077556e-001 172 145 97
6.760679e+000 -2.464176e+000 -8.580424e-001 43 27 27
8.491419e+000 -3.419315e+000 -2.303958e+000 102 88 80
6.551771e+000 -2.639603e+000 -3.832899e-001 78 66 57
6.402910e+000 -2.701432e+000 -3.087158e-001 119 110 105
6.226738e+000 -2.811802e+000 -2.578903e-001 87 84 77
7.139143e+000 -2.755791e+000 -1.228064e+000 113 97 105
6.326671e+000 -2.850037e+000 -1.402136e-001 115 107 106
6.446617e+000 -2.882641e+000 -2.150112e-002 73 61 52
6.326018e+000 -2.946393e+000 7.593398e-003 129 126 114
7.284762e+000 -2.889687e+000 -6.245523e-001 45 32 24
6.227960e+000 -3.023782e+000 -3.359932e-002 98 98 86
6.267847e+000 -3.017240e+000 -1.665453e-002 139 137 127
8.144178e+000 -2.908326e+000 -9.260896e-001 86 76 68
5.569083e+000 -3.420392e+000 -6.976167e-001 117 104 98
6.060890e+000 -3.179015e+000 -9.610554e-002 132 129 124
6.248125e+000 -3.148029e+000 -3.153582e-003 102 94 86
5.918888e+000 -3.319143e+000 -3.442856e-002 123 121 134
6.528122e+000 -3.181233e+000 2.251377e-002 68 63 55
6.528884e+000 -3.188680e+000 3.483432e-002 126 120 106
6.536991e+000 -3.195734e+000 4.460700e-002 66 57 48
6.658688e+000 -3.175492e+000 1.003237e-002 61 45 38
6.581270e+000 -3.237737e+000 3.626220e-002 131 129 123
6.498676e+000 -3.308015e+000 5.355376e-002 61 49 43
6.514461e+000 -3.345259e+000 6.128414e-002 91 84 76
7.444177e+000 -3.365192e+000 -6.412602e-001 57 45 41
7.984338e+000 -3.216084e+000 -3.393529e-001 161 167 160
8.084615e+000 -3.174053e+000 -2.277817e-001 104 93 91
6.460192e+000 -3.409983e+000 8.801582e-002 33 27 25
8.095438e+000 -3.236936e+000 -2.054660e-001 204 212 215
7.224736e+000 -3.646064e+000 -7.030026e-001 77 57 46
8.091250e+000 -3.341524e+000 -1.819969e-001 133 125 113
6.774888e+000 -3.647764e+000 1.775662e-001 113 108 80
7.312628e+000 -2.207009e+000 -1.038073e+000 106 93 89
7.269991e+000 -2.492939e+000 -1.517186e+000 78 63 74
7.240498e+000 -2.529280e+000 -1.442353e+000 77 68 69
7.516180e+000 -2.482217e+000 -8.190260e-001 91 73 61
6.276537e+000 -2.742702e+000 -2.870008e-001 50 41 36
6.401698e+000 -2.749240e+000 -2.581761e-001 66 56 47
7.936902e+000 -2.647132e+000 -9.517876e-001 70 51 30
6.050809e+000 -2.901216e+000 -2.547856e-001 121 118 113
6.166598e+000 -2.874487e+000 -2.068531e-001 99 96 89
6.294242e+000 -2.861774e+000 -1.411716e-001 129 127 117
6.442383e+000 -2.836031e+000 -7.272915e-002 77 67 56
6.542744e+000 -2.832216e+000 -1.598375e-001 77 57 46
6.561620e+000 -2.827328e+000 -1.790035e-001 58 40 30
7.833932e+000 -2.676740e+000 -8.741111e-001 94 75 61
8.044016e+000 -2.664819e+000 -9.767893e-001 119 107 95
8.083940e+000 -2.672938e+000 -1.009144e+000 73 52 47
6.102209e+000 -2.982406e+000 -1.487271e-001 151 152 138
6.425625e+000 -2.851613e+000 -5.919715e-002 84 80 73
7.877635e+000 -2.786331e+000 -8.146890e-001 100 81 66
7.881897e+000 -2.804381e+000 -8.039602e-001 97 78 62
7.881897e+000 -2.804381e+000 -8.039602e-001 97 78 62
6.118219e+000 -3.041981e+000 -1.281077e-001 143 139 134
7.807710e+000 -2.828618e+000 -7.726291e-001 63 46 29
6.211543e+000 -3.036032e+000 -4.798425e-002 141 137 126
6.175721e+000 -3.092440e+000 -5.395051e-002 96 93 73
6.037638e+000 -3.235931e+000 -9.801100e-002 152 154 145
6.426948e+000 -3.157143e+000 1.266618e-002 91 93 81
6.305414e+000 -3.203543e+000 -3.479401e-003 96 85 81
6.600727e+000 -3.154920e+000 1.059482e-002 56 44 38
6.628719e+000 -3.165512e+000 9.438326e-003 88 79 70
6.639269e+000 -3.183679e+000 1.237240e-002 49 39 34
6.639269e+000 -3.183679e+000 1.237240e-002 49 39 34
6.162323e+000 -3.308564e+000 -5.615264e-002 90 87 82
6.500524e+000 -3.283756e+000 5.434127e-002 130 129 119
6.565990e+000 -3.235426e+000 3.699332e-002 52 48 45
6.601130e+000 -3.265963e+000 4.939634e-002 69 56 48
7.330049e+000 -3.322524e+000 -6.707545e-001 38 20 18
6.481387e+000 -3.343228e+000 6.297656e-002 58 46 40
6.490916e+000 -3.324202e+000 5.887072e-002 88 80 72
7.782625e+000 -3.301383e+000 -6.501969e-001 58 46 46
7.858726e+000 -3.301283e+000 -6.956346e-001 81 65 61
6.669997e+000 -3.384363e+000 4.060412e-002 81 67 61
7.856038e+000 -3.436790e+000 -7.102675e-001 63 43 44
8.102058e+000 -3.213396e+000 -1.999297e-001 204 210 205
8.352727e+000 -3.194148e+000 -3.193939e-001 123 111 95
7.264737e+000 -3.605001e+000 -6.907254e-001 42 28 19
7.527327e+000 -3.545085e+000 -7.134614e-001 52 34 27
7.561168e+000 -3.566642e+000 -7.118280e-001 58 41 34
7.892752e+000 -3.920845e+000 -5.779020e-001 107 86 74
7.330195e+000 -2.227415e+000 -9.796177e-001 152 150 151
7.442922e+000 -2.473476e+000 -8.053485e-001 69 51 41
7.442907e+000 -2.473350e+000 -8.040109e-001 69 51 41
6.559355e+000 -2.706873e+000 -3.015166e-001 111 111 103
6.164041e+000 -2.804584e+000 -3.087455e-001 93 87 87
6.380601e+000 -2.802955e+000 -1.965389e-001 130 126 116
7.551315e+000 -2.661910e+000 -7.572477e-001 92 74 60
7.654052e+000 -2.626321e+000 -7.884434e-001 91 74 61
7.739247e+000 -2.656388e+000 -8.357327e-001 67 50 32
6.079562e+000 -2.899536e+000 -2.487544e-001 135 134 129
6.261754e+000 -2.866190e+000 -1.659880e-001 134 136 129
6.322143e+000 -2.827369e+000 -1.967529e-001 138 131 123
6.605998e+000 -2.783181e+000 -2.315117e-001 70 52 39
6.441888e+000 -2.850725e+000 -4.131705e-002 152 152 142
6.511626e+000 -2.871035e+000 -6.021439e-002 52 37 32
6.637057e+000 -2.845607e+000 -2.192320e-001 35 21 20
7.442854e+000 -2.791328e+000 -6.729869e-001 91 75 63
7.719393e+000 -2.761866e+000 -7.608331e-001 90 73 57
7.781027e+000 -2.804417e+000 -7.746680e-001 93 76 58
7.938420e+000 -2.792111e+000 -9.136462e-001 94 77 58
6.397980e+000 -2.920303e+000 -1.351297e-002 85 76 70
6.517276e+000 -2.917848e+000 -3.689289e-002 77 63 60
6.576263e+000 -2.943748e+000 -4.657107e-002 37 21 22
7.750306e+000 -2.864610e+000 -7.313381e-001 87 70 55
6.877402e+000 -3.026600e+000 -3.676508e-001 36 19 18
6.276811e+000 -3.104631e+000 7.914820e-003 154 156 145
6.145722e+000 -3.208748e+000 -5.441638e-002 85 79 71
6.540326e+000 -3.141821e+000 -2.193856e-003 86 76 73
7.713419e+000 -3.104070e+000 -5.890123e-001 62 47 40
7.799178e+000 -3.059738e+000 -5.851025e-001 59 45 33
6.075861e+000 -3.275201e+000 -8.719331e-002 58 56 51
6.262730e+000 -3.264944e+000 -2.019144e-002 126 118 110
6.431311e+000 -3.171256e+000 2.545767e-002 139 136 118
6.570793e+000 -3.210284e+000 2.490270e-002 114 107 99
6.651619e+000 -3.146632e+000 9.642046e-003 96 86 76
7.319158e+000 -3.311538e+000 -6.948696e-001 76 58 56
6.368741e+000 -3.375406e+000 5.688174e-002 89 79 80
6.853810e+000 -3.315286e+000 -4.608084e-002 91 73 61
7.485707e+000 -3.427483e+000 -6.571268e-001 54 36 32
8.072660e+000 -3.177723e+000 -2.619856e-001 137 132 128
6.509570e+000 -3.418250e+000 8.163504e-002 50 38 35
7.531177e+000 -4.022748e+000 -1.005421e+000 106 79 50
8.005720e+000 -3.661379e+000 -4.053414e-001 90 72 61
7.990987e+000 -3.760261e+000 -4.585780e-001 122 103 88
6.997500e+000 -3.937702e+000 -2.684077e-001 163 136 91
7.701165e+000 -4.047883e+000 -8.373188e-001 176 155 105
7.349103e+000 -2.222787e+000 -9.420032e-001 82 80 69
7.603739e+000 -2.427022e+000 -8.795548e-001 71 51 40
6.166205e+000 -2.781309e+000 -3.257521e-001 32 22 23
6.251554e+000 -2.768577e+000 -2.807736e-001 68 58 57
6.278497e+000 -2.785717e+000 -2.328599e-001 61 55 49
6.423225e+000 -2.762073e+000 -2.439457e-001 52 40 34
5.988171e+000 -2.924719e+000 -3.124826e-001 116 113 108
6.178760e+000 -2.859272e+000 -2.353594e-001 127 124 115
6.530452e+000 -2.816582e+000 -1.898625e-001 39 26 20
7.291492e+000 -2.780656e+000 -6.391774e-001 91 83 80
7.475920e+000 -2.735040e+000 -7.111611e-001 85 68 60
7.537908e+000 -2.702093e+000 -7.138507e-001 78 62 47
6.064410e+000 -2.984456e+000 -1.707610e-001 149 146 137
6.186694e+000 -2.921742e+000 -1.623959e-001 162 162 153
6.464391e+000 -2.852993e+000 -5.965089e-002 69 51 40
7.297803e+000 -2.927627e+000 -6.724108e-001 53 38 35
7.549417e+000 -2.891097e+000 -6.322686e-001 66 54 40
7.844651e+000 -2.825982e+000 -8.034023e-001 90 72 54
6.485713e+000 -3.002041e+000 -8.017839e-003 57 43 34
6.703497e+000 -2.949785e+000 -1.172077e-001 84 62 52
7.461131e+000 -2.945266e+000 -5.881605e-001 59 46 40
7.461711e+000 -2.945885e+000 -5.887978e-001 59 46 40
6.028120e+000 -3.200918e+000 -1.204803e-001 161 158 153
6.099054e+000 -3.174301e+000 -7.999558e-002 79 71 68
6.099835e+000 -3.173482e+000 -7.815305e-002 79 71 68
6.643273e+000 -3.050337e+000 -2.335484e-002 46 35 31
7.558402e+000 -3.051413e+000 -5.672132e-001 89 74 67
5.863822e+000 -3.308088e+000 -1.475869e-001 109 126 135
6.158635e+000 -3.226244e+000 -5.830328e-002 155 155 145
6.487112e+000 -3.095740e+000 -1.233443e-003 116 117 112
6.531408e+000 -3.116460e+000 8.462123e-003 119 115 106
7.735570e+000 -3.074915e+000 -6.226942e-001 88 75 67
7.735570e+000 -3.074915e+000 -6.226942e-001 88 75 67
6.649168e+000 -3.203941e+000 1.296905e-002 86 79 69
6.158695e+000 -3.332766e+000 -6.200893e-002 61 44 44
7.264837e+000 -3.413676e+000 -6.441167e-001 39 24 19
6.570785e+000 -3.394312e+000 6.276397e-002 48 39 34
7.999230e+000 -3.266401e+000 -2.896306e-001 118 115 110
8.044856e+000 -3.250095e+000 -2.576536e-001 183 202 209
6.538932e+000 -3.441532e+000 7.977423e-002 92 78 75
7.894607e+000 -3.435330e+000 -4.008442e-001 109 97 91
7.894607e+000 -3.435330e+000 -4.008442e-001 109 97 91
7.934697e+000 -3.372252e+000 -3.450735e-001 118 112 108
7.585571e+000 -3.725655e+000 -7.439383e-001 51 35 33
7.546728e+000 -3.990275e+000 -1.029573e+000 75 59 38
7.573779e+000 -3.983303e+000 -1.010797e+000 149 125 89
7.569775e+000 -3.975335e+000 -9.879982e-001 149 125 89
7.765088e+000 -3.770882e+000 -6.631077e-001 46 32 29
6.169035e+000 -3.858549e+000 4.119619e-001 40 25 37
9.190807e+000 -3.882419e+000 -1.745852e-001 152 143 98
6.892068e+000 -2.354169e+000 -8.821367e-001 168 134 105
6.523166e+000 -2.775901e+000 -2.174670e-001 133 131 119
6.233269e+000 -2.858795e+000 -1.980803e-001 81 77 69
6.156710e+000 -2.956626e+000 -1.441350e-001 81 74 63
6.653602e+000 -2.898415e+000 -1.414073e-001 75 53 46
6.312894e+000 -3.025718e+000 -2.702956e-004 100 95 87
6.684485e+000 -2.966332e+000 -7.625649e-002 53 36 26
6.173594e+000 -3.148969e+000 -3.705079e-002 152 155 144
6.357030e+000 -3.052331e+000 2.422949e-002 72 67 56
7.493323e+000 -3.109237e+000 -5.690148e-001 61 45 42
6.246351e+000 -3.336958e+000 -3.461284e-002 91 90 85
7.416637e+000 -3.356031e+000 -6.465378e-001 28 15 13
7.893825e+000 -3.291499e+000 -4.563138e-001 181 202 205
7.891396e+000 -3.289826e+000 -4.508033e-001 181 202 205
6.484645e+000 -3.411232e+000 6.906946e-002 124 119 115
7.888438e+000 -3.416400e+000 -4.230652e-001 155 168 172
7.888438e+000 -3.416400e+000 -4.230652e-001 155 168 172
7.318733e+000 -3.773662e+000 -7.777629e-001 97 74 58
7.874165e+000 -3.503054e+000 -4.450630e-001 149 150 149
6.471497e+000 -2.727254e+000 -2.790751e-001 67 54 48
6.352350e+000 -2.779623e+000 -2.333185e-001 75 66 59
6.350175e+000 -2.786308e+000 -2.641567e-001 75 66 59
6.245666e+000 -2.882456e+000 -1.453524e-001 121 122 114
6.385046e+000 -2.831359e+000 -1.546677e-001 66 54 50
6.085550e+000 -2.984722e+000 -1.763044e-001 135 135 125
6.200781e+000 -2.964803e+000 -1.134862e-001 126 124 112
7.593909e+000 -2.895294e+000 -6.421706e-001 87 70 60
6.358014e+000 -2.981849e+000 6.106212e-003 56 43 35
6.744124e+000 -3.001838e+000 -1.184539e-001 75 54 39
6.237677e+000 -3.077421e+000 -1.670863e-002 150 153 144
6.708118e+000 -3.050459e+000 -5.242222e-002 40 26 23
6.113094e+000 -3.200968e+000 -6.615596e-002 149 154 147
8.383220e+000 -3.146232e+000 -1.146500e+000 80 63 47
5.959135e+000 -3.295635e+000 -1.008739e-001 50 42 46
6.200907e+000 -3.232436e+000 -4.501689e-002 73 64 59
6.672726e+000 -3.227197e+000 1.340402e-002 54 40 37
6.676231e+000 -3.467674e+000 4.834235e-002 75 56 40
6.316916e+000 -3.550629e+000 2.707875e-001 58 43 47
6.259784e+000 -3.123655e+000 4.555164e-003 154 154 144
7.445585e+000 -3.121785e+000 -5.772435e-001 70 52 48
6.199773e+000 -3.350080e+000 -5.388381e-002 37 28 30
8.382768e+000 -3.229924e+000 -3.480848e-001 124 115 103
6.505237e+000 -3.455743e+000 1.465027e-001 35 24 22
6.505237e+000 -3.455743e+000 1.465027e-001 35 24 22
7.831848e+000 -2.849233e+000 -7.599376e-001 93 74 57
6.110492e+000 -2.444629e+000 -2.290220e-001 28 17 23
6.689200e+000 -2.767768e+000 -5.379344e-001 25 11 18
6.325440e+000 -2.882638e+000 -8.955010e-002 20 18 23
6.422356e+000 -2.859689e+000 -8.064580e-002 89 85 76
6.505055e+000 -2.840862e+000 -8.039679e-002 55 35 28
6.045383e+000 -3.153450e+000 -1.312956e-001 136 135 131
8.079695e+000 -2.978217e+000 -8.865669e-001 50 36 35
6.656031e+000 -3.532858e+000 7.879609e-002 23 13 14
7.877403e+000 -3.792686e+000 -5.651580e-001 116 101 96
6.939119e+000 -4.001977e+000 -4.000952e-001 65 38 28
6.231326e+000 -2.837992e+000 -2.237443e-001 131 131 124
6.620991e+000 -3.666686e+000 1.719903e-001 27 18 19
7.664662e+000 -3.416820e+000 -6.094902e-001 85 71 69
7.429307e+000 -3.267323e+000 -6.493550e-001 42 31 27
8.154995e+000 -3.152221e+000 -1.226277e+000 71 54 47
6.021583e+000 -2.395234e+000 -2.553283e-001 62 49 56
7.294570e+000 -2.382102e+000 -9.717125e-001 60 49 51
7.294570e+000 -2.382102e+000 -9.717125e-001 60 49 51
5.967353e+000 -2.578925e+000 -1.373593e-001 38 23 30
7.016313e+000 -2.544210e+000 -1.021391e+000 155 131 93
7.016313e+000 -2.544210e+000 -1.021391e+000 155 131 93
7.008338e+000 -2.557389e+000 -9.414665e-001 160 136 99
7.019193e+000 -2.546151e+000 -8.984064e-001 89 64 34
6.149437e+000 -2.854220e+000 -2.627850e-001 107 104 99
6.191967e+000 -2.829915e+000 -3.003691e-001 79 72 62
6.415877e+000 -2.747852e+000 -2.677828e-001 87 78 71
5.823346e+000 -3.029575e+000 -3.944501e-001 153 151 152
5.877125e+000 -3.033980e+000 -3.734193e-001 127 123 120
5.938537e+000 -2.988840e+000 -2.782147e-001 150 149 144
5.956362e+000 -2.979430e+000 -2.910292e-001 135 135 127
6.044012e+000 -2.917092e+000 -2.099276e-001 133 130 121
6.026885e+000 -2.952835e+000 -2.513516e-001 126 122 113
6.026885e+000 -2.952835e+000 -2.513516e-001 126 122 113
6.258858e+000 -2.856588e+000 -2.222086e-001 131 127 118
6.338726e+000 -2.817023e+000 -2.143781e-001 77 73 64
6.360695e+000 -2.832179e+000 -2.529151e-001 72 69 60
7.244647e+000 -2.764139e+000 -6.509698e-001 76 71 65
5.711752e+000 -3.190982e+000 -5.353620e-001 137 133 129
6.237872e+000 -2.899927e+000 -1.530537e-001 136 136 128
6.278008e+000 -2.872598e+000 -9.433303e-002 111 108 99
5.985226e+000 -3.081565e+000 -2.160093e-001 118 114 109
5.985226e+000 -3.081565e+000 -2.160093e-001 118 114 109
6.271950e+000 -2.924880e+000 -4.495330e-002 105 105 100
6.303588e+000 -2.945693e+000 -2.963706e-002 147 144 135
6.456175e+000 -2.851303e+000 -2.103669e-002 96 88 76
5.627303e+000 -3.433196e+000 -6.022691e-001 83 68 67
6.056580e+000 -3.148125e+000 -1.274987e-001 143 142 137
6.245973e+000 -3.087838e+000 2.006959e-004 139 139 131
6.479047e+000 -2.987421e+000 1.609269e-002 57 48 41
6.182538e+000 -3.160404e+000 -6.997724e-003 133 131 122
6.187064e+000 -3.164349e+000 1.399742e-002 107 102 93
6.203653e+000 -3.179997e+000 -3.016526e-002 105 104 92
6.359080e+000 -3.066642e+000 3.472337e-002 82 82 74
6.359583e+000 -3.100692e+000 1.017450e-002 93 92 80
5.911855e+000 -3.311740e+000 -9.919110e-002 209 241 244
5.902315e+000 -3.326875e+000 -6.712925e-002 49 43 53
6.025789e+000 -3.263377e+000 -9.452415e-002 70 69 65
6.097661e+000 -3.225954e+000 -5.481268e-002 101 98 93
6.304559e+000 -3.157440e+000 -5.528514e-003 96 96 87
5.900111e+000 -3.337411e+000 -4.004530e-002 105 106 124
6.239161e+000 -3.260832e+000 -2.027265e-002 83 83 72
6.239161e+000 -3.260832e+000 -2.027265e-002 83 83 72
6.392424e+000 -3.185286e+000 5.124942e-002 102 101 97
6.447218e+000 -3.241514e+000 8.964177e-003 74 67 59
6.260896e+000 -3.358637e+000 -1.814863e-002 93 84 85
6.431033e+000 -3.379219e+000 1.133902e-001 71 66 62
5.771832e+000 -3.674385e+000 2.921907e-001 89 72 80
5.884135e+000 -3.650773e+000 3.138029e-001 34 27 35
7.295698e+000 -2.215043e+000 -1.030388e+000 161 138 106
5.996643e+000 -2.549467e+000 -1.440222e-001 28 18 26
7.300804e+000 -2.435133e+000 -1.004645e+000 57 47 46
7.308569e+000 -2.390732e+000 -9.724735e-001 101 89 90
7.055477e+000 -2.540601e+000 -9.458355e-001 159 139 107
6.147215e+000 -2.831459e+000 -2.837611e-001 91 83 81
6.110120e+000 -2.859927e+000 -3.077090e-001 55 50 47
6.197824e+000 -2.846078e+000 -2.561853e-001 73 72 62
6.198885e+000 -2.842273e+000 -2.445565e-001 73 72 62
6.199561e+000 -2.831476e+000 -2.611689e-001 127 124 115
6.199561e+000 -2.831476e+000 -2.611689e-001 127 124 115
5.915170e+000 -2.986370e+000 -3.544368e-001 138 134 123
6.090083e+000 -2.928584e+000 -2.054261e-001 106 102 93
6.120219e+000 -2.882423e+000 -2.439079e-001 71 68 61
6.224791e+000 -2.884708e+000 -2.006357e-001 134 134 124
5.813040e+000 -3.082806e+000 -3.523728e-001 101 96 91
5.882898e+000 -3.031637e+000 -3.272689e-001 161 162 157
5.669459e+000 -3.245939e+000 -5.934395e-001 135 127 124
6.300032e+000 -2.923118e+000 -1.012095e-002 116 117 109
6.268704e+000 -2.987776e+000 -8.313428e-003 139 139 132
5.947770e+000 -3.213060e+000 -2.381992e-001 64 59 63
5.977838e+000 -3.185616e+000 -1.833098e-001 129 127 128
6.292518e+000 -3.060497e+000 6.911514e-003 123 123 113
6.317600e+000 -3.068818e+000 6.417356e-003 101 101 91
7.304684e+000 -2.981836e+000 -4.778475e-001 48 33 28
5.716889e+000 -3.358573e+000 -2.239471e-001 160 185 208
5.851413e+000 -3.293441e+000 -1.480848e-001 128 143 148
6.048623e+000 -3.227563e+000 -1.064051e-001 63 52 48
6.297750e+000 -3.120268e+000 9.126274e-003 95 97 84
5.889685e+000 -3.323303e+000 -1.215047e-001 50 49 59
5.934474e+000 -3.323751e+000 -4.787475e-002 60 59 68
5.966662e+000 -3.321538e+000 -1.283829e-001 43 34 39
6.472786e+000 -3.132762e+000 5.137823e-002 83 75 64
6.733859e+000 -3.097448e+000 -2.967284e-002 86 76 66
5.702237e+000 -3.458828e+000 -2.042410e-001 117 129 144
5.888109e+000 -3.354525e+000 -4.363254e-002 99 104 123
5.903449e+000 -3.371708e+000 1.874373e-002 62 53 66
6.353186e+000 -3.285594e+000 2.753894e-002 98 94 85
6.447520e+000 -3.224466e+000 7.579840e-002 93 88 79
6.570701e+000 -3.245080e+000 5.145353e-002 126 126 121
6.570701e+000 -3.245080e+000 5.145353e-002 126 126 121
6.037653e+000 -3.353225e+000 2.570299e-001 71 58 65
6.620878e+000 -3.303090e+000 6.935783e-002 61 54 49
5.883775e+000 -3.471983e+000 2.405796e-001 94 81 90
6.157783e+000 -3.433811e+000 2.078381e-001 77 68 73
5.793006e+000 -3.576848e+000 2.532320e-001 99 83 93
6.357560e+000 -3.499908e+000 1.825759e-001 93 80 87
6.651876e+000 -3.551056e+000 2.205778e-001 46 36 27
6.700823e+000 -3.536617e+000 2.446017e-001 70 59 41
6.055512e+000 -3.652220e+000 3.680735e-001 51 40 46
6.123770e+000 -3.786965e+000 3.220158e-001 67 61 66
6.123770e+000 -3.786965e+000 3.220158e-001 67 61 66
6.180512e+000 -3.680781e+000 3.710618e-001 65 54 59
6.180512e+000 -3.680781e+000 3.710618e-001 65 54 59
5.856151e+000 -3.933128e+000 3.275127e-001 68 49 58
7.363567e+000 -2.267657e+000 -9.306154e-001 106 97 92
5.797245e+000 -2.591829e+000 -2.028660e-001 86 72 85
5.832202e+000 -2.582373e+000 -2.228388e-001 51 35 45
5.944557e+000 -2.547708e+000 -1.743357e-001 39 28 36
6.851157e+000 -2.610761e+000 -6.342419e-001 71 51 42
7.566920e+000 -2.470983e+000 -8.537266e-001 66 50 37
7.704816e+000 -2.465261e+000 -9.815548e-001 98 80 66
6.378273e+000 -2.697104e+000 -2.900033e-001 54 43 41
6.357008e+000 -2.747628e+000 -3.389615e-001 67 54 57
6.506738e+000 -2.733556e+000 -3.498276e-001 73 67 61
7.462543e+000 -2.549489e+000 -7.911649e-001 65 50 38
6.046426e+000 -2.893708e+000 -3.365098e-001 106 100 96
6.170792e+000 -2.833252e+000 -2.782533e-001 101 98 93
6.315051e+000 -2.782869e+000 -2.594723e-001 144 147 136
6.393219e+000 -2.754945e+000 -2.317644e-001 125 122 114
6.644600e+000 -2.732398e+000 -3.828566e-001 70 51 45
6.059792e+000 -2.924209e+000 -2.475976e-001 66 63 56
6.172751e+000 -2.892102e+000 -2.007589e-001 132 129 120
6.171138e+000 -2.896209e+000 -2.124781e-001 132 129 120
6.261243e+000 -2.869655e+000 -1.769758e-001 134 134 124
