ply
format ascii 1.0
element face 0
property list uchar int vertex_indices
element vertex 879
property float x
property float y
property float z
property uchar diffuse_red
property uchar diffuse_green
property uchar diffuse_blue
end_header
6.446676e+000 -3.455975e+000 7.104464e-002 65 57 55
7.875176e+000 -3.925250e+000 -6.081057e-001 72 56 56
7.953339e+000 -3.387840e+000 -4.666390e-001 109 108 104
7.455690e+000 -2.408351e+000 -1.664310e+000 81 69 64
7.346483e+000 -2.254413e+000 -1.072305e+000 83 75 66
7.340827e+000 -2.400407e+000 -9.294546e-001 49 38 34
5.903217e+000 -3.361245e+000 -1.290810e-001 217 254 254
5.945374e+000 -3.340081e+000 -1.720386e-001 129 131 129
6.366925e+000 -2.852461e+000 -2.084479e-001 76 71 65
7.553191e+000 -2.523722e+000 -8.758175e-001 99 87 73
7.699062e+000 -2.465186e+000 -9.752634e-001 68 56 34
6.351582e+000 -2.895825e+000 -1.610698e-001 106 107 102
7.916783e+000 -2.623930e+000 -9.978100e-001 72 55 37
7.748763e+000 -2.676739e+000 -8.896334e-001 107 90 72
8.788793e+000 -2.236589e+000 -1.168641e+000 147 140 89
6.515224e+000 -2.956548e+000 -2.887094e-002 103 101 89
8.716438e+000 -2.788353e+000 -1.179782e+000 130 117 73
7.958424e+000 -3.345279e+000 -4.418513e-001 129 117 119
8.064934e+000 -3.293712e+000 -3.055067e-001 114 110 109
7.443291e+000 -2.450107e+000 -1.595167e+000 56 41 34
7.502545e+000 -2.400419e+000 -1.607726e+000 80 63 56
7.502545e+000 -2.400419e+000 -1.607726e+000 80 63 56
7.541532e+000 -2.414641e+000 -1.644535e+000 53 36 28
7.354225e+000 -2.331984e+000 -9.861530e-001 71 65 65
7.979916e+000 -2.604934e+000 -1.642270e+000 84 70 61
7.276988e+000 -2.816698e+000 -1.064435e+000 31 19 19
6.246979e+000 -2.934496e+000 -1.933707e-001 144 146 133
6.029195e+000 -3.291069e+000 -1.166034e-001 87 87 87
6.514605e+000 -2.816114e+000 -2.432644e-001 55 48 40
6.465648e+000 -2.893998e+000 -8.600528e-002 74 63 53
8.143266e+000 -2.786320e+000 -1.006158e+000 176 179 168
7.594777e+000 -2.529523e+000 -8.801841e-001 67 53 42
6.148873e+000 -3.087888e+000 -1.197097e-001 105 98 90
6.319476e+000 -2.917178e+000 -1.730604e-001 113 116 105
6.384896e+000 -3.470612e+000 6.571258e-002 39 31 28
7.975831e+000 -3.854128e+000 -4.945527e-001 179 159 109
7.948208e+000 -3.747494e+000 -4.997121e-001 107 97 87
7.954019e+000 -3.359416e+000 -4.677511e-001 180 185 183
7.302246e+000 -2.643725e+000 -8.211118e-001 89 89 87
7.915200e+000 -2.516662e+000 -2.595603e+000 111 96 57
7.853741e+000 -3.912736e+000 -6.791840e-001 70 59 57
7.415900e+000 -2.446123e+000 -1.623208e+000 79 64 57
7.624600e+000 -2.510228e+000 -9.085632e-001 102 91 69
7.464422e+000 -2.432425e+000 -1.612486e+000 74 57 50
7.346433e+000 -2.429336e+000 -9.047378e-001 51 40 34
7.479636e+000 -2.704297e+000 -7.593220e-001 101 92 75
5.795354e+000 -3.384485e+000 -3.662960e-001 154 172 169
5.958273e+000 -3.340822e+000 -7.337281e-002 47 45 46
6.030939e+000 -3.435053e+000 -4.185965e-002 48 44 43
8.187327e+000 -2.947663e+000 -9.536751e-001 150 152 138
7.949006e+000 -3.813224e+000 -5.532818e-001 119 111 93
7.968826e+000 -3.269635e+000 -5.028500e-001 120 123 112
7.969129e+000 -3.430497e+000 -4.066621e-001 157 158 147
7.971673e+000 -3.377634e+000 -4.002082e-001 121 113 100
7.987189e+000 -3.347948e+000 -4.192434e-001 124 117 105
7.987978e+000 -3.370355e+000 -3.884271e-001 123 111 95
8.054961e+000 -3.228601e+000 -4.117680e-001 93 81 61
8.310233e+000 -3.311239e+000 -4.499303e-001 81 63 45
8.310811e+000 -3.277622e+000 -4.190076e-001 116 94 60
8.353362e+000 -3.292716e+000 -4.084049e-001 85 65 31
8.398141e+000 -3.271537e+000 -3.652064e-001 180 166 119
7.783349e+000 -2.454921e+000 -2.964248e+000 153 131 71
7.445436e+000 -2.449009e+000 -1.813987e+000 64 47 27
5.653752e+000 -3.592722e+000 -3.532541e-001 127 123 113
5.676791e+000 -3.566584e+000 -3.736847e-001 91 89 74
8.015043e+000 -2.640118e+000 -1.625538e+000 80 67 51
5.792384e+000 -3.405405e+000 -3.376844e-001 60 62 57
5.934450e+000 -3.353048e+000 -1.036894e-001 90 103 93
5.934450e+000 -3.353048e+000 -1.036894e-001 90 103 93
7.450752e+000 -2.832406e+000 -6.892793e-001 72 55 35
7.602461e+000 -2.698128e+000 -7.934243e-001 77 61 35
6.011331e+000 -3.582956e+000 3.980065e-002 35 27 31
6.024091e+000 -3.570421e+000 3.225253e-002 198 204 197
6.024091e+000 -3.570421e+000 3.225253e-002 198 204 197
7.306363e+000 -3.417972e+000 -6.718825e-001 40 32 23
7.362287e+000 -3.368206e+000 -6.987116e-001 52 38 29
7.921768e+000 -3.799128e+000 -5.794961e-001 105 98 82
8.085556e+000 -3.256987e+000 -6.261166e-001 75 56 41
8.889441e+000 -2.275937e+000 -9.684580e-001 179 170 103
7.907632e+000 -3.511166e+000 -4.708684e-001 105 98 82
7.913071e+000 -3.522184e+000 -4.737221e-001 105 98 82
7.933789e+000 -3.470567e+000 -4.778875e-001 116 111 96
7.938213e+000 -3.476905e+000 -4.790432e-001 116 111 96
7.919366e+000 -3.564955e+000 -4.707434e-001 147 142 123
7.933103e+000 -3.498712e+000 -4.680881e-001 149 152 133
7.951575e+000 -3.409834e+000 -4.838327e-001 120 114 101
7.947560e+000 -3.332861e+000 -4.857447e-001 120 112 99
7.984679e+000 -3.490746e+000 -4.289787e-001 174 178 164
7.945145e+000 -3.418107e+000 -4.122726e-001 174 178 164
8.946018e+000 -3.158777e+000 -8.212920e-001 158 154 106
8.940648e+000 -3.101481e+000 -8.202237e-001 176 169 110
8.036061e+000 -3.279009e+000 -3.308216e-001 205 214 206
8.036061e+000 -3.279009e+000 -3.308216e-001 205 214 206
8.125827e+000 -3.315915e+000 -2.221491e-001 152 149 130
7.374659e+000 -2.947386e+000 -1.966202e+000 71 50 31
7.442592e+000 -2.409165e+000 -1.767821e+000 93 78 60
7.508641e+000 -2.404534e+000 -1.840164e+000 92 76 61
7.523212e+000 -2.395826e+000 -1.590841e+000 50 33 23
7.276539e+000 -2.624522e+000 -1.409236e+000 67 55 53
7.267786e+000 -2.576428e+000 -1.425963e+000 63 53 44
5.854187e+000 -3.277194e+000 -1.357324e-001 72 75 75
5.876600e+000 -3.268666e+000 -1.303032e-001 135 166 163
5.903574e+000 -3.374626e+000 -1.106131e-001 45 36 41
7.442139e+000 -2.560904e+000 -8.348660e-001 72 60 39
7.432337e+000 -2.545201e+000 -8.252981e-001 72 60 39
7.458642e+000 -2.566208e+000 -8.195632e-001 99 87 61
5.949167e+000 -3.374628e+000 -7.209071e-002 176 210 203
6.040927e+000 -3.239519e+000 -1.165826e-001 146 147 129
6.247041e+000 -3.054911e+000 -5.460239e-002 132 131 111
6.370044e+000 -2.960826e+000 -2.990265e-002 129 131 117
7.350514e+000 -2.968250e+000 -6.305324e-001 86 75 57
7.668389e+000 -2.943911e+000 -6.847076e-001 77 63 37
7.932504e+000 -3.270029e+000 -6.174971e-001 107 97 85
6.529191e+000 -3.537251e+000 1.702517e-001 82 74 53
7.906226e+000 -3.742174e+000 -5.877311e-001 65 53 41
7.886361e+000 -3.599389e+000 -5.520520e-001 75 62 53
9.101695e+000 -5.685234e+000 -3.419227e-001 174 167 100
5.921640e+000 -2.251498e+000 -1.319898e+000 100 72 58
7.755465e+000 -3.352769e+000 -2.814501e+000 171 150 97
7.858483e+000 -3.307130e+000 -2.722930e+000 153 133 80
7.837962e+000 -3.276167e+000 -2.696577e+000 153 133 80
7.535995e+000 -2.365477e+000 -1.799181e+000 90 74 60
7.461561e+000 -2.415305e+000 -1.668052e+000 77 61 48
7.651433e+000 -2.354596e+000 -1.652692e+000 55 37 26
7.683284e+000 -2.308180e+000 -1.663815e+000 54 40 28
5.645285e+000 -3.654992e+000 -6.331286e-001 53 39 30
7.321697e+000 -2.575821e+000 -1.347269e+000 48 33 27
7.407868e+000 -2.546526e+000 -1.359416e+000 48 31 23
7.379990e+000 -2.429191e+000 -9.206562e-001 90 80 68
5.867690e+000 -3.272773e+000 -1.686411e-001 231 255 255
5.867690e+000 -3.272773e+000 -1.686411e-001 231 255 255
5.964579e+000 -3.281534e+000 -1.868663e-001 136 134 115
7.326289e+000 -2.506862e+000 -8.947211e-001 51 43 32
7.375734e+000 -2.514140e+000 -8.494312e-001 64 51 35
5.825475e+000 -3.431351e+000 -8.227351e-002 65 73 72
5.843873e+000 -3.419348e+000 -6.182352e-002 242 255 255
6.044238e+000 -3.219176e+000 -1.355018e-001 68 65 50
5.928231e+000 -3.355173e+000 -8.295122e-002 33 37 39
6.109668e+000 -3.184140e+000 -9.122568e-002 150 153 135
6.260638e+000 -2.937502e+000 -1.566014e-001 136 131 109
6.236146e+000 -3.109282e+000 -4.856891e-002 85 79 61
6.481437e+000 -2.872796e+000 -1.315059e-001 77 65 49
8.715710e+000 -2.869548e+000 -1.253139e+000 111 97 53
7.958263e+000 -3.235067e+000 -6.542617e-001 64 46 34
8.873018e+000 -2.292228e+000 -9.615666e-001 151 141 82
7.940685e+000 -3.354859e+000 -4.916126e-001 162 182 171
6.076780e+000 -2.248077e+000 -1.340112e+000 133 105 68
5.701674e+000 -2.468418e+000 -5.066535e-001 97 85 85
7.404015e+000 -2.441913e+000 -1.607324e+000 75 59 46
7.383150e+000 -2.259259e+000 -1.009534e+000 79 69 57
6.071143e+000 -3.161131e+000 -1.325869e-001 126 121 99
6.216399e+000 -3.057211e+000 -8.309510e-002 82 79 61
6.217288e+000 -3.061293e+000 -8.422448e-002 82 79 61
6.651281e+000 -2.855499e+000 -2.566125e-001 83 65 43
6.390490e+000 -2.994208e+000 -1.498563e-002 66 55 43
6.487069e+000 -2.893949e+000 -5.567560e-002 74 58 43
7.535452e+000 -3.050717e+000 -6.167997e-001 102 88 64
6.420559e+000 -3.424457e+000 6.406706e-002 109 110 94
8.174288e+000 -2.925928e+000 -8.891554e-001 168 184 166
8.794510e+000 -2.752111e+000 -1.107200e+000 145 133 77
8.795577e+000 -2.753220e+000 -1.107585e+000 145 133 77
8.982732e+000 -2.458515e+000 -7.472155e-001 149 139 77
9.125974e+000 -2.268646e+000 -5.491865e-001 189 183 120
6.187797e+000 -2.960343e+000 -1.411334e-001 60 48 37
6.269183e+000 -3.031159e+000 -6.540446e-002 80 71 54
6.042208e+000 -3.492243e+000 1.519595e-002 26 20 26
7.961073e+000 -2.799472e+000 -9.374842e-001 104 88 63
7.998009e+000 -3.247520e+000 -4.350645e-001 135 129 116
8.955866e+000 -3.388427e+000 -7.475606e-001 135 124 78
8.128879e+000 -3.233809e+000 -2.359764e-001 149 172 166
8.392019e+000 -3.275562e+000 -3.915734e-001 108 93 45
7.292975e+000 -2.837301e+000 -1.200766e+000 27 18 19
7.292975e+000 -2.837301e+000 -1.200766e+000 27 18 19
6.441817e+000 -3.568535e+000 2.359104e-001 46 27 29
8.211895e+000 -3.221104e+000 -2.708780e-001 119 99 64
5.970699e+000 -2.479058e+000 -3.557943e-001 59 49 50
6.011996e+000 -3.370468e+000 -8.607686e-002 41 32 31
7.484300e+000 -2.628982e+000 -8.091419e-001 98 90 62
5.871791e+000 -3.600645e+000 2.433922e-001 54 37 40
6.993784e+000 -3.267894e+000 -2.402878e-001 152 135 69
5.961819e+000 -2.408434e+000 -1.221886e+000 66 41 34
6.960825e+000 -3.278312e+000 -1.628334e-001 67 48 30
6.150490e+000 -2.285268e+000 -1.287025e+000 90 64 49
5.841671e+000 -2.365490e+000 -3.735505e-001 37 25 29
7.670355e+000 -3.027841e+000 -6.409478e-001 76 60 43
6.176182e+000 -2.298679e+000 -3.518888e-001 63 53 54
7.352582e+000 -2.466569e+000 -1.173538e+000 36 25 21
8.283895e+000 -3.302236e+000 -3.836470e-001 79 57 40
5.875046e+000 -3.339372e+000 -2.165649e-001 96 96 89
5.822089e+000 -3.467097e+000 1.661533e-001 69 57 68
7.747614e+000 -2.734551e+000 -8.574648e-001 73 62 40
8.180620e+000 -2.980655e+000 -8.789839e-001 77 84 77
8.203579e+000 -3.083592e+000 -7.894589e-001 147 145 141
7.960600e+000 -3.418645e+000 -4.042159e-001 148 153 143
8.959586e+000 -4.086649e+000 -6.867301e-001 154 149 91
8.196036e+000 -3.195022e+000 -4.107482e-001 99 82 61
5.784905e+000 -3.523646e+000 -1.083197e-001 166 184 184
5.810649e+000 -3.527998e+000 -8.607531e-002 125 128 137
5.895555e+000 -3.392942e+000 -5.488214e-002 241 255 255
6.082669e+000 -3.210740e+000 -9.728372e-002 126 127 115
7.631519e+000 -2.561885e+000 -9.136557e-001 77 64 36
7.714336e+000 -2.480098e+000 -9.787765e-001 77 62 39
7.361534e+000 -2.795488e+000 -6.737011e-001 104 95 78
7.524922e+000 -2.904973e+000 -6.615507e-001 79 71 51
8.213805e+000 -2.995880e+000 -9.383725e-001 90 86 76
8.177479e+000 -2.923038e+000 -9.256330e-001 87 92 80
8.245625e+000 -3.218390e+000 -9.285196e-001 43 33 28
6.488249e+000 -3.420992e+000 8.082517e-002 64 60 51
7.816778e+000 -3.541318e+000 -5.374317e-001 84 74 71
7.816778e+000 -3.541318e+000 -5.374317e-001 84 74 71
6.752292e+000 -3.681030e+000 2.209729e-001 42 38 52
8.062341e+000 -3.808729e+000 -4.640848e-001 115 103 90
8.001560e+000 -3.442723e+000 -4.195887e-001 100 102 88
8.857309e+000 -2.685904e+000 -9.426291e-001 144 144 83
8.004065e+000 -3.497526e+000 -3.829892e-001 145 145 134
7.995271e+000 -3.333234e+000 -3.657474e-001 152 158 151
8.075487e+000 -3.291861e+000 -2.818732e-001 152 155 146
8.108895e+000 -3.348543e+000 -2.705021e-001 112 112 102
9.185729e+000 -3.716579e+000 -3.758756e-001 140 138 82
6.152968e+000 -2.321471e+000 -1.386248e+000 97 72 42
5.642577e+000 -3.745759e+000 -5.609356e-001 50 39 33
5.613228e+000 -3.647373e+000 -4.226053e-001 73 60 54
5.621622e+000 -3.647166e+000 -3.281901e-001 86 53 82
5.758077e+000 -3.505875e+000 -3.125307e-001 131 127 118
7.341605e+000 -2.297546e+000 -1.071157e+000 96 92 80
5.944311e+000 -3.323852e+000 -1.676703e-001 122 122 122
5.794670e+000 -3.457536e+000 -5.965939e-002 40 29 37
5.896869e+000 -3.398983e+000 -2.241383e-002 219 253 253
5.896869e+000 -3.398983e+000 -2.241383e-002 219 253 253
7.455342e+000 -2.540549e+000 -8.335796e-001 101 89 67
6.211415e+000 -3.070223e+000 -6.403630e-002 140 142 131
7.426503e+000 -2.773613e+000 -6.994346e-001 70 60 40
7.542836e+000 -2.729349e+000 -7.617076e-001 105 94 70
7.383442e+000 -3.009094e+000 -6.220391e-001 61 52 37
7.471913e+000 -2.835424e+000 -6.830898e-001 103 96 73
8.129753e+000 -2.761735e+000 -9.979171e-001 138 133 117
6.435873e+000 -2.900081e+000 -5.483793e-002 80 73 61
7.575450e+000 -3.007481e+000 -6.386893e-001 93 84 67
7.870336e+000 -3.894319e+000 -6.864139e-001 38 31 25
8.177972e+000 -3.160725e+000 -8.062610e-001 78 80 74
6.758382e+000 -3.643259e+000 1.157973e-001 54 45 33
8.872393e+000 -3.152377e+000 -9.070964e-001 152 147 92
8.038152e+000 -3.260092e+000 -3.662714e-001 210 238 238
8.881950e+000 -2.433310e+000 -8.019003e-001 180 183 125
5.930716e+000 -2.377317e+000 -1.275542e+000 92 70 56
7.444971e+000 -2.418188e+000 -1.777032e+000 78 64 57
7.489826e+000 -2.390212e+000 -1.788490e+000 77 63 52
7.490680e+000 -2.391048e+000 -1.789072e+000 77 63 52
7.492436e+000 -2.356331e+000 -1.751135e+000 48 34 23
5.713029e+000 -3.580277e+000 -3.501400e-001 134 131 122
5.778096e+000 -3.445352e+000 -3.257388e-001 90 84 84
5.778096e+000 -3.445352e+000 -3.257388e-001 90 84 84
5.855284e+000 -3.323295e+000 -1.935327e-001 30 31 41
7.354687e+000 -2.336861e+000 -1.056286e+000 95 89 75
5.831918e+000 -3.448878e+000 -1.141199e-001 168 201 208
5.829089e+000 -3.425019e+000 -1.113488e-001 168 201 208
5.885151e+000 -3.266699e+000 -1.519569e-001 50 43 51
7.318517e+000 -2.419474e+000 -9.266113e-001 68 58 49
5.900075e+000 -3.364186e+000 1.184866e-002 25 20 24
5.943075e+000 -3.458635e+000 2.817070e-002 25 18 25
8.842325e+000 -2.933692e+000 -1.258643e+000 132 124 75
8.764452e+000 -2.470921e+000 -1.187895e+000 145 143 86
8.764452e+000 -2.470921e+000 -1.187895e+000 145 143 86
7.976916e+000 -3.372720e+000 -5.921121e-001 120 109 100
8.144098e+000 -3.363196e+000 -5.653677e-001 163 155 106
8.175389e+000 -3.309662e+000 -5.061829e-001 171 168 112
8.872142e+000 -2.661400e+000 -9.432595e-001 169 170 110
8.873646e+000 -2.480393e+000 -9.809471e-001 153 149 93
8.904562e+000 -2.458963e+000 -9.485088e-001 154 152 95
8.981206e+000 -2.087101e+000 -6.823175e-001 175 175 118
6.034630e+000 -2.245208e+000 -1.362591e+000 94 70 44
6.087572e+000 -2.253687e+000 -1.371856e+000 104 80 56
6.141176e+000 -2.286199e+000 -1.077293e+000 73 59 60
6.579641e+000 -2.423124e+000 -1.265587e+000 91 77 72
7.316867e+000 -2.893344e+000 -2.008553e+000 75 63 40
7.508154e+000 -3.122974e+000 -2.116850e+000 132 115 85
7.508154e+000 -3.122974e+000 -2.116850e+000 132 115 85
7.381805e+000 -2.619254e+000 -1.761692e+000 77 63 53
7.642846e+000 -2.451368e+000 -1.906709e+000 52 39 30
7.464969e+000 -2.521478e+000 -1.666489e+000 70 57 51
5.680711e+000 -3.636993e+000 -3.478627e-001 61 50 44
5.759957e+000 -3.543662e+000 -3.566259e-001 43 36 32
6.010828e+000 -3.246116e+000 -1.887271e-001 114 113 108
5.671325e+000 -3.541111e+000 8.768893e-002 69 52 60
6.296462e+000 -2.851431e+000 -1.599744e-001 97 98 85
5.773701e+000 -3.568795e+000 1.937580e-001 49 38 46
7.252953e+000 -3.425335e+000 -6.500205e-001 55 44 39
6.319651e+000 -2.988381e+000 -1.662651e-002 128 133 113
7.885544e+000 -2.769300e+000 -9.146297e-001 75 67 48
8.702500e+000 -2.496015e+000 -1.230961e+000 136 133 80
6.444757e+000 -3.503660e+000 8.653945e-002 42 33 30
8.260662e+000 -3.176854e+000 -9.234522e-001 64 55 46
7.992484e+000 -3.280654e+000 -5.984863e-001 81 69 55
8.843442e+000 -2.378343e+000 -1.048343e+000 143 139 84
8.886154e+000 -3.028729e+000 -8.463083e-001 141 132 75
8.911203e+000 -2.595195e+000 -9.026349e-001 139 129 80
8.944894e+000 -2.214446e+000 -8.452590e-001 156 154 97
8.984240e+000 -2.198448e+000 -7.677909e-001 172 170 113
8.984240e+000 -2.198448e+000 -7.677909e-001 172 170 113
9.191817e+000 -3.916852e+000 -2.070301e-001 157 154 103
6.021290e+000 -2.326164e+000 -1.383026e+000 145 126 83
5.737699e+000 -2.141696e+000 -5.837346e-001 40 25 32
5.638508e+000 -3.629958e+000 -3.464527e-001 132 130 118
5.691012e+000 -3.626317e+000 -3.092802e-001 131 137 128
5.904134e+000 -3.282510e+000 -1.554778e-001 41 39 40
6.043865e+000 -3.509319e+000 1.393520e-002 28 24 31
6.188887e+000 -3.245083e+000 -6.043080e-002 128 132 117
6.388056e+000 -3.021913e+000 2.386081e-002 120 121 113
7.947373e+000 -2.951399e+000 -8.500934e-001 101 92 75
8.726310e+000 -2.014394e+000 -1.234462e+000 163 161 110
6.618622e+000 -3.110499e+000 -1.526485e-002 132 136 122
6.273693e+000 -3.469689e+000 2.046868e-001 32 20 22
6.771588e+000 -3.658850e+000 1.417358e-001 107 104 73
6.133189e+000 -2.396376e+000 -1.382439e+000 61 44 32
7.629533e+000 -2.348536e+000 -1.851457e+000 85 78 61
5.914234e+000 -2.533373e+000 -2.217336e-001 65 50 57
6.132932e+000 -2.394936e+000 -3.705998e-001 73 62 70
6.199431e+000 -2.306333e+000 -3.187272e-001 75 65 73
5.884334e+000 -3.479159e+000 -1.274094e-001 43 50 53
6.237024e+000 -2.905393e+000 -1.719537e-001 114 112 97
7.690360e+000 -2.531484e+000 -9.367800e-001 103 92 63
7.841238e+000 -2.854216e+000 -8.481963e-001 76 65 46
6.446982e+000 -2.918477e+000 -8.492070e-002 115 118 99
6.690118e+000 -2.955454e+000 -1.573374e-001 87 74 53
7.026691e+000 -3.336831e+000 -1.275012e-001 161 148 93
7.915033e+000 -3.587916e+000 -5.085271e-001 119 119 114
5.931621e+000 -2.406884e+000 -3.703733e-001 55 44 49
6.194980e+000 -2.386901e+000 -4.032051e-001 61 56 62
7.325820e+000 -2.818266e+000 -8.468554e-001 26 18 16
7.848151e+000 -2.551836e+000 -1.000292e+000 106 95 61
6.262645e+000 -3.098998e+000 -1.686801e-002 136 141 127
5.923480e+000 -3.440720e+000 2.381245e-001 86 71 78
7.578034e+000 -2.891056e+000 -6.844077e-001 106 99 71
8.140451e+000 -2.827312e+000 -9.557052e-001 140 146 144
6.144341e+000 -2.393475e+000 -3.076952e-001 28 20 23
6.144341e+000 -2.393475e+000 -3.076952e-001 28 20 23
7.281269e+000 -3.336677e+000 -6.564074e-001 52 45 38
6.516873e+000 -2.901217e+000 -8.710298e-002 55 45 33
7.545979e+000 -3.152148e+000 -6.263466e-001 99 93 70
8.197310e+000 -3.109739e+000 -8.279686e-001 160 190 192
8.298311e+000 -2.195374e+000 -2.022940e+000 119 114 76
5.846718e+000 -3.373962e+000 -2.923862e-001 44 34 33
6.351725e+000 -2.930708e+000 -9.456682e-002 39 35 36
6.351725e+000 -2.930708e+000 -9.456682e-002 39 35 36
8.853226e+000 -2.067828e+000 -9.934342e-001 152 148 99
6.317996e+000 -2.468323e+000 -1.218306e+000 47 29 25
7.472514e+000 -3.441451e+000 -7.083004e-001 38 31 23
8.829020e+000 -2.533800e+000 -1.034216e+000 172 173 113
8.835698e+000 -2.539880e+000 -1.035035e+000 172 173 113
8.311542e+000 -3.341331e+000 -3.894758e-001 75 64 42
7.645270e+000 -2.373855e+000 -1.764161e+000 75 62 50
7.232245e+000 -2.895816e+000 -1.401114e+000 63 45 39
6.188040e+000 -3.414768e+000 1.481859e-002 25 20 23
7.807443e+000 -3.633016e+000 -6.101888e-001 61 47 44
8.833716e+000 -3.034917e+000 -1.020622e+000 167 167 107
8.653677e+000 -3.247635e+000 -8.428598e-001 74 56 42
8.653677e+000 -3.247635e+000 -8.428598e-001 74 56 42
7.869082e+000 -3.248024e+000 -2.657924e+000 151 132 89
7.975351e+000 -3.423569e+000 -3.835542e-001 124 117 106
7.788128e+000 -3.270850e+000 -2.747225e+000 140 107 61
7.377551e+000 -2.474895e+000 -1.616256e+000 52 35 25
9.111494e+000 -3.365179e+000 -5.175008e-001 182 173 104
7.755613e+000 -3.321728e+000 -2.834315e+000 152 119 74
5.911801e+000 -3.374167e+000 -8.006777e-002 47 46 44
8.231810e+000 -3.292888e+000 -4.206467e-001 67 55 36
8.946408e+000 -2.377767e+000 -8.190399e-001 180 179 122
8.960685e+000 -2.330548e+000 -7.586979e-001 158 156 95
8.981794e+000 -2.329973e+000 -7.697496e-001 178 176 115
8.494810e+000 -1.799351e+000 -1.667923e+000 149 139 88
7.910995e+000 -3.548315e+000 -4.675189e-001 138 138 129
8.818591e+000 -3.235729e+000 -9.510315e-001 132 118 79
7.930025e+000 -3.399250e+000 -4.615485e-001 149 155 151
8.004937e+000 -3.526496e+000 -4.628162e-001 112 109 99
8.281848e+000 -3.308362e+000 -4.171355e-001 67 54 38
8.177985e+000 -3.213429e+000 -2.397808e-001 118 114 102
9.049854e+000 -2.596264e+000 -6.706035e-001 182 182 122
7.329081e+000 -2.529386e+000 -1.652862e+000 74 61 52
7.482587e+000 -2.544738e+000 -8.400332e-001 76 62 47
7.542693e+000 -2.727448e+000 -7.619652e-001 105 94 70
8.001288e+000 -3.274029e+000 -3.641166e-001 119 120 110
8.963259e+000 -2.153513e+000 -8.176397e-001 180 181 124
7.490815e+000 -2.421492e+000 -1.848418e+000 56 39 29
7.321875e+000 -2.498074e+000 -8.918988e-001 55 45 42
7.359982e+000 -2.456793e+000 -8.976542e-001 53 42 33
7.386038e+000 -2.474304e+000 -8.626535e-001 87 78 61
8.838282e+000 -1.986464e+000 -1.022110e+000 177 180 125
8.386533e+000 -3.269066e+000 -3.494038e-001 170 166 105
5.619057e+000 -3.701624e+000 -5.944180e-001 56 43 37
8.525841e+000 -1.854618e+000 -1.620329e+000 151 145 93
8.868603e+000 -2.644831e+000 -9.729845e-001 136 129 77
8.917158e+000 -2.627850e+000 -9.788180e-001 176 177 119
5.916240e+000 -2.514091e+000 -1.250709e+000 154 140 90
8.608331e+000 -2.316550e+000 -1.398761e+000 137 129 83
8.840862e+000 -1.822697e+000 -9.881237e-001 170 164 116
7.380162e+000 -2.243841e+000 -1.066009e+000 139 148 148
7.303768e+000 -2.793136e+000 -7.348858e-001 63 68 62
7.931199e+000 -3.555478e+000 -4.568474e-001 139 138 128
8.871898e+000 -3.153734e+000 -9.359042e-001 141 140 84
8.995359e+000 -4.000552e+000 -6.614000e-001 156 153 98
8.321430e+000 -3.300034e+000 -3.871872e-001 106 94 64
8.152491e+000 -3.353846e+000 -2.261420e-001 144 146 134
7.664384e+000 -2.286275e+000 -1.575687e+000 81 65 55
7.650656e+000 -2.252399e+000 -1.546101e+000 55 39 31
7.628713e+000 -2.459917e+000 -9.288591e-001 87 76 48
7.948657e+000 -2.542944e+000 -9.781698e-001 46 32 23
7.577912e+000 -3.121792e+000 -6.082975e-001 72 64 45
8.175989e+000 -3.002884e+000 -9.210623e-001 59 56 46
8.892338e+000 -6.002471e+000 -6.402921e-001 159 140 98
7.920514e+000 -3.616524e+000 -4.830442e-001 108 103 94
8.754680e+000 -2.445045e+000 -1.168333e+000 135 132 81
7.992095e+000 -3.502698e+000 -4.279836e-001 149 152 141
8.062230e+000 -3.243574e+000 -4.558276e-001 65 56 41
8.085496e+000 -3.386853e+000 -3.363847e-001 119 120 115
8.043343e+000 -3.325708e+000 -3.497210e-001 160 170 162
8.220475e+000 -3.276675e+000 -4.166682e-001 66 54 30
8.094415e+000 -3.292632e+000 -2.562339e-001 115 116 108
9.112117e+000 -3.304444e+000 -4.703171e-001 181 179 119
7.458393e+000 -2.839964e+000 -1.998600e+000 72 59 51
5.586550e+000 -3.563157e+000 -6.396145e-001 83 76 73
7.288261e+000 -2.562246e+000 -1.592621e+000 67 56 52
7.268811e+000 -2.502902e+000 -1.494034e+000 50 37 31
7.285971e+000 -2.527122e+000 -1.506931e+000 50 37 31
8.297717e+000 -1.952343e+000 -1.819218e+000 127 120 78
7.447009e+000 -2.443816e+000 -8.796776e-001 70 62 41
7.526079e+000 -2.623694e+000 -8.059715e-001 73 62 43
8.745252e+000 -2.416645e+000 -1.169955e+000 170 167 114
8.793292e+000 -2.411576e+000 -1.117847e+000 139 135 87
8.327005e+000 -3.312263e+000 -3.687146e-001 70 57 31
9.259704e+000 -4.541524e+000 -1.379530e-001 136 133 78
9.225789e+000 -3.757773e+000 -3.803090e-001 142 137 79
7.518884e+000 -2.371325e+000 -1.871784e+000 52 38 27
7.520239e+000 -2.372673e+000 -1.872965e+000 52 38 27
7.359248e+000 -2.375288e+000 -1.581501e+000 69 58 52
7.267752e+000 -2.615009e+000 -1.389020e+000 60 49 47
7.636228e+000 -2.361174e+000 -1.581922e+000 44 28 29
5.878437e+000 -3.233748e+000 -2.206391e-001 53 39 39
5.901253e+000 -3.378299e+000 -1.356984e-001 104 126 127
7.342568e+000 -2.345914e+000 -1.006890e+000 107 108 98
7.365969e+000 -2.427171e+000 -8.889151e-001 91 81 69
8.078737e+000 -3.385832e+000 -3.878900e-001 116 116 110
7.499083e+000 -2.322181e+000 -1.761187e+000 76 61 56
6.507990e+000 -2.951598e+000 -5.918450e-002 69 62 44
8.688137e+000 -2.088123e+000 -1.181157e+000 180 183 132
8.963971e+000 -2.679151e+000 -9.555754e-001 139 134 79
8.014499e+000 -3.339328e+000 -3.525927e-001 160 165 159
8.028981e+000 -1.793387e+000 -2.217203e+000 136 129 85
8.087475e+000 -1.950291e+000 -2.173393e+000 125 110 78
5.698256e+000 -2.448018e+000 -5.063353e-001 87 75 79
5.820833e+000 -2.611636e+000 -3.513219e-001 33 22 29
7.616924e+000 -2.317647e+000 -1.486858e+000 63 50 41
6.281136e+000 -3.064790e+000 -6.642356e-002 69 62 54
6.387132e+000 -3.049727e+000 -1.130626e-002 71 69 56
7.611581e+000 -3.061488e+000 -6.161473e-001 68 61 45
9.158237e+000 -3.716707e+000 -4.666677e-001 175 174 116
5.804424e+000 -2.056975e+000 -7.020138e-001 75 70 76
5.813910e+000 -1.993882e+000 -6.470956e-001 34 25 28
5.723318e+000 -2.478535e+000 -4.792708e-001 42 29 36
7.310951e+000 -2.706375e+000 -1.284922e+000 54 44 42
7.305935e+000 -2.383160e+000 -9.678849e-001 39 28 24
5.966518e+000 -3.467088e+000 -2.375598e-002 35 32 37
5.802488e+000 -3.667068e+000 1.463649e-001 59 48 56
7.683138e+000 -2.747027e+000 -8.008808e-001 108 98 71
8.165745e+000 -2.981689e+000 -8.474665e-001 168 188 189
5.897491e+000 -2.514441e+000 -3.818012e-001 28 22 24
7.311200e+000 -2.733608e+000 -7.497916e-001 122 135 131
8.856277e+000 -2.060138e+000 -1.107309e+000 183 186 137
8.098663e+000 -3.332313e+000 -2.598457e-001 141 142 130
5.709482e+000 -2.161326e+000 -7.607754e-001 41 29 29
7.233977e+000 -2.629800e+000 -1.459963e+000 41 32 25
8.095591e+000 -2.984289e+000 -9.067336e-001 45 36 28
8.132329e+000 -3.278821e+000 -4.523977e-001 72 57 39
7.941967e+000 -3.138494e+000 -6.153082e-001 73 57 42
8.286887e+000 -3.032720e+000 -1.355144e+000 43 33 24
8.279323e+000 -3.383647e+000 -6.014961e-001 171 172 115
7.566094e+000 -2.287133e+000 -1.708204e+000 80 66 53
7.532208e+000 -2.388310e+000 -1.480834e+000 42 31 29
5.880520e+000 -2.392186e+000 -1.116958e+000 152 135 83
5.880520e+000 -2.392186e+000 -1.116958e+000 152 135 83
7.358917e+000 -2.518854e+000 -1.502603e+000 66 54 42
7.876204e+000 -3.292513e+000 -2.709299e+000 151 138 96
8.108911e+000 -2.131501e+000 -2.328396e+000 119 111 72
7.315983e+000 -2.518774e+000 -1.582413e+000 67 54 48
7.315983e+000 -2.518774e+000 -1.582413e+000 67 54 48
8.893871e+000 -2.581507e+000 -9.361397e-001 172 172 114
7.799537e+000 -3.350331e+000 -2.831062e+000 151 117 82
8.945939e+000 -3.156957e+000 -7.958794e-001 135 130 94
7.370790e+000 -4.411503e+000 -3.139260e+000 123 103 52
7.707138e+000 -2.306026e+000 -1.680740e+000 83 69 60
5.910679e+000 -3.396169e+000 -9.455362e-003 69 64 71
8.890426e+000 -2.475317e+000 -9.582175e-001 176 174 117
9.048070e+000 -3.471574e+000 -6.298716e-001 177 172 114
8.130300e+000 -3.382451e+000 -2.090244e-001 182 176 126
7.451993e+000 -2.406641e+000 -1.663210e+000 67 54 45
7.471048e+000 -2.407803e+000 -1.597569e+000 45 35 25
8.177858e+000 -2.927693e+000 -9.061349e-001 154 184 180
7.917989e+000 -3.557293e+000 -4.687492e-001 134 134 125
8.282031e+000 -3.290890e+000 -4.306374e-001 99 88 67
8.891377e+000 -2.680653e+000 -9.055848e-001 178 181 126
8.899715e+000 -2.687535e+000 -9.067009e-001 178 181 126
7.338517e+000 -2.220921e+000 -1.125740e+000 106 106 93
7.921276e+000 -3.750633e+000 -5.296984e-001 115 113 100
8.973531e+000 -3.191137e+000 -8.858887e-001 157 152 100
8.757142e+000 -1.864015e+000 -1.208024e+000 184 190 143
5.566927e+000 -3.317432e+000 -8.100173e-001 114 112 102
7.306494e+000 -2.583482e+000 -1.600725e+000 66 56 47
5.874101e+000 -3.371490e+000 -4.057201e-002 42 52 57
8.653129e+000 -2.348720e+000 -1.404301e+000 132 130 82
8.710522e+000 -2.199091e+000 -1.278341e+000 186 188 138
7.948047e+000 -3.264240e+000 -5.405323e-001 107 108 107
8.799239e+000 -2.411291e+000 -1.144655e+000 168 169 112
8.924961e+000 -3.139751e+000 -8.203782e-001 155 156 115
8.892699e+000 -2.641652e+000 -9.201178e-001 166 169 114
8.897369e+000 -2.305999e+000 -9.690133e-001 147 147 97
8.890394e+000 -2.301238e+000 -9.675467e-001 147 147 97
7.900294e+000 -3.420029e+000 -2.815585e+000 158 146 98
7.303965e+000 -2.579105e+000 -1.650940e+000 74 61 55
7.526792e+000 -2.350033e+000 -1.819490e+000 79 69 60
5.764583e+000 -3.339044e+000 -3.525890e-001 43 33 39
5.777519e+000 -3.500634e+000 -1.134389e-001 106 117 121
7.348981e+000 -2.323764e+000 -9.847242e-001 64 59 53
5.999304e+000 -3.466333e+000 2.420138e-002 137 169 170
6.005366e+000 -3.485752e+000 2.476963e-002 137 169 170
7.297917e+000 -2.770875e+000 -6.793440e-001 99 102 91
8.703148e+000 -2.078082e+000 -1.372464e+000 164 166 116
8.742441e+000 -2.136784e+000 -1.255799e+000 162 162 112
8.762298e+000 -2.174316e+000 -1.241580e+000 182 187 136
6.020997e+000 -3.452552e+000 1.165253e-002 26 25 30
9.034419e+000 -3.373645e+000 -6.924205e-001 159 159 105
7.340553e+000 -2.558220e+000 -1.717960e+000 76 64 55
7.558846e+000 -2.343149e+000 -1.877499e+000 81 70 61
8.819191e+000 -2.243521e+000 -1.158291e+000 148 151 98
5.805513e+000 -2.059116e+000 -7.015943e-001 71 68 75
8.802212e+000 -2.096846e+000 -1.161149e+000 187 192 145
8.293514e+000 -3.325065e+000 -3.884190e-001 95 83 61
7.237033e+000 -5.794774e+001 -4.303399e+000 92 126 97
6.528843e+000 -5.623779e+001 -4.409985e+000 124 102 99
8.864174e+000 -5.383029e+001 -4.774970e+000 138 68 118
6.237538e+000 -6.469515e+001 -4.485502e+000 156 95 113
1.026121e+001 -4.615447e+001 -3.490903e+000 118 139 168
9.926596e+000 -4.641558e+001 -2.698450e+000 76 53 109
8.049956e+000 -3.220161e+000 -4.112928e-001 85 77 57
7.665921e+000 -2.349855e+000 -1.612276e+000 72 58 47
8.718403e+000 -2.879271e+000 -1.227156e+000 131 125 85
7.938353e+000 -3.353364e+000 -4.536468e-001 106 110 106
8.882940e+000 -3.445269e+000 -7.550232e-001 129 125 83
8.095294e+000 -3.309723e+000 -2.817533e-001 150 158 146
8.338977e+000 -3.305157e+000 -4.215088e-001 109 100 72
8.956000e+000 -2.640703e+000 -8.409838e-001 179 182 127
7.312192e+000 -2.542181e+000 -1.667541e+000 53 42 36
7.655786e+000 -2.357102e+000 -1.655949e+000 46 31 28
7.950428e+000 -3.307062e+000 -5.621952e-001 94 99 96
7.950428e+000 -3.307062e+000 -5.621952e-001 94 99 96
7.299663e+000 -2.608439e+000 -1.604734e+000 53 40 34
7.527623e+000 -2.392750e+000 -1.626756e+000 48 34 25
9.135595e+000 -3.702842e+000 -5.288891e-001 153 148 90
5.797955e+000 -3.372851e+000 -3.495003e-001 48 49 51
5.816811e+000 -3.340820e+000 -1.751218e-001 65 70 76
6.036745e+000 -3.544889e+000 2.567489e-002 47 48 56
6.068237e+000 -3.531587e+000 6.506000e-002 41 36 40
6.075919e+000 -3.500511e+000 5.484608e-002 80 78 81
7.270293e+000 -2.711169e+000 -7.583451e-001 75 76 71
7.921440e+000 -3.561556e+000 -4.685791e-001 139 140 123
7.884349e+000 -3.476964e+000 -4.444119e-001 135 132 115
8.138676e+000 -3.267189e+000 -6.389138e-001 123 127 100
8.151966e+000 -3.120187e+000 -7.614851e-001 82 88 74
8.157357e+000 -3.072799e+000 -7.563560e-001 212 241 236
8.159160e+000 -2.969364e+000 -8.378935e-001 210 239 236
7.978343e+000 -3.528937e+000 -4.262533e-001 114 111 96
8.805123e+000 -2.993877e+000 -1.078683e+000 157 159 102
8.791800e+000 -2.829645e+000 -1.054747e+000 163 162 105
8.029506e+000 -3.235101e+000 -4.850887e-001 77 69 49
8.029506e+000 -3.235101e+000 -4.850887e-001 77 69 49
8.793672e+000 -2.534629e+000 -1.103131e+000 187 193 131
8.115505e+000 -3.347737e+000 -2.832460e-001 150 153 134
8.115505e+000 -3.347737e+000 -2.832460e-001 150 153 134
8.797315e+000 -2.717292e+000 -9.812448e-001 183 185 127
8.862854e+000 -2.741651e+000 -9.704670e-001 185 185 126
8.756611e+000 -2.277712e+000 -1.183178e+000 153 150 95
8.323497e+000 -3.288559e+000 -3.816631e-001 117 101 75
8.904959e+000 -2.311887e+000 -9.871307e-001 178 179 121
9.160483e+000 -3.455555e+000 -4.048133e-001 153 148 84
7.699596e+000 -5.391097e+000 -2.963504e+000 132 120 62
7.286044e+000 -2.590497e+000 -1.658794e+000 30 19 15
5.776806e+000 -3.488545e+000 -2.931900e-001 67 63 59
5.824500e+000 -3.303413e+000 -1.717090e-001 54 59 67
5.854594e+000 -3.409741e+000 -8.262364e-002 138 149 151
7.696485e+000 -2.421612e+000 -1.441943e+000 52 38 29
6.018164e+000 -3.467465e+000 6.578898e-002 63 58 62
7.333838e+000 -2.156472e+000 -1.026913e+000 106 101 80
7.898490e+000 -3.442661e+000 -4.566761e-001 136 147 135
7.898490e+000 -3.442661e+000 -4.566761e-001 136 147 135
8.157542e+000 -2.880285e+000 -8.639478e-001 78 61 43
8.599910e+000 -2.149861e+000 -1.433262e+000 189 194 140
8.568661e+000 -2.107990e+000 -1.427710e+000 164 168 117
8.694533e+000 -2.451885e+000 -1.203679e+000 146 145 89
8.605737e+000 -2.040977e+000 -1.399027e+000 195 199 148
8.632613e+000 -2.055627e+000 -1.403407e+000 195 199 148
7.980342e+000 -3.359720e+000 -4.095520e-001 160 162 148
7.980342e+000 -3.359720e+000 -4.095520e-001 160 162 148
8.068910e+000 -3.250818e+000 -4.822446e-001 98 87 65
8.835476e+000 -2.797426e+000 -1.031058e+000 181 185 125
8.835476e+000 -2.797426e+000 -1.031058e+000 181 185 125
8.745015e+000 -2.438937e+000 -1.169224e+000 147 145 89
8.655262e+000 -2.362140e+000 -1.163771e+000 177 177 119
8.680573e+000 -2.153876e+000 -1.319192e+000 189 190 132
8.855785e+000 -2.682769e+000 -9.685452e-001 183 184 124
8.179863e+000 -3.333318e+000 -2.667678e-001 114 110 98
8.179863e+000 -3.333318e+000 -2.667678e-001 114 110 98
9.693953e+000 -3.807805e+000 -7.256627e-001 169 167 106
8.722557e+000 -2.089189e+000 -1.142222e+000 166 175 118
7.747931e+000 -3.301205e+000 -2.882385e+000 165 151 100
7.750191e+000 -3.558975e+000 -2.800087e+000 144 127 75
5.617705e+000 -3.716774e+000 -4.622854e-001 81 72 65
5.615001e+000 -3.617352e+000 -3.973752e-001 148 140 129
5.767170e+000 -3.489296e+000 -3.243273e-001 68 59 50
5.795020e+000 -3.381677e+000 -3.644445e-001 138 154 151
5.850271e+000 -3.423413e+000 -2.393220e-001 93 89 71
5.822102e+000 -3.540124e+000 -7.525292e-002 87 93 93
5.834835e+000 -3.513605e+000 -8.221415e-002 54 60 64
7.703089e+000 -2.323247e+000 -1.597526e+000 77 60 49
7.672986e+000 -2.276148e+000 -1.583518e+000 50 37 28
5.974641e+000 -3.423499e+000 -3.361641e-002 46 51 53
5.863631e+000 -3.498604e+000 2.069619e-001 69 58 64
6.109277e+000 -3.510099e+000 4.456917e-002 64 63 63
7.299987e+000 -2.348547e+000 -1.032847e+000 77 67 57
7.276547e+000 -2.799607e+000 -6.654697e-001 67 62 46
7.368954e+000 -2.397094e+000 -8.950703e-001 71 63 42
8.149922e+000 -2.943921e+000 -9.038830e-001 166 189 189
8.772604e+000 -2.779531e+000 -1.321550e+000 160 164 105
8.496218e+000 -2.136443e+000 -1.425510e+000 179 186 134
8.530161e+000 -2.008834e+000 -1.522542e+000 151 151 101
8.555504e+000 -1.990481e+000 -1.518580e+000 179 177 126
8.173893e+000 -2.974915e+000 -8.797288e-001 78 83 80
8.665797e+000 -2.822533e+000 -1.138301e+000 171 172 114
7.955207e+000 -3.236937e+000 -5.555211e-001 121 124 114
9.062530e+000 -3.525832e+000 -7.805405e-001 120 110 71
9.386964e+000 -4.921718e+000 -2.977568e-002 173 176 119
8.207629e+000 -3.292219e+000 -4.373545e-001 94 82 56
8.337590e+000 -3.291251e+000 -4.016019e-001 66 54 30
8.756454e+000 -2.213455e+000 -1.158076e+000 145 144 87
8.306047e+000 -3.281230e+000 -3.602324e-001 66 52 26
8.977753e+000 -3.006010e+000 -7.969748e-001 182 184 119
8.730710e+000 -2.018853e+000 -1.201865e+000 192 197 140
8.747420e+000 -1.868552e+000 -1.312675e+000 157 156 108
8.747420e+000 -1.868552e+000 -1.312675e+000 157 156 108
9.104278e+000 -3.418339e+000 -5.585933e-001 181 182 116
8.924806e+000 -2.630366e+000 -8.938492e-001 174 174 114
7.696877e+000 -4.148254e+000 -2.954958e+000 146 134 76
7.776536e+000 -3.219824e+000 -2.669879e+000 162 147 102
7.869404e+000 -2.924601e+000 -2.727086e+000 142 131 88
5.570892e+000 -3.335041e+000 -8.104569e-001 113 110 101
5.665675e+000 -3.202740e+000 -9.143459e-001 96 89 81
5.552075e+000 -3.421566e+000 -7.435950e-001 110 105 93
5.568896e+000 -3.325688e+000 -7.847547e-001 77 73 63
5.636377e+000 -3.240377e+000 -7.315751e-001 143 141 128
5.676141e+000 -3.210114e+000 -8.061602e-001 118 110 98
7.624974e+000 -3.011404e+000 -2.201657e+000 98 82 63
7.437857e+000 -2.933343e+000 -1.999627e+000 56 44 32
7.449540e+000 -2.924148e+000 -2.041071e+000 80 67 54
7.472184e+000 -2.916860e+000 -2.056628e+000 50 38 26
7.304221e+000 -3.040630e+000 -1.706443e+000 51 43 40
7.413190e+000 -2.512008e+000 -1.832541e+000 60 43 33
7.443695e+000 -2.382839e+000 -1.790285e+000 51 36 31
7.443695e+000 -2.382839e+000 -1.790285e+000 51 36 31
5.733660e+000 -3.624884e+000 -3.111954e-001 84 79 64
7.294097e+000 -2.528299e+000 -1.631119e+000 47 38 31
7.294097e+000 -2.528299e+000 -1.631119e+000 47 38 31
7.324089e+000 -2.613164e+000 -1.332088e+000 58 49 41
7.324089e+000 -2.613164e+000 -1.332088e+000 58 49 41
5.809101e+000 -3.529041e+000 -5.987268e-002 28 23 27
5.833755e+000 -3.425777e+000 -1.308093e-001 61 65 76
5.833755e+000 -3.425777e+000 -1.308093e-001 61 65 76
5.827720e+000 -3.414912e+000 -1.072366e-001 169 205 200
5.832821e+000 -3.429013e+000 -1.057082e-001 169 205 200
7.317746e+000 -2.609366e+000 -1.275345e+000 54 44 35
7.691375e+000 -2.367544e+000 -1.557362e+000 49 37 25
5.900542e+000 -3.409454e+000 -1.871181e-002 234 255 254
6.063384e+000 -3.534776e+000 7.036928e-003 69 67 68
6.076417e+000 -3.513909e+000 6.336933e-002 72 67 71
7.302010e+000 -2.477236e+000 -8.827935e-001 52 44 36
7.302010e+000 -2.477236e+000 -8.827935e-001 52 44 36
8.605417e+000 -2.326889e+000 -1.489383e+000 167 168 113
8.540981e+000 -2.241815e+000 -1.559092e+000 166 169 126
8.540981e+000 -2.241815e+000 -1.559092e+000 166 169 126
8.670580e+000 -2.634875e+000 -1.377576e+000 129 129 77
8.670580e+000 -2.634875e+000 -1.377576e+000 129 129 77
8.602102e+000 -2.297650e+000 -1.427259e+000 146 140 90
8.518137e+000 -1.956246e+000 -1.531109e+000 162 162 110
7.951076e+000 -3.280690e+000 -5.771162e-001 170 192 185
8.143856e+000 -3.127310e+000 -7.561597e-001 84 85 68
8.143856e+000 -3.127310e+000 -7.561597e-001 84 85 68
8.760058e+000 -2.782230e+000 -1.111632e+000 172 174 111
8.711454e+000 -2.182489e+000 -1.302869e+000 160 159 103
8.858593e+000 -2.994422e+000 -8.790311e-001 185 187 122
8.777385e+000 -2.275312e+000 -1.201122e+000 148 143 87
8.815267e+000 -2.012179e+000 -1.209396e+000 193 200 148
9.522935e+000 -5.019035e+000 1.204521e-001 173 167 107
9.152841e+000 -3.760938e+000 -3.887493e-001 190 200 138
8.883395e+000 -2.577658e+000 -9.053064e-001 144 139 84
5.665044e+000 -3.237617e+000 -9.655155e-001 60 49 43
5.847565e+000 -2.709902e+000 -1.176909e+000 138 121 74
7.860478e+000 -3.787852e+000 -2.579089e+000 147 135 93
5.571629e+000 -3.341190e+000 -8.430802e-001 82 76 60
5.639685e+000 -3.202630e+000 -9.363182e-001 102 99 90
5.639685e+000 -3.202630e+000 -9.363182e-001 102 99 90
5.653395e+000 -3.180608e+000 -7.397240e-001 132 129 114
5.675237e+000 -3.587510e+000 -3.418755e-001 66 51 46
5.710702e+000 -3.571386e+000 -3.441904e-001 124 125 111
7.476432e+000 -2.346300e+000 -1.750509e+000 47 37 28
5.758796e+000 -3.428806e+000 -2.387140e-001 248 255 253
5.834707e+000 -3.434939e+000 -7.569587e-002 52 59 64
5.881039e+000 -3.251057e+000 -1.707349e-001 228 255 255
5.881039e+000 -3.251057e+000 -1.707349e-001 228 255 255
5.865609e+000 -3.483912e+000 -1.364631e-002 29 25 32
5.901512e+000 -3.247348e+000 -1.526697e-001 34 31 32
6.083584e+000 -3.459523e+000 6.233151e-002 22 17 21
8.580023e+000 -2.231111e+000 -1.571143e+000 144 140 93
8.580023e+000 -2.231111e+000 -1.571143e+000 144 140 93
8.793499e+000 -3.108484e+000 -1.003451e+000 170 173 116
8.682867e+000 -2.097056e+000 -1.362993e+000 195 202 151
8.741842e+000 -2.345080e+000 -1.246933e+000 179 180 123
8.720703e+000 -2.150499e+000 -1.234469e+000 196 203 146
8.748742e+000 -2.034311e+000 -1.249465e+000 159 161 108
9.172430e+000 -3.660280e+000 -4.085578e-001 189 189 127
8.711658e+000 -1.818665e+000 -1.230211e+000 192 197 143
8.779043e+000 -1.898849e+000 -1.126887e+000 189 192 137
8.779043e+000 -1.898849e+000 -1.126887e+000 189 192 137
5.637506e+000 -3.239082e+000 -8.675027e-001 138 135 120
5.642979e+000 -3.189368e+000 -8.959088e-001 48 34 31
5.584132e+000 -3.268593e+000 -8.007549e-001 90 83 77
5.610769e+000 -3.204581e+000 -8.378026e-001 61 47 44
5.620878e+000 -3.225182e+000 -7.890421e-001 139 140 126
5.611157e+000 -3.252621e+000 -7.607692e-001 85 78 65
7.549415e+000 -2.977919e+000 -2.132713e+000 99 82 64
5.987500e+000 -2.221297e+000 -9.465579e-001 48 37 41
5.691213e+000 -3.597809e+000 -3.064425e-001 149 146 137
5.777088e+000 -3.407328e+000 -3.193876e-001 84 84 84
5.865876e+000 -3.389728e+000 -1.123316e-001 29 35 36
7.686481e+000 -2.399116e+000 -1.535301e+000 71 59 47
8.205164e+000 -3.050186e+000 -7.668033e-001 134 127 87
8.830381e+000 -2.421837e+000 -1.095647e+000 152 153 96
9.261106e+000 -3.805305e+000 -4.586694e-001 173 176 118
7.641483e+000 -4.061736e+000 -2.884167e+000 146 133 78
7.674231e+000 -2.667015e+000 -2.944079e+000 153 140 87
5.752548e+000 -2.993296e+000 -1.346663e+000 163 147 85
5.817157e+000 -2.745920e+000 -1.260189e+000 158 141 85
5.642679e+000 -2.214066e+000 -6.913219e-001 81 69 72
5.716768e+000 -3.546423e+000 -2.545098e-001 53 41 49
5.716768e+000 -3.546423e+000 -2.545098e-001 53 41 49
5.749196e+000 -3.515130e+000 -3.024775e-001 132 133 117
5.749224e+000 -3.385196e+000 -2.026284e-001 35 30 32
5.824190e+000 -2.524048e+000 -3.765943e-001 77 68 71
6.185033e+000 -2.374848e+000 -3.150215e-001 78 68 70
8.753281e+000 -2.873619e+000 -1.167447e+000 162 163 106
8.841376e+000 -2.659555e+000 -1.069020e+000 185 190 126
7.623418e+000 -2.334324e+000 -1.838181e+000 81 73 60
5.928981e+000 -2.433262e+000 -3.732728e-001 56 46 47
6.145913e+000 -2.412684e+000 -3.121559e-001 35 26 27
8.612724e+000 -2.319774e+000 -1.409149e+000 150 146 94
8.704933e+000 -1.909247e+000 -1.350823e+000 167 164 111
8.801345e+000 -2.028849e+000 -1.099874e+000 193 202 145
5.724221e+000 -3.623602e+000 -3.141258e-001 89 87 73
5.661869e+000 -2.154225e+000 -5.930433e-001 92 81 85
5.661869e+000 -2.154225e+000 -5.930433e-001 92 81 85
5.834843e+000 -2.052517e+000 -6.566794e-001 36 28 30
5.793505e+000 -3.495380e+000 -3.975047e-002 26 16 24
7.327599e+000 -2.752146e+000 -7.428680e-001 127 140 131
8.633805e+000 -2.255360e+000 -1.453449e+000 172 179 127
5.734336e+000 -2.208180e+000 -7.582296e-001 22 13 16
7.283951e+000 -2.674531e+000 -1.207832e+000 56 47 42
8.711353e+000 -2.199273e+000 -1.165110e+000 160 158 101
8.734417e+000 -1.933727e+000 -1.256343e+000 190 197 145
7.533962e+000 -2.525019e+000 -1.950059e+000 88 72 47
7.533962e+000 -2.525019e+000 -1.950059e+000 88 72 47
7.437198e+000 -2.466446e+000 -1.723728e+000 48 34 32
5.782133e+000 -2.099661e+000 -5.566535e-001 67 55 55
8.145499e+000 -3.196067e+000 -5.828349e-001 173 175 112
8.145499e+000 -3.196067e+000 -5.828349e-001 173 175 112
7.357405e+000 -2.569528e+000 -1.428284e+000 61 51 41
7.357405e+000 -2.569528e+000 -1.428284e+000 61 51 41
7.549585e+000 -2.409257e+000 -1.517013e+000 42 31 25
5.874910e+000 -3.348613e+000 -1.242835e-001 51 56 60
8.794553e+000 -3.000918e+000 -1.025515e+000 176 180 119
4.651349e+000 -5.227449e+001 -1.312875e+001 86 86 146
4.651349e+000 -5.227449e+001 -1.312875e+001 86 86 146
9.022912e+000 -2.624779e+000 -6.654940e-001 189 193 134
8.153591e+000 -2.990063e+000 -1.943991e+000 44 29 24
7.263102e+000 -2.573383e+000 -1.498903e+000 46 35 33
7.919737e+000 -3.597651e+000 -2.536101e+000 82 66 40
8.915677e+000 -3.134106e+000 -8.931997e-001 152 152 90
7.347642e+000 -2.486329e+000 -1.662695e+000 64 53 47
7.347642e+000 -2.486329e+000 -1.662695e+000 64 53 47
8.100028e+000 -3.294627e+000 -2.903726e-001 110 108 96
8.316450e+000 -3.262988e+000 -3.521703e-001 114 103 73
7.516218e+000 -2.891900e+000 -2.070577e+000 46 33 25
8.492114e+000 -1.880894e+000 -1.674395e+000 158 158 104
7.652366e+000 -2.824845e+000 -3.039314e+000 151 140 84
7.851034e+000 -4.388266e+000 -2.673065e+000 150 138 80
7.776374e+000 -3.985037e+000 -2.711212e+000 164 157 102
7.350698e+000 -2.483541e+000 -1.644861e+000 65 52 46
7.430461e+000 -2.435005e+000 -1.588678e+000 39 29 19
7.459679e+000 -2.376728e+000 -1.670229e+000 48 37 27
7.656628e+000 -2.507131e+000 -1.444650e+000 38 25 17
7.681806e+000 -2.488379e+000 -1.455894e+000 60 47 38
8.700192e+000 -2.191981e+000 -1.275939e+000 201 206 149
7.359659e+000 -2.458393e+000 -1.607758e+000 46 35 29
7.732693e+000 -3.300037e+000 -2.827158e+000 149 120 78
7.589611e+000 -2.982883e+000 -3.083440e+000 156 132 88
8.022492e+000 -3.302871e+000 -3.483988e-001 182 183 165
8.826552e+000 -2.786448e+000 -1.050197e+000 166 163 99
8.090086e+000 -3.310557e+000 -2.651463e-001 119 113 91
8.848953e+000 -2.358323e+000 -1.053449e+000 187 179 116
7.844206e+000 -4.676590e+000 -2.596955e+000 142 122 69
7.824650e+000 -2.721954e+000 -2.766727e+000 145 124 69
5.905393e+000 -3.366547e+000 -4.086767e-002 142 161 160
8.667641e+000 -2.184210e+000 -1.330073e+000 169 159 103
8.667641e+000 -2.184210e+000 -1.330073e+000 169 159 103
8.646163e+000 -2.078602e+000 -1.398238e+000 176 171 115
8.387377e+000 -3.290023e+000 -4.408981e-001 198 194 137
8.822494e+000 -2.062402e+000 -1.134520e+000 206 208 145
5.735833e+000 -3.500319e+000 -3.906603e-001 73 58 55
5.719999e+000 -3.585754e+000 -3.151050e-001 98 87 73
5.794524e+000 -3.380753e+000 -3.647462e-001 130 150 141
7.493172e+000 -2.410716e+000 -1.650444e+000 52 35 25
5.838845e+000 -3.406332e+000 -5.492555e-002 220 251 247
5.918435e+000 -3.312055e+000 -1.118836e-001 94 94 92
5.944032e+000 -3.344917e+000 -6.856749e-002 144 167 161
7.720048e+000 -2.334230e+000 -1.599167e+000 83 67 54
7.609186e+000 -2.691627e+000 -1.158501e+000 39 29 20
8.664475e+000 -2.641413e+000 -1.257379e+000 184 179 115
8.675171e+000 -2.271690e+000 -1.338277e+000 163 157 99
8.591454e+000 -2.071066e+000 -1.487986e+000 191 188 133
8.560497e+000 -2.005521e+000 -1.506386e+000 166 157 101
8.739285e+000 -2.274038e+000 -1.336571e+000 200 194 134
8.670984e+000 -2.066565e+000 -1.374972e+000 175 166 111
8.826467e+000 -2.619054e+000 -1.009897e+000 199 194 129
9.154748e+000 -3.403490e+000 -4.019686e-001 185 172 107
8.803814e+000 -2.039700e+000 -1.142982e+000 176 170 112
7.864147e+000 -3.777529e+000 -2.517460e+000 112 92 57
5.630758e+000 -3.606917e+000 -3.772961e-001 92 76 63
7.414442e+000 -2.512949e+000 -1.832442e+000 52 33 19
7.255997e+000 -2.624876e+000 -1.567171e+000 45 32 26
7.415166e+000 -2.538053e+000 -1.652392e+000 74 57 50
5.814300e+000 -3.382103e+000 -2.349675e-001 42 37 43
7.472162e+000 -2.426878e+000 -1.636753e+000 69 51 41
7.274136e+000 -2.585556e+000 -1.401889e+000 48 35 27
7.706476e+000 -2.350254e+000 -1.612777e+000 50 33 23
7.706476e+000 -2.350254e+000 -1.612777e+000 50 33 23
7.706711e+000 -2.378370e+000 -1.560651e+000 47 34 20
8.353801e+000 -2.174627e+000 -1.976368e+000 139 132 85
8.332634e+000 -2.137195e+000 -1.944432e+000 146 138 92
8.575309e+000 -1.986012e+000 -1.541163e+000 169 163 105
8.824439e+000 -2.771269e+000 -1.070283e+000 184 179 115
8.723382e+000 -2.380549e+000 -1.272138e+000 190 182 120
8.779857e+000 -2.403325e+000 -1.206765e+000 193 185 122
8.779857e+000 -2.403325e+000 -1.206765e+000 193 185 122
8.613555e+000 -2.068127e+000 -1.420463e+000 205 202 147
8.794265e+000 -2.458022e+000 -1.096627e+000 187 181 119
8.866047e+000 -2.607702e+000 -9.409798e-001 148 133 74
8.890039e+000 -2.166534e+000 -1.011295e+000 167 161 100
7.830034e+000 -4.545569e+000 -2.591830e+000 148 135 83
7.801242e+000 -3.809493e+000 -2.634953e+000 166 149 95
7.925345e+000 -3.944045e+000 -2.463151e+000 119 103 72
7.865792e+000 -2.456803e+000 -2.658448e+000 162 145 91
7.335606e+000 -2.501051e+000 -1.564537e+000 47 32 27
7.680017e+000 -2.306146e+000 -1.662914e+000 50 33 24
8.735359e+000 -2.925299e+000 -1.237624e+000 107 95 56
8.673468e+000 -2.654450e+000 -1.345035e+000 161 155 98
8.702213e+000 -2.673910e+000 -1.347707e+000 161 155 98
8.665981e+000 -2.144335e+000 -1.469447e+000 202 200 143
8.530241e+000 -1.990336e+000 -1.414386e+000 185 178 124
8.805723e+000 -2.528471e+000 -9.434100e-001 195 190 124
5.723293e+000 -2.847897e+000 -1.200475e+000 153 129 82
7.892214e+000 -2.951990e+000 -2.618473e+000 159 144 93
5.673740e+000 -3.188801e+000 -7.641919e-001 73 52 53
5.701679e+000 -3.158975e+000 -7.534351e-001 130 121 104
5.961629e+000 -3.248052e+000 -1.440347e-001 111 107 95
5.938223e+000 -3.402687e+000 1.057694e-004 31 27 28
8.686806e+000 -2.164756e+000 -1.399737e+000 204 199 144
