ply
format ascii 1.0
element vertex 769
property float x
property float y
property float z
property float nx
property float ny
property float nz
property uchar red
property uchar green
property uchar blue
end_header
1.33487 -1.4125 3.05124 -0.121256 0.566271 0.815251 125 111 79
1.34931 -1.39396 3.05359 -0.0565984 0.819561 -0.57019 117 106 78
1.33413 -1.41387 3.05216 0.198899 0.576657 0.792406 134 119 85
1.34348 -1.40222 3.05253 0.011282 0.73703 0.675765 117 105 75
1.34176 -1.40529 3.0524 -0.0852766 0.509568 0.856194 117 105 73
1.34243 -1.40418 3.05222 -0.0881322 0.847067 0.524128 119 106 73
1.3452 -1.40066 3.05547 0.439869 0.573031 0.691485 122 108 75
1.35221 -1.39249 3.05578 0.59622 0.515195 -0.615708 118 107 78
1.32813 -1.424 3.05453 -0.187834 0.659179 0.728149 142 128 93
1.32891 -1.42275 3.0547 -0.186764 0.620886 0.761328 142 128 93
1.34653 -1.40307 3.05548 0.133175 0.429609 0.893141 113 99 65
1.31875 -1.43693 3.05948 -0.232108 0.698551 0.676869 140 27 28
1.35518 -1.39229 3.05644 -0.204386 0.639995 0.740698 122 109 80
1.35541 -1.39191 3.05659 -0.122775 0.58336 0.802881 123 110 80
1.31684 -1.43994 3.06003 -0.144809 0.638894 0.755543 139 52 41
1.318 -1.43824 3.05977 -0.164739 0.645827 0.745499 139 27 27
1.31984 -1.43684 3.05951 -0.138568 0.709798 0.690642 142 26 28
1.34728 -1.40333 3.05618 0.0683976 0.490954 0.868497 125 111 80
1.35206 -1.39678 3.05662 0.0606332 0.779473 0.623495 128 116 85
1.33167 -1.42523 3.05587 0.117073 0.403633 0.9074 132 112 75
1.34152 -1.41204 3.05539 0.0752203 0.490592 0.868137 116 100 62
1.3411 -1.41394 3.05533 0.205116 0.346352 0.915406 114 98 62
1.34515 -1.40792 3.056 0.0600354 0.56666 0.821761 125 112 79
1.34582 -1.40711 3.05599 0.0143049 0.540049 0.841512 132 119 88
1.34593 -1.40691 3.05602 0.0438525 0.542875 0.838668 132 119 88
1.34573 -1.40728 3.05595 0.0183587 0.56044 0.827992 130 118 86
1.34787 -1.4039 3.05653 0.180369 0.680404 0.710294 126 111 79
1.34566 -1.40713 3.05595 0.20054 0.564598 0.800633 130 118 86
1.34832 -1.40371 3.05653 0.0403509 0.665913 0.744937 114 97 60
1.35197 -1.39852 3.05679 0.0149146 0.628813 0.777414 124 111 80
1.35197 -1.39852 3.05679 0.0149146 0.628813 0.777414 124 111 80
1.30792 -1.45383 3.06291 -0.00212011 0.671434 0.741061 144 31 29
1.34687 -1.40613 3.05657 0.06811 0.553262 0.830218 132 120 88
1.33752 -1.42089 3.05482 -0.173595 0.618034 0.766746 118 103 67
1.33886 -1.42027 3.05546 0.207739 0.642369 0.737704 129 114 81
1.33429 -1.42645 3.05764 -0.195581 0.616704 0.762512 143 109 77
1.33725 -1.42367 3.05688 0.207396 0.397136 0.894019 130 79 57
1.33743 -1.42318 3.05687 0.221453 0.388038 0.894643 123 74 53
1.32993 -1.43228 3.06018 -0.236203 0.830362 -0.504685 141 115 83
1.33669 -1.42479 3.05713 -0.0263661 0.48691 0.873054 151 99 70
1.33847 -1.42273 3.05687 0.275859 0.379694 0.883026 118 73 51
1.31068 -1.46036 3.06638 -0.257471 0.963014 0.0794511 148 115 86
1.32178 -1.44717 3.06238 0.131242 0.457347 0.87955 135 26 27
1.3219 -1.447 3.0624 0.12827 0.460826 0.878172 136 26 27
1.3219 -1.447 3.0624 0.12827 0.460826 0.878172 136 26 27
1.33087 -1.4358 3.05938 -0.213756 0.840642 -0.497624 126 104 65
1.3232 -1.44791 3.06293 0.00416699 0.51275 0.858528 131 112 74
1.34082 -1.42542 3.05751 -0.116476 0.545743 0.829818 132 113 78
1.341 -1.42559 3.05696 -0.42315 0.785227 0.452066 125 111 74
1.34132 -1.42566 3.05671 -0.256779 0.837643 0.482098 126 112 77
1.342 -1.4258 3.05785 -0.344979 0.710169 0.613718 116 20 23
1.34088 -1.42779 3.05854 -0.192753 0.647755 0.737062 117 19 21
1.34942 -1.41673 3.05655 0.889712 0.197836 -0.411428 114 96 59
1.34906 -1.41749 3.05593 0.863839 0.232106 -0.447112 113 93 59
1.35025 -1.41611 3.05625 0.958588 0.240533 -0.152491 122 83 59
1.34855 -1.41915 3.05669 0.930209 0.208428 -0.302106 131 99 71
1.34879 -1.41838 3.05685 0.916637 0.200974 -0.345522 120 96 62
1.34909 -1.41817 3.05689 0.929649 0.195644 -0.312212 122 85 58
1.34861 -1.41865 3.0568 0.955166 0.176211 -0.237925 123 100 67
1.35059 -1.41605 3.05689 0.961463 0.161029 -0.222842 97 38 23
1.34938 -1.41808 3.05703 0.92767 0.237565 -0.288083 118 49 35
1.36321 -1.39697 3.0593 0.158938 0.336717 0.928095 62 29 24
1.36099 -1.4012 3.05944 0.0798622 0.4162 0.905759 103 26 21
1.34478 -1.42943 3.06012 0.220882 0.338445 0.914694 103 15 17
1.34602 -1.42833 3.05878 -0.0990299 0.582965 0.80644 118 22 24
1.34589 -1.42836 3.05873 -0.159283 0.611499 0.775047 126 25 28
1.34625 -1.42832 3.05896 -0.135347 0.58224 0.801672 116 21 23
1.3467 -1.42838 3.05904 -0.0731991 0.587974 0.805561 118 23 25
1.3467 -1.42838 3.05904 -0.0731991 0.587974 0.805561 121 24 27
1.35021 -1.42252 3.05902 0.131913 0.408574 0.903142 120 25 25
1.35019 -1.42327 3.05899 -0.384398 0.701142 0.600531 120 23 25
1.35032 -1.42264 3.05903 0.146084 0.373973 0.915863 107 21 21
1.35104 -1.42118 3.05928 0.0739104 0.414099 0.907226 112 22 23
1.34774 -1.42704 3.06026 -0.112312 0.532588 0.83889 25 43 56
1.34694 -1.42927 3.06045 0.238863 0.352211 0.904927 17 42 53
1.34788 -1.42791 3.05946 -0.00536951 0.672239 0.740314 116 23 28
1.33126 -1.45183 3.06586 -0.0396241 0.662729 -0.747811 118 19 24
1.33846 -1.44143 3.06322 0.112955 0.42745 0.896955 69 17 23
1.34607 -1.43113 3.06063 0.194027 0.354281 0.914789 16 43 54
1.3481 -1.42884 3.0596 -0.0628145 0.671014 0.738779 115 23 26
1.36771 -1.39682 3.05887 0.393236 0.682168 0.616451 86 29 29
1.36807 -1.39587 3.05873 0.534934 0.38862 0.750213 74 35 29
1.34763 -1.42946 3.06039 0.265995 0.864161 0.427168 25 48 66
1.34765 -1.42961 3.06044 0.111723 0.82122 0.559567 23 48 67
1.3484 -1.42852 3.05993 0.192665 0.751696 0.63074 93 24 30
1.33696 -1.44573 3.06446 -0.0843845 0.560757 0.823669 19 52 65
1.34781 -1.42996 3.06042 0.051081 0.795623 0.603635 26 48 67
1.33851 -1.44374 3.06398 -0.0988825 0.554502 0.826287 21 50 59
1.34006 -1.44208 3.06313 -0.105605 0.556378 0.824191 24 52 57
1.37097 -1.39088 3.0623 0.00124845 0.56288 0.826538 89 33 29
1.33079 -1.45593 3.06747 -0.0443962 0.543829 0.838021 19 49 60
1.33346 -1.45152 3.06613 -0.0237869 0.65226 -0.757622 21 53 67
1.34255 -1.43918 3.06263 0.251349 0.750961 0.610639 16 54 72
1.36668 -1.4019 3.05796 0.227234 0.478628 0.848104 85 36 31
1.33697 -1.44785 3.06527 -0.260739 0.676047 0.689185 46 66 64
1.33709 -1.44784 3.06515 -0.170263 0.6052 0.777653 39 57 56
1.33844 -1.44554 3.06457 -0.107787 0.570142 0.814445 64 86 86
1.36785 -1.39988 3.05874 0.139515 0.503069 0.852911 77 30 27
1.36696 -1.40224 3.05777 0.213827 0.479844 0.850898 81 35 30
1.33261 -1.45504 3.06727 0.263305 0.432814 0.862173 47 61 58
1.34116 -1.44208 3.06409 -0.205954 0.615339 0.760881 36 52 52
1.37209 -1.39053 3.06281 -0.0177092 0.45697 0.889306 76 28 26
1.37151 -1.39168 3.06269 0.229012 0.389722 0.892004 84 23 24
1.37171 -1.39139 3.06277 0.155976 0.400545 0.902904 75 22 21
1.3682 -1.40043 3.05881 0.13861 0.50252 0.853382 73 29 26
1.34541 -1.43747 3.06319 0.195543 0.37356 0.906761 14 43 53
1.37083 -1.39373 3.06248 0.215984 0.404924 0.888475 73 21 21
1.34706 -1.43583 3.06283 0.198145 0.370864 0.907303 25 31 35
1.34894 -1.43269 3.06228 0.203514 0.360527 0.910276 55 18 22
1.35271 -1.42695 3.06168 -0.0145324 0.467634 0.883803 94 19 17
1.36836 -1.40135 3.05874 0.198428 0.466286 0.862093 69 37 26
1.34389 -1.44125 3.06389 0.0415092 0.465354 0.884151 19 37 42
1.35033 -1.43171 3.06198 0.0667994 0.443983 0.893542 78 13 13
1.36987 -1.39664 3.06257 0.21629 0.352211 0.910586 79 29 23
1.37319 -1.3904 3.06337 -0.00198168 0.485089 0.874463 72 22 22
1.34847 -1.43537 3.06306 0.158108 0.38915 0.907504 72 13 15
1.34848 -1.43537 3.06307 0.179765 0.380645 0.90708 72 13 15
1.34875 -1.43463 3.06259 0.233695 0.352831 0.906034 73 13 15
1.37297 -1.3913 3.06356 0.0313698 0.428086 0.903193 77 23 23
1.35214 -1.4304 3.06224 0.180582 0.406405 0.89567 108 20 21
1.36831 -1.40073 3.06251 0.0652282 0.445193 0.893056 95 30 21
1.37071 -1.39657 3.06296 0.132639 0.441822 0.887243 82 21 22
1.36882 -1.40076 3.06265 0.275009 0.329611 0.903176 88 25 19
1.33598 -1.45658 3.06869 -0.185042 0.61905 0.763241 131 76 42
1.33785 -1.45402 3.06778 -0.514497 0.845489 -0.142972 118 50 30
1.34002 -1.45044 3.0668 -0.0958089 0.555607 0.825906 66 14 14
1.37013 -1.39869 3.06285 0.0664934 0.453368 0.88884 83 21 22
1.36989 -1.39965 3.06283 0.0816757 0.40698 0.909778 79 21 20
1.33596 -1.45687 3.06872 -0.209133 0.633411 0.745019 134 80 45
1.33724 -1.4552 3.06797 -0.0902973 0.57803 0.811004 119 55 31
1.33923 -1.45205 3.06739 -0.485974 0.838306 -0.247128 94 33 22
1.33906 -1.45247 3.06737 -0.524129 0.851637 0.00174166 94 32 22
1.34717 -1.43982 3.06437 -0.265903 0.633013 0.727042 80 15 19
1.34709 -1.43992 3.06435 -0.288491 0.644137 0.708421 79 16 19
1.34353 -1.44669 3.06581 0.105718 0.619395 -0.777929 88 21 22
1.34318 -1.44745 3.06581 0.0143541 0.641748 -0.766782 83 19 20
1.35085 -1.43556 3.06348 0.388366 0.851653 0.351937 122 25 26
1.3715 -1.39698 3.06355 0.0554126 0.416588 0.907405 80 20 18
1.3368 -1.45794 3.06872 -0.337585 0.796837 0.501087 139 89 51
1.33775 -1.4568 3.06852 -0.314544 0.749089 0.583033 141 86 50
1.36991 -1.40124 3.06294 0.0503375 0.411545 0.909998 83 19 19
1.3388 -1.45619 3.06813 -0.0766406 0.561406 0.823984 132 80 50
1.34224 -1.45048 3.06723 -0.108027 0.566404 0.817017 101 31 26
1.35116 -1.43585 3.06364 0.404435 0.880981 0.245571 121 25 26
1.35418 -1.43202 3.06181 0.251319 0.574371 0.779062 118 33 29
1.35365 -1.43358 3.06159 0.281009 0.476921 0.832815 122 34 31
1.35712 -1.4267 3.06128 0.176847 0.420655 0.889817 124 41 34
1.35846 -1.42502 3.06094 0.180515 0.445029 0.877133 113 28 26
1.35935 -1.42296 3.06082 0.224958 0.431068 0.873827 111 26 26
1.34198 -1.45185 3.06764 0.0634101 0.529109 0.846181 99 27 23
1.35377 -1.43351 3.06204 0.13018 0.874364 0.467483 118 31 29
1.35771 -1.42651 3.06161 0.14634 0.394619 0.907116 106 26 22
1.36986 -1.40228 3.06347 0.0594688 0.417473 0.906741 86 17 18
1.34069 -1.4542 3.06865 -0.491259 0.789285 0.368366 70 43 47
1.34108 -1.45345 3.06836 -0.540624 0.82718 0.153293 80 40 41
1.34354 -1.44931 3.06726 -0.487415 0.780406 0.391655 106 20 23
1.34354 -1.44931 3.06726 -0.487415 0.780406 0.391655 106 20 23
1.34665 -1.44504 3.06583 0.366697 0.394942 0.842351 114 21 23
1.35303 -1.43473 3.06342 -0.0691985 0.759534 0.646776 126 30 31
1.37103 -1.40065 3.06344 0.411366 0.267422 0.871357 70 21 19
1.34088 -1.45453 3.06899 -0.425351 0.745806 0.512689 68 44 50
1.34192 -1.45267 3.06838 -0.53577 0.839259 -0.0927047 85 34 37
1.34754 -1.44453 3.06609 0.275759 0.469294 0.83888 128 25 27
1.34799 -1.44338 3.06568 0.242945 0.459937 0.85407 122 24 25
1.35869 -1.42676 3.06124 -0.158186 0.539374 0.827075 112 22 23
1.34089 -1.45497 3.06915 -0.548089 0.836418 0.00190844 66 44 47
1.34742 -1.44506 3.06616 0.385031 0.421587 0.820985 130 25 28
1.34836 -1.44421 3.06588 0.2312 0.467575 0.853182 143 32 35
1.35253 -1.43737 3.06402 0.243073 0.396006 0.885491 119 25 25
1.35726 -1.42885 3.06353 0.191016 0.371412 0.908607 107 24 21
1.34113 -1.45563 3.0691 -0.545485 0.83692 -0.0448554 63 42 46
1.34288 -1.4529 3.06903 0.230797 0.750473 0.619293 77 42 48
1.34777 -1.44568 3.06626 0.215248 0.47267 0.854548 130 25 28
1.34807 -1.44481 3.06627 0.224983 0.469669 0.853694 129 24 27
1.34948 -1.44299 3.06563 -0.125483 0.550307 0.825479 114 21 22
1.3508 -1.44045 3.06507 0.183775 0.625073 0.758624 122 25 26
1.35129 -1.44037 3.06479 0.163944 0.48942 0.856499 134 29 29
1.35156 -1.43991 3.0644 0.193047 0.551019 0.811856 121 26 26
1.35163 -1.43982 3.06444 0.310862 0.517271 0.797368 122 26 26
1.35315 -1.43755 3.06373 0.328212 0.378103 0.86563 119 25 23
1.35713 -1.42944 3.06358 0.163934 0.385514 0.908022 107 24 21
1.3396 -1.45923 3.06984 -0.550681 0.8346 -0.0138779 75 48 51
1.34371 -1.45244 3.06926 0.25671 0.782237 0.567632 69 43 48
1.34371 -1.45244 3.06926 0.25671 0.782237 0.567632 69 43 48
1.34881 -1.44494 3.0659 0.170599 0.402993 0.899162 106 17 17
1.3488 -1.44498 3.06589 0.181264 0.396752 0.899851 106 17 17
1.35075 -1.44108 3.06548 0.179865 0.657062 0.732065 124 24 26
1.35054 -1.44182 3.06549 0.21045 0.674987 0.70718 130 26 27
1.35126 -1.44088 3.06521 -0.0360172 0.545594 0.837276 161 40 44
1.35852 -1.42855 3.06331 0.134549 0.421852 0.896626 108 21 21
1.34141 -1.45794 3.06963 0.171801 0.930161 0.324477 74 49 57
1.35217 -1.43981 3.06592 0.0397972 0.868423 0.494225 109 18 19
1.35114 -1.44144 3.06563 0.179362 0.795005 0.57948 121 22 24
1.35165 -1.44112 3.06541 0.0578316 0.880253 0.470967 116 21 22
1.3519 -1.44023 3.06502 -0.14291 0.57614 0.804761 129 27 28
1.36043 -1.42541 3.06349 -0.0126998 0.469167 0.883018 107 20 21
1.35862 -1.42906 3.06326 0.0606813 0.440436 0.895731 107 20 20
1.34008 -1.46066 3.07072 -0.0247784 0.538126 0.8425 103 58 54
1.3479 -1.4477 3.06683 0.303295 0.441085 0.844664 119 22 24
1.34821 -1.44756 3.06649 0.197706 0.623632 0.756304 118 21 23
1.35668 -1.43314 3.06333 0.264767 0.361231 0.894098 105 20 19
1.37025 -1.40669 3.06426 0.212334 0.346016 0.913886 79 15 16
1.36744 -1.4175 3.05914 0.0747641 0.589666 0.804179 59 24 24
1.34124 -1.46108 3.07066 0.268569 0.42147 0.86616 58 38 37
1.34126 -1.46103 3.07067 0.232256 0.435057 0.869932 58 38 37
1.34126 -1.46103 3.07067 0.232256 0.435057 0.869932 58 38 37
1.34518 -1.45319 3.07055 -0.18412 0.648008 0.739043 68 48 53
1.34787 -1.45031 3.0685 -0.00562015 0.513534 0.858051 110 19 21
1.35026 -1.44635 3.06726 -0.325015 0.828364 -0.456266 124 24 27
1.35046 -1.44586 3.06658 0.322672 0.943592 0.0742716 117 20 22
1.34053 -1.46346 3.07165 0.197289 0.493406 0.847129 69 49 51
1.341 -1.4625 3.07119 0.246879 0.436328 0.865256 60 41 41
1.3504 -1.44703 3.06744 0.274891 0.45911 0.84478 111 21 23
1.35088 -1.44581 3.0668 0.307508 0.950192 0.0507298 154 37 44
1.35256 -1.44323 3.06599 -0.285272 0.636928 0.7162 109 19 21
1.35708 -1.43557 3.06482 0.0928846 0.426093 0.899898 94 16 17
1.35812 -1.43374 3.06433 0.140689 0.401244 0.905102 94 15 16
1.35611 -1.43806 3.06507 0.788743 0.290859 -0.541558 92 15 16
1.35769 -1.43542 3.06487 0.0918266 0.424586 0.900719 85 15 13
1.36031 -1.43055 3.06343 0.278843 0.383331 0.880514 88 59 34
1.3507 -1.44689 3.06852 0.786903 0.282955 -0.54838 104 18 23
1.34488 -1.45706 3.07216 -0.407615 0.725202 0.554916 73 55 61
1.34442 -1.45887 3.07244 -0.311668 0.714108 0.626827 67 49 52
1.35294 -1.44483 3.06861 0.195105 0.412772 0.889693 77 13 15
1.34739 -1.45517 3.07154 0.280881 0.825664 0.48927 68 49 53
1.35071 -1.44966 3.06923 0.786575 0.275994 -0.552384 80 14 15
1.36696 -1.42454 3.05895 0.220556 0.527272 0.820573 88 58 45
1.34773 -1.45561 3.0717 0.235591 0.891458 0.38704 69 50 54
1.35103 -1.45056 3.06967 -0.30472 0.668343 0.678575 87 16 20
1.37675 -1.39982 3.06546 -0.0798545 0.587331 0.805397 94 68 43
1.37511 -1.40385 3.06526 -0.172584 0.753276 0.634658 102 75 49
1.35731 -1.442 3.06662 0.246996 0.453156 0.856529 23 47 55
1.35751 -1.44219 3.06665 0.118063 0.726505 0.676943 49 75 82
1.3483 -1.45891 3.07224 -0.0594541 0.977387 0.202928 71 52 56
1.37756 -1.4016 3.06588 -0.0473656 0.618373 0.784456 98 72 47
1.36748 -1.42439 3.06583 -0.0607643 0.486971 0.871302 61 55 35
1.37729 -1.40261 3.06579 0.249329 0.712739 0.65562 94 70 46
1.37767 -1.40142 3.06592 0.000398159 0.674295 0.738462 98 72 47
1.37758 -1.40239 3.06589 0.165835 0.70414 0.690424 70 51 32
1.34907 -1.4606 3.07305 0.182227 0.552464 0.813374 61 42 41
1.34891 -1.46086 3.07306 0.189939 0.559976 0.806443 66 48 49
1.34863 -1.46139 3.07305 0.244097 0.543358 0.80323 66 48 50
1.35893 -1.4434 3.06761 -0.098206 0.538154 0.837106 51 76 80
1.36586 -1.42906 3.06618 0.240442 0.465177 0.851938 17 42 52
1.36737 -1.42632 3.06582 0.241641 0.370486 0.896855 107 76 38
1.34759 -1.46462 3.07402 -0.119493 0.720789 0.682778 70 52 55
1.35058 -1.45842 3.07328 0.115937 0.721313 0.682837 61 43 43
1.35237 -1.45458 3.0725 0.180493 0.815455 0.549959 88 56 56
1.35637 -1.44859 3.06919 -0.135996 0.564632 0.814062 45 72 79
1.35634 -1.44865 3.06918 -0.14775 0.561703 0.814039 45 72 78
1.35956 -1.4431 3.06776 -0.007312 0.49602 0.86828 37 56 58
1.36781 -1.42621 3.0657 -0.00727092 0.475462 0.879706 114 82 45
1.3563 -1.44947 3.06966 -0.187598 0.590562 0.784885 33 59 69
1.3563 -1.44947 3.06966 -0.187598 0.590562 0.784885 33 59 69
1.35872 -1.44526 3.06847 -0.140853 0.553715 0.820707 31 52 57
1.36098 -1.44102 3.06709 0.136087 0.48193 0.865577 34 54 59
1.3559 -1.45158 3.07013 -0.257981 0.618207 0.742472 24 52 63
1.35852 -1.44692 3.06913 -0.301364 0.643444 0.703676 21 47 58
1.35852 -1.44692 3.06913 -0.301364 0.643444 0.703676 21 47 58
1.35956 -1.44469 3.06839 -0.131199 0.617791 0.77532 50 78 88
1.36109 -1.44182 3.06737 0.113163 0.435359 0.893116 39 61 63
1.36508 -1.43308 3.06683 0.260373 0.385629 0.885153 18 37 41
1.36696 -1.42961 3.06616 0.155655 0.416065 0.895914 111 76 37
1.3696 -1.42417 3.06596 -0.088485 0.965585 0.244572 117 83 49
1.33631 -1.48838 3.08111 -0.138906 0.627514 0.766114 99 75 55
1.33847 -1.48396 3.08019 -0.281512 0.678427 0.678593 99 74 56
1.35512 -1.45361 3.07133 -0.195811 0.603685 0.772802 59 19 14
1.35477 -1.45393 3.07099 -0.24264 0.623473 0.743241 88 72 42
1.36031 -1.44299 3.06958 0.825905 0.233341 0.513257 17 39 44
1.3595 -1.44534 3.0688 0.199987 0.677824 0.707502 39 71 83
1.36654 -1.43128 3.0664 0.370941 0.36497 0.853932 111 78 38
1.36656 -1.43194 3.06642 0.207865 0.547104 0.810845 119 84 45
1.33882 -1.48477 3.08034 -0.319072 0.703223 0.635351 106 80 64
1.35448 -1.45561 3.0717 0.0562511 0.826804 0.55967 59 12 16
1.35474 -1.45523 3.07172 0.0903312 0.745792 0.660027 59 12 16
1.35541 -1.45399 3.07062 -0.214955 0.59527 0.77424 36 56 53
1.35633 -1.45262 3.07046 -0.220337 0.600642 0.768558 24 49 55
1.36211 -1.44148 3.06791 0.0779436 0.447708 0.890776 18 38 43
1.36229 -1.44089 3.06795 0.090916 0.444446 0.89118 19 38 43
1.36334 -1.43896 3.06764 0.118577 0.43384 0.893153 16 38 44
1.36337 -1.43888 3.06765 0.105146 0.439816 0.891911 16 38 44
1.37847 -1.40494 3.06692 -0.0207136 0.531562 0.846766 99 71 46
1.37858 -1.40465 3.06695 0.00368109 0.568172 0.822901 103 74 48
1.37855 -1.40453 3.06653 -0.0143648 0.90128 0.433 91 66 46
1.3787 -1.40449 3.06653 -0.0534442 0.542183 0.838559 85 61 41
1.35519 -1.45527 3.07194 0.048157 0.84137 0.538309 50 10 12
1.36094 -1.4449 3.06876 0.227343 0.39473 0.890227 18 39 45
1.36119 -1.44419 3.06825 -0.313716 0.620921 0.718359 19 44 54
1.36125 -1.44402 3.06826 -0.304852 0.617568 0.725035 20 45 57
1.37811 -1.40635 3.06683 -0.0175359 0.52151 0.853065 95 68 43
1.33377 -1.49681 3.08345 -0.178095 0.649483 0.739225 108 80 53
1.33952 -1.48389 3.08145 -0.199176 0.652317 0.731308 116 89 68
1.35194 -1.46192 3.07371 -0.558035 0.766901 0.316953 127 96 77
1.35647 -1.45368 3.07104 -0.229254 0.615962 0.75368 68 33 22
1.36369 -1.43956 3.06826 0.142184 0.427333 0.892844 72 66 40
1.37844 -1.4062 3.06699 -0.0162044 0.533058 0.845924 104 75 49
1.37841 -1.40626 3.06699 -0.0157462 0.524073 0.851528 101 72 46
1.37841 -1.40626 3.06699 -0.0157462 0.524073 0.851528 101 72 46
1.33401 -1.49714 3.08378 -0.173304 0.644163 0.744996 100 73 51
1.3348 -1.49464 3.08349 -0.401696 0.734162 0.5474 115 87 63
1.34477 -1.47672 3.07851 -0.383021 0.705819 0.595915 121 93 73
1.34477 -1.47672 3.07851 -0.383021 0.705819 0.595915 125 97 78
1.34571 -1.47501 3.07762 -0.330132 0.679099 0.65562 129 101 80
1.35177 -1.46319 3.07419 0.764585 0.298436 -0.571266 127 98 72
1.35776 -1.45247 3.07087 -0.216992 0.596662 0.772599 47 14 13
1.37806 -1.40791 3.06721 -0.0828397 0.569793 0.817602 110 79 51
1.37904 -1.4053 3.06715 0.0908276 0.489773 0.867106 99 71 46
1.35645 -1.4556 3.07228 -0.35999 0.728148 -0.583273 53 12 17
1.35693 -1.45449 3.07183 -0.264799 0.641196 0.720243 50 11 16
1.35676 -1.45492 3.07194 -0.333831 0.651908 0.680861 55 12 19
1.35824 -1.45228 3.07107 0.237029 0.405015 0.883052 40 8 7
1.35824 -1.45228 3.07107 0.237029 0.405015 0.883052 40 8 7
1.36248 -1.44362 3.06895 0.120294 0.441824 0.889 118 80 38
1.33465 -1.49835 3.08357 -0.0722372 0.602304 0.794992 107 79 54
1.36171 -1.44673 3.06922 0.0505414 0.556058 0.829605 128 71 41
1.3635 -1.44253 3.06872 0.118414 0.438076 0.891105 119 82 41
1.36068 -1.44919 3.07024 0.71495 0.333023 0.61477 107 22 21
1.36128 -1.44811 3.07016 0.327196 0.751325 0.573108 118 28 28
1.36261 -1.44671 3.06995 0.209612 0.725062 0.656009 131 73 46
1.3362 -1.49884 3.08492 0.189416 0.597784 0.778958 119 89 69
1.33691 -1.49681 3.0841 -0.295178 0.700452 0.649798 118 91 71
1.36468 -1.44273 3.06982 -0.555233 0.769533 -0.315492 130 92 53
1.36393 -1.44448 3.06933 0.305243 0.591789 0.746065 133 97 57
1.36655 -1.43945 3.06756 -0.00127754 0.634236 -0.773138 116 83 45
1.36659 -1.43933 3.06757 0.00662404 0.632998 -0.774125 128 94 57
1.37108 -1.42945 3.06744 -0.236762 0.681972 -0.691996 107 75 39
1.33751 -1.49707 3.0844 0.208142 0.573578 0.792266 72 52 40
1.35662 -1.45771 3.07547 -0.362691 0.672878 0.64474 139 95 76
1.36084 -1.45191 3.07132 0.212788 0.49052 0.845051 94 18 16
1.36701 -1.44005 3.0673 -0.213817 0.680868 -0.700501 122 89 51
1.36702 -1.44001 3.06731 -0.233706 0.685979 -0.689068 122 89 51
1.367 -1.44023 3.06727 0.0942569 0.487932 0.867778 119 85 48
1.37032 -1.43187 3.06786 0.138 0.589461 -0.795922 112 79 42
1.338 -1.49643 3.08492 0.2273 0.537505 0.812048 50 32 23
1.338 -1.49643 3.08492 0.2273 0.537505 0.812048 50 32 23
1.33816 -1.49722 3.08408 0.0230529 0.556075 0.830812 45 28 19
1.36298 -1.44769 3.07174 0.0172209 0.505349 0.862743 91 21 14
1.36233 -1.44909 3.07168 0.332383 0.463127 0.821605 95 21 16
1.3669 -1.44194 3.06744 -0.186844 0.712227 -0.676626 111 77 40
1.38042 -1.40733 3.06828 -0.0153578 0.531076 0.847185 106 76 48
1.34796 -1.47883 3.07901 0.148163 0.50924 0.847775 120 89 60
1.34801 -1.4791 3.07899 0.218146 0.521106 0.825143 128 97 69
1.35699 -1.46041 3.07456 0.0192427 0.524526 0.851177 105 54 36
1.35978 -1.4559 3.0727 -0.2761 0.628175 0.727437 111 24 24
1.3662 -1.4432 3.06808 -0.386532 0.721483 -0.574504 113 79 42
1.38056 -1.40727 3.06827 0.422778 0.504934 0.75253 101 72 42
1.38082 -1.40665 3.06823 -0.0263851 0.528547 0.848494 97 69 41
1.35932 -1.45763 3.07352 0.0617022 0.489666 0.869724 100 26 20
1.36071 -1.45465 3.07267 -0.158214 0.592072 0.790202 109 28 23
1.36071 -1.45465 3.07267 -0.158214 0.592072 0.790202 109 28 23
1.37832 -1.41364 3.06851 0.096871 0.719035 0.688189 111 76 45
1.38034 -1.40862 3.06824 0.112515 0.655263 0.746974 101 72 41
1.35908 -1.45834 3.07349 -0.145276 0.567857 0.810206 110 29 24
1.3674 -1.44253 3.06862 0.0390309 0.474889 0.87918 113 79 42
1.37001 -1.43566 3.06852 -0.233431 0.677183 -0.697806 117 84 48
1.36049 -1.45743 3.07305 -0.216845 0.593062 0.775407 112 37 26
1.34242 -1.49476 3.08407 -0.403925 0.715969 0.569414 116 86 66
1.35944 -1.45997 3.07387 -0.203115 0.609617 0.766232 100 30 21
1.36026 -1.45848 3.07344 -0.169696 0.611413 0.772902 113 39 27
1.36096 -1.45662 3.073 -0.17726 0.576242 0.797825 111 38 25
1.36492 -1.44763 3.07249 -0.0213466 0.52047 0.853613 86 31 16
1.36633 -1.44693 3.06933 0.0828179 0.593042 0.800901 124 90 53
1.36682 -1.4457 3.06917 0.0266785 0.501704 0.864628 123 89 52
1.37008 -1.43765 3.06933 0.256969 0.69833 0.668058 118 84 47
1.36782 -1.44309 3.06895 0.0274564 0.492565 0.869842 118 84 48
1.34352 -1.49341 3.08385 -0.24948 0.661231 0.707484 115 81 60
1.34355 -1.49311 3.08384 -0.318523 0.684342 0.655911 121 87 66
1.35587 -1.46837 3.07674 -0.151934 0.586947 0.795242 108 63 45
1.35587 -1.46837 3.07674 -0.151934 0.586947 0.795242 108 63 45
1.35939 -1.46084 3.07442 -0.171023 0.580563 0.796051 83 22 14
1.36022 -1.4597 3.07432 -0.248659 0.61494 0.748343 100 31 23
1.36885 -1.44083 3.07007 0.238835 0.42128 0.874917 113 78 42
1.36831 -1.44259 3.06939 0.0838601 0.527091 0.845661 122 88 52
1.36991 -1.43816 3.0693 0.0585904 0.597737 0.799549 118 84 47
1.37094 -1.43651 3.06909 0.318698 0.580274 0.749475 119 85 49
1.37164 -1.4351 3.0689 -0.57256 0.767453 -0.288429 129 94 61
1.37162 -1.43442 3.06856 -0.553705 0.757688 -0.345425 111 78 41
1.36084 -1.45893 3.07359 -0.398768 0.683049 0.611905 121 44 28
1.37015 -1.43909 3.06932 0.171935 0.789893 0.588649 111 77 40
1.37093 -1.43721 3.06917 0.194682 0.640591 0.742794 119 85 50
1.34403 -1.49451 3.08454 -0.386387 0.705599 0.594 118 80 62
1.36443 -1.45255 3.07253 0.07339 0.551308 0.831068 88 34 18
1.35744 -1.46741 3.07738 -0.0802422 0.560486 0.824268 115 71 52
1.36158 -1.45913 3.07404 -0.358209 0.646596 0.673499 90 28 19
1.3641 -1.45427 3.07275 -0.048825 0.525025 0.849685 84 30 13
1.36455 -1.45311 3.07275 0.0466004 0.492039 0.869325 82 30 14
1.36928 -1.44359 3.06941 0.18908 0.74655 0.637897 111 77 39
1.35939 -1.46454 3.07616 -0.255007 0.620146 0.741883 80 47 30
1.36125 -1.46097 3.07525 -0.310913 0.644659 0.69839 83 38 25
1.3715 -1.43951 3.0692 -0.550833 0.757476 -0.350447 108 74 40
1.37217 -1.43823 3.06881 0.0399461 0.607977 0.792949 111 77 43
1.37204 -1.43755 3.06906 0.0377778 0.670992 0.740501 115 81 49
1.36017 -1.46396 3.07602 -0.282079 0.640761 0.714043 122 81 60
1.36121 -1.46158 3.07525 -0.394682 0.664145 0.634931 88 42 27
1.36226 -1.46054 3.07433 -0.369026 0.660969 0.653407 83 23 20
1.36226 -1.46054 3.07433 -0.369026 0.660969 0.653407 83 23 20
1.36226 -1.46054 3.07433 -0.369026 0.660969 0.653407 83 23 20
1.3642 -1.45651 3.07329 -0.618094 0.786083 -0.00571066 106 41 27
1.36422 -1.45638 3.07327 -0.622576 0.781993 0.0297592 106 41 27
1.36426 -1.45622 3.07327 -0.612867 0.790087 -0.0124988 107 41 28
1.36568 -1.45324 3.07254 -0.142747 0.58683 0.797028 70 27 12
1.36101 -1.4634 3.07592 -0.591474 0.742877 0.313516 128 88 55
1.36329 -1.45852 3.07421 -0.228192 0.60754 0.760804 76 21 15
1.36396 -1.45758 3.07422 -0.253583 0.607343 0.752881 72 21 13
1.36329 -1.45852 3.07421 -0.228192 0.60754 0.760804 76 21 15
1.36497 -1.45507 3.07329 -0.641087 0.76682 -0.0315454 108 43 28
1.36493 -1.45537 3.07327 -0.608073 0.793219 -0.0324141 108 43 28
1.36561 -1.45346 3.07287 0.22858 0.471891 0.851511 86 34 17
1.3726 -1.43817 3.06915 -0.11864 0.571379 0.812065 120 85 54
1.36293 -1.4605 3.0748 -0.347703 0.662723 0.66325 66 22 13
1.36323 -1.45952 3.07478 -0.466496 0.68531 0.559225 68 25 15
1.36407 -1.45802 3.07395 -0.636341 0.768772 -0.0637191 83 26 18
1.3641 -1.45799 3.0739 -0.61513 0.777315 -0.131895 85 27 19
1.36593 -1.45434 3.07335 0.0600774 0.586435 0.807766 115 51 33
1.36709 -1.45255 3.07151 -0.236249 0.603824 0.761303 122 86 50
1.37194 -1.44168 3.06929 -0.0600376 0.589352 0.805643 108 75 40
1.37198 -1.44155 3.06927 -0.0499259 0.591257 0.804937 108 75 40
1.37199 -1.44154 3.06926 -0.0436588 0.591746 0.804942 108 75 40
1.37192 -1.44181 3.06928 -0.0478602 0.59269 0.804008 108 75 40
1.37198 -1.44157 3.06927 -0.0620124 0.583767 0.80955 108 75 40
1.3719 -1.44181 3.0693 -0.0235062 0.642721 0.76574 108 75 40
1.36117 -1.46423 3.07678 -0.128868 0.580965 0.803662 71 45 28
1.36381 -1.45953 3.07523 -0.293101 0.635383 0.714409 129 86 51
1.36381 -1.45953 3.07523 -0.293101 0.635383 0.714409 129 86 51
1.36472 -1.45763 3.07423 -0.371055 0.644929 0.66812 69 21 13
1.36672 -1.45292 3.07345 -0.0528334 0.70233 0.709888 113 52 31
1.36687 -1.45295 3.07312 0.121313 0.465558 0.876663 107 50 29
1.36749 -1.45231 3.07155 0.0155031 0.639144 0.768931 128 92 58
1.36771 -1.45186 3.07149 0.0722132 0.724823 0.68514 127 92 57
1.36828 -1.451 3.07126 -0.606941 0.755453 -0.246807 128 94 59
1.3607 -1.46713 3.07768 -0.0249518 0.53738 0.842971 59 35 22
1.36146 -1.46493 3.07656 -0.0216692 0.537402 0.843048 114 80 48
1.36545 -1.45719 3.07432 -0.263392 0.615569 0.742765 93 44 25
1.36545 -1.45719 3.07432 -0.263392 0.615569 0.742765 93 44 25
1.36544 -1.45709 3.07411 -0.31237 0.63606 0.705587 87 36 21
1.3665 -1.45456 3.07377 0.242559 0.615567 0.749829 97 42 24
1.36754 -1.45222 3.07333 0.187896 0.439313 0.878464 102 45 23
1.3615 -1.46612 3.0769 -0.254267 0.626172 0.737059 129 93 58
1.36473 -1.4587 3.07518 -0.311262 0.633585 0.708298 129 88 50
1.36487 -1.45858 3.07477 -0.488104 0.689097 0.535631 119 72 42
1.36559 -1.45796 3.07466 -0.448014 0.674249 0.587088 125 78 44
1.36782 -1.45291 3.07297 -0.148309 0.56912 0.808769 90 44 20
1.3746 -1.43728 3.06975 0.684685 0.556666 0.470457 118 84 51
1.36423 -1.461 3.07579 -0.29145 0.739615 0.606652 131 94 57
1.36592 -1.45787 3.07422 -0.305541 0.635558 0.709021 96 47 26
1.36908 -1.45076 3.07333 -0.0459252 0.944745 0.324573 86 41 15
1.36906 -1.45033 3.07338 -0.109545 0.595159 -0.796106 85 40 15
1.366 -1.45808 3.07478 -0.453147 0.768813 0.451202 128 85 47
1.36687 -1.4569 3.07463 -0.364581 0.637078 0.679126 128 83 49
1.36963 -1.44996 3.07366 -0.293501 0.649248 -0.701666 85 40 13
1.36747 -1.45658 3.07446 -0.315773 0.627644 0.711583 129 82 47
1.36746 -1.45659 3.07446 -0.319574 0.626592 0.710813 129 82 47
1.37011 -1.45018 3.07342 0.0428656 0.489154 0.871144 106 61 24
1.36999 -1.45048 3.07347 -0.0804207 0.579887 -0.810718 115 70 31
1.36683 -1.45808 3.0752 -0.358848 0.63823 0.681096 131 92 56
1.36858 -1.4547 3.07401 -0.298471 0.620639 0.725067 111 65 30
1.37029 -1.45108 3.07223 -0.320604 0.622518 0.713922 137 97 56
1.37102 -1.44984 3.07211 -0.291502 0.609926 0.736897 114 76 36
1.37115 -1.44982 3.07169 -0.293235 0.641673 0.708709 119 84 46
1.36736 -1.45786 3.0757 -0.274591 0.652853 0.705963 131 95 58
1.36626 -1.46192 3.07558 -0.0195901 0.555313 0.831411 119 82 46
1.36664 -1.45978 3.07559 -0.251879 0.620478 0.742674 131 94 58
1.36825 -1.45601 3.07486 -0.319124 0.629678 0.708284 129 89 51
1.36811 -1.45625 3.07466 -0.318777 0.625888 0.711791 131 88 50
1.36998 -1.45325 3.07317 -0.145909 0.557004 0.817592 108 67 25
1.37576 -1.43962 3.06964 0.184921 0.556905 0.809729 108 75 41
1.36866 -1.45618 3.07485 -0.342551 0.745031 0.572352 128 89 50
1.37017 -1.45314 3.07328 -0.629837 0.775774 0.0384763 110 69 26
1.37019 -1.45301 3.07325 -0.629267 0.769248 0.110814 110 69 26
1.37034 -1.45284 3.0733 0.0291532 0.587412 0.808763 110 69 26
1.36841 -1.45797 3.0753 -0.0641695 0.878776 0.472901 126 89 50
1.3701 -1.45382 3.07428 -0.198858 0.58354 0.787361 124 84 41
1.37174 -1.44994 3.07373 -0.272122 0.830313 0.486344 116 76 31
1.37205 -1.44973 3.07295 -0.256793 0.676519 0.690202 117 76 32
1.37593 -1.44152 3.07023 0.128702 0.507445 0.852019 114 79 47
1.37679 -1.43891 3.06945 -0.151859 0.620193 0.76961 103 70 37
1.37733 -1.43832 3.06926 0.132298 0.501893 0.854752 109 75 44
1.3681 -1.45969 3.07548 0.0109369 0.753768 0.65705 136 99 61
1.37218 -1.4505 3.07357 -0.496597 0.667566 0.55475 118 77 32
1.37586 -1.44183 3.07033 -0.345328 0.593631 0.726878 122 85 54
1.37586 -1.44182 3.07033 -0.346066 0.593904 0.726304 116 80 48
1.37658 -1.44032 3.06984 -0.414542 0.615213 0.670573 115 79 47
1.3689 -1.45894 3.07619 -0.106704 0.926189 0.361646 135 97 62
1.37785 -1.43803 3.07018 -0.0609339 0.502697 0.862312 97 59 28
1.37752 -1.43899 3.06966 0.766632 0.409256 -0.494758 110 71 39
1.37802 -1.43883 3.07019 0.777366 0.402763 -0.483202 78 42 17
1.37815 -1.438 3.06974 0.744931 0.412073 -0.524665 93 55 27
1.3789 -1.43629 3.06984 0.733707 0.41727 -0.536245 76 39 16
1.37893 -1.43615 3.06985 0.808786 0.395354 -0.435385 75 40 15
1.37921 -1.43549 3.06989 0.786075 0.389701 -0.479812 73 38 14
1.37247 -1.45374 3.07477 -0.452044 0.673002 0.585426 128 89 47
1.37249 -1.45368 3.07483 0.00269461 0.549482 0.835501 125 87 44
1.37398 -1.44994 3.07474 -0.0335704 0.523185 0.851558 115 75 35
1.37365 -1.45124 3.07417 -0.135861 0.588405 -0.797071 120 77 39
1.37471 -1.44942 3.07436 -0.0910584 0.574744 -0.813252 94 52 23
1.37431 -1.45117 3.07389 -0.0746057 0.57462 -0.815013 104 59 28
1.37911 -1.43821 3.07133 0.180696 0.446611 0.876292 71 31 13
1.37874 -1.44053 3.07079 0.190141 0.426046 0.884495 74 31 12
1.37693 -1.44687 3.073 0.148504 0.450777 0.880197 94 52 24
1.37621 -1.45016 3.07331 0.136798 0.526102 0.839347 102 58 30
1.38133 -1.43663 3.07036 0.716911 0.428412 -0.550002 31 10 11
1.38118 -1.43705 3.07029 0.768311 0.423174 -0.480231 34 11 11
1.37921 -1.44376 3.07066 0.127269 0.575069 0.808145 34 10 8
1.37984 -1.44176 3.07086 0.137373 0.446272 0.884291 29 8 7
1.37423 -1.45457 3.07721 0.0861331 0.656028 -0.749806 123 86 48
1.37691 -1.44995 3.07344 0.190423 0.453101 0.870884 100 58 28
1.3768 -1.452 3.07457 -0.521326 0.657448 0.544041 82 38 21
1.37757 -1.45031 3.07374 -0.372606 0.682554 0.628717 120 72 40
1.37996 -1.44524 3.0712 -0.527185 0.642566 0.556044 29 9 12
1.3774 -1.45165 3.07444 -0.494013 0.652028 0.575161 70 30 18
1.37803 -1.45024 3.07359 -0.344908 0.756318 0.555897 119 73 41
1.37798 -1.45126 3.07436 -0.466043 0.63606 0.615005 52 19 12
1.38017 -1.44791 3.07224 -0.403218 0.616217 0.67653 109 73 37
1.38195 -1.44273 3.07131 0.745684 0.413527 -0.522447 87 55 27
1.37919 -1.45001 3.07435 -0.452742 0.837437 0.306143 37 11 14
1.37962 -1.44952 3.07356 -0.344509 0.933363 0.100731 105 66 38
1.39049 -1.41306 3.07234 -0.390391 0.858431 -0.332703 94 59 40
1.39056 -1.41292 3.0723 -0.267126 0.908381 -0.321695 92 58 40
1.38053 -1.4475 3.07359 -0.270149 0.606317 0.74793 93 58 32
1.38036 -1.44768 3.07366 -0.368856 0.598162 0.71144 86 52 29
1.38238 -1.44251 3.07167 0.712375 0.435876 -0.55003 111 76 40
1.38286 -1.4424 3.07168 0.749279 0.443923 -0.49144 112 78 42
1.3788 -1.45271 3.07714 -0.481383 0.807342 -0.341275 83 36 21
1.3788 -1.45271 3.07714 -0.481383 0.807342 -0.341275 83 36 21
1.37911 -1.45279 3.07727 -0.565163 0.73525 -0.374163 89 43 24
1.37964 -1.45237 3.07536 0.0827951 0.610941 0.787335 27 9 10
1.38398 -1.43828 3.07408 -0.131499 0.530342 0.837524 107 72 35
1.37931 -1.45445 3.07659 -0.582555 0.737885 -0.340815 37 12 8
1.37933 -1.45426 3.07662 -0.578683 0.730745 -0.362128 39 13 9
1.38354 -1.44 3.07536 0.0780529 0.483289 0.871974 26 8 7
1.38354 -1.44 3.07536 0.0780529 0.483289 0.871974 26 8 7
1.38351 -1.44142 3.07547 0.0709658 0.483269 0.872591 27 9 5
1.38444 -1.43915 3.0747 -0.00644159 0.499274 0.86642 106 70 35
1.39076 -1.41775 3.07291 -0.561998 0.704582 -0.433269 106 69 47
1.37766 -1.46071 3.07855 -0.414189 0.660066 0.626706 88 47 21
1.37785 -1.46054 3.07808 -0.46184 0.639775 0.614322 88 45 21
1.38435 -1.44014 3.07456 0.0707574 0.480726 0.874012 110 73 35
1.38435 -1.44014 3.07456 0.0707574 0.480726 0.874012 110 73 35
1.38435 -1.44014 3.07456 0.0707574 0.480726 0.874012 110 73 35
1.37807 -1.46085 3.07857 -0.488722 0.686842 0.537958 92 50 22
1.37812 -1.46064 3.0785 -0.522421 0.65984 0.540081 92 49 22
1.37877 -1.45994 3.07848 -0.535882 0.691719 0.484103 93 53 24
1.38241 -1.44918 3.07595 0.0469956 0.494426 0.867949 55 30 15
1.3839 -1.44385 3.07544 0.112172 0.471857 0.874511 105 70 35
1.37902 -1.4596 3.07966 -0.369685 0.622922 0.689421 129 90 53
1.37902 -1.45906 3.0791 -0.496478 0.659318 0.564632 121 79 44
1.37866 -1.46039 3.07908 -0.571813 0.673973 0.46775 121 78 43
1.38003 -1.45692 3.0783 0.81391 0.377736 -0.441437 86 49 17
1.38428 -1.44458 3.07522 -0.00932701 0.500502 0.865685 114 79 42
1.38417 -1.44444 3.07524 -0.0547418 0.517311 0.854045 113 78 43
1.38424 -1.44486 3.07521 -0.0134252 0.504909 0.863068 113 78 42
1.38424 -1.44486 3.07521 -0.0134252 0.504909 0.863068 113 78 42
1.37966 -1.45962 3.0788 -0.650015 0.709335 0.272622 116 74 39
1.38011 -1.45817 3.07886 0.77948 0.369247 -0.506031 111 72 34
1.38131 -1.45447 3.07837 0.774206 0.420269 -0.473265 106 67 31
1.38099 -1.4566 3.07841 0.783891 0.389438 -0.483584 106 67 30
1.38074 -1.45709 3.07834 0.813207 0.398716 -0.423934 100 61 25
1.38711 -1.44833 3.0755 -0.139538 0.588806 0.796138 115 81 50
1.38703 -1.4486 3.07542 0.103703 0.779029 0.618353 114 81 50
1.38853 -1.44376 3.07559 -0.207481 0.565925 0.797922 114 81 50
1.38784 -1.4483 3.07579 -0.067835 0.558729 0.826571 115 81 50
1.38806 -1.44875 3.0761 -0.313702 0.618504 0.720447 122 87 58
1.38763 -1.44981 3.07588 -0.327578 0.580051 0.745811 121 87 57
1.38756 -1.45195 3.07649 0.183962 0.632386 0.752494 121 86 56
1.38861 -1.44721 3.07593 -0.458735 0.652044 0.603656 120 86 57
1.38836 -1.44817 3.07612 -0.501549 0.820969 0.27287 120 85 56
1.39147 -1.44065 3.07683 -0.3132 0.579241 0.752586 116 82 52
1.39147 -1.4406 3.07683 -0.319104 0.572742 0.755076 118 82 53
1.39635 -1.42431 3.07607 -0.234708 0.838508 0.491748 114 77 47
1.39127 -1.44786 3.07776 -0.27459 0.677664 0.682182 122 87 59
1.39638 -1.42471 3.07608 -0.0356855 0.581764 0.812575 111 71 40
1.35801 -1.55668 3.11228 -0.37019 0.697989 0.613001 107 19 23
1.39216 -1.44612 3.07759 -0.515837 0.852931 0.08013 116 80 51
1.39068 -1.45297 3.078 -0.401218 0.692456 0.599607 108 75 44
1.39224 -1.44682 3.07774 -0.354561 0.678696 0.643163 109 75 44
1.39115 -1.45414 3.07844 -0.304629 0.573895 0.760162 120 86 57
1.39181 -1.45245 3.07824 -0.340777 0.585576 0.735508 120 86 57
1.3664 -1.53711 3.10745 -0.545498 0.724178 0.421897 116 26 31
1.39127 -1.44878 3.08313 -0.388265 0.653867 0.649391 119 84 56
1.37518 -1.51154 3.09708 -0.504035 0.66929 0.545893 121 85 51
1.3691 -1.5305 3.1055 -0.363127 0.680903 0.636011 114 30 31
1.37358 -1.51657 3.10024 -0.467387 0.675321 0.570519 114 78 45
1.37619 -1.50915 3.09676 -0.447035 0.66108 0.602605 120 85 51
1.37043 -1.52902 3.10483 -0.354967 0.678886 0.642738 111 32 29
1.37625 -1.51018 3.09757 -0.404086 0.655792 0.637692 128 91 57
1.37624 -1.50982 3.09758 -0.3301 0.653145 0.681495 131 94 61
1.37109 -1.52686 3.10441 -0.434125 0.677201 0.594082 111 32 29
1.3741 -1.51857 3.10113 -0.403519 0.664934 0.628518 128 82 54
1.37436 -1.51657 3.10017 -0.470012 0.674421 0.569425 125 86 54
1.37522 -1.51508 3.09986 -0.488326 0.674395 0.553831 120 81 50
1.37655 -1.50918 3.09858 -0.353795 0.653805 0.668856 119 81 49
1.37668 -1.50896 3.09821 -0.360178 0.651125 0.668063 120 82 49
1.37745 -1.50462 3.09762 -0.0333084 0.439782 -0.897487 114 79 46
1.37668 -1.50896 3.09821 -0.360178 0.651125 0.668063 119 82 49
1.37745 -1.50462 3.09762 -0.0333084 0.439782 -0.897487 114 79 46
1.3718 -1.52917 3.10547 -0.264007 0.659013 0.704275 89 17 18
1.37581 -1.51388 3.10067 -0.437749 0.668099 0.601681 122 62 44
1.36885 -1.54215 3.10881 -0.411291 0.678134 0.609076 96 18 19
1.36888 -1.54192 3.10876 -0.497583 0.688269 0.527918 96 18 19
1.36978 -1.53925 3.1082 -0.411568 0.679524 0.607337 95 18 19
1.37809 -1.50852 3.09836 -0.566238 0.674629 0.47355 124 81 54
1.37804 -1.50871 3.0981 -0.46395 0.662788 0.58776 110 71 40
1.39478 -1.44803 3.08027 0.70186 0.432447 -0.566022 106 73 43
1.39496 -1.44688 3.08022 -0.486882 0.626926 0.608202 110 78 51
1.37249 -1.53087 3.10573 -0.445087 0.681915 0.580421 101 21 23
1.37824 -1.50886 3.09873 -0.268692 0.638345 0.721333 117 69 45
1.37908 -1.50703 3.09829 -0.552694 0.670942 0.494335 121 69 48
1.37952 -1.50485 3.0973 -0.504511 0.666546 0.548803 122 81 52
1.3957 -1.44595 3.07898 0.088008 0.495745 0.863998 110 75 42
1.39558 -1.44737 3.07898 -0.526106 0.625743 0.575898 110 75 42
1.37236 -1.5325 3.10627 -0.510494 0.682175 0.523482 100 21 22
1.37882 -1.50854 3.09923 -0.562958 0.673928 0.478435 108 41 34
1.37887 -1.50941 3.09893 -0.524225 0.700713 0.483932 118 64 46
1.37903 -1.50815 3.09876 -0.444397 0.660432 0.605261 116 56 42
1.37997 -1.50491 3.09789 -0.532813 0.667352 0.520338 120 62 46
1.37989 -1.50544 3.09762 -0.697275 0.621154 -0.357736 117 70 46
1.38037 -1.50367 3.0973 -0.522064 0.665395 0.533572 116 70 45
1.38037 -1.50367 3.0973 -0.522064 0.665395 0.533572 117 68 46
1.38063 -1.50269 3.09672 -0.367658 0.643945 0.670941 111 67 38
1.38056 -1.50228 3.09691 -0.339649 0.640824 0.688465 118 72 48
1.3847 -1.48925 3.09188 -0.488084 0.645113 0.58788 113 78 49
1.38614 -1.48283 3.0905 -0.470245 0.639622 0.608073 101 68 39
1.38715 -1.48002 3.08903 -0.503818 0.639053 0.581187 101 68 41
1.39526 -1.45036 3.07952 -0.510025 0.600964 0.6154 118 83 56
1.37188 -1.53714 3.10787 -0.525952 0.684713 0.504521 109 33 25
1.37819 -1.51252 3.10027 -0.484804 0.670233 0.561918 98 21 23
1.38012 -1.50523 3.09819 -0.512922 0.667267 0.540062 109 45 36
1.38049 -1.50457 3.09792 -0.43351 0.655003 0.618903 108 45 37
1.3847 -1.49002 3.09265 -0.48162 0.646006 0.592216 114 77 50
1.37152 -1.53909 3.10902 -0.494923 0.684038 0.535857 128 57 31
1.37327 -1.5329 3.10644 -0.414535 0.671112 0.61463 102 27 21
1.38141 -1.50251 3.09776 -0.455094 0.656927 0.601113 89 26 25
1.38224 -1.50012 3.09657 -0.700212 0.616466 -0.360102 104 44 35
1.38459 -1.49199 3.09335 -0.580043 0.658508 0.479496 119 79 54
1.38677 -1.48354 3.09118 -0.472279 0.640035 0.60606 113 76 51
1.39013 -1.46954 3.0875 -0.494321 0.63118 0.59771 105 73 50
1.37446 -1.53005 3.10589 -0.480986 0.676605 0.557547 109 34 25
1.37568 -1.52563 3.10435 -0.437601 0.669473 0.60026 103 25 25
1.37568 -1.52563 3.10435 -0.437601 0.669473 0.60026 103 25 25
1.37568 -1.52563 3.10435 -0.437601 0.669473 0.60026 103 25 25
1.37942 -1.51073 3.10066 -0.34039 0.649862 0.679569 93 21 23
1.38079 -1.50702 3.09881 -0.403187 0.65473 0.63935 87 19 19
1.3822 -1.50053 3.0969 -0.424251 0.652076 0.628338 98 33 29
1.38291 -1.49932 3.09656 -0.704057 0.615825 -0.353643 103 32 33
1.38612 -1.48781 3.09229 -0.410388 0.634016 0.655443 99 64 39
1.38785 -1.48024 3.09039 -0.478566 0.641749 0.599277 106 72 48
1.3887 -1.47737 3.08939 -0.494042 0.641178 0.587208 105 73 51
1.38865 -1.47802 3.08945 -0.443721 0.630994 0.636364 105 74 51
1.38864 -1.47809 3.08945 -0.459632 0.633277 0.622655 105 74 51
1.3898 -1.47161 3.08823 -0.51588 0.636016 0.573892 102 71 48
1.38217 -1.50206 3.09781 -0.456677 0.65925 0.597357 82 21 23
1.38752 -1.48328 3.09179 -0.503168 0.642886 0.577511 97 61 43
1.38761 -1.48322 3.09119 -0.534468 0.644734 0.5465 99 66 44
1.38864 -1.47851 3.09008 -0.381829 0.622722 0.682952 101 69 49
1.38843 -1.47998 3.0902 -0.464054 0.652069 0.599549 110 77 55
1.3897 -1.4732 3.08897 -0.490414 0.633802 0.598155 97 68 49
1.37873 -1.51863 3.10243 -0.505958 0.668601 0.544958 100 29 25
1.38957 -1.47521 3.08976 -0.486816 0.634565 0.600282 76 50 38
1.39051 -1.47152 3.08883 -0.498054 0.633087 0.592573 62 40 28
1.37946 -1.51804 3.10217 -0.455784 0.664251 0.592479 98 31 24
1.37995 -1.51427 3.10163 -0.329255 0.648027 0.686769 93 27 21
1.3805 -1.51408 3.10088 -0.375468 0.655668 0.655074 87 23 20
1.38822 -1.48299 3.09243 -0.521796 0.645361 0.557887 35 16 16
1.38866 -1.4804 3.09145 -0.487856 0.639362 0.594317 56 32 23
1.38939 -1.47692 3.09051 -0.506145 0.638632 0.579626 57 34 28
1.39041 -1.47326 3.08959 -0.493341 0.633927 0.595611 39 24 21
1.37965 -1.51886 3.1026 -0.488442 0.665714 0.564137 121 52 38
1.38045 -1.51609 3.10183 -0.540613 0.669603 0.509284 104 42 30
1.38136 -1.51211 3.101 -0.505201 0.663301 0.552091 120 50 43
1.38136 -1.51211 3.101 -0.505201 0.663301 0.552091 115 46 40
1.38284 -1.50645 3.09909 -0.479706 0.657104 0.581461 78 24 27
1.38858 -1.4819 3.09224 -0.483608 0.64107 0.595946 31 14 15
1.38906 -1.48013 3.09141 -0.520966 0.642656 0.561772 37 20 15
1.38984 -1.47768 3.09099 -0.411271 0.628097 0.660568 26 15 17
1.39121 -1.47155 3.08944 -0.498054 0.633087 0.592573 25 15 17
1.38107 -1.5149 3.10212 -0.492054 0.663945 0.56308 101 47 36
1.38942 -1.48026 3.09207 -0.490072 0.643721 0.587753 26 14 15
1.38945 -1.48004 3.09206 -0.476662 0.639419 0.603272 26 14 15
1.38162 -1.51308 3.10146 -0.472658 0.660707 0.583148 83 38 33
1.38254 -1.50975 3.10083 -0.503945 0.662022 0.554767 41 20 21
1.38339 -1.50603 3.09933 -0.384629 0.646101 0.659252 38 13 13
1.3839 -1.50441 3.09885 -0.472283 0.655174 0.589657 37 17 21
1.35217 -1.32731 3.04723 0.45055 0.168653 0.876676 98 102 101
1.35206 -1.32747 3.04703 0.417378 0.170932 0.892512 105 106 105
1.35068 -1.32861 3.0467 0.240455 0.398042 0.885293 121 119 110
1.35067 -1.32861 3.0467 0.144773 0.36544 0.919508 121 119 110
1.35108 -1.32855 3.04693 0.355736 0.475848 0.804376 121 119 110
1.35127 -1.32861 3.04692 0.0992763 0.40641 0.908281 121 119 110
1.35348 -1.32902 3.04821 0.0925745 0.421127 0.902265 98 83 69
1.35193 -1.33006 3.04743 0.0838652 0.503188 0.860098 101 102 98
1.35444 -1.3291 3.04879 0.0333728 0.593273 0.804309 113 95 72
1.35424 -1.32922 3.0487 0.0497837 0.532022 0.845266 105 86 66
1.33848 -1.3387 3.06464 0.795016 -0.189348 -0.576279 149 76 61
1.34385 -1.33827 3.06024 0.846121 -0.494209 0.199594 148 72 55
1.34844 -1.33611 3.05999 0.617346 0.000745565 0.786691 144 62 51
1.34829 -1.33618 3.05996 0.309699 0.700364 0.6431 153 59 50
1.34863 -1.33595 3.06002 0.731941 -0.238503 0.638262 134 66 51
1.35079 -1.33496 3.0598 0.917947 -0.360214 -0.16619 140 68 52
1.36199 -1.32948 3.06006 0.0686185 0.721097 0.689428 137 92 66
1.35124 -1.33524 3.05959 0.31408 0.051731 0.947986 140 96 68
1.36176 -1.33002 3.05929 0.915276 -0.363441 -0.173725 139 77 57
1.36152 -1.3302 3.05906 0.927623 -0.252225 -0.275495 114 54 47
1.36152 -1.33029 3.05917 0.908159 -0.388576 -0.155746 116 56 47
1.34422 -1.33915 3.05887 0.89078 -0.437296 -0.123624 156 105 78
1.3511 -1.33552 3.05914 0.803254 -0.482169 0.349709 115 92 61
1.35342 -1.33455 3.05904 0.772219 -0.434423 0.463631 151 94 71
1.35591 -1.3331 3.05935 0.900107 -0.435152 -0.021192 147 89 66
1.36144 -1.33035 3.05933 0.916428 -0.320556 -0.239591 160 89 70
1.36123 -1.33052 3.05908 0.897503 -0.194197 -0.395949 124 73 55
1.36119 -1.33061 3.0589 0.892518 -0.449916 0.0314207 118 67 52
1.33312 -1.34489 3.05862 0.865631 -0.478649 0.146897 157 120 81
1.35092 -1.33587 3.05899 0.859398 -0.477021 0.184081 154 98 73
1.3529 -1.33487 3.05903 0.837228 -0.29687 0.459257 147 112 80
1.35255 -1.33508 3.05897 0.792085 -0.42689 0.436309 148 113 80
1.35243 -1.33513 3.05897 0.778079 -0.426963 0.460756 147 112 80
1.35243 -1.33513 3.05897 0.778079 -0.426963 0.460756 153 99 74
1.35249 -1.3351 3.05899 0.786752 -0.477985 0.390579 153 99 74
1.35364 -1.33459 3.0589 0.78065 -0.393498 0.485536 146 112 79
1.35357 -1.33458 3.05886 0.953344 0.179766 0.242528 140 107 71
1.35493 -1.33403 3.05878 0.801796 -0.412716 0.432191 146 116 81
1.34726 -1.33825 3.0581 0.9502 -0.307388 0.0512983 135 107 71
1.35143 -1.33595 3.05895 0.768098 -0.460607 0.444823 137 108 72
1.35207 -1.33557 3.05886 0.81168 0.0770145 0.579003 137 108 70
1.35187 -1.33567 3.05883 0.261609 0.950823 0.165822 147 118 84
1.35308 -1.33538 3.05819 0.892721 -0.444991 0.07094 134 85 62
1.35509 -1.33409 3.05868 0.473366 0.284915 0.833516 136 109 71
1.35557 -1.33403 3.05853 0.530215 0.172557 0.830118 148 120 83
1.35556 -1.33402 3.05852 0.532415 0.155594 0.832061 146 118 82
1.34676 -1.33882 3.05778 0.364184 0.713023 -0.59914 138 109 73
1.34906 -1.33761 3.05788 0.816353 -0.485504 0.312816 151 90 64
1.34954 -1.33746 3.05784 0.821299 -0.489765 0.292572 158 86 61
1.35528 -1.33442 3.05844 0.582416 0.0279044 0.812412 161 133 95
1.35547 -1.33443 3.05821 0.547572 0.0934026 0.831529 165 138 99
1.35548 -1.33442 3.05821 0.53963 0.107499 0.835011 160 132 95
1.35574 -1.33435 3.05799 0.647761 0.235291 0.724599 155 112 80
1.35346 -1.33678 3.05609 0.885455 -0.13713 -0.444032 160 122 88
1.35202 -1.346 3.05059 -0.165444 0.839485 0.517583 169 148 105
1.35341 -1.34502 3.05111 0.0698615 0.518636 0.852136 166 146 107
1.35355 -1.34493 3.05118 0.182373 0.630023 0.754858 164 144 105
1.34771 -1.34892 3.05044 -0.135619 0.6537 0.744502 165 142 98
1.35047 -1.34733 3.05051 -0.108812 0.577779 0.808908 145 124 86
1.35053 -1.34727 3.05052 -0.14186 0.647862 0.748432 145 125 86
1.35025 -1.34738 3.05056 -0.107996 0.589195 0.800741 151 130 89
1.35053 -1.34727 3.05052 -0.14186 0.647862 0.748432 145 125 86
1.34044 -1.34941 3.06109 0.530234 0.157606 0.833074 186 165 123
1.34487 -1.35126 3.04977 -0.0366914 0.74328 0.667973 164 141 98
1.35191 -1.34641 3.05083 -0.00196266 0.997468 0.0710876 152 133 98
1.3478 -1.35108 3.04793 0.282452 0.80333 -0.524292 109 96 70
1.36371 -1.33481 3.06676 0.972281 0.140891 0.186602 57 72 65
1.36123 -1.34032 3.05667 0.290311 0.120754 0.949283 124 110 81
1.36452 -1.33531 3.06571 0.916381 -0.202128 -0.345528 41 56 55
1.35604 -1.3421 3.06208 0.979509 0.00354397 0.201367 69 80 74
1.36133 -1.34094 3.05657 0.318236 0.203181 0.925983 120 107 79
1.36136 -1.34091 3.05658 0.297905 0.232183 0.925928 118 105 77
1.36154 -1.3409 3.0567 0.299253 0.231399 0.92569 112 97 65
1.36153 -1.34091 3.0567 0.300951 0.23098 0.925244 111 97 65
1.36301 -1.34006 3.05696 0.323121 0.199151 0.925166 109 94 64
1.36185 -1.34085 3.05666 0.334971 0.181476 0.924587 124 114 87
1.36408 -1.33929 3.05717 0.219995 0.109047 0.969387 109 98 71
1.36353 -1.33982 3.057 0.320013 0.208959 0.924082 108 93 61
1.36295 -1.34026 3.05708 0.309926 0.217876 0.92546 114 103 76
1.36412 -1.33939 3.05731 0.217141 0.118236 0.968953 108 96 69
1.37325 -1.33008 3.06633 0.91317 -0.101824 -0.394656 99 109 97
1.36209 -1.34142 3.05665 0.286093 0.258211 0.922756 110 101 75
1.36272 -1.34097 3.05675 0.282335 0.255871 0.924563 110 100 75
1.34075 -1.36187 3.04459 0.0940918 0.435633 0.895193 113 101 77
1.34087 -1.36178 3.04465 0.185151 0.468363 0.863918 117 104 79
1.34097 -1.36217 3.04471 0.1097 0.440883 0.890836 116 102 78
1.34103 -1.36213 3.04474 0.170569 0.451978 0.875569 116 102 79
