ply
format ascii 1.0
element face 0
property list uchar int vertex_indices
element vertex 867
property float x
property float y
property float z
property uchar diffuse_red
property uchar diffuse_green
property uchar diffuse_blue
end_header
-5.756141e+000 -8.334157e+000 -1.675951e+001 106 105 113
-3.773268e+000 -6.921947e+000 -1.453136e+001 78 77 87
-8.411647e+000 -9.100002e+000 -2.219961e+001 97 90 82
-8.411647e+000 -9.100002e+000 -2.219961e+001 97 90 82
-6.655615e-001 5.129130e-002 -6.656971e+000 84 20 12
-8.043037e-001 -2.087739e-001 -6.940036e+000 106 46 35
-2.065723e-001 3.068549e-001 -7.502837e+000 153 140 123
-1.289389e-001 9.446201e-001 -7.686376e+000 218 180 164
1.770857e+000 -1.348416e+000 -5.706500e+000 168 163 170
2.298919e-001 -1.391979e+000 -7.667976e+000 151 148 141
3.092704e-001 -1.059100e+000 -7.591525e+000 156 156 148
-7.314538e-002 -4.652980e-001 -7.681803e+000 143 46 23
-3.816317e-001 8.824705e-002 -7.847131e+000 143 28 29
-3.689169e-001 8.425222e-001 -7.791798e+000 217 58 58
1.674250e+000 -1.140116e+000 -5.816513e+000 194 189 195
1.456769e+000 -5.834255e-001 -6.003586e+000 171 167 171
-3.937144e-001 7.568674e-001 -7.867761e+000 161 146 127
-3.937144e-001 7.568674e-001 -7.867761e+000 161 146 127
-1.351417e-001 1.068135e+000 -7.494839e+000 130 95 81
3.911112e-001 -1.273041e+000 -7.452262e+000 135 134 129
-1.997802e-001 1.847421e-001 -7.573693e+000 136 110 97
-9.321510e-001 -1.805535e-001 -6.439354e+000 72 45 28
-9.321510e-001 -1.805535e-001 -6.439354e+000 72 45 28
1.880092e-001 -7.789544e-001 -7.587235e+000 26 10 13
-9.544049e-001 -3.592917e-001 -6.705038e+000 129 44 20
-9.677132e-001 -2.912937e-001 -6.619504e+000 198 109 75
1.359697e+000 -1.089983e+000 -6.117761e+000 201 196 202
3.233967e-001 -1.253860e+000 -7.553954e+000 139 139 131
-5.256625e-001 -1.096150e-001 -7.277042e+000 66 27 15
-3.302450e-001 1.463969e-001 -7.110967e+000 138 116 102
-2.477871e-001 1.863633e-001 -7.197458e+000 151 132 115
-2.477871e-001 1.863633e-001 -7.197458e+000 151 132 115
-1.848689e-001 7.354194e-001 -7.601271e+000 208 200 179
1.405081e+000 -1.140018e+000 -6.099562e+000 172 167 173
6.323881e-001 -1.621339e+000 -7.199348e+000 141 143 138
-5.359230e-001 -2.918487e-002 -7.016232e+000 77 33 28
-2.390528e-001 3.517066e-001 -7.501760e+000 156 143 122
-2.309518e-001 1.248747e-001 -7.018881e+000 159 142 124
4.671141e-001 -1.185404e-001 -6.704944e+000 213 200 176
3.142497e-001 -1.132354e+000 -7.572754e+000 174 170 167
-2.264330e-001 1.749177e-001 -7.321707e+000 122 105 89
-7.601007e-002 2.806648e-001 -7.247961e+000 175 160 139
1.116127e+000 -4.201588e-001 -6.251883e+000 166 163 168
6.197959e-001 6.153289e-001 -6.787578e+000 186 176 156
-8.116338e-001 -2.236930e-001 -6.923041e+000 121 51 42
6.627443e-001 -1.136338e-001 -6.587117e+000 248 243 227
1.374484e+000 -4.299385e-001 -6.089867e+000 169 167 175
-2.138203e-001 1.773243e-001 -7.687805e+000 138 33 40
-3.010136e-001 -1.276726e-001 -7.315962e+000 143 121 101
-2.592948e-001 3.898650e-002 -7.391379e+000 161 142 127
3.090150e-001 1.343618e-001 -6.823867e+000 228 214 195
-1.949111e-001 1.279365e-001 -7.534793e+000 166 149 131
1.350479e-001 2.893452e-001 -7.076971e+000 154 139 120
-3.121219e-001 1.476225e-002 -7.922784e+000 18 12 14
3.158217e-001 1.265972e+000 -7.069961e+000 218 63 67
1.472801e-002 8.700675e-001 -7.308490e+000 188 175 156
5.866565e-001 -1.623398e+000 -7.236618e+000 111 113 108
1.416412e+000 -1.083778e+000 -6.126636e+000 209 203 207
2.062012e+000 -1.237172e+000 -5.341417e+000 166 164 169
1.580797e+000 -5.692205e-001 -5.860042e+000 192 189 192
4.591493e-001 -1.260279e+000 -7.358727e+000 134 133 132
3.976354e+000 -7.676768e+000 -4.155039e+000 64 61 68
-9.750281e-001 -3.063316e-001 -6.599456e+000 246 165 136
-5.161635e-001 -2.641727e-002 -7.007948e+000 78 35 29
-2.179874e-002 1.981988e-001 -7.164264e+000 159 142 126
4.398743e-001 -1.540043e-003 -6.727827e+000 189 174 153
1.097335e+000 -5.882404e-001 -6.326240e+000 188 187 190
1.436982e+000 -5.543745e-001 -6.095497e+000 184 179 183
1.935984e+000 -1.189044e+000 -5.454496e+000 149 147 151
8.645194e-001 5.458773e-001 -6.547402e+000 232 81 86
-8.852124e-001 -3.707058e-001 -6.787351e+000 159 50 37
-7.651832e-001 -1.755370e-001 -6.973100e+000 98 30 17
-2.130820e-001 6.084851e-001 -7.521103e+000 145 128 108
-1.084371e-001 5.182425e-001 -7.412198e+000 194 181 162
9.194130e-001 -1.021000e-001 -6.487661e+000 254 251 237
1.243439e+000 -2.214669e-001 -6.115018e+000 184 172 172
6.738237e-001 6.241699e-001 -6.602851e+000 230 219 190
6.591046e-001 6.504607e-001 -6.637606e+000 165 130 110
-1.208668e-001 2.530459e-001 -7.217892e+000 166 151 130
-2.989065e-001 1.045768e+000 -7.696649e+000 176 35 41
2.522807e+000 -1.394020e+000 -4.776528e+000 211 208 215
6.682988e+000 -5.704395e+000 -1.276635e-001 75 73 75
-4.033225e-001 5.649254e-002 -7.082963e+000 85 48 40
-1.340836e-001 4.360397e-001 -7.408593e+000 156 137 120
-3.362620e-002 1.245772e+000 -7.419948e+000 169 29 32
-1.400662e-001 -2.640683e-001 -7.593353e+000 171 154 129
-7.366792e-001 -1.290532e-001 -7.012769e+000 86 26 15
3.313186e-001 -1.168753e+000 -7.469441e+000 255 254 210
-1.775118e-001 1.175685e+000 -7.620531e+000 221 75 78
-1.875210e-001 8.242438e-001 -7.581573e+000 236 227 210
-5.045034e-001 5.702889e-001 -8.189231e+000 224 70 72
4.177986e-001 -1.324027e+000 -7.430586e+000 175 176 169
4.303459e-001 -4.525040e-002 -6.730801e+000 211 200 178
-2.408796e-001 -1.471080e-002 -7.779513e+000 162 92 81
-2.273563e-001 -7.421657e-002 -7.596794e+000 146 123 107
-1.609173e-001 7.644451e-001 -7.599295e+000 188 181 159
-2.364885e-001 1.046369e+000 -7.756701e+000 189 43 46
2.674720e-002 2.265822e-001 -7.061473e+000 168 155 138
5.058107e-001 5.266092e-001 -6.920027e+000 170 159 139
-2.824382e-001 -2.425821e-001 -7.814982e+000 222 211 192
-1.881473e-001 -2.193671e-002 -7.655287e+000 143 101 89
-1.292157e-001 7.102682e-001 -7.443328e+000 180 165 146
6.812308e-001 9.359598e-001 -6.686952e+000 215 69 72
5.725716e-001 -1.564422e+000 -7.246505e+000 160 162 157
5.192137e-001 -1.433353e+000 -7.307385e+000 151 147 144
-7.648578e-001 -1.696957e-001 -7.164681e+000 128 54 37
-1.067646e-001 5.184295e-002 -7.771140e+000 199 49 51
-1.969390e-001 5.682663e-001 -7.561342e+000 145 133 111
-1.630965e-001 4.964551e-001 -7.470605e+000 175 160 139
8.348234e-003 1.156836e+000 -7.347553e+000 234 184 169
-6.335249e-001 5.581942e-001 -8.230002e+000 76 59 55
-9.577445e-001 -2.916564e-001 -6.616601e+000 197 108 76
-3.279855e-001 8.929397e-002 -6.985999e+000 129 97 85
-5.100861e-001 -5.100647e-001 -6.320343e+000 197 192 195
-1.000297e+000 -3.559255e-001 -6.691581e+000 156 151 144
-1.823529e-001 4.810892e-001 -7.467227e+000 202 187 166
-2.093459e-001 3.563075e-001 -7.463192e+000 173 156 136
-1.990769e-001 6.233602e-001 -7.590838e+000 193 180 161
-1.820724e-001 4.245918e-001 -7.614636e+000 150 133 113
5.145350e-001 5.737420e-001 -6.923372e+000 238 231 214
6.218528e-001 6.539607e-001 -6.742740e+000 242 233 216
7.197851e-001 3.073078e-001 -6.667649e+000 184 171 152
6.204000e+000 -6.020506e+000 -5.771249e-001 28 23 29
-3.019975e-001 -1.008474e-001 -7.903544e+000 221 213 195
2.034834e-001 -1.149105e+000 -7.744047e+000 163 161 162
3.155200e-001 -9.957038e-001 -7.602128e+000 134 129 132
1.065873e+000 -2.090192e+000 -6.701374e+000 200 198 201
-2.356845e-002 -5.493248e-001 -7.554883e+000 111 14 5
-3.099332e-001 -3.750132e-002 -7.969317e+000 78 65 49
6.394215e-001 -1.164711e+000 -7.153890e+000 133 130 131
5.044032e-001 -9.868282e-001 -7.275366e+000 179 174 176
-8.137122e-002 -4.495395e-001 -7.567556e+000 243 195 141
5.631908e-001 -9.977779e-001 -7.251141e+000 172 158 161
5.382532e-001 -9.834664e-001 -7.251821e+000 172 158 161
1.182568e+000 -1.860722e+000 -6.516673e+000 173 170 177
1.173539e+000 -1.815578e+000 -6.485185e+000 181 178 185
1.173539e+000 -1.815578e+000 -6.485185e+000 181 178 185
-7.681425e-001 -2.679598e-001 -7.089392e+000 167 67 35
-7.806947e-001 -2.227756e-001 -7.095024e+000 182 93 61
-5.537417e-001 -1.964478e-001 -7.259292e+000 170 170 149
-9.557987e-001 -3.630619e-001 -6.743219e+000 143 48 32
-9.116704e-001 -3.801241e-001 -6.740280e+000 231 233 233
-8.343274e-001 -2.803579e-001 -6.911039e+000 134 47 37
-8.071151e-001 -2.691929e-001 -6.969487e+000 148 62 40
-1.682703e-001 1.438616e-001 -7.693096e+000 111 8 15
1.774650e+000 -2.408334e+000 -5.827605e+000 221 214 221
-9.707013e-001 -3.006713e-001 -6.606859e+000 142 45 36
-2.082084e-001 2.971767e-001 -7.506230e+000 172 156 135
-3.613912e-001 8.054328e-002 -7.027222e+000 96 58 48
-3.613912e-001 8.054328e-002 -7.027222e+000 96 58 48
7.056369e-003 1.061968e-001 -6.995246e+000 137 123 105
1.089413e+000 -5.190354e-001 -6.298736e+000 220 99 90
2.319670e+000 -1.562901e+000 -5.039856e+000 171 172 176
7.911635e-001 5.825940e-001 -6.531348e+000 226 71 75
7.883834e-001 5.955589e-001 -6.518442e+000 217 64 69
8.234994e-001 7.087989e-001 -6.507922e+000 67 36 29
2.251219e-001 -1.432346e+000 -7.668214e+000 120 119 117
6.687657e-001 -1.580562e+000 -7.135220e+000 135 130 136
4.433824e-001 -1.210435e+000 -7.384058e+000 168 154 137
1.427610e+000 -2.635117e+000 -6.306204e+000 210 208 211
1.427610e+000 -2.635117e+000 -6.306204e+000 210 208 211
7.317047e-001 -1.503647e+000 -7.095587e+000 183 178 180
6.790592e-001 -1.401057e+000 -7.098134e+000 189 184 188
4.826604e-001 -1.120341e+000 -7.299810e+000 133 121 107
1.784422e-001 -7.242996e-001 -7.579203e+000 255 115 123
9.982102e-001 -1.739372e+000 -6.752852e+000 161 157 163
9.982102e-001 -1.739372e+000 -6.752852e+000 161 157 163
-6.280810e-001 -4.190686e-001 -7.082282e+000 191 51 41
-2.281966e-001 -3.026983e-002 -7.758707e+000 167 137 119
-5.736927e-001 -2.120760e-001 -7.245289e+000 213 208 186
8.459720e-002 -3.739567e-001 -7.403023e+000 106 37 9
-5.397305e-001 -1.580457e-001 -7.233301e+000 47 16 10
-9.948776e-001 -3.205467e-001 -6.593257e+000 204 195 200
-1.015771e+000 -2.307222e-001 -6.502783e+000 217 207 206
-1.015445e+000 -2.304578e-001 -6.502658e+000 217 207 206
-1.027756e+000 -2.157159e-001 -6.482267e+000 83 60 50
-2.975862e-001 1.831118e-001 -7.215574e+000 155 136 120
-8.634714e-001 -2.228639e-001 -6.459447e+000 185 181 178
1.483021e+000 -1.094032e+000 -5.983412e+000 181 177 181
7.703687e-001 -4.309673e-001 -6.586448e+000 243 235 214
4.646054e-002 1.040638e-001 -6.978299e+000 252 245 227
1.755449e+000 -1.362330e+000 -5.697809e+000 200 198 203
1.725098e+000 -1.157317e+000 -5.705907e+000 162 160 163
1.777726e+000 -1.158720e+000 -5.708371e+000 197 194 201
1.886858e+000 -1.145415e+000 -5.489073e+000 207 205 210
2.240700e+000 -1.441704e+000 -5.113499e+000 181 180 186
2.110063e+000 -1.276977e+000 -5.252018e+000 210 208 213
1.582484e+000 -5.809382e-001 -5.894120e+000 138 133 137
9.259753e-001 2.284302e-001 -6.441953e+000 234 218 197
5.879612e-001 6.230878e-001 -6.823145e+000 227 216 198
9.027047e-001 6.090433e-001 -6.484551e+000 189 40 42
8.998758e-001 6.096481e-001 -6.462891e+000 213 68 76
5.433271e-001 9.626476e-001 -6.854834e+000 245 81 86
1.758574e-001 -1.352554e+000 -7.663176e+000 171 170 167
3.064929e-001 -1.204098e+000 -7.473531e+000 253 248 190
3.064929e-001 -1.204098e+000 -7.473531e+000 253 248 190
9.180781e-001 -1.704955e+000 -6.820605e+000 198 195 200
5.610786e-001 -1.082324e+000 -7.230428e+000 134 128 130
2.886519e-001 -7.921605e-001 -7.348152e+000 188 46 48
-3.150914e-001 2.394371e-002 -7.864281e+000 234 95 96
-2.396243e-001 -6.286089e-002 -7.738130e+000 207 196 174
7.620441e-001 -3.042452e+000 -5.008874e+000 60 57 64
-7.932260e-001 -2.590344e-001 -6.977167e+000 119 30 14
-7.624051e-001 -1.645581e-001 -6.958606e+000 120 53 37
-2.575548e-001 9.557533e-002 -7.271651e+000 147 128 111
-3.799257e-001 8.038404e-002 -7.104464e+000 72 26 19
-3.525537e-001 8.701310e-002 -7.090770e+000 100 73 60
-2.045084e-001 2.533779e-001 -7.415870e+000 181 165 142
-3.187150e-001 3.289226e-001 -7.452880e+000 139 121 101
-2.113746e-001 3.283528e-001 -7.490680e+000 169 152 132
-3.308254e-001 1.109587e-001 -7.051439e+000 94 34 22
-8.997641e-002 8.947553e-002 -6.969544e+000 202 194 175
-6.472137e-002 1.051840e-001 -6.978327e+000 141 126 110
-1.215776e-001 5.240598e-001 -7.414707e+000 189 176 159
1.789182e+000 -1.243960e+000 -5.742457e+000 202 200 205
1.594290e+000 -1.020259e+000 -5.868929e+000 162 160 165
1.383017e+000 -4.910785e-001 -6.117399e+000 149 144 148
6.241796e-001 2.280703e-002 -6.658178e+000 172 157 134
6.509320e-001 2.360855e-001 -6.770491e+000 244 237 219
8.918653e-001 4.951847e-001 -6.412621e+000 152 29 32
4.033195e-001 1.079808e+000 -7.013434e+000 233 215 193
3.262851e-001 1.138099e+000 -7.088709e+000 225 68 67
8.663922e-001 6.479178e-001 -6.493252e+000 234 87 88
2.769327e-001 -1.461554e+000 -7.707438e+000 175 174 172
6.554129e-001 -1.654279e+000 -7.260607e+000 155 153 158
1.891486e-002 -6.316811e-001 -7.682537e+000 252 99 106
-7.533881e-001 -2.290260e-001 -7.112445e+000 115 32 17
-9.142499e-001 -2.936497e-001 -6.771024e+000 156 80 54
-9.207869e-001 -2.912806e-001 -6.769368e+000 156 80 54
-9.902208e-001 -3.043701e-001 -6.584328e+000 55 13 19
-2.026007e-001 2.229159e-001 -7.521776e+000 152 137 118
-1.081940e+000 -2.319540e-001 -6.511326e+000 204 197 205
-4.515431e-001 1.138609e-002 -7.089662e+000 58 14 15
-2.116895e-001 3.425962e-001 -7.602852e+000 221 209 187
-3.896289e-001 7.755551e-001 -7.875446e+000 221 201 184
-8.488245e-001 -2.233330e-001 -6.482255e+000 73 49 26
-3.316484e-001 3.965386e-002 -6.944086e+000 134 117 97
-3.316484e-001 3.965386e-002 -6.944086e+000 134 117 97
-1.359806e-003 1.804357e-001 -7.052517e+000 241 229 212
1.785607e+000 -1.199673e+000 -5.619937e+000 205 203 208
4.153827e-001 3.027012e-001 -6.999205e+000 164 153 133
-1.589629e-001 7.998910e-001 -7.436287e+000 193 180 161
-1.589629e-001 7.998910e-001 -7.436287e+000 193 180 161
7.456871e-001 8.244848e-001 -6.600383e+000 108 15 22
3.863329e-001 1.194488e+000 -6.994704e+000 232 76 77
-2.648931e-001 -2.656964e-001 -7.953229e+000 91 82 84
2.194601e-001 -8.107528e-001 -7.637351e+000 145 137 136
-8.912327e-002 -3.981235e-001 -7.492101e+000 176 117 73
-2.661595e-001 -1.124337e-001 -7.444573e+000 185 170 149
-7.988561e-001 -2.010930e-001 -6.970938e+000 97 25 11
-3.637029e-001 7.336066e-002 -7.062800e+000 66 23 21
-1.010759e+000 -1.963857e-001 -6.458539e+000 104 75 50
-2.677683e-001 1.025197e+000 -7.743354e+000 216 70 71
-2.677683e-001 1.025197e+000 -7.743354e+000 216 70 71
1.045860e+000 -2.573708e-001 -6.321679e+000 120 105 67
1.012075e-001 5.942036e-001 -7.181907e+000 169 154 133
2.551349e-001 6.891419e-001 -7.191007e+000 228 221 203
2.126648e-001 1.010584e+000 -7.214748e+000 214 204 192
1.260416e-001 1.337026e+000 -7.353576e+000 31 6 16
3.966227e-001 1.039811e+000 -6.958432e+000 235 222 203
7.064925e-001 9.140370e-001 -6.654242e+000 212 61 66
4.184967e-001 1.244192e+000 -6.980309e+000 217 57 60
3.143956e-001 -1.135903e+000 -7.529965e+000 30 23 24
4.712114e-001 -1.140741e+000 -7.326911e+000 255 255 220
4.339921e-001 -1.119400e+000 -7.332776e+000 255 255 220
2.775999e-001 -8.795759e-001 -7.390824e+000 255 254 208
1.910160e-001 -7.163726e-001 -7.443942e+000 221 194 133
-1.590889e-002 -3.530096e-001 -7.515226e+000 85 15 16
-9.100528e-001 -3.460154e-001 -6.764788e+000 146 45 27
-2.782468e-001 2.919479e-001 -7.816590e+000 220 204 188
-3.859776e-001 -9.224734e-003 -7.191429e+000 71 27 22
-1.026323e+000 -2.550149e-001 -6.523531e+000 74 42 27
-1.045978e+000 -2.434192e-001 -6.529113e+000 74 42 27
-1.724448e-001 3.570695e-001 -7.633367e+000 169 154 131
3.544798e-001 1.277951e-002 -6.768161e+000 223 215 194
-7.655216e-002 7.115602e-001 -7.360965e+000 247 240 224
8.942838e-001 -1.960715e-001 -6.460295e+000 248 243 226
6.158749e-001 2.637747e-001 -6.833729e+000 243 236 220
3.090211e-001 4.674916e-001 -7.120311e+000 200 192 171
8.781365e-001 4.445233e-001 -6.400470e+000 233 85 85
1.828233e-001 -8.211973e-001 -7.524236e+000 255 248 189
-4.608107e-002 -5.514067e-001 -7.716170e+000 182 50 48
-5.286773e-001 -4.168912e-002 -7.059342e+000 53 16 15
8.129383e-001 -1.024617e-001 -6.549650e+000 189 176 154
5.020455e-001 2.576556e-001 -6.913544e+000 232 225 212
1.302898e+000 -1.973499e-001 -6.177227e+000 12 7 5
8.711430e-001 5.849703e-002 -6.386929e+000 243 227 211
9.869914e-001 2.006597e-001 -6.389044e+000 211 50 61
5.342537e-001 9.385415e-001 -6.823152e+000 232 76 80
4.202856e-001 -1.217318e+000 -7.353434e+000 144 139 140
1.037026e-001 -6.367450e-001 -7.634055e+000 254 183 152
-4.775773e-001 5.045710e-001 -7.926976e+000 187 172 151
-9.707490e-001 -3.463622e-001 -6.710825e+000 151 46 27
-9.796251e-001 -2.622174e-001 -6.654857e+000 225 136 92
-3.517012e-001 7.972929e-001 -7.802539e+000 221 212 195
1.162117e-001 2.440101e-001 -7.001717e+000 241 232 215
1.837397e-002 1.182467e+000 -7.346908e+000 206 69 67
-2.458004e-001 2.117973e-001 -7.808758e+000 152 28 36
6.380114e-001 -1.672384e-001 -6.596136e+000 243 238 219
3.041502e-002 8.663821e-001 -7.304160e+000 184 171 154
8.214673e-001 4.713363e-001 -6.608280e+000 249 242 226
8.262922e-001 5.092262e-001 -6.505522e+000 154 28 31
-2.662476e-001 -4.124110e-001 -7.827775e+000 235 228 210
-2.697466e-001 -4.111112e-001 -7.828749e+000 235 228 210
-1.491027e-001 -2.341944e-001 -8.040426e+000 49 39 40
-2.972828e-001 1.180979e-002 -7.928691e+000 12 8 9
-4.870162e-001 5.324734e-001 -8.054104e+000 205 188 168
-7.983624e-001 -3.962014e-001 -6.846929e+000 217 210 218
-2.018604e-001 4.254534e-001 -7.573582e+000 154 136 114
7.896826e-001 4.701557e-001 -6.613885e+000 248 241 225
-9.692679e-001 -2.299965e-001 -6.534970e+000 50 21 13
8.556378e-001 2.607966e-002 -6.471197e+000 250 244 229
6.753189e-001 8.030659e-001 -6.868683e+000 242 235 219
-4.000861e-001 5.892201e-001 -7.840202e+000 233 224 207
1.078071e+000 -2.217994e+000 -6.648466e+000 178 175 182
1.295685e+000 -2.390211e+000 -6.459160e+000 195 190 197
6.233955e-001 -1.248684e+000 -7.200685e+000 178 169 172
2.173442e-001 -7.755772e-001 -7.633047e+000 149 138 136
1.095453e+000 -1.958145e+000 -6.645521e+000 208 207 213
1.506031e+000 -2.261755e+000 -6.164252e+000 194 189 196
1.341976e+000 -2.124975e+000 -6.356287e+000 189 186 193
1.118592e+000 -1.805520e+000 -6.544386e+000 216 211 218
8.217172e-001 -1.354826e+000 -6.921102e+000 202 195 202
-5.386225e-001 -3.236303e-001 -7.233420e+000 66 26 15
-9.121268e-002 -1.854874e-001 -7.588454e+000 201 190 167
-9.866292e-001 -3.338310e-001 -6.679984e+000 223 136 107
-4.712453e-001 -2.755310e-002 -7.169833e+000 88 53 49
-3.945505e-001 -3.317945e-002 -7.192161e+000 100 67 60
-8.641587e-001 -2.182920e-001 -6.516572e+000 215 205 204
2.147715e+000 -1.305416e+000 -5.281883e+000 177 176 181
1.817567e+000 -1.154620e+000 -5.427898e+000 197 197 201
1.814804e+000 -1.136740e+000 -5.459306e+000 159 158 163
1.203419e+000 -2.368745e+000 -6.603332e+000 202 199 206
6.320018e-001 -1.489704e+000 -7.237600e+000 177 171 175
5.126053e-001 -1.295026e+000 -7.333964e+000 173 167 171
1.592453e+000 -2.627372e+000 -6.074375e+000 223 218 225
1.382317e+000 -2.343436e+000 -6.288160e+000 223 218 225
1.350544e+000 -2.303195e+000 -6.239795e+000 203 198 205
1.538896e+000 -2.305804e+000 -6.137525e+000 225 220 227
1.238069e+000 -2.032537e+000 -6.459139e+000 201 196 203
1.474765e+000 -2.175354e+000 -6.133746e+000 223 218 224
-6.882831e-001 -3.594640e-001 -7.091159e+000 184 28 26
-5.678888e-001 -1.718044e-001 -7.254475e+000 61 21 14
-6.250287e-001 -6.087696e-002 -6.884043e+000 110 45 34
-1.217774e-001 1.504135e-001 -7.183419e+000 155 140 119
1.826482e+000 -1.142836e+000 -5.493701e+000 146 144 149
2.286934e-001 5.299043e-002 -6.823097e+000 211 199 183
8.256289e-001 -1.754020e-001 -6.517520e+000 178 160 129
2.193601e+000 -1.287872e+000 -5.053769e+000 206 204 209
4.171814e-001 -1.227509e+000 -7.559847e+000 161 155 159
6.645226e-001 -1.537976e+000 -7.231721e+000 147 140 147
8.201375e-001 -1.795006e+000 -6.981463e+000 174 169 175
5.376292e-001 -1.139721e+000 -7.248651e+000 188 179 182
1.207864e+000 -1.959635e+000 -6.405410e+000 198 193 200
1.207864e+000 -1.959635e+000 -6.405410e+000 198 193 200
1.071316e+000 -1.702687e+000 -6.654585e+000 177 172 178
1.052570e+000 -1.691165e+000 -6.658562e+000 177 172 178
1.692081e+000 -2.493749e+000 -5.930261e+000 202 195 202
-2.023384e-001 -9.972912e-002 -7.728590e+000 207 199 179
-5.832792e-001 -3.037048e-002 -7.033054e+000 84 37 31
-3.811555e-001 5.190790e-002 -7.154456e+000 100 73 63
-4.333445e-001 2.199810e-001 -7.230122e+000 160 139 122
-1.227917e-001 4.588199e-001 -7.413765e+000 202 189 170
3.633325e-003 9.090091e-002 -6.948922e+000 221 209 190
1.050515e+000 -4.581836e-001 -6.343973e+000 203 183 138
8.679735e-001 -1.469693e-001 -6.478421e+000 199 184 165
7.142076e-001 -1.536301e+000 -7.121014e+000 194 188 192
1.644804e+000 -2.716334e+000 -6.086117e+000 215 210 217
5.284684e-001 -1.055866e+000 -7.264190e+000 178 167 171
-3.376514e-001 1.816766e-001 -7.975119e+000 22 4 17
1.097239e+000 2.601280e-001 -6.272147e+000 63 46 46
8.760655e-001 7.094348e-001 -6.552751e+000 159 26 31
8.731202e-001 -1.852952e+000 -6.922318e+000 197 193 200
2.629105e-001 -8.621885e-001 -7.391881e+000 255 253 206
6.671737e-001 -1.109935e+000 -7.155676e+000 171 164 171
-1.353371e-001 4.977957e-001 -7.430491e+000 218 207 186
4.620367e-001 3.858761e-001 -7.045044e+000 223 216 200
-9.171871e-002 8.108983e-001 -7.500576e+000 212 201 183
4.033447e-002 8.422279e-001 -7.259888e+000 236 228 210
1.111745e+000 1.059584e-001 -6.271333e+000 231 82 88
-1.426325e-001 3.661601e-001 -7.623592e+000 167 152 131
1.062854e+000 4.864057e-002 -6.296644e+000 139 13 20
-1.717806e-001 1.774059e-001 -7.286696e+000 134 117 99
1.809696e-001 6.277954e-001 -7.134972e+000 236 229 213
2.989459e-001 7.887951e-001 -7.223067e+000 238 230 213
7.181452e-001 3.152662e-001 -6.646928e+000 186 171 148
-1.783065e-001 9.988705e-001 -7.469512e+000 151 129 115
3.943497e-001 1.216900e+000 -6.977524e+000 211 50 55
2.245026e-001 1.268042e+000 -7.087772e+000 218 63 67
4.916725e-001 5.397666e-002 -6.716106e+000 161 151 126
4.607378e-001 -1.078879e+000 -7.422853e+000 255 254 213
-2.317681e-001 4.565335e-001 -7.579465e+000 146 131 110
-1.732096e-001 2.974828e-002 -7.595435e+000 69 7 13
-1.079122e-002 3.786365e-001 -7.195616e+000 155 140 121
-2.049155e-001 -1.974478e-001 -7.789383e+000 193 179 160
-4.651872e+000 -6.428886e+000 -1.503683e+001 120 118 129
7.181102e-001 -1.525665e+000 -7.076813e+000 181 179 182
4.922013e-001 -1.183708e+000 -7.306716e+000 152 148 138
7.713335e-001 -1.497091e+000 -6.989435e+000 190 185 189
-2.067612e-001 7.511254e-001 -7.609053e+000 183 171 151
-3.133872e-001 1.174924e-001 -7.117664e+000 131 114 96
-2.111289e-001 3.427371e-001 -7.602522e+000 221 209 187
2.172172e-001 -8.589739e-001 -7.543932e+000 255 240 180
2.846868e-001 -8.089053e-001 -7.365431e+000 250 238 175
3.067337e-001 -7.323091e-001 -7.341682e+000 185 45 46
-5.054181e-002 1.310427e+000 -7.432701e+000 94 10 14
-7.665890e-001 -1.753100e-001 -6.972303e+000 90 20 7
2.072000e-001 6.247403e-002 -6.847872e+000 242 235 217
6.980049e-001 -1.382205e+000 -7.161342e+000 192 186 188
-2.468544e-001 6.693642e-001 -7.685919e+000 181 165 146
2.110294e-001 1.010172e+000 -7.213923e+000 212 205 189
-4.284786e-001 7.188237e-001 -7.926625e+000 204 191 172
-1.697936e-001 8.330946e-001 -7.564388e+000 225 217 198
2.689187e-001 -8.020091e-001 -7.366623e+000 251 244 175
-4.300974e-001 -5.802979e-001 -6.872358e+000 180 157 157
-4.783115e-001 -5.358441e-001 -6.838515e+000 223 83 30
-5.142271e-001 -2.047211e-001 -7.257512e+000 120 94 79
-3.697958e-001 9.949131e-002 -6.991733e+000 117 89 71
-6.146677e-002 -5.435806e-001 -7.650050e+000 247 183 130
2.849173e-001 -8.124952e-001 -7.317822e+000 224 116 123
-6.692297e-001 -4.269217e-001 -6.956201e+000 190 52 22
-6.125116e-001 -3.462553e-001 -7.158182e+000 158 89 74
7.002285e-002 -5.660794e-001 -7.252367e+000 197 174 152
-7.493867e-001 -3.344720e-001 -6.902611e+000 195 93 54
-4.764130e-001 -1.801326e-001 -7.204791e+000 97 62 56
-7.901705e-001 -2.451076e-001 -6.435435e+000 193 193 193
7.696973e-001 -1.599460e-001 -6.527799e+000 185 169 148
-1.416619e-001 4.742822e-001 -7.431303e+000 172 160 143
-1.526498e-001 -4.789531e-001 -7.914255e+000 101 91 92
2.890770e-001 -7.087962e-001 -7.326411e+000 245 101 101
-5.658025e-001 -4.489487e-001 -7.075153e+000 184 41 41
-5.658025e-001 -4.489487e-001 -7.075153e+000 184 41 41
-2.313278e-001 -4.063793e-001 -7.307664e+000 235 231 211
-4.631949e-001 -5.384940e-001 -6.815129e+000 227 164 148
-2.830357e-001 -6.229049e-002 -7.230047e+000 79 28 23
-1.048539e-001 7.676224e-002 -7.276393e+000 124 105 88
-2.206973e-001 1.601024e-001 -7.230686e+000 127 108 91
-2.110525e-001 1.582344e-001 -7.230008e+000 127 108 91
-3.292413e-001 8.163586e-002 -7.032809e+000 105 72 63
-2.461002e-001 6.140310e-001 -7.677828e+000 179 168 150
1.164355e+000 -6.539768e-003 -6.190927e+000 54 51 47
2.500313e-001 -8.288973e-001 -7.414298e+000 170 150 90
2.612180e-001 -7.084246e-001 -7.392743e+000 202 173 115
-7.832225e-001 -2.481735e-001 -7.079891e+000 189 92 57
-8.792548e-001 -4.214762e-001 -6.652934e+000 192 192 194
2.736788e-001 1.013305e-001 -6.843648e+000 198 185 166
1.525148e-001 5.535068e-001 -7.158204e+000 227 217 198
7.675752e-001 5.510082e-001 -6.612616e+000 250 236 217
1.990654e-001 1.320127e+000 -7.220506e+000 208 45 49
-6.790954e-001 5.847720e-001 -8.231805e+000 231 78 77
-2.176097e-001 1.036224e-001 -7.572950e+000 79 13 17
-4.962012e-001 4.339613e-001 -7.915931e+000 223 209 185
-3.372559e-001 9.494734e-002 -7.081378e+000 111 83 71
-7.465583e-002 3.012639e-001 -7.273723e+000 135 120 101
1.499616e-002 1.350154e+000 -7.352954e+000 38 24 30
2.360940e-001 -7.429099e-001 -7.445069e+000 214 188 127
-5.128140e-001 -1.982367e-001 -7.229340e+000 54 15 13
1.429190e+000 -4.540841e-001 -6.120320e+000 235 221 172
9.627700e-001 -1.566600e-001 -6.488325e+000 194 179 160
1.077790e+000 -5.392076e-002 -6.256356e+000 249 104 107
-3.933860e-001 -3.644715e-001 -7.256663e+000 226 215 200
4.496160e-003 -3.519852e-001 -7.445559e+000 218 187 133
-9.688234e-001 -3.195122e-001 -6.528449e+000 194 192 197
-2.896162e-001 -3.502069e-002 -7.274459e+000 126 102 91
-2.395629e-001 -9.640998e-002 -7.298721e+000 23 4 6
-6.114934e-001 -2.829498e-001 -7.191202e+000 67 17 14
-2.353800e-001 7.968945e-001 -7.670022e+000 148 130 110
-5.846503e-002 1.244548e+000 -7.483858e+000 174 41 42
-6.610037e-002 -5.074266e-001 -7.469748e+000 255 237 178
-1.715518e-002 -5.832527e-001 -7.322905e+000 190 48 50
-1.715518e-002 -5.832527e-001 -7.322905e+000 190 48 50
-2.091529e-001 -1.424067e-001 -7.577514e+000 216 207 184
5.763145e-001 1.356215e-001 -6.669835e+000 230 221 204
1.111336e+000 7.234148e-001 -6.266282e+000 39 27 26
7.660666e-001 -1.533007e+000 -7.016858e+000 204 198 202
-8.068390e-001 -2.261472e-001 -6.914752e+000 135 65 52
-2.081157e-001 1.059903e+000 -7.703391e+000 229 78 83
-1.713754e-001 4.797317e-001 -7.466489e+000 205 193 171
9.242866e-001 6.750561e-002 -6.466958e+000 253 247 231
-1.429265e-001 1.193256e+000 -7.569162e+000 153 16 23
5.158069e-001 5.595311e-001 -6.929356e+000 230 223 205
1.058658e+000 -1.783248e+000 -6.724339e+000 201 193 204
1.086135e+000 -1.792579e+000 -6.635967e+000 195 193 198
1.071606e+000 -1.760206e+000 -6.661458e+000 206 199 206
-1.703784e-001 5.098406e-001 -7.471627e+000 189 174 155
-3.013512e-001 -4.598245e-001 -7.880336e+000 108 97 95
-7.588605e-001 -2.707054e-001 -7.087592e+000 164 57 26
-2.944941e-002 2.274125e-001 -7.131515e+000 176 161 140
-3.561016e-001 8.025827e-002 -7.893832e+000 133 17 24
-7.188568e-001 -2.046519e-001 -7.169117e+000 71 12 6
8.793129e-001 7.060969e-001 -6.490430e+000 54 34 36
-2.293049e-001 7.379188e-001 -7.585749e+000 200 192 173
-2.461376e-001 4.129329e-002 -7.391975e+000 163 146 128
-2.481175e-001 1.096669e+000 -7.717062e+000 225 68 67
-2.186111e-001 -6.144221e-003 -7.761356e+000 151 87 77
-7.405539e-002 5.471118e-001 -7.583938e+000 172 158 138
1.071305e+000 2.644609e-002 -6.239541e+000 207 66 65
-2.193825e-001 1.086138e+000 -7.665445e+000 172 31 35
-7.910715e-001 -2.962260e-001 -7.040789e+000 194 85 52
-4.242023e-001 -9.178826e-002 -7.173040e+000 52 13 10
-4.025924e-001 1.503264e-002 -7.165316e+000 95 62 55
8.065026e-001 3.955538e-001 -6.469228e+000 231 216 195
-7.890773e-001 -2.129916e-001 -6.959594e+000 96 24 12
-4.312154e-001 8.145831e-003 -7.097784e+000 58 12 14
-9.418658e-002 2.296668e-001 -7.236273e+000 157 141 125
-7.091155e-002 2.801519e-001 -7.248862e+000 171 159 137
2.356403e-001 7.355669e-001 -7.218202e+000 210 202 188
2.471063e-001 7.365129e-001 -7.217307e+000 210 202 188
-2.503099e-001 1.056450e+000 -7.747547e+000 183 35 39
-2.737754e-001 8.552193e-001 -7.762520e+000 215 205 194
9.224298e-001 4.473000e-001 -6.396706e+000 238 74 79
4.702299e-001 7.164133e-001 -6.964250e+000 194 187 171
9.931245e-001 2.357961e-002 -6.359660e+000 233 228 210
2.529409e-001 9.541181e-001 -7.203257e+000 241 235 219
-2.121312e-001 1.253592e-001 -7.526038e+000 162 143 128
6.731080e-002 1.337888e+000 -7.487581e+000 20 11 12
1.713838e-001 -7.200157e-001 -7.579189e+000 229 106 99
-3.303521e-001 1.009956e-001 -7.910897e+000 145 23 26
-2.655157e-001 7.018067e-001 -7.719003e+000 239 232 214
-2.687842e-001 3.167732e-002 -7.805766e+000 133 16 23
9.301845e-001 5.236121e-001 -6.365514e+000 201 50 57
3.238804e-001 1.136777e+000 -7.109413e+000 233 189 165
-8.111709e-001 -2.248411e-001 -6.916262e+000 128 59 43
-7.990157e-001 -2.121983e-001 -6.939407e+000 129 58 40
-2.213458e-001 3.340793e-001 -7.509806e+000 153 140 121
4.794190e-001 5.415002e-001 -6.955435e+000 187 184 165
3.581809e-001 1.295603e+000 -7.012423e+000 42 30 28
-1.543371e-001 9.207141e-001 -7.688453e+000 171 159 140
-7.309781e-001 -3.187346e-001 -7.096865e+000 209 98 55
-5.458196e-001 -2.803344e-001 -7.288645e+000 189 177 165
-1.291837e-001 -1.706865e-001 -7.590427e+000 193 180 163
-8.019813e-001 -2.810862e-001 -6.915150e+000 133 51 42
-5.494959e-001 5.325393e-001 -8.128611e+000 232 75 76
1.148119e+000 2.034368e-001 -6.264135e+000 251 75 82
3.627100e-001 1.093266e+000 -7.023037e+000 216 183 172
1.856746e-001 -8.441500e-001 -7.546602e+000 237 225 147
-1.156821e-002 -5.486903e-001 -7.557792e+000 76 6 4
-5.353289e-002 -5.442649e-001 -7.649693e+000 239 190 140
-9.696458e-002 -4.466145e-001 -7.569188e+000 241 196 139
-8.449213e-002 -4.487570e-001 -7.567366e+000 241 196 139
-6.594194e-001 -4.019511e-001 -7.106099e+000 218 199 187
-5.392320e-001 -2.400078e-001 -7.282419e+000 129 101 89
3.515037e-002 -2.553580e-001 -7.362325e+000 71 36 16
3.515037e-002 -2.553580e-001 -7.362325e+000 71 36 16
-7.942027e-001 -2.950175e-001 -6.871342e+000 101 32 22
1.155536e+000 1.898741e-001 -6.245859e+000 53 29 24
9.018305e-001 6.116585e-001 -6.489229e+000 192 37 37
3.756967e-001 1.092744e+000 -7.003782e+000 231 61 61
1.786414e-001 -7.221510e-001 -7.580827e+000 249 104 109
-6.910431e-001 -3.441339e-001 -7.096252e+000 185 30 26
-6.910431e-001 -3.441339e-001 -7.096252e+000 185 30 26
-6.587330e-001 -3.449474e-001 -7.128998e+000 238 131 86
-2.398025e-001 -1.020337e-001 -7.726595e+000 204 196 177
-2.427530e-001 -8.270607e-002 -7.734941e+000 207 199 181
-7.944133e-001 -2.119396e-001 -6.939499e+000 136 60 43
-4.201762e-001 -5.956080e-003 -7.115034e+000 72 39 32
-4.201762e-001 -5.956080e-003 -7.115034e+000 72 39 32
-1.170760e-001 5.738539e-001 -7.371108e+000 200 194 180
8.842573e-001 6.462811e-001 -6.490421e+000 219 64 63
2.784188e-001 -8.368800e-001 -7.402591e+000 161 145 86
-6.443024e-001 -3.825395e-001 -7.118707e+000 137 32 14
-5.306135e-001 4.577804e-001 -8.011621e+000 10 8 7
-3.832124e-002 2.572799e-001 -7.233791e+000 141 128 111
7.171387e-001 8.538462e-001 -6.581689e+000 50 26 28
6.412949e-001 9.070706e-001 -6.669347e+000 211 54 59
3.349521e-001 1.143466e+000 -7.081017e+000 220 59 60
-1.039456e-001 -4.561047e-001 -7.702497e+000 186 33 37
-5.381929e-001 -2.552958e-001 -7.296290e+000 72 18 9
-4.010393e-001 -3.762996e-002 -7.207029e+000 94 67 58
6.377443e-001 6.283072e-001 -6.700627e+000 146 129 111
-2.576128e-001 1.049649e+000 -7.714433e+000 216 56 61
2.868262e-001 1.315191e+000 -7.080357e+000 41 27 29
6.772381e-002 -5.642175e-001 -7.245293e+000 205 196 181
-4.029824e-001 2.682788e-002 -7.163070e+000 99 69 59
-4.863700e-001 4.063010e-001 -7.940163e+000 171 14 28
6.028323e-001 9.469263e-001 -6.712594e+000 216 57 62
-1.507710e-001 1.223509e+000 -7.609559e+000 18 9 11
-8.999419e-001 -2.968764e-001 -6.774156e+000 158 75 43
-3.297476e-001 1.718112e-001 -7.939837e+000 215 58 62
-5.168173e-001 -4.542876e-002 -7.050761e+000 51 13 12
2.423733e-001 6.307726e-001 -7.136651e+000 233 225 212
-9.769310e-002 7.467508e-001 -7.355609e+000 237 231 219
5.917035e+000 2.108499e-001 -9.889377e-002 20 12 17
-1.578555e-001 2.578629e-001 -7.363469e+000 141 125 109
5.372114e-002 5.509291e-001 -7.286594e+000 235 228 218
5.863257e-001 8.729352e-001 -6.840132e+000 234 230 218
1.388939e-001 1.184977e+000 -7.250549e+000 215 50 54
-9.389336e-001 -2.499164e-001 -6.544060e+000 42 18 14
-2.134450e-001 4.231320e-001 -7.571630e+000 147 132 113
-4.060375e-001 1.012140e+000 -7.867858e+000 11 5 7
5.941275e+000 2.794035e-001 -1.107154e-001 22 13 15
6.445703e-002 7.353862e-001 -7.291570e+000 235 226 216
4.891648e-001 -1.110467e+000 -7.405451e+000 255 244 198
-3.684833e-001 1.387937e-001 -8.028797e+000 27 17 16
5.082890e-001 -1.027793e+000 -7.251762e+000 93 86 88
-2.205241e-002 -5.057071e-001 -7.791092e+000 241 83 90
2.534608e-001 -6.695142e-001 -7.298854e+000 160 31 41
4.890342e-002 -4.885972e-001 -7.451814e+000 224 126 66
-1.931442e-001 -4.136055e-001 -7.295316e+000 253 254 240
-8.381615e-002 -3.482611e-001 -7.439116e+000 140 91 55
-6.413969e-001 -3.678006e-001 -7.100276e+000 231 138 105
-2.728612e-001 -3.929920e-001 -7.189848e+000 198 189 172
-8.867831e-001 -3.784341e-001 -6.780267e+000 201 97 58
-9.646333e-001 -3.497880e-001 -6.753666e+000 169 73 51
-9.026361e-001 -3.478376e-001 -6.750721e+000 148 54 33
-8.029769e-001 -3.367830e-001 -6.844052e+000 172 52 30
-7.782566e-001 -2.033194e-001 -7.108343e+000 163 62 32
-4.524116e-001 -8.009519e-002 -7.205228e+000 104 65 60
-1.699218e-001 -2.198156e-002 -7.352505e+000 113 60 46
-8.622247e-002 1.690242e-001 -7.702241e+000 142 20 31
7.296646e-001 8.595234e-001 -6.604278e+000 181 46 51
5.626136e-001 1.075506e+000 -6.786507e+000 244 71 74
6.297528e-001 -1.049544e+000 -7.188889e+000 77 68 73
1.179712e-001 -6.636681e-001 -7.701364e+000 35 26 28
-8.758363e-003 -4.755062e-001 -7.290780e+000 254 207 160
-6.537687e-001 -4.333314e-001 -6.955120e+000 190 56 25
1.570354e-001 -3.345998e-001 -7.452065e+000 136 83 55
4.556436e-002 -2.413663e-001 -7.373482e+000 179 140 125
5.499764e-002 -2.421921e-001 -7.392113e+000 62 26 10
-1.853387e-001 -1.532581e-001 -7.626473e+000 225 216 199
-9.563229e-001 -3.822454e-001 -6.713114e+000 210 105 77
-7.703246e-001 -2.133490e-001 -7.137082e+000 118 24 13
-2.998287e-001 3.116760e-003 -7.875757e+000 236 66 59
-4.115670e-001 -1.556117e-001 -7.232015e+000 55 14 12
-1.046337e+000 -2.537940e-001 -6.526090e+000 58 35 19
-1.004837e+000 -2.890311e-001 -6.577087e+000 183 155 108
-4.814428e-001 -6.121568e-002 -7.215172e+000 68 29 22
5.976336e-002 9.744493e-002 -7.539033e+000 123 57 41
-1.295100e-001 1.471008e-001 -7.635149e+000 103 4 14
4.961047e-001 5.489604e-001 -6.925027e+000 232 226 214
5.368082e-002 5.582049e-001 -7.228649e+000 195 185 170
7.604588e-001 -9.507721e-001 -6.739079e+000 252 109 114
3.231336e-001 -5.961459e-001 -7.358595e+000 149 33 27
-3.145068e-001 -3.584665e-001 -7.227994e+000 175 160 145
-5.536828e-001 -4.313120e-001 -6.749883e+000 251 211 166
-6.637230e-001 -3.450244e-001 -7.130467e+000 251 133 90
-6.693554e-001 -3.110391e-001 -7.184512e+000 103 23 14
-5.644875e-001 -2.848171e-001 -7.241009e+000 107 27 23
-5.381737e-002 -2.615630e-001 -7.357098e+000 160 125 103
-5.205326e-001 -1.944832e-001 -7.226029e+000 77 28 27
-9.695063e-001 -3.398175e-001 -6.585618e+000 255 185 152
-1.044899e+000 -3.051813e-001 -6.614514e+000 59 14 11
-4.232890e-001 -2.626264e-002 -7.242405e+000 95 37 29
-1.074015e+000 -2.478776e-001 -6.509108e+000 53 45 39
-6.181752e-001 -6.346889e-002 -6.923660e+000 120 53 37
-5.740030e-001 -4.549644e-002 -7.013223e+000 75 28 21
-4.204175e-001 5.395426e-003 -7.133916e+000 90 52 44
-2.900008e-001 1.133981e-001 -7.094393e+000 128 110 96
-4.250141e-002 3.698408e-001 -7.282291e+000 175 164 146
-1.931211e-001 4.858360e-001 -7.492520e+000 164 151 132
-6.528604e-001 5.926140e-001 -8.253358e+000 17 12 12
6.897883e-001 6.256424e-001 -6.598122e+000 240 220 205
1.922118e-001 7.177115e-001 -7.247417e+000 253 253 241
1.349301e-001 8.829428e-001 -7.279496e+000 211 204 189
-5.017093e-002 1.128756e+000 -7.439356e+000 223 62 64
8.133767e-001 -1.194539e+000 -7.305022e+000 221 201 150
3.774103e-001 -9.036218e-001 -7.416136e+000 231 209 152
2.725598e-001 -8.629843e-001 -7.395339e+000 253 254 216
9.522134e-001 -1.116968e+000 -6.767003e+000 92 86 90
9.056404e-001 -1.044174e+000 -6.763793e+000 35 10 16
2.898776e-001 -8.068518e-001 -7.370248e+000 254 254 202
3.567987e-001 -7.459344e-001 -7.343140e+000 196 38 40
-2.168774e-001 -4.830024e-001 -7.826095e+000 33 13 22
8.830945e-001 -9.140651e-001 -6.684994e+000 252 115 117
6.387492e-001 -7.687085e-001 -6.749514e+000 238 235 217
2.545757e-001 -5.408902e-001 -7.357313e+000 120 17 20
-9.765266e-001 -3.588648e-001 -6.701601e+000 64 11 10
-8.617108e-001 -3.450349e-001 -6.800112e+000 140 53 25
-1.023087e+000 -2.596027e-001 -6.541767e+000 50 26 15
-7.425508e-001 -1.311345e-001 -7.024325e+000 90 26 15
-4.476404e-001 -3.874490e-002 -7.217436e+000 105 77 70
2.533114e-002 2.087641e-001 -7.042345e+000 162 150 136
8.771475e-001 3.913382e-001 -6.452365e+000 243 228 207
6.941433e-001 6.248666e-001 -6.597616e+000 238 216 201
-2.190171e-001 8.946919e-001 -7.703952e+000 185 171 155
-2.347971e-001 8.897986e-001 -7.707168e+000 185 171 155
4.330335e-001 1.047710e+000 -6.953418e+000 242 234 218
6.763326e-002 1.329242e+000 -7.313072e+000 222 60 65
-4.677157e-002 1.333321e+000 -7.370277e+000 43 28 32
5.349293e-001 -9.308530e-001 -7.248549e+000 77 69 67
9.571006e-001 -1.067953e+000 -6.708330e+000 253 107 107
9.604656e-001 -1.068725e+000 -6.707137e+000 253 107 107
7.314540e-001 -8.483640e-001 -6.765422e+000 213 57 66
-2.290512e-001 -3.978084e-001 -7.308607e+000 245 238 227
-2.343832e-001 -3.976294e-001 -7.309200e+000 245 238 227
-3.650092e-002 -4.032992e-001 -7.480344e+000 184 121 78
-5.281052e-001 -4.490079e-001 -7.027199e+000 253 230 176
-5.329086e-001 -4.493590e-001 -7.028224e+000 253 230 176
-1.112408e-001 -3.325743e-001 -7.415781e+000 161 141 119
-6.559545e-001 -3.429290e-001 -7.118679e+000 254 143 100
-7.365003e-001 -2.635474e-001 -7.160016e+000 112 24 15
-5.695422e-002 1.755514e-001 -7.071597e+000 235 226 212
1.943775e-001 2.506323e-001 -6.987926e+000 254 250 237
-5.263120e-001 4.577698e-001 -8.019658e+000 22 6 19
-5.641048e-001 5.222967e-001 -8.092275e+000 222 199 188
7.194685e-001 7.992053e-001 -6.731134e+000 239 232 218
1.132267e-001 1.332461e+000 -7.263548e+000 49 25 29
2.487013e-001 -8.924857e-001 -7.464019e+000 225 203 142
1.017666e+000 -1.121136e+000 -6.781413e+000 98 91 93
2.597093e-001 -8.373678e-001 -7.357309e+000 62 59 57
3.104208e-001 -7.552264e-001 -7.345620e+000 199 42 43
-4.856619e-001 -4.970460e-001 -7.029223e+000 157 29 32
-1.232627e-001 -4.434762e-001 -7.284507e+000 166 51 50
-1.241099e-001 -4.433892e-001 -7.285467e+000 166 51 50
-5.472420e-001 -4.375325e-001 -6.856746e+000 254 225 167
-6.716900e-002 -1.778403e-001 -7.423993e+000 155 122 101
-9.040706e-001 -3.444570e-001 -6.767651e+000 128 37 19
-1.083170e-001 3.376096e-001 -7.311194e+000 209 196 180
9.610589e-001 3.956313e-001 -6.432934e+000 232 217 200
-1.506660e-001 6.433373e-001 -7.404708e+000 237 229 216
-1.506660e-001 6.433373e-001 -7.404708e+000 237 229 216
4.728693e-001 -8.734017e-001 -7.228382e+000 28 18 17
3.147476e-001 -7.433867e-001 -7.264545e+000 118 12 22
-4.218346e-002 -5.490312e-001 -7.695322e+000 203 28 43
-6.476693e-001 -3.828417e-001 -7.098276e+000 210 61 46
-2.902609e-001 -3.339407e-001 -7.300896e+000 141 118 100
-8.403439e-001 -3.935371e-001 -6.713489e+000 210 105 67
-5.682252e-001 -2.109259e-001 -7.264208e+000 119 91 77
-2.055814e-001 3.162169e-001 -7.684659e+000 223 216 198
-1.854364e-001 4.374966e-001 -7.457049e+000 175 161 145
1.176695e-001 5.798599e-001 -7.200933e+000 199 191 172
5.980717e-002 -6.486216e-001 -7.651196e+000 255 103 113
-9.289869e-002 -4.510680e-001 -7.359743e+000 253 247 227
4.481817e-003 -2.758646e-001 -7.398830e+000 82 47 27
-8.155311e-001 -2.828586e-001 -7.007806e+000 163 58 36
-1.931614e-001 1.711898e-001 -7.295049e+000 142 125 109
-2.020965e-001 3.085303e-001 -7.478510e+000 146 128 112
-2.285938e-001 3.522712e-001 -7.530389e+000 220 211 193
1.878250e-005 1.300475e+000 -7.361187e+000 214 49 55
-6.047179e-001 -4.004516e-001 -7.010626e+000 254 227 176
-3.283480e-001 1.337966e-002 -7.922810e+000 12 7 11
-2.808992e-001 5.453627e-002 -7.403016e+000 170 159 140
-1.981570e-001 1.283026e-001 -7.527478e+000 174 154 143
-2.407550e-001 2.141627e-001 -7.794413e+000 163 26 36
-5.420181e-001 5.397989e-001 -8.052796e+000 210 196 183
-3.837559e-001 2.883205e-001 -8.140548e+000 56 38 34
1.012269e-001 4.188113e-001 -7.188368e+000 166 150 134
6.927530e-001 4.700390e-001 -6.656898e+000 255 255 251
5.213642e-001 5.288087e-001 -7.006508e+000 244 241 226
2.050140e-001 -8.236888e-001 -7.465486e+000 255 254 223
4.237469e-001 -8.910627e-001 -7.272004e+000 57 46 45
3.899167e-001 -8.857928e-001 -7.277867e+000 57 46 45
2.348854e-001 -5.940123e-001 -7.303557e+000 117 21 30
-2.070605e-001 -2.979671e-001 -7.987373e+000 41 25 26
-7.097384e-001 -2.972534e-001 -6.554028e+000 225 117 70
-7.946166e-002 -2.116123e-001 -7.755894e+000 230 221 204
-1.246640e-001 6.545822e-001 -7.418219e+000 217 205 191
-1.246640e-001 6.545822e-001 -7.418219e+000 217 205 191
9.805241e-001 -1.110117e+000 -6.689754e+000 246 92 98
8.452894e-001 -9.976718e-001 -6.778970e+000 235 87 93
-9.064076e-001 -3.789907e-001 -6.745257e+000 212 112 79
-7.916174e-001 -2.273021e-001 -6.941161e+000 121 40 23
-7.528980e-001 -1.583272e-001 -7.186585e+000 85 25 19
-9.115329e-001 -2.034299e-001 -6.430614e+000 208 188 130
-9.115329e-001 -2.034299e-001 -6.430614e+000 208 188 130
-1.077988e-001 6.657338e-002 -7.520277e+000 115 47 36
7.340739e-001 5.801340e-001 -6.589161e+000 217 75 70
9.400420e-001 6.166001e-001 -6.431441e+000 54 29 24
9.594409e-002 1.179447e+000 -7.306669e+000 240 223 206
9.606237e-001 -1.090097e+000 -6.731023e+000 51 36 39
-1.200483e-001 -4.257261e-001 -7.208135e+000 233 226 208
-5.370191e-002 -4.627880e-001 -7.279874e+000 61 46 36
-5.042395e-001 -3.423805e-001 -7.233169e+000 198 185 174
-7.557428e-001 -3.892416e-001 -6.760493e+000 174 56 25
-6.757995e-001 -3.698820e-001 -6.776376e+000 197 66 26
-9.678715e-001 -3.676235e-001 -6.669068e+000 234 132 91
-9.215701e-001 -3.668380e-001 -6.744634e+000 154 53 29
-9.066199e-001 -3.512987e-001 -6.716987e+000 123 25 9
-8.783155e-001 -3.331235e-001 -6.743963e+000 103 22 4
-7.812307e-001 -2.670675e-001 -6.936589e+000 107 25 13
-6.822820e-001 -1.215394e-001 -7.078823e+000 79 15 11
-3.493738e-001 7.677631e-002 -7.067507e+000 66 28 19
6.998186e-001 6.525657e-001 -6.623346e+000 167 140 123
-1.374028e-001 -5.691735e-001 -7.593034e+000 243 56 61
-4.550182e-001 -5.120601e-001 -6.830549e+000 234 88 39
-1.325135e-001 -4.492540e-001 -7.227361e+000 214 204 193
-7.489705e-001 -1.716038e-001 -7.181269e+000 153 74 49
-4.347604e-001 -9.019713e-002 -7.175668e+000 55 13 14
-9.618062e-001 -2.270410e-001 -6.441239e+000 148 124 86
-4.439740e-001 1.270023e-002 -7.118315e+000 59 14 9
-3.205365e-001 9.069554e-002 -7.121743e+000 126 111 98
-3.432628e-001 1.385027e-001 -7.256231e+000 130 114 99
-2.239330e-001 3.056554e-001 -7.521723e+000 160 151 134
6.082534e-001 6.235938e-001 -6.822064e+000 226 224 210
-6.266991e-001 -3.349379e-001 -7.173657e+000 223 128 79
-2.435921e-001 -1.795004e-001 -7.301770e+000 118 100 86
-2.083461e-001 1.599533e-001 -7.255130e+000 164 149 133
-2.569037e-001 3.087084e-001 -7.774406e+000 185 173 163
-2.569037e-001 3.087084e-001 -7.774406e+000 185 173 163
-1.712093e-001 4.333162e-001 -7.428316e+000 164 151 135
6.905576e-001 9.129825e-001 -6.627229e+000 42 32 28
8.727078e-001 -1.094454e+000 -6.901614e+000 85 75 80
-3.950952e-001 -5.293557e-001 -7.036455e+000 249 254 253
-7.276648e-001 -1.402870e-001 -7.156641e+000 62 17 14
-6.351272e-001 5.783286e-001 -8.246274e+000 231 71 74
-1.428892e-002 -4.489410e-001 -7.453826e+000 255 227 174
-1.257197e-001 -3.795262e-001 -7.623354e+000 149 16 22
-7.171930e-001 -2.046046e-001 -7.174786e+000 76 14 6
-1.735657e-002 8.565470e-001 -7.307626e+000 200 193 183
3.071138e-001 -6.635302e-001 -7.355655e+000 162 29 32
-3.420932e-002 -3.451070e-001 -7.515949e+000 87 6 12
-6.156847e-001 -4.229381e-001 -6.934479e+000 189 52 16
-3.913549e-001 -3.104763e-001 -7.247409e+000 142 129 114
7.343211e-001 -9.444849e-001 -6.846880e+000 19 9 10
-8.852066e-002 -4.959451e-001 -7.220096e+000 253 254 249
-2.160699e-001 2.789060e-001 -7.427628e+000 186 180 161
-3.782947e-001 7.940842e-001 -7.804535e+000 223 214 203
2.639500e-001 -6.232911e-001 -7.455395e+000 216 195 134
-1.989947e-001 9.083167e-001 -7.703710e+000 184 172 158
-1.397697e-001 -4.815918e-001 -7.499205e+000 254 240 186
-9.981840e-002 -4.837616e-001 -7.493587e+000 254 240 186
-3.870333e-001 5.026685e-002 -7.028191e+000 65 17 13
4.820693e-002 -3.244862e-001 -7.445063e+000 84 38 20
-9.581523e-001 -1.751475e-001 -6.912233e+000 60 17 15
6.039974e+000 -1.462243e-002 -9.293546e-002 162 155 140
6.343595e+000 1.098604e+000 3.670242e-001 82 73 71
6.270281e+000 5.230253e-001 9.517156e-002 64 58 60
5.924236e-001 -9.733003e-001 -6.973416e+000 61 54 52
2.893482e-001 -7.707637e-001 -7.366998e+000 181 160 104
3.194778e-001 -7.162272e-001 -7.356196e+000 254 103 105
3.194778e-001 -7.162272e-001 -7.356196e+000 254 103 105
2.473760e-002 -6.785326e-001 -7.577921e+000 233 63 70
8.798579e-001 -8.945787e-001 -6.621106e+000 64 37 26
3.279069e-001 -7.011212e-001 -7.340633e+000 186 34 39
-7.606948e-002 -5.356821e-001 -7.798161e+000 22 10 24
-7.695095e-001 -2.959762e-001 -7.084292e+000 223 102 61
-3.331063e-001 1.260813e-001 -6.953594e+000 117 41 11
8.800839e-001 6.070085e-001 -6.493391e+000 194 34 42
-3.381585e-001 6.793692e-002 -7.141645e+000 116 94 81
-1.223281e-001 5.700967e-001 -7.371180e+000 211 209 196
4.295376e+000 2.253346e+000 -1.320915e+000 46 38 42
-4.355725e-001 3.336337e-003 -7.135283e+000 81 48 41
-2.317201e-001 1.584529e-001 -7.213248e+000 158 142 127
7.293011e-001 6.736719e-001 -6.558195e+000 234 66 68
-2.340404e-001 -2.914261e-001 -7.744624e+000 175 163 146
-2.575068e-002 -5.167873e-001 -7.088909e+000 230 230 220
-2.128483e-001 -4.029710e-001 -7.244910e+000 187 179 166
-1.016851e+000 -3.472153e-001 -6.692259e+000 197 84 53
-1.005758e+000 -3.702271e-001 -6.761747e+000 212 122 95
-8.092949e-001 -3.263582e-001 -6.854544e+000 194 86 65
-8.394823e-001 -3.172047e-001 -6.943881e+000 235 126 88
-8.251014e-001 -3.319143e-001 -6.984470e+000 206 68 29
-7.383062e-001 -2.869593e-001 -7.197763e+000 117 35 21
-1.092375e+000 -2.716013e-001 -6.541579e+000 158 140 101
-4.573459e-001 -7.580625e-002 -7.179654e+000 89 48 46
1.020142e-001 -6.894990e-001 -7.575564e+000 232 63 70
-5.343262e-001 -4.896668e-001 -6.870115e+000 220 147 99
-2.660632e-001 -3.953945e-001 -7.211192e+000 174 165 148
-2.434565e-001 -4.192976e-001 -7.288883e+000 169 33 35
-2.459499e-001 -2.639081e-001 -7.746447e+000 194 185 170
-1.019880e+000 -3.716951e-001 -6.755192e+000 59 10 9
-9.195163e-001 -3.615651e-001 -6.798093e+000 187 126 85
-8.104877e-001 -2.262103e-001 -6.916154e+000 138 64 52
-9.855040e-001 -2.989372e-001 -6.533696e+000 145 76 71
-1.080547e+000 -2.051017e-001 -6.630509e+000 38 31 27
-5.548472e-001 -2.514484e-002 -7.014443e+000 84 45 38
5.453606e-001 5.526372e-001 -6.911415e+000 213 209 200
-9.788866e-002 5.348110e-001 -7.408927e+000 189 185 174
7.241810e-001 8.444522e-001 -6.588057e+000 41 31 25
1.729979e-001 -6.950434e-001 -7.667636e+000 32 19 23
-5.723288e-001 -4.060945e-001 -6.951902e+000 223 130 71
-6.407266e-001 -4.059060e-001 -7.105136e+000 194 181 172
-6.593486e-001 -3.323346e-001 -7.149410e+000 135 43 14
-5.314781e-001 -3.132694e-001 -7.196354e+000 148 129 118
6.199131e-002 -2.574146e-001 -7.359597e+000 63 30 13
-6.821793e-002 -2.323947e-001 -7.367697e+000 131 96 77
-1.061889e+000 -2.922031e-001 -6.552255e+000 44 34 25
