ply
format ascii 1.0
element face 0
property list uchar int vertex_indices
element vertex 867
property float x
property float y
property float z
property uchar diffuse_red
property uchar diffuse_green
property uchar diffuse_blue
end_header
-9.154749e-002 -4.526249e-001 -7.360612e+000 253 247 227
7.341920e-003 -2.757794e-001 -7.400066e+000 82 47 27
-8.187743e-001 -2.830864e-001 -7.002595e+000 163 58 36
-1.923930e-001 1.755175e-001 -7.293734e+000 142 125 109
-2.061666e-001 3.112402e-001 -7.486086e+000 146 128 112
-2.258889e-001 3.594652e-001 -7.531574e+000 220 211 193
-7.862596e-003 1.311537e+000 -7.361089e+000 214 49 55
-6.065637e-001 -4.018135e-001 -7.006387e+000 254 227 176
-3.289762e-001 1.770767e-002 -7.926965e+000 12 7 11
-2.811323e-001 5.792985e-002 -7.402609e+000 170 159 140
-1.999116e-001 1.326010e-001 -7.528542e+000 174 154 143
-2.419024e-001 2.198729e-001 -7.797443e+000 163 26 36
-5.347769e-001 5.542447e-001 -8.050989e+000 210 196 183
-3.867536e-001 2.952417e-001 -8.145138e+000 56 38 34
1.044360e-001 4.255523e-001 -7.186712e+000 166 150 134
7.015561e-001 4.765490e-001 -6.651814e+000 255 255 251
5.259711e-001 5.363182e-001 -7.004860e+000 244 241 226
2.031682e-001 -8.278410e-001 -7.469698e+000 255 254 223
4.248273e-001 -8.967180e-001 -7.275717e+000 57 46 45
3.924810e-001 -8.915202e-001 -7.281346e+000 57 46 45
2.642873e-001 -5.984484e-001 -7.303100e+000 117 21 30
-2.641586e-001 -2.983768e-001 -7.989631e+000 41 25 26
-7.107769e-001 -2.985765e-001 -6.545389e+000 225 117 70
-7.925061e-002 -2.100182e-001 -7.760057e+000 230 221 204
-1.267308e-001 6.633395e-001 -7.417667e+000 217 205 191
-1.267308e-001 6.633395e-001 -7.417667e+000 217 205 191
9.821053e-001 -1.118995e+000 -6.692025e+000 246 92 98
8.354907e-001 -1.004273e+000 -6.783655e+000 235 87 93
-9.069449e-001 -3.804414e-001 -6.737109e+000 212 112 79
-7.934947e-001 -2.272466e-001 -6.935051e+000 121 40 23
-7.543096e-001 -1.570937e-001 -7.182371e+000 85 25 19
-9.102150e-001 -2.039544e-001 -6.419246e+000 208 188 130
-9.102150e-001 -2.039544e-001 -6.419246e+000 208 188 130
-1.055421e-001 7.048186e-002 -7.521528e+000 115 47 36
7.454128e-001 5.880836e-001 -6.582651e+000 217 75 70
9.527316e-001 6.245750e-001 -6.423841e+000 54 29 24
9.633556e-002 1.193094e+000 -7.304890e+000 240 223 206
9.624755e-001 -1.098800e+000 -6.733401e+000 51 36 39
-1.175877e-001 -4.274632e-001 -7.207308e+000 233 226 208
-5.026800e-002 -4.647191e-001 -7.281181e+000 61 46 36
-5.051154e-001 -3.429081e-001 -7.230888e+000 198 185 174
-7.574337e-001 -3.908259e-001 -6.753669e+000 174 56 25
-6.770664e-001 -3.713745e-001 -6.769835e+000 197 66 26
-9.695940e-001 -3.689938e-001 -6.660680e+000 234 132 91
-9.256372e-001 -3.680443e-001 -6.737832e+000 154 53 29
-9.084433e-001 -3.525288e-001 -6.709140e+000 123 25 9
-8.801218e-001 -3.341992e-001 -6.736350e+000 103 22 4
-7.831786e-001 -2.673560e-001 -6.930618e+000 107 25 13
-6.836775e-001 -1.203446e-001 -7.073961e+000 79 15 11
-3.484382e-001 7.976692e-002 -7.063342e+000 66 28 19
7.103085e-001 6.613369e-001 -6.617094e+000 167 140 123
-1.374513e-001 -5.710519e-001 -7.596021e+000 243 56 61
-4.561877e-001 -5.147556e-001 -6.825826e+000 234 88 39
-1.310726e-001 -4.511349e-001 -7.226891e+000 214 204 193
-7.510087e-001 -1.706061e-001 -7.177149e+000 153 74 49
-4.345563e-001 -8.858197e-002 -7.172524e+000 55 13 14
-9.607586e-001 -2.277058e-001 -6.429921e+000 148 124 86
-4.438189e-001 1.517603e-002 -7.114404e+000 59 14 9
-3.195075e-001 9.394200e-002 -7.118182e+000 126 111 98
-3.427665e-001 1.425035e-001 -7.253792e+000 130 114 99
-2.250459e-001 3.116117e-001 -7.522325e+000 160 151 134
6.203947e-001 6.329601e-001 -6.817021e+000 226 224 210
-6.283749e-001 -3.354278e-001 -7.170388e+000 223 128 79
-2.419753e-001 -1.785375e-001 -7.300748e+000 118 100 86
-2.070969e-001 1.641588e-001 -7.253321e+000 164 149 133
-2.579235e-001 3.153172e-001 -7.777139e+000 185 173 163
-2.579235e-001 3.153172e-001 -7.777139e+000 185 173 163
-1.722131e-001 4.402524e-001 -7.428089e+000 164 151 135
6.997886e-001 9.244714e-001 -6.620803e+000 42 32 28
8.728150e-001 -1.102506e+000 -6.905261e+000 85 75 80
-3.949293e-001 -5.319669e-001 -7.033341e+000 249 254 253
-7.294851e-001 -1.390759e-001 -7.152316e+000 62 17 14
-6.386844e-001 5.879672e-001 -8.249610e+000 231 71 74
-1.186452e-002 -4.503509e-001 -7.455848e+000 255 227 174
-1.240879e-001 -3.797757e-001 -7.626273e+000 149 16 22
-7.181894e-001 -2.038275e-001 -7.170665e+000 76 14 6
-1.676446e-002 8.674652e-001 -7.305924e+000 200 193 183
3.045066e-001 -6.671744e-001 -7.360581e+000 162 29 32
-3.131000e-002 -3.453908e-001 -7.518285e+000 87 6 12
-6.174465e-001 -4.246045e-001 -6.929655e+000 189 52 16
-3.913245e-001 -3.107934e-001 -7.245687e+000 142 129 114
7.457721e-001 -9.531670e-001 -6.846515e+000 19 9 10
-8.636263e-002 -4.983057e-001 -7.219737e+000 253 254 249
-2.166986e-001 2.844494e-001 -7.427432e+000 186 180 161
-3.820583e-001 8.044193e-001 -7.805635e+000 223 214 203
2.688441e-001 -6.266360e-001 -7.458952e+000 216 195 134
-2.019771e-001 9.195400e-001 -7.704630e+000 184 172 158
-1.387902e-001 -4.830329e-001 -7.501160e+000 254 240 186
-9.905553e-002 -4.852538e-001 -7.495763e+000 254 240 186
-3.866486e-001 5.287512e-002 -7.023653e+000 65 17 13
5.199492e-002 -3.248008e-001 -7.446986e+000 84 38 20
-9.605423e-001 -1.746156e-001 -6.905135e+000 60 17 15
6.122853e+000 -2.780049e-002 -1.828586e-002 162 155 140
6.483154e+000 1.106743e+000 4.911508e-001 82 73 71
6.426944e+000 5.218112e-001 2.286828e-001 64 58 60
5.970217e-001 -9.809485e-001 -6.974961e+000 61 54 52
2.919735e-001 -7.754112e-001 -7.370330e+000 181 160 104
3.242600e-001 -7.207128e-001 -7.359275e+000 254 103 105
3.242600e-001 -7.207128e-001 -7.359275e+000 254 103 105
2.293766e-002 -6.811951e-001 -7.581846e+000 233 63 70
8.964297e-001 -9.041767e-001 -6.617771e+000 64 37 26
3.334258e-001 -7.055956e-001 -7.343506e+000 186 34 39
-7.925372e-002 -5.364662e-001 -7.803008e+000 22 10 24
-7.591249e-001 -2.957354e-001 -7.075901e+000 223 102 61
-3.319579e-001 1.293216e-001 -6.948302e+000 117 41 11
8.993512e-001 6.161759e-001 -6.483992e+000 194 34 42
-3.374233e-001 7.101175e-002 -7.138365e+000 116 94 81
-1.233668e-001 5.781919e-001 -7.370442e+000 211 209 196
4.411269e+000 2.288769e+000 -1.210312e+000 46 38 42
-4.357613e-001 5.759778e-003 -7.131746e+000 81 48 41
-2.304348e-001 1.625855e-001 -7.210954e+000 158 142 127
7.440976e-001 6.832621e-001 -6.549804e+000 234 66 68
-2.357044e-001 -2.903869e-001 -7.748059e+000 175 163 146
-2.738215e-002 -5.200827e-001 -7.088630e+000 230 230 220
-2.103398e-001 -4.043007e-001 -7.243870e+000 187 179 166
-1.023164e+000 -3.483580e-001 -6.685853e+000 197 84 53
-1.012098e+000 -3.713942e-001 -6.755726e+000 212 122 95
-8.090785e-001 -3.270575e-001 -6.847225e+000 194 86 65
-8.442896e-001 -3.178907e-001 -6.938747e+000 235 126 88
-8.299393e-001 -3.326400e-001 -6.979706e+000 206 68 29
-7.437989e-001 -2.870669e-001 -7.194912e+000 117 35 21
-1.099102e+000 -2.725344e-001 -6.534489e+000 158 140 101
-4.590540e-001 -7.424543e-002 -7.176838e+000 89 48 46
1.363640e-001 -6.929957e-001 -7.576062e+000 232 63 70
-5.343762e-001 -4.920554e-001 -6.864940e+000 220 147 99
-2.640589e-001 -3.966756e-001 -7.209621e+000 174 165 148
-2.422856e-001 -4.206419e-001 -7.288338e+000 169 33 35
-2.461861e-001 -2.626323e-001 -7.749711e+000 194 185 170
-1.026394e+000 -3.728662e-001 -6.749172e+000 59 10 9
-9.247918e-001 -3.627092e-001 -6.792108e+000 187 126 85
-8.161634e-001 -2.267211e-001 -6.910837e+000 138 64 52
-9.907801e-001 -3.000648e-001 -6.526245e+000 145 76 71
-1.087171e+000 -2.055264e-001 -6.623367e+000 38 31 27
-5.571628e-001 -2.348001e-002 -7.009736e+000 84 45 38
5.603501e-001 5.622115e-001 -6.906540e+000 213 209 200
-1.005915e-001 5.420779e-001 -7.408965e+000 189 185 174
7.305222e-001 8.540455e-001 -6.582406e+000 41 31 25
1.703898e-001 -6.977423e-001 -7.672976e+000 32 19 23
-5.730310e-001 -4.076458e-001 -6.947119e+000 223 130 71
-6.414604e-001 -4.070893e-001 -7.101209e+000 194 181 172
-6.632094e-001 -3.328972e-001 -7.146336e+000 135 43 14
-5.308412e-001 -3.135138e-001 -7.193300e+000 148 129 118
6.898298e-002 -2.572131e-001 -7.360317e+000 63 30 13
-6.410876e-002 -2.318962e-001 -7.368114e+000 131 96 77
-1.068397e+000 -2.932445e-001 -6.545224e+000 44 34 25
-1.068397e+000 -2.932445e-001 -6.545224e+000 44 34 25
-1.066848e+000 -2.181453e-001 -6.467166e+000 151 128 87
-4.172914e-001 -2.448515e-002 -7.239082e+000 75 24 20
-2.732294e-001 8.254560e-001 -7.743247e+000 191 185 173
3.669290e-001 1.313751e+000 -7.016340e+000 38 37 32
-8.582905e-002 1.125507e+000 -7.437135e+000 226 63 69
-1.931735e-001 1.109912e+000 -7.662672e+000 182 34 42
3.034898e-001 1.328816e+000 -7.074743e+000 46 30 33
8.843765e-001 -9.083603e-001 -6.624694e+000 43 47 37
1.753465e-001 -7.101191e-001 -7.321370e+000 125 15 25
8.252637e-001 -7.534114e-001 -6.630177e+000 218 210 199
-6.348886e-001 -4.223466e-001 -6.801797e+000 206 70 32
-3.170683e-001 -3.595680e-001 -7.226961e+000 160 151 142
-2.736277e-001 -2.383356e-001 -7.819171e+000 221 213 202
-7.751697e-001 -1.731054e-001 -6.969263e+000 91 25 13
-1.071544e+000 -2.188864e-001 -6.469735e+000 152 129 86
-6.883593e-001 -8.527401e-002 -6.783191e+000 110 47 37
-5.544613e-001 -2.913989e-002 -7.021352e+000 76 37 29
-1.625391e-001 4.915639e-001 -7.456923e+000 207 203 189
-2.255061e-001 6.724758e-001 -7.691548e+000 186 182 170
-1.810818e-004 -4.812324e-001 -7.301946e+000 248 202 155
-8.856999e-001 -3.480543e-001 -6.802538e+000 115 32 10
9.897588e-002 3.591944e-001 -7.088424e+000 216 211 200
-1.197753e-001 8.234909e-001 -7.500267e+000 205 199 186
-1.527826e-001 1.199304e+000 -7.569230e+000 153 23 31
-5.607083e-001 -4.793313e-002 -7.055262e+000 54 14 14
-5.607083e-001 -4.793313e-002 -7.055262e+000 54 14 14
-3.227712e-001 8.791171e-001 -7.790668e+000 228 57 65
1.165325e-001 1.189087e+000 -7.261036e+000 219 54 62
2.067744e-002 1.197507e+000 -7.352015e+000 218 53 59
2.826357e-001 -8.501871e-001 -7.351786e+000 55 44 45
-6.550063e-001 -4.245285e-001 -6.943449e+000 190 66 30
-9.708482e-001 -3.607125e-001 -6.599246e+000 254 186 151
7.571101e-001 -9.980312e-001 -6.764361e+000 203 57 58
4.798185e-002 -6.493577e-001 -7.662568e+000 250 87 98
4.847577e-001 5.265778e-001 -7.003968e+000 234 229 223
2.424953e-001 8.515636e-001 -7.116701e+000 158 148 136
6.236911e-001 -7.558609e-001 -6.670737e+000 246 239 229
-4.484768e-001 4.242227e-001 -8.065474e+000 14 8 10
2.935749e-001 -7.309610e-001 -7.346926e+000 184 30 37
-7.663462e-002 -4.336762e-001 -7.612289e+000 156 27 19
-8.161725e-001 -3.297457e-001 -6.851281e+000 194 86 65
-5.547534e-001 5.433005e-001 -8.111689e+000 225 83 85
1.906187e-002 1.169944e+000 -7.344979e+000 237 205 194
-6.501650e-001 -3.707354e-001 -7.098439e+000 208 126 98
-8.798876e-001 -3.314767e-001 -6.774345e+000 110 32 13
-8.186869e-001 -2.286198e-001 -6.912497e+000 138 64 52
1.597779e-002 1.339405e+000 -7.325370e+000 198 46 53
6.560645e+000 1.878510e+000 5.825813e-001 63 53 54
5.212849e+000 3.530592e-001 -8.231470e-001 35 29 30
-9.690619e-001 -3.062018e-001 -6.579884e+000 39 8 15
-1.044171e-001 7.406272e-001 -7.480041e+000 130 118 104
1.016779e-002 1.195573e+000 -7.353233e+000 218 53 59
-1.910539e-001 5.516653e-001 -7.676335e+000 209 203 191
3.600997e-001 -6.763730e-001 -6.987473e+000 229 225 213
-7.370207e-002 -5.086987e-001 -7.693970e+000 183 93 77
-7.370207e-002 -5.086987e-001 -7.693970e+000 183 93 77
2.609146e-002 -4.657749e-001 -7.439809e+000 228 165 107
-6.008788e-002 -5.037755e-001 -7.574875e+000 185 50 25
-6.123820e-001 -3.479519e-001 -7.161116e+000 137 73 56
-7.609669e-001 -3.361626e-001 -6.902722e+000 180 53 21
-7.698605e-001 -3.346458e-001 -6.934460e+000 232 108 70
-8.427544e-001 -3.140744e-001 -6.817987e+000 144 63 42
-2.092634e-001 3.190216e-001 -7.503055e+000 161 152 137
-6.400526e-001 6.544056e-001 -8.193774e+000 135 27 30
2.961230e-001 -5.794129e-001 -7.358787e+000 163 28 37
-5.791293e-003 -5.237446e-001 -7.185889e+000 255 254 246
-7.644333e-002 -4.995992e-001 -7.702505e+000 236 166 133
-6.426467e-001 -3.986702e-001 -7.122757e+000 142 125 114
-1.533209e-002 -3.073075e-001 -7.476921e+000 54 4 1
-8.736139e-001 -3.883053e-001 -6.739744e+000 155 54 24
3.114953e-001 -7.224749e-001 -7.332517e+000 235 74 82
-1.357618e-001 -4.295661e-001 -7.210863e+000 213 204 189
-1.745643e-001 -4.213725e-001 -7.118916e+000 154 144 120
-6.476477e-001 -4.054960e-001 -7.099779e+000 195 174 165
-8.135171e-001 -2.659772e-001 -6.891274e+000 82 21 14
-8.135171e-001 -2.659772e-001 -6.891274e+000 82 21 14
-2.357786e-001 2.821735e-001 -7.529847e+000 146 134 122
-5.175273e-001 4.473958e-001 -7.942004e+000 205 176 160
-6.483784e-001 6.341632e-001 -8.206583e+000 152 37 37
-1.685397e-001 -1.342025e-001 -7.641852e+000 206 201 182
6.056848e+000 2.807750e-001 -1.322892e-001 35 29 29
-7.376497e-001 -2.387748e-001 -7.154498e+000 122 46 29
2.336204e-001 7.439623e-001 -7.217830e+000 205 201 192
-1.788452e-001 -4.362535e-001 -7.102264e+000 232 231 219
-8.086895e-001 -2.129615e-001 -6.931067e+000 128 55 39
-1.157380e-001 7.702885e-001 -7.578522e+000 195 189 177
8.748436e-001 -1.066439e+000 -6.730469e+000 247 89 97
8.462330e-001 -1.046423e+000 -6.778967e+000 25 9 12
-5.445895e-001 -3.361814e-001 -7.201910e+000 73 12 11
-6.667953e-001 -3.446523e-001 -7.116654e+000 235 128 90
-5.802153e-001 5.556724e-001 -8.146285e+000 233 67 69
1.576021e-001 1.371111e+000 -7.246183e+000 35 30 26
-3.175837e-002 1.316422e+000 -7.386902e+000 196 46 51
-2.981344e-003 -5.516703e-001 -7.161238e+000 228 226 214
3.188695e-003 -5.504934e-001 -7.154998e+000 228 226 214
-6.553476e-002 -5.030662e-001 -7.679465e+000 196 130 87
-2.122450e-001 3.208424e-001 -7.687104e+000 203 196 183
6.312431e+000 2.225798e-001 2.250988e-001 19 15 13
6.416532e+000 2.333678e-001 3.059571e-001 19 15 13
-2.446978e-001 7.232366e-001 -7.697639e+000 234 231 224
-4.790818e-001 8.619898e-001 -7.999798e+000 202 46 50
-5.667164e-001 -3.943941e-001 -6.990464e+000 254 212 164
-6.082588e-001 -4.134121e-001 -6.896333e+000 236 134 97
2.919721e-001 -8.344542e-001 -7.315471e+000 18 11 11
2.934985e-001 -8.077447e-001 -7.313822e+000 198 42 56
-9.193617e-002 -5.027075e-001 -7.703550e+000 237 166 134
-1.868302e-001 -4.073548e-001 -7.271149e+000 163 147 134
-1.702525e-001 -4.094836e-001 -7.285138e+000 250 254 243
-1.749244e-001 -4.366165e-001 -7.444114e+000 141 26 10
-8.541491e-001 -3.757496e-001 -6.558669e+000 199 87 54
-7.651814e-001 -3.454974e-001 -6.952364e+000 210 84 43
-6.805509e-001 -2.663048e-001 -7.208331e+000 122 58 45
4.491488e-001 -6.539065e-001 -6.925820e+000 253 255 244
-1.790475e-001 -4.485932e-001 -7.047745e+000 206 204 192
-1.676817e-001 -4.225961e-001 -7.281863e+000 168 38 36
-4.055503e-001 -3.927440e-001 -7.084993e+000 129 120 113
-3.696806e-001 -2.877372e-001 -7.246111e+000 157 147 135
-2.641700e-001 -2.589889e-001 -7.772018e+000 200 192 179
-9.208567e-001 -3.677546e-001 -6.723445e+000 146 55 26
-9.227809e-001 -3.670904e-001 -6.720590e+000 146 55 26
-7.220004e-001 -2.929221e-001 -7.161912e+000 143 43 16
3.120052e-001 -6.191371e-001 -7.354168e+000 202 54 48
1.342640e+000 -4.437699e-001 -6.120745e+000 254 254 216
1.265348e+000 -4.716137e-001 -6.181639e+000 30 27 19
5.468148e-002 -5.321851e-001 -7.543980e+000 78 1 6
-2.334071e-001 -4.761456e-001 -7.839586e+000 10 7 5
-8.837689e-001 -3.916631e-001 -6.743555e+000 158 57 28
-8.948631e-001 -3.806376e-001 -6.762107e+000 189 100 70
-8.323869e-001 -3.028320e-001 -6.850856e+000 177 91 68
-7.365424e-001 -2.880769e-001 -7.147838e+000 166 68 36
-7.718832e-001 -2.069418e-001 -7.120619e+000 181 87 55
-2.074717e-001 -1.005347e-002 -7.745050e+000 183 169 155
-1.260888e-001 1.594031e-001 -7.639876e+000 59 2 3
1.439103e-001 8.107335e-001 -7.227044e+000 200 198 186
1.129675e+000 -5.109607e-001 -6.260282e+000 254 109 118
-3.695244e-001 -3.461946e-001 -7.150924e+000 214 216 202
-2.757284e-001 2.044911e-001 -7.531324e+000 138 126 112
-2.532969e-001 2.350517e-001 -7.722132e+000 203 194 182
-5.890122e-002 1.243031e+000 -7.424227e+000 159 20 27
-1.406380e-001 1.197676e+000 -7.579487e+000 159 25 32
8.230180e-001 -8.846375e-001 -6.621595e+000 255 252 247
-4.494170e-001 -4.617959e-001 -6.731190e+000 127 3 8
-6.209838e-002 -4.023928e-001 -7.478974e+000 171 118 77
-5.128480e-001 -4.570557e-001 -7.019826e+000 253 222 168
-5.051814e-001 -4.544751e-001 -7.018569e+000 253 222 168
-3.278582e-001 -3.623594e-001 -7.230339e+000 154 147 137
-3.278582e-001 -3.623594e-001 -7.230339e+000 154 147 137
3.191667e+000 5.157247e-001 -2.482726e+000 25 19 16
-6.736206e-001 -3.127576e-001 -7.187533e+000 82 27 24
-2.050758e-001 4.318323e-001 -7.484632e+000 144 134 122
-2.035168e-001 4.546455e-001 -7.506533e+000 172 163 151
1.185178e-001 1.190014e+000 -7.264312e+000 212 46 52
-3.179215e-001 -3.581184e-001 -7.260615e+000 246 244 232
-2.172545e-001 3.047979e-001 -7.430985e+000 181 174 158
-1.185046e-001 7.474948e-001 -7.360606e+000 228 226 214
-1.377080e-001 -4.416341e-001 -7.145673e+000 194 187 171
-8.975409e-001 -3.484779e-001 -6.760672e+000 103 27 14
-7.519756e-001 -2.296820e-001 -7.102315e+000 92 15 8
-7.519756e-001 -2.296820e-001 -7.102315e+000 92 15 8
9.028997e-001 -6.387968e-001 -6.482112e+000 173 37 39
4.570002e-001 -7.083087e-001 -6.913993e+000 234 228 212
-6.589599e-001 -3.899058e-001 -6.789808e+000 183 72 45
-6.459199e-001 -3.841940e-001 -7.091493e+000 172 55 33
-1.686413e-001 2.574124e-001 -7.367931e+000 132 120 106
-3.204744e-001 1.810047e-001 -7.936474e+000 207 47 52
1.068780e-001 7.298572e-001 -7.252204e+000 239 235 226
7.864184e-001 -5.969969e-001 -6.595472e+000 241 233 222
-1.777244e-001 -4.308279e-001 -7.366432e+000 249 249 239
-5.501900e-001 -4.221203e-001 -6.708766e+000 255 212 161
-5.497385e-001 -4.242008e-001 -7.003093e+000 254 227 176
-1.836992e-001 -2.687422e-001 -7.653497e+000 159 149 132
-9.103220e-001 -3.603494e-001 -6.580831e+000 255 159 120
-2.086305e-001 1.562054e-001 -7.302425e+000 121 109 95
-1.921486e-002 3.705098e-001 -7.199680e+000 146 134 118
3.780587e-001 1.000381e+000 -6.989083e+000 210 203 192
-1.700453e-001 2.583109e-001 -7.668931e+000 189 177 168
-9.669411e-001 -2.516333e-001 -6.638501e+000 191 91 43
-3.108528e-001 -1.226708e-001 -7.858975e+000 211 205 193
-1.918730e-001 -2.326518e-001 -7.754039e+000 177 167 155
4.249562e-003 -5.363094e-001 -7.175673e+000 224 222 210
-7.931543e-001 -3.216029e-001 -6.915243e+000 186 63 29
-2.384948e-001 7.701394e-002 -7.486621e+000 149 125 113
-7.562711e-001 -2.942053e-001 -7.074987e+000 206 91 47
3.197838e-001 1.152341e+000 -7.084703e+000 204 56 56
6.125473e-001 1.563558e+000 -7.191012e+000 204 55 56
6.660103e-001 1.097141e+000 -6.721266e+000 40 29 27
1.466213e+001 9.373474e+000 9.292859e+000 55 54 51
-1.940212e-001 -7.153012e-002 -7.686140e+000 170 164 148
-4.910796e-001 -4.748414e-001 -7.020175e+000 159 68 40
-3.851490e-001 -3.121775e-001 -7.228684e+000 186 177 170
-8.441074e-001 -4.006668e-001 -6.730152e+000 199 96 63
-9.797433e-001 -3.553456e-001 -6.667558e+000 74 24 19
-9.733970e-001 -3.309542e-001 -6.624999e+000 179 75 44
-8.418725e-001 -3.290017e-001 -6.798182e+000 155 69 48
-8.330128e-001 -3.305437e-001 -6.823779e+000 139 48 30
3.813206e-001 1.106262e+000 -6.997011e+000 217 49 50
-2.684361e-001 -2.485464e-001 -7.796541e+000 209 202 188
-1.781618e-001 5.794348e-001 -7.594089e+000 145 137 124
-1.679295e-001 1.210259e+000 -7.596947e+000 212 52 56
6.985929e-001 -8.390118e-001 -6.722678e+000 240 69 65
1.349339e-001 -6.877069e-001 -7.630233e+000 235 56 69
4.231442e-001 -4.996692e-001 -7.330207e+000 162 25 37
3.921139e-002 -5.205667e-001 -7.547636e+000 255 226 176
3.963218e-002 -5.325559e-001 -7.564562e+000 254 172 151
-1.119640e-001 -4.475249e-001 -6.999740e+000 225 225 216
-1.595929e-001 -4.459514e-001 -7.428002e+000 210 69 57
-1.595929e-001 -4.459514e-001 -7.428002e+000 210 69 57
-7.740096e-002 -4.316227e-001 -7.413788e+000 251 219 170
-7.277535e-001 -4.227691e-001 -6.655575e+000 41 25 24
-7.261452e-001 -4.212395e-001 -6.739340e+000 199 142 97
-6.349803e-001 -3.959721e-001 -7.114110e+000 148 119 106
-7.720571e-001 -3.493154e-001 -6.957993e+000 206 80 40
-5.195312e-001 -3.098850e-001 -7.216162e+000 101 83 68
-2.442114e-001 -2.568872e-001 -7.758098e+000 193 185 174
-2.268258e-001 -2.292045e-001 -7.771429e+000 169 156 150
-8.872901e-001 -3.035931e-001 -6.508669e+000 123 42 28
-7.990840e-001 -3.419447e-001 -6.929875e+000 225 106 70
-7.990840e-001 -3.419447e-001 -6.929875e+000 225 106 70
-7.698378e-001 -3.396242e-001 -6.996661e+000 225 108 64
-3.983161e-001 -1.091368e-001 -7.235477e+000 50 20 15
-2.203847e-001 3.615669e-003 -7.383547e+000 71 8 5
2.471087e-001 -8.041455e-001 -7.395466e+000 207 184 130
-5.344287e-001 -5.318673e-001 -6.843207e+000 248 142 92
-3.050964e-002 -4.528792e-001 -7.341087e+000 203 147 100
-1.123415e-001 -4.139483e-001 -7.319122e+000 255 255 250
-1.645448e-001 -4.329395e-001 -7.443312e+000 148 39 33
-3.496061e-001 -3.633034e-001 -7.147745e+000 73 49 27
-1.619910e-002 -3.135681e-001 -7.500955e+000 76 9 8
-8.974552e-001 -4.249640e-001 -6.690493e+000 210 90 55
-9.319815e-001 -3.857137e-001 -6.712608e+000 199 101 69
-5.257964e-001 -2.993167e-001 -7.228577e+000 103 53 39
-9.673429e-001 -3.863000e-001 -6.630663e+000 254 146 102
-9.837789e-001 -3.737072e-001 -6.680687e+000 215 122 99
-7.960553e-001 -3.188756e-001 -7.018526e+000 176 53 19
-6.984576e-001 -3.262956e-001 -7.090571e+000 225 101 67
-7.574847e-001 -3.013430e-001 -7.096978e+000 167 46 15
-7.574847e-001 -3.013430e-001 -7.096978e+000 167 46 15
-9.962322e-001 -2.865960e-001 -6.588430e+000 97 62 47
-2.021401e-001 1.146889e-001 -7.547912e+000 161 134 125
2.919875e-001 -8.392465e-001 -7.395133e+000 180 165 117
1.062339e+000 -4.857135e-001 -6.286916e+000 218 45 51
1.050599e+000 -5.169547e-001 -6.356697e+000 253 52 61
4.422113e-001 -6.261307e-001 -6.891655e+000 238 234 218
8.073941e-001 -3.316813e-001 -6.534155e+000 162 149 132
1.624471e-001 -5.142779e-001 -7.443660e+000 188 158 108
-1.846034e-001 -3.803112e-001 -7.099604e+000 153 138 119
-5.597699e-001 -3.529001e-001 -7.166806e+000 126 61 38
-3.544457e-001 -3.232436e-001 -7.197040e+000 162 153 144
-9.359108e-001 -3.777752e-001 -6.685787e+000 192 66 30
-9.489000e-001 -3.857693e-001 -6.694341e+000 192 66 30
-8.153346e-001 -3.836802e-001 -6.766971e+000 159 55 31
-5.621534e-001 -2.878001e-001 -7.242981e+000 95 20 7
-2.147590e-001 1.570341e-001 -7.257664e+000 144 132 120
-1.723968e-001 2.176775e-001 -7.332547e+000 147 137 125
-2.357224e-001 1.042309e+000 -7.697575e+000 166 26 34
-3.484244e-002 1.350889e+000 -7.366029e+000 33 24 25
1.333304e+000 -4.269800e-001 -6.093856e+000 39 30 27
6.998806e-001 -3.797379e-001 -6.603771e+000 103 92 59
6.021292e-001 -4.781716e-001 -7.530864e+000 227 37 47
-2.623567e-001 -4.605558e-001 -7.021051e+000 186 181 167
-5.191108e-002 -4.282426e-001 -7.392857e+000 178 87 42
-1.111107e-001 -4.532861e-001 -7.816723e+000 245 87 84
-1.017592e+000 -2.849871e-001 -6.583046e+000 48 43 37
-9.729653e-001 -2.723064e-001 -6.596630e+000 125 47 22
-3.786914e-001 -1.235362e-001 -7.247389e+000 88 58 56
-2.309666e-001 1.593687e-001 -7.237873e+000 117 105 93
-2.023824e-001 3.611166e-001 -7.397644e+000 160 151 142
-1.497009e-001 6.506254e-001 -7.423477e+000 197 189 178
-1.497009e-001 6.506254e-001 -7.423477e+000 197 189 178
-1.539256e-001 6.506767e-001 -7.532587e+000 130 120 110
-1.561890e-001 7.715586e-001 -7.600488e+000 174 170 158
7.560539e-001 -8.563555e-001 -6.694931e+000 255 253 254
5.063576e-001 -5.916573e-001 -6.837675e+000 186 176 154
8.280323e-001 -3.061273e-001 -6.438573e+000 134 31 33
-5.210644e-001 -4.949209e-001 -6.836826e+000 201 65 28
-5.136439e-001 -4.860499e-001 -7.066065e+000 236 225 224
-2.203969e-001 -3.875911e-001 -7.248437e+000 255 255 247
-8.242906e-001 -3.810710e-001 -6.808470e+000 164 73 41
-6.798630e-001 -3.388943e-001 -7.009448e+000 183 61 30
-1.775368e-001 3.557686e-001 -7.537977e+000 202 197 185
-2.241558e-001 6.449180e-001 -7.696104e+000 208 204 195
7.497361e-001 -8.086018e-001 -6.691706e+000 244 232 226
5.981443e-001 -5.632068e-001 -6.763016e+000 231 223 189
6.547302e-001 -4.352930e-001 -6.606760e+000 147 130 86
2.615654e-001 -5.089558e-001 -7.317277e+000 166 112 85
-1.666413e-001 -3.902553e-001 -7.151540e+000 165 153 137
-3.425654e-001 -3.795372e-001 -7.196898e+000 242 234 228
-5.632852e-001 -3.425835e-001 -7.205865e+000 72 15 13
-9.226895e-001 -2.956392e-001 -6.504093e+000 165 89 93
-6.282531e-002 2.977393e-001 -7.253382e+000 163 153 141
1.296108e-001 5.985299e-001 -7.192435e+000 169 162 152
-2.773582e-001 5.389417e-001 -7.774351e+000 215 211 203
2.754102e-001 -8.835681e-001 -7.461931e+000 151 131 80
6.795310e-001 -6.370892e-001 -6.725577e+000 204 198 184
-4.890289e-001 -5.178395e-001 -6.877612e+000 255 224 177
-6.606889e-002 -5.023250e-001 -7.678810e+000 194 129 83
-5.266378e-001 -4.554519e-001 -6.843091e+000 254 206 158
-7.469542e-001 -3.988338e-001 -6.669211e+000 253 233 196
-6.301113e-001 -3.121581e-001 -7.047194e+000 125 32 21
-4.346725e-001 4.576161e-001 -7.998252e+000 213 45 53
4.503899e-001 -7.119680e-001 -6.919112e+000 228 225 210
1.208883e+000 -2.505149e-001 -6.168778e+000 112 98 61
2.621652e-001 -5.398404e-001 -6.872107e+000 253 255 254
1.989886e-002 -5.200282e-001 -7.272220e+000 118 46 32
-6.362975e-001 -4.202736e-001 -6.857817e+000 249 195 147
-2.538440e-001 2.599550e-001 -7.437982e+000 169 162 149
-3.652127e-001 8.155770e-001 -7.797113e+000 209 206 199
1.065778e+000 -5.860976e-001 -6.297232e+000 39 30 25
-1.211776e-001 -4.444207e-001 -7.289228e+000 137 61 37
-1.885383e-001 -3.532669e-001 -7.101629e+000 86 65 46
-2.860764e-001 -8.476406e-002 -7.322543e+000 67 14 15
-1.487707e-001 3.771867e-002 -7.241939e+000 107 88 81
-2.022728e-001 1.364087e-001 -7.528588e+000 145 131 122
-3.218858e-001 9.678924e-003 -7.918697e+000 8 5 6
-8.031812e-002 -4.965417e-001 -7.201122e+000 245 245 238
-6.870647e-001 -3.203948e-001 -7.135357e+000 202 85 50
-1.010035e+000 -2.370420e-001 -6.562422e+000 50 42 40
-2.273109e-001 2.333812e-001 -7.786492e+000 134 10 21
-2.650302e-002 -3.372892e-001 -7.485782e+000 55 6 5
-6.249970e-001 6.013660e-001 -8.170379e+000 193 33 41
-6.249970e-001 6.013660e-001 -8.170379e+000 193 33 41
2.976547e-001 -8.170202e-001 -7.443367e+000 254 255 208
-3.850238e-002 -4.788561e-001 -7.504691e+000 254 223 171
-1.977820e-001 5.272134e-002 -7.658914e+000 88 6 14
-8.421336e-002 4.025785e-001 -7.077074e+000 226 223 216
-8.582013e-001 -5.086314e-002 -6.920290e+000 42 32 30
1.925374e+001 1.035263e+001 1.319191e+001 62 62 62
1.877858e+001 9.742352e+000 1.208624e+001 54 55 60
1.877858e+001 9.742352e+000 1.208624e+001 54 55 60
1.168650e+000 -5.643934e-001 -6.320428e+000 201 39 44
9.436124e-001 -6.276141e-001 -6.519026e+000 204 191 182
-4.677059e-001 -5.196044e-001 -7.005031e+000 127 23 22
-5.683803e-002 -4.683827e-001 -7.262318e+000 219 64 79
-6.471666e-001 -3.462940e-001 -7.094557e+000 196 116 93
-8.262433e-001 -3.412839e-001 -6.818079e+000 188 84 56
-6.771170e-001 -2.652497e-001 -7.208521e+000 125 64 47
-3.830789e-001 7.741541e-001 -7.880650e+000 163 153 144
-3.851262e-001 -3.477727e-001 -7.208629e+000 169 162 152
-1.068295e-001 -2.366605e-001 -7.553231e+000 157 145 131
-7.302797e-002 -2.188730e-001 -7.548767e+000 157 145 131
3.567278e-001 1.099206e+000 -7.023743e+000 202 186 179
3.009389e-001 1.139296e+000 -7.112535e+000 218 204 202
-4.188794e-001 -3.482447e-001 -7.139873e+000 110 96 86
6.345163e-002 5.552433e-001 -7.247330e+000 211 203 194
-2.029324e-001 6.661194e-001 -7.666359e+000 202 198 187
3.171291e-001 1.220150e+000 -7.121246e+000 210 44 51
-2.933456e-001 6.250128e-001 -7.796386e+000 212 208 199
1.604510e-001 -1.135221e+000 -7.736394e+000 40 33 31
1.138734e+000 -4.979478e-001 -6.420941e+000 212 43 34
4.419007e-001 -6.180320e-001 -6.911785e+000 228 226 213
2.917257e-001 -7.193092e-001 -7.362990e+000 238 78 84
-4.888332e-001 -5.128282e-001 -6.837558e+000 212 110 66
-5.962692e-001 -4.770542e-001 -7.138538e+000 154 147 141
-2.230592e-001 -3.653611e-001 -7.083371e+000 92 73 47
-8.156501e-001 -4.053735e-001 -6.736920e+000 208 100 72
-9.208142e-001 -3.923544e-001 -6.646362e+000 245 122 80
-9.208142e-001 -3.923544e-001 -6.646362e+000 245 122 80
-9.486886e-001 -3.655921e-001 -6.661378e+000 213 88 40
-1.062649e-001 -1.718509e-001 -7.561256e+000 178 173 161
-1.062649e-001 -1.718509e-001 -7.561256e+000 178 173 161
-7.927202e-001 -2.885560e-001 -7.055422e+000 187 80 44
-4.524607e-001 9.885387e-001 -7.881507e+000 30 18 11
2.923108e-001 -6.276307e-001 -7.366191e+000 218 65 70
-4.955170e-001 -4.487796e-001 -6.672396e+000 125 14 18
-7.368066e-001 -4.152991e-001 -6.643113e+000 253 224 168
-7.368066e-001 -4.152991e-001 -6.643113e+000 253 224 168
-3.600114e-001 -3.165413e-001 -7.259690e+000 179 165 155
-9.162392e-001 -3.992070e-001 -6.639572e+000 203 74 35
-9.326905e-001 -3.776758e-001 -6.645927e+000 220 88 46
-8.301925e-001 -3.189878e-001 -6.850574e+000 131 42 22
-8.301925e-001 -3.189878e-001 -6.850574e+000 131 42 22
-7.517585e-001 -3.085371e-001 -7.058273e+000 177 57 20
-6.708703e-001 -2.620626e-001 -7.210166e+000 123 61 47
-8.117127e-001 -2.512427e-001 -7.055121e+000 141 47 16
1.305490e+000 -4.410738e-001 -6.108880e+000 37 26 24
6.910510e-001 -5.774705e-001 -6.722223e+000 200 194 179
3.284416e-001 -5.442340e-001 -7.322560e+000 147 18 28
3.200619e-001 -5.968143e-001 -7.341102e+000 119 4 13
2.844448e-001 -5.698651e-001 -7.348558e+000 106 5 12
7.896957e-001 -2.104872e-001 -6.501294e+000 228 224 215
-1.926099e-001 -4.609823e-001 -7.016864e+000 246 242 236
-3.714728e-002 -4.602724e-001 -7.302746e+000 211 163 115
-1.330552e-001 -4.279335e-001 -7.211172e+000 204 198 184
-7.563567e-002 -4.358616e-001 -7.618948e+000 122 4 13
-7.080737e-001 -4.150302e-001 -6.707077e+000 235 186 141
-1.846126e-001 4.682903e-001 -7.509359e+000 172 162 152
-5.292236e-001 8.118981e-001 -8.069512e+000 180 38 45
-5.042999e-001 -4.835383e-001 -6.797118e+000 253 136 82
-8.383367e-002 -4.492771e-001 -7.569709e+000 234 186 140
-5.645156e-001 -3.892513e-001 -6.670845e+000 252 217 161
-2.586137e-001 -3.920377e-001 -7.279988e+000 224 221 215
-5.840265e-001 7.577209e-001 -8.153007e+000 31 13 19
-2.052852e-001 1.738377e-001 -7.283315e+000 112 100 87
-7.809628e-001 -3.250376e-001 -7.013335e+000 190 69 37
-2.025526e-001 -2.763040e-002 -7.721466e+000 197 189 179
-1.266282e-001 7.626203e-001 -7.540176e+000 152 142 132
-2.654409e-001 4.070642e-002 -7.391556e+000 141 127 118
9.507349e-003 -4.858080e-001 -7.325807e+000 253 207 157
-2.948975e-001 -3.353663e-001 -7.317160e+000 117 99 87
-1.962818e-001 3.180765e-001 -7.485318e+000 126 114 99
-1.898973e-001 9.445328e-001 -7.683768e+000 171 160 152
-2.429823e-001 9.920121e-001 -7.721260e+000 191 40 47
-3.168964e-001 1.133313e+000 -7.771683e+000 25 19 19
-4.727561e-001 4.870002e-001 -8.050364e+000 11 5 5
1.844187e-001 -6.219637e-001 -7.476741e+000 163 139 91
-1.505380e-002 -4.624105e-001 -7.499324e+000 253 219 166
-1.025236e-001 9.736306e-001 -7.382098e+000 208 201 192
-2.601342e-001 -9.489776e-002 -7.871469e+000 202 198 187
-2.009051e-001 -2.437852e-001 -7.758954e+000 182 172 160
-4.171612e-001 1.294203e-001 -8.047532e+000 21 9 9
1.050244e+000 -4.599535e-001 -6.281327e+000 150 129 90
4.524005e-001 -5.797266e-001 -6.902709e+000 254 252 247
-4.950458e-001 -4.147857e-001 -6.647497e+000 114 34 28
-5.140009e-001 -5.162592e-001 -6.839993e+000 238 141 91
-7.236148e-001 -4.129768e-001 -6.667807e+000 253 210 173
-6.580768e-001 -4.441528e-001 -6.949539e+000 249 195 146
-2.963907e-001 -3.558332e-001 -7.105817e+000 87 68 36
-3.030346e-001 -3.395674e-001 -7.121810e+000 115 99 65
-2.996934e-001 -3.721101e-001 -7.180797e+000 250 248 235
-8.981981e-002 -4.380474e-001 -7.696925e+000 182 30 33
-8.765544e-001 -4.132954e-001 -6.680166e+000 211 97 65
-7.710008e-001 -4.185814e-001 -6.739207e+000 212 149 98
-8.547040e-001 -2.814093e-001 -6.491643e+000 101 12 4
-9.048297e-001 -3.011159e-001 -6.499955e+000 111 31 25
-8.986528e-001 -4.014835e-001 -6.663357e+000 231 115 78
-5.127271e-001 -3.438220e-001 -7.190959e+000 134 118 109
-9.477122e-001 -3.521214e-001 -6.729436e+000 176 96 66
-7.751696e-001 -3.321747e-001 -7.008728e+000 162 41 7
-1.020423e+000 -2.429176e-001 -6.476366e+000 59 41 6
-7.566167e-001 -3.014946e-001 -7.049873e+000 204 94 58
-7.671176e-001 -3.203485e-001 -7.061243e+000 159 45 11
1.145470e+000 -5.235613e-001 -6.328038e+000 255 75 80
9.452487e-001 -6.111578e-001 -6.530370e+000 204 195 186
7.192254e-001 -3.866977e-001 -6.575236e+000 137 119 79
7.391358e-001 -2.789498e-001 -6.553917e+000 213 209 201
1.144204e+000 2.765385e-002 -6.210905e+000 192 53 55
-3.701357e-002 -5.124495e-001 -7.101050e+000 242 241 233
-5.312458e-001 -3.824924e-001 -6.644993e+000 49 36 42
-7.841329e-001 -4.171417e-001 -6.747814e+000 198 77 46
-8.383992e-001 -4.006198e-001 -6.802924e+000 144 53 26
-9.434141e-001 -3.602168e-001 -6.659322e+000 204 71 33
-9.932331e-001 -2.858695e-001 -6.588827e+000 122 67 51
-7.728383e-001 -3.047197e-001 -7.001253e+000 166 49 16
-7.243921e-001 -2.942253e-001 -7.135672e+000 157 50 18
-8.249809e-001 -2.630574e-001 -7.059690e+000 135 46 16
-2.371812e-001 2.504855e-001 -7.697624e+000 169 159 149
-1.735255e-001 9.019784e-001 -7.725841e+000 177 168 159
9.705652e-001 -5.090967e-001 -6.464933e+000 253 252 250
3.439911e-001 -8.498251e-001 -7.364477e+000 16 4 2
2.852065e-001 -7.280953e-001 -7.313894e+000 108 8 17
2.954639e-001 -6.253433e-001 -7.364590e+000 196 56 57
1.558757e-001 -7.376955e-001 -7.580927e+000 232 78 87
2.362452e-001 -6.258549e-001 -7.379060e+000 87 25 11
6.549762e-001 -7.941452e-002 -6.605611e+000 168 160 149
6.549762e-001 -7.941452e-002 -6.605611e+000 168 160 149
-1.017876e-001 -4.782917e-001 -7.167235e+000 254 254 246
-2.216399e-001 -3.963042e-001 -7.018162e+000 149 141 122
-3.125091e-001 -3.415553e-001 -7.140550e+000 61 45 25
-8.130741e-001 -4.139076e-001 -6.726899e+000 196 84 54
-6.651109e-001 -4.363628e-001 -6.955513e+000 166 52 27
-3.606356e-001 -3.469599e-001 -7.193174e+000 164 159 147
-8.735264e-001 -3.953027e-001 -6.725336e+000 200 100 74
-7.266218e-001 -3.618951e-001 -6.887738e+000 228 106 58
-9.235959e-001 -3.652685e-001 -6.717545e+000 136 42 16
-5.418988e-001 -2.775943e-001 -7.240048e+000 92 16 6
-5.418988e-001 -2.775943e-001 -7.240048e+000 92 16 6
-7.831228e-001 -2.040067e-001 -7.103610e+000 111 25 8
1.045186e-001 6.142859e-001 -7.194364e+000 210 207 200
-1.975958e-001 9.057986e-001 -7.719744e+000 199 192 182
-2.905399e-001 -3.903642e-001 -7.053957e+000 214 218 210
-2.116586e-001 -3.886063e-001 -7.249064e+000 254 254 246
-6.688148e-001 -3.685851e-001 -6.897514e+000 235 167 122
-9.327811e-001 -3.736737e-001 -6.684336e+000 180 55 23
-8.524462e-001 -4.025202e-001 -6.732899e+000 206 103 76
-9.370156e-001 -2.490595e-001 -6.488752e+000 247 230 176
-6.589316e-001 -3.311209e-001 -7.142277e+000 108 17 5
-1.120463e-001 6.893499e-001 -7.397571e+000 195 189 180
-2.936455e-001 1.092676e+000 -7.768175e+000 193 46 52
1.254662e+000 -3.689317e-001 -6.156845e+000 124 109 74
9.870854e-001 -5.084522e-001 -6.393639e+000 253 111 121
1.009459e+000 -1.230982e-001 -6.384149e+000 240 227 227
3.299909e-001 -5.232783e-001 -7.307699e+000 80 5 12
-2.221898e-001 -3.789704e-001 -7.032257e+000 30 22 5
-1.295402e-001 -4.248653e-001 -7.251202e+000 190 181 170
-4.754974e-001 -4.729226e-001 -7.056171e+000 216 215 208
-2.396254e-001 -3.715286e-001 -7.218259e+000 248 245 244
-1.608507e-001 -4.197689e-001 -7.832122e+000 18 3 8
-9.480307e-001 -3.470924e-001 -6.623359e+000 242 126 78
-1.013608e+000 -2.848777e-001 -6.539541e+000 56 36 19
-7.722518e-001 -2.111444e-001 -7.122679e+000 173 82 45
-3.213784e-001 1.572669e-003 -7.875020e+000 236 65 73
1.184423e-001 8.306157e-001 -7.207975e+000 218 215 210
4.185162e-001 -7.189993e-001 -6.989171e+000 255 254 249
-2.332001e-001 -4.064706e-001 -7.000241e+000 153 145 130
-5.229247e-001 -3.884785e-001 -6.632612e+000 43 31 31
-7.911096e-001 -3.081150e-001 -6.981347e+000 232 127 82
3.311227e-001 -8.588305e-001 -7.445551e+000 146 126 75
8.975011e-001 -3.963083e-001 -6.413027e+000 108 97 65
1.148392e+000 -1.383157e-001 -6.264749e+000 234 64 73
6.980094e-001 -4.336152e-001 -6.603574e+000 128 113 70
-7.424411e-002 -4.066356e-001 -7.294466e+000 75 33 27
-6.101219e-001 -3.978045e-001 -6.779306e+000 187 58 26
-3.196802e-001 -3.621733e-001 -7.186672e+000 236 235 224
-7.248075e-001 -3.603620e-001 -6.938628e+000 193 61 26
-7.467129e-001 -2.244361e-001 -7.098521e+000 84 16 6
1.325665e+000 -2.047167e-001 -6.124140e+000 108 99 61
1.325665e+000 -2.047167e-001 -6.124140e+000 108 99 61
1.167413e+000 -1.818613e-001 -6.213636e+000 39 30 28
2.934574e-001 -4.951918e-001 -7.317629e+000 154 103 75
-6.536462e-001 -3.727205e-001 -6.954553e+000 251 195 146
-6.205610e-001 -4.127225e-001 -6.852429e+000 237 187 139
-5.320436e-001 -3.823501e-001 -7.147940e+000 106 95 86
-2.565993e-001 9.631453e-002 -7.770769e+000 205 38 44
-2.001147e-001 5.383129e-001 -7.685219e+000 193 189 177
3.373687e-001 -8.048308e-001 -7.405184e+000 255 255 209
4.231086e-002 -6.523482e-001 -7.747407e+000 20 7 7
-6.632528e-001 -3.070262e-001 -7.130540e+000 191 79 45
-4.412650e-001 -5.051581e-001 -7.004030e+000 133 29 27
-1.237810e-001 7.393612e-001 -7.452085e+000 130 122 111
-2.132587e-001 -3.016451e-001 -7.400422e+000 115 88 71
-5.320787e-001 -3.569350e-001 -6.841987e+000 238 186 138
-5.320787e-001 -3.569350e-001 -6.841987e+000 238 186 138
-3.973676e-001 2.948835e-001 -7.280910e+000 179 172 162
-3.635238e-001 -3.493579e-001 -7.269113e+000 190 179 169
-8.996732e-001 -3.965872e-001 -6.698660e+000 200 86 51
-1.076219e-001 -1.781078e-001 -7.547720e+000 174 168 152
1.756271e-001 -7.278958e-001 -7.564626e+000 90 13 16
-1.251127e-001 -4.367301e-001 -7.225736e+000 190 182 169
-1.692182e-001 -4.318021e-001 -7.419045e+000 218 227 222
-1.942519e-001 4.260082e-001 -7.655862e+000 203 196 185
-1.501008e-001 -4.651177e-001 -6.989806e+000 227 227 219
-5.571835e-001 -3.522239e-001 -7.186075e+000 161 83 57
-7.688486e-001 -3.380217e-001 -6.981766e+000 229 110 70
1.160769e+000 9.306513e-003 -6.185816e+000 35 26 21
-5.204053e-001 -4.095372e-001 -6.948227e+000 180 84 30
-8.217765e-001 -4.016265e-001 -6.736459e+000 200 95 66
-9.012592e-001 -3.806393e-001 -6.698958e+000 163 53 22
-1.267999e-002 -4.537042e-001 -7.365625e+000 189 131 83
-1.879732e-001 -5.732968e-002 -7.689515e+000 157 148 133
-3.026771e-001 -2.949021e-003 -7.862852e+000 230 60 68
-2.340111e-001 2.702301e-001 -7.528392e+000 133 123 113
-7.462751e-001 -2.237325e-001 -7.097687e+000 84 16 6
1.013592e+000 -5.097417e-001 -6.436670e+000 243 55 61
3.191314e-001 -1.061886e+000 -7.347509e+000 117 104 62
3.044895e-001 -6.833010e-001 -7.308089e+000 141 26 33
-1.642632e-001 -3.667072e-001 -7.099892e+000 145 130 111
-1.263348e-001 -4.412707e-001 -7.405739e+000 226 73 65
-3.621113e-001 -3.263617e-001 -7.248773e+000 118 109 100
-8.789133e-001 -3.744288e-001 -6.593362e+000 243 132 104
-9.310747e-001 -1.988846e-001 -6.417363e+000 156 134 88
-8.366088e-001 -3.364204e-001 -6.808442e+000 164 75 51
-8.366088e-001 -3.364204e-001 -6.808442e+000 164 75 51
-7.973075e-001 -3.396824e-001 -6.804356e+000 194 84 50
-9.571487e-001 -2.082974e-001 -6.425715e+000 49 37 24
-1.038668e+000 -2.623201e-001 -6.503250e+000 221 201 148
-9.699197e-001 -2.581648e-001 -6.521027e+000 55 36 6
-7.867236e-001 -2.928981e-001 -7.024103e+000 164 66 30
-2.767127e-001 2.394780e-001 -7.764855e+000 181 144 130
-1.453696e-002 9.307728e-001 -7.331174e+000 194 189 183
6.796989e-001 -8.887733e-001 -6.910107e+000 210 59 72
1.202590e+000 -1.799952e-001 -6.277823e+000 111 60 45
2.882409e-001 -7.212630e-001 -7.364620e+000 228 61 67
3.977551e-001 -4.958075e-001 -7.333668e+000 136 28 31
1.504009e-001 -7.150888e-001 -7.549052e+000 128 98 55
1.631010e-001 -7.094456e-001 -7.575869e+000 214 48 56
-8.891539e-002 -4.348406e-001 -7.407917e+000 255 214 165
-7.231376e-001 -3.367076e-001 -6.541714e+000 61 14 11
-2.621253e-001 -3.244935e-001 -7.129002e+000 64 46 26
-6.370879e-001 -3.417422e-001 -6.724227e+000 182 49 18
-9.823139e-001 -3.159825e-001 -6.570105e+000 142 52 47
-7.642511e-001 -2.884118e-001 -7.043819e+000 162 48 17
-2.886469e-001 -2.677371e-001 -7.794280e+000 188 181 171
3.363572e-001 -1.229053e+000 -7.482237e+000 255 253 198
3.149604e-001 -1.226109e+000 -7.499994e+000 18 7 11
-9.639394e-001 -2.345538e-001 -6.532040e+000 45 39 28
-7.821429e-001 -3.107913e-001 -7.001876e+000 170 54 26
3.006480e-001 9.842774e-001 -7.215632e+000 199 196 189
-3.192809e-001 1.062700e+000 -7.772022e+000 186 48 48
4.858639e-001 -1.148723e+000 -7.315444e+000 234 222 173
1.141546e+000 2.171199e-001 -6.264826e+000 218 52 59
-2.063978e-001 -4.009818e-001 -7.054101e+000 166 158 139
-4.097091e-002 -5.453195e-001 -7.656311e+000 239 192 151
-1.191511e-001 -3.753101e-001 -7.215977e+000 164 151 134
-6.830761e-001 -3.634120e-001 -6.852650e+000 244 188 142
-9.178750e-001 -2.924929e-001 -6.491481e+000 160 89 85
-9.391483e-001 -2.822970e-001 -6.512916e+000 118 27 29
3.699614e-001 1.317650e+000 -7.041218e+000 211 50 56
-3.573220e-001 5.864440e-001 -7.787479e+000 191 184 175
1.094738e+000 2.728272e-001 -6.297859e+000 224 60 64
1.624930e-001 -5.115962e-001 -7.513438e+000 163 130 81
-1.640269e-001 -3.899439e-001 -7.152032e+000 162 150 134
-9.074757e-002 -4.188656e-001 -7.624346e+000 251 210 158
-6.637930e-001 -3.394637e-001 -7.114006e+000 247 143 107
-9.984574e-001 -2.187162e-001 -6.442766e+000 143 124 80
-9.984574e-001 -2.187162e-001 -6.442766e+000 143 124 80
2.408969e-002 1.274101e+000 -7.306552e+000 201 50 59
-7.327111e-002 1.114923e+000 -7.390720e+000 200 47 50
1.030074e+000 -5.356336e-001 -6.450875e+000 215 43 49
6.321188e-001 -5.376008e-001 -6.796299e+000 163 158 134
3.072033e-001 -8.290346e-001 -7.352854e+000 20 6 6
7.364342e-001 -1.998659e-001 -6.589218e+000 226 224 212
1.037670e+000 2.268137e-001 -6.371796e+000 199 45 47
-6.533382e-001 -3.724081e-001 -6.733440e+000 195 71 38
-7.950594e-001 -3.442088e-001 -6.821728e+000 191 72 38
-8.075658e-001 -2.110687e-001 -6.928189e+000 119 51 32
4.639509e-001 -1.121368e+000 -7.290545e+000 38 28 26
-4.681869e-002 -4.617923e-001 -7.275361e+000 86 34 31
-5.323900e-001 -4.234672e-001 -6.790870e+000 197 73 37
-5.323900e-001 -4.234672e-001 -6.790870e+000 197 73 37
-9.714851e-001 -3.448085e-001 -6.696446e+000 97 33 21
-2.183923e-001 1.131124e-002 -7.747610e+000 103 11 17
-3.722896e-001 1.050789e+000 -7.783461e+000 28 18 19
-4.229970e-001 9.855895e-001 -7.841725e+000 194 36 42
-1.757203e-001 -3.613880e-001 -7.185868e+000 81 15 19
8.989906e-001 -4.665614e-001 -6.495212e+000 88 75 43
2.966096e-002 -4.769940e-001 -7.333149e+000 241 199 146
-6.194385e-001 -4.117450e-001 -6.852285e+000 238 185 138
-2.581230e-001 -4.342369e-001 -7.854152e+000 224 222 214
4.355280e-001 -8.897373e-001 -7.285987e+000 22 10 12
-2.972482e-001 -3.139167e-001 -7.975307e+000 18 6 10
3.776779e-001 -1.122697e+000 -7.414247e+000 142 124 78
4.190072e-001 -5.689687e-001 -7.310321e+000 98 8 15
-6.964687e-003 -4.750926e-001 -7.335464e+000 215 163 112
3.052101e-001 -7.456823e-001 -7.299464e+000 101 12 18
-3.661577e-001 8.602567e-001 -7.792328e+000 215 50 52
4.953557e-001 1.224078e-001 -4.509888e+000 73 68 72
-7.994247e-001 -3.410693e-001 -6.816262e+000 184 67 32
-7.994247e-001 -3.410693e-001 -6.816262e+000 184 67 32
-8.081752e-001 -3.230150e-001 -6.848075e+000 195 99 74
-8.081752e-001 -3.230150e-001 -6.848075e+000 195 99 74
7.126689e-001 -9.531994e-001 -6.774752e+000 136 12 19
4.263104e-001 -5.602326e-001 -6.919333e+000 220 214 192
4.229040e-001 -5.516830e-001 -6.937022e+000 255 255 253
3.579785e-001 -4.935059e-001 -7.336132e+000 122 10 16
4.511698e-001 -1.585038e-001 -6.764038e+000 234 232 221
-9.400853e-001 -3.653611e-001 -6.666979e+000 196 69 30
-9.544404e-001 -3.525866e-001 -6.661154e+000 224 127 86
-9.109675e-001 -3.644725e-001 -6.737038e+000 119 36 14
4.879907e-001 -1.145737e+000 -7.294780e+000 36 23 15
-3.064831e-001 -1.684707e+000 -8.394084e+000 76 65 70
-3.064831e-001 -1.684707e+000 -8.394084e+000 76 65 70
-5.949649e-001 -3.704858e-001 -6.810332e+000 210 139 91
1.180937e+000 2.299174e-002 -6.176038e+000 35 29 26
-2.026751e-001 -1.804945e-001 -7.741716e+000 166 158 147
1.121149e+000 2.721060e-001 -6.251485e+000 44 28 28
-8.501309e-001 -3.682421e-001 -6.775853e+000 204 163 122
9.609015e-001 -6.316165e-001 -6.486374e+000 150 37 34
1.024258e+000 -9.730288e-002 -6.344576e+000 232 61 67
6.284081e-001 -3.753326e-001 -6.678664e+000 163 151 129
1.179621e+000 2.224359e-001 -6.232431e+000 44 22 18
-4.559455e-001 -4.166898e-001 -6.628504e+000 207 64 69
-4.928628e-001 -4.363690e-001 -6.735566e+000 224 161 114
-3.781258e-002 -4.740583e-001 -7.271983e+000 115 63 29
-6.955747e-001 -3.365943e-001 -6.531180e+000 150 91 92
-3.154284e-001 -3.771645e-001 -7.196530e+000 220 217 208
-3.632910e-001 -2.925769e-001 -7.238030e+000 100 90 78
-8.074625e-001 -3.358673e-001 -6.822453e+000 200 95 61
-7.952087e-001 -3.185282e-001 -6.873262e+000 154 40 16
-9.894304e-001 -2.813406e-001 -6.555757e+000 199 175 129
-8.098208e-001 -3.174131e-001 -6.859973e+000 127 35 12
-5.187386e-001 4.866856e-001 -7.988529e+000 190 160 152
6.383905e-001 -3.786067e-001 -6.640556e+000 164 154 134
1.408707e-001 -1.146529e+000 -7.734883e+000 38 29 30
6.724971e-001 -2.469972e-001 -6.633632e+000 252 249 240
1.760228e-001 -7.253339e-001 -7.564589e+000 97 5 7
4.626670e-001 -4.835329e-002 -6.722005e+000 189 184 172
1.403799e-002 -5.293896e-001 -7.187055e+000 239 237 230
4.574218e-003 -4.762519e-001 -7.350086e+000 213 163 114
9.642011e-003 -4.774185e-001 -7.361078e+000 212 160 110
-2.040112e-002 -4.475919e-001 -7.338814e+000 195 141 95
4.774543e-002 -5.210763e-001 -7.578980e+000 202 31 35
-1.561261e-001 -4.239925e-001 -7.444284e+000 131 25 18
-7.095447e-002 -4.111332e-001 -7.550340e+000 165 116 81
-8.967089e-001 -2.910919e-001 -6.515230e+000 137 36 29
-9.207973e-001 -3.739148e-001 -6.629781e+000 237 117 78
-2.717506e-001 -2.908225e-001 -7.710620e+000 187 179 166
-7.435644e-001 -2.470112e-001 -7.156208e+000 118 50 41
-2.390709e-001 6.534199e-001 -7.687736e+000 178 176 164
7.063967e-001 -8.694850e-001 -6.900868e+000 216 77 77
3.123543e-001 -1.238885e+000 -7.482017e+000 252 255 205
1.754042e-001 -7.245883e-001 -7.548773e+000 125 101 57
-2.513781e-002 -4.506789e-001 -7.301417e+000 200 151 110
-8.942956e-001 -3.883324e-001 -6.673316e+000 179 56 23
-7.771710e-001 -1.739748e-001 -7.091569e+000 176 81 50
-7.870013e-001 -2.100280e-001 -7.104307e+000 112 29 13
1.648815e-001 -5.831909e-001 -7.576837e+000 215 34 41
-8.524279e-001 -3.504026e-001 -6.788435e+000 110 33 15
-6.442316e-001 -2.973958e-001 -7.049579e+000 146 85 64
-1.359639e-001 -2.299906e-001 -7.550544e+000 192 186 172
-4.100528e-002 1.306333e+000 -7.487215e+000 168 43 47
1.019398e+000 -5.010733e-001 -6.385758e+000 254 108 121
6.930354e-001 -5.469402e-001 -6.710581e+000 171 165 145
6.719233e-001 -5.423204e-001 -6.745006e+000 223 222 209
5.059483e-001 -2.285149e-001 -6.757371e+000 227 221 205
4.751669e-001 -1.854673e-001 -6.755317e+000 255 255 252
-5.005907e-001 -4.522429e-001 -7.019777e+000 255 208 162
-4.539929e-001 -4.577386e-001 -7.056254e+000 212 208 204
-4.620702e-001 -4.651106e-001 -7.056487e+000 212 208 204
-8.497090e-001 -3.908962e-001 -6.695603e+000 149 42 20
-8.497090e-001 -3.908962e-001 -6.695603e+000 149 42 20
-7.644153e-001 -2.078193e-001 -7.122320e+000 160 72 35
-2.967603e-001 -2.060615e-001 -7.873454e+000 189 182 172
-7.685078e-001 -1.171015e-001 -7.159369e+000 202 49 47
3.624383e-001 -5.712967e-001 -6.924423e+000 254 255 224
-5.126737e-001 -4.530874e-001 -7.018239e+000 255 217 165
-5.100863e-001 -4.497587e-001 -7.017382e+000 255 217 165
-8.052252e-001 -3.221856e-001 -6.979052e+000 245 132 88
-7.501572e-001 -2.273411e-001 -7.097504e+000 89 19 7
-8.192927e-002 7.784216e-001 -7.354739e+000 216 213 204
-1.770933e-001 8.713576e-001 -7.646855e+000 151 139 127
-5.130297e-001 -4.499752e-001 -6.759063e+000 253 212 163
-5.182795e-001 -4.460811e-001 -7.015382e+000 253 222 167
-5.871519e-002 -3.960100e-001 -7.811966e+000 224 60 69
-6.326229e-001 -3.682158e-001 -7.133993e+000 118 45 32
-1.629632e-001 9.742937e-001 -7.438096e+000 206 202 193
1.124254e+000 -1.367290e-001 -6.263116e+000 244 63 74
-2.359028e-001 1.249306e-001 -7.764077e+000 203 41 49
-2.350690e-001 2.407429e-001 -7.764474e+000 119 11 17
1.187575e+000 -1.674304e-001 -6.193016e+000 40 30 29
-7.730739e-001 -3.977624e-001 -6.775724e+000 143 44 22
4.596863e-001 -7.592407e-001 -6.966665e+000 227 225 214
