ply
format ascii 1.0
element face 0
property list uchar int vertex_indices
element vertex 870
property float x
property float y
property float z
property uchar diffuse_red
property uchar diffuse_green
property uchar diffuse_blue
end_header
-1.691377e+000 -3.663692e+000 -1.054195e+001 53 47 47
2.442854e-002 1.126752e+000 -7.339433e+000 203 42 49
-3.240402e-001 -1.927034e-001 -6.721022e+000 227 116 77
-9.624722e-002 -1.994425e-001 -6.827513e+000 227 224 219
-4.643262e-001 4.326314e-001 -7.865949e+000 213 200 191
7.876720e-001 5.069418e-001 -6.584154e+000 174 33 44
3.829182e-002 -4.998179e-002 -6.887920e+000 159 149 140
3.565335e-002 -4.202353e-002 -6.868498e+000 159 149 140
-1.964661e-001 -4.019594e-001 -6.889841e+000 242 236 232
9.944965e-001 1.622907e-001 -6.368644e+000 195 35 45
9.944965e-001 1.622907e-001 -6.368644e+000 195 35 45
4.479521e-001 -3.216089e-001 -6.900410e+000 244 237 231
1.071116e+000 2.170457e-002 -6.247887e+000 229 83 91
6.898401e-001 -8.304489e-001 -6.742097e+000 219 47 59
2.422060e-001 9.082627e-001 -7.228870e+000 223 217 213
-4.928453e-001 -2.100869e-001 -6.702033e+000 249 132 87
5.941594e-001 -5.855201e-001 -6.735865e+000 229 217 208
-6.113231e-001 -1.494111e-001 -6.710151e+000 94 33 26
3.419834e-001 5.363511e-002 -6.830519e+000 199 190 181
4.589867e-001 2.910322e-002 -6.730875e+000 146 134 120
4.589867e-001 2.910322e-002 -6.730875e+000 146 134 120
4.823275e-001 -1.701624e-002 -6.678508e+000 214 207 199
5.186889e-001 -4.231703e-001 -6.725229e+000 178 156 106
8.769667e-002 1.251007e+000 -7.247758e+000 203 48 54
-2.077832e-001 2.461610e-001 -7.565147e+000 184 174 162
-2.954673e-001 4.860322e-002 -7.407175e+000 220 212 205
-1.429044e-001 6.128429e-001 -7.530683e+000 168 162 150
-1.429044e-001 6.128429e-001 -7.530683e+000 168 162 150
5.002151e-001 -7.842355e-001 -6.912496e+000 251 250 245
-6.604707e-001 -1.538106e-001 -6.763822e+000 65 17 12
6.201306e-001 -3.645038e-001 -6.662533e+000 100 85 64
7.217383e-001 -9.265008e-001 -6.712892e+000 50 36 36
-4.150082e-001 2.315684e-001 -7.692185e+000 38 27 27
-3.308008e-001 -1.058350e-001 -6.795320e+000 66 11 8
3.046859e-001 -1.486703e-001 -6.890449e+000 245 242 234
3.052662e-001 -1.477226e-001 -6.887989e+000 245 242 234
-4.878866e-002 -6.744005e-001 -7.032052e+000 35 30 27
-8.726269e+000 -1.021015e+001 -2.342746e+001 23 19 20
-1.920493e+000 -3.286653e+000 -1.071147e+001 38 32 34
6.584114e-001 -1.487264e-001 -6.569443e+000 228 220 210
-4.259035e+000 -6.554753e+000 -1.527581e+001 30 28 33
-4.341997e+000 -6.595719e+000 -1.518107e+001 165 161 175
-5.934873e+000 -8.245607e+000 -1.701601e+001 9 7 10
-5.577040e-002 2.201558e-001 -7.142701e+000 145 132 123
-4.954623e-001 -9.177518e-002 -6.749408e+000 121 37 16
-4.843402e-001 -1.294845e-001 -6.702700e+000 129 34 14
8.033095e-001 -9.914075e-001 -6.777603e+000 48 30 30
3.668078e-001 1.100034e+000 -7.036437e+000 214 50 57
5.637151e-001 5.978853e-001 -6.828152e+000 204 194 185
-5.962829e+000 -7.188266e+000 -1.811368e+001 84 84 92
-5.690368e+000 -8.842454e+000 -1.690916e+001 12 10 16
8.197222e-002 1.118598e+000 -7.256256e+000 232 192 168
1.792833e-001 6.560084e-001 -7.258255e+000 181 174 164
3.074178e-001 1.094192e+000 -7.062500e+000 203 32 40
-5.724848e-002 5.079460e-001 -7.343343e+000 208 197 191
-5.724848e-002 5.079460e-001 -7.343343e+000 208 197 191
7.220666e-002 5.633683e-001 -7.214296e+000 176 167 154
5.300760e-001 5.918504e-001 -6.878779e+000 187 181 170
-9.019015e-002 2.238877e-001 -7.232224e+000 145 135 125
1.758189e-001 2.609725e-001 -7.020752e+000 122 108 97
-4.970411e-001 -7.283584e-002 -6.757555e+000 144 65 43
-2.649638e-001 -5.393171e-002 -6.862942e+000 90 21 15
-6.066062e+000 -7.696271e+000 -1.791987e+001 79 79 80
-4.749103e+000 -6.194912e+000 -1.522070e+001 101 99 108
-4.630330e+000 -6.939494e+000 -1.529658e+001 156 154 168
-3.905191e+000 -7.345785e+000 -1.502508e+001 84 87 96
-1.568136e+000 -4.316740e+000 -1.046181e+001 50 44 48
-1.987304e-001 8.599885e-001 -7.674691e+000 161 147 139
-7.992017e-002 2.503703e-001 -7.229830e+000 130 118 106
2.407206e-001 2.698752e-001 -7.090998e+000 127 115 102
-5.942345e+000 -7.512829e+000 -1.749534e+001 80 79 84
-2.150789e+000 -3.179722e+000 -1.089641e+001 55 50 54
-5.323203e+000 -8.581335e+000 -1.704417e+001 120 121 139
-1.519747e+000 -4.403138e+000 -1.039969e+001 53 48 52
5.604987e-001 5.630058e-001 -6.865496e+000 153 143 133
-3.009784e-001 -1.612176e-002 -6.862618e+000 70 20 17
8.193071e-001 3.715071e-001 -6.470651e+000 252 81 93
7.715477e-001 7.265427e-001 -6.555293e+000 21 1 4
-5.957075e-001 6.358239e-001 -8.168524e+000 38 24 20
2.362895e-001 2.722021e-002 -6.852417e+000 244 240 231
5.528159e-001 9.378636e-002 -6.779419e+000 189 175 165
-4.610680e+000 -6.614870e+000 -1.540003e+001 142 138 153
-4.034113e+000 -7.631378e+000 -1.504371e+001 11 7 14
-5.558580e+000 -7.356754e+000 -1.706839e+001 10 10 12
5.929525e-001 9.972352e-001 -6.729734e+000 186 44 53
-5.942278e+000 -7.363133e+000 -1.743842e+001 80 77 84
-1.639337e-001 1.240727e-001 -6.995778e+000 108 94 83
-1.520752e-001 5.492769e-002 -6.918937e+000 162 147 140
-1.520752e-001 5.492769e-002 -6.918937e+000 162 147 140
-4.205156e+000 -6.302249e+000 -1.526598e+001 47 45 48
2.715140e-001 2.161570e-001 -6.926408e+000 143 130 114
-5.021896e-001 -1.403966e-001 -6.718666e+000 126 37 16
-5.325559e-001 -2.375750e-001 -6.674765e+000 144 27 9
-5.339539e+000 -8.832302e+000 -1.688356e+001 116 124 147
5.061506e-001 -3.995641e-001 -6.796509e+000 147 133 108
9.615033e-001 -2.729806e-001 -6.402890e+000 141 114 76
-5.855828e+000 -7.226962e+000 -1.792256e+001 66 66 74
-4.561347e+000 -6.088252e+000 -1.539557e+001 136 136 146
-2.108027e+000 -2.614464e+000 -1.077602e+001 40 36 37
6.490447e-001 4.818727e-001 -6.679605e+000 235 232 223
6.602364e-001 4.991695e-001 -6.658395e+000 236 231 227
-4.448696e-001 -1.267469e-001 -6.756818e+000 90 20 11
-5.829591e+000 -8.717922e+000 -1.690003e+001 3 4 8
4.249930e-001 -4.098868e-002 -6.733749e+000 199 192 174
-1.723360e+000 -3.755229e+000 -1.058143e+001 28 22 24
4.370525e-001 -1.133826e+000 -7.317615e+000 42 29 20
-1.384044e+000 -5.329790e+000 -1.017256e+001 22 15 17
-1.190472e-001 1.150096e+000 -7.530204e+000 142 21 30
-2.193022e-002 1.289987e+000 -7.315804e+000 33 14 15
-2.484248e-001 4.877803e-001 -7.725621e+000 192 184 173
4.959918e-001 1.111678e+000 -6.858993e+000 185 40 45
7.714844e-002 3.657199e-001 -7.163396e+000 136 124 112
-5.738682e+000 -7.065726e+000 -1.792854e+001 66 66 78
-2.136798e+000 -2.470562e+000 -1.074187e+001 36 30 30
-4.775093e+000 -6.169168e+000 -1.542335e+001 130 130 139
-4.695974e+000 -6.350561e+000 -1.503276e+001 122 120 130
-4.564304e+000 -6.416319e+000 -1.522639e+001 137 137 149
-3.966958e-001 -2.666466e-002 -6.846664e+000 56 15 9
-8.268819e-001 -2.203753e-001 -6.517225e+000 136 109 66
9.562738e-002 3.014226e-002 -6.904150e+000 170 160 148
-5.826427e+000 -8.408354e+000 -1.689987e+001 105 103 115
-2.281723e-001 -2.498254e-001 -6.901387e+000 233 209 149
-1.914769e+000 -3.287996e+000 -1.069972e+001 40 34 38
-1.870606e+000 -3.404354e+000 -1.066080e+001 44 40 41
-4.755178e-001 -3.997520e-001 -6.686824e+000 164 143 123
-3.321449e-001 -4.215965e-001 -6.762308e+000 234 229 225
-2.967063e-001 -4.365536e-001 -6.801765e+000 251 251 246
5.695377e-001 -7.090598e-001 -6.845757e+000 174 161 141
8.023734e-001 -9.604343e-001 -6.819236e+000 235 82 88
-1.335885e+000 -5.331754e+000 -1.019631e+001 111 101 102
-1.335557e+000 -5.304610e+000 -1.017141e+001 111 101 102
3.150195e-001 1.261606e+000 -6.989313e+000 27 10 13
-3.018655e-001 8.023918e-002 -6.964847e+000 78 42 41
-5.941533e+000 -7.961458e+000 -1.695853e+001 11 9 17
-4.783716e+000 -6.411636e+000 -1.531006e+001 118 116 128
-2.355046e-001 -4.194155e-002 -6.895660e+000 112 43 32
-4.475255e+000 -6.683051e+000 -1.501650e+001 109 109 117
-1.954615e+000 -3.143688e+000 -1.070592e+001 49 44 46
-3.228995e-001 -1.971403e-001 -6.728117e+000 228 115 76
-9.410604e-002 -4.567946e-001 -6.969993e+000 40 33 25
5.196907e-002 -2.565963e-001 -6.888824e+000 199 189 179
1.033889e+000 2.964239e-001 -6.329630e+000 32 10 16
1.095264e+000 1.363987e-001 -6.275649e+000 32 18 19
-1.437280e+000 -4.716834e+000 -1.036682e+001 52 46 48
-1.386119e+000 -4.782648e+000 -1.025933e+001 45 40 44
-1.343014e+000 -4.775700e+000 -1.013533e+001 49 43 43
6.647240e-001 -9.127609e-001 -6.803223e+000 234 96 96
-3.988481e-001 6.939779e-001 -7.884981e+000 194 172 166
-1.939260e-001 3.478174e-001 -7.384488e+000 126 114 102
-1.939260e-001 3.478174e-001 -7.384488e+000 126 114 102
4.299227e-001 5.496734e-001 -6.973838e+000 184 177 167
4.299227e-001 5.496734e-001 -6.973838e+000 184 177 167
-5.483636e-001 -1.885259e-001 -6.710455e+000 180 74 42
3.684735e-001 -2.832269e-001 -6.929289e+000 216 210 197
3.710732e-001 -5.051300e-001 -6.921174e+000 251 251 241
-1.320606e+000 -5.238782e+000 -1.022032e+001 19 9 10
-2.334118e-001 1.756341e-002 -7.757529e+000 89 8 9
-5.727508e-001 -2.597675e-001 -6.714404e+000 212 107 66
1.113380e+000 -3.400479e-002 -6.272638e+000 32 11 18
-1.402350e+000 -5.157743e+000 -1.015728e+001 62 51 49
4.351524e-001 1.139537e+000 -6.915257e+000 211 51 56
-1.883229e-001 4.932595e-001 -7.670627e+000 203 195 184
-2.459752e-001 1.192866e-001 -7.843906e+000 132 17 24
5.772953e-001 -7.685457e-001 -6.803624e+000 45 34 32
1.000514e-001 3.003818e-001 -7.081336e+000 132 117 106
-3.863364e+000 -7.501129e+000 -1.529610e+001 15 13 18
9.162711e-001 2.851912e-001 -6.443127e+000 226 61 70
1.751112e-001 -4.989850e-001 -6.971416e+000 71 45 31
1.734195e-001 -4.923271e-001 -6.965443e+000 71 45 31
8.899069e-001 -3.011741e-001 -6.392276e+000 199 176 122
-2.117164e-001 1.073935e+000 -7.622385e+000 201 50 57
1.966851e-001 5.986630e-001 -7.179288e+000 140 128 116
4.724327e-001 -3.760787e-001 -6.876677e+000 99 84 64
7.004609e-001 -2.484952e-001 -6.598983e+000 255 252 247
-3.332906e-001 -1.561863e-001 -7.068615e+000 120 52 33
1.452913e-001 1.010599e+000 -7.268353e+000 219 212 206
8.376740e-001 1.462091e-001 -6.480178e+000 225 214 208
7.232817e-002 1.124943e+000 -7.284166e+000 219 54 62
2.205331e-001 7.136941e-001 -7.194517e+000 200 193 185
6.680029e-002 6.049915e-001 -7.246972e+000 161 147 136
-1.417972e-001 1.811657e-001 -7.157006e+000 140 127 113
5.237584e-001 5.233231e-001 -6.836974e+000 140 128 115
-1.695728e-001 3.907699e-002 -6.960759e+000 125 111 102
-1.393019e-001 2.036552e-002 -6.900710e+000 135 120 112
-9.165698e-001 -2.777410e-001 -6.643311e+000 141 75 51
-3.290185e-001 -1.018161e-001 -6.835031e+000 93 35 28
-8.291548e-001 -2.281349e-001 -6.503973e+000 77 23 21
-7.634341e-001 -2.460987e-001 -6.539797e+000 114 28 9
-3.194822e-001 -4.057031e-001 -6.782999e+000 183 174 167
-1.329371e-002 -3.974278e-001 -6.908807e+000 196 180 165
4.965342e-001 -3.050835e-001 -6.780266e+000 161 145 128
-1.286757e-001 4.374280e-001 -7.459967e+000 164 153 143
5.155886e-002 6.440286e-001 -7.263422e+000 222 212 203
2.387023e-001 6.973426e-001 -7.172908e+000 190 181 172
-7.522704e-001 -1.796627e-001 -7.103072e+000 141 63 46
2.850946e-001 3.246871e-001 -7.038311e+000 162 150 138
7.561851e-001 5.000750e-001 -6.612145e+000 209 201 191
-1.710621e+000 -3.819767e+000 -1.059925e+001 29 25 26
-7.449282e-001 -3.337136e-001 -6.562023e+000 224 114 84
8.758250e-001 -6.903820e-001 -6.487524e+000 249 96 104
-2.152753e-001 9.594631e-001 -7.724813e+000 171 28 35
-2.806448e-001 -7.295347e-002 -6.863710e+000 84 20 11
-8.554618e-001 -3.307689e-001 -6.586296e+000 255 163 129
-3.074840e-001 -1.470809e-001 -6.747890e+000 116 44 32
-3.074840e-001 -1.470809e-001 -6.747890e+000 116 44 32
-1.593290e-001 -2.820559e-001 -6.890662e+000 240 231 226
-1.537581e-001 -1.943525e-001 -6.838340e+000 227 222 216
-6.581007e-002 -1.742408e-001 -6.827725e+000 253 248 242
1.966366e-001 -8.936562e-002 -6.845831e+000 221 214 206
8.526877e-001 5.932043e-001 -6.480725e+000 203 58 66
-4.088122e-001 -3.929374e-001 -6.681482e+000 198 194 187
-4.897785e-002 -4.926192e-001 -7.012095e+000 36 27 22
3.930183e-001 -6.589768e-001 -6.967595e+000 252 252 240
-1.576638e-002 1.255772e+000 -7.382205e+000 190 39 46
5.562394e-001 5.372430e-001 -6.812761e+000 171 159 145
6.868751e-001 5.734998e-001 -6.607070e+000 248 249 240
-3.801061e-001 -3.846984e-001 -6.697419e+000 222 213 207
7.788062e-001 4.269066e-001 -6.535362e+000 184 169 156
4.945353e-001 5.748059e-002 -6.693112e+000 191 181 168
4.279258e-001 -1.212267e-001 -6.719454e+000 217 210 200
5.755982e-001 -7.287257e-001 -6.787511e+000 56 42 40
5.755982e-001 -7.287257e-001 -6.787511e+000 56 42 40
-4.889819e-001 -2.499822e-002 -7.067378e+000 44 12 13
7.183903e-001 7.900541e-001 -6.625061e+000 88 7 15
-5.250421e-001 -3.514817e-001 -6.691243e+000 247 188 154
-6.789274e-002 -1.289710e-001 -6.815157e+000 239 232 229
-1.084318e-001 -3.153817e-001 -6.894164e+000 66 47 26
4.765281e-001 -1.277367e-001 -6.699955e+000 230 226 217
-4.385815e-001 8.135164e-001 -7.979889e+000 195 39 46
4.320413e-001 2.852379e-001 -7.002239e+000 141 129 119
7.794009e-001 6.865185e-001 -6.534384e+000 237 81 90
-8.164245e-001 -1.841408e-001 -6.513554e+000 74 22 10
-1.873415e-001 -9.564504e-002 -6.833810e+000 207 188 180
7.321906e-001 5.373029e-001 -6.597035e+000 253 253 251
-5.517774e-001 -3.448535e-001 -6.735561e+000 247 184 142
-3.951438e-001 -3.891475e-001 -6.702220e+000 190 178 171
-3.480050e-001 -3.248375e-001 -6.721414e+000 167 144 133
4.059737e-001 -3.901392e-001 -6.807968e+000 254 252 203
9.962404e-001 1.907531e-001 -6.355034e+000 207 45 57
-1.751482e-001 3.862223e-001 -7.524570e+000 133 121 109
3.101354e-001 4.522955e-001 -7.116163e+000 187 177 168
4.288353e-001 2.905761e-001 -6.995769e+000 141 130 119
6.893060e-001 7.242420e-001 -6.565956e+000 243 82 92
8.827753e-001 -5.277347e-001 -6.502942e+000 244 230 198
8.281047e-002 1.294210e+000 -7.329925e+000 14 3 9
-4.670107e-001 5.535684e-001 -7.999712e+000 188 177 168
-3.865182e-001 2.682054e-001 -7.978880e+000 42 31 29
1.496788e-001 5.008316e-001 -7.165903e+000 231 222 216
5.067833e-001 -7.709191e-001 -6.887692e+000 254 255 247
1.052183e+000 1.478517e-001 -6.309458e+000 221 60 68
9.966998e-001 -2.168506e-001 -6.386631e+000 77 11 15
-1.443859e-001 6.586076e-001 -7.444306e+000 169 160 145
-1.484972e-001 6.531186e-001 -7.434348e+000 169 160 145
3.276834e-001 -3.761692e-001 -6.927712e+000 80 62 41
8.203911e-001 3.109760e-001 -6.481467e+000 255 251 246
9.227261e-001 -6.165808e-001 -6.487777e+000 172 35 40
5.484235e-001 5.165539e-001 -6.797125e+000 136 122 111
-3.896888e-002 -4.462154e-002 -6.898525e+000 136 119 111
-3.389863e-001 -3.737671e-001 -6.766774e+000 169 151 137
3.259382e-001 -5.247541e-001 -6.854472e+000 254 255 246
9.439161e-001 -6.941131e-002 -6.430668e+000 233 226 218
-6.681640e-001 -1.643728e-001 -6.789863e+000 63 22 19
6.800360e-001 5.087100e-001 -6.615534e+000 255 255 251
-4.896035e-002 2.689256e-002 -7.381397e+000 118 104 93
-4.089250e-001 1.579909e-001 -7.879925e+000 39 30 28
1.923068e-001 -2.603333e-001 -6.941287e+000 243 234 225
-7.098471e+000 -6.247214e+000 -2.233625e+001 135 124 120
-4.470887e+000 -6.673398e+000 -1.501604e+001 111 109 122
-4.721709e+000 -6.547121e+000 -1.506546e+001 165 163 172
-4.349908e-001 -4.188472e-002 -6.825373e+000 117 51 38
-1.328816e-001 1.338542e-002 -6.882351e+000 131 116 109
-1.939299e+000 -3.215200e+000 -1.070740e+001 41 35 39
6.203817e-001 2.160878e-001 -6.772359e+000 184 176 165
1.008144e+000 1.341289e-001 -6.360137e+000 227 69 77
1.007964e+000 1.307923e-001 -6.362241e+000 227 69 77
-5.135561e+000 -1.235263e+001 -1.779796e+001 43 59 116
5.580791e-001 5.661482e-001 -6.852730e+000 157 147 136
3.330289e-001 1.791220e-001 -7.025144e+000 131 115 100
1.063057e+000 1.809732e-001 -6.281338e+000 207 52 57
2.184847e-001 9.670724e-001 -7.211811e+000 203 196 188
2.176708e-001 9.676484e-001 -7.209425e+000 203 196 188
-2.292600e-001 1.281570e-001 -7.100369e+000 129 115 104
-1.902003e-001 6.980793e-002 -6.926103e+000 126 112 103
-1.865169e-001 6.317631e-002 -6.936545e+000 126 112 103
1.566385e-001 1.539319e-001 -6.912536e+000 197 187 175
3.502401e-003 6.205462e-001 -7.317224e+000 210 201 191
2.884343e-001 1.101667e+000 -7.129264e+000 209 42 51
-2.797125e-001 1.543433e-002 -6.935666e+000 108 90 76
-2.795038e-001 1.673121e-002 -6.934667e+000 108 90 76
8.485578e-001 5.938275e-001 -6.477156e+000 203 58 65
-2.169745e-001 8.188378e-001 -7.717229e+000 209 200 191
-1.815748e-001 9.179082e-001 -7.609536e+000 187 175 163
-1.629442e-001 4.808157e-001 -7.449006e+000 157 147 137
-2.645434e-001 -2.005467e-001 -7.677213e+000 202 195 182
-2.251418e-001 1.573921e-001 -7.225461e+000 120 106 95
7.499312e-001 7.902718e-001 -6.581644e+000 122 32 36
-6.824342e-001 -2.824067e-001 -6.552806e+000 49 19 16
8.053831e-001 5.455726e-002 -6.793841e+000 239 233 221
5.477185e-001 -5.961384e-001 -6.832265e+000 246 233 178
-5.999983e-001 5.698889e-001 -8.172353e+000 185 42 46
3.019510e-002 1.286314e+000 -7.355789e+000 81 18 27
-1.418295e-001 6.369614e-001 -7.431141e+000 168 159 145
-2.086291e+000 -2.776767e+000 -1.083246e+001 45 39 41
-2.024417e-001 4.405817e-001 -7.601651e+000 173 165 152
-2.933063e-001 -7.811008e-003 -7.844076e+000 107 58 49
-1.977558e-001 3.310624e-001 -7.484507e+000 156 146 134
2.418436e-001 6.626520e-001 -7.270750e+000 219 215 206
5.139559e-001 1.091487e+000 -6.825985e+000 200 52 61
-2.994599e-001 -1.947327e-001 -7.705947e+000 176 169 155
-2.344011e-001 1.559370e-001 -7.249407e+000 152 138 127
-1.748029e+000 -3.660853e+000 -1.047326e+001 62 56 58
-1.744024e+000 -3.802089e+000 -1.058458e+001 64 58 60
-2.472245e-001 1.217443e-001 -7.010556e+000 101 84 76
-6.042365e-001 -7.293280e-002 -6.755329e+000 104 43 33
-9.310253e-001 -2.867355e-001 -6.639828e+000 48 16 11
-1.589079e-001 4.611912e-002 -6.899233e+000 139 127 116
3.504996e-001 1.804356e-001 -7.045647e+000 150 137 120
5.339705e-001 5.326954e-001 -6.792475e+000 126 114 99
-6.356430e-002 -1.781044e-001 -6.832412e+000 252 247 243
-1.542737e+000 -4.508041e+000 -1.016394e+001 45 41 38
3.940566e-001 8.889883e-002 -6.827499e+000 180 168 154
-1.467100e+000 -4.833294e+000 -1.020328e+001 62 54 52
8.052093e-001 5.169040e-001 -6.560251e+000 166 31 38
1.036460e+000 -4.881569e-001 -6.314859e+000 227 95 99
-2.715546e-001 4.991647e-001 -7.728369e+000 224 217 207
1.198675e-001 9.833266e-001 -7.264514e+000 212 205 197
1.201599e-001 9.790160e-001 -7.266395e+000 212 205 197
-2.095961e+000 -3.009684e+000 -1.062723e+001 60 54 54
-2.436089e-001 2.231706e-001 -7.686420e+000 207 189 185
-1.730487e+000 -3.603239e+000 -1.050300e+001 25 19 21
-3.774124e-002 2.428859e-001 -7.140946e+000 121 112 98
-1.686002e+000 -3.686386e+000 -1.053774e+001 53 49 50
-1.681126e+000 -3.624448e+000 -1.046520e+001 53 49 50
-1.925979e-001 9.953661e-002 -7.045561e+000 154 138 127
4.892086e-001 5.054919e-001 -6.922417e+000 160 150 138
7.250181e-001 8.212009e-001 -6.615146e+000 159 45 49
-3.948006e-001 -1.644018e-001 -6.709455e+000 122 30 17
1.743299e-001 2.738501e-002 -6.868384e+000 194 184 175
8.079240e-001 5.522148e-001 -6.533057e+000 217 71 78
-1.244212e+000 -5.268809e+000 -1.019639e+001 73 68 71
1.035261e+000 -4.442366e-001 -6.301117e+000 153 33 37
-2.997768e-001 1.762235e-001 -7.897681e+000 215 73 82
-1.952705e-001 2.461902e-001 -7.398628e+000 174 161 145
-5.356162e-002 4.283867e-001 -7.284418e+000 148 136 124
-2.384208e-001 -1.375295e-001 -7.684162e+000 174 166 153
-4.585020e-001 5.455093e-003 -7.075905e+000 92 38 33
3.994780e-002 -4.991221e-002 -6.897214e+000 164 154 144
3.994780e-002 -4.991221e-002 -6.897214e+000 164 154 144
4.951510e-001 2.175273e-002 -6.700613e+000 198 188 179
5.268889e-001 2.101998e-002 -6.704605e+000 173 161 149
3.327737e-001 -4.465938e-001 -6.910934e+000 119 102 62
-1.653057e-001 4.366039e-001 -7.546283e+000 148 138 126
-3.156230e-001 2.736019e-002 -6.948491e+000 68 23 18
-7.746207e-001 -2.126250e-001 -6.534804e+000 163 82 52
1.974253e-001 5.856213e-002 -6.871463e+000 171 159 147
5.652416e-001 4.399424e-003 -6.687485e+000 197 187 177
4.312687e-001 -1.087200e+000 -7.294192e+000 245 230 171
4.250310e-001 -5.159086e-001 -6.910317e+000 78 60 27
8.043985e-001 1.980583e-001 -6.505262e+000 254 254 246
-1.663535e-001 2.681171e-001 -7.335934e+000 131 117 101
5.489869e-001 1.572432e-001 -6.893286e+000 158 150 139
4.825306e-001 -4.490027e-001 -6.825172e+000 114 96 56
9.229782e-001 2.534113e-001 -6.452048e+000 232 71 79
3.443520e-001 1.026858e+000 -7.005385e+000 240 236 232
5.469486e-001 9.032233e-001 -6.817242e+000 217 57 64
9.911359e-001 -7.665564e-001 -6.483289e+000 244 88 99
-7.858949e-002 1.247049e+000 -7.467894e+000 24 17 18
1.674795e-001 2.597856e-001 -7.069917e+000 136 124 110
5.632963e-001 -5.347085e-001 -6.801816e+000 232 215 159
5.503194e-001 -5.135363e-001 -6.778380e+000 232 215 159
-1.419983e-001 1.052052e+000 -7.497268e+000 144 26 31
-5.673202e-002 7.340004e-001 -7.325885e+000 222 218 209
-5.673202e-002 7.340004e-001 -7.325885e+000 222 218 209
2.593648e-001 8.279964e-001 -7.096591e+000 155 146 131
6.090151e-001 -1.671424e-001 -6.645839e+000 251 248 243
9.141397e-001 -4.073154e-001 -6.424740e+000 216 197 138
1.036890e-002 1.277689e+000 -7.380998e+000 81 15 23
-1.857905e-001 9.650355e-001 -7.455919e+000 178 159 153
-1.462404e-001 8.377432e-001 -7.422501e+000 198 191 181
-2.075989e-001 3.691332e-001 -7.589591e+000 212 201 189
-1.509262e-001 4.793435e-001 -7.524707e+000 165 153 138
-2.421814e-001 -1.214143e-002 -7.755046e+000 159 85 79
-7.809637e-001 -2.888843e-001 -7.061669e+000 38 28 28
-1.829287e-001 1.034149e-001 -7.111241e+000 107 90 80
-5.210724e-001 -2.155676e-001 -6.704613e+000 236 131 101
-5.300286e-001 -2.429939e-001 -6.665891e+000 126 21 1
-4.473666e-001 -1.212824e-001 -6.698043e+000 120 29 12
1.990913e-002 -2.093648e-002 -6.910068e+000 190 177 168
7.126963e-002 -7.805448e-002 -6.942458e+000 170 157 147
-5.043304e-001 -3.818510e-001 -6.693242e+000 95 90 90
-4.721414e-001 -3.837207e-001 -6.676358e+000 212 200 178
-3.231454e-001 -3.718989e-001 -6.762140e+000 175 150 146
-1.281157e-001 -2.920939e-001 -6.858243e+000 163 146 127
9.067434e-002 -5.309464e-001 -7.055652e+000 155 138 120
3.543029e-001 -7.292522e-002 -6.807600e+000 254 250 241
5.464534e-001 8.151485e-002 -6.764336e+000 192 180 166
2.610314e-001 -4.164519e-001 -6.772247e+000 225 219 207
2.610314e-001 -4.164519e-001 -6.772247e+000 225 219 207
4.881328e-001 -1.106805e-001 -6.716479e+000 222 217 211
-1.132495e-001 7.716574e-001 -7.550197e+000 217 210 200
-1.146944e-001 6.835275e-001 -7.418806e+000 164 153 141
-1.176647e-001 4.379071e-001 -7.436663e+000 168 156 147
-2.253297e-001 -1.657705e-002 -7.725161e+000 155 125 114
-1.881128e-001 3.315231e-001 -7.459067e+000 163 151 141
-3.261326e-001 1.137141e-001 -6.961634e+000 121 63 51
-3.003607e-001 7.685424e-002 -6.986157e+000 83 42 40
-3.111665e-001 2.938659e-002 -6.930499e+000 67 27 25
4.938526e-003 2.697904e-001 -6.991697e+000 161 149 136
-1.349108e-001 4.962643e-002 -6.937979e+000 133 120 110
-9.548991e-002 6.219016e-002 -6.931319e+000 137 124 114
-9.789557e-001 -2.293489e-001 -6.524510e+000 146 128 79
-9.789557e-001 -2.293489e-001 -6.524510e+000 146 128 79
-2.974520e-001 -1.532953e-001 -6.777494e+000 114 54 44
-1.829752e-001 -2.797380e-001 -6.898247e+000 87 68 37
7.189468e-003 -2.046399e-002 -6.919317e+000 140 123 116
-7.433433e-001 -3.300469e-001 -6.563590e+000 213 115 70
3.857053e-001 1.069545e-001 -6.844812e+000 166 150 136
-2.991847e-001 -4.074223e-001 -6.773557e+000 252 250 246
-3.276000e-001 -4.056512e-001 -6.745367e+000 229 220 215
3.616192e-001 -2.345912e-001 -6.925995e+000 254 255 247
4.028708e-001 -9.663369e-002 -6.797148e+000 235 231 222
5.221280e-001 7.533524e-002 -6.731735e+000 185 176 161
4.901943e-001 -4.755703e-001 -6.980074e+000 155 139 123
3.891191e-001 -5.532169e-001 -6.935943e+000 229 225 211
3.609773e-001 -5.056115e-001 -6.891256e+000 229 225 211
5.312064e-001 -4.620981e-001 -6.867326e+000 179 172 146
4.751367e-001 -2.546433e-001 -6.804310e+000 177 171 159
9.789308e-001 4.070995e-001 -6.399118e+000 214 70 78
1.020522e+000 3.869073e-001 -6.379832e+000 75 69 66
9.903423e-001 3.585515e-001 -6.348286e+000 239 89 101
7.770279e-001 -1.779776e-001 -6.158848e+000 205 186 130
1.102193e+000 5.389977e-002 -6.255898e+000 226 85 101
1.114136e+000 1.248087e-001 -6.214949e+000 80 71 72
1.114136e+000 1.248087e-001 -6.214949e+000 80 71 72
9.997169e-001 -4.171710e-001 -6.330819e+000 169 147 98
-2.912494e-002 1.086257e+000 -7.371491e+000 210 201 197
-2.036089e-001 5.944662e-001 -7.641613e+000 168 157 144
2.941271e-001 1.189148e+000 -7.093633e+000 222 62 70
2.941271e-001 1.189148e+000 -7.093633e+000 222 62 70
-9.361916e-001 -2.624501e-001 -6.652650e+000 33 9 12
-2.373806e-001 4.533467e-002 -6.910263e+000 131 119 108
2.513655e-001 3.019466e-001 -6.968426e+000 149 135 124
2.513655e-001 3.019466e-001 -6.968426e+000 149 135 124
-9.451751e-001 -1.776160e-001 -6.460527e+000 117 93 57
-9.171498e-001 -2.139714e-001 -6.512582e+000 55 27 11
5.665331e-001 5.997866e-001 -6.826428e+000 209 204 190
-8.300461e-001 -1.918847e-001 -6.488328e+000 187 159 114
-3.212079e-001 -1.898058e-001 -6.731808e+000 238 123 103
-3.212079e-001 -1.898058e-001 -6.731808e+000 238 123 103
-1.576102e-001 -2.854929e-001 -6.894051e+000 243 236 228
-1.495148e-001 -2.014538e-001 -6.848653e+000 226 221 216
-9.767724e-002 -4.245426e-001 -6.953785e+000 248 241 231
-1.089463e-001 -2.945398e-001 -6.877522e+000 71 53 29
7.407054e-001 6.937736e-001 -6.449119e+000 195 43 55
8.936400e-001 4.961023e-001 -6.630325e+000 181 35 45
8.881156e-001 4.987299e-001 -6.415268e+000 17 7 18
5.585228e-001 -6.867769e-001 -6.810126e+000 177 159 139
6.402896e-001 -3.417567e-001 -6.685838e+000 158 147 129
9.332066e-001 2.018918e-001 -6.433277e+000 232 68 73
9.728298e-001 -5.447868e-001 -6.334016e+000 180 33 44
1.272535e+000 5.698485e-001 -6.004385e+000 71 62 63
-1.271815e-001 1.174250e+000 -7.532943e+000 208 70 75
-2.204169e-001 3.619724e-001 -7.584685e+000 198 190 178
-1.751630e-001 4.459754e-001 -7.467860e+000 177 165 153
-2.325568e-001 -1.225611e-001 -7.526451e+000 194 188 174
-2.156838e-001 -4.621910e-002 -6.861124e+000 145 111 102
2.137924e-001 -1.796089e-001 -6.876181e+000 224 218 206
3.970400e-001 -3.360969e-001 -6.892976e+000 98 81 61
5.216075e-001 -3.047696e-001 -6.797328e+000 253 248 240
5.216075e-001 -3.047696e-001 -6.797328e+000 253 248 240
5.923677e-001 -4.721502e-001 -6.848260e+000 202 196 174
1.045796e+000 1.549643e-004 -6.254016e+000 181 47 54
1.119946e+000 1.440480e-002 -6.263427e+000 224 90 94
-2.151080e-001 2.705735e-001 -7.690420e+000 154 140 129
-1.827331e-001 3.980506e-001 -7.614650e+000 218 211 197
-1.191745e-001 6.784914e-001 -7.382767e+000 133 119 110
3.190804e-001 1.232001e+000 -7.023347e+000 226 64 74
-2.300510e-001 -1.526009e-001 -7.707451e+000 176 166 154
-6.071831e-001 -2.505234e-001 -6.714198e+000 138 43 34
-8.747270e-001 -1.883194e-001 -6.458340e+000 154 114 87
-8.747270e-001 -1.883194e-001 -6.458340e+000 154 114 87
-5.761873e-001 -3.277928e-001 -6.685335e+000 45 35 34
-9.503473e-002 -2.867508e-001 -6.904789e+000 250 250 243
8.549303e-001 4.941095e-001 -6.401338e+000 243 81 94
9.961348e-001 1.716201e-001 -6.368856e+000 203 52 57
9.662250e-001 -4.175161e-001 -6.394812e+000 204 181 131
-2.233426e-002 1.256661e+000 -7.360348e+000 190 42 46
-1.608849e-001 3.206927e-001 -7.628853e+000 145 133 121
-1.608849e-001 3.206927e-001 -7.628853e+000 145 133 121
-1.887076e-001 3.037051e-001 -7.455100e+000 127 115 103
3.399901e-001 5.445074e-001 -7.358004e+000 205 197 186
-3.618577e-001 -3.193366e-002 -6.868308e+000 53 11 13
-2.228694e-001 -1.566527e-001 -6.826170e+000 209 194 183
-2.228694e-001 -1.566527e-001 -6.826170e+000 209 194 183
-2.696604e-001 -2.147597e-001 -6.758051e+000 102 25 19
4.696072e-001 -4.264420e-001 -6.805635e+000 132 110 69
5.790645e-001 -6.658601e-001 -6.775421e+000 229 217 203
7.536670e-001 -7.690517e-001 -6.676160e+000 255 254 249
9.865332e-001 -2.311025e-001 -6.329452e+000 196 171 115
-5.346583e-001 4.984213e-001 -8.043366e+000 43 31 31
-2.929978e-002 1.263440e+000 -7.342984e+000 192 43 49
-1.689881e-001 9.707662e-001 -7.434495e+000 139 121 111
-1.638052e-001 9.592330e-001 -7.450572e+000 139 121 111
-2.026536e-001 5.088941e-001 -7.624323e+000 213 205 194
-1.394434e-001 5.815334e-001 -7.423840e+000 139 125 114
-1.580412e-001 9.241709e-002 -6.975077e+000 126 109 99
6.118118e-001 9.404745e-001 -6.692543e+000 215 63 71
-4.190074e-001 -1.551698e-001 -6.659426e+000 134 30 21
-7.318211e-002 -2.397016e-001 -6.809383e+000 62 39 29
9.709076e-001 2.114273e-001 -6.192225e+000 221 67 75
1.058769e+000 1.273390e-001 -6.270631e+000 221 67 75
-2.616110e-001 1.679893e-001 -7.529424e+000 76 4 11
-2.144885e-001 2.494011e-001 -7.431817e+000 181 169 157
-1.762047e-001 1.807759e-001 -7.275124e+000 120 106 97
-8.740694e-001 -1.463473e-001 -6.481782e+000 34 11 6
-8.740694e-001 -1.463473e-001 -6.481782e+000 34 11 6
7.792910e-001 7.907679e-002 -6.625233e+000 224 217 209
5.400002e-001 -7.238324e-001 -6.742186e+000 116 106 111
5.429539e-001 -7.312026e-001 -6.746772e+000 116 106 111
6.481204e-001 -4.567113e-001 -6.633406e+000 254 254 203
8.151460e-001 -2.997937e-001 -6.508148e+000 84 67 47
1.062885e+000 -8.159297e-002 -6.287944e+000 249 94 102
-4.743127e-001 5.453471e-001 -7.987906e+000 189 179 167
-6.913927e-002 1.182549e+000 -7.450908e+000 175 38 46
-2.086846e-002 -1.825983e-001 -6.839761e+000 231 223 220
4.574956e-001 -5.298538e-001 -6.816163e+000 145 125 91
1.069448e+000 1.273876e-001 -6.322722e+000 228 73 81
9.029437e-001 -6.003310e-001 -6.470401e+000 166 35 40
-2.134601e-001 9.046001e-001 -7.595437e+000 167 153 140
-1.364790e-001 8.437336e-001 -7.458792e+000 218 214 205
-5.317877e-001 -1.006928e-001 -6.758757e+000 125 32 14
3.427923e-001 -5.708704e-001 -6.908090e+000 228 224 210
7.607456e-001 -1.621891e-001 -6.516031e+000 238 233 227
-1.254499e-001 -2.302958e-001 -6.899503e+000 241 238 233
8.083736e-001 4.743206e-001 -6.500351e+000 148 26 33
-3.445425e-001 -6.589596e-001 -7.048906e+000 161 25 25
3.615549e-001 2.065190e-001 -7.017749e+000 122 109 93
9.753669e-001 8.480055e-002 -6.196126e+000 193 56 64
-3.259319e-001 -1.517774e-001 -7.074891e+000 56 14 15
-1.411026e-001 1.029824e+000 -6.565962e+000 209 200 194
-1.988083e-001 1.775647e-001 -7.163212e+000 137 127 117
-4.533804e+000 -7.636711e+000 -1.571181e+001 129 128 134
-4.802123e-001 -3.651394e-001 -6.584309e+000 99 81 63
-8.788154e+000 -9.504149e+000 -2.250766e+001 110 99 97
3.628400e-003 1.269554e+000 -7.366723e+000 78 8 14
-1.611592e-001 5.333685e-001 -7.579118e+000 155 145 133
-2.577846e-001 6.063889e-004 -7.817934e+000 87 7 6
-2.432711e-001 -2.775349e-002 -7.858379e+000 87 7 6
-2.720955e-001 -2.188661e-001 -7.771444e+000 211 203 192
-1.655672e-001 4.885438e-002 -6.970984e+000 152 136 128
-3.139822e-001 -7.519812e-002 -6.854406e+000 85 19 7
-5.379646e-001 -2.304509e-001 -6.686601e+000 147 20 3
7.611170e-001 7.618232e-001 -6.558465e+000 221 83 87
3.954563e-001 -6.204728e-001 -6.957300e+000 227 223 210
3.891698e-001 -6.104166e-001 -6.947601e+000 227 223 210
9.023365e-001 2.783234e-001 -6.461771e+000 250 87 97
-3.060965e-001 5.988437e-002 -6.967662e+000 92 43 39
-1.220830e+000 -5.256679e+000 -1.012698e+001 14 10 13
8.537833e-001 5.679847e-001 -6.511667e+000 214 65 75
1.137701e+000 2.766096e-001 -6.221194e+000 92 85 85
8.395067e-001 -6.399137e-001 -6.454360e+000 250 105 111
-3.652409e-001 7.564769e-001 -7.813948e+000 205 189 180
-2.465467e-001 1.012604e+000 -7.709358e+000 175 28 34
-1.681161e+000 -3.651995e+000 -1.049935e+001 49 45 46
-1.697670e+000 -3.955326e+000 -1.057927e+001 59 53 57
6.902697e-004 -1.292815e-002 -6.946889e+000 137 120 112
8.876751e-002 6.121315e-002 -6.934249e+000 200 190 178
2.933499e-001 1.262065e+000 -7.104175e+000 16 2 8
-2.381956e-001 2.180579e-001 -7.694655e+000 206 194 178
-9.484278e-002 3.040392e-001 -6.984092e+000 118 104 93
-3.064709e-001 -4.221321e-002 -6.880210e+000 73 18 22
9.722337e-001 4.774520e-001 -6.406039e+000 67 57 58
-5.783205e-002 1.097275e+000 -7.381777e+000 187 46 45
-1.400971e+000 -5.142577e+000 -1.014775e+001 89 76 67
6.565555e-001 7.513255e-001 -6.723706e+000 207 53 61
5.309704e-001 -3.818302e-001 -6.832268e+000 134 121 104
-3.520638e-001 2.452106e-001 -8.027803e+000 30 36 25
-1.895257e-001 3.001606e-001 -7.455414e+000 127 115 103
-1.249744e+000 -1.153485e+001 -1.047414e+001 57 59 72
-6.040838e-002 1.087830e+000 -7.427064e+000 200 50 59
6.093216e-001 8.182301e-001 -6.772463e+000 220 61 68
6.674828e-001 -7.912934e-001 -6.750758e+000 252 246 237
7.594354e-001 -8.927198e-001 -6.724082e+000 201 64 68
8.516358e-001 -7.708415e-001 -6.596445e+000 253 247 241
1.119683e+000 -1.466487e-001 -6.248259e+000 16 10 14
-2.630265e-001 -1.040647e-001 -7.763696e+000 213 207 195
6.751899e-001 5.106866e-001 -6.610768e+000 254 254 249
-2.778177e-001 -2.191378e-002 -7.822453e+000 171 110 93
-2.070301e-001 -6.568961e-002 -7.683780e+000 197 185 167
6.352984e-002 6.123029e-001 -7.280550e+000 193 185 174
7.166023e-002 6.183536e-001 -7.258966e+000 197 187 175
1.191637e-001 7.540058e-001 -7.139518e+000 181 174 164
-7.438173e-001 -1.683172e-001 -7.084521e+000 122 35 18
-1.440133e+000 -4.791059e+000 -1.031288e+001 29 23 26
-7.128650e-001 -1.932007e-001 -7.076039e+000 99 21 14
-1.572256e-001 1.457852e-001 -7.189523e+000 114 98 85
-8.240770e-002 5.815204e-002 -6.983807e+000 170 157 143
-5.210720e-001 -1.244023e-001 -6.706050e+000 126 31 9
-1.342779e-001 1.630389e-002 -6.880516e+000 135 118 108
2.491378e-001 1.746687e-001 -7.008054e+000 155 141 128
4.047318e-001 -6.214498e-001 -6.934392e+000 252 249 235
4.047318e-001 -6.214498e-001 -6.934392e+000 252 249 235
1.106703e+000 1.230507e-001 -6.284842e+000 32 16 19
9.734316e-001 -6.107703e-001 -6.387121e+000 163 17 27
-1.886084e+000 -3.407853e+000 -1.072437e+001 47 42 46
-1.800014e+000 -3.638133e+000 -1.063431e+001 51 46 50
-1.698034e+000 -3.916365e+000 -1.054015e+001 63 59 60
1.443070e-001 9.528023e-001 -7.282847e+000 208 201 191
5.688151e-002 6.383266e-001 -7.276108e+000 235 226 217
-2.699874e-001 1.147700e-001 -7.100732e+000 128 111 101
-1.370156e+000 -4.893093e+000 -1.027659e+001 69 61 65
-1.223262e+000 -5.217689e+000 -1.019090e+001 43 33 36
-5.630539e-002 5.688059e-002 -6.970303e+000 126 112 99
2.130453e-002 -2.345595e-001 -6.884740e+000 248 244 234
4.650862e-001 1.628863e-001 -6.928681e+000 135 122 105
3.794568e-001 7.953316e-002 -6.812345e+000 191 177 164
3.441236e-001 -3.378005e-002 -6.792760e+000 248 241 231
3.441236e-001 -3.378005e-002 -6.792760e+000 248 241 231
5.848570e-001 -6.874589e-001 -6.822264e+000 231 218 201
1.007032e+000 3.640920e-001 -6.359667e+000 26 10 15
3.863563e-001 -3.743626e+000 -7.789949e+000 179 181 193
1.067566e+000 3.657655e-002 -6.221419e+000 99 87 84
-6.002166e-003 1.288276e+000 -7.306011e+000 70 10 20
-1.496446e-001 6.172674e-001 -7.470295e+000 167 157 146
-1.138376e-001 6.837916e-001 -7.419382e+000 169 157 145
-1.657667e+000 -4.022835e+000 -1.048105e+001 55 49 52
-1.657991e+000 -3.983308e+000 -1.060349e+001 31 25 27
-2.147276e-001 1.790984e-001 -7.327921e+000 155 141 128
-5.961958e-001 -5.004432e-002 -6.903364e+000 101 41 29
-1.288687e+000 -5.255051e+000 -1.034440e+001 78 69 74
-1.337589e+000 -5.286217e+000 -1.015746e+001 124 114 116
-6.063813e-001 -1.066796e-001 -6.700435e+000 114 38 26
5.022571e-001 1.289105e-001 -6.830250e+000 146 133 117
7.077231e-001 8.022013e-001 -6.559224e+000 73 4 9
6.893045e-001 7.503467e-001 -6.554427e+000 250 96 104
6.608418e-001 -1.878433e+000 -7.153628e+000 167 173 175
2.830990e-001 1.105557e+000 -7.114145e+000 211 55 54
4.233599e-001 1.007014e+000 -6.936832e+000 237 75 85
-5.654923e-001 -1.200165e-001 -6.716228e+000 132 42 21
-4.745363e-001 -2.566249e-001 -6.676101e+000 163 22 24
6.940640e-001 8.001452e-002 -6.842861e+000 186 174 162
9.170447e-001 2.115866e-001 -6.452194e+000 253 224 210
9.158581e-001 4.678304e-001 -6.373288e+000 249 97 103
9.525931e-001 -3.442276e-002 -6.348297e+000 236 87 87
9.757780e-001 -4.196995e-001 -6.314577e+000 248 231 179
-4.049101e-001 6.979067e-001 -7.877135e+000 193 183 173
-1.206064e-001 6.891492e-001 -7.577351e+000 200 191 176
2.327186e-001 8.422392e-001 -7.191469e+000 199 191 182
2.326723e-001 8.421344e-001 -7.191498e+000 199 191 182
-3.723978e-001 -1.804538e-001 -6.707364e+000 128 37 22
9.721383e-001 2.384806e-001 -6.437522e+000 241 84 93
6.569200e-003 1.271883e+000 -7.427184e+000 18 8 10
-9.243562e-002 7.203842e-001 -7.535690e+000 171 161 149
-9.243562e-002 7.203842e-001 -7.535690e+000 171 161 149
9.991844e-001 1.277989e-001 -6.351952e+000 228 73 81
2.805745e-002 1.132391e+000 -7.331184e+000 214 48 58
3.730179e-001 1.182591e+000 -6.982233e+000 213 51 62
3.786468e-001 9.394772e-001 -6.997782e+000 218 208 199
3.736861e-001 9.439984e-001 -6.990844e+000 218 208 199
5.529167e-001 8.956637e-001 -6.825185e+000 220 58 66
3.280954e-001 1.708833e-001 -6.862835e+000 152 139 122
6.792589e-001 8.689746e-001 -6.666239e+000 205 60 66
4.259653e-001 -2.843246e-001 -6.885870e+000 254 254 246
-9.962776e-001 -1.128404e+001 -1.020363e+001 45 43 56
1.194015e+000 -1.967266e-001 -6.155779e+000 255 245 192
-2.264469e-001 3.131433e-001 -7.530069e+000 197 184 173
-2.662774e-001 -2.473299e-001 -7.854729e+000 207 197 185
3.299337e-001 9.290062e-002 -6.817586e+000 212 203 190
-1.992677e-001 1.056649e+000 -7.676757e+000 214 63 69
8.979812e-001 4.438414e-001 -6.403232e+000 247 81 93
-3.921890e-001 2.727722e-001 -7.940084e+000 40 28 28
1.148014e+000 -2.623998e-001 -6.186447e+000 254 251 196
-3.289127e-001 5.623133e-001 -7.806019e+000 225 218 207
1.865282e-001 6.672628e-001 -7.154472e+000 197 189 180
-1.007713e+000 -3.309126e-002 -6.401612e+000 44 19 4
-2.326872e-002 1.244763e+000 -7.430455e+000 130 23 33
-9.110394e-001 5.848215e-003 -6.316331e+000 210 134 120
-4.787190e-002 1.086888e+000 -7.659380e+000 150 26 34
-9.006403e-001 4.040319e-002 -6.346929e+000 60 25 15
-1.557156e-002 1.106147e+000 -7.399473e+000 204 45 60
3.803768e-001 1.188805e+000 -7.101141e+000 220 69 78
2.061252e-001 1.227612e+000 -6.052489e+000 63 51 51
-9.179368e-002 5.060964e-001 -7.357561e+000 190 180 168
1.906348e-001 6.825825e-001 -7.236011e+000 190 181 172
-2.284628e-001 1.649035e-001 -7.264641e+000 114 97 88
-2.274498e-001 1.663216e-001 -7.217054e+000 122 106 93
-1.515525e-001 2.085059e-001 -7.097879e+000 111 95 82
5.972135e-003 1.748659e-001 -7.090926e+000 131 114 101
-4.982116e-001 -6.203949e-002 -6.751307e+000 151 67 46
-4.982116e-001 -6.203949e-002 -6.751307e+000 151 67 46
-9.183213e-002 9.589469e-002 -6.962655e+000 132 117 104
1.604232e-001 2.058680e-001 -6.973466e+000 167 151 135
5.602029e-001 6.297521e-001 -6.819600e+000 205 197 184
-4.802007e-003 1.266897e+000 -7.333158e+000 179 35 45
-1.410425e+000 -4.772651e+000 -1.029897e+001 67 58 61
2.315862e-001 9.579818e-001 -7.199621e+000 207 200 192
2.315862e-001 9.579818e-001 -7.199621e+000 207 200 192
-7.020343e-001 -1.060752e-001 -6.995231e+000 75 16 8
7.842983e-001 4.859708e-001 -6.562984e+000 198 52 59
3.123431e-001 1.091731e+000 -7.078626e+000 209 48 56
-1.160119e-001 2.278945e-001 -7.189734e+000 120 107 91
2.482227e-001 2.631610e-001 -7.015754e+000 123 107 92
1.005895e+000 1.386528e-001 -6.356807e+000 235 81 89
-4.559680e-001 -2.379970e-001 -6.696881e+000 239 136 95
-2.769852e-002 1.037096e+000 -7.371967e+000 214 205 198
-1.249843e+000 -5.148474e+000 -1.021389e+001 48 39 42
3.555008e-001 1.212984e+000 -7.003537e+000 175 38 44
-5.128327e-001 -3.289202e-002 -6.774748e+000 139 64 45
-1.667284e-001 1.303937e-001 -6.995149e+000 119 103 90
-5.685727e-001 -1.064817e-001 -6.702206e+000 114 28 13
-4.901497e-001 -2.822041e-002 -6.777141e+000 107 31 15
-3.422415e-001 -3.136074e-002 -6.889060e+000 48 13 12
-1.877484e-001 8.632298e-002 -6.935718e+000 150 133 125
-4.189157e-001 -1.146922e-001 -6.697106e+000 114 27 12
8.278034e-002 9.724397e-002 -6.953890e+000 211 199 187
-5.197582e-001 -3.519917e-001 -6.664672e+000 87 89 104
2.904613e-001 2.379522e-001 -6.931351e+000 133 117 101
5.772152e-001 1.024758e+000 -6.787883e+000 213 61 71
2.343264e-001 -3.177077e+000 -7.947717e+000 151 154 166
3.103618e-001 -3.458730e+000 -7.923971e+000 221 230 238
4.347873e-001 -2.676076e+000 -7.647531e+000 189 199 198
9.794878e-001 1.079288e-001 -6.366187e+000 206 68 72
1.017823e+000 -2.904030e+000 -6.895349e+000 141 142 136
-3.800234e-001 9.624841e-001 -7.773207e+000 168 36 45
-2.516110e-001 8.629738e-001 -7.727385e+000 219 62 70
-1.444448e+000 -4.639678e+000 -1.030320e+001 70 65 69
-1.875279e-001 5.915738e-003 -7.685288e+000 146 93 82
-2.012130e-001 -4.680342e-002 -7.650810e+000 212 204 191
-1.273728e-001 4.457497e-001 -7.398829e+000 183 171 159
-5.877738e-001 -7.702100e-002 -6.727014e+000 102 20 8
-5.054970e-001 -4.901720e-002 -6.764756e+000 112 30 15
-7.600750e-002 6.110892e-002 -6.938398e+000 172 164 151
-8.854278e-001 -8.893115e-003 -6.325370e+000 197 128 114
-4.436544e-002 4.921630e-002 -6.919780e+000 137 125 113
2.716798e-001 2.162575e-001 -6.928796e+000 154 140 120
2.104631e-001 -5.645572e-001 -6.888078e+000 113 111 104
3.982379e-001 6.587995e-002 -6.811134e+000 143 130 114
4.447879e-001 -2.643261e+000 -7.613518e+000 133 142 141
7.528431e-001 1.459496e-001 -6.579082e+000 245 238 228
9.759540e-001 -1.138557e-001 -6.388897e+000 223 82 86
-2.946606e-001 9.835649e-001 -7.748749e+000 165 29 37
-1.983406e-001 6.347476e-001 -7.659906e+000 173 164 149
-1.483430e+000 -4.485822e+000 -1.030427e+001 66 61 65
-1.227140e-001 6.018138e-001 -7.563771e+000 182 170 156
-1.250130e+000 -5.170413e+000 -1.012423e+001 90 84 88
3.058820e-001 1.132579e+000 -7.100699e+000 230 75 82
-7.661385e-001 -4.810866e+000 -9.500992e+000 84 76 77
-3.274274e-001 -1.316888e-002 -6.883026e+000 77 42 36
2.752310e-001 3.307278e-001 -7.055437e+000 172 160 146
-5.663624e-001 -2.353873e-001 -6.666770e+000 198 106 65
-4.428087e-001 -1.162514e-001 -6.740109e+000 88 25 16
6.572220e-002 1.619715e-001 -6.971939e+000 166 150 137
5.085598e-001 1.207316e-001 -6.834790e+000 142 129 113
4.869728e-001 -1.820818e+000 -7.447012e+000 112 118 115
6.727153e-001 1.778143e-001 -6.777497e+000 208 200 185
7.057665e-001 7.590424e-001 -6.561236e+000 107 14 25
8.066183e-001 5.176399e-001 -6.557901e+000 167 33 42
1.088184e+000 -1.719998e+000 -6.647351e+000 178 180 175
-2.043240e-001 9.835724e-001 -7.674560e+000 169 32 39
-2.203588e-001 3.484840e-001 -7.584478e+000 206 196 184
3.638102e-001 1.082408e+000 -7.013248e+000 234 78 82
3.761394e-001 1.011382e+000 -6.990324e+000 211 178 166
-6.772027e-001 -2.770779e-001 -6.536351e+000 64 22 24
9.734224e-002 -8.707907e-002 -6.863012e+000 235 227 214
4.163368e-001 -5.516661e-001 -6.896144e+000 248 244 227
7.850491e-001 7.862131e-001 -6.593816e+000 21 11 12
5.974208e-001 -3.323296e-001 -6.719784e+000 178 165 147
9.964774e-001 1.701031e-001 -6.370625e+000 215 59 70
-4.680482e-001 4.329421e-001 -7.869635e+000 220 209 191
-1.791483e-001 4.011509e-001 -7.619976e+000 215 207 194
-1.845193e-001 4.059726e-001 -7.466681e+000 131 117 106
-2.871512e-001 2.507667e-001 -7.864565e+000 185 46 50
-2.100923e-001 2.731564e-001 -7.685305e+000 157 139 127
-1.959662e-001 2.089737e-001 -7.323364e+000 159 146 130
1.060113e-001 7.280491e-001 -7.236866e+000 182 172 162
4.361440e-001 2.805757e-001 -7.006389e+000 145 136 121
6.001584e-001 6.247901e-001 -6.751059e+000 235 226 211
6.937724e-001 8.018595e-001 -6.600669e+000 89 13 18
9.138289e-001 4.628932e-001 -6.391438e+000 234 78 88
-1.865786e-001 4.923832e-001 -7.652931e+000 228 220 209
-2.239235e-001 1.568414e-002 -7.759237e+000 75 11 16
-1.101718e-001 2.149370e-001 -7.177770e+000 123 111 96
-2.084494e-001 -1.750594e-001 -6.828209e+000 230 220 213
8.325329e-001 1.019230e-001 -6.554929e+000 229 222 211
9.835739e-001 -3.517776e-001 -6.327062e+000 174 151 101
6.522297e-001 -4.832565e-001 -6.661313e+000 254 252 203
7.569405e-001 -2.171157e-001 -6.544103e+000 245 237 228
-3.923707e-001 9.035185e-001 -7.790597e+000 211 63 69
7.567771e-002 4.145883e-001 -7.180061e+000 151 142 127
-6.343646e-001 -1.534607e-001 -6.691782e+000 74 20 18
4.847476e-001 -5.910443e-001 -6.845510e+000 145 122 98
7.628489e-001 -1.513113e-001 -6.515339e+000 231 222 213
1.550508e-001 5.965141e-001 -7.202835e+000 144 132 122
2.598088e-001 -8.023118e-002 -6.828949e+000 252 250 240
3.416333e-001 2.414501e-001 -6.993064e+000 136 123 107
-2.563168e-002 1.276757e+000 -7.374813e+000 85 13 23
-1.630696e-001 5.132604e-001 -7.457525e+000 162 148 134
-1.973619e-001 1.807586e-001 -7.155284e+000 118 103 89
1.533590e-001 6.838546e-001 -7.207607e+000 191 184 174
-5.847412e-001 -8.135990e-002 -6.763755e+000 126 56 44
-4.568661e-001 -1.395469e-001 -6.709591e+000 126 31 15
4.309684e-001 -2.564999e+000 -7.591507e+000 180 193 183
3.852785e-001 -5.444782e-001 -6.931426e+000 232 228 216
-3.884447e-001 7.488134e-001 -7.806852e+000 174 152 139
1.431824e-001 9.467700e-001 -7.263113e+000 205 198 190
-2.519911e-001 1.197448e-001 -7.286442e+000 123 109 96
-3.300085e-001 6.753939e-002 -7.101710e+000 67 24 18
-2.175036e-001 9.600224e-002 -7.055630e+000 140 124 111
-1.075136e-001 1.688041e-001 -7.127867e+000 115 99 86
-6.889521e-002 2.154863e-001 -7.071083e+000 174 165 150
-1.870437e-002 2.078811e-001 -7.140397e+000 161 148 132
-5.976616e-001 -1.047641e-001 -6.741265e+000 81 17 8
-5.523138e-001 -6.346732e-002 -6.777314e+000 86 21 12
1.407714e-001 2.358065e-001 -6.970349e+000 163 147 131
4.440917e-002 -2.409589e-001 -6.875301e+000 209 197 184
5.190427e-001 5.735447e-001 -6.758337e+000 160 148 133
4.204406e-001 -1.411488e-001 -6.773468e+000 238 232 220
4.296360e-001 -4.898834e-002 -6.740068e+000 201 192 177
7.456007e-001 -4.966367e-001 -6.524006e+000 225 212 179
1.166554e+000 -2.237137e+000 -6.516646e+000 169 167 170
-2.386674e-001 3.014509e-001 -7.746887e+000 175 163 149
-2.386674e-001 3.014509e-001 -7.746887e+000 175 163 149
-1.566782e-001 5.952183e-001 -7.528973e+000 148 136 122
-5.108055e-001 -8.872001e-002 -6.735487e+000 180 88 59
-5.108055e-001 -8.872001e-002 -6.735487e+000 180 88 59
1.244223e-001 -2.232592e-002 -6.868518e+000 179 169 156
6.857941e-001 8.706730e-002 -6.719410e+000 208 198 189
8.292223e-001 5.083704e-001 -6.590791e+000 230 84 95
9.332010e-001 4.747199e-001 -6.383859e+000 30 15 15
1.044815e+000 -4.622258e-001 -6.305495e+000 162 56 53
-3.585865e-001 8.326281e-001 -7.724501e+000 224 69 77
-8.576246e-002 2.600563e-001 -7.220624e+000 135 121 108
-2.106036e-001 1.363150e-001 -7.000649e+000 155 139 124
-4.923797e-002 1.033805e-001 -6.981584e+000 128 115 99
3.854418e-001 1.362656e-001 -6.845544e+000 197 183 170
6.942794e-001 1.109754e-001 -6.729471e+000 194 184 172
9.349072e-001 -3.740303e-001 -6.363326e+000 216 193 139
2.595003e-004 3.702294e-002 -6.935456e+000 196 186 176
4.281940e-001 5.487458e-001 -6.974783e+000 193 181 174
5.640654e-001 -7.589063e-001 -6.832376e+000 252 252 242
9.548671e-001 -6.642079e-001 -6.398103e+000 237 98 109
1.236131e+000 -3.885232e-001 -6.160956e+000 255 246 198
1.236131e+000 -3.885232e-001 -6.160956e+000 255 246 198
-4.396861e-001 7.013278e-001 -7.917293e+000 178 38 48
-2.588839e-002 1.254954e+000 -7.359397e+000 200 53 55
1.222567e-001 5.675058e-001 -7.173088e+000 149 137 121
4.001696e-001 6.728474e-001 -6.955728e+000 252 245 237
7.349562e-001 8.495149e-001 -6.633206e+000 40 26 27
6.527108e-001 -6.394198e-001 -6.750168e+000 213 202 182
8.579083e-001 1.937953e-001 -6.493510e+000 175 157 145
8.998311e-001 -2.095128e-001 -6.463146e+000 216 202 193
1.235270e+000 -2.283246e-001 -6.172620e+000 250 242 186
8.491521e-001 8.646886e-002 -6.561481e+000 230 224 212
-2.353885e-001 -3.399233e-001 -7.673502e+000 238 231 220
6.340490e-001 7.248865e-001 -6.741132e+000 216 209 198
-5.310564e-001 -7.762216e-002 -6.743103e+000 117 27 18
8.482112e-001 -2.665745e-001 -6.467046e+000 85 70 54
-2.029301e-001 9.107682e-001 -7.612988e+000 174 158 147
6.845812e-001 5.094795e-001 -6.616169e+000 254 251 244
-2.618852e-001 -1.206666e-001 -7.767878e+000 208 201 185
1.093674e+000 -5.831061e-002 -6.306438e+000 180 46 54
-1.857129e-001 7.010505e-001 -7.603330e+000 224 217 207
-1.892757e-001 4.723431e-002 -7.640928e+000 124 59 57
-1.508450e-001 4.872833e-001 -7.459240e+000 181 168 152
-7.897482e-001 -2.814216e-001 -7.031468e+000 210 139 115
-9.150726e-001 -3.417085e-001 -6.737292e+000 218 193 173
-9.124489e-001 -3.229697e-001 -6.746859e+000 130 47 25
-2.995416e-001 1.062047e-001 -7.054535e+000 81 40 31
2.199338e-001 1.274227e+000 -7.133825e+000 182 42 51
-7.038274e-001 -2.786831e-001 -6.531891e+000 45 15 13
