ply
format ascii 1.0
element face 0
property list uchar int vertex_indices
element vertex 867
property float x
property float y
property float z
property uchar diffuse_red
property uchar diffuse_green
property uchar diffuse_blue
end_header
1.878909e-001 7.037356e-001 -7.163304e+000 197 189 180
-1.074643e+000 -4.145052e-002 -6.360485e+000 44 19 4
-3.740887e-002 1.315371e+000 -7.453732e+000 130 23 33
-9.725946e-001 4.627769e-004 -6.269965e+000 210 134 120
-6.138768e-002 1.146351e+000 -7.701079e+000 150 26 34
-9.617093e-001 3.681027e-002 -6.302571e+000 60 25 15
-2.817384e-002 1.168265e+000 -7.423253e+000 204 45 60
3.910383e-001 1.258473e+000 -7.106429e+000 220 69 78
2.088260e-001 1.299530e+000 -5.991511e+000 63 51 51
-1.065178e-001 5.319338e-001 -7.377752e+000 190 180 168
1.920523e-001 7.200223e-001 -7.249756e+000 190 181 172
-2.492918e-001 1.702147e-001 -7.279128e+000 114 97 88
-2.481523e-001 1.716377e-001 -7.228805e+000 122 106 93
-1.677680e-001 2.163264e-001 -7.102987e+000 111 95 82
-1.221598e-003 1.821594e-001 -7.095443e+000 131 114 101
-5.330030e-001 -7.210463e-002 -6.735350e+000 151 67 46
-5.330030e-001 -7.210463e-002 -6.735350e+000 151 67 46
-1.037128e-001 9.728745e-002 -6.960151e+000 132 117 104
1.628952e-001 2.146307e-001 -6.972344e+000 167 151 135
5.856149e-001 6.646572e-001 -6.810485e+000 205 197 184
-1.778149e-002 1.339649e+000 -7.352488e+000 179 35 45
-1.455808e+000 -4.932228e+000 -1.041015e+001 67 58 61
2.344519e-001 1.012336e+000 -7.211279e+000 207 200 192
2.344519e-001 1.012336e+000 -7.211279e+000 207 200 192
-7.488920e-001 -1.191861e-001 -6.993171e+000 75 16 8
8.255481e-001 5.119187e-001 -6.540409e+000 198 52 59
3.197238e-001 1.154750e+000 -7.082945e+000 209 48 56
-1.304231e-001 2.371736e-001 -7.200217e+000 120 107 91
2.553120e-001 2.760096e-001 -7.017029e+000 123 107 92
1.064014e+000 1.426846e-001 -6.324949e+000 235 81 89
-4.874843e-001 -2.567023e-001 -6.677387e+000 239 136 95
-4.121412e-002 1.095553e+000 -7.393173e+000 214 205 198
-1.286251e+000 -5.314355e+000 -1.031914e+001 48 39 42
3.652731e-001 1.283962e+000 -7.003350e+000 175 38 44
-5.491962e-001 -4.022341e-002 -6.759371e+000 139 64 45
-1.838842e-001 1.346792e-001 -6.993366e+000 119 103 90
-6.078242e-001 -1.182377e-001 -6.682364e+000 114 28 13
-5.249614e-001 -3.564982e-002 -6.762355e+000 107 31 15
-3.682900e-001 -3.820827e-002 -6.881413e+000 48 13 12
-2.056395e-001 8.741406e-002 -6.930769e+000 150 133 125
-4.489030e-001 -1.268313e-001 -6.677917e+000 114 27 12
8.083541e-002 9.995929e-002 -6.951021e+000 211 199 187
-5.542833e-001 -3.778459e-001 -6.643604e+000 87 89 104
3.000135e-001 2.497456e-001 -6.927638e+000 133 117 101
6.021967e-001 1.084287e+000 -6.775879e+000 213 61 71
2.530696e-001 -3.320550e+000 -7.996251e+000 151 154 166
3.331487e-001 -3.609740e+000 -7.970184e+000 221 230 238
4.617313e-001 -2.801576e+000 -7.683355e+000 189 199 198
1.036441e+000 1.097758e-001 -6.335053e+000 206 68 72
1.082223e+000 -3.051542e+000 -6.902378e+000 141 142 136
-4.146146e-001 1.014658e+000 -7.818089e+000 168 36 45
-2.775552e-001 9.087828e-001 -7.770276e+000 219 62 70
-1.492395e+000 -4.796879e+000 -1.041560e+001 70 65 69
-2.059625e-001 2.914701e-003 -7.723297e+000 146 93 82
-2.198991e-001 -5.265078e-002 -7.686971e+000 212 204 191
-1.517581e-001 4.758266e-001 -7.412222e+000 183 171 159
-6.283789e-001 -8.717758e-002 -6.708482e+000 102 20 8
-5.412754e-001 -5.734284e-002 -6.748870e+000 112 30 15
-8.718181e-002 6.125066e-002 -6.934049e+000 172 164 151
-9.453303e-001 -1.496794e-002 -6.279679e+000 197 128 114
-5.340841e-002 4.843358e-002 -6.914738e+000 137 125 113
2.802273e-001 2.267528e-001 -6.924871e+000 154 140 120
2.194209e-001 -5.985810e-001 -6.883403e+000 113 111 104
4.156622e-001 6.735602e-002 -6.801602e+000 143 130 114
4.722796e-001 -2.767856e+000 -7.647916e+000 133 142 141
7.930779e-001 1.515346e-001 -6.558284e+000 245 238 228
1.033212e+000 -1.251240e-001 -6.359956e+000 223 82 86
-3.243312e-001 1.037317e+000 -7.792086e+000 165 29 37
-2.199698e-001 6.672572e-001 -7.698283e+000 173 164 149
-1.534232e+000 -4.640518e+000 -1.041838e+001 66 61 65
-1.397545e-001 6.329305e-001 -7.596336e+000 182 170 156
-1.286238e+000 -5.341293e+000 -1.022917e+001 90 84 88
3.125403e-001 1.198340e+000 -7.106117e+000 230 75 82
-7.865377e-001 -4.979898e+000 -9.591726e+000 84 76 77
-3.527397e-001 -1.884530e-002 -6.875018e+000 77 42 36
2.834016e-001 3.477001e-001 -7.058948e+000 172 160 146
-6.043715e-001 -2.550399e-001 -6.645469e+000 198 106 65
-4.747932e-001 -1.272718e-001 -6.722591e+000 88 25 16
6.244262e-002 1.683622e-001 -6.969997e+000 166 150 137
5.321574e-001 1.257627e-001 -6.826995e+000 142 129 113
5.142071e-001 -1.912122e+000 -7.473843e+000 112 118 115
7.065710e-001 1.860156e-001 -6.767421e+000 208 200 185
7.412212e-001 8.016089e-001 -6.537295e+000 107 14 25
8.500550e-001 5.446108e-001 -6.535662e+000 167 33 42
1.155108e+000 -1.816380e+000 -6.639237e+000 178 180 175
-2.269768e-001 1.036435e+000 -7.715513e+000 169 32 39
-2.419494e-001 3.644384e-001 -7.617682e+000 206 196 184
3.748993e-001 1.144843e+000 -7.014212e+000 234 78 82
3.878912e-001 1.069722e+000 -6.989543e+000 211 178 166
-7.216902e-001 -2.992875e-001 -6.506627e+000 64 22 24
9.708050e-002 -9.446611e-002 -6.854994e+000 235 227 214
4.363904e-001 -5.833015e-001 -6.892220e+000 248 244 227
8.252746e-001 8.307417e-001 -6.572195e+000 21 11 12
6.289355e-001 -3.536169e-001 -6.707327e+000 178 165 147
1.053689e+000 1.765639e-001 -6.339669e+000 215 59 70
-5.044674e-001 4.519525e-001 -7.919945e+000 220 209 191
-1.989550e-001 4.205760e-001 -7.654921e+000 215 207 194
-2.086652e-001 4.303534e-001 -7.487403e+000 131 117 106
-3.121837e-001 2.605135e-001 -7.913929e+000 185 46 50
-2.317398e-001 2.873313e-001 -7.724308e+000 157 139 127
-2.151238e-001 2.168468e-001 -7.341445e+000 159 146 130
1.020585e-001 7.681399e-001 -7.250137e+000 182 172 162
4.463325e-001 3.014451e-001 -7.002479e+000 145 136 121
6.292328e-001 6.589514e-001 -6.738961e+000 235 226 211
7.278751e-001 8.473523e-001 -6.578715e+000 89 13 18
9.650923e-001 4.866220e-001 -6.359884e+000 234 78 88
-2.068744e-001 5.166750e-001 -7.690548e+000 228 220 209
-2.388168e-001 7.794395e-003 -7.809550e+000 75 11 16
-1.242610e-001 2.236508e-001 -7.187419e+000 123 111 96
-2.258942e-001 -1.892239e-001 -6.817501e+000 230 220 213
8.783588e-001 1.046341e-001 -6.533646e+000 229 222 211
1.042292e+000 -3.771026e-001 -6.295445e+000 174 151 101
6.873117e-001 -5.121895e-001 -6.645903e+000 254 252 203
7.989762e-001 -2.327692e-001 -6.522563e+000 245 237 228
-4.271473e-001 9.523143e-001 -7.837968e+000 211 63 69
7.597550e-002 4.322986e-001 -7.194012e+000 151 142 127
-6.775144e-001 -1.674127e-001 -6.670715e+000 74 20 18
5.091253e-001 -6.248210e-001 -6.839261e+000 145 122 98
8.054215e-001 -1.636713e-001 -6.492119e+000 231 222 213
1.568415e-001 6.264886e-001 -7.216084e+000 144 132 122
2.692592e-001 -8.686231e-002 -6.819769e+000 252 250 240
3.547124e-001 2.515097e-001 -6.993279e+000 136 123 107
-3.814029e-002 1.348890e+000 -7.397818e+000 85 13 23
-1.821517e-001 5.392717e-001 -7.483405e+000 162 148 134
-2.168018e-001 1.877937e-001 -7.162844e+000 118 103 89
1.528954e-001 7.209591e-001 -7.219864e+000 191 184 174
-6.249459e-001 -9.202993e-002 -6.747735e+000 126 56 44
-4.890555e-001 -1.528792e-001 -6.690848e+000 126 31 15
4.582743e-001 -2.687909e+000 -7.625578e+000 180 193 183
4.047827e-001 -5.775302e-001 -6.930528e+000 232 228 216
-4.225770e-001 7.878881e-001 -7.853065e+000 174 152 139
1.409436e-001 9.998140e-001 -7.278680e+000 205 198 190
-2.738976e-001 1.222863e-001 -7.302237e+000 123 109 96
-3.565179e-001 6.739483e-002 -7.105901e+000 67 24 18
-2.371778e-001 9.748460e-002 -7.057807e+000 140 124 111
-1.211035e-001 1.748857e-001 -7.134613e+000 115 99 86
-8.046907e-002 2.245334e-001 -7.074484e+000 174 165 150
-2.785745e-002 2.173488e-001 -7.147424e+000 161 148 132
-6.391447e-001 -1.154239e-001 -6.723058e+000 81 17 8
-5.912829e-001 -7.172269e-002 -6.761463e+000 86 21 12
1.417559e-001 2.466759e-001 -6.968568e+000 163 147 131
4.268041e-002 -2.584814e-001 -6.868993e+000 209 197 184
5.426462e-001 6.045945e-001 -6.745715e+000 160 148 133
4.404646e-001 -1.516869e-001 -6.762518e+000 238 232 220
4.496495e-001 -5.385629e-002 -6.726838e+000 201 192 177
7.881580e-001 -5.283377e-001 -6.502238e+000 225 212 179
1.239384e+000 -2.357924e+000 -6.503426e+000 169 167 170
-2.614921e-001 3.150133e-001 -7.788905e+000 175 163 149
-2.614921e-001 3.150133e-001 -7.788905e+000 175 163 149
-1.755971e-001 6.258191e-001 -7.559513e+000 148 136 122
-5.466064e-001 -9.937498e-002 -6.717863e+000 180 88 59
-5.466064e-001 -9.937498e-002 -6.717863e+000 180 88 59
1.253716e-001 -2.575433e-002 -6.860757e+000 179 169 156
7.201878e-001 9.018398e-002 -6.705723e+000 208 198 189
8.731533e-001 5.354953e-001 -6.570210e+000 230 84 95
9.857881e-001 4.987713e-001 -6.352177e+000 30 15 15
1.106717e+000 -4.928071e-001 -6.272938e+000 162 56 53
-3.908332e-001 8.763868e-001 -7.766967e+000 224 69 77
-9.872242e-002 2.716122e-001 -7.232759e+000 135 121 108
-2.299615e-001 1.399959e-001 -6.999638e+000 155 139 124
-5.888996e-002 1.058789e-001 -6.979982e+000 128 115 99
4.017606e-001 1.418824e-001 -6.837807e+000 197 183 170
7.385502e-001 1.118992e-001 -6.723010e+000 194 184 172
9.889777e-001 -3.983597e-001 -6.333031e+000 216 193 139
-6.452527e-003 3.657308e-002 -6.931012e+000 196 186 176
4.450500e-001 5.788226e-001 -6.974074e+000 193 181 174
5.935995e-001 -8.012327e-001 -6.826151e+000 252 252 242
1.011936e+000 -7.061399e-001 -6.371512e+000 237 98 109
1.311616e+000 -4.164701e-001 -6.121349e+000 255 246 198
1.311616e+000 -4.164701e-001 -6.121349e+000 255 246 198
-4.762836e-001 7.367303e-001 -7.970533e+000 178 38 48
-3.559342e-002 1.323143e+000 -7.382363e+000 200 53 55
1.197797e-001 5.983990e-001 -7.182385e+000 149 137 121
4.150440e-001 7.101968e-001 -6.953638e+000 252 245 237
7.716295e-001 8.977026e-001 -6.613561e+000 40 26 27
6.891361e-001 -6.780219e-001 -6.741012e+000 213 202 182
8.968423e-001 2.085820e-001 -6.465751e+000 175 157 145
9.511501e-001 -2.249454e-001 -6.437930e+000 216 202 193
1.312739e+000 -2.492312e-001 -6.134249e+000 250 242 186
8.960587e-001 8.815048e-002 -6.540755e+000 230 224 212
-2.547050e-001 -3.612873e-001 -7.710112e+000 238 231 220
6.665987e-001 7.660194e-001 -6.730166e+000 216 209 198
-5.677044e-001 -8.859396e-002 -6.726552e+000 117 27 18
8.969742e-001 -2.858971e-001 -6.442162e+000 85 70 54
-2.094984e-001 9.461304e-001 -7.668021e+000 174 158 147
7.194367e-001 5.365695e-001 -6.596244e+000 254 251 244
-2.840487e-001 -1.302141e-001 -7.809853e+000 208 201 185
1.157848e+000 -6.590119e-002 -6.272818e+000 180 46 54
-2.072125e-001 7.380125e-001 -7.638037e+000 224 217 207
-2.074487e-001 4.585533e-002 -7.677298e+000 124 59 57
-1.694847e-001 5.122384e-001 -7.484700e+000 181 168 152
-8.417902e-001 -3.027571e-001 -7.029837e+000 210 139 115
-9.740854e-001 -3.671473e-001 -6.718073e+000 218 193 173
-9.713887e-001 -3.474637e-001 -6.728205e+000 130 47 25
-3.243826e-001 1.082514e-001 -7.056144e+000 81 40 31
2.192757e-001 1.349752e+000 -7.139679e+000 182 42 51
-7.506410e-001 -2.996836e-001 -6.501066e+000 45 15 13
-7.452122e-001 -2.946880e-001 -6.486081e+000 163 160 148
1.953992e-001 1.296220e-001 -6.911514e+000 183 171 156
1.953992e-001 1.296220e-001 -6.911514e+000 183 171 156
3.517288e-001 -3.668383e-002 -6.772231e+000 254 245 236
6.552793e-001 -1.255555e+000 -7.081293e+000 127 126 122
5.095161e-001 -4.721889e-001 -6.901673e+000 154 137 115
7.203862e-001 -1.532038e+000 -7.071630e+000 157 159 156
7.782601e-001 -1.507858e+000 -6.981868e+000 174 176 175
7.998432e-001 7.424525e-001 -6.539977e+000 250 75 85
1.016901e+000 -1.770442e+000 -6.784306e+000 183 183 185
1.107793e+000 -3.038525e+000 -6.800248e+000 162 157 163
1.107793e+000 -3.038525e+000 -6.800248e+000 162 157 163
1.046015e+000 -1.811808e+000 -6.739433e+000 182 181 187
1.005088e+000 -1.165716e+000 -6.660825e+000 171 166 170
9.268217e-001 6.624591e-001 -6.486195e+000 81 68 68
9.996429e-001 -4.547201e-003 -6.316764e+000 232 92 100
1.357923e+000 -6.097498e-001 -6.117186e+000 155 149 153
-3.340592e-001 6.560595e-001 -7.791609e+000 237 233 222
-1.291479e-001 8.294144e-001 -7.431453e+000 212 202 193
-2.503242e-001 -1.436862e-001 -7.635364e+000 178 165 150
1.257941e-001 1.025248e+000 -7.288892e+000 217 210 200
4.717972e-002 6.752444e-001 -7.278460e+000 237 229 218
-9.890342e-001 -3.684250e-001 -6.727494e+000 39 17 15
-2.404567e-001 1.541717e-001 -7.086316e+000 140 124 111
-3.565828e-002 -3.795396e+000 -8.362464e+000 184 192 194
-4.390265e-001 -8.778833e-002 -6.813560e+000 82 18 14
-4.389272e-001 -5.302634e-002 -6.801350e+000 87 23 13
-3.670079e-001 -4.688159e-002 -6.934467e+000 53 13 13
-5.242190e-001 -2.228174e-001 -6.675207e+000 250 148 120
3.188362e-001 2.456157e-001 -6.985063e+000 159 142 126
3.773718e-001 -5.360597e-001 -6.951176e+000 168 148 111
6.589420e-001 9.997724e-001 -6.683431e+000 216 73 82
9.031053e-001 -2.310110e+000 -6.930700e+000 170 170 172
9.042397e-001 -1.367531e+000 -6.881649e+000 169 169 169
6.733884e-001 -3.089010e-001 -6.639366e+000 183 171 159
9.945241e-001 -1.851634e+000 -6.849389e+000 153 154 156
8.511200e-001 7.514035e-001 -6.514950e+000 76 63 64
1.218200e+000 -2.465751e+000 -6.520850e+000 167 165 168
1.039093e+000 -4.395563e-001 -6.300859e+000 191 168 118
1.303665e+000 -2.270920e-001 -6.092476e+000 149 140 141
1.351736e+000 -1.757049e-001 -6.119414e+000 142 138 138
-3.723856e-001 2.890791e-001 -8.030852e+000 56 47 42
-3.320459e-001 6.787213e-002 -7.856438e+000 153 25 32
-1.679662e-001 5.886205e-001 -7.624555e+000 204 194 182
-3.022726e-002 1.132329e+000 -7.425978e+000 223 207 194
2.967457e-003 1.343500e+000 -7.373599e+000 75 8 16
-2.104968e-001 5.281795e-001 -7.459899e+000 147 134 119
3.696779e-002 6.204476e-001 -7.294179e+000 214 205 194
-8.454293e-001 -2.405399e-001 -6.460888e+000 47 11 17
4.854117e-001 1.252631e+000 -6.931860e+000 72 58 55
7.201969e-001 -1.579496e+000 -7.146899e+000 158 163 157
5.500211e-001 -3.302920e-001 -6.833564e+000 180 169 149
6.705152e-001 -1.106532e+000 -7.016043e+000 154 153 149
5.399702e-001 -3.222995e-001 -6.784838e+000 254 250 238
7.318455e-001 9.217935e-001 -6.645372e+000 213 70 78
7.732526e-001 8.829274e-001 -6.597805e+000 23 14 17
9.804574e-001 -1.868124e+000 -6.827351e+000 179 180 182
9.600033e-001 -1.742536e+000 -6.809449e+000 190 190 192
7.160949e-001 -3.931581e-001 -6.498592e+000 231 211 155
1.147219e+000 5.855538e-003 -6.218006e+000 229 103 110
-2.345667e-001 2.840449e-001 -7.392927e+000 177 165 149
3.126483e-001 1.259483e+000 -7.074040e+000 209 49 61
6.094054e-001 -4.985277e-001 -6.832929e+000 214 209 190
8.054751e-001 -7.286450e-001 -6.654310e+000 254 253 249
-5.948876e-001 5.722762e-001 -8.177119e+000 230 75 79
-1.164184e-001 7.483743e-001 -7.477846e+000 136 123 110
-1.181408e-001 7.956058e-001 -7.400857e+000 169 155 143
-4.686164e-001 -1.365001e-001 -7.237309e+000 124 117 119
-4.817378e-001 -1.373306e-002 -7.092008e+000 90 38 25
-4.852643e-001 -8.592645e-003 -7.088214e+000 90 38 25
3.343698e-001 1.297819e+000 -7.041083e+000 229 73 86
-8.539344e-001 -2.448331e-001 -6.505406e+000 51 22 10
1.318256e-001 -5.024927e-002 -6.846210e+000 254 255 243
4.756217e-001 3.629292e-001 -6.977650e+000 211 201 192
6.971710e-001 -9.200184e-001 -6.806087e+000 169 51 49
8.396715e-001 -1.765538e+000 -6.922123e+000 156 158 157
8.331387e-001 -7.565124e-001 -6.627842e+000 220 211 196
1.343134e+000 -4.981645e-001 -6.144167e+000 127 123 124
-2.145687e-001 3.827300e-001 -7.587901e+000 147 134 117
-5.537590e-001 -1.357258e-001 -7.241754e+000 129 127 126
-6.922711e-001 -2.521251e-001 -6.611908e+000 149 70 48
3.588587e-001 1.087682e+000 -7.016326e+000 249 241 239
6.481802e-002 -1.558697e-002 -6.912736e+000 141 128 115
6.481802e-002 -1.558697e-002 -6.912736e+000 141 128 115
4.377247e-001 7.794122e-001 -6.994297e+000 249 245 236
4.012553e-001 -6.420372e-001 -6.879498e+000 228 222 210
5.078775e-001 -2.499564e-001 -6.749426e+000 253 246 236
6.958994e-001 -8.368235e-001 -6.732658e+000 248 237 228
6.800915e-001 -8.154025e-001 -6.722928e+000 248 237 228
6.865715e-001 -1.281259e-001 -6.582362e+000 245 241 232
1.077212e+000 -5.891456e-001 -6.349621e+000 178 35 39
1.155134e+000 3.883902e-002 -6.243633e+000 125 15 24
1.155134e+000 3.883902e-002 -6.243633e+000 125 15 24
1.333280e+000 -4.271875e-001 -6.139821e+000 255 251 205
-3.026325e-001 -3.829355e-001 -7.837460e+000 223 216 205
-2.547716e-001 -1.045430e-001 -6.825466e+000 94 33 32
-3.246440e-001 -2.203464e-001 -6.658293e+000 112 25 18
-3.147631e-001 5.738761e-001 -7.764819e+000 229 222 212
-6.075355e-001 -3.031026e-001 -6.647716e+000 246 208 163
-1.574654e-001 -1.499238e-001 -6.822601e+000 253 246 240
1.369158e-001 2.066193e-001 -6.993793e+000 222 214 203
-4.799602e-001 8.950064e-001 -7.957348e+000 215 62 67
-5.287049e-001 5.617340e-001 -8.042435e+000 194 184 172
-6.239805e-001 6.628119e-001 -8.112952e+000 202 46 50
-2.311027e-001 1.300720e-001 -7.647604e+000 88 17 24
-2.311027e-001 1.300720e-001 -7.647604e+000 88 17 24
-1.603658e-001 9.244659e-001 -7.422785e+000 229 222 212
5.356160e-001 6.094810e-001 -6.926703e+000 233 226 216
1.261482e+000 -3.281425e-001 -6.179453e+000 255 251 203
4.999813e-001 1.221654e-001 -6.750277e+000 154 141 123
9.444993e-001 6.947013e-002 -6.495494e+000 253 246 240
-3.961571e-001 1.042214e+000 -7.911971e+000 21 12 15
1.470518e-001 1.322756e+000 -7.467654e+000 16 7 10
-3.689113e-001 6.354292e-001 -7.825493e+000 226 220 208
-1.392018e+000 -1.200491e+001 -1.090847e+001 96 98 111
7.685295e-001 6.015204e-001 -6.585685e+000 244 76 87
-8.197086e-002 8.153810e-001 -7.607121e+000 222 214 203
-7.279575e-002 3.602336e-001 -7.315407e+000 145 132 115
-1.840757e-001 6.693919e-001 -7.477034e+000 168 155 141
1.053203e+000 -1.024695e+000 -6.578925e+000 142 141 139
5.973487e-001 5.517930e-001 -6.822124e+000 170 158 142
-2.617615e-001 -2.335449e-001 -7.764270e+000 178 166 150
-2.241808e-001 2.830766e-001 -7.581678e+000 175 163 151
-1.243198e-001 7.852878e-001 -7.435670e+000 187 175 161
2.065178e-001 1.175435e+000 -7.221456e+000 216 61 69
1.198228e-001 -3.773409e+000 -8.204986e+000 179 188 183
-6.198034e-001 -7.495947e-002 -6.754835e+000 83 19 10
-3.173441e-001 1.663194e-003 -6.941951e+000 63 23 19
7.253996e-001 -1.620149e+000 -7.123796e+000 116 122 118
-6.603308e-001 6.343179e-001 -8.229131e+000 44 33 30
-4.134235e-001 7.799880e-001 -7.861900e+000 169 155 139
-2.226375e-001 1.463626e-001 -7.226797e+000 152 136 121
-2.226375e-001 1.463626e-001 -7.226797e+000 152 136 121
-2.172041e-001 1.566462e-001 -7.236206e+000 121 105 90
2.381163e-001 2.981660e-001 -7.037794e+000 145 131 118
3.092379e-001 2.537301e-001 -6.984467e+000 159 142 126
6.518470e-001 -8.948100e-002 -6.637805e+000 239 231 220
1.029507e+000 -2.996059e+000 -6.918243e+000 164 162 165
8.691611e-001 5.905324e-001 -6.519669e+000 192 49 57
1.024347e+000 -2.610577e-001 -6.404714e+000 139 113 100
-1.529433e-001 6.059232e-001 -7.612997e+000 191 179 165
-2.003113e-001 3.564154e-001 -7.468081e+000 172 158 145
4.644450e-001 2.186030e-003 -6.723768e+000 177 166 147
8.908033e-001 -2.823054e-001 -6.482069e+000 158 141 129
9.700591e-001 -3.793060e-001 -6.324231e+000 227 205 154
1.038753e+000 -6.472685e-001 -6.339557e+000 235 106 111
8.149957e-002 6.131669e-001 -7.230022e+000 158 145 129
5.164136e-001 5.279951e-001 -6.923587e+000 166 157 144
6.293540e-001 7.660737e-001 -6.788031e+000 193 183 174
1.771260e+000 -1.101873e+001 -6.576855e+000 99 102 133
1.451234e+000 -1.046404e+001 -6.641300e+000 108 113 143
-4.966799e-001 7.566630e-001 -7.947020e+000 179 40 48
2.718961e-001 1.190591e+000 -7.126223e+000 217 62 68
-5.119080e-001 5.611215e-001 -8.044738e+000 195 185 173
2.756987e-001 8.649484e-001 -7.111732e+000 156 144 130
-4.314838e-001 9.930192e-001 -7.831900e+000 177 41 54
-1.759909e-001 -2.189644e+000 -8.303891e+000 153 160 152
-1.860070e-001 1.246352e-001 -7.706561e+000 140 35 37
-8.322588e-001 -3.030617e-001 -7.045137e+000 102 34 16
-3.288127e-002 1.345536e+000 -7.358056e+000 175 36 46
-8.090870e-001 -2.881270e-001 -7.022976e+000 160 166 153
-7.983900e-001 -2.043576e-001 -7.035899e+000 172 80 53
-2.834913e-001 1.289208e-001 -7.286049e+000 123 106 94
-1.373286e-001 1.553444e-001 -7.167880e+000 119 103 88
-7.909969e-002 2.299415e-001 -7.161460e+000 153 137 122
-3.439611e-001 2.556522e-002 -6.907305e+000 107 79 68
-2.000388e-001 8.090908e-002 -6.934590e+000 156 140 127
-5.782036e-002 3.078611e-002 -6.935160e+000 182 168 156
-3.890410e-002 2.583669e-002 -6.912514e+000 143 130 117
2.811228e-002 -2.015441e-001 -6.842241e+000 212 199 184
7.068510e-001 -1.964859e+000 -7.197488e+000 137 137 139
7.567586e-001 -1.992446e+000 -7.191694e+000 132 133 135
6.643819e-001 -1.603108e+000 -7.117975e+000 183 183 183
6.027988e-001 -7.105547e-001 -6.816387e+000 236 219 199
9.168459e-001 -5.004806e-001 -6.600586e+000 172 152 126
1.029963e+000 4.735571e-001 -6.573154e+000 218 75 79
1.109542e+000 -5.488008e-001 -6.313782e+000 203 124 111
1.439874e+000 -1.149996e+000 -6.135568e+000 143 137 137
1.389439e+000 -5.520141e-001 -6.123114e+000 167 161 161
-5.928953e-001 5.945833e-001 -8.090825e+000 238 75 81
-2.638319e-001 -6.531129e-003 -7.787663e+000 169 95 86
-2.257067e-001 -2.486129e+000 -8.427804e+000 155 162 155
-1.565033e-001 -1.649380e+000 -8.171208e+000 165 169 163
-1.593246e-001 -8.855177e-001 -8.043569e+000 140 140 132
-1.593246e-001 -8.855177e-001 -8.043569e+000 140 140 132
-1.721464e-001 5.709723e-001 -7.580344e+000 169 156 140
-1.261369e-001 8.244413e-001 -7.502066e+000 209 199 187
-2.409988e-001 -1.536160e-001 -7.457460e+000 246 242 229
-5.113576e-001 -5.207770e-002 -7.026785e+000 82 41 36
-2.224041e-001 1.975919e-001 -7.177417e+000 155 137 124
1.457732e-001 9.988656e-001 -7.287915e+000 214 205 196
1.435093e-001 1.001563e+000 -7.286267e+000 214 205 196
-1.036455e+000 -2.595176e-001 -6.495890e+000 177 159 132
-2.467250e-001 1.353143e-001 -6.988648e+000 113 95 83
1.898628e-001 2.596262e-001 -7.044090e+000 133 117 101
3.182096e-001 1.290981e+000 -7.060134e+000 201 47 54
3.378868e-001 2.089058e-001 -6.975767e+000 137 119 104
7.317831e-001 -2.657352e+000 -7.311188e+000 188 186 187
1.009359e+000 -2.649279e+000 -6.931253e+000 159 157 162
7.352147e-001 -6.571041e-001 -6.725762e+000 255 255 210
6.863430e-001 6.465555e-001 -6.641172e+000 155 132 116
8.463605e-001 1.034682e-001 -6.599548e+000 247 240 230
1.045273e+000 -1.131708e+000 -6.656805e+000 141 139 142
7.883989e-001 1.005868e+000 -6.554635e+000 67 55 55
8.916245e-001 5.575674e-001 -6.523787e+000 221 74 80
9.801724e-001 -3.892672e-001 -6.332125e+000 226 209 157
9.945608e-001 4.792845e-001 -6.376473e+000 227 75 88
1.100478e+000 -4.886152e-001 -6.268205e+000 175 43 49
1.560161e+000 -1.266903e+000 -6.092469e+000 130 126 125
1.433673e+000 -7.520306e-001 -6.092135e+000 168 164 163
1.273169e+000 -3.047655e-001 -6.098704e+000 155 144 141
1.507299e+000 -1.185399e+000 -6.049520e+000 121 117 114
-2.479115e-001 -2.208796e+000 -8.355564e+000 202 208 204
-1.811271e-001 7.145507e-001 -7.554295e+000 155 146 131
-9.938675e-001 -3.577913e-001 -6.700791e+000 34 8 3
2.060582e-001 9.141051e-001 -7.221560e+000 215 206 196
9.735668e-002 2.906679e-001 -7.025272e+000 145 127 107
1.301255e-001 -9.833066e-002 -6.837306e+000 219 210 194
4.611394e-001 -5.330225e-001 -6.916799e+000 203 186 139
5.018735e-001 -4.379645e-001 -6.801266e+000 145 122 78
8.120048e-001 -1.018228e+000 -6.780710e+000 132 123 124
7.316060e-001 -7.510035e-001 -6.532925e+000 138 136 141
7.777333e-001 -6.907199e-001 -6.638869e+000 253 253 244
8.155313e-001 -6.481875e-001 -6.629151e+000 254 243 184
1.641214e+000 -7.452090e+000 -6.286222e+000 56 54 65
1.058590e+000 -4.703708e-001 -6.290540e+000 252 230 176
1.160361e+000 5.673810e-002 -6.202961e+000 186 118 116
1.395225e+000 -5.323881e-001 -6.100938e+000 169 163 161
1.429356e+000 -7.638613e-001 -6.059077e+000 148 142 142
1.429356e+000 -7.638613e-001 -6.059077e+000 148 142 142
-3.461760e-001 2.275703e-002 -7.902209e+000 78 55 49
-2.293135e-001 1.148084e+000 -7.593620e+000 200 59 64
-3.011638e-001 2.781002e-001 -7.681047e+000 215 196 182
-1.811753e-001 -1.891164e+000 -8.335151e+000 154 159 153
-1.534666e-001 1.320330e-001 -7.725611e+000 130 15 23
-8.286730e-001 -3.218243e-001 -6.989819e+000 169 164 148
-7.995798e-001 -1.727072e-001 -6.974303e+000 97 29 16
-2.098392e-001 1.715154e-001 -7.327036e+000 122 105 94
5.905838e-002 1.191329e+000 -7.307650e+000 229 72 78
-1.035771e+000 -2.504050e-001 -6.512775e+000 62 27 13
-5.987740e-001 -2.676660e-001 -6.648373e+000 196 111 76
-2.257737e-001 -1.358258e-001 -6.822735e+000 95 25 19
4.462552e-001 -5.427889e-001 -6.861774e+000 132 111 77
4.851829e-001 -5.863580e-001 -6.884540e+000 132 111 77
7.162827e-001 7.550065e-001 -6.690268e+000 194 41 51
3.421912e+000 -1.125497e+001 -6.403462e+000 73 71 84
3.011773e+000 -9.249823e+000 -5.918828e+000 91 92 110
1.447239e+000 -7.665345e-001 -6.139195e+000 133 127 127
1.294194e+000 -1.341050e-001 -6.170476e+000 158 153 150
-1.927796e-001 1.083758e+000 -7.655874e+000 191 51 54
-2.019834e-001 4.468850e-001 -7.680130e+000 168 154 135
-2.447850e-001 -1.566090e-001 -6.800448e+000 246 244 229
2.672948e-001 -6.233776e-001 -6.903232e+000 248 247 236
2.672948e-001 -6.233776e-001 -6.903232e+000 248 247 236
7.133741e-001 -1.100116e+000 -6.959785e+000 169 167 169
8.976334e-001 -7.444659e-001 -6.510981e+000 249 242 236
1.060131e+000 4.941059e-001 -6.397829e+000 92 83 81
2.526431e+000 -1.081458e+001 -5.965313e+000 111 112 140
2.988400e+000 -9.433264e+000 -6.083516e+000 17 14 23
3.076019e+000 -9.682511e+000 -6.004037e+000 78 77 91
1.227230e+000 -1.166751e-001 -6.212996e+000 157 145 143
2.988463e+000 -1.032991e+001 -5.780169e+000 91 94 116
3.110337e+000 -1.033341e+001 -5.754842e+000 19 16 26
3.154449e+000 -1.019428e+001 -5.737633e+000 101 105 130
-4.916069e-001 5.180725e-001 -7.926849e+000 185 170 157
-2.784231e-001 5.159473e-001 -7.759441e+000 200 190 178
-2.162056e-001 3.382734e-001 -7.658764e+000 219 212 193
-1.440503e-001 7.196020e-001 -7.604871e+000 198 189 174
-4.183973e-001 -2.538907e-001 -6.689121e+000 144 29 20
4.617500e-001 4.370867e-001 -6.960295e+000 196 184 172
5.614801e-001 1.805039e-001 -6.871087e+000 169 157 143
1.324242e+000 -3.144992e-001 -6.100795e+000 160 153 154
-2.268650e-001 -1.215443e-001 -7.604553e+000 196 185 167
-7.585357e-001 -1.203412e-001 -7.135706e+000 80 23 13
-9.591426e-001 -2.918308e-001 -6.632335e+000 211 122 87
1.669007e-001 3.656094e-001 -7.083287e+000 210 202 187
8.601687e-002 -5.013197e-001 -6.897595e+000 255 255 245
4.540093e-001 1.206237e+000 -6.905475e+000 222 69 74
4.501818e-001 -4.649863e-001 -6.829742e+000 254 251 203
9.488627e-001 4.748785e-001 -6.375161e+000 232 85 86
-8.672836e-002 7.583210e-001 -7.360481e+000 233 225 214
2.439812e-001 -3.057542e-001 -6.864921e+000 101 79 56
-2.369635e-001 1.021142e+000 -7.700147e+000 200 53 60
-1.993756e-001 8.713800e-001 -7.543136e+000 229 221 208
1.293345e-001 5.744151e-002 -6.891009e+000 157 145 129
8.735617e-001 1.922273e-001 -6.547907e+000 252 251 241
-6.103906e-001 6.474976e-001 -8.132349e+000 207 52 56
-1.931601e-001 2.632114e-001 -7.671481e+000 199 187 173
-8.749567e-001 -1.788915e-001 -7.048121e+000 152 157 143
7.030369e-001 7.056352e-001 -6.628447e+000 149 35 40
8.057918e-001 6.905095e-001 -6.542142e+000 242 76 86
1.536620e-001 6.300494e-001 -7.212272e+000 155 140 126
-3.028937e-001 -5.126962e-002 -6.855684e+000 93 34 29
2.787247e-001 8.639314e-001 -7.117287e+000 156 142 129
8.379610e-001 5.201615e-001 -6.469639e+000 152 25 33
-2.834498e-001 1.297973e-001 -7.862599e+000 135 15 28
1.004725e+000 -4.200547e-002 -6.449239e+000 243 236 226
3.746021e-001 6.000436e-001 -7.053989e+000 230 222 211
4.567382e-001 8.740139e-001 -6.895651e+000 241 234 228
-1.192538e-001 1.306967e+000 -7.579251e+000 29 20 23
9.914709e-001 6.884776e-001 -6.578891e+000 83 69 66
-7.636525e-003 9.080849e-001 -7.037012e+000 216 208 195
-1.929217e-001 9.800441e-001 -7.671195e+000 214 207 190
-2.138406e-001 3.135091e-001 -7.508022e+000 163 151 137
-3.487616e-001 7.664057e-001 -7.837939e+000 211 200 188
-9.301090e-001 -3.747320e-001 -6.742034e+000 154 152 151
-1.985141e-001 1.696177e-001 -7.220086e+000 121 105 92
-5.994557e-001 -6.629813e-002 -6.741523e+000 144 70 54
5.863178e-001 7.399915e-001 -6.761254e+000 204 190 178
7.378298e-001 8.294327e-001 -6.551213e+000 167 54 60
1.371748e+000 -1.145986e+000 -6.236560e+000 135 131 132
1.096389e+000 9.881206e-002 -6.345265e+000 224 83 90
-1.712869e-001 6.253755e-001 -7.674504e+000 165 154 138
4.181035e-002 6.796379e-001 -7.277555e+000 229 221 210
-4.041712e-001 -2.033723e-001 -6.678217e+000 132 41 27
1.144784e+000 -8.865699e-001 -6.406077e+000 133 127 128
9.136877e-001 2.330720e-001 -6.473647e+000 249 239 232
-5.539837e-001 -2.219057e-001 -7.273085e+000 58 18 19
-5.539837e-001 -2.219057e-001 -7.273085e+000 58 18 19
4.667843e-001 5.277572e-001 -6.936729e+000 206 194 180
5.179227e-001 5.223909e-001 -6.971829e+000 171 161 149
6.373405e-001 -3.646002e-001 -6.714907e+000 177 165 146
6.775304e-001 8.059557e-001 -6.711457e+000 210 63 73
-3.983806e-001 3.221673e-001 -8.001267e+000 70 56 56
-3.129241e-001 -3.845174e-001 -7.930572e+000 98 88 85
-2.266482e-001 1.064404e-001 -7.083980e+000 110 92 80
-4.715008e-001 -4.170488e-001 -6.649863e+000 110 26 26
6.337710e-001 -8.427880e-001 -6.781933e+000 164 40 44
9.410112e-001 1.707151e-001 -6.440407e+000 246 237 228
9.761873e-001 2.637186e-001 -6.426895e+000 234 90 97
1.347636e+000 -2.690013e-001 -6.134964e+000 255 243 193
-9.464691e-002 4.721679e-001 -7.403819e+000 200 189 179
8.839477e-001 -8.789176e-001 -6.614225e+000 247 238 229
7.409913e-001 -3.004527e-001 -6.590524e+000 248 242 231
-2.456346e-002 1.179818e+000 -7.411515e+000 196 46 48
-9.865339e-001 -3.404731e-001 -6.694082e+000 114 59 47
-7.049793e-001 -2.651226e-001 -6.603448e+000 125 57 35
5.708901e-001 -6.909869e-001 -6.863322e+000 154 137 111
2.756128e+000 -9.406626e+000 -6.236651e+000 17 16 22
1.233534e+000 -9.466746e-002 -6.185780e+000 158 154 153
5.284047e-001 1.131510e+000 -6.835555e+000 216 71 74
1.116826e+000 -4.464331e-001 -6.285903e+000 135 118 82
1.431765e-001 8.285669e-001 -7.239584e+000 236 229 221
6.994578e-001 7.097458e-001 -6.628184e+000 138 38 36
-8.307876e-001 -3.053382e-001 -7.046822e+000 102 34 16
-7.950708e-001 -2.473044e-001 -7.016169e+000 123 32 23
5.077409e-001 1.104764e+000 -6.858813e+000 232 78 85
8.055794e-001 8.838381e-002 -6.629131e+000 240 232 220
1.097166e+000 -5.792175e-001 -6.319957e+000 178 144 145
-3.340131e-001 1.058102e+000 -7.767133e+000 171 32 39
4.291776e-001 2.130549e-001 -6.914503e+000 138 124 108
5.295051e-001 5.556583e-001 -6.844947e+000 146 134 118
8.368552e-001 5.704461e-001 -6.532483e+000 230 85 92
8.801293e-001 -2.802035e-001 -6.484271e+000 158 144 125
1.363631e+000 -1.139863e+000 -6.236709e+000 124 120 119
8.081308e-001 1.008568e+000 -6.540795e+000 63 51 51
1.033854e+000 2.200655e-001 -6.347395e+000 239 90 96
2.548319e+000 -9.237945e+000 -6.205971e+000 73 71 84
-2.001425e-001 1.111736e+000 -7.457666e+000 145 117 104
3.090977e+000 -9.222104e+000 -5.862005e+000 71 72 84
3.458925e-001 3.445862e-001 -7.041037e+000 194 180 167
2.888364e-001 1.176597e+000 -7.130639e+000 217 60 67
-2.916917e-001 -2.342492e-001 -7.815053e+000 213 201 189
-2.535017e-001 -2.659997e-001 -7.778193e+000 209 197 183
-1.917889e-001 -5.732527e-002 -7.684857e+000 131 103 92
7.467117e-002 1.136332e+000 -7.408102e+000 206 43 54
4.298389e-001 -4.511378e-001 -6.845316e+000 209 194 142
8.473205e-001 6.600401e-001 -6.512151e+000 197 53 62
-4.126313e-001 -3.486705e-002 -6.830878e+000 67 19 17
2.389080e-001 -9.869087e-003 -7.277224e+000 166 153 137
-3.383917e-001 7.124782e-001 -7.696239e+000 230 223 213
-2.695519e-001 1.056111e+000 -7.766839e+000 177 33 40
-3.312184e-001 1.130109e-001 -7.046561e+000 78 36 30
2.230063e+000 -9.629714e+000 -6.907956e+000 47 45 50
2.981690e+000 -9.220261e+000 -5.857179e+000 45 44 57
1.149380e+000 -2.712137e-002 -6.214371e+000 168 48 46
-2.178872e-001 6.187462e-001 -7.683330e+000 172 160 148
8.257725e-001 4.452598e-001 -6.513919e+000 185 163 149
3.304802e+000 -9.106688e+000 -5.616921e+000 59 55 64
-5.410962e-001 -1.025996e-001 -6.692212e+000 121 43 32
2.670420e+000 -9.412442e+000 -6.102936e+000 74 77 87
2.937641e+000 -1.022042e+001 -5.773161e+000 87 92 115
2.889443e+000 -9.667237e+000 -6.058131e+000 32 28 42
-2.930719e-001 3.082487e-001 -7.818868e+000 210 198 186
-2.552645e-001 -1.837999e-001 -7.818125e+000 191 179 163
-2.552645e-001 -1.837999e-001 -7.818125e+000 191 179 163
-2.800930e-001 1.348197e+000 -7.168478e+000 215 55 61
-1.174192e-001 5.286982e-001 -7.404874e+000 182 172 160
4.554721e-001 -9.621096e-003 -6.722439e+000 178 165 146
-8.167080e-001 -2.943828e-001 -7.004738e+000 126 28 21
4.614486e-001 5.282083e-001 -6.937781e+000 206 194 180
3.186499e+000 -1.076962e+001 -5.366359e+000 243 247 253
2.998962e+000 -1.091002e+001 -5.637298e+000 25 24 29
2.728029e-001 -3.396588e+000 -8.010432e+000 186 185 183
1.389170e-001 -1.717855e+000 -7.905548e+000 170 169 167
-2.052169e-001 3.661356e-001 -7.679760e+000 216 204 191
4.161187e-001 -2.952458e+000 -7.741471e+000 166 164 167
-7.874290e-002 -4.317749e-001 -7.565652e+000 182 131 86
-1.220521e-001 5.414190e-001 -7.368754e+000 196 186 174
-9.738258e-001 -2.765801e-001 -6.598139e+000 178 112 88
-3.334166e-001 1.172294e-001 -7.051803e+000 82 39 32
2.495451e+000 -9.366670e+000 -6.349900e+000 32 30 41
4.741467e-001 -2.208706e-001 -6.759292e+000 222 214 201
4.317893e-001 -8.775543e-002 -6.735889e+000 224 216 205
1.097029e+000 -1.706087e+000 -6.621522e+000 145 139 139
1.449263e+000 -1.130299e+000 -6.076405e+000 156 158 157
-5.417201e-001 8.048540e-001 -8.096940e+000 15 13 23
-2.101057e-001 -9.808711e-002 -7.731625e+000 198 186 170
-2.264025e-001 3.087280e-001 -7.523024e+000 153 141 127
4.862143e-001 -2.775555e+000 -7.639587e+000 139 137 140
-2.285864e-001 1.684822e-001 -7.251966e+000 146 129 115
-2.173450e-001 1.337485e-001 -6.993576e+000 152 135 121
4.834714e-002 2.201939e-001 -7.056451e+000 165 151 138
1.489918e-001 9.824339e-001 -7.267095e+000 199 192 182
6.501561e-002 9.534895e-002 -6.959256e+000 199 192 176
-6.314791e-001 5.846719e-001 -8.252775e+000 198 56 54
-6.343682e-001 5.866641e-001 -8.250647e+000 198 56 54
-1.984837e-001 6.529322e-001 -7.678857e+000 212 203 190
-3.612441e-001 9.872845e-002 -7.034161e+000 79 48 44
-5.505854e-001 -7.600331e-002 -6.718629e+000 149 62 44
-2.401713e-001 1.716953e-002 -6.875215e+000 192 178 167
-2.049452e-001 7.044058e-002 -6.915917e+000 135 121 108
3.643187e-001 2.350417e-001 -6.958301e+000 128 112 97
3.782635e-001 1.327252e+000 -7.028058e+000 76 64 62
4.800143e-001 -4.658920e-002 -6.688167e+000 184 171 152
9.445878e-001 -1.071347e-001 -6.484225e+000 242 237 230
8.641243e-001 5.533680e-001 -6.557019e+000 233 90 99
-2.533906e-001 -1.584506e-001 -7.543515e+000 166 151 132
-7.595255e-001 -1.596795e-001 -7.015448e+000 118 51 33
-1.117382e-001 7.676080e-001 -7.544065e+000 161 149 137
-3.431092e-001 1.052375e-001 -7.014983e+000 70 21 17
-8.766443e-003 3.922120e-002 -6.930553e+000 197 188 173
2.330573e-001 4.888004e-002 -6.840470e+000 235 230 215
1.979784e-001 1.377035e+000 -7.300198e+000 64 55 56
2.699286e+000 -9.292925e+000 -6.210202e+000 19 18 22
3.754617e-001 1.018177e+000 -6.985410e+000 210 202 186
5.745381e-001 9.366935e-001 -6.815629e+000 230 81 91
-3.078945e-001 5.860976e-001 -7.756661e+000 231 223 212
-2.434232e-001 3.563821e-001 -7.532234e+000 205 196 182
2.138264e-001 5.685634e-001 -7.146595e+000 227 223 211
2.758102e-001 1.811345e-001 -6.887969e+000 208 200 183
4.600740e-001 5.126005e-001 -6.995328e+000 237 229 218
-2.257914e-001 5.562031e-001 -7.664361e+000 218 210 197
-2.263519e-001 2.802980e-001 -7.428073e+000 177 164 148
-2.263519e-001 2.802980e-001 -7.428073e+000 177 164 148
-1.619998e-001 6.147909e-001 -7.444505e+000 136 119 103
2.697065e+000 -1.043029e+001 -5.877085e+000 85 90 112
-2.446606e-001 8.085561e-001 -7.680530e+000 143 124 110
-2.039307e-001 4.249015e-001 -7.575932e+000 143 127 111
-1.823023e-001 8.657964e-001 -7.554780e+000 215 207 194
-1.566654e-001 8.493013e-001 -7.564526e+000 215 207 194
-2.236042e-001 -8.335820e-002 -7.737952e+000 208 200 183
-1.902463e-001 2.679464e-001 -7.678443e+000 198 181 166
-4.801480e-002 5.508759e-001 -7.352430e+000 201 191 179
-4.326629e-002 5.487838e-001 -7.356149e+000 201 191 179
-2.060907e-002 7.391446e-001 -7.323117e+000 219 210 201
6.340161e-001 2.983466e-001 -6.803733e+000 236 228 215
-3.543389e-001 8.299463e-002 -7.840561e+000 149 31 31
-2.449828e-001 -2.458535e-001 -7.748115e+000 167 155 140
-8.190901e-001 -2.536689e-001 -6.926523e+000 89 22 15
2.202965e-001 6.792827e-001 -7.225109e+000 203 194 185
3.276607e+000 -1.073877e+001 -5.593547e+000 100 93 90
9.249318e-001 -7.044268e-001 -6.478010e+000 170 52 45
2.153929e+000 -1.093142e+001 -5.998276e+000 137 132 133
1.132713e+000 -1.847055e+000 -6.696365e+000 148 146 148
3.533860e+000 -8.963873e+000 -5.199972e+000 25 22 29
1.664587e+000 -4.049241e-001 -5.682716e+000 136 133 140
-3.125036e-001 1.295668e-001 -7.051756e+000 100 82 72
5.730072e-002 1.328513e-001 -6.953100e+000 217 207 192
5.050757e-001 -1.487808e-002 -6.664567e+000 216 208 197
4.596092e+000 -1.162466e+001 -3.355181e+000 226 238 245
-1.347147e-001 1.240354e+000 -7.564777e+000 203 67 75
-3.331257e-003 8.940016e-001 -7.326362e+000 189 177 165
-2.269487e-003 8.931296e-001 -7.326572e+000 189 177 165
6.581409e-001 7.210031e-001 -6.732731e+000 190 176 167
-2.117848e-001 2.660015e-001 -7.592781e+000 157 140 125
-1.613276e-001 4.115648e-001 -7.630626e+000 133 120 104
1.268966e-001 4.976352e-002 -6.910592e+000 130 117 101
3.101627e+000 -1.031412e+001 -5.761976e+000 16 15 18
4.317507e+000 -9.136230e+000 -3.136106e+000 102 98 116
-4.907402e-001 7.434675e-001 -7.970826e+000 171 38 43
-1.729003e-001 1.017729e+000 -7.574664e+000 163 145 131
4.168884e+000 -8.251485e+000 -3.464157e+000 77 75 86
-5.871889e-001 7.083706e-001 -8.121566e+000 189 49 52
-2.271840e-001 8.691230e-001 -7.735659e+000 155 139 126
3.177318e+000 -1.077579e+001 -5.316883e+000 236 244 247
4.076945e+000 -9.091169e+000 -3.826120e+000 90 87 108
-5.603137e-001 6.056214e-001 -8.174781e+000 194 51 57
-9.663859e-001 -2.165311e-001 -6.507425e+000 40 19 12
2.751098e-001 8.662480e-001 -7.112346e+000 147 133 120
6.111833e-001 5.240674e-001 -6.799849e+000 128 112 97
-3.525496e-001 8.465239e-001 -7.798548e+000 217 61 70
4.357086e-001 -9.052198e-002 -6.753751e+000 251 244 233
-1.959908e-001 2.908721e-001 -7.213888e+000 144 129 113
-3.249658e-001 -1.033238e-002 -6.923863e+000 99 65 58
-1.345326e-001 1.205724e+000 -7.571823e+000 140 15 24
3.078908e+000 -1.069676e+001 -4.994974e+000 253 254 255
-2.072284e-001 2.901205e-001 -7.501360e+000 119 104 89
-3.019733e-001 1.663582e-001 -7.088468e+000 124 107 97
2.044060e+000 -1.077268e+001 -6.043655e+000 126 120 120
2.138851e+000 -9.420523e+000 -6.884630e+000 41 40 46
-1.616712e-001 4.672234e-001 -7.540117e+000 134 118 103
-5.668132e-001 5.528921e-001 -8.092371e+000 193 162 133
-2.740887e-002 -6.062902e-001 -7.688385e+000 241 92 97
-7.675178e-001 -2.056628e-001 -7.070219e+000 106 29 15
-3.592559e-001 3.941885e-001 -7.459856e+000 154 141 122
-2.479398e-001 1.336204e-001 -7.286399e+000 110 92 78
-1.138021e-001 2.083530e-001 -7.121892e+000 152 139 121
9.307118e-001 -6.990404e-001 -6.494871e+000 193 184 157
1.377424e+000 -1.302474e+000 -6.212073e+000 139 137 140
8.673109e-001 3.662700e-001 -6.438847e+000 236 80 92
-1.935885e-001 -1.819519e+000 -8.216062e+000 174 170 171
-2.457197e-001 -1.553627e+000 -8.138288e+000 177 173 176
-9.169016e-002 -1.697483e+000 -8.038449e+000 182 178 177
-3.058694e-001 -4.321643e-001 -7.896843e+000 130 118 112
-8.961439e-001 -3.659438e-001 -6.776151e+000 129 48 20
-2.820923e-001 1.110757e+000 -7.654443e+000 153 22 27
-1.512029e-001 4.772259e-001 -7.440153e+000 154 141 125
4.742759e-001 -4.559545e-001 -6.810524e+000 223 202 145
1.067382e+000 -4.267297e-001 -6.252044e+000 160 157 156
1.411946e+000 -7.591173e-001 -6.068276e+000 147 145 148
1.381467e+000 -7.114572e-001 -6.126902e+000 134 129 135
1.697708e+000 -1.179573e+000 -5.790634e+000 152 147 153
8.332992e-001 6.767761e-001 -6.507744e+000 191 57 62
8.848402e-001 6.266708e-001 -6.480894e+000 166 37 42
-1.251317e-002 -2.009233e+000 -8.017668e+000 96 92 91
-1.323710e-002 -1.960319e+000 -7.913273e+000 182 178 179
-3.902228e-001 3.215133e-001 -7.971941e+000 211 81 81
-3.064308e-001 2.146899e-001 -7.910239e+000 197 63 66
-6.667202e-002 -5.493333e-001 -7.693356e+000 149 38 43
-7.861667e-002 -5.002653e-001 -7.680323e+000 232 171 124
-3.261276e-001 1.034514e+000 -7.831023e+000 152 31 38
-2.107069e-001 3.075204e-001 -7.583295e+000 145 132 113
-2.127432e-001 6.668418e-001 -7.693785e+000 160 152 133
-9.619586e-001 -3.280441e-001 -6.664421e+000 147 67 38
-4.320905e-001 -3.955699e-003 -7.077409e+000 46 12 11
-2.638795e-001 1.296849e-001 -7.270615e+000 141 125 110
-9.854508e-001 -3.137288e-001 -6.576251e+000 41 13 11
-5.448420e-001 -4.797953e-002 -6.893933e+000 44 4 2
-6.359493e-001 -1.429018e-001 -6.726811e+000 68 18 13
-3.473107e-001 1.114220e-001 -6.959495e+000 94 31 26
-2.780363e-001 4.437607e-002 -6.912768e+000 68 24 15
3.703852e-002 6.203572e-001 -7.294304e+000 201 192 174
4.770180e-002 1.190383e+000 -7.306095e+000 212 67 70
7.699489e-001 -8.494999e-001 -6.681183e+000 238 98 99
1.660171e+000 -1.058552e+000 -5.848922e+000 145 143 148
1.534208e+000 -4.148476e-001 -5.903250e+000 177 170 175
-5.981893e-001 5.668633e-001 -8.183837e+000 226 76 81
-3.219513e-001 1.762016e-001 -7.951487e+000 210 79 84
-9.947910e-002 -4.934359e-001 -7.715369e+000 173 47 44
-2.656115e-001 5.077309e-001 -7.768913e+000 185 176 162
-2.169828e-001 3.460392e-001 -7.605039e+000 202 189 176
-7.807618e-001 -2.107373e-001 -6.972019e+000 85 26 17
-9.426526e-001 -3.184691e-001 -6.737570e+000 114 41 21
3.084781e+000 -9.038337e+000 -5.681167e+000 29 26 35
-5.509493e-002 4.233150e-001 -7.354765e+000 150 138 122
-1.261062e-001 8.285516e-001 -7.502177e+000 199 190 173
-9.966068e-001 -2.059131e-001 -6.442539e+000 64 37 25
7.683937e-001 -3.241686e-001 -6.592065e+000 234 226 209
6.225844e-001 6.226508e-001 -6.791513e+000 169 157 137
3.003314e+000 -9.469109e+000 -6.221482e+000 34 31 38
-1.185813e-001 4.065954e-001 -7.383878e+000 186 173 156
-9.070629e-001 -2.091841e-001 -6.428577e+000 63 37 23
-4.114519e-001 -2.577056e-001 -6.667187e+000 136 32 24
-9.025717e-002 2.701864e-002 -6.905163e+000 123 107 94
2.207591e-001 2.559376e-001 -6.985950e+000 187 171 160
7.792151e-001 -7.159714e-001 -6.672003e+000 240 232 215
3.924204e-001 4.898294e-002 -6.766718e+000 156 143 124
5.864332e-001 2.787402e-001 -6.838532e+000 226 217 202
6.773144e-001 -1.160406e-001 -6.580769e+000 234 222 205
7.214354e-001 -1.304147e-001 -6.540775e+000 148 130 106
1.317548e+000 -3.005731e-001 -6.104288e+000 166 151 163
7.023950e-001 9.285443e-001 -6.649184e+000 194 60 64
9.133218e-001 4.803490e-001 -6.383043e+000 221 86 92
-3.239902e-001 -3.708026e-001 -7.919076e+000 116 105 101
-4.867206e-001 -8.078854e-003 -7.085359e+000 86 36 25
1.134793e-001 5.658914e-001 -7.162202e+000 216 207 190
1.208087e-001 7.054655e-001 -7.262303e+000 228 216 202
1.711749e-001 4.103291e-001 -7.108438e+000 148 135 118
3.334813e-001 1.240743e-001 -6.816013e+000 209 198 180
6.807946e-001 7.162270e-002 -6.722408e+000 145 132 113
1.164462e+000 -5.006253e-001 -6.225411e+000 164 157 164
4.893220e-001 1.199489e+000 -6.836691e+000 57 58 53
1.498773e+000 -2.975772e-001 -6.158270e+000 14 10 10
1.166351e+000 1.699914e-001 -6.231759e+000 163 152 158
1.121457e+000 2.754853e-001 -6.260955e+000 153 142 146
-1.015115e+000 -3.092070e-001 -6.688669e+000 172 91 79
-9.541138e-005 5.659817e-001 -7.299956e+000 207 198 183
-4.164995e-002 5.659963e-002 -6.945582e+000 183 173 155
4.123071e-002 3.627835e-003 -6.878735e+000 149 136 117
3.337562e-001 4.669009e-001 -7.124960e+000 184 172 158
2.355367e-001 9.651637e-001 -7.206979e+000 230 222 211
6.624548e-001 -4.844950e-001 -6.632028e+000 254 241 186
5.745522e-001 2.370490e-001 -6.909246e+000 222 213 199
1.104824e+000 -4.293008e-001 -6.286981e+000 100 85 61
1.226134e+000 -2.338748e-001 -6.163168e+000 254 243 203
1.067940e+000 1.383752e-001 -6.299670e+000 211 76 81
-3.044229e-001 -3.860110e-001 -7.837852e+000 217 210 191
-1.123812e-001 6.514145e-001 -7.379362e+000 208 199 184
4.372336e-002 6.620555e-001 -7.306076e+000 222 213 196
9.449848e-001 -7.773637e-001 -6.546896e+000 221 214 198
6.984658e-001 -5.798311e-002 -6.578633e+000 162 147 127
9.244913e-001 2.908277e-001 -6.469584e+000 237 228 213
7.054302e-001 9.364773e-001 -6.690327e+000 200 63 70
1.005079e+000 2.028587e-001 -6.380206e+000 187 53 57
-2.625970e-001 1.984350e-001 -7.827084e+000 124 17 23
7.067498e-002 1.363782e+000 -7.337852e+000 21 9 14
3.315925e-001 7.312907e-001 -7.060468e+000 237 228 211
1.250152e+000 -3.209723e-001 -6.179319e+000 246 227 184
-1.874252e-001 1.319825e-001 -7.491251e+000 143 126 108
2.626924e-002 8.805198e-001 -7.313158e+000 180 167 151
1.713239e-001 6.180598e-001 -7.215488e+000 145 130 111
5.529076e-001 -1.096512e-001 -6.602032e+000 244 237 221
7.129009e-001 7.186884e-001 -6.636435e+000 124 22 26
2.698648e-001 -4.852515e-002 -6.773799e+000 238 232 213
9.746480e-001 1.317795e-003 -6.466868e+000 242 236 220
3.253406e-001 6.328277e-001 -7.040440e+000 213 204 187
3.018666e-001 6.489916e-001 -7.039650e+000 213 204 187
-3.434268e-001 5.874580e-001 -7.851657e+000 214 207 191
-5.292341e-002 1.254623e+000 -7.623898e+000 17 11 13
-4.639810e-001 -1.843181e-001 -6.982554e+000 79 26 18
2.493810e-001 7.849400e-001 -7.162879e+000 194 182 165
4.312135e-001 -1.880193e+000 -7.459000e+000 118 114 111
-2.713525e-001 -2.262722e-001 -7.774974e+000 181 166 149
-2.181210e-001 -8.761267e-002 -7.730195e+000 198 187 167
2.399315e-001 -8.664981e-001 -7.623917e+000 134 126 124
-7.969933e-002 2.782274e-001 -7.084944e+000 152 139 122
7.206777e-001 -4.611238e-001 -6.551520e+000 175 154 111
1.110394e+000 -6.104981e-001 -6.316009e+000 171 165 169
4.119111e-001 -1.498237e+000 -7.526703e+000 149 146 139
6.415505e-001 -1.996471e+000 -7.363033e+000 156 153 149
-2.018849e-001 -6.840336e-002 -7.652028e+000 135 115 98
-7.756310e-001 -3.295723e-001 -7.009268e+000 123 35 19
-8.680061e-002 2.612397e-001 -7.239039e+000 126 110 94
-1.671070e-001 1.189678e+000 -7.580439e+000 147 26 30
8.332396e-001 -7.494386e-001 -6.629885e+000 211 197 182
8.332396e-001 -7.494386e-001 -6.629885e+000 211 197 182
8.474113e-001 -6.900902e-001 -6.581681e+000 238 230 212
1.031693e+000 -6.465167e-001 -6.332611e+000 159 149 154
7.829977e-001 7.272282e-002 -6.650237e+000 187 179 160
-7.781024e-001 -2.092720e-001 -7.089837e+000 160 79 51
-3.748950e-001 7.618276e-001 -7.820840e+000 167 152 133
-3.868004e-001 7.664581e-001 -7.817906e+000 167 152 133
-1.340634e-001 8.306194e-001 -7.430979e+000 196 188 167
3.680939e-001 6.021805e-001 -6.964310e+000 195 188 172
6.191478e-001 3.679215e-002 -6.660048e+000 156 141 120
5.021597e-001 -1.857248e+000 -7.427712e+000 120 116 115
5.021597e-001 -1.857248e+000 -7.427712e+000 120 116 115
4.809072e-001 -1.734395e+000 -7.433893e+000 147 146 142
-2.348573e-001 2.203283e-001 -7.726637e+000 192 171 154
-4.447631e-001 -1.613942e-001 -7.236894e+000 51 19 14
-1.398988e-003 -3.586494e-001 -7.447269e+000 228 204 154
-3.908276e-001 6.557926e-002 -7.118666e+000 62 18 17
1.117475e+000 -6.894639e-002 -6.242928e+000 240 94 104
9.546837e-002 2.515452e-001 -6.996596e+000 212 205 186
3.826750e-001 -2.704613e-003 -6.757456e+000 218 209 192
-2.263857e-001 3.705651e-001 -7.763611e+000 196 187 170
8.776475e-001 -7.290517e-001 -6.545398e+000 226 217 200
9.490639e-001 -7.137671e-001 -6.340389e+000 166 159 167
8.883106e-001 -3.893010e-001 -6.398377e+000 254 236 196
4.846958e-001 1.123221e-001 -6.739809e+000 150 135 116
7.493969e-002 -2.619507e-001 -6.704493e+000 214 201 184
-1.497455e-001 1.286763e-002 -8.005788e+000 129 22 27
-6.676650e+000 -7.022082e+000 -2.518742e+001 91 83 80
-1.047690e+000 -1.240474e+001 -1.052200e+001 95 100 119
4.948905e-001 -1.811895e+000 -7.403539e+000 108 106 103
-2.712155e-001 2.186215e-001 -7.715567e+000 165 43 47
2.457374e-001 -1.454271e+000 -7.685416e+000 105 101 97
-2.516189e-001 -2.575861e-001 -7.759785e+000 186 173 154
-9.559073e-001 -3.628739e-001 -6.661781e+000 160 85 62
