ply
format ascii 1.0
element face 0
property list uchar int vertex_indices
element vertex 869
property float x
property float y
property float z
property uchar diffuse_red
property uchar diffuse_green
property uchar diffuse_blue
end_header
1.269456e-002 -3.525660e+000 -1.005553e+001 81 87 63
-4.012679e+000 -2.515647e+000 -9.612147e+000 67 72 52
-1.609056e+000 -2.149356e+000 -1.113837e+001 99 80 72
-2.897658e+000 -2.176879e+000 -1.046329e+001 136 112 102
-1.924223e+000 -1.674601e+000 -1.164617e+001 81 66 63
-2.669541e+000 -5.589087e-001 -5.060494e+000 107 108 70
7.879213e-001 -2.317084e+000 -8.356581e+000 161 140 87
-3.021608e+000 -3.214608e+000 -7.352192e+000 139 123 72
2.202236e+000 -3.606719e+000 -1.059223e+001 97 94 59
2.668450e+000 -3.622244e+000 -1.092028e+001 77 68 63
8.593276e-002 -7.353995e-001 -6.600940e+000 140 127 83
-2.241965e+000 -2.198484e+000 -6.553659e+000 87 85 73
-6.808290e-001 -2.472754e+000 -1.109377e+001 151 134 116
1.411661e+000 -1.760667e+000 -1.320042e+001 134 122 108
-2.556453e+000 -6.699560e-001 -5.289691e+000 109 112 67
8.477150e-001 -1.830848e+000 -8.113922e+000 93 77 54
2.478107e+000 -2.341267e+000 -1.309518e+001 172 161 143
1.614565e+000 -7.750130e-001 -1.102178e+001 96 95 64
-2.784173e+000 -1.804103e+000 -5.897631e+000 83 81 68
1.769540e-001 -2.041551e+000 -7.750315e+000 101 86 55
1.769540e-001 -2.041551e+000 -7.750315e+000 101 86 55
1.869264e+000 -2.054519e+000 -8.682941e+000 85 82 50
1.995099e+000 -2.112900e+000 -8.832366e+000 81 80 52
1.558818e+000 -2.362512e+000 -8.848329e+000 118 112 78
-2.488090e+000 -3.049151e+000 -7.419895e+000 106 92 61
8.108563e-001 -3.325240e+000 -9.464810e+000 141 128 81
-3.375679e+000 -3.649238e+000 -8.394762e+000 130 107 76
-2.514434e+000 -3.698123e+000 -8.746915e+000 101 76 46
-2.489028e+000 -3.481761e+000 -9.050431e+000 120 87 53
-1.281266e+000 -3.595822e+000 -9.419217e+000 133 109 72
-2.936435e+000 -3.360774e+000 -8.987551e+000 151 113 74
-5.354326e-001 -2.605427e+000 -1.101028e+001 107 90 65
-5.354326e-001 -2.605427e+000 -1.101028e+001 107 90 65
-3.782148e+000 -1.019691e-001 -1.267931e+001 111 92 56
-3.782148e+000 -1.019691e-001 -1.267931e+001 111 92 56
-2.924534e+000 -1.938203e+000 -5.968545e+000 86 84 75
-4.152020e-001 -1.627653e+000 -6.978049e+000 152 135 91
-4.152020e-001 -1.627653e+000 -6.978049e+000 152 135 91
-2.844762e+000 -2.317649e+000 -6.331980e+000 89 86 80
-2.844762e+000 -2.317649e+000 -6.331980e+000 89 86 80
-3.727271e-001 -1.892486e+000 -7.326204e+000 149 133 97
3.376036e+000 -9.812241e-001 -8.446215e+000 104 108 89
1.812735e+000 -2.221431e+000 -8.839426e+000 85 82 51
-1.448692e+000 -2.714251e+000 -7.621076e+000 90 74 59
-8.246475e-002 -2.623589e+000 -8.145032e+000 144 131 86
3.953832e-001 -2.614095e+000 -8.491667e+000 96 82 45
1.135254e+000 -2.593898e+000 -8.839649e+000 86 76 40
-2.886805e+000 -3.283785e+000 -7.463459e+000 136 123 85
2.278796e-001 -2.747941e+000 -8.545458e+000 95 81 47
1.132666e+000 -2.631352e+000 -8.923647e+000 87 76 44
8.996391e-001 -2.840776e+000 -8.888981e+000 99 86 53
-3.153250e+000 -3.532493e+000 -7.571238e+000 97 85 46
-5.715980e-001 -3.196639e+000 -8.588199e+000 144 130 85
2.043852e-001 -3.148134e+000 -8.958399e+000 85 73 42
1.175207e+000 -3.070601e+000 -9.387630e+000 133 124 79
2.096168e+000 -2.938219e+000 -9.716848e+000 71 71 45
-9.396795e-001 -3.361937e+000 -8.611469e+000 102 88 53
-1.081979e+000 -3.586695e+000 -8.721207e+000 141 128 76
7.826484e-002 -3.494414e+000 -9.208024e+000 91 82 45
6.110900e-001 -3.337472e+000 -9.366852e+000 99 86 51
6.110900e-001 -3.337472e+000 -9.366852e+000 99 86 51
9.740427e-001 -3.440160e+000 -9.709625e+000 87 77 41
1.502310e+000 -3.286230e+000 -9.744512e+000 118 110 74
1.542829e+000 -3.348886e+000 -9.823721e+000 76 71 42
2.427255e+000 -3.190909e+000 -1.015732e+001 64 63 42
-1.365572e+000 -3.782007e+000 -8.795497e+000 95 82 47
-4.540676e-001 -3.679005e+000 -9.154714e+000 136 123 78
2.728606e-001 -3.607962e+000 -9.492779e+000 134 121 78
-1.046443e+000 -3.699186e+000 -9.390145e+000 123 105 67
-5.431311e-001 -3.636755e+000 -9.625447e+000 108 98 62
-3.170817e+000 -3.687753e+000 -8.493647e+000 135 109 74
-1.807672e+000 -3.545489e+000 -9.249505e+000 114 88 51
-1.547868e+000 -3.594481e+000 -9.294194e+000 135 111 75
-1.547868e+000 -3.594481e+000 -9.294194e+000 135 111 75
-1.449894e+000 -3.597152e+000 -9.339125e+000 126 104 67
-1.277145e+000 -3.407049e+000 -9.654678e+000 93 70 39
-8.931181e-001 -3.398496e+000 -9.827178e+000 87 69 39
-8.931181e-001 -3.398496e+000 -9.827178e+000 87 69 39
-3.896624e+000 -3.419119e+000 -8.486308e+000 100 82 57
-3.181947e+000 -3.446959e+000 -8.781510e+000 145 112 77
-1.478851e+000 -3.397475e+000 -9.620101e+000 141 110 72
1.677446e-001 -8.524979e-001 -1.345848e+001 88 72 49
-4.783863e+000 -9.355650e-001 -1.113646e+001 154 130 94
-2.429146e+000 -2.178036e+000 -6.392935e+000 164 148 135
-2.226166e+000 -2.053237e+000 -6.365238e+000 89 82 72
-2.760502e+000 -3.528902e+000 -7.756489e+000 103 93 57
-2.760502e+000 -3.528902e+000 -7.756489e+000 103 93 57
-1.865151e+000 -3.367016e+000 -7.945349e+000 103 92 62
-1.056937e+000 -3.141348e+000 -8.289177e+000 127 113 73
5.420364e-001 -3.515224e+000 -9.480871e+000 94 82 45
-3.699109e+000 -3.984238e+000 -7.756298e+000 122 114 67
-1.928264e+000 -3.730496e+000 -8.426151e+000 132 126 78
-3.821434e-001 -3.872965e+000 -9.174444e+000 132 117 77
-3.821434e-001 -3.872965e+000 -9.174444e+000 132 117 77
-7.938345e-001 -3.685668e+000 -9.512142e+000 114 99 68
-2.547069e+000 -3.559155e+000 -8.941804e+000 152 115 76
-2.165678e+000 -3.606960e+000 -8.992070e+000 143 113 74
-9.619149e-001 -3.408653e+000 -9.805954e+000 96 80 49
-3.793627e+000 -2.559525e+000 -9.582451e+000 80 81 62
-1.857042e+000 -1.910099e+000 -1.128139e+001 82 65 61
3.466243e-001 -2.035321e+000 -1.210468e+001 109 91 61
1.394338e-001 -1.690305e+000 -7.301250e+000 112 97 67
9.637764e-001 -1.659331e+000 -7.757263e+000 166 147 87
-2.190126e+000 -3.468244e+000 -8.028524e+000 93 86 58
-2.190126e+000 -3.468244e+000 -8.028524e+000 93 86 58
-1.397751e+000 -3.844782e+000 -8.893504e+000 147 126 65
-4.849912e+000 -7.924730e-001 -9.244606e+000 225 145 162
-1.746274e+000 -1.699321e+000 -1.168372e+001 98 77 66
-1.455172e+000 -1.818863e+000 -1.170007e+001 155 108 78
6.939826e-001 -1.661273e+000 -7.641667e+000 165 145 87
-1.574613e+000 -1.847246e+000 -1.158658e+001 103 75 66
-8.552130e+001 8.611929e+001 -1.817667e+002 199 204 211
-4.933207e+001 1.318947e+001 -1.090707e+002 63 47 110
-4.347980e+000 1.129794e+002 -4.735180e+000 121 128 139
-8.721597e+000 1.126369e+002 3.690637e+000 74 65 73
-9.134032e+000 1.235431e+002 -6.207859e+000 64 57 64
-3.695916e+000 5.885208e+001 -1.470248e+001 113 93 86
-7.157578e+000 1.062481e+002 3.608413e+000 50 40 49
-7.821197e+000 1.098330e+002 2.689625e+000 84 77 84
-6.090077e+000 1.070276e+002 1.258226e+000 41 38 45
-6.784826e+000 1.072485e+002 3.209553e-001 97 92 99
-9.975902e+000 1.247288e+002 -4.987644e+000 97 92 98
-7.776032e+000 1.084486e+002 -6.209266e+000 103 98 104
-1.021266e+001 1.232705e+002 -7.844730e+000 77 68 73
-1.726790e+001 1.233655e+002 -2.580618e-002 93 90 100
-6.323496e+000 9.939374e+001 -6.057642e+000 54 53 59
-9.583804e-001 1.067576e+002 1.394939e+000 149 158 173
-9.583804e-001 1.067576e+002 1.394939e+000 149 158 173
-8.450630e+000 1.201074e+002 2.303630e-001 94 87 95
-3.555169e+000 -2.646614e+000 -9.662613e+000 159 125 90
-4.482358e+000 -2.074534e+000 -9.938754e+000 152 118 81
-2.799343e+000 -1.084121e+000 -1.202269e+001 118 96 83
-2.008217e+000 -3.502726e+000 -9.224227e+000 142 114 75
-1.577589e+000 -3.373927e+000 -9.579366e+000 138 108 70
-2.256876e+000 -1.658121e+000 -1.152133e+001 74 60 56
2.619675e-001 -1.402874e+000 -1.280244e+001 86 66 43
-8.086031e+000 1.097876e+002 4.080211e+000 93 88 95
-8.277413e+000 1.140361e+002 2.894424e+000 99 96 105
-1.869331e+000 -3.832631e+000 -8.665351e+000 138 125 63
-1.559973e+000 7.929698e+001 9.504965e+000 69 58 56
-1.320286e+000 7.888247e+001 8.711104e+000 101 84 79
-1.075045e+001 1.258324e+002 -3.233660e+000 93 90 97
1.382021e+000 -1.674476e+000 -1.334612e+001 141 129 115
-9.326855e+000 1.090063e+002 5.029398e+000 108 102 112
1.534040e+000 -1.537451e+000 -1.291387e+001 66 63 51
-4.810964e+000 1.027027e+002 4.438430e+000 43 37 49
2.648483e+000 -3.528507e+000 -1.064140e+001 70 60 44
2.541423e+000 -3.647479e+000 -1.079608e+001 100 89 67
2.877099e-001 -1.871646e+000 -1.224520e+001 104 77 50
1.347440e+000 -2.774467e+000 -9.143192e+000 96 88 51
-3.376634e+000 -3.693436e+000 -8.391403e+000 117 101 67
-1.231345e-001 -3.610596e+000 -9.929874e+000 139 129 96
-3.708807e-001 -3.363074e+000 -1.009520e+001 156 138 115
-4.796831e-001 -3.051776e+000 -1.045078e+001 160 134 118
-4.710058e-001 -2.994229e+000 -1.053679e+001 158 136 117
-2.184859e-001 -2.929106e+000 -1.070708e+001 83 72 48
-2.329652e-001 -2.955493e+000 -1.070911e+001 83 72 48
-3.750126e+000 -2.641399e+000 -9.554113e+000 131 123 91
-4.049427e+000 -2.520368e+000 -9.562281e+000 68 74 44
-3.839573e+000 -2.491550e+000 -9.719071e+000 83 82 51
-4.392057e+000 -2.161800e+000 -9.855673e+000 68 79 49
-3.267566e+000 -2.156188e+000 -1.037444e+001 158 129 115
-2.692895e+000 -2.208043e+000 -1.059649e+001 93 73 63
-2.514245e+000 -2.201647e+000 -1.069596e+001 136 116 105
1.352298e+000 -1.448514e+000 -1.313176e+001 103 95 82
-1.932609e+000 -1.789446e+000 -1.146833e+001 69 54 47
-2.491641e+000 -9.797005e-001 -1.219986e+001 108 87 70
-2.489201e+000 -9.828205e-001 -1.219672e+001 108 87 70
-4.487709e+000 -3.838686e-001 -1.201474e+001 126 117 78
-4.491324e+000 -3.912520e-001 -1.201280e+001 126 117 78
-4.165680e+000 -6.249119e-002 -1.251065e+001 83 81 51
8.571640e-002 -3.635402e+000 -9.939107e+000 85 90 62
-3.560038e+000 -3.709806e+000 -8.306537e+000 118 104 63
-3.459193e+000 -3.606596e+000 -8.343233e+000 121 104 63
-3.635685e+000 -3.596233e+000 -8.413668e+000 125 106 70
-2.122193e+000 -3.543167e+000 -9.174409e+000 148 119 74
-3.651661e+000 -3.401252e+000 -8.459127e+000 91 76 45
-3.651661e+000 -3.401252e+000 -8.459127e+000 91 76 45
-3.479607e+000 -3.365304e+000 -8.771405e+000 141 115 70
-2.403825e+000 -3.126176e+000 -9.297698e+000 153 117 71
-3.699833e+000 -2.701899e+000 -9.530464e+000 59 67 41
-1.342278e+000 -2.090241e+000 -1.135455e+001 90 66 51
-2.643681e-001 -9.334812e-001 -1.348079e+001 96 80 57
-4.340092e+000 -4.011164e-001 -1.207700e+001 153 125 77
3.688808e+000 7.415954e+001 1.016200e+001 78 72 74
-3.086142e+000 -3.169489e+000 -7.435784e+000 104 95 56
-3.178502e+000 -3.514729e+000 -7.613812e+000 93 85 54
5.394447e-001 -3.246548e+000 -9.177085e+000 125 110 67
-2.788002e+000 -3.622446e+000 -8.766381e+000 88 68 35
-2.569548e+000 -3.406776e+000 -8.858829e+000 92 67 37
-2.267961e+000 -3.714510e+000 -8.868147e+000 103 79 48
-2.267961e+000 -3.714510e+000 -8.868147e+000 103 79 48
-1.962236e+000 -3.595468e+000 -9.161940e+000 112 89 57
-1.319589e+000 -3.557389e+000 -9.481243e+000 106 85 53
-2.739448e-001 -3.417898e+000 -1.010403e+001 106 90 73
-2.739448e-001 -3.417898e+000 -1.010403e+001 106 90 73
-3.400126e+000 -3.471295e+000 -8.676809e+000 130 106 69
-3.299097e+000 -3.462823e+000 -8.723791e+000 131 105 65
-3.095852e+000 -3.510332e+000 -8.758821e+000 105 78 49
-2.197722e+000 -3.489263e+000 -9.186846e+000 124 97 67
-1.533502e+000 -3.332992e+000 -9.677597e+000 121 100 69
-9.568086e-001 -3.389042e+000 -9.806647e+000 87 70 41
-5.110344e-002 -2.717202e+000 -1.105038e+001 86 86 58
-4.018850e+000 -2.408134e+000 -9.709919e+000 161 128 87
-1.649370e+000 -2.257290e+000 -1.099115e+001 156 133 115
4.227755e-001 -1.968998e+000 -1.220741e+001 110 95 62
-3.151200e+000 -2.140492e+000 -1.049581e+001 122 95 84
1.570641e-001 -1.656112e+000 -1.247037e+001 99 72 51
-2.254457e-001 -8.270370e-001 -1.338072e+001 120 100 69
-9.456502e-003 -8.154660e-001 -1.349540e+001 117 98 69
1.854516e-001 -1.572105e+000 -7.290462e+000 125 109 84
1.849829e+000 7.967153e+001 4.357635e+000 66 62 68
-3.735429e+000 -6.513643e-001 -6.804171e+000 209 197 142
-3.620749e+000 -3.752027e+000 -8.208207e+000 87 79 50
-3.933462e+000 -3.305880e+000 -8.458798e+000 94 80 51
-2.511405e+000 -3.376748e+000 -9.203931e+000 110 81 49
-1.065011e+000 -2.087187e+000 -1.146633e+001 154 115 84
-2.737208e+000 -2.100037e+000 -1.072416e+001 84 65 59
-5.233041e+000 -1.082200e-001 -9.844663e+000 184 117 132
-5.233561e+000 -2.066743e-001 -9.865873e+000 184 117 132
-2.945905e+000 -1.748145e+000 -1.109876e+001 101 78 71
-4.786285e+000 -1.349092e+000 -1.071500e+001 127 108 78
7.312772e-001 -4.296900e-001 -1.429440e+001 75 62 53
-2.918245e+000 4.224007e-002 -1.313917e+001 125 107 70
-2.385240e+000 -1.543841e+000 -6.064579e+000 95 91 82
3.544035e+000 -7.463989e-001 -8.193214e+000 209 209 201
-5.907548e-001 -3.845385e+000 -9.288564e+000 160 140 77
-6.589268e-001 -3.120606e+000 -1.055307e+001 160 134 113
-2.062482e+000 -1.399825e+000 -1.187212e+001 82 61 58
-2.914111e+000 -9.617456e-001 -1.201763e+001 167 132 110
6.899734e-001 1.034385e+000 -1.563586e+001 168 157 142
1.841288e-001 7.251394e+001 1.502313e+001 108 97 88
6.493528e-001 7.277873e+001 1.380304e+001 59 50 53
6.483956e-001 7.284490e+001 1.382380e+001 59 50 53
-2.711195e+000 -1.572389e+000 -1.157705e+001 97 77 70
-1.803092e+000 -1.456546e+000 -1.194186e+001 146 106 78
1.235311e+000 7.123283e+001 1.530335e+001 59 53 53
1.265576e+000 7.142531e+001 1.536782e+001 59 53 53
-2.057890e+000 -2.158830e+000 -1.093571e+001 115 91 81
1.316467e+000 -1.213506e+000 -1.333299e+001 57 54 40
2.539583e-001 1.046803e+000 -1.544568e+001 104 103 83
1.707347e+000 6.950629e+001 1.738971e+001 56 47 48
1.577572e+000 7.248905e+001 1.453801e+001 110 100 91
6.474657e-001 7.355676e+001 1.280935e+001 104 95 87
2.128471e+000 7.096314e+001 1.632718e+001 110 100 88
-1.567917e+000 7.157800e+001 1.630555e+001 66 56 55
-1.567917e+000 7.157800e+001 1.630555e+001 66 56 55
2.720923e-001 7.090887e+001 1.670170e+001 103 89 80
-5.483234e+000 7.305984e+001 1.378787e+001 64 58 62
-3.848140e+000 7.288021e+001 1.536812e+001 107 99 94
-3.848140e+000 7.288021e+001 1.536812e+001 107 99 94
-3.175367e+000 -1.683902e+000 -1.135867e+001 167 125 82
-5.795942e+000 4.992478e-001 -1.221836e+001 115 103 65
-4.399259e+000 -1.959132e+000 -9.846327e+000 142 114 80
-3.670340e+000 -3.381433e+000 -8.333045e+000 109 96 62
-1.978219e+000 -2.665107e+000 -1.030641e+001 169 137 111
-2.401081e+000 -1.908885e+000 -1.127585e+001 70 56 53
-1.953199e-002 4.299593e-002 -1.446689e+001 94 89 69
4.527100e-002 -3.587884e+000 -9.972841e+000 145 144 120
1.674987e-001 -3.479909e+000 -1.017496e+001 76 81 55
-2.894278e+000 -3.781151e+000 -8.581330e+000 108 84 48
-5.153418e-001 -2.623190e+000 -1.103094e+001 108 104 75
-5.416466e-001 -2.474418e+000 -1.117188e+001 164 151 124
-2.207566e+000 -1.246902e+000 -1.201126e+001 103 82 65
-2.534251e+000 -3.768904e+000 -8.775606e+000 110 87 53
-2.065034e+000 -3.596411e+000 -9.127505e+000 110 88 51
-3.599143e+000 -2.676563e+000 -9.558666e+000 178 149 107
-8.368328e-002 -1.243647e+000 -1.288323e+001 116 86 48
-3.492228e+000 -3.779389e+000 -8.276457e+000 98 84 49
-3.102107e+000 -3.760911e+000 -8.477685e+000 110 91 51
5.797501e+000 6.627524e+001 2.133330e+001 104 94 95
4.252539e+000 6.841869e+001 1.851116e+001 109 97 96
-4.568380e+000 -1.982061e+000 -1.002311e+001 83 93 58
-1.963931e+000 -2.028176e+000 -1.116333e+001 139 107 84
-2.568148e+000 -1.521255e+000 -1.149476e+001 112 93 79
-2.695965e+000 -1.047549e+000 -1.198059e+001 159 132 121
-3.025153e-001 -3.308230e+000 -1.019944e+001 168 150 127
-5.323809e-001 -2.984777e+000 -1.050649e+001 173 150 127
-5.321513e-001 -2.987118e+000 -1.050712e+001 173 150 127
-4.573355e+000 -1.784893e+000 -1.027809e+001 139 118 79
4.726210e+000 6.451743e+001 2.254876e+001 91 86 80
-1.916486e+000 -1.744065e+000 -1.168515e+001 95 76 67
-4.438424e+000 -4.568318e-001 -1.196229e+001 108 110 71
-3.640932e-001 6.866678e+001 1.795734e+001 74 69 70
-9.350106e+000 1.195898e+002 2.073767e+000 98 91 98
-1.209190e+001 1.056876e+002 1.261523e+001 93 86 98
-2.513381e+000 1.185887e+002 -1.859953e+000 68 71 86
-3.652512e+000 -3.690275e+000 -8.268681e+000 114 100 65
-3.652512e+000 -3.690275e+000 -8.268681e+000 114 100 65
-3.240373e+000 -3.608968e+000 -8.558565e+000 130 109 69
-3.243819e+000 -3.337716e+000 -8.874940e+000 141 112 69
-4.051726e+000 -2.528581e+000 -9.560961e+000 68 74 44
-1.460801e+000 -1.902072e+000 -1.154200e+001 126 97 79
-2.809278e+000 -1.730482e+000 -1.113954e+001 92 72 65
-4.849810e+000 -1.210957e+000 -1.084169e+001 92 74 41
-4.072780e-001 -6.508489e-001 -1.345006e+001 122 105 75
-2.267116e+000 -3.648541e+000 -8.940876e+000 139 115 70
-2.118069e+000 -3.535498e+000 -9.169921e+000 148 119 74
-8.682463e-001 -3.527795e+000 -9.695328e+000 90 77 45
-8.351045e-001 -3.471018e+000 -9.778331e+000 115 100 67
-3.710743e+000 -3.418377e+000 -8.587830e+000 95 78 48
-3.710743e+000 -3.418377e+000 -8.587830e+000 95 78 48
-2.785210e+000 -3.365968e+000 -9.052495e+000 112 82 49
-9.260184e+000 1.166351e+002 2.156388e+000 106 99 107
-3.318067e+000 -3.772189e+000 -8.362194e+000 89 73 40
-3.318067e+000 -3.772189e+000 -8.362194e+000 89 73 40
-2.977525e+000 -3.573194e+000 -8.750668e+000 136 110 69
-2.160043e+000 -3.590334e+000 -9.069408e+000 115 91 55
-9.989352e-001 -3.298530e+000 -9.942076e+000 120 100 72
-9.613276e+000 6.092717e+001 -1.066433e+001 78 69 72
5.072310e-002 -5.171696e-001 -1.376755e+001 81 68 51
-6.543279e-001 2.760491e-002 -1.417433e+001 124 110 84
-1.905222e+000 9.983049e-001 -1.456290e+001 239 237 238
1.876205e+000 7.997140e+001 4.393473e+000 66 62 68
-1.077298e+001 1.059683e+002 1.300524e+001 73 70 77
-8.927315e+000 1.227261e+002 -5.206986e+000 105 98 106
-1.064568e+001 9.962599e+001 1.287834e+001 68 63 70
-4.995970e+000 7.220259e+001 1.569740e+001 68 66 66
-1.176681e+001 1.052255e+002 1.422615e+001 129 123 133
-1.107034e+001 1.025410e+002 1.058669e+001 97 93 107
-3.656259e+000 -1.488582e+000 -6.834993e+000 218 216 142
-1.673019e+000 -3.556410e+000 -8.524096e+000 157 141 97
-3.847074e+000 -3.784043e+000 -8.100105e+000 126 118 72
-5.076886e-001 -3.749574e+000 -9.480446e+000 118 113 73
-3.476635e+000 -3.616452e+000 -8.488714e+000 128 110 72
-2.409325e+000 -3.327283e+000 -8.973200e+000 113 85 45
-2.000644e+000 -3.662207e+000 -9.100124e+000 146 123 82
-3.729388e-002 -3.423200e+000 -1.002130e+001 156 145 125
-3.729388e-002 -3.423200e+000 -1.002130e+001 156 145 125
-6.636331e-001 -3.163779e+000 -9.997801e+000 132 114 74
-1.825675e-001 -3.246256e+000 -1.026877e+001 156 142 114
-4.495376e+000 -3.199741e+000 -8.924905e+000 146 119 72
-1.803512e-001 -3.091084e+000 -1.042640e+001 122 123 92
2.774313e-002 -3.048756e+000 -1.067912e+001 162 156 130
-3.705405e-001 -2.974082e+000 -1.057830e+001 167 146 128
-3.980746e+000 -2.635593e+000 -9.611033e+000 110 92 54
-3.510302e+000 -2.745103e+000 -9.548140e+000 182 144 96
-3.659535e+000 -2.713508e+000 -9.661084e+000 107 92 57
-4.815400e+000 -1.235714e+000 -9.110892e+000 229 135 140
-4.183849e+000 -2.471330e+000 -9.723213e+000 92 93 58
-4.120346e-001 -2.413069e+000 -1.127398e+001 146 124 74
-4.944597e+000 -9.488818e-001 -9.394584e+000 221 125 135
-3.028472e+000 -2.200287e+000 -1.068596e+001 97 72 66
-3.028472e+000 -2.200287e+000 -1.068596e+001 97 72 66
-2.462179e+000 -2.052730e+000 -1.089038e+001 115 95 88
-1.872005e+000 -2.124632e+000 -1.107341e+001 95 72 63
-1.827703e+000 -2.067174e+000 -1.112676e+001 139 111 97
-1.559344e+000 -2.062680e+000 -1.123468e+001 126 107 92
-4.650424e+000 -2.076618e+000 -1.001253e+001 75 83 51
-2.766391e+000 -1.835023e+000 -1.105506e+001 117 97 88
-2.702660e+000 -1.817289e+000 -1.110626e+001 84 62 56
-5.220076e+000 -1.323299e-001 -9.724059e+000 154 88 91
-5.212669e+000 -3.208830e-001 -9.776680e+000 229 211 208
-3.034251e+000 -1.759496e+000 -1.097221e+001 162 133 119
-3.013276e+000 -1.680130e+000 -1.110688e+001 152 124 112
-2.666893e+000 -1.862406e+000 -1.116289e+001 103 79 69
-2.594925e+000 -1.705958e+000 -1.125440e+001 79 59 52
-1.920474e+000 -1.769486e+000 -1.146398e+001 74 57 55
-2.988988e+000 -1.470629e+000 -1.137524e+001 149 117 101
-4.784561e+000 -1.279298e+000 -1.081912e+001 166 139 88
-4.791408e+000 -1.295588e+000 -1.082434e+001 166 139 88
-4.857856e+000 -1.234425e+000 -1.084994e+001 103 87 53
-4.813766e+000 -1.217890e+000 -1.090880e+001 165 139 94
-2.783459e+000 -1.023753e+000 -1.203934e+001 124 98 84
-2.377920e+000 -1.052335e+000 -1.214576e+001 130 108 87
-3.957407e-002 -9.234613e-001 -1.305336e+001 130 105 67
-1.875655e-001 -9.499126e-001 -1.310225e+001 132 108 72
-1.875655e-001 -9.499126e-001 -1.310225e+001 132 108 72
1.482541e-001 -1.114170e+000 -1.304928e+001 105 81 53
2.120764e-001 -1.017768e+000 -1.304990e+001 105 81 53
-4.798889e+000 -1.050292e+000 -1.115304e+001 155 135 87
-4.680930e+000 -6.763312e-001 -1.162071e+001 156 132 89
-4.393645e+000 -6.148678e-001 -1.195303e+001 84 83 49
-4.393882e+000 -5.052136e-001 -1.199027e+001 167 146 97
-4.393882e+000 -5.052136e-001 -1.199027e+001 167 146 97
-5.542321e-001 -3.315499e-001 -1.372969e+001 136 112 77
8.077794e-001 -4.496894e-001 -1.414789e+001 123 114 95
7.626312e-001 -5.242805e-001 -1.414326e+001 123 114 95
-5.899376e+000 1.960323e+000 -1.090866e+001 159 146 121
-4.604696e+000 -3.720736e-001 -1.197419e+001 83 88 51
-4.604696e+000 -3.720736e-001 -1.197419e+001 83 88 51
-4.555255e+000 -6.433707e-001 -1.197317e+001 75 83 54
-4.180247e+000 -2.659904e-001 -1.233622e+001 93 85 48
-4.177875e+000 -2.726790e-001 -1.234044e+001 93 85 48
-4.092848e+000 -4.886379e-001 -1.245965e+001 169 132 78
-2.093560e+000 -1.705074e-001 -1.331575e+001 151 131 81
-2.096404e+000 -1.767980e-001 -1.330941e+001 151 131 81
-4.373497e+000 -1.082578e-001 -1.244267e+001 85 84 49
-4.384094e+000 -1.255149e-001 -1.244745e+001 85 84 49
-4.200351e+000 -1.784526e-001 -1.251576e+001 80 91 64
-3.954134e+000 -7.357437e-003 -1.270708e+001 92 95 59
-3.954134e+000 -7.357437e-003 -1.270708e+001 92 95 59
-3.587014e+000 -1.592673e-002 -1.279060e+001 86 90 66
-3.587014e+000 -1.592673e-002 -1.279060e+001 86 90 66
-2.360201e+000 -4.503459e-002 -1.332808e+001 119 100 54
-8.778968e-001 4.031122e-001 -1.435648e+001 126 113 81
-9.217890e-001 -1.735790e+000 -6.875575e+000 192 175 148
-3.817090e+000 -1.182162e+000 -6.999233e+000 139 127 90
-2.909809e+000 -3.819946e+000 -8.596308e+000 108 84 48
-2.891890e+000 -3.693649e+000 -8.644855e+000 146 123 81
-3.900141e+000 -1.050339e+000 -7.160762e+000 146 130 111
-3.991499e+000 -3.515058e+000 -8.371578e+000 127 113 70
-3.991499e+000 -3.515058e+000 -8.371578e+000 127 113 70
-3.902987e+000 -3.536857e+000 -8.352529e+000 102 88 53
-3.368133e+000 -3.584792e+000 -8.540448e+000 144 120 78
-3.381346e+000 -3.615520e+000 -8.554447e+000 144 120 78
-3.130140e+000 -3.600633e+000 -8.690233e+000 151 127 81
-3.130140e+000 -3.600633e+000 -8.690233e+000 151 127 81
-2.999356e+000 -3.461958e+000 -8.880118e+000 158 127 80
-2.999356e+000 -3.461958e+000 -8.880118e+000 158 127 80
-2.669158e+000 -3.451112e+000 -9.040022e+000 154 126 79
-2.668906e+000 -3.443030e+000 -9.035547e+000 154 126 79
-2.498584e+000 -3.659937e+000 -8.859005e+000 150 123 78
-2.387522e+000 -3.548830e+000 -9.032293e+000 158 127 83
-2.460973e+000 -3.580655e+000 -9.122245e+000 123 95 57
-2.116461e+000 -3.548199e+000 -9.184341e+000 149 126 79
-2.122921e+000 -3.554635e+000 -9.186010e+000 149 126 79
-1.902596e+000 -3.649837e+000 -9.125030e+000 150 126 82
-1.898978e+000 -3.641818e+000 -9.124535e+000 150 126 82
-1.694304e+000 -3.516363e+000 -9.366071e+000 150 123 76
-1.296104e+000 -3.502160e+000 -9.559699e+000 139 117 76
-1.296104e+000 -3.502160e+000 -9.559699e+000 139 117 76
-6.448145e-001 -3.660861e+000 -9.557861e+000 116 108 69
-8.023297e-001 -3.569460e+000 -9.642385e+000 124 110 71
-6.603011e-001 -3.576844e+000 -9.717951e+000 117 109 71
2.216394e-001 -3.572718e+000 -9.970228e+000 121 128 100
4.204396e-001 -3.585272e+000 -1.001702e+001 122 129 98
-3.251414e+000 -3.345050e+000 -8.888914e+000 159 129 77
-2.475406e+000 -3.410651e+000 -9.120321e+000 159 131 83
-2.431969e+000 -3.462527e+000 -9.176916e+000 155 127 80
-2.431969e+000 -3.462527e+000 -9.176916e+000 155 127 80
-2.416447e+000 -3.401760e+000 -9.249528e+000 112 82 44
-2.684456e+000 -3.469137e+000 -9.233090e+000 167 133 79
-1.789075e+000 -3.396472e+000 -9.462803e+000 147 116 71
-1.356931e+000 -3.380731e+000 -9.681327e+000 144 117 74
-1.355501e+000 -3.379486e+000 -9.681382e+000 144 117 74
-8.150903e-001 -3.450581e+000 -9.772077e+000 131 113 77
-8.343435e-001 -3.469174e+000 -9.776233e+000 131 113 77
-7.015012e-001 -3.460910e+000 -9.843893e+000 123 111 71
-7.015012e-001 -3.460910e+000 -9.843893e+000 123 111 71
-8.903841e-001 -3.348127e+000 -9.899537e+000 138 118 81
-6.827138e-002 -3.337822e+000 -1.023859e+001 158 146 119
-4.657031e+000 -1.312307e+000 -8.732167e+000 236 222 214
-3.604567e+000 -2.762515e+000 -9.692566e+000 184 145 106
-5.980934e-001 -2.573723e+000 -1.103298e+001 167 153 131
-3.867056e-001 -2.551221e+000 -1.113247e+001 138 133 104
-4.752498e+000 -6.360093e-001 -8.861911e+000 198 108 116
-4.752498e+000 -6.360093e-001 -8.861911e+000 198 108 116
-4.224640e+000 -2.338789e+000 -9.771965e+000 75 84 57
-7.972535e-001 -2.419806e+000 -1.116740e+001 107 90 73
-6.808334e-001 -2.359074e+000 -1.122027e+001 173 147 126
-4.902980e+000 -6.655806e-001 -9.220559e+000 241 219 216
-4.341931e+000 -2.243973e+000 -9.846937e+000 81 83 60
-2.158825e+000 -1.851624e+000 -1.123574e+001 75 58 51
-4.730521e+000 -1.653888e+000 -1.051356e+001 168 137 91
-2.930949e+000 -1.663968e+000 -1.127783e+001 116 88 73
1.463287e+000 -1.985294e+000 -1.337503e+001 83 70 56
-5.233776e+000 -4.524993e-002 -9.930808e+000 182 107 102
-4.783247e+000 -1.530191e+000 -1.051421e+001 116 93 55
-2.923319e+000 -1.342690e+000 -1.148338e+001 137 113 101
-2.684433e+000 -1.489010e+000 -1.151682e+001 92 72 63
-2.560058e+000 -1.264999e+000 -1.182332e+001 126 103 85
1.234988e-001 -1.367688e+000 -1.264699e+001 112 79 46
-2.209226e+000 -1.142728e+000 -1.207474e+001 166 142 115
8.480370e-002 -8.741465e-001 -1.336810e+001 123 99 70
3.744975e-001 -6.476045e-001 -1.366117e+001 92 82 59
-4.527948e+000 -3.100152e-001 -1.210475e+001 73 84 45
-4.074688e+000 -1.968735e-001 -1.244285e+001 91 91 60
-4.375643e+000 -1.107022e-001 -1.235878e+001 158 127 73
-4.057358e+000 -1.509962e-001 -1.252119e+001 153 127 75
-4.057358e+000 -1.509962e-001 -1.252119e+001 153 127 75
-4.032874e+000 -3.320868e-001 -1.254598e+001 90 84 54
-3.789958e+000 -1.284743e-001 -1.268738e+001 89 84 63
-3.789958e+000 -1.284743e-001 -1.268738e+001 89 84 63
-3.858131e+000 4.881763e-004 -1.275375e+001 78 91 67
-3.859580e+000 8.975094e-004 -1.275384e+001 78 91 67
-8.880423e-001 8.489631e-001 -1.451479e+001 132 122 83
7.381527e-001 1.536040e+000 -1.545994e+001 174 161 145
-1.515259e+000 -2.436956e+000 -7.265991e+000 189 174 143
-1.907258e+000 -3.713174e+000 -8.459318e+000 175 162 119
-3.802056e+000 -1.463384e+000 -7.078918e+000 223 217 149
-3.927991e+000 -3.675320e+000 -8.197853e+000 93 83 48
-3.781302e+000 -3.747879e+000 -8.206232e+000 126 114 69
-3.799674e+000 -3.690025e+000 -8.270113e+000 93 82 53
-3.799674e+000 -3.690025e+000 -8.270113e+000 93 82 53
-3.481146e+000 -3.704331e+000 -8.341069e+000 127 112 71
-3.491337e+000 -3.732655e+000 -8.354011e+000 127 112 71
-3.432479e+000 -3.802080e+000 -8.324630e+000 98 84 49
-3.303042e+000 -3.655170e+000 -8.522768e+000 114 94 55
-2.969494e+000 -3.740488e+000 -8.626096e+000 145 122 78
-2.660873e+000 -3.746715e+000 -8.694777e+000 105 83 48
-1.716107e+000 -3.844891e+000 -9.120294e+000 145 125 77
-8.177416e-001 -3.752643e+000 -9.418053e+000 96 87 52
-3.847867e+000 -7.574193e-001 -6.972811e+000 226 210 150
-3.998274e+000 -3.833470e+000 -8.363045e+000 127 114 70
-3.778774e+000 -3.664586e+000 -8.375549e+000 132 117 75
-3.349506e+000 -3.555919e+000 -8.644425e+000 113 91 53
-3.041075e+000 -3.550338e+000 -8.608462e+000 111 89 50
-2.894459e+000 -3.498319e+000 -8.638015e+000 109 87 50
-2.894459e+000 -3.498319e+000 -8.638015e+000 109 87 50
-3.034890e+000 -3.566532e+000 -8.710780e+000 146 122 78
-2.935739e+000 -3.546095e+000 -8.858933e+000 109 86 45
-2.935739e+000 -3.546095e+000 -8.858933e+000 109 86 45
-2.864066e+000 -3.590775e+000 -8.811200e+000 154 125 81
-2.742153e+000 -3.575012e+000 -8.870537e+000 155 122 80
-2.448433e+000 -3.610983e+000 -8.929291e+000 117 90 55
-2.323777e+000 -3.613275e+000 -8.999567e+000 108 82 47
-2.317841e+000 -3.599836e+000 -8.994608e+000 108 82 47
-2.180373e+000 -3.655333e+000 -8.983857e+000 144 120 72
-2.087882e+000 -3.663552e+000 -9.047231e+000 149 123 74
-2.044703e+000 -3.565572e+000 -9.113616e+000 110 88 51
-2.285279e+000 -3.586538e+000 -9.106203e+000 151 124 79
-2.285279e+000 -3.586538e+000 -9.106203e+000 151 124 79
-2.003849e+000 -3.523616e+000 -9.220124e+000 158 128 76
-2.002199e+000 -3.520904e+000 -9.218970e+000 158 128 76
-2.086584e+000 -3.489718e+000 -9.271288e+000 121 93 54
-2.086584e+000 -3.489718e+000 -9.271288e+000 121 93 54
-1.690070e+000 -3.718900e+000 -9.182215e+000 113 92 62
-1.723097e+000 -3.613042e+000 -9.202828e+000 144 122 74
-1.829703e+000 -3.578347e+000 -9.244173e+000 114 90 54
-1.831908e+000 -3.585661e+000 -9.246793e+000 114 90 54
-1.475091e+000 -3.617873e+000 -9.324193e+000 143 118 77
-1.459379e+000 -3.595800e+000 -9.317339e+000 143 118 77
-1.255008e+000 -3.663597e+000 -9.363781e+000 102 81 48
-1.340541e+000 -3.593011e+000 -9.385095e+000 139 119 76
-1.592535e+000 -3.565172e+000 -9.349028e+000 117 94 55
-1.592535e+000 -3.565172e+000 -9.349028e+000 117 94 55
-1.465449e+000 -3.548463e+000 -9.400026e+000 114 94 59
-1.409482e+000 -3.503622e+000 -9.497222e+000 140 119 76
-1.024686e+000 -3.647329e+000 -9.482958e+000 101 88 54
-1.138774e+000 -3.477535e+000 -9.629272e+000 132 111 74
-1.138774e+000 -3.477535e+000 -9.629272e+000 132 111 74
-1.069706e+000 -3.542293e+000 -9.591056e+000 103 87 54
-7.364415e-001 -3.610837e+000 -9.488999e+000 119 106 71
-7.432061e-001 -3.642938e+000 -9.613994e+000 83 76 44
-7.387219e-001 -3.638274e+000 -9.613483e+000 83 76 44
-5.022675e-001 -3.607777e+000 -9.600637e+000 117 110 71
-8.565452e-001 -3.513949e+000 -9.693675e+000 102 88 53
-8.660821e-001 -3.525511e+000 -9.696345e+000 102 88 53
-5.333958e-001 -3.601699e+000 -9.694642e+000 99 93 57
2.420697e-001 -3.666785e+000 -9.892024e+000 88 101 69
2.685595e-001 -3.596507e+000 -1.005330e+001 73 95 74
2.801689e-001 -3.490006e+000 -1.011876e+001 167 158 138
6.889448e+000 6.542538e+001 2.086854e+001 74 66 64
-3.399349e+000 -3.435461e+000 -8.777565e+000 110 89 49
-3.249640e+000 -3.411449e+000 -8.830962e+000 108 84 48
-3.063974e+000 -3.417489e+000 -8.927300e+000 107 81 46
-2.291814e+000 -3.457281e+000 -9.245946e+000 161 130 82
-2.291814e+000 -3.457281e+000 -9.245946e+000 161 130 82
-1.773318e+000 -3.477566e+000 -9.414311e+000 102 78 44
-1.773318e+000 -3.477566e+000 -9.414311e+000 102 78 44
-1.507700e+000 -3.443721e+000 -9.527070e+000 115 90 54
-1.507700e+000 -3.443721e+000 -9.527070e+000 115 90 54
-1.574304e+000 -3.395942e+000 -9.585724e+000 143 114 70
-1.565877e+000 -3.379764e+000 -9.579849e+000 143 114 70
-1.393620e+000 -3.434871e+000 -9.598727e+000 101 81 46
-1.393620e+000 -3.434871e+000 -9.598727e+000 101 81 46
-1.468439e+000 -3.384410e+000 -9.628126e+000 144 120 75
-1.472894e+000 -3.389812e+000 -9.629483e+000 144 120 75
-1.315765e+000 -3.283933e+000 -9.754558e+000 100 76 50
-1.238803e+000 -3.375963e+000 -9.740603e+000 141 117 79
-1.232261e+000 -3.308908e+000 -9.814886e+000 100 83 50
-1.048943e+000 -3.364294e+000 -9.822981e+000 140 123 79
-1.182515e-001 -3.527723e+000 -1.020014e+001 152 141 119
-4.648193e-001 -2.673839e+000 -1.096794e+001 172 157 135
-4.657201e-001 -2.674332e+000 -1.096766e+001 172 157 135
-4.035256e+000 -2.431645e+000 -9.703892e+000 172 143 99
-4.886410e+000 -6.403722e-001 -9.090810e+000 203 92 106
-4.340998e+000 -2.176175e+000 -9.927912e+000 185 147 99
-4.340998e+000 -2.176175e+000 -9.927912e+000 185 147 99
-4.250717e+000 -2.330001e+000 -9.865081e+000 179 143 99
-4.243470e+000 -2.210647e+000 -9.927601e+000 86 88 65
-2.865124e+000 -2.287069e+000 -1.055994e+001 101 79 68
-1.869741e+000 -2.254990e+000 -1.093050e+001 158 136 113
4.858639e-001 -2.088716e+000 -1.209287e+001 113 99 65
-4.905459e+000 1.525252e+000 -8.776777e+000 143 129 121
-4.938364e+000 -4.217187e-001 -9.222408e+000 204 104 110
-3.032816e+000 -1.942853e+000 -1.077685e+001 100 76 66
-1.251672e+000 -1.914931e+000 -1.159709e+001 163 117 81
4.649096e-001 -1.727935e+000 -1.246017e+001 89 72 46
-5.064409e+000 -4.166866e-001 -9.615677e+000 216 122 137
-2.762881e+000 -1.671510e+000 -1.121116e+001 130 108 95
-2.767863e+000 -1.682492e+000 -1.121566e+001 130 108 95
3.981802e+000 7.313087e+001 9.733087e+000 42 37 41
1.916230e-001 -7.871304e-001 -1.316747e+001 101 79 51
3.613004e-001 -8.949495e-001 -1.323432e+001 80 65 43
2.608040e-001 -8.079105e-001 -1.338781e+001 71 57 38
-6.383698e-002 -4.908081e-001 -1.371513e+001 124 105 75
-1.748309e-001 -3.900695e-001 -1.385132e+001 117 101 68
1.893271e-001 -5.019374e-001 -1.376177e+001 111 94 69
1.401093e-001 -5.730403e-001 -1.376195e+001 111 94 69
2.539542e-001 -4.267759e-002 -1.406683e+001 89 77 51
-4.301450e+000 -3.450147e-001 -1.220442e+001 83 88 58
-4.544733e+000 -2.367217e-001 -1.220279e+001 153 124 79
-4.422968e+000 -2.308181e-001 -1.227181e+001 77 91 64
-4.424366e+000 -2.415431e-001 -1.227724e+001 77 91 64
-3.554944e-001 -2.618795e-001 -1.392776e+001 104 87 60
-2.183728e-001 -1.672740e-001 -1.414302e+001 98 84 57
-3.676850e+000 6.367019e-002 -1.288165e+001 89 95 61
-5.500832e-001 2.694312e-001 -1.436537e+001 92 80 58
-1.080890e+000 1.256647e+000 -1.497345e+001 229 223 213
4.803545e-002 1.077303e+000 -1.548511e+001 237 236 229
9.239455e+000 6.134871e+001 2.521836e+001 83 73 71
-1.285454e+000 -3.947925e+000 -8.963704e+000 176 158 113
7.183035e+000 6.677163e+001 2.534997e+001 63 57 61
-3.757815e+000 -3.767492e+000 -8.114904e+000 95 85 50
-3.222661e+000 -3.776778e+000 -8.398360e+000 107 89 53
-3.740824e+000 -3.568953e+000 -8.454193e+000 110 94 61
-3.740824e+000 -3.568953e+000 -8.454193e+000 110 94 61
-3.483950e+000 -3.394727e+000 -8.676971e+000 110 91 58
-3.210348e+000 -3.531002e+000 -8.689058e+000 115 97 55
-2.614656e+000 -3.610018e+000 -8.854053e+000 116 92 56
-1.672381e+000 -3.321124e+000 -9.603240e+000 115 85 52
-2.041774e-001 -3.461974e+000 -1.002610e+001 161 145 119
-5.812515e-001 -2.908099e+000 -1.060015e+001 170 148 127
8.738478e-001 -2.909076e+000 -1.116660e+001 80 79 51
-4.034183e+000 -2.560402e+000 -9.625379e+000 75 88 59
-4.057425e+000 -2.244684e+000 -9.565319e+000 181 139 96
-4.124915e-001 -2.469670e+000 -1.119749e+001 94 99 68
-4.124915e-001 -2.469670e+000 -1.119749e+001 94 99 68
-2.382210e+000 -2.242507e+000 -1.068957e+001 165 143 122
-1.556788e+000 -1.804313e+000 -1.160500e+001 104 75 67
-7.537130e+000 7.232611e+001 1.641189e+001 132 124 121
-8.047091e+000 7.353911e+001 1.648614e+001 93 87 88
-6.966152e+000 7.191836e+001 1.614389e+001 100 92 89
-4.689291e+000 -1.647377e+000 -1.041649e+001 146 121 80
-1.942182e+000 -1.675866e+000 -1.162150e+001 74 61 50
-1.665554e-002 7.343065e+001 1.211138e+001 86 76 74
-4.749241e+000 -1.454258e+000 -1.060771e+001 176 138 93
-4.772616e+000 -1.145924e+000 -1.098294e+001 155 133 95
-2.978996e+000 -1.211099e+000 -1.181268e+001 174 140 112
-2.659803e+000 -1.203740e+000 -1.188561e+001 107 83 73
-2.285712e-001 -8.312908e-001 -1.338155e+001 126 102 66
-4.878546e-001 -2.446917e-001 -1.388873e+001 130 108 71
-3.065137e+000 7.908796e-002 -1.307968e+001 117 102 59
-8.260827e-001 3.564705e-001 -1.427587e+001 101 87 58
8.010101e-001 -5.068170e+000 -1.622124e+001 245 238 232
1.925740e+001 7.510728e+001 3.456635e+001 123 106 96
1.730412e+001 6.908823e+001 2.997302e+001 129 116 103
1.608892e+001 6.669540e+001 2.766789e+001 66 56 50
7.229119e+000 6.257529e+001 2.509483e+001 60 53 52
9.419126e+000 6.822641e+001 2.580429e+001 72 62 60
-3.646199e+000 -3.392767e+000 -8.634762e+000 111 92 62
-2.232357e+000 6.785541e+001 2.202936e+001 100 96 95
-3.521373e-001 -2.759953e+000 -1.089295e+001 102 104 73
-4.239511e+000 7.058741e+001 1.919028e+001 75 71 72
-1.174614e-001 7.276432e+001 1.625701e+001 85 77 72
-8.586425e+000 7.230619e+001 1.853145e+001 97 93 101
-2.973069e+000 -1.843130e+000 -1.095237e+001 120 93 86
-8.132583e+000 7.120286e+001 1.686192e+001 114 105 106
-7.380713e+000 7.207301e+001 1.569634e+001 138 130 127
-2.116633e+000 -1.668519e+000 -1.154641e+001 136 98 69
-5.214069e+000 -7.339636e-002 -9.819422e+000 175 97 90
-4.788811e+000 -1.360794e+000 -1.072388e+001 128 111 71
-2.717102e+000 -1.452131e+000 -1.156073e+001 99 80 67
-4.795852e+000 -9.982496e-001 -1.119873e+001 129 109 66
-3.558040e-001 -7.357811e-001 -1.335501e+001 104 84 51
-8.574359e-001 1.158310e+000 -1.512952e+001 232 227 222
7.959127e+000 6.679405e+001 2.588940e+001 102 96 96
2.707165e+000 -3.560152e+000 -1.088642e+001 84 76 63
5.484826e+000 6.734382e+001 2.235923e+001 62 56 56
1.718461e+000 6.930146e+001 1.900826e+001 91 76 70
-4.710366e+000 -1.168471e+000 -8.830875e+000 219 123 128
-8.092245e-001 -2.140913e+000 -1.150989e+001 153 108 67
-6.282069e+000 7.385208e+001 1.643555e+001 122 111 109
1.519614e+000 -1.572179e+000 -1.329789e+001 160 145 126
-2.554863e+000 -1.069578e+000 -1.210499e+001 109 84 76
-4.063690e+000 -1.935455e-001 -1.250730e+001 154 134 83
-6.229508e+000 5.367354e-001 -1.241093e+001 114 109 67
-6.229508e+000 5.367354e-001 -1.241093e+001 114 109 67
1.715583e+001 7.108307e+001 3.139266e+001 52 46 46
-3.845618e+000 -3.282680e+000 -8.635070e+000 152 130 87
-1.041711e+000 6.995157e+001 2.370491e+001 77 71 73
-1.088026e+000 6.745572e+001 2.121645e+001 111 103 101
-4.680554e+000 6.951244e+001 2.093242e+001 76 75 83
3.876192e+000 7.135140e+001 1.836286e+001 107 92 86
-2.151995e-001 -2.607180e+000 -1.109107e+001 129 128 97
-8.727317e-001 -1.869125e+000 -1.176228e+001 143 99 59
-8.737343e-001 -1.879967e+000 -1.176871e+001 143 99 59
-8.834007e+000 7.336340e+001 1.721823e+001 75 73 86
-5.592628e+000 2.665057e+000 -1.031460e+001 173 127 115
-2.756081e+000 -3.493419e+000 -7.735773e+000 161 148 113
-3.523292e+000 7.055408e+001 2.231429e+001 125 119 116
-4.841558e+000 -7.509421e-001 -9.090829e+000 243 196 195
-2.169652e+000 -1.169737e+000 -1.215596e+001 159 133 106
-1.995690e+000 -3.054305e+000 -7.799946e+000 159 144 111
-4.153140e+000 -2.717593e+000 -8.818834e+000 152 128 80
-3.642451e+000 6.898049e+001 1.988073e+001 133 129 120
-4.811673e+000 7.117657e+001 1.785101e+001 68 65 72
-4.811673e+000 7.117657e+001 1.785101e+001 68 65 72
-1.075644e+000 -1.779754e-001 -1.340304e+001 163 127 75
7.101576e-001 -2.299437e+000 -1.419330e+001 194 179 158
-2.273621e+000 -1.752200e+000 -1.131429e+001 83 65 61
-6.591150e-001 -1.779292e+000 -1.229428e+001 160 123 69
2.190732e+000 -2.814065e+000 -1.302737e+001 194 182 160
3.948450e-001 1.167063e+000 -1.462788e+001 82 77 55
1.909421e+000 -2.545256e+000 -1.090324e+001 79 88 62
-4.307001e+000 -4.850346e-001 -1.199779e+001 98 79 46
2.402317e+000 7.431619e+001 1.317443e+000 89 80 76
2.510330e+000 7.021386e+001 1.592166e+001 80 73 67
1.368860e+000 7.266128e+001 1.333234e+001 100 90 89
-4.438363e+000 -2.013017e+000 -1.001161e+001 157 122 83
-4.438363e+000 -2.013017e+000 -1.001161e+001 157 122 83
-1.494017e+000 -2.147380e+000 -1.118491e+001 98 73 66
-6.300489e+000 7.273525e-001 -1.221204e+001 208 222 200
-1.191401e+000 7.291483e+001 1.054907e+001 70 60 58
-7.742201e-001 6.470163e+001 2.358579e+001 89 81 78
4.624376e+000 6.695192e+001 1.945913e+001 89 78 74
2.260002e+000 7.902258e-001 -1.128116e+001 105 95 60
-3.446509e+000 -1.741802e+000 -6.349965e+000 173 170 111
-2.341313e+000 -3.676780e+000 -8.831054e+000 148 121 74
-1.368773e+000 -3.619171e+000 -9.321738e+000 101 81 49
-1.375229e+000 -3.626306e+000 -9.324672e+000 101 81 49
-1.111881e-001 -3.519648e+000 -9.962537e+000 108 104 71
-3.505617e+000 -3.486961e+000 -8.677313e+000 111 91 53
-2.641151e+000 -3.421467e+000 -9.099711e+000 114 85 37
-2.641151e+000 -3.421467e+000 -9.099711e+000 114 85 37
-1.700796e+000 -3.415111e+000 -9.546857e+000 156 125 81
5.769230e-002 -3.428609e+000 -1.009603e+001 95 100 74
5.769230e-002 -3.428609e+000 -1.009603e+001 95 100 74
9.861275e-002 -3.344429e+000 -1.015475e+001 92 98 72
1.321940e-001 -3.406546e+000 -1.017302e+001 166 161 134
-2.949643e+000 -3.409237e+000 -8.991159e+000 160 128 80
-2.209461e+000 -3.410199e+000 -9.316898e+000 113 79 42
-4.999449e-001 -3.096491e+000 -1.045888e+001 174 149 128
-4.999449e-001 -3.096491e+000 -1.045888e+001 174 149 128
-3.779023e-001 -2.983850e+000 -1.058085e+001 173 152 135
-1.838285e-001 -2.989386e+000 -1.070949e+001 180 162 140
-4.738499e-001 -2.867612e+000 -1.074341e+001 175 151 126
-3.748789e+000 -2.507407e+000 -9.481414e+000 70 88 50
-3.744421e+000 -2.631204e+000 -9.548338e+000 158 144 101
-5.506088e-001 -2.532464e+000 -1.114349e+001 168 152 128
-5.506088e-001 -2.532464e+000 -1.114349e+001 168 152 128
-8.997488e-001 -2.425647e+000 -1.114816e+001 182 157 133
-8.533596e-001 -2.358798e+000 -1.112697e+001 182 157 133
4.646344e-001 -2.218466e+000 -1.189104e+001 113 98 67
-2.940152e+000 -2.176259e+000 -1.052505e+001 105 76 73
-1.157826e+000 -2.121017e+000 -1.130674e+001 163 127 99
-4.201956e+000 -2.226441e+000 -9.935800e+000 89 90 61
-4.201956e+000 -2.226441e+000 -9.935800e+000 89 90 61
-3.039009e+000 -2.143485e+000 -1.051988e+001 171 138 133
-2.601459e+000 -2.133812e+000 -1.071097e+001 139 115 103
-2.601459e+000 -2.133812e+000 -1.071097e+001 139 115 103
-2.682693e+000 -1.999520e+000 -1.077032e+001 88 65 59
-1.641087e+000 -1.964902e+000 -1.135982e+001 104 85 78
-2.761602e+000 -1.827571e+000 -1.105275e+001 121 99 91
-2.160190e+000 -1.907765e+000 -1.132699e+001 102 82 76
-1.788554e+000 -1.846590e+000 -1.141423e+001 72 53 49
-1.788554e+000 -1.846590e+000 -1.141423e+001 72 53 49
6.137817e-001 -1.502168e+000 -1.274354e+001 78 75 46
-4.967941e+000 -4.910882e-001 -9.334773e+000 232 226 231
-4.623941e+000 -1.682468e+000 -1.030906e+001 175 143 92
-2.557450e+000 -1.568420e+000 -1.139334e+001 78 58 51
-2.421788e+000 -1.402132e+000 -1.164549e+001 80 56 52
-2.471724e+000 -1.367231e+000 -1.166524e+001 108 83 82
-2.581103e-001 -1.047752e+000 -1.302711e+001 82 58 31
-4.828471e+000 1.771303e+000 -8.828969e+000 206 201 174
-4.776862e+000 -1.242212e+000 -1.092163e+001 176 146 96
-2.377917e+000 -1.097833e+000 -1.209010e+001 165 137 125
-3.029786e-001 -9.896875e-001 -1.303976e+001 142 110 62
-3.392977e-001 -9.239407e-001 -1.311963e+001 148 116 71
1.970158e-003 -9.229240e-001 -1.321277e+001 136 107 73
-4.751265e+000 -9.041917e-001 -1.130000e+001 165 136 87
-4.751265e+000 -9.041917e-001 -1.130000e+001 165 136 87
-4.491671e-001 -4.438525e-001 -1.360186e+001 144 116 78
-6.354272e-001 -2.857120e-001 -1.382936e+001 139 117 80
-4.438968e+000 -2.031596e-001 -1.220786e+001 79 89 53
-4.349654e+000 -3.133671e-001 -1.219081e+001 162 119 74
-4.251918e+000 -7.495901e-002 -1.238006e+001 78 84 56
-4.251918e+000 -7.495901e-002 -1.238006e+001 78 84 56
-3.987347e+000 -3.034606e-003 -1.264448e+001 173 133 79
-3.750767e+000 1.228432e-001 -1.288511e+001 166 131 71
-9.504347e-001 4.645856e-001 -1.443061e+001 130 117 86
-3.791763e+000 1.656103e-001 -1.291198e+001 86 93 66
-3.791763e+000 1.656103e-001 -1.291198e+001 86 93 66
-3.650778e+000 -3.709837e+000 -8.276766e+000 129 111 72
-2.780728e+000 -3.828769e+000 -8.589851e+000 146 119 65
-3.067786e+000 -3.704188e+000 -8.576307e+000 155 128 85
-2.531419e+000 -3.703086e+000 -8.882466e+000 154 124 80
-1.077066e+000 -3.740294e+000 -9.401187e+000 131 115 79
-8.374551e-001 -3.685635e+000 -9.477964e+000 128 119 78
-8.374551e-001 -3.685635e+000 -9.477964e+000 128 119 78
-6.665814e-001 -3.591682e+000 -9.726608e+000 125 116 79
-3.297300e+000 -3.637138e+000 -8.633339e+000 146 122 78
-3.163089e+000 -3.617966e+000 -8.608492e+000 156 129 82
-2.707251e+000 -3.592068e+000 -8.891852e+000 158 129 84
-2.927128e+000 -3.469482e+000 -8.970945e+000 160 125 84
-2.924687e+000 -3.464929e+000 -8.968243e+000 160 125 84
-2.428015e+000 -3.507276e+000 -9.099556e+000 116 88 50
-2.144053e+000 -3.438646e+000 -9.310499e+000 167 134 82
-2.599033e-001 -3.343439e+000 -9.917154e+000 123 111 72
-3.774944e+000 -1.149319e+000 -6.887693e+000 220 202 133
1.459312e-002 -3.254621e+000 -1.041784e+001 95 103 71
1.300514e+000 -2.776814e+000 -1.143236e+001 77 79 55
-5.261571e-001 -2.844582e+000 -1.079550e+001 149 120 75
-3.516454e-001 -2.884514e+000 -1.134176e+001 90 95 63
-4.125330e+000 -2.278952e+000 -9.857592e+000 80 84 63
-2.913859e+000 -2.223153e+000 -1.048417e+001 159 130 123
-2.501460e+000 -2.277101e+000 -1.065671e+001 135 104 92
-1.582832e+000 -2.097718e+000 -1.117217e+001 97 70 61
-4.748842e+000 -6.690168e-001 -8.856762e+000 198 106 124
-2.162973e+000 -2.067560e+000 -1.091943e+001 119 95 86
-1.985968e+000 -1.973951e+000 -1.118377e+001 146 112 91
-1.346736e+000 -1.930602e+000 -1.154386e+001 113 78 58
-4.854177e+000 -7.964188e-001 -9.135613e+000 223 229 222
1.519085e+000 -1.735888e+000 -1.332537e+001 158 145 129
1.419490e+000 -2.319852e+000 -1.362146e+001 183 172 154
-1.908736e+000 -1.630041e+000 -1.171076e+001 83 60 52
-4.692838e+000 -1.542244e+000 -1.048548e+001 184 143 92
-2.363258e+000 -1.091648e+000 -1.201475e+001 97 74 64
2.344942e-001 -9.644849e-001 -1.335324e+001 85 70 50
-2.668926e+000 -9.443507e-001 -1.209082e+001 164 134 124
-2.650735e+000 -8.885436e-001 -1.227508e+001 152 121 102
-2.703563e-001 -4.501709e-001 -1.376327e+001 100 77 53
-2.703563e-001 -4.501709e-001 -1.376327e+001 100 77 53
-1.601327e-001 -4.124966e-001 -1.379037e+001 127 106 75
-4.538329e+000 -3.360596e-001 -1.210583e+001 66 88 58
-4.409799e+000 -3.845764e-001 -1.203565e+001 70 84 52
-2.412734e+000 -6.496406e-002 -1.326650e+001 153 131 85
-2.412734e+000 -6.496406e-002 -1.326650e+001 153 131 85
-8.379190e-001 4.253858e-002 -1.402504e+001 142 121 80
-8.379190e-001 4.253858e-002 -1.402504e+001 142 121 80
-8.192949e-001 6.791250e-002 -1.415943e+001 130 114 81
-4.150273e+000 -1.773037e-001 -1.239909e+001 166 133 80
-4.140157e+000 -1.645887e-001 -1.239781e+001 166 133 80
-4.196378e+000 -1.720004e-001 -1.251437e+001 76 85 51
-4.066157e+000 -6.096913e-002 -1.261091e+001 80 83 46
-4.042777e+000 -1.111261e-002 -1.260306e+001 80 83 46
-3.280381e+000 1.237855e-003 -1.298589e+001 162 135 84
-3.482445e+000 -3.758201e+000 -8.270496e+000 81 67 38
-3.427257e+000 -3.788970e+000 -8.321889e+000 87 71 38
-3.528779e+000 -3.654338e+000 -8.388040e+000 100 82 45
-3.305527e+000 -3.730693e+000 -8.458173e+000 144 118 77
-3.310685e+000 -3.665907e+000 -8.528712e+000 116 92 54
-8.095007e-001 -3.584605e+000 -9.650982e+000 126 112 73
-3.845622e+000 -3.597437e+000 -8.294764e+000 128 112 76
-3.845622e+000 -3.597437e+000 -8.294764e+000 128 112 76
-2.620527e+000 -3.541242e+000 -9.015698e+000 119 91 54
-2.620527e+000 -3.541242e+000 -9.015698e+000 119 91 54
-1.894408e+000 -3.516896e+000 -9.270000e+000 158 128 82
-1.074793e+000 -3.435734e+000 -9.748003e+000 97 77 52
-7.777183e-001 -3.353849e+000 -9.963076e+000 133 116 72
-1.421277e+000 -3.335906e+000 -9.732451e+000 104 81 49
-9.543092e-001 -3.343156e+000 -9.984154e+000 100 80 48
1.163756e+000 -2.872652e+000 -1.120652e+001 82 82 56
-3.970276e+000 -7.326610e-001 -7.175710e+000 227 208 149
-7.452852e-003 -2.574952e+000 -1.115266e+001 97 94 66
-3.926436e+000 -2.491490e+000 -9.734415e+000 67 80 48
-1.232003e+000 -2.107667e+000 -1.138087e+001 132 92 67
-4.440764e+000 1.147846e+000 -8.021694e+000 108 109 83
-2.952011e+000 -1.742128e+000 -1.109712e+001 109 82 73
4.815784e-001 -1.332271e+000 -1.293361e+001 88 77 57
1.065213e+000 -3.245449e+000 -1.459608e+001 196 185 167
7.643066e-001 -4.377828e+000 -1.543805e+001 93 82 72
7.643066e-001 -4.377828e+000 -1.543805e+001 93 82 72
-5.112317e+000 -1.100244e-001 -9.571626e+000 171 94 110
2.577133e-001 -1.029649e+000 -1.313633e+001 117 90 60
-3.379022e-002 -1.055003e+000 -1.311080e+001 135 100 62
-2.952552e+000 -1.182287e+000 -1.180034e+001 176 142 116
-1.801341e-001 -9.696054e-001 -1.324550e+001 138 110 73
-1.781543e-001 -9.706584e-001 -1.324711e+001 138 110 73
-1.202529e-001 -7.604598e-001 -1.332763e+001 135 109 72
-1.794461e-001 -7.409577e-001 -1.353456e+001 115 93 60
-1.756434e-001 -6.403142e-001 -1.358730e+001 98 77 44
-3.497804e-001 -5.224058e-001 -1.365619e+001 134 112 75
3.257590e-002 -1.842767e-001 -1.407001e+001 116 102 73
-3.955065e+000 -7.744588e-002 -1.263494e+001 171 129 70
-8.624984e+000 7.363041e+001 1.653748e+001 105 105 109
-7.273490e+000 7.291338e+001 1.535693e+001 88 88 87
