ply
format ascii 1.0
element face 0
property list uchar int vertex_indices
element vertex 877
property float x
property float y
property float z
property uchar diffuse_red
property uchar diffuse_green
property uchar diffuse_blue
end_header
-2.999058e+000 -4.051943e+000 -7.688200e+000 70 66 38
-2.816241e+000 -3.996034e+000 -7.676676e+000 117 115 76
-2.829231e+000 -4.059221e+000 -7.673631e+000 66 61 42
-2.519739e+000 -4.020096e+000 -7.794966e+000 80 74 42
-2.222587e+000 -4.034236e+000 -7.987945e+000 117 113 78
-2.066788e+000 -3.998928e+000 -8.137763e+000 76 73 45
-9.127131e-001 -3.911091e+000 -8.673811e+000 136 124 77
-1.644458e-001 -3.898936e+000 -9.151796e+000 80 66 40
1.321469e+000 -4.634223e-001 -6.499704e+000 111 115 77
-7.160214e-001 -1.061317e+000 -5.861665e+000 142 134 81
1.161678e+000 -6.303123e-001 -6.516186e+000 122 127 86
1.572601e+000 -6.125146e-001 -6.708488e+000 121 126 85
4.182313e+000 -2.904254e-001 -7.841231e+000 103 112 92
-2.298814e+000 -1.406829e+000 -5.264395e+000 82 84 71
-2.306032e+000 -1.436674e+000 -5.248670e+000 82 84 71
-1.868218e+000 -1.480711e+000 -5.554090e+000 79 80 72
2.776774e+000 -6.613977e-001 -7.401262e+000 100 113 85
2.639089e+000 -6.840415e-001 -7.535128e+000 100 111 78
2.639089e+000 -6.840415e-001 -7.535128e+000 100 111 78
3.040471e+000 -7.814926e-001 -7.571766e+000 97 110 80
3.075207e+000 -7.091285e-001 -7.624737e+000 97 110 80
-2.683371e+000 -1.790226e+000 -5.272294e+000 81 83 72
-2.193780e+000 -1.702643e+000 -5.530755e+000 100 93 83
9.199859e-002 -1.343149e+000 -6.530066e+000 137 130 84
1.012093e+000 -1.270056e+000 -6.890075e+000 148 139 84
1.907524e+000 -1.033095e+000 -7.266439e+000 116 120 79
2.176457e+000 -1.132988e+000 -7.434058e+000 117 122 87
2.378380e+000 -9.792269e-001 -7.449671e+000 108 117 80
2.853772e+000 -9.356446e-001 -7.643471e+000 98 108 83
3.698877e+000 -6.933926e-001 -7.953631e+000 95 107 83
3.722194e+000 -6.898687e-001 -8.051278e+000 100 113 88
3.795177e+000 -6.677290e-001 -8.008889e+000 66 78 54
3.695745e+000 -9.165042e-001 -8.090548e+000 68 77 56
-2.926921e+000 -1.886568e+000 -5.394762e+000 77 82 75
-2.939363e+000 -1.942026e+000 -5.469323e+000 74 77 68
-2.820798e+000 -1.992209e+000 -5.467060e+000 77 79 68
-2.073374e+000 -1.753213e+000 -5.667633e+000 153 144 137
-2.204850e+000 -1.919315e+000 -5.731401e+000 130 130 120
-2.162111e+000 -2.014123e+000 -5.688282e+000 81 83 72
-2.042056e+000 -1.900884e+000 -5.830449e+000 142 144 130
-1.934631e+000 -1.911924e+000 -5.814997e+000 82 85 74
-4.641919e-001 -1.525086e+000 -6.525916e+000 91 85 59
-1.923219e-001 -1.390371e+000 -6.507468e+000 159 147 100
-8.023084e-002 -1.485519e+000 -6.612751e+000 155 143 95
-1.976082e-001 -1.614794e+000 -6.657728e+000 83 75 55
9.234477e-001 -1.392957e+000 -7.025421e+000 124 114 79
2.025902e+000 -1.146065e+000 -7.457303e+000 124 126 87
1.983831e+000 -1.300532e+000 -7.524480e+000 120 123 80
2.818871e+000 -1.283628e+000 -7.933099e+000 62 72 48
3.513610e+000 -1.006686e+000 -8.068139e+000 60 70 53
3.392908e+000 -1.182140e+000 -8.201225e+000 89 103 77
-2.902786e+000 -2.012495e+000 -5.500884e+000 132 134 123
-2.339669e+000 -2.074830e+000 -5.829272e+000 143 138 129
-2.339669e+000 -2.074830e+000 -5.829272e+000 143 138 129
-1.945313e+000 -2.081715e+000 -6.029968e+000 90 91 78
-1.866325e+000 -1.969199e+000 -5.907243e+000 79 82 70
1.737296e+000 -1.594890e+000 -7.685447e+000 131 130 82
1.920666e+000 -1.472421e+000 -7.600756e+000 128 126 87
1.920666e+000 -1.472421e+000 -7.600756e+000 128 126 87
1.927261e+000 -1.476399e+000 -7.710645e+000 128 127 76
2.059262e+000 -1.535304e+000 -7.803150e+000 119 120 78
2.881851e+000 -1.337380e+000 -8.023051e+000 91 101 74
3.064805e+000 -1.295608e+000 -8.209483e+000 93 104 74
2.841753e+000 -1.471407e+000 -8.172221e+000 93 104 75
2.841753e+000 -1.471407e+000 -8.172221e+000 93 104 75
3.324432e+000 -1.404161e+000 -8.414058e+000 92 100 76
3.472289e+000 -1.402561e+000 -8.435058e+000 85 95 68
-2.858679e+000 -2.231868e+000 -5.705947e+000 77 79 68
-2.786755e+000 -2.218290e+000 -5.749238e+000 137 141 127
-2.660878e+000 -2.181878e+000 -5.818974e+000 69 75 65
-2.746531e+000 -2.275265e+000 -5.852904e+000 82 82 69
-2.696368e+000 -2.255714e+000 -5.852470e+000 131 133 120
-2.086690e+000 -2.227347e+000 -6.074420e+000 74 75 66
-1.217936e+000 -2.103672e+000 -6.605232e+000 68 53 48
-2.404285e-001 -1.971805e+000 -7.004997e+000 152 140 101
1.195268e+000 -1.753142e+000 -7.476945e+000 154 136 69
1.686338e+000 -1.752096e+000 -7.795921e+000 146 136 85
1.841920e+000 -1.760741e+000 -7.924247e+000 132 127 83
2.063265e+000 -1.538893e+000 -7.898732e+000 122 121 79
2.001150e+000 -1.721797e+000 -7.926603e+000 131 124 82
2.499866e+000 -1.590942e+000 -8.057749e+000 109 117 78
3.049309e+000 -1.528094e+000 -8.291382e+000 62 72 47
3.181821e+000 -1.415542e+000 -8.393461e+000 89 105 71
3.181821e+000 -1.415542e+000 -8.393461e+000 89 105 71
3.155695e+000 -1.490174e+000 -8.434195e+000 91 104 74
3.226752e+000 -1.653667e+000 -8.503070e+000 87 97 68
-3.713786e+000 -1.527514e+000 -5.988689e+000 112 115 98
-2.524761e+000 -2.441880e+000 -6.049049e+000 130 129 111
-2.314253e+000 -2.398910e+000 -6.136974e+000 79 80 73
-2.314253e+000 -2.398910e+000 -6.136974e+000 79 80 73
-9.221471e-001 -2.135625e+000 -6.790484e+000 152 141 112
-8.313729e-001 -2.214034e+000 -6.892650e+000 161 146 115
-8.402310e-001 -2.273513e+000 -6.855857e+000 161 146 115
-6.756757e-001 -2.160432e+000 -6.976284e+000 80 71 54
-2.917675e-002 -2.163419e+000 -7.278593e+000 149 139 101
2.085278e+000 -1.932710e+000 -8.195331e+000 126 123 78
2.085278e+000 -1.932710e+000 -8.195331e+000 126 123 78
2.258269e+000 -1.882678e+000 -8.276287e+000 116 118 78
2.407006e+000 -1.906909e+000 -8.399437e+000 113 114 72
2.481686e+000 -1.901491e+000 -8.467409e+000 64 68 45
3.020570e+000 -1.738372e+000 -8.487821e+000 91 100 69
2.866754e+000 -1.897125e+000 -8.641037e+000 92 101 74
3.331469e+000 -1.807223e+000 -8.734261e+000 79 89 60
3.175886e+000 -1.862019e+000 -8.761889e+000 85 94 69
3.175886e+000 -1.862019e+000 -8.761889e+000 85 94 69
-1.050417e+000 -2.344010e+000 -6.926329e+000 105 98 69
-1.158880e+000 -2.490406e+000 -6.948890e+000 146 134 105
-6.225275e-001 -2.399064e+000 -7.214720e+000 153 139 104
-2.094280e-001 -2.298285e+000 -7.299056e+000 151 139 96
-2.094280e-001 -2.298285e+000 -7.299056e+000 151 139 96
-9.649322e-002 -2.348193e+000 -7.473748e+000 149 136 93
2.329967e-001 -2.331517e+000 -7.575075e+000 140 132 89
1.884362e+000 -2.097370e+000 -8.309384e+000 125 123 75
2.363128e+000 -2.017398e+000 -8.411747e+000 115 115 71
2.194052e+000 -2.093823e+000 -8.450551e+000 112 112 73
2.014948e+000 -2.147229e+000 -8.357727e+000 126 125 80
2.307181e+000 -2.170589e+000 -8.445320e+000 109 110 69
2.588653e+000 -2.023004e+000 -8.524530e+000 57 65 41
2.653188e+000 -2.038327e+000 -8.547175e+000 105 111 79
2.517609e+000 -2.018854e+000 -8.549035e+000 101 107 73
3.319990e+000 -2.047516e+000 -9.042351e+000 58 66 43
-7.503812e-001 -2.534122e+000 -7.213259e+000 153 140 107
-3.198476e-001 -2.439070e+000 -7.430118e+000 149 137 87
1.806676e-001 -2.499917e+000 -7.725635e+000 147 139 85
1.494524e+000 -2.334522e+000 -8.239687e+000 135 130 75
1.502761e+000 -2.312490e+000 -8.259605e+000 135 130 75
1.959238e+000 -2.309362e+000 -8.481348e+000 118 116 74
2.621865e+000 -2.170389e+000 -8.787087e+000 98 102 75
2.467072e+000 -2.383811e+000 -8.819625e+000 53 56 36
3.203371e+000 -2.200645e+000 -9.097111e+000 80 89 62
-4.933050e-001 -2.742460e+000 -7.547286e+000 146 135 89
-2.054325e-001 -2.691863e+000 -7.740464e+000 142 132 83
9.211588e-001 -2.602036e+000 -8.306650e+000 137 129 83
1.146981e+000 -2.659134e+000 -8.406390e+000 81 71 39
1.572374e+000 -2.553878e+000 -8.565185e+000 133 127 75
1.543511e+000 -2.634430e+000 -8.553067e+000 132 129 65
1.727450e+000 -2.555871e+000 -8.659284e+000 127 121 70
2.044458e+000 -2.507462e+000 -8.692340e+000 109 108 64
2.100724e+000 -2.398354e+000 -8.785224e+000 109 108 64
2.647271e+000 -2.514390e+000 -9.047850e+000 87 97 64
2.855824e+000 -2.387772e+000 -9.157111e+000 92 98 70
3.082742e+000 -2.556221e+000 -9.362145e+000 82 90 66
-1.322717e+000 -2.985012e+000 -7.315532e+000 143 134 99
-7.752136e-001 -2.840749e+000 -7.611277e+000 152 137 93
3.028385e-001 -2.855970e+000 -8.170106e+000 66 66 35
1.603308e+000 -2.893339e+000 -8.850546e+000 133 126 77
1.603308e+000 -2.893339e+000 -8.850546e+000 133 126 77
2.079522e+000 -2.643076e+000 -8.988839e+000 78 74 46
2.490585e+000 -2.580147e+000 -9.182519e+000 95 100 69
2.492524e+000 -2.577917e+000 -9.185056e+000 95 100 69
2.615853e+000 -2.638998e+000 -9.253851e+000 92 99 68
2.589406e+000 -2.685085e+000 -9.206273e+000 92 99 68
2.814841e+000 -2.537926e+000 -9.389621e+000 81 90 58
2.570292e+000 -2.763725e+000 -9.350474e+000 94 100 63
3.305754e+000 -2.578953e+000 -9.616505e+000 49 56 34
-1.502908e+000 -3.099947e+000 -7.420136e+000 50 47 38
-7.771257e-001 -3.179069e+000 -7.930274e+000 144 132 85
-4.531619e-001 -3.002729e+000 -7.971219e+000 142 132 83
-3.259940e-001 -3.036425e+000 -8.030143e+000 143 137 77
-3.243675e-001 -3.027570e+000 -8.038622e+000 143 137 77
-3.368329e-001 -3.078367e+000 -8.073410e+000 143 135 88
9.234865e-002 -2.951326e+000 -8.203864e+000 70 62 45
8.805906e-001 -2.925621e+000 -8.546615e+000 73 64 33
1.265868e+000 -2.983015e+000 -8.722129e+000 143 132 78
1.265868e+000 -2.983015e+000 -8.722129e+000 143 132 78
1.652990e+000 -2.794372e+000 -8.999619e+000 129 125 77
1.977582e+000 -2.765913e+000 -9.266748e+000 120 117 69
2.363262e+000 -2.926682e+000 -9.420114e+000 102 104 69
2.358174e+000 -2.939901e+000 -9.407592e+000 102 104 69
2.705052e+000 -2.806220e+000 -9.476335e+000 93 101 70
3.075813e+000 -2.837979e+000 -9.719113e+000 51 56 36
2.856775e+000 -2.883597e+000 -9.719927e+000 91 97 69
3.200410e+000 -2.791747e+000 -9.984440e+000 90 94 69
3.218671e+000 -2.870591e+000 -9.892728e+000 49 52 33
-2.810761e+000 -3.341651e+000 -7.021692e+000 127 117 81
-2.353642e+000 -3.335966e+000 -7.274174e+000 140 131 92
-1.975115e+000 -3.327029e+000 -7.425448e+000 87 77 49
-1.954328e+000 -3.375629e+000 -7.514513e+000 91 82 53
-1.898931e+000 -3.417350e+000 -7.513307e+000 139 129 94
-1.603248e+000 -3.330086e+000 -7.664697e+000 55 43 38
-1.445644e+000 -3.305483e+000 -7.689113e+000 144 136 94
-8.434361e-001 -3.360550e+000 -8.091472e+000 145 131 86
-3.687606e-001 -3.150699e+000 -8.192113e+000 139 129 78
-4.181095e-001 -3.284633e+000 -8.278103e+000 137 128 84
-1.790894e-001 -3.151867e+000 -8.324024e+000 131 125 73
2.574693e-001 -3.162213e+000 -8.550868e+000 138 132 79
6.813849e-001 -3.286023e+000 -8.841384e+000 149 142 87
1.347973e+000 -3.198720e+000 -9.137021e+000 133 123 67
1.895060e+000 -2.973385e+000 -9.297750e+000 118 116 67
1.876175e+000 -3.013725e+000 -9.259742e+000 118 116 67
2.126551e+000 -3.152208e+000 -9.454689e+000 110 110 72
2.268516e+000 -3.192030e+000 -9.631668e+000 101 102 70
2.750712e+000 -3.062363e+000 -9.678982e+000 84 90 62
3.120192e+000 -2.957752e+000 -9.978108e+000 85 89 64
3.011293e+000 -3.090104e+000 -1.005461e+001 52 55 36
-3.438640e+000 -3.557567e+000 -6.956621e+000 81 71 44
-3.411549e+000 -3.688615e+000 -6.972055e+000 78 72 40
-1.633021e+000 -3.412997e+000 -7.749779e+000 56 46 35
-1.479370e+000 -3.412737e+000 -7.796238e+000 143 132 86
-7.693069e-001 -3.534656e+000 -8.259364e+000 139 127 75
-4.490809e-001 -3.383627e+000 -8.299799e+000 144 136 88
-4.490809e-001 -3.383627e+000 -8.299799e+000 144 136 88
-4.901993e-001 -3.499238e+000 -8.445762e+000 134 127 79
-6.117110e-002 -3.397668e+000 -8.564324e+000 79 68 40
1.303316e+000 -3.305414e+000 -9.165474e+000 137 127 67
1.095566e+000 -3.464479e+000 -9.234485e+000 145 129 77
1.870699e+000 -3.410545e+000 -9.559835e+000 116 112 77
2.197081e+000 -3.369272e+000 -9.756912e+000 100 101 69
2.221811e+000 -3.323724e+000 -9.810599e+000 100 101 69
2.709855e+000 -3.437655e+000 -1.004586e+001 62 66 46
-3.497154e+000 -3.786826e+000 -7.060624e+000 83 73 52
-2.873511e+000 -3.700506e+000 -7.332838e+000 90 80 48
-2.727445e+000 -3.724364e+000 -7.474286e+000 130 120 84
-2.085426e+000 -3.653585e+000 -7.767091e+000 67 62 38
-9.769184e-001 -3.697240e+000 -8.389546e+000 135 127 81
2.450882e-001 -3.588903e+000 -8.943445e+000 142 134 83
1.712787e+000 -3.463817e+000 -9.646963e+000 122 114 76
2.376037e+000 -3.362843e+000 -1.005696e+001 98 98 68
2.291761e+000 -3.540759e+000 -1.003390e+001 96 96 70
2.489881e+000 -3.486481e+000 -1.024621e+001 94 98 65
2.629940e+000 -3.521632e+000 -1.030509e+001 89 92 65
2.629940e+000 -3.521632e+000 -1.030509e+001 89 92 65
-3.706062e+000 -3.861247e+000 -7.117973e+000 112 110 72
-3.500983e+000 -3.897086e+000 -7.210442e+000 79 76 41
-3.600735e+000 -3.894823e+000 -7.225353e+000 124 122 83
-3.116405e+000 -3.990387e+000 -7.480364e+000 66 63 41
-2.764836e+000 -3.864363e+000 -7.549791e+000 80 74 48
-2.599134e+000 -3.956536e+000 -7.651542e+000 73 69 45
-2.206220e+000 -3.839479e+000 -7.825398e+000 125 120 78
-1.501179e+000 -3.796929e+000 -8.199466e+000 131 121 83
-8.751076e-001 -3.802671e+000 -8.564491e+000 138 132 81
1.701460e-001 -3.788652e+000 -9.168461e+000 134 124 72
7.679018e-001 -3.734282e+000 -9.516799e+000 79 72 43
1.113147e+000 -3.810433e+000 -9.677827e+000 124 116 72
1.410906e+000 -3.646165e+000 -9.861860e+000 71 65 40
1.342287e+000 -3.669612e+000 -9.910618e+000 132 124 75
1.459428e+000 -3.743471e+000 -9.770453e+000 117 114 72
1.456229e+000 -3.746191e+000 -9.883592e+000 120 115 76
1.602953e+000 -3.762668e+000 -9.919422e+000 112 107 65
1.753851e+000 -3.735757e+000 -9.931401e+000 109 109 63
1.754427e+000 -3.736553e+000 -9.931212e+000 109 109 63
1.916227e+000 -3.743619e+000 -1.009086e+001 112 108 73
2.293249e+000 -3.599889e+000 -1.025488e+001 102 105 65
2.676259e+000 -3.588747e+000 -1.033710e+001 64 65 47
-3.879017e+000 -4.363227e+000 -6.833612e+000 140 139 88
-3.816498e+000 -4.046516e+000 -7.265105e+000 68 67 40
-3.618340e+000 -4.078767e+000 -7.391494e+000 84 78 52
-3.348934e+000 -3.952606e+000 -7.436757e+000 111 109 72
-3.283319e+000 -4.074313e+000 -7.419580e+000 115 113 74
-2.953169e+000 -4.084752e+000 -7.639351e+000 118 115 78
-2.890447e+000 -4.076027e+000 -7.766124e+000 80 76 48
-2.931163e+000 -4.125361e+000 -7.753663e+000 120 116 73
-2.464191e+000 -4.041014e+000 -7.985185e+000 117 115 75
-1.178698e+000 -3.962620e+000 -8.560305e+000 141 129 76
-1.178698e+000 -3.962620e+000 -8.560305e+000 141 129 76
-3.974149e+000 -4.081970e+000 -7.305319e+000 136 140 89
-3.887004e+000 -4.115624e+000 -7.368977e+000 116 117 73
-3.724738e+000 -4.223016e+000 -7.364684e+000 114 110 71
7.225778e-001 -7.478505e-001 -6.344141e+000 91 87 57
5.770341e-001 -8.686748e-001 -6.354397e+000 137 132 77
1.979144e+000 -7.211207e-001 -6.973338e+000 119 126 95
2.068437e+000 -7.148606e-001 -7.026099e+000 81 86 64
2.426024e+000 -5.212145e-001 -7.112935e+000 85 94 73
-2.559464e+000 -1.570482e+000 -5.172408e+000 77 82 73
-2.458293e+000 -1.458188e+000 -5.221627e+000 71 73 62
-2.502430e+000 -1.520395e+000 -5.240049e+000 128 128 116
-1.999326e+000 -1.381449e+000 -5.325480e+000 81 83 73
-7.290052e-001 -1.105653e+000 -5.952798e+000 139 133 81
1.877530e+000 -8.348002e-001 -6.987105e+000 73 78 53
2.319688e+000 -8.646763e-001 -7.275951e+000 75 84 57
2.685599e+000 -6.699121e-001 -7.355525e+000 69 81 58
1.955500e+000 -1.136858e+000 -7.351022e+000 78 81 52
2.155815e+000 -9.753855e-001 -7.383992e+000 68 72 45
2.331072e+000 -9.136756e-001 -7.444331e+000 72 77 54
2.644578e+000 -8.626768e-001 -7.471440e+000 66 74 51
-2.883691e+000 -1.963691e+000 -5.416423e+000 134 138 124
-4.749507e-001 -1.546949e+000 -6.401509e+000 83 74 44
-4.749507e-001 -1.546949e+000 -6.401509e+000 83 74 44
1.220116e+000 -1.482263e+000 -7.254652e+000 104 96 70
2.226646e+000 -1.205456e+000 -7.563672e+000 76 79 59
2.580000e+000 -1.094170e+000 -7.687507e+000 72 81 55
2.729198e+000 -1.159887e+000 -7.874414e+000 72 76 59
3.285060e+000 -1.229702e+000 -8.094854e+000 56 68 44
-2.821482e+000 -2.007728e+000 -5.551561e+000 80 82 74
-2.882347e+000 -2.057474e+000 -5.586960e+000 125 130 119
-2.909241e+000 -2.144666e+000 -5.612421e+000 80 81 72
-2.909241e+000 -2.144666e+000 -5.612421e+000 80 81 72
-2.054072e+000 -2.103838e+000 -5.971808e+000 143 144 128
-5.797973e-001 -1.892362e+000 -6.654641e+000 93 82 59
-1.189860e-001 -1.788113e+000 -6.850646e+000 86 75 52
2.011751e+000 -1.449217e+000 -7.682807e+000 75 75 45
2.131582e+000 -1.542080e+000 -7.860563e+000 77 79 48
2.651175e+000 -1.373603e+000 -8.007022e+000 55 68 40
2.692752e+000 -1.481588e+000 -8.124173e+000 95 105 71
3.739511e+000 -1.220984e+000 -8.362430e+000 68 77 59
3.735857e+000 -1.226105e+000 -8.360168e+000 68 77 59
3.383149e+000 -1.401300e+000 -8.342790e+000 64 74 50
-2.787402e-001 -1.888134e+000 -6.825335e+000 111 99 78
-2.750973e-001 -1.872899e+000 -6.835563e+000 111 99 78
-3.020728e-001 -1.949637e+000 -6.903150e+000 92 80 56
-1.209517e-001 -2.025452e+000 -7.088577e+000 150 137 103
-2.347626e-002 -1.922536e+000 -7.080053e+000 74 67 38
-2.521965e-002 -1.927917e+000 -7.076655e+000 74 67 38
1.749276e+000 -1.771391e+000 -7.833010e+000 72 69 37
2.006752e+000 -1.682124e+000 -7.852516e+000 121 119 77
2.420997e+000 -1.599177e+000 -8.053503e+000 74 77 48
2.887535e+000 -1.581098e+000 -8.334963e+000 48 56 32
3.689687e+000 -1.629933e+000 -8.730478e+000 76 84 57
-9.774023e-001 -2.089401e+000 -6.772661e+000 104 93 71
-9.538938e-001 -2.245075e+000 -6.908974e+000 156 143 111
-6.419167e-001 -2.080616e+000 -6.868394e+000 85 74 55
1.626024e+000 -1.940166e+000 -7.933410e+000 139 134 69
1.841535e+000 -1.979179e+000 -8.081711e+000 85 79 45
2.857227e+000 -1.684180e+000 -8.480682e+000 87 96 69
2.971963e+000 -1.926271e+000 -8.508751e+000 90 100 66
2.925460e+000 -1.895247e+000 -8.593206e+000 63 71 48
2.920515e+000 -1.903062e+000 -8.586097e+000 63 71 48
3.071450e+000 -1.905744e+000 -8.680613e+000 54 62 40
3.110607e+000 -1.836522e+000 -8.743469e+000 54 62 40
-3.817410e+000 -1.616656e+000 -6.237048e+000 197 204 121
-1.334441e+000 -2.397588e+000 -6.774307e+000 61 51 41
-2.730415e-001 -2.282905e+000 -7.265132e+000 115 104 84
-1.924373e-001 -2.235700e+000 -7.284929e+000 153 140 98
-1.131361e-001 -2.405730e+000 -7.473472e+000 156 143 95
5.849927e-001 -2.235776e+000 -7.606342e+000 148 137 91
1.013768e+000 -2.123901e+000 -7.805041e+000 100 90 62
1.070497e+000 -2.177384e+000 -8.049799e+000 153 138 74
1.262831e+000 -2.107106e+000 -7.906414e+000 131 118 80
2.347146e+000 -2.060640e+000 -8.458741e+000 108 110 69
2.441948e+000 -2.015519e+000 -8.479636e+000 81 83 62
3.002948e+000 -2.090473e+000 -8.787241e+000 69 77 51
3.002948e+000 -2.090473e+000 -8.787241e+000 69 77 51
-1.124945e+000 -2.534281e+000 -7.116188e+000 77 69 47
-6.307894e-001 -2.577471e+000 -7.328405e+000 95 83 57
-6.369768e-001 -2.584071e+000 -7.406876e+000 93 84 57
-4.341369e-001 -2.520345e+000 -7.431575e+000 156 142 94
4.323974e-001 -2.484264e+000 -7.843533e+000 100 93 62
1.043324e+000 -2.435843e+000 -8.244240e+000 87 81 50
1.043324e+000 -2.435843e+000 -8.244240e+000 87 81 50
1.689664e+000 -2.417783e+000 -8.461555e+000 79 78 41
1.693281e+000 -2.443650e+000 -8.527700e+000 67 66 38
3.136767e+000 -2.175027e+000 -9.090851e+000 56 64 43
2.961873e+000 -2.263944e+000 -9.057592e+000 51 58 39
3.126243e+000 -2.262996e+000 -9.230529e+000 46 54 34
3.410287e+000 -2.214196e+000 -9.186512e+000 48 52 35
3.437956e+000 -2.244833e+000 -9.385487e+000 52 55 37
3.390236e+000 -2.328115e+000 -9.314058e+000 52 55 37
-5.253400e-001 -2.825809e+000 -7.658722e+000 147 134 81
5.215644e-001 -2.605308e+000 -8.190609e+000 77 66 43
5.215644e-001 -2.605308e+000 -8.190609e+000 77 66 43
6.577170e-001 -2.610231e+000 -8.310070e+000 87 80 54
8.132782e-001 -2.705430e+000 -8.259435e+000 81 69 43
1.315126e+000 -2.650265e+000 -8.566983e+000 96 85 58
1.650820e+000 -2.544198e+000 -8.605913e+000 82 74 45
1.935474e+000 -2.555901e+000 -8.725246e+000 69 65 38
2.024319e+000 -2.584146e+000 -8.865371e+000 111 110 66
2.113273e+000 -2.549759e+000 -8.856501e+000 66 65 40
2.068351e+000 -2.642451e+000 -8.858896e+000 76 76 50
2.402534e+000 -2.570655e+000 -8.990897e+000 64 67 41
2.565209e+000 -2.556915e+000 -9.146630e+000 82 87 65
2.756560e+000 -2.414727e+000 -9.068532e+000 65 71 45
2.720730e+000 -2.515735e+000 -9.071006e+000 65 71 43
3.209026e+000 -2.401953e+000 -9.356057e+000 54 62 41
-1.751567e+000 -2.935547e+000 -7.179410e+000 150 136 99
-1.227316e+000 -2.835233e+000 -7.371011e+000 80 71 46
-1.226136e+000 -2.834120e+000 -7.372227e+000 80 71 46
-1.195470e+000 -2.954489e+000 -7.478194e+000 152 138 90
-4.461456e-001 -2.951813e+000 -7.868125e+000 143 128 78
-2.140834e-001 -2.890219e+000 -7.928897e+000 88 79 50
-2.123180e-001 -2.887632e+000 -7.931941e+000 88 79 50
8.253541e-001 -2.860560e+000 -8.451615e+000 142 132 78
9.097755e-001 -2.833069e+000 -8.486859e+000 77 68 39
1.655481e+000 -2.762587e+000 -8.799099e+000 134 128 77
1.494534e+000 -2.779210e+000 -8.738638e+000 134 128 71
1.909017e+000 -2.666537e+000 -8.813708e+000 80 76 56
1.695286e+000 -2.843979e+000 -8.864542e+000 76 72 44
1.695286e+000 -2.843979e+000 -8.864542e+000 76 72 44
2.223777e+000 -2.663913e+000 -9.010308e+000 60 59 40
2.639707e+000 -2.577577e+000 -9.209051e+000 93 102 69
2.249869e+000 -2.795396e+000 -9.158618e+000 105 106 74
2.545968e+000 -2.647688e+000 -9.289336e+000 62 70 44
2.807025e+000 -2.546879e+000 -9.304259e+000 85 94 64
2.807025e+000 -2.546879e+000 -9.304259e+000 85 94 64
2.688928e+000 -2.633684e+000 -9.255293e+000 57 62 39
2.861567e+000 -2.590583e+000 -9.406313e+000 55 60 40
2.622092e+000 -2.801403e+000 -9.350263e+000 59 61 47
2.623693e+000 -2.798546e+000 -9.352227e+000 59 61 47
-1.597863e+000 -3.140106e+000 -7.483016e+000 53 49 39
-7.081504e-001 -3.141535e+000 -7.925173e+000 78 67 47
-5.959420e-001 -3.025347e+000 -7.876802e+000 148 139 89
4.562288e-001 -2.989645e+000 -8.398506e+000 140 130 78
7.151813e-001 -2.978010e+000 -8.541517e+000 83 75 42
1.556530e+000 -2.835230e+000 -8.905081e+000 79 76 46
1.487433e+000 -2.998022e+000 -8.940373e+000 79 73 48
1.995554e+000 -2.879470e+000 -9.182101e+000 75 71 43
2.114929e+000 -2.959111e+000 -9.246799e+000 61 63 43
2.110397e+000 -2.969396e+000 -9.236956e+000 61 63 43
1.937713e+000 -3.038512e+000 -9.239877e+000 68 66 43
2.333738e+000 -2.817776e+000 -9.366208e+000 53 53 33
2.116681e+000 -2.972360e+000 -9.346545e+000 63 65 43
2.640065e+000 -2.807905e+000 -9.540511e+000 69 72 47
2.791887e+000 -2.771538e+000 -9.503015e+000 58 63 41
2.733853e+000 -2.941415e+000 -9.632795e+000 49 54 31
-2.507065e+000 -3.399936e+000 -7.160912e+000 147 136 92
-2.183924e+000 -3.298619e+000 -7.319184e+000 138 126 85
-1.366341e+000 -3.251257e+000 -7.672213e+000 77 70 44
-1.295767e+000 -3.237967e+000 -7.746782e+000 143 132 87
-3.862693e-001 -3.208758e+000 -8.209446e+000 139 131 77
-5.101865e-001 -3.347005e+000 -8.253559e+000 93 86 50
-1.055226e-001 -3.320028e+000 -8.445887e+000 148 135 90
-7.674211e-002 -3.218028e+000 -8.536732e+000 148 135 90
7.008190e-001 -3.214794e+000 -8.748756e+000 142 131 90
1.439004e+000 -3.138911e+000 -9.097709e+000 71 66 35
1.250497e+000 -3.249060e+000 -9.101440e+000 92 87 57
1.250497e+000 -3.249060e+000 -9.101440e+000 92 87 57
1.501217e+000 -3.168768e+000 -9.151883e+000 131 122 65
1.415434e+000 -3.204425e+000 -9.189112e+000 77 70 42
1.481197e+000 -3.237941e+000 -9.188987e+000 130 118 66
2.002746e+000 -3.066075e+000 -9.295029e+000 112 113 73
1.896799e+000 -3.137980e+000 -9.320201e+000 69 69 41
2.183870e+000 -3.203792e+000 -9.557686e+000 67 70 51
2.383958e+000 -3.066148e+000 -9.540329e+000 62 63 45
2.579735e+000 -3.136376e+000 -9.648559e+000 90 98 57
2.410913e+000 -3.182579e+000 -9.609772e+000 101 105 70
2.553727e+000 -3.081448e+000 -9.818894e+000 50 52 37
2.857758e+000 -2.988983e+000 -9.720321e+000 56 62 41
2.864033e+000 -3.038572e+000 -9.870300e+000 60 67 44
2.727789e+000 -3.148873e+000 -9.771114e+000 94 100 70
-3.799617e+000 -3.552441e+000 -6.668515e+000 134 128 74
-3.197336e+000 -3.636711e+000 -7.027848e+000 122 118 73
-2.742293e+000 -3.593034e+000 -7.341485e+000 132 125 83
-2.075924e+000 -3.452653e+000 -7.520492e+000 135 126 83
1.447766e-001 -3.482341e+000 -8.762447e+000 144 130 79
3.646124e-001 -3.440687e+000 -8.830465e+000 100 93 59
5.545010e-001 -3.428423e+000 -8.935293e+000 82 75 49
1.217701e+000 -3.335952e+000 -9.139575e+000 88 81 55
1.190835e+000 -3.387597e+000 -9.235453e+000 98 92 59
1.393479e+000 -3.298300e+000 -9.253946e+000 69 63 39
1.775107e+000 -3.124966e+000 -9.552829e+000 84 79 54
1.990346e+000 -3.298604e+000 -9.536503e+000 70 68 47
2.083913e+000 -3.254585e+000 -9.524937e+000 110 110 68
2.114832e+000 -3.195896e+000 -9.597233e+000 110 110 68
2.114565e+000 -3.369206e+000 -9.706807e+000 56 57 33
2.476914e+000 -3.244354e+000 -9.773762e+000 66 68 46
2.293528e+000 -3.319606e+000 -9.800430e+000 63 62 43
2.601237e+000 -3.292707e+000 -9.877958e+000 60 61 47
2.533295e+000 -3.299460e+000 -9.894517e+000 91 97 63
2.967394e+000 -3.198485e+000 -1.010278e+001 50 53 33
3.118219e+000 -3.167123e+000 -1.010057e+001 51 53 35
-3.064150e+000 -3.657872e+000 -7.188825e+000 114 109 71
-3.064150e+000 -3.657872e+000 -7.188825e+000 114 109 71
-2.948305e+000 -3.762280e+000 -7.404626e+000 126 123 73
-2.949023e+000 -3.766024e+000 -7.401146e+000 126 123 73
-1.014124e+000 -3.621642e+000 -8.308007e+000 98 96 71
-2.912406e-001 -3.634850e+000 -8.690442e+000 76 72 46
-2.318448e-001 -3.661206e+000 -8.748120e+000 141 129 80
1.810636e-001 -3.563763e+000 -8.864163e+000 69 63 39
1.679831e-001 -3.619586e+000 -8.906710e+000 82 75 48
1.709075e-001 -3.611771e+000 -8.913578e+000 82 75 48
6.582540e-001 -3.521238e+000 -9.080081e+000 81 75 51
4.764132e-001 -3.638002e+000 -9.121764e+000 74 68 31
4.809692e-001 -3.631104e+000 -9.133852e+000 74 68 31
1.012830e+000 -3.501809e+000 -9.225554e+000 79 72 40
1.033207e+000 -3.632384e+000 -9.431661e+000 131 123 65
1.033503e+000 -3.631811e+000 -9.431428e+000 131 123 65
1.358739e+000 -3.564522e+000 -9.478839e+000 126 120 73
1.487307e+000 -3.622368e+000 -9.619761e+000 128 120 72
2.270207e+000 -3.423587e+000 -9.986562e+000 77 77 49
2.216524e+000 -3.550959e+000 -1.005149e+001 78 77 57
2.356195e+000 -3.552379e+000 -1.000121e+001 64 63 43
2.362137e+000 -3.539212e+000 -1.001569e+001 64 63 43
2.525015e+000 -3.410232e+000 -1.023460e+001 98 102 69
2.965746e+000 -3.411066e+000 -1.027729e+001 78 81 61
3.015759e+000 -3.529008e+000 -1.046625e+001 51 54 37
-3.592550e+000 -3.819771e+000 -7.164884e+000 118 115 70
-2.245959e+000 -3.891244e+000 -7.926521e+000 124 116 78
-1.985371e+000 -3.833066e+000 -7.992427e+000 135 127 81
-1.599884e+000 -3.729690e+000 -8.121122e+000 133 125 80
-1.029079e+000 -3.833776e+000 -8.597538e+000 141 132 77
-6.451950e-001 -3.737460e+000 -8.616176e+000 80 74 44
-5.647186e-001 -3.684317e+000 -8.665089e+000 135 126 75
-3.062599e-001 -3.862870e+000 -8.905520e+000 138 129 73
-2.993116e-001 -3.839178e+000 -8.932256e+000 138 129 73
-2.271075e-001 -3.835489e+000 -8.988119e+000 69 62 36
7.287222e-002 -3.658674e+000 -9.031251e+000 135 129 69
1.202177e-001 -3.736742e+000 -9.081826e+000 82 75 51
2.159628e-001 -3.676202e+000 -9.038699e+000 142 130 81
4.586586e-001 -3.698760e+000 -9.146338e+000 72 63 35
9.405502e-001 -3.683416e+000 -9.423474e+000 85 78 49
1.063213e+000 -3.743790e+000 -9.529524e+000 81 71 45
1.063213e+000 -3.743790e+000 -9.529524e+000 81 71 45
9.238153e-001 -3.751541e+000 -9.527452e+000 75 69 45
1.406776e+000 -3.648189e+000 -9.654346e+000 78 72 47
1.527051e+000 -3.723173e+000 -9.735932e+000 80 74 51
1.333456e+000 -3.828013e+000 -9.792265e+000 86 82 54
1.668680e+000 -3.746717e+000 -9.879053e+000 53 48 30
2.493811e+000 -3.658153e+000 -1.028697e+001 70 72 50
2.607174e+000 -3.709699e+000 -1.033083e+001 60 60 41
2.642723e+000 -3.654206e+000 -1.040268e+001 60 60 41
-3.812562e+000 -3.988898e+000 -7.211372e+000 114 113 68
-2.176025e+000 -4.017849e+000 -8.076371e+000 90 84 58
-1.543411e+000 -3.927823e+000 -8.354815e+000 137 129 80
-1.543411e+000 -3.927823e+000 -8.354815e+000 137 129 80
-1.470048e+000 -3.903432e+000 -8.392329e+000 77 69 47
6.810364e-001 -8.423027e-001 -6.444402e+000 97 96 65
-2.753847e+000 -1.565132e+000 -5.124788e+000 76 77 71
1.540210e+000 -9.047011e-001 -6.887137e+000 130 128 83
4.341973e+000 -1.017809e-001 -8.391665e+000 90 105 74
-2.854643e+000 -1.651893e+000 -5.164395e+000 71 76 69
-2.941454e+000 -1.726937e+000 -5.229881e+000 71 78 65
-2.941454e+000 -1.726937e+000 -5.229881e+000 71 78 65
-1.002865e-001 -1.323363e+000 -6.419620e+000 87 78 48
-3.004119e+000 -1.826129e+000 -5.306681e+000 76 79 69
-3.037362e+000 -1.992686e+000 -5.356504e+000 75 81 65
-3.048995e+000 -2.086850e+000 -5.456700e+000 73 77 66
-3.029415e+000 -2.171897e+000 -5.564622e+000 80 81 73
-2.266794e+000 -2.000426e+000 -5.860791e+000 75 79 69
-1.029191e+000 -1.877593e+000 -6.508308e+000 61 51 48
3.358511e-002 -1.771170e+000 -6.938365e+000 88 77 53
7.486077e-001 -1.709145e+000 -7.188636e+000 152 139 86
1.163256e+000 -1.646705e+000 -7.395855e+000 71 68 34
2.797481e+000 -1.373320e+000 -8.042989e+000 64 74 49
-3.514180e+000 -1.803658e+000 -5.689058e+000 109 110 95
-3.516710e+000 -1.796604e+000 -5.691021e+000 109 110 95
-2.910707e+000 -2.310197e+000 -5.782574e+000 69 72 64
-3.647422e-001 -1.931692e+000 -6.837286e+000 156 144 102
-2.821165e+000 -2.357326e+000 -5.883050e+000 74 75 65
-2.821165e+000 -2.357326e+000 -5.883050e+000 74 75 65
-2.710545e+000 -2.377896e+000 -5.974388e+000 74 75 67
-2.587966e+000 -2.419000e+000 -6.028940e+000 78 80 69
-2.587966e+000 -2.419000e+000 -6.028940e+000 78 80 69
-2.454692e+000 -2.423394e+000 -6.072121e+000 79 81 70
-2.186575e+000 -2.352240e+000 -6.110930e+000 73 77 62
1.913317e+000 -2.190830e+000 -8.321700e+000 68 67 38
2.483742e+000 -2.139667e+000 -8.663540e+000 105 110 71
-1.418980e+000 -2.643082e+000 -7.064580e+000 59 57 49
-1.785711e+000 -2.808570e+000 -7.014729e+000 81 73 54
2.875192e-001 -2.655090e+000 -7.884100e+000 127 120 74
-1.847000e+000 -2.986946e+000 -7.171080e+000 83 73 49
-2.356938e+000 -3.405470e+000 -7.334825e+000 141 131 82
-1.792755e+000 -3.282299e+000 -7.510316e+000 84 79 49
-9.073007e-001 -3.330594e+000 -8.054654e+000 110 98 74
-3.017927e+000 -3.544782e+000 -7.067354e+000 129 117 75
-3.044745e+000 -3.594451e+000 -7.146666e+000 128 116 73
-2.038150e+000 -3.511350e+000 -7.587153e+000 82 75 48
1.357055e+000 -3.386963e+000 -9.296087e+000 103 98 69
-3.164881e+000 -3.680691e+000 -7.226412e+000 78 74 47
-2.561982e+000 -3.738055e+000 -7.494202e+000 81 74 55
-2.405371e+000 -3.682053e+000 -7.580901e+000 82 76 53
-2.402562e+000 -3.646485e+000 -7.610262e+000 82 76 53
-1.169520e+000 -3.584777e+000 -8.140711e+000 88 78 55
-1.169449e+000 -3.583338e+000 -8.141656e+000 88 78 55
-6.886707e-001 -3.641872e+000 -8.507431e+000 143 132 79
4.741543e-001 -3.557625e+000 -9.000869e+000 101 93 56
3.063386e+000 -3.611985e+000 -1.040591e+001 77 80 59
3.063386e+000 -3.611985e+000 -1.040591e+001 77 80 59
3.222989e+000 -3.506483e+000 -1.045950e+001 61 56 45
-7.995157e-001 -3.762111e+000 -8.554761e+000 92 81 62
8.283647e-001 -3.827274e+000 -9.559923e+000 85 79 47
2.143681e+000 -3.692108e+000 -1.006514e+001 65 63 42
2.949370e+000 -3.667972e+000 -1.053550e+001 58 60 47
-3.181105e+000 -3.972633e+000 -7.485043e+000 118 113 73
-2.056545e+000 -4.008712e+000 -8.168862e+000 82 78 50
-1.080915e+000 -3.961862e+000 -8.624568e+000 142 130 72
-6.757835e-001 -3.931307e+000 -8.829613e+000 141 125 74
1.276149e-001 -3.896496e+000 -9.180811e+000 143 131 77
-1.815321e+000 -1.484532e+000 -5.530830e+000 84 85 77
3.545155e+000 -2.085089e+000 -9.073578e+000 78 84 58
-5.344734e+000 2.979034e+000 -8.860066e+000 199 186 160
-1.380016e+000 -2.901956e+000 -7.306381e+000 56 50 42
-2.532311e+000 -3.194506e+000 -7.004682e+000 92 85 59
-2.532311e+000 -3.194506e+000 -7.004682e+000 92 85 59
-2.105396e+000 -3.485030e+000 -7.530872e+000 138 129 90
-1.112708e-002 -3.458246e+000 -8.642200e+000 75 66 24
-3.864160e+000 -3.672722e+000 -6.829010e+000 80 69 42
-3.142190e+000 -3.725066e+000 -7.090686e+000 83 81 58
-1.291710e+000 -3.735187e+000 -8.107747e+000 130 121 83
-3.475368e+000 -3.912049e+000 -7.296735e+000 115 112 67
-3.226900e+000 -3.956020e+000 -7.341397e+000 75 71 46
6.654998e-001 -3.773470e+000 -9.415308e+000 116 108 61
-3.150880e+000 -4.176535e+000 -7.570535e+000 86 84 59
-1.395421e+000 -3.967793e+000 -8.403001e+000 105 95 59
-1.517976e+000 -4.028654e+000 -8.419873e+000 80 70 40
-3.398389e+000 -1.884796e+000 -5.613384e+000 170 187 115
-1.886024e+000 -1.844943e+000 -5.964730e+000 82 85 74
1.297126e-001 -1.859633e+000 -6.998367e+000 155 141 91
-2.197857e+000 -3.077071e+000 -7.072171e+000 115 104 82
-3.691835e+000 -1.442613e+000 -5.893855e+000 192 195 115
-3.610255e+000 -3.762116e+000 -7.059907e+000 132 120 72
-1.542595e+000 -3.728992e+000 -8.111289e+000 92 84 47
3.535102e-001 -8.534134e-001 -6.322360e+000 142 131 77
-3.861816e+000 -1.358492e+000 -6.271882e+000 114 106 88
-1.793599e+000 -3.275132e+000 -7.368962e+000 93 83 56
9.714123e-001 -2.061867e+000 -8.025263e+000 144 132 82
-1.824154e+000 -2.620775e+000 -6.478456e+000 141 127 82
2.980814e+000 -2.076024e+000 -1.430762e+001 185 176 161
-4.651790e+000 1.325299e+000 -8.836157e+000 226 219 197
-4.481429e+001 9.295643e+001 -9.577099e+001 155 140 137
-4.060819e+001 8.534249e+001 -9.098977e+001 187 164 158
-4.426534e+001 8.117270e+001 -8.609828e+001 95 79 70
-3.892071e+001 1.196311e+002 -7.406791e+001 133 126 133
-1.802584e+001 5.802437e+001 -4.086462e+001 199 174 169
-2.147610e+001 6.231587e+001 -4.652738e+001 216 197 190
-2.440768e-001 -1.038797e+000 -6.128511e+000 83 75 36
-2.440768e-001 -1.038797e+000 -6.128511e+000 83 75 36
2.343437e+000 -1.062997e+000 -7.491111e+000 99 109 75
2.976484e+000 -1.968438e+000 -8.667320e+000 89 98 68
-7.545387e-001 -3.662265e+000 -8.476520e+000 143 132 72
2.318300e+000 -6.500230e-001 -7.102061e+000 112 123 93
2.473024e+000 -6.348880e-001 -7.167870e+000 101 114 85
-2.879019e+000 -1.575208e+000 -5.170521e+000 74 79 71
1.970596e+000 -7.991573e-001 -7.067968e+000 118 123 92
2.126066e+000 -7.640962e-001 -7.080682e+000 112 120 89
-6.282088e-002 -1.415480e+000 -6.534248e+000 141 133 85
4.361112e-001 -1.295220e+000 -6.743748e+000 149 143 93
2.036137e+000 -1.082038e+000 -7.312766e+000 114 120 79
2.036137e+000 -1.082038e+000 -7.312766e+000 114 120 79
3.127961e+000 -9.810178e-001 -7.765898e+000 93 106 78
3.786731e+000 -8.567045e-001 -8.007960e+000 95 108 82
-1.816765e+000 -1.777515e+000 -5.819281e+000 76 79 69
3.059693e+000 -1.230059e+000 -8.016347e+000 89 99 74
-1.037204e+000 -1.957070e+000 -6.494950e+000 64 56 43
1.604399e+000 -1.780812e+000 -7.732933e+000 76 69 45
3.114143e+000 -1.565836e+000 -8.377711e+000 91 104 74
2.063662e+000 -2.011886e+000 -8.262703e+000 133 127 77
1.444785e-001 -2.213192e+000 -7.468831e+000 140 132 85
3.110251e+000 -2.010427e+000 -8.771091e+000 84 93 66
3.503181e+000 -1.940453e+000 -8.932631e+000 53 61 38
2.010511e+000 -2.381985e+000 -8.598852e+000 75 71 41
2.277782e+000 -2.275579e+000 -8.640013e+000 112 115 72
2.619279e+000 -2.371217e+000 -8.867098e+000 50 56 28
1.826528e-001 -2.669169e+000 -7.969089e+000 79 70 47
-1.953400e+000 -2.907791e+000 -7.113723e+000 101 92 66
-6.693847e-001 -2.859513e+000 -7.668959e+000 153 137 88
2.983813e+000 -2.811343e+000 -9.498850e+000 92 98 73
3.129695e+000 -2.787479e+000 -9.551738e+000 85 90 66
1.263764e+000 -2.989874e+000 -8.766042e+000 134 123 69
-8.247496e-001 -3.287216e+000 -8.070959e+000 146 138 91
-6.351140e-001 -3.291430e+000 -8.169126e+000 75 66 48
2.952900e+000 -3.123445e+000 -9.814935e+000 51 56 36
2.942820e+000 -3.419491e+000 -1.012136e+001 87 91 69
-9.761338e-001 -3.701712e+000 -8.385699e+000 135 127 81
-3.475120e+000 -3.790198e+000 -7.185701e+000 79 73 40
-1.081458e+000 -3.856010e+000 -8.493160e+000 86 76 51
3.488869e-002 -3.787942e+000 -8.999057e+000 134 128 68
-4.701002e-001 -1.016857e+000 -5.976931e+000 144 136 87
1.919739e+000 -7.401930e-001 -7.041097e+000 73 78 53
2.578883e+000 -8.010205e-001 -7.378583e+000 100 113 85
2.761723e-002 -1.342765e+000 -6.489309e+000 88 81 53
1.971798e+000 -1.091252e+000 -7.373379e+000 78 81 52
2.451748e+000 -9.524776e-001 -7.372661e+000 73 83 60
2.459908e+000 -9.296737e-001 -7.384628e+000 73 83 60
2.925194e+000 -9.496945e-001 -7.740279e+000 60 69 49
3.013905e+000 -9.044867e-001 -7.717413e+000 99 109 82
3.390980e+000 -8.745919e-001 -7.853827e+000 67 76 55
-2.900451e+000 -1.970971e+000 -5.519570e+000 135 136 126
-2.619707e+000 -2.070428e+000 -5.742192e+000 83 82 73
2.264660e+000 -1.602174e+000 -7.905292e+000 65 67 46
-2.628385e+000 -2.146950e+000 -5.780554e+000 152 144 127
-6.055806e-002 -1.814366e+000 -6.951030e+000 160 146 101
6.870100e-001 -1.909761e+000 -7.359125e+000 151 142 86
1.857912e+000 -1.665754e+000 -7.749440e+000 129 127 79
1.857912e+000 -1.665754e+000 -7.749440e+000 129 127 79
1.854909e+000 -1.699868e+000 -7.816338e+000 136 129 84
2.088285e+000 -1.673364e+000 -7.902147e+000 92 91 58
-6.581727e-001 -2.094288e+000 -6.929794e+000 112 101 82
1.784148e+000 -1.932303e+000 -8.024623e+000 134 133 71
2.417579e+000 -1.854161e+000 -8.324556e+000 116 115 72
2.519209e+000 -1.787058e+000 -8.322830e+000 62 66 49
2.514595e+000 -1.796271e+000 -8.316805e+000 62 66 49
2.653171e+000 -1.798232e+000 -8.328173e+000 59 62 44
2.946702e+000 -1.798253e+000 -8.518196e+000 52 62 38
-1.504582e-001 -2.336947e+000 -7.430934e+000 105 94 69
1.968391e+000 -2.264231e+000 -8.390019e+000 119 117 75
2.132866e+000 -2.236840e+000 -8.476532e+000 112 112 75
2.132866e+000 -2.236840e+000 -8.476532e+000 112 112 75
-5.178837e-001 -2.393080e+000 -7.349713e+000 160 143 97
-5.178837e-001 -2.393080e+000 -7.349713e+000 160 143 97
2.193848e+000 -2.289518e+000 -8.606591e+000 64 62 37
-1.435404e-001 -2.698213e+000 -7.781862e+000 78 67 40
4.765086e-001 -2.549628e+000 -8.033680e+000 152 137 81
1.455032e+000 -2.659674e+000 -8.541772e+000 67 57 30
1.455032e+000 -2.659674e+000 -8.541772e+000 67 57 30
2.118732e+000 -2.496380e+000 -8.792698e+000 76 73 55
2.878537e+000 -2.481067e+000 -9.215528e+000 56 61 39
-1.441300e+000 -2.872478e+000 -7.299980e+000 48 46 40
-9.259268e-001 -2.886039e+000 -7.569015e+000 86 75 58
-4.467079e-001 -2.949015e+000 -7.869583e+000 143 128 78
4.450936e-001 -3.030429e+000 -8.365427e+000 140 130 78
6.833154e-001 -3.070086e+000 -8.610545e+000 80 75 42
2.406294e+000 -2.964677e+000 -9.340053e+000 78 79 61
1.982461e+000 -3.104379e+000 -9.265132e+000 112 113 73
1.999262e-001 -3.526346e+000 -8.735747e+000 87 82 53
2.717173e+000 -3.340688e+000 -9.894669e+000 60 63 44
3.033720e+000 -3.346826e+000 -1.010172e+001 54 56 44
2.972310e-001 -3.627241e+000 -8.961844e+000 80 73 46
1.127488e+000 -3.560165e+000 -9.335274e+000 75 66 33
2.072471e+000 -3.504637e+000 -9.808437e+000 60 58 43
2.007670e+000 -3.648968e+000 -9.894028e+000 68 68 48
2.327590e+000 -3.628247e+000 -1.004360e+001 62 61 43
2.794790e+000 -3.609983e+000 -1.024624e+001 51 57 41
-1.015508e+000 -3.823594e+000 -8.509207e+000 138 129 81
-5.681142e-001 -3.703502e+000 -8.652147e+000 135 126 75
-3.131720e-002 -3.804183e+000 -8.993543e+000 63 57 32
3.860033e-002 -3.761909e+000 -8.933321e+000 135 129 69
7.080973e-002 -3.844228e+000 -9.134736e+000 112 102 77
-2.533353e+000 -4.056825e+000 -7.954472e+000 74 69 47
6.390500e-001 -7.140077e-001 -6.279156e+000 133 126 83
-1.612246e-001 -1.094610e+000 -6.193671e+000 96 88 47
1.383233e+000 -8.839479e-001 -6.829753e+000 130 127 82
2.562302e+000 -6.361573e-001 -7.251479e+000 68 77 60
4.328126e+000 -5.713766e-001 -8.024146e+000 157 154 145
-2.856741e+000 -1.607180e+000 -5.183636e+000 71 76 69
1.912200e-001 -1.225376e+000 -6.469140e+000 109 102 76
-9.231088e-001 -1.580432e+000 -6.202415e+000 55 50 46
2.056853e+000 -1.243861e+000 -7.475154e+000 80 83 56
-2.986244e+000 -2.186276e+000 -5.704261e+000 74 77 67
-3.599619e-001 -1.912887e+000 -6.846666e+000 156 144 102
-3.173583e-001 -2.416214e+000 -7.352954e+000 83 75 44
-3.079005e-001 -2.379379e+000 -7.376150e+000 83 75 44
6.366267e-001 -2.267793e+000 -7.718551e+000 114 106 85
1.801704e+000 -2.077701e+000 -8.166391e+000 73 68 37
2.351620e+000 -2.496287e+000 -8.828690e+000 99 103 66
-9.457440e-001 -2.964942e+000 -7.603403e+000 104 92 68
7.132783e-001 -2.903728e+000 -8.409528e+000 111 101 65
-2.452359e+000 -3.171065e+000 -7.109117e+000 142 130 90
-2.452359e+000 -3.171065e+000 -7.109117e+000 142 130 90
-1.948606e+000 -3.063817e+000 -7.205223e+000 149 137 97
-3.336741e+000 -3.546236e+000 -6.980387e+000 130 119 73
-2.302819e-001 -3.447533e+000 -8.499488e+000 85 75 44
-1.188857e+000 -3.667943e+000 -8.224707e+000 95 84 61
1.589865e+000 -3.547993e+000 -9.604962e+000 73 68 39
1.587942e+000 -3.547737e+000 -9.604583e+000 73 68 39
-2.012506e+000 -3.880191e+000 -8.063372e+000 69 64 35
-9.507751e-001 -3.811877e+000 -8.491762e+000 110 101 70
-7.060098e-001 -3.879722e+000 -8.759942e+000 123 120 79
-3.538443e+000 -4.068769e+000 -7.481417e+000 112 109 67
-9.384782e-001 -3.956698e+000 -8.695184e+000 143 133 74
-9.410622e-001 -3.958065e+000 -8.693828e+000 143 133 74
-2.879748e-001 -8.981175e-001 -5.943519e+000 102 97 64
-2.083172e+000 -2.918412e+000 -7.005855e+000 145 131 92
-3.155808e+000 -4.108184e+000 -7.631553e+000 86 84 59
-6.624209e-001 -1.026675e+000 -5.812236e+000 140 131 78
-1.226549e+000 -3.506503e+000 -8.059908e+000 110 97 64
1.351847e+000 -1.288470e+000 -7.176899e+000 144 134 72
-2.488415e+000 -3.800528e+000 -7.722394e+000 95 92 61
-3.797262e+000 -4.091074e+000 -7.324722e+000 68 66 42
-1.270673e+000 -2.440224e+000 -6.800097e+000 86 74 58
-1.335202e+000 -2.590084e+000 -7.085224e+000 55 51 45
-3.653132e+000 -3.718068e+000 -7.002667e+000 131 122 73
-4.800276e-001 -1.347691e+000 -6.340695e+000 145 139 93
7.685141e-001 -1.473485e+000 -6.991897e+000 96 89 53
-2.131775e+000 -2.232134e+000 -6.092179e+000 118 120 108
-1.141349e+000 -2.070721e+000 -6.643748e+000 100 88 74
1.826347e-001 -2.104031e+000 -7.369375e+000 148 141 94
-7.587433e-001 -2.798405e+000 -7.540022e+000 152 141 95
-1.151187e+000 -3.155140e+000 -7.749324e+000 145 134 104
-2.068133e+000 -3.281292e+000 -7.378646e+000 145 137 98
2.380379e-001 -3.210977e+000 -8.504163e+000 141 133 84
1.501686e+000 -3.143439e+000 -9.038429e+000 120 115 73
1.723089e+000 -3.376497e+000 -9.501682e+000 117 111 77
-1.362987e+000 -3.834294e+000 -8.346001e+000 99 88 61
-1.312816e+000 -3.817853e+000 -8.368721e+000 135 127 82
3.738337e-001 -3.777836e+000 -9.251321e+000 128 120 82
3.143316e+000 -3.750425e+000 -1.057715e+001 102 87 72
3.104952e+000 -3.714745e+000 -1.062962e+001 71 64 46
-3.586031e+000 -4.046945e+000 -7.381568e+000 116 112 75
-1.184072e+000 -3.991015e+000 -8.600220e+000 145 134 75
3.852616e+000 -6.320711e-001 -7.865261e+000 103 116 90
-1.945657e+000 -1.621744e+000 -5.591886e+000 92 95 86
-1.808277e+000 -1.614203e+000 -5.688480e+000 84 89 75
-3.057053e+000 -1.497554e+000 -5.584910e+000 138 136 113
-2.342476e+000 -1.872254e+000 -5.655450e+000 75 77 66
-4.717212e-001 -1.586415e+000 -6.484390e+000 87 78 47
-1.316842e-001 -1.615300e+000 -6.701001e+000 156 144 102
-2.577491e+000 -2.065043e+000 -5.707898e+000 146 143 133
-3.825440e-001 -1.660317e+000 -6.620645e+000 154 142 98
2.152931e+000 -1.464306e+000 -7.746805e+000 75 78 49
1.659485e+000 -1.845693e+000 -7.836430e+000 147 141 82
2.317382e+000 -1.684196e+000 -8.031879e+000 120 125 85
2.317382e+000 -1.684196e+000 -8.031879e+000 120 125 85
-2.555817e-001 -2.185224e+000 -7.202816e+000 121 110 89
1.065517e+000 -1.966052e+000 -7.677351e+000 76 71 42
1.913045e-001 -2.252062e+000 -7.482194e+000 83 74 45
2.177549e+000 -2.358427e+000 -8.626160e+000 76 75 44
2.622520e+000 -2.367605e+000 -8.868935e+000 69 76 45
-1.479370e-001 -2.708866e+000 -7.777696e+000 72 59 25
1.304090e+000 -2.500309e+000 -8.328966e+000 135 126 86
2.434084e+000 -2.474515e+000 -8.910067e+000 73 75 51
-1.102340e+000 -2.996125e+000 -7.601360e+000 148 139 99
-7.512938e-001 -2.888824e+000 -7.653546e+000 112 99 73
3.568208e-001 -2.890243e+000 -8.256264e+000 143 134 72
3.514632e-001 -2.905205e+000 -8.243341e+000 143 134 72
3.252406e+000 -2.696736e+000 -9.618681e+000 57 62 39
-2.250046e+000 -3.106679e+000 -7.091114e+000 89 83 60
-2.155259e+000 -3.233280e+000 -7.243285e+000 142 128 94
-2.005996e+000 -3.236733e+000 -7.345020e+000 146 132 95
-8.795099e-001 -3.138067e+000 -7.851547e+000 150 135 94
-8.730648e-001 -3.137065e+000 -7.854487e+000 150 135 94
-4.806369e-001 -3.087389e+000 -8.004123e+000 139 131 85
1.856916e-001 -3.038243e+000 -8.305138e+000 139 132 88
8.272285e-001 -3.066223e+000 -8.683059e+000 79 69 33
1.410648e+000 -3.036418e+000 -8.963390e+000 132 126 77
2.290934e+000 -2.891241e+000 -9.290770e+000 58 61 32
-6.368566e-001 -3.309132e+000 -8.163003e+000 100 91 56
2.291711e+000 -3.103146e+000 -9.489677e+000 103 106 77
2.291711e+000 -3.103146e+000 -9.489677e+000 103 106 77
-3.367184e+000 -3.616095e+000 -7.055324e+000 123 116 75
-8.839587e-001 -3.464478e+000 -8.190023e+000 144 134 83
-7.681863e-001 -3.492222e+000 -8.298850e+000 135 127 78
-7.681863e-001 -3.492222e+000 -8.298850e+000 135 127 78
1.341065e+000 -3.414572e+000 -9.324780e+000 72 65 33
2.687489e+000 -3.256871e+000 -9.897394e+000 94 99 68
-3.831855e+000 -3.688163e+000 -6.882406e+000 140 130 81
-3.546330e+000 -3.807831e+000 -7.147172e+000 81 73 47
-1.899035e+000 -3.641075e+000 -7.879971e+000 90 85 55
-9.489541e-001 -3.629251e+000 -8.355929e+000 138 130 83
-7.493372e-001 -3.623931e+000 -8.441457e+000 107 97 67
-7.719888e-001 -3.699994e+000 -8.508858e+000 109 100 68
-3.665719e-001 -3.681232e+000 -8.678651e+000 129 120 79
4.612994e-002 -3.574600e+000 -8.787581e+000 104 98 62
4.833305e-002 -3.556560e+000 -8.803909e+000 104 98 62
2.845990e+000 -3.516616e+000 -1.021128e+001 63 66 47
-3.128569e+000 -3.849445e+000 -7.427410e+000 77 72 43
-2.964473e+000 -3.876261e+000 -7.516041e+000 99 92 66
-2.615350e+000 -3.848206e+000 -7.671514e+000 117 112 77
-8.076816e-001 -3.802418e+000 -8.600040e+000 106 100 70
-5.452721e-001 -3.842453e+000 -8.783892e+000 104 98 64
1.576168e+000 -3.807143e+000 -9.868446e+000 117 114 73
-2.192489e+000 -3.991805e+000 -8.087237e+000 88 83 54
2.088640e+000 -3.736158e-001 -6.805373e+000 224 229 224
1.632045e-001 -1.570410e+000 -6.759990e+000 165 149 99
-1.191969e+000 -2.048896e+000 -6.548788e+000 64 53 49
2.074466e-002 -2.004033e+000 -7.131187e+000 156 145 109
7.365480e-001 -1.761653e+000 -7.299740e+000 161 150 97
2.333851e+000 -1.629327e+000 -7.976775e+000 119 122 83
2.333851e+000 -1.629327e+000 -7.976775e+000 119 122 83
3.452091e+000 -1.650271e+000 -8.680917e+000 58 69 47
-2.802542e-001 -2.109483e+000 -7.087150e+000 152 143 106
4.119108e-001 -1.998703e+000 -7.333405e+000 80 74 49
-5.179649e-001 -2.378599e+000 -7.275200e+000 163 149 109
-6.403352e-001 -2.603774e+000 -7.390234e+000 105 90 76
-7.026133e-001 -2.748298e+000 -7.536326e+000 94 80 54
8.175079e-001 -2.693663e+000 -8.267330e+000 86 76 46
1.940213e+000 -2.543137e+000 -8.732092e+000 63 59 33
3.342828e+000 -2.421646e+000 -9.375317e+000 67 77 53
-1.384851e+000 -2.961939e+000 -7.381996e+000 59 50 40
7.874650e-001 -2.773216e+000 -8.359397e+000 92 84 48
1.557565e+000 -2.799258e+000 -8.797484e+000 108 104 68
1.557565e+000 -2.799258e+000 -8.797484e+000 108 104 68
-6.848042e-002 -2.993842e+000 -8.108995e+000 87 78 55
2.979809e-001 -3.071872e+000 -8.399361e+000 146 137 80
3.043975e-001 -3.051777e+000 -8.417281e+000 146 137 80
-2.049157e+000 -3.366478e+000 -7.477790e+000 92 81 55
-6.727475e-001 -3.269443e+000 -8.098647e+000 144 132 82
-8.273983e-001 -3.291324e+000 -8.068817e+000 150 138 93
2.745659e-001 -3.135111e+000 -8.458332e+000 138 129 75
1.925088e+000 -3.061742e+000 -9.225326e+000 84 80 54
2.238223e+000 -3.039003e+000 -9.413093e+000 65 69 41
-1.561297e+000 -3.455455e+000 -7.825564e+000 55 47 45
-1.445267e+000 -3.482923e+000 -7.925744e+000 82 76 49
-7.394228e-001 -3.406769e+000 -8.204875e+000 144 132 80
-4.619449e-001 -3.406326e+000 -8.354750e+000 139 131 83
-6.386390e-001 -3.523232e+000 -8.404902e+000 130 121 79
1.063636e+000 -3.315410e+000 -9.081417e+000 71 62 31
1.278032e+000 -3.372359e+000 -9.213009e+000 145 135 76
1.278032e+000 -3.372359e+000 -9.213009e+000 145 135 76
1.530880e+000 -3.310355e+000 -9.301939e+000 63 60 29
2.328969e+000 -3.402738e+000 -9.831144e+000 101 107 73
2.328969e+000 -3.402738e+000 -9.831144e+000 101 107 73
2.553881e+000 -3.395921e+000 -9.908191e+000 73 75 53
3.027480e+000 -3.339314e+000 -1.009396e+001 58 63 41
-2.725301e+000 -3.679434e+000 -7.445269e+000 78 73 54
-2.474125e+000 -3.653599e+000 -7.551987e+000 121 116 79
-8.698608e-001 -3.569815e+000 -8.330245e+000 119 112 86
-8.137206e-001 -3.662564e+000 -8.458823e+000 141 132 82
-6.298882e-001 -3.672080e+000 -8.545593e+000 118 108 73
