ply
format ascii 1.0
element face 0
property list uchar int vertex_indices
element vertex 876
property float x
property float y
property float z
property uchar diffuse_red
property uchar diffuse_green
property uchar diffuse_blue
end_header
1.254367e+000 -1.756889e+000 -7.855697e+000 141 121 65
1.255141e+000 -1.761435e+000 -7.853725e+000 141 121 65
2.153818e+000 -1.659885e+000 -8.283482e+000 72 71 41
-2.002710e+000 -2.035372e+000 -6.259890e+000 138 126 110
3.882562e-001 -1.968972e+000 -7.617558e+000 126 110 76
-9.409335e-001 -2.554297e+000 -7.507524e+000 133 116 89
-1.662572e+000 -2.884221e+000 -7.408849e+000 96 80 55
-1.663480e+000 -2.884383e+000 -7.407847e+000 96 80 55
-5.145069e-002 -2.998600e+000 -8.476347e+000 84 72 43
-1.403387e-002 -3.081060e+000 -8.556465e+000 129 116 82
-2.569711e+000 -3.458222e+000 -7.531015e+000 104 90 62
-2.583830e+000 -3.457014e+000 -7.579310e+000 104 90 62
-1.377906e+000 -3.320341e+000 -8.093456e+000 138 122 89
-3.015232e+000 -3.670858e+000 -7.540984e+000 119 105 76
-4.012508e+000 -3.740158e+000 -7.890693e+000 164 145 108
-6.629182e-001 -1.297663e+000 -6.430499e+000 114 98 62
-7.208851e-001 -1.871846e+000 -6.925765e+000 124 108 73
-7.662219e-001 -2.818647e+000 -7.858783e+000 119 100 68
-2.480348e+000 -3.158466e+000 -7.279245e+000 94 80 53
2.797655e+000 1.714387e+000 -1.013272e+001 90 98 83
-4.882198e-001 -9.233895e-001 -6.193990e+000 127 110 61
1.702192e+000 -7.111030e-001 -7.138983e+000 62 65 35
3.328435e+000 -6.268926e-001 -7.871169e+000 64 72 50
-7.804754e-001 -1.156392e+000 -6.221760e+000 131 117 69
-1.892616e-001 -1.164789e+000 -6.537584e+000 101 90 45
1.723831e+000 -9.201818e-001 -7.340037e+000 106 107 73
2.036114e+000 -8.303051e-001 -7.460643e+000 92 97 66
2.302971e+000 -8.895140e-001 -7.599511e+000 90 100 68
2.597389e+000 -8.590306e-001 -7.731672e+000 89 95 69
3.513373e+000 -6.508293e-001 -8.020908e+000 79 89 65
-2.406358e+000 -1.554935e+000 -5.650008e+000 78 74 62
-2.405896e+000 -1.554689e+000 -5.649202e+000 78 74 62
-2.362093e+000 -1.542113e+000 -5.635462e+000 139 133 119
-2.366872e+000 -1.523740e+000 -5.692383e+000 139 133 119
-5.945866e-001 -1.319759e+000 -6.442900e+000 136 123 80
-5.945866e-001 -1.319759e+000 -6.442900e+000 136 123 80
-6.268456e-001 -1.416678e+000 -6.534198e+000 138 126 76
1.681556e+000 -1.086227e+000 -7.474068e+000 105 105 65
1.987380e+000 -1.189600e+000 -7.620194e+000 61 64 33
2.950079e+000 -1.114970e+000 -8.152634e+000 85 93 65
3.229818e+000 -9.066034e-001 -8.117558e+000 53 61 40
-2.942997e+000 -1.762917e+000 -5.573202e+000 126 116 86
-2.773464e+000 -1.769796e+000 -5.684901e+000 80 75 65
-2.771129e+000 -1.776675e+000 -5.677238e+000 80 75 65
-2.632341e+000 -1.680550e+000 -5.676061e+000 79 76 61
-2.628610e+000 -1.685496e+000 -5.660423e+000 79 76 61
-2.626414e+000 -1.761260e+000 -5.707231e+000 81 78 67
-2.436058e+000 -1.624423e+000 -5.689455e+000 76 70 58
-2.336313e+000 -1.585718e+000 -5.704857e+000 77 75 60
-2.295141e+000 -1.645332e+000 -5.789652e+000 84 74 62
-2.198811e+000 -1.578244e+000 -5.757649e+000 81 77 63
-2.224134e+000 -1.693734e+000 -5.853356e+000 81 69 55
-2.162512e+000 -1.729931e+000 -5.926701e+000 84 67 56
-1.927719e+000 -1.653606e+000 -5.984544e+000 81 79 67
-7.269236e-001 -1.640958e+000 -6.692691e+000 73 61 27
-3.913028e-001 -1.437176e+000 -6.681322e+000 145 130 86
-2.431611e-002 -1.408666e+000 -6.861954e+000 137 125 85
-1.891795e-001 -1.565326e+000 -6.914866e+000 142 127 84
-1.915176e-001 -1.564776e+000 -6.915151e+000 142 127 84
-5.435023e-002 -1.517388e+000 -6.938471e+000 140 127 84
2.558631e-001 -1.497025e+000 -7.101721e+000 146 130 92
2.482589e+000 -1.257734e+000 -8.052713e+000 88 95 65
2.481645e+000 -1.258260e+000 -8.053201e+000 88 95 65
3.041062e+000 -1.305335e+000 -8.430612e+000 81 86 61
-2.805466e+000 -1.888652e+000 -5.766108e+000 138 134 123
-2.076090e+000 -1.844156e+000 -6.080716e+000 73 69 59
-1.848265e+000 -1.765820e+000 -6.085390e+000 74 72 57
-1.911197e+000 -1.805549e+000 -6.114382e+000 74 72 57
-2.025811e+000 -1.953271e+000 -6.180900e+000 132 129 114
-2.021000e+000 -1.949157e+000 -6.190528e+000 132 129 114
-1.916538e+000 -1.920490e+000 -6.211413e+000 74 75 59
-1.690975e+000 -1.899433e+000 -6.291925e+000 97 91 59
-1.547878e+000 -1.798838e+000 -6.275382e+000 119 110 76
-2.835208e-001 -1.834552e+000 -7.108087e+000 149 134 86
-1.277318e-001 -1.745094e+000 -7.123246e+000 150 136 91
6.139568e-001 -1.681497e+000 -7.454587e+000 153 137 87
6.125687e-001 -1.689154e+000 -7.432130e+000 153 137 87
1.744247e+000 -1.596116e+000 -7.979309e+000 72 68 38
1.510673e+000 -1.640751e+000 -7.837544e+000 122 114 71
1.510673e+000 -1.640751e+000 -7.837544e+000 122 114 71
1.501898e+000 -1.673989e+000 -7.920703e+000 126 119 74
1.483478e+000 -1.735812e+000 -7.967340e+000 133 123 75
1.831359e+000 -1.536275e+000 -7.946262e+000 113 111 70
1.832117e+000 -1.533432e+000 -7.953333e+000 113 111 70
2.112253e+000 -1.567708e+000 -8.142048e+000 98 99 68
2.650587e+000 -1.657335e+000 -8.562512e+000 86 92 62
-2.693472e+000 -2.084525e+000 -5.946950e+000 146 135 117
-2.651850e+000 -2.141326e+000 -6.074488e+000 135 128 114
-2.572057e+000 -2.069486e+000 -6.044815e+000 85 75 61
-2.144300e+000 -2.159478e+000 -6.310373e+000 79 70 61
-1.992180e+000 -1.983381e+000 -6.225488e+000 83 78 67
-1.995364e+000 -1.978446e+000 -6.233700e+000 83 78 67
-1.929089e+000 -1.969157e+000 -6.256243e+000 74 75 58
-1.932188e+000 -2.021391e+000 -6.285358e+000 77 77 62
-2.050237e+000 -2.180152e+000 -6.401546e+000 134 131 116
-2.005309e+000 -2.168202e+000 -6.378540e+000 72 70 58
-2.005844e+000 -2.167714e+000 -6.378339e+000 72 70 58
-1.893181e+000 -2.087977e+000 -6.361791e+000 141 126 96
-1.926195e+000 -2.168417e+000 -6.457364e+000 76 69 57
-1.632082e+000 -2.037826e+000 -6.419884e+000 131 116 77
-1.564556e+000 -2.067501e+000 -6.500159e+000 130 120 85
-9.546282e-001 -1.944035e+000 -6.889673e+000 75 58 29
-1.067798e+000 -2.076207e+000 -6.947707e+000 136 121 87
-2.524592e-001 -1.913049e+000 -7.223506e+000 74 57 38
-1.986528e-001 -1.974616e+000 -7.303055e+000 140 125 92
-1.985131e-001 -1.972362e+000 -7.311931e+000 140 125 92
-8.187048e-002 -1.995182e+000 -7.390448e+000 148 134 99
1.525591e-001 -1.833688e+000 -7.357183e+000 152 136 97
1.661764e+000 -1.832485e+000 -8.174823e+000 70 64 32
2.159357e+000 -1.847415e+000 -8.436805e+000 105 105 72
2.713853e+000 -1.781523e+000 -8.676018e+000 91 97 71
2.723151e+000 -1.852544e+000 -8.728182e+000 88 92 67
-2.680254e+000 -2.305182e+000 -6.209989e+000 82 78 67
-2.609747e+000 -2.218054e+000 -6.171308e+000 80 75 64
-1.083230e+000 -2.133463e+000 -7.004768e+000 152 139 106
-1.097420e+000 -2.183744e+000 -7.031924e+000 142 129 97
-9.731170e-001 -2.163950e+000 -7.093046e+000 149 133 108
-3.786580e-001 -2.128570e+000 -7.413578e+000 149 133 100
-3.786580e-001 -2.128570e+000 -7.413578e+000 149 133 100
-4.328078e-001 -2.310722e+000 -7.530504e+000 146 131 92
-2.585169e-001 -2.164171e+000 -7.467267e+000 149 134 100
-2.585169e-001 -2.164171e+000 -7.467267e+000 149 134 100
-1.423226e-001 -2.186969e+000 -7.536792e+000 145 132 89
6.674345e-002 -2.254710e+000 -7.752235e+000 80 64 41
4.345681e-001 -2.238944e+000 -7.930410e+000 146 130 83
1.524750e+000 -2.059939e+000 -8.315770e+000 122 110 67
1.651496e+000 -2.093563e+000 -8.392403e+000 122 114 68
1.499532e+000 -2.133500e+000 -8.373114e+000 132 119 75
1.499532e+000 -2.133500e+000 -8.373114e+000 132 119 75
1.927726e+000 -2.134677e+000 -8.621815e+000 106 104 65
2.228964e+000 -2.072202e+000 -8.708836e+000 100 102 66
2.230397e+000 -2.072424e+000 -8.708721e+000 100 102 66
2.543128e+000 -1.962163e+000 -8.760656e+000 89 92 64
2.587167e+000 -2.050094e+000 -8.934268e+000 55 57 36
2.633168e+000 -2.104518e+000 -8.986018e+000 85 89 64
3.121595e+000 -1.901739e+000 -9.067471e+000 77 80 58
-1.155584e+000 -2.348783e+000 -7.165842e+000 138 123 96
-4.397076e-001 -2.530405e+000 -7.729802e+000 155 136 95
-3.307675e-001 -2.371919e+000 -7.648719e+000 149 134 92
4.099938e-001 -2.312023e+000 -7.980179e+000 139 125 81
7.928156e-001 -2.465887e+000 -8.327524e+000 141 126 80
7.922326e-001 -2.466969e+000 -8.325545e+000 141 126 80
1.195132e+000 -2.408977e+000 -8.482826e+000 80 69 37
1.232678e+000 -2.481297e+000 -8.626617e+000 126 116 65
1.328106e+000 -2.425757e+000 -8.579162e+000 75 63 33
1.823508e+000 -2.461614e+000 -8.901839e+000 107 102 64
1.960922e+000 -2.446987e+000 -8.915865e+000 106 103 68
2.269858e+000 -2.366490e+000 -9.018260e+000 99 100 68
2.938968e+000 -2.435752e+000 -9.466865e+000 78 83 60
2.938968e+000 -2.435752e+000 -9.466865e+000 78 83 60
-1.119635e+000 -2.610459e+000 -7.460657e+000 143 128 97
-1.154601e+000 -2.726588e+000 -7.539545e+000 139 125 97
-7.707573e-001 -2.630075e+000 -7.663674e+000 148 130 92
-7.008282e-001 -2.726275e+000 -7.816365e+000 145 130 90
-7.017068e-001 -2.735544e+000 -7.789606e+000 145 130 90
-5.580659e-001 -2.661772e+000 -7.878304e+000 149 136 93
-3.416861e-001 -2.590879e+000 -7.843773e+000 104 90 55
-2.718498e-001 -2.584690e+000 -7.936863e+000 139 124 79
4.221729e-001 -2.666597e+000 -8.348977e+000 137 123 76
4.218540e-001 -2.664718e+000 -8.361320e+000 137 123 76
3.957673e-001 -2.729503e+000 -8.419479e+000 143 129 89
7.355260e-001 -2.631308e+000 -8.467756e+000 142 128 83
7.610170e-001 -2.666542e+000 -8.525641e+000 77 63 28
1.343700e+000 -2.581280e+000 -8.638249e+000 128 115 71
1.665792e+000 -2.659845e+000 -8.919994e+000 80 70 44
1.781660e+000 -2.547714e+000 -8.950030e+000 111 105 73
1.940078e+000 -2.723502e+000 -9.228307e+000 70 66 38
1.940078e+000 -2.723502e+000 -9.228307e+000 70 66 38
2.391351e+000 -2.630502e+000 -9.375554e+000 59 63 40
2.635946e+000 -2.528688e+000 -9.393440e+000 82 84 62
2.961122e+000 -2.588965e+000 -9.710679e+000 58 62 39
-2.019992e+000 -2.905188e+000 -7.304508e+000 132 117 79
-2.052608e+000 -3.001227e+000 -7.362046e+000 140 124 93
-2.072705e+000 -3.068735e+000 -7.412378e+000 135 123 92
-1.740303e+000 -2.878596e+000 -7.392653e+000 144 130 98
-1.749325e+000 -2.928689e+000 -7.433583e+000 143 128 96
-1.749325e+000 -2.928689e+000 -7.433583e+000 143 128 96
-1.338560e+000 -2.884462e+000 -7.657483e+000 146 129 101
-1.359205e+000 -2.961574e+000 -7.680898e+000 147 134 98
-1.007185e+000 -2.822832e+000 -7.727148e+000 141 127 92
-8.465602e-001 -2.834658e+000 -7.844826e+000 150 134 97
-7.951637e-001 -3.010709e+000 -8.035035e+000 149 135 100
-3.524072e-001 -2.812753e+000 -8.064383e+000 140 125 87
-3.704755e-001 -3.026815e+000 -8.295685e+000 85 71 42
1.261104e-001 -2.970165e+000 -8.499436e+000 92 78 49
2.089277e-001 -2.903268e+000 -8.444563e+000 138 125 81
2.089277e-001 -2.903268e+000 -8.444563e+000 138 125 81
1.206269e+000 -2.994625e+000 -9.128575e+000 135 124 78
1.536200e+000 -2.864072e+000 -9.173515e+000 120 111 72
2.113646e+000 -2.833158e+000 -9.456037e+000 91 90 60
-2.735516e+000 -3.291331e+000 -7.300046e+000 136 121 88
-2.209764e+000 -3.188605e+000 -7.494353e+000 86 69 42
-2.214496e+000 -3.185367e+000 -7.514288e+000 86 69 42
-2.131303e+000 -3.081367e+000 -7.398165e+000 95 82 55
-2.122189e+000 -3.181463e+000 -7.515576e+000 140 125 91
-2.150896e+000 -3.264666e+000 -7.556864e+000 139 125 95
-1.731208e+000 -3.143791e+000 -7.685123e+000 101 84 54
-1.100327e+000 -3.082945e+000 -7.973887e+000 138 123 94
-7.752732e-001 -3.102270e+000 -8.150418e+000 96 83 53
-7.745059e-001 -3.296948e+000 -8.358232e+000 136 122 81
-7.735139e-001 -3.296349e+000 -8.362153e+000 136 122 81
-5.074349e-001 -3.253056e+000 -8.471804e+000 134 122 84
-4.020482e-001 -3.162433e+000 -8.403347e+000 99 88 58
-1.620326e-001 -3.124683e+000 -8.534704e+000 130 120 85
-1.618361e-001 -3.124863e+000 -8.532823e+000 130 120 85
1.416050e-001 -3.090489e+000 -8.659885e+000 138 125 86
2.633777e-001 -3.124516e+000 -8.753270e+000 137 125 86
5.256667e-001 -3.228796e+000 -9.010016e+000 140 128 89
9.576453e-001 -3.076864e+000 -9.063499e+000 85 75 40
1.036158e+000 -3.057492e+000 -9.090563e+000 137 125 85
1.037356e+000 -3.054113e+000 -9.102685e+000 137 125 85
1.249832e+000 -3.258702e+000 -9.448843e+000 127 118 74
2.381239e+000 -3.055795e+000 -9.787153e+000 64 68 43
2.270895e+000 -3.182813e+000 -9.903716e+000 89 89 60
-3.329756e+000 -3.509530e+000 -7.241550e+000 85 71 38
-2.907260e+000 -3.385182e+000 -7.310790e+000 129 115 79
-2.131741e+000 -3.489231e+000 -7.801616e+000 85 74 46
-2.047451e+000 -3.385047e+000 -7.772788e+000 133 120 86
-1.883389e+000 -3.326468e+000 -7.800043e+000 135 124 93
-1.718568e+000 -3.405189e+000 -8.000313e+000 67 49 46
-9.627637e-001 -3.485077e+000 -8.406330e+000 139 125 87
-5.934107e-001 -3.488385e+000 -8.682004e+000 142 129 87
-5.946163e-001 -3.487631e+000 -8.682080e+000 142 129 87
-1.727200e-001 -3.340448e+000 -8.757845e+000 84 72 50
2.760648e-002 -3.406519e+000 -8.939974e+000 143 131 93
4.248186e-001 -3.492149e+000 -9.247227e+000 139 126 90
1.365062e+000 -3.327129e+000 -9.614174e+000 125 117 81
2.527328e+000 -3.292420e+000 -1.023206e+001 85 86 56
3.011125e+000 -3.472353e+000 -1.067304e+001 87 74 58
-2.884658e+000 -3.757887e+000 -7.720865e+000 129 118 86
-2.162086e+000 -3.676873e+000 -8.047572e+000 128 119 88
-2.061034e+000 -3.590932e+000 -7.996915e+000 81 71 46
-1.977760e+000 -3.754997e+000 -8.211437e+000 133 123 88
-1.080687e+000 -3.788956e+000 -8.735636e+000 143 128 89
-9.271980e-001 -3.715986e+000 -8.756288e+000 137 123 88
-9.271980e-001 -3.715986e+000 -8.756288e+000 137 123 88
-8.331852e-001 -3.781814e+000 -8.859525e+000 140 127 83
8.521999e-002 -3.606359e+000 -9.174748e+000 141 128 86
6.596286e-002 -3.653439e+000 -9.238432e+000 136 124 84
4.096699e-002 -3.715560e+000 -9.288831e+000 134 122 84
4.216519e-002 -3.718773e+000 -9.293619e+000 134 122 84
9.963873e-001 -3.554358e+000 -9.698467e+000 138 124 88
1.128915e+000 -3.585232e+000 -9.740754e+000 125 115 80
1.094992e+000 -3.668419e+000 -9.771909e+000 126 112 82
1.098654e+000 -3.663068e+000 -9.800811e+000 126 112 82
1.368297e+000 -3.699897e+000 -9.926034e+000 121 111 82
1.523756e+000 -3.650996e+000 -1.002265e+001 108 101 72
1.528919e+000 -3.650950e+000 -1.003668e+001 108 101 72
-2.429719e+000 -3.841010e+000 -8.017035e+000 124 115 84
-8.387551e-001 -3.850370e+000 -8.940202e+000 144 126 79
9.471806e-001 -7.739021e-001 -6.807597e+000 109 108 60
9.471806e-001 -7.739021e-001 -6.807597e+000 109 108 60
1.925853e+000 -7.145442e-001 -7.272888e+000 96 101 69
1.999155e+000 -6.987500e-001 -7.282544e+000 65 69 45
1.997815e+000 -6.989692e-001 -7.278866e+000 65 69 45
3.460094e+000 -6.188238e-001 -7.983441e+000 62 71 50
-5.689951e-001 -1.015783e+000 -6.198483e+000 74 64 37
-5.324965e-001 -1.066173e+000 -6.297847e+000 127 118 61
1.363079e+000 -9.243688e-001 -7.154177e+000 113 113 65
2.177559e+000 -8.308921e-001 -7.496743e+000 91 98 65
2.181297e+000 -8.263668e-001 -7.506072e+000 91 98 65
2.137667e+000 -9.752727e-001 -7.585122e+000 99 105 69
2.136875e+000 -9.735678e-001 -7.584609e+000 99 105 69
2.711330e+000 -7.491967e-001 -7.692352e+000 60 63 44
2.624843e+000 -7.717779e-001 -7.714717e+000 90 96 70
3.035756e+000 -8.471903e-001 -8.023070e+000 85 94 65
3.063330e+000 -7.251598e-001 -7.876854e+000 91 97 67
3.063330e+000 -7.251598e-001 -7.876854e+000 91 97 67
3.288636e+000 -7.001321e-001 -7.958192e+000 62 66 48
-2.413540e+000 -1.537580e+000 -5.632606e+000 78 74 63
-2.116449e-001 -1.207074e+000 -6.583935e+000 134 122 72
-5.622762e-002 -1.156844e+000 -6.602984e+000 110 102 56
-1.141100e-001 -1.294797e+000 -6.647740e+000 132 121 69
-1.134536e-001 -1.285762e+000 -6.668151e+000 132 121 69
-1.143251e-002 -1.364118e+000 -6.823427e+000 135 126 85
1.545550e+000 -1.038375e+000 -7.361630e+000 89 86 51
1.588530e+000 -1.163559e+000 -7.481204e+000 67 63 39
1.657274e+000 -1.157088e+000 -7.506673e+000 115 112 73
1.659143e+000 -1.152892e+000 -7.509305e+000 115 112 73
1.801515e+000 -1.136319e+000 -7.551040e+000 104 104 68
2.105581e+000 -1.084596e+000 -7.692606e+000 97 103 67
2.106133e+000 -1.082840e+000 -7.695034e+000 97 103 67
2.643548e+000 -9.696185e-001 -7.874815e+000 59 65 37
2.627733e+000 -1.025428e+000 -7.963930e+000 59 64 42
2.627733e+000 -1.025428e+000 -7.963930e+000 59 64 42
2.687953e+000 -1.042126e+000 -7.948802e+000 88 94 68
2.796317e+000 -9.345546e-001 -7.938744e+000 59 67 44
2.978147e+000 -1.033261e+000 -8.103400e+000 88 93 67
3.243753e+000 -1.063618e+000 -8.206189e+000 86 95 68
-2.711851e+000 -1.781074e+000 -5.697750e+000 122 116 101
-2.450803e+000 -1.582833e+000 -5.641806e+000 125 121 109
-2.452257e+000 -1.581558e+000 -5.641625e+000 125 121 109
-1.975498e+000 -1.727222e+000 -6.021854e+000 77 72 59
-1.023789e+000 -1.547953e+000 -6.456170e+000 78 65 49
-8.919035e-001 -1.544303e+000 -6.520437e+000 131 121 67
-6.858215e-001 -1.602523e+000 -6.679583e+000 135 120 69
-6.867012e-001 -1.603107e+000 -6.676779e+000 135 120 69
-2.878332e-001 -1.454353e+000 -6.739359e+000 139 123 79
-2.979993e-001 -1.486390e+000 -6.805605e+000 145 130 87
-3.105222e-001 -1.522393e+000 -6.852630e+000 139 126 81
6.129511e-001 -1.477157e+000 -7.249794e+000 82 69 35
1.606221e+000 -1.327090e+000 -7.702050e+000 115 112 70
1.573277e+000 -1.457144e+000 -7.747638e+000 121 113 63
1.904815e+000 -1.283020e+000 -7.715435e+000 105 106 72
1.904815e+000 -1.283020e+000 -7.715435e+000 105 106 72
2.051921e+000 -1.255992e+000 -7.777905e+000 99 103 70
1.786507e+000 -1.453112e+000 -7.858223e+000 66 65 35
2.010915e+000 -1.411844e+000 -7.945273e+000 102 104 65
2.010915e+000 -1.411844e+000 -7.945273e+000 102 104 65
2.086184e+000 -1.391027e+000 -7.943953e+000 65 67 43
2.157392e+000 -1.400430e+000 -8.009217e+000 98 101 70
2.157392e+000 -1.400430e+000 -8.009217e+000 98 101 70
2.410566e+000 -1.299817e+000 -8.041277e+000 60 65 41
2.616585e+000 -1.298806e+000 -8.159770e+000 90 94 67
2.860088e+000 -1.202400e+000 -8.230687e+000 55 60 37
-2.744461e+000 -1.924218e+000 -5.837133e+000 79 73 63
-2.261201e+000 -1.890488e+000 -6.012273e+000 149 133 117
-2.127036e+000 -1.933301e+000 -6.143029e+000 80 76 68
-2.124298e+000 -1.933501e+000 -6.144158e+000 80 76 68
-2.000828e+000 -1.781803e+000 -6.053658e+000 77 73 62
-3.426104e-001 -1.642796e+000 -6.908429e+000 146 131 89
-4.106675e-001 -1.844785e+000 -7.048187e+000 150 135 90
-4.106675e-001 -1.844785e+000 -7.048187e+000 150 135 90
2.942596e-001 -1.584600e+000 -7.174819e+000 82 69 38
2.895148e-001 -1.787208e+000 -7.384005e+000 148 134 96
2.899529e-001 -1.788616e+000 -7.382535e+000 148 134 96
6.373396e-001 -1.611766e+000 -7.390289e+000 144 131 76
6.347181e-001 -1.617461e+000 -7.388563e+000 144 131 76
5.954346e-001 -1.739778e+000 -7.472473e+000 150 135 82
1.001548e+000 -1.620018e+000 -7.603067e+000 86 73 45
9.594847e-001 -1.769999e+000 -7.715698e+000 86 69 44
1.454469e+000 -1.601942e+000 -7.816710e+000 82 73 46
1.450618e+000 -1.611328e+000 -7.798682e+000 82 73 46
1.671925e+000 -1.587829e+000 -7.908081e+000 121 117 71
1.714653e+000 -1.679266e+000 -8.033320e+000 74 70 41
1.901836e+000 -1.522872e+000 -7.977202e+000 71 66 41
1.809049e+000 -1.605398e+000 -8.024773e+000 113 109 72
1.784444e+000 -1.682279e+000 -8.075768e+000 112 108 62
1.855973e+000 -1.686629e+000 -8.135792e+000 77 70 42
1.855197e+000 -1.687928e+000 -8.132166e+000 77 70 42
2.030615e+000 -1.600623e+000 -8.151662e+000 73 73 46
2.028284e+000 -1.608011e+000 -8.138102e+000 73 73 46
2.061828e+000 -1.708113e+000 -8.220662e+000 105 106 63
2.069304e+000 -1.689628e+000 -8.281597e+000 105 106 63
2.191626e+000 -1.503257e+000 -8.136379e+000 67 69 45
2.302901e+000 -1.633421e+000 -8.309650e+000 67 69 45
2.393236e+000 -1.572788e+000 -8.355425e+000 91 98 65
2.743293e+000 -1.576502e+000 -8.493229e+000 63 69 43
2.742881e+000 -1.576945e+000 -8.494574e+000 63 69 43
2.885790e+000 -1.571423e+000 -8.592579e+000 61 65 47
3.174793e+000 -1.534900e+000 -8.753907e+000 56 61 38
3.306914e+000 -1.539282e+000 -8.774875e+000 57 60 40
-2.811720e+000 -2.099103e+000 -5.956988e+000 124 117 103
-2.811720e+000 -2.099103e+000 -5.956988e+000 124 117 103
-2.697178e+000 -2.171805e+000 -6.081777e+000 79 79 68
-2.116948e+000 -2.004042e+000 -6.187408e+000 154 142 129
-2.236941e+000 -2.097992e+000 -6.184939e+000 74 73 64
-2.243178e+000 -2.089819e+000 -6.200433e+000 74 73 64
-1.610811e+000 -1.977691e+000 -6.393824e+000 127 115 79
-6.925065e-001 -2.047442e+000 -7.105708e+000 92 78 52
-4.774057e-001 -1.874373e+000 -7.060445e+000 87 71 45
-3.236449e-001 -1.953302e+000 -7.183657e+000 148 130 92
-4.665372e-001 -2.021500e+000 -7.222872e+000 158 138 105
-3.324751e-001 -1.998365e+000 -7.237935e+000 151 133 100
-3.994870e-002 -1.898927e+000 -7.309193e+000 157 136 83
-2.227735e-001 -2.054316e+000 -7.371853e+000 149 135 100
-1.400860e-001 -1.980326e+000 -7.342026e+000 88 73 44
2.288782e-001 -1.976608e+000 -7.536375e+000 146 132 93
2.307601e-001 -1.977894e+000 -7.521789e+000 146 132 93
4.802045e-001 -1.903390e+000 -7.585468e+000 80 66 41
5.439662e-001 -1.904543e+000 -7.635187e+000 150 136 85
2.996537e-001 -1.952621e+000 -7.539101e+000 72 60 32
1.381618e+000 -1.836615e+000 -8.053748e+000 86 77 45
1.397948e+000 -1.996762e+000 -8.159116e+000 138 128 76
1.761537e+000 -1.758778e+000 -8.145366e+000 119 116 65
1.552219e+000 -1.971756e+000 -8.238639e+000 125 115 65
1.636204e+000 -1.922566e+000 -8.218842e+000 79 70 39
1.636204e+000 -1.922566e+000 -8.218842e+000 79 70 39
2.125705e+000 -1.721175e+000 -8.302066e+000 65 65 36
2.305309e+000 -1.825760e+000 -8.490536e+000 99 103 70
2.226164e+000 -1.862556e+000 -8.502983e+000 61 58 43
2.130666e+000 -1.928534e+000 -8.476311e+000 104 104 69
2.280631e+000 -1.912997e+000 -8.562970e+000 94 93 62
2.711083e+000 -1.676557e+000 -8.597733e+000 61 65 43
2.645553e+000 -1.832365e+000 -8.703634e+000 56 59 40
2.811376e+000 -1.747049e+000 -8.715359e+000 56 59 38
-2.496653e+000 -2.296079e+000 -6.286627e+000 119 111 100
-2.497428e+000 -2.298056e+000 -6.284420e+000 119 111 100
-2.458312e+000 -2.320274e+000 -6.334981e+000 77 73 64
-1.148377e+000 -2.197781e+000 -6.987261e+000 61 47 39
-1.171972e+000 -2.264401e+000 -7.045518e+000 59 43 30
-1.033210e+000 -2.166520e+000 -7.037209e+000 100 83 62
-7.136033e-001 -2.116928e+000 -7.156862e+000 97 85 60
-5.631721e-001 -2.312094e+000 -7.450061e+000 152 139 104
-4.085026e-001 -2.204091e+000 -7.410243e+000 151 133 97
-3.670799e-001 -2.297565e+000 -7.532801e+000 103 87 64
-3.665955e-001 -2.304185e+000 -7.516180e+000 103 87 64
-1.971997e-001 -2.175707e+000 -7.503829e+000 98 82 60
-1.975738e-001 -2.175031e+000 -7.504479e+000 98 82 60
-1.749224e-001 -2.287531e+000 -7.629100e+000 143 128 86
1.978021e-001 -2.076080e+000 -7.609758e+000 145 132 88
1.846537e-001 -2.116532e+000 -7.640507e+000 144 130 93
2.461317e-001 -2.100951e+000 -7.671229e+000 83 73 46
3.759580e-001 -2.215046e+000 -7.865478e+000 97 84 55
1.373017e+000 -2.073294e+000 -8.176968e+000 134 124 73
1.345246e+000 -2.150101e+000 -8.296764e+000 138 121 72
1.329813e+000 -2.206788e+000 -8.327999e+000 139 124 77
1.738011e+000 -2.061282e+000 -8.437652e+000 84 77 44
1.736904e+000 -2.063924e+000 -8.435793e+000 84 77 44
1.812379e+000 -2.048976e+000 -8.465787e+000 117 113 66
1.835835e+000 -2.170966e+000 -8.556628e+000 76 69 43
2.043758e+000 -2.208723e+000 -8.752478e+000 101 99 64
2.205939e+000 -2.162214e+000 -8.817879e+000 100 101 70
2.454805e+000 -2.019566e+000 -8.795671e+000 71 73 49
-1.059721e+000 -2.439680e+000 -7.311402e+000 148 133 102
-1.059745e+000 -2.442229e+000 -7.308347e+000 148 133 102
-1.091800e+000 -2.521612e+000 -7.391918e+000 148 132 106
-9.071038e-001 -2.486617e+000 -7.445182e+000 77 62 33
-1.028660e+000 -2.537299e+000 -7.432186e+000 93 78 55
-6.793226e-001 -2.497798e+000 -7.569389e+000 91 75 48
-4.822527e-001 -2.455508e+000 -7.647874e+000 150 131 88
-2.639052e-001 -2.382923e+000 -7.648852e+000 94 78 47
-2.130178e-001 -2.398604e+000 -7.747437e+000 147 133 91
-2.166338e-001 -2.406093e+000 -7.726876e+000 147 133 91
1.112660e-001 -2.330046e+000 -7.832032e+000 144 127 84
1.112660e-001 -2.330046e+000 -7.832032e+000 144 127 84
1.817462e-001 -2.326538e+000 -7.845155e+000 95 81 54
8.906117e-002 -2.397315e+000 -7.890244e+000 139 126 80
3.535596e-001 -2.300549e+000 -7.925628e+000 88 74 48
2.932924e-001 -2.489572e+000 -8.039496e+000 94 78 52
3.348401e-001 -2.527893e+000 -8.149753e+000 150 131 83
7.303639e-001 -2.482535e+000 -8.328768e+000 86 72 41
8.621245e-001 -2.439855e+000 -8.348525e+000 78 67 32
8.612051e-001 -2.444436e+000 -8.338468e+000 78 67 32
9.158765e-001 -2.396134e+000 -8.329916e+000 147 127 74
9.130057e-001 -2.395803e+000 -8.327615e+000 147 127 74
1.017680e+000 -2.501360e+000 -8.474320e+000 91 78 44
1.271467e+000 -2.383199e+000 -8.522008e+000 135 118 65
1.271467e+000 -2.383199e+000 -8.522008e+000 135 118 65
1.445890e+000 -2.281182e+000 -8.479944e+000 133 120 75
1.605425e+000 -2.248594e+000 -8.563715e+000 117 111 72
1.479307e+000 -2.386103e+000 -8.582795e+000 86 75 44
1.692901e+000 -2.402869e+000 -8.748467e+000 108 101 66
2.013558e+000 -2.288190e+000 -8.823105e+000 108 105 71
2.014724e+000 -2.288750e+000 -8.825386e+000 108 105 71
2.069614e+000 -2.325027e+000 -8.882955e+000 66 65 46
1.769988e+000 -2.377064e+000 -8.783399e+000 69 63 37
1.900237e+000 -2.421388e+000 -8.880195e+000 67 63 38
2.046907e+000 -2.403010e+000 -8.962296e+000 78 77 47
2.108273e+000 -2.228699e+000 -8.867002e+000 69 68 38
2.252603e+000 -2.216448e+000 -8.876456e+000 62 64 40
2.181221e+000 -2.407665e+000 -8.908767e+000 67 67 40
2.356112e+000 -2.340552e+000 -9.044879e+000 64 64 38
2.524569e+000 -2.223672e+000 -8.977096e+000 61 63 41
2.471877e+000 -2.387915e+000 -9.086321e+000 58 61 35
2.872772e+000 -2.424124e+000 -9.486891e+000 53 55 34
2.992553e+000 -2.320299e+000 -9.485231e+000 78 81 59
3.017659e+000 -2.402846e+000 -9.491973e+000 61 61 43
-1.712087e+000 -2.820214e+000 -7.353327e+000 146 130 96
-1.712302e+000 -2.820075e+000 -7.352713e+000 146 130 96
-1.082264e+000 -2.680752e+000 -7.553190e+000 71 59 34
-9.763506e-001 -2.682319e+000 -7.611414e+000 91 76 47
-9.390075e-001 -2.768407e+000 -7.723226e+000 87 76 48
-8.855442e-001 -2.615546e+000 -7.579466e+000 86 69 43
-8.861862e-001 -2.616173e+000 -7.579441e+000 86 69 43
-6.746168e-001 -2.632806e+000 -7.706562e+000 150 130 90
-5.197427e-001 -2.580223e+000 -7.775704e+000 152 133 91
-5.502389e-001 -2.637744e+000 -7.811201e+000 147 132 90
-4.261410e-001 -2.670791e+000 -7.902089e+000 144 129 87
-4.564838e-001 -2.754067e+000 -7.964907e+000 141 127 82
-2.959787e-001 -2.635653e+000 -7.897327e+000 145 128 82
-2.457565e-001 -2.697184e+000 -8.004556e+000 90 73 44
-3.310621e-001 -2.762920e+000 -8.055139e+000 138 123 79
9.001242e-002 -2.583775e+000 -8.064081e+000 90 76 48
-7.443355e-003 -2.681993e+000 -8.129472e+000 137 124 73
-6.939514e-003 -2.681411e+000 -8.130758e+000 137 124 73
3.681525e-002 -2.730292e+000 -8.205540e+000 84 72 46
2.613350e-001 -2.566941e+000 -8.144766e+000 88 74 46
3.079741e-001 -2.609090e+000 -8.255903e+000 144 127 83
3.079741e-001 -2.609090e+000 -8.255903e+000 144 127 83
3.687918e-001 -2.633216e+000 -8.287831e+000 85 70 40
3.688373e-001 -2.633689e+000 -8.290419e+000 85 70 40
4.343330e-001 -2.629721e+000 -8.288856e+000 138 125 75
4.955559e-001 -2.644410e+000 -8.358422e+000 88 76 54
2.709740e-001 -2.709878e+000 -8.280614e+000 139 125 76
3.196695e-001 -2.768710e+000 -8.380003e+000 84 73 46
5.245303e-001 -2.549502e+000 -8.336299e+000 87 75 42
8.059683e-001 -2.598062e+000 -8.430973e+000 91 76 44
9.636189e-001 -2.662365e+000 -8.584784e+000 98 85 51
1.139824e+000 -2.581573e+000 -8.686432e+000 83 72 41
1.260618e+000 -2.612699e+000 -8.743598e+000 76 65 45
1.260618e+000 -2.612699e+000 -8.743598e+000 76 65 45
1.162576e+000 -2.701758e+000 -8.765213e+000 131 121 73
1.162460e+000 -2.702221e+000 -8.764922e+000 131 121 73
1.518395e+000 -2.493920e+000 -8.745428e+000 126 115 71
1.588406e+000 -2.484786e+000 -8.781964e+000 75 69 41
1.698922e+000 -2.541498e+000 -8.901203e+000 69 62 34
1.535061e+000 -2.650308e+000 -8.959080e+000 83 73 46
1.608949e+000 -2.634957e+000 -8.929303e+000 117 110 67
1.746314e+000 -2.650299e+000 -8.927484e+000 112 104 68
1.746314e+000 -2.650299e+000 -8.927484e+000 112 104 68
1.857720e+000 -2.558466e+000 -9.001039e+000 71 66 37
2.016214e+000 -2.501140e+000 -9.014138e+000 65 63 42
1.993236e+000 -2.572140e+000 -9.126441e+000 69 64 46
2.037905e+000 -2.635523e+000 -9.167783e+000 99 99 65
2.039079e+000 -2.632001e+000 -9.180264e+000 99 99 65
2.138849e+000 -2.547124e+000 -9.163868e+000 74 73 47
2.105616e+000 -2.622558e+000 -9.156453e+000 68 66 42
2.449450e+000 -2.470095e+000 -9.269794e+000 57 61 38
2.526773e+000 -2.638369e+000 -9.487558e+000 60 60 39
2.751010e+000 -2.584765e+000 -9.515523e+000 79 82 54
2.941161e+000 -2.660649e+000 -9.770303e+000 55 56 38
-1.889172e+000 -2.920594e+000 -7.370009e+000 138 123 90
-1.889415e+000 -2.922477e+000 -7.363012e+000 138 123 90
-1.787725e+000 -3.026304e+000 -7.582710e+000 144 125 93
-1.297498e+000 -2.947710e+000 -7.711590e+000 103 85 62
-1.173450e+000 -2.949279e+000 -7.771217e+000 91 77 51
-1.197485e+000 -3.020689e+000 -7.848224e+000 79 65 38
-1.197636e+000 -3.018827e+000 -7.851749e+000 79 65 38
-7.644182e-001 -2.913411e+000 -7.951146e+000 149 135 99
-8.121097e-001 -3.048256e+000 -8.089599e+000 147 134 91
-7.434722e-001 -3.029621e+000 -8.094738e+000 86 70 45
-5.424972e-001 -2.998992e+000 -8.176137e+000 141 124 83
-5.431494e-001 -3.002211e+000 -8.166548e+000 141 124 83
-4.869941e-001 -3.031022e+000 -8.236145e+000 96 83 51
-1.332113e-001 -2.857851e+000 -8.246054e+000 84 73 44
-1.842175e-001 -3.006045e+000 -8.386284e+000 77 67 42
-1.828509e-001 -3.003852e+000 -8.393464e+000 77 67 42
-4.535487e-003 -2.837882e+000 -8.297617e+000 86 74 47
-9.941898e-002 -2.937489e+000 -8.367605e+000 115 103 61
-3.114261e-002 -2.935308e+000 -8.326147e+000 87 75 49
2.500424e-001 -2.787666e+000 -8.386702e+000 140 127 80
2.493363e-001 -2.789177e+000 -8.385237e+000 140 127 80
2.717919e-001 -2.898752e+000 -8.529171e+000 84 71 52
4.165962e-001 -2.863134e+000 -8.546061e+000 84 72 44
2.350704e-001 -3.007328e+000 -8.578551e+000 85 74 47
6.849761e-001 -2.779558e+000 -8.629129e+000 137 123 77
7.535213e-001 -2.761700e+000 -8.631406e+000 89 76 49
7.102347e-001 -2.888031e+000 -8.708270e+000 85 76 48
1.017531e+000 -2.915734e+000 -8.928952e+000 87 80 51
1.085599e+000 -2.911454e+000 -8.934479e+000 133 120 75
1.128734e+000 -2.795249e+000 -8.900298e+000 135 119 71
1.200409e+000 -2.785661e+000 -8.902290e+000 81 74 43
1.169522e+000 -2.874817e+000 -8.976058e+000 88 82 48
1.169337e+000 -2.873762e+000 -8.975842e+000 88 82 48
1.279161e+000 -2.769002e+000 -8.853365e+000 127 119 70
1.227845e+000 -2.915389e+000 -9.057633e+000 127 113 73
1.481304e+000 -2.793713e+000 -9.018852e+000 80 69 41
1.561244e+000 -2.780045e+000 -9.094879e+000 115 105 70
1.564611e+000 -2.776853e+000 -9.104799e+000 115 105 70
1.478053e+000 -2.996198e+000 -9.248291e+000 125 114 69
1.602279e+000 -2.879739e+000 -9.229041e+000 76 68 46
1.985500e+000 -2.781732e+000 -9.285323e+000 103 99 67
1.874719e+000 -2.906345e+000 -9.363542e+000 72 65 46
1.874719e+000 -2.906345e+000 -9.363542e+000 72 65 46
1.853803e+000 -2.959966e+000 -9.466663e+000 67 61 39
1.916823e+000 -2.992574e+000 -9.545487e+000 98 98 64
2.073463e+000 -2.938608e+000 -9.517565e+000 106 103 68
2.435120e+000 -2.911317e+000 -9.762699e+000 66 68 43
-2.254167e+000 -3.124833e+000 -7.373934e+000 140 125 91
-2.270598e+000 -3.190995e+000 -7.439708e+000 144 128 93
-2.270877e+000 -3.189214e+000 -7.445069e+000 144 128 93
-1.256534e+000 -3.180275e+000 -7.998228e+000 81 65 42
-8.795990e-001 -3.053526e+000 -8.076280e+000 95 79 51
-7.278633e-001 -3.144865e+000 -8.227371e+000 142 127 86
-7.989681e-001 -3.182609e+000 -8.249766e+000 105 89 62
-7.402240e-001 -3.218264e+000 -8.310812e+000 137 124 79
-6.426538e-001 -3.118957e+000 -8.240357e+000 96 85 57
-5.856423e-001 -3.290755e+000 -8.460496e+000 97 81 55
-4.460629e-001 -3.227579e+000 -8.455265e+000 107 96 64
-2.249913e-001 -3.110634e+000 -8.476529e+000 81 67 39
-2.254265e-001 -3.111639e+000 -8.474764e+000 81 67 39
-2.545960e-001 -3.198626e+000 -8.542043e+000 91 77 48
-2.532186e-001 -3.202001e+000 -8.535269e+000 91 77 48
-1.211980e-001 -3.174713e+000 -8.573278e+000 94 83 55
-1.391192e-001 -3.241459e+000 -8.653062e+000 85 74 43
2.744167e-002 -3.230699e+000 -8.748116e+000 87 75 47
1.463354e-001 -3.246910e+000 -8.805201e+000 97 86 54
3.246797e-001 -3.120561e+000 -8.753640e+000 87 73 44
2.929837e-001 -3.210097e+000 -8.858272e+000 83 70 46
2.929690e-001 -3.211789e+000 -8.857030e+000 83 70 46
4.587949e-001 -3.237177e+000 -8.970948e+000 92 78 50
5.891825e-001 -3.051778e+000 -8.845816e+000 137 124 83
5.915695e-001 -3.044286e+000 -8.860182e+000 137 124 83
6.217839e-001 -3.113340e+000 -8.909989e+000 89 79 52
6.612710e-001 -3.036060e+000 -8.855999e+000 84 73 43
9.974082e-001 -3.166693e+000 -9.214413e+000 134 126 80
9.979797e-001 -3.165785e+000 -9.216474e+000 134 126 80
1.236735e+000 -3.069757e+000 -9.179776e+000 81 72 41
1.291843e+000 -3.124140e+000 -9.293001e+000 124 115 76
1.208213e+000 -3.158154e+000 -9.326201e+000 85 75 39
1.207480e+000 -3.159458e+000 -9.330264e+000 85 75 39
1.693790e+000 -3.020973e+000 -9.512498e+000 79 71 48
1.738175e+000 -3.096766e+000 -9.553848e+000 108 102 68
1.808767e+000 -3.278257e+000 -9.717870e+000 108 101 72
2.163904e+000 -3.088263e+000 -9.788545e+000 96 95 67
2.333023e+000 -3.220440e+000 -1.002230e+001 66 65 45
2.812017e+000 -3.029818e+000 -9.984904e+000 57 59 38
2.819919e+000 -3.020527e+000 -1.004684e+001 57 59 38
-2.771524e+000 -3.392846e+000 -7.410861e+000 130 120 85
-2.596440e+000 -3.322793e+000 -7.391719e+000 132 118 84
-2.820185e+000 -3.535078e+000 -7.517793e+000 133 119 83
-2.358843e+000 -3.436589e+000 -7.658306e+000 138 125 86
-1.928882e+000 -3.367687e+000 -7.859891e+000 133 123 89
-2.037944e+000 -3.528711e+000 -7.927033e+000 86 75 56
-1.978782e+000 -3.547179e+000 -7.988806e+000 128 118 90
-1.981829e+000 -3.546879e+000 -7.991147e+000 128 118 90
-1.372963e+000 -3.505549e+000 -8.271864e+000 87 75 49
-1.371935e+000 -3.499343e+000 -8.284907e+000 87 75 49
-9.934887e-001 -3.529247e+000 -8.484477e+000 138 125 83
-8.539083e-001 -3.509714e+000 -8.561927e+000 143 128 92
-8.539083e-001 -3.509714e+000 -8.561927e+000 143 128 92
-6.468648e-001 -3.459529e+000 -8.635153e+000 85 71 42
-6.612330e-001 -3.511291e+000 -8.690620e+000 94 80 51
-2.369358e-001 -3.336569e+000 -8.713303e+000 133 122 77
-2.375730e-001 -3.328120e+000 -8.742270e+000 133 122 77
-3.609403e-001 -3.489318e+000 -8.797208e+000 109 98 70
-3.624546e-001 -3.496091e+000 -8.787360e+000 109 98 70
9.183003e-002 -3.406953e+000 -8.915438e+000 87 73 46
1.586947e-001 -3.402042e+000 -9.045247e+000 137 124 81
1.944890e-001 -3.299659e+000 -8.893417e+000 141 130 87
1.949171e-001 -3.297170e+000 -8.896175e+000 141 130 87
2.277954e-001 -3.380101e+000 -8.994009e+000 91 80 49
3.995050e-001 -3.379583e+000 -9.130165e+000 86 77 46
7.035272e-001 -3.375087e+000 -9.268214e+000 84 76 44
9.075224e-001 -3.416602e+000 -9.290707e+000 137 129 82
7.955851e-001 -3.526240e+000 -9.483286e+000 83 74 41
9.500810e-001 -3.475543e+000 -9.476732e+000 93 85 55
1.194736e+000 -3.393059e+000 -9.523389e+000 127 118 77
1.109686e+000 -3.428999e+000 -9.521859e+000 92 82 56
1.162885e+000 -3.480854e+000 -9.611891e+000 129 117 75
1.163780e+000 -3.476028e+000 -9.634205e+000 129 117 75
1.444552e+000 -3.289426e+000 -9.580470e+000 79 72 43
1.746892e+000 -3.440204e+000 -9.893218e+000 109 102 74
2.111652e+000 -3.429199e+000 -1.010871e+001 73 71 46
2.091101e+000 -3.498696e+000 -1.017496e+001 70 65 45
2.697043e+000 -3.432332e+000 -1.037473e+001 56 57 39
-3.234462e+000 -3.718837e+000 -7.477180e+000 77 67 40
-2.840212e+000 -3.591823e+000 -7.585014e+000 134 122 87
-2.503958e+000 -3.626478e+000 -7.789685e+000 88 76 49
-2.133965e+000 -3.616339e+000 -7.980415e+000 128 118 89
-1.996595e+000 -3.804914e+000 -8.274008e+000 86 75 48
-1.033742e+000 -3.654187e+000 -8.622492e+000 133 118 85
-1.033742e+000 -3.654187e+000 -8.622492e+000 133 118 85
-8.290406e-001 -3.630555e+000 -8.695185e+000 99 87 60
-8.297528e-001 -3.632711e+000 -8.679731e+000 99 87 60
-7.797455e-001 -3.663303e+000 -8.744971e+000 136 124 85
-7.797455e-001 -3.663303e+000 -8.744971e+000 136 124 85
-7.144404e-001 -3.656781e+000 -8.746959e+000 97 82 53
-3.213315e-001 -3.565130e+000 -8.915506e+000 138 125 90
-4.158759e-001 -3.632318e+000 -8.915804e+000 99 85 58
-4.157278e-001 -3.642982e+000 -8.862044e+000 99 85 58
-3.287038e-001 -3.759588e+000 -9.130173e+000 82 68 41
-9.203688e-002 -3.567430e+000 -9.039538e+000 89 77 52
1.934677e-002 -3.603001e+000 -9.146589e+000 91 80 50
1.912126e-002 -3.605766e+000 -9.142164e+000 91 80 50
1.119458e-001 -3.698666e+000 -9.285875e+000 88 76 49
3.916894e-001 -3.737623e+000 -9.467775e+000 98 84 53
2.137437e+000 -3.568548e+000 -1.027886e+001 96 92 65
-3.525365e+000 -3.966572e+000 -7.588033e+000 121 108 76
-3.215971e+000 -3.845982e+000 -7.622205e+000 118 107 82
-2.293107e+000 -3.840357e+000 -8.148594e+000 81 74 46
-9.697687e-001 -3.851944e+000 -8.876308e+000 147 130 85
5.618872e-001 -8.446841e-001 -6.692201e+000 79 73 44
-3.992543e-001 -1.025102e+000 -6.317468e+000 84 73 41
4.375516e-001 -9.284020e-001 -6.700619e+000 120 110 57
6.237330e-001 -9.085591e-001 -6.736273e+000 112 108 60
9.111818e-001 -1.024027e+000 -7.017253e+000 128 119 64
1.382892e+000 -8.462737e-001 -7.091969e+000 108 110 66
1.665290e+000 -8.892996e-001 -7.291281e+000 62 62 36
1.770393e+000 -9.926601e-001 -7.437104e+000 72 72 44
1.817972e+000 -8.414900e-001 -7.271437e+000 66 69 42
1.950374e+000 -8.526821e-001 -7.397948e+000 57 61 36
1.846278e+000 -9.887352e-001 -7.389110e+000 99 103 65
2.022632e+000 -9.053199e-001 -7.496978e+000 98 104 68
2.103338e+000 -8.422241e-001 -7.480134e+000 71 77 52
3.005136e+000 -6.949224e-001 -7.813821e+000 65 69 46
-1.979765e+000 -1.434787e+000 -5.729670e+000 76 72 60
-1.885222e+000 -1.476432e+000 -5.814201e+000 78 74 57
-1.885222e+000 -1.476432e+000 -5.814201e+000 78 74 57
-1.669726e-001 -1.249509e+000 -6.636332e+000 87 76 43
-8.190890e-002 -1.209880e+000 -6.648929e+000 133 119 70
3.720617e-001 -1.304590e+000 -6.958957e+000 82 72 47
1.880958e+000 -1.116809e+000 -7.610965e+000 66 66 40
1.881584e+000 -1.113743e+000 -7.617000e+000 66 66 40
1.994685e+000 -1.207283e+000 -7.740085e+000 62 65 36
2.604374e+000 -1.087958e+000 -8.044908e+000 57 63 40
2.917198e+000 -9.812062e-001 -8.053258e+000 64 67 46
2.898927e+000 -1.057596e+000 -8.105386e+000 59 67 44
2.898927e+000 -1.057596e+000 -8.105386e+000 59 67 44
3.567246e+000 -1.036689e+000 -8.454123e+000 81 86 64
-3.091213e+000 -2.203991e+000 -4.106745e+000 253 223 172
-2.875769e+000 -1.772113e+000 -5.660311e+000 80 78 66
-2.866022e+000 -1.781250e+000 -5.630311e+000 80 78 66
-2.486367e+000 -1.736277e+000 -5.762007e+000 75 72 62
3.226262e-001 -1.459579e+000 -7.126641e+000 80 64 50
1.658256e+000 -1.374230e+000 -7.722270e+000 85 82 53
1.656361e+000 -1.380331e+000 -7.707696e+000 85 82 53
1.822545e+000 -1.302126e+000 -7.738812e+000 78 76 51
1.823531e+000 -1.304336e+000 -7.736648e+000 78 76 51
2.667578e+000 -1.361222e+000 -8.248644e+000 58 62 36
-2.926416e+000 -1.878071e+000 -5.700733e+000 77 73 66
-2.477572e+000 -1.802790e+000 -5.832302e+000 127 118 111
-2.232046e+000 -1.776918e+000 -5.922438e+000 77 68 62
-7.849857e-001 -1.775430e+000 -6.805506e+000 75 61 36
-6.119693e-001 -1.781722e+000 -6.905620e+000 83 68 45
-4.543765e-002 -1.683857e+000 -7.161902e+000 92 78 51
1.554147e+000 -1.724159e+000 -8.006941e+000 82 73 43
1.968791e+000 -1.554869e+000 -8.062433e+000 106 105 61
2.506247e+000 -1.435636e+000 -8.235850e+000 62 64 49
2.506247e+000 -1.435636e+000 -8.235850e+000 62 64 49
2.922730e+000 -1.412580e+000 -8.421576e+000 62 66 43
-8.709690e-001 -2.053729e+000 -7.028336e+000 90 73 55
-5.446773e-001 -2.076080e+000 -7.207689e+000 100 80 56
-1.762572e-001 -1.884989e+000 -7.233523e+000 158 136 95
-1.292494e-001 -1.948617e+000 -7.259795e+000 88 72 44
1.718631e-001 -1.916055e+000 -7.407131e+000 86 71 48
2.727280e-001 -2.024441e+000 -7.600592e+000 79 68 39
6.018417e-001 -1.935769e+000 -7.687793e+000 103 87 63
9.163789e-001 -1.909500e+000 -7.850528e+000 95 82 56
1.404462e+000 -1.752654e+000 -7.971664e+000 80 73 47
1.394196e+000 -1.769213e+000 -7.906110e+000 80 73 47
1.976438e+000 -1.740515e+000 -8.231612e+000 68 64 37
2.265202e+000 -1.737209e+000 -8.398210e+000 59 62 35
-2.751704e+000 -2.363026e+000 -6.248591e+000 70 69 57
-2.752700e+000 -2.362386e+000 -6.250549e+000 70 69 57
-2.389164e+000 -2.296079e+000 -6.328769e+000 137 135 122
-2.408991e+000 -2.412352e+000 -6.443725e+000 83 76 67
-2.408245e+000 -2.415909e+000 -6.432479e+000 83 76 67
-2.279275e+000 -2.394508e+000 -6.456115e+000 79 76 61
-2.279510e+000 -2.391384e+000 -6.460995e+000 79 76 61
-2.153802e+000 -2.344930e+000 -6.471388e+000 78 77 69
-2.153577e+000 -2.338272e+000 -6.483604e+000 78 77 69
-9.029823e-001 -2.156411e+000 -7.089999e+000 92 75 55
-5.680410e-001 -2.141288e+000 -7.251807e+000 102 85 64
-5.022336e-001 -2.301401e+000 -7.467552e+000 86 71 42
-2.342621e-001 -2.281237e+000 -7.579307e+000 99 86 52
1.180793e-001 -2.125803e+000 -7.651438e+000 96 82 53
1.178268e-001 -2.126882e+000 -7.649106e+000 96 82 53
5.390373e-001 -2.122612e+000 -7.837144e+000 88 76 53
1.406111e+000 -2.190484e+000 -8.366306e+000 87 77 47
1.482914e+000 -2.185369e+000 -8.301587e+000 132 118 69
1.570643e+000 -2.110200e+000 -8.377068e+000 92 85 53
1.893390e+000 -2.011019e+000 -8.479174e+000 73 67 42
2.598397e+000 -2.018461e+000 -8.841860e+000 62 64 42
-9.887272e-001 -2.412787e+000 -7.326119e+000 90 76 57
-9.887272e-001 -2.412787e+000 -7.326119e+000 90 76 57
-1.129027e+000 -2.464333e+000 -7.304840e+000 90 75 51
-8.041398e-001 -2.381073e+000 -7.361175e+000 81 64 46
-2.937970e-001 -2.457692e+000 -7.743618e+000 93 79 48
1.309924e-001 -2.449177e+000 -7.943374e+000 88 77 52
4.826314e-001 -2.286759e+000 -8.014194e+000 83 70 48
4.209865e-001 -2.485070e+000 -8.144390e+000 84 72 46
4.968813e-001 -2.486422e+000 -8.197223e+000 154 131 77
1.463195e+000 -2.435507e+000 -8.671165e+000 85 73 45
2.372220e+000 -2.438504e+000 -9.144359e+000 90 90 62
-1.779605e+000 -2.797676e+000 -7.287045e+000 80 63 43
-1.779372e+000 -2.798883e+000 -7.282816e+000 80 63 43
-1.635952e+000 -2.806338e+000 -7.362488e+000 90 74 51
-1.635952e+000 -2.806338e+000 -7.362488e+000 90 74 51
-5.883465e-001 -2.580228e+000 -7.708779e+000 105 90 57
-6.174502e-001 -2.662582e+000 -7.788134e+000 101 85 55
-4.764206e-002 -2.593746e+000 -7.996663e+000 92 83 56
-8.424956e-002 -2.696891e+000 -8.088532e+000 89 74 48
1.083457e+000 -2.709450e+000 -8.752271e+000 87 76 46
1.292133e+000 -2.521336e+000 -8.656395e+000 73 64 41
1.416681e+000 -2.573101e+000 -8.598422e+000 78 71 44
1.249115e+000 -2.676578e+000 -8.816938e+000 79 69 41
1.842238e+000 -2.549576e+000 -8.845708e+000 81 76 48
1.842238e+000 -2.549576e+000 -8.845708e+000 81 76 48
2.237393e+000 -2.682198e+000 -9.326646e+000 69 69 48
2.659169e+000 -2.625949e+000 -9.495137e+000 65 67 44
-1.957162e+000 -2.889763e+000 -7.328960e+000 88 71 51
-2.010138e+000 -3.041811e+000 -7.441853e+000 94 79 55
-1.571352e+000 -3.024835e+000 -7.671422e+000 62 49 47
3.689780e-001 -2.985755e+000 -8.663571e+000 92 78 49
1.126492e+000 -2.971869e+000 -9.056439e+000 93 81 49
-2.405684e+000 -3.183163e+000 -7.354896e+000 141 127 90
-2.405684e+000 -3.183163e+000 -7.354896e+000 141 127 90
-2.327214e+000 -3.157757e+000 -7.380600e+000 92 78 52
-2.235092e+000 -3.302803e+000 -7.573503e+000 89 75 48
-1.637946e+000 -3.206066e+000 -7.833088e+000 65 52 43
-1.047001e+000 -3.060733e+000 -7.942656e+000 100 84 58
8.838606e-001 -3.270924e+000 -9.251550e+000 93 82 50
1.768213e+000 -3.171480e+000 -9.588862e+000 75 69 45
1.892893e+000 -3.240080e+000 -9.682952e+000 65 63 38
-2.983277e+000 -3.387342e+000 -7.270661e+000 76 63 47
-2.983714e+000 -3.382680e+000 -7.277706e+000 76 63 47
-2.933420e+000 -3.465522e+000 -7.364162e+000 129 116 81
-2.933209e+000 -3.467135e+000 -7.357446e+000 129 116 81
-2.685797e+000 -3.556152e+000 -7.633384e+000 123 112 78
-2.535687e+000 -3.334299e+000 -7.461694e+000 99 85 56
-2.469567e+000 -3.348502e+000 -7.529070e+000 134 121 86
-2.532132e+000 -3.518383e+000 -7.670819e+000 130 117 83
-2.280006e+000 -3.410647e+000 -7.666119e+000 91 77 50
-9.260831e-001 -3.522412e+000 -8.574704e+000 115 100 69
-3.003586e-001 -3.319223e+000 -8.666806e+000 94 79 56
9.964047e-001 -3.370418e+000 -9.445559e+000 83 74 43
-3.179754e+000 -3.753087e+000 -7.551292e+000 126 115 80
-2.719254e+000 -3.661828e+000 -7.712497e+000 130 118 81
-2.594881e+000 -3.671062e+000 -7.774783e+000 119 109 73
-2.353567e+000 -3.589759e+000 -7.843108e+000 104 92 66
-2.291116e+000 -3.645333e+000 -7.932129e+000 126 116 81
-2.179285e+000 -3.719897e+000 -8.052761e+000 124 115 82
-2.262867e+000 -3.774058e+000 -8.083464e+000 80 71 43
-2.256293e+000 -3.787299e+000 -8.028674e+000 80 71 43
-2.123061e+000 -3.771424e+000 -8.138472e+000 82 74 52
-2.033903e+000 -3.745010e+000 -8.189728e+000 127 115 73
-1.564668e+000 -3.730092e+000 -8.375463e+000 104 89 68
-1.217126e+000 -3.569108e+000 -8.451783e+000 97 83 54
-8.600632e-001 -3.700780e+000 -8.713520e+000 96 83 54
-7.664621e-001 -3.781981e+000 -8.932242e+000 98 85 53
-3.536377e+000 -3.920818e+000 -7.535240e+000 119 106 72
-3.398213e+000 -3.958774e+000 -7.665033e+000 122 111 81
-3.072465e+000 -3.876100e+000 -7.700698e+000 120 111 80
-3.100248e+000 -3.868313e+000 -7.810360e+000 120 111 80
-2.660149e+000 -3.844582e+000 -7.930956e+000 125 116 85
-2.069890e+000 -3.811801e+000 -8.215050e+000 133 123 85
-2.070827e+000 -3.810363e+000 -8.220484e+000 133 123 85
1.239460e+000 -7.625513e-001 -6.982829e+000 110 109 65
4.226498e-001 -1.045062e+000 -6.764121e+000 125 113 61
1.273020e+000 -9.338533e-001 -7.103740e+000 67 67 34
1.486066e+000 -9.756990e-001 -7.258825e+000 113 111 63
1.455032e+000 -1.085104e+000 -7.363630e+000 116 112 65
1.388122e+000 -1.319130e+000 -7.579997e+000 131 121 62
-1.479926e+000 -1.862228e+000 -6.348352e+000 116 107 76
2.113326e-001 -2.474250e+000 -8.036332e+000 126 110 69
-1.445507e+000 -2.643231e+000 -7.364529e+000 59 45 44
-1.312335e+000 -2.649783e+000 -7.363009e+000 59 48 41
1.696859e-001 -2.589078e+000 -8.189774e+000 119 106 64
1.005700e-001 -2.774020e+000 -8.255935e+000 87 75 35
-2.296555e+000 -3.065862e+000 -7.267984e+000 121 105 80
-2.065840e+000 -2.931978e+000 -7.244831e+000 143 124 85
-5.203872e-002 -3.001843e+000 -8.447904e+000 78 68 45
-4.819659e-002 -2.993132e+000 -8.466127e+000 78 68 45
4.741506e-001 -2.936811e+000 -8.602744e+000 101 89 51
7.948771e-001 -2.912864e+000 -8.794438e+000 127 114 70
-2.478528e+000 -3.158148e+000 -7.286067e+000 95 83 59
-2.475977e+000 -3.160915e+000 -7.276709e+000 95 83 59
-1.745714e+000 -3.123866e+000 -7.636033e+000 95 79 52
-3.182057e+000 -3.522412e+000 -7.324949e+000 98 87 59
-2.822834e+000 -3.322512e+000 -7.289887e+000 78 65 46
3.051277e+000 -3.409857e+000 -1.003641e+001 124 112 96
-3.065169e+000 -3.602354e+000 -7.489177e+000 92 80 57
-3.149729e+000 -3.672944e+000 -7.514595e+000 123 110 75
-2.982711e+000 -3.758386e+000 -7.657568e+000 81 75 51
-2.208164e+000 -3.622560e+000 -7.912364e+000 86 76 51
-1.910931e+000 -3.745585e+000 -8.229596e+000 132 119 81
-3.017613e+000 -3.905814e+000 -7.798975e+000 87 76 58
-3.019882e+000 -3.907170e+000 -7.798550e+000 87 76 58
-2.808379e+000 -3.844914e+000 -7.853783e+000 125 116 79
-2.361661e+000 -3.828056e+000 -8.065290e+000 128 115 80
-1.407643e+000 -3.815638e+000 -8.632949e+000 97 82 49
8.138525e-001 -8.183547e-001 -6.779088e+000 108 106 57
-3.564213e-001 -9.959539e-001 -6.303595e+000 110 99 59
7.581290e-001 -1.007542e+000 -6.909406e+000 117 110 56
1.025004e+000 -8.710807e-001 -6.973202e+000 115 111 63
-4.962770e-001 -1.407984e+000 -6.556216e+000 139 123 72
-1.207710e+000 -3.287583e+000 -8.125524e+000 111 95 61
-1.261222e+000 -3.442016e+000 -8.276815e+000 124 109 76
-1.263935e+000 -3.438940e+000 -8.297706e+000 124 109 76
1.136812e+000 -1.393303e+000 -7.430875e+000 141 125 66
6.387081e-002 -1.745033e+000 -7.163768e+000 152 131 86
6.387081e-002 -1.745033e+000 -7.163768e+000 152 131 86
-2.266944e+000 -2.253360e+000 -6.363869e+000 71 69 57
-4.526292e-001 -2.515027e+000 -7.726519e+000 149 130 89
-1.422625e+000 -3.321386e+000 -8.054222e+000 108 92 59
2.959518e+000 -3.789824e+000 -1.102225e+001 194 168 152
-3.602548e+000 -3.831478e+000 -7.466106e+000 85 73 50
-1.533905e+000 -2.601397e+000 -7.122880e+000 151 130 89
-1.788190e+000 -2.091385e+000 -6.417222e+000 128 113 70
-3.280220e-001 -8.272024e-001 -6.225555e+000 126 115 70
7.549313e-001 -2.209286e+000 -8.161433e+000 134 121 77
-1.749930e+000 -3.694936e+000 -8.540734e+000 62 58 49
-3.323901e-001 -9.381495e-001 -6.254499e+000 129 124 77
1.219286e+000 -7.312760e-001 -6.937050e+000 115 120 78
