ply
format ascii 1.0
element face 0
property list uchar int vertex_indices
element vertex 873
property float x
property float y
property float z
property uchar diffuse_red
property uchar diffuse_green
property uchar diffuse_blue
end_header
-1.322887e+000 -3.882944e+000 -8.537158e+000 151 145 113
-6.331906e-001 -3.827302e+000 -8.841786e+000 133 125 89
2.548833e+000 -3.652031e+000 -1.034113e+001 83 85 64
-2.577221e+000 -1.526413e+000 -5.309169e+000 71 71 59
-2.508902e+000 -1.492452e+000 -5.326849e+000 127 126 108
-4.979183e-001 -1.151028e+000 -6.122167e+000 145 137 90
1.807402e+000 -7.208477e-001 -6.968845e+000 74 79 56
-1.963766e+000 -1.694936e+000 -5.698692e+000 80 81 76
-5.563858e-001 -1.369325e+000 -6.287692e+000 145 135 84
1.929886e+000 -1.093458e+000 -7.322311e+000 114 118 84
2.589500e+000 -8.542967e-001 -7.529549e+000 98 108 81
2.539386e+000 -1.010430e+000 -7.629404e+000 94 104 77
2.648935e+000 -8.876491e-001 -7.555971e+000 65 71 54
2.701378e+000 -9.599228e-001 -7.651852e+000 95 104 76
3.024299e+000 -8.390847e-001 -7.702787e+000 92 106 77
3.024982e+000 -8.321148e-001 -7.706471e+000 92 106 77
3.181662e+000 -7.988773e-001 -7.749268e+000 96 106 82
3.154072e+000 -9.295584e-001 -7.903126e+000 95 105 79
3.636879e+000 -7.382726e-001 -7.918188e+000 95 106 83
-5.905718e-001 -1.503964e+000 -6.348542e+000 144 132 88
5.773886e-002 -1.390475e+000 -6.633386e+000 142 132 85
1.284685e-002 -1.542289e+000 -6.752502e+000 148 137 98
1.716019e+000 -1.335656e+000 -7.506932e+000 128 127 85
1.798223e+000 -1.293876e+000 -7.482099e+000 71 71 47
2.632334e+000 -1.189156e+000 -7.790868e+000 95 103 78
3.171692e+000 -1.081426e+000 -8.001506e+000 68 77 57
-2.729731e+000 -1.964589e+000 -5.620968e+000 72 75 64
-2.101702e+000 -1.983025e+000 -5.936674e+000 79 79 71
-3.496035e-002 -1.698661e+000 -6.860118e+000 149 136 93
4.319390e-001 -1.575128e+000 -7.014422e+000 158 141 86
1.585114e+000 -1.426132e+000 -7.487025e+000 125 122 74
2.301345e+000 -1.324142e+000 -7.818019e+000 102 110 77
2.669659e+000 -1.322526e+000 -8.029630e+000 61 66 44
2.556661e+000 -1.445181e+000 -8.048496e+000 89 100 68
3.009459e+000 -1.390054e+000 -8.202598e+000 88 98 73
-2.707465e+000 -2.283281e+000 -5.918434e+000 131 135 116
-2.713883e+000 -2.320469e+000 -5.963690e+000 76 78 68
-7.910208e-001 -1.995838e+000 -6.731415e+000 75 68 40
-1.202033e-001 -1.780172e+000 -6.933766e+000 96 85 55
-1.842497e-001 -1.944733e+000 -7.047851e+000 78 64 37
6.959372e-001 -1.714526e+000 -7.273525e+000 156 144 88
2.387697e+000 -1.517661e+000 -7.992071e+000 100 106 78
2.355262e+000 -1.617060e+000 -8.058787e+000 107 114 81
2.360429e+000 -1.606741e+000 -8.067093e+000 107 114 81
2.571798e+000 -1.598489e+000 -8.177302e+000 60 68 47
-2.321100e+000 -2.336654e+000 -6.204510e+000 75 77 65
-9.257638e-001 -2.196213e+000 -6.917093e+000 144 134 104
-9.257638e-001 -2.196213e+000 -6.917093e+000 144 134 104
1.046426e+000 -2.003782e+000 -7.697839e+000 157 140 71
1.772318e+000 -1.851511e+000 -8.019819e+000 80 77 43
1.679984e+000 -1.916041e+000 -8.027103e+000 132 126 78
1.869749e+000 -1.786788e+000 -7.993155e+000 124 122 73
-9.702109e-001 -2.332170e+000 -7.064166e+000 153 139 108
-3.689923e-001 -2.347090e+000 -7.364736e+000 158 145 109
-2.581944e-001 -2.209817e+000 -7.251108e+000 92 82 56
-2.514370e-001 -2.185707e+000 -7.278427e+000 92 82 56
2.338722e-001 -2.209308e+000 -7.536698e+000 150 138 96
4.988536e-001 -2.131695e+000 -7.597394e+000 93 83 59
5.107766e-001 -2.291092e+000 -7.745997e+000 150 138 80
1.282511e+000 -2.012006e+000 -7.953505e+000 85 77 45
1.421371e+000 -2.056868e+000 -7.977603e+000 79 74 37
1.598997e+000 -2.173620e+000 -8.222219e+000 141 130 81
1.598997e+000 -2.173620e+000 -8.222219e+000 141 130 81
1.757785e+000 -2.128566e+000 -8.239535e+000 131 127 79
2.212488e+000 -2.075117e+000 -8.445163e+000 108 109 70
2.212488e+000 -2.075117e+000 -8.445163e+000 108 109 70
2.920855e+000 -1.884467e+000 -8.663584e+000 60 67 44
-1.010712e+000 -2.477338e+000 -7.140265e+000 147 137 102
-1.516795e-001 -2.460124e+000 -7.544659e+000 148 136 92
4.903472e-001 -2.348711e+000 -7.819815e+000 153 143 88
1.193727e+000 -2.279845e+000 -8.105620e+000 80 74 42
2.815042e+000 -2.232888e+000 -9.031465e+000 63 71 52
-1.327035e+000 -2.680497e+000 -7.182586e+000 55 48 38
-1.230246e+000 -2.773762e+000 -7.301487e+000 153 140 102
-5.804170e-001 -2.771718e+000 -7.649172e+000 83 73 45
-1.344282e-001 -2.612866e+000 -7.730321e+000 91 80 50
9.722400e-002 -2.636633e+000 -7.887309e+000 147 135 92
9.722400e-002 -2.636633e+000 -7.887309e+000 147 135 92
5.131560e-001 -2.684512e+000 -8.136695e+000 145 133 80
5.147174e-001 -2.677675e+000 -8.144666e+000 145 133 80
8.360747e-001 -2.473375e+000 -8.141719e+000 82 72 42
7.675655e-001 -2.653407e+000 -8.298055e+000 86 77 45
1.515747e+000 -2.423996e+000 -8.459388e+000 135 126 77
1.515747e+000 -2.423996e+000 -8.459388e+000 135 126 77
1.449515e+000 -2.614593e+000 -8.579277e+000 133 126 74
1.665071e+000 -2.417032e+000 -8.558348e+000 125 121 74
1.806442e+000 -2.431896e+000 -8.611369e+000 117 114 73
1.974618e+000 -2.361248e+000 -8.654664e+000 116 114 75
1.978347e+000 -2.353725e+000 -8.666901e+000 116 114 75
1.940128e+000 -2.451937e+000 -8.662469e+000 117 115 76
2.152356e+000 -2.467632e+000 -8.784323e+000 74 73 48
2.097808e+000 -2.439067e+000 -8.860080e+000 110 110 76
-1.714082e+000 -2.964407e+000 -7.284132e+000 148 138 100
-6.868684e-001 -2.897826e+000 -7.743537e+000 149 138 92
-5.575848e-001 -2.903585e+000 -7.832768e+000 149 137 92
-5.781809e-001 -2.982408e+000 -7.884486e+000 153 140 96
-3.698346e-001 -2.915163e+000 -7.960871e+000 79 72 44
-5.906113e-003 -2.920085e+000 -8.166766e+000 142 130 82
-5.906113e-003 -2.920085e+000 -8.166766e+000 142 130 82
5.172152e-001 -2.664269e+000 -8.244968e+000 145 134 78
8.526871e-001 -2.711086e+000 -8.373124e+000 83 75 38
2.012055e+000 -2.667613e+000 -8.886015e+000 104 104 66
2.908918e+000 -2.569909e+000 -9.379491e+000 83 88 66
2.953974e+000 -2.630177e+000 -9.425225e+000 58 63 41
-2.230306e+000 -3.175421e+000 -7.206523e+000 143 130 95
-1.926981e+000 -3.171920e+000 -7.380790e+000 135 125 90
-5.415634e-001 -3.022855e+000 -7.934678e+000 62 53 21
-2.248255e-002 -2.966535e+000 -8.221841e+000 132 123 77
-2.248255e-002 -2.966535e+000 -8.221841e+000 132 123 77
2.283772e-001 -2.947847e+000 -8.285561e+000 78 73 40
6.361598e-001 -3.015030e+000 -8.563793e+000 89 79 52
1.185189e+000 -2.958679e+000 -8.821405e+000 147 138 91
1.514679e+000 -2.863225e+000 -8.977205e+000 132 124 84
2.420821e+000 -2.753563e+000 -9.311588e+000 90 94 67
2.226379e+000 -2.895911e+000 -9.302529e+000 96 99 69
2.364346e+000 -2.920685e+000 -9.456436e+000 92 94 69
2.364346e+000 -2.920685e+000 -9.456436e+000 92 94 69
2.504380e+000 -2.920485e+000 -9.478193e+000 91 94 67
2.496509e+000 -2.935848e+000 -9.454581e+000 91 94 67
2.820385e+000 -2.867651e+000 -9.683377e+000 79 84 62
-2.895588e+000 -3.456010e+000 -7.131474e+000 123 117 80
-2.289242e+000 -3.364359e+000 -7.357540e+000 134 124 88
-1.391639e+000 -3.433348e+000 -7.934306e+000 87 75 52
-9.123060e-001 -3.383499e+000 -8.163125e+000 101 90 62
-8.416186e-001 -3.350677e+000 -8.152496e+000 147 135 86
-8.393639e-001 -3.338789e+000 -8.173122e+000 147 135 86
-5.299021e-001 -3.187016e+000 -8.146566e+000 141 129 89
-4.134892e-001 -3.232354e+000 -8.258963e+000 131 124 78
-4.430342e-001 -3.306734e+000 -8.322981e+000 143 132 86
1.198272e+000 -3.122574e+000 -9.021902e+000 86 78 50
1.312595e+000 -3.205678e+000 -9.189760e+000 82 76 47
1.305165e+000 -3.218833e+000 -9.180929e+000 82 76 47
1.558340e+000 -3.143834e+000 -9.225145e+000 122 116 80
1.697820e+000 -3.154729e+000 -9.292210e+000 116 112 75
1.699894e+000 -3.147670e+000 -9.300207e+000 116 112 75
2.122005e+000 -2.981592e+000 -9.358197e+000 68 67 46
2.108274e+000 -3.030124e+000 -9.432750e+000 70 70 44
2.256164e+000 -2.998922e+000 -9.432249e+000 61 63 39
2.670198e+000 -2.927068e+000 -9.672215e+000 88 91 69
2.682622e+000 -3.057158e+000 -9.826321e+000 56 60 39
2.824387e+000 -3.045335e+000 -9.870003e+000 57 60 39
-2.609739e+000 -3.619676e+000 -7.481383e+000 73 67 45
-2.653077e+000 -3.693006e+000 -7.515300e+000 79 74 46
-2.543231e+000 -3.664197e+000 -7.557513e+000 115 108 79
-1.375086e+000 -3.518891e+000 -8.057379e+000 146 138 98
-9.767133e-001 -3.526533e+000 -8.314159e+000 93 83 56
-9.767133e-001 -3.526533e+000 -8.314159e+000 93 83 56
-8.834030e-001 -3.459462e+000 -8.250810e+000 139 131 85
-6.999917e-001 -3.477238e+000 -8.370199e+000 86 76 49
-4.811314e-001 -3.408631e+000 -8.458354e+000 138 129 85
-5.848749e-001 -3.518613e+000 -8.492570e+000 85 75 54
-1.642424e-001 -3.386070e+000 -8.575045e+000 133 128 78
-9.892958e-002 -3.396960e+000 -8.605112e+000 82 73 47
2.359252e-001 -3.468548e+000 -8.878107e+000 139 133 85
3.015869e-001 -3.470775e+000 -8.929366e+000 77 71 37
5.695002e-001 -3.395714e+000 -9.015500e+000 135 126 82
5.768365e-001 -3.373292e+000 -9.044657e+000 135 126 82
5.372083e-001 -3.488112e+000 -9.056580e+000 133 122 81
1.043458e+000 -3.357183e+000 -9.170686e+000 135 127 77
1.049554e+000 -3.346293e+000 -9.184897e+000 135 127 77
1.009434e+000 -3.453712e+000 -9.247505e+000 129 120 63
1.296044e+000 -3.288233e+000 -9.271630e+000 78 73 45
1.477153e+000 -3.369731e+000 -9.507392e+000 123 116 77
2.198442e+000 -3.185947e+000 -9.621792e+000 65 67 45
2.618946e+000 -3.226797e+000 -9.906003e+000 58 61 39
2.708608e+000 -3.173877e+000 -9.881927e+000 84 87 66
2.783941e+000 -3.197862e+000 -1.008349e+001 59 62 45
-3.466420e+000 -3.848951e+000 -7.239777e+000 118 113 76
-3.082696e+000 -3.761520e+000 -7.345297e+000 125 118 76
-3.082696e+000 -3.761520e+000 -7.345297e+000 125 118 76
-3.104254e+000 -3.820409e+000 -7.365784e+000 73 68 45
-2.576626e+000 -3.886141e+000 -7.760229e+000 77 71 47
-2.129464e+000 -3.734163e+000 -7.882522e+000 129 123 87
-9.824920e-001 -3.718147e+000 -8.494775e+000 138 130 82
-9.428658e-001 -3.616806e+000 -8.412001e+000 140 133 81
-8.719518e-001 -3.780144e+000 -8.615337e+000 136 127 85
2.138426e-002 -3.531881e+000 -8.840097e+000 87 79 56
1.955755e-001 -3.579707e+000 -8.964541e+000 147 137 97
2.539444e-001 -3.589845e+000 -9.000480e+000 92 83 55
4.807063e-001 -3.641130e+000 -9.192491e+000 145 135 92
1.134863e+000 -3.499730e+000 -9.379399e+000 132 124 77
1.234447e+000 -3.640318e+000 -9.627055e+000 127 120 79
1.228305e+000 -3.651759e+000 -9.611447e+000 127 120 79
1.435651e+000 -3.481961e+000 -9.540291e+000 121 113 77
1.834059e+000 -3.578675e+000 -9.857509e+000 108 108 80
2.589538e+000 -3.362603e+000 -1.009045e+001 57 58 39
-2.574110e+000 -4.058084e+000 -7.924697e+000 90 85 60
-2.330475e+000 -3.919989e+000 -7.973033e+000 122 119 78
-2.453616e+000 -4.025892e+000 -8.043560e+000 88 82 56
-2.031780e+000 -3.911055e+000 -8.117386e+000 129 126 85
-1.005687e+000 -3.803597e+000 -8.554712e+000 142 134 85
-1.006149e+000 -3.824345e+000 -8.531013e+000 142 134 85
-1.095774e+000 -3.877979e+000 -8.603835e+000 80 69 50
-5.745690e-001 -3.847564e+000 -8.887832e+000 92 81 51
-5.699880e-001 -3.903939e+000 -8.915668e+000 144 132 84
-3.903066e-001 -3.824235e+000 -8.946999e+000 86 78 59
-8.407588e-002 -3.805048e+000 -9.104445e+000 74 67 41
-1.461150e-002 -3.789104e+000 -9.091025e+000 144 132 77
-1.432653e-002 -3.789448e+000 -9.090885e+000 144 132 77
4.447579e-001 -3.741531e+000 -9.294140e+000 139 136 85
9.048043e-001 -3.737229e+000 -9.482269e+000 133 125 78
1.196147e+000 -3.742580e+000 -9.646004e+000 125 116 76
1.196147e+000 -3.742580e+000 -9.646004e+000 125 116 76
1.519789e+000 -3.657308e+000 -9.844739e+000 117 113 76
1.650389e+000 -3.670967e+000 -9.838662e+000 112 109 76
2.586740e+000 -3.566205e+000 -1.031172e+001 88 89 72
7.405068e-001 -7.952001e-001 -6.490320e+000 131 128 82
-2.316899e+000 -1.431275e+000 -5.357555e+000 78 83 74
1.928011e+000 -8.339163e-001 -7.127491e+000 74 78 53
2.326614e+000 -9.850083e-001 -7.473082e+000 69 77 54
2.686696e+000 -7.712378e-001 -7.557021e+000 64 73 54
2.666964e+000 -8.111620e-001 -7.513698e+000 64 73 54
3.292903e+000 -6.978459e-001 -7.773121e+000 61 70 56
3.278365e+000 -7.269523e-001 -7.748421e+000 61 70 56
3.694731e+000 -8.215426e-001 -8.077060e+000 62 73 53
-8.798734e-002 -1.453220e+000 -6.606236e+000 145 136 92
8.669951e-001 -1.391101e+000 -7.073622e+000 93 88 60
2.560756e+000 -1.150647e+000 -7.707795e+000 67 72 52
3.080661e+000 -9.350446e-001 -7.918038e+000 63 72 52
3.031737e+000 -1.079144e+000 -7.983489e+000 66 75 57
3.031737e+000 -1.079144e+000 -7.983489e+000 66 75 57
-2.238922e+000 -1.909131e+000 -5.824119e+000 150 145 126
-1.032418e+000 -1.801598e+000 -6.434571e+000 74 59 40
-5.540710e-001 -1.816600e+000 -6.704441e+000 86 75 50
1.894234e+000 -1.456676e+000 -7.699964e+000 79 79 52
2.033570e+000 -1.456799e+000 -7.738889e+000 75 79 55
2.469441e+000 -1.472753e+000 -7.982103e+000 67 72 51
2.671075e+000 -1.292698e+000 -7.899258e+000 61 70 49
3.008101e+000 -1.180358e+000 -8.099915e+000 59 68 49
-5.923032e-001 -1.940594e+000 -6.796071e+000 96 87 59
-1.579748e-001 -1.854758e+000 -6.971881e+000 107 95 64
3.148509e-001 -1.755125e+000 -7.112523e+000 92 83 55
3.148509e-001 -1.755125e+000 -7.112523e+000 92 83 55
2.459797e-001 -1.940967e+000 -7.234206e+000 88 81 53
4.276344e-001 -1.833875e+000 -7.261886e+000 89 80 46
4.276344e-001 -1.833875e+000 -7.261886e+000 89 80 46
1.699773e+000 -1.611639e+000 -7.716280e+000 69 67 40
1.660056e+000 -1.747055e+000 -7.846843e+000 87 84 53
-9.947779e-001 -2.199987e+000 -6.922542e+000 97 87 62
2.419927e-001 -1.984521e+000 -7.337931e+000 95 86 54
3.506703e-001 -2.057048e+000 -7.429777e+000 76 68 47
1.588545e+000 -1.942340e+000 -7.974170e+000 86 81 54
1.588545e+000 -1.942340e+000 -7.974170e+000 86 81 54
1.990952e+000 -1.910505e+000 -8.192093e+000 115 115 65
2.542182e+000 -1.705550e+000 -8.268393e+000 63 71 48
2.829030e+000 -1.717592e+000 -8.414079e+000 65 73 53
3.445496e+000 -1.569827e+000 -8.634390e+000 55 64 41
-1.245156e+000 -2.406922e+000 -7.004025e+000 92 77 58
-7.121225e-001 -2.284033e+000 -7.088929e+000 105 94 79
-7.491766e-001 -2.410934e+000 -7.207068e+000 85 72 56
-3.386710e-001 -2.231901e+000 -7.239820e+000 152 140 99
-3.453167e-001 -2.288856e+000 -7.319614e+000 159 146 104
1.571085e+000 -2.018111e+000 -8.042707e+000 91 85 53
1.653354e+000 -2.014086e+000 -8.068995e+000 139 129 75
2.128634e+000 -2.094380e+000 -8.430876e+000 68 68 44
-5.000745e-001 -2.522581e+000 -7.460921e+000 105 91 65
-4.531222e-001 -2.552425e+000 -7.531231e+000 155 142 98
-1.957378e-001 -2.416229e+000 -7.504076e+000 94 84 57
1.351259e+000 -2.240314e+000 -8.134012e+000 78 69 36
2.275853e+000 -2.129038e+000 -8.577510e+000 72 74 49
2.338943e+000 -2.168385e+000 -8.705140e+000 100 104 68
2.322335e+000 -2.203960e+000 -8.661183e+000 100 104 68
2.496367e+000 -2.300182e+000 -8.808260e+000 64 69 46
-1.181232e+000 -2.787499e+000 -7.372491e+000 99 89 64
-6.535800e-001 -2.631258e+000 -7.486098e+000 96 86 61
-7.082780e-001 -2.779294e+000 -7.624650e+000 93 86 60
-2.704155e-001 -2.628242e+000 -7.689755e+000 121 109 69
4.378729e-001 -2.709319e+000 -8.110827e+000 90 81 52
4.378729e-001 -2.709319e+000 -8.110827e+000 90 81 52
1.234332e+000 -2.627880e+000 -8.498375e+000 81 75 41
1.397318e+000 -2.556123e+000 -8.514634e+000 81 73 51
1.672849e+000 -2.596869e+000 -8.719273e+000 82 78 50
2.414966e+000 -2.526671e+000 -9.039073e+000 66 70 46
-5.973030e-001 -2.798349e+000 -7.708167e+000 101 89 58
-5.968406e-001 -2.798293e+000 -7.708402e+000 101 89 58
1.698496e-002 -2.824631e+000 -8.066017e+000 129 122 76
1.074554e-001 -2.784659e+000 -8.042881e+000 80 68 44
6.958801e-001 -2.847374e+000 -8.360380e+000 82 73 40
2.396665e+000 -2.609691e+000 -9.133876e+000 63 67 42
-1.301126e+000 -3.155755e+000 -7.698615e+000 82 77 46
-1.085708e+000 -3.207925e+000 -7.857202e+000 93 85 56
-1.085708e+000 -3.207925e+000 -7.857202e+000 93 85 56
-5.847054e-001 -3.183615e+000 -8.074603e+000 92 82 54
-4.051992e-001 -3.009778e+000 -8.012289e+000 84 74 49
-4.224488e-001 -3.077389e+000 -8.088265e+000 98 89 58
4.465058e-001 -3.047010e+000 -8.510654e+000 87 76 55
6.150609e-001 -3.074208e+000 -8.668068e+000 87 77 50
1.228605e+000 -2.837042e+000 -8.767220e+000 131 122 65
1.444150e+000 -2.832565e+000 -8.828698e+000 83 80 45
1.885930e+000 -2.821516e+000 -9.090555e+000 79 75 50
1.849164e+000 -2.929224e+000 -9.174903e+000 77 76 48
2.280790e+000 -2.932680e+000 -9.377111e+000 71 74 47
2.437124e+000 -2.905958e+000 -9.445628e+000 67 69 45
-3.229075e+000 -3.555887e+000 -7.100905e+000 127 118 73
-2.579599e+000 -3.386230e+000 -7.232678e+000 132 126 91
-1.581954e+000 -3.387232e+000 -7.786668e+000 89 74 56
-1.041369e+000 -3.267147e+000 -7.981910e+000 87 75 50
-8.679979e-001 -3.262296e+000 -8.067411e+000 86 75 45
-1.072904e+000 -3.368656e+000 -8.051802e+000 98 87 60
-7.851721e-001 -3.340756e+000 -8.239530e+000 99 89 54
1.435070e-001 -3.187598e+000 -8.488736e+000 77 70 43
1.506168e-001 -3.169200e+000 -8.505230e+000 77 70 43
1.165652e+000 -3.201052e+000 -9.072869e+000 89 82 54
1.663016e+000 -3.048549e+000 -9.127297e+000 78 72 46
2.392568e+000 -3.003644e+000 -9.526721e+000 65 67 45
2.288861e+000 -3.134054e+000 -9.643613e+000 95 99 72
2.968347e+000 -3.047595e+000 -9.960876e+000 54 57 36
-3.119008e+000 -3.650224e+000 -7.226829e+000 125 113 71
-2.339071e+000 -3.647072e+000 -7.703103e+000 90 87 56
-1.419873e+000 -3.486410e+000 -7.994272e+000 95 84 62
-7.974235e-001 -3.575964e+000 -8.417501e+000 137 127 76
-7.234073e-001 -3.570553e+000 -8.437730e+000 94 84 57
-4.449188e-001 -3.486261e+000 -8.493240e+000 90 83 55
6.707408e-001 -3.293653e+000 -8.952294e+000 93 84 54
6.220686e-001 -3.441250e+000 -8.987292e+000 88 77 49
1.093856e+000 -3.433650e+000 -9.311141e+000 76 69 41
1.433648e+000 -3.289564e+000 -9.328047e+000 84 80 54
1.872037e+000 -3.247085e+000 -9.439272e+000 71 71 48
1.925039e+000 -3.330695e+000 -9.632165e+000 105 102 69
2.320369e+000 -3.265518e+000 -9.945358e+000 63 62 40
-3.233859e+000 -3.776767e+000 -7.327004e+000 69 64 44
-3.232831e+000 -3.780130e+000 -7.323305e+000 69 64 44
-3.211972e+000 -3.922077e+000 -7.452236e+000 117 116 85
-1.009174e+000 -3.650616e+000 -8.338691e+000 102 91 63
-8.142764e-001 -3.652355e+000 -8.506088e+000 144 132 92
-5.984639e-001 -3.557139e+000 -8.568363e+000 90 84 50
-4.799299e-001 -3.573400e+000 -8.583807e+000 95 88 59
-6.514190e-001 -3.718065e+000 -8.660535e+000 100 93 67
-2.198974e-001 -3.683137e+000 -8.849712e+000 86 81 59
1.208067e+000 -3.485605e+000 -9.399532e+000 80 77 45
1.351998e+000 -3.491743e+000 -9.492124e+000 71 64 37
1.647063e+000 -3.499529e+000 -9.693206e+000 75 71 52
1.602723e+000 -3.610093e+000 -9.779591e+000 80 76 47
2.051220e+000 -3.578613e+000 -9.962354e+000 72 72 48
2.628668e+000 -3.595123e+000 -1.017426e+001 55 58 42
3.250946e+000 -3.481131e+000 -1.059885e+001 131 121 109
-2.551431e-001 -3.808476e+000 -9.018523e+000 89 83 58
1.974689e-001 -3.744776e+000 -9.177408e+000 81 77 48
1.141314e+000 -3.714128e+000 -9.679100e+000 80 75 46
1.554771e+000 -3.729060e+000 -9.851716e+000 75 70 50
3.166444e+000 -3.638214e+000 -1.057566e+001 139 127 115
-5.313597e-001 -1.243624e+000 -6.198691e+000 142 132 81
-2.862604e+000 -1.798840e+000 -5.432700e+000 76 79 70
-2.914191e+000 -1.917169e+000 -5.490191e+000 77 80 73
-2.317194e+000 -1.791237e+000 -5.649903e+000 152 146 134
1.682253e+000 -1.223288e+000 -7.371066e+000 78 78 52
-2.953200e+000 -1.998577e+000 -5.585808e+000 72 76 62
-2.948828e+000 -2.016871e+000 -5.572504e+000 72 76 62
-1.976455e+000 -2.062991e+000 -6.073289e+000 137 135 126
-2.941908e+000 -2.191872e+000 -5.774799e+000 76 76 66
-2.756824e+000 -2.210693e+000 -5.846890e+000 102 104 90
-2.895661e+000 -2.282289e+000 -5.863277e+000 70 76 62
-2.895661e+000 -2.282289e+000 -5.863277e+000 70 76 62
-1.664566e+000 -3.058107e+000 -7.372709e+000 95 85 58
-1.665054e+000 -3.059905e+000 -7.371269e+000 95 85 58
-1.851600e+000 -3.161093e+000 -7.373977e+000 84 73 52
-3.262150e+000 -3.699478e+000 -7.134509e+000 123 117 72
-2.483711e+000 -3.686791e+000 -7.622895e+000 79 73 50
-2.483918e+000 -3.686395e+000 -7.625666e+000 79 73 50
-2.278061e+000 -3.556444e+000 -7.578838e+000 79 72 52
2.006608e+000 -3.298281e+000 -9.607745e+000 70 69 49
-6.485479e-001 -1.576846e+000 -6.455054e+000 147 137 85
-2.290512e-001 -1.429267e+000 -6.526814e+000 149 139 91
-2.582556e+000 -3.230289e+000 -7.030601e+000 138 125 85
-2.209712e+000 -3.184862e+000 -7.262108e+000 143 129 90
-2.211226e+000 -3.183637e+000 -7.263081e+000 143 129 90
-3.760481e+000 -3.587726e+000 -6.888851e+000 146 167 103
-1.871113e+000 -3.815295e+000 -8.073711e+000 132 125 81
2.641072e-001 -1.092050e+000 -6.382181e+000 140 132 75
-2.572258e+000 -2.414998e+000 -6.113656e+000 102 104 93
-2.506170e+000 -1.699095e+000 -5.482319e+000 85 83 69
3.031736e+000 -1.324839e+000 -8.185369e+000 89 97 66
-3.755579e-001 -1.752007e+000 -6.767315e+000 144 132 83
-1.133672e+000 -2.450549e+000 -7.082618e+000 145 130 97
-1.024235e-002 -2.377569e+000 -7.575640e+000 140 129 94
2.382221e+000 -2.174819e+000 -8.644329e+000 62 61 33
1.701444e+000 -2.455621e+000 -8.554211e+000 84 75 42
7.775543e-001 -2.818661e+000 -8.471063e+000 141 132 75
-1.786965e+000 -3.156030e+000 -7.427042e+000 143 128 89
-1.670480e+000 -3.129551e+000 -7.450994e+000 108 94 66
-2.748873e+000 -3.393270e+000 -7.180638e+000 131 118 84
-1.650283e+000 -3.383577e+000 -7.753532e+000 70 51 44
-6.762580e-001 -3.238479e+000 -8.109241e+000 153 138 97
-6.762120e-001 -3.240148e+000 -8.110128e+000 153 138 97
-1.979780e+000 -3.489966e+000 -7.656689e+000 87 76 47
-1.163539e+000 -3.607246e+000 -8.262121e+000 80 68 46
-1.163539e+000 -3.607246e+000 -8.262121e+000 80 68 46
-2.829903e+000 -3.871065e+000 -7.615291e+000 87 78 45
-1.803444e+000 -3.692162e+000 -7.995224e+000 134 122 84
-1.581207e+000 -3.770227e+000 -8.185214e+000 139 129 94
9.160136e-001 -3.708182e+000 -9.514881e+000 140 132 83
3.078626e+000 -3.817670e+000 -1.036715e+001 144 128 113
-3.172798e+000 -4.002734e+000 -7.565062e+000 122 116 82
-3.172015e+000 -4.004646e+000 -7.561426e+000 122 116 82
-2.931604e+000 -3.951862e+000 -7.649524e+000 129 119 83
-3.164813e+000 -4.092373e+000 -7.675902e+000 93 86 57
-3.101351e+000 -4.081932e+000 -7.680265e+000 118 109 75
-2.173547e+000 -3.933700e+000 -8.058629e+000 89 80 51
-2.390251e+000 -4.020993e+000 -8.055463e+000 121 111 81
-2.063310e+000 -3.988014e+000 -8.181276e+000 128 117 85
2.990484e+000 -1.466910e+000 -8.315169e+000 90 96 68
3.328570e+000 -1.531403e+000 -8.631216e+000 61 66 45
3.338854e+000 -1.677938e+000 -8.705309e+000 84 90 64
-1.043021e+000 -2.555131e+000 -7.229356e+000 152 133 100
2.305381e+000 -2.233062e+000 -8.704428e+000 91 91 55
-1.233030e+000 -2.622236e+000 -7.170426e+000 62 48 38
5.794288e-001 -2.692204e+000 -8.200858e+000 84 70 41
1.325520e+000 -2.537338e+000 -8.438521e+000 136 130 80
2.258241e+000 -2.590073e+000 -9.016986e+000 71 71 47
3.039888e+000 -2.375784e+000 -9.239569e+000 64 67 44
-1.245472e+000 -2.797385e+000 -7.374762e+000 144 130 95
-6.080327e-001 -3.038759e+000 -7.951632e+000 146 133 89
-3.911892e-001 -3.148795e+000 -8.173209e+000 144 132 82
-1.256725e+000 -3.405443e+000 -7.965986e+000 107 94 62
-6.206707e-001 -3.241858e+000 -8.143592e+000 117 102 70
3.459826e-001 -3.358280e+000 -8.783763e+000 84 73 43
-2.186751e+000 -3.492332e+000 -7.567863e+000 143 125 90
-2.207589e+000 -3.554207e+000 -7.612391e+000 137 122 86
-4.515959e-001 -3.515456e+000 -8.545116e+000 112 98 70
1.780899e+000 -3.520781e+000 -9.776913e+000 77 73 48
-5.280268e-002 -3.731563e+000 -9.001306e+000 89 74 50
7.194854e-002 -3.732530e+000 -9.085946e+000 90 78 52
1.165203e+000 -3.619249e+000 -9.575651e+000 80 74 42
-3.526385e+000 -4.052622e+000 -7.399827e+000 119 114 77
-2.401387e+000 -3.908308e+000 -7.893673e+000 129 118 82
2.024529e-001 -3.856385e+000 -9.275930e+000 149 133 88
-2.624435e+000 -2.215280e+000 -5.940230e+000 92 90 77
-3.100333e-001 -3.109878e+000 -8.187740e+000 100 89 57
-1.530847e+000 -3.797743e+000 -8.288456e+000 76 62 36
-1.408533e+000 -3.805431e+000 -8.345571e+000 93 78 56
1.377053e+000 -1.698682e+000 -7.599763e+000 142 127 65
-2.134756e+000 -3.556257e+000 -7.671898e+000 101 92 61
-2.134756e+000 -3.556257e+000 -7.671898e+000 101 92 61
-6.822694e-003 -3.378708e+000 -8.636114e+000 123 110 72
-1.959328e+000 -3.360835e+000 -7.546802e+000 109 99 64
-1.904429e-001 -8.290836e-001 -6.003714e+000 92 86 50
-2.599254e+000 -1.482765e+000 -5.255785e+000 132 133 99
1.884039e+000 -7.090632e-001 -7.006098e+000 117 124 92
2.727738e+000 -6.468837e-001 -7.482645e+000 65 77 54
2.790219e+000 -6.367363e-001 -7.452501e+000 104 117 91
2.790219e+000 -6.367363e-001 -7.452501e+000 104 117 91
4.060898e+000 -3.315752e-001 -7.967749e+000 199 207 198
-2.591082e+000 -1.725441e+000 -5.404764e+000 127 129 118
-2.344845e+000 -1.623238e+000 -5.400777e+000 138 140 129
-2.291484e+000 -1.624310e+000 -5.453718e+000 138 142 127
-2.147296e+000 -1.538152e+000 -5.473137e+000 93 93 86
-1.805564e+000 -1.492671e+000 -5.654759e+000 135 131 112
-2.957093e-001 -1.316391e+000 -6.390049e+000 142 133 89
1.530111e+000 -9.163844e-001 -7.001908e+000 86 86 60
2.175006e+000 -7.651706e-001 -7.314033e+000 104 113 86
3.534665e+000 -6.657229e-001 -7.947389e+000 94 106 82
-2.679659e+000 -1.802006e+000 -5.445815e+000 78 79 70
-1.863342e+000 -1.710481e+000 -5.745822e+000 137 139 128
-1.833803e+000 -1.788590e+000 -5.840068e+000 139 143 127
-9.940402e-001 -1.391393e+000 -6.139843e+000 61 57 53
-2.540214e-001 -1.424550e+000 -6.476294e+000 148 136 89
-2.874265e-001 -1.508281e+000 -6.594155e+000 101 90 58
3.636296e-001 -1.400387e+000 -6.837296e+000 147 139 93
7.776745e-001 -1.163452e+000 -6.898622e+000 87 82 50
2.403921e+000 -9.805909e-001 -7.589787e+000 99 111 81
2.706047e+000 -9.408065e-001 -7.660468e+000 105 117 95
3.161292e+000 -9.210884e-001 -7.917135e+000 97 109 85
-2.791143e+000 -1.998808e+000 -5.571203e+000 82 85 76
-2.791143e+000 -1.998808e+000 -5.571203e+000 82 85 76
-2.095758e+000 -1.981491e+000 -5.830106e+000 142 138 127
-2.032601e+000 -1.990910e+000 -5.937531e+000 80 82 70
-1.883825e+000 -1.851649e+000 -5.904295e+000 75 79 65
-1.580639e+000 -1.861720e+000 -6.047783e+000 131 127 90
-1.580639e+000 -1.861720e+000 -6.047783e+000 131 127 90
-4.937331e-001 -1.747018e+000 -6.636257e+000 141 133 85
-7.063028e-002 -1.567834e+000 -6.755861e+000 150 141 84
1.066095e+000 -1.461546e+000 -7.273110e+000 109 97 52
1.620528e+000 -1.380003e+000 -7.525277e+000 130 123 84
1.749908e+000 -1.434719e+000 -7.641905e+000 117 115 74
-2.958566e+000 -2.099791e+000 -5.603115e+000 128 127 100
-2.958566e+000 -2.099791e+000 -5.603115e+000 128 127 100
-2.794781e+000 -2.120535e+000 -5.710224e+000 89 90 79
-2.684385e+000 -2.032868e+000 -5.833700e+000 141 133 120
-1.659443e+000 -2.054221e+000 -6.164666e+000 97 97 65
-1.512635e+000 -2.071033e+000 -6.288005e+000 96 96 65
-7.954644e-001 -1.807022e+000 -6.656455e+000 147 135 92
-6.678086e-001 -1.873680e+000 -6.642370e+000 87 78 46
-6.552420e-001 -1.957843e+000 -6.755462e+000 145 135 101
-2.145277e-001 -1.710075e+000 -6.855544e+000 84 76 40
-3.766773e-001 -1.815992e+000 -6.841515e+000 92 80 53
-1.047515e-001 -1.759958e+000 -6.947483e+000 90 75 46
-5.393747e-002 -1.745990e+000 -6.952865e+000 154 142 103
-5.393747e-002 -1.745990e+000 -6.952865e+000 154 142 103
2.008070e-002 -1.823917e+000 -7.031152e+000 95 83 58
2.008070e-002 -1.823917e+000 -7.031152e+000 95 83 58
2.537923e-001 -1.757992e+000 -7.106104e+000 146 137 92
2.396022e-001 -1.805379e+000 -7.109941e+000 160 151 109
3.890331e-001 -1.720935e+000 -7.172219e+000 150 137 95
3.890331e-001 -1.720935e+000 -7.172219e+000 150 137 95
1.951754e+000 -1.525335e+000 -7.814940e+000 121 124 79
1.951754e+000 -1.525335e+000 -7.814940e+000 121 124 79
3.185654e+000 -1.312632e+000 -8.300462e+000 92 102 76
3.185654e+000 -1.312632e+000 -8.300462e+000 92 102 76
-2.424724e+000 -2.359361e+000 -6.099046e+000 81 83 70
-2.424724e+000 -2.359361e+000 -6.099046e+000 81 83 70
-2.023513e+000 -2.303513e+000 -6.152945e+000 137 139 126
-1.977589e+000 -2.236108e+000 -6.188286e+000 75 79 65
-7.413198e-001 -2.001759e+000 -6.797127e+000 151 139 104
-7.562715e-001 -2.045155e+000 -6.846241e+000 146 137 97
-5.754406e-001 -2.010279e+000 -6.891877e+000 146 136 100
-7.843330e-001 -2.163283e+000 -6.868930e+000 153 144 108
-7.078279e-001 -2.111463e+000 -6.896180e+000 150 139 110
-5.066976e-001 -2.009878e+000 -6.891205e+000 149 137 100
-4.596862e-001 -2.000084e+000 -6.938604e+000 159 145 109
-4.772375e-001 -2.054554e+000 -6.989025e+000 156 143 108
-5.320214e-001 -2.074438e+000 -7.032956e+000 149 135 107
-1.945610e-001 -1.940616e+000 -7.032812e+000 91 78 54
-3.179171e-001 -2.025610e+000 -7.085698e+000 79 65 36
-1.768567e-002 -1.902070e+000 -7.088080e+000 80 72 43
2.061001e-001 -1.918590e+000 -7.186926e+000 148 139 108
7.198512e-002 -2.017449e+000 -7.269306e+000 86 75 42
4.900506e-001 -1.992124e+000 -7.493006e+000 145 141 93
1.590099e+000 -1.744012e+000 -7.819871e+000 132 130 78
2.616863e+000 -1.738119e+000 -8.391641e+000 94 103 69
-1.065894e+000 -2.249512e+000 -6.923121e+000 142 133 104
-1.091853e+000 -2.348761e+000 -6.927430e+000 143 134 103
-9.656960e-001 -2.253471e+000 -6.958952e+000 145 134 106
-8.183132e-001 -2.268228e+000 -6.946461e+000 150 137 107
-5.719749e-001 -2.217230e+000 -7.069640e+000 149 138 109
-3.600466e-001 -2.110910e+000 -7.139339e+000 151 142 101
-2.463613e-001 -2.210051e+000 -7.257484e+000 82 71 43
-4.618432e-002 -2.143094e+000 -7.293048e+000 147 135 95
5.623908e-001 -2.130026e+000 -7.618043e+000 155 145 97
5.623908e-001 -2.130026e+000 -7.618043e+000 155 145 97
1.233676e+000 -2.019443e+000 -7.978238e+000 145 132 89
2.604790e+000 -1.778076e+000 -8.460981e+000 102 111 82
2.382535e+000 -2.009042e+000 -8.535844e+000 104 110 76
2.574693e+000 -1.905434e+000 -8.582104e+000 101 110 79
3.389500e+000 -1.733866e+000 -8.861757e+000 79 88 61
3.390232e+000 -1.734212e+000 -8.861802e+000 79 88 61
-5.224442e-001 -2.393753e+000 -7.333791e+000 152 138 109
2.956269e-001 -2.267620e+000 -7.601707e+000 81 72 37
6.316156e-001 -2.313786e+000 -7.913371e+000 156 140 78
1.180884e+000 -2.185961e+000 -8.041549e+000 141 131 80
1.819949e+000 -2.131141e+000 -8.368610e+000 72 68 33
2.652979e+000 -2.068173e+000 -8.806325e+000 93 103 66
2.652979e+000 -2.068173e+000 -8.806325e+000 93 103 66
-1.455505e+000 -2.739878e+000 -7.056939e+000 154 141 113
-9.631623e-001 -2.676150e+000 -7.362607e+000 148 141 113
-2.520558e-001 -2.577442e+000 -7.622158e+000 87 79 43
-4.777743e-002 -2.466412e+000 -7.619643e+000 146 134 93
3.370430e-001 -2.454357e+000 -7.899063e+000 144 137 94
7.911686e-001 -2.431832e+000 -8.140835e+000 141 130 74
1.157605e+000 -2.371272e+000 -8.209943e+000 82 75 45
2.537210e+000 -2.422556e+000 -8.986983e+000 89 95 67
3.209500e+000 -2.139463e+000 -9.196647e+000 89 97 74
-1.021551e+000 -2.872345e+000 -7.454427e+000 154 140 111
-9.266531e-001 -2.779910e+000 -7.501344e+000 145 135 101
-9.414359e-001 -2.824771e+000 -7.550016e+000 157 143 114
-7.681394e-001 -2.794398e+000 -7.636026e+000 152 140 94
-2.083525e-001 -2.637858e+000 -7.827454e+000 146 136 87
-5.306980e-002 -2.720236e+000 -7.796431e+000 147 138 98
-7.948110e-002 -2.787502e+000 -7.926598e+000 137 128 74
6.311653e-001 -2.686887e+000 -8.167186e+000 149 140 82
1.330703e+000 -2.532041e+000 -8.461025e+000 135 130 74
1.443433e+000 -2.668740e+000 -8.707354e+000 132 126 71
1.755206e+000 -2.554879e+000 -8.755640e+000 111 110 66
2.003816e+000 -2.528447e+000 -8.816218e+000 61 59 38
2.466807e+000 -2.426909e+000 -9.039528e+000 93 98 68
2.317784e+000 -2.617959e+000 -9.102930e+000 92 96 67
-2.121084e+000 -3.072464e+000 -7.109387e+000 143 129 100
-1.792744e+000 -2.957987e+000 -7.192268e+000 89 79 53
-1.101781e+000 -2.914811e+000 -7.486795e+000 82 75 49
-1.059063e+000 -2.991160e+000 -7.540628e+000 156 143 108
-1.059063e+000 -2.991160e+000 -7.540628e+000 156 143 108
-1.072114e+000 -3.009573e+000 -7.629099e+000 148 136 98
-9.569620e-001 -2.868426e+000 -7.579939e+000 148 138 101
-7.317118e-001 -3.016198e+000 -7.850610e+000 146 139 95
-5.065790e-001 -2.943671e+000 -7.884014e+000 67 57 29
-3.075246e-001 -2.917052e+000 -8.005169e+000 141 131 78
-1.001521e-001 -2.832349e+000 -8.138570e+000 139 130 82
2.315611e-003 -2.891236e+000 -8.118115e+000 135 124 79
1.453256e+000 -2.782839e+000 -8.822667e+000 78 73 45
2.896642e+000 -2.646903e+000 -9.516017e+000 81 87 61
-2.414188e+000 -3.210175e+000 -7.114696e+000 88 77 49
-1.108203e+000 -3.182236e+000 -7.785543e+000 83 73 46
3.718166e-001 -3.089459e+000 -8.510051e+000 140 132 83
4.880640e-001 -3.090497e+000 -8.587590e+000 142 133 82
7.468393e-001 -2.916075e+000 -8.595970e+000 142 134 86
1.054343e+000 -3.058320e+000 -8.906563e+000 129 118 70
2.100067e+000 -2.868459e+000 -9.207445e+000 103 108 67
-2.785358e+000 -3.437409e+000 -7.135694e+000 79 74 51
-2.800180e+000 -3.499992e+000 -7.175836e+000 82 73 47
-2.687784e+000 -3.462289e+000 -7.227809e+000 127 119 83
-2.249964e+000 -3.355728e+000 -7.287870e+000 132 122 87
-2.076108e+000 -3.383682e+000 -7.443529e+000 139 127 91
-1.968441e+000 -3.365638e+000 -7.431324e+000 95 85 58
-1.767461e+000 -3.437611e+000 -7.676997e+000 105 91 63
-1.642446e+000 -3.298081e+000 -7.785368e+000 54 40 31
-8.060568e-001 -3.247616e+000 -8.053597e+000 142 131 94
-7.312551e-001 -3.252512e+000 -8.101389e+000 85 75 46
-2.317796e-001 -3.221223e+000 -8.397326e+000 138 128 84
1.536276e+000 -3.192475e+000 -9.291589e+000 125 122 73
-3.172148e+000 -3.584240e+000 -7.111808e+000 81 74 45
-2.693908e+000 -3.625636e+000 -7.356301e+000 80 71 36
-1.945896e+000 -3.605256e+000 -7.786104e+000 135 128 96
-1.189928e+000 -3.515155e+000 -8.200599e+000 138 128 95
-8.175610e-001 -3.363894e+000 -8.219154e+000 64 55 24
-9.772289e-001 -3.508138e+000 -8.257593e+000 81 76 40
-6.253894e-001 -3.451088e+000 -8.320413e+000 132 125 81
-5.385362e-001 -3.432947e+000 -8.418030e+000 75 67 30
-3.332512e-001 -3.511937e+000 -8.611591e+000 132 123 80
8.480405e-001 -3.330627e+000 -9.076127e+000 135 128 81
1.346782e+000 -3.333932e+000 -9.442762e+000 129 120 80
-3.344208e+000 -3.771551e+000 -7.147465e+000 126 119 75
-3.070930e+000 -3.705377e+000 -7.209235e+000 67 61 37
-2.991119e+000 -3.718357e+000 -7.328807e+000 120 115 77
-2.991119e+000 -3.718357e+000 -7.328807e+000 120 115 77
-2.948502e+000 -3.801209e+000 -7.415798e+000 120 113 84
-2.569863e+000 -3.666401e+000 -7.479422e+000 74 68 36
-2.407289e+000 -3.713272e+000 -7.620235e+000 125 119 82
-2.331284e+000 -3.698754e+000 -7.718306e+000 125 119 83
-2.362522e+000 -3.782142e+000 -7.721755e+000 124 120 85
-1.439772e+000 -3.763163e+000 -8.173242e+000 135 123 86
-1.061791e+000 -3.628051e+000 -8.370332e+000 143 131 92
-1.061791e+000 -3.628051e+000 -8.370332e+000 143 131 92
1.224535e+000 -3.534819e+000 -9.532632e+000 69 60 28
3.283500e+000 -3.301642e+000 -1.065561e+001 88 75 66
-3.643629e+000 -3.954811e+000 -7.271468e+000 85 81 52
-2.982587e+000 -3.904957e+000 -7.588330e+000 117 111 69
-2.750146e+000 -3.824271e+000 -7.534111e+000 120 115 73
-2.171743e+000 -3.839948e+000 -7.956996e+000 127 123 85
-1.880807e+000 -3.712994e+000 -8.057407e+000 88 84 48
-2.130622e+000 -3.953865e+000 -8.021138e+000 123 118 78
-8.213838e-001 -3.677144e+000 -8.593073e+000 136 124 81
-5.076938e-001 -3.704280e+000 -8.763059e+000 88 79 45
-1.621121e-001 -3.699231e+000 -8.897784e+000 129 127 70
1.385151e+000 -3.757047e+000 -9.909022e+000 59 62 29
-3.332491e+000 -4.017509e+000 -7.450510e+000 77 74 43
-3.328473e+000 -4.081371e+000 -7.485967e+000 73 71 46
-3.190641e+000 -4.109877e+000 -7.608002e+000 73 69 41
-2.991070e+000 -4.027084e+000 -7.622553e+000 65 59 39
-2.870615e+000 -4.025849e+000 -7.663540e+000 124 121 80
-2.901204e+000 -4.032363e+000 -7.773260e+000 70 66 38
-2.726866e+000 -3.978251e+000 -7.762196e+000 117 115 76
-2.739058e+000 -4.038613e+000 -7.759464e+000 66 61 42
-2.443720e+000 -4.000247e+000 -7.874817e+000 80 74 42
-2.159884e+000 -4.012199e+000 -8.059079e+000 117 113 78
-2.011175e+000 -3.977755e+000 -8.201858e+000 76 73 45
-9.089571e-001 -3.888877e+000 -8.713112e+000 136 124 77
-1.938348e-001 -3.873621e+000 -9.169468e+000 80 66 40
1.213900e+000 -5.940396e-001 -6.626275e+000 111 115 77
-7.313366e-001 -1.173275e+000 -6.020554e+000 142 134 81
1.061753e+000 -7.537449e-001 -6.642739e+000 122 127 86
1.454380e+000 -7.352648e-001 -6.825830e+000 121 126 85
3.949829e+000 -4.149039e-001 -7.905840e+000 103 112 92
-2.242053e+000 -1.510294e+000 -5.452832e+000 82 84 71
-2.248842e+000 -1.538605e+000 -5.438059e+000 82 84 71
-1.830574e+000 -1.578481e+000 -5.729171e+000 79 80 72
2.606139e+000 -7.759122e-001 -7.487018e+000 100 113 85
2.474940e+000 -7.973756e-001 -7.615165e+000 100 111 78
2.474940e+000 -7.973756e-001 -7.615165e+000 100 111 78
2.859056e+000 -8.887643e-001 -7.650540e+000 97 110 80
2.891808e+000 -8.198615e-001 -7.700502e+000 97 110 80
-2.607922e+000 -1.877644e+000 -5.461876e+000 81 83 72
-2.140735e+000 -1.791622e+000 -5.707800e+000 100 93 83
4.169825e-002 -1.438551e+000 -6.658519e+000 137 130 84
9.207812e-001 -1.364812e+000 -7.001476e+000 148 139 84
1.776192e+000 -1.134350e+000 -7.359765e+000 116 120 79
2.033549e+000 -1.228573e+000 -7.519931e+000 117 122 87
2.226170e+000 -1.080904e+000 -7.534319e+000 108 117 80
2.680672e+000 -1.037094e+000 -7.719117e+000 98 108 83
3.488394e+000 -8.018611e-001 -8.014340e+000 95 107 83
3.511011e+000 -7.977727e-001 -8.107842e+000 100 113 88
3.580507e+000 -7.768149e-001 -8.067040e+000 66 78 54
3.486045e+000 -1.014785e+000 -8.145760e+000 68 77 56
-2.840022e+000 -1.969841e+000 -5.579304e+000 77 82 75
-2.851697e+000 -2.022590e+000 -5.650625e+000 74 77 68
-2.738390e+000 -2.070380e+000 -5.648388e+000 77 79 68
-2.025551e+000 -1.838837e+000 -5.838605e+000 153 144 137
-2.150543e+000 -1.998025e+000 -5.899871e+000 130 130 120
-2.109459e+000 -2.088568e+000 -5.858986e+000 81 83 72
-1.995141e+000 -1.979635e+000 -5.994179e+000 142 144 130
-1.892546e+000 -1.989923e+000 -5.979374e+000 82 85 74
-4.889464e-001 -1.613631e+000 -6.655728e+000 91 85 59
-2.296841e-001 -1.484315e+000 -6.637454e+000 159 147 100
-1.222420e-001 -1.574457e+000 -6.738226e+000 155 143 95
-2.339661e-001 -1.698221e+000 -6.781597e+000 83 75 55
8.367566e-001 -1.481555e+000 -7.131503e+000 124 114 79
1.889894e+000 -1.241243e+000 -7.542406e+000 124 126 87
1.850293e+000 -1.388551e+000 -7.607233e+000 120 123 80
2.648520e+000 -1.368977e+000 -7.996777e+000 62 72 48
3.312168e+000 -1.101490e+000 -8.124789e+000 60 70 53
3.197413e+000 -1.269133e+000 -8.252534e+000 89 103 77
-2.816573e+000 -2.089903e+000 -5.680784e+000 132 134 123
-2.278730e+000 -2.146739e+000 -5.993781e+000 143 138 129
-2.278730e+000 -2.146739e+000 -5.993781e+000 143 138 129
-1.902126e+000 -2.151495e+000 -6.184996e+000 90 91 78
-1.827078e+000 -2.043772e+000 -6.067734e+000 79 82 70
1.615506e+000 -1.670439e+000 -7.761706e+000 131 130 82
1.790269e+000 -1.553126e+000 -7.680344e+000 128 126 87
1.790269e+000 -1.553126e+000 -7.680344e+000 128 126 87
1.796764e+000 -1.556525e+000 -7.785355e+000 128 127 76
1.923130e+000 -1.612177e+000 -7.873787e+000 119 120 78
2.708974e+000 -1.419802e+000 -8.082879e+000 91 101 74
2.884066e+000 -1.378718e+000 -8.260831e+000 93 104 74
2.671203e+000 -1.547544e+000 -8.225818e+000 93 104 75
2.671203e+000 -1.547544e+000 -8.225818e+000 93 104 75
3.132723e+000 -1.481076e+000 -8.456455e+000 92 100 76
3.274558e+000 -1.478272e+000 -8.477056e+000 85 95 68
-2.773707e+000 -2.298708e+000 -5.876996e+000 77 79 68
-2.705087e+000 -2.285387e+000 -5.918198e+000 137 141 127
-2.585020e+000 -2.249792e+000 -5.984652e+000 69 75 65
-2.666450e+000 -2.339169e+000 -6.017365e+000 82 82 69
-2.618659e+000 -2.320560e+000 -6.016711e+000 131 133 120
-2.036638e+000 -2.291005e+000 -6.227876e+000 74 75 66
-1.207114e+000 -2.168377e+000 -6.733685e+000 68 53 48
-2.735870e-001 -2.038565e+000 -7.114098e+000 152 140 101
1.097798e+000 -1.823922e+000 -7.563317e+000 154 136 69
1.567520e+000 -1.820154e+000 -7.867964e+000 146 136 85
1.716160e+000 -1.827941e+000 -7.990192e+000 132 127 83
1.927137e+000 -1.615241e+000 -7.965154e+000 122 121 79
1.868445e+000 -1.789810e+000 -7.992588e+000 131 124 82
2.344850e+000 -1.662824e+000 -8.117263e+000 109 117 78
2.870236e+000 -1.600178e+000 -8.340183e+000 62 72 47
2.996437e+000 -1.492447e+000 -8.436889e+000 89 105 71
2.996437e+000 -1.492447e+000 -8.436889e+000 89 105 71
2.971676e+000 -1.563765e+000 -8.476010e+000 91 104 74
3.040397e+000 -1.718984e+000 -8.542755e+000 87 97 68
-3.592326e+000 -1.627220e+000 -6.145667e+000 112 115 98
-2.454189e+000 -2.497369e+000 -6.204597e+000 130 129 111
-2.253334e+000 -2.455429e+000 -6.288204e+000 79 80 73
-2.253334e+000 -2.455429e+000 -6.288204e+000 79 80 73
-9.244437e-001 -2.197810e+000 -6.910168e+000 152 141 112
-8.374491e-001 -2.272176e+000 -7.007841e+000 161 146 115
-8.457670e-001 -2.329182e+000 -6.972857e+000 161 146 115
-6.888222e-001 -2.220232e+000 -7.087452e+000 80 71 54
-7.102045e-002 -2.220110e+000 -7.375825e+000 149 139 101
1.949444e+000 -1.990731e+000 -8.249514e+000 126 123 78
1.949444e+000 -1.990731e+000 -8.249514e+000 126 123 78
2.114737e+000 -1.942170e+000 -8.326625e+000 116 118 78
2.257111e+000 -1.964413e+000 -8.444340e+000 113 114 72
2.328546e+000 -1.958879e+000 -8.509190e+000 64 68 45
2.843538e+000 -1.800634e+000 -8.528509e+000 91 100 69
2.696739e+000 -1.953018e+000 -8.674885e+000 92 101 74
3.140748e+000 -1.865429e+000 -8.763453e+000 79 89 60
2.992368e+000 -1.917931e+000 -8.790293e+000 85 94 69
2.992368e+000 -1.917931e+000 -8.790293e+000 85 94 69
-1.046251e+000 -2.396822e+000 -7.040570e+000 105 98 69
-1.149415e+000 -2.537153e+000 -7.062425e+000 146 134 105
-6.372168e-001 -2.447512e+000 -7.315630e+000 153 139 104
-2.428410e-001 -2.349694e+000 -7.395662e+000 151 139 96
-2.428410e-001 -2.349694e+000 -7.395662e+000 151 139 96
-1.346632e-001 -2.396538e+000 -7.562549e+000 149 136 93
1.801431e-001 -2.379113e+000 -7.659231e+000 140 132 89
1.758043e+000 -2.148329e+000 -8.359054e+000 125 123 75
2.215396e+000 -2.070243e+000 -8.456318e+000 115 115 71
2.054092e+000 -2.143677e+000 -8.493694e+000 112 112 73
1.883144e+000 -2.195171e+000 -8.405560e+000 126 125 80
2.162290e+000 -2.216779e+000 -8.488771e+000 109 110 69
2.431396e+000 -2.074003e+000 -8.564479e+000 57 65 41
2.493084e+000 -2.088416e+000 -8.586100e+000 105 111 79
2.363231e+000 -2.070718e+000 -8.587456e+000 101 107 73
3.130978e+000 -2.093871e+000 -9.058825e+000 58 66 43
-7.589355e-001 -2.576905e+000 -7.314700e+000 153 140 107
-3.478137e-001 -2.484210e+000 -7.521229e+000 149 137 87
1.306843e-001 -2.540046e+000 -7.803291e+000 147 139 85
1.386136e+000 -2.376194e+000 -8.293451e+000 135 130 75
1.393889e+000 -2.355262e+000 -8.312231e+000 135 130 75
1.830464e+000 -2.349876e+000 -8.524171e+000 118 116 74
2.463591e+000 -2.214390e+000 -8.815381e+000 98 102 75
2.316422e+000 -2.418354e+000 -8.847467e+000 53 56 36
3.019846e+000 -2.240548e+000 -9.111504e+000 80 89 62
-5.125771e-001 -2.774357e+000 -7.633954e+000 146 135 89
-2.375392e-001 -2.724510e+000 -7.818216e+000 142 132 83
8.390399e-001 -2.633548e+000 -8.358266e+000 137 129 83
1.055023e+000 -2.687142e+000 -8.453570e+000 81 71 39
1.461341e+000 -2.584902e+000 -8.604729e+000 133 127 75
1.434083e+000 -2.661645e+000 -8.593691e+000 132 129 65
1.609826e+000 -2.585614e+000 -8.694970e+000 127 121 70
1.912418e+000 -2.538735e+000 -8.725857e+000 109 108 64
1.966171e+000 -2.433820e+000 -8.814490e+000 109 108 64
2.488985e+000 -2.542311e+000 -9.065440e+000 87 97 64
2.688272e+000 -2.420206e+000 -9.169580e+000 92 98 70
2.905629e+000 -2.580154e+000 -9.365621e+000 82 90 66
-1.304209e+000 -3.009289e+000 -7.413756e+000 143 134 99
-7.814696e-001 -2.868667e+000 -7.695717e+000 152 137 93
2.487852e-001 -2.878511e+000 -8.228770e+000 66 66 35
1.492182e+000 -2.908033e+000 -8.878550e+000 133 126 77
1.492182e+000 -2.908033e+000 -8.878550e+000 133 126 77
1.946670e+000 -2.667335e+000 -9.009556e+000 78 74 46
2.339661e+000 -2.605193e+000 -9.194455e+000 95 100 69
2.341558e+000 -2.602982e+000 -9.196936e+000 95 100 69
2.459632e+000 -2.660776e+000 -9.262773e+000 92 99 68
2.434536e+000 -2.704768e+000 -9.217698e+000 92 99 68
2.649699e+000 -2.563346e+000 -9.392061e+000 81 90 58
2.416395e+000 -2.780029e+000 -9.355274e+000 94 100 63
3.119271e+000 -2.600375e+000 -9.608796e+000 49 56 34
-1.475877e+000 -3.119347e+000 -7.514037e+000 50 47 38
-7.822284e-001 -3.191787e+000 -8.000595e+000 144 132 85
-4.731809e-001 -3.021749e+000 -8.039447e+000 142 132 83
-3.515490e-001 -3.053273e+000 -8.095837e+000 143 137 77
-3.499678e-001 -3.044800e+000 -8.103903e+000 143 137 77
-3.617538e-001 -3.093274e+000 -8.137260e+000 143 135 88
4.804718e-002 -2.970198e+000 -8.261346e+000 70 62 45
8.012982e-001 -2.942344e+000 -8.588234e+000 73 64 33
1.169765e+000 -2.995341e+000 -8.756006e+000 143 132 78
1.169765e+000 -2.995341e+000 -8.756006e+000 143 132 78
1.539600e+000 -2.812998e+000 -9.020631e+000 129 125 77
1.850060e+000 -2.784000e+000 -9.275754e+000 120 117 69
2.218917e+000 -2.936432e+000 -9.422073e+000 102 104 69
2.214228e+000 -2.948759e+000 -9.410502e+000 102 104 69
2.545512e+000 -2.819726e+000 -9.475735e+000 93 101 70
2.900374e+000 -2.848087e+000 -9.707865e+000 51 56 36
2.691153e+000 -2.892358e+000 -9.708866e+000 91 97 69
3.019890e+000 -2.802651e+000 -9.961503e+000 90 94 69
3.037100e+000 -2.878533e+000 -9.873634e+000 49 52 33
-2.724013e+000 -3.355085e+000 -7.135291e+000 127 117 81
-2.287513e+000 -3.347407e+000 -7.376142e+000 140 131 92
-1.926076e+000 -3.337553e+000 -7.520081e+000 87 77 49
-1.906038e+000 -3.383807e+000 -7.605122e+000 91 82 53
-1.853028e+000 -3.423478e+000 -7.604046e+000 139 129 94
-1.570856e+000 -3.338749e+000 -7.748266e+000 55 43 38
-1.420384e+000 -3.314666e+000 -7.771444e+000 144 136 94
-8.448289e-001 -3.364234e+000 -8.155603e+000 145 131 86
-3.918951e-001 -3.162131e+000 -8.250866e+000 139 129 78
-4.386998e-001 -3.290149e+000 -8.333229e+000 137 128 84
-2.105779e-001 -3.162239e+000 -8.376825e+000 131 125 73
2.067034e-001 -3.170136e+000 -8.593353e+000 138 132 79
6.121824e-001 -3.286490e+000 -8.870832e+000 149 142 87
1.249241e+000 -3.200010e+000 -9.152981e+000 133 123 67
1.771670e+000 -2.982493e+000 -9.305848e+000 118 116 67
1.753589e+000 -3.021353e+000 -9.269483e+000 118 116 67
1.993479e+000 -3.152167e+000 -9.456185e+000 110 110 72
2.129491e+000 -3.189246e+000 -9.625418e+000 101 102 70
2.589932e+000 -3.063884e+000 -9.669945e+000 84 90 62
2.943322e+000 -2.961862e+000 -9.955547e+000 85 89 64
2.839803e+000 -3.088244e+000 -1.002929e+001 52 55 36
-3.322535e+000 -3.563132e+000 -7.074397e+000 81 71 44
-3.296262e+000 -3.688259e+000 -7.089320e+000 78 72 40
-1.598967e+000 -3.417777e+000 -7.829752e+000 56 46 35
-1.452236e+000 -3.417053e+000 -7.873927e+000 143 132 86
-7.733717e-001 -3.529981e+000 -8.316242e+000 139 127 75
-4.679352e-001 -3.384730e+000 -8.354229e+000 144 136 88
-4.679352e-001 -3.384730e+000 -8.354229e+000 144 136 88
-5.068266e-001 -3.495080e+000 -8.493754e+000 134 127 79
-9.706466e-002 -3.396059e+000 -8.606915e+000 79 68 40
1.206865e+000 -3.301914e+000 -9.180547e+000 137 127 67
1.008708e+000 -3.454678e+000 -9.246606e+000 145 129 77
1.749674e+000 -3.399520e+000 -9.557390e+000 116 112 77
2.061737e+000 -3.358487e+000 -9.745557e+000 100 101 69
2.085363e+000 -3.314773e+000 -9.796735e+000 100 101 69
2.552195e+000 -3.421516e+000 -1.002159e+001 62 66 46
-3.377637e+000 -3.782231e+000 -7.174011e+000 83 73 52
-2.782637e+000 -3.697213e+000 -7.433186e+000 90 80 48
-2.643045e+000 -3.719083e+000 -7.568287e+000 130 120 84
-2.030227e+000 -3.649083e+000 -7.847003e+000 67 62 38
-9.712062e-001 -3.685844e+000 -8.440819e+000 135 127 81
1.960595e-001 -3.578125e+000 -8.968201e+000 142 134 83
1.599027e+000 -3.450767e+000 -9.640774e+000 122 114 76
2.233166e+000 -3.351011e+000 -1.003225e+001 98 98 68
2.152930e+000 -3.521375e+000 -1.001058e+001 96 96 70
2.342604e+000 -3.468144e+000 -1.021357e+001 94 98 65
2.476599e+000 -3.501144e+000 -1.026986e+001 89 92 65
2.476599e+000 -3.501144e+000 -1.026986e+001 89 92 65
-3.576508e+000 -3.853842e+000 -7.229083e+000 112 110 72
-3.380883e+000 -3.887067e+000 -7.317316e+000 79 76 41
-3.475916e+000 -3.885314e+000 -7.331536e+000 124 122 83
-3.013473e+000 -3.974460e+000 -7.574796e+000 66 63 41
-2.678289e+000 -3.852824e+000 -7.640593e+000 80 74 48
-2.519759e+000 -3.939997e+000 -7.737927e+000 73 69 45
-2.144953e+000 -3.826665e+000 -7.903324e+000 125 120 78
-1.471656e+000 -3.782940e+000 -8.260013e+000 131 121 83
-8.734789e-001 -3.785508e+000 -8.608387e+000 138 132 81
1.255020e-001 -3.767201e+000 -9.184963e+000 134 124 72
6.968274e-001 -3.712381e+000 -9.517541e+000 79 72 43
1.026979e+000 -3.783641e+000 -9.671392e+000 124 116 72
1.311397e+000 -3.625193e+000 -9.846932e+000 71 65 40
