ply
format ascii 1.0
element face 0
property list uchar int vertex_indices
element vertex 874
property float x
property float y
property float z
property uchar diffuse_red
property uchar diffuse_green
property uchar diffuse_blue
end_header
2.010564e+000 -2.729360e+000 -9.692943e+000 67 69 45
-3.158502e+000 -3.319402e+000 -7.570598e+000 127 118 73
-2.566245e+000 -3.165381e+000 -7.688809e+000 132 126 91
-1.656005e+000 -3.166385e+000 -8.191317e+000 89 74 56
-1.162857e+000 -3.057223e+000 -8.367760e+000 87 75 50
-1.004688e+000 -3.052839e+000 -8.445264e+000 86 75 45
-1.191559e+000 -3.149531e+000 -8.431719e+000 98 87 60
-9.289248e-001 -3.124069e+000 -8.602074e+000 99 89 54
-8.196480e-002 -2.985148e+000 -8.826743e+000 77 70 43
-7.543950e-002 -2.968374e+000 -8.841700e+000 77 70 43
8.507270e-001 -2.997447e+000 -9.356742e+000 89 82 54
1.304247e+000 -2.859005e+000 -9.404891e+000 78 72 46
1.970024e+000 -2.818150e+000 -9.767137e+000 65 67 45
1.875624e+000 -2.936609e+000 -9.874153e+000 95 99 72
2.495690e+000 -2.857974e+000 -1.016161e+001 54 57 36
-3.058053e+000 -3.405244e+000 -7.685258e+000 125 113 71
-2.346355e+000 -3.402347e+000 -8.117446e+000 90 87 56
-1.507975e+000 -3.256523e+000 -8.380314e+000 95 84 62
-9.399780e-001 -3.337993e+000 -8.764751e+000 137 127 76
-8.724824e-001 -3.333105e+000 -8.783016e+000 94 84 57
-6.185031e-001 -3.256544e+000 -8.832780e+000 90 83 55
3.993660e-001 -3.081478e+000 -9.248160e+000 93 84 54
3.549048e-001 -3.215829e+000 -9.280464e+000 88 77 49
7.855541e-001 -3.208810e+000 -9.574490e+000 76 69 41
1.095397e+000 -3.077910e+000 -9.588833e+000 84 80 54
1.495197e+000 -3.039511e+000 -9.689129e+000 71 71 48
1.543814e+000 -3.115359e+000 -9.864940e+000 105 102 69
1.904913e+000 -3.055782e+000 -1.014937e+001 63 62 40
-3.162628e+000 -3.520223e+000 -7.777015e+000 69 64 44
-3.161700e+000 -3.523302e+000 -7.773644e+000 69 64 44
-3.142583e+000 -3.652317e+000 -7.891450e+000 117 116 85
-1.133187e+000 -3.405899e+000 -8.693590e+000 102 91 63
-9.552269e-001 -3.407400e+000 -8.845657e+000 144 132 92
-7.583254e-001 -3.320774e+000 -8.901728e+000 90 84 50
-6.503042e-001 -3.335713e+000 -8.915558e+000 95 88 59
-8.065666e-001 -3.467154e+000 -8.986154e+000 100 93 67
-4.128999e-001 -3.435460e+000 -9.157505e+000 86 81 59
8.897685e-001 -3.256115e+000 -9.654884e+000 80 77 45
1.021132e+000 -3.261688e+000 -9.738955e+000 71 64 37
1.290442e+000 -3.268732e+000 -9.921530e+000 75 71 52
1.250120e+000 -3.369235e+000 -1.000060e+001 80 76 47
1.659278e+000 -3.340719e+000 -1.016609e+001 72 72 48
2.185962e+000 -3.356028e+000 -1.035795e+001 55 58 42
2.754204e+000 -3.252016e+000 -1.074331e+001 131 121 109
-4.447927e-001 -3.549288e+000 -9.311638e+000 89 83 58
-3.192181e-002 -3.491470e+000 -9.455284e+000 81 77 48
8.292971e-001 -3.463668e+000 -9.910260e+000 80 75 46
1.206406e+000 -3.477441e+000 -1.006664e+001 75 70 50
2.676835e+000 -3.395173e+000 -1.072254e+001 139 127 115
-6.996993e-001 -1.217960e+000 -6.737503e+000 142 132 81
-2.826184e+000 -1.722653e+000 -6.046013e+000 76 79 70
-2.873208e+000 -1.830270e+000 -6.098766e+000 77 80 73
-2.328782e+000 -1.715932e+000 -6.242648e+000 152 146 134
1.320104e+000 -1.199432e+000 -7.800842e+000 78 78 52
-2.908628e+000 -1.904179e+000 -6.186153e+000 72 76 62
-2.904703e+000 -1.920883e+000 -6.174057e+000 72 76 62
-2.017688e+000 -1.963035e+000 -6.628233e+000 137 135 126
-2.898153e+000 -2.079888e+000 -6.358742e+000 76 76 66
-2.729391e+000 -2.097141e+000 -6.424020e+000 102 104 90
-2.855930e+000 -2.162129e+000 -6.439448e+000 70 76 62
-2.855930e+000 -2.162129e+000 -6.439448e+000 70 76 62
-1.731806e+000 -2.867314e+000 -7.813600e+000 95 85 58
-1.732255e+000 -2.868964e+000 -7.812286e+000 95 85 58
-1.902345e+000 -2.960930e+000 -7.815379e+000 84 73 52
-3.188739e+000 -3.450111e+000 -7.601599e+000 123 117 72
-2.478370e+000 -3.438502e+000 -8.044802e+000 79 73 50
-2.478553e+000 -3.438156e+000 -8.047300e+000 79 73 50
-2.290935e+000 -3.320112e+000 -8.003893e+000 79 72 52
1.618124e+000 -3.085976e+000 -9.842438e+000 70 69 49
-8.063199e-001 -1.520941e+000 -6.972017e+000 147 137 85
-4.237362e-001 -1.386822e+000 -7.036155e+000 149 139 91
-2.569204e+000 -3.023769e+000 -7.504323e+000 138 125 85
-2.228916e+000 -2.982359e+000 -7.714320e+000 143 129 90
-2.230295e+000 -2.981270e+000 -7.715179e+000 143 129 90
-3.643193e+000 -3.348234e+000 -7.378606e+000 146 167 103
-1.919344e+000 -3.555508e+000 -8.454353e+000 132 125 81
2.568827e-002 -1.080516e+000 -6.902512e+000 140 132 75
-2.560875e+000 -2.282901e+000 -6.667130e+000 102 104 93
-2.501201e+000 -1.632160e+000 -6.090170e+000 85 83 69
2.551527e+000 -1.292018e+000 -8.539929e+000 89 97 66
-5.570863e-001 -1.680191e+000 -7.256301e+000 144 132 83
-1.247990e+000 -2.315025e+000 -7.546802e+000 145 130 97
-2.231518e-001 -2.248858e+000 -7.993351e+000 140 129 94
1.959624e+000 -2.064758e+000 -8.961386e+000 62 61 33
1.338701e+000 -2.319981e+000 -8.881372e+000 84 75 42
4.961895e-001 -2.649809e+000 -8.808438e+000 141 132 75
-1.843327e+000 -2.956247e+000 -7.863606e+000 143 128 89
-1.737106e+000 -2.932215e+000 -7.885112e+000 108 94 66
-2.720599e+000 -3.171737e+000 -7.641753e+000 131 118 84
-1.718333e+000 -3.163051e+000 -8.161262e+000 70 51 44
-8.298547e-001 -3.031300e+000 -8.482884e+000 153 138 97
-8.298116e-001 -3.032819e+000 -8.483695e+000 153 138 97
-2.018904e+000 -3.259773e+000 -8.073994e+000 87 76 47
-1.273960e+000 -3.366360e+000 -8.624065e+000 80 68 46
-1.273960e+000 -3.366360e+000 -8.624065e+000 80 68 46
-2.794043e+000 -3.606038e+000 -8.038979e+000 87 78 45
-1.857720e+000 -3.443495e+000 -8.382496e+000 134 122 84
-1.654896e+000 -3.514495e+000 -8.555278e+000 139 129 94
6.236426e-001 -3.458266e+000 -9.761158e+000 140 132 83
2.596146e+000 -3.558952e+000 -1.053318e+001 144 128 113
-3.106736e+000 -3.725693e+000 -7.994247e+000 122 116 82
-3.106035e+000 -3.727442e+000 -7.990940e+000 122 116 82
-2.886728e+000 -3.679457e+000 -8.070567e+000 129 119 83
-3.099323e+000 -3.807141e+000 -8.095408e+000 93 86 57
-3.041480e+000 -3.797695e+000 -8.099224e+000 118 109 75
-2.195094e+000 -3.662975e+000 -8.441605e+000 89 80 51
-2.392658e+000 -3.742250e+000 -8.439382e+000 121 111 81
-2.094444e+000 -3.712339e+000 -8.553226e+000 128 117 85
2.514052e+000 -1.421148e+000 -8.658595e+000 90 96 68
2.822821e+000 -1.479628e+000 -8.946000e+000 61 66 45
2.832172e+000 -1.613014e+000 -9.013796e+000 84 90 64
-1.165190e+000 -2.410106e+000 -7.680526e+000 152 133 100
1.889672e+000 -2.117602e+000 -9.016448e+000 91 91 55
-1.338534e+000 -2.471139e+000 -7.627403e+000 62 48 38
3.151926e-001 -2.534923e+000 -8.562397e+000 84 70 41
9.957780e-001 -2.394225e+000 -8.776965e+000 136 130 80
1.846984e+000 -2.442185e+000 -9.302114e+000 71 71 47
2.560084e+000 -2.247399e+000 -9.502775e+000 64 67 44
-1.349619e+000 -2.630268e+000 -7.813987e+000 144 130 95
-7.677979e-001 -2.849748e+000 -8.338699e+000 146 133 89
-5.698487e-001 -2.949805e+000 -8.540343e+000 144 132 82
-1.359289e+000 -3.183002e+000 -8.354016e+000 107 94 62
-7.791328e-001 -3.034366e+000 -8.514076e+000 117 102 70
1.029849e-001 -3.140282e+000 -9.095489e+000 84 73 43
-2.207684e+000 -3.261860e+000 -7.993530e+000 143 125 90
-2.226649e+000 -3.318116e+000 -8.034278e+000 137 122 86
-6.245004e-001 -3.283021e+000 -8.880130e+000 112 98 70
1.412594e+000 -3.288032e+000 -9.997615e+000 77 73 48
-2.603503e-001 -3.479441e+000 -9.295401e+000 89 74 50
-1.464884e-001 -3.480304e+000 -9.372238e+000 90 78 52
8.509484e-001 -3.377433e+000 -9.815759e+000 80 74 42
-3.429326e+000 -3.771069e+000 -7.844576e+000 119 114 77
-2.403030e+000 -3.639909e+000 -8.291752e+000 129 118 82
-2.729210e-002 -3.592947e+000 -9.545282e+000 149 133 88
-2.608557e+000 -2.101306e+000 -6.508763e+000 92 90 77
-4.958230e-001 -2.914406e+000 -8.553327e+000 100 89 57
-1.608807e+000 -3.539424e+000 -8.649275e+000 76 62 36
-1.497236e+000 -3.546489e+000 -8.701031e+000 93 78 56
1.041864e+000 -1.631919e+000 -8.010803e+000 142 127 65
-2.160154e+000 -3.319946e+000 -8.088343e+000 101 92 61
-2.160154e+000 -3.319946e+000 -8.088343e+000 101 92 61
-2.188524e-001 -3.158775e+000 -8.961772e+000 123 110 72
-2.000355e+000 -3.142410e+000 -7.973519e+000 109 99 64
-3.889917e-001 -8.411236e-001 -6.558172e+000 92 86 50
-2.586267e+000 -1.435453e+000 -5.883508e+000 132 133 99
1.503712e+000 -7.321337e-001 -7.466580e+000 117 124 92
2.273713e+000 -6.754587e-001 -7.898792e+000 65 77 54
2.330593e+000 -6.663447e-001 -7.871167e+000 104 117 91
2.330593e+000 -6.663447e-001 -7.871167e+000 104 117 91
3.490179e+000 -3.885892e-001 -8.337254e+000 199 207 198
-2.578780e+000 -1.656178e+000 -6.019785e+000 127 129 118
-2.354314e+000 -1.563373e+000 -6.015376e+000 138 140 129
-2.305577e+000 -1.564299e+000 -6.063495e+000 138 142 127
-2.174054e+000 -1.485938e+000 -6.080676e+000 93 93 86
-1.862227e+000 -1.444519e+000 -6.245292e+000 135 131 112
-4.846335e-001 -1.284160e+000 -6.911468e+000 142 133 89
1.180932e+000 -9.206241e-001 -7.463998e+000 86 86 60
1.769497e+000 -7.829392e-001 -7.746641e+000 104 113 86
3.010096e+000 -6.925955e-001 -8.320511e+000 94 106 82
-2.659486e+000 -1.725736e+000 -6.057553e+000 78 79 70
-1.914933e+000 -1.642702e+000 -6.328859e+000 137 139 128
-1.887902e+000 -1.713696e+000 -6.414832e+000 139 143 127
-1.121589e+000 -1.352190e+000 -6.685222e+000 61 57 53
-4.465933e-001 -1.382592e+000 -6.990178e+000 148 136 89
-4.768586e-001 -1.458561e+000 -7.097837e+000 101 90 58
1.170570e-001 -1.360538e+000 -7.317677e+000 147 139 93
4.947700e-001 -1.145027e+000 -7.372119e+000 87 82 50
1.978454e+000 -9.789144e-001 -7.997853e+000 99 111 81
2.253976e+000 -9.428823e-001 -8.061492e+000 105 117 95
2.669447e+000 -9.249082e-001 -8.294315e+000 97 109 85
-2.761020e+000 -1.904630e+000 -6.172471e+000 82 85 76
-2.761020e+000 -1.904630e+000 -6.172471e+000 82 85 76
-2.126837e+000 -1.889153e+000 -6.406758e+000 142 138 127
-2.069062e+000 -1.897575e+000 -6.504516e+000 80 82 70
-1.933411e+000 -1.770953e+000 -6.473598e+000 75 79 65
-1.656856e+000 -1.780187e+000 -6.603676e+000 131 127 90
-1.656856e+000 -1.780187e+000 -6.603676e+000 131 127 90
-6.650418e-001 -1.675743e+000 -7.137171e+000 141 133 85
-2.790281e-001 -1.512751e+000 -7.244810e+000 150 141 84
7.580601e-001 -1.416192e+000 -7.713329e+000 109 97 52
1.263949e+000 -1.342029e+000 -7.941682e+000 130 123 84
1.382040e+000 -1.391798e+000 -8.047775e+000 117 115 74
-2.913613e+000 -1.996359e+000 -6.202142e+000 128 127 100
-2.913613e+000 -1.996359e+000 -6.202142e+000 128 127 100
-2.764172e+000 -2.015229e+000 -6.299408e+000 89 90 79
-2.663201e+000 -1.935220e+000 -6.411476e+000 141 133 120
-1.728631e+000 -1.955226e+000 -6.710763e+000 97 97 65
-1.594610e+000 -1.970458e+000 -6.822848e+000 96 96 65
-9.399970e-001 -1.730006e+000 -7.156379e+000 147 135 92
-8.238004e-001 -1.790934e+000 -7.143396e+000 87 78 46
-8.121939e-001 -1.867378e+000 -7.246599e+000 145 135 101
-4.100907e-001 -1.641951e+000 -7.336272e+000 84 76 40
-5.580011e-001 -1.738286e+000 -7.324081e+000 92 80 53
-3.099183e-001 -1.687340e+000 -7.419903e+000 90 75 46
-2.635883e-001 -1.674664e+000 -7.424663e+000 154 142 103
-2.635883e-001 -1.674664e+000 -7.424663e+000 154 142 103
-1.960636e-001 -1.745589e+000 -7.495995e+000 95 83 58
-1.960636e-001 -1.745589e+000 -7.495995e+000 95 83 58
1.713744e-002 -1.685666e+000 -7.563612e+000 146 137 92
4.156554e-003 -1.728817e+000 -7.567240e+000 160 151 109
1.405705e-001 -1.651912e+000 -7.623480e+000 150 137 95
1.405705e-001 -1.651912e+000 -7.623480e+000 150 137 95
1.566251e+000 -1.474243e+000 -8.205184e+000 121 124 79
1.566251e+000 -1.474243e+000 -8.205184e+000 121 124 79
2.692032e+000 -1.280899e+000 -8.644383e+000 92 102 76
2.692032e+000 -1.280899e+000 -8.644383e+000 92 102 76
-2.426425e+000 -2.232438e+000 -6.653352e+000 81 83 70
-2.426425e+000 -2.232438e+000 -6.653352e+000 81 83 70
-2.060682e+000 -2.181940e+000 -6.701434e+000 137 139 126
-2.018676e+000 -2.120501e+000 -6.733391e+000 75 79 65
-8.905836e-001 -1.907193e+000 -7.284852e+000 151 139 104
-9.041489e-001 -1.946608e+000 -7.329730e+000 146 137 97
-7.392356e-001 -1.914956e+000 -7.370830e+000 146 136 100
-9.298164e-001 -2.054165e+000 -7.350711e+000 153 144 108
-8.599810e-001 -2.006986e+000 -7.375259e+000 150 139 110
-6.766049e-001 -1.914692e+000 -7.370053e+000 149 137 100
-6.336451e-001 -1.905710e+000 -7.413124e+000 159 145 109
-6.495904e-001 -1.955211e+000 -7.459220e+000 156 143 108
-6.994315e-001 -1.973164e+000 -7.499416e+000 149 135 107
-3.917827e-001 -1.851654e+000 -7.498237e+000 91 78 54
-5.041652e-001 -1.928826e+000 -7.546887e+000 79 65 36
-2.304442e-001 -1.816633e+000 -7.548116e+000 80 72 43
-2.633147e-002 -1.831752e+000 -7.637710e+000 148 139 108
-1.484673e-001 -1.921479e+000 -7.713290e+000 86 75 42
2.330101e-001 -1.898446e+000 -7.916124e+000 145 141 93
1.236438e+000 -1.673038e+000 -8.210955e+000 132 130 78
2.173390e+000 -1.667702e+000 -8.729648e+000 94 103 69
-1.186345e+000 -2.132278e+000 -7.400898e+000 142 133 104
-1.210110e+000 -2.222646e+000 -7.405107e+000 143 134 103
-1.094970e+000 -2.135908e+000 -7.433344e+000 145 134 106
-9.607317e-001 -2.149574e+000 -7.421656e+000 150 137 107
-7.359317e-001 -2.103142e+000 -7.533233e+000 149 138 109
-5.425369e-001 -2.006380e+000 -7.596039e+000 151 142 101
-4.388055e-001 -2.096601e+000 -7.703643e+000 82 71 43
-2.562448e-001 -2.035765e+000 -7.735455e+000 147 135 95
2.990373e-001 -2.023921e+000 -8.030182e+000 155 145 97
2.990373e-001 -2.023921e+000 -8.030182e+000 155 145 97
9.116810e-001 -1.923220e+000 -8.356649e+000 145 132 89
2.162496e+000 -1.703955e+000 -8.792938e+000 102 111 82
1.959847e+000 -1.913973e+000 -8.862143e+000 104 110 76
2.135190e+000 -1.819703e+000 -8.903649e+000 101 110 79
2.878573e+000 -1.663755e+000 -9.156309e+000 79 88 61
2.879229e+000 -1.664088e+000 -9.156335e+000 79 88 61
-6.904201e-001 -2.263478e+000 -7.774181e+000 152 138 109
5.575618e-002 -2.148991e+000 -8.016192e+000 81 72 37
3.625631e-001 -2.190806e+000 -8.299520e+000 156 140 78
8.635093e-001 -2.074749e+000 -8.414805e+000 141 131 80
1.446658e+000 -2.024891e+000 -8.711275e+000 72 68 33
2.206841e+000 -1.967610e+000 -9.108132e+000 93 103 66
2.206841e+000 -1.967610e+000 -9.108132e+000 93 103 66
-1.541643e+000 -2.578276e+000 -7.524760e+000 154 141 113
-1.092271e+000 -2.520165e+000 -7.802032e+000 148 141 113
-4.436206e-001 -2.430557e+000 -8.036719e+000 87 79 43
-2.573550e-001 -2.329655e+000 -8.033730e+000 146 134 93
9.394201e-002 -2.318552e+000 -8.287443e+000 144 137 94
5.083199e-001 -2.298080e+000 -8.506673e+000 141 130 74
8.424502e-001 -2.243210e+000 -8.568691e+000 82 75 45
2.101309e+000 -2.289998e+000 -9.273754e+000 89 95 67
2.714805e+000 -2.032407e+000 -9.462730e+000 89 97 74
-1.145509e+000 -2.698663e+000 -7.886238e+000 154 140 111
-1.058820e+000 -2.614460e+000 -7.928580e+000 145 135 101
-1.072234e+000 -2.655212e+000 -7.973056e+000 157 143 114
-9.140994e-001 -2.627570e+000 -8.050973e+000 152 140 94
-4.034058e-001 -2.485226e+000 -8.223809e+000 146 136 87
-2.620940e-001 -2.560549e+000 -8.195360e+000 147 138 98
-2.859451e-001 -2.621526e+000 -8.314169e+000 137 128 74
3.622609e-001 -2.530224e+000 -8.531579e+000 149 140 82
1.000553e+000 -2.389380e+000 -8.797427e+000 135 130 74
1.103669e+000 -2.513555e+000 -9.021918e+000 132 126 71
1.388021e+000 -2.410085e+000 -9.064984e+000 111 110 66
1.614733e+000 -2.386181e+000 -9.119570e+000 61 59 38
2.037272e+000 -2.293766e+000 -9.321802e+000 93 98 68
1.901386e+000 -2.467519e+000 -9.380321e+000 92 96 67
-2.148373e+000 -2.880365e+000 -7.574751e+000 143 129 100
-1.848881e+000 -2.776295e+000 -7.649286e+000 89 79 53
-1.218590e+000 -2.737190e+000 -7.915999e+000 82 75 49
-1.179640e+000 -2.806688e+000 -7.965118e+000 156 143 108
-1.179640e+000 -2.806688e+000 -7.965118e+000 156 143 108
-1.191353e+000 -2.823261e+000 -8.045799e+000 148 136 98
-1.086368e+000 -2.694905e+000 -8.000449e+000 148 138 101
-8.806968e-001 -2.829249e+000 -8.246883e+000 146 139 95
-6.753979e-001 -2.763381e+000 -8.276656e+000 67 57 29
-4.937141e-001 -2.739113e+000 -8.386551e+000 141 131 78
-3.043491e-001 -2.661910e+000 -8.507460e+000 139 130 82
-2.111058e-001 -2.715740e+000 -8.488711e+000 135 124 79
1.112744e+000 -2.617281e+000 -9.127216e+000 78 73 45
2.429795e+000 -2.493735e+000 -9.755510e+000 81 87 61
-2.415586e+000 -3.005453e+000 -7.580545e+000 88 77 49
-1.224096e+000 -2.980204e+000 -8.188791e+000 83 73 46
1.262247e-001 -2.895982e+000 -8.845427e+000 140 132 83
2.323259e-001 -2.896907e+000 -8.915823e+000 142 133 82
4.683615e-001 -2.738283e+000 -8.922513e+000 142 134 86
7.490923e-001 -2.867621e+000 -9.205135e+000 129 118 70
1.702909e+000 -2.695291e+000 -9.476559e+000 103 108 67
-2.754002e+000 -3.211989e+000 -7.600989e+000 79 74 51
-2.767493e+000 -3.268906e+000 -7.637729e+000 82 73 47
-2.664924e+000 -3.234585e+000 -7.684750e+000 127 119 83
-2.265747e+000 -3.137917e+000 -7.738261e+000 132 122 87
-2.107024e+000 -3.163274e+000 -7.879757e+000 139 127 91
-2.008930e+000 -3.146990e+000 -7.868359e+000 95 85 58
-1.825342e+000 -3.212296e+000 -8.091906e+000 105 91 63
-1.711017e+000 -3.085090e+000 -8.190078e+000 54 40 31
-9.482654e-001 -3.039586e+000 -8.432491e+000 142 131 94
-8.800058e-001 -3.044037e+000 -8.475881e+000 85 75 46
-4.241839e-001 -3.015525e+000 -8.744347e+000 138 128 84
1.188949e+000 -2.989642e+000 -9.555182e+000 125 122 73
-3.106648e+000 -3.345334e+000 -7.580410e+000 81 74 45
-2.670415e+000 -3.383134e+000 -7.802184e+000 80 71 36
-1.987883e+000 -3.364589e+000 -8.192074e+000 135 128 96
-1.298033e+000 -3.282562e+000 -8.567862e+000 138 128 95
-9.585152e-001 -3.145166e+000 -8.583614e+000 64 55 24
-1.104092e+000 -3.276313e+000 -8.619300e+000 81 76 40
-7.832956e-001 -3.224641e+000 -8.675627e+000 132 125 81
-7.039102e-001 -3.208007e+000 -8.764349e+000 75 67 30
-5.165179e-001 -3.279831e+000 -8.940420e+000 132 123 80
5.611524e-001 -3.115129e+000 -9.360671e+000 135 128 81
1.016455e+000 -3.117983e+000 -9.693655e+000 129 120 80
-3.263564e+000 -3.515699e+000 -7.613684e+000 126 119 75
-3.014356e+000 -3.455619e+000 -7.669209e+000 67 61 37
-2.941387e+000 -3.467301e+000 -7.777997e+000 120 115 77
-2.941387e+000 -3.467301e+000 -7.777997e+000 120 115 77
-2.902464e+000 -3.542657e+000 -7.857337e+000 120 113 84
-2.557168e+000 -3.420168e+000 -7.914173e+000 74 68 36
-2.408783e+000 -3.462782e+000 -8.042205e+000 125 119 82
-2.339293e+000 -3.449439e+000 -8.131364e+000 125 119 83
-2.367850e+000 -3.525367e+000 -8.134754e+000 124 120 85
-1.526051e+000 -3.508279e+000 -8.544014e+000 135 123 86
-1.181034e+000 -3.385229e+000 -8.722466e+000 143 131 92
-1.181034e+000 -3.385229e+000 -8.722466e+000 143 131 92
9.050102e-001 -3.300691e+000 -9.776232e+000 69 60 28
2.784151e+000 -3.088403e+000 -1.079450e+001 88 75 66
-3.536318e+000 -3.682043e+000 -7.727720e+000 85 81 52
-2.933261e+000 -3.636777e+000 -8.014834e+000 117 111 69
-2.721501e+000 -3.563665e+000 -7.964741e+000 120 115 73
-2.193566e+000 -3.577778e+000 -8.348787e+000 127 123 85
-1.928099e+000 -3.462265e+000 -8.439354e+000 88 84 48
-2.156097e+000 -3.681492e+000 -8.407373e+000 123 118 78
-9.615392e-001 -3.429791e+000 -8.924988e+000 136 124 81
-6.753616e-001 -3.454552e+000 -9.079229e+000 88 79 45
-3.601630e-001 -3.450101e+000 -9.201201e+000 129 127 70
1.051951e+000 -3.502596e+000 -1.011931e+001 59 62 29
-3.252512e+000 -3.739172e+000 -7.890289e+000 77 74 43
-3.248850e+000 -3.797293e+000 -7.922715e+000 73 71 46
-3.123030e+000 -3.823178e+000 -8.033658e+000 73 69 41
-2.941062e+000 -3.747963e+000 -8.046294e+000 65 59 39
-2.831220e+000 -3.746902e+000 -8.083365e+000 124 121 80
-2.858852e+000 -3.752568e+000 -8.183420e+000 70 66 38
-2.699967e+000 -3.703514e+000 -8.172826e+000 117 115 76
-2.711155e+000 -3.758498e+000 -8.170493e+000 66 61 42
-2.441756e+000 -3.723665e+000 -8.274856e+000 80 74 42
-2.182744e+000 -3.734524e+000 -8.442132e+000 117 113 78
-2.046884e+000 -3.703028e+000 -8.571821e+000 76 73 45
-1.041326e+000 -3.622355e+000 -9.034998e+000 136 124 77
-3.886670e-001 -3.608392e+000 -9.449190e+000 80 66 40
8.923456e-001 -6.273285e-001 -7.121757e+000 111 115 77
-8.822245e-001 -1.154031e+000 -6.575475e+000 142 134 81
7.535486e-001 -7.726204e-001 -7.137446e+000 122 127 86
1.111749e+000 -7.558822e-001 -7.303341e+000 121 126 85
3.388683e+000 -4.645868e-001 -8.281218e+000 103 112 92
-2.260409e+000 -1.460548e+000 -6.062294e+000 82 84 71
-2.266654e+000 -1.486301e+000 -6.048947e+000 82 84 71
-1.884952e+000 -1.522517e+000 -6.313328e+000 79 80 72
2.162750e+000 -7.928689e-001 -7.903325e+000 100 113 85
2.043472e+000 -8.119868e-001 -8.020439e+000 100 111 78
2.043472e+000 -8.119868e-001 -8.020439e+000 100 111 78
2.393498e+000 -8.955542e-001 -8.052071e+000 97 110 80
2.423509e+000 -8.327974e-001 -8.097311e+000 97 110 80
-2.594182e+000 -1.794704e+000 -6.072187e+000 81 83 72
-2.167859e+000 -1.716368e+000 -6.295017e+000 100 93 83
-1.767382e-001 -1.395309e+000 -7.155583e+000 137 130 84
6.251385e-001 -1.328474e+000 -7.465931e+000 148 139 84
1.405719e+000 -1.118746e+000 -7.789993e+000 116 120 79
1.640477e+000 -1.204572e+000 -7.935557e+000 117 122 87
1.816222e+000 -1.070221e+000 -7.947921e+000 108 117 80
2.230869e+000 -1.030452e+000 -8.115201e+000 98 108 83
2.967906e+000 -8.164536e-001 -8.381906e+000 95 107 83
2.988763e+000 -8.125177e-001 -8.467075e+000 100 113 88
3.052004e+000 -7.936264e-001 -8.429672e+000 66 78 54
2.965796e+000 -1.010189e+000 -8.502116e+000 68 77 56
-2.805507e+000 -1.878225e+000 -6.179864e+000 77 82 75
-2.816049e+000 -1.926110e+000 -6.244987e+000 74 77 68
-2.712870e+000 -1.969738e+000 -6.242832e+000 77 79 68
-2.062688e+000 -1.759317e+000 -6.413995e+000 153 144 137
-2.176622e+000 -1.904049e+000 -6.470452e+000 130 130 120
-2.139388e+000 -1.986635e+000 -6.433331e+000 81 83 72
-2.034795e+000 -1.887275e+000 -6.555992e+000 142 144 130
-1.941359e+000 -1.896758e+000 -6.542323e+000 82 85 74
-6.604672e-001 -1.554169e+000 -7.154619e+000 91 85 59
-4.241212e-001 -1.436718e+000 -7.137100e+000 159 147 100
-3.261027e-001 -1.518756e+000 -7.228875e+000 155 143 95
-4.279576e-001 -1.631288e+000 -7.268911e+000 83 75 55
5.487521e-001 -1.434396e+000 -7.584893e+000 124 114 79
1.509616e+000 -1.215889e+000 -7.956388e+000 124 126 87
1.473527e+000 -1.349838e+000 -8.015924e+000 120 123 80
2.201785e+000 -1.332241e+000 -8.368976e+000 62 72 48
2.807194e+000 -1.089012e+000 -8.483590e+000 60 70 53
2.702705e+000 -1.241356e+000 -8.600607e+000 89 103 77
-2.784055e+000 -1.987358e+000 -6.272566e+000 132 134 123
-2.293382e+000 -2.039125e+000 -6.556658e+000 143 138 129
-2.293382e+000 -2.039125e+000 -6.556658e+000 143 138 129
-1.949827e+000 -2.043556e+000 -6.730013e+000 90 91 78
-1.881586e+000 -1.945777e+000 -6.622757e+000 79 82 70
1.259548e+000 -1.606157e+000 -8.157742e+000 131 130 82
1.418754e+000 -1.499657e+000 -8.082960e+000 128 126 87
1.418754e+000 -1.499657e+000 -8.082960e+000 128 126 87
1.424913e+000 -1.502534e+000 -8.178642e+000 128 127 76
1.540194e+000 -1.553210e+000 -8.259055e+000 119 120 78
2.257016e+000 -1.378426e+000 -8.447417e+000 91 101 74
2.417036e+000 -1.340825e+000 -8.609092e+000 93 104 74
2.222768e+000 -1.494467e+000 -8.578024e+000 93 104 75
2.222768e+000 -1.494467e+000 -8.578024e+000 93 104 75
2.643950e+000 -1.433979e+000 -8.787010e+000 92 100 76
2.773274e+000 -1.431497e+000 -8.805503e+000 85 95 68
-2.744814e+000 -2.177226e+000 -6.451692e+000 77 79 68
-2.682185e+000 -2.165084e+000 -6.489050e+000 137 141 127
-2.572599e+000 -2.132700e+000 -6.549224e+000 69 75 65
-2.646830e+000 -2.213967e+000 -6.579400e+000 82 82 69
-2.603261e+000 -2.197023e+000 -6.578689e+000 131 133 120
-2.072455e+000 -2.170360e+000 -6.769713e+000 74 75 66
-1.315349e+000 -2.058588e+000 -7.228435e+000 68 53 48
-4.637250e-001 -1.940625e+000 -7.572691e+000 152 140 101
7.871682e-001 -1.745768e+000 -7.978480e+000 154 136 69
1.215904e+000 -1.742225e+000 -8.255035e+000 146 136 85
1.351594e+000 -1.749300e+000 -8.366049e+000 132 127 83
1.544058e+000 -1.555802e+000 -8.342314e+000 122 121 79
1.490441e+000 -1.714675e+000 -8.367859e+000 131 124 82
1.925001e+000 -1.599301e+000 -8.480116e+000 109 117 78
2.404355e+000 -1.542380e+000 -8.681940e+000 62 72 47
2.519697e+000 -1.444219e+000 -8.769508e+000 89 105 71
2.519697e+000 -1.444219e+000 -8.769508e+000 89 105 71
2.497131e+000 -1.509094e+000 -8.805359e+000 91 104 74
2.559732e+000 -1.650417e+000 -8.866397e+000 87 97 68
-3.489258e+000 -1.563815e+000 -6.696904e+000 112 115 98
-2.453203e+000 -2.357913e+000 -6.749885e+000 130 129 111
-2.269960e+000 -2.319769e+000 -6.825522e+000 79 80 73
-2.269960e+000 -2.319769e+000 -6.825522e+000 79 80 73
-1.057425e+000 -2.085354e+000 -7.388680e+000 152 141 112
-9.780297e-001 -2.153006e+000 -7.477641e+000 161 146 115
-9.857624e-001 -2.205022e+000 -7.445897e+000 161 146 115
-8.423603e-001 -2.105691e+000 -7.549735e+000 80 71 54
-2.787773e-001 -2.105725e+000 -7.811103e+000 149 139 101
1.564560e+000 -1.897364e+000 -8.602166e+000 126 123 78
1.564560e+000 -1.897364e+000 -8.602166e+000 126 123 78
1.715420e+000 -1.853158e+000 -8.671957e+000 116 118 78
1.845403e+000 -1.873344e+000 -8.778953e+000 113 114 72
1.910653e+000 -1.868257e+000 -8.837870e+000 64 68 45
2.380204e+000 -1.724605e+000 -8.854028e+000 91 100 69
2.246558e+000 -1.863015e+000 -8.988019e+000 92 101 74
2.651476e+000 -1.783569e+000 -9.067540e+000 79 89 60
2.516272e+000 -1.831149e+000 -9.092458e+000 85 94 69
2.516272e+000 -1.831149e+000 -9.092458e+000 85 94 69
-1.168363e+000 -2.266266e+000 -7.508184e+000 105 98 69
-1.262486e+000 -2.393934e+000 -7.528640e+000 146 134 105
-7.951051e-001 -2.312357e+000 -7.758004e+000 153 139 104
-4.354576e-001 -2.223546e+000 -7.829834e+000 151 139 96
-4.354576e-001 -2.223546e+000 -7.829834e+000 151 139 96
-3.365651e-001 -2.266003e+000 -7.981756e+000 149 136 93
-4.947078e-002 -2.250302e+000 -8.069113e+000 140 132 89
1.390205e+000 -2.040494e+000 -8.702745e+000 125 123 75
1.807278e+000 -1.969708e+000 -8.790176e+000 115 115 71
1.660285e+000 -2.036343e+000 -8.824748e+000 112 112 73
1.504264e+000 -2.083188e+000 -8.744975e+000 126 125 80
1.758770e+000 -2.103101e+000 -8.820170e+000 109 110 69
2.004371e+000 -1.973125e+000 -8.888297e+000 57 65 41
2.060614e+000 -1.986290e+000 -8.907889e+000 105 111 79
1.942297e+000 -1.970038e+000 -8.909346e+000 101 107 73
2.642980e+000 -1.991069e+000 -9.337210e+000 58 66 43
-9.061749e-001 -2.430103e+000 -7.757706e+000 153 140 107
-5.309872e-001 -2.345712e+000 -7.944769e+000 149 137 87
-9.440573e-002 -2.396556e+000 -8.200838e+000 147 139 85
1.050889e+000 -2.247767e+000 -8.644310e+000 135 130 75
1.058010e+000 -2.228695e+000 -8.661332e+000 135 130 75
1.456333e+000 -2.223851e+000 -8.853487e+000 118 116 74
2.034099e+000 -2.100583e+000 -9.117122e+000 98 102 75
1.899812e+000 -2.286159e+000 -9.147138e+000 53 56 36
2.541642e+000 -2.124474e+000 -9.385770e+000 80 89 62
-6.812209e-001 -2.609631e+000 -8.048466e+000 146 135 89
-4.301321e-001 -2.564166e+000 -8.215636e+000 142 132 83
5.521849e-001 -2.481473e+000 -8.705115e+000 137 129 83
7.491385e-001 -2.530373e+000 -8.791582e+000 81 71 39
1.119857e+000 -2.437401e+000 -8.928191e+000 133 127 75
1.094906e+000 -2.507292e+000 -8.918378e+000 132 129 65
1.255377e+000 -2.438019e+000 -9.010110e+000 127 121 70
1.531225e+000 -2.395634e+000 -9.037458e+000 109 108 64
1.580551e+000 -2.299912e+000 -9.117885e+000 109 108 64
2.057397e+000 -2.398885e+000 -9.345611e+000 87 97 64
2.239401e+000 -2.287645e+000 -9.439811e+000 92 98 70
2.437709e+000 -2.433252e+000 -9.618291e+000 82 90 66
-1.403317e+000 -2.823174e+000 -7.850105e+000 143 134 99
-9.262016e-001 -2.695098e+000 -8.105546e+000 152 137 93
1.375012e-002 -2.704207e+000 -8.588969e+000 66 66 35
1.148187e+000 -2.731271e+000 -9.178326e+000 133 126 77
1.148187e+000 -2.731271e+000 -9.178326e+000 133 126 77
1.562930e+000 -2.512257e+000 -9.296161e+000 78 74 46
1.921550e+000 -2.455722e+000 -9.463645e+000 95 100 69
1.923288e+000 -2.453702e+000 -9.465898e+000 95 100 69
2.030960e+000 -2.506372e+000 -9.525747e+000 92 99 68
2.007927e+000 -2.546514e+000 -9.484827e+000 92 99 68
2.204581e+000 -2.417561e+000 -9.642926e+000 81 90 58
1.991620e+000 -2.614785e+000 -9.610384e+000 94 100 63
2.632938e+000 -2.451422e+000 -9.839455e+000 49 56 34
-1.559641e+000 -2.923024e+000 -7.942096e+000 50 47 38
-9.265963e-001 -2.988866e+000 -8.384023e+000 144 132 85
-6.447037e-001 -2.834234e+000 -8.418376e+000 142 132 83
-5.337886e-001 -2.862987e+000 -8.469550e+000 143 137 77
-5.323230e-001 -2.855251e+000 -8.476877e+000 143 137 77
-5.430427e-001 -2.899334e+000 -8.507400e+000 143 135 88
-1.692073e-001 -2.787439e+000 -8.619286e+000 70 62 45
5.179300e-001 -2.762308e+000 -8.915391e+000 73 64 33
8.539963e-001 -2.810699e+000 -9.067552e+000 143 132 78
8.539963e-001 -2.810699e+000 -9.067552e+000 143 132 78
1.191843e+000 -2.644448e+000 -9.307478e+000 129 125 77
1.475373e+000 -2.617868e+000 -9.539201e+000 120 117 69
1.811626e+000 -2.756897e+000 -9.672035e+000 102 104 69
1.807309e+000 -2.768169e+000 -9.661509e+000 102 104 69
2.109507e+000 -2.650865e+000 -9.719945e+000 93 101 70
2.433383e+000 -2.676657e+000 -9.930741e+000 51 56 36
2.242674e+000 -2.716736e+000 -9.932212e+000 91 97 69
2.542952e+000 -2.634860e+000 -1.016152e+001 90 94 69
2.558318e+000 -2.704221e+000 -1.008155e+001 49 52 33
-2.698008e+000 -3.137058e+000 -7.600311e+000 127 117 81
-2.299751e+000 -3.130107e+000 -7.818753e+000 140 131 92
-1.970093e+000 -3.121258e+000 -7.949083e+000 87 77 49
-1.951701e+000 -3.163280e+000 -8.026593e+000 91 82 53
-1.903454e+000 -3.199467e+000 -8.025598e+000 139 129 94
-1.645922e+000 -3.122328e+000 -8.156182e+000 55 43 38
-1.508737e+000 -3.100506e+000 -8.176927e+000 144 136 94
-9.835040e-001 -3.145573e+000 -8.525774e+000 145 131 86
-5.703370e-001 -2.961794e+000 -8.611130e+000 139 129 78
-6.129532e-001 -3.078210e+000 -8.686550e+000 137 128 84
-4.048370e-001 -2.961850e+000 -8.725496e+000 131 125 73
-2.413379e-002 -2.969111e+000 -8.921871e+000 138 132 79
3.458265e-001 -3.075044e+000 -9.174049e+000 149 142 87
9.270725e-001 -2.996449e+000 -9.429534e+000 133 123 67
1.403753e+000 -2.798576e+000 -9.567209e+000 118 116 67
1.387140e+000 -2.834041e+000 -9.534190e+000 118 116 67
1.606001e+000 -2.953139e+000 -9.704058e+000 110 110 72
1.730284e+000 -2.986741e+000 -9.858040e+000 101 102 70
2.150101e+000 -2.872988e+000 -9.897321e+000 84 90 62
2.472947e+000 -2.779859e+000 -1.015658e+001 85 89 64
2.378629e+000 -2.894735e+000 -1.022428e+001 52 55 36
-3.243730e+000 -3.326002e+000 -7.546608e+000 81 71 44
-3.219908e+000 -3.440004e+000 -7.560415e+000 78 72 40
-1.671449e+000 -3.194108e+000 -8.230673e+000 56 46 35
-1.537655e+000 -3.193543e+000 -8.270588e+000 143 132 86
-9.182391e-001 -3.296347e+000 -8.672326e+000 139 127 75
-6.396675e-001 -3.164303e+000 -8.705948e+000 144 136 88
-6.396675e-001 -3.164303e+000 -8.705948e+000 144 136 88
-6.749206e-001 -3.264514e+000 -8.833394e+000 134 127 79
-3.011759e-001 -3.174555e+000 -8.935385e+000 79 68 40
8.883936e-001 -3.089181e+000 -9.454968e+000 137 127 67
7.077868e-001 -3.228000e+000 -9.515915e+000 145 129 77
1.383747e+000 -3.178011e+000 -9.797333e+000 116 112 77
1.668595e+000 -3.140622e+000 -9.968009e+000 100 101 69
1.690312e+000 -3.100704e+000 -1.001451e+001 100 101 69
2.116059e+000 -3.198102e+000 -1.021855e+001 62 66 46
-3.293975e+000 -3.525334e+000 -7.637967e+000 83 73 52
-2.751174e+000 -3.448072e+000 -7.872591e+000 90 80 48
-2.623713e+000 -3.467890e+000 -7.995417e+000 130 120 84
-2.064637e+000 -3.404308e+000 -8.247830e+000 67 62 38
-1.098406e+000 -3.437861e+000 -8.786604e+000 135 127 81
-3.346657e-002 -3.340046e+000 -9.264321e+000 142 134 83
1.246610e+000 -3.224340e+000 -9.873765e+000 122 114 76
1.825495e+000 -3.133409e+000 -1.022888e+001 98 98 68
1.752108e+000 -3.288592e+000 -1.020965e+001 96 96 70
1.925492e+000 -3.239903e+000 -1.039410e+001 94 98 65
2.047682e+000 -3.270023e+000 -1.044516e+001 89 92 65
2.047682e+000 -3.270023e+000 -1.044516e+001 89 92 65
-3.475137e+000 -3.590272e+000 -7.688693e+000 112 110 72
-3.296740e+000 -3.620549e+000 -7.768763e+000 79 76 41
-3.383297e+000 -3.618828e+000 -7.781906e+000 124 122 83
-2.961517e+000 -3.700087e+000 -8.002721e+000 66 63 41
-2.655825e+000 -3.589547e+000 -8.061660e+000 80 74 48
-2.511273e+000 -3.668963e+000 -8.150172e+000 73 69 45
-2.169263e+000 -3.565830e+000 -8.299788e+000 125 120 78
-1.554930e+000 -3.526079e+000 -8.623187e+000 131 121 83
-1.009105e+000 -3.528422e+000 -8.939292e+000 138 132 81
-9.752228e-002 -3.511790e+000 -9.462375e+000 134 124 72
4.238984e-001 -3.461859e+000 -9.764028e+000 79 72 43
7.249987e-001 -3.526868e+000 -9.903639e+000 124 116 72
9.847723e-001 -3.382489e+000 -1.006263e+001 71 65 40
9.252234e-001 -3.402787e+000 -1.010538e+001 132 124 75
1.026712e+000 -3.467603e+000 -9.983144e+000 117 114 72
1.024331e+000 -3.469450e+000 -1.008174e+001 120 115 76
1.152234e+000 -3.483370e+000 -1.011267e+001 112 107 65
1.283028e+000 -3.460761e+000 -1.012134e+001 109 109 63
1.283477e+000 -3.461571e+000 -1.012112e+001 109 109 63
1.425569e+000 -3.465490e+000 -1.026115e+001 112 108 73
1.754363e+000 -3.338949e+000 -1.040258e+001 102 105 65
2.088087e+000 -3.328312e+000 -1.047308e+001 64 65 47
-3.625246e+000 -4.028193e+000 -7.444163e+000 140 139 88
-3.570449e+000 -3.750989e+000 -7.817681e+000 68 67 40
-3.397905e+000 -3.778021e+000 -7.927291e+000 84 78 52
-3.163898e+000 -3.667651e+000 -7.965372e+000 111 109 72
-3.106618e+000 -3.773346e+000 -7.950901e+000 115 113 74
-2.818999e+000 -3.781266e+000 -8.140927e+000 118 115 78
-2.764138e+000 -3.772763e+000 -8.251233e+000 80 76 48
-2.799502e+000 -3.815986e+000 -8.240533e+000 120 116 73
-2.392893e+000 -3.740926e+000 -8.440313e+000 117 115 75
-1.273059e+000 -3.668108e+000 -8.937113e+000 141 129 76
-1.273059e+000 -3.668108e+000 -8.937113e+000 141 129 76
-3.707405e+000 -3.781705e+000 -7.853369e+000 136 140 89
-3.631556e+000 -3.810690e+000 -7.908500e+000 116 117 73
-3.490246e+000 -3.903451e+000 -7.905135e+000 114 110 71
3.708251e-001 -8.767512e-001 -6.989426e+000 91 87 57
2.443816e-001 -9.818996e-001 -6.999447e+000 137 132 77
1.466800e+000 -8.482795e-001 -7.533335e+000 119 126 95
1.544730e+000 -8.425067e-001 -7.578937e+000 81 86 64
1.856219e+000 -6.727251e-001 -7.652691e+000 85 94 73
-2.487051e+000 -1.603782e+000 -5.983941e+000 77 82 73
-2.399139e+000 -1.505329e+000 -6.026024e+000 71 73 62
-2.437446e+000 -1.559649e+000 -6.042344e+000 128 128 116
-1.999772e+000 -1.437531e+000 -6.114475e+000 81 83 73
-8.931853e-001 -1.192154e+000 -6.654992e+000 139 133 81
1.378368e+000 -9.476172e-001 -7.545978e+000 73 78 53
1.764469e+000 -9.713092e-001 -7.796416e+000 75 84 57
2.083157e+000 -8.007233e-001 -7.863755e+000 69 81 58
1.447971e+000 -1.208496e+000 -7.864052e+000 78 81 52
1.622317e+000 -1.067380e+000 -7.891454e+000 68 72 45
1.774979e+000 -1.013200e+000 -7.943118e+000 72 77 54
2.048384e+000 -9.674036e-001 -7.966181e+000 66 74 51
-2.767738e+000 -1.945257e+000 -6.198876e+000 134 138 124
-6.702355e-001 -1.573814e+000 -7.046556e+000 83 74 44
-6.702355e-001 -1.573814e+000 -7.046556e+000 83 74 44
8.077142e-001 -1.511044e+000 -7.783644e+000 104 96 70
1.684788e+000 -1.266832e+000 -8.048668e+000 76 79 59
1.992774e+000 -1.168754e+000 -8.154992e+000 72 81 55
2.123757e+000 -1.224329e+000 -8.317989e+000 72 76 59
2.608789e+000 -1.282896e+000 -8.508969e+000 56 68 44
-2.713217e+000 -1.982729e+000 -6.316416e+000 80 82 74
-2.765974e+000 -2.025925e+000 -6.347611e+000 125 130 119
-2.789165e+000 -2.101848e+000 -6.370153e+000 80 81 72
-2.789165e+000 -2.101848e+000 -6.370153e+000 80 81 72
-2.044544e+000 -2.063258e+000 -6.679867e+000 143 144 128
-7.602437e-001 -1.873743e+000 -7.268441e+000 93 82 59
-3.587735e-001 -1.781351e+000 -7.437174e+000 86 75 52
1.498596e+000 -1.478405e+000 -8.154402e+000 75 75 45
1.603367e+000 -1.558718e+000 -8.308871e+000 77 79 48
2.056149e+000 -1.410449e+000 -8.434234e+000 55 68 40
2.092853e+000 -1.503824e+000 -8.536619e+000 95 105 71
3.005618e+000 -1.273224e+000 -8.740749e+000 68 77 59
3.002080e+000 -1.278212e+000 -8.738373e+000 68 77 59
2.694825e+000 -1.431662e+000 -8.724825e+000 64 74 50
-4.977456e-001 -1.868572e+000 -7.416190e+000 111 99 78
-4.945392e-001 -1.855355e+000 -7.424951e+000 111 99 78
-5.177561e-001 -1.921999e+000 -7.484096e+000 92 80 56
-3.594394e-001 -1.986805e+000 -7.645289e+000 150 137 103
-2.747366e-001 -1.896503e+000 -7.637458e+000 74 67 38
-2.762392e-001 -1.901171e+000 -7.634555e+000 74 67 38
1.270805e+000 -1.758810e+000 -8.287210e+000 72 69 37
1.494970e+000 -1.680596e+000 -8.303084e+000 121 119 77
1.856365e+000 -1.606512e+000 -8.476755e+000 74 77 48
2.263335e+000 -1.589114e+000 -8.720119e+000 48 56 32
2.963524e+000 -1.628238e+000 -9.062794e+000 76 84 57
-1.105611e+000 -2.045269e+000 -7.373136e+000 104 93 71
-1.084588e+000 -2.179546e+000 -7.492628e+000 156 143 111
-8.134284e-001 -2.036568e+000 -7.455488e+000 85 74 55
1.163943e+000 -1.905372e+000 -8.375741e+000 139 134 69
1.352174e+000 -1.938435e+000 -8.504384e+000 85 79 45
2.237538e+000 -1.678324e+000 -8.847487e+000 87 96 69
2.338028e+000 -1.888286e+000 -8.873156e+000 90 100 66
2.297454e+000 -1.861574e+000 -8.946150e+000 63 71 48
2.293531e+000 -1.867809e+000 -8.940547e+000 63 71 48
2.425350e+000 -1.869332e+000 -9.022554e+000 54 62 40
2.459345e+000 -1.809135e+000 -9.076479e+000 54 62 40
-3.578681e+000 -1.640332e+000 -6.913600e+000 197 204 121
-1.415868e+000 -2.314193e+000 -7.376883e+000 61 51 41
-4.909319e-001 -2.210407e+000 -7.800431e+000 115 104 84
-4.208208e-001 -2.169067e+000 -7.817238e+000 153 140 98
-3.509717e-001 -2.315945e+000 -7.981946e+000 156 143 95
2.568574e-001 -2.166467e+000 -8.094786e+000 148 137 91
6.306252e-001 -2.067414e+000 -8.266104e+000 100 90 62
6.809130e-001 -2.112671e+000 -8.479294e+000 153 138 74
8.477502e-001 -2.051921e+000 -8.353601e+000 131 118 80
1.793570e+000 -2.007164e+000 -8.831328e+000 108 110 69
1.876376e+000 -1.967292e+000 -8.849385e+000 81 83 62
2.366148e+000 -2.029982e+000 -9.116279e+000 69 77 51
2.366148e+000 -2.029982e+000 -9.116279e+000 69 77 51
-1.232394e+000 -2.431080e+000 -7.674434e+000 77 69 47
-8.017281e-001 -2.467189e+000 -7.857700e+000 95 83 57
-8.068664e-001 -2.472563e+000 -7.926037e+000 93 84 57
-6.303484e-001 -2.416653e+000 -7.946696e+000 156 142 94
1.250045e-001 -2.381961e+000 -8.302687e+000 100 93 62
6.581374e-001 -2.336931e+000 -8.649698e+000 87 81 50
6.581374e-001 -2.336931e+000 -8.649698e+000 87 81 50
1.221625e+000 -2.318903e+000 -8.837333e+000 79 78 41
1.224890e+000 -2.341397e+000 -8.894766e+000 67 66 38
2.483675e+000 -2.102203e+000 -9.380472e+000 56 64 43
2.331157e+000 -2.180352e+000 -9.352113e+000 51 58 39
2.475116e+000 -2.178138e+000 -9.502575e+000 46 54 34
2.722493e+000 -2.135022e+000 -9.463639e+000 48 52 35
2.747200e+000 -2.161016e+000 -9.636726e+000 52 55 37
2.705162e+000 -2.234348e+000 -9.574626e+000 52 55 37
-7.086326e-001 -2.681670e+000 -8.145931e+000 147 134 81
2.039837e-001 -2.485504e+000 -8.605179e+000 77 66 43
2.039837e-001 -2.485504e+000 -8.605179e+000 77 66 43
3.228818e-001 -2.489045e+000 -8.708815e+000 87 80 54
4.581784e-001 -2.572030e+000 -8.664624e+000 81 69 43
8.960148e-001 -2.521727e+000 -8.930854e+000 96 85 58
1.188284e+000 -2.428648e+000 -8.963412e+000 82 74 45
1.436566e+000 -2.437694e+000 -9.066719e+000 69 65 38
1.514382e+000 -2.461615e+000 -9.188530e+000 111 110 66
1.591835e+000 -2.431414e+000 -9.180553e+000 66 65 40
1.552921e+000 -2.511945e+000 -9.183396e+000 76 76 50
1.844083e+000 -2.448685e+000 -9.296772e+000 64 67 41
1.986365e+000 -2.435552e+000 -9.432076e+000 82 87 65
2.152517e+000 -2.311945e+000 -9.362817e+000 65 71 45
2.121357e+000 -2.400001e+000 -9.365441e+000 65 71 43
2.547605e+000 -2.298682e+000 -9.612063e+000 54 62 41
-1.776889e+000 -2.781285e+000 -7.732765e+000 150 136 99
-1.320340e+000 -2.692074e+000 -7.897704e+000 80 71 46
-1.319320e+000 -2.691171e+000 -7.898705e+000 80 71 46
-1.292230e+000 -2.795793e+000 -7.991058e+000 152 138 90
-6.389104e-001 -2.790110e+000 -8.328639e+000 143 128 78
-4.368271e-001 -2.735835e+000 -8.380651e+000 88 79 50
-4.352910e-001 -2.733691e+000 -8.383163e+000 88 79 50
4.695131e-001 -2.706088e+000 -8.832643e+000 142 132 78
5.430569e-001 -2.681931e+000 -8.862922e+000 77 68 39
1.193342e+000 -2.617544e+000 -9.132875e+000 134 128 77
1.052890e+000 -2.632931e+000 -9.080384e+000 134 128 71
1.414055e+000 -2.533403e+000 -9.144551e+000 80 76 56
1.228119e+000 -2.688423e+000 -9.189734e+000 76 72 44
1.228119e+000 -2.688423e+000 -9.189734e+000 76 72 44
1.688593e+000 -2.530086e+000 -9.314544e+000 60 59 40
2.051473e+000 -2.453132e+000 -9.486334e+000 93 102 69
1.712041e+000 -2.643642e+000 -9.444370e+000 105 106 74
1.970210e+000 -2.513944e+000 -9.556824e+000 62 70 44
2.197435e+000 -2.425807e+000 -9.568588e+000 85 94 64
2.197435e+000 -2.425807e+000 -9.568588e+000 85 94 64
2.094534e+000 -2.501691e+000 -9.526717e+000 57 62 39
2.245484e+000 -2.463046e+000 -9.657758e+000 55 60 40
2.036942e+000 -2.647132e+000 -9.610597e+000 59 61 47
2.038371e+000 -2.644605e+000 -9.612315e+000 59 61 47
-1.641999e+000 -2.957705e+000 -7.997342e+000 53 49 39
-8.666000e-001 -2.955723e+000 -8.379530e+000 78 67 47
-7.692284e-001 -2.854592e+000 -8.336675e+000 148 139 89
1.481881e-001 -2.819271e+000 -8.787957e+000 140 130 78
3.740299e-001 -2.808101e+000 -8.911706e+000 83 75 42
1.107534e+000 -2.680693e+000 -9.225505e+000 79 76 46
1.047716e+000 -2.822178e+000 -9.257296e+000 79 73 48
1.490784e+000 -2.717140e+000 -9.465857e+000 75 71 43
1.594849e+000 -2.786294e+000 -9.521940e+000 61 63 43
1.590982e+000 -2.795065e+000 -9.513645e+000 61 63 43
1.440690e+000 -2.855547e+000 -9.516893e+000 68 66 43
1.785869e+000 -2.661969e+000 -9.625120e+000 53 53 33
1.596868e+000 -2.797094e+000 -9.609120e+000 63 65 43
2.053187e+000 -2.652105e+000 -9.776067e+000 69 72 47
2.185205e+000 -2.620384e+000 -9.742830e+000 58 63 41
2.135321e+000 -2.767723e+000 -9.856821e+000 49 54 31
-2.433405e+000 -3.186767e+000 -7.720729e+000 147 136 92
-2.152060e+000 -3.097414e+000 -7.857057e+000 138 126 85
-1.439891e+000 -3.053383e+000 -8.161676e+000 77 70 44
-1.378264e+000 -3.041107e+000 -8.226545e+000 143 132 87
-5.855161e-001 -3.012343e+000 -8.626443e+000 139 131 77
-6.930882e-001 -3.132783e+000 -8.665669e+000 93 86 50
-3.402874e-001 -3.107716e+000 -8.831952e+000 148 135 90
-3.150268e-001 -3.018343e+000 -8.910657e+000 148 135 90
3.624569e-001 -3.013171e+000 -9.093309e+000 142 131 90
1.006050e+000 -2.944586e+000 -9.394619e+000 71 66 35
8.421313e-001 -3.040616e+000 -9.398988e+000 92 87 57
8.421313e-001 -3.040616e+000 -9.398988e+000 92 87 57
1.060166e+000 -2.970876e+000 -9.441205e+000 131 122 65
9.859386e-001 -3.001161e+000 -9.474655e+000 77 70 42
1.043204e+000 -3.030244e+000 -9.474495e+000 130 118 66
1.497478e+000 -2.879291e+000 -9.564744e+000 112 113 73
1.405373e+000 -2.941935e+000 -9.587289e+000 69 69 41
1.656317e+000 -2.997476e+000 -9.793844e+000 67 70 51
1.830380e+000 -2.877367e+000 -9.777660e+000 62 63 45
2.001140e+000 -2.937941e+000 -9.871439e+000 90 98 57
1.854019e+000 -2.978604e+000 -9.838329e+000 101 105 70
1.979275e+000 -2.889065e+000 -1.002003e+001 50 52 37
2.243568e+000 -2.808533e+000 -9.932943e+000 56 62 41
2.249498e+000 -2.851180e+000 -1.006362e+001 60 67 44
2.130530e+000 -2.947924e+000 -9.977971e+000 94 100 70
-3.558262e+000 -3.323398e+000 -7.297080e+000 134 128 74
-3.033637e+000 -3.394360e+000 -7.608025e+000 122 118 73
-2.637172e+000 -3.354147e+000 -7.879455e+000 132 125 83
-2.057349e+000 -3.230366e+000 -8.032540e+000 135 126 83
-1.214850e-001 -3.248093e+000 -9.106745e+000 144 130 79
7.017580e-002 -3.210424e+000 -9.165809e+000 100 93 59
2.356345e-001 -3.199584e+000 -9.255999e+000 82 75 49
8.138161e-001 -3.116019e+000 -9.432764e+000 88 81 55
7.906351e-001 -3.160936e+000 -9.516197e+000 98 92 59
9.672049e-001 -3.082478e+000 -9.531708e+000 69 63 39
1.300400e+000 -2.929478e+000 -9.790441e+000 84 79 54
1.487640e+000 -3.080714e+000 -9.776003e+000 70 68 47
1.569203e+000 -3.041964e+000 -9.765836e+000 110 110 68
1.596307e+000 -2.990583e+000 -9.828388e+000 110 110 68
1.596104e+000 -3.141915e+000 -9.923577e+000 56 57 33
1.912288e+000 -3.031296e+000 -9.981498e+000 66 68 46
1.752707e+000 -3.097054e+000 -1.000544e+001 63 62 43
2.020723e+000 -3.073012e+000 -1.007182e+001 60 61 47
1.961865e+000 -3.078623e+000 -1.008678e+001 91 97 63
2.340627e+000 -2.988982e+000 -1.026677e+001 50 53 33
2.471944e+000 -2.961438e+000 -1.026432e+001 51 53 35
-2.917377e+000 -3.411838e+000 -7.747751e+000 114 109 71
-2.917377e+000 -3.411838e+000 -7.747751e+000 114 109 71
-2.815823e+000 -3.501710e+000 -7.935444e+000 126 123 73
-2.816484e+000 -3.505127e+000 -7.932308e+000 126 123 73
-1.131127e+000 -3.372594e+000 -8.715321e+000 98 96 71
-5.007913e-001 -3.380898e+000 -9.046679e+000 76 72 46
-4.489120e-001 -3.403409e+000 -9.096913e+000 141 129 80
-8.925973e-002 -3.317478e+000 -9.196389e+000 69 63 39
-1.006071e-001 -3.366340e+000 -9.233284e+000 82 75 48
-9.814043e-002 -3.359775e+000 -9.238993e+000 82 75 48
3.266589e-001 -3.278857e+000 -9.382802e+000 81 75 51
1.685912e-001 -3.380774e+000 -9.419843e+000 74 68 31
1.727726e-001 -3.374268e+000 -9.430830e+000 74 68 31
6.357250e-001 -3.260752e+000 -9.508442e+000 79 72 40
6.540220e-001 -3.374441e+000 -9.687471e+000 131 123 65
6.544543e-001 -3.373183e+000 -9.687936e+000 131 123 65
9.378877e-001 -3.313312e+000 -9.728691e+000 126 120 73
1.050145e+000 -3.363196e+000 -9.850924e+000 128 120 72
1.733213e+000 -3.186704e+000 -1.016817e+001 77 77 49
1.686775e+000 -3.297412e+000 -1.022535e+001 78 77 57
1.808048e+000 -3.298784e+000 -1.018099e+001 64 63 43
1.812914e+000 -3.287881e+000 -1.019282e+001 64 63 43
1.956012e+000 -3.173488e+000 -1.038362e+001 98 102 69
2.339944e+000 -3.173321e+000 -1.041964e+001 78 81 61
2.384273e+000 -3.275084e+000 -1.058462e+001 51 54 37
-3.376515e+000 -3.553562e+000 -7.729176e+000 118 115 70
-2.203484e+000 -3.610495e+000 -8.388090e+000 124 116 78
-1.976717e+000 -3.559513e+000 -8.444165e+000 135 127 81
-1.641139e+000 -3.469066e+000 -8.554128e+000 133 125 80
-1.142934e+000 -3.555585e+000 -8.968603e+000 141 132 77
-8.090284e-001 -3.471360e+000 -8.983117e+000 80 74 44
-7.388452e-001 -3.424434e+000 -9.025599e+000 135 126 75
-5.130672e-001 -3.578955e+000 -9.234325e+000 138 129 73
-5.068774e-001 -3.557653e+000 -9.258056e+000 138 129 73
-4.437948e-001 -3.554019e+000 -9.306564e+000 69 62 36
-1.827807e-001 -3.399455e+000 -9.342608e+000 135 129 69
-1.412931e-001 -3.467057e+000 -9.386884e+000 82 75 51
-5.832878e-002 -3.414842e+000 -9.348334e+000 142 130 81
1.533749e-001 -3.433196e+000 -9.441960e+000 72 63 35
5.735610e-001 -3.418264e+000 -9.681468e+000 85 78 49
6.805806e-001 -3.471029e+000 -9.772845e+000 81 71 45
6.805806e-001 -3.471029e+000 -9.772845e+000 81 71 45
5.596659e-001 -3.476588e+000 -9.772950e+000 75 69 45
9.802186e-001 -3.385596e+000 -9.881394e+000 78 72 47
1.085186e+000 -3.450405e+000 -9.952335e+000 80 74 51
9.169509e-001 -3.541726e+000 -1.000229e+001 86 82 54
1.208638e+000 -3.471037e+000 -1.007575e+001 53 48 30
1.929130e+000 -3.389230e+000 -1.043021e+001 70 72 50
2.027111e+000 -3.435379e+000 -1.046637e+001 60 60 41
2.059153e+000 -3.385083e+000 -1.053054e+001 60 60 41
-3.567275e+000 -3.701072e+000 -7.770718e+000 114 113 68
-2.142047e+000 -3.719937e+000 -8.518764e+000 90 84 58
-1.591108e+000 -3.639796e+000 -8.758595e+000 137 129 80
-1.591108e+000 -3.639796e+000 -8.758595e+000 137 129 80
-1.527205e+000 -3.618753e+000 -8.790569e+000 77 69 47
3.352803e-001 -9.578932e-001 -7.077580e+000 97 96 65
-2.656233e+000 -1.599695e+000 -5.943085e+000 76 77 71
1.084677e+000 -1.009020e+000 -7.460556e+000 130 128 83
3.530175e+000 -2.966327e-001 -8.759697e+000 90 105 74
-2.743641e+000 -1.675150e+000 -5.978231e+000 71 76 69
-2.818831e+000 -1.740180e+000 -6.035814e+000 71 78 65
-2.818831e+000 -1.740180e+000 -6.035814e+000 71 78 65
-3.442460e-001 -1.377315e+000 -7.060750e+000 87 78 48
-2.872981e+000 -1.826098e+000 -6.103273e+000 76 79 69
-2.901462e+000 -1.971051e+000 -6.147376e+000 75 81 65
-2.911171e+000 -2.052523e+000 -6.234939e+000 73 77 66
-2.893736e+000 -2.125987e+000 -6.329076e+000 80 81 73
-2.230028e+000 -1.973985e+000 -6.583566e+000 75 79 69
-1.151704e+000 -1.861821e+000 -7.142635e+000 61 51 48
-2.256768e-001 -1.764762e+000 -7.513625e+000 88 77 53
3.974310e-001 -1.709291e+000 -7.728739e+000 152 139 86
7.590650e-001 -1.652670e+000 -7.907988e+000 71 68 34
2.184085e+000 -1.409142e+000 -8.465667e+000 64 74 49
-3.315787e+000 -1.805287e+000 -6.437130e+000 109 110 95
-3.318001e+000 -1.799066e+000 -6.438844e+000 109 110 95
-2.789739e+000 -2.245117e+000 -6.518808e+000 69 72 64
-5.725068e-001 -1.906779e+000 -7.426895e+000 156 144 102
-2.711543e+000 -2.285528e+000 -6.606092e+000 74 75 65
-2.711543e+000 -2.285528e+000 -6.606092e+000 74 75 65
