ply
format ascii 1.0
element face 0
property list uchar int vertex_indices
element vertex 876
property float x
property float y
property float z
property uchar diffuse_red
property uchar diffuse_green
property uchar diffuse_blue
end_header
-8.492715e-001 -1.551312e+000 -6.313633e+000 60 48 38
-3.281721e-001 -1.704312e+000 -6.748345e+000 96 80 52
4.509999e-001 -1.585140e+000 -7.028900e+000 141 123 74
5.560757e-001 -1.560529e+000 -7.069570e+000 144 125 74
3.387841e-001 -1.723602e+000 -7.106584e+000 99 85 64
1.112218e+000 -1.622983e+000 -7.421421e+000 68 52 29
2.017068e+000 -1.520224e+000 -7.771103e+000 78 74 45
-8.660507e-001 -1.923715e+000 -6.745070e+000 93 77 53
-8.921471e-001 -2.009377e+000 -6.782187e+000 84 73 55
-1.095896e-001 -2.200150e+000 -7.340085e+000 93 78 52
5.435576e-001 -2.419205e+000 -7.885025e+000 78 64 43
8.573235e-001 -2.413098e+000 -8.080144e+000 91 74 48
1.341601e+000 -2.284029e+000 -8.178513e+000 85 73 46
1.591804e+000 -2.375733e+000 -8.412701e+000 83 71 48
-1.046499e+000 -2.470544e+000 -7.145408e+000 86 70 54
4.019224e-001 -2.630387e+000 -8.045705e+000 130 115 76
1.256303e+000 -2.733903e+000 -8.655720e+000 129 117 76
-2.383768e+000 -3.372914e+000 -7.365615e+000 117 101 77
-2.195288e+000 -3.258151e+000 -7.353848e+000 126 108 84
-2.156693e+000 -3.321026e+000 -7.435309e+000 86 72 46
-1.322833e+000 -3.445964e+000 -8.024920e+000 129 113 88
-1.322779e+000 -3.445714e+000 -8.024192e+000 129 113 88
-3.622306e-001 -7.899308e-001 -5.901998e+000 111 98 54
7.084522e-001 -9.681906e-001 -6.589512e+000 112 99 55
-2.558797e-001 -1.650744e+000 -6.729080e+000 133 115 75
-1.005728e+000 -2.003520e+000 -6.669870e+000 61 48 35
-2.118705e+000 -1.975405e+000 -5.999494e+000 80 74 66
9.222119e-001 -2.844207e+000 -8.553719e+000 132 118 85
-2.003241e+000 -3.041627e+000 -7.214339e+000 125 109 83
-1.626055e+000 -3.028119e+000 -7.417606e+000 96 81 59
2.191182e-001 -2.705561e+000 -7.964936e+000 85 72 40
-5.262784e+001 6.477811e+000 -1.064266e+002 254 55 104
-2.164515e+000 -2.161445e+000 -6.100784e+000 68 64 55
-5.428041e+001 5.628262e+000 -1.088108e+002 170 186 249
-5.428041e+001 5.628262e+000 -1.088108e+002 170 186 249
-5.236028e+001 8.064842e+000 -1.116991e+002 57 39 84
-3.239685e+001 -3.189636e+001 -6.953102e+001 223 170 89
2.210589e+000 -6.247476e-001 -7.136647e+000 92 97 67
2.210589e+000 -6.247476e-001 -7.136647e+000 92 97 67
3.211766e-003 -1.476941e+000 -6.715309e+000 146 127 84
-2.817697e-002 -1.525930e+000 -6.681946e+000 88 73 40
2.275495e+000 -1.404760e+000 -7.892951e+000 91 92 62
1.709668e+000 -1.815942e+000 -7.964525e+000 122 113 75
3.830320e+000 -1.699769e+000 -9.332740e+000 105 94 82
-2.532758e+000 -2.005169e+000 -5.787727e+000 82 68 57
-2.441133e+000 -1.930531e+000 -5.766126e+000 138 127 116
2.124677e+000 -1.864484e+000 -8.225958e+000 102 97 63
-2.361218e+000 -2.150189e+000 -6.004275e+000 88 75 63
-4.200388e+000 3.751713e+000 -9.016472e+000 148 143 111
-2.299311e+000 1.533767e+000 -7.041171e+000 221 191 185
-2.299311e+000 1.533767e+000 -7.041171e+000 221 191 185
-2.986924e-001 1.537365e+000 -8.219979e+000 209 197 183
-1.561044e-001 1.385529e+000 -8.131894e+000 101 93 79
-2.994062e-001 1.088669e+000 -7.746603e+000 196 184 170
2.201415e-001 8.590797e-001 -7.639343e+000 127 109 89
1.080138e+000 9.869096e-001 -8.106876e+000 155 122 76
1.747974e+000 1.138940e+000 -8.540199e+000 195 191 149
7.517540e-001 -1.525285e-001 -6.656049e+000 100 93 78
6.988519e-001 -7.190241e-001 -6.389549e+000 118 111 64
1.959542e+000 -7.490026e-001 -7.077272e+000 66 66 38
2.608034e+000 -7.379053e-001 -7.419015e+000 83 89 62
2.687811e+000 -7.327201e-001 -7.478034e+000 62 65 47
2.885199e+000 -5.646318e-001 -7.469860e+000 60 67 43
3.153876e+000 -6.158061e-001 -7.596584e+000 63 66 44
2.074927e+000 -8.465198e-001 -7.324870e+000 62 62 34
8.162613e-001 -1.143411e+000 -6.839382e+000 93 81 43
2.534410e+000 -1.039742e+000 -7.728387e+000 91 94 67
2.534410e+000 -1.039742e+000 -7.728387e+000 91 94 67
2.656072e+000 -1.084488e+000 -7.746416e+000 88 90 66
-4.065389e-001 -1.435252e+000 -6.452577e+000 86 70 38
7.078013e-001 -1.508927e+000 -7.112882e+000 95 78 41
1.811822e+000 -1.500413e+000 -7.710303e+000 113 104 63
2.225306e+000 -1.310512e+000 -7.731404e+000 75 74 49
7.693577e-001 -1.739271e+000 -7.365640e+000 88 70 33
1.581290e+000 -1.780521e+000 -7.851955e+000 123 112 66
2.021931e+000 -1.723558e+000 -8.004289e+000 111 103 68
2.341223e+000 -1.647371e+000 -8.116911e+000 91 90 59
-2.432556e+000 -2.033067e+000 -5.861051e+000 77 71 61
1.688949e+000 -1.891535e+000 -8.030777e+000 119 110 70
-4.392555e-001 -2.228550e+000 -7.211129e+000 139 122 92
1.118383e+000 -2.308999e+000 -8.119927e+000 97 83 46
6.494964e-001 -2.475998e+000 -8.091707e+000 96 82 45
1.649786e+000 -2.421823e+000 -8.523183e+000 110 98 60
1.046089e+000 -2.724685e+000 -8.502521e+000 96 83 50
1.414308e+000 -2.682256e+000 -8.683278e+000 123 109 72
-2.206521e+000 -3.062928e+000 -7.134066e+000 101 80 59
-4.722435e+000 3.803953e+000 -8.932505e+000 185 183 143
-2.254626e+000 2.284077e+000 -7.923389e+000 210 199 196
1.855204e+000 2.067980e+000 -9.732119e+000 175 169 157
-4.151087e-001 1.412968e+000 -8.061002e+000 107 101 83
2.103135e+000 9.353356e-001 -8.509857e+000 174 163 111
1.046456e+000 -6.860577e-002 -6.904094e+000 186 173 108
6.959583e-001 -7.697437e-001 -6.439683e+000 84 75 47
3.019956e+000 -5.553107e-001 -7.497189e+000 70 75 52
3.125240e+000 -6.998727e-001 -7.665804e+000 62 67 44
-4.718642e-001 -1.152466e+000 -6.126245e+000 136 118 68
1.906911e+000 -9.180984e-001 -7.196425e+000 78 77 49
1.988635e+000 -8.923897e-001 -7.212514e+000 98 98 64
2.205363e+000 -8.834163e-001 -7.334090e+000 67 67 39
2.202009e+000 -8.875796e-001 -7.329373e+000 67 67 39
2.473836e+000 -9.963857e-001 -7.673457e+000 58 62 40
2.964333e+000 -7.778627e-001 -7.650053e+000 69 74 52
1.702620e+000 -1.157478e+000 -7.340906e+000 63 58 29
2.190471e+000 -1.175710e+000 -7.568598e+000 90 94 66
1.442138e-001 -1.438557e+000 -6.736638e+000 110 91 58
8.157055e-001 -1.579223e+000 -7.217982e+000 102 86 53
-2.798230e+000 -1.783235e+000 -5.458787e+000 83 74 65
-1.578273e+000 -1.887052e+000 -6.114011e+000 101 90 58
2.985964e-002 -1.782565e+000 -7.022300e+000 100 83 58
3.376270e-001 -1.726502e+000 -7.104280e+000 93 76 49
-1.582082e+000 -2.885712e+000 -7.340437e+000 105 90 61
-1.582082e+000 -2.885712e+000 -7.340437e+000 105 90 61
-9.301264e-001 -2.973354e+000 -7.733907e+000 101 85 59
-1.660978e+000 -3.131492e+000 -7.442240e+000 109 93 67
-1.701936e+000 -3.218617e+000 -7.626809e+000 105 90 61
-2.790369e+000 -3.477206e+000 -7.287328e+000 92 77 52
4.685267e+000 -3.605779e+000 -7.489556e+000 199 190 183
-3.004394e+000 -3.715389e+000 -7.353273e+000 86 75 53
-2.802112e+000 -3.749999e+000 -7.549131e+000 130 117 86
-4.406374e+000 3.221255e+000 -8.331060e+000 197 186 141
-3.316601e-001 3.630240e+000 -1.062438e+001 194 163 134
4.755890e-001 3.298962e+000 -1.060885e+001 202 180 141
1.596055e+000 1.103761e+000 -8.450093e+000 195 189 160
-2.625937e+000 -6.981896e-001 -4.535947e+000 164 174 122
1.677366e+000 -6.921672e-001 -6.900688e+000 105 103 64
6.412926e-001 -9.036993e-001 -6.514341e+000 86 73 38
5.231987e-001 -1.105332e+000 -6.637195e+000 137 120 66
5.263415e-001 -1.103974e+000 -6.643148e+000 137 120 66
1.621659e+000 -8.948236e-001 -7.038070e+000 114 108 66
-5.793030e-001 -1.300443e+000 -6.200810e+000 124 109 70
1.472925e+000 -1.406299e+000 -7.415091e+000 136 119 63
-2.437629e+000 -1.738988e+000 -5.571384e+000 75 71 65
-1.819774e+000 -2.134809e+000 -6.239397e+000 79 74 67
-1.486551e+000 -2.620849e+000 -7.043941e+000 106 88 66
-2.013118e+000 -3.047331e+000 -7.211819e+000 144 128 95
-2.401018e+000 -3.188702e+000 -7.133715e+000 109 93 66
-1.844864e+000 -3.204116e+000 -7.413092e+000 116 100 75
-1.843259e+000 -3.579673e+000 -7.893488e+000 99 87 61
-2.583792e+000 -3.662769e+000 -7.564083e+000 99 87 63
-3.510908e+000 -8.475562e-001 -6.090133e+000 196 165 113
3.348527e-001 -1.127632e+000 -6.562661e+000 137 121 70
-1.625486e+000 -1.459723e+000 -5.750247e+000 75 73 60
-5.814619e-001 -1.482693e+000 -6.394735e+000 139 119 67
7.280696e-001 -1.381545e+000 -6.977337e+000 83 68 37
1.437224e-001 -1.790983e+000 -7.064185e+000 159 136 92
-2.042296e+000 -1.997638e+000 -6.027283e+000 150 130 120
-3.694880e+000 -3.803022e+000 -7.509823e+000 127 111 77
-4.714901e+000 4.026352e+000 -9.248499e+000 171 168 126
-2.359370e+000 2.746752e+000 -8.504697e+000 149 93 92
3.639681e+000 2.030304e-001 -8.194222e+000 120 129 110
-6.940372e-001 -1.323598e+000 -6.209866e+000 137 119 70
2.306005e-001 -1.530230e+000 -6.804243e+000 158 136 91
2.306005e-001 -1.530230e+000 -6.804243e+000 158 136 91
-1.721338e+000 -1.742762e+000 -5.878963e+000 83 80 65
3.685772e+000 -1.982159e+000 -8.983479e+000 118 104 93
-3.406975e-001 -2.441156e+000 -7.505471e+000 151 133 97
-1.190989e+000 -2.925874e+000 -7.550121e+000 124 109 76
-1.434661e+000 -3.546085e+000 -8.121766e+000 127 114 82
-1.227187e+000 -3.803493e+000 -8.595632e+000 111 96 67
-1.467790e+000 1.509986e+000 -7.268112e+000 209 187 130
4.207832e-001 5.123370e-001 -7.254219e+000 202 186 137
6.430842e-001 1.269702e-001 -6.904748e+000 195 179 120
1.005861e+000 -1.102999e+000 -6.858252e+000 132 117 60
-1.898126e+000 -1.474818e+000 -5.588435e+000 70 71 61
2.741650e-001 -1.376211e+000 -6.693026e+000 154 133 83
2.741650e-001 -1.376211e+000 -6.693026e+000 154 133 83
-1.416881e+000 -1.935659e+000 -6.234805e+000 112 97 67
-2.115471e+000 -2.182937e+000 -6.097179e+000 82 75 67
-9.027430e-001 -2.175068e+000 -6.938984e+000 118 101 75
1.294800e+000 -2.135467e+000 -8.048135e+000 98 85 51
2.251118e+000 2.468945e+000 -1.021071e+001 111 124 104
2.870393e+000 2.260991e+000 -1.018655e+001 181 183 174
-2.450366e-001 1.417177e+000 -8.311822e+000 122 114 96
2.909905e+000 -2.645624e-001 -7.385720e+000 119 136 93
-4.215696e-002 -9.586416e-001 -6.217101e+000 135 118 62
5.242045e-002 4.074492e+000 -1.141928e+001 154 120 104
-2.271733e+000 1.968503e+000 -7.587722e+000 181 141 142
-1.518263e+000 9.372500e-001 -6.752142e+000 211 201 187
-2.263464e+000 -1.856779e+000 -5.742459e+000 65 65 55
-1.431455e+000 -1.856624e+000 -6.140034e+000 107 96 65
1.598975e+000 3.861417e+000 -1.183034e+001 103 106 95
5.085625e-001 -1.792020e+000 -7.152750e+000 133 117 81
5.085625e-001 -1.792020e+000 -7.152750e+000 133 117 81
1.258665e+000 -1.259611e+000 -7.125885e+000 140 124 67
2.714062e+000 -6.339589e-001 -7.400944e+000 64 67 46
8.118728e-001 -1.049125e+000 -6.739246e+000 130 117 72
-2.284395e+000 -1.453934e+000 -5.395065e+000 74 68 55
4.436703e-001 -1.238864e+000 -6.728558e+000 118 104 66
4.923214e-001 -1.218042e+000 -6.719797e+000 81 67 32
-2.056547e+000 -1.486674e+000 -5.531646e+000 78 71 59
-2.030026e+000 -1.643951e+000 -5.683978e+000 116 92 80
2.457035e-001 -1.859839e+000 -7.201183e+000 128 112 80
9.073845e-001 -2.019889e+000 -7.726282e+000 101 84 53
2.124395e+000 -1.865927e+000 -8.225722e+000 102 97 63
-1.982958e+000 -2.178591e+000 -6.182979e+000 105 97 84
1.233543e+000 -2.417743e+000 -8.318728e+000 107 93 59
-2.144191e+000 -2.903529e+000 -7.009075e+000 144 124 90
-7.884585e-001 -3.053818e+000 -7.877722e+000 109 92 60
7.840361e-001 -2.953773e+000 -8.651635e+000 93 79 45
1.331600e+000 -7.933848e-001 -6.840819e+000 114 111 67
2.028819e+000 -7.518788e-001 -7.117912e+000 91 92 61
2.336923e+000 -6.798533e-001 -7.208661e+000 85 92 63
-1.595486e-001 -1.311049e+000 -6.447276e+000 143 129 84
1.689543e-001 -1.316538e+000 -6.622291e+000 103 87 54
7.743621e-001 -1.287944e+000 -7.000485e+000 99 85 50
7.743621e-001 -1.287944e+000 -7.000485e+000 99 85 50
2.287809e+000 -1.356777e+000 -7.826803e+000 96 96 67
2.291168e+000 -1.353769e+000 -7.841334e+000 96 96 67
2.595042e+000 -1.275957e+000 -7.882770e+000 85 88 61
-2.627770e+000 -1.898340e+000 -5.640821e+000 91 83 70
-3.041418e-001 -1.842936e+000 -6.884295e+000 150 130 95
6.971154e-001 -1.747212e+000 -7.310501e+000 135 117 77
6.978403e-001 -1.745379e+000 -7.316071e+000 135 117 77
2.529302e+000 -1.749917e+000 -8.357819e+000 64 67 41
-2.621115e+000 -1.959456e+000 -5.699901e+000 89 83 70
-2.683539e+000 -2.001860e+000 -5.716283e+000 128 122 108
-2.597910e+000 -2.131325e+000 -5.877052e+000 111 106 92
-4.186513e-001 -1.987681e+000 -6.949107e+000 111 93 64
2.114081e-001 -2.325479e+000 -7.620976e+000 135 120 78
1.382819e+000 -2.362052e+000 -8.309129e+000 127 112 70
1.516581e+000 -2.390081e+000 -8.426866e+000 118 104 65
1.043436e+000 -2.724635e+000 -8.500246e+000 96 83 50
-1.193564e+000 -3.073901e+000 -7.688800e+000 138 119 85
-1.427231e+000 -3.245736e+000 -7.730504e+000 79 63 48
1.541794e-001 -3.696898e+000 -9.126225e+000 146 131 92
1.541794e-001 -3.696898e+000 -9.126225e+000 146 131 92
-3.125145e+000 -3.615114e+000 -7.239867e+000 100 85 60
7.742380e-001 -7.224068e-001 -6.435902e+000 111 107 60
1.988172e+000 -6.326144e-001 -7.015285e+000 65 66 40
2.198788e+000 -6.747504e-001 -7.147805e+000 91 94 65
3.123288e+000 -6.964993e-001 -7.666849e+000 62 67 44
2.045264e+000 -9.629467e-001 -7.309753e+000 74 74 46
2.419875e+000 -1.120405e+000 -7.608784e+000 61 63 41
2.590217e+000 -1.119651e+000 -7.804437e+000 64 66 45
1.722255e+000 -1.532768e+000 -7.637521e+000 82 73 41
-8.938410e-001 -1.857204e+000 -6.579175e+000 116 101 68
1.385394e+000 -1.683079e+000 -7.623621e+000 141 121 65
1.388825e+000 -1.680934e+000 -7.630635e+000 141 121 65
2.289723e+000 -1.592235e+000 -8.053048e+000 72 71 41
-1.878343e+000 -1.939251e+000 -6.016743e+000 138 126 110
5.151988e-001 -1.888729e+000 -7.384562e+000 126 110 76
-8.172528e-001 -2.468923e+000 -7.265017e+000 133 116 89
-1.541237e+000 -2.793836e+000 -7.164136e+000 96 80 55
-1.541237e+000 -2.793836e+000 -7.164136e+000 96 80 55
7.253729e-002 -2.922581e+000 -8.236333e+000 84 72 43
1.106876e-001 -3.005979e+000 -8.314914e+000 129 116 82
-2.447367e+000 -3.372185e+000 -7.263077e+000 104 90 62
-2.463444e+000 -3.361529e+000 -7.331298e+000 104 90 62
-1.257233e+000 -3.234959e+000 -7.847895e+000 138 122 89
-2.895166e+000 -3.572116e+000 -7.292476e+000 119 105 76
-3.888117e+000 -3.637276e+000 -7.641299e+000 164 145 108
-5.331798e-001 -1.213100e+000 -6.193656e+000 114 98 62
-5.957796e-001 -1.783401e+000 -6.691373e+000 124 108 73
-6.436309e-001 -2.735772e+000 -7.615508e+000 119 100 68
-2.358534e+000 -3.062560e+000 -7.032659e+000 94 80 53
3.012585e+000 1.887976e+000 -1.013995e+001 90 98 83
-3.597568e-001 -8.369329e-001 -5.960743e+000 127 110 61
1.837694e+000 -6.345229e-001 -6.913403e+000 62 65 35
3.477056e+000 -5.558795e-001 -7.657386e+000 64 72 50
-6.533167e-001 -1.067650e+000 -5.987843e+000 131 117 69
-6.159134e-002 -1.080126e+000 -6.302716e+000 101 90 45
1.858340e+000 -8.447585e-001 -7.112607e+000 106 107 73
2.173712e+000 -7.543347e-001 -7.240354e+000 92 97 66
2.442769e+000 -8.161466e-001 -7.377074e+000 90 100 68
2.738872e+000 -7.854575e-001 -7.515335e+000 89 95 69
3.664029e+000 -5.805868e-001 -7.809010e+000 79 89 65
-2.279688e+000 -1.457947e+000 -5.409782e+000 78 74 62
-2.279090e+000 -1.457934e+000 -5.411218e+000 78 74 62
-2.234953e+000 -1.443665e+000 -5.402069e+000 139 133 119
-2.236421e+000 -1.434053e+000 -5.434017e+000 139 133 119
-4.666879e-001 -1.232820e+000 -6.209550e+000 136 123 80
-4.666879e-001 -1.232820e+000 -6.209550e+000 136 123 80
-5.003062e-001 -1.329975e+000 -6.298746e+000 138 126 76
1.816251e+000 -1.013349e+000 -7.243061e+000 105 105 65
2.122718e+000 -1.115903e+000 -7.395106e+000 61 64 33
3.094352e+000 -1.045991e+000 -7.933372e+000 85 93 65
3.377155e+000 -8.373587e-001 -7.901629e+000 53 61 40
-2.815083e+000 -1.661570e+000 -5.338129e+000 126 116 86
-2.645081e+000 -1.669838e+000 -5.450066e+000 80 75 65
-2.644162e+000 -1.677728e+000 -5.438623e+000 80 75 65
-2.501512e+000 -1.588805e+000 -5.417053e+000 79 76 61
-2.501776e+000 -1.587417e+000 -5.421717e+000 79 76 61
-2.499967e+000 -1.663144e+000 -5.468000e+000 81 78 67
-2.309928e+000 -1.523882e+000 -5.454853e+000 76 70 58
-2.210082e+000 -1.484807e+000 -5.471772e+000 77 75 60
-2.168777e+000 -1.544225e+000 -5.557603e+000 84 74 62
-2.072060e+000 -1.481440e+000 -5.522535e+000 81 77 63
-2.098080e+000 -1.596492e+000 -5.617793e+000 81 69 55
-2.036663e+000 -1.633143e+000 -5.690894e+000 84 67 56
-1.802219e+000 -1.559656e+000 -5.745915e+000 81 79 67
-6.014038e-001 -1.552526e+000 -6.458232e+000 73 61 27
-2.644687e-001 -1.351871e+000 -6.446222e+000 145 130 86
1.030459e-001 -1.325383e+000 -6.627128e+000 137 125 85
-6.315034e-002 -1.480826e+000 -6.680877e+000 142 127 84
-6.457000e-002 -1.480049e+000 -6.681605e+000 142 127 84
7.264128e-002 -1.434151e+000 -6.703218e+000 140 127 84
3.850953e-001 -1.415946e+000 -6.868040e+000 146 130 92
2.622262e+000 -1.187644e+000 -7.830045e+000 88 95 65
2.622034e+000 -1.187860e+000 -7.830471e+000 88 95 65
3.182835e+000 -1.243838e+000 -8.198562e+000 81 86 61
-2.679945e+000 -1.786313e+000 -5.529237e+000 138 134 123
-1.950857e+000 -1.749143e+000 -5.842134e+000 73 69 59
-1.723190e+000 -1.671410e+000 -5.848642e+000 74 72 57
-1.786333e+000 -1.711859e+000 -5.874626e+000 74 72 57
-1.901003e+000 -1.858022e+000 -5.943111e+000 132 129 114
-1.896554e+000 -1.854664e+000 -5.948212e+000 132 129 114
-1.791046e+000 -1.826100e+000 -5.974172e+000 74 75 59
-1.566458e+000 -1.805076e+000 -6.054939e+000 97 91 59
-1.423198e+000 -1.706631e+000 -6.037873e+000 119 110 76
-1.573952e-001 -1.750830e+000 -6.872134e+000 149 134 86
-1.694915e-003 -1.661800e+000 -6.887721e+000 150 136 91
7.433582e-001 -1.603583e+000 -7.219854e+000 153 137 87
7.413526e-001 -1.610256e+000 -7.199040e+000 153 137 87
1.878240e+000 -1.524519e+000 -7.747717e+000 72 68 38
1.643110e+000 -1.566180e+000 -7.610676e+000 122 114 71
1.643110e+000 -1.566180e+000 -7.610676e+000 122 114 71
1.635021e+000 -1.600384e+000 -7.691306e+000 126 119 74
1.616171e+000 -1.661243e+000 -7.741960e+000 133 123 75
1.965542e+000 -1.464006e+000 -7.718567e+000 113 111 70
1.966919e+000 -1.461242e+000 -7.725968e+000 113 111 70
2.247890e+000 -1.499225e+000 -7.910637e+000 98 99 68
2.791693e+000 -1.590464e+000 -8.339509e+000 86 92 62
-2.564570e+000 -1.990814e+000 -5.687514e+000 146 135 117
-2.527746e+000 -2.040334e+000 -5.836978e+000 135 128 114
-2.447340e+000 -1.970255e+000 -5.804478e+000 85 75 61
-2.019429e+000 -2.063804e+000 -6.071832e+000 79 70 61
-1.867774e+000 -1.886469e+000 -5.988380e+000 83 78 67
-1.871091e+000 -1.884002e+000 -5.991607e+000 83 78 67
-1.804941e+000 -1.875100e+000 -6.016419e+000 74 75 58
-1.807821e+000 -1.926366e+000 -6.047712e+000 77 77 62
-1.925649e+000 -2.085162e+000 -6.162815e+000 134 131 116
-1.880766e+000 -2.073460e+000 -6.139767e+000 72 70 58
-1.882087e+000 -2.072581e+000 -6.137063e+000 72 70 58
-1.769473e+000 -1.992193e+000 -6.124453e+000 141 126 96
-1.802119e+000 -2.074278e+000 -6.218238e+000 76 69 57
-1.508545e+000 -1.945923e+000 -6.179063e+000 131 116 77
-1.440798e+000 -1.974019e+000 -6.261985e+000 130 120 85
-8.296989e-001 -1.857737e+000 -6.645726e+000 75 58 29
-9.431083e-001 -1.987679e+000 -6.710418e+000 136 121 87
-1.266602e-001 -1.829621e+000 -6.987242e+000 74 57 38
-7.333524e-002 -1.893418e+000 -7.064036e+000 140 125 92
-7.304448e-002 -1.889460e+000 -7.075398e+000 140 125 92
4.340598e-002 -1.916256e+000 -7.149683e+000 148 134 99
2.792263e-001 -1.753017e+000 -7.120165e+000 152 136 97
1.795090e+000 -1.761167e+000 -7.944478e+000 70 64 32
2.295568e+000 -1.779738e+000 -8.206653e+000 105 105 72
2.854457e+000 -1.716813e+000 -8.447973e+000 91 97 71
2.863829e+000 -1.788735e+000 -8.501079e+000 88 92 67
-2.556421e+000 -2.206545e+000 -5.967822e+000 82 78 67
-2.483987e+000 -2.119378e+000 -5.932976e+000 80 75 64
-9.593839e-001 -2.045390e+000 -6.766420e+000 152 139 106
-9.735275e-001 -2.093396e+000 -6.795894e+000 142 129 97
-8.491931e-001 -2.076484e+000 -6.854400e+000 149 133 108
-2.535122e-001 -2.044966e+000 -7.176662e+000 149 133 100
-2.535122e-001 -2.044966e+000 -7.176662e+000 149 133 100
-3.081306e-001 -2.227542e+000 -7.291607e+000 146 131 92
-1.334123e-001 -2.080946e+000 -7.230775e+000 149 134 100
-1.334123e-001 -2.080946e+000 -7.230775e+000 149 134 100
-1.707067e-002 -2.105038e+000 -7.299853e+000 145 132 89
1.925881e-001 -2.174526e+000 -7.515778e+000 80 64 41
5.616889e-001 -2.161888e+000 -7.693736e+000 146 130 83
1.656712e+000 -1.989386e+000 -8.083279e+000 122 110 67
1.784426e+000 -2.023118e+000 -8.161927e+000 122 114 68
1.631674e+000 -2.062289e+000 -8.142091e+000 132 119 75
1.631674e+000 -2.062289e+000 -8.142091e+000 132 119 75
2.061655e+000 -2.068167e+000 -8.388557e+000 106 104 65
2.365855e+000 -2.006678e+000 -8.478966e+000 100 102 66
2.366107e+000 -2.008125e+000 -8.475579e+000 100 102 66
2.684264e+000 -1.893877e+000 -8.547848e+000 89 92 64
2.729495e+000 -1.982418e+000 -8.724319e+000 55 57 36
2.773083e+000 -2.041114e+000 -8.761911e+000 85 89 64
3.265698e+000 -1.841557e+000 -8.838661e+000 77 80 58
-1.032049e+000 -2.260251e+000 -6.927215e+000 138 123 96
-3.162350e-001 -2.447745e+000 -7.490428e+000 155 136 95
-2.063310e-001 -2.289440e+000 -7.410671e+000 149 134 92
5.368321e-001 -2.234977e+000 -7.743278e+000 139 125 81
9.201062e-001 -2.393770e+000 -8.088458e+000 141 126 80
9.201062e-001 -2.393770e+000 -8.088458e+000 141 126 80
1.325770e+000 -2.335517e+000 -8.251273e+000 80 69 37
1.362943e+000 -2.410344e+000 -8.393469e+000 126 116 65
1.458531e+000 -2.355561e+000 -8.344879e+000 75 63 33
1.957356e+000 -2.394828e+000 -8.672774e+000 107 102 64
2.095003e+000 -2.380899e+000 -8.685197e+000 106 103 68
2.406295e+000 -2.302064e+000 -8.789556e+000 99 100 68
3.080305e+000 -2.376737e+000 -9.240973e+000 78 83 60
3.080305e+000 -2.376737e+000 -9.240973e+000 78 83 60
-9.972170e-001 -2.523756e+000 -7.218909e+000 143 128 97
-1.033095e+000 -2.637682e+000 -7.300423e+000 139 125 97
-6.476801e-001 -2.545344e+000 -7.424066e+000 148 130 92
-5.775599e-001 -2.642170e+000 -7.576649e+000 145 130 90
-5.784111e-001 -2.652057e+000 -7.548012e+000 145 130 90
-4.346438e-001 -2.578870e+000 -7.638924e+000 149 136 93
-2.190295e-001 -2.511338e+000 -7.598942e+000 104 90 55
-1.476268e-001 -2.503481e+000 -7.698517e+000 139 124 79
5.477981e-001 -2.590764e+000 -8.111413e+000 137 123 76
5.479461e-001 -2.588879e+000 -8.124349e+000 137 123 76
5.205296e-001 -2.656971e+000 -8.176552e+000 143 129 89
8.636617e-001 -2.554544e+000 -8.235809e+000 142 128 83
8.894574e-001 -2.589368e+000 -8.295006e+000 77 63 28
1.474404e+000 -2.509587e+000 -8.413288e+000 128 115 71
1.798968e+000 -2.590631e+000 -8.699354e+000 80 70 44
1.913967e+000 -2.482843e+000 -8.714530e+000 111 105 73
2.073590e+000 -2.660958e+000 -8.993940e+000 70 66 38
2.073590e+000 -2.660958e+000 -8.993940e+000 70 66 38
2.531686e+000 -2.565644e+000 -9.165634e+000 59 63 40
2.774700e+000 -2.468229e+000 -9.165447e+000 82 84 62
3.104093e+000 -2.531845e+000 -9.484783e+000 58 62 39
-1.898639e+000 -2.812448e+000 -7.060432e+000 132 117 79
-1.931191e+000 -2.908307e+000 -7.118096e+000 140 124 93
-1.952185e+000 -2.975075e+000 -7.169794e+000 135 123 92
-1.619147e+000 -2.787321e+000 -7.150588e+000 144 130 98
-1.628260e+000 -2.837837e+000 -7.189831e+000 143 128 96
-1.628260e+000 -2.837837e+000 -7.189831e+000 143 128 96
-1.217035e+000 -2.796588e+000 -7.415117e+000 146 129 101
-1.238203e+000 -2.873180e+000 -7.439533e+000 147 134 98
-8.852999e-001 -2.737094e+000 -7.485473e+000 141 127 92
-7.249723e-001 -2.749978e+000 -7.604340e+000 150 134 97
-6.734710e-001 -2.927330e+000 -7.792801e+000 149 135 100
-2.294299e-001 -2.731864e+000 -7.824252e+000 140 125 87
-2.479008e-001 -2.945696e+000 -8.056919e+000 85 71 42
2.504469e-001 -2.893102e+000 -8.261020e+000 92 78 49
3.340600e-001 -2.825543e+000 -8.213544e+000 138 125 81
3.340600e-001 -2.825543e+000 -8.213544e+000 138 125 81
1.334727e+000 -2.927901e+000 -8.890699e+000 135 124 78
1.665973e+000 -2.800920e+000 -8.934417e+000 120 111 72
2.248580e+000 -2.771947e+000 -9.224930e+000 91 90 60
-2.614982e+000 -3.193578e+000 -7.055373e+000 136 121 88
-2.089886e+000 -3.094069e+000 -7.251882e+000 86 69 42
-2.093266e+000 -3.092277e+000 -7.267542e+000 86 69 42
-2.010821e+000 -2.987218e+000 -7.155591e+000 95 82 55
-2.001289e+000 -3.087878e+000 -7.271550e+000 140 125 91
-2.030303e+000 -3.171783e+000 -7.310383e+000 139 125 95
-1.611221e+000 -3.053223e+000 -7.442696e+000 101 84 54
-9.806678e-001 -2.998661e+000 -7.729242e+000 138 123 94
-6.539271e-001 -3.020863e+000 -7.905566e+000 96 83 53
-6.529816e-001 -3.214535e+000 -8.116265e+000 136 122 81
-6.532597e-001 -3.215603e+000 -8.116951e+000 136 122 81
-3.862543e-001 -3.173345e+000 -8.229711e+000 134 122 84
-2.799153e-001 -3.082804e+000 -8.161210e+000 99 88 58
-3.912165e-002 -3.047576e+000 -8.293177e+000 130 120 85
-3.831431e-002 -3.047093e+000 -8.292567e+000 130 120 85
2.657205e-001 -3.014900e+000 -8.419757e+000 138 125 86
3.859876e-001 -3.054560e+000 -8.506054e+000 137 125 86
6.515568e-001 -3.155973e+000 -8.773081e+000 140 128 89
1.084600e+000 -3.007964e+000 -8.825024e+000 85 75 40
1.163972e+000 -2.988719e+000 -8.853196e+000 137 125 85
1.165077e+000 -2.984138e+000 -8.869093e+000 137 125 85
1.378224e+000 -3.193503e+000 -9.211217e+000 127 118 74
2.521486e+000 -2.994205e+000 -9.578966e+000 64 68 43
2.410673e+000 -3.121416e+000 -9.696894e+000 89 89 60
-3.208003e+000 -3.408798e+000 -6.990224e+000 85 71 38
-2.787483e+000 -3.285076e+000 -7.066493e+000 129 115 79
-2.012405e+000 -3.397290e+000 -7.553753e+000 85 74 46
-1.928422e+000 -3.293104e+000 -7.528808e+000 133 120 86
-1.762774e+000 -3.237488e+000 -7.552317e+000 135 124 93
-1.599522e+000 -3.316953e+000 -7.753712e+000 67 49 46
-8.423198e-001 -3.401371e+000 -8.168891e+000 139 125 87
-4.731659e-001 -3.409681e+000 -8.437860e+000 142 129 87
-4.732046e-001 -3.408807e+000 -8.438845e+000 142 129 87
-4.942168e-002 -3.263934e+000 -8.517162e+000 84 72 50
1.534245e-001 -3.323698e+000 -8.714479e+000 143 131 93
5.500695e-001 -3.420574e+000 -9.009896e+000 139 126 90
1.494303e+000 -3.263254e+000 -9.376129e+000 125 117 81
2.663967e+000 -3.238139e+000 -9.998016e+000 85 86 56
3.155432e+000 -3.422575e+000 -1.045420e+001 87 74 58
-2.767527e+000 -3.659656e+000 -7.475560e+000 129 118 86
-2.043002e+000 -3.585059e+000 -7.804019e+000 128 119 88
-1.941526e+000 -3.502052e+000 -7.746971e+000 81 71 46
-1.859348e+000 -3.664642e+000 -7.967313e+000 133 123 88
-9.613413e-001 -3.703505e+000 -8.498192e+000 143 128 89
-8.073428e-001 -3.635400e+000 -8.508615e+000 137 123 88
-8.073428e-001 -3.635400e+000 -8.508615e+000 137 123 88
-7.130587e-001 -3.699536e+000 -8.619592e+000 140 127 83
2.079082e-001 -3.533609e+000 -8.930320e+000 141 128 86
1.883245e-001 -3.580854e+000 -8.996938e+000 136 124 84
1.638129e-001 -3.642159e+000 -9.051957e+000 134 122 84
1.644755e-001 -3.644132e+000 -9.055374e+000 134 122 84
1.126429e+000 -3.486209e+000 -9.483961e+000 138 124 88
1.257349e+000 -3.521702e+000 -9.502988e+000 125 115 80
1.227547e+000 -3.602372e+000 -9.547643e+000 126 112 82
1.225515e+000 -3.599484e+000 -9.558623e+000 126 112 82
1.500023e+000 -3.635755e+000 -9.712042e+000 121 111 82
1.657021e+000 -3.591507e+000 -9.791510e+000 108 101 72
1.659384e+000 -3.588859e+000 -9.807871e+000 108 101 72
-2.311486e+000 -3.747217e+000 -7.772999e+000 124 115 84
-7.186479e-001 -3.769641e+000 -8.707466e+000 144 126 79
1.078945e+000 -6.945521e-001 -6.577404e+000 109 108 60
1.078945e+000 -6.945521e-001 -6.577404e+000 109 108 60
2.062292e+000 -6.407373e-001 -7.045516e+000 96 101 69
2.136350e+000 -6.236155e-001 -7.058264e+000 65 69 45
2.136140e+000 -6.232623e-001 -7.055681e+000 65 69 45
3.609089e+000 -5.488396e-001 -7.770722e+000 62 71 50
-4.410907e-001 -9.290120e-001 -5.964537e+000 74 64 37
-4.050484e-001 -9.790737e-001 -6.063762e+000 127 118 61
1.496416e+000 -8.484794e-001 -6.924412e+000 113 113 65
2.314635e+000 -7.599927e-001 -7.268625e+000 91 98 65
2.317648e+000 -7.530731e-001 -7.281094e+000 91 98 65
2.274678e+000 -9.028807e-001 -7.357593e+000 99 105 69
2.273704e+000 -9.022391e-001 -7.356101e+000 99 105 69
2.853389e+000 -6.772401e-001 -7.472675e+000 60 63 44
2.765423e+000 -7.043362e-001 -7.482970e+000 90 96 70
3.182445e+000 -7.743530e-001 -7.814092e+000 85 94 65
3.209804e+000 -6.538409e-001 -7.660940e+000 91 97 67
3.209804e+000 -6.538409e-001 -7.660940e+000 91 97 67
3.434774e+000 -6.298929e-001 -7.739027e+000 62 66 48
-2.285964e+000 -1.442110e+000 -5.392209e+000 78 74 63
-8.329858e-002 -1.120921e+000 -6.352737e+000 134 122 72
7.215305e-002 -1.072449e+000 -6.370232e+000 110 102 56
1.297166e-002 -1.211324e+000 -6.411272e+000 132 121 69
1.304600e-002 -1.200325e+000 -6.435926e+000 132 121 69
1.172294e-001 -1.280749e+000 -6.590319e+000 135 126 85
1.679502e+000 -9.639277e-001 -7.131658e+000 89 86 51
1.722219e+000 -1.089899e+000 -7.250637e+000 67 63 39
1.790981e+000 -1.082102e+000 -7.277782e+000 115 112 73
1.793620e+000 -1.077783e+000 -7.282432e+000 115 112 73
1.936457e+000 -1.061218e+000 -7.326471e+000 104 104 68
2.243345e+000 -1.011370e+000 -7.466826e+000 97 103 67
2.242980e+000 -1.011310e+000 -7.466457e+000 97 103 67
2.783334e+000 -9.010244e-001 -7.647770e+000 59 65 37
2.770250e+000 -9.522333e-001 -7.750384e+000 59 64 42
2.770250e+000 -9.522333e-001 -7.750384e+000 59 64 42
2.829047e+000 -9.722194e-001 -7.723728e+000 88 94 68
2.939123e+000 -8.639424e-001 -7.719725e+000 59 67 44
3.122037e+000 -9.642312e-001 -7.884860e+000 88 93 67
3.390738e+000 -9.937740e-001 -7.995396e+000 86 95 68
-2.586988e+000 -1.677233e+000 -5.463329e+000 122 116 101
-2.324477e+000 -1.484832e+000 -5.403146e+000 125 121 109
-2.325387e+000 -1.482841e+000 -5.406921e+000 125 121 109
-1.849234e+000 -1.633941e+000 -5.781842e+000 77 72 59
-8.977959e-001 -1.458664e+000 -6.220792e+000 78 65 49
-7.658257e-001 -1.453920e+000 -6.287975e+000 131 121 67
-5.599319e-001 -1.514792e+000 -6.444600e+000 135 120 69
-5.621911e-001 -1.517974e+000 -6.437624e+000 135 120 69
-1.610266e-001 -1.368184e+000 -6.506459e+000 139 123 79
-1.708167e-001 -1.401155e+000 -6.572131e+000 145 130 87
-1.838272e-001 -1.437692e+000 -6.616990e+000 139 126 81
7.417105e-001 -1.397216e+000 -7.017605e+000 82 69 35
1.741136e+000 -1.252337e+000 -7.475087e+000 115 112 70
1.709474e+000 -1.381551e+000 -7.521869e+000 121 113 63
2.040218e+000 -1.209673e+000 -7.489307e+000 105 106 72
2.040218e+000 -1.209673e+000 -7.489307e+000 105 106 72
2.188207e+000 -1.183717e+000 -7.551840e+000 99 103 70
1.920609e+000 -1.379976e+000 -7.631112e+000 66 65 35
2.146364e+000 -1.340934e+000 -7.716251e+000 102 104 65
2.146364e+000 -1.340934e+000 -7.716251e+000 102 104 65
2.222087e+000 -1.319504e+000 -7.717815e+000 65 67 43
2.295120e+000 -1.329158e+000 -7.783966e+000 98 101 70
2.295120e+000 -1.329158e+000 -7.783966e+000 98 101 70
2.550274e+000 -1.227555e+000 -7.823899e+000 60 65 41
2.757863e+000 -1.229379e+000 -7.937605e+000 90 94 67
3.003811e+000 -1.133553e+000 -8.010930e+000 55 60 37
-2.617962e+000 -1.827085e+000 -5.590031e+000 79 73 63
-2.136737e+000 -1.788956e+000 -5.778651e+000 149 133 117
-2.002418e+000 -1.836029e+000 -5.906389e+000 80 76 68
-1.999917e+000 -1.837587e+000 -5.903206e+000 80 76 68
-1.875717e+000 -1.684905e+000 -5.817377e+000 77 73 62
-2.162491e-001 -1.554802e+000 -6.677337e+000 146 131 89
-2.853291e-001 -1.760000e+000 -6.811845e+000 150 135 90
-2.853291e-001 -1.760000e+000 -6.811845e+000 150 135 90
4.220259e-001 -1.503302e+000 -6.940781e+000 82 69 38
4.174957e-001 -1.707143e+000 -7.149118e+000 148 134 96
4.174957e-001 -1.707143e+000 -7.149118e+000 148 134 96
7.658650e-001 -1.532762e+000 -7.157034e+000 144 131 76
7.638384e-001 -1.538469e+000 -7.155848e+000 144 131 76
7.251177e-001 -1.656361e+000 -7.246383e+000 150 135 82
1.131959e+000 -1.544522e+000 -7.369268e+000 86 73 45
1.090005e+000 -1.694877e+000 -7.481252e+000 86 69 44
1.585705e+000 -1.531462e+000 -7.580727e+000 82 73 46
1.582528e+000 -1.536740e+000 -7.569261e+000 82 73 46
1.804980e+000 -1.515539e+000 -7.678011e+000 121 117 71
1.848288e+000 -1.608917e+000 -7.801163e+000 74 70 41
2.037087e+000 -1.450945e+000 -7.750405e+000 71 66 41
1.943777e+000 -1.534746e+000 -7.793099e+000 113 109 72
1.918773e+000 -1.610620e+000 -7.847762e+000 112 108 62
1.990953e+000 -1.615232e+000 -7.908892e+000 77 70 42
1.989386e+000 -1.617745e+000 -7.901475e+000 77 70 42
2.166446e+000 -1.531374e+000 -7.921099e+000 73 73 46
2.163383e+000 -1.538574e+000 -7.907853e+000 73 73 46
2.198342e+000 -1.636276e+000 -8.000250e+000 105 106 63
2.205919e+000 -1.619492e+000 -8.056410e+000 105 106 63
2.328936e+000 -1.434819e+000 -7.905664e+000 67 69 45
2.440465e+000 -1.565652e+000 -8.080945e+000 67 69 45
2.533561e+000 -1.501360e+000 -8.141034e+000 91 98 65
2.884959e+000 -1.509574e+000 -8.270724e+000 63 69 43
2.884021e+000 -1.510467e+000 -8.272294e+000 63 69 43
3.027507e+000 -1.506751e+000 -8.365492e+000 61 65 47
3.323103e+000 -1.466844e+000 -8.548578e+000 56 61 38
3.455934e+000 -1.472163e+000 -8.569201e+000 57 60 40
-2.685719e+000 -1.998801e+000 -5.719188e+000 124 117 103
-2.685719e+000 -1.998801e+000 -5.719188e+000 124 117 103
-2.570940e+000 -2.072502e+000 -5.843901e+000 79 79 68
-1.992567e+000 -1.906545e+000 -5.949811e+000 154 142 129
-2.112693e+000 -2.000749e+000 -5.947012e+000 74 73 64
-2.118581e+000 -1.993149e+000 -5.962177e+000 74 73 64
-1.486672e+000 -1.885075e+000 -6.155741e+000 127 115 79
-5.673189e-001 -1.961656e+000 -6.868602e+000 92 78 52
-3.524311e-001 -1.791167e+000 -6.821227e+000 87 71 45
-1.983778e-001 -1.869364e+000 -6.946444e+000 148 130 92
-3.430818e-001 -1.945222e+000 -6.974503e+000 158 138 105
-2.068806e-001 -1.914229e+000 -7.001624e+000 151 133 100
8.604609e-002 -1.817141e+000 -7.071780e+000 157 136 83
-9.740602e-002 -1.971698e+000 -7.134079e+000 149 135 100
-1.445396e-002 -1.898388e+000 -7.103173e+000 88 73 44
3.556514e-001 -1.895525e+000 -7.301853e+000 146 132 93
3.575800e-001 -1.897645e+000 -7.286648e+000 146 132 93
6.084439e-001 -1.821577e+000 -7.354643e+000 80 66 41
6.715023e-001 -1.826542e+000 -7.400092e+000 150 136 85
4.263157e-001 -1.871944e+000 -7.304500e+000 72 60 32
1.513065e+000 -1.763295e+000 -7.822357e+000 86 77 45
1.528842e+000 -1.924992e+000 -7.923867e+000 138 128 76
1.895861e+000 -1.686918e+000 -7.918356e+000 119 116 65
1.684153e+000 -1.901395e+000 -8.004941e+000 125 115 65
1.769437e+000 -1.851060e+000 -7.989005e+000 79 70 39
1.769437e+000 -1.851060e+000 -7.989005e+000 79 70 39
2.265667e+000 -1.643286e+000 -8.087166e+000 65 65 36
2.442082e+000 -1.761123e+000 -8.258522e+000 99 103 70
2.362849e+000 -1.795924e+000 -8.273374e+000 61 58 43
2.266868e+000 -1.860180e+000 -8.248644e+000 104 104 69
2.416626e+000 -1.848351e+000 -8.329543e+000 94 93 62
2.852293e+000 -1.610158e+000 -8.376374e+000 61 65 43
2.784556e+000 -1.769682e+000 -8.473551e+000 56 59 40
2.952395e+000 -1.683754e+000 -8.487051e+000 56 59 38
-2.372831e+000 -2.197840e+000 -6.047696e+000 119 111 100
-2.374245e+000 -2.197925e+000 -6.046000e+000 119 111 100
-2.333998e+000 -2.222927e+000 -6.095269e+000 77 73 64
-1.024640e+000 -2.108776e+000 -6.749163e+000 61 47 39
-1.048694e+000 -2.175756e+000 -6.805944e+000 59 43 30
-9.091940e-001 -2.078964e+000 -6.796420e+000 100 83 62
-5.891022e-001 -2.031349e+000 -6.918289e+000 97 85 60
-4.387032e-001 -2.227575e+000 -7.212016e+000 152 139 104
-2.837939e-001 -2.120758e+000 -7.171294e+000 151 133 97
-2.425248e-001 -2.215269e+000 -7.293621e+000 103 87 64
-2.421464e-001 -2.221140e+000 -7.277745e+000 103 87 64
-7.206901e-002 -2.092800e+000 -7.267425e+000 98 82 60
-7.206901e-002 -2.092800e+000 -7.267425e+000 98 82 60
-4.970316e-002 -2.205882e+000 -7.391577e+000 143 128 86
3.240715e-001 -1.996560e+000 -7.372335e+000 145 132 88
3.108155e-001 -2.036443e+000 -7.404532e+000 144 130 93
3.725976e-001 -2.021111e+000 -7.435761e+000 83 73 46
5.011621e-001 -2.146050e+000 -7.614342e+000 97 84 55
1.504136e+000 -2.000812e+000 -7.945068e+000 134 124 73
1.475013e+000 -2.080697e+000 -8.059608e+000 138 121 72
1.460436e+000 -2.135806e+000 -8.093496e+000 139 124 77
1.872273e+000 -1.989663e+000 -8.208003e+000 84 77 44
1.870299e+000 -1.994604e+000 -8.203981e+000 84 77 44
1.946134e+000 -1.980657e+000 -8.233901e+000 117 113 66
1.969585e+000 -2.102467e+000 -8.327148e+000 76 69 43
2.179132e+000 -2.141657e+000 -8.523650e+000 101 99 64
2.342684e+000 -2.095983e+000 -8.590248e+000 100 101 70
2.593505e+000 -1.953987e+000 -8.569769e+000 71 73 49
-9.373674e-001 -2.354850e+000 -7.068423e+000 148 133 102
-9.361352e-001 -2.355523e+000 -7.065934e+000 148 133 102
-9.697095e-001 -2.435940e+000 -7.149643e+000 148 132 106
-7.842709e-001 -2.396842e+000 -7.211919e+000 77 62 33
-9.057297e-001 -2.449619e+000 -7.193795e+000 93 78 55
-5.562252e-001 -2.413431e+000 -7.329439e+000 91 75 48
-3.581856e-001 -2.372001e+000 -7.409449e+000 150 131 88
-1.393972e-001 -2.300783e+000 -7.410739e+000 94 78 47
-8.812156e-002 -2.317076e+000 -7.509726e+000 147 133 91
-9.039852e-002 -2.318996e+000 -7.496597e+000 147 133 91
2.369994e-001 -2.250739e+000 -7.594442e+000 144 127 84
2.369994e-001 -2.250739e+000 -7.594442e+000 144 127 84
3.075830e-001 -2.247917e+000 -7.607473e+000 95 81 54
2.134631e-001 -2.320476e+000 -7.648257e+000 139 126 80
4.801809e-001 -2.223066e+000 -7.688546e+000 88 74 48
4.191238e-001 -2.411039e+000 -7.805807e+000 94 78 52
4.613497e-001 -2.448908e+000 -7.916378e+000 150 131 83
8.586574e-001 -2.408248e+000 -8.093984e+000 86 72 41
9.880923e-001 -2.371078e+000 -8.103614e+000 78 67 32
9.888035e-001 -2.372477e+000 -8.099723e+000 78 67 32
1.043338e+000 -2.322541e+000 -8.093857e+000 147 127 74
1.041529e+000 -2.322751e+000 -8.091897e+000 147 127 74
1.146047e+000 -2.429777e+000 -8.237917e+000 91 78 44
1.402597e+000 -2.312208e+000 -8.290120e+000 135 118 65
1.402597e+000 -2.312208e+000 -8.290120e+000 135 118 65
1.578476e+000 -2.208716e+000 -8.249937e+000 133 120 75
1.737360e+000 -2.180717e+000 -8.328499e+000 117 111 72
1.610825e+000 -2.317346e+000 -8.348650e+000 86 75 44
1.825314e+000 -2.336531e+000 -8.513573e+000 108 101 66
2.150391e+000 -2.218702e+000 -8.607229e+000 108 105 71
2.149089e+000 -2.223879e+000 -8.592120e+000 108 105 71
2.205343e+000 -2.259701e+000 -8.652034e+000 66 65 46
1.904040e+000 -2.309575e+000 -8.552138e+000 69 63 37
2.033923e+000 -2.354384e+000 -8.649431e+000 67 63 38
2.181634e+000 -2.339497e+000 -8.728735e+000 78 77 47
2.244703e+000 -2.162354e+000 -8.640927e+000 69 68 38
2.389306e+000 -2.150980e+000 -8.646356e+000 62 64 40
2.318138e+000 -2.340224e+000 -8.691179e+000 67 67 40
2.494087e+000 -2.277777e+000 -8.816027e+000 64 64 38
2.665232e+000 -2.157036e+000 -8.764197e+000 61 63 41
2.609200e+000 -2.324951e+000 -8.857835e+000 58 61 35
3.014170e+000 -2.364684e+000 -9.261428e+000 53 55 34
3.135481e+000 -2.260940e+000 -9.261372e+000 78 81 59
3.159834e+000 -2.344161e+000 -9.266829e+000 61 61 43
-1.589879e+000 -2.729410e+000 -7.110110e+000 146 130 96
-1.590226e+000 -2.729905e+000 -7.108747e+000 146 130 96
-9.599128e-001 -2.592004e+000 -7.315094e+000 71 59 34
-8.543476e-001 -2.596187e+000 -7.371005e+000 91 76 47
-8.184318e-001 -2.689343e+000 -7.474780e+000 87 76 48
-7.626080e-001 -2.529806e+000 -7.339272e+000 86 69 43
-7.632659e-001 -2.530267e+000 -7.339899e+000 86 69 43
-5.524534e-001 -2.553396e+000 -7.459065e+000 150 130 90
-3.971925e-001 -2.504838e+000 -7.525187e+000 152 133 91
-4.266950e-001 -2.554235e+000 -7.573640e+000 147 132 90
-3.037793e-001 -2.591197e+000 -7.658669e+000 144 129 87
-3.332818e-001 -2.669636e+000 -7.729770e+000 141 127 82
-1.725685e-001 -2.554259e+000 -7.658084e+000 145 128 82
-1.226837e-001 -2.616425e+000 -7.765293e+000 90 73 44
-2.076012e-001 -2.680157e+000 -7.818863e+000 138 123 79
2.148432e-001 -2.505259e+000 -7.825765e+000 90 76 48
1.173725e-001 -2.603431e+000 -7.890467e+000 137 124 73
1.173725e-001 -2.603431e+000 -7.890467e+000 137 124 73
1.621351e-001 -2.650134e+000 -7.970147e+000 84 72 46
3.871124e-001 -2.490030e+000 -7.906414e+000 88 74 46
4.341914e-001 -2.532121e+000 -8.020066e+000 144 127 83
4.341914e-001 -2.532121e+000 -8.020066e+000 144 127 83
4.950396e-001 -2.556760e+000 -8.051880e+000 85 70 40
4.947439e-001 -2.557275e+000 -8.053354e+000 85 70 40
5.603131e-001 -2.553676e+000 -8.051811e+000 138 125 75
6.217420e-001 -2.569839e+000 -8.119949e+000 88 76 54
3.961134e-001 -2.635668e+000 -8.038282e+000 139 125 76
4.449345e-001 -2.696914e+000 -8.135364e+000 84 73 46
6.515016e-001 -2.473913e+000 -8.100419e+000 87 75 42
9.337196e-001 -2.524476e+000 -8.196350e+000 91 76 44
1.092538e+000 -2.588558e+000 -8.358630e+000 98 85 51
1.269433e+000 -2.510590e+000 -8.452465e+000 83 72 41
1.392002e+000 -2.542344e+000 -8.512134e+000 76 65 45
1.392002e+000 -2.542344e+000 -8.512134e+000 76 65 45
1.291472e+000 -2.633672e+000 -8.527701e+000 131 121 73
1.291197e+000 -2.634278e+000 -8.527082e+000 131 121 73
1.651209e+000 -2.422697e+000 -8.524748e+000 126 115 71
1.720204e+000 -2.420111e+000 -8.545337e+000 75 69 41
1.831515e+000 -2.475572e+000 -8.666515e+000 69 62 34
1.667680e+000 -2.583101e+000 -8.727613e+000 83 73 46
1.740110e+000 -2.568493e+000 -8.693585e+000 117 110 67
1.879900e+000 -2.581463e+000 -8.707288e+000 112 104 68
1.879900e+000 -2.581463e+000 -8.707288e+000 112 104 68
1.991536e+000 -2.492531e+000 -8.771717e+000 71 66 37
2.148503e+000 -2.446949e+000 -8.767586e+000 65 63 42
2.126085e+000 -2.512588e+000 -8.886429e+000 69 64 46
2.172091e+000 -2.571473e+000 -8.936061e+000 99 99 65
2.175745e+000 -2.566828e+000 -8.952429e+000 99 99 65
2.274223e+000 -2.483183e+000 -8.933803e+000 74 73 47
2.242741e+000 -2.555833e+000 -8.941654e+000 68 66 42
2.587274e+000 -2.407886e+000 -9.041682e+000 57 61 38
2.665038e+000 -2.578148e+000 -9.258814e+000 60 60 39
2.894771e+000 -2.521989e+000 -9.308862e+000 79 82 54
3.082496e+000 -2.603802e+000 -9.543479e+000 55 56 38
-1.767964e+000 -2.830298e+000 -7.123959e+000 138 123 90
-1.767273e+000 -2.831274e+000 -7.115526e+000 138 123 90
-1.666023e+000 -2.935875e+000 -7.337666e+000 144 125 93
-1.176322e+000 -2.860288e+000 -7.469617e+000 103 85 62
-1.051800e+000 -2.858056e+000 -7.536033e+000 91 77 51
-1.076532e+000 -2.933885e+000 -7.606341e+000 79 65 38
-1.076529e+000 -2.932820e+000 -7.608671e+000 79 65 38
-6.411050e-001 -2.830655e+000 -7.707833e+000 149 135 99
-6.902559e-001 -2.965085e+000 -7.847709e+000 147 134 91
-6.223971e-001 -2.947691e+000 -7.851512e+000 86 70 45
-4.200866e-001 -2.917274e+000 -7.936213e+000 141 124 83
-4.212843e-001 -2.921816e+000 -7.923428e+000 141 124 83
-3.651132e-001 -2.950216e+000 -7.995053e+000 96 83 51
-1.008841e-002 -2.781493e+000 -8.001272e+000 84 73 44
-6.126700e-002 -2.926998e+000 -8.146615e+000 77 67 42
-6.041727e-002 -2.924864e+000 -8.154546e+000 77 67 42
1.196011e-001 -2.759734e+000 -8.058413e+000 86 74 47
2.591354e-002 -2.859772e+000 -8.128349e+000 115 103 61
9.238129e-002 -2.857254e+000 -8.086089e+000 87 75 49
3.764760e-001 -2.707798e+000 -8.154738e+000 140 127 80
3.760278e-001 -2.708138e+000 -8.155365e+000 140 127 80
3.967036e-001 -2.823061e+000 -8.290466e+000 84 71 52
5.430551e-001 -2.789067e+000 -8.307053e+000 84 72 44
3.592218e-001 -2.933620e+000 -8.335981e+000 85 74 47
8.124676e-001 -2.707326e+000 -8.391882e+000 137 123 77
8.766514e-001 -2.697110e+000 -8.381000e+000 89 76 49
8.367070e-001 -2.815826e+000 -8.471603e+000 85 76 48
1.145086e+000 -2.846320e+000 -8.691171e+000 87 80 51
1.216162e+000 -2.842535e+000 -8.701351e+000 133 120 75
1.257810e+000 -2.725534e+000 -8.665146e+000 135 119 71
1.329558e+000 -2.717548e+000 -8.666211e+000 81 74 43
1.298431e+000 -2.806151e+000 -8.740132e+000 88 82 48
1.298454e+000 -2.805797e+000 -8.739160e+000 88 82 48
1.409936e+000 -2.697692e+000 -8.631009e+000 127 119 70
1.357372e+000 -2.847851e+000 -8.821546e+000 127 113 73
1.611622e+000 -2.726919e+000 -8.783308e+000 80 69 41
1.693347e+000 -2.714680e+000 -8.860491e+000 115 105 70
1.695506e+000 -2.711170e+000 -8.868945e+000 115 105 70
1.610372e+000 -2.931120e+000 -9.014349e+000 125 114 69
1.733016e+000 -2.815635e+000 -8.992429e+000 76 68 46
2.119078e+000 -2.718281e+000 -9.052941e+000 103 99 67
2.010392e+000 -2.839945e+000 -9.149376e+000 72 65 46
2.010392e+000 -2.839945e+000 -9.149376e+000 72 65 46
1.987062e+000 -2.897484e+000 -9.234990e+000 67 61 39
2.053561e+000 -2.927101e+000 -9.334420e+000 98 98 64
2.207838e+000 -2.876718e+000 -9.287412e+000 106 103 68
2.572088e+000 -2.852757e+000 -9.531855e+000 66 68 43
-2.131403e+000 -3.026843e+000 -7.136017e+000 140 125 91
-2.150543e+000 -3.096019e+000 -7.196562e+000 144 128 93
-2.150253e+000 -3.095037e+000 -7.200427e+000 144 128 93
-1.136168e+000 -3.096482e+000 -7.751010e+000 81 65 42
-7.588033e-001 -2.969426e+000 -7.835574e+000 95 79 51
-6.060058e-001 -3.065826e+000 -7.978450e+000 142 127 86
-6.775683e-001 -3.100186e+000 -8.006428e+000 105 89 62
-6.188683e-001 -3.135169e+000 -8.070295e+000 137 124 79
-5.213997e-001 -3.037373e+000 -7.998497e+000 96 85 57
-4.641024e-001 -3.209510e+000 -8.219398e+000 97 81 55
-3.247548e-001 -3.148139e+000 -8.213233e+000 107 96 64
-1.023617e-001 -3.032316e+000 -8.235523e+000 81 67 39
-1.017613e-001 -3.032297e+000 -8.236704e+000 81 67 39
-1.331100e-001 -3.124628e+000 -8.293467e+000 91 77 48
-1.307422e-001 -3.123821e+000 -8.293216e+000 91 77 48
1.654457e-003 -3.097700e+000 -8.331966e+000 94 83 55
-1.623779e-002 -3.164069e+000 -8.412911e+000 85 74 43
1.523586e-001 -3.151547e+000 -8.513985e+000 87 75 47
2.699141e-001 -3.172806e+000 -8.564594e+000 97 86 54
4.497595e-001 -3.045179e+000 -8.516870e+000 87 73 44
4.175326e-001 -3.136103e+000 -8.619761e+000 83 70 46
4.180092e-001 -3.137253e+000 -8.618733e+000 83 70 46
5.849741e-001 -3.160885e+000 -8.739802e+000 92 78 50
7.148100e-001 -2.980318e+000 -8.606113e+000 137 124 83
7.141474e-001 -2.981295e+000 -8.604954e+000 137 124 83
7.463244e-001 -3.046198e+000 -8.662719e+000 89 79 52
7.869129e-001 -2.964459e+000 -8.616979e+000 84 73 43
1.125347e+000 -3.098553e+000 -8.977726e+000 134 126 80
1.125347e+000 -3.098553e+000 -8.977726e+000 134 126 80
1.363258e+000 -3.009611e+000 -8.930224e+000 81 72 41
1.422138e+000 -3.057563e+000 -9.058965e+000 124 115 76
1.337746e+000 -3.091774e+000 -9.091762e+000 85 75 39
1.336157e+000 -3.092939e+000 -9.092921e+000 85 75 39
1.830308e+000 -2.949268e+000 -9.296701e+000 79 71 48
1.870360e+000 -3.034167e+000 -9.320101e+000 108 102 68
1.940107e+000 -3.217341e+000 -9.481157e+000 108 101 72
2.299469e+000 -3.029331e+000 -9.558466e+000 96 95 67
2.468370e+000 -3.163739e+000 -9.788242e+000 66 65 45
2.956520e+000 -2.971208e+000 -9.780832e+000 57 59 38
2.959051e+000 -2.965917e+000 -9.816133e+000 57 59 38
-2.650825e+000 -3.299423e+000 -7.157240e+000 130 120 85
-2.476039e+000 -3.226843e+000 -7.143917e+000 132 118 84
-2.700692e+000 -3.434993e+000 -7.272995e+000 133 119 83
-2.238746e+000 -3.342774e+000 -7.411409e+000 138 125 86
-1.808991e+000 -3.277137e+000 -7.613595e+000 133 123 89
-1.918109e+000 -3.429045e+000 -7.695463e+000 86 75 56
-1.859619e+000 -3.456065e+000 -7.744884e+000 128 118 90
-1.862269e+000 -3.454268e+000 -7.748682e+000 128 118 90
-1.253293e+000 -3.414954e+000 -8.038074e+000 87 75 49
-1.252734e+000 -3.412724e+000 -8.041775e+000 87 75 49
-8.728436e-001 -3.444290e+000 -8.243770e+000 138 125 83
-7.330735e-001 -3.426980e+000 -8.327457e+000 143 128 92
-7.330735e-001 -3.426980e+000 -8.327457e+000 143 128 92
-5.268006e-001 -3.379664e+000 -8.392388e+000 85 71 42
-5.409931e-001 -3.429637e+000 -8.451325e+000 94 80 51
-1.141059e-001 -3.261308e+000 -8.468883e+000 133 122 77
-1.124328e-001 -3.251350e+000 -8.504129e+000 133 122 77
-2.393659e-001 -3.417752e+000 -8.546165e+000 109 98 70
-2.402984e-001 -3.419442e+000 -8.544407e+000 109 98 70
2.155621e-001 -3.332989e+000 -8.674239e+000 87 73 46
2.823765e-001 -3.328716e+000 -8.803106e+000 137 124 81
3.184200e-001 -3.225327e+000 -8.653874e+000 141 130 87
3.182014e-001 -3.225632e+000 -8.652285e+000 141 130 87
3.505875e-001 -3.308716e+000 -8.750301e+000 91 80 49
5.255289e-001 -3.305536e+000 -8.906933e+000 86 77 46
8.302196e-001 -3.306291e+000 -9.030183e+000 84 76 44
1.035416e+000 -3.346493e+000 -9.068105e+000 137 129 82
9.222013e-001 -3.458961e+000 -9.245302e+000 83 74 41
1.079469e+000 -3.408202e+000 -9.245508e+000 93 85 55
1.325374e+000 -3.325063e+000 -9.306576e+000 127 118 77
1.239723e+000 -3.360723e+000 -9.304108e+000 92 82 56
1.290820e+000 -3.414593e+000 -9.379507e+000 129 117 75
1.291422e+000 -3.411518e+000 -9.394017e+000 129 117 75
1.578009e+000 -3.219157e+000 -9.357524e+000 79 72 43
1.881239e+000 -3.378383e+000 -9.664826e+000 109 102 74
2.246732e+000 -3.371837e+000 -9.880598e+000 73 71 46
2.223999e+000 -3.442394e+000 -9.937187e+000 70 65 45
2.833699e+000 -3.380420e+000 -1.013896e+001 56 57 39
-3.113310e+000 -3.619463e+000 -7.224197e+000 77 67 40
-2.721478e+000 -3.493162e+000 -7.340263e+000 134 122 87
-2.384406e+000 -3.532665e+000 -7.538715e+000 88 76 49
