ply
format ascii 1.0
element face 0
property list uchar int vertex_indices
element vertex 872
property float x
property float y
property float z
property uchar diffuse_red
property uchar diffuse_green
property uchar diffuse_blue
end_header
-1.929059e+000 -1.977864e+000 -6.014905e+000 129 136 122
-1.928724e+000 -1.977283e+000 -6.014268e+000 129 136 122
-4.862618e-001 -1.732817e+000 -6.647328e+000 144 135 95
2.984654e-001 -1.628298e+000 -6.940672e+000 156 147 104
1.532037e+000 -1.474939e+000 -7.511119e+000 79 75 47
1.812586e+000 -1.503494e+000 -7.633896e+000 122 122 83
1.957798e+000 -1.506851e+000 -7.727133e+000 115 117 80
-2.835641e+000 -2.301234e+000 -5.928694e+000 70 69 61
-9.824327e-001 -1.981795e+000 -6.673758e+000 146 139 95
-9.976005e-001 -2.035294e+000 -6.718201e+000 147 139 100
-7.338550e-001 -1.969406e+000 -6.839368e+000 149 139 105
-1.557551e-001 -1.894679e+000 -7.029243e+000 156 144 105
-1.557551e-001 -1.894679e+000 -7.029243e+000 156 144 105
4.480117e-001 -1.909050e+000 -7.336000e+000 154 145 105
2.069031e+000 -1.618743e+000 -7.959520e+000 112 117 76
2.069031e+000 -1.618743e+000 -7.959520e+000 112 117 76
-2.140701e+000 -2.297524e+000 -6.266001e+000 109 109 97
-5.134109e-001 -2.052917e+000 -6.971701e+000 156 144 105
-2.194698e-001 -2.034186e+000 -7.123825e+000 78 68 43
5.426018e-001 -2.051833e+000 -7.510249e+000 81 74 46
1.324294e+000 -1.848499e+000 -7.733520e+000 79 72 30
2.331616e+000 -1.720066e+000 -8.192173e+000 106 112 79
2.625150e+000 -1.697462e+000 -8.293956e+000 91 101 69
3.026505e+000 -1.781546e+000 -8.606669e+000 83 91 67
3.333336e+000 -1.689958e+000 -8.680171e+000 85 93 70
-1.090684e+000 -2.327537e+000 -6.941091e+000 146 137 108
1.124320e-001 -2.203681e+000 -7.500845e+000 156 147 108
5.403135e-001 -2.220285e+000 -7.644040e+000 151 139 91
1.627005e+000 -2.091877e+000 -8.158816e+000 134 127 81
2.535498e+000 -1.994791e+000 -8.516931e+000 93 100 69
-1.239135e+000 -2.527342e+000 -7.043901e+000 97 80 62
-8.295376e-001 -2.479906e+000 -7.238911e+000 157 146 118
-6.423505e-001 -2.439695e+000 -7.315000e+000 153 140 107
-8.791034e-001 -2.628278e+000 -7.360788e+000 146 136 109
-3.585258e-001 -2.499651e+000 -7.510277e+000 147 134 91
-3.559924e-001 -2.566684e+000 -7.591917e+000 151 136 96
-3.023445e-001 -2.535471e+000 -7.584239e+000 150 137 95
-1.661495e-001 -2.493897e+000 -7.641425e+000 147 134 89
-2.452714e-001 -2.569521e+000 -7.625374e+000 88 76 41
-3.530412e-002 -2.449002e+000 -7.650431e+000 141 132 92
2.470102e+000 -2.210397e+000 -8.714080e+000 93 97 70
-8.982310e-001 -2.698296e+000 -7.402740e+000 149 139 112
-5.153371e-001 -2.649123e+000 -7.563119e+000 78 65 32
-4.224238e-001 -2.668900e+000 -7.641076e+000 90 77 43
-4.224238e-001 -2.668900e+000 -7.641076e+000 90 77 43
-3.923860e-002 -2.680999e+000 -7.835051e+000 147 139 94
2.809693e+000 -2.448140e+000 -9.172762e+000 84 89 66
-2.123715e+000 -3.039722e+000 -7.139858e+000 137 123 97
-2.133454e+000 -3.084048e+000 -7.158879e+000 78 66 42
-9.907683e-001 -2.971696e+000 -7.642393e+000 144 135 105
-7.016678e-001 -2.840355e+000 -7.662096e+000 154 140 103
-5.004638e-001 -2.885780e+000 -7.829484e+000 86 77 44
-5.170672e-001 -2.976102e+000 -7.915851e+000 149 134 93
-5.170672e-001 -2.976102e+000 -7.915851e+000 149 134 93
-2.092136e-001 -2.958492e+000 -8.050574e+000 147 136 91
1.425105e+000 -2.690758e+000 -8.676983e+000 137 127 86
1.510034e+000 -2.713935e+000 -8.730565e+000 89 81 45
-1.146358e+000 -3.149708e+000 -7.772220e+000 89 78 50
-1.140553e+000 -3.203133e+000 -7.803287e+000 146 135 103
-1.139146e+000 -3.202744e+000 -7.805868e+000 146 135 103
-8.249856e-001 -3.080815e+000 -7.865376e+000 75 66 38
-1.008190e+000 -3.154710e+000 -7.846942e+000 74 59 37
-8.285452e-001 -3.159802e+000 -7.936311e+000 144 130 91
-8.636322e-001 -3.188992e+000 -7.954563e+000 83 72 42
-8.654040e-001 -3.193068e+000 -7.948460e+000 83 72 42
-7.796502e-001 -3.180454e+000 -8.008472e+000 144 131 95
-3.338613e-001 -2.990109e+000 -8.039938e+000 138 126 86
-4.998775e-001 -3.095233e+000 -8.078710e+000 141 133 86
-5.161029e-001 -3.150407e+000 -8.125415e+000 142 130 88
-1.767171e-001 -3.076256e+000 -8.164125e+000 144 136 97
-2.039190e-001 -3.141288e+000 -8.280878e+000 138 129 86
2.110238e+000 -2.851235e+000 -9.226213e+000 106 105 74
-2.012143e+000 -3.321813e+000 -7.455557e+000 142 133 91
-1.908903e+000 -3.303080e+000 -7.487491e+000 134 124 91
-1.468481e+000 -3.427580e+000 -7.919223e+000 145 130 90
-8.042345e-001 -3.242733e+000 -8.058913e+000 147 138 95
8.392941e-001 -3.178828e+000 -8.848916e+000 136 127 84
-3.383708e+000 -3.680195e+000 -7.114162e+000 123 117 77
-6.829213e-001 -3.399458e+000 -8.313253e+000 81 72 41
-6.109154e-001 -3.403054e+000 -8.362063e+000 136 131 91
-6.457522e-001 -3.525016e+000 -8.439977e+000 146 138 91
6.357078e-001 -3.322044e+000 -8.923912e+000 80 71 38
2.851953e+000 -3.168646e+000 -9.946265e+000 82 85 65
-3.522903e+000 -3.846520e+000 -7.249308e+000 72 68 32
-3.489400e+000 -3.872548e+000 -7.344875e+000 118 115 80
-2.536697e+000 -3.849893e+000 -7.746636e+000 127 122 92
-2.506712e+000 -3.884140e+000 -7.770074e+000 80 74 48
-1.607125e+000 -3.843872e+000 -8.235596e+000 135 128 88
-1.272239e+000 -3.776873e+000 -8.350166e+000 138 129 91
-8.416032e-001 -3.700670e+000 -8.540168e+000 137 128 89
-5.623704e-001 -3.629565e+000 -8.601200e+000 144 133 86
1.760384e+000 -3.408601e+000 -9.705765e+000 115 112 77
-3.494156e+000 -4.065782e+000 -7.486936e+000 72 69 36
-3.164732e+000 -4.064776e+000 -7.618091e+000 115 110 80
-2.486223e+000 -3.961713e+000 -7.902301e+000 129 121 86
-2.486223e+000 -3.961713e+000 -7.902301e+000 129 121 86
-1.323550e+000 -3.884546e+000 -8.536937e+000 151 145 113
-6.332955e-001 -3.828819e+000 -8.841832e+000 133 125 89
2.551249e+000 -3.653193e+000 -1.034249e+001 83 85 64
-2.578950e+000 -1.526242e+000 -5.306182e+000 71 71 59
-2.510575e+000 -1.492248e+000 -5.323880e+000 127 126 108
-4.979590e-001 -1.150406e+000 -6.119956e+000 145 137 90
1.809196e+000 -7.197284e-001 -6.967435e+000 74 79 56
-1.964990e+000 -1.694868e+000 -5.696048e+000 80 81 76
-5.564771e-001 -1.368903e+000 -6.285595e+000 145 135 84
1.931783e+000 -1.092648e+000 -7.321180e+000 114 118 84
2.591915e+000 -8.532442e-001 -7.528624e+000 98 108 81
2.541761e+000 -1.009507e+000 -7.628554e+000 94 104 77
2.651398e+000 -8.866205e-001 -7.555069e+000 65 71 54
2.703883e+000 -9.589507e-001 -7.651029e+000 95 104 76
3.027058e+000 -8.379938e-001 -7.702020e+000 92 106 77
3.027740e+000 -8.310107e-001 -7.705712e+000 92 106 77
3.184546e+000 -7.977436e-001 -7.748547e+000 96 106 82
3.156933e+000 -9.285298e-001 -7.902529e+000 95 105 79
3.640119e+000 -7.370569e-001 -7.917626e+000 95 106 83
-5.906876e-001 -1.503656e+000 -6.346491e+000 144 132 88
5.814817e-002 -1.390014e+000 -6.631616e+000 142 132 85
1.322015e-002 -1.541968e+000 -6.750816e+000 148 137 98
1.717744e+000 -1.335054e+000 -7.505940e+000 128 127 85
1.800016e+000 -1.293236e+000 -7.481090e+000 71 71 47
2.634787e+000 -1.188376e+000 -7.790150e+000 95 103 78
3.174568e+000 -1.080522e+000 -8.000984e+000 68 77 57
-2.731575e+000 -1.964784e+000 -5.618232e+000 72 75 64
-2.103025e+000 -1.983183e+000 -5.934234e+000 79 79 71
-3.462233e-002 -1.698470e+000 -6.858517e+000 149 136 93
4.326485e-001 -1.574806e+000 -7.012968e+000 158 141 86
1.586739e+000 -1.425612e+000 -7.486011e+000 125 122 74
2.303534e+000 -1.323493e+000 -7.817306e+000 102 110 77
2.672137e+000 -1.321849e+000 -8.029106e+000 61 66 44
2.559053e+000 -1.444613e+000 -8.047980e+000 89 100 68
3.012209e+000 -1.389413e+000 -8.202227e+000 88 98 73
-2.709286e+000 -2.283732e+000 -5.915946e+000 131 135 116
-2.715708e+000 -2.320950e+000 -5.961239e+000 76 78 68
-7.912853e-001 -1.995929e+000 -6.729680e+000 75 68 40
-1.199363e-001 -1.780059e+000 -6.932214e+000 96 85 55
-1.840310e-001 -1.944758e+000 -7.046388e+000 78 64 37
6.968605e-001 -1.714301e+000 -7.272293e+000 156 144 88
2.389958e+000 -1.517164e+000 -7.991500e+000 100 106 78
2.357499e+000 -1.616647e+000 -8.058268e+000 107 114 81
2.362670e+000 -1.606304e+000 -8.066593e+000 107 114 81
2.574207e+000 -1.598043e+000 -8.176893e+000 60 68 47
-2.322604e+000 -2.337124e+000 -6.202273e+000 75 77 65
-9.261385e-001 -2.196485e+000 -6.915494e+000 144 134 104
-9.261385e-001 -2.196485e+000 -6.915494e+000 144 134 104
1.047633e+000 -2.003773e+000 -7.696962e+000 157 140 71
1.774097e+000 -1.851326e+000 -8.019242e+000 80 77 43
1.681690e+000 -1.915913e+000 -8.026527e+000 132 126 78
1.871605e+000 -1.786543e+000 -7.992561e+000 124 122 73
-9.706193e-001 -2.332552e+000 -7.062689e+000 153 139 108
-3.689113e-001 -2.347438e+000 -7.363538e+000 158 145 109
-2.580277e-001 -2.210052e+000 -7.249817e+000 92 82 56
-2.512683e-001 -2.185928e+000 -7.277152e+000 92 82 56
2.344336e-001 -2.209510e+000 -7.535662e+000 150 138 96
4.996297e-001 -2.131801e+000 -7.596433e+000 93 83 59
5.115662e-001 -2.291319e+000 -7.745164e+000 150 138 80
1.283903e+000 -2.011983e+000 -7.952851e+000 85 77 45
1.422876e+000 -2.056875e+000 -7.976971e+000 79 74 37
1.600643e+000 -2.173702e+000 -8.221800e+000 141 130 81
1.600643e+000 -2.173702e+000 -8.221800e+000 141 130 81
1.759557e+000 -2.128606e+000 -8.239132e+000 131 127 79
2.214619e+000 -2.075079e+000 -8.444952e+000 108 109 70
2.214619e+000 -2.075079e+000 -8.444952e+000 108 109 70
2.923537e+000 -1.884229e+000 -8.663577e+000 60 67 44
-1.011148e+000 -2.477835e+000 -7.138854e+000 147 137 102
-1.514238e-001 -2.460556e+000 -7.543610e+000 148 136 92
4.911157e-001 -2.349008e+000 -7.819021e+000 153 143 88
1.195053e+000 -2.280044e+000 -8.105084e+000 80 74 42
2.817646e+000 -2.232927e+000 -9.031760e+000 63 71 52
-1.327724e+000 -2.681172e+000 -7.181203e+000 55 48 38
-1.230854e+000 -2.774506e+000 -7.300208e+000 153 140 102
-5.805007e-001 -2.772424e+000 -7.648197e+000 83 73 45
-1.341537e-001 -2.613413e+000 -7.729433e+000 91 80 50
9.768804e-002 -2.637174e+000 -7.886568e+000 147 135 92
9.768804e-002 -2.637174e+000 -7.886568e+000 147 135 92
5.139517e-001 -2.685074e+000 -8.136165e+000 145 133 80
5.155142e-001 -2.678229e+000 -8.144145e+000 145 133 80
8.371221e-001 -2.473747e+000 -8.141205e+000 82 72 42
7.685596e-001 -2.653927e+000 -8.297666e+000 86 77 45
1.517330e+000 -2.424287e+000 -8.459155e+000 135 126 77
1.517330e+000 -2.424287e+000 -8.459155e+000 135 126 77
1.451050e+000 -2.615039e+000 -8.579141e+000 133 126 74
1.666772e+000 -2.417305e+000 -8.558203e+000 125 121 74
1.808262e+000 -2.432148e+000 -8.611293e+000 117 114 73
1.976563e+000 -2.361456e+000 -8.654609e+000 116 114 75
1.980294e+000 -2.353925e+000 -8.666858e+000 116 114 75
1.942048e+000 -2.452222e+000 -8.662418e+000 117 115 76
2.154445e+000 -2.467911e+000 -8.784384e+000 74 73 48
2.099850e+000 -2.439322e+000 -8.860203e+000 110 110 76
-1.715083e+000 -2.965355e+000 -7.282803e+000 148 138 100
-6.870320e-001 -2.898633e+000 -7.742644e+000 149 138 92
-5.576451e-001 -2.904389e+000 -7.831952e+000 149 137 92
-5.782585e-001 -2.983277e+000 -7.883710e+000 153 140 96
-3.697465e-001 -2.915966e+000 -7.960164e+000 79 72 44
-5.524647e-003 -2.920865e+000 -8.166246e+000 142 130 82
-5.524647e-003 -2.920865e+000 -8.166246e+000 142 130 82
5.180078e-001 -2.664813e+000 -8.244525e+000 145 134 78
8.537575e-001 -2.711632e+000 -8.372815e+000 83 75 38
2.014036e+000 -2.668064e+000 -8.886150e+000 104 104 66
2.911598e+000 -2.570213e+000 -9.380065e+000 83 88 66
2.956695e+000 -2.630523e+000 -9.425844e+000 58 63 41
-2.231725e+000 -3.176557e+000 -7.205123e+000 143 130 95
-1.928153e+000 -3.173040e+000 -7.379541e+000 135 125 90
-5.416105e-001 -3.023754e+000 -7.933946e+000 62 53 21
-2.211459e-002 -2.967353e+000 -8.221363e+000 132 123 77
-2.211459e-002 -2.967353e+000 -8.221363e+000 132 123 77
2.289476e-001 -2.948638e+000 -8.285143e+000 78 73 40
6.370609e-001 -3.015840e+000 -8.563627e+000 89 79 52
1.186536e+000 -2.959371e+000 -8.821500e+000 147 138 91
1.516267e+000 -2.863858e+000 -8.977400e+000 132 124 84
2.423124e+000 -2.754042e+000 -9.312095e+000 90 94 67
2.228523e+000 -2.896535e+000 -9.302998e+000 96 99 69
2.366604e+000 -2.921302e+000 -9.457054e+000 92 94 69
2.366604e+000 -2.921302e+000 -9.457054e+000 92 94 69
2.506749e+000 -2.921094e+000 -9.478833e+000 91 94 67
2.498875e+000 -2.936469e+000 -9.455205e+000 91 94 67
2.822995e+000 -2.868196e+000 -9.684190e+000 79 84 62
-2.897545e+000 -3.457386e+000 -7.130017e+000 123 117 80
-2.290702e+000 -3.365622e+000 -7.356296e+000 134 124 88
-1.392365e+000 -3.434610e+000 -7.933569e+000 87 75 52
-9.126453e-001 -3.384697e+000 -8.162584e+000 101 90 62
-8.419000e-001 -3.351851e+000 -8.151941e+000 147 135 86
-8.396451e-001 -3.339951e+000 -8.172586e+000 147 135 86
-5.299364e-001 -3.188037e+000 -8.146017e+000 141 129 89
-4.134284e-001 -3.233408e+000 -8.258508e+000 131 124 78
-4.429935e-001 -3.307844e+000 -8.322583e+000 143 132 86
1.199616e+000 -3.123433e+000 -9.022125e+000 86 78 50
1.314031e+000 -3.206590e+000 -9.190130e+000 82 76 47
1.306612e+000 -3.219722e+000 -9.181327e+000 82 76 47
1.559966e+000 -3.144692e+000 -9.225538e+000 122 116 80
1.699560e+000 -3.155581e+000 -9.292670e+000 116 112 75
1.701642e+000 -3.148507e+000 -9.300687e+000 116 112 75
2.124084e+000 -2.982256e+000 -9.358746e+000 68 67 46
2.110334e+000 -3.030844e+000 -9.433341e+000 70 70 44
2.258341e+000 -2.999608e+000 -9.432847e+000 61 63 39
2.672692e+000 -2.927670e+000 -9.673014e+000 88 91 69
2.685133e+000 -3.057850e+000 -9.827262e+000 56 60 39
2.827006e+000 -3.046017e+000 -9.870973e+000 57 60 39
-2.611458e+000 -3.621160e+000 -7.480234e+000 73 67 45
-2.654830e+000 -3.694538e+000 -7.514198e+000 79 74 46
-2.544897e+000 -3.665723e+000 -7.556420e+000 115 108 79
-1.375798e+000 -3.520228e+000 -8.056735e+000 146 138 98
-9.771015e-001 -3.527839e+000 -8.313753e+000 93 83 56
-9.771015e-001 -3.527839e+000 -8.313753e+000 93 83 56
-8.837172e-001 -3.460717e+000 -8.250344e+000 139 131 85
-7.001569e-001 -3.478492e+000 -8.369842e+000 86 76 49
-4.811226e-001 -3.409819e+000 -8.458071e+000 138 129 85
-5.849463e-001 -3.519898e+000 -8.492311e+000 85 75 54
-1.639733e-001 -3.387225e+000 -8.574868e+000 133 128 78
-9.860534e-002 -3.398110e+000 -8.604970e+000 82 73 47
2.365200e-001 -3.469737e+000 -8.878199e+000 139 133 85
3.022249e-001 -3.471961e+000 -8.929496e+000 77 71 37
5.703495e-001 -3.396829e+000 -9.015699e+000 135 126 82
5.776905e-001 -3.374380e+000 -9.044890e+000 135 126 82
5.380349e-001 -3.489296e+000 -9.056820e+000 133 122 81
1.044683e+000 -3.358240e+000 -9.171024e+000 135 127 77
1.050802e+000 -3.347307e+000 -9.185289e+000 135 127 77
1.010641e+000 -3.454837e+000 -9.247921e+000 129 120 63
1.297468e+000 -3.289212e+000 -9.272064e+000 78 73 45
1.478720e+000 -3.370754e+000 -9.508032e+000 123 116 77
2.200570e+000 -3.186796e+000 -9.622524e+000 65 67 45
2.621410e+000 -3.227630e+000 -9.907004e+000 58 61 39
2.711143e+000 -3.174663e+000 -9.882912e+000 84 87 66
2.786526e+000 -3.198664e+000 -1.008463e+001 59 62 45
-3.468842e+000 -3.850662e+000 -7.238413e+000 118 113 76
-3.084803e+000 -3.763142e+000 -7.344027e+000 125 118 76
-3.084803e+000 -3.763142e+000 -7.344027e+000 125 118 76
-3.106377e+000 -3.822079e+000 -7.364533e+000 73 68 45
-2.578313e+000 -3.887827e+000 -7.759327e+000 77 71 47
-2.130788e+000 -3.735704e+000 -7.881728e+000 129 123 87
-9.828790e-001 -3.719607e+000 -8.494518e+000 138 130 82
-9.432242e-001 -3.618190e+000 -8.411667e+000 140 133 81
-8.722501e-001 -3.781643e+000 -8.615187e+000 136 127 85
2.179984e-002 -3.533130e+000 -8.840150e+000 87 79 56
1.961450e-001 -3.580972e+000 -8.964720e+000 147 137 97
2.545642e-001 -3.591119e+000 -9.000688e+000 92 83 55
4.814913e-001 -3.642442e+000 -9.192840e+000 145 135 92
1.136172e+000 -3.500881e+000 -9.379928e+000 132 124 77
1.235828e+000 -3.641572e+000 -9.627786e+000 127 120 79
1.229692e+000 -3.653017e+000 -9.612176e+000 127 120 79
1.437209e+000 -3.483051e+000 -9.540990e+000 121 113 77
1.835912e+000 -3.579849e+000 -9.858432e+000 108 108 80
2.591975e+000 -3.363547e+000 -1.009159e+001 57 58 39
-2.575793e+000 -4.059900e+000 -7.923943e+000 90 85 60
-2.331961e+000 -3.921695e+000 -7.972305e+000 122 119 78
-2.455199e+000 -4.027659e+000 -8.042929e+000 88 82 56
-2.033025e+000 -3.912767e+000 -8.116754e+000 129 126 85
-1.006090e+000 -3.805125e+000 -8.554508e+000 142 134 85
-1.006553e+000 -3.825882e+000 -8.530800e+000 142 134 85
-1.096252e+000 -3.879567e+000 -8.603673e+000 80 69 50
-5.746250e-001 -3.849087e+000 -8.887928e+000 92 81 51
-5.700349e-001 -3.905512e+000 -8.915783e+000 144 132 84
-3.902153e-001 -3.825742e+000 -8.947131e+000 86 78 59
-8.373959e-002 -3.806514e+000 -9.104719e+000 74 67 41
-1.420735e-002 -3.790545e+000 -9.091306e+000 144 132 77
-1.391958e-002 -3.790895e+000 -9.091162e+000 144 132 77
4.455306e-001 -3.742912e+000 -9.294595e+000 139 136 85
9.059288e-001 -3.738582e+000 -9.482875e+000 133 125 78
1.197502e+000 -3.743914e+000 -9.646755e+000 125 116 76
1.197502e+000 -3.743914e+000 -9.646755e+000 125 116 76
1.521395e+000 -3.658548e+000 -9.845663e+000 117 113 76
1.652111e+000 -3.672205e+000 -9.839598e+000 112 109 76
2.589182e+000 -3.567299e+000 -1.031305e+001 88 89 72
7.414517e-001 -7.942169e-001 -6.488464e+000 131 128 82
-2.318418e+000 -1.431008e+000 -5.354621e+000 78 83 74
1.929901e+000 -8.328858e-001 -7.126210e+000 74 78 53
2.328822e+000 -9.840820e-001 -7.472095e+000 69 77 54
2.689185e+000 -7.701093e-001 -7.556125e+000 64 73 54
2.669439e+000 -8.100658e-001 -7.512765e+000 64 73 54
3.295857e+000 -6.966254e-001 -7.772419e+000 61 70 56
3.281323e+000 -7.257430e-001 -7.747711e+000 61 70 56
3.698016e+000 -8.203817e-001 -8.076634e+000 62 73 53
-8.769611e-002 -1.452833e+000 -6.604426e+000 145 136 92
8.680548e-001 -1.390536e+000 -7.072284e+000 93 88 60
2.563153e+000 -1.149839e+000 -7.707008e+000 67 72 52
3.083462e+000 -9.340246e-001 -7.917451e+000 63 72 52
3.034503e+000 -1.078245e+000 -7.982950e+000 66 75 57
3.034503e+000 -1.078245e+000 -7.982950e+000 66 75 57
-2.240367e+000 -1.909252e+000 -5.821569e+000 150 145 126
-1.032885e+000 -1.801558e+000 -6.432573e+000 74 59 40
-5.541511e-001 -1.816543e+000 -6.702684e+000 86 75 50
1.896104e+000 -1.456163e+000 -7.699135e+000 79 79 52
2.035548e+000 -1.456279e+000 -7.738094e+000 75 79 55
2.471759e+000 -1.472221e+000 -7.981520e+000 67 72 51
2.673561e+000 -1.292000e+000 -7.898629e+000 61 70 49
3.010845e+000 -1.179543e+000 -8.099466e+000 59 68 49
-5.924103e-001 -1.940634e+000 -6.794393e+000 96 87 59
-1.577337e-001 -1.854701e+000 -6.970366e+000 107 95 64
3.154722e-001 -1.754950e+000 -7.111149e+000 92 83 55
3.154722e-001 -1.754950e+000 -7.111149e+000 92 83 55
2.465524e-001 -1.940932e+000 -7.232940e+000 88 81 53
4.283457e-001 -1.833758e+000 -7.260638e+000 89 80 46
4.283457e-001 -1.833758e+000 -7.260638e+000 89 80 46
1.701493e+000 -1.611266e+000 -7.715453e+000 69 67 40
1.661750e+000 -1.746761e+000 -7.846144e+000 87 84 53
-9.952088e-001 -2.200265e+000 -6.920946e+000 97 87 62
2.425539e-001 -1.984549e+000 -7.336725e+000 95 86 54
3.513245e-001 -2.057115e+000 -7.428662e+000 76 68 47
1.590181e+000 -1.942241e+000 -7.973546e+000 86 81 54
1.590181e+000 -1.942241e+000 -7.973546e+000 86 81 54
1.992903e+000 -1.910353e+000 -8.191663e+000 115 115 65
2.544565e+000 -1.705183e+000 -8.268059e+000 63 71 48
2.831639e+000 -1.717216e+000 -8.413875e+000 65 73 53
3.448567e+000 -1.569324e+000 -8.634358e+000 55 64 41
-1.245783e+000 -2.407373e+000 -7.002497e+000 92 77 58
-7.123186e-001 -2.284352e+000 -7.087492e+000 105 94 79
-7.494005e-001 -2.411358e+000 -7.205726e+000 85 72 56
-3.385630e-001 -2.232136e+000 -7.238535e+000 152 140 99
-3.452165e-001 -2.289150e+000 -7.318384e+000 159 146 104
1.572713e+000 -2.018046e+000 -8.042160e+000 91 85 53
1.655042e+000 -2.014041e+000 -8.068450e+000 139 129 75
2.130694e+000 -2.094363e+000 -8.430646e+000 68 68 44
-5.000958e-001 -2.523080e+000 -7.459797e+000 105 91 65
-4.531068e-001 -2.552944e+000 -7.530166e+000 155 142 98
-1.955159e-001 -2.416622e+000 -7.502999e+000 94 84 57
1.352711e+000 -2.240471e+000 -8.133507e+000 78 69 36
2.278033e+000 -2.129038e+000 -8.577407e+000 72 74 49
2.341169e+000 -2.168413e+000 -8.705141e+000 100 104 68
2.324555e+000 -2.204016e+000 -8.661154e+000 100 104 68
2.498725e+000 -2.300302e+000 -8.808357e+000 64 69 46
-1.181802e+000 -2.788263e+000 -7.371261e+000 99 89 64
-6.537260e-001 -2.631858e+000 -7.484982e+000 96 86 61
-7.084620e-001 -2.780007e+000 -7.623657e+000 93 86 60
-2.702515e-001 -2.628810e+000 -7.688828e+000 121 109 69
4.386069e-001 -2.709907e+000 -8.110271e+000 90 81 52
4.386069e-001 -2.709907e+000 -8.110271e+000 90 81 52
1.235704e+000 -2.628331e+000 -8.498183e+000 81 75 41
1.398820e+000 -2.556493e+000 -8.514472e+000 81 73 51
1.674568e+000 -2.597257e+000 -8.719287e+000 82 78 50
2.417251e+000 -2.526992e+000 -9.039333e+000 66 70 46
-5.973979e-001 -2.799072e+000 -7.707245e+000 101 89 58
-5.969375e-001 -2.799019e+000 -7.707476e+000 101 89 58
1.738216e-002 -2.825338e+000 -8.065408e+000 129 122 76
1.079311e-001 -2.785317e+000 -8.042270e+000 80 68 44
6.968224e-001 -2.848058e+000 -8.360037e+000 82 73 40
2.398943e+000 -2.610065e+000 -9.134227e+000 63 67 42
-1.301785e+000 -3.156806e+000 -7.697665e+000 82 77 46
-1.086192e+000 -3.208999e+000 -7.856396e+000 93 85 56
-1.086192e+000 -3.208999e+000 -7.856396e+000 93 85 56
-5.847837e-001 -3.184641e+000 -8.073990e+000 92 82 54
-4.051369e-001 -3.010657e+000 -8.011625e+000 84 74 49
-4.223988e-001 -3.078319e+000 -8.087668e+000 98 89 58
4.472616e-001 -3.047846e+000 -8.510449e+000 87 76 55
6.159407e-001 -3.075068e+000 -8.667982e+000 87 77 50
1.229967e+000 -2.837675e+000 -8.767232e+000 131 122 65
1.445684e+000 -2.833181e+000 -8.828769e+000 83 80 45
1.887809e+000 -2.822093e+000 -9.090853e+000 79 75 50
1.851019e+000 -2.929887e+000 -9.175271e+000 77 76 48
2.282987e+000 -2.933309e+000 -9.377667e+000 71 74 47
2.439443e+000 -2.906554e+000 -9.446245e+000 67 69 45
-3.231303e+000 -3.557347e+000 -7.099434e+000 127 118 73
-2.581298e+000 -3.387534e+000 -7.231313e+000 132 126 91
-1.582837e+000 -3.388481e+000 -7.785788e+000 89 74 56
-1.041815e+000 -3.268261e+000 -7.981214e+000 87 75 50
-8.683039e-001 -3.263394e+000 -8.066791e+000 86 75 45
-1.073374e+000 -3.369852e+000 -8.051163e+000 98 87 60
-7.854099e-001 -3.341908e+000 -8.239058e+000 99 89 54
1.440205e-001 -3.188575e+000 -8.488497e+000 77 70 43
1.511281e-001 -3.170165e+000 -8.504997e+000 77 70 43
1.166990e+000 -3.201946e+000 -9.073171e+000 89 82 54
1.664733e+000 -3.049313e+000 -9.127630e+000 78 72 46
2.394842e+000 -3.004340e+000 -9.527378e+000 65 67 45
2.291056e+000 -3.134856e+000 -9.644364e+000 95 99 72
2.971074e+000 -3.048269e+000 -9.961920e+000 54 57 36
-3.121147e+000 -3.651762e+000 -7.225455e+000 125 113 71
-2.340568e+000 -3.648557e+000 -7.702150e+000 90 87 56
-1.420621e+000 -3.487723e+000 -7.993574e+000 95 84 62
-7.976655e-001 -3.577309e+000 -8.417174e+000 137 127 76
-7.235890e-001 -3.571880e+000 -8.437432e+000 94 84 57
-4.448782e-001 -3.487510e+000 -8.492988e+000 90 83 55
6.716688e-001 -3.294677e+000 -8.952449e+000 93 84 54
6.229633e-001 -3.442396e+000 -8.987476e+000 88 77 49
1.095122e+000 -3.434761e+000 -9.311597e+000 76 69 41
1.435186e+000 -3.290532e+000 -9.328537e+000 84 80 54
1.873917e+000 -3.247994e+000 -9.439863e+000 71 71 48
1.926975e+000 -3.331638e+000 -9.632948e+000 105 102 69
2.322596e+000 -3.266393e+000 -9.946385e+000 63 62 40
-3.236097e+000 -3.778420e+000 -7.325700e+000 69 64 44
-3.235066e+000 -3.781783e+000 -7.322001e+000 69 64 44
-3.214181e+000 -3.923813e+000 -7.451083e+000 117 116 85
-1.009584e+000 -3.652022e+000 -8.338308e+000 102 91 63
-8.145281e-001 -3.653754e+000 -8.505843e+000 144 132 92
-5.985467e-001 -3.558448e+000 -8.568173e+000 90 84 50
-4.799113e-001 -3.574717e+000 -8.583633e+000 95 88 59
-6.515356e-001 -3.719499e+000 -8.660431e+000 100 93 67
-2.196715e-001 -3.684517e+000 -8.849774e+000 86 81 59
1.209426e+000 -3.486742e+000 -9.400075e+000 80 77 45
1.353470e+000 -3.492874e+000 -9.492747e+000 71 64 37
1.648766e+000 -3.500653e+000 -9.693991e+000 75 71 52
1.604395e+000 -3.611295e+000 -9.780462e+000 80 76 47
2.053245e+000 -3.579759e+000 -9.963388e+000 72 72 48
2.631150e+000 -3.596246e+000 -1.017548e+001 55 58 42
3.253906e+000 -3.482109e+000 -1.060044e+001 131 121 109
-2.549361e-001 -3.809947e+000 -9.018736e+000 89 83 58
1.980405e-001 -3.746183e+000 -9.177753e+000 81 77 48
1.142623e+000 -3.715443e+000 -9.679875e+000 80 75 46
1.556419e+000 -3.730355e+000 -9.852653e+000 75 70 50
3.169345e+000 -3.639329e+000 -1.057723e+001 139 127 115
-5.314191e-001 -1.243035e+000 -6.196569e+000 142 132 81
-2.864561e+000 -1.798904e+000 -5.429807e+000 76 79 70
-2.916187e+000 -1.917336e+000 -5.487340e+000 77 80 73
-2.318691e+000 -1.791239e+000 -5.647229e+000 152 146 134
1.683981e+000 -1.222460e+000 -7.370056e+000 78 78 52
-2.955228e+000 -1.998807e+000 -5.583039e+000 72 76 62
-2.950850e+000 -2.017121e+000 -5.569721e+000 72 76 62
-1.977682e+000 -2.063219e+000 -6.070957e+000 137 135 126
-2.943923e+000 -2.192258e+000 -5.772187e+000 76 76 66
-2.758685e+000 -2.211095e+000 -5.844335e+000 102 104 90
-2.897637e+000 -2.282745e+000 -5.860740e+000 70 76 62
-2.897637e+000 -2.282745e+000 -5.860740e+000 70 76 62
-1.665525e+000 -3.059127e+000 -7.371456e+000 95 85 58
-1.666013e+000 -3.060946e+000 -7.370001e+000 95 85 58
-1.852710e+000 -3.162233e+000 -7.372700e+000 84 73 52
-3.264403e+000 -3.701053e+000 -7.133071e+000 123 117 72
-2.485324e+000 -3.688307e+000 -7.621887e+000 79 73 50
-2.485533e+000 -3.687922e+000 -7.624646e+000 79 73 50
-2.279510e+000 -3.557860e+000 -7.577778e+000 79 72 52
2.008606e+000 -3.299200e+000 -9.608501e+000 70 69 49
-6.487103e-001 -1.576600e+000 -6.453089e+000 147 137 85
-2.288719e-001 -1.428855e+000 -6.524944e+000 149 139 91
-2.584263e+000 -3.231485e+000 -7.029049e+000 138 125 85
-2.211114e+000 -3.186003e+000 -7.260755e+000 143 129 90
-2.212630e+000 -3.184830e+000 -7.261687e+000 143 129 90
-3.763154e+000 -3.589267e+000 -6.887155e+000 146 167 103
-1.872230e+000 -3.816957e+000 -8.073017e+000 132 125 81
2.646748e-001 -1.091347e+000 -6.380204e+000 140 132 75
-2.573967e+000 -2.415544e+000 -6.111337e+000 102 104 93
-2.507844e+000 -1.699059e+000 -5.479476e+000 85 83 69
3.034509e+000 -1.324139e+000 -8.184991e+000 89 97 66
-3.754956e-001 -1.751885e+000 -6.765618e+000 144 132 83
-1.134209e+000 -2.451036e+000 -7.081151e+000 145 130 97
-9.874298e-003 -2.377924e+000 -7.574623e+000 140 129 94
2.384487e+000 -2.174848e+000 -8.644287e+000 62 61 33
1.703176e+000 -2.455919e+000 -8.554068e+000 84 75 42
7.785603e-001 -2.819304e+000 -8.470822e+000 141 132 75
-1.788018e+000 -3.157111e+000 -7.425853e+000 143 128 89
-1.671439e+000 -3.130604e+000 -7.449828e+000 108 94 66
-2.750707e+000 -3.394601e+000 -7.179216e+000 131 118 84
-1.651222e+000 -3.384826e+000 -7.752624e+000 70 51 44
-6.764066e-001 -3.239549e+000 -8.108660e+000 153 138 97
-6.763599e-001 -3.241219e+000 -8.109547e+000 153 138 97
-1.980985e+000 -3.491318e+000 -7.655696e+000 87 76 47
-1.164076e+000 -3.608632e+000 -8.261661e+000 80 68 46
-1.164076e+000 -3.608632e+000 -8.261661e+000 80 68 46
-2.831799e+000 -3.872768e+000 -7.614248e+000 87 78 45
-1.804498e+000 -3.693651e+000 -7.994534e+000 134 122 84
-1.582079e+000 -3.771760e+000 -8.184696e+000 139 129 94
9.171491e-001 -3.709493e+000 -9.515532e+000 140 132 83
3.081472e+000 -3.818937e+000 -1.036855e+001 144 128 113
-3.174968e+000 -4.004563e+000 -7.563974e+000 122 116 82
-3.174189e+000 -4.006476e+000 -7.560332e+000 122 116 82
-2.933582e+000 -3.953634e+000 -7.648511e+000 129 119 83
-3.166975e+000 -4.094269e+000 -7.674913e+000 93 86 57
-3.103467e+000 -4.083815e+000 -7.679277e+000 118 109 75
-2.174899e+000 -3.935399e+000 -8.057993e+000 89 80 51
-2.391783e+000 -4.022779e+000 -8.054807e+000 121 111 81
-2.064573e+000 -3.989745e+000 -8.180749e+000 128 117 85
2.993219e+000 -1.466327e+000 -8.314889e+000 90 96 68
3.331572e+000 -1.530848e+000 -8.631210e+000 61 66 45
3.341866e+000 -1.677503e+000 -8.705360e+000 84 90 64
-1.043482e+000 -2.555693e+000 -7.228017e+000 152 133 100
2.307585e+000 -2.233140e+000 -8.704432e+000 91 91 55
-1.233644e+000 -2.622864e+000 -7.169034e+000 62 48 38
5.802755e-001 -2.692764e+000 -8.200386e+000 84 70 41
1.326956e+000 -2.537726e+000 -8.438270e+000 136 130 80
2.260412e+000 -2.590437e+000 -9.017241e+000 71 71 47
3.042669e+000 -2.375923e+000 -9.240037e+000 64 67 44
-1.246093e+000 -2.798159e+000 -7.373532e+000 144 130 95
-6.081293e-001 -3.039669e+000 -7.950918e+000 146 133 89
-3.911072e-001 -3.149775e+000 -8.172691e+000 144 132 82
-1.257341e+000 -3.406679e+000 -7.965273e+000 107 94 62
-6.207755e-001 -3.242924e+000 -8.143044e+000 117 102 70
3.466571e-001 -3.359366e+000 -8.783784e+000 84 73 43
-2.188122e+000 -3.493699e+000 -7.566791e+000 143 125 90
-2.208979e+000 -3.555624e+000 -7.611355e+000 137 122 86
-4.515558e-001 -3.516722e+000 -8.544913e+000 112 98 70
1.782712e+000 -3.521891e+000 -9.777794e+000 77 73 48
-5.244034e-002 -3.732956e+000 -9.001512e+000 89 74 50
7.241122e-002 -3.733918e+000 -9.086220e+000 90 78 52
1.166540e+000 -3.620477e+000 -9.576354e+000 80 74 42
-3.528844e+000 -4.054517e+000 -7.398588e+000 119 114 77
-2.402930e+000 -3.910012e+000 -7.892875e+000 129 118 82
2.030420e-001 -3.857862e+000 -9.276379e+000 149 133 88
-2.626193e+000 -2.215677e+000 -5.937757e+000 92 90 77
-3.098908e-001 -3.110820e+000 -8.187235e+000 100 89 57
-1.531678e+000 -3.799297e+000 -8.288016e+000 76 62 36
-1.409266e+000 -3.807005e+000 -8.345160e+000 93 78 56
1.378521e+000 -1.698379e+000 -7.598847e+000 142 127 65
-2.136083e+000 -3.557668e+000 -7.670919e+000 101 92 61
-2.136083e+000 -3.557668e+000 -7.670919e+000 101 92 61
-6.430066e-003 -3.379839e+000 -8.635993e+000 123 110 72
-1.960523e+000 -3.362113e+000 -7.545684e+000 109 99 64
-1.902395e-001 -8.281829e-001 -6.001421e+000 92 86 50
-2.600996e+000 -1.482571e+000 -5.252750e+000 132 133 99
1.885898e+000 -7.079270e-001 -7.004723e+000 117 124 92
2.730261e+000 -6.456300e-001 -7.481704e+000 65 77 54
2.792794e+000 -6.354724e-001 -7.451538e+000 104 117 91
2.792794e+000 -6.354724e-001 -7.451538e+000 104 117 91
4.064410e+000 -3.300356e-001 -7.967222e+000 199 207 198
-2.592813e+000 -1.725435e+000 -5.401855e+000 127 129 118
-2.346376e+000 -1.623132e+000 -5.397875e+000 138 140 129
-2.292972e+000 -1.624202e+000 -5.450863e+000 138 142 127
-2.148669e+000 -1.537965e+000 -5.470305e+000 93 93 86
-1.806658e+000 -1.492423e+000 -5.652094e+000 135 131 112
-2.955839e-001 -1.315898e+000 -6.388060e+000 142 133 89
1.531690e+000 -9.154473e-001 -7.000507e+000 86 86 60
2.177089e+000 -7.640616e-001 -7.312921e+000 104 113 86
3.537830e+000 -6.644099e-001 -7.946874e+000 94 106 82
-2.681462e+000 -1.802068e+000 -5.442936e+000 78 79 70
-1.864479e+000 -1.710417e+000 -5.743225e+000 137 139 128
-1.834915e+000 -1.788587e+000 -5.837550e+000 139 143 127
-9.944793e-001 -1.391005e+000 -6.137617e+000 61 57 53
-2.538599e-001 -1.424141e+000 -6.474377e+000 148 136 89
-2.872917e-001 -1.507942e+000 -6.592333e+000 101 90 58
3.642851e-001 -1.399920e+000 -6.835702e+000 147 139 93
7.786554e-001 -1.162765e+000 -6.897099e+000 87 82 50
2.406188e+000 -9.796436e-001 -7.588905e+000 99 111 81
2.708556e+000 -9.398015e-001 -7.659661e+000 105 117 95
3.164161e+000 -9.200271e-001 -7.916563e+000 97 109 85
-2.793034e+000 -1.999039e+000 -5.568421e+000 82 85 76
-2.793034e+000 -1.999039e+000 -5.568421e+000 82 85 76
-2.097081e+000 -1.981663e+000 -5.827566e+000 142 138 127
-2.033872e+000 -1.991085e+000 -5.935084e+000 80 82 70
-1.884978e+000 -1.851698e+000 -5.901829e+000 75 79 65
-1.581543e+000 -1.861759e+000 -6.045448e+000 131 127 90
-1.581543e+000 -1.861759e+000 -6.045448e+000 131 127 90
-4.937594e-001 -1.746888e+000 -6.634458e+000 141 133 85
-7.032036e-002 -1.567531e+000 -6.754180e+000 150 141 84
1.067311e+000 -1.461084e+000 -7.271902e+000 109 97 52
1.622181e+000 -1.379438e+000 -7.524299e+000 130 123 84
1.751664e+000 -1.434191e+000 -7.641026e+000 117 115 74
-2.960594e+000 -2.100115e+000 -5.600352e+000 128 127 100
-2.960594e+000 -2.100115e+000 -5.600352e+000 128 127 100
-2.796675e+000 -2.120866e+000 -5.707557e+000 89 90 79
-2.686190e+000 -2.033118e+000 -5.831143e+000 141 133 120
-1.660408e+000 -2.054422e+000 -6.162423e+000 97 97 65
-1.513481e+000 -2.071236e+000 -6.285871e+000 96 96 65
-7.957360e-001 -1.806955e+000 -6.654663e+000 147 135 92
-6.679734e-001 -1.873662e+000 -6.640569e+000 87 78 46
-6.553956e-001 -1.957893e+000 -6.753754e+000 145 135 101
-2.143318e-001 -1.709894e+000 -6.853939e+000 84 76 40
-3.766096e-001 -1.815907e+000 -6.839891e+000 92 80 53
-1.044662e-001 -1.759811e+000 -6.945958e+000 90 75 46
-5.361136e-002 -1.745828e+000 -6.951347e+000 154 142 103
-5.361136e-002 -1.745828e+000 -6.951347e+000 154 142 103
2.046842e-002 -1.823814e+000 -7.029701e+000 95 83 58
2.046842e-002 -1.823814e+000 -7.029701e+000 95 83 58
2.543660e-001 -1.757820e+000 -7.104724e+000 146 137 92
2.401662e-001 -1.805247e+000 -7.108563e+000 160 151 109
3.897136e-001 -1.720724e+000 -7.170899e+000 150 137 95
3.897136e-001 -1.720724e+000 -7.170899e+000 150 137 95
1.953671e+000 -1.524868e+000 -7.814210e+000 121 124 79
1.953671e+000 -1.524868e+000 -7.814210e+000 121 124 79
3.188541e+000 -1.311896e+000 -8.300190e+000 92 102 76
3.188541e+000 -1.311896e+000 -8.300190e+000 92 102 76
-2.426311e+000 -2.359860e+000 -6.096715e+000 81 83 70
-2.426311e+000 -2.359860e+000 -6.096715e+000 81 83 70
-2.024773e+000 -2.303943e+000 -6.150674e+000 137 139 126
-1.978812e+000 -2.236477e+000 -6.186049e+000 75 79 65
-7.415431e-001 -2.001849e+000 -6.795450e+000 151 139 104
-7.565064e-001 -2.045281e+000 -6.844605e+000 146 137 97
-5.755296e-001 -2.010365e+000 -6.890285e+000 146 136 100
-7.845875e-001 -2.163505e+000 -6.867311e+000 153 144 108
-7.080216e-001 -2.111638e+000 -6.894588e+000 150 139 110
-5.067303e-001 -2.009958e+000 -6.889616e+000 149 137 100
-4.596818e-001 -2.000155e+000 -6.937056e+000 159 145 109
-4.772466e-001 -2.054670e+000 -6.987517e+000 156 143 108
-5.320754e-001 -2.074571e+000 -7.031483e+000 149 135 107
-1.943442e-001 -1.940621e+000 -7.031352e+000 91 78 54
-3.177989e-001 -2.025690e+000 -7.084278e+000 79 65 36
-1.732728e-002 -1.902033e+000 -7.086673e+000 80 72 43
2.066391e-001 -1.918553e+000 -7.185608e+000 148 139 108
7.241691e-002 -2.017498e+000 -7.268052e+000 86 75 42
4.908157e-001 -1.992127e+000 -7.491952e+000 145 141 93
1.591734e+000 -1.743746e+000 -7.819127e+000 132 130 78
2.619300e+000 -1.737787e+000 -8.391398e+000 94 103 69
-1.066375e+000 -2.249819e+000 -6.921538e+000 142 133 104
-1.092354e+000 -2.349156e+000 -6.925846e+000 143 134 103
-9.660975e-001 -2.253777e+000 -6.957400e+000 145 134 106
-8.185933e-001 -2.268537e+000 -6.944905e+000 150 137 107
-5.720574e-001 -2.217483e+000 -7.068194e+000 149 138 109
-3.599609e-001 -2.111063e+000 -7.137960e+000 151 142 101
-2.461817e-001 -2.210277e+000 -7.256206e+000 82 71 43
-4.584467e-002 -2.143253e+000 -7.291808e+000 147 135 95
5.632169e-001 -2.130137e+000 -7.617092e+000 155 145 97
5.632169e-001 -2.130137e+000 -7.617092e+000 155 145 97
1.235030e+000 -2.019420e+000 -7.977609e+000 145 132 89
2.607221e+000 -1.777766e+000 -8.460800e+000 102 111 82
2.384795e+000 -2.008935e+000 -8.535713e+000 104 110 76
2.577100e+000 -1.905229e+000 -8.582020e+000 101 110 79
3.392541e+000 -1.733468e+000 -8.861933e+000 79 88 61
3.393280e+000 -1.733802e+000 -8.861987e+000 79 88 61
-5.224846e-001 -2.394141e+000 -7.332568e+000 152 138 109
2.962423e-001 -2.267858e+000 -7.600733e+000 81 72 37
6.324976e-001 -2.314038e+000 -7.912666e+000 156 140 78
1.182201e+000 -2.186077e+000 -8.040968e+000 141 131 80
1.821768e+000 -2.131170e+000 -8.368320e+000 72 68 33
2.655449e+000 -2.068093e+000 -8.806424e+000 93 103 66
2.655449e+000 -2.068093e+000 -8.806424e+000 93 103 66
-1.456295e+000 -2.740611e+000 -7.055449e+000 154 141 113
-9.635550e-001 -2.676797e+000 -7.361388e+000 148 141 113
-2.518751e-001 -2.577963e+000 -7.621181e+000 87 79 43
-4.743432e-002 -2.466831e+000 -7.618671e+000 146 134 93
3.376921e-001 -2.454739e+000 -7.898336e+000 144 137 94
7.921782e-001 -2.432168e+000 -8.140322e+000 141 130 74
1.158906e+000 -2.371538e+000 -8.209498e+000 82 75 45
2.539598e+000 -2.422770e+000 -8.987222e+000 89 95 67
3.212399e+000 -2.139409e+000 -9.197076e+000 89 97 74
-1.021987e+000 -2.873154e+000 -7.453283e+000 154 140 111
-9.270150e-001 -2.780639e+000 -7.500242e+000 145 135 101
-9.418093e-001 -2.825536e+000 -7.548953e+000 157 143 114
-7.683727e-001 -2.795123e+000 -7.635044e+000 152 140 94
-2.081386e-001 -2.638422e+000 -7.826648e+000 146 136 87
-5.272569e-002 -2.720863e+000 -7.795603e+000 147 138 98
-7.915818e-002 -2.788180e+000 -7.925879e+000 137 128 74
6.320555e-001 -2.687442e+000 -8.166687e+000 149 140 82
1.332143e+000 -2.532425e+000 -8.460792e+000 135 130 74
1.444963e+000 -2.669224e+000 -8.707324e+000 132 126 71
1.756978e+000 -2.555254e+000 -8.755659e+000 111 110 66
2.005783e+000 -2.528789e+000 -8.816293e+000 61 59 38
2.469135e+000 -2.427130e+000 -9.039807e+000 93 98 68
2.319997e+000 -2.618349e+000 -9.103249e+000 92 96 67
-2.122414e+000 -3.073509e+000 -7.107914e+000 143 129 100
-1.793807e+000 -2.958917e+000 -7.190876e+000 89 79 53
-1.102282e+000 -2.915662e+000 -7.485673e+000 82 75 49
-1.059527e+000 -2.992067e+000 -7.539555e+000 156 143 108
-1.059527e+000 -2.992067e+000 -7.539555e+000 156 143 108
-1.072590e+000 -3.010496e+000 -7.628097e+000 148 136 98
-9.573473e-001 -2.869228e+000 -7.578901e+000 148 138 101
-7.319125e-001 -3.017102e+000 -7.849804e+000 146 139 95
-5.065982e-001 -2.944501e+000 -7.883244e+000 67 57 29
-3.073843e-001 -2.917846e+000 -8.004508e+000 141 131 78
-9.984888e-002 -2.833058e+000 -8.138026e+000 139 130 82
2.703960e-003 -2.891993e+000 -8.117555e+000 135 124 79
1.454794e+000 -2.783414e+000 -8.822731e+000 78 73 45
2.899303e+000 -2.647274e+000 -9.516690e+000 81 87 61
-2.415756e+000 -3.211346e+000 -7.113221e+000 88 77 49
-1.108705e+000 -3.183296e+000 -7.784672e+000 83 73 46
3.725037e-001 -3.090349e+000 -8.509827e+000 140 132 83
4.888442e-001 -3.091379e+000 -8.587434e+000 142 133 82
7.478214e-001 -2.916800e+000 -8.595828e+000 142 134 86
1.055570e+000 -3.059138e+000 -8.906686e+000 129 118 70
2.102118e+000 -2.869058e+000 -9.207846e+000 103 108 67
-2.787227e+000 -3.438787e+000 -7.134225e+000 79 74 51
-2.802060e+000 -3.501421e+000 -7.174401e+000 82 73 47
-2.689573e+000 -3.463679e+000 -7.226420e+000 127 119 83
-2.251395e+000 -3.357010e+000 -7.286543e+000 132 122 87
-2.077396e+000 -3.384973e+000 -7.442338e+000 139 127 91
-1.969641e+000 -3.366909e+000 -7.430127e+000 95 85 58
-1.768496e+000 -3.438924e+000 -7.676013e+000 105 91 63
-1.643383e+000 -3.299266e+000 -7.784479e+000 54 40 31
-8.063143e-001 -3.248711e+000 -8.052957e+000 142 131 94
-7.314519e-001 -3.253606e+000 -8.100791e+000 85 75 46
-2.315755e-001 -3.222256e+000 -8.396990e+000 138 128 84
1.537896e+000 -3.193356e+000 -9.292053e+000 125 122 73
-3.174333e+000 -3.585754e+000 -7.110312e+000 81 74 45
-2.695699e+000 -3.627158e+000 -7.355022e+000 80 71 36
-1.947074e+000 -3.606708e+000 -7.785211e+000 135 128 96
-1.190493e+000 -3.516480e+000 -8.200075e+000 138 128 95
-8.178257e-001 -3.365076e+000 -8.218655e+000 64 55 24
-9.776200e-001 -3.509446e+000 -8.257123e+000 81 76 40
-6.254969e-001 -3.452335e+000 -8.320001e+000 132 125 81
-5.385749e-001 -3.434168e+000 -8.417703e+000 75 67 30
-3.331219e-001 -3.513203e+000 -8.611435e+000 132 123 80
8.491092e-001 -3.331672e+000 -9.076385e+000 135 128 81
1.348243e+000 -3.334938e+000 -9.443338e+000 129 120 80
-3.346533e+000 -3.773226e+000 -7.145997e+000 126 119 75
-3.073030e+000 -3.706984e+000 -7.207825e+000 67 61 37
-2.993154e+000 -3.719968e+000 -7.327499e+000 120 115 77
-2.993154e+000 -3.719968e+000 -7.327499e+000 120 115 77
-2.950499e+000 -3.802881e+000 -7.414568e+000 120 113 84
-2.571552e+000 -3.667946e+000 -7.478251e+000 74 68 36
-2.408843e+000 -3.714844e+000 -7.619187e+000 125 119 82
-2.332776e+000 -3.700301e+000 -7.717348e+000 125 119 83
-2.364039e+000 -3.783761e+000 -7.720799e+000 124 120 85
-1.440534e+000 -3.764713e+000 -8.172686e+000 135 123 86
-1.062249e+000 -3.629457e+000 -8.369955e+000 143 131 92
-1.062249e+000 -3.629457e+000 -8.369955e+000 143 131 92
1.225905e+000 -3.535993e+000 -9.533282e+000 69 60 28
3.286470e+000 -3.302469e+000 -1.065723e+001 88 75 66
-3.646201e+000 -3.956641e+000 -7.270104e+000 85 81 52
-2.984612e+000 -3.906705e+000 -7.587250e+000 117 111 69
-2.751981e+000 -3.825951e+000 -7.532984e+000 120 115 73
-2.173102e+000 -3.841594e+000 -7.956245e+000 127 123 85
-1.881931e+000 -3.714525e+000 -8.056742e+000 88 84 48
-2.131946e+000 -3.955608e+000 -8.020439e+000 123 118 78
-8.216465e-001 -3.678569e+000 -8.592891e+000 136 124 81
-5.077022e-001 -3.705706e+000 -8.763028e+000 88 79 45
-1.618418e-001 -3.700632e+000 -8.897874e+000 129 127 70
1.386652e+000 -3.758374e+000 -9.909993e+000 59 62 29
-3.334803e+000 -4.019369e+000 -7.449308e+000 77 74 43
-3.330782e+000 -4.083286e+000 -7.484793e+000 73 71 46
-3.192835e+000 -4.111800e+000 -7.606939e+000 73 69 41
-2.993100e+000 -4.028933e+000 -7.621504e+000 65 59 39
-2.872546e+000 -4.027694e+000 -7.662525e+000 124 121 80
-2.903160e+000 -4.034203e+000 -7.772344e+000 70 66 38
-2.728680e+000 -3.980048e+000 -7.761266e+000 117 115 76
-2.740880e+000 -4.040460e+000 -7.758532e+000 66 61 42
-2.445299e+000 -4.002042e+000 -7.873993e+000 80 74 42
-2.161230e+000 -4.013989e+000 -8.058412e+000 117 113 78
-2.012400e+000 -3.979498e+000 -8.201322e+000 76 73 45
-9.092861e-001 -3.890476e+000 -8.713031e+000 136 124 77
-1.935881e-001 -3.875152e+000 -9.169788e+000 80 66 40
1.215222e+000 -5.928520e-001 -6.624562e+000 111 115 77
-7.315646e-001 -1.172694e+000 -6.018243e+000 142 134 81
1.062956e+000 -7.527017e-001 -6.641027e+000 122 127 86
1.455897e+000 -7.341807e-001 -6.824286e+000 121 126 85
3.953338e+000 -4.133307e-001 -7.905335e+000 103 112 92
-2.243501e+000 -1.510093e+000 -5.449978e+000 82 84 71
-2.250297e+000 -1.538425e+000 -5.435194e+000 82 84 71
-1.831688e+000 -1.578305e+000 -5.726565e+000 79 80 72
2.608567e+000 -7.747825e-001 -7.486066e+000 100 113 85
2.477255e+000 -7.962715e-001 -7.614310e+000 100 111 78
2.477255e+000 -7.962715e-001 -7.614310e+000 100 111 78
2.861680e+000 -8.876977e-001 -7.649736e+000 97 110 80
2.894461e+000 -8.187465e-001 -7.699738e+000 97 110 80
-2.609664e+000 -1.877765e+000 -5.459010e+000 81 83 72
-2.142098e+000 -1.791642e+000 -5.705160e+000 100 93 83
4.210075e-002 -1.438122e+000 -6.656773e+000 137 130 84
9.218836e-001 -1.364283e+000 -7.000039e+000 148 139 84
1.777966e+000 -1.133578e+000 -7.358661e+000 116 120 79
2.035529e+000 -1.227863e+000 -7.518966e+000 117 122 87
2.228299e+000 -1.080058e+000 -7.533378e+000 108 117 80
2.683160e+000 -1.036178e+000 -7.718350e+000 98 108 83
3.491522e+000 -8.006685e-001 -8.013871e+000 95 107 83
3.514150e+000 -7.965852e-001 -8.107444e+000 100 113 88
3.583707e+000 -7.755923e-001 -8.066621e+000 66 78 54
3.489175e+000 -1.013770e+000 -8.145392e+000 68 77 56
-2.841954e+000 -1.970068e+000 -5.576519e+000 77 82 75
-2.853638e+000 -2.022858e+000 -5.647898e+000 74 77 68
-2.740238e+000 -2.070667e+000 -5.645671e+000 77 79 68
-2.026818e+000 -1.838876e+000 -5.836084e+000 153 144 137
-2.151909e+000 -1.998216e+000 -5.897387e+000 130 130 120
-2.110792e+000 -2.088832e+000 -5.856467e+000 81 83 72
-1.996380e+000 -1.979796e+000 -5.991783e+000 142 144 130
-1.893703e+000 -1.990088e+000 -5.976967e+000 82 85 74
-4.889739e-001 -1.613389e+000 -6.653948e+000 91 85 59
-2.295043e-001 -1.483951e+000 -6.635672e+000 159 147 100
-1.219734e-001 -1.574162e+000 -6.736529e+000 155 143 95
-2.337849e-001 -1.698033e+000 -6.779930e+000 83 75 55
8.377946e-001 -1.481108e+000 -7.130180e+000 124 114 79
1.891759e+000 -1.240547e+000 -7.541455e+000 124 126 87
1.852139e+000 -1.387929e+000 -7.606363e+000 120 123 80
2.650987e+000 -1.368332e+000 -7.996229e+000 62 72 48
3.315156e+000 -1.100576e+000 -8.124383e+000 60 70 53
3.200305e+000 -1.268371e+000 -8.252218e+000 89 103 77
-2.818485e+000 -2.090210e+000 -5.678091e+000 132 134 123
-2.280200e+000 -2.147056e+000 -5.991370e+000 143 138 129
-2.280200e+000 -2.147056e+000 -5.991370e+000 143 138 129
-1.903287e+000 -2.151789e+000 -6.182760e+000 90 91 78
-1.828181e+000 -2.043971e+000 -6.065406e+000 79 82 70
1.617160e+000 -1.670111e+000 -7.760917e+000 131 130 82
1.792062e+000 -1.552693e+000 -7.679497e+000 128 126 87
1.792062e+000 -1.552693e+000 -7.679497e+000 128 126 87
1.798558e+000 -1.556093e+000 -7.784594e+000 128 127 76
1.925026e+000 -1.611782e+000 -7.873102e+000 119 120 78
2.711485e+000 -1.419204e+000 -8.082397e+000 91 101 74
2.886712e+000 -1.378061e+000 -8.260509e+000 93 104 74
2.673683e+000 -1.547052e+000 -8.225447e+000 93 104 75
2.673683e+000 -1.547052e+000 -8.225447e+000 93 104 75
3.135568e+000 -1.480482e+000 -8.456304e+000 92 100 76
3.277479e+000 -1.477721e+000 -8.476882e+000 85 95 68
-2.775581e+000 -2.299182e+000 -5.874466e+000 77 79 68
-2.706905e+000 -2.285845e+000 -5.915706e+000 137 141 127
-2.586740e+000 -2.250219e+000 -5.982217e+000 69 75 65
-2.668235e+000 -2.339676e+000 -6.014951e+000 82 82 69
-2.620406e+000 -2.321040e+000 -6.014305e+000 131 133 120
-2.037908e+000 -2.291422e+000 -6.225669e+000 74 75 66
-1.207714e+000 -2.168635e+000 -6.731933e+000 68 53 48
-2.734328e-001 -2.038653e+000 -7.112702e+000 152 140 101
1.099044e+000 -1.823757e+000 -7.562340e+000 154 136 69
1.569137e+000 -1.819945e+000 -7.867261e+000 146 136 85
1.717893e+000 -1.827738e+000 -7.989589e+000 132 127 83
1.929033e+000 -1.614846e+000 -7.964544e+000 122 121 79
1.870298e+000 -1.789556e+000 -7.991999e+000 131 124 82
2.347065e+000 -1.662467e+000 -8.116773e+000 109 117 78
2.872852e+000 -1.599745e+000 -8.339888e+000 62 72 47
2.999171e+000 -1.491875e+000 -8.436712e+000 89 105 71
2.999171e+000 -1.491875e+000 -8.436712e+000 89 105 71
2.974392e+000 -1.563254e+000 -8.475862e+000 91 104 74
3.043148e+000 -1.718637e+000 -8.542627e+000 87 97 68
-3.594879e+000 -1.627168e+000 -6.143357e+000 112 115 98
-2.455798e+000 -2.497981e+000 -6.202353e+000 130 129 111
-2.254780e+000 -2.455993e+000 -6.286039e+000 79 80 73
-2.254780e+000 -2.455993e+000 -6.286039e+000 79 80 73
-9.248125e-001 -2.198071e+000 -6.908576e+000 152 141 112
-8.377458e-001 -2.272490e+000 -7.006334e+000 161 146 115
-8.460680e-001 -2.329544e+000 -6.971321e+000 161 146 115
-6.890004e-001 -2.220493e+000 -7.086017e+000 80 71 54
-7.069991e-002 -2.220334e+000 -7.374650e+000 149 139 101
1.951363e+000 -1.990645e+000 -8.249128e+000 126 123 78
1.951363e+000 -1.990645e+000 -8.249128e+000 126 123 78
2.116786e+000 -1.942028e+000 -8.326314e+000 116 118 78
2.259268e+000 -1.964287e+000 -8.444123e+000 113 114 72
2.330761e+000 -1.958735e+000 -8.509035e+000 64 68 45
2.846135e+000 -1.800364e+000 -8.528362e+000 91 100 69
2.699243e+000 -1.952842e+000 -8.674881e+000 92 101 74
3.143603e+000 -1.865149e+000 -8.763543e+000 79 89 60
2.995099e+000 -1.917717e+000 -8.790387e+000 85 94 69
2.995099e+000 -1.917717e+000 -8.790387e+000 85 94 69
-1.046714e+000 -2.397248e+000 -7.039084e+000 105 98 69
-1.149961e+000 -2.537703e+000 -7.060950e+000 146 134 105
-6.373496e-001 -2.447954e+000 -7.314384e+000 153 139 104
-2.426564e-001 -2.350033e+000 -7.394498e+000 151 139 96
-2.426564e-001 -2.350033e+000 -7.394498e+000 151 139 96
-1.343923e-001 -2.396905e+000 -7.561528e+000 149 136 93
1.806679e-001 -2.379451e+000 -7.658298e+000 140 132 89
1.759811e+000 -2.148382e+000 -8.358750e+000 125 123 75
2.217528e+000 -2.070199e+000 -8.456115e+000 115 115 71
2.056095e+000 -2.143702e+000 -8.493513e+000 112 112 73
1.885013e+000 -2.195249e+000 -8.405301e+000 126 125 80
2.164385e+000 -2.216858e+000 -8.488591e+000 109 110 69
2.433681e+000 -2.073976e+000 -8.564348e+000 57 65 41
2.495420e+000 -2.088395e+000 -8.585989e+000 105 111 79
2.365477e+000 -2.070662e+000 -8.587366e+000 101 107 73
3.133816e+000 -2.093789e+000 -9.059138e+000 58 66 43
-7.591630e-001 -2.577458e+000 -7.313451e+000 153 140 107
-3.477128e-001 -2.484663e+000 -7.520164e+000 149 137 87
1.311768e-001 -2.540498e+000 -7.802488e+000 147 139 85
1.387619e+000 -2.376450e+000 -8.293083e+000 135 130 75
1.395376e+000 -2.355502e+000 -8.311877e+000 135 130 75
1.832288e+000 -2.350100e+000 -8.523990e+000 118 116 74
2.465913e+000 -2.214448e+000 -8.815473e+000 98 102 75
2.318623e+000 -2.418607e+000 -8.847560e+000 53 56 36
3.022603e+000 -2.240588e+000 -9.111858e+000 80 89 62
-5.126028e-001 -2.775056e+000 -7.632975e+000 146 135 89
-2.373451e-001 -2.725146e+000 -7.817402e+000 142 132 83
8.400908e-001 -2.634043e+000 -8.357932e+000 137 129 83
1.056247e+000 -2.687669e+000 -8.453320e+000 81 71 39
1.462885e+000 -2.585319e+000 -8.604617e+000 133 127 75
1.435603e+000 -2.662141e+000 -8.593557e+000 132 129 65
1.611479e+000 -2.586037e+000 -8.694921e+000 127 121 70
1.914319e+000 -2.539086e+000 -8.725861e+000 109 108 64
