ply
format ascii 1.0
element face 0
property list uchar int vertex_indices
element vertex 874
property float x
property float y
property float z
property uchar diffuse_red
property uchar diffuse_green
property uchar diffuse_blue
end_header
-1.265819e+000 1.081776e+000 -6.962764e+000 201 184 160
-3.330355e-001 1.063461e+000 -7.761327e+000 197 184 174
3.052813e-001 4.667578e-002 -6.783360e+000 66 81 56
1.371809e+000 -1.247119e-001 -6.987886e+000 140 92 62
1.372180e+000 -1.247564e-001 -6.987684e+000 140 92 62
-1.893950e+000 -3.842463e+000 -8.262538e+000 91 76 52
-5.692052e-001 3.362520e+000 -1.024751e+001 186 152 103
-2.226590e+000 2.844233e+000 -8.701813e+000 200 175 118
-3.069321e+000 1.504827e+000 -6.886690e+000 204 186 154
-3.069321e+000 1.504827e+000 -6.886690e+000 204 186 154
-3.047763e+000 1.366218e+000 -6.736795e+000 199 172 95
-1.319006e+000 9.604142e-001 -6.888916e+000 143 112 69
-2.102931e-001 9.744691e-001 -7.658167e+000 54 76 58
-6.451967e-001 -5.508608e-001 -5.658247e+000 111 99 47
-3.512729e-001 -1.258010e+000 -6.322952e+000 131 113 68
-2.032702e+000 -2.135082e+000 -6.170166e+000 74 68 60
-2.032702e+000 -2.135082e+000 -6.170166e+000 74 68 60
-2.054003e+000 4.202716e+000 -1.085049e+001 195 167 113
-2.850109e-001 3.652057e+000 -1.056603e+001 171 139 101
1.522907e+000 1.073105e+000 -8.412615e+000 180 178 152
1.738522e+000 9.476147e-001 -8.354534e+000 136 142 85
2.098343e+000 1.006740e+000 -8.574839e+000 81 90 61
7.436469e-001 4.850408e-001 -7.444683e+000 172 137 99
1.332870e+000 2.760052e+000 -1.037302e+001 188 178 167
9.742212e-001 4.747055e-001 -7.604361e+000 180 163 99
8.278065e-001 -1.290915e+000 -7.135234e+000 120 105 72
2.986549e+000 -3.821593e+000 -1.071149e+001 198 163 149
-2.688911e+000 3.090106e+000 -8.742574e+000 197 190 178
-1.220753e+000 9.089067e-001 -6.915545e+000 148 122 92
2.667135e-001 2.744057e-001 -6.996564e+000 65 80 59
-8.352268e-001 -4.394628e-001 -5.400368e+000 152 146 76
1.979488e+000 1.728449e+000 -9.357525e+000 85 81 79
-2.757572e+000 -6.982358e-001 -4.937812e+000 188 178 125
-3.491136e-002 3.296605e+000 -1.020693e+001 191 168 127
-2.297483e+000 2.018076e+000 -7.672770e+000 202 184 184
-2.297483e+000 2.018076e+000 -7.672770e+000 202 184 184
2.342447e+000 2.472214e+000 -1.032089e+001 86 103 79
-2.750140e+000 3.953734e+000 -1.024373e+001 170 154 94
9.807186e-001 3.460477e+000 -1.109650e+001 181 157 109
2.868889e-001 1.203328e+000 -8.024718e+000 192 178 148
2.502278e+000 1.567411e-001 -7.700293e+000 176 170 145
-8.398943e-001 4.008828e+000 -1.128249e+001 126 86 79
3.537522e+000 1.746973e+000 -9.592451e+000 190 197 190
-2.657318e+000 1.145292e+000 -6.386310e+000 194 184 144
-6.149337e-001 5.749883e-001 -7.971245e+000 194 185 170
-2.810163e+000 1.288126e-001 -5.852902e+000 141 147 75
2.501723e+000 1.623830e+000 -9.629560e+000 72 80 69
-2.356621e+000 1.943173e+000 -7.550967e+000 163 64 72
3.074299e+000 2.191317e+000 -9.925617e+000 87 89 82
3.013649e+000 1.861525e+000 -1.010846e+001 163 165 158
-4.799635e+001 -9.111022e+000 -8.788749e+001 175 165 224
-4.925235e+000 3.765181e+000 -9.080538e+000 168 169 127
1.326488e+000 4.555339e+000 -1.259195e+001 213 208 196
-3.375375e+000 3.380347e+000 -8.965236e+000 173 129 104
1.409273e+000 3.102582e+000 -1.084291e+001 195 179 136
-1.444436e+000 1.981563e+000 -7.655182e+000 196 172 115
1.316804e+000 2.196107e+000 -9.644683e+000 103 96 88
-9.645653e-002 1.321631e+000 -8.095175e+000 193 187 165
-2.340995e-001 1.045112e+000 -7.743995e+000 82 73 60
6.407079e-001 8.680675e-001 -7.840726e+000 131 94 58
3.391700e+000 1.921859e-001 -8.163417e+000 102 116 90
3.391700e+000 1.921859e-001 -8.163417e+000 102 116 90
1.037489e+000 -3.230234e-002 -6.951402e+000 174 168 99
1.409049e+000 3.475329e-002 -7.192960e+000 171 160 100
3.573978e+000 -6.182851e-002 -7.954265e+000 110 122 95
-2.378378e+000 2.548134e+000 -8.270761e+000 189 184 183
2.146687e+000 2.544310e+000 -1.045955e+001 71 83 69
-1.718957e+000 1.347042e+000 -7.058108e+000 194 188 186
-1.718957e+000 1.347042e+000 -7.058108e+000 194 188 186
6.865202e-001 1.366306e+000 -8.445103e+000 142 94 71
2.653468e-001 6.285049e-001 -7.433887e+000 193 175 137
2.407652e+000 7.420314e-001 -8.406710e+000 172 148 97
2.799766e+000 5.948541e-001 -8.383214e+000 111 121 77
2.595668e+000 3.111654e-001 -7.994877e+000 165 150 92
-8.142895e-001 -1.431829e-001 -5.877438e+000 141 119 64
4.653074e+000 -3.622014e+000 -7.297477e+000 96 85 79
-5.212802e-001 4.350019e+000 -1.167066e+001 128 140 103
-3.476085e+000 2.206168e+000 -7.309657e+000 204 187 140
-3.476085e+000 2.206168e+000 -7.309657e+000 204 187 140
1.705489e+000 1.394311e+000 -8.861602e+000 144 149 84
2.641048e+000 4.952159e-001 -8.245332e+000 165 144 91
-4.684620e+000 3.954260e+000 -9.272201e+000 143 145 106
2.921583e+000 2.033109e+000 -1.010573e+001 157 160 153
6.855341e-001 5.920713e-001 -7.532274e+000 185 163 108
-4.135446e+001 -2.002565e+001 -7.761948e+001 216 65 97
-3.504958e+001 -2.652945e+001 -7.574270e+001 63 63 131
-2.265744e+000 4.237531e+000 -1.085163e+001 196 169 106
-3.802525e+001 -2.601170e+001 -7.408128e+001 188 34 71
-3.508342e+001 -2.597533e+001 -7.663606e+001 125 167 227
-2.899476e+001 -2.707166e+001 -7.253185e+001 187 30 61
-2.732625e+001 -3.121180e+001 -7.271387e+001 203 34 65
-2.783342e+001 -3.180075e+001 -7.134195e+001 213 30 57
1.788451e+000 1.505024e+000 -9.004728e+000 160 161 129
7.872589e-001 8.330644e-001 -7.778997e+000 183 164 108
7.887667e-001 8.300178e-001 -7.779988e+000 183 164 108
6.718119e-001 8.881552e-002 -6.898729e+000 179 165 104
-3.447095e+001 -2.646201e+001 -7.178587e+001 63 44 102
-3.857338e+001 -2.814180e+001 -6.700627e+001 203 29 65
-2.591920e+000 4.120857e+000 -1.058702e+001 163 157 91
1.426603e-001 5.245163e-001 -7.259704e+000 71 82 65
-3.748844e+001 -2.476662e+001 -7.583981e+001 122 22 47
-4.259653e+001 -2.093411e+001 -7.608891e+001 254 248 255
-3.580929e+001 -2.578571e+001 -7.439368e+001 143 195 247
-4.015382e+001 -2.791969e+001 -7.138925e+001 237 44 88
-3.349684e+001 -3.020722e+001 -7.432691e+001 38 21 37
-5.137963e+000 4.225261e+000 -9.442546e+000 136 142 91
-4.211265e+000 3.893512e+000 -9.362866e+000 85 102 64
-3.556758e+000 3.731990e+000 -9.233001e+000 200 182 136
-3.965899e-001 4.184633e+000 -1.145049e+001 131 147 113
-4.578116e+000 3.197330e+000 -8.376873e+000 180 160 106
-6.732577e-001 3.662596e+000 -1.054796e+001 135 80 60
-9.099066e-001 3.512309e+000 -1.036194e+001 185 146 107
-9.069039e-001 3.510677e+000 -1.041611e+001 185 146 107
-4.776963e-001 3.513813e+000 -1.055950e+001 169 124 88
3.112690e-001 3.416653e+000 -1.073579e+001 156 112 72
5.248679e-001 3.491633e+000 -1.106350e+001 137 101 77
-4.714101e+000 2.845206e+000 -8.415363e+000 244 203 148
7.113553e-001 2.582667e+000 -9.896038e+000 180 170 136
7.113553e-001 2.582667e+000 -9.896038e+000 180 170 136
1.377069e+000 2.551291e+000 -1.012600e+001 95 86 82
1.988371e+000 2.786771e+000 -1.070273e+001 163 144 100
1.988371e+000 2.786771e+000 -1.070273e+001 163 144 100
3.268089e+000 2.807031e+000 -9.404284e+000 67 67 59
-2.211719e+000 2.121931e+000 -7.825167e+000 121 58 55
-2.206217e+000 2.120778e+000 -7.839249e+000 121 58 55
6.475671e-001 2.420918e+000 -9.611675e+000 185 176 148
1.536059e+000 2.198258e+000 -9.753476e+000 81 76 72
1.531899e+000 2.200967e+000 -9.743568e+000 81 76 72
1.662782e+000 2.456914e+000 -1.012072e+001 103 101 88
1.719038e+000 2.398416e+000 -1.008944e+001 152 146 136
1.997597e+000 2.413067e+000 -1.023328e+001 110 111 110
1.705407e+000 2.033665e+000 -9.643096e+000 122 112 95
-3.077455e-001 1.511578e+000 -8.264708e+000 193 185 174
1.656699e+000 1.718731e+000 -9.252819e+000 152 152 125
-3.638447e-001 1.396919e+000 -8.096466e+000 160 146 123
-1.037535e-001 1.320764e+000 -8.088872e+000 187 176 156
8.550642e-001 1.382593e+000 -8.501130e+000 130 88 58
8.598703e-001 1.380784e+000 -8.516275e+000 130 88 58
-1.715077e-001 9.245370e-001 -7.612924e+000 69 69 48
9.313056e-001 8.487513e-001 -7.937631e+000 136 93 62
9.314755e-001 8.500087e-001 -7.942489e+000 136 93 62
1.159260e+000 7.830714e-001 -7.931624e+000 136 92 57
1.512935e+000 9.287122e-001 -8.235093e+000 128 132 81
-1.120855e-002 5.859011e-001 -7.284904e+000 176 156 123
1.092311e+000 5.076570e-001 -7.605290e+000 176 152 96
1.283782e+000 4.954637e-001 -7.652915e+000 129 88 58
1.281314e+000 4.970002e-001 -7.646805e+000 129 88 58
1.721033e-001 1.258874e-001 -6.795939e+000 170 155 96
3.368795e+000 2.697122e-001 -8.252125e+000 93 108 82
3.448201e+000 2.140487e-001 -8.238971e+000 161 172 148
1.396160e+000 -7.467457e-002 -7.051893e+000 135 87 62
4.660653e+000 -3.642460e+000 -7.196720e+000 123 114 105
-4.864687e-001 4.377291e+000 -1.169539e+001 120 130 96
-4.435276e+000 3.680881e+000 -9.014093e+000 176 172 133
-3.878678e+000 3.599704e+000 -9.073773e+000 83 110 82
-4.413236e-002 4.172215e+000 -1.148490e+001 131 138 105
1.370543e+000 3.193382e+000 -1.096094e+001 78 75 63
-4.089515e+000 2.316088e+000 -7.515271e+000 190 172 135
3.248118e+000 2.993625e+000 -9.217538e+000 182 183 175
-2.386700e+000 1.990212e+000 -7.601534e+000 190 179 176
1.246931e+000 2.234470e+000 -9.657357e+000 152 151 125
3.126177e+000 2.529506e+000 -9.720867e+000 182 183 177
-4.080045e+000 1.608068e+000 -7.512802e+000 217 200 129
1.891531e+000 1.926816e+000 -9.585757e+000 98 94 93
1.888808e+000 1.799777e+000 -9.436702e+000 77 76 72
-3.627115e+000 1.322129e+000 -6.574892e+000 222 216 193
-3.655662e+000 1.126275e+000 -6.665393e+000 183 180 103
-1.050219e-001 1.259561e+000 -8.034605e+000 71 72 55
6.257973e-001 1.479886e+000 -8.533850e+000 138 91 65
2.230936e+000 1.478327e+000 -9.146831e+000 86 83 80
8.508108e-001 1.034142e+000 -8.132826e+000 138 89 64
4.814292e-001 8.300607e-001 -7.777921e+000 141 87 66
-9.223167e-002 6.690572e-001 -7.378919e+000 182 168 138
2.172227e-001 5.103690e-001 -7.282014e+000 186 170 132
2.172227e-001 5.103690e-001 -7.282014e+000 186 170 132
1.255377e+000 5.722697e-001 -7.718971e+000 139 89 61
3.266538e+000 6.268515e-001 -8.646184e+000 127 141 118
1.438629e-001 3.883675e-001 -7.121934e+000 173 156 114
1.438629e-001 3.883675e-001 -7.121934e+000 173 156 114
1.399530e+000 2.873412e-001 -7.493908e+000 131 93 66
1.399530e+000 2.873412e-001 -7.493908e+000 131 93 66
3.260620e+000 4.844738e-001 -8.468770e+000 102 116 87
2.255366e-001 5.136336e-002 -6.796897e+000 177 161 106
1.247859e+000 2.620179e-001 -7.411240e+000 136 91 68
1.381342e+000 1.209894e-001 -7.289309e+000 162 157 100
3.464069e+000 -1.079203e-001 -7.897637e+000 173 180 166
-1.346766e+000 -6.244443e-001 -5.184973e+000 93 83 47
1.030900e+000 -7.548752e-001 -6.587034e+000 92 88 56
-3.243899e+000 -1.848630e+000 -5.896426e+000 105 85 68
-2.091674e+000 -1.684229e+000 -5.751068e+000 79 70 63
3.959201e+000 5.289826e+000 -7.350963e+000 194 187 181
4.029317e+000 5.304807e+000 -7.333669e+000 96 88 80
-4.527218e+000 3.681145e+000 -8.979303e+000 121 125 88
3.150094e-002 4.238587e+000 -1.172482e+001 82 81 74
-4.353792e-001 3.943529e+000 -1.111541e+001 147 106 88
6.480040e-001 3.268358e+000 -1.067884e+001 183 181 168
1.963323e+000 3.109572e+000 -1.105320e+001 69 82 64
1.362765e+000 2.703281e+000 -1.024001e+001 175 170 158
2.072630e+000 1.908928e+000 -9.651858e+000 95 91 90
1.606809e+000 1.849488e+000 -9.354395e+000 88 84 79
9.956601e-001 7.686193e-001 -7.858686e+000 135 84 57
2.251700e+000 9.900256e-001 -8.603259e+000 165 167 143
2.714878e+000 6.412736e-001 -8.414433e+000 102 113 71
2.752983e-001 3.975555e-001 -7.145940e+000 178 157 115
1.554378e-001 3.183698e-001 -7.081413e+000 60 75 65
8.052331e-001 2.033769e-001 -7.153769e+000 140 87 65
3.484232e+000 3.142830e-002 -8.019605e+000 98 113 79
-3.888696e+000 -9.068677e-001 -6.945894e+000 209 177 148
8.033895e-001 -2.065579e-001 -6.655569e+000 167 158 91
1.822964e-001 -1.255281e+000 -6.615247e+000 94 80 54
-1.610730e+000 -1.439226e+000 -5.721083e+000 74 66 62
-4.323753e+000 3.817122e+000 -9.255641e+000 177 166 126
-9.909363e-001 4.141987e+000 -1.110123e+001 133 138 105
-7.085757e-001 4.203382e+000 -1.132641e+001 121 132 92
8.152393e-001 4.028830e+000 -1.162727e+001 128 81 63
3.731279e-001 3.572439e+000 -1.093694e+001 182 146 98
-3.090561e+000 2.831032e+000 -8.437135e+000 124 63 61
-3.087350e+000 2.830331e+000 -8.453674e+000 124 63 61
-2.643641e+000 2.530525e+000 -8.174621e+000 196 182 185
1.093189e+000 2.508562e+000 -9.962861e+000 152 152 128
-2.215433e+000 1.718817e+000 -7.356760e+000 198 180 185
2.924876e+000 1.790200e+000 -1.022897e+001 63 66 59
-3.833831e+000 1.176049e+000 -6.936583e+000 228 201 125
-1.493460e+000 1.194560e+000 -7.003540e+000 145 55 58
-1.493460e+000 1.194560e+000 -7.003540e+000 145 55 58
-1.265201e+000 1.077380e+000 -6.973820e+000 190 180 155
-1.167237e-001 1.051660e+000 -7.784532e+000 186 175 155
-1.163477e-001 1.052187e+000 -7.784104e+000 186 175 155
8.393610e-003 1.017473e+000 -7.771052e+000 68 82 71
9.568377e-001 1.000010e+000 -8.109386e+000 179 154 98
9.580800e-001 1.001681e+000 -8.103755e+000 179 154 98
1.036477e+000 8.520871e-001 -7.967922e+000 179 154 94
2.259513e+000 9.814848e-001 -8.642436e+000 165 167 143
6.883223e-001 5.884663e-001 -7.538498e+000 181 157 111
1.289303e+000 6.184626e-002 -7.166585e+000 135 87 62
1.286656e+000 6.111687e-002 -7.167507e+000 135 87 62
4.855850e-001 -1.182753e-001 -6.653679e+000 177 158 97
5.862725e-001 -1.800730e-001 -6.627714e+000 63 82 65
1.145277e+000 4.249371e-002 -7.029772e+000 161 155 85
-3.382732e+000 -1.724353e+000 -5.992872e+000 172 157 91
-2.071938e+000 -1.889719e+000 -5.938030e+000 76 72 63
-3.290863e+000 8.897390e-001 -6.080989e+000 173 163 111
-1.907608e-002 8.963639e-001 -7.639684e+000 185 171 145
-1.769730e-002 8.975063e-001 -7.639546e+000 185 171 145
1.005655e+000 -8.430081e-002 -6.903197e+000 164 158 85
-4.823567e+000 3.960231e+000 -9.240721e+000 167 163 125
-3.897527e+000 3.982901e+000 -9.598369e+000 178 162 117
-3.452716e+000 1.811706e+000 -6.828383e+000 194 167 90
1.914721e+000 2.147335e+000 -9.865560e+000 98 95 92
8.987359e-001 1.103481e+000 -8.207156e+000 181 150 104
1.259250e+000 -6.268475e-002 -7.075099e+000 164 152 93
1.259250e+000 -6.268475e-002 -7.075099e+000 164 152 93
-3.605317e+000 3.487833e+000 -9.010571e+000 192 175 145
-2.443657e+000 2.844073e+000 -8.619467e+000 122 61 55
1.956110e+000 2.405717e+000 -1.015315e+001 111 107 102
2.810925e+000 2.199853e+000 -9.790742e+000 158 161 155
6.508044e-001 1.031415e+000 -8.043709e+000 179 162 111
6.467643e-001 4.296059e+000 -1.206267e+001 120 81 72
-1.593299e+000 9.331537e-001 -6.753335e+000 191 180 175
4.884596e-001 -9.445349e-002 -6.722284e+000 171 151 100
-6.909057e-001 1.100649e+000 -7.623757e+000 192 182 180
-6.909057e-001 1.100649e+000 -7.623757e+000 192 182 180
-2.318440e+000 1.978519e+000 -8.052126e+000 192 181 181
-5.028097e+000 4.040387e+000 -9.247220e+000 144 144 87
-9.051718e-001 4.104346e+000 -1.108376e+001 139 148 124
-4.474100e+000 3.739391e+000 -9.083410e+000 171 169 133
-4.476585e+000 3.738755e+000 -9.097238e+000 171 169 133
-3.721485e+000 3.690011e+000 -9.278084e+000 77 100 71
1.165661e+000 4.005077e+000 -1.180557e+001 166 118 90
-4.641847e+000 3.439121e+000 -8.716230e+000 168 167 129
-4.535908e+000 3.384023e+000 -8.642230e+000 181 171 128
3.798505e-001 3.239843e+000 -1.038173e+001 184 155 115
2.069163e+000 2.185567e+000 -9.999613e+000 139 138 131
2.153780e+000 2.003150e+000 -9.622399e+000 138 137 133
7.778396e-001 1.514023e+000 -8.621862e+000 130 90 58
-3.857236e+000 7.871275e-001 -7.003958e+000 205 170 114
-2.573437e-001 1.194987e+000 -7.918740e+000 170 160 137
6.392398e-002 1.077989e+000 -7.874235e+000 189 175 149
-1.254735e+000 1.009773e+000 -6.936098e+000 134 114 88
-1.714126e-001 9.255017e-001 -7.611870e+000 81 69 54
1.482030e+000 9.664138e-001 -8.284463e+000 162 159 114
-4.788916e+000 -6.500404e-001 -8.910983e+000 217 162 174
5.787650e-001 6.930741e-001 -7.608426e+000 179 156 114
1.093398e+000 6.267581e-001 -7.760570e+000 168 147 92
1.093398e+000 6.267581e-001 -7.760570e+000 168 147 92
3.432993e-001 5.297281e-001 -7.342746e+000 180 163 119
1.876903e+000 5.492585e-001 -7.937721e+000 146 143 82
-4.007642e+000 -5.598564e-001 -7.237420e+000 131 93 80
-4.016673e+000 -5.806383e-001 -7.282185e+000 131 93 80
1.415852e+000 3.005040e-001 -7.516385e+000 138 94 71
1.402769e+000 3.239174e-001 -7.455302e+000 138 94 71
9.010212e-001 1.280469e-001 -7.122604e+000 132 88 52
8.828925e-001 9.649180e-002 -7.039776e+000 177 150 101
8.828925e-001 9.649180e-002 -7.039776e+000 177 150 101
3.434164e+000 1.141640e-001 -8.127067e+000 98 118 83
3.499469e+000 -1.682156e-001 -7.826507e+000 157 170 146
-3.722478e+000 -1.095692e+000 -6.761002e+000 131 103 63
-3.722478e+000 -1.095692e+000 -6.761002e+000 131 103 63
-3.665145e+000 -1.202594e+000 -6.642531e+000 114 89 57
-3.562025e+000 -1.389577e+000 -6.454540e+000 106 94 56
4.295575e+000 6.548718e+000 -6.129382e+000 190 183 176
1.623061e-002 4.207825e+000 -1.138722e+001 73 70 63
-3.889965e+000 3.523398e+000 -8.944347e+000 80 108 77
-7.479026e-001 3.666703e+000 -1.043174e+001 164 115 87
-7.267965e-001 3.300131e+000 -1.015433e+001 155 107 67
-4.638564e+000 2.574127e+000 -8.273559e+000 224 188 179
1.314840e-001 3.040911e+000 -1.019703e+001 186 173 141
-4.596952e+000 2.173807e+000 -8.149561e+000 218 180 177
-4.604605e+000 2.161918e+000 -8.197474e+000 218 180 177
1.918821e+000 2.611610e+000 -1.047662e+001 73 78 68
1.707589e+000 2.588501e+000 -1.028161e+001 105 100 97
-2.462137e+000 2.117534e+000 -7.730987e+000 189 186 185
-4.006234e+000 1.706403e+000 -7.133115e+000 217 198 134
1.877436e+000 1.805597e+000 -9.425683e+000 75 71 68
2.332304e+000 1.914891e+000 -9.713946e+000 97 96 92
-1.868972e+000 1.401774e+000 -7.186918e+000 135 46 54
-1.868972e+000 1.401774e+000 -7.186918e+000 135 46 54
7.512736e-001 1.276993e+000 -8.329399e+000 134 90 62
-3.490954e+000 9.862801e-001 -6.174128e+000 178 180 110
-2.171454e+000 1.095681e+000 -6.745085e+000 161 53 57
-4.932287e+000 -5.065666e-001 -9.123212e+000 184 92 105
-4.781402e+000 -5.617116e-001 -8.959081e+000 179 74 87
-3.364271e+000 6.501631e-001 -6.037143e+000 175 177 104
1.137749e+000 7.311429e-001 -7.866032e+000 169 152 92
-3.140981e+000 4.101951e-001 -5.688877e+000 181 188 120
8.449888e-001 4.528826e-001 -7.454941e+000 139 93 63
2.871796e+000 5.204071e-001 -8.207531e+000 68 76 61
9.628774e-001 2.028426e-001 -7.247974e+000 143 92 64
-3.931489e+000 -7.703816e-001 -7.137986e+000 169 136 110
3.397108e+000 6.601392e-002 -8.041524e+000 172 180 170
8.779561e-001 -1.651475e-001 -6.747502e+000 137 89 66
8.779561e-001 -1.651475e-001 -6.747502e+000 137 89 66
-3.599640e+000 -1.199624e+000 -6.596783e+000 188 165 98
-7.356190e-001 -4.396574e-001 -6.122216e+000 123 107 58
-7.356190e-001 -4.396574e-001 -6.122216e+000 123 107 58
-1.851357e+000 4.162708e+000 -1.078591e+001 194 175 141
1.071281e+000 4.225007e+000 -1.203495e+001 78 89 83
1.089110e+000 3.407705e+000 -1.084675e+001 171 145 96
-6.494346e-002 3.028057e+000 -1.009959e+001 183 173 149
1.672962e+000 2.381453e+000 -1.007425e+001 153 142 120
-2.502492e+000 2.018223e+000 -7.666031e+000 194 181 180
7.156411e-001 1.444951e+000 -8.515912e+000 182 162 101
5.381696e-001 7.198580e-001 -7.657917e+000 136 88 66
9.949962e-001 7.722489e-001 -7.851504e+000 139 88 69
1.445980e+000 -3.100664e-002 -7.137314e+000 138 91 73
3.480536e+000 3.814595e-002 -8.010414e+000 92 107 75
8.893642e-001 -1.939280e-001 -6.803561e+000 138 89 67
-3.657369e+000 -1.111601e+000 -6.710080e+000 200 173 101
-3.377238e+000 -1.601619e+000 -6.235959e+000 160 159 94
-3.377238e+000 -1.601619e+000 -6.235959e+000 160 159 94
-4.518819e+000 3.887083e+000 -9.224484e+000 179 170 127
-3.979524e+000 3.610109e+000 -9.150652e+000 181 169 131
-2.855764e-001 3.485060e+000 -1.055938e+001 178 150 105
-2.608170e+000 2.622599e+000 -8.272071e+000 122 56 57
-2.608170e+000 2.622599e+000 -8.272071e+000 122 56 57
-1.989118e+000 2.652803e+000 -8.718341e+000 165 142 103
-2.328861e-001 1.476614e+000 -8.221976e+000 73 74 62
-2.312164e-001 1.478779e+000 -8.220904e+000 73 74 62
-5.146008e+000 1.296054e-001 -9.517764e+000 130 62 53
8.474903e-001 1.218787e+000 -8.309394e+000 180 154 105
8.484243e-001 1.216833e+000 -8.315461e+000 180 154 105
1.245470e+000 4.315169e-001 -7.568823e+000 168 150 92
8.112956e-002 4.527083e+000 -1.199198e+001 224 214 207
1.754902e-001 4.224449e+000 -1.160414e+001 152 124 104
-5.488692e-001 3.398663e+000 -1.037569e+001 183 149 97
-3.042809e+000 2.827154e+000 -8.377375e+000 126 59 58
-3.042809e+000 2.827154e+000 -8.377375e+000 126 59 58
-2.734330e+000 2.666654e+000 -8.327080e+000 191 183 181
-2.349044e+000 2.128889e+000 -7.799268e+000 147 64 67
-2.289706e+000 2.130339e+000 -7.841042e+000 150 64 66
-2.289706e+000 2.130339e+000 -7.841042e+000 150 64 66
-3.450982e+000 2.025407e+000 -7.142816e+000 198 181 149
-3.450982e+000 2.025407e+000 -7.142816e+000 198 181 149
-3.387596e+000 1.743662e+000 -7.229967e+000 199 182 148
-3.387596e+000 1.743662e+000 -7.229967e+000 199 182 148
2.770222e+000 1.993802e+000 -1.025465e+001 88 91 82
3.534760e-001 1.393625e-001 -6.880828e+000 177 160 104
3.526380e-001 1.366758e-001 -6.882350e+000 177 160 104
-1.381173e+000 4.277129e+000 -1.121096e+001 94 101 73
-2.485490e+000 1.146987e+000 -6.605117e+000 193 167 93
-1.207222e+000 1.108764e+000 -7.298364e+000 146 115 67
-1.208173e+000 1.108991e+000 -7.297561e+000 146 115 67
-4.469539e+000 3.959007e+000 -9.319137e+000 173 165 120
-1.974556e+000 2.504452e+000 -8.474929e+000 192 168 110
-1.981701e+000 1.470046e+000 -7.137864e+000 158 57 65
-1.981701e+000 1.470046e+000 -7.137864e+000 158 57 65
-1.349881e+000 1.112517e+000 -6.952036e+000 195 170 115
-1.342815e+000 1.111695e+000 -6.958966e+000 195 170 115
8.812943e-001 6.728064e-001 -7.742987e+000 175 156 98
2.454524e+000 8.615326e-001 -8.457291e+000 99 111 71
3.214157e+000 5.607394e-001 -8.552664e+000 104 116 94
1.736840e+000 2.885104e+000 -1.066008e+001 77 88 71
-2.183502e+000 2.531563e+000 -8.197904e+000 133 57 59
-4.040834e+000 -2.014993e-001 -7.025465e+000 224 193 181
-2.827643e+000 2.383244e+000 -8.079255e+000 145 53 55
-2.523048e+000 2.488048e+000 -8.163931e+000 163 127 129
-2.012922e+000 2.209381e+000 -8.233492e+000 147 58 58
-4.335990e-001 4.645120e+000 -1.208064e+001 241 219 208
-2.752767e+000 3.940492e+000 -1.035422e+001 166 152 91
1.318609e+000 4.129297e+000 -1.215085e+001 85 88 80
2.489767e+000 3.494224e+000 -8.771896e+000 194 195 189
2.485879e+000 1.618235e+000 -9.718060e+000 62 72 61
-5.435135e+001 -5.634001e+000 -9.345438e+001 206 56 104
-5.097524e+001 1.248196e+000 -1.021121e+002 251 55 96
-4.770436e+001 5.601983e-001 -1.023006e+002 236 43 83
-3.907095e+001 -2.852492e+000 -1.034555e+002 250 200 179
-4.230958e+001 -1.066569e+001 -8.631574e+001 167 24 54
-3.966423e+001 -7.711116e+000 -9.748277e+001 64 37 89
-5.367090e+001 -6.858097e+000 -9.561147e+001 77 60 128
-5.248088e+001 -8.132971e+000 -9.289161e+001 174 165 218
-5.138109e+001 -8.406282e+000 -9.214661e+001 79 64 129
-3.121391e+001 -2.517007e+001 -7.829909e+001 197 39 78
-3.901321e+001 -6.706921e+000 -9.866687e+001 229 42 77
-3.475400e+001 -2.755591e+001 -7.013171e+001 188 11 47
-3.933005e+001 -4.022476e+000 -9.664965e+001 255 206 112
-3.994136e+001 -2.736814e+001 -7.001280e+001 235 49 93
-2.923756e+001 -2.545717e+001 -7.526402e+001 229 37 76
-2.923756e+001 -2.545717e+001 -7.526402e+001 229 37 76
-4.997275e+001 -8.498096e+000 -8.591996e+001 180 160 216
-4.997275e+001 -8.498096e+000 -8.591996e+001 180 160 216
-4.835688e+001 -1.257165e+001 -8.642088e+001 59 39 67
-6.692113e-001 3.781951e+000 -1.079675e+001 165 111 89
8.305455e-001 5.002333e-001 -7.507171e+000 180 158 103
1.371616e+000 9.966784e-003 -7.140532e+000 136 88 66
1.357423e+000 -3.920838e-002 -7.091740e+000 151 149 79
1.323368e+000 3.627353e-001 -7.538283e+000 141 93 71
7.502223e-001 3.159113e+000 -1.064321e+001 103 120 88
-5.004347e+001 -9.283171e+000 -8.843119e+001 120 110 171
2.027332e+000 8.797967e-001 -8.380499e+000 152 144 89
-5.372327e+001 -9.695604e+000 -9.048369e+001 255 198 238
-3.278669e+001 -1.408283e+001 -9.020195e+001 162 54 69
-3.940313e+001 -3.216426e+001 -6.426774e+001 64 52 115
9.604820e-001 2.753581e+000 -1.018848e+001 164 143 91
-5.029027e+001 -1.003961e+001 -8.685621e+001 212 203 246
-2.594232e+001 -3.370653e+001 -6.419556e+001 199 30 59
-2.566027e+001 -3.507989e+001 -6.345968e+001 182 32 61
-3.199345e+001 -2.476815e+001 -7.919543e+001 56 38 78
-3.172482e+001 -3.077655e+001 -6.575402e+001 64 47 90
-2.660803e+001 -3.201812e+001 -7.004241e+001 236 165 101
-2.686414e+001 -3.287520e+001 -6.888727e+001 214 36 64
-2.478437e+001 -3.257689e+001 -6.620780e+001 207 36 63
-4.009800e+001 -2.764733e+001 -6.740553e+001 56 37 92
-2.727943e+001 -3.265701e+001 -6.672723e+001 229 170 87
-2.839786e+001 -3.155524e+001 -6.448721e+001 47 32 67
-2.497456e+001 -3.499106e+001 -6.465509e+001 202 36 68
-2.516086e+001 -3.531536e+001 -6.522512e+001 202 36 68
-2.857886e+001 -3.211466e+001 -6.963111e+001 240 179 89
-2.857886e+001 -3.211466e+001 -6.963111e+001 240 179 89
-3.048774e+000 4.229867e+000 -1.046417e+001 159 149 100
-4.279160e+000 3.556943e+000 -8.903777e+000 125 119 83
3.314988e-001 3.194691e+000 -1.047284e+001 155 99 72
-4.562771e+000 2.107902e+000 -8.173190e+000 176 136 132
1.256534e+000 2.253782e+000 -9.613389e+000 154 152 129
-3.163322e+000 1.518664e+000 -9.600746e+000 202 174 170
-2.450622e+000 1.972297e+000 -7.594392e+000 165 53 64
-4.054060e+000 1.288761e+000 -7.191779e+000 237 204 169
-1.426919e+000 1.179402e+000 -7.108222e+000 189 165 111
-3.661973e+000 -1.199539e+000 -6.636098e+000 114 89 57
-3.886583e+000 3.518451e+000 -8.949776e+000 80 108 77
-4.561149e-001 3.734633e+000 -1.088205e+001 141 95 75
-2.563768e+000 3.225179e+000 -9.164700e+000 143 128 107
1.145828e+000 3.468105e+000 -1.116725e+001 187 163 108
2.397379e+000 1.772023e+000 -9.635935e+000 91 95 88
1.070044e+000 -1.207438e-001 -6.916200e+000 160 150 88
4.162434e+000 6.064251e+000 -6.629143e+000 188 184 173
-4.542554e+000 3.570418e+000 -8.885063e+000 173 166 130
-3.706288e+000 3.775547e+000 -9.319803e+000 194 172 129
4.318960e-001 2.679266e+000 -9.837499e+000 180 174 146
1.987015e+000 1.098956e+000 -8.634277e+000 172 169 140
1.749046e-001 1.800179e-001 -6.911744e+000 178 158 107
-6.953447e-002 4.391023e+000 -1.189232e+001 87 90 76
-2.205237e+000 1.716292e+000 -7.356583e+000 198 183 183
-4.959715e+001 -2.524247e+001 -7.686803e+001 239 59 104
-6.470000e-002 7.746645e-001 -7.507138e+000 67 81 71
-3.207045e+001 -3.128655e+001 -6.679461e+001 79 54 101
3.920532e-002 4.344283e+000 -1.187598e+001 93 100 83
1.819033e+000 1.244885e+000 -8.798259e+000 137 140 83
-3.428343e+001 -3.293325e+001 -6.292466e+001 155 20 50
-2.881828e+001 -3.224554e+001 -6.541565e+001 44 29 62
-3.914661e+001 -3.961746e+001 -6.103170e+001 76 69 77
-7.764315e-001 3.955869e+000 -1.127221e+001 132 84 74
-4.099673e+001 -3.063027e+001 -6.717765e+001 49 25 48
-4.215871e+001 -3.868539e+001 -6.714934e+001 45 30 72
8.719798e-002 4.933087e+000 -1.559922e+001 166 153 146
8.719798e-002 4.933087e+000 -1.559922e+001 166 153 146
-5.217624e+000 4.085209e+000 -9.624919e+000 165 170 127
-2.399907e+000 4.231486e+000 -1.069713e+001 193 173 118
-4.783563e+000 3.828632e+000 -9.083073e+000 125 127 90
-4.458024e+000 3.880302e+000 -9.204250e+000 174 169 127
-4.209233e+000 3.948119e+000 -9.417316e+000 177 165 118
-7.505341e-002 4.264540e+000 -1.157659e+001 136 142 119
-4.470206e+000 3.593788e+000 -8.879448e+000 177 173 135
-4.469119e+000 3.593924e+000 -8.880410e+000 177 173 135
-4.315163e+000 3.598907e+000 -8.930663e+000 164 160 122
-2.844975e+000 3.529788e+000 -9.665771e+000 186 164 115
3.049310e-001 3.780875e+000 -1.134344e+001 165 114 85
9.297118e-001 3.980510e+000 -1.130382e+001 165 120 95
-3.399463e+000 3.417239e+000 -9.021546e+000 177 121 100
-9.119273e-001 3.508098e+000 -1.035669e+001 185 143 107
5.662062e-001 3.533046e+000 -1.095871e+001 179 161 125
-2.635099e+000 3.257527e+000 -9.133526e+000 195 180 165
3.149694e-001 3.404577e+000 -1.075814e+001 149 106 68
1.437650e+000 3.281736e+000 -1.122645e+001 113 90 58
-8.458312e-001 3.114157e+000 -9.926441e+000 152 98 66
1.389493e+000 3.009387e+000 -1.086416e+001 163 144 93
1.936935e+000 3.197899e+000 -1.123770e+001 69 84 64
1.367311e+000 2.435806e+000 -1.011753e+001 124 115 92
1.376195e+000 2.263252e+000 -9.765664e+000 125 118 108
1.467437e+000 2.278194e+000 -9.846498e+000 88 81 75
1.499794e+000 2.234955e+000 -9.804463e+000 127 120 110
1.900566e+000 2.417216e+000 -1.022036e+001 143 138 134
1.989721e+000 2.350863e+000 -1.018406e+001 143 141 136
-2.502473e+000 2.093407e+000 -7.673258e+000 137 52 55
-2.502473e+000 2.093407e+000 -7.673258e+000 137 52 55
1.300970e+000 2.107211e+000 -9.610941e+000 152 150 131
2.018592e+000 2.086384e+000 -9.867347e+000 148 144 141
2.132362e+000 2.171064e+000 -9.939543e+000 110 106 102
2.292920e+000 2.147169e+000 -9.964135e+000 127 128 117
2.369666e+000 2.050608e+000 -1.003714e+001 131 137 125
-2.302191e+000 1.753136e+000 -7.370315e+000 160 63 77
-1.913614e+000 1.801104e+000 -7.553763e+000 121 39 45
-1.925470e+000 1.773245e+000 -7.617242e+000 121 39 45
-4.433349e+000 1.014444e+000 -7.950547e+000 179 148 93
-3.640526e-001 1.397622e+000 -8.093241e+000 169 147 127
-2.542186e-001 1.173908e+000 -7.967651e+000 175 162 136
-1.297955e+000 1.131353e+000 -7.214420e+000 188 160 83
8.440637e-001 1.096982e+000 -8.192028e+000 175 154 99
5.662367e-002 6.297926e-001 -7.329678e+000 169 153 121
6.912969e-001 6.993126e-001 -7.668675e+000 183 156 111
1.226882e+000 7.620335e-001 -7.914834e+000 169 159 88
1.103431e+000 6.047728e-001 -7.686340e+000 178 153 99
-3.701023e+000 -5.775805e-002 -6.629164e+000 164 123 80
1.348097e+000 3.264554e-001 -7.495888e+000 171 157 107
3.304989e+000 4.350408e-001 -8.413721e+000 92 106 81
-3.964153e+000 -6.646026e-001 -7.177107e+000 105 89 63
-3.889946e+000 -9.082932e-001 -7.109002e+000 108 93 68
1.010804e+000 1.534680e-001 -7.121357e+000 133 95 56
1.101402e+000 -2.681896e-002 -6.972070e+000 129 89 59
3.499218e+000 -1.702372e-001 -7.828236e+000 163 176 150
-2.688969e-001 4.366485e+000 -1.192172e+001 137 142 116
-9.290975e-001 4.028719e+000 -1.111041e+001 118 76 69
-4.497625e+000 3.492335e+000 -8.720122e+000 175 170 130
-3.949669e+000 3.634924e+000 -9.131442e+000 174 166 130
1.048273e+000 3.734839e+000 -1.153149e+001 176 142 104
-2.517944e+000 3.085491e+000 -8.860333e+000 197 183 174
-2.446197e+000 3.091715e+000 -8.911291e+000 142 125 115
1.238410e+000 2.944156e+000 -1.031080e+001 165 141 97
1.458299e+000 2.648106e+000 -1.028401e+001 104 95 86
-2.465328e+000 2.122583e+000 -7.725283e+000 188 179 181
-2.389525e+000 1.999900e+000 -7.591726e+000 188 176 175
2.486602e+000 1.977685e+000 -1.009131e+001 69 82 65
3.041702e+000 2.282261e+000 -9.856148e+000 161 162 156
3.109736e+000 2.287981e+000 -9.820221e+000 83 81 74
3.031639e+000 2.022811e+000 -1.005093e+001 81 82 77
7.748376e-001 1.516979e+000 -8.615537e+000 127 91 54
2.349949e+000 1.594656e+000 -9.240429e+000 93 92 88
-2.428437e-001 1.392537e+000 -8.136728e+000 182 178 153
7.460382e-001 1.334940e+000 -8.401647e+000 174 157 100
-2.848147e-001 1.111393e+000 -7.742919e+000 186 167 152
-2.351353e-001 1.047795e+000 -7.732172e+000 80 65 54
2.998793e-002 9.518822e-001 -7.695671e+000 184 168 145
6.001831e-001 6.094710e-001 -7.615919e+000 136 83 63
1.067871e+000 7.294842e-001 -7.832976e+000 173 153 94
1.202951e+000 6.195698e-001 -7.758237e+000 171 150 95
3.150053e+000 6.813417e-001 -8.603327e+000 94 110 80
3.164884e+000 6.618915e-001 -8.644276e+000 94 110 80
2.070912e-001 3.094076e-001 -6.994025e+000 165 150 111
-3.816498e+000 -9.829874e-001 -6.921047e+000 95 82 59
2.487707e+000 -5.498285e-002 -7.462014e+000 166 151 92
-8.077764e-001 4.087624e+000 -1.115978e+001 73 74 60
-3.919627e-001 4.182698e+000 -1.142702e+001 130 144 109
-3.701430e+000 3.713367e+000 -9.054682e+000 74 100 71
3.970823e+000 5.382839e+000 -7.202106e+000 188 181 175
-4.254352e+000 3.390828e+000 -8.695132e+000 186 171 128
2.037512e+000 3.196427e+000 -1.178151e+001 96 108 84
1.400733e+000 3.166363e+000 -1.095045e+001 76 74 61
-4.557574e+000 2.513092e+000 -8.103131e+000 215 186 178
-4.235563e+000 1.894888e+000 -7.655820e+000 210 193 124
-3.520154e+000 2.290988e+000 -7.602224e+000 199 180 130
-3.534376e+000 2.214582e+000 -7.666472e+000 199 180 130
-4.336529e+000 1.771631e+000 -7.771237e+000 147 117 103
-4.194152e+000 1.811502e+000 -7.575425e+000 210 195 115
-4.466057e+000 1.113571e+000 -7.842841e+000 219 191 176
1.527613e+000 1.821519e+000 -9.223749e+000 148 148 114
1.712365e+000 1.662274e+000 -9.236596e+000 147 151 116
7.148793e-001 1.439869e+000 -8.525231e+000 180 156 107
6.922227e-001 1.360633e+000 -8.449477e+000 137 92 63
2.352159e+000 9.407427e-001 -8.619278e+000 106 118 80
-1.226399e-001 6.887147e-001 -7.331252e+000 182 164 138
-4.593202e+000 -1.309198e+000 -8.421924e+000 209 185 162
1.135154e+000 -1.402499e-001 -6.873698e+000 135 85 64
1.132824e+000 -1.333279e-001 -6.865705e+000 135 85 64
-3.514805e+000 4.315272e+000 -1.026006e+001 163 153 100
1.373973e+000 4.437511e+000 -1.265834e+001 99 108 86
-1.852745e+000 4.155049e+000 -1.081001e+001 193 175 139
2.527324e-001 3.807785e+000 -1.117747e+001 162 115 83
-4.552890e+000 3.149818e+000 -8.462762e+000 181 157 96
4.136063e-001 3.462469e+000 -1.079743e+001 186 156 106
6.816198e-001 2.507748e+000 -9.792351e+000 157 151 92
1.810269e+000 2.759133e+000 -1.050619e+001 74 83 70
1.458521e+000 1.892161e+000 -9.360174e+000 139 136 99
2.393692e+000 1.951017e+000 -9.879597e+000 146 147 140
-5.144628e+000 1.384812e-001 -9.499356e+000 131 58 62
-2.259767e+000 1.634646e+000 -7.233602e+000 150 59 58
-2.301924e+000 1.574453e+000 -7.141487e+000 196 176 181
-1.888906e+000 1.614681e+000 -7.329540e+000 197 182 185
-1.820541e+000 1.489830e+000 -7.226676e+000 187 182 181
-2.157117e+000 1.143233e+000 -6.687398e+000 159 56 60
5.761721e-001 7.983222e-001 -7.733191e+000 178 157 109
3.239065e-002 7.466610e-001 -7.453218e+000 181 166 140
3.239065e-002 7.466610e-001 -7.453218e+000 181 166 140
6.902386e-001 5.867308e-001 -7.546858e+000 180 156 110
1.814951e-001 4.525093e-001 -7.175303e+000 60 76 66
1.990047e+000 4.807059e-001 -7.887519e+000 170 160 125
3.140528e+000 5.530470e-001 -8.424878e+000 125 138 118
3.178781e-001 2.202106e-001 -6.965430e+000 64 81 70
2.802088e-001 -1.126682e-001 -6.771885e+000 173 154 90
1.137050e+000 -1.534875e-001 -6.902807e+000 135 85 64
-3.931714e+000 4.276950e+000 -1.000182e+001 158 148 81
9.489407e-001 4.162570e+000 -1.173442e+001 145 98 80
1.455592e+000 3.165221e+000 -1.093792e+001 68 67 62
1.455592e+000 3.165221e+000 -1.093792e+001 68 67 62
2.044591e+000 2.839992e+000 -1.092483e+001 68 78 64
-4.465110e+000 1.683348e+000 -7.912359e+000 223 197 166
-3.866193e+000 -1.228428e+000 -6.990210e+000 195 181 125
2.258699e-001 4.213609e+000 -1.164878e+001 160 131 110
2.175498e-001 4.178143e+000 -1.176957e+001 160 131 110
-2.414696e+000 2.325016e+000 -7.991832e+000 146 57 64
-2.414696e+000 2.325016e+000 -7.991832e+000 146 57 64
1.176302e+000 2.248968e+000 -9.698729e+000 161 158 125
-3.657596e+000 1.983212e+000 -7.550527e+000 190 163 78
-2.434679e+000 2.041596e+000 -7.652046e+000 192 183 180
1.935300e+000 2.117532e+000 -9.966740e+000 100 96 94
-2.145067e+000 1.824686e+000 -7.483445e+000 162 57 67
-2.143588e+000 1.822514e+000 -7.488499e+000 162 57 67
-2.102301e-001 9.739636e-001 -7.656474e+000 62 76 63
1.330978e+000 1.969767e+000 -9.431575e+000 165 164 134
2.224008e+000 1.131714e+000 -8.809772e+000 93 100 70
-4.085872e+000 3.601628e+000 -9.080994e+000 190 176 137
-3.796659e+000 3.610047e+000 -9.032943e+000 68 96 65
-3.796659e+000 3.610047e+000 -9.032943e+000 68 96 65
-4.563640e+000 1.776916e+000 -8.476156e+000 154 118 112
1.618346e+000 1.828401e-001 -7.399462e+000 156 156 100
5.767702e-001 4.322141e+000 -1.184444e+001 103 70 68
6.342233e-001 4.765786e+000 -1.192162e+001 230 212 202
2.615558e+000 3.135723e+000 -9.255930e+000 184 189 182
-7.152272e-001 3.964062e+000 -1.119258e+001 127 81 75
-5.099518e+000 4.060045e+000 -9.420848e+000 140 140 84
-4.663448e+000 3.797793e+000 -9.068831e+000 164 165 129
-4.190145e+000 3.905840e+000 -9.276772e+000 76 101 64
-4.177163e+000 3.771064e+000 -9.259507e+000 172 162 122
-3.814598e+000 3.721407e+000 -9.308215e+000 66 101 69
-1.060349e+000 4.139456e+000 -1.109965e+001 136 147 116
-3.133667e-001 4.218066e+000 -1.151297e+001 106 120 92
-3.433231e+000 3.388282e+000 -8.953813e+000 196 179 146
1.584213e+000 2.830780e+000 -1.057336e+001 145 136 113
1.337066e+000 2.614974e+000 -1.019401e+001 118 111 102
1.853756e+000 2.346390e+000 -1.010380e+001 138 133 126
-1.859156e+000 1.568572e+000 -7.268961e+000 128 53 56
8.729052e-001 9.346593e-001 -8.138260e+000 132 90 58
2.367405e+000 1.079768e+000 -8.820549e+000 114 127 89
2.068748e+000 9.832750e-001 -8.408235e+000 120 133 86
3.511384e+000 -1.130419e-001 -7.855012e+000 99 114 91
3.538218e+000 -6.810998e-002 -7.869563e+000 145 159 136
3.538218e+000 -6.810998e-002 -7.869563e+000 145 159 136
-4.721864e+000 4.036915e+000 -9.321933e+000 163 156 108
-4.601701e+000 3.643670e+000 -8.966052e+000 171 169 130
3.391305e-002 3.556633e+000 -1.089197e+001 177 139 100
1.913797e+000 2.187242e+000 -1.000973e+001 102 96 93
1.708478e+000 2.115914e+000 -9.777026e+000 92 86 83
3.377704e+000 3.081211e-001 -8.362436e+000 93 111 81
3.454564e+000 2.454740e-001 -8.210769e+000 148 161 141
2.136734e-001 8.701607e-002 -6.732810e+000 165 144 98
1.392664e+000 1.070860e-001 -7.200630e+000 131 81 61
1.416833e+000 7.198683e-002 -7.150746e+000 152 145 90
1.120539e+000 -1.631386e-001 -6.787211e+000 154 148 83
4.012028e+000 -2.377885e+000 -8.443370e+000 124 117 107
-3.957667e+000 3.629612e+000 -9.120822e+000 182 168 132
9.037344e-002 2.969079e+000 -1.016044e+001 154 145 88
3.216652e+000 2.757572e+000 -9.513564e+000 183 182 175
2.362034e+000 1.712713e+000 -9.492054e+000 95 91 90
-1.042666e-001 1.263057e+000 -8.021913e+000 93 85 68
2.417664e+000 7.274544e-001 -8.412355e+000 167 140 92
2.455539e-001 5.827971e-001 -7.354249e+000 85 78 58
1.253757e-001 4.045858e-001 -7.089737e+000 176 155 116
1.253757e-001 4.045858e-001 -7.089737e+000 176 155 116
9.377587e-001 1.979794e-001 -7.116842e+000 168 149 91
-4.257268e+000 3.909631e+000 -9.368132e+000 80 109 85
-4.356459e+000 3.519763e+000 -8.837764e+000 172 167 126
-5.149098e-001 3.802393e+000 -1.121839e+001 121 73 62
4.145237e-001 3.394803e+000 -1.066358e+001 184 159 113
2.169575e+000 2.377683e+000 -1.026791e+001 67 85 70
7.252318e-001 1.438404e+000 -8.529583e+000 176 153 104
7.282883e-001 1.440202e+000 -8.529821e+000 176 153 104
7.706171e-001 4.101006e-001 -7.325284e+000 176 160 108
8.294111e-001 2.962437e-001 -7.205265e+000 173 153 97
-2.636920e-001 4.121907e+000 -1.136628e+001 116 74 64
-2.582443e+000 1.511817e+000 -6.985466e+000 192 175 147
9.565563e-001 5.265820e-001 -7.542000e+000 176 155 98
-2.293320e+000 2.679104e+000 -8.364091e+000 124 57 57
-2.039908e+000 1.710469e+000 -7.325295e+000 140 68 68
4.806184e-001 -8.627002e-002 -6.705427e+000 154 138 88
-3.456693e+001 -2.596085e+001 -7.029447e+001 202 48 95
-3.117065e+001 -3.153421e+001 -6.584377e+001 220 177 113
-2.651661e+001 -3.453872e+001 -6.365695e+001 44 28 68
-3.106749e+001 -3.504173e+001 -6.286785e+001 39 22 61
-3.105911e+001 -3.139445e+001 -7.143327e+001 47 30 49
-3.110726e+001 -3.186527e+001 -6.831193e+001 240 192 117
-3.110726e+001 -3.186527e+001 -6.831193e+001 240 192 117
-3.730403e+001 -3.199434e+001 -6.485196e+001 228 41 81
-3.451607e+001 -3.188881e+001 -6.617743e+001 223 34 74
-4.169576e+000 3.779730e+000 -9.220809e+000 171 168 125
-3.361832e+000 3.375097e+000 -8.927023e+000 175 118 97
-2.978064e+000 2.906103e+000 -8.473146e+000 190 158 78
-7.630274e-001 3.115269e+000 -9.965113e+000 190 157 114
-1.801977e+000 1.630975e+000 -7.343833e+000 148 52 58
2.589011e+000 -6.416997e-002 -7.529333e+000 166 145 93
1.435496e+000 2.167899e+000 -9.672969e+000 144 138 126
1.310453e+000 3.579510e+000 -1.132073e+001 182 158 108
2.943993e+000 7.367451e-001 -8.679883e+000 87 104 72
-3.627024e+001 -3.505965e+001 -6.207212e+001 221 25 66
-3.627024e+001 -3.505965e+001 -6.207212e+001 221 25 66
-3.252882e+001 -3.467460e+001 -6.249644e+001 223 28 66
1.400173e+000 4.238124e+000 -1.239340e+001 74 77 66
-2.733693e+000 2.575716e+000 -8.137575e+000 128 53 60
2.587878e+000 6.350065e-001 -8.349721e+000 157 150 104
9.412743e-001 4.251269e+000 -1.233247e+001 114 114 93
1.784284e+000 3.689160e+000 -1.163332e+001 95 107 85
2.255293e+000 1.221280e+000 -8.924093e+000 83 92 66
-4.675206e+000 3.632034e+000 -8.900802e+000 125 126 94
-1.944016e+000 1.531063e+000 -7.209423e+000 156 51 59
9.571116e-001 1.000411e+000 -8.108625e+000 176 156 96
-4.021808e+001 -2.595240e+001 -7.210925e+001 186 31 65
-2.739895e+001 -7.621938e+001 -9.110828e+001 117 109 104
-4.094230e+001 -2.645749e+001 -7.118587e+001 59 40 85
-2.478894e+001 -3.566297e+001 -6.224261e+001 46 35 39
-2.346767e-001 3.622796e+000 -1.091043e+001 168 136 95
-2.742168e+000 2.199734e+000 -7.706009e+000 159 54 61
-4.272755e+000 3.824991e+000 -9.275502e+000 165 165 123
-4.475970e+000 3.450898e+000 -8.705644e+000 178 170 133
-4.306481e+000 3.462762e+000 -8.716260e+000 179 171 130
-3.667578e+000 3.694854e+000 -9.272385e+000 187 172 132
-4.881449e-001 3.599698e+000 -1.069958e+001 163 113 82
-4.411625e-001 3.682097e+000 -1.076659e+001 138 93 72
-3.075821e+000 2.926160e+000 -8.379765e+000 188 159 85
-2.983007e+000 2.997727e+000 -8.611152e+000 177 158 125
-3.624248e-001 1.392216e+000 -8.105417e+000 161 140 119
5.798024e-001 9.089354e-001 -7.855182e+000 184 164 117
-4.345892e+000 3.690342e+000 -9.006920e+000 123 125 87
2.339386e+000 1.890473e+000 -9.780778e+000 91 91 89
1.738697e+000 1.773511e+000 -9.489308e+000 139 134 130
2.260418e+000 1.205702e+000 -8.971059e+000 87 99 67
-4.434594e+000 3.827156e+000 -9.170798e+000 126 128 92
1.041768e+000 3.751092e+000 -1.179889e+001 169 132 98
1.910012e+000 3.430543e+000 -1.139807e+001 97 114 87
3.052827e+000 6.905800e-001 -8.630177e+000 145 161 135
4.469682e-001 -2.386387e-002 -6.701165e+000 59 75 59
4.469682e-001 -2.386387e-002 -6.701165e+000 59 75 59
1.434273e+000 2.109650e-003 -7.092761e+000 129 87 60
-7.601976e-001 3.479406e+000 -1.054089e+001 179 137 102
-3.164861e+001 -3.101924e+001 -6.502151e+001 72 34 85
4.121198e+000 -4.113138e-001 -7.892460e+000 172 169 162
4.639644e-001 2.672222e+000 -9.858664e+000 175 168 138
-4.768073e+000 3.028418e+000 -8.501969e+000 154 131 99
2.241315e+000 2.287461e+000 -1.046311e+001 74 88 73
-4.118015e+000 3.992707e+000 -9.446924e+000 177 165 117
1.445434e-001 4.508041e+000 -1.218520e+001 230 219 208
-1.276178e+000 1.021406e+000 -6.724411e+000 137 119 105
-2.779259e+001 -2.952040e+001 -6.782491e+001 239 180 84
-2.033191e+000 1.679584e+000 -7.380382e+000 140 68 68
-3.169000e-001 4.416941e+000 -1.297783e+001 235 217 207
-3.574659e+001 -2.886137e+001 -6.640860e+001 133 14 41
-3.574659e+001 -2.886137e+001 -6.640860e+001 133 14 41
-2.740200e+000 3.925158e+000 -1.043502e+001 162 151 88
2.831622e+000 3.291253e+000 -1.002478e+001 191 193 180
-4.633056e+000 4.301975e+000 -9.664070e+000 156 152 80
-4.952479e+000 4.008904e+000 -9.234706e+000 179 171 124
-3.830433e+000 4.085420e+000 -9.707430e+000 185 166 116
-1.340128e+000 4.179576e+000 -1.100649e+001 133 145 109
-4.153337e+000 3.896847e+000 -9.342501e+000 181 174 130
-3.946953e+000 3.481123e+000 -9.078648e+000 181 176 137
1.497670e-001 3.766664e+000 -1.111089e+001 151 95 67
1.051803e+000 4.007547e+000 -1.170742e+001 182 136 101
1.089020e+000 3.800893e+000 -1.139999e+001 171 133 90
3.448651e-001 3.491934e+000 -1.073591e+001 200 172 118
9.913489e-001 3.268249e+000 -1.076930e+001 195 189 160
1.478442e+000 2.259059e+000 -9.766696e+000 140 133 123
2.181626e+000 1.957168e+000 -9.772539e+000 145 143 137
-2.596537e-001 1.093661e+000 -7.777568e+000 183 162 143
-1.496494e-001 7.859754e-001 -7.471644e+000 193 180 154
1.286920e+000 5.630936e-001 -7.668091e+000 172 155 88
4.150635e-001 4.170331e-001 -7.060671e+000 184 164 113
-5.067469e+000 3.980504e+000 -9.199776e+000 207 210 167
-4.631530e+000 3.906430e+000 -9.190547e+000 118 121 85
1.350776e+000 4.298210e+000 -1.218496e+001 79 85 71
-2.896258e-002 3.837155e+000 -1.100808e+001 143 85 63
1.812119e+000 3.418371e+000 -1.135333e+001 78 86 74
7.560126e-001 3.025320e+000 -1.040392e+001 170 142 92
6.121705e-001 2.684415e+000 -9.912794e+000 174 157 103
7.325733e-001 2.536200e+000 -9.830823e+000 163 157 101
1.566067e+000 2.581679e+000 -1.017787e+001 112 103 98
1.381275e+000 2.448657e+000 -9.968004e+000 179 158 123
2.101100e+000 2.363329e+000 -1.015933e+001 133 135 124
2.271888e+000 2.092109e+000 -9.960890e+000 113 110 105
1.501333e+000 1.968248e+000 -9.439121e+000 107 98 97
1.544981e+000 1.826186e+000 -9.258169e+000 157 159 120
7.810239e-001 1.515452e+000 -8.629175e+000 150 93 70
-1.323642e+000 1.066937e+000 -6.895789e+000 197 180 163
-3.225801e-002 6.522247e-001 -7.314140e+000 61 84 71
7.042340e-001 7.437696e-001 -7.709646e+000 136 91 58
1.162762e+000 7.814744e-001 -7.939290e+000 136 93 58
-2.953379e-002 6.040956e-001 -7.246665e+000 186 165 131
3.085105e+000 5.006143e-001 -8.528396e+000 98 113 76
2.588483e+000 3.191821e-001 -7.966543e+000 161 143 94
3.526020e+000 9.934199e-002 -8.169438e+000 95 109 74
3.552020e+000 6.545167e-002 -8.112693e+000 168 172 159
3.436744e+000 -5.703298e-002 -7.996902e+000 165 174 153
3.615319e+000 -1.443609e-001 -8.020274e+000 103 111 87
1.026361e+000 -7.915026e-003 -6.923550e+000 169 155 93
-4.024643e-001 4.280020e+000 -1.147991e+001 148 158 134
-5.003953e-001 3.858234e+000 -1.084434e+001 137 83 66
1.878981e+000 2.698479e+000 -1.049603e+001 189 176 133
1.901406e+000 2.643698e+000 -1.042308e+001 81 86 81
1.679185e+000 2.530037e+000 -1.019076e+001 157 150 144
-4.330035e+000 1.803997e+000 -7.729925e+000 127 112 105
3.998740e+000 5.237527e+000 -7.436262e+000 197 190 182
4.020171e+000 5.370743e+000 -7.312619e+000 196 191 182
-2.155052e+000 2.144212e+000 -7.873578e+000 198 184 184
-2.155008e-001 1.492049e+000 -8.259029e+000 79 73 57
-2.155008e-001 1.492049e+000 -8.259029e+000 79 73 57
-1.865531e+000 1.463811e+000 -7.087873e+000 147 52 58
-2.482316e-001 1.260000e+000 -7.974861e+000 59 79 60
-2.482316e-001 1.260000e+000 -7.974861e+000 59 79 60
1.976672e+000 9.569334e-001 -8.897886e+000 129 134 77
9.225185e-002 9.745397e-001 -7.778654e+000 188 173 142
6.287400e-001 8.730604e-001 -7.832008e+000 153 95 74
-1.005555e-001 6.720645e-001 -7.358800e+000 183 167 142
1.120926e+000 6.566204e-001 -7.815401e+000 140 91 64
1.079582e-001 5.791083e-001 -7.304026e+000 61 82 63
3.419435e-001 4.484054e-001 -7.198098e+000 189 167 122
2.174912e-001 3.547674e-001 -7.083101e+000 66 77 60
6.766633e-001 -6.949952e-002 -6.828514e+000 70 77 53
1.434300e+000 -2.346043e-001 -6.988049e+000 156 152 79
-4.523968e+000 3.688122e+000 -8.976558e+000 118 120 81
-7.633885e-001 3.186045e+000 -1.003075e+001 174 127 87
-1.815969e+000 2.498796e+000 -8.780664e+000 192 169 135
-1.881160e+000 1.365602e+000 -7.193556e+000 144 50 55
-2.157019e+000 1.136120e+000 -6.693050e+000 164 56 59
1.803326e-001 6.857793e-001 -7.446180e+000 69 78 61
5.681562e-001 7.951223e-001 -7.727500e+000 187 164 114
1.131249e+000 3.993608e+000 -1.176927e+001 176 129 92
1.214134e+000 3.842959e+000 -1.170756e+001 178 141 96
-5.403910e-001 3.513056e+000 -1.052672e+001 184 141 89
-2.043493e+000 1.865609e+000 -7.630666e+000 202 187 185
1.636022e+000 8.808255e-001 -8.306093e+000 129 130 73
1.636022e+000 8.808255e-001 -8.306093e+000 129 130 73
4.849869e-001 -1.302197e-001 -6.658490e+000 175 160 100
-1.583850e+000 2.241065e+000 -8.821773e+000 191 173 139
-2.314925e+000 1.174176e+000 -6.774604e+000 196 181 156
-2.118558e-001 9.803999e-001 -7.648172e+000 61 82 66
-1.310390e+000 9.637541e-001 -6.814609e+000 139 120 106
2.433729e-001 4.209775e+000 -1.167551e+001 166 136 108
7.481054e-001 4.698896e-001 -7.466794e+000 167 129 91
-3.118193e+000 4.194839e+000 -1.031877e+001 148 138 83
-1.381055e+000 4.292550e+000 -1.118120e+001 91 102 77
-4.539527e+000 1.836762e+000 -8.274875e+000 127 113 104
-9.818258e-001 1.019070e+000 -7.405017e+000 190 179 173
-4.468088e+000 3.959689e+000 -9.318341e+000 180 169 123
1.285298e+000 3.377208e+000 -1.110473e+001 187 161 111
-1.915457e-001 1.192739e+000 -7.933860e+000 72 76 61
-1.915457e-001 1.192739e+000 -7.933860e+000 72 76 61
3.995792e+000 -5.183649e-001 -8.160342e+000 99 107 79
2.814795e+000 1.769948e+000 -1.027310e+001 84 103 73
-2.770521e+000 3.087914e+000 -8.804415e+000 202 190 181
