ply
format ascii 1.0
element face 0
property list uchar int vertex_indices
element vertex 862
property float x
property float y
property float z
property uchar diffuse_red
property uchar diffuse_green
property uchar diffuse_blue
end_header
2.328258e+000 -3.566876e+000 -1.101224e+001 106 106 87
1.924219e-001 -3.685803e+000 -1.033536e+001 90 103 70
-3.150546e-001 -2.963561e+000 -1.057882e+001 165 153 132
-1.078308e-001 -3.532682e+000 -1.000681e+001 149 137 106
5.093604e+000 6.365839e+001 2.147767e+001 83 79 80
4.655783e-001 -1.464016e+000 -1.277342e+001 84 70 45
-6.115614e-002 -1.280385e+000 -1.294056e+001 136 101 61
-2.849385e-002 -4.968022e-001 -1.386717e+001 122 103 73
-6.608085e-001 -2.791479e+000 -1.055285e+001 163 131 84
-2.193715e-001 -4.141588e-001 -1.378591e+001 131 114 78
-4.247174e+000 -3.582327e-001 -1.218865e+001 77 89 53
8.474974e+000 6.442282e+001 2.369131e+001 75 71 72
7.419790e+000 6.400875e+001 2.448497e+001 95 95 95
-3.964386e+000 -3.748214e+000 -8.155069e+000 125 113 61
-1.074888e+000 -3.621902e+000 -9.449179e+000 144 127 81
-3.501958e+000 -3.419444e+000 -8.788035e+000 121 94 56
-2.951738e-001 -3.227721e+000 -1.032747e+001 177 154 124
7.527265e-002 -3.185605e+000 -1.058558e+001 94 102 60
-5.097282e-001 -2.808548e+000 -1.077427e+001 185 161 133
-2.429991e-001 -2.871161e+000 -1.071616e+001 103 99 68
-2.429991e-001 -2.871161e+000 -1.071616e+001 103 99 68
-4.122925e+000 -2.377707e+000 -8.622273e+000 191 180 113
-3.638847e+000 -2.632643e+000 -9.731268e+000 87 83 51
-1.860483e+000 -2.082895e+000 -1.107121e+001 99 71 60
3.476212e-001 -1.906118e+000 -1.209190e+001 102 88 47
-2.137302e+000 -1.709520e+000 -1.145102e+001 74 55 49
-2.180531e+000 -1.673326e+000 -1.148790e+001 158 118 96
-4.254849e-001 -4.028491e-001 -1.349660e+001 146 119 72
2.936895e-002 -2.214426e-001 -1.376543e+001 120 99 67
-4.943490e-001 -1.151454e-001 -1.369630e+001 135 110 69
-3.147199e+000 -3.534555e+000 -8.782914e+000 163 131 80
-2.299458e+000 -3.616240e+000 -9.047876e+000 169 137 88
-2.292237e+000 -3.611441e+000 -9.043309e+000 169 137 88
-5.594303e-001 -3.576831e+000 -9.647764e+000 127 119 80
2.363841e-001 -3.561551e+000 -9.907779e+000 92 98 68
9.555783e-002 -3.569847e+000 -1.005620e+001 143 142 114
-2.436621e+000 -3.340580e+000 -9.343772e+000 126 93 51
-2.162573e+000 -3.377877e+000 -9.391029e+000 171 133 75
-2.162573e+000 -3.377877e+000 -9.391029e+000 171 133 75
-7.240541e-001 -3.391394e+000 -9.892809e+000 130 115 72
-3.488280e+000 -2.661040e+000 -9.672830e+000 87 90 56
-5.949815e-001 -2.443162e+000 -1.119279e+001 195 174 145
-2.202412e+000 -1.886981e+000 -1.126620e+001 68 47 41
-1.913283e+000 -1.598581e+000 -1.172144e+001 88 61 50
-2.543063e+000 -1.261470e+000 -1.181506e+001 132 104 90
-2.509099e+000 -1.140790e+000 -1.195416e+001 130 105 92
-2.765850e-001 -9.407344e-001 -1.294891e+001 150 116 65
1.008666e-002 -9.526166e-001 -1.346622e+001 80 63 47
1.153979e-001 -3.206276e-001 -1.374911e+001 115 96 63
1.594175e-001 -2.769103e-001 -1.373301e+001 115 96 63
-4.264201e+000 -3.901800e-002 -1.238173e+001 82 88 59
-8.797382e-001 -3.690740e+000 -9.494714e+000 98 86 60
1.338893e+000 -3.625040e+000 -1.012226e+001 198 196 180
1.496320e+000 -3.532970e+000 -1.003879e+001 198 196 180
-3.598541e+000 -3.648301e+000 -8.562525e+000 112 93 52
-3.630198e+000 -3.556237e+000 -8.551122e+000 144 124 74
-3.298962e+000 -3.682178e+000 -8.447137e+000 105 86 51
-3.337028e+000 -3.721652e+000 -8.488811e+000 105 86 51
-3.293247e+000 -3.652620e+000 -8.556591e+000 152 127 76
-2.937535e+000 -3.621353e+000 -8.678589e+000 160 128 77
-2.512442e+000 -3.654535e+000 -8.842085e+000 129 104 64
-2.545707e+000 -3.683909e+000 -8.874601e+000 129 104 64
-2.357272e+000 -3.562442e+000 -9.104103e+000 108 80 40
-2.291646e+000 -3.495487e+000 -9.181353e+000 171 134 82
-2.291646e+000 -3.495487e+000 -9.181353e+000 171 134 82
-2.074815e+000 -3.575286e+000 -9.121129e+000 163 131 83
-2.069002e+000 -3.572913e+000 -9.124236e+000 163 131 83
-8.463507e-001 -3.629983e+000 -9.587683e+000 137 124 83
-7.587720e-001 -3.553573e+000 -9.660948e+000 88 79 48
-6.238213e-001 -3.576504e+000 -9.787633e+000 116 106 71
1.865362e-001 -3.459345e+000 -1.017492e+001 187 178 160
-3.643213e+000 -3.510596e+000 -8.637077e+000 115 94 57
-3.245742e+000 -3.352508e+000 -8.921167e+000 114 85 51
-1.266009e+000 -3.308390e+000 -9.787081e+000 150 123 76
-1.075811e+000 -3.301133e+000 -9.876251e+000 155 128 86
-9.258985e-001 -3.224344e+000 -1.000154e+001 105 81 45
-5.262283e-001 -2.852909e+000 -1.069540e+001 82 61 42
-5.290049e-001 -2.855292e+000 -1.069934e+001 82 61 42
-3.990325e-002 -2.625417e+000 -1.103868e+001 102 99 64
-3.920954e+000 -1.020664e+000 -7.214170e+000 207 191 114
-7.864649e-001 -2.440609e+000 -1.097195e+001 194 164 143
-9.397966e-001 -2.424710e+000 -1.114027e+001 193 165 144
-4.139372e-001 -2.403190e+000 -1.115927e+001 103 108 77
-4.175457e+000 -2.296655e+000 -9.832367e+000 81 85 58
-1.345313e+000 -2.115483e+000 -1.127456e+001 177 146 126
-4.357030e+000 -2.088766e+000 -9.983370e+000 81 89 66
-4.207627e+000 -2.257017e+000 -9.925506e+000 183 151 101
-2.785836e+000 -2.149782e+000 -1.055811e+001 108 75 70
9.364457e-002 -1.377555e+000 -1.258763e+001 120 83 51
2.522447e-001 -1.451030e+000 -1.284978e+001 114 90 56
2.309977e-001 -1.188789e+000 -1.300658e+001 123 94 60
-2.829472e+000 -1.125123e+000 -1.187581e+001 141 109 96
-4.701652e-002 -8.171011e-001 -1.345319e+001 134 105 71
-1.301726e-001 -3.168685e-001 -1.376952e+001 125 104 67
-3.913960e-001 -2.769492e-001 -1.386181e+001 109 88 57
-2.731177e+000 -3.477453e+000 -8.934931e+000 164 132 82
-1.255363e+000 -3.708045e+000 -9.465772e+000 147 127 74
-3.753601e+000 -3.495179e+000 -8.542368e+000 109 90 53
-3.480698e+000 -3.506547e+000 -8.686035e+000 127 108 68
-2.211753e+000 -3.431952e+000 -9.269658e+000 142 110 70
-1.713149e+000 -3.279534e+000 -9.667066e+000 118 90 51
-2.649125e+000 -3.280667e+000 -9.314384e+000 188 142 80
6.929824e-001 -2.436949e+000 -1.147994e+001 104 93 63
-4.371655e+000 -1.381638e+000 -7.595528e+000 176 164 101
-4.080828e+000 -8.868295e-001 -7.241533e+000 177 161 101
-3.811764e+000 -2.452476e+000 -9.664343e+000 187 151 104
-3.767009e+000 6.463616e-002 -6.958845e+000 171 150 83
-4.646928e+000 -1.323428e+000 -9.127766e+000 232 224 186
-4.372702e+000 -1.990375e+000 -1.004881e+001 186 151 105
-2.992225e+000 -1.913196e+000 -1.080506e+001 104 75 67
8.116035e-002 -1.395638e+000 -1.273551e+001 136 100 56
-4.725505e+000 -1.560173e+000 -1.044131e+001 190 147 93
-2.673703e+000 -1.297653e+000 -1.173970e+001 97 69 58
1.424283e-001 -9.249743e-001 -1.334296e+001 80 65 44
3.003114e-001 -3.733533e-001 -1.361847e+001 114 97 65
1.662324e-001 1.184557e+000 -1.535446e+001 249 246 251
2.639896e+000 -3.485142e+000 -1.085371e+001 84 79 60
-4.092605e+000 -3.333934e+000 -8.530012e+000 115 98 54
-2.293585e-001 -3.325192e+000 -1.018566e+001 174 152 138
-1.046356e-001 -3.074311e+000 -1.056594e+001 149 140 114
-1.066957e-001 -3.076024e+000 -1.056812e+001 149 140 114
-3.750146e+000 -1.132843e+000 -7.262164e+000 224 210 141
-4.512437e+000 -1.755682e+000 -1.031103e+001 153 129 93
-4.395309e+000 1.095039e+000 -8.096137e+000 141 129 87
-4.347315e+000 -2.219264e-001 -1.224160e+001 73 86 52
-7.155351e-001 -2.427116e+000 -1.110849e+001 177 154 136
-4.548539e+000 -1.344479e+000 -8.728319e+000 190 81 84
-4.496899e+000 -1.266569e+000 -8.659136e+000 190 81 84
1.581317e+000 -1.454020e+000 -1.298260e+001 59 46 39
-5.153802e+000 -8.231172e-002 -9.873310e+000 160 81 74
-1.868006e+000 -1.680717e+000 -1.169171e+001 94 70 60
-9.358572e-001 1.149811e+000 -1.476511e+001 81 67 52
-3.268465e+000 -1.547967e+000 -6.168537e+000 147 141 85
-3.895056e+000 -3.709217e-001 -7.167226e+000 201 183 115
-8.918503e-001 7.279318e-001 -1.454801e+001 133 119 77
-3.874436e+000 -4.564725e-001 -1.210682e+001 189 143 93
-4.575531e+000 -2.014429e+000 -8.828266e+000 232 216 193
-4.473889e+000 -2.160631e+000 -1.004540e+001 133 114 77
-1.746340e+000 -2.533816e+000 -1.046788e+001 199 161 138
1.604121e+000 -3.007208e+000 -1.310199e+001 191 183 164
1.189603e+000 -3.108025e+000 -1.127251e+001 73 82 55
1.392021e+000 -1.459109e-001 -1.138785e+001 172 129 61
1.392021e+000 -1.459109e-001 -1.138785e+001 172 129 61
-3.396262e+000 -1.759102e+000 -6.464803e+000 131 124 70
-1.506534e+000 -3.567244e+000 -9.413071e+000 158 135 83
-1.158734e+000 -3.523567e+000 -9.688231e+000 117 95 58
-3.034766e+000 -1.713802e+000 -1.115990e+001 176 142 132
-3.389615e+000 -3.600774e+000 -8.286555e+000 121 102 62
-3.486576e+000 -3.571315e+000 -8.358658e+000 145 127 81
-3.477490e+000 -3.510425e+000 -8.425605e+000 124 105 66
-3.036121e+000 -3.386282e+000 -8.796354e+000 134 102 61
-2.928306e+000 -3.387696e+000 -9.023733e+000 185 143 94
-1.936294e+000 -3.392521e+000 -9.544046e+000 177 140 85
-1.036320e+000 -3.245625e+000 -1.000974e+001 136 111 70
-4.531202e+000 -1.132036e+000 -8.741323e+000 243 211 215
-2.830472e+000 -1.544128e+000 -1.125179e+001 126 91 79
-1.817235e+000 -3.639455e+000 -9.172899e+000 134 111 67
-2.942176e+000 -3.222970e+000 -8.921476e+000 145 113 65
-2.577791e+000 -1.544179e+000 -1.151379e+001 117 90 81
-4.100362e+000 -2.229853e+000 -1.002146e+001 206 158 114
-3.087335e+000 -3.772239e+000 -8.449734e+000 171 143 93
-1.333757e+000 9.564436e-001 -1.485422e+001 237 237 239
-3.176674e+000 -3.798557e+000 -8.128950e+000 147 131 77
8.504110e-001 -2.079192e+000 -1.351899e+001 170 157 140
-5.409891e+000 2.959023e+000 -1.013866e+001 166 127 120
3.246191e+001 1.082122e+002 8.003016e+001 146 129 119
3.488481e+001 1.071676e+002 7.716943e+001 146 128 114
2.316652e+001 1.091743e+002 8.505931e+001 115 90 70
1.889480e+001 7.749791e+001 3.725012e+001 38 34 36
2.944348e+001 1.122808e+002 6.845786e+001 114 102 90
2.776098e+001 1.058569e+002 6.019340e+001 61 51 49
3.354149e+001 1.149281e+002 6.750786e+001 128 114 101
3.302642e-001 -3.561010e+000 -1.005910e+001 133 138 106
-4.222655e-001 -2.360940e+000 -1.125547e+001 166 129 79
6.763886e-001 -4.420675e-001 -1.409489e+001 83 76 51
-8.585737e-001 -3.767865e+000 -9.496289e+000 130 119 75
2.618975e+000 -3.658783e+000 -1.086861e+001 178 158 146
-3.341667e+000 -3.514747e+000 -8.618358e+000 151 129 79
-3.341667e+000 -3.514747e+000 -8.618358e+000 151 129 79
-2.915212e+000 -3.719781e+000 -8.705343e+000 114 90 50
-1.940353e+000 -3.593801e+000 -9.219017e+000 159 131 80
-1.548246e+000 -3.633600e+000 -9.346775e+000 104 82 50
-9.785174e-001 -3.631804e+000 -9.499800e+000 137 122 81
-1.163499e+000 -3.548017e+000 -9.573095e+000 148 126 85
-1.028199e+000 -3.537980e+000 -9.648375e+000 140 121 78
-8.921487e-001 -3.540331e+000 -9.739135e+000 130 116 71
-3.944145e+000 -3.429790e+000 -8.449026e+000 144 129 86
-2.643015e+000 -3.368392e+000 -9.093420e+000 176 137 80
-2.438868e+000 -3.386817e+000 -9.252442e+000 181 141 82
-2.438868e+000 -3.386817e+000 -9.252442e+000 181 141 82
-2.038647e+000 -3.361362e+000 -9.427917e+000 174 136 82
-8.878555e-001 -3.414691e+000 -9.849113e+000 135 118 75
-7.578587e-001 -3.407344e+000 -9.910905e+000 130 115 72
-8.197792e-001 -3.382674e+000 -9.998569e+000 101 83 47
-1.126626e-001 -3.352837e+000 -1.021850e+001 176 156 131
-2.817363e-001 -3.028125e+000 -1.056657e+001 94 97 66
-1.361723e+000 -1.894592e+000 -1.153797e+001 121 80 55
-2.752277e+000 -1.005787e+000 -1.201925e+001 131 97 86
-2.496583e+000 -1.003081e+000 -1.219767e+001 120 84 69
-2.417806e+000 -1.016786e+000 -1.218045e+001 165 133 108
-3.905347e+000 -3.423946e-002 -1.268617e+001 71 87 49
-3.311639e+000 -3.598254e+000 -8.640130e+000 128 100 61
-2.960692e+000 -3.578100e+000 -8.780124e+000 112 82 46
-2.376650e+000 -3.600493e+000 -8.972455e+000 168 135 85
-2.167451e+000 -3.583100e+000 -9.050571e+000 172 138 90
-2.080252e+000 -3.528768e+000 -9.198287e+000 117 90 47
-2.080252e+000 -3.528768e+000 -9.198287e+000 117 90 47
-1.681840e+000 -3.650561e+000 -9.305248e+000 120 98 59
-1.832533e+000 -3.503885e+000 -9.297284e+000 128 100 60
-9.458550e-001 -3.481155e+000 -9.772928e+000 111 92 58
-3.830187e+000 -3.413336e+000 -8.501091e+000 135 121 74
-3.830346e+000 -3.412946e+000 -8.500122e+000 135 121 74
-3.663413e+000 -3.393330e+000 -8.579773e+000 157 134 90
-3.316377e+000 -3.459650e+000 -8.713800e+000 110 87 46
-3.365001e+000 -3.390632e+000 -8.737368e+000 159 129 84
-3.359340e+000 -3.387508e+000 -8.733551e+000 159 129 84
-3.068112e+000 -3.431778e+000 -8.818269e+000 120 91 49
-3.068112e+000 -3.431778e+000 -8.818269e+000 120 91 49
-3.043801e+000 -3.331109e+000 -8.987481e+000 118 88 50
-2.057580e+000 -3.388708e+000 -9.306520e+000 129 99 64
-1.537935e+000 -3.390798e+000 -9.599250e+000 125 100 59
-1.634047e+000 -3.360064e+000 -9.680593e+000 165 129 78
-1.557284e+000 -3.267064e+000 -9.728189e+000 128 99 57
-1.102792e+000 -3.372958e+000 -9.630256e+000 146 123 79
-1.102792e+000 -3.372958e+000 -9.630256e+000 146 123 79
-1.298430e+000 -3.368334e+000 -9.702550e+000 114 90 49
-1.295894e+000 -3.362800e+000 -9.693923e+000 114 90 49
-1.083497e+000 -3.427225e+000 -9.757087e+000 145 123 80
-7.116590e-001 -2.328565e+000 -1.122139e+001 193 164 136
2.204596e-001 -1.374319e+000 -1.277106e+001 87 63 29
6.760650e-002 -1.143501e+000 -1.302431e+001 106 77 47
3.391101e-001 -4.852114e-001 -1.354614e+001 109 90 57
4.362899e-002 -1.712502e-001 -1.398040e+001 119 98 69
-2.731827e-001 9.941866e-002 -1.409242e+001 119 99 72
-7.753627e-001 1.110471e-002 -1.421129e+001 125 109 73
-4.185842e+000 -1.651150e-001 -1.225212e+001 168 134 79
-4.225630e+000 -1.986897e-001 -1.238144e+001 79 83 57
-3.692662e+000 -3.774066e+000 -8.412123e+000 107 92 57
-1.298184e+000 -3.729810e+000 -9.494434e+000 147 127 74
-3.619326e+000 -3.337084e+000 -8.725531e+000 111 90 59
-3.479677e+000 -3.357957e+000 -8.779129e+000 134 108 71
-2.369612e-001 -3.397542e+000 -1.006500e+001 182 156 136
6.577350e-001 -2.741725e+000 -1.135419e+001 86 77 48
3.452808e-001 -5.755690e+000 -1.651334e+001 97 89 76
2.687192e-001 -1.766890e+000 -1.221819e+001 91 67 29
5.750063e-001 -1.819965e+000 -1.235994e+001 113 95 58
-2.973481e+000 -1.189176e+000 -1.182595e+001 187 146 126
-4.774190e-001 -4.423569e-001 -1.370598e+001 134 109 69
-2.278950e-001 -1.563275e-001 -1.395390e+001 126 105 74
-3.838696e+000 -5.140638e-002 -1.274340e+001 76 89 57
-7.496736e-001 4.783291e-001 -1.453644e+001 96 90 66
3.064631e+000 -3.239714e+000 -1.087774e+001 166 150 134
-1.528938e-001 -3.146831e+000 -1.043808e+001 98 106 72
-1.873522e+000 -1.260234e+000 -1.213278e+001 149 100 62
-2.139119e-001 -1.130316e+000 -1.290756e+001 152 114 66
-2.369074e-001 -1.152355e+000 -1.292622e+001 152 114 66
-4.596585e+000 5.069455e-002 -1.222166e+001 161 127 82
-9.601079e-001 -2.327931e+000 -1.116620e+001 127 99 61
-2.055471e+000 -2.207254e+000 -1.088754e+001 133 101 88
-1.334985e+000 -2.025500e+000 -1.131695e+001 116 84 68
-4.295531e+000 -4.475830e-001 -1.196116e+001 164 144 87
-4.295531e+000 -4.475830e-001 -1.196116e+001 164 144 87
3.563684e-002 -3.560405e+000 -9.976108e+000 107 115 81
1.269546e+000 -3.605166e+000 -1.024634e+001 120 124 89
-7.814746e-001 -3.442862e+000 -9.811903e+000 112 98 61
8.429564e-002 -3.355328e+000 -1.018430e+001 180 174 150
-3.667325e+000 -2.646224e+000 -9.600654e+000 99 102 62
-3.638084e+000 -2.616755e+000 -9.743051e+000 142 128 83
-6.001081e-001 -2.505097e+000 -1.102220e+001 193 172 143
-6.389550e-001 -2.473084e+000 -1.110232e+001 138 113 93
-3.900208e+000 -2.424981e+000 -9.751472e+000 94 97 60
-8.815545e-001 -2.344310e+000 -1.112006e+001 194 166 143
-7.178966e-001 -2.338647e+000 -1.122322e+001 203 172 143
-2.880778e+000 -2.175155e+000 -1.050194e+001 176 140 131
-2.639183e+000 -2.135970e+000 -1.072685e+001 145 116 103
-2.163446e+000 -2.165090e+000 -1.094351e+001 119 91 80
-1.598576e+000 -2.066635e+000 -1.125126e+001 134 105 91
-4.275416e+000 -2.019096e+000 -1.010279e+001 200 159 109
-2.386188e+000 -1.697584e+000 -1.135314e+001 107 87 78
-2.386188e+000 -1.697584e+000 -1.135314e+001 107 87 78
-1.752201e+000 -1.633642e+000 -1.172538e+001 108 78 58
-4.786269e+000 -7.727606e-001 -9.194572e+000 235 196 193
-4.933361e+000 -5.770480e-001 -9.472993e+000 247 190 189
-2.231227e+000 -1.183232e+000 -1.206756e+001 181 146 126
2.921924e-001 -8.608120e-001 -1.325978e+001 96 76 49
2.921924e-001 -8.608120e-001 -1.325978e+001 96 76 49
-4.713635e+000 -1.242770e+000 -1.081484e+001 182 150 97
-4.406497e+000 -3.809809e-001 -1.197941e+001 152 135 87
-3.274738e+000 -3.691396e+000 -8.663273e+000 170 142 92
-1.729238e+000 -3.693532e+000 -9.178563e+000 174 145 93
-3.500069e-002 -3.505194e+000 -9.986778e+000 155 152 122
-3.748877e+000 -3.597393e+000 -8.547494e+000 149 131 86
-3.748877e+000 -3.597393e+000 -8.547494e+000 149 131 86
-2.929020e+000 -3.470433e+000 -8.952285e+000 137 106 59
-2.359377e+000 -3.432087e+000 -9.229706e+000 145 106 67
-2.301904e+000 -3.384598e+000 -9.329585e+000 182 144 95
-1.640142e+000 -3.452738e+000 -9.507880e+000 166 134 81
-2.815079e+000 -3.367529e+000 -9.185937e+000 140 103 58
-7.684370e-001 -3.252644e+000 -1.002842e+001 146 126 76
-3.573870e-002 -2.967627e+000 -1.067681e+001 190 170 147
-4.214413e+000 -2.172713e+000 -9.968398e+000 94 98 63
-4.292252e+000 -2.137033e+000 -9.984747e+000 191 157 112
-4.292252e+000 -2.137033e+000 -9.984747e+000 191 157 112
-2.852325e+000 -2.035857e+000 -1.074610e+001 134 102 91
-4.778450e+000 -1.212504e+000 -1.085831e+001 153 126 77
-2.361987e+000 -1.112200e+000 -1.207915e+001 174 142 120
6.655697e-002 -8.655830e-001 -1.345735e+001 94 77 48
-3.728854e+000 -1.108639e-001 -1.265274e+001 142 115 60
-2.536102e+000 -3.329096e+000 -9.296251e+000 143 105 66
8.618316e-001 -2.815824e+000 -1.113618e+001 86 84 53
-3.828004e+000 -2.481909e+000 -9.683287e+000 195 156 110
-2.910552e+000 -1.515127e+000 -1.136998e+001 188 152 133
-1.043560e-001 -7.730331e-001 -1.350591e+001 141 113 75
-4.663980e+000 -7.274382e-001 -1.143793e+001 138 122 69
-4.463758e+000 -4.193775e-001 -1.181848e+001 185 149 97
-4.324988e+000 -2.920050e-001 -1.213428e+001 172 138 84
-4.320701e+000 -1.794479e-001 -1.221484e+001 90 97 46
-3.940800e+000 -2.431789e+000 -9.637106e+000 86 95 61
-2.467399e+000 -1.623149e+000 -1.143364e+001 79 61 54
-6.109239e-001 -1.814522e-002 -1.381864e+001 155 125 75
-2.450241e+000 2.296549e-002 -1.316009e+001 139 118 69
-1.443076e-001 -1.132540e+000 -1.299186e+001 148 107 59
-3.017866e+000 5.504515e-002 -1.300743e+001 140 115 65
1.631661e-001 -3.629066e+000 -9.867217e+000 128 129 88
3.236425e+001 6.791068e+001 6.353486e+001 72 87 93
4.466627e-002 -3.168132e+000 -1.063884e+001 114 120 79
-2.482771e+000 -2.144658e+000 -1.069673e+001 179 144 132
-2.453837e+000 -2.022621e+000 -1.091464e+001 135 108 101
-1.942732e+000 -1.766018e+000 -1.147826e+001 95 68 63
-2.952021e+000 -1.455466e+000 -1.137401e+001 184 147 130
-2.390118e+000 -1.071139e+000 -1.214339e+001 157 126 105
-2.386080e+000 -1.068244e+000 -1.214064e+001 157 126 105
6.765227e-001 -5.173418e-001 -1.411484e+001 152 137 118
-4.239266e+000 -5.542567e-001 -1.195581e+001 204 159 99
-1.066629e+000 -3.572429e+000 -9.527756e+000 125 108 62
-9.069225e-001 -3.634910e+000 -9.556169e+000 155 142 96
-5.728225e-001 -3.606785e+000 -9.703740e+000 143 135 90
-3.581653e+000 -3.601334e+000 -8.287828e+000 156 139 87
-8.780178e-001 -3.521501e+000 -9.711907e+000 151 132 83
-3.105378e-001 -3.296784e+000 -1.000588e+001 192 175 149
-2.485212e+000 -2.252941e+000 -1.060948e+001 205 172 157
-2.123703e+000 -2.195878e+000 -1.082230e+001 187 159 145
-1.343569e+000 -1.973631e+000 -1.147378e+001 146 105 77
-4.194142e+000 -2.069562e+000 -1.000281e+001 134 123 80
-2.723281e+000 -1.844541e+000 -1.097595e+001 101 77 69
-4.458578e+000 -1.878466e+000 -1.011388e+001 204 167 120
-1.971451e+000 -1.705731e+000 -1.145283e+001 115 89 76
-2.525891e+000 -1.564160e+000 -1.137926e+001 100 74 69
-2.383971e-001 -2.238016e-001 -1.401789e+001 139 120 77
-8.784905e-001 -9.433386e-004 -1.397760e+001 164 137 86
-9.798202e-001 2.865538e-001 -1.432346e+001 146 131 91
-1.062289e+000 3.864469e-001 -1.436322e+001 146 132 93
-3.913817e+000 -4.266462e-002 -1.269114e+001 106 106 46
-7.606651e-001 -3.676816e+000 -9.544067e+000 111 101 66
-6.270155e-001 -3.563838e+000 -9.783797e+000 126 114 72
-3.498156e+000 -3.620488e+000 -8.350502e+000 159 137 87
-3.553312e+000 -3.554203e+000 -8.368021e+000 135 114 67
-2.569527e+000 -3.594042e+000 -8.833004e+000 183 151 94
-1.790304e+000 -3.400206e+000 -9.471433e+000 141 111 63
-1.478392e+000 -3.545912e+000 -9.378086e+000 175 150 95
-3.477667e+000 -3.385101e+000 -8.638698e+000 177 151 98
-2.213524e+000 -3.304489e+000 -9.394562e+000 157 123 74
1.139899e+000 -3.098915e+000 -1.111990e+001 104 121 83
-4.165688e+000 -3.097926e+000 -8.504179e+000 192 187 132
-2.379840e-001 -2.483774e+000 -1.128614e+001 129 129 82
-1.896183e+000 -2.217496e+000 -1.097727e+001 187 159 145
-1.460154e+000 -1.961927e+000 -1.143916e+001 116 91 71
4.697754e-001 -1.867913e+000 -1.228381e+001 121 106 67
6.581135e-001 -1.993744e+000 -1.234287e+001 103 94 63
-1.698437e+000 -1.793316e+000 -1.155476e+001 124 97 83
-1.335436e+000 -1.897735e+000 -1.164621e+001 201 145 95
-1.081525e+000 -1.751272e+000 -1.180741e+001 203 161 107
-1.085944e+000 -1.753528e+000 -1.180910e+001 203 161 107
2.314194e-001 -1.569024e+000 -1.249813e+001 160 120 71
-2.775228e+000 -1.190911e+000 -1.181591e+001 176 142 133
-3.739473e+000 -1.185926e-001 -1.266558e+001 116 115 64
-3.578844e+000 -9.043287e-002 -1.278263e+001 123 113 62
-3.578844e+000 -9.043287e-002 -1.278263e+001 123 113 62
-2.651956e-001 -3.477208e+000 -9.972198e+000 149 137 86
6.893302e-001 -2.293833e+000 -1.186849e+001 104 99 63
-1.674075e+000 -2.232745e+000 -1.101955e+001 206 175 158
3.078772e-001 -1.280661e+000 -1.304222e+001 103 93 57
-4.660837e+000 -1.422844e+000 -1.063101e+001 211 169 116
3.509030e-001 -7.497595e-001 -1.340405e+001 135 116 79
-2.868027e-001 -1.939228e-001 -1.398793e+001 147 125 81
1.846818e+000 -3.444950e+000 -1.098435e+001 117 120 93
-7.801786e-001 -2.807196e+000 -1.068211e+001 179 149 89
-4.733136e+000 -1.346327e+000 -1.076485e+001 166 142 94
-3.954009e-001 4.639913e-001 -1.477990e+001 106 106 80
-2.034178e+000 -1.747949e+000 -1.139810e+001 98 78 65
-3.747056e+000 -2.599406e+000 -9.672985e+000 162 143 104
-3.860191e+000 -3.367831e+000 -8.459148e+000 120 106 60
-3.875181e+000 -3.375533e+000 -8.470649e+000 120 106 60
-1.069622e+000 -1.667204e+000 -1.197981e+001 193 153 92
4.259240e-001 -3.549918e+000 -1.013074e+001 125 135 96
-1.637108e+000 1.054013e+001 5.775212e+000 145 93 80
-2.184915e+000 -1.681457e+000 -1.129226e+001 96 73 67
-3.211189e+000 -3.602127e+000 -8.451078e+000 186 165 112
-2.863271e+000 -3.606869e+000 -8.696450e+000 187 160 107
-2.863271e+000 -3.606869e+000 -8.696450e+000 187 160 107
-3.094336e+000 -3.518952e+000 -8.627620e+000 192 162 110
-2.236489e+000 -3.573034e+000 -8.952702e+000 191 162 104
-2.264821e+000 -3.582945e+000 -8.985560e+000 191 162 104
-2.009371e+000 -3.622717e+000 -9.031733e+000 144 114 63
-2.009371e+000 -3.622717e+000 -9.031733e+000 144 114 63
-1.855962e+000 -3.555049e+000 -9.142398e+000 191 165 116
-1.803103e+000 -3.554780e+000 -9.206521e+000 186 160 107
-1.916164e+000 -3.385926e+000 -9.348828e+000 138 105 57
-7.307571e-001 -3.331952e+000 -9.932828e+000 135 121 76
6.239347e-003 -3.507637e+000 -9.974119e+000 176 178 147
-3.587693e+000 -3.451401e+000 -8.562884e+000 146 127 85
-2.958205e+000 -3.377532e+000 -8.938440e+000 197 168 112
-2.899917e+000 -3.328579e+000 -9.031455e+000 199 164 108
-1.784852e+000 -3.339770e+000 -9.528714e+000 194 161 107
-1.784852e+000 -3.339770e+000 -9.528714e+000 194 161 107
-3.155327e-001 -3.148422e+000 -1.026203e+001 169 148 97
-3.475472e+000 -2.640425e+000 -9.659474e+000 118 103 65
-3.691550e+000 -2.581798e+000 -9.583236e+000 192 184 141
5.660513e-001 -2.071175e+000 -1.209756e+001 101 97 60
-4.020260e+000 -2.331669e+000 -9.815384e+000 113 116 80
-2.476264e+000 -2.207773e+000 -1.068461e+001 166 139 122
-1.830127e+000 -2.045500e+000 -1.113234e+001 183 156 138
-1.898162e+000 -1.959033e+000 -1.127272e+001 94 74 68
-1.594931e+000 -2.057992e+000 -1.125382e+001 160 132 118
-4.301763e+000 -1.956130e+000 -1.010861e+001 118 121 74
-2.643932e+000 -1.779686e+000 -1.117139e+001 132 105 88
-1.897178e+000 -1.825877e+000 -1.144824e+001 135 113 104
1.347279e+000 -1.431213e+000 -1.304205e+001 157 152 131
-4.608493e+000 -1.705783e+000 -1.038461e+001 203 172 124
-2.436557e+000 -1.522225e+000 -1.160654e+001 94 73 65
-4.726680e+000 -1.502045e+000 -1.056607e+001 145 125 75
-2.671300e+000 -1.285802e+000 -1.175070e+001 127 99 85
-2.580207e+000 -1.272263e+000 -1.183713e+001 161 130 116
-3.069027e-001 -1.014938e+000 -1.306025e+001 171 142 85
-3.069027e-001 -1.014938e+000 -1.306025e+001 171 142 85
-4.818053e+000 -1.225704e+000 -1.090911e+001 140 125 82
6.639094e-001 -5.595145e-001 -1.417369e+001 114 98 82
-5.746276e-001 -5.252953e-001 -1.359788e+001 168 142 86
-9.501819e-002 -4.734645e-001 -1.374690e+001 90 80 49
-4.726269e+000 -9.149463e-001 -1.135413e+001 193 168 113
-7.203021e-001 -2.461767e-001 -1.381108e+001 100 76 41
-2.118326e+000 -2.209874e-001 -1.325809e+001 182 157 89
-2.118326e+000 -2.209874e-001 -1.325809e+001 182 157 89
-8.166803e-001 9.541293e-002 -1.411052e+001 154 138 79
-4.427522e+000 -2.824284e-001 -1.223259e+001 93 115 73
-4.427522e+000 -2.824284e-001 -1.223259e+001 93 115 73
-3.889987e+000 -9.586262e-002 -1.271489e+001 202 161 89
-3.340668e+000 -8.514191e-002 -1.290684e+001 124 119 71
-3.163438e+000 -4.323786e-002 -1.299783e+001 182 157 94
-3.021247e+000 -2.954572e-002 -1.311594e+001 177 156 95
-2.308617e-001 3.046650e-001 -1.459097e+001 94 92 61
-2.308617e-001 3.046650e-001 -1.459097e+001 94 92 61
-3.857242e+000 -3.534188e-002 -1.280081e+001 98 115 58
-3.857242e+000 -3.534188e-002 -1.280081e+001 98 115 58
-3.753614e+000 4.051662e-002 -1.288710e+001 192 163 87
-3.753614e+000 4.051662e-002 -1.288710e+001 192 163 87
-5.795763e+000 2.275628e+000 -1.108392e+001 198 170 113
-5.812579e+000 2.314333e+000 -1.113561e+001 103 94 64
-1.103086e+000 -3.621535e+000 -9.347145e+000 176 160 103
-1.103086e+000 -3.621535e+000 -9.347145e+000 176 160 103
-3.716246e+000 -3.622516e+000 -8.226162e+000 160 148 99
-3.418058e+000 -3.455774e+000 -8.601922e+000 162 137 94
-3.259563e+000 -3.559748e+000 -8.590143e+000 155 127 79
-3.052864e+000 -3.671899e+000 -8.552481e+000 157 132 80
-2.990911e+000 -3.490343e+000 -8.759916e+000 191 164 111
-2.990911e+000 -3.490343e+000 -8.759916e+000 191 164 111
-2.168226e+000 -3.582677e+000 -9.035811e+000 198 166 115
-1.608505e+000 -3.547054e+000 -9.299233e+000 183 160 106
-1.967303e+000 -3.446098e+000 -9.245480e+000 193 162 105
-1.967303e+000 -3.446098e+000 -9.245480e+000 193 162 105
-1.690856e+000 -3.448540e+000 -9.395625e+000 190 161 109
-1.308442e+000 -3.514425e+000 -9.388723e+000 180 158 108
-1.555025e+000 -3.412636e+000 -9.420218e+000 191 161 108
-9.330636e-001 -3.332426e+000 -9.824903e+000 134 112 67
-3.351952e+000 -3.327790e+000 -8.829461e+000 171 145 98
-2.632693e+000 -3.366681e+000 -9.087356e+000 199 164 108
-2.293940e+000 -3.351501e+000 -9.271419e+000 202 167 108
-1.923620e+000 -3.323933e+000 -9.406712e+000 199 164 100
-1.548394e+000 -3.306672e+000 -9.611613e+000 189 153 100
-1.543925e+000 -3.305871e+000 -9.612177e+000 189 153 100
-1.647232e+000 -3.256998e+000 -9.626779e+000 169 135 90
-5.963571e-001 -2.841265e+000 -1.064473e+001 211 187 163
-1.214377e-001 -2.694631e+000 -1.106170e+001 133 134 94
1.251001e+000 -2.701999e+000 -1.390514e+001 204 201 186
-4.963906e-001 -2.552698e+000 -1.102169e+001 130 134 105
-4.899335e-001 -2.464707e+000 -1.118226e+001 130 137 104
-3.791277e+000 -2.553079e+000 -9.717505e+000 104 121 78
-1.220938e+000 -2.113179e+000 -1.131206e+001 191 154 124
6.179624e-001 -1.946121e+000 -1.229887e+001 137 129 89
1.408686e+000 -2.219050e+000 -1.349729e+001 200 191 181
-4.204373e+000 -2.300362e+000 -9.839853e+000 105 124 80
-4.291448e+000 -2.167891e+000 -9.870194e+000 119 123 82
-3.151209e+000 -2.110290e+000 -1.054465e+001 162 129 121
-2.376635e+000 -2.047719e+000 -1.092384e+001 108 85 77
-3.005011e+000 -1.917551e+000 -1.080835e+001 135 105 97
-2.086353e+000 -1.827468e+000 -1.128891e+001 140 116 103
-2.998220e+000 -1.667047e+000 -1.113272e+001 198 166 155
-2.924256e+000 -1.607525e+000 -1.132107e+001 149 117 106
-4.657063e+000 -1.548955e+000 -1.055347e+001 214 182 129
-2.465825e+000 -1.241515e+000 -1.186723e+001 106 79 72
-2.435363e+000 -1.218462e+000 -1.195089e+001 111 84 79
-2.512960e+000 -1.153672e+000 -1.196882e+001 165 136 127
5.441266e-002 -8.733585e-001 -1.346442e+001 93 83 48
-4.742027e+000 -1.272085e+000 -1.087575e+001 210 179 124
-4.742027e+000 -1.272085e+000 -1.087575e+001 210 179 124
-2.844831e+000 -1.129603e+000 -1.188182e+001 171 140 129
-4.312194e-001 -6.580108e-001 -1.338816e+001 174 148 93
-4.754302e+000 -1.023678e+000 -1.119788e+001 202 176 117
-2.687272e-001 -4.236789e-001 -1.369459e+001 116 97 55
-6.189457e-001 -3.714674e-001 -1.370207e+001 165 141 93
-2.278915e-001 -4.611915e-001 -1.374748e+001 157 135 86
-1.482914e-001 -4.203907e-001 -1.370141e+001 157 135 86
-4.703755e+000 -7.060689e-001 -1.154710e+001 189 168 104
-2.747948e-001 -1.628555e-002 -1.417580e+001 103 87 53
-4.572417e+000 -4.293008e-001 -1.200454e+001 101 117 79
-4.572417e+000 -4.293008e-001 -1.200454e+001 101 117 79
-9.363450e-001 3.139953e-001 -1.428997e+001 145 135 86
-4.342020e+000 -1.319375e-001 -1.245147e+001 89 111 71
-5.341464e+000 2.449180e+000 -9.815797e+000 210 178 124
2.578715e+000 -3.574534e+000 -1.079135e+001 118 124 98
1.215329e+000 -3.128657e+000 -1.095423e+001 99 117 77
1.289098e+000 -2.894450e+000 -1.128145e+001 90 102 69
-4.962484e-001 -2.466011e+000 -1.120455e+001 126 137 102
-4.079762e+000 -2.417046e+000 -9.690376e+000 220 180 129
-3.886455e+000 -2.503139e+000 -9.748658e+000 214 176 129
-4.003363e+000 -2.388793e+000 -9.760534e+000 214 181 133
-4.187837e+000 -2.224185e+000 -9.920624e+000 212 183 128
-4.185316e+000 -2.148728e+000 -9.977206e+000 112 121 85
3.171534e-001 -1.797051e+000 -1.232321e+001 163 141 87
5.869818e-001 -1.782702e+000 -1.251588e+001 103 102 63
5.397372e-001 -1.698038e+000 -1.247161e+001 137 125 82
-4.285005e+000 -2.119745e+000 -9.981922e+000 207 188 129
-4.293470e+000 -2.122855e+000 -9.985612e+000 207 188 129
-1.965283e+000 -1.656179e+000 -1.160495e+001 99 75 70
1.579732e-001 -1.205441e+000 -1.306877e+001 145 121 77
-4.673549e+000 -1.252106e+000 -9.046032e+000 219 98 117
-4.360585e-002 -1.065587e+000 -1.302632e+001 163 131 78
1.280840e-001 -9.556502e-001 -1.322575e+001 151 126 82
-1.428271e-001 -6.667056e-001 -1.345813e+001 137 115 70
1.413790e-001 -6.637146e-001 -1.363560e+001 140 126 82
1.413790e-001 -6.637146e-001 -1.363560e+001 140 126 82
-4.838753e+000 -6.672825e-001 -9.185158e+000 185 95 92
-3.349196e-001 -4.796124e-001 -1.358808e+001 165 143 86
-2.019747e-004 -2.217460e-001 -1.399875e+001 143 128 83
-2.175097e-001 -1.339120e-001 -1.407868e+001 110 92 59
-4.440952e+000 -4.091543e-001 -1.200603e+001 202 170 109
-4.440952e+000 -4.091543e-001 -1.200603e+001 202 170 109
-4.507124e+000 -3.638384e-001 -1.213715e+001 102 117 84
-4.507124e+000 -3.638384e-001 -1.213715e+001 102 117 84
-4.352155e+000 -3.265256e-001 -1.221344e+001 200 165 91
-4.140313e+000 -2.721706e-001 -1.233504e+001 99 117 77
-4.277353e+000 -2.262387e-001 -1.243028e+001 102 119 78
-4.360942e+000 -2.038354e-001 -1.240049e+001 200 162 85
-4.098426e+000 -1.937554e-001 -1.237954e+001 208 167 96
-4.162812e+000 -1.583946e-001 -1.252981e+001 93 105 66
-4.162812e+000 -1.583946e-001 -1.252981e+001 93 105 66
-4.039197e+000 -1.749327e-001 -1.252923e+001 208 162 83
-4.039197e+000 -1.749327e-001 -1.252923e+001 208 162 83
-4.054208e+000 -1.111672e-001 -1.262934e+001 102 116 73
2.605683e-001 8.282972e-001 -1.537852e+001 187 175 163
-1.705536e+000 1.057828e+001 6.894845e+000 141 90 86
-3.048249e+000 -3.751809e+000 -8.397737e+000 192 169 115
-4.087296e-001 -2.719606e+000 -1.092428e+001 131 136 102
-4.003074e+000 -2.482164e+000 -9.716018e+000 97 114 72
8.607635e-001 -2.069248e+000 -1.198800e+001 137 128 87
-4.640889e+000 -1.435954e+000 -8.923182e+000 200 106 96
-1.949499e-001 -1.134110e+000 -1.291484e+001 184 149 85
-4.658567e+000 -1.631480e+000 -1.047795e+001 183 162 119
4.727872e-001 -8.010694e-001 -1.345069e+001 96 92 58
2.010304e-002 -6.089231e-001 -1.374688e+001 146 128 80
-4.897051e+000 -6.610594e-001 -9.497006e+000 193 100 95
2.828392e-004 -4.433062e-001 -1.386341e+001 141 124 81
-4.702167e-001 -1.864442e-001 -1.386007e+001 157 133 79
2.724770e-002 2.157603e-002 -1.421671e+001 92 81 49
-2.471840e-001 1.531291e-001 -1.436639e+001 126 122 82
-1.786517e-001 3.227997e-001 -1.428240e+001 119 110 79
-4.250754e+000 -2.577120e-001 -1.230961e+001 199 164 92
-5.932609e-001 4.124395e-001 -1.452390e+001 122 116 80
-3.858334e+000 -6.280818e-002 -1.276117e+001 87 113 70
-5.576364e+000 2.110828e+000 -1.050877e+001 170 109 69
-3.771178e+000 -3.923332e+000 -7.931310e+000 165 149 91
-9.380204e-001 -3.700597e+000 -9.315297e+000 141 129 89
-5.739660e-001 -2.608479e+000 -1.095788e+001 202 184 159
-2.359701e+000 -2.196226e+000 -1.069408e+001 207 179 167
-4.516856e+000 -1.762449e+000 -1.032859e+001 188 170 121
-3.917868e-001 -7.376507e-001 -1.331603e+001 128 100 53
-4.370667e+000 -2.443669e-001 -1.227949e+001 89 108 70
-1.066981e+000 5.209262e-001 -1.446436e+001 153 142 86
-9.021523e-001 -1.860196e+000 -1.178040e+001 190 132 84
1.516217e+000 -1.485259e+000 -1.322831e+001 186 176 164
-4.747327e+000 -9.892316e-001 -1.124066e+001 165 144 94
-6.372018e-001 -1.269956e-001 -1.390707e+001 164 137 83
-2.921304e+000 -4.061952e-002 -1.312410e+001 140 123 64
8.125101e-001 -1.545031e+000 -1.273737e+001 132 130 82
-4.678425e+000 -7.148452e-001 -1.163142e+001 194 174 114
1.634632e+000 -1.848759e+000 -1.295959e+001 194 182 166
1.896068e+000 -3.445158e+000 -1.060116e+001 105 116 86
6.186722e-001 1.120285e+001 6.865579e+000 53 41 43
-4.678298e+000 -6.925780e-002 -1.228004e+001 197 164 110
-4.689595e+000 -7.491653e-002 -1.229844e+001 197 164 110
1.438660e+000 -3.976627e+000 -1.061050e+001 215 213 201
-4.472680e+000 -1.822194e+000 -8.902442e+000 219 211 200
-3.621334e+000 -3.570109e+000 -8.299187e+000 154 141 91
3.097336e+001 1.079252e+002 7.727564e+001 170 152 141
3.701569e+001 1.050379e+002 7.464771e+001 151 137 126
5.547806e+001 3.581351e+001 1.219706e+002 134 121 112
5.814895e+001 3.865492e+001 1.235887e+002 125 111 97
5.826339e+001 3.871642e+001 1.237927e+002 125 111 97
5.790518e+001 3.974215e+001 1.246684e+002 72 55 47
5.715664e+001 3.426769e+001 1.083843e+002 139 125 122
6.158150e+001 4.472741e+001 1.306078e+002 110 93 85
5.963985e+001 5.243422e+001 1.398025e+002 86 69 61
5.963985e+001 5.243422e+001 1.398025e+002 86 69 61
6.847166e+001 5.965094e+001 1.446588e+002 86 73 67
4.614894e+001 4.066188e+001 8.776788e+001 135 157 168
4.544776e+001 4.429762e+001 8.611325e+001 135 163 175
5.498066e+001 6.801969e+001 1.367454e+002 67 49 49
6.357685e+001 6.834968e+001 1.318486e+002 80 65 66
4.698383e+001 5.457539e+001 9.180517e+001 77 113 128
5.677782e+001 3.652071e+001 1.217578e+002 67 51 41
5.982207e+001 4.498931e+001 1.300987e+002 80 59 56
6.154296e+001 4.343701e+001 1.277541e+002 72 55 47
6.152715e+001 5.006979e+001 1.339041e+002 79 63 50
4.930043e+001 3.389892e+001 8.941954e+001 173 169 168
5.459539e+001 5.530584e+001 1.442711e+002 123 111 99
7.397618e+001 6.371183e+001 1.489388e+002 148 131 124
7.046426e+001 7.020938e+001 1.530409e+002 165 132 107
5.812480e+001 5.360086e+001 1.144272e+002 162 159 160
5.697332e+001 3.513212e+001 1.153119e+002 96 80 71
6.148285e+001 4.795713e+001 1.323704e+002 126 113 100
6.147192e+001 4.795221e+001 1.323829e+002 126 113 100
5.934614e+001 5.367273e+001 1.377791e+002 135 122 113
6.200025e+001 5.253040e+001 1.358051e+002 154 140 130
5.104428e+001 5.980821e+001 1.513608e+002 185 139 106
5.091564e+001 4.752065e+001 1.395992e+002 127 118 101
5.575143e+001 5.198007e+001 1.425116e+002 130 118 102
5.897804e+001 4.893597e+001 1.373352e+002 130 118 106
6.506656e+001 5.861591e+001 1.450862e+002 73 53 49
6.987566e+001 6.289023e+001 1.483240e+002 160 145 132
5.665743e+001 4.463057e+001 1.090538e+002 177 184 188
5.408531e+001 3.565926e+001 1.252477e+002 128 119 105
6.406046e+001 4.329106e+001 1.238642e+002 69 54 49
6.222489e+001 5.107829e+001 1.409676e+002 123 113 101
6.937949e+001 5.999181e+001 1.296948e+002 94 120 131
7.216843e+001 6.127143e+001 1.249178e+002 205 188 172
4.818189e+000 -3.828536e+000 -6.974800e+000 104 100 89
-9.925799e-001 -3.680151e+000 -9.305639e+000 133 118 74
-9.925799e-001 -3.680151e+000 -9.305639e+000 133 118 74
-3.228042e+000 -3.542672e+000 -8.788701e+000 192 162 110
-2.604366e+000 -3.596000e+000 -8.892334e+000 192 162 110
-2.604366e+000 -3.596000e+000 -8.892334e+000 192 162 110
-2.813352e+000 -3.548676e+000 -8.876495e+000 143 115 68
-2.446315e+000 -3.476428e+000 -9.034881e+000 197 164 110
-1.740819e+000 -3.426989e+000 -9.306327e+000 187 157 102
-1.551647e+000 -3.540181e+000 -9.362019e+000 177 155 105
-8.076563e-001 -3.390842e+000 -9.738616e+000 161 144 99
-7.891628e-001 -3.276465e+000 -9.970218e+000 171 152 102
-2.263637e-001 -3.003827e+000 -1.054503e+001 134 135 105
3.514251e-003 -2.935719e+000 -1.085763e+001 125 133 99
-3.591609e+000 -2.592215e+000 -9.546625e+000 114 122 83
-3.521741e+000 -2.649651e+000 -9.713515e+000 118 103 65
-3.928498e-001 -2.381571e+000 -1.123566e+001 185 165 103
-1.169466e-001 -2.557217e+000 -1.120981e+001 116 130 90
-3.982053e+000 -2.443362e+000 -9.822415e+000 127 119 80
-3.652503e+000 -2.576547e+000 -9.754619e+000 115 120 74
-3.553200e+000 -2.590736e+000 -9.722186e+000 223 185 140
-3.788267e+000 -2.425488e+000 -9.745511e+000 132 124 84
-3.154571e+000 -2.080709e+000 -1.063236e+001 165 132 125
-2.821784e+000 -2.022658e+000 -1.073388e+001 169 136 127
-2.187758e+000 -2.143431e+000 -1.096941e+001 123 99 89
-1.365546e+000 -2.060657e+000 -1.120523e+001 128 102 86
-2.341540e+000 -1.679985e+000 -1.134802e+001 123 103 92
-1.838060e+000 -1.692206e+000 -1.154046e+001 140 118 103
-2.041813e+000 -1.572103e+000 -1.137008e+001 110 82 72
-2.331360e+000 -1.342111e+000 -1.180268e+001 144 119 109
-4.770763e+000 -1.196679e+000 -1.095406e+001 208 176 126
-2.463653e+000 -9.778550e-001 -1.217633e+001 139 111 97
-2.463653e+000 -9.778550e-001 -1.217633e+001 139 111 97
-4.771718e+000 -7.220951e-001 -1.168648e+001 125 116 64
-5.711679e-001 -2.434750e-001 -1.372945e+001 161 141 83
-2.050484e+000 -1.657331e-001 -1.325123e+001 188 162 99
-3.248721e+000 1.126809e+000 -1.354526e+001 171 156 123
-3.026553e+000 1.013630e+000 -1.383829e+001 122 106 82
-2.737859e+000 1.226115e+000 -1.370143e+001 127 114 84
-2.683980e+000 1.036888e+000 -1.394069e+001 128 108 68
-2.350326e+000 1.340757e+000 -1.384597e+001 127 111 78
-2.075783e+000 1.501700e+000 -1.384654e+001 172 156 127
-1.877613e+000 1.182047e+000 -1.428795e+001 129 116 88
-1.327007e+000 1.701439e+000 -1.399252e+001 119 113 89
-1.504202e+000 1.319721e+000 -1.431084e+001 125 114 96
-3.974011e+000 1.062254e+000 -1.333057e+001 124 109 79
-3.693108e+000 1.204819e+000 -1.329282e+001 175 160 122
-3.628398e+000 1.230298e+000 -1.331833e+001 127 112 84
-3.519419e+000 1.373450e+000 -1.317462e+001 120 104 78
-3.519419e+000 1.373450e+000 -1.317462e+001 120 104 78
-3.457384e+000 1.208501e+000 -1.351381e+001 132 117 88
-2.521719e+000 1.762981e+000 -1.333309e+001 180 164 138
-2.619081e+000 1.404953e+000 -1.365765e+001 131 120 91
-2.197712e+000 1.594165e+000 -1.370020e+001 174 161 128
-2.155477e+000 1.544185e+000 -1.389880e+001 130 115 94
-6.281364e+000 7.324255e-001 -1.242117e+001 150 136 89
-3.868248e+000 1.421490e+000 -1.296244e+001 174 158 132
-3.363066e+000 1.616847e+000 -1.307706e+001 136 121 93
-2.998797e+000 1.932951e+000 -1.295705e+001 139 123 96
-2.841665e+000 1.770589e+000 -1.313382e+001 128 113 85
-2.619649e+000 1.812137e+000 -1.326075e+001 135 120 93
-2.110904e+000 2.013276e+000 -1.332101e+001 133 118 84
-2.225331e+000 2.031217e+000 -1.333402e+001 134 116 92
1.127211e+000 3.280512e+000 -1.402014e+001 183 182 177
-3.808939e+000 2.040701e+000 -1.239614e+001 182 168 142
-3.870699e+000 2.150436e+000 -1.227910e+001 127 112 96
-3.217337e+000 2.098784e+000 -1.268656e+001 136 122 97
-3.129146e+000 2.436513e+000 -1.234091e+001 187 172 151
-2.546136e+000 2.365472e+000 -1.273035e+001 146 132 106
-1.933856e+000 2.646846e+000 -1.273688e+001 181 166 133
-3.449356e+000 3.072557e+000 -1.152410e+001 170 152 132
-3.378774e+000 2.648910e+000 -1.197392e+001 136 121 100
-3.378774e+000 2.648910e+000 -1.197392e+001 136 121 100
-3.055896e+000 2.958546e+000 -1.181209e+001 175 162 138
-5.704563e+000 2.469936e+000 -1.089089e+001 134 135 94
-5.826009e+000 2.301191e+000 -1.115808e+001 103 94 64
-5.752248e+000 2.572669e+000 -1.087865e+001 142 137 93
-4.520074e+000 3.439413e+000 -1.070302e+001 176 152 135
2.260391e-001 3.897797e+000 -1.511549e+001 202 198 192
-7.962254e-001 -3.663325e+000 -9.418320e+000 117 107 65
-3.794600e+000 -3.526376e+000 -8.529289e+000 173 156 108
-3.722386e+000 -3.520592e+000 -8.555240e+000 170 157 105
-3.722386e+000 -3.520592e+000 -8.555240e+000 170 157 105
-1.234573e+000 -3.581935e+000 -9.385244e+000 153 135 85
-1.051240e+000 -3.292418e+000 -9.854126e+000 180 157 111
2.065933e-001 -3.241311e+000 -9.999233e+000 198 185 163
-2.238225e+000 -3.352161e+000 -9.330386e+000 203 167 113
-1.830530e+000 -3.317893e+000 -9.455258e+000 199 164 107
-4.364077e+000 -3.165289e+000 -8.777089e+000 200 194 138
-3.450114e+000 -1.958076e+000 -6.568971e+000 125 128 73
-2.997852e+000 -2.141277e+000 -1.061674e+001 147 115 107
-1.418363e+000 -2.081989e+000 -1.111327e+001 137 110 101
-2.952004e+000 -1.474941e+000 -1.151359e+001 202 170 159
-4.736067e+000 -1.570886e+000 -1.051000e+001 217 180 127
-4.686453e+000 -1.558662e+000 -1.058768e+001 214 182 129
-4.710709e+000 -1.034933e+000 -9.026490e+000 225 190 180
-2.858677e+000 -1.142797e+000 -1.172751e+001 209 174 156
-2.463057e+000 -9.061423e-001 -1.214582e+001 201 170 149
1.163897e-001 -5.045756e-001 -1.360220e+001 102 87 54
2.620177e-001 -4.909663e-001 -1.377594e+001 109 98 62
-1.834906e-003 -3.240414e-001 -1.365454e+001 154 133 86
-5.034600e+000 -3.906199e-001 -9.614411e+000 223 195 182
-3.300240e-001 -1.416901e-001 -1.390591e+001 117 98 56
-3.300240e-001 -1.416901e-001 -1.390591e+001 117 98 56
-5.135737e+000 -3.594030e-001 -9.815222e+000 219 207 196
-5.070349e+000 -1.551048e-001 -9.646101e+000 162 90 84
-6.450026e-001 2.992512e-001 -1.437894e+001 135 126 86
1.640043e-001 9.292460e-001 -1.541714e+001 120 102 91
4.469780e-003 1.530968e+000 -1.485810e+001 101 103 90
-2.228357e+000 1.396743e+000 -1.389420e+001 132 121 94
-4.044914e+000 1.196074e+000 -1.308362e+001 174 159 128
-3.915858e+000 1.344832e+000 -1.297659e+001 129 115 85
-4.058445e+000 9.172815e-001 -1.345062e+001 128 114 86
-3.684116e+000 1.403670e+000 -1.309616e+001 130 116 88
-3.797192e+000 1.075553e+000 -1.336948e+001 129 113 87
-3.492727e+000 1.471192e+000 -1.309716e+001 128 112 86
-2.201868e+000 1.677818e+000 -1.356819e+001 129 113 88
-2.203202e+000 1.733808e+000 -1.359388e+001 181 169 132
-2.203202e+000 1.733808e+000 -1.359388e+001 181 169 132
-3.881905e+000 1.656898e+000 -1.270522e+001 176 160 129
-3.961570e+000 1.872141e+000 -1.251424e+001 138 123 102
-3.550245e+000 2.531709e+000 -1.194689e+001 179 158 137
-5.518522e+000 2.358693e+000 -1.031722e+001 196 142 99
-5.630056e+000 2.614710e+000 -1.062281e+001 142 146 85
-5.630056e+000 2.614710e+000 -1.062281e+001 142 146 85
-4.626481e+000 2.577525e+000 -1.162115e+001 193 145 123
1.065140e-001 -3.531867e+000 -1.004299e+001 171 172 145
2.543920e+000 -3.519970e+000 -1.097117e+001 135 123 108
-3.216681e+000 -3.609282e+000 -8.631451e+000 185 157 106
-2.610047e+000 -3.530451e+000 -8.950234e+000 170 142 95
6.319111e-001 -2.532300e+000 -1.149296e+001 120 112 69
4.319695e-001 -2.286841e+000 -1.181354e+001 116 106 65
3.268845e+001 1.523096e+001 1.069741e+002 131 103 92
3.369801e+001 1.670139e+001 1.108542e+002 160 142 128
-3.240521e+000 -2.173924e+000 -1.050511e+001 166 132 122
6.621229e-001 -1.593483e+000 -1.255573e+001 117 110 74
1.790019e+000 -1.619988e+000 -1.290913e+001 183 167 154
4.069475e-001 -1.537660e+000 -1.267404e+001 144 121 83
3.892404e-001 -1.439188e+000 -1.271242e+001 144 121 81
5.450329e-001 -1.301068e+000 -1.282525e+001 116 107 68
6.103140e-002 -7.793119e-001 -1.322679e+001 133 110 67
-1.059278e-001 -5.710363e-001 -1.349594e+001 116 93 51
-1.059278e-001 -5.710363e-001 -1.349594e+001 116 93 51
4.005235e-001 -6.588887e-001 -1.356449e+001 113 100 70
-4.871868e+000 -1.177335e+000 -1.098950e+001 211 175 116
-4.871868e+000 -1.177335e+000 -1.098950e+001 211 175 116
-1.247136e-001 -2.655358e-001 -1.379577e+001 150 129 84
-2.584083e-001 1.376463e-002 -1.405552e+001 140 122 84
-2.584083e-001 1.376463e-002 -1.405552e+001 140 122 84
2.215658e-001 1.486421e-002 -1.396252e+001 135 120 83
-4.996334e+000 -2.763052e-001 -9.495638e+000 172 89 85
-5.219658e+000 -2.403756e-001 -1.003979e+001 162 84 72
-4.522879e+000 -5.932723e-001 -1.187643e+001 98 113 72
-4.315502e+000 -3.827604e-001 -1.199387e+001 107 119 75
-4.040517e+000 -1.046507e-001 -1.261560e+001 102 116 73
4.820995e+001 4.932544e+001 9.159179e+001 113 147 161
-5.842348e+000 1.871066e+000 -1.140752e+001 119 111 60
-5.090013e+000 2.252238e+000 -1.157924e+001 183 151 133
-5.512975e+000 2.711085e+000 -1.065416e+001 87 79 56
-4.732562e+000 3.312253e+000 -1.066852e+001 158 80 83
-4.271963e+000 3.391701e+000 -1.073584e+001 141 83 82
3.681317e+001 1.484814e+001 1.044276e+002 100 72 63
4.267707e+001 1.615212e+001 1.025782e+002 80 66 57
4.380451e+001 1.626557e+001 1.024148e+002 94 80 67
4.369429e+001 1.920216e+001 1.048736e+002 140 130 118
5.212177e+001 2.122835e+001 1.056297e+002 61 51 42
-3.051509e+000 -1.735521e+000 -1.101564e+001 206 174 164
4.626514e+001 2.745159e+001 1.159370e+002 103 95 82
1.497829e-001 -1.285831e+000 -1.276460e+001 172 137 81
4.633760e-001 -1.209473e+000 -1.281885e+001 154 121 76
1.794070e-001 -1.065451e+000 -1.310297e+001 150 123 81
4.361522e+001 3.145727e+001 1.257457e+002 106 101 88
5.590363e+001 3.286907e+001 1.133340e+002 92 82 72
-2.617133e+000 -1.188456e+000 -1.185930e+001 142 114 103
-2.185843e-001 -8.043980e-001 -1.329646e+001 164 137 82
-1.783927e-001 -7.926200e-001 -1.327006e+001 164 137 82
1.160865e-001 -5.805682e-001 -1.368908e+001 146 128 80
5.735043e+001 3.942055e+001 1.235050e+002 78 63 51
-1.692810e-002 2.341920e-001 -1.424042e+001 126 122 82
7.986140e-001 2.677464e+000 -1.402193e+001 70 61 56
8.980810e-001 2.727236e+000 -1.410177e+001 179 177 171
-1.420831e+000 3.748840e+000 -1.187637e+001 146 141 118
-5.479157e+000 2.779419e+000 -1.027481e+001 154 96 75
-5.144090e+000 2.328122e+000 -1.158577e+001 131 70 72
5.370164e+001 1.574337e+001 1.012038e+002 104 89 86
-2.805314e-001 -2.563794e+000 -1.118072e+001 177 169 146
3.423354e+001 1.537042e+001 1.076864e+002 148 121 110
4.878767e+001 1.713802e+001 1.020294e+002 67 58 51
4.977878e+001 2.196749e+001 1.054738e+002 75 65 53
4.159890e+001 2.380579e+001 1.148935e+002 88 82 67
5.028685e+001 2.568834e+001 1.097413e+002 133 123 113
5.127382e+001 2.345314e+001 1.045100e+002 61 52 47
3.597629e+001 2.515164e+001 1.161682e+002 143 131 115
5.157632e+001 2.627339e+001 1.092167e+002 64 53 41
5.157632e+001 2.627339e+001 1.092167e+002 64 53 41
5.249150e+001 2.828975e+001 1.105547e+002 135 124 107
5.184615e+001 4.339526e+001 9.979426e+001 90 124 136
-5.156841e+000 -3.627470e-002 -9.839675e+000 164 91 77
-5.156841e+000 -3.627470e-002 -9.839675e+000 164 91 77
-4.626177e+000 -3.125944e-001 -1.232620e+001 203 166 98
4.607469e+001 1.944234e+001 1.001764e+002 144 134 125
5.084477e+001 2.460188e+001 1.058943e+002 125 118 102
5.370822e+001 3.089416e+001 1.145430e+002 79 65 56
4.244820e+001 3.471787e+001 1.266638e+002 121 118 105
-2.758837e+000 9.230015e-001 -1.413503e+001 185 161 117
-5.123561e+000 2.015035e+000 -1.000238e+001 210 191 140
8.862727e-001 2.990480e+000 -1.392391e+001 181 176 170
-5.177753e+000 2.427710e+000 -9.650798e+000 208 178 131
3.445342e+001 1.505475e+001 1.038315e+002 80 63 47
-7.812501e-001 -4.650202e-001 -1.353817e+001 191 156 92
-5.851939e+000 2.136552e+000 -1.091294e+001 147 90 67
-5.063556e+000 2.810245e+000 -1.118184e+001 162 82 85
4.371229e+001 1.747323e+001 1.011981e+002 153 147 131
4.861962e+001 1.933308e+001 1.014637e+002 126 116 104
5.584312e+001 3.396311e+001 1.039349e+002 169 164 158
-2.152018e+000 -1.525723e-001 -1.325806e+001 162 145 88
-2.152018e+000 -1.525723e-001 -1.325806e+001 162 145 88
