ply
format ascii 1.0
element face 0
property list uchar int vertex_indices
element vertex 876
property float x
property float y
property float z
property uchar diffuse_red
property uchar diffuse_green
property uchar diffuse_blue
end_header
1.268519e+000 -2.371280e+000 -8.333941e+000 78 66 40
2.463243e+000 -2.218592e+000 -8.889278e+000 65 63 38
-4.070381e-001 -2.483192e+000 -7.531439e+000 131 115 81
1.612041e-001 -2.441099e+000 -7.871181e+000 137 121 89
1.228197e-001 -2.534311e+000 -7.911971e+000 126 112 77
4.452902e-001 -2.616585e+000 -8.130907e+000 87 71 46
4.452902e-001 -2.616585e+000 -8.130907e+000 87 71 46
1.313571e+000 -2.651260e+000 -8.710821e+000 79 65 38
1.313571e+000 -2.651260e+000 -8.710821e+000 79 65 38
-1.244637e+000 -2.783098e+000 -7.370605e+000 57 47 38
-1.013960e+000 -2.764069e+000 -7.521358e+000 82 67 44
3.720982e-002 -2.786688e+000 -8.172745e+000 115 101 72
3.653466e-001 -2.851479e+000 -8.358213e+000 92 76 51
4.478194e-001 -2.956012e+000 -8.497720e+000 88 72 46
4.478194e-001 -2.956012e+000 -8.497720e+000 88 72 46
1.125458e+000 -2.767852e+000 -8.673087e+000 88 74 50
1.066273e+000 -2.923754e+000 -8.754313e+000 95 81 54
1.861077e+000 -3.049705e+000 -9.404232e+000 74 65 42
-2.534234e+000 -3.463478e+000 -7.444627e+000 114 98 72
4.563398e+000 -3.568858e+000 -7.211949e+000 187 180 172
-4.546882e+000 3.626256e+000 -8.891495e+000 180 174 137
-3.150330e+000 4.254949e+000 -1.040168e+001 241 216 207
-3.099784e+000 4.162440e+000 -1.025894e+001 162 150 104
-4.512706e+000 3.418754e+000 -8.628692e+000 138 139 102
-4.390417e+000 3.367078e+000 -8.595013e+000 187 178 135
-3.891857e+000 3.584773e+000 -8.958309e+000 180 177 145
-3.904948e+000 3.602730e+000 -9.036259e+000 180 177 145
-1.470058e+000 4.145930e+000 -1.092921e+001 188 170 134
1.274187e-001 4.216012e+000 -1.172387e+001 166 133 122
-2.455845e+000 2.701480e+000 -8.395595e+000 194 189 186
-2.455765e+000 2.701700e+000 -8.395271e+000 194 189 186
4.897822e-001 3.489782e+000 -1.078127e+001 144 103 83
4.923628e-001 3.521763e+000 -1.093669e+001 144 103 83
1.403191e+000 3.479437e+000 -1.122307e+001 83 81 79
-2.469149e+000 2.317151e+000 -7.899630e+000 146 67 73
-2.467619e+000 2.025065e+000 -7.558738e+000 208 193 201
1.410642e+000 2.495407e+000 -1.003296e+001 165 155 119
1.341306e+000 2.407536e+000 -9.910292e+000 161 153 117
1.884114e+000 2.451361e+000 -1.020695e+001 139 138 127
2.037612e+000 2.451342e+000 -1.023888e+001 151 134 92
-2.029845e+000 1.811294e+000 -7.477751e+000 160 66 68
-2.033676e+000 1.812946e+000 -7.484677e+000 160 66 68
-2.217899e+000 1.627323e+000 -7.168279e+000 159 72 72
-2.122500e+000 1.586844e+000 -7.187766e+000 200 190 186
1.303192e+000 2.317446e+000 -9.775766e+000 102 96 84
1.310775e+000 2.011858e+000 -9.446813e+000 171 170 137
-1.327723e+000 1.299252e+000 -7.116243e+000 206 183 128
1.744470e+000 1.723398e+000 -9.258504e+000 88 82 81
2.369437e+000 1.966579e+000 -9.860741e+000 155 162 151
-1.711250e-001 1.142548e+000 -7.812514e+000 82 85 71
-1.364439e-001 1.207696e+000 -7.903404e+000 190 179 156
-1.365638e-001 1.207645e+000 -7.904263e+000 190 179 156
9.023944e-002 1.004846e+000 -7.745630e+000 196 186 156
8.808912e-002 1.004318e+000 -7.721149e+000 196 186 156
9.972165e-001 8.698758e-001 -7.967027e+000 188 163 105
1.727337e+000 1.130107e+000 -8.570929e+000 179 175 145
2.033959e+000 9.170281e-001 -8.418657e+000 148 149 91
1.353871e-002 7.540441e-001 -7.433591e+000 193 181 144
2.402551e-001 5.976888e-001 -7.353990e+000 80 71 54
2.147426e-001 5.344540e-001 -7.286024e+000 177 163 125
2.147426e-001 5.344540e-001 -7.286024e+000 177 163 125
5.340284e-001 8.177421e-001 -7.717000e+000 189 172 118
5.246892e-001 7.440211e-001 -7.662097e+000 146 97 69
1.029061e+000 6.759460e-001 -7.750680e+000 148 101 74
1.868897e+000 6.246255e-001 -8.036366e+000 186 179 151
3.007492e+000 7.137016e-001 -8.599169e+000 155 170 146
1.808280e-001 2.154316e-001 -6.886357e+000 177 162 116
2.725212e-001 4.128105e-001 -7.132874e+000 185 171 123
3.304314e-001 3.071405e-001 -7.031087e+000 181 168 126
7.486314e-001 4.194454e-001 -7.318050e+000 191 170 117
7.552829e-001 4.209159e-001 -7.319158e+000 191 170 117
1.128392e+000 4.981460e-001 -7.577713e+000 139 96 68
1.128392e+000 4.981460e-001 -7.577713e+000 139 96 68
3.339178e+000 4.214773e-001 -8.391649e+000 145 159 134
-4.929102e+000 5.642908e-002 -9.203125e+000 183 78 92
4.905461e-001 8.636453e-002 -6.846995e+000 72 81 71
7.893515e-001 2.278922e-001 -7.133282e+000 149 100 72
9.362277e-001 1.879429e-001 -7.151161e+000 177 170 102
9.371818e-001 1.880021e-001 -7.135099e+000 177 170 102
1.446882e+000 2.033296e-001 -7.399097e+000 145 95 70
7.411165e-001 -1.310541e-001 -6.689121e+000 72 76 68
7.402370e-001 -1.291822e-001 -6.669243e+000 72 76 68
8.059631e-001 -1.019511e-001 -6.771206e+000 177 163 96
1.576385e+000 -9.934214e-002 -7.077493e+000 141 99 66
-3.923508e-001 -8.033359e-001 -5.934854e+000 72 63 34
1.089434e+000 -7.649270e-001 -6.701835e+000 107 102 59
1.480382e+000 -7.418443e-001 -6.854401e+000 105 101 63
1.796183e+000 -6.131314e-001 -6.900768e+000 65 65 39
1.796853e+000 -6.141924e-001 -6.917214e+000 65 65 39
1.894173e+000 -8.065625e-001 -7.146763e+000 63 62 39
1.948815e+000 -6.105313e-001 -7.027010e+000 64 64 40
1.912149e+000 -7.157768e-001 -7.055812e+000 65 65 39
2.153760e+000 -8.455486e-001 -7.301605e+000 65 64 44
2.537506e+000 -8.186377e-001 -7.571205e+000 86 89 64
2.882918e+000 -8.399236e-001 -7.770688e+000 58 61 41
-4.240695e-001 -8.789149e-001 -5.958974e+000 73 62 40
8.021844e-001 -1.102656e+000 -6.836606e+000 87 77 49
1.781672e+000 -9.506136e-001 -7.224594e+000 99 96 63
1.690206e+000 -1.059719e+000 -7.274188e+000 64 60 31
1.882637e+000 -1.019217e+000 -7.268028e+000 95 95 61
1.941743e+000 -1.084231e+000 -7.381068e+000 64 59 34
1.951382e+000 -8.556957e-001 -7.244600e+000 96 95 64
2.020342e+000 -1.051295e+000 -7.394963e+000 96 97 64
2.020342e+000 -1.051295e+000 -7.394963e+000 96 97 64
2.306838e+000 -9.283637e-001 -7.611846e+000 58 59 40
2.424512e+000 -9.926114e-001 -7.716520e+000 63 61 41
2.867123e+000 -1.084572e+000 -7.950217e+000 83 85 63
-1.791827e+000 -1.279225e+000 -5.541630e+000 72 69 60
-1.703821e+000 -1.320780e+000 -5.613280e+000 73 68 57
-3.446957e-002 -1.127706e+000 -6.399970e+000 82 67 35
-2.201803e-001 -1.356952e+000 -6.513316e+000 85 69 42
2.019728e-002 -1.170657e+000 -6.542551e+000 120 106 69
2.019728e-002 -1.170657e+000 -6.542551e+000 120 106 69
1.650790e+000 -1.429597e+000 -7.646283e+000 117 108 63
1.709019e+000 -1.422940e+000 -7.625164e+000 76 65 51
1.716307e+000 -1.208885e+000 -7.484461e+000 109 106 65
1.934614e+000 -1.150569e+000 -7.473857e+000 68 66 41
2.065867e+000 -1.443337e+000 -7.871438e+000 98 98 64
2.287295e+000 -1.388369e+000 -7.920606e+000 62 61 40
-2.206209e+000 -1.376781e+000 -5.382615e+000 76 69 63
-2.238371e+000 -1.509919e+000 -5.487554e+000 133 116 106
-2.149430e+000 -1.476840e+000 -5.526370e+000 135 118 111
-1.954787e+000 -1.367872e+000 -5.502533e+000 112 105 94
-4.647316e-001 -1.629376e+000 -6.638648e+000 80 66 37
-2.070636e-001 -1.510325e+000 -6.667083e+000 134 119 79
3.380465e-001 -1.661591e+000 -7.096005e+000 99 85 64
4.165492e-001 -1.648841e+000 -7.169943e+000 137 119 86
4.165492e-001 -1.648841e+000 -7.169943e+000 137 119 86
4.699919e-001 -1.690100e+000 -7.232880e+000 85 70 47
7.278551e-001 -1.598220e+000 -7.323776e+000 136 117 75
7.587728e-001 -1.679191e+000 -7.357920e+000 81 65 37
1.722691e+000 -1.582927e+000 -7.733825e+000 116 104 68
1.648731e+000 -1.610892e+000 -7.774521e+000 92 81 53
1.648731e+000 -1.610892e+000 -7.774521e+000 92 81 53
1.821020e+000 -1.557621e+000 -7.838917e+000 76 66 38
1.947072e+000 -1.555167e+000 -7.872407e+000 78 72 45
-2.645569e+000 -1.605489e+000 -5.373577e+000 68 61 51
-2.502403e+000 -1.603782e+000 -5.442990e+000 109 105 93
-2.353583e+000 -1.796701e+000 -5.746849e+000 74 63 60
-1.942470e+000 -1.777871e+000 -5.912542e+000 73 64 57
-1.942470e+000 -1.777871e+000 -5.912542e+000 73 64 57
-1.795578e+000 -1.857833e+000 -6.022402e+000 111 102 93
-6.928136e-001 -1.785625e+000 -6.688653e+000 84 68 45
-5.019959e-001 -1.757074e+000 -6.763671e+000 90 74 48
-2.899152e-001 -1.785235e+000 -6.953067e+000 141 122 92
-4.035980e-001 -1.942955e+000 -7.016448e+000 103 85 63
-1.885104e-001 -1.795113e+000 -6.858673e+000 134 118 84
-1.409146e-001 -1.867414e+000 -7.118210e+000 85 69 44
-8.422791e-002 -1.910261e+000 -7.169663e+000 139 123 94
-8.422791e-002 -1.910261e+000 -7.169663e+000 139 123 94
2.416712e-001 -1.985753e+000 -7.396851e+000 87 72 50
1.444037e+000 -2.022169e+000 -8.046615e+000 122 111 65
1.643468e+000 -1.834041e+000 -7.949764e+000 117 108 69
1.643468e+000 -1.834041e+000 -7.949764e+000 117 108 69
1.792907e+000 -2.037239e+000 -8.261123e+000 74 64 37
2.128292e+000 -1.824441e+000 -8.191344e+000 75 68 43
2.128292e+000 -1.824441e+000 -8.191344e+000 75 68 43
2.399476e+000 -1.927200e+000 -8.503159e+000 64 62 41
-1.960474e+000 -2.162816e+000 -6.251878e+000 70 67 56
-1.126821e+000 -2.159563e+000 -6.852888e+000 71 52 45
-9.873739e-001 -2.019444e+000 -6.694540e+000 58 44 36
-6.519901e-001 -2.216992e+000 -7.134676e+000 84 69 47
-4.547003e-001 -2.263484e+000 -7.301534e+000 135 120 89
-9.398975e-002 -2.135836e+000 -7.416618e+000 93 78 52
-1.569760e-001 -2.291625e+000 -7.452577e+000 100 84 61
2.002061e-001 -2.090937e+000 -7.462280e+000 90 76 49
4.470635e-001 -2.240474e+000 -7.756623e+000 83 67 45
9.033377e-001 -2.164825e+000 -7.944549e+000 81 64 40
1.464244e+000 -2.180487e+000 -8.226703e+000 86 74 42
1.397167e+000 -2.373883e+000 -8.395407e+000 83 66 44
-2.088431e+000 -2.212059e+000 -6.237957e+000 71 67 61
-2.081897e+000 -2.204538e+000 -6.195168e+000 71 67 61
-1.071444e+000 -2.265392e+000 -6.944466e+000 55 45 37
-9.360020e-001 -2.366789e+000 -7.158356e+000 134 118 94
-5.604271e-001 -2.421629e+000 -7.441939e+000 94 79 58
-7.337602e-001 -2.448807e+000 -7.330779e+000 90 74 55
-6.141113e-001 -2.575309e+000 -7.615770e+000 97 81 57
-6.133040e-001 -2.570702e+000 -7.590628e+000 97 81 57
-4.413639e-001 -2.423954e+000 -7.486691e+000 98 83 57
-3.866488e-001 -2.602197e+000 -7.684664e+000 89 74 44
-2.209781e-001 -2.299222e+000 -7.440332e+000 136 122 90
1.143014e-001 -2.363619e+000 -7.666733e+000 92 77 53
6.148280e-001 -2.487430e+000 -8.080834e+000 89 74 49
6.148280e-001 -2.487430e+000 -8.080834e+000 89 74 49
5.880827e-001 -2.572221e+000 -8.197644e+000 93 77 51
5.079816e-001 -2.593384e+000 -8.124030e+000 130 116 81
-1.107310e+000 -2.691964e+000 -7.395926e+000 93 77 58
-7.858850e-001 -2.613153e+000 -7.434786e+000 84 69 48
-2.693997e-001 -2.958794e+000 -8.082993e+000 97 82 55
-1.302187e-002 -2.733876e+000 -8.047209e+000 88 78 50
9.854808e-002 -2.748000e+000 -8.053760e+000 89 77 54
6.627017e-002 -2.857791e+000 -8.229521e+000 87 73 46
-1.902434e+000 -2.898121e+000 -7.129997e+000 123 107 82
-2.016391e+000 -3.024730e+000 -7.222969e+000 90 75 49
-1.211417e+000 -3.152423e+000 -7.850951e+000 127 113 86
-3.736511e-001 -3.259987e+000 -8.392511e+000 93 77 51
-2.098987e+000 -3.426852e+000 -7.578060e+000 112 99 71
-1.861799e+000 -3.308414e+000 -7.666324e+000 73 60 41
-1.400845e+000 -3.527199e+000 -8.142674e+000 94 80 59
-1.400845e+000 -3.527199e+000 -8.142674e+000 94 80 59
-1.032330e+000 -3.299116e+000 -8.075573e+000 93 79 53
-7.713837e-001 -3.334517e+000 -8.254018e+000 97 82 55
-2.947629e+000 -3.500887e+000 -7.182446e+000 121 108 72
-2.874156e+000 -3.655344e+000 -7.484364e+000 109 98 70
-2.606464e+000 -3.634053e+000 -7.552264e+000 111 96 68
-1.977516e+000 -3.480311e+000 -7.703974e+000 108 97 71
-1.857956e+000 -3.547198e+000 -7.887005e+000 117 106 76
4.521602e+000 -3.514876e+000 -7.292435e+000 188 181 174
-4.207421e+000 3.886399e+000 -9.299619e+000 105 114 85
-4.304812e+000 3.510236e+000 -8.778962e+000 185 177 141
-5.071755e-001 3.821614e+000 -1.089398e+001 136 94 80
2.818996e-001 3.695582e+000 -1.100341e+001 171 135 93
-2.400512e+000 2.962448e+000 -8.671753e+000 205 185 133
-5.170333e-001 3.377013e+000 -1.030769e+001 185 152 94
-2.032982e-001 3.042535e+000 -1.003574e+001 193 184 172
-2.032982e-001 3.042535e+000 -1.003574e+001 193 184 172
-2.299829e+000 2.309132e+000 -7.940795e+000 151 64 70
6.334086e-001 2.969354e+000 -1.028141e+001 184 177 143
-2.344686e+000 2.122738e+000 -7.703883e+000 153 71 68
-2.226795e+000 2.134724e+000 -7.745480e+000 150 71 75
2.073111e+000 2.709507e+000 -1.061403e+001 80 91 75
2.009453e+000 2.582021e+000 -1.040988e+001 168 146 105
-2.266507e+000 1.571801e+000 -7.114333e+000 199 186 183
-2.269881e+000 1.571840e+000 -7.123397e+000 199 186 183
-2.185935e+000 1.722122e+000 -7.321460e+000 201 185 183
-2.194177e+000 1.719487e+000 -7.293132e+000 201 185 183
-1.942054e+000 1.748663e+000 -7.401103e+000 202 192 190
-1.798658e+000 1.753993e+000 -7.485840e+000 198 199 192
-1.795686e+000 1.493607e+000 -7.202983e+000 198 192 191
-3.203156e-001 1.458505e+000 -8.154551e+000 88 82 69
-1.592937e-001 1.375773e+000 -8.090490e+000 87 86 66
2.362110e+000 1.334594e+000 -9.047105e+000 72 80 67
-1.488069e-001 1.064382e+000 -7.751927e+000 199 188 166
-1.488069e-001 1.064382e+000 -7.751927e+000 199 188 166
2.031116e-001 8.490817e-001 -7.585935e+000 95 82 65
2.228183e+000 1.204391e+000 -8.798386e+000 85 98 66
2.228775e+000 1.002219e+000 -8.620606e+000 168 174 140
-1.042508e-002 6.770232e-001 -7.357791e+000 71 93 73
3.169056e-002 5.517429e-001 -7.217674e+000 75 84 75
1.665599e-001 4.739831e-001 -7.127225e+000 73 86 69
7.424809e-001 3.417795e-001 -7.256973e+000 140 94 61
2.934672e+000 5.491799e-001 -8.343105e+000 119 133 80
-4.983906e+000 1.958567e-001 -9.196462e+000 189 82 94
-4.983906e+000 1.958567e-001 -9.196462e+000 189 82 94
5.588397e-001 -2.221701e-002 -6.747390e+000 66 80 65
1.328254e+000 1.547456e-001 -7.260358e+000 180 165 109
1.120138e+000 -1.157697e-001 -6.861379e+000 143 97 64
1.121356e+000 -1.154054e-001 -6.858089e+000 143 97 64
2.654469e+000 -2.556624e-002 -7.595126e+000 169 150 94
3.666947e+000 -5.061144e-001 -7.848793e+000 58 63 43
1.587963e+000 -8.597406e-001 -7.031163e+000 106 102 65
4.971708e-001 -1.178820e+000 -6.746434e+000 81 65 46
4.705174e-001 -1.254672e+000 -6.771543e+000 89 72 51
4.420131e-001 -1.341372e+000 -6.830989e+000 79 64 43
7.322201e-001 -1.353243e+000 -7.049377e+000 80 69 41
-1.831127e+000 -1.536767e+000 -5.735019e+000 130 115 104
-8.544621e-001 -1.592431e+000 -6.423942e+000 57 45 38
4.174372e-001 -1.442969e+000 -6.959702e+000 75 64 36
-7.183228e-001 -1.892826e+000 -6.787493e+000 86 69 50
-2.187926e-001 -1.721164e+000 -6.873438e+000 82 65 40
-2.187926e-001 -1.721164e+000 -6.873438e+000 82 65 40
3.849713e-002 -1.725743e+000 -7.070021e+000 81 68 42
3.097027e-001 -1.773935e+000 -7.224280e+000 78 66 41
7.270077e-001 -1.782115e+000 -7.449641e+000 86 73 46
-1.749512e+000 -2.051103e+000 -6.251495e+000 73 66 62
-7.494930e-001 -1.991760e+000 -6.871727e+000 89 75 58
9.017747e-001 -2.755103e+000 -8.515787e+000 132 118 85
-1.465611e+000 -2.839481e+000 -7.279013e+000 135 116 83
-1.615522e+000 -3.031936e+000 -7.435870e+000 96 81 57
-2.587928e+000 -3.081574e+000 -6.825827e+000 79 63 47
-2.557295e+000 -3.181388e+000 -7.023281e+000 115 100 71
-1.779501e+000 -3.459445e+000 -7.832820e+000 75 63 41
-3.060874e+000 -3.599233e+000 -7.234261e+000 87 70 53
-1.473120e+000 -3.754014e+000 -8.401092e+000 100 89 64
-4.636357e+000 3.917126e+000 -9.241156e+000 153 153 115
-3.619654e+000 3.764504e+000 -9.251064e+000 196 177 133
-3.123409e+000 4.270464e+000 -1.036204e+001 243 215 207
-4.287779e+000 3.318773e+000 -8.575171e+000 132 128 87
-4.287779e+000 3.318773e+000 -8.575171e+000 132 128 87
-4.196784e+000 3.480670e+000 -8.768279e+000 154 150 113
-3.659980e+000 3.583428e+000 -9.005802e+000 93 118 90
-2.711889e+000 2.650670e+000 -8.245955e+000 202 188 188
-2.711889e+000 2.650670e+000 -8.245955e+000 202 188 188
4.276271e-001 3.154511e+000 -1.046443e+001 182 166 123
-2.554230e+000 2.339897e+000 -7.954982e+000 200 188 187
1.663982e+000 3.103009e+000 -1.092819e+001 163 132 84
-2.513269e+000 2.155493e+000 -7.746643e+000 167 78 82
1.929248e+000 2.704441e+000 -1.047804e+001 165 150 100
1.757119e+000 2.007685e+000 -9.602001e+000 169 162 148
-2.091153e+000 1.335716e+000 -6.911974e+000 202 189 191
2.326542e+000 1.725495e+000 -9.457253e+000 103 103 94
2.126147e+000 1.349137e+000 -8.969715e+000 153 157 135
1.032034e-002 1.038189e+000 -7.779621e+000 75 87 72
1.845849e+000 1.117196e+000 -8.617020e+000 178 173 144
-7.389166e-002 7.904618e-001 -7.478297e+000 74 89 71
-7.389166e-002 7.904618e-001 -7.478297e+000 74 89 71
3.326266e-001 1.606568e-001 -6.864476e+000 185 169 113
3.355379e-001 1.610695e-001 -6.849637e+000 185 169 113
4.925999e-001 -9.130787e-002 -6.640258e+000 177 166 103
4.841320e-001 -9.166135e-002 -6.645126e+000 177 166 103
1.008531e+000 -5.375733e-002 -6.891953e+000 174 164 96
1.001617e+000 -5.586837e-002 -6.894981e+000 174 164 96
6.232031e-001 -8.540766e-001 -6.456220e+000 68 56 29
-5.065084e+001 -9.003292e+000 -9.070442e+001 216 210 254
-1.578404e+000 -1.407898e+000 -5.751538e+000 68 67 55
-1.574160e+000 -1.405819e+000 -5.737020e+000 68 67 55
-5.480021e-001 -1.423831e+000 -6.423063e+000 128 111 69
3.844698e-001 -2.146534e+000 -7.613944e+000 82 68 34
2.291448e-001 -2.649109e+000 -8.146905e+000 85 72 40
2.899040e+000 -3.531204e+000 -1.052322e+001 83 65 50
-3.186597e+000 -3.541680e+000 -7.203108e+000 91 77 50
-3.124623e+001 -2.549618e+001 -7.706970e+001 74 47 105
-4.462812e+000 3.903979e+000 -9.158551e+000 181 173 137
-3.277665e+000 4.272452e+000 -1.027160e+001 179 166 113
4.592800e-001 3.934210e+000 -1.147451e+001 176 147 116
4.592800e-001 3.934210e+000 -1.147451e+001 176 147 116
1.650770e+000 2.917332e+000 -1.069067e+001 87 90 75
-1.916219e+000 1.475026e+000 -7.111231e+000 166 72 73
-1.916219e+000 1.475026e+000 -7.111231e+000 166 72 73
2.076653e+000 1.021558e+000 -8.551221e+000 83 96 68
2.430366e+000 8.626576e-001 -8.469907e+000 99 115 76
8.502108e-001 -4.477895e-002 -6.850179e+000 175 166 95
-5.405611e+001 -6.474409e+000 -9.386413e+001 76 51 115
-5.316363e+001 -7.035350e+000 -9.324366e+001 194 183 239
-5.078506e+001 -1.003702e+001 -8.557803e+001 107 69 122
1.608811e-001 -1.721577e+000 -7.144178e+000 136 116 74
1.608811e-001 -1.721577e+000 -7.144178e+000 136 116 74
2.614366e+000 -3.489597e+000 -1.035629e+001 69 62 44
-4.302397e+001 -1.860375e+001 -8.170801e+001 225 43 84
-3.062524e+001 -1.860418e+001 -8.406011e+001 222 49 82
-1.454495e+000 3.911265e+000 -1.064099e+001 183 166 142
1.132050e+000 2.901822e+000 -1.042907e+001 170 148 101
-1.758107e+000 1.387254e+000 -7.053176e+000 202 185 185
-1.759715e+000 1.387086e+000 -7.050717e+000 202 185 185
-1.378784e+000 1.299374e+000 -7.088396e+000 204 178 118
1.799288e+000 1.263443e+000 -8.754276e+000 142 148 89
6.096582e-001 6.995507e-001 -7.637297e+000 148 109 72
2.749203e+000 4.820866e-001 -8.352695e+000 176 169 148
3.163700e+000 5.802827e-001 -8.522227e+000 129 143 117
-5.780477e+001 -2.294451e+000 -9.995002e+001 233 68 122
-5.514867e+001 -4.274235e+000 -9.639743e+001 74 52 114
-1.665324e+000 -1.691464e+000 -5.940917e+000 76 69 61
-1.357120e+000 -1.846220e+000 -6.256377e+000 108 96 74
-3.500254e+001 -1.425300e+001 -8.874631e+001 59 34 64
-3.463759e+001 -1.336666e+001 -9.000321e+001 226 44 85
-4.060891e+001 -1.567638e+001 -8.965067e+001 197 26 70
-3.881903e+001 -1.633183e+001 -8.765114e+001 62 40 96
-3.452631e+001 -1.512574e+001 -8.952587e+001 205 35 66
-3.749395e+001 -1.755251e+001 -8.367285e+001 71 51 115
-3.300015e+001 -1.768073e+001 -8.626947e+001 226 42 76
-3.051343e+001 -1.940613e+001 -8.314720e+001 208 34 64
-3.470263e+000 -3.851291e+000 -7.486385e+000 76 63 44
-2.388885e+000 2.817042e+000 -8.747350e+000 131 72 74
6.874817e-001 1.033401e+000 -8.076343e+000 187 167 114
3.394324e-001 7.199277e-001 -7.503038e+000 191 173 133
1.116909e+000 6.835426e-001 -7.744675e+000 145 101 72
3.271994e+000 3.866308e-001 -8.441963e+000 140 155 132
-5.385699e+001 -2.885754e+000 -9.682718e+001 90 70 155
-8.831457e-001 -2.081395e+000 -6.816255e+000 103 89 63
-3.643515e+001 -1.929026e+001 -8.005006e+001 66 45 107
-3.636922e+001 -2.047634e+001 -7.733413e+001 206 31 70
-3.558099e+001 -2.525751e+001 -7.738011e+001 49 35 69
-3.895329e+000 3.719353e+000 -9.339057e+000 94 119 90
-2.905821e+000 2.748148e+000 -8.374159e+000 135 71 66
-2.501726e+000 2.490138e+000 -8.102795e+000 176 136 141
-1.666860e+000 1.601447e+000 -7.360245e+000 160 68 69
-1.590898e+000 1.258894e+000 -6.957612e+000 157 66 67
-2.866500e-001 1.400999e+000 -8.143090e+000 84 81 62
-2.866500e-001 1.400999e+000 -8.143090e+000 84 81 62
-9.524983e-001 1.015283e+000 -7.383714e+000 193 183 181
1.842417e+000 7.190438e-001 -8.087785e+000 172 157 108
4.589510e-001 5.003848e-001 -7.214568e+000 188 173 126
5.726479e-001 2.145911e-001 -6.932395e+000 184 169 108
-4.648646e-001 -4.578804e-001 -5.834168e+000 165 151 86
-4.932373e+001 -9.298713e+000 -8.869484e+001 173 163 216
-4.106830e+001 -1.366789e+001 -9.011748e+001 201 27 62
-3.910968e+001 -1.678996e+001 -8.518392e+001 242 50 95
-3.798524e+001 -1.871457e+001 -8.128017e+001 250 56 101
1.485569e+000 2.215491e+000 -9.732424e+000 114 108 100
1.793049e-001 -6.720216e-001 -6.121543e+000 76 64 22
-3.663060e+001 -1.800339e+001 -8.818956e+001 67 54 124
-3.269340e+001 -1.861371e+001 -8.238477e+001 58 36 74
-1.842874e+000 2.079326e+000 -7.632948e+000 156 70 71
1.263187e+000 1.726892e+000 -8.976622e+000 177 171 135
-4.658855e+001 -8.744417e+000 -9.204952e+001 255 62 110
1.727922e+000 -2.220568e-001 -6.910378e+000 146 148 83
1.237727e+000 -1.234763e+000 -7.135443e+000 129 111 63
-5.324801e+001 -5.947379e+000 -9.656280e+001 69 47 109
2.837976e+000 3.174848e+000 -1.110751e+001 193 197 185
2.268081e+000 1.205365e-001 -7.828922e+000 169 156 115
-4.342987e+001 -7.743255e+000 -9.031279e+001 251 53 99
-1.945877e+000 6.630424e-001 -6.588028e+000 194 179 137
-4.445829e+000 3.453487e+000 -8.682925e+000 183 176 139
-1.426384e-001 1.460852e+000 -8.200943e+000 195 186 169
2.982612e+000 2.035179e+000 -1.002202e+001 82 78 74
1.010637e+000 2.064318e-001 -7.182774e+000 178 165 97
1.087921e+000 -1.357935e-002 -6.974446e+000 128 92 53
1.087921e+000 -1.357935e-002 -6.974446e+000 128 92 53
-2.511039e+000 -6.631941e-001 -4.587962e+000 90 87 49
2.628614e+000 -9.095354e-001 -7.619804e+000 88 90 67
3.744584e+000 -1.806442e+000 -9.024335e+000 114 104 95
-2.617819e+000 2.611699e+000 -8.209451e+000 131 69 69
3.258416e+000 3.079252e+000 -9.276341e+000 194 195 182
-3.470903e+000 2.350460e+000 -7.730588e+000 211 186 130
3.132654e+000 2.675163e+000 -9.588256e+000 185 186 178
6.785090e-001 2.512201e+000 -9.775028e+000 165 156 111
1.523145e+000 2.521017e+000 -1.006512e+001 111 105 97
-2.136441e+000 1.584668e+000 -7.164853e+000 200 190 186
2.288052e+000 1.432373e+000 -9.119481e+000 116 114 110
1.597846e+000 8.587795e-001 -8.179869e+000 171 170 118
3.009783e+000 7.108437e-001 -8.609614e+000 155 170 146
7.588241e-001 -1.270732e+000 -6.991645e+000 74 61 32
7.588241e-001 -1.270732e+000 -6.991645e+000 74 61 32
5.773462e-001 -2.055487e+000 -7.666512e+000 130 113 77
-2.273373e+000 4.217942e+000 -1.073390e+001 191 166 109
-2.619966e+000 2.522167e+000 -8.109021e+000 201 187 186
-2.268504e+000 1.133773e+000 -6.623524e+000 198 171 100
-6.368517e-001 -1.623084e+000 -6.573181e+000 75 61 36
-2.207793e-001 -7.737139e-001 -6.012575e+000 113 100 55
-1.710829e+000 -3.272817e+000 -7.692139e+000 75 63 47
-3.226614e+000 -1.607971e+000 -5.898820e+000 168 133 103
-7.199726e-001 -1.485075e+000 -6.363964e+000 123 105 66
-1.089787e+000 -2.199060e+000 -6.857675e+000 74 65 54
1.101786e+000 2.298749e-001 -7.164197e+000 168 167 98
1.101786e+000 2.298749e-001 -7.164197e+000 168 167 98
6.125898e-001 -1.152049e+000 -6.744272e+000 130 114 63
-2.498967e+000 1.772258e+000 -7.340590e+000 177 71 76
-4.725979e-001 5.904892e+000 -1.683714e+001 159 148 142
-5.009303e+000 3.941031e+000 -9.140714e+000 186 191 144
-4.271659e+000 3.433427e+000 -8.738467e+000 180 177 139
-1.649890e-001 4.157330e+000 -1.144004e+001 148 161 131
1.358017e+000 4.466574e+000 -1.253512e+001 115 114 100
-6.726292e-001 3.629816e+000 -1.053718e+001 143 87 68
-7.870803e-001 3.252969e+000 -1.012122e+001 193 158 116
-7.241209e-001 3.275866e+000 -1.013142e+001 159 116 74
-6.878696e-001 3.215739e+000 -1.009099e+001 193 168 119
1.147224e+000 3.588112e+000 -1.125734e+001 153 119 81
1.147224e+000 3.588112e+000 -1.125734e+001 153 119 81
-2.626622e+000 2.613491e+000 -8.207579e+000 128 63 64
1.166335e-001 3.024711e+000 -1.010626e+001 191 175 141
1.364482e+000 3.243216e+000 -1.094685e+001 188 177 136
-2.437803e+000 2.113401e+000 -7.693763e+000 200 193 192
-2.437803e+000 2.113401e+000 -7.693763e+000 200 193 192
-2.171912e+000 2.212275e+000 -7.886742e+000 152 61 65
1.665814e+000 2.506979e+000 -1.016582e+001 149 145 133
1.714888e+000 2.343368e+000 -1.000681e+001 96 90 90
2.104981e+000 2.390681e+000 -1.024984e+001 72 84 73
2.100116e+000 2.392406e+000 -1.020150e+001 72 84 73
3.051633e+000 2.309956e+000 -9.751061e+000 87 85 78
-1.365248e+000 1.969861e+000 -7.443644e+000 162 132 62
2.233203e+000 2.079136e+000 -9.908712e+000 114 111 106
-4.270224e-001 1.322208e+000 -8.008379e+000 185 178 162
-3.611186e-001 1.399145e+000 -8.101359e+000 169 152 134
-2.455673e-001 1.403934e+000 -8.090103e+000 191 185 165
-2.950343e-001 1.314921e+000 -7.986531e+000 176 174 150
-2.946406e-001 1.315300e+000 -7.989674e+000 176 174 150
2.227442e+000 1.395492e+000 -9.059240e+000 91 89 85
2.239762e+000 1.299869e+000 -8.958494e+000 132 136 122
-2.846339e-001 1.032644e+000 -7.664549e+000 193 176 157
-2.811776e-001 1.033771e+000 -7.661839e+000 193 176 157
-2.323410e-001 1.057166e+000 -7.718434e+000 82 73 60
-2.383222e-001 9.312686e-001 -7.575978e+000 200 179 159
-9.961477e-002 9.468952e-001 -7.618949e+000 197 185 153
-4.656604e-004 1.091147e+000 -7.814927e+000 76 74 54
2.324763e+000 1.071962e+000 -8.691333e+000 93 108 68
1.442052e-001 8.900979e-001 -7.647766e+000 194 177 141
1.144064e+000 7.988252e-001 -7.912064e+000 138 89 62
3.519458e-001 3.848321e-001 -7.121960e+000 70 73 47
8.392294e-001 4.818605e-001 -7.428074e+000 136 91 59
8.373094e-001 4.820789e-001 -7.424020e+000 136 91 59
1.189021e+000 6.297710e-001 -7.720470e+000 184 157 104
1.189021e+000 6.297710e-001 -7.720470e+000 184 157 104
9.566408e-001 2.424308e-001 -7.194020e+000 140 99 65
1.374109e+000 2.508563e-001 -7.281791e+000 168 166 109
9.876398e-001 8.380441e-002 -7.006007e+000 175 163 103
1.063444e+000 -8.044237e-002 -6.857123e+000 169 156 91
1.063444e+000 -8.044237e-002 -6.857123e+000 169 156 91
1.454844e+000 -6.093718e-002 -7.072051e+000 158 153 87
1.451840e+000 -6.106611e-002 -7.067523e+000 158 153 87
-8.647185e-001 -5.214550e-001 -5.437559e+000 141 131 74
2.612474e+000 -7.645636e-001 -7.519831e+000 61 62 44
1.722617e+000 -1.136155e+000 -7.345692e+000 108 104 69
5.040259e-001 -1.552158e+000 -7.086818e+000 77 65 33
3.706461e+000 -2.053919e+000 -8.214440e+000 138 132 121
6.437688e-001 -2.421569e+000 -8.070148e+000 88 74 48
-5.355168e-001 -2.491605e+000 -7.502912e+000 134 118 92
-1.633838e-001 -2.685485e+000 -7.941812e+000 96 82 56
-3.536365e+000 -3.453493e+000 -6.925889e+000 78 62 31
-4.385283e+000 3.649330e+000 -8.969576e+000 181 178 140
5.505765e-001 3.189337e+000 -1.054511e+001 93 98 77
1.500140e+000 3.293900e+000 -1.105925e+001 168 143 86
-2.361042e+000 2.536657e+000 -8.231074e+000 189 184 183
5.290727e-001 2.628984e+000 -9.838900e+000 192 182 152
1.293186e+000 2.840105e+000 -1.042343e+001 190 182 163
-2.269880e+000 1.974183e+000 -7.600374e+000 154 59 67
-2.274048e+000 1.972194e+000 -7.604456e+000 154 59 67
1.331618e+000 2.406380e+000 -9.878017e+000 146 133 99
-4.244505e+000 1.783426e+000 -7.622792e+000 202 163 135
3.005887e+000 2.291328e+000 -9.894941e+000 173 173 165
2.957485e+000 2.183314e+000 -9.948088e+000 165 167 158
-1.859380e+000 1.612331e+000 -7.311844e+000 200 188 188
-1.851308e+000 1.611826e+000 -7.333004e+000 200 188 188
6.156970e-001 1.483077e+000 -8.534201e+000 142 92 69
2.342404e+000 1.557667e+000 -9.326925e+000 97 96 91
-3.308111e+000 8.507732e-001 -6.054663e+000 211 206 144
8.689462e-001 1.216873e+000 -8.243817e+000 182 170 105
-3.223210e+000 6.644966e-001 -5.922644e+000 198 199 130
1.814905e-001 6.958635e-001 -7.429840e+000 67 69 52
1.558622e-001 6.381056e-001 -7.357040e+000 189 167 134
9.752848e-001 7.872931e-001 -7.815517e+000 147 92 76
1.113440e+000 6.927277e-001 -7.785136e+000 138 93 62
1.217712e+000 7.752662e-001 -7.909405e+000 175 164 92
1.131250e-001 5.898080e-001 -7.310342e+000 74 73 51
2.266136e-001 3.704539e-001 -7.093553e+000 71 78 64
6.718870e-001 4.482702e-001 -7.349963e+000 145 88 63
2.510420e+000 6.761813e-001 -8.282155e+000 165 150 97
3.223216e+000 6.471291e-001 -8.629708e+000 132 146 119
3.296546e+000 5.006872e-001 -8.457462e+000 150 166 140
3.320100e-001 3.033453e-001 -7.046400e+000 180 162 117
3.319659e+000 3.533202e-001 -8.321875e+000 98 115 84
2.678320e-001 -1.579590e-002 -6.654554e+000 180 162 101
3.474681e+000 5.421219e-002 -8.020710e+000 103 118 89
1.500753e+000 -6.374445e-001 -6.754707e+000 101 103 64
3.239043e+000 -5.413730e-001 -7.681316e+000 65 67 53
1.752378e+000 -8.246849e-001 -7.118892e+000 70 68 45
1.688585e+000 -1.059518e+000 -7.274587e+000 76 72 47
2.158277e+000 -8.550976e-001 -7.341645e+000 67 66 48
1.713503e+000 -1.434204e+000 -7.666329e+000 72 65 44
1.938772e+000 -1.159907e+000 -7.523700e+000 74 71 47
2.177414e+000 -1.269712e+000 -7.728700e+000 70 67 47
-2.394131e+000 -1.374432e+000 -5.344240e+000 72 63 59
-2.010940e+000 -1.251215e+000 -5.401965e+000 78 71 65
-1.790031e+000 -1.280924e+000 -5.547461e+000 75 69 64
-8.030520e-001 -1.451286e+000 -6.347935e+000 58 48 36
1.447590e-001 -1.393126e+000 -6.758912e+000 102 87 58
8.057757e-001 -1.521967e+000 -7.232768e+000 85 69 44
1.963366e+000 -1.735732e+000 -8.078809e+000 116 107 71
-3.086828e-001 -1.649756e+000 -6.784770e+000 98 82 56
-3.399479e-001 -1.741681e+000 -6.850273e+000 99 83 58
-2.538475e-001 -1.859068e+000 -7.025382e+000 95 79 53
-3.991877e-002 -1.999222e+000 -7.313003e+000 97 83 57
6.621837e-001 -1.982613e+000 -7.632084e+000 93 78 53
1.210863e+000 -2.119532e+000 -8.050332e+000 87 72 45
1.837614e+000 -1.922638e+000 -8.210789e+000 83 73 46
-1.754675e+000 -2.063168e+000 -6.300310e+000 74 68 61
-9.799941e-001 -2.308767e+000 -7.119724e+000 91 78 62
-8.334652e-001 -2.231940e+000 -7.065641e+000 91 75 60
-6.066778e-001 -2.066482e+000 -7.035341e+000 87 74 52
1.725602e-001 -2.208518e+000 -7.620915e+000 92 77 53
-2.471953e+000 -2.242197e+000 -6.135529e+000 76 66 64
-2.471953e+000 -2.242197e+000 -6.135529e+000 76 66 64
-7.371183e-001 -2.462301e+000 -7.379781e+000 92 77 58
-5.012373e-001 -2.581249e+000 -7.636151e+000 99 85 59
-3.508305e-001 -2.509115e+000 -7.641799e+000 103 86 67
-4.276313e-001 -3.097730e+000 -8.258854e+000 93 79 55
-1.285291e+000 -3.362829e+000 -8.077225e+000 124 109 84
-2.329604e+000 -3.676623e+000 -7.823720e+000 113 100 72
-2.182996e+000 -3.660530e+000 -7.911611e+000 112 98 72
-4.680767e+000 3.844262e+000 -9.127590e+000 172 170 132
-1.055045e+000 4.285163e+000 -1.128672e+001 90 92 76
-4.510283e+000 3.419975e+000 -8.633427e+000 145 144 110
-4.252256e+000 3.484719e+000 -8.574720e+000 178 171 132
-4.807310e-001 4.087542e+000 -1.124987e+001 129 87 83
-3.869992e-001 3.809726e+000 -1.093953e+001 169 127 104
-3.055083e-001 3.303967e+000 -1.030112e+001 183 157 118
-4.037425e+000 1.757761e+000 -7.310714e+000 229 208 135
1.880378e+000 2.065381e+000 -9.660385e+000 105 102 99
2.167283e+000 2.206470e+000 -1.002522e+001 139 142 131
-4.119531e-001 1.436990e+000 -8.119406e+000 75 82 71
-4.178922e-001 1.435752e+000 -8.119124e+000 75 82 71
-3.220126e-001 1.229834e+000 -7.878740e+000 72 82 69
1.524460e-002 7.554202e-001 -7.423123e+000 194 178 146
-3.060126e+000 5.367834e-001 -5.695425e+000 162 158 91
1.236588e+000 4.450552e-001 -7.554017e+000 175 160 93
1.246342e+000 4.470118e-001 -7.516478e+000 175 160 93
2.030494e+000 5.332278e-001 -7.968511e+000 159 139 89
8.202253e-001 3.012774e-001 -7.209366e+000 186 167 108
8.156043e-001 2.990194e-001 -7.212567e+000 186 167 108
9.549947e-001 2.997571e-002 -6.961707e+000 144 99 68
5.526869e-001 -9.040283e-001 -6.549579e+000 117 104 60
1.541908e+000 -9.965477e-001 -7.109301e+000 118 111 69
4.984917e-001 -1.069001e+000 -6.666690e+000 121 107 63
-2.571485e+000 -1.671735e+000 -5.561497e+000 67 63 56
-2.571485e+000 -1.671735e+000 -5.561497e+000 67 63 56
-2.140288e+000 -1.618653e+000 -5.701483e+000 130 114 106
-2.013187e+000 -1.702402e+000 -5.840942e+000 132 115 105
-2.013187e+000 -1.702402e+000 -5.840942e+000 132 115 105
4.245644e-001 -2.045527e+000 -7.554735e+000 96 82 55
-2.137751e+000 -2.087211e+000 -6.093614e+000 73 68 62
5.021411e-001 -3.097788e+000 -8.782038e+000 106 91 60
-2.684911e+000 -3.486239e+000 -7.414454e+000 111 96 69
-2.302721e+000 -3.801571e+000 -8.007824e+000 81 65 42
-1.937359e+000 -3.553644e+000 -7.931883e+000 81 66 43
-1.390284e+000 4.254294e+000 -1.111198e+001 106 110 83
-4.664895e+000 3.672367e+000 -8.935662e+000 137 143 107
-4.578257e+000 3.541171e+000 -8.731304e+000 121 123 90
-3.798474e+000 3.795332e+000 -9.378781e+000 81 115 83
-1.133656e+000 4.037553e+000 -1.091140e+001 130 93 77
-1.304712e-001 4.206437e+000 -1.160202e+001 139 145 113
-1.298475e-001 4.198411e+000 -1.152055e+001 139 145 113
1.929539e+000 2.706617e+000 -1.047654e+001 171 147 95
-2.112949e+000 2.094136e+000 -7.746445e+000 206 186 192
-1.535596e+000 2.173791e+000 -8.761437e+000 176 150 76
-4.173427e-001 1.433827e+000 -8.120900e+000 75 82 71
-1.248787e+000 1.092223e+000 -6.943120e+000 201 184 160
-3.286181e-001 1.080135e+000 -7.724490e+000 197 184 174
3.044927e-001 7.113835e-002 -6.774086e+000 66 81 56
1.355843e+000 -9.562139e-002 -6.977529e+000 140 92 62
1.356213e+000 -9.561635e-002 -6.977379e+000 140 92 62
-1.865196e+000 -3.772903e+000 -8.238637e+000 91 76 52
-5.704866e-001 3.343444e+000 -1.019820e+001 186 152 103
-2.203124e+000 2.831088e+000 -8.651751e+000 200 175 118
-3.029173e+000 1.507157e+000 -6.864871e+000 204 186 154
-3.029173e+000 1.507157e+000 -6.864871e+000 204 186 154
-3.006624e+000 1.370522e+000 -6.715348e+000 199 172 95
-1.301198e+000 9.723737e-001 -6.870444e+000 143 112 69
-2.083888e-001 9.874556e-001 -7.633935e+000 54 76 58
-6.321073e-001 -5.176959e-001 -5.656143e+000 111 99 47
-3.421722e-001 -1.215927e+000 -6.315964e+000 131 113 68
-2.000075e+000 -2.084265e+000 -6.162997e+000 74 68 60
-2.000075e+000 -2.084265e+000 -6.162997e+000 74 68 60
-2.038995e+000 4.171182e+000 -1.079574e+001 195 167 113
-2.908584e-001 3.629710e+000 -1.051458e+001 171 139 101
1.500245e+000 1.088212e+000 -8.381065e+000 180 178 152
1.713857e+000 9.633997e-001 -8.327189e+000 136 142 85
2.070974e+000 1.021530e+000 -8.550857e+000 81 90 61
7.342339e-001 5.054395e-001 -7.426693e+000 172 137 99
1.305130e+000 2.751429e+000 -1.031660e+001 188 178 167
9.615227e-001 4.956059e-001 -7.584994e+000 180 163 99
8.203480e-001 -1.247310e+000 -7.122215e+000 120 105 72
2.951283e+000 -3.747720e+000 -1.067379e+001 198 163 149
-2.659148e+000 3.071573e+000 -8.699246e+000 197 190 178
-1.204222e+000 9.216666e-001 -6.897054e+000 148 122 92
2.646618e-001 2.970403e-001 -6.982704e+000 65 80 59
-8.193323e-001 -4.078369e-001 -5.400384e+000 152 146 76
1.949085e+000 1.734154e+000 -9.319661e+000 85 81 79
-2.714981e+000 -6.656245e-001 -4.939123e+000 188 178 125
-4.268396e-002 3.279095e+000 -1.015420e+001 191 168 127
-2.269236e+000 2.014532e+000 -7.641945e+000 202 184 184
-2.269236e+000 2.014532e+000 -7.641945e+000 202 184 184
2.304944e+000 2.468693e+000 -1.027344e+001 86 103 79
-2.724839e+000 3.924335e+000 -1.019295e+001 170 154 94
9.582027e-001 3.442454e+000 -1.103685e+001 181 157 109
2.822918e-001 1.212817e+000 -8.001290e+000 192 178 148
2.470054e+000 1.833496e-001 -7.684583e+000 176 170 145
-8.404992e-001 3.981285e+000 -1.122495e+001 126 86 79
3.486806e+000 1.754577e+000 -9.555651e+000 190 197 190
-2.621099e+000 1.153158e+000 -6.370368e+000 194 184 144
-6.076806e-001 5.924896e-001 -7.943391e+000 194 185 170
-2.769608e+000 1.500787e-001 -5.843335e+000 141 147 75
2.464454e+000 1.631489e+000 -9.590862e+000 72 80 69
-2.327307e+000 1.940199e+000 -7.522678e+000 163 64 72
3.029012e+000 2.192057e+000 -9.887246e+000 87 89 82
2.969354e+000 1.866336e+000 -1.006835e+001 163 165 158
-4.805333e+001 -9.193227e+000 -8.797057e+001 175 165 224
-4.868807e+000 3.734550e+000 -9.033330e+000 168 169 127
1.296244e+000 4.524115e+000 -1.252707e+001 213 208 196
-3.337946e+000 3.358554e+000 -8.905420e+000 173 129 104
1.383464e+000 3.090492e+000 -1.078734e+001 195 179 136
-1.427583e+000 1.979590e+000 -7.626450e+000 196 172 115
1.293882e+000 2.194679e+000 -9.602559e+000 103 96 88
-9.731263e-002 1.330082e+000 -8.065911e+000 193 187 165
-2.321532e-001 1.057131e+000 -7.718323e+000 82 73 60
6.312283e-001 8.835698e-001 -7.816231e+000 131 94 58
3.347256e+000 2.200650e-001 -8.142610e+000 102 116 90
3.347256e+000 2.200650e-001 -8.142610e+000 102 116 90
1.025826e+000 -4.911544e-003 -6.940765e+000 174 168 99
1.391975e+000 6.211152e-002 -7.179504e+000 171 160 100
3.528080e+000 -3.140756e-002 -7.939144e+000 110 122 95
-2.351119e+000 2.537161e+000 -8.233859e+000 189 184 183
2.111581e+000 2.539422e+000 -1.041149e+001 71 83 69
-1.696449e+000 1.353315e+000 -7.035593e+000 194 188 186
-1.696449e+000 1.353315e+000 -7.035593e+000 194 188 186
6.747548e-001 1.375143e+000 -8.414017e+000 142 94 71
2.618441e-001 6.467623e-001 -7.413507e+000 193 175 137
2.374550e+000 7.613720e-001 -8.380596e+000 172 148 97
2.761949e+000 6.166663e-001 -8.358368e+000 111 121 77
2.561396e+000 3.364721e-001 -7.973917e+000 165 150 92
-7.997619e-001 -1.155756e-001 -5.871777e+000 141 119 64
4.601615e+000 -3.545834e+000 -7.296584e+000 96 85 79
-5.267204e-001 4.318335e+000 -1.160330e+001 128 140 103
-3.431785e+000 2.198428e+000 -7.280253e+000 204 187 140
-3.431785e+000 2.198428e+000 -7.280253e+000 204 187 140
1.679819e+000 1.404078e+000 -8.828621e+000 144 149 84
2.605704e+000 5.176248e-001 -8.223251e+000 165 144 91
-4.638989e+000 3.913693e+000 -9.247881e+000 143 145 106
2.877822e+000 2.036005e+000 -1.006288e+001 157 160 153
6.766149e-001 6.111618e-001 -7.512632e+000 185 163 108
-4.134344e+001 -2.005701e+001 -7.762292e+001 216 65 97
-3.505064e+001 -2.654445e+001 -7.578102e+001 63 63 131
-2.247825e+000 4.204724e+000 -1.079308e+001 196 169 106
-3.799668e+001 -2.601609e+001 -7.407402e+001 188 34 71
-3.509040e+001 -2.599435e+001 -7.668112e+001 125 167 227
-2.899787e+001 -2.707237e+001 -7.257111e+001 187 30 61
-2.733955e+001 -3.121856e+001 -7.279759e+001 203 34 65
-2.783804e+001 -3.180171e+001 -7.141392e+001 213 30 57
1.761373e+000 1.513424e+000 -8.970455e+000 160 161 129
7.760142e-001 8.491949e-001 -7.755918e+000 183 164 108
7.775258e-001 8.462226e-001 -7.756909e+000 183 164 108
6.645921e-001 1.149091e-001 -6.885137e+000 179 165 104
-3.444714e+001 -2.645986e+001 -7.178638e+001 63 44 102
-3.847967e+001 -2.810353e+001 -6.692639e+001 203 29 65
-2.568661e+000 4.089014e+000 -1.052511e+001 163 157 91
1.414811e-001 5.436655e-001 -7.242227e+000 71 82 65
-3.747427e+001 -2.477844e+001 -7.584472e+001 122 22 47
-4.255894e+001 -2.095503e+001 -7.605895e+001 254 248 255
-3.579580e+001 -2.579370e+001 -7.440553e+001 143 195 247
-4.008663e+001 -2.790377e+001 -7.134113e+001 237 44 88
-3.348775e+001 -3.020818e+001 -7.436030e+001 38 21 37
-5.079498e+000 4.188721e+000 -9.386455e+000 136 142 91
-4.164073e+000 3.862657e+000 -9.309932e+000 85 102 64
-3.517445e+000 3.704146e+000 -9.181699e+000 200 182 136
-4.031591e-001 4.155399e+000 -1.138829e+001 131 147 113
-4.522530e+000 3.175205e+000 -8.331922e+000 180 160 106
-6.739933e-001 3.639590e+000 -1.049077e+001 135 80 60
-9.070986e-001 3.490845e+000 -1.030702e+001 185 146 107
-9.041456e-001 3.489295e+000 -1.035941e+001 185 146 107
-4.805383e-001 3.493190e+000 -1.050132e+001 169 124 88
2.980433e-001 3.398292e+000 -1.067793e+001 156 112 72
5.081978e-001 3.472406e+000 -1.100643e+001 137 101 77
-4.656272e+000 2.827559e+000 -8.369999e+000 244 203 148
6.952507e-001 2.575622e+000 -9.848457e+000 180 170 136
6.952507e-001 2.575622e+000 -9.848457e+000 180 170 136
1.352126e+000 2.545708e+000 -1.007727e+001 95 86 82
1.954364e+000 2.779075e+000 -1.064917e+001 163 144 100
1.954364e+000 2.779075e+000 -1.064917e+001 163 144 100
3.219710e+000 2.800706e+000 -9.368586e+000 67 67 59
-2.184890e+000 2.117162e+000 -7.792884e+000 121 58 55
-2.179620e+000 2.116181e+000 -7.806124e+000 121 58 55
6.329525e-001 2.415782e+000 -9.567668e+000 185 176 148
1.510110e+000 2.197385e+000 -9.709617e+000 81 76 72
1.506010e+000 2.199837e+000 -9.701004e+000 81 76 72
1.634266e+000 2.452895e+000 -1.007295e+001 103 101 88
1.689951e+000 2.395226e+000 -1.004226e+001 152 146 136
1.964647e+000 2.410140e+000 -1.018504e+001 110 111 110
1.677657e+000 2.035144e+000 -9.600985e+000 122 112 95
-3.061209e-001 1.517175e+000 -8.233425e+000 193 185 174
1.630586e+000 1.724129e+000 -9.215515e+000 152 152 125
-3.612409e-001 1.404066e+000 -8.066613e+000 160 146 123
-1.042936e-001 1.329205e+000 -8.060226e+000 187 176 156
8.409543e-001 1.391455e+000 -8.469870e+000 130 88 58
8.456175e-001 1.389716e+000 -8.484574e+000 130 88 58
-1.692012e-001 9.376045e-001 -7.589743e+000 69 69 48
9.178483e-001 8.648078e-001 -7.913184e+000 136 93 62
9.182212e-001 8.658073e-001 -7.918870e+000 136 93 62
1.142917e+000 8.002680e-001 -7.907808e+000 136 92 57
1.491500e+000 9.441908e-001 -8.209558e+000 128 132 81
-1.073409e-002 6.042559e-001 -7.265887e+000 176 156 123
1.077823e+000 5.283230e-001 -7.585587e+000 176 152 96
1.266001e+000 5.175998e-001 -7.631452e+000 129 88 58
1.264422e+000 5.179959e-001 -7.627354e+000 129 88 58
1.715087e-001 1.508579e-001 -6.782328e+000 170 155 96
3.324364e+000 2.962838e-001 -8.230700e+000 93 108 82
3.402879e+000 2.414242e-001 -8.217977e+000 161 172 148
1.379669e+000 -4.626143e-002 -7.040717e+000 135 87 62
4.609679e+000 -3.567479e+000 -7.199214e+000 123 114 105
-4.925835e-001 4.345557e+000 -1.163125e+001 120 130 96
-4.384442e+000 3.652391e+000 -8.963387e+000 176 172 133
-3.834853e+000 3.573108e+000 -9.023636e+000 83 110 82
-5.511359e-002 4.143875e+000 -1.141862e+001 131 138 105
1.343741e+000 3.179137e+000 -1.090700e+001 78 75 63
-4.037176e+000 2.306546e+000 -7.480654e+000 190 172 135
3.199600e+000 2.985028e+000 -9.181383e+000 182 183 175
-2.356935e+000 1.986981e+000 -7.571459e+000 190 179 176
1.224775e+000 2.232562e+000 -9.614556e+000 152 151 125
3.079648e+000 2.526444e+000 -9.682257e+000 182 183 177
-4.026793e+000 1.608002e+000 -7.478488e+000 217 200 129
1.860285e+000 1.932223e+000 -9.538604e+000 98 94 93
1.859249e+000 1.804518e+000 -9.397497e+000 77 76 72
-3.577591e+000 1.326823e+000 -6.551578e+000 222 216 193
-3.605704e+000 1.133497e+000 -6.641434e+000 183 180 103
-1.055896e-001 1.268869e+000 -8.006114e+000 71 72 55
6.144744e-001 1.487175e+000 -8.501624e+000 138 91 65
2.197937e+000 1.487625e+000 -9.112270e+000 86 83 80
8.377733e-001 1.047695e+000 -8.105435e+000 138 89 64
4.741609e-001 8.457999e-001 -7.754135e+000 141 87 66
-9.106650e-002 6.864125e-001 -7.357612e+000 182 168 138
2.146668e-001 5.302211e-001 -7.262718e+000 186 170 132
2.146668e-001 5.302211e-001 -7.262718e+000 186 170 132
1.238471e+000 5.922968e-001 -7.698239e+000 139 89 61
3.222473e+000 6.481809e-001 -8.621292e+000 127 141 118
1.427805e-001 4.096376e-001 -7.105063e+000 173 156 114
1.427805e-001 4.096376e-001 -7.105063e+000 173 156 114
1.381415e+000 3.115102e-001 -7.475490e+000 131 93 66
1.381415e+000 3.115102e-001 -7.475490e+000 131 93 66
3.216931e+000 5.080974e-001 -8.444556e+000 102 116 87
2.244216e-001 7.717399e-002 -6.784245e+000 177 161 106
1.232026e+000 2.860798e-001 -7.394385e+000 136 91 68
1.364125e+000 1.472322e-001 -7.273830e+000 162 157 100
3.419676e+000 -7.668271e-002 -7.881668e+000 173 180 166
-1.323197e+000 -5.909280e-001 -5.186390e+000 93 83 47
1.020700e+000 -7.175235e-001 -6.579317e+000 92 88 56
-3.194735e+000 -1.802412e+000 -5.888229e+000 105 85 68
-2.057797e+000 -1.638693e+000 -5.747128e+000 79 70 63
3.900819e+000 5.252268e+000 -7.335893e+000 194 187 181
3.970007e+000 5.267133e+000 -7.318923e+000 96 88 80
-4.474608e+000 3.652626e+000 -8.928571e+000 121 125 88
1.918379e-002 4.209635e+000 -1.165605e+001 82 81 74
-4.402743e-001 3.917488e+000 -1.105170e+001 147 106 88
6.302021e-001 3.255110e+000 -1.061414e+001 183 181 168
1.928986e+000 3.097318e+000 -1.099870e+001 69 82 64
1.337670e+000 2.695366e+000 -1.019225e+001 175 170 158
2.040329e+000 1.912503e+000 -9.610776e+000 95 91 90
1.581980e+000 1.848953e+000 -9.324666e+000 88 84 79
9.816329e-001 7.857521e-001 -7.835528e+000 135 84 57
2.219982e+000 1.005533e+000 -8.575554e+000 165 167 143
2.678269e+000 6.587603e-001 -8.395301e+000 102 113 71
2.734033e-001 4.167534e-001 -7.135489e+000 178 157 115
1.544379e-001 3.404250e-001 -7.065557e+000 60 75 65
7.959545e-001 2.271729e-001 -7.140189e+000 140 87 65
3.439288e+000 6.030169e-002 -8.003660e+000 98 113 79
-3.833946e+000 -8.737390e-001 -6.922724e+000 209 177 148
7.955364e-001 -1.770564e-001 -6.647503e+000 167 158 91
1.840329e-001 -1.212848e+000 -6.606748e+000 94 80 54
-1.583506e+000 -1.396134e+000 -5.718089e+000 74 66 62
-4.275213e+000 3.786972e+000 -9.202770e+000 177 166 126
-9.905828e-001 4.115292e+000 -1.102366e+001 133 138 105
-7.128287e-001 4.174340e+000 -1.125249e+001 121 132 92
7.933397e-001 4.003378e+000 -1.156375e+001 128 81 63
3.586492e-001 3.552337e+000 -1.087676e+001 182 146 98
-3.054334e+000 2.815724e+000 -8.395216e+000 124 63 61
-3.051168e+000 2.815069e+000 -8.411112e+000 124 63 61
-2.612961e+000 2.521095e+000 -8.131960e+000 196 182 185
1.072243e+000 2.503121e+000 -9.915204e+000 152 152 128
-2.187339e+000 1.721687e+000 -7.323645e+000 198 180 185
2.880952e+000 1.796361e+000 -1.018433e+001 63 66 59
-3.782096e+000 1.182268e+000 -6.909325e+000 228 201 125
-1.473585e+000 1.203276e+000 -6.982450e+000 145 55 58
-1.473585e+000 1.203276e+000 -6.982450e+000 145 55 58
-1.248186e+000 1.087932e+000 -6.953822e+000 190 180 155
-1.165107e-001 1.064969e+000 -7.758043e+000 186 175 155
-1.165107e-001 1.064969e+000 -7.758043e+000 186 175 155
7.155676e-003 1.030130e+000 -7.746115e+000 68 82 71
9.426520e-001 1.014041e+000 -8.083152e+000 179 154 98
9.438091e-001 1.015698e+000 -8.077525e+000 179 154 98
1.021700e+000 8.681295e-001 -7.943718e+000 179 154 94
2.227560e+000 9.973874e-001 -8.613414e+000 165 167 143
6.790090e-001 6.078115e-001 -7.517500e+000 181 157 111
1.273874e+000 8.807042e-002 -7.154177e+000 135 87 62
1.271277e+000 8.738378e-002 -7.154995e+000 135 87 62
4.817504e-001 -9.023414e-002 -6.644445e+000 177 158 97
5.809225e-001 -1.505671e-001 -6.617372e+000 63 82 65
1.131732e+000 6.934149e-002 -7.017184e+000 161 155 85
-3.332021e+000 -1.679864e+000 -5.982951e+000 172 157 91
-2.038422e+000 -1.841781e+000 -5.932717e+000 76 72 63
-3.244432e+000 9.005718e-001 -6.065695e+000 173 163 111
-2.076936e-002 9.122365e-001 -7.614513e+000 185 171 145
-2.076936e-002 9.122365e-001 -7.614513e+000 185 171 145
9.946654e-001 -5.663840e-002 -6.893518e+000 164 158 85
-4.768196e+000 3.927622e+000 -9.186993e+000 167 163 125
-3.855085e+000 3.951255e+000 -9.543060e+000 178 162 117
-3.406725e+000 1.809990e+000 -6.802088e+000 194 167 90
1.883799e+000 2.147524e+000 -9.822001e+000 98 95 92
8.851509e-001 1.115887e+000 -8.180215e+000 181 150 104
1.244455e+000 -3.459653e-002 -7.063132e+000 164 152 93
1.244455e+000 -3.459653e-002 -7.063132e+000 164 152 93
-3.564693e+000 3.463105e+000 -8.961758e+000 192 175 145
-2.416370e+000 2.829432e+000 -8.577177e+000 122 61 55
1.929529e+000 2.396490e+000 -1.012740e+001 111 107 102
2.768732e+000 2.200529e+000 -9.750923e+000 158 161 155
6.405863e-001 1.044698e+000 -8.017257e+000 179 162 111
6.260561e-001 4.267010e+000 -1.199861e+001 120 81 72
-1.570978e+000 9.450585e-001 -6.735887e+000 191 180 175
4.842056e-001 -6.640464e-002 -6.711259e+000 171 151 100
-6.824724e-001 1.111131e+000 -7.599295e+000 192 182 180
-6.824724e-001 1.111131e+000 -7.599295e+000 192 182 180
-2.290424e+000 1.975525e+000 -8.017141e+000 192 181 181
-4.971209e+000 4.006198e+000 -9.193339e+000 144 144 87
-9.042087e-001 4.075880e+000 -1.101873e+001 139 148 124
-4.422791e+000 3.710303e+000 -9.031116e+000 171 169 133
-4.425395e+000 3.709658e+000 -9.045006e+000 171 169 133
-3.680355e+000 3.662450e+000 -9.225934e+000 77 100 71
1.139122e+000 3.981230e+000 -1.173736e+001 166 118 90
-4.587176e+000 3.413704e+000 -8.667688e+000 168 167 129
-4.482379e+000 3.359139e+000 -8.595602e+000 181 171 128
3.663266e-001 3.223890e+000 -1.032835e+001 184 155 115
