ply
format ascii 1.0
element face 0
property list uchar int vertex_indices
element vertex 873
property float x
property float y
property float z
property uchar diffuse_red
property uchar diffuse_green
property uchar diffuse_blue
end_header
1.097856e+000 -8.981103e-001 -6.658583e+000 134 132 84
7.832836e-001 -1.021096e+000 -6.660408e+000 87 82 40
8.097705e-001 -1.077735e+000 -6.683406e+000 133 130 78
2.117833e+000 -9.060432e-001 -7.315202e+000 74 79 49
-3.036003e+000 -2.547821e-001 -6.473079e+000 117 117 95
7.237825e-002 -1.435890e+000 -6.697974e+000 142 131 89
-2.484467e+000 -1.917421e+000 -5.738068e+000 71 75 67
-1.930421e+000 -1.922347e+000 -5.944693e+000 82 88 76
-2.562404e+000 -2.033709e+000 -5.754445e+000 138 134 122
-1.978673e+000 -1.957343e+000 -6.018200e+000 137 139 126
2.746075e+000 -1.479669e+000 -8.154774e+000 95 104 77
-2.338866e+000 -2.190296e+000 -6.003868e+000 92 90 79
1.951074e+000 -2.115109e+000 -8.345744e+000 118 111 74
-1.672459e+000 -2.834405e+000 -7.154756e+000 135 121 90
1.676647e+000 -2.507385e+000 -8.644685e+000 120 113 73
1.925838e+000 -3.069086e+000 -9.417884e+000 110 107 72
-3.360678e+000 -3.670189e+000 -7.113021e+000 82 76 45
-3.405963e+000 -3.720286e+000 -7.164194e+000 78 73 48
-3.421090e+000 -3.804032e+000 -7.202429e+000 84 81 48
-2.974825e+000 -3.723558e+000 -7.349023e+000 79 74 48
-6.663405e-001 -7.245758e-001 -5.658712e+000 136 133 88
-4.198907e-001 -1.018295e+000 -5.936155e+000 146 134 83
3.444582e+000 -5.960289e-001 -7.681348e+000 100 112 88
3.444582e+000 -5.960289e-001 -7.681348e+000 100 112 88
-1.760029e+000 -1.383014e+000 -5.571713e+000 138 135 108
1.444870e-001 -1.159167e+000 -6.417720e+000 147 136 90
6.105219e-001 -9.936075e-001 -6.546815e+000 138 132 82
2.336236e+000 -8.646169e-001 -7.363862e+000 98 109 77
2.831801e+000 -6.902058e-001 -7.469734e+000 98 108 81
3.507322e+000 -6.328794e-001 -7.724320e+000 73 82 60
-9.893529e-001 -1.450409e+000 -6.181385e+000 61 51 49
-9.304106e-001 -1.487598e+000 -6.175618e+000 78 67 54
-6.767671e-001 -1.420352e+000 -6.211729e+000 148 138 88
9.132094e-002 -1.359966e+000 -6.574763e+000 142 133 92
1.980078e+000 -1.063830e+000 -7.331161e+000 114 118 81
2.143921e+000 -1.026472e+000 -7.385991e+000 108 112 77
2.094259e+000 -1.196156e+000 -7.522688e+000 104 108 74
2.077876e+000 -1.237528e+000 -7.478134e+000 104 108 74
2.706948e+000 -1.113441e+000 -7.730632e+000 91 104 77
4.252318e-001 -1.511912e+000 -6.924860e+000 93 83 51
7.579298e-001 -1.394244e+000 -7.016276e+000 91 83 47
9.623568e-001 -1.380621e+000 -7.029148e+000 155 143 87
2.066179e+000 -1.280510e+000 -7.563294e+000 118 118 81
2.214427e+000 -1.270253e+000 -7.640433e+000 105 110 80
2.214427e+000 -1.270253e+000 -7.640433e+000 105 110 80
3.141913e+000 -1.154884e+000 -8.032740e+000 86 100 73
3.119580e+000 -1.251573e+000 -8.183016e+000 91 100 73
3.101061e+000 -1.287374e+000 -8.153317e+000 91 100 73
-1.945141e+000 -2.100485e+000 -6.107341e+000 84 88 74
-2.819219e-002 -1.749440e+000 -6.916473e+000 149 133 101
-2.819219e-002 -1.749440e+000 -6.916473e+000 149 133 101
1.783285e+000 -1.462215e+000 -7.607330e+000 89 86 53
1.915450e+000 -1.533234e+000 -7.742330e+000 77 76 44
1.946252e+000 -1.661420e+000 -7.797036e+000 117 118 77
3.304318e+000 -1.324505e+000 -8.306827e+000 64 73 52
3.304318e+000 -1.324505e+000 -8.306827e+000 64 73 52
-2.225109e+000 -2.322809e+000 -6.106495e+000 103 105 94
-2.034360e+000 -2.261076e+000 -6.229382e+000 147 138 112
8.366129e-002 -2.028405e+000 -7.235201e+000 92 80 47
1.747409e+000 -1.834689e+000 -7.961853e+000 127 120 74
-2.257084e-002 -2.131357e+000 -7.302222e+000 146 136 97
2.401084e-001 -2.080534e+000 -7.373370e+000 91 79 52
2.137790e+000 -2.001461e+000 -8.296617e+000 104 104 68
2.806321e+000 -1.948868e+000 -8.637100e+000 58 67 40
4.844735e-001 -2.256532e+000 -7.689649e+000 95 82 50
-1.308147e+000 -2.646620e+000 -7.136099e+000 99 81 71
-3.398446e-001 -2.486122e+000 -7.489525e+000 153 139 92
1.594000e+000 -2.310214e+000 -8.352562e+000 122 116 67
2.337666e+000 -2.270413e+000 -8.702990e+000 106 107 76
5.363502e-001 -2.668133e+000 -8.229213e+000 139 126 81
2.557014e+000 -2.523895e+000 -9.173690e+000 92 97 65
2.599548e+000 -2.585255e+000 -9.207140e+000 69 73 48
-2.260707e+000 -3.002113e+000 -7.014668e+000 100 86 60
-7.037744e-001 -2.968833e+000 -7.827417e+000 147 135 97
2.128056e-001 -3.391662e+000 -8.744138e+000 101 93 57
2.614928e+000 -3.208727e+000 -9.952014e+000 83 87 62
-8.269757e-001 -7.344908e-001 -5.587896e+000 137 132 81
-5.855621e-002 -5.879162e-001 -5.936459e+000 139 132 86
7.948000e-001 -7.293045e-001 -6.401020e+000 126 126 82
7.936920e-001 -7.272682e-001 -6.401315e+000 126 126 82
-2.274511e+000 -1.321884e+000 -5.288131e+000 80 83 74
2.021876e+000 -6.415429e-001 -6.971872e+000 78 84 58
2.250142e+000 -8.843884e-001 -7.317215e+000 72 79 55
1.725878e+000 -1.208380e+000 -7.292044e+000 90 90 60
1.791336e+000 -1.213275e+000 -7.322697e+000 124 119 82
1.790353e+000 -1.215447e+000 -7.316428e+000 124 119 82
2.343837e+000 -1.067936e+000 -7.479703e+000 75 84 58
2.479630e+000 -1.141386e+000 -7.671595e+000 74 81 57
3.737857e+000 -8.634139e-001 -8.093630e+000 70 78 58
-2.769478e+000 -1.884332e+000 -5.550922e+000 113 115 101
-1.991410e+000 -1.801363e+000 -5.793508e+000 84 88 74
-1.862948e-001 -1.615520e+000 -6.722954e+000 113 101 70
-1.862948e-001 -1.615520e+000 -6.722954e+000 113 101 70
1.893565e+000 -1.155618e+000 -7.542545e+000 92 91 60
1.767229e+000 -1.567524e+000 -7.718555e+000 91 90 52
2.232762e+000 -1.437440e+000 -7.786817e+000 73 77 52
-7.753597e-001 -1.996508e+000 -6.770249e+000 92 81 61
2.355120e+000 -1.753294e+000 -8.169476e+000 108 109 75
2.601195e+000 -1.657369e+000 -8.180384e+000 69 78 49
2.827073e+000 -1.662698e+000 -8.313184e+000 89 100 69
2.852959e+000 -1.780058e+000 -8.495743e+000 67 74 50
2.075988e-001 -2.370875e+000 -7.637829e+000 145 132 86
1.167506e+000 -2.460483e+000 -8.256705e+000 90 81 48
1.457598e+000 -2.480052e+000 -8.448567e+000 89 80 50
1.892501e+000 -2.283083e+000 -8.452537e+000 117 113 76
3.312220e+000 -2.229840e+000 -9.329361e+000 58 63 43
-1.881877e+000 -2.839898e+000 -7.061715e+000 90 78 54
-1.824513e+000 -2.875863e+000 -7.126530e+000 141 131 97
-1.419031e+000 -2.759437e+000 -7.207381e+000 56 45 39
-1.284069e+000 -2.807717e+000 -7.227198e+000 62 56 44
2.040805e+000 -2.469515e+000 -8.749883e+000 81 80 52
2.232710e+000 -2.587239e+000 -9.006447e+000 100 99 70
-2.201444e+000 -2.964766e+000 -6.985819e+000 148 134 91
-4.351451e-001 -2.907271e+000 -7.849424e+000 150 139 93
8.081921e-002 -2.914412e+000 -8.104940e+000 92 83 53
-1.248511e+000 -3.191552e+000 -7.731165e+000 135 123 88
1.368939e+000 -2.968009e+000 -8.933672e+000 129 120 77
1.704588e+000 -3.038281e+000 -9.107530e+000 95 91 56
-1.905632e-001 -3.291334e+000 -8.443945e+000 89 82 53
2.075953e+000 -3.222151e+000 -9.560969e+000 72 72 46
-3.518267e+000 -4.028845e+000 -7.392759e+000 114 115 76
2.000254e+000 -1.236148e+000 -7.498836e+000 79 87 58
-1.630110e+000 -1.935130e+000 -6.068258e+000 115 110 79
1.031670e-001 -1.924365e+000 -7.130914e+000 104 94 63
1.593877e+000 -2.063020e+000 -8.065773e+000 86 80 46
-1.497676e+000 -2.999298e+000 -7.414162e+000 57 48 41
1.637904e-001 -2.951122e+000 -8.208948e+000 118 111 67
6.538604e-001 -2.759638e+000 -8.327948e+000 129 121 75
-2.152780e+000 -3.174155e+000 -7.242687e+000 89 78 52
-3.635237e-001 -3.510406e+000 -8.697072e+000 124 115 76
-1.182809e-001 -3.697230e+000 -8.931313e+000 125 114 76
6.506845e-001 -3.666821e+000 -9.373476e+000 122 113 72
-1.335510e+000 -3.830016e+000 -8.409397e+000 125 116 80
-1.470047e+001 5.044513e+001 -3.579032e+001 161 137 125
-1.552694e+001 5.180492e+001 -3.824843e+001 187 154 145
-1.603693e+001 5.521032e+001 -4.133942e+001 173 141 130
1.250141e+000 -5.831985e-001 -6.734668e+000 124 127 84
1.638480e+000 -8.135685e-001 -6.926388e+000 93 96 69
5.023768e+000 -4.828676e+000 -5.988597e+000 230 230 228
1.123207e+000 -2.952932e+000 -8.740743e+000 83 74 45
1.940259e-001 -9.836279e-001 -6.330838e+000 136 127 67
-1.377175e+000 -1.655929e+000 -5.977299e+000 106 105 74
-1.452576e+000 -2.608597e+000 -6.969865e+000 159 142 99
-3.580836e+000 -3.835714e+000 -7.172654e+000 82 78 53
-1.477035e+001 5.103282e+001 -3.694325e+001 98 71 62
-9.759122e-001 -1.661100e+000 -6.330524e+000 62 53 49
-9.759122e-001 -1.661100e+000 -6.330524e+000 62 53 49
1.455582e+000 -4.035553e+000 -9.925713e+000 187 171 156
-5.141293e+000 -8.460184e-001 -9.914319e+000 230 216 189
-2.861760e+000 -1.650428e+000 -4.611019e+000 105 117 68
9.902367e-001 -6.532275e-001 -6.456100e+000 92 96 60
9.902367e-001 -6.532275e-001 -6.456100e+000 92 96 60
-1.859999e+000 -1.391586e+000 -5.520839e+000 81 83 74
1.520698e+000 -7.131714e-001 -6.787072e+000 84 88 51
4.161570e+000 -4.081917e-001 -7.878609e+000 149 154 148
-2.451857e+000 -1.521922e+000 -5.334267e+000 83 85 74
-2.532767e+000 -1.574790e+000 -5.398341e+000 129 133 119
-2.532767e+000 -1.574790e+000 -5.398341e+000 129 133 119
-2.230804e+000 -1.516399e+000 -5.472283e+000 149 139 129
-1.816413e+000 -1.465253e+000 -5.597848e+000 124 127 116
-5.851500e-001 -1.179299e+000 -6.127066e+000 107 98 52
-5.851500e-001 -1.179299e+000 -6.127066e+000 107 98 52
1.879867e+000 -9.124269e-001 -7.151174e+000 113 117 81
3.383108e+000 -8.313499e-001 -7.829350e+000 92 105 77
-1.752657e+000 -1.572559e+000 -5.741261e+000 140 137 124
-1.754156e+000 -1.652418e+000 -5.789786e+000 84 86 75
-1.754156e+000 -1.652418e+000 -5.789786e+000 84 86 75
2.969445e+000 -9.319027e-001 -7.756829e+000 67 78 56
2.825300e+000 -1.158232e+000 -7.837088e+000 93 103 76
3.017059e+000 -1.049575e+000 -7.832047e+000 94 104 79
-2.012590e+000 -1.957168e+000 -5.926100e+000 74 74 64
-1.853095e+000 -1.855929e+000 -5.926936e+000 83 87 75
-1.892408e+000 -1.872522e+000 -5.939125e+000 129 136 122
-1.891957e+000 -1.872167e+000 -5.938656e+000 129 136 122
-4.400218e-001 -1.643635e+000 -6.569272e+000 144 135 95
3.498467e-001 -1.545279e+000 -6.863033e+000 156 147 104
1.593043e+000 -1.396546e+000 -7.439456e+000 79 75 47
1.874355e+000 -1.432119e+000 -7.558477e+000 122 122 83
2.020776e+000 -1.434561e+000 -7.653866e+000 115 117 80
-2.806141e+000 -2.193831e+000 -5.849687e+000 70 69 61
-9.401221e-001 -1.889893e+000 -6.596331e+000 146 139 95
-9.557144e-001 -1.943522e+000 -6.640905e+000 147 139 100
-6.904592e-001 -1.878533e+000 -6.763379e+000 149 139 105
-1.086919e-001 -1.808393e+000 -6.953173e+000 156 144 105
-1.086919e-001 -1.808393e+000 -6.953173e+000 156 144 105
4.989550e-001 -1.830414e+000 -7.258500e+000 154 145 105
2.132224e+000 -1.549038e+000 -7.886518e+000 112 117 76
2.132224e+000 -1.549038e+000 -7.886518e+000 112 117 76
-2.107204e+000 -2.194629e+000 -6.189358e+000 109 109 97
-4.688845e-001 -1.966297e+000 -6.894083e+000 156 144 105
-1.731718e-001 -1.948217e+000 -7.048194e+000 78 68 43
5.934438e-001 -1.972564e+000 -7.435222e+000 81 74 46
1.381369e+000 -1.776091e+000 -7.657739e+000 79 72 30
2.396610e+000 -1.652723e+000 -8.120652e+000 106 112 79
2.691713e+000 -1.634063e+000 -8.221192e+000 91 101 69
3.101986e+000 -1.710484e+000 -8.547550e+000 83 91 67
3.413473e+000 -1.618307e+000 -8.624125e+000 85 93 70
-1.050896e+000 -2.235040e+000 -6.866146e+000 146 137 108
1.599990e-001 -2.124623e+000 -7.423945e+000 156 147 108
5.906718e-001 -2.142029e+000 -7.569498e+000 151 139 91
1.688429e+000 -2.015637e+000 -8.092735e+000 134 127 81
2.601238e+000 -1.930744e+000 -8.446875e+000 93 100 69
-1.201055e+000 -2.434618e+000 -6.969606e+000 97 80 62
-7.887668e-001 -2.391521e+000 -7.164090e+000 157 146 118
-6.003695e-001 -2.354750e+000 -7.238421e+000 153 140 107
-8.393866e-001 -2.541815e+000 -7.285030e+000 146 136 109
-3.149588e-001 -2.415013e+000 -7.436845e+000 147 134 91
-3.126284e-001 -2.482540e+000 -7.518907e+000 151 136 96
-2.590118e-001 -2.453836e+000 -7.508622e+000 150 137 95
-1.215147e-001 -2.413980e+000 -7.565433e+000 147 134 89
-2.012922e-001 -2.486372e+000 -7.552188e+000 88 76 41
1.052025e-002 -2.367153e+000 -7.577129e+000 141 132 92
2.534747e+000 -2.148048e+000 -8.644394e+000 93 97 70
-8.589859e-001 -2.611978e+000 -7.327236e+000 149 139 112
-4.735550e-001 -2.566378e+000 -7.487498e+000 78 65 32
-3.799233e-001 -2.584914e+000 -7.568140e+000 90 77 43
-3.799233e-001 -2.584914e+000 -7.568140e+000 90 77 43
5.606646e-003 -2.600601e+000 -7.762302e+000 147 139 94
2.875215e+000 -2.391259e+000 -9.103985e+000 84 89 66
-2.093027e+000 -2.944005e+000 -7.065431e+000 137 123 97
-2.103621e+000 -2.994854e+000 -7.078010e+000 78 66 42
-9.529992e-001 -2.885005e+000 -7.569642e+000 144 135 105
-6.618454e-001 -2.756963e+000 -7.587246e+000 154 140 103
-4.593005e-001 -2.802968e+000 -7.757088e+000 86 77 44
-4.763863e-001 -2.894084e+000 -7.843512e+000 149 134 93
-4.763863e-001 -2.894084e+000 -7.843512e+000 149 134 93
-1.665014e-001 -2.879048e+000 -7.978527e+000 147 136 91
1.480164e+000 -2.624934e+000 -8.605602e+000 137 127 86
1.565328e+000 -2.648826e+000 -8.659218e+000 89 81 45
-1.110252e+000 -3.063682e+000 -7.699457e+000 89 78 50
-1.105032e+000 -3.117418e+000 -7.730243e+000 146 135 103
-1.103659e+000 -3.117102e+000 -7.732834e+000 146 135 103
-7.866244e-001 -2.996869e+000 -7.793039e+000 75 66 38
-9.719552e-001 -3.072789e+000 -7.770665e+000 74 59 37
-7.908653e-001 -3.076948e+000 -7.863301e+000 144 130 91
-8.259756e-001 -3.105834e+000 -7.882199e+000 83 72 42
-8.281192e-001 -3.110102e+000 -7.875541e+000 83 72 42
-7.420379e-001 -3.099615e+000 -7.934251e+000 144 131 95
-2.923163e-001 -2.911295e+000 -7.966211e+000 138 126 86
-4.597389e-001 -3.015657e+000 -8.005358e+000 141 133 86
-4.760765e-001 -3.070294e+000 -8.053469e+000 142 130 88
-1.345357e-001 -2.998968e+000 -8.091010e+000 144 136 97
-1.621121e-001 -3.064654e+000 -8.208261e+000 138 129 86
2.170190e+000 -2.792818e+000 -9.157322e+000 106 105 74
-1.982679e+000 -3.227958e+000 -7.382937e+000 142 133 91
-1.878699e+000 -3.210148e+000 -7.414762e+000 134 124 91
-1.436019e+000 -3.340695e+000 -7.847134e+000 145 130 90
-7.667276e-001 -3.160951e+000 -7.986245e+000 147 138 95
8.883605e-001 -3.112080e+000 -8.777980e+000 136 127 84
-3.364792e+000 -3.575943e+000 -7.042201e+000 123 117 77
-6.452993e-001 -3.320008e+000 -8.241767e+000 81 72 41
-5.725281e-001 -3.325120e+000 -8.290029e+000 136 131 91
-6.081566e-001 -3.447971e+000 -8.367701e+000 146 138 91
6.853502e-001 -3.249098e+000 -8.861597e+000 80 71 38
2.917050e+000 -3.117862e+000 -9.882836e+000 82 85 65
-3.502573e+000 -3.756191e+000 -7.164513e+000 72 68 32
-3.470785e+000 -3.774104e+000 -7.268701e+000 118 115 80
-2.512056e+000 -3.759947e+000 -7.670575e+000 127 122 92
-2.482091e+000 -3.794588e+000 -7.694001e+000 80 74 48
-1.577759e+000 -3.758273e+000 -8.165673e+000 135 128 88
-1.239683e+000 -3.697186e+000 -8.276377e+000 138 129 91
-8.062196e-001 -3.624435e+000 -8.466890e+000 137 128 89
-5.248838e-001 -3.552880e+000 -8.530857e+000 144 133 86
1.814578e+000 -3.352759e+000 -9.637580e+000 115 112 77
-3.474443e+000 -3.979004e+000 -7.399884e+000 72 69 36
-3.146522e+000 -3.966668e+000 -7.546625e+000 115 110 80
-2.463279e+000 -3.868901e+000 -7.831972e+000 129 121 86
-2.463279e+000 -3.868901e+000 -7.831972e+000 129 121 86
-1.292370e+000 -3.803038e+000 -8.467525e+000 151 145 113
-5.972818e-001 -3.753809e+000 -8.772449e+000 133 125 89
2.612201e+000 -3.606066e+000 -1.027912e+001 83 85 64
-2.544129e+000 -1.413901e+000 -5.228682e+000 71 71 59
-2.475215e+000 -1.380418e+000 -5.246361e+000 127 126 108
-4.506774e-001 -1.057745e+000 -6.040354e+000 145 137 90
1.873607e+000 -6.408983e-001 -6.892675e+000 74 79 56
-1.927882e+000 -1.588610e+000 -5.618173e+000 80 81 76
-5.099297e-001 -1.276443e+000 -6.206489e+000 145 135 84
1.995907e+000 -1.016702e+000 -7.247289e+000 114 118 84
2.661745e+000 -7.785363e-001 -7.458796e+000 98 108 81
2.609289e+000 -9.438003e-001 -7.551529e+000 94 104 77
2.721260e+000 -8.143067e-001 -7.483606e+000 65 71 54
2.774206e+000 -8.855125e-001 -7.581715e+000 95 104 76
3.100552e+000 -7.635902e-001 -7.635992e+000 92 106 77
3.097384e+000 -7.708570e-001 -7.626987e+000 92 106 77
3.259581e+000 -7.229080e-001 -7.684338e+000 96 106 82
3.231375e+000 -8.559315e-001 -7.837483e+000 95 105 79
3.716382e+000 -6.698213e-001 -7.850433e+000 95 106 83
-5.449303e-001 -1.411277e+000 -6.267625e+000 144 132 88
1.069113e-001 -1.301727e+000 -6.553847e+000 142 132 85
6.341665e-002 -1.456557e+000 -6.672629e+000 148 137 98
1.781063e+000 -1.256870e+000 -7.434886e+000 128 127 85
1.862333e+000 -1.221282e+000 -7.404836e+000 71 71 47
2.703873e+000 -1.117513e+000 -7.719464e+000 95 103 78
3.248092e+000 -1.011224e+000 -7.933789e+000 68 77 57
-2.699106e+000 -1.859338e+000 -5.537119e+000 72 75 64
-2.067808e+000 -1.879714e+000 -5.855710e+000 79 79 71
1.434160e-002 -1.613602e+000 -6.780470e+000 149 136 93
4.852211e-001 -1.493533e+000 -6.935093e+000 158 141 86
1.648179e+000 -1.344797e+000 -7.416442e+000 125 122 74
2.369109e+000 -1.256546e+000 -7.741799e+000 102 110 77
2.739889e+000 -1.258438e+000 -7.953996e+000 61 66 44
2.625979e+000 -1.379985e+000 -7.973604e+000 89 100 68
3.083380e+000 -1.323445e+000 -8.132906e+000 88 98 73
-2.678793e+000 -2.172086e+000 -5.841959e+000 131 135 116
-2.685759e+000 -2.212693e+000 -5.884130e+000 76 78 68
-7.501422e-001 -1.907868e+000 -6.649427e+000 75 68 40
-7.223778e-002 -1.693405e+000 -6.855652e+000 96 85 55
-1.373458e-001 -1.858356e+000 -6.970475e+000 78 64 37
7.503136e-001 -1.635974e+000 -7.195099e+000 156 144 88
2.455325e+000 -1.451212e+000 -7.917105e+000 100 106 78
2.422675e+000 -1.550628e+000 -7.984368e+000 107 114 81
2.431309e+000 -1.531885e+000 -8.001078e+000 107 114 81
2.641456e+000 -1.530704e+000 -8.106376e+000 60 68 47
-2.290385e+000 -2.232783e+000 -6.125540e+000 75 77 65
-8.848264e-001 -2.104778e+000 -6.840239e+000 144 134 104
-8.848264e-001 -2.104778e+000 -6.840239e+000 144 134 104
1.101956e+000 -1.928566e+000 -7.622019e+000 157 140 71
1.834348e+000 -1.782641e+000 -7.944726e+000 80 77 43
1.741006e+000 -1.847023e+000 -7.951884e+000 132 126 78
1.932733e+000 -1.716719e+000 -7.919128e+000 124 122 73
-9.300453e-001 -2.241479e+000 -6.988199e+000 153 139 108
-3.257023e-001 -2.264429e+000 -7.286606e+000 158 145 109
-2.127674e-001 -2.127061e+000 -7.172496e+000 92 82 56
-2.058204e-001 -2.100395e+000 -7.202556e+000 92 82 56
2.827568e-001 -2.131074e+000 -7.459029e+000 150 138 96
5.503824e-001 -2.050111e+000 -7.524422e+000 93 83 59
5.646809e-001 -2.202886e+000 -7.681283e+000 150 138 80
1.340136e+000 -1.939510e+000 -7.879068e+000 85 77 45
1.479998e+000 -1.985323e+000 -7.903280e+000 79 74 37
1.661645e+000 -2.097791e+000 -8.156100e+000 141 130 81
1.661645e+000 -2.097791e+000 -8.156100e+000 141 130 81
1.818898e+000 -2.060953e+000 -8.165975e+000 131 127 79
2.277564e+000 -2.009938e+000 -8.373610e+000 108 109 70
2.277564e+000 -2.009938e+000 -8.373610e+000 108 109 70
2.991454e+000 -1.824652e+000 -8.592341e+000 60 67 44
-9.723307e-001 -2.391766e+000 -7.060005e+000 147 137 102
-1.064479e-001 -2.378100e+000 -7.469125e+000 148 136 92
5.405273e-001 -2.273756e+000 -7.743256e+000 153 143 88
1.249646e+000 -2.208484e+000 -8.031716e+000 80 74 42
2.885351e+000 -2.173520e+000 -8.964705e+000 63 71 52
-1.290942e+000 -2.590555e+000 -7.105663e+000 55 48 38
-1.193948e+000 -2.685148e+000 -7.225097e+000 153 140 102
-5.393994e-001 -2.687609e+000 -7.575481e+000 83 73 45
-8.990158e-002 -2.533131e+000 -7.654785e+000 91 80 50
1.444909e-001 -2.555959e+000 -7.815565e+000 147 135 92
1.444909e-001 -2.555959e+000 -7.815565e+000 147 135 92
5.632821e-001 -2.607656e+000 -8.066228e+000 145 133 80
5.646936e-001 -2.601651e+000 -8.073379e+000 145 133 80
8.898105e-001 -2.396448e+000 -8.073046e+000 82 72 42
8.186517e-001 -2.583239e+000 -8.223665e+000 86 77 45
1.573990e+000 -2.357099e+000 -8.386976e+000 135 126 77
1.573990e+000 -2.357099e+000 -8.386976e+000 135 126 77
1.506317e+000 -2.548626e+000 -8.507117e+000 133 126 74
1.724597e+000 -2.351423e+000 -8.486512e+000 125 121 74
1.870678e+000 -2.360503e+000 -8.547689e+000 117 114 73
2.036958e+000 -2.297503e+000 -8.583564e+000 116 114 75
2.040738e+000 -2.290009e+000 -8.595886e+000 116 114 75
2.001480e+000 -2.388218e+000 -8.591142e+000 117 115 76
2.215719e+000 -2.405733e+000 -8.713917e+000 74 73 48
2.161041e+000 -2.377403e+000 -8.790109e+000 110 110 76
-1.683718e+000 -2.884772e+000 -7.197135e+000 148 138 100
-6.471127e-001 -2.816233e+000 -7.667822e+000 149 138 92
-5.175801e-001 -2.823166e+000 -7.757140e+000 149 137 92
-5.379844e-001 -2.900604e+000 -7.811416e+000 153 140 96
-3.278512e-001 -2.834977e+000 -7.887948e+000 79 72 44
3.841576e-002 -2.844983e+000 -8.092455e+000 142 130 82
3.841576e-002 -2.844983e+000 -8.092455e+000 142 130 82
5.667704e-001 -2.591521e+000 -8.171505e+000 145 134 78
9.066223e-001 -2.636989e+000 -8.305363e+000 83 75 38
2.073206e+000 -2.605786e+000 -8.816124e+000 104 104 66
2.978498e+000 -2.514663e+000 -9.313662e+000 83 88 66
3.024266e+000 -2.574948e+000 -9.360787e+000 58 63 41
-2.202107e+000 -3.082785e+000 -7.128425e+000 143 130 95
-1.896732e+000 -3.084577e+000 -7.301262e+000 135 125 90
-5.013004e-001 -2.941798e+000 -7.861629e+000 62 53 21
2.187104e-002 -2.890291e+000 -8.149667e+000 132 123 77
2.187104e-002 -2.890291e+000 -8.149667e+000 132 123 77
2.751254e-001 -2.872094e+000 -8.214876e+000 78 73 40
6.865238e-001 -2.941290e+000 -8.496507e+000 89 79 52
1.242103e+000 -2.887934e+000 -8.758764e+000 147 138 91
1.571018e+000 -2.801056e+000 -8.906526e+000 132 124 84
2.485991e+000 -2.696962e+000 -9.244440e+000 90 94 67
2.295046e+000 -2.827132e+000 -9.249066e+000 96 99 69
2.428011e+000 -2.865816e+000 -9.388979e+000 92 94 69
2.428011e+000 -2.865816e+000 -9.388979e+000 92 94 69
2.569139e+000 -2.866211e+000 -9.411113e+000 91 94 67
2.561556e+000 -2.881216e+000 -9.387963e+000 91 94 67
2.887171e+000 -2.815238e+000 -9.617581e+000 79 84 62
-2.874644e+000 -3.355783e+000 -7.057787e+000 123 117 80
-2.262478e+000 -3.271656e+000 -7.281551e+000 134 124 88
-1.358992e+000 -3.349547e+000 -7.860320e+000 87 75 52
-8.764720e-001 -3.302815e+000 -8.090803e+000 101 90 62
-8.049063e-001 -3.272508e+000 -8.077565e+000 147 135 86
-8.028196e-001 -3.259763e+000 -8.099290e+000 147 135 86
-4.904641e-001 -3.108650e+000 -8.073153e+000 141 129 89
-3.731265e-001 -3.154782e+000 -8.186764e+000 131 124 78
-4.032663e-001 -3.229702e+000 -8.250970e+000 143 132 86
1.251024e+000 -3.059407e+000 -8.951709e+000 86 78 50
1.366688e+000 -3.145012e+000 -9.120355e+000 82 76 47
1.369683e+000 -3.135921e+000 -9.136572e+000 82 76 47
1.619021e+000 -3.073857e+000 -9.168478e+000 122 116 80
1.754472e+000 -3.095298e+000 -9.223959e+000 116 112 75
1.761769e+000 -3.080075e+000 -9.244485e+000 116 112 75
2.189737e+000 -2.913883e+000 -9.304159e+000 68 67 46
2.169348e+000 -2.974573e+000 -9.364564e+000 70 70 44
2.318956e+000 -2.943631e+000 -9.364873e+000 61 63 39
2.735422e+000 -2.874250e+000 -9.606004e+000 88 91 69
2.749429e+000 -3.005667e+000 -9.762759e+000 56 60 39
2.891442e+000 -2.995936e+000 -9.804746e+000 57 60 39
-2.587473e+000 -3.523983e+000 -7.408796e+000 73 67 45
-2.630249e+000 -3.601420e+000 -7.438396e+000 79 74 46
-2.519762e+000 -3.579115e+000 -7.474646e+000 115 108 79
-1.343821e+000 -3.439630e+000 -7.979794e+000 146 138 98
-9.415355e-001 -3.448254e+000 -8.241026e+000 93 83 56
-9.415355e-001 -3.448254e+000 -8.241026e+000 93 83 56
-8.476479e-001 -3.379544e+000 -8.178912e+000 139 131 85
-6.626966e-001 -3.400450e+000 -8.297546e+000 86 76 49
-4.422075e-001 -3.332677e+000 -8.386798e+000 138 129 85
-5.468518e-001 -3.442289e+000 -8.421635e+000 85 75 54
-1.220583e-001 -3.311669e+000 -8.505277e+000 133 128 78
-5.788851e-002 -3.326480e+000 -8.531498e+000 82 73 47
2.827277e-001 -3.393025e+000 -8.815634e+000 139 133 85
3.460390e-001 -3.402952e+000 -8.859006e+000 77 71 37
6.194031e-001 -3.323478e+000 -8.954213e+000 135 126 82
6.240726e-001 -3.308612e+000 -8.973703e+000 135 126 82
5.833494e-001 -3.422428e+000 -8.986766e+000 133 122 81
1.097800e+000 -3.286947e+000 -9.111191e+000 135 127 77
1.102503e+000 -3.277273e+000 -9.123560e+000 135 127 77
1.063547e+000 -3.383343e+000 -9.189496e+000 129 120 63
1.348847e+000 -3.227689e+000 -9.202514e+000 78 73 45
1.532196e+000 -3.312899e+000 -9.439275e+000 123 116 77
2.266766e+000 -3.118404e+000 -9.572125e+000 65 67 45
2.684354e+000 -3.176565e+000 -9.842090e+000 58 61 39
2.775020e+000 -3.123357e+000 -9.818414e+000 84 87 66
2.849904e+000 -3.150941e+000 -1.001824e+001 59 62 45
-3.451473e+000 -3.747213e+000 -7.167039e+000 118 113 76
-3.064638e+000 -3.662401e+000 -7.272714e+000 125 118 76
-3.064638e+000 -3.662401e+000 -7.272714e+000 125 118 76
-3.086731e+000 -3.721347e+000 -7.293404e+000 73 68 45
-2.555594e+000 -3.793225e+000 -7.688746e+000 77 71 47
-2.104124e+000 -3.644595e+000 -7.810609e+000 129 123 87
-9.485503e-001 -3.641617e+000 -8.422048e+000 138 130 82
-9.076093e-001 -3.540429e+000 -8.338266e+000 140 133 81
-8.375523e-001 -3.703344e+000 -8.545239e+000 136 127 85
6.384758e-002 -3.462744e+000 -8.768954e+000 87 79 56
2.394523e-001 -3.511600e+000 -8.895347e+000 147 137 97
3.005257e-001 -3.514504e+000 -8.940488e+000 92 83 55
5.289515e-001 -3.570939e+000 -9.131628e+000 145 135 92
1.190418e+000 -3.430068e+000 -9.323445e+000 132 124 77
1.285315e+000 -3.582932e+000 -9.559285e+000 127 120 79
1.284729e+000 -3.583559e+000 -9.558430e+000 127 120 79
1.490958e+000 -3.419405e+000 -9.479815e+000 121 113 77
1.898352e+000 -3.514950e+000 -9.810066e+000 108 108 80
2.652076e+000 -3.313507e+000 -1.002580e+001 57 58 39
-2.554229e+000 -3.966798e+000 -7.853711e+000 90 85 60
-2.306919e+000 -3.838593e+000 -7.892123e+000 122 119 78
-2.430737e+000 -3.941738e+000 -7.966110e+000 88 82 56
-2.006261e+000 -3.822547e+000 -8.048117e+000 129 126 85
-9.722829e-001 -3.727748e+000 -8.482034e+000 142 134 85
-9.726022e-001 -3.749121e+000 -8.457326e+000 142 134 85
-1.063565e+000 -3.799721e+000 -8.534477e+000 80 69 50
-5.381568e-001 -3.777624e+000 -8.814942e+000 92 81 51
-5.331840e-001 -3.830927e+000 -8.847448e+000 144 132 84
-3.515775e-001 -3.751288e+000 -8.880012e+000 86 78 59
-4.399508e-002 -3.736800e+000 -9.035508e+000 74 67 41
2.751008e-002 -3.718851e+000 -9.025269e+000 144 132 77
2.751008e-002 -3.718851e+000 -9.025269e+000 144 132 77
4.904938e-001 -3.675430e+000 -9.229500e+000 139 136 85
9.527388e-001 -3.677049e+000 -9.414308e+000 133 125 78
1.247281e+000 -3.687062e+000 -9.577483e+000 125 116 76
1.247281e+000 -3.687062e+000 -9.577483e+000 125 116 76
1.574188e+000 -3.604481e+000 -9.777617e+000 117 113 76
1.710109e+000 -3.606200e+000 -9.787111e+000 112 109 76
2.649621e+000 -3.520467e+000 -1.024780e+001 88 89 72
7.989136e-001 -7.116808e-001 -6.408953e+000 131 128 82
-2.281883e+000 -1.323442e+000 -5.274039e+000 78 83 74
1.995325e+000 -7.549934e-001 -7.052577e+000 74 78 53
2.396291e+000 -9.100363e-001 -7.399894e+000 69 77 54
2.760190e+000 -6.952388e-001 -7.487309e+000 64 73 54
2.737223e+000 -7.453887e-001 -7.434985e+000 64 73 54
3.371552e+000 -6.276899e-001 -7.703841e+000 61 70 56
3.351004e+000 -6.681886e-001 -7.669014e+000 61 70 56
3.768375e+000 -7.684936e-001 -7.997682e+000 62 73 53
-3.778343e-002 -1.365276e+000 -6.526341e+000 145 136 92
9.226845e-001 -1.310167e+000 -6.995842e+000 93 88 60
2.630174e+000 -1.083945e+000 -7.630706e+000 67 72 52
3.157249e+000 -8.620891e-001 -7.851499e+000 63 72 52
3.107322e+000 -1.007506e+000 -7.916181e+000 66 75 57
3.107322e+000 -1.007506e+000 -7.916181e+000 66 75 57
-2.205715e+000 -1.802510e+000 -5.744025e+000 150 145 126
-9.905795e-001 -1.706120e+000 -6.355634e+000 74 59 40
-5.090198e-001 -1.725850e+000 -6.625971e+000 86 75 50
1.958559e+000 -1.385946e+000 -7.623666e+000 79 79 52
2.101644e+000 -1.377647e+000 -7.671252e+000 75 79 55
2.541939e+000 -1.395506e+000 -7.918095e+000 67 72 51
2.742460e+000 -1.221727e+000 -7.828504e+000 61 70 49
3.082682e+000 -1.112710e+000 -8.029943e+000 59 68 49
-5.477996e-001 -1.852019e+000 -6.716652e+000 96 87 59
-1.102014e-001 -1.770027e+000 -6.892605e+000 107 95 64
3.659160e-001 -1.672278e+000 -7.034585e+000 92 83 55
3.659160e-001 -1.672278e+000 -7.034585e+000 92 83 55
2.955326e-001 -1.862327e+000 -7.154132e+000 88 81 53
4.787708e-001 -1.750657e+000 -7.186067e+000 89 80 46
4.787708e-001 -1.750657e+000 -7.186067e+000 89 80 46
1.762125e+000 -1.540132e+000 -7.640087e+000 69 67 40
1.724533e+000 -1.669551e+000 -7.777768e+000 87 84 53
-9.542577e-001 -2.108197e+000 -6.845826e+000 97 87 62
2.917934e-001 -1.902402e+000 -7.261477e+000 95 86 54
4.004259e-001 -1.975659e+000 -7.353947e+000 76 68 47
1.648680e+000 -1.871401e+000 -7.899658e+000 86 81 54
1.648680e+000 -1.871401e+000 -7.899658e+000 86 81 54
2.054589e+000 -1.843528e+000 -8.118231e+000 115 115 65
2.614897e+000 -1.632842e+000 -8.203465e+000 63 71 48
2.904714e+000 -1.645887e+000 -8.351259e+000 65 73 53
3.529612e+000 -1.495271e+000 -8.581095e+000 55 64 41
-1.208366e+000 -2.318916e+000 -6.922986e+000 92 77 58
-6.709341e-001 -2.198953e+000 -7.008897e+000 105 94 79
-7.088763e-001 -2.325724e+000 -7.127937e+000 85 72 56
-2.950983e-001 -2.153239e+000 -7.157936e+000 152 140 99
-3.006720e-001 -2.201927e+000 -7.244756e+000 159 146 104
1.635720e+000 -1.936953e+000 -7.979007e+000 91 85 53
1.714059e+000 -1.944011e+000 -7.995286e+000 139 129 75
2.197523e+000 -2.019643e+000 -8.368710e+000 68 68 44
-4.584385e-001 -2.440475e+000 -7.382879e+000 105 91 65
-4.105221e-001 -2.470616e+000 -7.454108e+000 155 142 98
-1.511537e-001 -2.334962e+000 -7.426996e+000 94 84 57
1.408560e+000 -2.169830e+000 -8.060219e+000 78 69 36
2.341513e+000 -2.065071e+000 -8.506808e+000 72 74 49
2.404461e+000 -2.106496e+000 -8.633838e+000 100 104 68
2.388083e+000 -2.140937e+000 -8.590851e+000 100 104 68
2.563313e+000 -2.238908e+000 -8.739012e+000 64 69 46
-1.146810e+000 -2.707537e+000 -7.288762e+000 99 89 64
-6.124939e-001 -2.545414e+000 -7.411802e+000 96 86 61
-6.703528e-001 -2.698460e+000 -7.545787e+000 93 86 60
-2.268647e-001 -2.548539e+000 -7.613105e+000 121 109 69
4.862805e-001 -2.635874e+000 -8.036116e+000 90 81 52
4.862805e-001 -2.635874e+000 -8.036116e+000 90 81 52
1.293113e+000 -2.552749e+000 -8.434488e+000 81 75 41
1.453099e+000 -2.491999e+000 -8.440787e+000 81 73 51
1.735438e+000 -2.525817e+000 -8.656007e+000 82 78 50
2.486280e+000 -2.456353e+000 -8.983354e+000 66 70 46
-5.572163e-001 -2.717109e+000 -7.631757e+000 101 89 58
-5.559946e-001 -2.714654e+000 -7.634889e+000 101 89 58
6.214098e-002 -2.747043e+000 -7.993383e+000 129 122 76
1.570960e-001 -2.696719e+000 -7.979761e+000 80 68 44
7.458886e-001 -2.776340e+000 -8.287609e+000 82 73 40
2.461207e+000 -2.551277e+000 -9.065199e+000 63 67 42
-1.267652e+000 -3.073623e+000 -7.619929e+000 82 77 46
-1.050006e+000 -3.124215e+000 -7.783529e+000 93 85 56
-1.050006e+000 -3.124215e+000 -7.783529e+000 93 85 56
-5.454156e-001 -3.103886e+000 -8.001786e+000 92 82 54
-3.638766e-001 -2.929963e+000 -7.939523e+000 84 74 49
-3.817754e-001 -2.999191e+000 -8.014395e+000 98 89 58
4.966367e-001 -2.969551e+000 -8.445629e+000 87 76 55
6.637475e-001 -3.006195e+000 -8.595781e+000 87 77 50
1.283078e+000 -2.772258e+000 -8.695544e+000 131 122 65
1.500433e+000 -2.768850e+000 -8.757834e+000 83 80 45
1.945571e+000 -2.761159e+000 -9.021195e+000 79 75 50
1.908434e+000 -2.870648e+000 -9.105159e+000 77 76 48
2.349356e+000 -2.865068e+000 -9.323475e+000 71 74 47
2.507872e+000 -2.838216e+000 -9.393523e+000 67 69 45
-3.209722e+000 -3.457495e+000 -7.023242e+000 127 118 73
-2.556035e+000 -3.288418e+000 -7.159011e+000 132 126 91
-1.551262e+000 -3.305084e+000 -7.707801e+000 89 74 56
-1.005546e+000 -3.184759e+000 -7.908622e+000 87 75 50
-8.309947e-001 -3.182140e+000 -7.993424e+000 86 75 45
-1.038183e+000 -3.286193e+000 -7.979191e+000 98 87 60
-7.478276e-001 -3.262045e+000 -8.166774e+000 99 89 54
1.937368e-001 -3.100353e+000 -8.432299e+000 77 70 43
1.954550e-001 -3.096715e+000 -8.433659e+000 77 70 43
1.216338e+000 -3.144442e+000 -8.996821e+000 89 82 54
1.724148e+000 -2.979230e+000 -9.068551e+000 78 72 46
2.463286e+000 -2.935824e+000 -9.476383e+000 65 67 45
2.358684e+000 -3.066092e+000 -9.595082e+000 95 99 72
3.035319e+000 -2.998214e+000 -9.896250e+000 54 57 36
-3.100438e+000 -3.549939e+000 -7.153423e+000 125 113 71
-2.315098e+000 -3.554986e+000 -7.630558e+000 90 87 56
-1.387908e+000 -3.406027e+000 -7.916492e+000 95 84 62
-7.614654e-001 -3.498982e+000 -8.345107e+000 137 127 76
-6.867061e-001 -3.494609e+000 -8.364960e+000 94 84 57
-4.061085e-001 -3.410638e+000 -8.422163e+000 90 83 55
7.192264e-001 -3.228063e+000 -8.881843e+000 93 84 54
6.690187e-001 -3.375520e+000 -8.917060e+000 88 77 49
1.148797e+000 -3.363968e+000 -9.253586e+000 76 69 41
1.493374e+000 -3.218929e+000 -9.273492e+000 84 80 54
1.930555e+000 -3.191303e+000 -9.370931e+000 71 71 48
1.986024e+000 -3.272170e+000 -9.570703e+000 105 102 69
2.383348e+000 -3.214859e+000 -9.880927e+000 63 62 40
-3.213727e+000 -3.690734e+000 -7.239842e+000 69 64 44
-3.213709e+000 -3.692022e+000 -7.238306e+000 69 64 44
-3.194163e+000 -3.828009e+000 -7.374630e+000 117 116 85
-9.748860e-001 -3.572864e+000 -8.265225e+000 102 91 63
-7.787396e-001 -3.576083e+000 -8.434078e+000 144 132 92
-5.610236e-001 -3.481560e+000 -8.497299e+000 90 84 50
-4.413004e-001 -3.498250e+000 -8.513519e+000 95 88 59
-6.151181e-001 -3.643126e+000 -8.590198e+000 100 93 67
-1.800442e-001 -3.614327e+000 -8.776973e+000 86 81 59
1.259846e+000 -3.427904e+000 -9.329218e+000 80 77 45
1.405357e+000 -3.434830e+000 -9.423390e+000 71 64 37
1.708294e+000 -3.432517e+000 -9.641912e+000 75 71 52
1.657901e+000 -3.556964e+000 -9.712277e+000 80 76 47
2.110396e+000 -3.528459e+000 -9.896748e+000 72 72 48
2.692661e+000 -3.547933e+000 -1.011159e+001 55 58 42
3.321265e+000 -3.436537e+000 -1.054248e+001 131 121 109
-2.135289e-001 -3.731402e+000 -8.958556e+000 89 83 58
2.326723e-001 -3.700274e+000 -9.085243e+000 81 77 48
1.190917e+000 -3.656977e+000 -9.611370e+000 80 75 46
1.614786e+000 -3.663077e+000 -9.802659e+000 75 70 50
3.244652e+000 -3.580356e+000 -1.054037e+001 139 127 115
-4.877006e-001 -1.144670e+000 -6.119575e+000 142 132 81
-2.832575e+000 -1.688915e+000 -5.349352e+000 76 79 70
-2.884649e+000 -1.801960e+000 -5.412474e+000 77 80 73
-2.284759e+000 -1.676639e+000 -5.573321e+000 152 146 134
1.748473e+000 -1.140843e+000 -7.300207e+000 78 78 52
-2.924772e+000 -1.889126e+000 -5.502873e+000 72 76 62
-2.920367e+000 -1.901415e+000 -5.494911e+000 72 76 62
-1.941763e+000 -1.958021e+000 -5.995339e+000 137 135 126
-2.914447e+000 -2.083552e+000 -5.692574e+000 76 76 66
-2.727621e+000 -2.106322e+000 -5.763844e+000 102 104 90
-2.868411e+000 -2.174659e+000 -5.781459e+000 70 76 62
-2.868411e+000 -2.174659e+000 -5.781459e+000 70 76 62
-1.632608e+000 -2.963072e+000 -7.300219e+000 95 85 58
-1.632608e+000 -2.963072e+000 -7.300219e+000 95 85 58
-1.821975e+000 -3.071000e+000 -7.296737e+000 84 73 52
-3.243865e+000 -3.601460e+000 -7.056810e+000 123 117 72
-2.459629e+000 -3.596951e+000 -7.546254e+000 79 73 50
-2.460937e+000 -3.592773e+000 -7.553128e+000 79 73 50
-2.252936e+000 -3.463296e+000 -7.506047e+000 79 72 52
2.070057e+000 -3.237430e+000 -9.549945e+000 70 69 49
-6.034387e-001 -1.484408e+000 -6.374865e+000 147 137 85
-1.820255e-001 -1.338873e+000 -6.446722e+000 149 139 91
-2.557136e+000 -3.141939e+000 -6.945474e+000 138 125 85
-2.181802e+000 -3.102606e+000 -7.175421e+000 143 129 90
-2.181730e+000 -3.100658e+000 -7.177670e+000 143 129 90
-3.741878e+000 -3.493625e+000 -6.802775e+000 146 167 103
-1.844356e+000 -3.724900e+000 -8.004307e+000 132 125 81
3.175756e-001 -1.001829e+000 -6.302940e+000 140 132 75
-2.543611e+000 -2.310301e+000 -6.033153e+000 102 104 93
-2.474238e+000 -1.595758e+000 -5.395765e+000 85 83 69
3.106658e+000 -1.256597e+000 -8.117527e+000 89 97 66
-3.290101e-001 -1.663033e+000 -6.688647e+000 144 132 83
-1.095593e+000 -2.362014e+000 -7.004442e+000 145 130 97
3.649247e-002 -2.296414e+000 -7.500495e+000 140 129 94
2.449318e+000 -2.109965e+000 -8.575773e+000 62 61 33
1.761995e+000 -2.388065e+000 -8.484496e+000 84 75 42
8.289514e-001 -2.747534e+000 -8.399714e+000 141 132 75
-1.756887e+000 -3.067878e+000 -7.349756e+000 143 128 89
-1.639477e+000 -3.042111e+000 -7.373765e+000 108 94 66
-2.725402e+000 -3.300296e+000 -7.100681e+000 131 118 84
-1.620109e+000 -3.300737e+000 -7.674480e+000 70 51 44
-6.383944e-001 -3.159741e+000 -8.035049e+000 153 138 97
-6.384182e-001 -3.161459e+000 -8.035918e+000 153 138 97
-1.952535e+000 -3.402322e+000 -7.580707e+000 87 76 47
-1.130603e+000 -3.528122e+000 -8.187945e+000 80 68 46
-1.130603e+000 -3.528122e+000 -8.187945e+000 80 68 46
-2.810342e+000 -3.778329e+000 -7.540457e+000 87 78 45
-1.774983e+000 -3.608503e+000 -7.919650e+000 134 122 84
-1.551553e+000 -3.688753e+000 -8.110757e+000 139 129 94
9.654333e-001 -3.644192e+000 -9.451192e+000 140 132 83
3.142904e+000 -3.768664e+000 -1.030861e+001 144 128 113
-3.154826e+000 -3.909166e+000 -7.488655e+000 122 116 82
-3.155573e+000 -3.909407e+000 -7.487509e+000 122 116 82
-2.913143e+000 -3.858588e+000 -7.575249e+000 129 119 83
-3.147208e+000 -3.999178e+000 -7.600640e+000 93 86 57
-3.084722e+000 -3.987882e+000 -7.606500e+000 118 109 75
-2.148534e+000 -3.848517e+000 -7.983836e+000 89 80 51
-2.367298e+000 -3.937171e+000 -7.977151e+000 121 111 81
-2.037985e+000 -3.903962e+000 -8.107255e+000 128 117 85
3.064285e+000 -1.402149e+000 -8.244565e+000 90 96 68
3.405327e+000 -1.467088e+000 -8.566244e+000 61 66 45
3.414864e+000 -1.614875e+000 -8.640155e+000 84 90 64
-1.004678e+000 -2.468198e+000 -7.151635e+000 152 133 100
2.371876e+000 -2.168149e+000 -8.636367e+000 91 91 55
-1.196428e+000 -2.534612e+000 -7.091884e+000 62 48 38
6.295761e-001 -2.618750e+000 -8.127745e+000 84 70 41
1.382621e+000 -2.467586e+000 -8.368035e+000 136 130 80
2.322643e+000 -2.527949e+000 -8.949698e+000 71 71 47
3.111628e+000 -2.316949e+000 -9.175708e+000 64 67 44
-1.209830e+000 -2.707382e+000 -7.300254e+000 144 130 95
-5.697230e-001 -2.962940e+000 -7.872352e+000 146 133 89
-3.498225e-001 -3.068621e+000 -8.103018e+000 144 132 82
-1.223981e+000 -3.323088e+000 -7.891508e+000 107 94 62
-5.822711e-001 -3.163337e+000 -8.069941e+000 117 102 70
3.919536e-001 -3.287766e+000 -8.714547e+000 84 73 43
-2.160087e+000 -3.404435e+000 -7.489807e+000 143 125 90
-2.182213e+000 -3.465144e+000 -7.536348e+000 137 122 86
-4.125305e-001 -3.439653e+000 -8.474814e+000 112 98 70
1.838280e+000 -3.461783e+000 -9.715130e+000 77 73 48
-1.114356e-002 -3.660711e+000 -8.933951e+000 89 74 50
1.140396e-001 -3.662280e+000 -9.019247e+000 90 78 52
1.220362e+000 -3.551667e+000 -9.521048e+000 80 74 42
-3.511033e+000 -3.955836e+000 -7.323317e+000 119 114 77
-2.378084e+000 -3.823945e+000 -7.814036e+000 129 118 82
2.496634e-001 -3.781500e+000 -9.220874e+000 149 133 88
-2.595549e+000 -2.115074e+000 -5.854454e+000 92 90 77
-2.686496e-001 -3.032978e+000 -8.114234e+000 100 89 57
-1.500431e+000 -3.718268e+000 -8.212485e+000 76 62 36
-1.376634e+000 -3.725160e+000 -8.273605e+000 93 78 56
1.440882e+000 -1.615672e+000 -7.532976e+000 142 127 65
-2.107982e+000 -3.469182e+000 -7.594450e+000 101 92 61
-2.107982e+000 -3.469182e+000 -7.594450e+000 101 92 61
3.657640e-002 -3.304723e+000 -8.567493e+000 123 110 72
-1.929675e+000 -3.271893e+000 -7.470794e+000 109 99 64
-1.385904e-001 -7.447559e-001 -5.918490e+000 92 86 50
-2.565603e+000 -1.373706e+000 -5.173018e+000 132 133 99
1.946132e+000 -6.474149e-001 -6.918842e+000 117 124 92
2.787325e+000 -6.099809e-001 -7.385464e+000 65 77 54
2.849269e+000 -5.984934e-001 -7.355679e+000 104 117 91
2.849269e+000 -5.984934e-001 -7.355679e+000 104 117 91
4.151846e+000 -2.600852e-001 -7.903727e+000 199 207 198
-2.557858e+000 -1.606260e+000 -5.329161e+000 127 129 118
-2.309364e+000 -1.506385e+000 -5.324348e+000 138 140 129
-2.255596e+000 -1.508035e+000 -5.377462e+000 138 142 127
-2.109771e+000 -1.417979e+000 -5.398906e+000 93 93 86
-1.765618e+000 -1.383229e+000 -5.577179e+000 135 131 112
-2.462217e-001 -1.230318e+000 -6.307532e+000 142 133 89
1.592056e+000 -8.459435e-001 -6.918903e+000 86 86 60
2.236356e+000 -7.137733e-001 -7.223381e+000 104 113 86
3.587490e+000 -6.538130e-001 -7.838084e+000 94 106 82
-2.647490e+000 -1.681585e+000 -5.371030e+000 78 79 70
-1.824975e+000 -1.599046e+000 -5.669859e+000 137 139 128
-1.795685e+000 -1.678160e+000 -5.764297e+000 139 143 127
-9.487777e-001 -1.293375e+000 -6.060559e+000 61 57 53
-2.039235e-001 -1.334152e+000 -6.396748e+000 148 136 89
-2.390236e-001 -1.424391e+000 -6.511582e+000 101 90 58
4.162620e-001 -1.323368e+000 -6.753964e+000 147 139 93
8.334896e-001 -1.091058e+000 -6.814105e+000 87 82 50
2.466821e+000 -9.287850e-001 -7.501682e+000 99 111 81
2.768454e+000 -8.954959e-001 -7.569475e+000 105 117 95
3.221796e+000 -8.876949e-001 -7.820950e+000 97 109 85
-2.760982e+000 -1.876354e+000 -5.498345e+000 82 85 76
-2.760982e+000 -1.876354e+000 -5.498345e+000 82 85 76
-2.060846e+000 -1.865016e+000 -5.756992e+000 142 138 127
-1.997027e+000 -1.879277e+000 -5.862805e+000 80 82 70
-1.846631e+000 -1.739144e+000 -5.829838e+000 75 79 65
-1.541358e+000 -1.756487e+000 -5.971076e+000 131 127 90
-1.541358e+000 -1.756487e+000 -5.971076e+000 131 127 90
-4.477290e-001 -1.661082e+000 -6.554634e+000 141 133 85
-2.143397e-002 -1.487357e+000 -6.672822e+000 150 141 84
1.122798e+000 -1.391393e+000 -7.190548e+000 109 97 52
1.680911e+000 -1.314924e+000 -7.442983e+000 130 123 84
1.810978e+000 -1.370740e+000 -7.560168e+000 117 115 74
-2.930236e+000 -1.975922e+000 -5.531037e+000 128 127 100
-2.930236e+000 -1.975922e+000 -5.531037e+000 128 127 100
-2.765365e+000 -1.998659e+000 -5.638193e+000 89 90 79
-2.653885e+000 -1.913091e+000 -5.761303e+000 141 133 120
-1.621845e+000 -1.949311e+000 -6.088491e+000 97 97 65
-1.474269e+000 -1.969763e+000 -6.210858e+000 96 96 65
-7.518321e-001 -1.718941e+000 -6.575217e+000 147 135 92
-6.234944e-001 -1.784341e+000 -6.562272e+000 87 78 46
-6.114726e-001 -1.872213e+000 -6.673978e+000 145 135 101
-1.670661e-001 -1.630113e+000 -6.772358e+000 84 76 40
-3.306647e-001 -1.734343e+000 -6.758837e+000 92 80 53
-5.690305e-002 -1.681374e+000 -6.864360e+000 90 75 46
-5.683571e-003 -1.667629e+000 -6.869799e+000 154 142 103
-5.683571e-003 -1.667629e+000 -6.869799e+000 154 142 103
6.848450e-002 -1.746063e+000 -6.948548e+000 95 83 58
6.848450e-002 -1.746063e+000 -6.948548e+000 95 83 58
3.045573e-001 -1.679201e+000 -7.025229e+000 146 137 92
2.901219e-001 -1.726155e+000 -7.029381e+000 160 151 109
4.401103e-001 -1.646912e+000 -7.089228e+000 150 137 95
4.401103e-001 -1.646912e+000 -7.089228e+000 150 137 95
2.014092e+000 -1.462510e+000 -7.734476e+000 121 124 79
2.014092e+000 -1.462510e+000 -7.734476e+000 121 124 79
3.249985e+000 -1.271129e+000 -8.212337e+000 92 102 76
3.249985e+000 -1.271129e+000 -8.212337e+000 92 102 76
-2.394137e+000 -2.245113e+000 -6.026484e+000 81 83 70
-2.394137e+000 -2.245113e+000 -6.026484e+000 81 83 70
-1.989728e+000 -2.192140e+000 -6.079913e+000 137 139 126
-1.943186e+000 -2.128082e+000 -6.113522e+000 75 79 65
-6.984038e-001 -1.916519e+000 -6.715400e+000 151 139 104
-7.137290e-001 -1.960510e+000 -6.764415e+000 146 137 97
-5.316303e-001 -1.927302e+000 -6.809821e+000 146 136 100
-7.425182e-001 -2.076481e+000 -6.788585e+000 153 144 108
-6.651983e-001 -2.025824e+000 -6.815475e+000 150 139 110
-4.621512e-001 -1.924942e+000 -6.810577e+000 149 137 100
-4.151346e-001 -1.918337e+000 -6.856420e+000 159 145 109
-4.331245e-001 -1.973297e+000 -6.906812e+000 156 143 108
-4.884724e-001 -1.993980e+000 -6.950304e+000 149 135 107
-1.481630e-001 -1.861774e+000 -6.950178e+000 91 78 54
-2.728063e-001 -1.946900e+000 -7.002929e+000 79 65 36
3.000818e-002 -1.824707e+000 -7.005418e+000 80 72 43
2.552530e-001 -1.842617e+000 -7.104808e+000 148 139 108
1.195945e-001 -1.942254e+000 -7.186765e+000 86 75 42
5.404714e-001 -1.920834e+000 -7.410836e+000 145 141 93
1.649695e+000 -1.678100e+000 -7.740430e+000 132 130 78
2.683326e+000 -1.679991e+000 -8.314819e+000 94 103 69
-1.027910e+000 -2.165769e+000 -6.839857e+000 142 133 104
-1.052902e+000 -2.261170e+000 -6.847248e+000 143 134 103
-9.255585e-001 -2.168181e+000 -6.877748e+000 145 134 106
-7.773213e-001 -2.182157e+000 -6.866146e+000 150 137 107
-5.292515e-001 -2.135528e+000 -6.988057e+000 149 138 109
-3.156317e-001 -2.032258e+000 -7.056789e+000 151 142 101
-2.016472e-001 -2.132382e+000 -7.175558e+000 82 71 43
1.452861e-004 -2.066854e+000 -7.211059e+000 147 135 95
6.129359e-001 -2.058831e+000 -7.537141e+000 155 145 97
6.129359e-001 -2.058831e+000 -7.537141e+000 155 145 97
1.289382e+000 -1.953858e+000 -7.898515e+000 145 132 89
2.670567e+000 -1.721939e+000 -8.383322e+000 102 111 82
2.447349e+000 -1.949385e+000 -8.461035e+000 104 110 76
2.640422e+000 -1.848626e+000 -8.506018e+000 101 110 79
3.455748e+000 -1.690796e+000 -8.779571e+000 79 88 61
3.456560e+000 -1.692113e+000 -8.779071e+000 79 88 61
-4.805051e-001 -2.314648e+000 -7.252502e+000 152 138 109
3.437502e-001 -2.194866e+000 -7.520897e+000 81 72 37
6.818131e-001 -2.245074e+000 -7.833321e+000 156 140 78
1.235980e+000 -2.119061e+000 -7.963358e+000 141 131 80
1.880335e+000 -2.067968e+000 -8.292912e+000 72 68 33
2.719017e+000 -2.012293e+000 -8.731956e+000 93 103 66
2.719017e+000 -2.012293e+000 -8.731956e+000 93 103 66
-1.420885e+000 -2.648823e+000 -6.979461e+000 154 141 113
-9.250313e-001 -2.592395e+000 -7.283727e+000 148 141 113
-2.088618e-001 -2.500907e+000 -7.542516e+000 87 79 43
-2.822995e-003 -2.391628e+000 -7.539325e+000 146 134 93
3.845859e-001 -2.384095e+000 -7.819020e+000 144 137 94
8.421898e-001 -2.364693e+000 -8.062233e+000 141 130 74
1.212056e+000 -2.304508e+000 -8.133222e+000 82 75 45
2.602898e+000 -2.363532e+000 -8.917223e+000 89 95 67
3.276159e+000 -2.092589e+000 -9.120181e+000 89 97 74
-9.848089e-001 -2.787980e+000 -7.376906e+000 154 140 111
-8.887323e-001 -2.697040e+000 -7.423193e+000 145 135 101
-9.037875e-001 -2.741896e+000 -7.472282e+000 157 143 114
-7.295583e-001 -2.714862e+000 -7.557014e+000 152 140 94
-1.652874e-001 -2.564040e+000 -7.747550e+000 146 136 87
-8.841216e-003 -2.644391e+000 -7.718771e+000 147 138 98
-3.603059e-002 -2.713019e+000 -7.848883e+000 137 128 74
6.806999e-001 -2.615957e+000 -8.091687e+000 149 140 82
1.386302e+000 -2.466210e+000 -8.386828e+000 135 130 74
1.499536e+000 -2.604503e+000 -8.634834e+000 132 126 71
1.814153e+000 -2.492428e+000 -8.683321e+000 111 110 66
2.064821e+000 -2.466747e+000 -8.744863e+000 61 59 38
2.531555e+000 -2.368851e+000 -8.969009e+000 93 98 68
2.380414e+000 -2.560129e+000 -9.032501e+000 92 96 67
-2.092565e+000 -2.972495e+000 -7.037159e+000 143 129 100
-1.761332e+000 -2.863123e+000 -7.117801e+000 89 79 53
-1.065523e+000 -2.828884e+000 -7.410465e+000 82 75 49
-1.023044e+000 -2.906322e+000 -7.464304e+000 156 143 108
-1.023044e+000 -2.906322e+000 -7.464304e+000 156 143 108
-1.035973e+000 -2.924120e+000 -7.553940e+000 148 136 98
-9.195656e-001 -2.785189e+000 -7.502761e+000 148 138 101
-6.932179e-001 -2.935053e+000 -7.775354e+000 146 139 95
-4.665082e-001 -2.865511e+000 -7.807416e+000 67 57 29
-2.662254e-001 -2.841920e+000 -7.927892e+000 141 131 78
-5.730446e-002 -2.760695e+000 -8.060215e+000 139 130 82
4.635499e-002 -2.817570e+000 -8.042000e+000 135 124 79
1.508668e+000 -2.719873e+000 -8.750365e+000 78 73 45
2.961600e+000 -2.596937e+000 -9.444878e+000 81 87 61
-2.388461e+000 -3.109334e+000 -7.042620e+000 88 77 49
-1.072979e+000 -3.097103e+000 -7.711908e+000 83 73 46
4.183595e-001 -3.018066e+000 -8.437864e+000 140 132 83
5.349082e-001 -3.021492e+000 -8.514528e+000 142 133 82
7.960255e-001 -2.849416e+000 -8.521654e+000 142 134 86
1.106053e+000 -2.993629e+000 -8.835490e+000 129 118 70
2.161738e+000 -2.807006e+000 -9.141079e+000 103 108 67
-2.763907e+000 -3.329453e+000 -7.068420e+000 79 74 51
-2.779250e+000 -3.391835e+000 -7.109230e+000 82 73 47
-2.665709e+000 -3.355921e+000 -7.160571e+000 127 119 83
-2.223970e+000 -3.253797e+000 -7.219018e+000 132 122 87
-2.048892e+000 -3.284519e+000 -7.374678e+000 139 127 91
-1.940335e+000 -3.266997e+000 -7.362326e+000 95 85 58
-1.738076e+000 -3.342203e+000 -7.608760e+000 105 91 63
-1.611410e+000 -3.207034e+000 -7.714550e+000 54 40 31
-7.687320e-001 -3.164968e+000 -7.981776e+000 142 131 94
-6.933805e-001 -3.170648e+000 -8.029709e+000 85 75 46
-1.901762e-001 -3.145428e+000 -8.325392e+000 138 128 84
1.600876e+000 -3.113861e+000 -9.242603e+000 125 122 73
-3.154147e+000 -3.475875e+000 -7.043748e+000 81 74 45
-2.672904e+000 -3.519109e+000 -7.290938e+000 80 71 36
-1.918434e+000 -3.510372e+000 -7.718538e+000 135 128 96
-1.156688e+000 -3.430885e+000 -8.130762e+000 138 128 95
-7.811112e-001 -3.283479e+000 -8.147289e+000 64 55 24
-9.423832e-001 -3.425513e+000 -8.187850e+000 81 76 40
-5.871956e-001 -3.369165e+000 -8.252147e+000 132 125 81
