ply
format ascii 1.0
element face 0
property list uchar int vertex_indices
element vertex 874
property float x
property float y
property float z
property uchar diffuse_red
property uchar diffuse_green
property uchar diffuse_blue
end_header
-3.629502e+001 -1.918102e+001 -7.974342e+001 66 45 107
-3.628669e+001 -2.039516e+001 -7.713618e+001 206 31 70
-3.548793e+001 -2.516329e+001 -7.713585e+001 49 35 69
-4.050558e+000 3.867896e+000 -9.397007e+000 94 119 90
-3.026726e+000 2.854465e+000 -8.413923e+000 135 71 66
-2.609725e+000 2.580130e+000 -8.151988e+000 176 136 141
-1.741756e+000 1.654705e+000 -7.364551e+000 160 68 69
-1.664188e+000 1.297388e+000 -6.944868e+000 157 66 67
-3.008399e-001 1.442991e+000 -8.173503e+000 84 81 62
-3.002064e-001 1.447066e+000 -8.161120e+000 84 81 62
-9.972934e-001 1.042101e+000 -7.385042e+000 193 183 181
1.917219e+000 7.281817e-001 -8.109684e+000 172 157 108
4.731741e-001 5.027729e-001 -7.204254e+000 188 173 126
5.938015e-001 2.017069e-001 -6.917459e+000 184 169 108
-4.946535e-001 -4.962765e-001 -5.771676e+000 165 151 86
-4.900018e+001 -9.155587e+000 -8.817294e+001 173 163 216
-4.069272e+001 -1.348834e+001 -8.937318e+001 201 27 62
-3.885750e+001 -1.663751e+001 -8.467480e+001 242 50 95
-3.781919e+001 -1.859320e+001 -8.093269e+001 250 56 101
1.553761e+000 2.285769e+000 -9.834821e+000 114 108 100
1.779051e-001 -7.207095e-001 -6.070440e+000 76 64 22
-3.631352e+001 -1.781309e+001 -8.749008e+001 67 54 124
-3.251053e+001 -1.848583e+001 -8.195889e+001 58 36 74
-1.927185e+000 2.147105e+000 -7.679752e+000 156 70 71
1.316247e+000 1.779356e+000 -9.033670e+000 177 171 135
-4.616167e+001 -8.586269e+000 -9.129982e+001 255 62 110
1.795111e+000 -2.532980e-001 -6.886380e+000 146 148 83
1.282306e+000 -1.308397e+000 -7.121921e+000 129 111 63
-5.269219e+001 -5.786610e+000 -9.566643e+001 69 47 109
2.958613e+000 3.281073e+000 -1.123396e+001 193 197 185
2.359419e+000 1.034648e-001 -7.839496e+000 169 156 115
-4.306678e+001 -7.605291e+000 -8.965531e+001 251 53 99
-2.036318e+000 6.764108e-001 -6.561268e+000 194 179 137
-4.631676e+000 3.589582e+000 -8.751308e+000 183 176 139
-1.505120e-001 1.505139e+000 -8.233421e+000 195 186 169
3.100429e+000 2.100790e+000 -1.007395e+001 82 78 74
1.048192e+000 1.950160e-001 -7.171221e+000 178 165 97
1.128895e+000 -3.267007e-002 -6.940594e+000 128 92 53
1.128138e+000 -3.469016e-002 -6.954480e+000 128 92 53
-2.634745e+000 -7.082315e-001 -4.479345e+000 90 87 49
2.732965e+000 -9.709903e-001 -7.620993e+000 88 90 67
3.855060e+000 -1.871323e+000 -8.932048e+000 114 104 95
-2.728604e+000 2.709157e+000 -8.248825e+000 131 69 69
3.397086e+000 3.184133e+000 -9.341976e+000 194 195 182
-3.620192e+000 2.438658e+000 -7.753995e+000 211 186 130
3.265281e+000 2.763128e+000 -9.664831e+000 185 186 178
7.095951e-001 2.598018e+000 -9.863225e+000 165 156 111
1.590238e+000 2.605452e+000 -1.016717e+001 111 105 97
-2.231771e+000 1.638088e+000 -7.161403e+000 200 190 186
2.383744e+000 1.470658e+000 -9.180669e+000 116 114 110
1.662509e+000 8.745385e-001 -8.204992e+000 171 170 118
3.133624e+000 7.176025e-001 -8.648394e+000 155 170 146
7.826042e-001 -1.345284e+000 -6.972977e+000 74 61 32
7.826042e-001 -1.345284e+000 -6.972977e+000 74 61 32
5.928473e-001 -2.162073e+000 -7.674213e+000 130 113 77
-2.359189e+000 4.378915e+000 -1.087059e+001 191 166 109
-2.731565e+000 2.616083e+000 -8.145766e+000 201 187 186
-2.371989e+000 1.168060e+000 -6.598690e+000 198 171 100
-6.745360e-001 -1.711026e+000 -6.541399e+000 75 61 36
-2.380307e-001 -8.229178e-001 -5.941695e+000 113 100 55
-1.800686e+000 -3.429548e+000 -7.713650e+000 75 63 47
-3.378392e+000 -1.691611e+000 -5.846355e+000 168 133 103
-7.614768e-001 -1.567227e+000 -6.324058e+000 123 105 66
-1.144073e+000 -2.292450e+000 -6.777673e+000 74 65 54
1.142835e+000 2.196962e-001 -7.149363e+000 168 167 98
1.141217e+000 2.212170e-001 -7.147127e+000 168 167 98
6.299703e-001 -1.221574e+000 -6.716242e+000 130 114 63
-2.614534e+000 1.828770e+000 -7.365298e+000 177 71 76
-4.681618e-001 6.113480e+000 -1.716852e+001 159 148 142
-5.216190e+000 4.098013e+000 -9.227673e+000 186 191 144
-4.448625e+000 3.567856e+000 -8.801796e+000 180 177 139
-1.623374e-001 4.310052e+000 -1.160391e+001 148 161 131
1.424584e+000 4.626633e+000 -1.272697e+001 115 114 100
-6.937031e-001 3.763546e+000 -1.066506e+001 143 87 68
-8.146211e-001 3.371779e+000 -1.023435e+001 193 158 116
-7.490506e-001 3.395394e+000 -1.024547e+001 159 116 74
-7.112757e-001 3.332822e+000 -1.019826e+001 193 168 119
1.202598e+000 3.715214e+000 -1.140902e+001 153 119 81
1.202598e+000 3.715214e+000 -1.140902e+001 153 119 81
-2.737718e+000 2.711052e+000 -8.247176e+000 128 63 64
1.262937e-001 3.132343e+000 -1.021216e+001 191 175 141
1.427712e+000 3.356192e+000 -1.108552e+001 188 177 136
-2.543407e+000 2.189757e+000 -7.712452e+000 200 193 192
-2.543407e+000 2.189757e+000 -7.712452e+000 200 193 192
-2.266010e+000 2.292138e+000 -7.915140e+000 152 61 65
1.739118e+000 2.590086e+000 -1.027162e+001 149 145 133
1.789723e+000 2.419761e+000 -1.010613e+001 96 90 90
2.195780e+000 2.468055e+000 -1.035576e+001 72 84 73
2.191149e+000 2.469845e+000 -1.030743e+001 72 84 73
3.182061e+000 2.382591e+000 -9.836054e+000 87 85 78
-1.425879e+000 2.038333e+000 -7.450047e+000 162 132 62
2.328862e+000 2.143652e+000 -1.000221e+001 114 111 106
-4.473691e-001 1.360994e+000 -8.033951e+000 185 178 162
-3.783288e-001 1.441051e+000 -8.130487e+000 169 152 134
-2.578742e-001 1.445836e+000 -8.118547e+000 191 185 165
-3.107464e-001 1.353656e+000 -8.011088e+000 176 174 150
-3.106729e-001 1.354425e+000 -8.012524e+000 176 174 150
2.320608e+000 1.432275e+000 -9.118208e+000 91 89 85
2.333236e+000 1.332461e+000 -9.014244e+000 132 136 122
-3.000505e-001 1.059022e+000 -7.674621e+000 193 176 157
-2.965970e-001 1.060063e+000 -7.673332e+000 193 176 157
-2.454830e-001 1.084341e+000 -7.732288e+000 82 73 60
-2.524756e-001 9.532436e-001 -7.583071e+000 200 179 159
-1.076721e-001 9.693908e-001 -7.627033e+000 197 185 153
-3.380463e-003 1.119223e+000 -7.831537e+000 76 74 54
2.420941e+000 1.095265e+000 -8.734843e+000 93 108 68
1.468521e-001 9.095992e-001 -7.655835e+000 194 177 141
1.189341e+000 8.125780e-001 -7.928977e+000 138 89 62
3.612384e-001 3.825965e-001 -7.107844e+000 70 73 47
8.703696e-001 4.825244e-001 -7.427208e+000 136 91 59
8.683252e-001 4.827821e-001 -7.422728e+000 136 91 59
1.235732e+000 6.361378e-001 -7.730458e+000 184 157 104
1.235732e+000 6.361378e-001 -7.730458e+000 184 157 104
9.920349e-001 2.325837e-001 -7.183419e+000 140 99 65
1.427488e+000 2.406362e-001 -7.273773e+000 168 166 109
1.023740e+000 6.710124e-002 -6.987231e+000 175 163 103
1.102375e+000 -1.044704e-001 -6.832649e+000 169 156 91
1.102375e+000 -1.044704e-001 -6.832649e+000 169 156 91
1.510210e+000 -8.384854e-002 -7.051368e+000 158 153 87
1.507029e+000 -8.399331e-002 -7.046777e+000 158 153 87
-9.129439e-001 -5.620862e-001 -5.359462e+000 141 131 74
2.716470e+000 -8.199675e-001 -7.517296e+000 61 62 44
1.788029e+000 -1.205919e+000 -7.337938e+000 108 104 69
5.163738e-001 -1.637790e+000 -7.071270e+000 77 65 33
3.852995e+000 -2.163878e+000 -8.233747e+000 138 132 121
6.617580e-001 -2.542202e+000 -8.091047e+000 88 74 48
-5.684324e-001 -2.614321e+000 -7.505030e+000 134 118 92
-1.800463e-001 -2.815990e+000 -7.959510e+000 96 82 56
-3.700164e+000 -3.612735e+000 -6.912650e+000 78 62 31
-4.567163e+000 3.793044e+000 -9.049649e+000 181 178 140
5.794780e-001 3.302271e+000 -1.067086e+001 93 98 77
1.568954e+000 3.408738e+000 -1.119944e+001 168 143 86
-2.462747e+000 2.630462e+000 -8.271868e+000 189 184 183
5.546847e-001 2.719707e+000 -9.933534e+000 192 182 152
1.351589e+000 2.937442e+000 -1.053810e+001 190 182 163
-2.366812e+000 2.045732e+000 -7.616204e+000 154 59 67
-2.373592e+000 2.042209e+000 -7.621177e+000 154 59 67
1.390490e+000 2.486179e+000 -9.974040e+000 146 133 99
-4.427852e+000 1.848879e+000 -7.641911e+000 202 163 135
3.133466e+000 2.363122e+000 -9.985858e+000 173 173 165
3.082840e+000 2.250687e+000 -1.004084e+001 165 167 158
-1.942708e+000 1.666327e+000 -7.314936e+000 200 188 188
-1.933753e+000 1.665848e+000 -7.335658e+000 200 188 188
6.408140e-001 1.526560e+000 -8.577952e+000 142 92 69
2.440804e+000 1.600648e+000 -9.397001e+000 97 96 91
-3.458991e+000 8.747708e-001 -6.008414e+000 211 206 144
9.038596e-001 1.248718e+000 -8.275511e+000 182 170 105
-3.371184e+000 6.802113e-001 -5.870672e+000 198 199 130
1.846728e-001 7.069734e-001 -7.429918e+000 67 69 52
1.575898e-001 6.470398e-001 -7.353329e+000 189 167 134
1.013323e+000 8.007633e-001 -7.829835e+000 147 92 76
1.157135e+000 7.019170e-001 -7.797881e+000 138 93 62
1.266038e+000 7.878704e-001 -7.925869e+000 175 164 92
1.130569e-001 5.965048e-001 -7.305758e+000 74 73 51
2.306545e-001 3.674873e-001 -7.079980e+000 71 78 64
6.953688e-001 4.482117e-001 -7.344188e+000 145 88 63
2.613530e+000 6.821011e-001 -8.311078e+000 165 150 97
3.355966e+000 6.509031e-001 -8.668076e+000 132 146 119
3.431796e+000 4.983929e-001 -8.488076e+000 150 166 140
3.403164e-001 2.973867e-001 -7.030158e+000 180 162 117
3.455337e+000 3.450419e-001 -8.345780e+000 98 115 84
2.718740e-001 -3.529128e-002 -6.622069e+000 180 162 101
3.616824e+000 3.211277e-002 -8.036713e+000 103 118 89
1.557238e+000 -6.862117e-001 -6.724757e+000 101 103 64
3.369952e+000 -5.883096e-001 -7.683917e+000 65 67 53
1.819540e+000 -8.815373e-001 -7.102553e+000 70 68 45
1.752654e+000 -1.126057e+000 -7.264204e+000 76 72 47
2.242779e+000 -9.137197e-001 -7.333085e+000 67 66 48
1.778140e+000 -1.516095e+000 -7.670594e+000 72 65 44
2.013421e+000 -1.230826e+000 -7.522314e+000 74 71 47
2.262015e+000 -1.345397e+000 -7.734514e+000 70 67 47
-2.511141e+000 -1.449698e+000 -5.265689e+000 72 63 59
-2.110783e+000 -1.321724e+000 -5.324879e+000 78 71 65
-1.879825e+000 -1.352942e+000 -5.475801e+000 75 69 64
-8.481329e-001 -1.531372e+000 -6.306243e+000 58 48 36
1.414857e-001 -1.471827e+000 -6.731427e+000 102 87 58
8.312659e-001 -1.606626e+000 -7.222250e+000 85 69 44
2.038148e+000 -1.830034e+000 -8.097808e+000 116 107 71
-3.318719e-001 -1.738572e+000 -6.759141e+000 98 82 56
-3.645161e-001 -1.834257e+000 -6.827226e+000 99 83 58
-2.745942e-001 -1.956498e+000 -7.008908e+000 95 79 53
-5.125160e-002 -2.102454e+000 -7.307063e+000 97 83 57
6.812033e-001 -2.085794e+000 -7.636820e+000 93 78 53
1.253247e+000 -2.228601e+000 -8.069514e+000 87 72 45
1.906812e+000 -2.024281e+000 -8.234794e+000 83 73 46
-1.842055e+000 -2.167899e+000 -6.258692e+000 74 68 61
-1.032366e+000 -2.423790e+000 -7.108292e+000 91 78 62
-8.795734e-001 -2.344076e+000 -7.051816e+000 91 75 60
-6.428695e-001 -2.172070e+000 -7.019924e+000 87 74 52
1.703971e-001 -2.320353e+000 -7.626126e+000 92 77 53
-2.591127e+000 -2.353623e+000 -6.089032e+000 76 66 64
-2.591127e+000 -2.353623e+000 -6.089032e+000 76 66 64
-7.788096e-001 -2.583694e+000 -7.377686e+000 92 77 58
-5.325797e-001 -2.707496e+000 -7.643189e+000 99 85 59
-3.756671e-001 -2.632594e+000 -7.648758e+000 103 86 67
-4.555086e-001 -3.244103e+000 -8.288611e+000 93 79 55
-1.349979e+000 -3.519141e+000 -8.102070e+000 124 109 84
-2.429868e+000 -3.805761e+000 -7.745111e+000 113 100 72
-2.286311e+000 -3.828043e+000 -7.932266e+000 112 98 72
-4.874048e+000 3.996523e+000 -9.214803e+000 172 170 132
-1.089185e+000 4.445134e+000 -1.144753e+001 90 92 76
-4.699278e+000 3.554720e+000 -8.699796e+000 145 144 110
-4.429008e+000 3.621537e+000 -8.631781e+000 178 171 132
-4.914923e-001 4.238563e+000 -1.140388e+001 129 87 83
-3.951219e-001 3.949465e+000 -1.108444e+001 169 127 104
-3.125335e-001 3.423632e+000 -1.042051e+001 183 157 118
-4.213310e+000 1.821929e+000 -7.317150e+000 229 208 135
1.961090e+000 2.130182e+000 -9.745502e+000 105 102 99
2.260604e+000 2.276287e+000 -1.012373e+001 139 142 131
-4.313973e-001 1.480596e+000 -8.149619e+000 75 82 71
-4.374141e-001 1.479312e+000 -8.149109e+000 75 82 71
-3.383154e-001 1.264532e+000 -7.898919e+000 72 82 69
1.161757e-002 7.692956e-001 -7.424135e+000 194 178 146
-3.202381e+000 5.464396e-001 -5.634781e+000 162 158 91
1.284356e+000 4.440263e-001 -7.554395e+000 175 160 93
1.294906e+000 4.454582e-001 -7.518166e+000 175 160 93
2.112464e+000 5.346234e-001 -7.983110e+000 159 139 89
8.478761e-001 2.966522e-001 -7.193197e+000 186 167 108
8.449629e-001 2.919905e-001 -7.202110e+000 186 167 108
9.890770e-001 1.158926e-002 -6.938727e+000 144 99 68
5.675850e-001 -9.627501e-001 -6.513247e+000 117 104 60
1.599728e+000 -1.060355e+000 -7.092884e+000 118 111 69
5.109096e-001 -1.134579e+000 -6.635025e+000 121 107 63
-2.696003e+000 -1.759318e+000 -5.492220e+000 67 63 56
-2.696003e+000 -1.759318e+000 -5.492220e+000 67 63 56
-2.245464e+000 -1.704503e+000 -5.636861e+000 130 114 106
-2.112539e+000 -1.791898e+000 -5.781648e+000 132 115 105
-2.112539e+000 -1.791898e+000 -5.781648e+000 132 115 105
4.332832e-001 -2.151081e+000 -7.556999e+000 96 82 55
-2.242407e+000 -2.192395e+000 -6.043721e+000 73 68 62
5.139160e-001 -3.244407e+000 -8.828764e+000 106 91 60
-2.810766e+000 -3.647017e+000 -7.417758e+000 111 96 69
-2.410971e+000 -3.974428e+000 -8.032269e+000 81 65 42
-2.030129e+000 -3.717109e+000 -7.952768e+000 81 66 43
-1.438297e+000 4.413739e+000 -1.125868e+001 106 110 83
-4.855829e+000 3.820249e+000 -9.004043e+000 137 143 107
-4.777477e+000 3.675381e+000 -8.837690e+000 121 123 90
-3.952445e+000 3.943141e+000 -9.465875e+000 81 115 83
-1.172358e+000 4.189533e+000 -1.105054e+001 130 93 77
-1.260515e-001 4.360650e+000 -1.176356e+001 139 145 113
-1.253745e-001 4.352754e+000 -1.168606e+001 139 145 113
2.012068e+000 2.795316e+000 -1.059454e+001 171 147 95
-2.205078e+000 2.168953e+000 -7.768891e+000 206 186 192
-1.599632e+000 2.250265e+000 -8.819514e+000 176 150 76
-4.368412e-001 1.477303e+000 -8.150950e+000 75 82 71
-1.307452e+000 1.122867e+000 -6.928719e+000 201 184 160
-3.470159e-001 1.103320e+000 -7.749853e+000 197 184 174
3.093556e-001 5.678023e-002 -6.743701e+000 66 81 56
1.406803e+000 -1.199569e-001 -6.953712e+000 140 92 62
1.407188e+000 -1.199971e-001 -6.953509e+000 140 92 62
-1.954379e+000 -3.944664e+000 -8.270566e+000 91 76 52
-5.885547e-001 3.465457e+000 -1.030938e+001 186 152 103
-2.294366e+000 2.935080e+000 -8.720217e+000 200 175 118
-3.163971e+000 1.558969e+000 -6.851334e+000 204 186 154
-3.163971e+000 1.558969e+000 -6.851334e+000 204 186 154
-3.141656e+000 1.416342e+000 -6.697320e+000 199 172 95
-1.362312e+000 9.979941e-001 -6.852714e+000 143 112 69
-2.208643e-001 1.011668e+000 -7.643861e+000 54 76 58
-6.696331e-001 -5.584024e-001 -5.586506e+000 111 99 47
-3.669511e-001 -1.286751e+000 -6.272082e+000 131 113 68
-2.098558e+000 -2.189434e+000 -6.115498e+000 74 68 60
-2.098558e+000 -2.189434e+000 -6.115498e+000 74 68 60
-2.114642e+000 4.328991e+000 -1.093228e+001 195 167 113
-2.961764e-001 3.762550e+000 -1.063702e+001 171 139 101
1.562117e+000 1.112291e+000 -8.418653e+000 180 178 152
1.784067e+000 9.829251e-001 -8.359933e+000 136 142 85
2.153791e+000 1.043769e+000 -8.585052e+000 81 90 61
7.605270e-001 5.077861e-001 -7.423713e+000 172 137 99
1.367039e+000 2.845175e+000 -1.043568e+001 188 178 167
9.977470e-001 4.970234e-001 -7.587876e+000 180 163 99
8.468576e-001 -1.320491e+000 -7.107573e+000 120 105 72
3.062500e+000 -3.918960e+000 -1.077961e+001 198 163 149
-2.769884e+000 3.188204e+000 -8.762397e+000 197 190 178
-1.261168e+000 9.449207e-001 -6.880113e+000 148 122 92
2.697115e-001 2.912290e-001 -6.962960e+000 65 80 59
-8.654478e-001 -4.435993e-001 -5.320686e+000 152 146 76
2.031623e+000 1.785366e+000 -9.390496e+000 85 81 79
-2.846306e+000 -7.096577e-001 -4.844673e+000 188 178 125
-3.900816e-002 3.397544e+000 -1.026695e+001 191 168 127
-2.368436e+000 2.086313e+000 -7.660325e+000 202 184 184
-2.368436e+000 2.086313e+000 -7.660325e+000 202 184 184
2.404665e+000 2.548886e+000 -1.038137e+001 86 103 79
-2.831086e+000 4.074264e+000 -1.030855e+001 170 154 94
1.005303e+000 3.564263e+000 -1.118058e+001 181 157 109
2.908389e-001 1.246863e+000 -8.020569e+000 192 178 148
2.569494e+000 1.693193e-001 -7.685940e+000 176 170 145
-8.662442e-001 4.128347e+000 -1.137431e+001 126 86 79
3.633035e+000 1.803400e+000 -9.632067e+000 190 197 190
-2.740546e+000 1.189056e+000 -6.335675e+000 194 184 144
-6.372499e-001 6.005745e-001 -7.965969e+000 194 185 170
-2.898927e+000 1.425016e-001 -5.786721e+000 141 147 75
2.568183e+000 1.677184e+000 -9.670567e+000 72 80 69
-2.429362e+000 2.009226e+000 -7.535235e+000 163 64 72
3.156782e+000 2.260196e+000 -9.975484e+000 87 89 82
3.094012e+000 1.921000e+000 -1.016264e+001 163 165 158
-4.774982e+001 -9.056119e+000 -8.747593e+001 175 165 224
-5.069797e+000 3.882694e+000 -9.112316e+000 168 169 127
1.360411e+000 4.686643e+000 -1.271890e+001 213 208 196
-3.476004e+000 3.486491e+000 -8.992759e+000 173 129 104
1.445728e+000 3.196620e+000 -1.091899e+001 195 179 136
-1.490565e+000 2.048504e+000 -7.641514e+000 196 172 115
1.350306e+000 2.266115e+000 -9.686984e+000 103 96 88
-1.035177e-001 1.368570e+000 -8.093474e+000 193 187 165
-2.452995e-001 1.084318e+000 -7.732178e+000 82 73 60
6.547953e-001 9.017672e-001 -7.831481e+000 131 94 58
3.484168e+000 2.053808e-001 -8.162035e+000 102 116 90
3.484168e+000 2.053808e-001 -8.162035e+000 102 116 90
1.062823e+000 -2.475177e-002 -6.916258e+000 174 168 99
1.445192e+000 4.410541e-002 -7.164848e+000 171 160 100
3.671353e+000 -5.583276e-002 -7.946433e+000 110 122 95
-2.450909e+000 2.631094e+000 -8.275835e+000 189 184 183
2.203255e+000 2.622830e+000 -1.052441e+001 71 83 69
-1.773724e+000 1.396030e+000 -7.026812e+000 194 188 186
-1.773724e+000 1.396030e+000 -7.026812e+000 194 188 186
7.020118e-001 1.413997e+000 -8.453176e+000 142 94 71
2.684907e-001 6.555506e-001 -7.412976e+000 193 175 137
2.472151e+000 7.712124e-001 -8.412855e+000 172 148 97
2.875381e+000 6.196979e-001 -8.388413e+000 111 121 77
2.665676e+000 3.280577e-001 -7.989160e+000 165 150 92
-8.435450e-001 -1.382967e-001 -5.811490e+000 141 119 64
4.780405e+000 -3.718597e+000 -7.271564e+000 96 85 79
-5.381636e-001 4.478179e+000 -1.177311e+001 128 140 103
-3.581787e+000 2.280602e+000 -7.287007e+000 204 187 140
-3.581787e+000 2.280602e+000 -7.287007e+000 204 187 140
1.749967e+000 1.442107e+000 -8.881209e+000 144 149 84
2.711955e+000 5.174767e-001 -8.246014e+000 165 144 91
-4.822692e+000 4.076572e+000 -9.310489e+000 143 145 106
2.999761e+000 2.097388e+000 -1.015995e+001 157 160 153
7.007853e-001 6.178948e-001 -7.513896e+000 185 163 108
-4.125906e+001 -1.996621e+001 -7.743284e+001 216 65 97
-3.497286e+001 -2.645452e+001 -7.555007e+001 63 63 131
-2.332216e+000 4.364634e+000 -1.093222e+001 196 169 106
-3.796278e+001 -2.595168e+001 -7.393212e+001 188 34 71
-3.499789e+001 -2.589576e+001 -7.642551e+001 125 167 227
-2.897071e+001 -2.703161e+001 -7.242740e+001 187 30 61
-2.728590e+001 -3.114447e+001 -7.255637e+001 203 34 65
-2.780375e+001 -3.174473e+001 -7.121221e+001 213 30 57
1.835290e+000 1.555840e+000 -9.028342e+000 160 161 129
8.055320e-001 8.657363e-001 -7.767821e+000 183 164 108
8.071032e-001 8.625926e-001 -7.768848e+000 183 164 108
6.867016e-001 1.000416e-001 -6.862380e+000 179 165 104
-3.444806e+001 -2.642705e+001 -7.170035e+001 63 44 102
-3.859957e+001 -2.814097e+001 -6.700449e+001 203 29 65
-2.668128e+000 4.245137e+000 -1.066103e+001 163 157 91
1.421555e-001 5.486482e-001 -7.233700e+000 71 82 65
-3.741109e+001 -2.469972e+001 -7.566128e+001 122 22 47
-4.251268e+001 -2.087820e+001 -7.592739e+001 254 248 255
-3.575129e+001 -2.572712e+001 -7.424401e+001 143 195 247
-4.011803e+001 -2.787632e+001 -7.129372e+001 237 44 88
-3.342864e+001 -3.012681e+001 -7.414175e+001 38 21 37
-5.288205e+000 4.355475e+000 -9.485284e+000 136 142 91
-4.334700e+000 4.014202e+000 -9.401024e+000 85 102 64
-3.661874e+000 3.848082e+000 -9.267512e+000 200 182 136
-4.102453e-001 4.308598e+000 -1.154561e+001 131 147 113
-4.713946e+000 3.299616e+000 -8.386625e+000 180 160 106
-6.951546e-001 3.773579e+000 -1.061809e+001 135 80 60
-9.386284e-001 3.619448e+000 -1.042614e+001 185 146 107
-9.354780e-001 3.617642e+000 -1.048286e+001 185 146 107
-4.940863e-001 3.620462e+000 -1.062990e+001 169 124 88
3.170880e-001 3.520060e+000 -1.081022e+001 156 112 72
5.365580e-001 3.596511e+000 -1.114665e+001 137 101 77
-4.853535e+000 2.937323e+000 -8.425199e+000 244 203 148
7.280310e-001 2.663598e+000 -9.945835e+000 180 170 136
7.280310e-001 2.663598e+000 -9.945835e+000 180 170 136
1.412482e+000 2.630903e+000 -1.018145e+001 95 86 82
2.040862e+000 2.872042e+000 -1.077393e+001 163 144 100
2.040862e+000 2.872042e+000 -1.077393e+001 163 144 100
3.357691e+000 2.893825e+000 -9.441351e+000 67 67 59
-2.279977e+000 2.192942e+000 -7.817469e+000 121 58 55
-2.274348e+000 2.191832e+000 -7.831619e+000 121 58 55
6.623093e-001 2.497616e+000 -9.653558e+000 185 176 148
1.575837e+000 2.268212e+000 -9.798371e+000 81 76 72
1.571484e+000 2.270927e+000 -9.788577e+000 81 76 72
1.706181e+000 2.533707e+000 -1.017596e+001 103 101 88
1.763960e+000 2.473569e+000 -1.014375e+001 152 146 136
2.050287e+000 2.488466e+000 -1.029107e+001 110 111 110
1.749883e+000 2.099135e+000 -9.684302e+000 122 112 95
-3.207666e-001 1.564000e+000 -8.267899e+000 193 185 174
1.699797e+000 1.775491e+000 -9.283549e+000 152 152 125
-3.786111e-001 1.446140e+000 -8.094934e+000 160 146 123
-1.110330e-001 1.367733e+000 -8.086900e+000 187 176 156
8.753577e-001 1.430691e+000 -8.510588e+000 130 88 58
8.802887e-001 1.428799e+000 -8.526242e+000 130 88 58
-1.809527e-001 9.603298e-001 -7.597156e+000 69 69 48
9.536638e-001 8.817908e-001 -7.930846e+000 136 93 62
9.538133e-001 8.831195e-001 -7.935701e+000 136 93 62
1.188151e+000 8.141463e-001 -7.924547e+000 136 92 57
1.551908e+000 9.637441e-001 -8.236438e+000 128 132 81
-1.623506e-002 6.119065e-001 -7.259618e+000 176 156 123
1.119231e+000 5.309092e-001 -7.588831e+000 176 152 96
1.316174e+000 5.182710e-001 -7.637561e+000 129 88 58
1.313651e+000 5.198611e-001 -7.631455e+000 129 88 58
1.722093e-001 1.384647e-001 -6.756439e+000 170 155 96
3.460393e+000 2.852269e-001 -8.253014e+000 93 108 82
3.542037e+000 2.279476e-001 -8.239448e+000 161 172 148
1.431809e+000 -6.847505e-002 -7.019690e+000 135 87 62
4.787636e+000 -3.739159e+000 -7.166917e+000 123 114 105
-5.024711e-001 4.506211e+000 -1.179752e+001 120 130 96
-4.566384e+000 3.795910e+000 -9.043912e+000 176 172 133
-3.993635e+000 3.712174e+000 -9.104840e+000 83 110 82
-4.779688e-002 4.295642e+000 -1.158141e+001 131 138 105
1.405715e+000 3.289724e+000 -1.104083e+001 78 75 63
-4.212768e+000 2.393764e+000 -7.499098e+000 190 172 135
3.337426e+000 3.086128e+000 -9.248616e+000 182 183 175
-2.460277e+000 2.057673e+000 -7.587372e+000 190 179 176
1.278551e+000 2.305604e+000 -9.700064e+000 152 151 125
3.211149e+000 2.608075e+000 -9.766115e+000 182 183 177
-4.202866e+000 1.665147e+000 -7.495350e+000 217 200 129
1.941176e+000 1.989276e+000 -9.625086e+000 98 94 93
1.938428e+000 1.858667e+000 -9.472144e+000 77 76 72
-3.738408e+000 1.371395e+000 -6.529770e+000 222 216 193
-3.767658e+000 1.169711e+000 -6.622939e+000 183 180 103
-1.123981e-001 1.304757e+000 -8.031176e+000 71 72 55
6.395673e-001 1.530812e+000 -8.544521e+000 138 91 65
2.290225e+000 1.528097e+000 -9.174408e+000 86 83 80
8.708858e-001 1.072451e+000 -8.131718e+000 138 89 64
4.908039e-001 8.627934e-001 -7.766706e+000 141 87 66
-9.957596e-002 6.974857e-001 -7.356353e+000 182 168 138
2.188125e-001 5.340957e-001 -7.256554e+000 186 170 132
2.188125e-001 5.340957e-001 -7.256554e+000 186 170 132
1.286999e+000 5.973027e-001 -7.705715e+000 139 89 61
3.354968e+000 6.524562e-001 -8.658320e+000 127 141 118
1.432583e-001 4.085983e-001 -7.091856e+000 173 156 114
1.432583e-001 4.085983e-001 -7.091856e+000 173 156 114
1.435307e+000 3.041174e-001 -7.474193e+000 131 93 66
1.435307e+000 3.041174e-001 -7.474193e+000 131 93 66
3.349077e+000 5.060815e-001 -8.475953e+000 102 116 87
2.271639e-001 6.174927e-002 -6.757348e+000 177 161 106
1.279224e+000 2.781405e-001 -7.389106e+000 136 91 68
1.416583e+000 1.330016e-001 -7.263552e+000 162 157 100
3.558564e+000 -1.032713e-001 -7.888605e+000 173 180 166
-1.392552e+000 -6.339510e-001 -5.098675e+000 93 83 47
1.055854e+000 -7.684865e-001 -6.541391e+000 92 88 56
-3.345594e+000 -1.893778e+000 -5.832984e+000 105 85 68
-2.159431e+000 -1.725063e+000 -5.682888e+000 79 70 63
4.074280e+000 5.452699e+000 -7.335320e+000 194 187 181
4.146517e+000 5.468129e+000 -7.317563e+000 96 88 80
-4.660740e+000 3.796387e+000 -9.007603e+000 121 125 88
3.013598e-002 4.363342e+000 -1.182849e+001 82 81 74
-4.501772e-001 4.061331e+000 -1.120205e+001 147 106 88
6.632659e-001 3.367542e+000 -1.075132e+001 183 181 168
2.015012e+000 3.203225e+000 -1.113513e+001 69 82 64
1.397679e+000 2.786884e+000 -1.029942e+001 175 170 158
2.127399e+000 1.970629e+000 -9.693341e+000 95 91 90
1.648471e+000 1.910046e+000 -9.387426e+000 88 84 79
1.019841e+000 7.993700e-001 -7.849554e+000 135 84 57
2.311476e+000 1.026470e+000 -8.614393e+000 165 167 143
2.787538e+000 6.679849e-001 -8.419326e+000 102 113 71
2.786128e-001 4.179596e-001 -7.116642e+000 178 157 115
1.551515e-001 3.365629e-001 -7.050159e+000 60 75 65
8.237916e-001 2.179703e-001 -7.124388e+000 140 87 65
3.579085e+000 4.000016e-002 -8.014130e+000 98 113 79
-4.007240e+000 -9.231544e-001 -6.912250e+000 209 177 148
8.218530e-001 -2.040737e-001 -6.612184e+000 167 158 91
1.822266e-001 -1.283408e+000 -6.571059e+000 94 80 54
-1.664175e+000 -1.472907e+000 -5.651624e+000 74 66 62
-4.451319e+000 3.935641e+000 -9.292512e+000 177 166 126
-1.021375e+000 4.265509e+000 -1.118836e+001 133 138 105
-7.309018e-001 4.328121e+000 -1.141964e+001 121 132 92
8.353948e-001 4.147689e+000 -1.172656e+001 128 81 63
3.808803e-001 3.679877e+000 -1.101727e+001 182 146 98
-3.183508e+000 2.922181e+000 -8.447969e+000 124 63 61
-3.179997e+000 2.921533e+000 -8.463963e+000 124 63 61
-2.724012e+000 2.613076e+000 -8.177797e+000 196 182 185
1.120615e+000 2.587256e+000 -1.001394e+001 152 152 128
-2.284153e+000 1.778597e+000 -7.335285e+000 198 180 185
3.003009e+000 1.847738e+000 -1.028551e+001 63 66 59
-3.950557e+000 1.220840e+000 -6.902152e+000 228 201 125
-1.541736e+000 1.238990e+000 -6.970837e+000 145 55 58
-1.541736e+000 1.238990e+000 -6.970837e+000 145 55 58
-1.306841e+000 1.118311e+000 -6.940128e+000 190 180 155
-1.244903e-001 1.091145e+000 -7.773552e+000 186 175 155
-1.241353e-001 1.091602e+000 -7.773225e+000 186 175 155
4.168457e-003 1.055802e+000 -7.759875e+000 68 82 71
9.799413e-001 1.037355e+000 -8.107394e+000 179 154 98
9.812274e-001 1.039050e+000 -8.101695e+000 179 154 98
1.061832e+000 8.852072e-001 -7.961842e+000 179 154 94
2.319677e+000 1.017453e+000 -8.655451e+000 165 167 143
7.036147e-001 6.142177e-001 -7.520307e+000 181 157 111
1.321836e+000 7.216697e-002 -7.137367e+000 135 87 62
1.319093e+000 7.139160e-002 -7.138388e+000 135 87 62
4.947753e-001 -1.130524e-001 -6.610150e+000 177 158 97
5.984089e-001 -1.766239e-001 -6.583236e+000 63 82 65
1.173697e+000 5.229370e-002 -6.996706e+000 161 155 85
-3.488334e+000 -1.765638e+000 -5.932156e+000 172 157 91
-2.138956e+000 -1.936534e+000 -5.875533e+000 76 72 63
-3.393136e+000 9.262450e-001 -6.021707e+000 173 163 111
-2.411611e-002 9.312718e-001 -7.624606e+000 185 171 145
-2.266504e-002 9.325871e-001 -7.624273e+000 185 171 145
1.029963e+000 -7.821697e-002 -6.866645e+000 164 158 85
-4.965201e+000 4.083146e+000 -9.277298e+000 167 163 125
-4.011997e+000 4.105631e+000 -9.644317e+000 178 162 117
-3.558444e+000 1.875160e+000 -6.790803e+000 194 167 90
1.965057e+000 2.215578e+000 -9.913357e+000 98 95 92
9.201771e-001 1.143819e+000 -8.207865e+000 181 150 104
1.290908e+000 -5.606941e-002 -7.043475e+000 164 152 93
1.290908e+000 -5.606941e-002 -7.043475e+000 164 152 93
-3.712361e+000 3.597230e+000 -9.039213e+000 192 175 145
-2.517764e+000 2.935126e+000 -8.635447e+000 122 61 55
2.007653e+000 2.480999e+000 -1.020878e+001 111 107 102
2.886609e+000 2.269180e+000 -9.837135e+000 158 161 155
6.651429e-001 1.069760e+000 -8.040161e+000 179 162 111
6.622144e-001 4.421573e+000 -1.217440e+001 120 81 72
-1.644627e+000 9.700475e-001 -6.713381e+000 191 180 175
4.977257e-001 -8.842611e-002 -6.680471e+000 171 151 100
-7.153303e-001 1.141727e+000 -7.608626e+000 192 182 180
-7.153303e-001 1.141727e+000 -7.608626e+000 192 182 180
-2.389556e+000 2.045227e+000 -8.050572e+000 192 181 181
-5.176103e+000 4.165270e+000 -9.285092e+000 144 144 87
-9.331861e-001 4.226703e+000 -1.117052e+001 139 148 124
-4.606208e+000 3.855893e+000 -9.115528e+000 171 169 133
-4.608767e+000 3.855218e+000 -9.129713e+000 171 169 133
-3.831717e+000 3.804539e+000 -9.315282e+000 77 100 71
1.195895e+000 4.122801e+000 -1.191004e+001 166 118 90
-4.779347e+000 3.547596e+000 -8.737362e+000 168 167 129
-4.670489e+000 3.490989e+000 -8.661149e+000 181 171 128
3.874813e-001 3.338714e+000 -1.044647e+001 184 155 115
2.123815e+000 2.254936e+000 -1.005044e+001 139 138 131
2.210977e+000 2.067504e+000 -9.663363e+000 138 137 133
7.959832e-001 1.565897e+000 -8.634689e+000 130 90 58
-3.974560e+000 8.201379e-001 -6.972655e+000 205 170 114
-2.691585e-001 1.238359e+000 -7.912238e+000 170 160 137
6.133958e-002 1.117925e+000 -7.866201e+000 189 175 149
-1.296102e+000 1.048585e+000 -6.901645e+000 134 114 88
-1.808458e-001 9.613207e-001 -7.596088e+000 81 69 54
1.520039e+000 1.002675e+000 -8.286893e+000 162 159 114
-4.928885e+000 -6.580652e-001 -8.932842e+000 217 162 174
5.908961e-001 7.218949e-001 -7.592235e+000 179 156 114
1.120338e+000 6.534584e-001 -7.748452e+000 168 147 92
1.120338e+000 6.534584e-001 -7.748452e+000 168 147 92
3.485354e-001 5.539674e-001 -7.318967e+000 180 163 119
1.926281e+000 5.734460e-001 -7.930239e+000 146 143 82
-4.128765e+000 -5.659898e-001 -7.212496e+000 131 93 80
-4.137720e+000 -5.870841e-001 -7.257999e+000 131 93 80
1.452014e+000 3.177685e-001 -7.496976e+000 138 94 71
1.438606e+000 3.417748e-001 -7.434399e+000 138 94 71
9.223009e-001 1.405133e-001 -7.092064e+000 132 88 52
9.036489e-001 1.080469e-001 -7.006862e+000 177 150 101
9.036489e-001 1.080469e-001 -7.006862e+000 177 150 101
3.527248e+000 1.256129e-001 -8.123497e+000 98 118 83
3.594635e+000 -1.650849e-001 -7.814892e+000 157 170 146
-3.836186e+000 -1.117700e+000 -6.722380e+000 131 103 63
-3.836186e+000 -1.117700e+000 -6.722380e+000 131 103 63
-3.777395e+000 -1.227819e+000 -6.600515e+000 114 89 57
-3.671598e+000 -1.420447e+000 -6.407136e+000 106 94 56
4.423199e+000 6.752665e+000 -6.076181e+000 190 183 176
1.418656e-002 4.332402e+000 -1.148106e+001 73 70 63
-4.005511e+000 3.633747e+000 -8.971808e+000 80 108 77
-7.719179e-001 3.777927e+000 -1.049917e+001 164 115 87
-7.504756e-001 3.401429e+000 -1.021328e+001 155 107 67
-4.776465e+000 2.658240e+000 -8.280684e+000 224 188 179
1.320713e-001 3.134594e+000 -1.025613e+001 186 173 141
-4.733751e+000 2.246502e+000 -8.152544e+000 218 180 177
-4.741479e+000 2.234265e+000 -8.201653e+000 218 180 177
1.969395e+000 2.692280e+000 -1.054155e+001 73 78 68
1.752288e+000 2.668934e+000 -1.034108e+001 105 100 97
-2.537747e+000 2.188498e+000 -7.720801e+000 189 186 185
-4.127708e+000 1.766348e+000 -7.105957e+000 217 198 134
1.926700e+000 1.864875e+000 -9.460377e+000 75 71 68
2.394408e+000 1.976610e+000 -9.757188e+000 97 96 92
-1.927982e+000 1.452178e+000 -7.160042e+000 135 46 54
-1.927982e+000 1.452178e+000 -7.160042e+000 135 46 54
7.685862e-001 1.322175e+000 -8.334139e+000 134 90 62
-3.598980e+000 1.025388e+000 -6.118414e+000 178 180 110
-2.239857e+000 1.137366e+000 -6.705555e+000 161 53 57
-5.075844e+000 -5.104772e-001 -9.150970e+000 184 92 105
-4.921073e+000 -5.672444e-001 -8.982287e+000 179 74 87
-3.468766e+000 6.793079e-001 -5.977243e+000 175 177 104
1.165972e+000 7.608160e-001 -7.856907e+000 169 152 92
-3.239405e+000 4.321975e-001 -5.618506e+000 181 188 120
8.647431e-001 4.746556e-001 -7.434110e+000 139 93 63
2.949387e+000 5.432504e-001 -8.207531e+000 68 76 61
9.859607e-001 2.174497e-001 -7.221037e+000 143 92 64
-4.050580e+000 -7.826712e-001 -7.110180e+000 169 136 110
3.489673e+000 7.560819e-002 -8.036709e+000 172 180 170
8.985408e-001 -1.615000e-001 -6.706676e+000 137 89 66
8.985408e-001 -1.615000e-001 -6.706676e+000 137 89 66
-3.710060e+000 -1.224804e+000 -6.553404e+000 188 165 98
-7.625546e-001 -4.434732e-001 -6.063337e+000 123 107 58
-7.625546e-001 -4.434732e-001 -6.063337e+000 123 107 58
-1.906353e+000 4.287505e+000 -1.086535e+001 194 175 141
1.098805e+000 4.348497e+000 -1.214558e+001 78 89 83
1.116736e+000 3.510375e+000 -1.092399e+001 171 145 96
-6.999963e-002 3.121555e+000 -1.015611e+001 183 173 149
1.716615e+000 2.456343e+000 -1.012770e+001 153 142 120
-2.579466e+000 2.086289e+000 -7.654152e+000 194 181 180
7.319785e-001 1.494896e+000 -8.525868e+000 182 162 101
5.491323e-001 7.494363e-001 -7.643194e+000 136 88 66
1.019146e+000 8.031316e-001 -7.842120e+000 139 88 69
1.482934e+000 -2.346841e-002 -7.107251e+000 138 91 73
3.575286e+000 4.685755e-002 -8.004755e+000 92 107 75
9.102284e-001 -1.908425e-001 -6.763762e+000 138 89 67
-3.768996e+000 -1.133812e+000 -6.669435e+000 200 173 101
-3.481787e+000 -1.638968e+000 -6.182257e+000 160 159 94
-3.481787e+000 -1.638968e+000 -6.182257e+000 160 159 94
-4.652271e+000 4.007394e+000 -9.261265e+000 179 170 127
-4.097254e+000 3.722667e+000 -9.184159e+000 181 169 131
-2.964983e-001 3.590803e+000 -1.062972e+001 178 150 105
-2.687411e+000 2.707605e+000 -8.278229e+000 122 56 57
-2.687411e+000 2.707605e+000 -8.278229e+000 122 56 57
-2.050030e+000 2.737966e+000 -8.736882e+000 165 142 103
-2.438362e-001 1.528073e+000 -8.223940e+000 73 74 62
-2.421347e-001 1.530317e+000 -8.222840e+000 73 74 62
-5.294671e+000 1.437047e-001 -9.556367e+000 130 62 53
8.675207e-001 1.262373e+000 -8.313213e+000 180 154 105
8.684492e-001 1.260445e+000 -8.319248e+000 180 154 105
1.276759e+000 4.525993e-001 -7.551060e+000 168 150 92
8.113538e-002 4.659415e+000 -1.210238e+001 224 214 207
1.779397e-001 4.349029e+000 -1.170369e+001 152 124 104
-5.673689e-001 3.502290e+000 -1.044100e+001 183 149 97
-3.134521e+000 2.918074e+000 -8.387006e+000 126 59 58
-3.134521e+000 2.918074e+000 -8.387006e+000 126 59 58
-2.817188e+000 2.752941e+000 -8.334792e+000 191 183 181
-2.421398e+000 2.199996e+000 -7.791289e+000 147 64 67
-2.360250e+000 2.201501e+000 -7.833984e+000 150 64 66
-2.360250e+000 2.201501e+000 -7.833984e+000 150 64 66
-3.556344e+000 2.094475e+000 -7.116122e+000 198 181 149
-3.556344e+000 2.094475e+000 -7.116122e+000 198 181 149
-3.490877e+000 1.804446e+000 -7.205350e+000 199 182 148
-3.490877e+000 1.804446e+000 -7.205350e+000 199 182 148
2.844233e+000 2.057085e+000 -1.031241e+001 88 91 82
3.589186e-001 1.521790e-001 -6.843893e+000 177 160 104
3.580626e-001 1.494209e-001 -6.845449e+000 177 160 104
-1.422427e+000 4.404273e+000 -1.130196e+001 94 101 73
-2.562970e+000 1.190313e+000 -6.561776e+000 193 167 93
-1.246891e+000 1.150359e+000 -7.274208e+000 146 115 67
-1.247829e+000 1.150656e+000 -7.273233e+000 146 115 67
-4.601427e+000 4.081230e+000 -9.358722e+000 173 165 120
-2.035323e+000 2.585586e+000 -8.486560e+000 192 168 110
-2.043916e+000 1.522447e+000 -7.109843e+000 158 57 65
-2.043916e+000 1.522447e+000 -7.109843e+000 158 57 65
-1.393830e+000 1.154325e+000 -6.918203e+000 195 170 115
-1.386725e+000 1.153502e+000 -6.925289e+000 195 170 115
9.021242e-001 7.009339e-001 -7.730416e+000 175 156 98
2.520284e+000 8.942746e-001 -8.464446e+000 99 111 71
3.300904e+000 5.848414e-001 -8.561453e+000 104 116 94
1.782443e+000 2.973260e+000 -1.073051e+001 77 88 71
-2.250536e+000 2.613917e+000 -8.201585e+000 133 57 59
-4.163348e+000 -1.972579e-001 -6.994565e+000 224 193 181
-2.913372e+000 2.461655e+000 -8.079697e+000 145 53 55
-2.599927e+000 2.569274e+000 -8.166759e+000 163 127 129
-2.075063e+000 2.282271e+000 -8.237897e+000 147 58 58
-4.478287e-001 4.780731e+000 -1.219383e+001 241 219 208
-2.833753e+000 4.060057e+000 -1.042176e+001 166 152 91
1.352705e+000 4.249821e+000 -1.226392e+001 85 88 80
2.558311e+000 3.602181e+000 -8.791601e+000 194 195 189
2.551983e+000 1.671688e+000 -9.760423e+000 62 72 61
-5.396258e+001 -5.585177e+000 -9.285290e+001 206 56 104
-5.050177e+001 1.242277e+000 -1.012666e+002 251 55 96
-4.726022e+001 5.598256e-001 -1.014480e+002 236 43 83
-3.868696e+001 -2.821880e+000 -1.025296e+002 250 200 179
-4.213918e+001 -1.061552e+001 -8.600064e+001 167 24 54
-3.934464e+001 -7.644783e+000 -9.676338e+001 64 37 89
-5.324300e+001 -6.795327e+000 -9.492321e+001 77 60 128
-5.209349e+001 -8.063276e+000 -9.226569e+001 174 165 218
-5.101896e+001 -8.337545e+000 -9.155353e+001 79 64 129
-3.112493e+001 -2.508362e+001 -7.805359e+001 197 39 78
-3.868340e+001 -6.646912e+000 -9.790486e+001 229 42 77
-3.475676e+001 -2.754059e+001 -7.009701e+001 188 11 47
-3.905306e+001 -3.992002e+000 -9.604298e+001 255 206 112
-3.994582e+001 -2.735416e+001 -6.998735e+001 235 49 93
-2.918814e+001 -2.539865e+001 -7.510302e+001 229 37 76
-2.918814e+001 -2.539865e+001 -7.510302e+001 229 37 76
-4.975202e+001 -8.451007e+000 -8.557902e+001 180 160 216
-4.975202e+001 -8.451007e+000 -8.557902e+001 180 160 216
-4.811004e+001 -1.249727e+001 -8.601261e+001 59 39 67
-6.907685e-001 3.895909e+000 -1.087415e+001 165 111 89
8.499232e-001 5.233875e-001 -7.487981e+000 180 158 103
1.406472e+000 1.872588e-002 -7.110619e+000 136 88 66
1.391910e+000 -3.194553e-002 -7.060604e+000 151 149 79
1.356923e+000 3.817188e-001 -7.519807e+000 141 93 71
7.682740e-001 3.255262e+000 -1.071435e+001 103 120 88
-4.974287e+001 -9.215145e+000 -8.793950e+001 120 110 171
2.080923e+000 9.131296e-001 -8.385848e+000 152 144 89
-5.334044e+001 -9.613179e+000 -8.988762e+001 255 198 238
-3.259412e+001 -1.399453e+001 -8.970176e+001 162 54 69
-3.943900e+001 -3.216849e+001 -6.427154e+001 64 52 115
9.843239e-001 2.838878e+000 -1.024644e+001 164 143 91
-5.001201e+001 -9.971207e+000 -8.641004e+001 212 203 246
-2.597235e+001 -3.371695e+001 -6.418988e+001 199 30 59
-2.569012e+001 -3.508979e+001 -6.344955e+001 182 32 61
-3.189047e+001 -2.467365e+001 -7.892132e+001 56 38 78
-3.175888e+001 -3.078683e+001 -6.576305e+001 64 47 90
-2.659191e+001 -3.197548e+001 -6.994034e+001 236 165 101
-2.685417e+001 -3.283806e+001 -6.879789e+001 214 36 64
-2.480186e+001 -3.257377e+001 -6.617994e+001 207 36 63
-4.010637e+001 -2.763083e+001 -6.737409e+001 56 37 92
-2.729064e+001 -3.264462e+001 -6.668522e+001 229 170 87
-2.843627e+001 -3.157233e+001 -6.450123e+001 47 32 67
-2.499422e+001 -3.498835e+001 -6.462442e+001 202 36 68
-2.517722e+001 -3.530882e+001 -6.518866e+001 202 36 68
-2.856283e+001 -3.207298e+001 -6.953369e+001 240 179 89
-2.856283e+001 -3.207298e+001 -6.953369e+001 240 179 89
-3.138101e+000 4.357668e+000 -1.053512e+001 159 149 100
-4.406046e+000 3.668419e+000 -8.930322e+000 125 119 83
3.378821e-001 3.292228e+000 -1.053973e+001 155 99 72
-4.698541e+000 2.178657e+000 -8.176757e+000 176 136 132
1.288483e+000 2.325588e+000 -9.654515e+000 154 152 129
-3.256568e+000 1.570979e+000 -9.642553e+000 202 174 170
-2.526107e+000 2.039154e+000 -7.580101e+000 165 53 64
-4.176727e+000 1.336478e+000 -7.165989e+000 237 204 169
-1.473097e+000 1.223228e+000 -7.078693e+000 189 165 111
-3.773840e+000 -1.224380e+000 -6.593327e+000 114 89 57
-4.002059e+000 3.628674e+000 -8.977336e+000 80 108 77
-4.716020e-001 3.846888e+000 -1.096201e+001 141 95 75
-2.640692e+000 3.326324e+000 -9.197132e+000 143 128 107
1.175160e+000 3.571976e+000 -1.125298e+001 187 163 108
2.461123e+000 1.830017e+000 -9.676041e+000 91 95 88
1.096206e+000 -1.157060e-001 -6.879929e+000 160 150 88
4.284303e+000 6.252150e+000 -6.588907e+000 188 184 173
-4.677055e+000 3.682363e+000 -8.911245e+000 173 166 130
-3.815962e+000 3.892567e+000 -9.358186e+000 194 172 129
4.407166e-001 2.763099e+000 -9.885890e+000 180 174 146
2.039398e+000 1.138523e+000 -8.646698e+000 172 169 140
1.751089e-001 1.941888e-001 -6.875561e+000 178 158 107
-7.347729e-002 4.519586e+000 -1.200136e+001 87 90 76
-2.273772e+000 1.775828e+000 -7.335011e+000 198 183 183
-4.941317e+001 -2.512745e+001 -7.657738e+001 239 59 104
-7.116473e-002 8.061019e-001 -7.488306e+000 67 81 71
-3.208326e+001 -3.127469e+001 -6.676094e+001 79 54 101
3.827655e-002 4.471558e+000 -1.198431e+001 93 100 83
1.866661e+000 1.288563e+000 -8.815424e+000 137 140 83
-3.432367e+001 -3.294248e+001 -6.292807e+001 155 20 50
-2.884432e+001 -3.224906e+001 -6.540532e+001 44 29 62
-3.915707e+001 -3.959088e+001 -6.097876e+001 76 69 77
-8.007350e-001 4.073813e+000 -1.136287e+001 132 84 74
-4.098801e+001 -3.059899e+001 -6.711768e+001 49 25 48
-4.209348e+001 -3.859428e+001 -6.699888e+001 45 30 72
8.845689e-002 5.068680e+000 -1.580198e+001 166 153 146
8.845689e-002 5.068680e+000 -1.580198e+001 166 153 146
-5.370553e+000 4.210196e+000 -9.675682e+000 165 170 127
-2.470619e+000 4.358421e+000 -1.077484e+001 193 173 118
-4.924685e+000 3.947687e+000 -9.115688e+000 125 127 90
-4.589585e+000 4.000576e+000 -9.240213e+000 174 169 127
-4.333433e+000 4.069536e+000 -9.460743e+000 177 165 118
-7.948487e-002 4.390369e+000 -1.167576e+001 136 142 119
-4.602658e+000 3.706346e+000 -8.905568e+000 177 173 135
-4.601532e+000 3.706484e+000 -8.906564e+000 177 173 135
-4.443059e+000 3.711495e+000 -8.958173e+000 164 160 122
-2.929426e+000 3.638734e+000 -9.713571e+000 186 164 115
3.109987e-001 3.893434e+000 -1.143526e+001 165 114 85
9.531292e-001 4.098747e+000 -1.139376e+001 165 120 95
-3.500706e+000 3.524315e+000 -9.050693e+000 177 121 100
-9.406812e-001 3.615040e+000 -1.042164e+001 185 143 107
5.793675e-001 3.639282e+000 -1.103931e+001 179 161 125
-2.714171e+000 3.359679e+000 -9.165063e+000 195 180 165
3.209968e-001 3.507575e+000 -1.083322e+001 149 106 68
1.474998e+000 3.380260e+000 -1.131305e+001 113 90 58
-8.730809e-001 3.210553e+000 -9.978820e+000 152 98 66
1.425404e+000 3.100884e+000 -1.094045e+001 163 144 93
1.988165e+000 3.293879e+000 -1.132422e+001 69 84 64
1.402399e+000 2.512268e+000 -1.017243e+001 124 115 92
1.411553e+000 2.335196e+000 -9.810907e+000 125 118 108
1.505203e+000 2.350625e+000 -9.893337e+000 88 81 75
1.538462e+000 2.306199e+000 -9.850086e+000 127 120 110
1.950628e+000 2.492755e+000 -1.027807e+001 143 138 134
2.042183e+000 2.424771e+000 -1.024011e+001 143 141 136
-2.579282e+000 2.163793e+000 -7.661397e+000 137 52 55
-2.579282e+000 2.163793e+000 -7.661397e+000 137 52 55
1.334061e+000 2.175119e+000 -9.651217e+000 152 150 131
2.071789e+000 2.153229e+000 -9.914295e+000 148 144 141
2.188712e+000 2.240166e+000 -9.988440e+000 110 106 102
2.353744e+000 2.215520e+000 -1.001359e+001 127 128 117
2.432705e+000 2.115917e+000 -1.008899e+001 131 137 125
-2.373568e+000 1.813830e+000 -7.349193e+000 160 63 77
-1.973485e+000 1.863077e+000 -7.537452e+000 121 39 45
-1.985667e+000 1.834318e+000 -7.602821e+000 121 39 45
-4.565327e+000 1.054105e+000 -7.946099e+000 179 148 93
-3.787969e-001 1.446949e+000 -8.091476e+000 169 147 127
-2.659433e-001 1.216867e+000 -7.962011e+000 175 162 136
-1.340312e+000 1.173837e+000 -7.187613e+000 188 160 83
8.639510e-001 1.137190e+000 -8.192376e+000 175 154 99
5.361585e-002 6.571030e-001 -7.305564e+000 169 153 121
7.066784e-001 7.282665e-001 -7.654146e+000 183 156 111
1.257658e+000 7.925744e-001 -7.907049e+000 169 159 88
1.130643e+000 6.308702e-001 -7.672071e+000 178 153 99
-3.813968e+000 -4.887518e-002 -6.585766e+000 164 123 80
1.382375e+000 3.442699e-001 -7.476366e+000 171 157 107
3.394609e+000 4.551930e-001 -8.419342e+000 92 106 81
-4.083616e+000 -6.730613e-001 -7.149283e+000 105 89 63
-4.007349e+000 -9.238218e-001 -7.079168e+000 108 93 68
1.035285e+000 1.664501e-001 -7.091056e+000 133 95 56
1.128472e+000 -1.927106e-002 -6.937624e+000 129 89 59
3.594237e+000 -1.671324e-001 -7.816574e+000 163 176 150
-2.784934e-001 4.494433e+000 -1.203093e+001 137 142 116
-9.577315e-001 4.148984e+000 -1.119729e+001 118 76 69
-4.631087e+000 3.602256e+000 -8.741493e+000 175 170 130
-4.066648e+000 3.748130e+000 -9.164546e+000 174 166 130
1.074793e+000 3.845795e+000 -1.162667e+001 176 142 104
-2.593945e+000 3.183013e+000 -8.883994e+000 197 183 174
-2.520100e+000 3.189330e+000 -8.936321e+000 142 125 115
1.269995e+000 3.034857e+000 -1.037144e+001 165 141 97
1.495876e+000 2.730456e+000 -1.034325e+001 104 95 86
-2.541019e+000 2.193719e+000 -7.714989e+000 188 179 181
-2.463153e+000 2.067579e+000 -7.577394e+000 188 176 175
2.552638e+000 2.041076e+000 -1.014389e+001 69 82 65
3.123736e+000 2.354272e+000 -9.902592e+000 161 162 156
3.193941e+000 2.359847e+000 -9.866559e+000 83 81 74
3.113164e+000 2.087060e+000 -1.010291e+001 81 82 77
7.928777e-001 1.569052e+000 -8.627996e+000 127 91 54
2.412552e+000 1.647937e+000 -9.269707e+000 93 92 88
-2.541774e-001 1.441908e+000 -8.135888e+000 182 178 153
7.632628e-001 1.381780e+000 -8.408322e+000 174 157 100
-2.975075e-001 1.152670e+000 -7.730887e+000 186 167 152
-2.463513e-001 1.087225e+000 -7.719784e+000 80 65 54
2.636649e-002 9.884211e-001 -7.682158e+000 184 168 145
6.129000e-001 6.358677e-001 -7.599880e+000 136 83 63
1.094081e+000 7.591701e-001 -7.822905e+000 173 153 94
1.233061e+000 6.459591e-001 -7.746151e+000 171 150 95
3.235260e+000 7.085411e-001 -8.614369e+000 94 110 80
3.250385e+000 6.885240e-001 -8.656405e+000 94 110 80
2.082990e-001 3.273502e-001 -6.960185e+000 165 150 111
-3.932108e+000 -1.000798e+000 -6.885861e+000 95 82 59
2.554583e+000 -4.862864e-002 -7.441062e+000 166 151 92
-8.329560e-001 4.209389e+000 -1.124816e+001 73 74 60
-4.052727e-001 4.306471e+000 -1.152287e+001 130 144 109
-3.811473e+000 3.828688e+000 -9.086574e+000 74 100 71
4.085228e+000 5.549247e+000 -7.176953e+000 188 181 175
-4.380815e+000 3.497775e+000 -8.715483e+000 186 171 128
2.091311e+000 3.291458e+000 -1.188242e+001 96 108 84
1.437056e+000 3.262106e+000 -1.102951e+001 76 74 61
-4.693509e+000 2.595519e+000 -8.105525e+000 215 186 178
-4.362742e+000 1.959980e+000 -7.644003e+000 210 193 124
-3.626753e+000 2.367425e+000 -7.589043e+000 199 180 130
-3.641264e+000 2.288729e+000 -7.655056e+000 199 180 130
-4.466195e+000 1.833061e+000 -7.762617e+000 147 117 103
-4.320247e+000 1.874259e+000 -7.561136e+000 210 195 115
-4.599220e+000 1.156138e+000 -7.835469e+000 219 191 176
1.567060e+000 1.881573e+000 -9.253031e+000 148 148 114
1.757044e+000 1.717607e+000 -9.266323e+000 147 151 116
7.311526e-001 1.489814e+000 -8.535127e+000 180 156 107
7.078718e-001 1.408283e+000 -8.457379e+000 137 92 63
2.414828e+000 9.756749e-001 -8.631048e+000 106 118 80
-1.308388e-001 7.178016e-001 -7.307262e+000 182 164 138
-4.727952e+000 -1.335112e+000 -8.428577e+000 209 185 162
1.163132e+000 -1.356834e-001 -6.836049e+000 135 85 64
1.160794e+000 -1.287343e-001 -6.827948e+000 135 85 64
-3.617803e+000 4.445487e+000 -1.032765e+001 163 153 100
1.409703e+000 4.565735e+000 -1.278455e+001 99 108 86
-1.907699e+000 4.279652e+000 -1.088985e+001 193 175 139
2.573696e-001 3.921339e+000 -1.126523e+001 162 115 83
-4.688174e+000 3.250343e+000 -8.475948e+000 181 157 96
4.225051e-001 3.567007e+000 -1.087376e+001 186 156 106
6.973580e-001 2.586944e+000 -9.838508e+000 157 151 92
1.857920e+000 2.844056e+000 -1.057200e+001 74 83 70
1.496104e+000 1.953981e+000 -9.393719e+000 139 136 99
2.457293e+000 2.013953e+000 -9.926437e+000 146 147 140
-5.293118e+000 1.531033e-001 -9.536993e+000 131 58 62
-2.329965e+000 1.691900e+000 -7.208620e+000 150 59 58
-2.373443e+000 1.629977e+000 -7.113835e+000 196 176 181
-1.948213e+000 1.671140e+000 -7.307123e+000 197 182 185
-1.877946e+000 1.542676e+000 -7.201192e+000 187 182 181
-2.224783e+000 1.186346e+000 -6.646366e+000 159 56 60
5.882504e-001 8.302399e-001 -7.720424e+000 178 157 109
2.882760e-002 7.772027e-001 -7.432898e+000 181 166 140
2.882760e-002 7.772027e-001 -7.432898e+000 181 166 140
7.055608e-001 6.124360e-001 -7.528858e+000 180 156 110
1.820201e-001 4.746477e-001 -7.146659e+000 60 76 66
2.042723e+000 5.026701e-001 -7.878992e+000 170 160 125
3.225458e+000 5.766374e-001 -8.430900e+000 125 138 118
3.223505e-001 2.353621e-001 -6.930969e+000 64 81 70
2.834045e-001 -1.072517e-001 -6.731825e+000 173 154 90
1.165229e+000 -1.497102e-001 -6.866525e+000 135 85 64
-4.047080e+000 4.406601e+000 -1.006259e+001 158 148 81
9.729572e-001 4.285076e+000 -1.183625e+001 145 98 80
1.493492e+000 3.260858e+000 -1.101670e+001 68 67 62
1.493492e+000 3.260858e+000 -1.101670e+001 68 67 62
2.098555e+000 2.926558e+000 -1.100174e+001 68 78 64
-4.598349e+000 1.742167e+000 -7.907755e+000 223 197 166
-3.983064e+000 -1.253253e+000 -6.956976e+000 195 181 125
2.300789e-001 4.337561e+000 -1.175061e+001 160 131 110
2.212668e-001 4.301143e+000 -1.187322e+001 160 131 110
-2.488594e+000 2.401698e+000 -7.989457e+000 146 57 64
-2.488594e+000 2.401698e+000 -7.989457e+000 146 57 64
