ply
format ascii 1.0
element face 0
property list uchar int vertex_indices
element vertex 875
property float x
property float y
property float z
property uchar diffuse_red
property uchar diffuse_green
property uchar diffuse_blue
end_header
-1.255409e-001 -2.479826e+000 -8.293798e+000 132 121 79
1.811394e-001 -2.386197e+000 -8.333545e+000 144 134 85
3.890268e-001 -2.461496e+000 -8.491076e+000 136 125 80
1.355425e+000 -2.309353e+000 -8.890616e+000 81 77 42
1.429997e+000 -2.303077e+000 -8.923470e+000 114 110 72
1.149702e+000 -2.723748e+000 -9.147743e+000 122 113 68
1.149702e+000 -2.723748e+000 -9.147743e+000 122 113 68
-5.787937e-001 -2.981459e+000 -8.593129e+000 134 125 82
2.352959e+000 -2.699606e+000 -9.893846e+000 78 83 61
-2.154085e+000 -3.305689e+000 -8.063732e+000 83 76 44
-1.430789e+000 -3.186894e+000 -8.352586e+000 136 127 96
-1.434768e+000 -3.184568e+000 -8.350517e+000 136 127 96
-2.936839e-002 -3.163276e+000 -9.070843e+000 100 91 53
-2.815296e-002 -3.160696e+000 -9.074990e+000 100 91 53
-5.082564e-001 -3.365917e+000 -9.053671e+000 92 81 50
6.493472e-001 -3.216914e+000 -9.474693e+000 83 77 43
-5.754839e-001 -3.585840e+000 -9.219652e+000 97 90 59
9.822340e-001 -3.532366e+000 -9.965329e+000 115 112 77
-9.568611e-001 -5.450103e-001 -6.194660e+000 153 137 111
-6.656230e-001 -9.410333e-001 -6.504829e+000 84 77 51
-6.664968e-001 -9.387833e-001 -6.505156e+000 84 77 51
-2.208322e+000 -1.383376e+000 -6.019658e+000 84 86 75
-2.099002e+000 -1.379071e+000 -6.081081e+000 80 86 83
-1.999601e+000 -1.406207e+000 -6.143060e+000 81 85 78
2.817476e-001 -8.612593e-001 -6.983703e+000 130 128 79
3.725391e-001 -8.669619e-001 -6.984720e+000 84 81 51
4.052196e-001 -1.002803e+000 -7.093228e+000 132 126 77
9.449819e-001 -9.617736e-001 -7.361120e+000 128 129 78
1.147259e+000 -7.846426e-001 -7.298141e+000 114 118 81
1.107161e+000 -9.663723e-001 -7.409773e+000 122 124 83
2.389346e+000 -6.909225e-001 -7.885357e+000 77 86 65
2.480998e+000 -7.853499e-001 -7.829259e+000 82 92 67
3.292806e+000 -6.408575e-001 -8.105052e+000 104 114 90
-2.663352e+000 -1.564154e+000 -5.949668e+000 79 80 72
-2.153988e+000 -1.499801e+000 -6.136311e+000 127 131 117
-1.913782e+000 -1.444861e+000 -6.217186e+000 85 88 79
-2.260252e-001 -1.197201e+000 -6.965890e+000 148 138 87
-3.790779e-001 -1.287228e+000 -6.951023e+000 147 135 93
-3.790779e-001 -1.287228e+000 -6.951023e+000 147 135 93
2.419115e-002 -1.146450e+000 -7.078975e+000 145 136 80
6.851632e-001 -1.048783e+000 -7.291527e+000 137 134 80
1.518464e+000 -9.425492e-001 -7.629140e+000 70 76 50
1.482326e+000 -1.077422e+000 -7.759344e+000 87 87 59
1.646661e+000 -9.366361e-001 -7.733201e+000 81 86 63
1.742182e+000 -8.933431e-001 -7.766438e+000 102 109 80
1.809791e+000 -8.525976e-001 -7.740593e+000 79 87 63
1.920758e+000 -9.083154e-001 -7.830702e+000 69 78 57
1.920758e+000 -9.083154e-001 -7.830702e+000 69 78 57
2.140045e+000 -8.418338e-001 -7.868942e+000 96 106 79
2.067944e+000 -8.838123e-001 -7.908083e+000 70 79 58
2.073228e+000 -8.720055e-001 -7.916468e+000 70 79 58
2.047147e+000 -9.640318e-001 -7.942094e+000 76 83 66
2.060947e+000 -9.332539e-001 -7.979552e+000 76 83 66
2.123003e+000 -9.315027e-001 -7.952249e+000 96 108 80
2.465070e+000 -8.919204e-001 -8.069561e+000 75 84 64
2.890437e+000 -7.985282e-001 -8.248338e+000 68 76 61
-2.461684e+000 -1.753785e+000 -6.219818e+000 114 115 107
-4.893161e-001 -1.465806e+000 -7.067585e+000 97 86 56
4.383422e-001 -1.388175e+000 -7.482214e+000 100 91 60
1.454089e+000 -1.160211e+000 -7.828888e+000 78 81 51
1.501862e+000 -1.233939e+000 -7.936012e+000 114 116 81
1.497465e+000 -1.246688e+000 -7.917187e+000 114 116 81
1.730192e+000 -1.131980e+000 -7.917390e+000 77 82 58
1.589147e+000 -1.170303e+000 -7.932598e+000 81 84 55
2.009464e+000 -1.085602e+000 -8.044461e+000 63 72 50
1.982471e+000 -1.156358e+000 -7.971500e+000 63 72 50
1.844734e+000 -1.208408e+000 -8.075405e+000 77 85 54
2.440485e+000 -1.180353e+000 -8.311598e+000 98 109 76
3.123449e+000 -9.822982e-001 -8.584416e+000 68 77 59
-2.908510e+000 -1.914563e+000 -6.187636e+000 78 82 72
-1.061263e+000 -1.577914e+000 -6.898441e+000 59 52 48
-9.380155e-001 -1.697009e+000 -7.099440e+000 150 139 89
-3.640811e-001 -1.601812e+000 -7.267712e+000 157 144 99
-2.444899e-001 -1.624221e+000 -7.345845e+000 144 135 92
4.457602e-001 -1.560946e+000 -7.666295e+000 143 131 78
8.138132e-001 -1.503766e+000 -7.761899e+000 101 88 55
1.273589e+000 -1.334449e+000 -7.862831e+000 85 83 52
1.873450e+000 -1.320572e+000 -8.182368e+000 99 106 72
1.874102e+000 -1.325648e+000 -8.184973e+000 99 106 72
2.292862e+000 -1.267765e+000 -8.393775e+000 93 104 75
2.339576e+000 -1.327913e+000 -8.456464e+000 56 66 41
2.465993e+000 -1.339244e+000 -8.471573e+000 69 79 53
-2.293013e+000 -2.043581e+000 -6.566481e+000 156 146 136
-1.159557e+000 -1.888421e+000 -7.137383e+000 55 48 45
-9.960230e-001 -1.901409e+000 -7.249020e+000 144 135 96
-9.960230e-001 -1.901409e+000 -7.249020e+000 144 135 96
-3.906551e-001 -1.699452e+000 -7.402592e+000 152 139 92
-3.906551e-001 -1.699452e+000 -7.402592e+000 152 139 92
-2.727072e-001 -1.717472e+000 -7.451335e+000 145 130 88
2.054221e-001 -1.630781e+000 -7.615371e+000 90 80 47
1.211684e-001 -1.732977e+000 -7.638859e+000 137 126 82
1.211684e-001 -1.732977e+000 -7.638859e+000 137 126 82
4.079117e-001 -1.678636e+000 -7.754084e+000 161 146 96
4.658723e-001 -1.706529e+000 -7.839885e+000 104 92 54
1.581509e+000 -1.611463e+000 -8.267311e+000 80 83 52
2.018373e+000 -1.509856e+000 -8.459152e+000 75 81 53
2.127391e+000 -1.577816e+000 -8.565325e+000 67 75 52
2.124629e+000 -1.583251e+000 -8.560915e+000 67 75 52
-2.615462e+000 -2.178078e+000 -6.565479e+000 133 135 124
-2.615462e+000 -2.178078e+000 -6.565479e+000 133 135 124
-2.478599e+000 -2.208542e+000 -6.643285e+000 132 131 119
-2.017588e+000 -2.226188e+000 -6.874689e+000 145 132 100
-6.035715e-001 -2.011624e+000 -7.574117e+000 157 144 109
1.422248e+000 -1.699743e+000 -8.336165e+000 86 85 47
1.610517e+000 -1.734794e+000 -8.444704e+000 125 125 77
1.459461e+000 -1.809679e+000 -8.451406e+000 135 128 83
1.799126e+000 -1.789532e+000 -8.590728e+000 80 84 54
1.796776e+000 -1.796439e+000 -8.591459e+000 80 84 54
2.894852e+000 -1.630739e+000 -9.087555e+000 61 65 44
-8.436925e-001 -2.074035e+000 -7.513316e+000 99 87 63
-8.436925e-001 -2.074035e+000 -7.513316e+000 99 87 63
-8.083051e-002 -2.140043e+000 -7.948864e+000 98 89 60
6.835014e-002 -2.068278e+000 -7.953090e+000 80 71 42
1.373698e+000 -1.854444e+000 -8.440827e+000 77 73 38
1.371313e+000 -1.860483e+000 -8.434769e+000 77 73 38
1.431571e+000 -1.889367e+000 -8.513102e+000 127 122 76
1.354038e+000 -1.931172e+000 -8.506241e+000 87 82 49
1.497320e+000 -1.895079e+000 -8.584381e+000 79 77 38
1.490439e+000 -1.912997e+000 -8.565674e+000 79 77 38
1.837561e+000 -1.859316e+000 -8.684080e+000 113 115 74
1.623819e+000 -1.926373e+000 -8.682049e+000 72 75 50
2.428924e+000 -1.862267e+000 -9.021275e+000 62 70 46
-1.137468e+000 -2.341346e+000 -7.592987e+000 143 133 104
-8.985125e-001 -2.274554e+000 -7.658970e+000 71 60 41
-4.422611e-001 -2.238357e+000 -7.883332e+000 154 141 99
-5.168120e-001 -2.267966e+000 -7.831621e+000 84 70 43
-3.225741e-001 -2.227225e+000 -7.918794e+000 146 137 95
-4.902697e-001 -2.357250e+000 -7.948353e+000 150 137 94
-3.458414e-001 -2.305635e+000 -7.993912e+000 151 140 94
-1.189021e-001 -2.259772e+000 -8.016905e+000 86 78 49
-1.353699e-001 -2.314189e+000 -8.089750e+000 95 86 54
1.512652e-001 -2.292616e+000 -8.248241e+000 102 91 59
5.840597e-001 -2.210900e+000 -8.335340e+000 90 77 43
1.169592e+000 -2.086994e+000 -8.586221e+000 88 78 41
1.057299e+000 -2.225527e+000 -8.639124e+000 129 122 68
1.057299e+000 -2.225527e+000 -8.639124e+000 129 122 68
1.512961e+000 -2.032387e+000 -8.689479e+000 118 114 73
1.353505e+000 -2.154413e+000 -8.752187e+000 130 123 81
1.391329e+000 -2.206383e+000 -8.801345e+000 86 81 53
1.570457e+000 -2.074528e+000 -8.775967e+000 80 79 48
1.536282e+000 -2.163072e+000 -8.830527e+000 84 81 48
1.757515e+000 -2.124257e+000 -8.922340e+000 109 109 72
1.751049e+000 -2.140494e+000 -8.901714e+000 109 109 72
1.837526e+000 -2.071748e+000 -8.935158e+000 72 75 47
1.828602e+000 -2.095498e+000 -8.894687e+000 72 75 47
1.809350e+000 -2.156493e+000 -8.989660e+000 72 72 46
-1.350578e+000 -2.482448e+000 -7.594252e+000 67 54 46
-7.324051e-001 -2.409628e+000 -7.907838e+000 159 146 113
-4.714741e-001 -2.478652e+000 -8.085306e+000 106 93 59
1.020934e+000 -2.329517e+000 -8.734727e+000 138 127 73
1.281080e+000 -2.352815e+000 -8.978430e+000 115 108 63
1.658722e+000 -2.207415e+000 -8.957697e+000 75 71 44
1.659041e+000 -2.206868e+000 -8.958362e+000 75 71 44
1.821894e+000 -2.329396e+000 -9.172427e+000 105 106 72
1.897234e+000 -2.287011e+000 -9.152265e+000 68 71 48
-2.043015e+000 -2.755162e+000 -7.575518e+000 145 131 92
-1.355020e+000 -2.623506e+000 -7.846409e+000 141 132 103
-7.239799e-001 -2.731098e+000 -8.208389e+000 140 127 88
-5.342567e-001 -2.683659e+000 -8.235573e+000 98 85 53
1.514181e-001 -2.644265e+000 -8.586626e+000 105 94 60
2.821109e-001 -2.597745e+000 -8.605094e+000 97 85 50
9.899560e-001 -2.431235e+000 -8.861976e+000 133 124 78
1.286928e+000 -2.525317e+000 -9.132570e+000 85 79 44
2.039848e+000 -2.431539e+000 -9.368460e+000 94 100 66
2.301480e+000 -2.416087e+000 -9.346251e+000 80 89 60
-1.414234e+000 -2.824196e+000 -7.949321e+000 133 121 90
-1.296184e+000 -2.806466e+000 -7.973068e+000 146 133 101
-1.296376e+000 -2.798189e+000 -7.988725e+000 146 133 101
-8.605357e-001 -2.777324e+000 -8.193722e+000 142 129 95
-1.499846e-001 -2.708845e+000 -8.512389e+000 91 81 46
-1.506423e-001 -2.708481e+000 -8.512489e+000 91 81 46
5.428036e-001 -2.688685e+000 -8.869989e+000 82 73 40
1.044087e+000 -2.651424e+000 -9.022041e+000 129 123 75
1.026646e+000 -2.693579e+000 -9.139391e+000 129 122 69
1.183251e+000 -2.626128e+000 -9.114202e+000 121 114 74
1.612051e+000 -2.559495e+000 -9.318861e+000 107 106 68
1.349470e+000 -2.702764e+000 -9.292024e+000 86 78 49
1.769266e+000 -2.662518e+000 -9.469841e+000 72 72 46
2.334209e+000 -2.510245e+000 -9.636682e+000 59 66 43
-2.537074e+000 -3.064498e+000 -7.616882e+000 139 128 90
-1.875043e+000 -3.089238e+000 -8.003608e+000 125 114 82
-1.180675e+000 -2.959477e+000 -8.190000e+000 132 122 88
-8.694305e-001 -2.949152e+000 -8.387549e+000 103 93 57
-5.208008e-003 -2.928319e+000 -8.843442e+000 142 135 93
1.790135e+000 -2.788617e+000 -9.630258e+000 94 98 67
-2.419638e+000 -3.275837e+000 -7.889858e+000 135 123 81
-2.304071e+000 -3.186198e+000 -7.874145e+000 142 130 90
-2.235633e+000 -3.192008e+000 -7.906945e+000 142 129 93
-2.235111e+000 -3.193718e+000 -7.904456e+000 142 129 93
-2.273316e+000 -3.243570e+000 -7.921369e+000 91 82 51
-2.365070e+000 -3.330797e+000 -7.983541e+000 126 118 82
-3.375513e-001 -3.074717e+000 -8.843545e+000 127 119 82
-3.375513e-001 -3.074717e+000 -8.843545e+000 127 119 82
3.261605e-002 -3.133411e+000 -9.062388e+000 133 124 82
1.049607e+000 -2.997154e+000 -9.388997e+000 125 119 75
1.019109e+000 -3.099604e+000 -9.571367e+000 125 117 80
1.578327e+000 -3.011898e+000 -9.788943e+000 99 103 67
-2.140282e+000 -3.424548e+000 -8.226462e+000 117 111 76
-1.878981e-001 -3.256212e+000 -9.079756e+000 88 78 50
3.438707e-002 -3.287939e+000 -9.228229e+000 93 87 53
2.008549e+000 -3.146819e+000 -1.021624e+001 66 68 46
-3.107824e+000 -3.678237e+000 -7.967439e+000 99 96 65
-5.699189e-001 -3.534570e+000 -9.174073e+000 90 84 52
2.523070e-001 -3.451661e+000 -9.551601e+000 96 85 53
2.634669e-001 -3.452351e+000 -9.579894e+000 96 85 53
8.177055e-001 -3.473656e+000 -9.887398e+000 86 81 49
-4.683335e+000 -2.213001e+000 -9.480553e+000 203 181 135
-2.421569e+000 -3.683274e+000 -8.338950e+000 91 86 54
-2.044606e+000 -3.715995e+000 -8.593363e+000 96 90 58
2.214556e-001 -3.535827e+000 -9.618719e+000 89 82 55
2.152273e-001 -3.534256e+000 -9.616996e+000 89 82 55
6.652962e-001 -9.623637e-001 -7.220225e+000 93 96 64
-5.370757e-002 -1.171414e+000 -7.026223e+000 110 101 61
9.489402e-001 -9.893507e-001 -7.406254e+000 128 128 77
1.087537e+000 -9.941162e-001 -7.468235e+000 125 126 83
1.389238e+000 -9.159044e-001 -7.563189e+000 78 83 62
3.370757e+000 -5.268779e-001 -8.568710e+000 96 108 83
-1.144116e+000 -1.472379e+000 -6.761606e+000 63 55 49
-5.714731e-001 -1.455643e+000 -7.087051e+000 123 111 75
1.697849e-001 -1.363605e+000 -7.296679e+000 92 88 61
3.351000e+000 -6.844888e-001 -9.017222e+000 89 97 72
-8.767738e-001 -1.672533e+000 -7.065117e+000 95 90 61
-1.137952e+000 -1.821635e+000 -7.081250e+000 61 54 48
-6.632782e-001 -1.773780e+000 -7.291525e+000 125 115 79
-2.672318e-001 -1.875491e+000 -7.566275e+000 110 96 68
-7.629323e-001 -2.107162e+000 -7.541997e+000 121 110 80
1.633897e-001 -2.002025e+000 -7.964687e+000 128 115 79
1.241115e-001 -2.184826e+000 -7.962179e+000 129 117 77
8.204994e-002 -2.267349e+000 -8.173871e+000 124 115 72
8.701760e-002 -2.250023e+000 -8.202211e+000 124 115 72
3.164860e-001 -2.132241e+000 -8.264836e+000 94 83 54
1.011329e+000 -2.102880e+000 -8.506913e+000 88 78 48
1.424474e+000 -2.097615e+000 -8.732374e+000 77 77 43
-1.730899e+000 -2.649956e+000 -7.560956e+000 152 137 104
-1.121952e+000 -2.472553e+000 -7.754917e+000 85 75 50
-1.023484e+000 -2.664393e+000 -8.039380e+000 96 86 62
-8.455375e-002 -2.539627e+000 -8.340314e+000 85 77 56
-1.951276e+000 -2.899594e+000 -7.751324e+000 146 134 93
-1.953444e+000 -2.885868e+000 -7.770722e+000 146 134 93
-1.683803e+000 -2.911253e+000 -7.872246e+000 143 130 89
-7.051789e-002 -2.717308e+000 -8.578422e+000 120 112 71
-1.561643e+000 -3.081117e+000 -8.123231e+000 56 47 39
-1.282392e+000 -2.935897e+000 -8.161226e+000 90 81 57
-1.083056e+000 -3.055502e+000 -8.400408e+000 120 108 70
-1.787105e-001 -3.036977e+000 -8.841514e+000 124 116 77
-3.019945e+000 -3.295521e+000 -7.599453e+000 121 110 68
-2.956788e+000 -3.285971e+000 -7.642278e+000 78 73 44
-2.956788e+000 -3.285971e+000 -7.642278e+000 78 73 44
-2.799588e+000 -3.236091e+000 -7.656970e+000 82 72 45
-2.824521e+000 -3.310430e+000 -7.733955e+000 75 68 41
-2.824843e+000 -3.304654e+000 -7.738781e+000 75 68 41
-2.613043e+000 -3.258398e+000 -7.781357e+000 128 120 83
-2.208285e+000 -3.262324e+000 -8.019051e+000 139 127 87
-2.090068e+000 -3.259776e+000 -8.037455e+000 133 123 87
2.011639e-001 -3.050512e+000 -9.163536e+000 127 120 76
4.946145e-001 -3.045194e+000 -9.248049e+000 121 112 71
-3.067804e+000 -3.409686e+000 -7.694775e+000 121 113 76
-2.513817e+000 -3.349576e+000 -7.937134e+000 123 119 75
-1.369845e+000 -3.374356e+000 -8.581868e+000 129 119 84
-1.270163e+000 -3.338274e+000 -8.574060e+000 92 83 52
-2.783657e-001 -3.322225e+000 -9.120687e+000 111 106 66
1.341621e-001 -3.223032e+000 -9.283543e+000 127 120 78
-2.629942e+000 -3.642433e+000 -8.184060e+000 126 119 75
7.965827e-002 -3.368760e+000 -9.356037e+000 126 118 75
7.965827e-002 -3.368760e+000 -9.356037e+000 126 118 75
-3.442770e+000 -3.717581e+000 -7.816233e+000 114 111 73
-3.314681e+000 -3.739969e+000 -7.936765e+000 109 107 69
-1.456903e+000 -3.630866e+000 -8.833748e+000 125 116 80
-9.342979e-001 -6.764067e-001 -6.218660e+000 235 229 226
-9.342979e-001 -6.764067e-001 -6.218660e+000 235 229 226
-6.883469e-001 -8.355684e-001 -6.752457e+000 105 100 69
8.356303e-001 -8.024951e-001 -7.191411e+000 124 127 84
-1.870145e+000 -1.579563e+000 -6.354339e+000 100 108 92
7.147219e-001 -1.194000e+000 -7.647765e+000 148 139 84
7.527762e-001 -1.717863e+000 -7.565332e+000 96 85 53
-2.231895e+000 -1.997650e+000 -6.546893e+000 78 80 71
-8.223447e-001 -1.805159e+000 -7.238780e+000 128 119 78
-8.749232e-001 -1.949706e+000 -7.375320e+000 123 112 80
7.104643e-001 -1.749113e+000 -7.970786e+000 97 91 63
7.104643e-001 -1.749113e+000 -7.970786e+000 97 91 63
3.214937e+000 -1.799455e+000 -9.243365e+000 127 119 108
-1.143500e+000 -2.769714e+000 -8.010666e+000 126 113 79
-3.827368e-001 -2.786384e+000 -8.440247e+000 129 118 73
-2.714554e+000 -3.100723e+000 -7.497495e+000 134 122 78
-1.239300e+000 -3.062806e+000 -8.277780e+000 126 114 76
-1.944457e+000 -3.207629e+000 -8.077157e+000 133 125 88
-1.848445e+000 -3.371492e+000 -8.286670e+000 130 122 83
-2.765641e+000 -3.645219e+000 -8.110079e+000 125 118 72
-2.475181e+000 -3.640714e+000 -8.258509e+000 126 122 75
-2.357919e+000 -3.622874e+000 -8.318874e+000 128 124 83
-4.155953e+000 -3.045298e+000 -8.731632e+000 137 143 89
-4.964124e-001 -9.975061e-001 -6.647342e+000 115 111 72
6.120621e-001 -1.151028e+000 -7.392879e+000 142 135 80
-2.133321e+000 -1.624992e+000 -6.254518e+000 157 148 133
-1.309702e-001 -1.812079e+000 -7.578836e+000 161 147 99
7.470237e-001 -1.653817e+000 -7.914104e+000 93 88 50
7.470237e-001 -1.653817e+000 -7.914104e+000 93 88 50
5.545396e-001 -2.246517e+000 -8.374899e+000 98 88 54
5.547146e-001 -2.248583e+000 -8.372963e+000 98 88 54
3.206598e+000 -1.961750e+000 -9.436303e+000 132 126 114
-8.808564e-001 -2.684266e+000 -8.089032e+000 103 90 45
-2.002249e+000 -3.162221e+000 -7.947208e+000 108 100 72
-2.924632e+000 -3.562636e+000 -7.933897e+000 92 86 60
-2.423922e+000 -3.555448e+000 -8.191037e+000 104 99 72
-2.157765e+000 -1.738901e+000 -6.422604e+000 160 146 137
-1.904619e+000 -1.879990e+000 -6.611318e+000 103 106 95
-1.012356e+000 -1.763812e+000 -7.082378e+000 144 134 85
9.666075e-001 -1.955980e+000 -8.364164e+000 106 98 58
-1.261100e+000 -2.578580e+000 -7.746601e+000 154 140 112
3.773565e-001 -2.342451e+000 -8.403021e+000 159 141 80
-1.377357e+000 -2.893857e+000 -8.043127e+000 147 136 100
-1.425185e+000 -2.996755e+000 -8.181758e+000 109 98 68
-1.594067e+000 -3.436064e+000 -8.579965e+000 91 81 42
-1.651352e+000 -3.593166e+000 -8.704102e+000 112 104 71
2.622097e-002 -1.086014e+000 -6.892194e+000 138 129 72
3.660399e+000 -6.502650e-001 -8.584447e+000 171 172 167
-3.354154e+000 -9.312779e-001 -6.950103e+000 176 186 113
-9.323879e-001 -1.535367e+000 -6.962902e+000 149 138 85
3.119254e+000 -1.849206e+000 -9.357042e+000 50 48 43
-1.497538e+000 -2.760645e+000 -7.799246e+000 56 53 48
-1.497538e+000 -2.760645e+000 -7.799246e+000 56 53 48
-1.545789e+000 -2.893326e+000 -7.942968e+000 60 51 44
-1.545789e+000 -2.893326e+000 -7.942968e+000 60 51 44
-4.793302e+000 -1.051563e+000 -9.308105e+000 216 110 114
-1.608465e+000 -3.079179e+000 -8.096330e+000 57 48 39
-1.608465e+000 -3.079179e+000 -8.096330e+000 57 48 39
-9.244700e-001 -9.020838e-001 -6.386015e+000 65 64 56
-2.116541e+000 -1.700205e+000 -6.367151e+000 160 148 136
9.614250e-001 -1.626776e+000 -8.029688e+000 130 118 63
-1.809112e+000 -3.035895e+000 -7.964055e+000 96 85 56
-1.434936e+000 -3.677821e+000 -8.922520e+000 120 110 78
-4.579215e+000 -5.081656e-001 -9.611285e+000 224 206 155
-2.335205e+000 -3.706776e+000 -8.504069e+000 71 68 45
2.132436e-001 -1.769472e+000 -7.720129e+000 129 120 80
2.153665e-001 -1.762751e+000 -7.726160e+000 129 120 80
-2.892614e+000 -3.285581e+000 -7.665730e+000 114 110 73
3.100131e-001 -3.982675e+000 -9.717863e+000 196 180 164
-1.803205e+000 -2.411182e+000 -7.185526e+000 155 136 94
3.456022e+000 -2.098418e+000 -8.200087e+000 185 188 181
-1.795294e+000 -3.510977e+000 -8.646325e+000 57 53 50
3.544999e+000 -2.967845e+000 -9.414924e+000 190 190 178
-5.587898e-001 -9.917339e-001 -6.620372e+000 137 131 90
-1.950319e+000 -1.446270e+000 -6.193613e+000 81 83 74
-7.542068e-001 -1.138283e+000 -6.639218e+000 143 132 86
1.301651e+000 -8.256302e-001 -7.436873e+000 111 117 81
2.189945e+000 -7.202899e-001 -7.823062e+000 98 108 84
2.330159e+000 -6.639905e-001 -7.880901e+000 100 112 87
-2.560769e+000 -1.656228e+000 -6.109495e+000 84 86 75
-2.849604e+000 -2.184754e+000 -5.736195e+000 74 77 66
-2.646583e+000 -1.881585e+000 -6.135808e+000 156 144 130
-2.169589e+000 -1.678077e+000 -6.309879e+000 95 87 78
-4.803910e-001 -1.408689e+000 -7.034199e+000 150 138 93
-2.768154e+000 -1.926937e+000 -6.251388e+000 81 83 70
-2.768154e+000 -1.926937e+000 -6.251388e+000 81 83 70
-2.226803e+000 -1.855895e+000 -6.434307e+000 78 72 59
-1.921244e+000 -1.820534e+000 -6.523995e+000 76 79 68
-7.715778e-001 -1.718104e+000 -7.185622e+000 147 137 98
2.690378e+000 -1.274743e+000 -8.630977e+000 92 102 78
-9.602984e-001 -1.923566e+000 -7.294353e+000 85 78 52
-6.256849e-001 -1.898282e+000 -7.420236e+000 159 146 107
-1.595993e-002 -1.786593e+000 -7.668412e+000 155 146 107
-2.269944e+000 -2.234925e+000 -6.776950e+000 107 109 98
-1.365190e+000 -2.165933e+000 -7.312630e+000 57 44 34
-8.988009e-001 -2.123733e+000 -7.493914e+000 152 144 108
2.184175e+000 -1.617924e+000 -8.648571e+000 91 101 69
-1.168614e+000 -2.265481e+000 -7.510011e+000 94 84 59
-6.497779e-001 -2.153174e+000 -7.680038e+000 155 142 107
-9.614185e-001 -2.305438e+000 -7.676492e+000 155 144 112
-5.403079e-001 -2.361996e+000 -7.927557e+000 147 134 91
-8.409508e-002 -2.376137e+000 -8.187592e+000 149 136 92
-3.686424e-001 -2.514873e+000 -8.185499e+000 83 72 43
1.805996e+000 -2.373934e+000 -9.209893e+000 106 109 77
2.097940e+000 -2.295632e+000 -9.270450e+000 89 96 63
-1.253372e+000 -2.681971e+000 -7.897603e+000 154 142 108
-2.003074e+000 -3.044490e+000 -7.873765e+000 140 126 89
-3.480920e-001 -2.802528e+000 -8.498343e+000 144 135 93
-2.637962e-001 -2.885465e+000 -8.641948e+000 135 130 93
2.375858e+000 -2.610634e+000 -9.743038e+000 83 89 63
-3.061097e+000 -3.290725e+000 -7.565268e+000 90 76 49
-2.020586e+000 -3.257283e+000 -8.071788e+000 85 78 48
-1.810189e+000 -3.155118e+000 -8.057024e+000 100 88 61
-1.902056e+000 -3.161079e+000 -8.058646e+000 136 129 85
-8.784631e-001 -3.044088e+000 -8.478202e+000 77 66 34
-7.784674e-001 -3.067774e+000 -8.561197e+000 140 129 85
-7.784674e-001 -3.067774e+000 -8.561197e+000 140 129 85
-3.302573e+000 -3.494423e+000 -7.663062e+000 86 76 48
-2.142563e+000 -3.274463e+000 -8.035157e+000 139 125 87
-3.474443e+000 -3.594829e+000 -7.683712e+000 119 117 78
-1.612446e+000 -3.496997e+000 -8.586195e+000 69 64 34
1.323448e+000 -3.327294e+000 -1.002023e+001 105 102 69
2.788394e+000 -3.060332e+000 -1.094959e+001 85 75 64
2.116720e+000 -3.406021e+000 -1.052172e+001 83 85 64
-3.733034e+000 -3.896304e+000 -7.936062e+000 119 112 83
-2.294586e+000 -1.599906e+000 -6.184424e+000 96 88 79
-7.238515e-001 -1.324551e+000 -6.819692e+000 145 135 84
1.554738e+000 -1.050289e+000 -7.783409e+000 114 118 84
2.405686e+000 -8.678050e-001 -8.065419e+000 96 106 78
2.405686e+000 -8.678050e-001 -8.065419e+000 96 106 78
2.698792e+000 -7.908939e-001 -8.161006e+000 96 106 82
2.659759e+000 -9.357227e-001 -8.274111e+000 95 105 79
-2.866394e+000 -1.848300e+000 -6.123755e+000 81 84 73
-2.194896e+000 -1.747242e+000 -6.341677e+000 161 145 137
-7.547366e-001 -1.439565e+000 -6.886127e+000 144 132 88
-4.059185e-001 -1.364837e+000 -7.029335e+000 149 139 91
-3.166348e-001 -1.466237e+000 -7.149456e+000 150 140 95
1.509838e+000 -1.208537e+000 -7.862599e+000 120 121 82
3.072163e+000 -9.001952e-001 -8.456549e+000 91 103 81
3.081031e+000 -8.815306e-001 -8.484322e+000 91 103 81
3.141018e+000 -8.929000e-001 -8.555555e+000 62 74 54
3.141018e+000 -8.929000e-001 -8.555555e+000 62 74 54
3.053301e+000 -9.659279e-001 -8.587313e+000 84 94 70
-2.704088e+000 -2.023200e+000 -6.382456e+000 75 82 71
-3.837729e-001 -1.686989e+000 -7.353557e+000 159 144 104
-3.832014e-001 -1.688269e+000 -7.348637e+000 159 144 104
2.421075e+000 -1.263554e+000 -8.458175e+000 87 98 69
2.718929e+000 -1.177791e+000 -8.514884e+000 83 93 69
2.750973e+000 -1.268748e+000 -8.648847e+000 66 75 54
-2.801612e+000 -2.069300e+000 -6.397188e+000 78 78 70
-2.385142e+000 -2.075572e+000 -6.558341e+000 152 140 132
-2.349770e+000 -2.046165e+000 -6.529506e+000 77 78 70
-1.096334e+000 -1.855492e+000 -7.148120e+000 144 137 95
-9.701781e-001 -1.821289e+000 -7.187988e+000 146 133 92
-3.841983e-001 -1.856067e+000 -7.506907e+000 78 64 37
1.916264e+000 -1.618002e+000 -8.443636e+000 105 112 78
1.925103e+000 -1.595738e+000 -8.479168e+000 105 112 78
2.230474e+000 -1.457795e+000 -8.489041e+000 92 101 74
2.382391e+000 -1.399165e+000 -8.580046e+000 88 98 71
2.344240e+000 -1.525662e+000 -8.664688e+000 90 99 70
2.673662e+000 -1.336524e+000 -8.683242e+000 88 98 74
1.355815e+000 -1.702681e+000 -8.289827e+000 129 123 74
1.337809e+000 -1.770739e+000 -8.331200e+000 139 131 84
1.655691e+000 -1.789789e+000 -8.527744e+000 81 79 56
-3.113554e-001 -2.192668e+000 -7.892550e+000 153 139 95
1.870098e-002 -2.050859e+000 -7.876147e+000 153 140 85
3.017795e-001 -2.012557e+000 -8.024212e+000 153 141 81
1.643403e+000 -1.869344e+000 -8.587476e+000 64 62 39
2.178720e+000 -1.832257e+000 -8.865469e+000 65 70 48
1.956734e+000 -1.913708e+000 -8.896478e+000 99 99 71
2.007287e+000 -1.963227e+000 -8.902258e+000 60 64 37
-1.319576e+000 -2.410985e+000 -7.563553e+000 56 46 34
-9.146558e-001 -2.340927e+000 -7.703100e+000 93 83 66
-9.152915e-001 -2.341743e+000 -7.701827e+000 93 83 66
-5.800000e-001 -2.294714e+000 -7.849959e+000 151 138 106
2.133348e-002 -2.232686e+000 -8.092979e+000 91 82 54
1.901041e-001 -2.350991e+000 -8.314947e+000 146 134 82
1.278934e+000 -2.132452e+000 -8.660645e+000 88 81 53
1.346107e+000 -2.168762e+000 -8.742737e+000 122 118 72
1.621406e+000 -2.128098e+000 -8.865046e+000 112 109 70
1.731127e+000 -2.199003e+000 -8.992070e+000 109 110 73
-1.885194e+000 -2.721009e+000 -7.596335e+000 144 131 98
4.482285e-001 -2.426304e+000 -8.533720e+000 81 76 39
5.359014e-001 -2.525201e+000 -8.657534e+000 142 134 83
5.666208e-001 -2.423388e+000 -8.610503e+000 142 130 75
1.091413e+000 -2.325639e+000 -8.768111e+000 71 63 40
1.294148e+000 -2.320013e+000 -8.917366e+000 127 120 74
1.503104e+000 -2.279898e+000 -8.955438e+000 71 68 39
1.858420e+000 -2.208308e+000 -9.090320e+000 95 99 64
1.854684e+000 -2.216238e+000 -9.069545e+000 95 99 64
-1.505531e+000 -2.289436e+000 -8.418208e+000 55 45 43
-1.287547e+000 -2.780892e+000 -7.989217e+000 152 142 107
2.229972e-001 -2.605028e+000 -8.625675e+000 145 136 82
1.341587e+000 -2.562499e+000 -9.192637e+000 126 120 67
1.342606e+000 -2.559671e+000 -9.197099e+000 126 120 67
1.489186e+000 -2.522535e+000 -9.171612e+000 115 109 73
2.088409e+000 -2.509529e+000 -9.527427e+000 62 67 46
-7.975035e-001 -2.932214e+000 -8.412121e+000 148 140 95
4.711808e-001 -2.890616e+000 -9.030928e+000 82 76 44
1.538916e+000 -2.764949e+000 -9.475806e+000 105 102 71
2.197360e+000 -2.588758e+000 -9.668934e+000 54 59 38
2.197360e+000 -2.588758e+000 -9.668934e+000 54 59 38
2.350679e+000 -2.707484e+000 -9.882740e+000 79 84 62
2.416455e+000 -2.687723e+000 -9.900416e+000 58 63 43
-1.540542e+000 -3.183772e+000 -8.277411e+000 144 129 93
-1.443380e+000 -3.043442e+000 -8.165335e+000 62 56 32
-1.443380e+000 -3.043442e+000 -8.165335e+000 62 56 32
-7.482030e-001 -3.124237e+000 -8.633878e+000 141 134 88
-7.474214e-001 -3.121325e+000 -8.634831e+000 141 134 88
2.821783e-001 -3.080636e+000 -9.136447e+000 94 84 57
7.243726e-001 -3.006230e+000 -9.322850e+000 85 76 47
9.208168e-001 -3.005864e+000 -9.397292e+000 130 123 76
1.286478e+000 -2.938326e+000 -9.545237e+000 71 66 37
1.641960e+000 -2.854292e+000 -9.658536e+000 98 99 65
1.540520e+000 -2.938719e+000 -9.653687e+000 68 67 37
2.240207e+000 -2.806816e+000 -9.953050e+000 61 64 42
2.199458e+000 -2.935707e+000 -9.920315e+000 56 60 39
-2.241328e+000 -3.371183e+000 -8.090656e+000 127 122 83
-1.844264e+000 -3.252636e+000 -8.179928e+000 64 58 31
-1.042514e+000 -3.287150e+000 -8.663955e+000 139 129 80
-1.042722e+000 -3.287137e+000 -8.663937e+000 139 129 80
2.608309e-001 -3.121917e+000 -9.218996e+000 90 81 52
2.608309e-001 -3.121917e+000 -9.218996e+000 90 81 52
9.777921e-001 -3.216858e+000 -9.697800e+000 128 122 81
1.573011e+000 -3.035126e+000 -9.704691e+000 109 111 74
1.720108e+000 -2.999084e+000 -9.845961e+000 96 96 68
1.777806e+000 -3.035693e+000 -9.931342e+000 73 73 47
1.777806e+000 -3.035693e+000 -9.931342e+000 73 73 47
1.664445e+000 -3.140967e+000 -9.933270e+000 94 97 66
1.809291e+000 -3.115698e+000 -1.007146e+001 95 99 66
-2.362206e+000 -3.582812e+000 -8.240551e+000 91 85 58
-2.135692e+000 -3.434159e+000 -8.224456e+000 128 124 81
-8.018705e-002 -3.461662e+000 -9.394831e+000 138 127 88
2.251729e-001 -3.398173e+000 -9.465231e+000 145 135 92
4.605208e-001 -3.352907e+000 -9.533399e+000 80 74 43
1.164952e+000 -3.269914e+000 -9.826384e+000 81 76 46
1.809586e+000 -3.316858e+000 -1.026397e+001 62 61 41
-1.150392e+000 -3.588206e+000 -8.933386e+000 142 134 87
-1.002786e+000 -3.651943e+000 -9.090936e+000 147 135 87
-1.002786e+000 -3.651943e+000 -9.090936e+000 147 135 87
1.222214e-001 -3.515852e+000 -9.557139e+000 82 76 48
1.207019e-001 -3.516543e+000 -9.554059e+000 82 76 48
1.919049e-001 -3.487067e+000 -9.559005e+000 139 136 85
5.653541e-001 -3.442714e+000 -9.744172e+000 71 63 39
1.141394e+000 -3.493992e+000 -1.009310e+001 114 108 76
1.691644e+000 -3.444808e+000 -1.021880e+001 99 100 72
-2.449049e+000 -1.432127e+000 -5.949668e+000 82 83 76
-2.103355e+000 -1.378885e+000 -6.061294e+000 78 78 78
-8.965311e-001 -1.221384e+000 -6.645974e+000 143 134 79
1.853583e+000 -6.797209e-001 -7.665724e+000 73 82 61
1.846093e+000 -7.058824e-001 -7.637409e+000 73 82 61
2.074480e+000 -8.189864e-001 -7.843475e+000 71 80 61
2.409144e+000 -6.396793e-001 -7.935973e+000 68 78 58
-2.092752e+000 -1.472691e+000 -6.140933e+000 79 82 71
-4.432481e-001 -1.306236e+000 -6.951514e+000 101 95 61
-2.739114e+000 -1.741196e+000 -6.103331e+000 78 80 70
-2.463832e+000 -1.750927e+000 -6.220260e+000 137 139 127
-2.029360e+000 -1.661610e+000 -6.330966e+000 156 148 139
-8.150782e-001 -1.465146e+000 -6.883626e+000 104 92 57
-2.922798e-001 -1.387467e+000 -7.118144e+000 145 136 92
6.497763e-001 -1.299021e+000 -7.490360e+000 153 140 87
1.588436e+000 -1.175716e+000 -7.932586e+000 70 73 46
1.657981e+000 -1.152946e+000 -7.931408e+000 114 118 82
-2.915542e+000 -2.006112e+000 -6.253162e+000 72 75 66
-2.915542e+000 -2.006112e+000 -6.253162e+000 72 75 66
-5.506463e-001 -1.645573e+000 -7.205034e+000 101 90 68
-5.744246e-001 -1.744069e+000 -7.265554e+000 99 92 64
1.542949e-001 -1.611054e+000 -7.544273e+000 162 146 89
1.542949e-001 -1.611054e+000 -7.544273e+000 162 146 89
1.609642e+000 -1.315573e+000 -8.045079e+000 111 115 77
1.773536e+000 -1.433556e+000 -8.262842e+000 75 77 52
2.492551e+000 -1.278178e+000 -8.542528e+000 65 74 52
-2.543512e+000 -2.100447e+000 -6.516690e+000 152 140 128
-4.822993e-001 -1.796720e+000 -7.396161e+000 96 85 54
3.154788e-001 -1.758237e+000 -7.764266e+000 103 94 65
-4.334011e-001 -1.999855e+000 -7.648214e+000 94 83 55
1.417306e+000 -1.711852e+000 -8.328533e+000 82 82 48
1.693276e+000 -1.689986e+000 -8.437991e+000 65 67 42
1.797694e+000 -1.795697e+000 -8.593090e+000 70 72 39
2.929801e+000 -1.556609e+000 -9.041973e+000 60 68 46
2.927524e+000 -1.560242e+000 -9.038661e+000 60 68 46
-8.103294e-002 -2.139798e+000 -7.948829e+000 97 91 70
1.728466e+000 -1.992356e+000 -8.762806e+000 68 68 44
2.061809e+000 -1.818133e+000 -8.823996e+000 65 68 47
-1.109665e+000 -2.442818e+000 -7.695578e+000 97 87 63
-6.748630e-001 -2.392604e+000 -7.875285e+000 105 91 65
-2.817931e-001 -2.281724e+000 -7.993024e+000 104 93 62
9.804468e-001 -2.256707e+000 -8.615416e+000 84 77 58
2.218457e+000 -2.109540e+000 -9.189480e+000 63 69 46
-8.447789e-001 -2.567213e+000 -7.977918e+000 106 95 73
-7.229369e-001 -2.541660e+000 -8.042352e+000 99 86 71
-1.638292e-001 -2.412364e+000 -8.188610e+000 91 84 56
-4.254125e-002 -2.407226e+000 -8.253027e+000 83 72 52
7.710689e-002 -2.520161e+000 -8.426169e+000 85 75 43
3.367525e-001 -2.452631e+000 -8.483166e+000 95 86 56
9.433314e-001 -2.367176e+000 -8.732488e+000 98 92 58
1.143024e+000 -2.362427e+000 -8.819447e+000 129 121 72
-1.638251e+000 -2.774979e+000 -7.788628e+000 145 132 97
-1.801008e+000 -2.851138e+000 -7.780239e+000 143 131 89
-1.800896e+000 -2.850746e+000 -7.780578e+000 143 131 89
-1.593690e+000 -2.808335e+000 -7.868568e+000 57 50 41
-5.136413e-001 -2.607063e+000 -8.230423e+000 81 71 43
-5.118710e-001 -2.610431e+000 -8.226531e+000 81 71 43
-6.375546e-001 -2.788796e+000 -8.326346e+000 144 131 85
1.255968e-002 -2.703544e+000 -8.578053e+000 76 70 48
2.878617e-001 -2.590021e+000 -8.620927e+000 89 80 51
1.607302e+000 -2.569785e+000 -9.304611e+000 109 108 72
1.537336e+000 -2.586071e+000 -9.322298e+000 75 71 44
-1.332169e+000 -2.892264e+000 -8.111319e+000 139 128 96
-5.585889e-002 -2.900239e+000 -8.770593e+000 82 74 49
3.372651e-001 -2.923680e+000 -8.924607e+000 87 77 50
1.093077e+000 -2.706736e+000 -9.192488e+000 79 76 43
1.221759e+000 -2.701546e+000 -9.237752e+000 82 77 48
1.756339e+000 -2.722412e+000 -9.593016e+000 62 61 40
2.270458e+000 -2.712763e+000 -9.795882e+000 54 59 39
2.272324e+000 -2.711613e+000 -9.800271e+000 54 59 39
-1.048397e+000 -3.122822e+000 -8.505575e+000 95 83 57
-6.421055e-001 -3.007645e+000 -8.537559e+000 98 89 58
-6.421055e-001 -3.007645e+000 -8.537559e+000 98 89 58
-4.007946e-001 -3.094346e+000 -8.786150e+000 87 80 55
3.728254e-001 -2.973704e+000 -9.102094e+000 134 127 74
1.144436e+000 -2.890900e+000 -9.402530e+000 78 69 40
1.581641e+000 -2.827241e+000 -9.574900e+000 66 63 42
2.088644e+000 -2.901587e+000 -9.940635e+000 65 67 44
-3.066774e+000 -3.427196e+000 -7.725883e+000 122 111 66
-2.098711e+000 -3.309416e+000 -8.150606e+000 131 124 82
-1.385065e+000 -3.218654e+000 -8.389186e+000 97 86 59
-1.385557e+000 -3.223121e+000 -8.384135e+000 97 86 59
-9.417649e-001 -3.336382e+000 -8.763400e+000 137 127 76
5.705003e-001 -3.070890e+000 -9.297337e+000 83 77 45
8.230052e-001 -3.081813e+000 -9.467707e+000 76 69 43
1.095074e+000 -3.074212e+000 -9.591246e+000 84 80 54
1.173762e+000 -3.043865e+000 -9.601324e+000 127 119 77
1.051102e+000 -3.190748e+000 -9.682822e+000 74 67 39
1.049703e+000 -3.192733e+000 -9.678220e+000 74 67 39
1.324143e+000 -3.139314e+000 -9.781687e+000 76 71 41
1.503109e+000 -3.018008e+000 -9.712376e+000 71 71 48
1.420837e+000 -3.082217e+000 -9.839346e+000 114 111 72
1.458652e+000 -3.154659e+000 -9.837915e+000 76 74 52
-3.482702e+000 -3.663617e+000 -7.693101e+000 75 71 46
-3.247543e+000 -3.592605e+000 -7.756831e+000 117 115 63
-2.969339e+000 -3.485687e+000 -7.824142e+000 127 122 82
-2.966044e+000 -3.486958e+000 -7.820172e+000 127 122 82
-3.146140e+000 -3.644824e+000 -7.900194e+000 117 116 85
-2.439783e+000 -3.484886e+000 -8.102634e+000 123 118 80
-1.177389e+000 -3.515432e+000 -8.843983e+000 91 82 51
-1.175995e+000 -3.514383e+000 -8.852141e+000 91 82 51
-3.701546e-001 -3.343925e+000 -9.082314e+000 71 65 42
-1.578780e-001 -3.344451e+000 -9.202859e+000 137 126 82
6.741971e-001 -3.307166e+000 -9.612552e+000 141 133 86
7.725077e-001 -3.414754e+000 -9.720551e+000 130 120 76
7.785938e-001 -3.393029e+000 -9.760297e+000 130 120 76
9.760736e-001 -3.397806e+000 -9.871398e+000 82 73 56
1.441206e+000 -3.204790e+000 -9.887851e+000 77 71 53
1.441206e+000 -3.204790e+000 -9.887851e+000 77 71 53
1.566335e+000 -3.251009e+000 -9.987441e+000 65 63 45
2.156537e+000 -3.257157e+000 -1.033119e+001 85 87 66
-3.441021e+000 -3.827018e+000 -7.893974e+000 116 114 77
-2.327164e+000 -3.737942e+000 -8.469291e+000 83 79 54
-1.580874e+000 -3.602978e+000 -8.702164e+000 135 123 85
-1.530993e+000 -3.631571e+000 -8.773254e+000 80 75 55
-1.387021e+000 -3.651666e+000 -8.909554e+000 85 79 53
2.644699e-001 -3.448405e+000 -9.587403e+000 81 75 51
1.466891e+000 -3.509539e+000 -1.023311e+001 65 64 39
-9.794909e-001 -8.874191e-001 -6.315447e+000 61 61 59
-9.794909e-001 -8.874191e-001 -6.315447e+000 61 61 59
3.199189e+000 -9.615580e-001 -8.537817e+000 83 95 71
-8.661595e-001 -2.151440e+000 -7.563964e+000 104 94 79
-8.442648e-002 -2.537847e+000 -8.343839e+000 82 70 55
-1.877331e+000 -2.888413e+000 -7.761020e+000 92 82 59
-1.877331e+000 -2.888413e+000 -7.761020e+000 92 82 59
-6.669618e-002 -2.699266e+000 -8.619928e+000 131 122 85
2.644621e+000 -2.377341e+000 -9.726072e+000 56 63 40
-2.343843e+000 -3.068707e+000 -7.743162e+000 96 87 57
-1.904496e+000 -2.959452e+000 -7.812588e+000 84 73 52
-1.282189e+000 -2.932982e+000 -8.161644e+000 87 78 49
-2.512374e+000 -3.173409e+000 -7.742671e+000 92 85 59
-2.378038e+000 -3.165763e+000 -7.806293e+000 95 86 55
-2.386201e+000 -3.221536e+000 -7.872504e+000 105 96 67
-3.136088e+000 -3.433510e+000 -7.726127e+000 94 84 57
-2.471554e+000 -3.284961e+000 -7.881196e+000 137 124 86
-2.434806e+000 -3.338635e+000 -7.928721e+000 99 92 63
-2.293147e+000 -3.328787e+000 -7.987772e+000 79 72 52
-2.204102e+000 -3.428007e+000 -8.169653e+000 95 93 70
-3.226947e+000 -3.535846e+000 -7.706236e+000 123 116 71
-3.195626e+000 -3.602321e+000 -7.841373e+000 86 81 51
-3.222105e+000 -3.634105e+000 -7.910666e+000 92 88 58
-2.219065e+000 -3.476551e+000 -8.238646e+000 81 77 52
-2.220138e+000 -3.476741e+000 -8.242813e+000 81 77 52
-1.538162e+000 -3.474642e+000 -8.514846e+000 139 130 90
-2.624439e+000 -3.643400e+000 -8.184727e+000 121 116 78
-2.164055e-001 -1.075903e+000 -6.863023e+000 146 135 79
-4.834550e-001 -3.087160e+000 -8.776223e+000 108 96 65
2.440905e-001 -2.906723e+000 -8.933580e+000 100 91 49
-6.772599e-002 -1.058903e+000 -6.930464e+000 141 130 73
-3.497999e+000 -3.645979e+000 -7.717218e+000 77 73 48
-1.100680e+000 -6.880733e-001 -6.078573e+000 115 102 71
-1.171863e+000 -2.278653e+000 -7.547831e+000 105 95 70
-7.587790e-001 -3.351055e-001 -6.478508e+000 231 226 220
-5.171724e+000 2.402192e+000 -9.414295e+000 211 179 163
-5.375361e+000 2.300183e+000 -1.029181e+001 197 166 106
2.444354e+000 -7.138975e-001 -7.875047e+000 96 105 76
-4.002635e-001 -1.212786e+000 -6.822866e+000 90 77 40
2.811890e+000 -8.422581e-001 -8.214226e+000 90 100 74
-4.814074e-001 -1.500599e+000 -7.041221e+000 84 71 39
1.453084e+000 -1.408970e+000 -8.075437e+000 123 119 81
2.974360e+000 -1.204398e+000 -8.720813e+000 84 92 70
2.974360e+000 -1.204398e+000 -8.720813e+000 84 92 70
-3.287066e+000 -1.711638e+000 -6.340931e+000 90 93 51
-1.936086e+000 -1.885697e+000 -6.516767e+000 79 80 67
-6.799377e-001 -2.098300e+000 -7.590535e+000 89 73 49
2.066739e+000 -1.974885e+000 -8.908415e+000 99 103 70
-4.522523e+000 -1.018260e+000 -8.768402e+000 228 205 205
-4.322074e-001 -2.550675e+000 -8.239999e+000 147 133 89
-9.253516e-001 -2.691709e+000 -8.126259e+000 153 135 86
-4.148124e-001 -2.767526e+000 -8.434054e+000 145 130 90
-7.363993e-001 -2.774960e+000 -8.321732e+000 145 131 85
-7.363993e-001 -2.774960e+000 -8.321732e+000 145 131 85
1.016555e-001 -2.964960e+000 -8.946955e+000 138 127 82
3.479022e-001 -3.056047e+000 -9.209057e+000 138 126 85
-2.069094e+000 -3.403798e+000 -8.257106e+000 78 70 42
8.840117e-001 -3.313984e+000 -9.760941e+000 89 80 44
9.094505e-001 -3.400153e+000 -9.856693e+000 128 120 83
2.904717e+000 -5.986721e-001 -8.302551e+000 94 104 77
-2.087522e+000 -1.478740e+000 -6.129628e+000 68 68 60
-6.732564e-001 -1.134504e+000 -6.673955e+000 139 123 69
-3.712504e-001 -1.308873e+000 -6.846144e+000 140 127 74
-3.712504e-001 -1.308873e+000 -6.846144e+000 140 127 74
2.213231e+000 -8.359262e-001 -7.887492e+000 64 68 53
-1.916623e+000 -1.792185e+000 -6.424863e+000 75 77 64
5.611137e-001 -1.621435e+000 -7.500119e+000 151 132 66
1.593377e+000 -1.387813e+000 -8.233433e+000 112 110 70
-3.423862e+000 -1.558956e+000 -6.611202e+000 172 178 91
-1.653174e+000 -1.927019e+000 -6.711310e+000 130 121 84
1.498909e+000 -1.478837e+000 -8.159181e+000 69 65 36
2.010202e+000 -1.534159e+000 -8.411452e+000 68 73 43
-2.151742e+000 -2.121558e+000 -6.616062e+000 77 78 65
1.717101e-001 -1.756172e+000 -7.737546e+000 82 71 44
2.606253e+000 -1.686158e+000 -8.871260e+000 54 57 40
1.293273e+000 -1.915957e+000 -8.419690e+000 129 122 71
2.269983e+000 -1.782764e+000 -8.980386e+000 89 96 67
2.470847e+000 -1.759020e+000 -9.063629e+000 67 72 48
1.283512e+000 -2.136700e+000 -8.800031e+000 69 61 29
2.284473e+000 -2.124553e+000 -9.257184e+000 83 89 61
-1.293039e+000 -2.444163e+000 -7.674630e+000 145 132 94
-1.294595e+000 -2.623464e+000 -7.805433e+000 112 96 71
1.878204e+000 -2.365188e+000 -9.223873e+000 70 69 49
2.744412e+000 -2.155548e+000 -9.727144e+000 55 58 37
-1.459738e+000 -2.827434e+000 -7.876206e+000 59 48 43
-9.115067e-001 -2.731632e+000 -8.157022e+000 114 100 73
-9.115067e-001 -2.731632e+000 -8.157022e+000 114 100 73
-1.109764e-001 -2.590179e+000 -8.470583e+000 80 68 42
-8.403752e-001 -2.880659e+000 -8.343975e+000 74 58 32
-7.976858e-001 -2.932008e+000 -8.412627e+000 150 136 90
1.445641e-001 -2.797130e+000 -8.854308e+000 151 137 93
1.950479e+000 -2.732510e+000 -9.747655e+000 100 100 71
-6.173142e-001 -3.079679e+000 -8.711479e+000 138 125 83
-6.173142e-001 -3.079679e+000 -8.711479e+000 138 125 83
1.693686e+000 -2.911976e+000 -9.746236e+000 66 64 41
-1.616566e+000 -3.208664e+000 -8.374205e+000 62 52 48
-1.142424e-001 -3.180414e+000 -9.263672e+000 138 128 76
7.492366e-001 -3.098645e+000 -9.536735e+000 136 125 78
7.492366e-001 -3.098645e+000 -9.536735e+000 136 125 78
-1.758845e-001 -3.523011e+000 -9.527166e+000 101 93 67
-4.742428e+000 2.378064e+000 -8.790186e+000 132 102 61
-3.987887e+000 1.085710e+000 -7.470633e+000 177 163 90
-4.162564e+000 1.034959e+000 -7.711387e+000 145 134 78
3.217126e+000 -6.174280e-001 -8.260429e+000 67 74 56
-3.380107e+000 -9.830792e-001 -6.380312e+000 183 181 96
2.908940e+000 -7.632328e-001 -8.293972e+000 56 66 43
3.210275e+000 -6.737068e-001 -8.366739e+000 56 65 49
-1.114191e+000 -1.751698e+000 -7.031151e+000 58 53 40
1.328764e+000 -1.575175e+000 -8.070202e+000 71 67 42
2.404911e+000 -1.919675e+000 -8.914025e+000 55 60 40
1.416484e+000 -2.114746e+000 -8.734151e+000 78 73 48
1.416484e+000 -2.114746e+000 -8.734151e+000 78 73 48
-1.862584e+000 -2.835218e+000 -7.714449e+000 88 73 44
-1.857997e+000 -2.848033e+000 -7.683492e+000 88 73 44
-1.566327e+000 -2.736830e+000 -7.789384e+000 55 47 35
-1.570846e+000 -2.953203e+000 -7.954947e+000 78 65 50
-1.120345e+000 -2.919910e+000 -8.170558e+000 81 69 43
-1.814380e+000 -3.084036e+000 -8.008133e+000 89 72 43
1.100334e+000 -3.043024e+000 -9.679750e+000 85 74 46
-8.935967e-001 -3.209909e+000 -8.560641e+000 147 128 84
-9.121113e-002 -3.325777e+000 -9.157752e+000 82 71 48
-9.121113e-002 -3.325777e+000 -9.157752e+000 82 71 48
9.613669e-001 -3.074642e+000 -9.758446e+000 82 74 50
8.947794e-001 -3.244263e+000 -9.691555e+000 83 73 47
1.809932e+000 -3.289624e+000 -1.007308e+001 73 67 48
-3.058694e+000 -3.630147e+000 -7.920979e+000 79 71 44
-7.290907e-001 -3.547679e+000 -9.043326e+000 89 79 47
-4.145387e-002 -3.520671e+000 -9.384839e+000 83 71 45
2.217416e-001 -3.531959e+000 -9.633136e+000 92 81 54
-3.374628e+000 -3.718573e+000 -7.858980e+000 89 81 56
2.917428e-001 -9.054186e-001 -6.808619e+000 121 117 69
3.901451e-001 -1.042529e+000 -7.153420e+000 123 115 66
-1.090349e+000 -1.667905e+000 -6.969354e+000 60 50 40
4.053413e+000 -3.502509e+000 -7.799148e+000 208 206 194
-1.905312e+000 -2.954940e+000 -7.820895e+000 76 63 44
-2.849613e+000 -3.157232e+000 -7.553326e+000 136 119 76
4.650038e-002 -3.472758e+000 -9.616637e+000 109 99 63
3.581748e+000 -2.551526e+000 -8.829515e+000 187 187 175
-2.443726e+000 -3.565085e+000 -8.168239e+000 102 91 69
-3.429613e+000 -3.849593e+000 -8.048786e+000 114 105 75
6.724170e-001 -3.529266e+000 -1.007170e+001 124 112 70
-2.254695e+000 -1.944076e+000 -6.516266e+000 76 79 68
-2.311770e+000 -3.730733e+000 -8.481350e+000 106 95 67
1.536082e-001 -3.538134e+000 -9.661035e+000 127 114 81
-5.356310e+000 2.445229e+000 -9.149200e+000 209 183 170
-3.223910e+000 -3.520090e+000 -7.764481e+000 119 112 70
-2.505914e+000 -7.964466e-001 -5.414452e+000 109 113 76
-9.620889e-001 -7.526535e-001 -6.253380e+000 144 134 87
-9.486133e-001 -8.564967e-001 -6.273665e+000 132 130 81
7.321074e-001 -9.755694e-001 -7.222451e+000 134 132 84
4.473669e-001 -1.088656e+000 -7.225064e+000 87 82 40
4.715040e-001 -1.140221e+000 -7.245933e+000 133 130 78
1.657607e+000 -9.732921e-001 -7.817342e+000 74 79 49
-3.020451e+000 -3.890748e-001 -7.067249e+000 117 117 95
-1.953706e-001 -1.468893e+000 -7.261658e+000 142 131 89
-2.511748e+000 -1.927796e+000 -6.393550e+000 71 75 67
-2.009500e+000 -1.922997e+000 -6.583597e+000 82 88 76
-2.581852e+000 -2.034262e+000 -6.408612e+000 138 134 122
-2.053075e+000 -1.961629e+000 -6.645511e+000 137 139 126
2.228214e+000 -1.487295e+000 -8.579115e+000 95 104 77
-2.378978e+000 -2.167947e+000 -6.639029e+000 92 90 79
1.509964e+000 -2.066481e+000 -8.756292e+000 118 111 74
-1.770975e+000 -2.746549e+000 -7.681101e+000 135 121 90
1.262640e+000 -2.421672e+000 -9.029022e+000 120 113 73
1.490849e+000 -2.924171e+000 -9.732507e+000 110 107 72
-3.297403e+000 -3.509708e+000 -7.652315e+000 82 76 45
-3.341461e+000 -3.545868e+000 -7.708274e+000 78 73 48
-3.349834e+000 -3.635889e+000 -7.727786e+000 84 81 48
-2.947661e+000 -3.553675e+000 -7.867297e+000 79 74 48
-8.681011e-001 -8.307830e-001 -6.317616e+000 136 133 88
-6.435011e-001 -1.095859e+000 -6.570135e+000 146 134 83
2.859627e+000 -6.854460e-001 -8.143370e+000 100 112 88
2.859627e+000 -6.854460e-001 -8.143370e+000 100 112 88
-1.856569e+000 -1.436624e+000 -6.242365e+000 138 135 108
-1.320716e-001 -1.217299e+000 -7.006764e+000 147 136 90
2.913299e-001 -1.063158e+000 -7.124012e+000 138 132 82
1.856106e+000 -9.283013e-001 -7.865531e+000 98 109 77
2.307248e+000 -7.642008e-001 -7.961523e+000 98 108 81
2.923337e+000 -7.024607e-001 -8.195217e+000 73 82 60
-1.159254e+000 -1.490779e+000 -6.793295e+000 61 51 49
-1.104224e+000 -1.521173e+000 -6.790824e+000 78 67 54
-8.740515e-001 -1.459990e+000 -6.822292e+000 148 138 88
-1.782978e-001 -1.399677e+000 -7.150038e+000 142 133 92
1.533229e+000 -1.116942e+000 -7.833074e+000 114 118 81
1.681885e+000 -1.078629e+000 -7.884449e+000 108 112 77
1.637111e+000 -1.233213e+000 -8.008526e+000 104 108 74
1.621659e+000 -1.274714e+000 -7.965690e+000 104 108 74
2.191477e+000 -1.159231e+000 -8.191695e+000 91 104 77
1.243356e-001 -1.532925e+000 -7.468455e+000 93 83 51
4.261866e-001 -1.425084e+000 -7.550110e+000 91 83 47
6.108562e-001 -1.413053e+000 -7.560234e+000 155 143 87
1.608777e+000 -1.319061e+000 -8.038117e+000 118 118 81
1.746067e+000 -1.299178e+000 -8.115697e+000 105 110 80
1.746067e+000 -1.299178e+000 -8.115697e+000 105 110 80
2.586145e+000 -1.191986e+000 -8.465777e+000 86 100 73
2.568626e+000 -1.272860e+000 -8.608005e+000 91 100 73
2.543063e+000 -1.321194e+000 -8.566976e+000 91 100 73
-2.021568e+000 -2.082641e+000 -6.734193e+000 84 88 74
-2.859155e-001 -1.751351e+000 -7.462186e+000 149 133 101
-2.859155e-001 -1.751351e+000 -7.462186e+000 149 133 101
1.355670e+000 -1.476711e+000 -8.086111e+000 89 86 53
1.475704e+000 -1.540110e+000 -8.208412e+000 77 76 44
1.503593e+000 -1.658737e+000 -8.256449e+000 117 118 77
2.733818e+000 -1.343820e+000 -8.714489e+000 64 73 52
2.733818e+000 -1.343820e+000 -8.714489e+000 64 73 52
-2.274775e+000 -2.294517e+000 -6.727306e+000 103 105 94
-2.102050e+000 -2.228481e+000 -6.844272e+000 147 138 112
-1.831780e-001 -2.005520e+000 -7.749359e+000 92 80 47
1.324226e+000 -1.815273e+000 -8.407263e+000 127 120 74
-2.785456e-001 -2.095965e+000 -7.813318e+000 146 136 97
-4.113225e-002 -2.051045e+000 -7.874829e+000 91 79 52
1.678604e+000 -1.962748e+000 -8.711058e+000 104 104 68
2.284701e+000 -1.909554e+000 -9.018857e+000 58 67 40
1.811392e-001 -2.209459e+000 -8.160327e+000 95 82 50
-1.441012e+000 -2.568910e+000 -7.668640e+000 99 81 71
-5.642646e-001 -2.419550e+000 -7.984333e+000 153 139 92
1.184186e+000 -2.252681e+000 -8.756224e+000 122 116 67
1.854444e+000 -2.216648e+000 -9.066550e+000 106 107 76
2.301487e-001 -2.576070e+000 -8.653908e+000 139 126 81
2.060375e+000 -2.429130e+000 -9.507314e+000 92 97 65
2.099330e+000 -2.486252e+000 -9.536680e+000 69 73 48
-2.303590e+000 -2.895884e+000 -7.561534e+000 100 86 60
-8.924119e-001 -2.859298e+000 -8.290547e+000 147 135 97
-6.101870e-002 -3.235830e+000 -9.118420e+000 101 93 57
2.116430e+000 -3.047197e+000 -1.021417e+001 83 87 62
-1.014359e+000 -8.444865e-001 -6.250717e+000 137 132 81
-3.169335e-001 -7.002225e-001 -6.569502e+000 139 132 86
4.564957e-001 -8.205641e-001 -6.991001e+000 126 126 82
4.600336e-001 -8.179375e-001 -6.993210e+000 126 126 82
-2.324519e+000 -1.390874e+000 -5.980278e+000 80 83 74
1.568209e+000 -7.377849e-001 -7.502685e+000 78 84 58
1.774400e+000 -9.615986e-001 -7.811727e+000 72 79 55
1.303253e+000 -1.249445e+000 -7.798886e+000 90 90 60
1.362233e+000 -1.251891e+000 -7.827229e+000 124 119 82
1.361279e+000 -1.254054e+000 -7.821575e+000 124 119 82
1.858963e+000 -1.124309e+000 -7.961330e+000 75 84 58
1.986816e+000 -1.180049e+000 -8.143368e+000 74 81 57
3.120894e+000 -9.308370e-001 -8.512348e+000 70 78 58
-2.770292e+000 -1.903003e+000 -6.221448e+000 113 115 101
-2.065399e+000 -1.819889e+000 -6.442785e+000 84 88 74
-4.293316e-001 -1.634198e+000 -7.284382e+000 113 101 70
-4.293316e-001 -1.634198e+000 -7.284382e+000 113 101 70
1.455419e+000 -1.198223e+000 -8.026088e+000 92 91 60
