ply
format ascii 1.0
element face 0
property list uchar int vertex_indices
element vertex 861
property float x
property float y
property float z
property uchar diffuse_red
property uchar diffuse_green
property uchar diffuse_blue
end_header
5.301856e-001 -1.119658e+000 -7.819030e+000 82 70 46
5.301856e-001 -1.119658e+000 -7.819030e+000 82 70 46
5.792148e-001 -1.261016e+000 -8.015531e+000 134 116 66
-1.618747e+000 -9.172523e-001 -6.367881e+000 70 62 53
-1.419281e+000 -8.101319e-001 -6.365908e+000 134 114 106
1.376514e-002 -8.264126e-001 -7.294978e+000 82 65 35
-1.374512e+000 -1.109253e+000 -6.680476e+000 136 118 110
-1.580485e+000 -9.924714e-001 -6.477990e+000 135 114 103
9.250898e-001 -7.211063e-001 -7.636495e+000 74 67 43
5.015435e-002 -5.534422e-001 -7.010979e+000 124 109 71
-1.506577e+000 -1.065213e+000 -6.571998e+000 125 115 106
4.681202e-001 -6.436119e-001 -7.345391e+000 128 113 74
-1.325238e+000 -7.844971e-001 -6.389555e+000 139 116 108
-1.475588e+000 -1.091911e+000 -6.602427e+000 72 65 61
2.817433e-001 -7.770976e-001 -7.369140e+000 142 122 71
-6.960878e-002 -4.326625e-001 -6.790491e+000 118 102 51
-1.612601e+000 -8.400367e-001 -6.303268e+000 71 65 54
-1.341344e+000 -9.104125e-001 -6.528792e+000 73 62 56
-7.643657e-002 -5.736222e-001 -6.936258e+000 82 67 35
9.810169e-001 -7.688407e-001 -7.745592e+000 117 108 63
7.700455e-001 -1.400519e+000 -8.221225e+000 129 115 77
-1.062008e+000 -1.881812e+000 -7.700118e+000 126 116 81
3.672124e-001 -1.306461e+000 -7.906486e+000 143 122 77
-1.485239e-001 -9.514455e-001 -7.288015e+000 130 114 81
-1.174055e-001 -7.335259e-001 -7.100139e+000 94 80 53
-5.270457e-001 -1.120976e+000 -7.239025e+000 89 75 58
5.420078e-002 -3.991023e-001 -6.865965e+000 84 76 47
-1.438297e+000 -8.514729e-001 -6.378320e+000 72 64 55
4.631015e-001 -7.782382e-001 -7.420185e+000 90 74 48
3.649967e-001 -8.402117e-001 -7.453463e+000 77 61 36
-5.991399e-001 -1.224172e+000 -7.314585e+000 140 124 99
5.350154e-002 -3.975148e-001 -6.844968e+000 84 76 47
-1.103275e+000 -2.235961e+000 -8.239341e+000 60 54 51
-1.221208e+000 -1.182300e+000 -6.812745e+000 70 65 59
-4.094499e-001 -4.603224e-001 -6.678970e+000 122 106 64
1.107865e+000 -2.823938e-001 -7.309959e+000 93 94 63
-4.730113e-001 -9.460222e-001 -7.081875e+000 80 64 38
-1.601369e-001 -1.194344e+000 -7.482507e+000 134 119 87
-5.496552e-001 -1.071772e+000 -7.155094e+000 136 121 91
-5.507218e-001 -1.074075e+000 -7.169663e+000 136 121 91
3.352228e-001 -4.017782e-001 -6.977299e+000 68 56 29
-2.543419e-001 -1.005635e+000 -7.240113e+000 145 125 93
-1.374512e+000 -1.109253e+000 -6.680476e+000 136 118 110
2.228120e+000 -9.538272e-001 -8.724860e+000 58 49 42
-1.431341e+000 -9.749765e-001 -6.512729e+000 67 64 57
-5.633951e-001 -1.231455e+000 -7.309817e+000 101 84 70
-1.283347e+000 -1.070984e+000 -6.704727e+000 135 119 109
-1.488480e+000 -7.525881e-001 -6.278525e+000 73 65 55
4.367778e-001 -6.141251e-001 -7.287541e+000 82 68 39
-2.985697e-001 -3.688042e-001 -6.638466e+000 72 63 34
7.700455e-001 -1.400519e+000 -8.221225e+000 129 115 77
8.220344e-001 -1.370974e+000 -8.225749e+000 83 66 44
-8.610320e-001 -8.675317e-001 -6.715139e+000 91 81 56
1.805638e+000 -3.869913e-001 -7.847345e+000 79 85 59
6.973889e-001 -8.136284e-001 -7.558589e+000 137 116 65
-4.850590e-001 -3.792448e-001 -6.500398e+000 56 49 43
-1.640251e+000 1.482156e+000 -7.748400e+000 167 78 82
1.983370e+000 3.356183e-001 -8.165546e+000 164 178 153
1.386210e+000 1.566799e-001 -7.688482e+000 184 179 160
-5.148925e-001 -1.172126e+000 -7.267352e+000 136 120 97
-1.576656e+000 1.410335e+000 -7.671864e+000 204 185 186
9.723658e-001 -6.454696e-001 -7.623329e+000 66 60 28
-3.426124e-001 2.278760e+000 -9.492933e+000 132 90 74
2.836298e-001 2.111176e+000 -9.587587e+000 112 125 95
2.836298e-001 2.111176e+000 -9.587587e+000 112 125 95
1.852268e+000 1.305291e+000 -9.344358e+000 163 168 159
9.931287e-001 -5.785501e-001 -7.568309e+000 71 65 41
-1.542452e+000 -9.503577e-001 -6.425436e+000 131 113 99
-1.407652e+000 -1.074585e+000 -6.628438e+000 75 69 62
6.202947e-001 -9.207602e-001 -7.714368e+000 93 78 55
-1.070164e+000 -1.776604e+000 -7.565276e+000 96 81 57
-1.579291e+000 -1.986505e+000 -7.515061e+000 79 66 47
2.145287e+000 1.037445e-001 -7.965459e+000 140 147 129
-4.428547e+001 -3.547759e+000 -1.131101e+002 254 188 117
9.538094e-001 2.076517e-001 -7.559030e+000 166 163 103
1.808008e+000 2.992996e-001 -8.037586e+000 76 82 69
-4.850590e-001 -3.792448e-001 -6.500398e+000 56 49 43
-4.945688e+001 -1.040621e+000 -1.126931e+002 254 204 99
-4.945688e+001 -1.040621e+000 -1.126931e+002 254 204 99
-4.587494e+001 -2.007591e+000 -1.158913e+002 246 55 91
-4.587494e+001 -2.007591e+000 -1.158913e+002 246 55 91
-4.560013e+001 2.117886e-001 -1.076813e+002 71 38 83
-1.455868e+000 1.151697e+000 -7.411782e+000 159 72 72
7.555909e-001 1.602096e+000 -9.145239e+000 102 96 84
1.220211e+000 1.396892e+000 -9.107604e+000 154 153 148
8.770854e-002 2.296230e-001 -7.213671e+000 72 86 70
3.537926e-001 8.888465e-002 -7.172114e+000 179 163 113
4.780953e-001 4.309884e-002 -7.160565e+000 144 95 75
8.426804e-001 1.295769e-001 -7.417492e+000 141 86 66
-1.189412e+000 1.232008e+000 -7.606914e+000 198 199 192
8.328177e-001 1.794871e+000 -9.400330e+000 128 122 110
1.131858e+000 1.163702e+000 -8.754950e+000 87 83 82
1.373381e+000 1.317620e+000 -9.104913e+000 92 92 89
2.220494e+000 7.369822e-002 -7.942453e+000 175 182 169
2.220494e+000 7.369822e-002 -7.942453e+000 175 182 169
1.145222e+000 -3.164126e-001 -7.372286e+000 65 65 39
1.402040e+000 -8.316099e-001 -8.008981e+000 94 93 65
-1.376739e+000 9.664006e-001 -7.228493e+000 202 189 191
1.131181e+000 1.479808e+000 -9.148992e+000 107 106 103
1.646559e-001 9.800102e-002 -7.122686e+000 69 83 61
8.732215e-001 -3.323919e-001 -7.240375e+000 105 101 63
8.501717e-001 -4.172035e-001 -7.334061e+000 107 101 65
1.080248e+000 -5.504361e-001 -7.552526e+000 76 71 46
6.500419e-001 -1.358763e+000 -8.113917e+000 86 74 48
-1.367372e+000 -1.759949e+000 -7.394462e+000 125 109 83
-1.869324e+000 -2.178764e+000 -7.604963e+000 109 98 70
-2.901353e+000 2.596749e+000 -8.658393e+000 181 173 137
-3.426124e-001 2.278760e+000 -9.492933e+000 132 90 74
-3.006404e+000 -1.699090e-001 -8.365815e+000 195 93 113
-1.369967e+000 8.736528e-001 -7.115395e+000 166 63 67
9.248397e-001 1.513955e+000 -9.132866e+000 101 98 93
8.969235e-002 -5.304211e-001 -6.992444e+000 101 87 58
-1.477685e+000 1.015015e+000 -7.307169e+000 171 66 70
7.499446e-001 3.394864e-001 -7.568683e+000 171 151 102
7.499446e-001 3.394864e-001 -7.568683e+000 171 151 102
-5.358821e-001 -9.101049e-001 -7.048232e+000 127 109 73
-1.329402e+000 -1.025233e+000 -6.631256e+000 70 65 59
3.693030e-001 -1.306276e+000 -7.907083e+000 143 122 77
-4.162649e+001 -8.826242e+000 -9.365806e+001 87 65 137
-3.481605e+001 -1.128548e+001 -9.043616e+001 230 42 80
-4.760426e+001 -5.324494e+000 -1.087920e+002 229 159 79
-8.155226e-001 7.104859e-001 -7.230802e+000 147 120 78
-4.464085e+001 -5.068120e+000 -1.142195e+002 243 50 85
-4.464085e+001 -5.068120e+000 -1.142195e+002 243 50 85
-4.631766e+001 -5.812776e+000 -1.094609e+002 67 37 65
-4.828153e+001 -2.985036e+000 -1.076993e+002 70 40 66
-2.031543e-001 -3.227271e-001 -6.650655e+000 112 99 54
-4.978246e+001 -4.975568e+000 -9.913718e+001 246 49 95
-4.577789e+001 -2.992136e+000 -1.088384e+002 253 204 91
-3.282833e+000 2.762386e+000 -8.744148e+000 147 144 99
-2.962174e+000 2.463754e+000 -8.489616e+000 175 172 137
-2.762748e+000 2.292360e+000 -8.350006e+000 185 177 139
-2.177588e+000 2.246125e+000 -8.474565e+000 172 137 111
-1.726258e+000 1.773879e+000 -8.060771e+000 131 68 69
2.115366e-001 2.131929e+000 -9.538959e+000 174 166 127
1.866847e-001 1.819065e+000 -9.151973e+000 190 181 141
7.408647e-001 2.039043e+000 -9.717651e+000 187 172 134
4.644667e-001 1.795422e+000 -9.257970e+000 172 154 107
7.038518e-001 1.633916e+000 -9.124191e+000 158 154 127
9.988327e-001 1.774767e+000 -9.472845e+000 113 108 102
1.129782e+000 1.796359e+000 -9.581965e+000 77 88 73
9.908568e-001 1.488603e+000 -9.124194e+000 101 94 89
9.663334e-001 1.384637e+000 -8.973827e+000 163 160 148
-1.247413e+000 1.096587e+000 -7.414714e+000 165 76 77
1.022268e+000 1.320747e+000 -8.891179e+000 94 90 84
-9.632225e-001 8.783927e-001 -7.274464e+000 155 73 63
-3.014609e-001 9.741302e-001 -7.927672e+000 82 75 57
-2.208985e-001 1.014125e+000 -8.025554e+000 200 188 168
-1.816040e-001 9.384822e-001 -7.943503e+000 179 166 143
-2.266064e-001 8.917476e-001 -7.884563e+000 186 174 152
-1.344663e-001 9.329793e-001 -7.984515e+000 79 77 62
-7.494182e-002 8.491571e-001 -7.877251e+000 196 186 158
-2.447748e-001 7.487618e-001 -7.700516e+000 83 78 64
-2.454085e-001 7.491367e-001 -7.708312e+000 83 78 64
7.141445e-003 7.248141e-001 -7.765948e+000 91 77 58
7.141445e-003 7.248141e-001 -7.765948e+000 91 77 58
9.722514e-001 7.992089e-001 -8.267559e+000 163 149 98
1.424200e+000 9.166866e-001 -8.604090e+000 154 162 140
1.292937e+000 7.464189e-001 -8.361775e+000 102 114 75
-2.741793e-003 4.706666e-001 -7.456054e+000 173 158 118
-2.797477e-003 4.707961e-001 -7.461397e+000 173 158 118
6.468617e-001 4.863076e-001 -7.744201e+000 170 162 90
6.872729e-001 5.776777e-001 -7.860769e+000 143 99 70
6.872729e-001 5.776777e-001 -7.860769e+000 143 99 70
1.590754e-001 3.721558e-001 -7.406075e+000 72 77 62
5.041470e-001 3.605931e-001 -7.534662e+000 139 103 64
5.041470e-001 3.605931e-001 -7.534662e+000 139 103 64
5.426604e-001 2.841020e-001 -7.459422e+000 131 100 53
6.846825e-001 4.674714e-001 -7.742343e+000 180 163 102
7.821062e-001 3.545909e-001 -7.640506e+000 175 166 106
7.662486e-001 3.226840e-001 -7.597663e+000 139 94 64
1.977444e+000 4.505592e-001 -8.301586e+000 106 120 94
2.039043e+000 3.557448e-001 -8.213629e+000 105 119 93
1.705578e-001 1.490071e-001 -7.153059e+000 177 162 108
1.705578e-001 1.490071e-001 -7.153059e+000 177 162 108
4.904483e-001 2.031859e-001 -7.352217e+000 180 161 102
5.629482e-001 1.840606e-001 -7.342473e+000 181 169 106
5.974257e-001 1.853332e-001 -7.370646e+000 126 82 51
8.780801e-001 2.007807e-001 -7.510359e+000 145 84 70
8.780801e-001 2.007807e-001 -7.510359e+000 145 84 70
2.082603e+000 3.397742e-001 -8.210667e+000 159 173 148
4.780953e-001 4.309884e-002 -7.160565e+000 144 95 75
2.100764e+000 8.463858e-002 -7.919941e+000 174 182 169
2.225854e+000 -3.275162e-001 -8.018404e+000 56 57 40
1.243014e+000 -4.397674e-001 -7.534032e+000 93 94 66
1.155638e+000 -7.543969e-001 -7.795600e+000 108 103 71
1.206030e+000 -5.867628e-001 -7.669339e+000 99 97 66
1.206030e+000 -5.867628e-001 -7.669339e+000 99 97 66
1.508762e+000 -7.636625e-001 -7.995491e+000 87 88 65
-1.529451e+000 -7.764687e-001 -6.268701e+000 74 66 57
-1.613719e-001 -7.440922e-001 -7.080834e+000 127 112 77
-1.613719e-001 -7.440922e-001 -7.080834e+000 127 112 77
3.787224e-001 -9.358727e-001 -7.572853e+000 136 118 80
1.186416e+000 -9.099481e-001 -7.921402e+000 114 106 73
1.279250e+000 -8.093465e-001 -7.918863e+000 66 62 34
-1.628586e+000 -9.615532e-001 -6.377861e+000 76 67 60
-1.794759e-001 -1.032002e+000 -7.323079e+000 139 122 92
1.418121e+000 -1.109946e+000 -8.348037e+000 94 91 64
-5.991399e-001 -1.224172e+000 -7.314585e+000 140 124 99
-5.148925e-001 -1.172126e+000 -7.267352e+000 136 120 97
-3.205819e-001 -1.226641e+000 -7.454831e+000 135 118 90
-3.205819e-001 -1.226641e+000 -7.454831e+000 135 118 90
7.956444e-002 -1.281076e+000 -7.712375e+000 138 122 86
7.956444e-002 -1.281076e+000 -7.712375e+000 138 122 86
7.406165e-001 -1.368810e+000 -8.184820e+000 78 66 40
1.498721e+000 -1.276569e+000 -8.555690e+000 65 63 38
-3.144399e-001 -1.433821e+000 -7.654460e+000 131 115 81
4.215828e-002 -1.409501e+000 -7.876952e+000 137 121 89
1.789852e-002 -1.468777e+000 -7.902753e+000 126 112 77
2.208430e-001 -1.522560e+000 -8.046471e+000 87 71 46
2.208430e-001 -1.522560e+000 -8.046471e+000 87 71 46
7.692589e-001 -1.549434e+000 -8.428857e+000 79 65 38
7.692589e-001 -1.549434e+000 -8.428857e+000 79 65 38
-8.408798e-001 -1.623012e+000 -7.545840e+000 57 47 38
-6.965774e-001 -1.611911e+000 -7.643885e+000 82 67 44
-3.691047e-002 -1.630800e+000 -8.070110e+000 115 101 72
1.698908e-001 -1.673363e+000 -8.192318e+000 92 76 51
2.217692e-001 -1.740962e+000 -8.283298e+000 88 72 46
2.217692e-001 -1.740962e+000 -8.283298e+000 88 72 46
6.502549e-001 -1.623088e+000 -8.402599e+000 88 74 50
6.128988e-001 -1.722849e+000 -8.454723e+000 95 81 54
1.117827e+000 -1.809483e+000 -8.884835e+000 74 65 42
-1.655916e+000 -2.057688e+000 -7.588222e+000 114 98 72
2.837544e+000 -2.124193e+000 -7.490015e+000 187 180 172
-2.939807e+000 2.412953e+000 -8.439835e+000 180 174 137
-2.078088e+000 2.827008e+000 -9.450696e+000 241 216 207
-2.065895e+000 2.781813e+000 -9.471867e+000 162 150 104
-2.921232e+000 2.283891e+000 -8.307403e+000 138 139 102
-2.842388e+000 2.251843e+000 -8.290106e+000 187 178 135
-2.535621e+000 2.393014e+000 -8.535469e+000 180 177 145
-2.544085e+000 2.403869e+000 -8.581310e+000 180 177 145
-1.014575e+000 2.776653e+000 -9.894289e+000 188 170 134
-3.751588e-003 2.827275e+000 -1.041448e+001 166 133 122
-1.609090e+000 1.831723e+000 -8.179274e+000 194 189 186
-1.609016e+000 1.831963e+000 -8.179509e+000 194 189 186
2.300078e-001 2.345494e+000 -9.735299e+000 144 103 83
2.341181e-001 2.377144e+000 -9.900976e+000 144 103 83
8.112998e-001 2.350988e+000 -1.007914e+001 83 81 79
-1.621217e+000 1.587068e+000 -7.870637e+000 146 67 73
-1.616073e+000 1.401871e+000 -7.651619e+000 208 193 201
8.245886e-001 1.717233e+000 -9.324011e+000 165 155 119
7.791850e-001 1.660123e+000 -9.225679e+000 161 153 117
1.129571e+000 1.694636e+000 -9.455421e+000 139 138 127
1.228471e+000 1.692845e+000 -9.475952e+000 151 134 92
-1.334337e+000 1.266321e+000 -7.583766e+000 160 66 68
-1.336773e+000 1.267543e+000 -7.595302e+000 160 66 68
-1.454482e+000 1.151025e+000 -7.404970e+000 159 72 72
-1.402900e+000 1.123754e+000 -7.403722e+000 200 190 186
7.555909e-001 1.602096e+000 -9.145239e+000 102 96 84
7.604852e-001 1.406278e+000 -8.920328e+000 171 170 137
-8.946864e-001 9.458474e-001 -7.382208e+000 206 183 128
1.040995e+000 1.224917e+000 -8.824797e+000 88 82 81
1.435126e+000 1.381078e+000 -9.198120e+000 155 162 151
-1.748512e-001 8.494597e-001 -7.833416e+000 82 85 71
-1.510604e-001 8.907411e-001 -7.902128e+000 190 179 156
-1.510604e-001 8.907411e-001 -7.902128e+000 190 179 156
-8.109669e-003 7.628401e-001 -7.785599e+000 196 186 156
-8.109669e-003 7.628401e-001 -7.785599e+000 196 186 156
5.647712e-001 6.796149e-001 -7.950741e+000 188 163 105
1.025842e+000 8.457227e-001 -8.348686e+000 179 175 145
1.221522e+000 7.122218e-001 -8.231994e+000 148 149 91
-5.348645e-002 6.051488e-001 -7.600341e+000 193 181 144
8.987912e-002 5.067883e-001 -7.562879e+000 80 71 54
7.420848e-002 4.673827e-001 -7.506225e+000 177 163 125
7.420848e-002 4.673827e-001 -7.506225e+000 177 163 125
2.733544e-001 6.459948e-001 -7.786223e+000 189 172 118
2.677216e-001 5.995431e-001 -7.750608e+000 146 97 69
5.854837e-001 5.573946e-001 -7.811419e+000 148 101 74
1.125415e+000 5.253083e-001 -8.036820e+000 186 179 151
1.841483e+000 5.835493e-001 -8.392218e+000 155 170 146
5.405920e-002 2.673505e-001 -7.241418e+000 177 162 116
1.112412e-001 3.911337e-001 -7.408214e+000 185 171 123
1.472536e-001 3.254421e-001 -7.333938e+000 181 168 126
4.067296e-001 3.954004e-001 -7.533696e+000 191 170 117
4.067296e-001 3.954004e-001 -7.533696e+000 191 170 117
6.489564e-001 4.447526e-001 -7.715300e+000 139 96 68
6.489564e-001 4.447526e-001 -7.715300e+000 139 96 68
2.051088e+000 3.998009e-001 -8.250656e+000 145 159 134
-3.195991e+000 1.579274e-001 -8.701906e+000 183 78 92
2.548696e-001 1.872622e-001 -7.229053e+000 72 81 71
4.358746e-001 2.754767e-001 -7.416590e+000 149 100 72
5.299416e-001 2.507090e-001 -7.428786e+000 177 170 102
5.293269e-001 2.507384e-001 -7.414269e+000 177 170 102
8.498452e-001 2.606575e-001 -7.587196e+000 145 95 70
4.073910e-001 5.207717e-002 -7.122192e+000 72 76 68
4.070259e-001 5.226069e-002 -7.114325e+000 72 76 68
4.451216e-001 6.794227e-002 -7.184828e+000 177 163 96
9.361423e-001 7.091238e-002 -7.387167e+000 141 99 66
-2.985697e-001 -3.688042e-001 -6.638466e+000 72 63 34
6.271623e-001 -3.464296e-001 -7.137144e+000 107 102 59
8.732215e-001 -3.323919e-001 -7.240375e+000 105 101 63
1.071194e+000 -2.512065e-001 -7.268909e+000 65 65 39
1.072271e+000 -2.521173e-001 -7.282963e+000 65 65 39
1.133380e+000 -3.737346e-001 -7.427180e+000 63 62 39
1.168094e+000 -2.500458e-001 -7.354165e+000 64 64 40
1.145222e+000 -3.164126e-001 -7.372286e+000 65 65 39
1.298250e+000 -3.989244e-001 -7.531520e+000 65 64 44
1.540157e+000 -3.825823e-001 -7.703945e+000 86 89 64
1.759528e+000 -3.966655e-001 -7.835416e+000 58 61 41
-3.184478e-001 -4.162279e-001 -6.653625e+000 73 62 40
4.469735e-001 -5.593134e-001 -7.220739e+000 87 77 49
1.062731e+000 -4.648094e-001 -7.476161e+000 99 96 63
1.005280e+000 -5.338029e-001 -7.507376e+000 64 60 31
1.126552e+000 -5.081497e-001 -7.504707e+000 95 95 61
1.164033e+000 -5.496051e-001 -7.577708e+000 64 59 34
1.169571e+000 -4.050060e-001 -7.490113e+000 96 95 64
1.213593e+000 -5.288682e-001 -7.587191e+000 96 97 64
1.213593e+000 -5.288682e-001 -7.587191e+000 96 97 64
1.394574e+000 -4.521312e-001 -7.728610e+000 58 59 40
1.469377e+000 -4.931112e-001 -7.797199e+000 63 61 41
1.750544e+000 -5.520813e-001 -7.951050e+000 83 85 63
-1.170324e+000 -6.663859e-001 -6.379899e+000 72 69 60
-1.115894e+000 -6.926206e-001 -6.425872e+000 73 68 57
-7.643657e-002 -5.736222e-001 -6.936258e+000 82 67 35
-1.930699e-001 -7.181226e-001 -7.006675e+000 85 69 42
-4.273447e-002 -6.011735e-001 -7.027205e+000 120 106 69
-4.273447e-002 -6.011735e-001 -7.027205e+000 120 106 69
9.810169e-001 -7.688407e-001 -7.745592e+000 117 108 63
1.018698e+000 -7.647183e-001 -7.735001e+000 76 65 51
1.021997e+000 -6.287768e-001 -7.642373e+000 109 106 65
1.159699e+000 -5.918583e-001 -7.637168e+000 68 66 41
1.243531e+000 -7.786784e-001 -7.893986e+000 98 98 64
1.384788e+000 -7.443191e-001 -7.929859e+000 62 61 40
-1.427938e+000 -7.272129e-001 -6.276381e+000 76 69 63
-1.449089e+000 -8.111241e-001 -6.342481e+000 133 116 106
-1.393771e+000 -7.904662e-001 -6.367512e+000 135 118 111
-1.271793e+000 -7.218535e-001 -6.353849e+000 112 105 94
-3.467624e-001 -8.900354e-001 -7.084231e+000 80 66 37
-1.854078e-001 -8.152315e-001 -7.104580e+000 134 119 79
1.553434e-001 -9.124074e-001 -7.382205e+000 99 85 64
2.044382e-001 -9.047682e-001 -7.430057e+000 137 119 86
2.044382e-001 -9.047682e-001 -7.430057e+000 137 119 86
2.379134e-001 -9.310900e-001 -7.470671e+000 85 70 47
3.998100e-001 -8.736406e-001 -7.531034e+000 136 117 75
4.193281e-001 -9.248562e-001 -7.553138e+000 81 65 37
1.026754e+000 -8.661348e-001 -7.802521e+000 116 104 68
9.800320e-001 -8.840095e-001 -7.827865e+000 92 81 53
9.800320e-001 -8.840095e-001 -7.827865e+000 92 81 53
1.088839e+000 -8.507166e-001 -7.870810e+000 76 66 38
1.168570e+000 -8.493380e-001 -7.893364e+000 78 72 45
-1.702960e+000 -8.710849e-001 -6.267877e+000 68 61 51
-1.613999e+000 -8.701265e-001 -6.312646e+000 109 105 93
-1.523856e+000 -9.924917e-001 -6.505772e+000 74 63 60
-1.267475e+000 -9.807645e-001 -6.612331e+000 73 64 57
-1.267475e+000 -9.807645e-001 -6.612331e+000 73 64 57
-1.176579e+000 -1.031440e+000 -6.683511e+000 111 102 93
-4.899975e-001 -9.887523e-001 -7.114425e+000 84 68 45
-3.705334e-001 -9.712575e-001 -7.165050e+000 90 74 48
-2.385070e-001 -9.897502e-001 -7.285873e+000 141 122 92
-3.098023e-001 -1.089656e+000 -7.326656e+000 103 85 63
-1.743506e-001 -9.952973e-001 -7.226390e+000 134 118 84
-1.455838e-001 -1.042403e+000 -7.392460e+000 85 69 44
-1.101299e-001 -1.069662e+000 -7.425669e+000 139 123 94
-1.101299e-001 -1.069662e+000 -7.425669e+000 139 123 94
9.407441e-002 -1.118542e+000 -7.573571e+000 87 72 50
8.512973e-001 -1.145713e+000 -8.001168e+000 122 111 65
9.771210e-001 -1.026115e+000 -7.940649e+000 117 108 69
9.771210e-001 -1.026115e+000 -7.940649e+000 117 108 69
1.072099e+000 -1.156777e+000 -8.142655e+000 74 64 37
1.284131e+000 -1.021602e+000 -8.100473e+000 75 68 43
1.284131e+000 -1.021602e+000 -8.100473e+000 75 68 43
1.456848e+000 -1.088835e+000 -8.304669e+000 64 62 41
-1.281561e+000 -1.224455e+000 -6.826477e+000 70 67 56
-7.632914e-001 -1.225519e+000 -7.215670e+000 71 52 45
-6.747188e-001 -1.136087e+000 -7.115745e+000 58 44 36
-4.666239e-001 -1.263123e+000 -7.398796e+000 84 69 47
-3.434246e-001 -1.293445e+000 -7.506870e+000 135 120 89
-1.166486e-001 -1.213669e+000 -7.584840e+000 93 78 52
-1.567609e-001 -1.312090e+000 -7.605866e+000 100 84 61
6.786228e-002 -1.185343e+000 -7.615073e+000 90 76 49
2.226136e-001 -1.281756e+000 -7.805903e+000 83 67 45
5.108119e-001 -1.235365e+000 -7.932239e+000 81 64 40
8.642733e-001 -1.247211e+000 -8.117558e+000 86 74 42
8.220344e-001 -1.370974e+000 -8.225749e+000 83 66 44
-1.361692e+000 -1.255500e+000 -6.816542e+000 71 67 61
-1.357779e+000 -1.250877e+000 -6.791492e+000 71 67 61
-7.290808e-001 -1.292761e+000 -7.274516e+000 55 45 37
-6.452887e-001 -1.358064e+000 -7.411977e+000 134 118 94
-4.106079e-001 -1.394385e+000 -7.595980e+000 94 79 58
-5.190578e-001 -1.410863e+000 -7.523552e+000 90 74 55
-4.452906e-001 -1.492862e+000 -7.706978e+000 97 81 57
-4.440924e-001 -1.489739e+000 -7.691217e+000 97 81 57
-3.353732e-001 -1.396163e+000 -7.626293e+000 98 83 57
-3.022837e-001 -1.510209e+000 -7.752826e+000 89 74 44
-1.969916e-001 -1.316819e+000 -7.597435e+000 136 122 90
1.329657e-002 -1.359004e+000 -7.745345e+000 92 77 53
3.279090e-001 -1.440339e+000 -8.015614e+000 89 74 49
3.279090e-001 -1.440339e+000 -8.015614e+000 89 74 49
3.108036e-001 -1.494957e+000 -8.090595e+000 93 77 51
2.604387e-001 -1.507783e+000 -8.042488e+000 130 116 81
-7.545678e-001 -1.565416e+000 -7.562857e+000 93 77 58
-5.524071e-001 -1.515536e+000 -7.589889e+000 84 69 48
-2.299859e-001 -1.739282e+000 -8.009986e+000 97 82 55
-6.816256e-002 -1.596304e+000 -7.988848e+000 88 78 50
2.282705e-003 -1.605257e+000 -7.993943e+000 89 77 54
-1.869634e-002 -1.676344e+000 -8.106921e+000 87 73 46
-1.253509e+000 -1.694990e+000 -7.388523e+000 123 107 82
-1.326268e+000 -1.776163e+000 -7.447679e+000 90 75 49
-8.233206e-001 -1.861027e+000 -7.854655e+000 127 113 86
-2.971718e-001 -1.933372e+000 -8.209071e+000 93 77 51
-1.381954e+000 -2.034522e+000 -7.675673e+000 112 99 71
-1.231517e+000 -1.958537e+000 -7.729147e+000 73 60 41
-9.452222e-001 -2.102199e+000 -8.042229e+000 94 80 59
-9.452222e-001 -2.102199e+000 -8.042229e+000 94 80 59
-7.117170e-001 -1.955951e+000 -8.000499e+000 93 79 53
-5.478878e-001 -1.979825e+000 -8.117256e+000 97 82 55
-1.914800e+000 -2.080277e+000 -7.418890e+000 121 108 72
-1.869324e+000 -2.178764e+000 -7.604963e+000 109 98 70
-1.702972e+000 -2.167329e+000 -7.657477e+000 111 96 68
-1.306320e+000 -2.069345e+000 -7.757071e+000 108 97 71
-1.232347e+000 -2.113356e+000 -7.875429e+000 117 106 76
2.811081e+000 -2.090520e+000 -7.541464e+000 188 181 174
-2.743509e+000 2.585422e+000 -8.748124e+000 105 114 85
-2.793992e+000 2.344104e+000 -8.412968e+000 185 177 141
-4.053682e-001 2.566544e+000 -9.861468e+000 136 94 80
9.384124e-002 2.486740e+000 -9.933686e+000 171 135 93
-1.587518e+000 1.998571e+000 -8.370498e+000 205 185 133
-4.074380e-001 2.276992e+000 -9.470695e+000 185 152 94
-2.107733e-001 2.061200e+000 -9.293248e+000 193 184 172
-2.107733e-001 2.061200e+000 -9.293248e+000 193 184 172
-1.514990e+000 1.582358e+000 -7.899323e+000 151 64 70
3.261241e-001 2.017897e+000 -9.465971e+000 184 177 143
-1.540441e+000 1.463975e+000 -7.746413e+000 153 71 68
-1.466687e+000 1.471784e+000 -7.774536e+000 150 71 75
1.246758e+000 1.858624e+000 -9.699045e+000 80 91 75
1.207611e+000 1.775286e+000 -9.567834e+000 168 146 105
-1.483937e+000 1.115578e+000 -7.364149e+000 199 186 183
-1.483937e+000 1.115578e+000 -7.364149e+000 199 186 183
-1.439798e+000 1.209478e+000 -7.485589e+000 201 185 183
-1.440972e+000 1.209240e+000 -7.485134e+000 201 185 183
-1.283851e+000 1.227934e+000 -7.556293e+000 202 192 190
-1.189412e+000 1.232008e+000 -7.606914e+000 198 199 192
-1.187849e+000 1.067487e+000 -7.424246e+000 198 192 191
-2.681634e-001 1.049010e+000 -8.060728e+000 88 82 69
-1.663759e-001 9.969148e-001 -8.026177e+000 87 86 66
1.425485e+000 9.754141e-001 -8.677342e+000 72 80 67
-1.572125e-001 8.003762e-001 -7.803021e+000 199 188 166
-1.572125e-001 8.003762e-001 -7.803021e+000 199 188 166
6.534821e-002 6.652234e-001 -7.699086e+000 95 82 65
1.346147e+000 8.940823e-001 -8.520234e+000 85 98 66
1.343996e+000 7.657490e-001 -8.384414e+000 168 174 140
-7.223574e-002 5.575631e-001 -7.537716e+000 71 93 73
-4.087079e-002 4.780497e-001 -7.462387e+000 75 84 75
4.435953e-002 4.294366e-001 -7.405551e+000 73 86 69
4.032406e-001 3.459033e-001 -7.498000e+000 140 94 61
1.789489e+000 4.800659e-001 -8.210272e+000 119 133 80
-3.230803e+000 2.463449e-001 -8.696796e+000 189 82 94
-3.230803e+000 2.463449e-001 -8.696796e+000 189 82 94
2.957881e-001 1.185212e-001 -7.169297e+000 66 80 65
7.729430e-001 2.304644e-001 -7.494878e+000 180 165 109
6.461611e-001 6.083066e-002 -7.240865e+000 143 97 64
6.461611e-001 6.083066e-002 -7.240865e+000 143 97 64
1.619429e+000 1.192602e-001 -7.714178e+000 169 150 94
2.258284e+000 -1.854570e-001 -7.894693e+000 58 63 43
9.405154e-001 -4.069230e-001 -7.350806e+000 106 102 65
2.560295e-001 -6.071677e-001 -7.163354e+000 81 65 46
2.390671e-001 -6.547107e-001 -7.176520e+000 89 72 51
2.211025e-001 -7.094954e-001 -7.214082e+000 79 64 43
4.033044e-001 -7.181509e-001 -7.358207e+000 80 69 41
-1.196360e+000 -8.285341e-001 -6.501218e+000 130 115 104
-5.899002e-001 -8.660171e-001 -6.944950e+000 57 45 38
2.057386e-001 -7.743012e-001 -7.298291e+000 75 64 36
-5.063174e-001 -1.056906e+000 -7.178084e+000 86 69 50
-1.935207e-001 -9.489192e-001 -7.235719e+000 82 65 40
-1.935207e-001 -9.489192e-001 -7.235719e+000 82 65 40
-3.244405e-002 -9.529983e-001 -7.364964e+000 81 68 42
1.376676e-001 -9.841357e-001 -7.465764e+000 78 66 41
3.992619e-001 -9.903221e-001 -7.611681e+000 86 73 46
-1.149639e+000 -1.154202e+000 -6.829222e+000 73 66 62
-5.265060e-001 -1.119584e+000 -7.230389e+000 89 75 58
5.088182e-001 -1.613675e+000 -8.299189e+000 132 118 85
-9.794337e-001 -1.658294e+000 -7.486103e+000 135 116 83
-1.074321e+000 -1.781046e+000 -7.583411e+000 96 81 57
-1.683105e+000 -1.810174e+000 -7.191473e+000 79 63 47
-1.665876e+000 -1.874985e+000 -7.317792e+000 115 100 71
-1.182238e+000 -2.056934e+000 -7.840960e+000 75 63 41
-1.987230e+000 -2.143592e+000 -7.451844e+000 87 70 53
-9.916788e-001 -2.248195e+000 -8.205218e+000 100 89 64
-2.997861e+000 2.599224e+000 -8.667521e+000 153 153 115
-2.376202e+000 2.504495e+000 -8.707145e+000 196 177 133
-2.068039e+000 2.848215e+000 -9.490199e+000 243 215 207
-2.768124e+000 2.216056e+000 -8.239498e+000 132 128 87
-2.768124e+000 2.216056e+000 -8.239498e+000 132 128 87
-2.723376e+000 2.322025e+000 -8.392281e+000 154 150 113
-2.389535e+000 2.392741e+000 -8.569664e+000 93 118 90
-1.778469e+000 1.798228e+000 -8.087670e+000 202 188 188
-1.778469e+000 1.798228e+000 -8.087670e+000 202 188 188
1.897676e-001 2.135872e+000 -9.574036e+000 182 166 123
-1.675361e+000 1.601149e+000 -7.902964e+000 200 188 187
9.814622e-001 2.111628e+000 -9.908283e+000 163 132 84
-1.640251e+000 1.482156e+000 -7.748400e+000 167 78 82
1.158762e+000 1.855844e+000 -9.630332e+000 165 150 100
1.054048e+000 1.407350e+000 -9.035512e+000 169 162 148
-1.376739e+000 9.664006e-001 -7.228493e+000 202 189 191
1.416626e+000 1.229848e+000 -8.972158e+000 103 103 94
1.283164e+000 9.873189e-001 -8.631997e+000 153 157 135
-5.708257e-002 7.841279e-001 -7.822348e+000 75 87 72
1.100887e+000 8.377862e-001 -8.378672e+000 178 173 144
-1.084320e-001 6.279364e-001 -7.627545e+000 74 89 71
-1.084320e-001 6.279364e-001 -7.627545e+000 74 89 71
1.502607e-001 2.332290e-001 -7.236550e+000 185 169 113
1.519659e-001 2.334986e-001 -7.229461e+000 185 169 113
2.517024e-001 7.578645e-002 -7.094362e+000 177 166 103
2.505004e-001 7.549026e-002 -7.099538e+000 177 166 103
5.749516e-001 9.940101e-002 -7.258791e+000 174 164 96
5.732894e-001 9.915420e-002 -7.259343e+000 174 164 96
3.352228e-001 -4.017782e-001 -6.977299e+000 68 56 29
-5.011925e+001 -8.990375e+000 -8.977990e+001 216 210 254
-1.038548e+000 -7.476938e-001 -6.514277e+000 68 67 55
-1.035689e+000 -7.462280e-001 -6.504567e+000 68 67 55
-3.979860e-001 -7.598995e-001 -6.946727e+000 128 111 69
1.841138e-001 -1.221588e+000 -7.715345e+000 82 68 34
8.426449e-002 -1.543286e+000 -8.054730e+000 85 72 40
1.784395e+000 -2.129870e+000 -9.628772e+000 83 65 50
-2.066337e+000 -2.107151e+000 -7.431139e+000 91 77 50
-2.910435e+001 -2.351723e+001 -7.242249e+001 74 47 105
-2.901353e+000 2.596749e+000 -8.658393e+000 181 173 137
-2.158445e+000 2.841604e+000 -9.394116e+000 179 166 113
2.108145e-001 2.647011e+000 -1.026257e+001 176 147 116
2.108145e-001 2.647011e+000 -1.026257e+001 176 147 116
9.758430e-001 1.989954e+000 -9.740068e+000 87 90 75
-1.264600e+000 1.055485e+000 -7.371997e+000 166 72 73
-1.264600e+000 1.055485e+000 -7.371997e+000 166 72 73
1.251875e+000 7.783910e-001 -8.346474e+000 83 96 68
1.473253e+000 6.761147e-001 -8.321137e+000 99 115 76
4.675041e-001 1.062956e-001 -7.217806e+000 175 166 95
-5.552550e+001 -6.801616e+000 -9.633368e+001 76 51 115
-5.375504e+001 -7.242763e+000 -9.422425e+001 194 183 239
-4.869503e+001 -9.684190e+000 -8.236586e+001 107 69 122
4.373172e-002 -9.537064e-001 -7.429522e+000 136 116 74
4.373172e-002 -9.537064e-001 -7.429522e+000 136 116 74
1.601250e+000 -2.100923e+000 -9.515579e+000 69 62 44
-3.932789e+001 -1.690531e+001 -7.507119e+001 225 43 84
-2.872693e+001 -1.726548e+001 -7.907447e+001 222 49 82
-9.903950e-001 2.620008e+000 -9.674769e+000 183 166 142
6.517015e-001 1.978603e+000 -9.579409e+000 170 148 101
-1.161141e+000 1.001116e+000 -7.319373e+000 202 185 185
-1.161141e+000 1.001116e+000 -7.319373e+000 202 185 185
-9.235389e-001 9.461212e-001 -7.332846e+000 204 178 118
1.076952e+000 9.320024e-001 -8.468839e+000 142 148 89
3.210117e-001 5.706235e-001 -7.740810e+000 148 109 72
1.674272e+000 4.374421e-001 -8.213071e+000 176 169 148
1.936852e+000 4.975606e-001 -8.337133e+000 129 143 117
-6.333016e+001 -2.777030e+000 -1.091176e+002 233 68 122
-5.747522e+001 -4.644660e+000 -1.002379e+002 74 52 114
-1.094313e+000 -9.264036e-001 -6.632793e+000 76 69 61
-9.035212e-001 -1.024916e+000 -6.834898e+000 108 96 74
-3.749722e+001 -1.527995e+001 -9.528256e+001 59 34 64
-3.329348e+001 -1.276594e+001 -8.644733e+001 226 44 85
-4.042426e+001 -1.555476e+001 -8.934843e+001 197 26 70
-3.642977e+001 -1.522920e+001 -8.236481e+001 62 40 96
-3.401961e+001 -1.481251e+001 -8.821259e+001 205 35 66
-3.566649e+001 -1.659696e+001 -7.993651e+001 71 51 115
-3.161393e+001 -1.679937e+001 -8.283033e+001 226 42 76
-2.882277e+001 -1.812674e+001 -7.875451e+001 208 34 64
-2.246565e+000 -2.304672e+000 -7.602107e+000 76 63 44
-1.580859e+000 1.907139e+000 -8.421295e+000 131 72 74
3.688791e-001 7.823594e-001 -8.019672e+000 187 167 114
1.468779e-001 5.853730e-001 -7.607229e+000 191 173 133
6.379515e-001 5.622073e-001 -7.807544e+000 145 101 72
2.006810e+000 3.777934e-001 -8.274077e+000 140 155 132
-5.635116e+001 -3.228827e+000 -1.010175e+002 90 70 155
-6.100517e-001 -1.175824e+000 -7.194347e+000 103 89 63
-3.323260e+001 -1.744095e+001 -7.345069e+001 66 45 107
-3.393445e+001 -1.900143e+001 -7.290682e+001 206 31 70
-3.186309e+001 -2.240051e+001 -6.984554e+001 49 35 69
-2.512811e+000 2.471018e+000 -8.725344e+000 94 119 90
-1.909940e+000 1.858201e+000 -8.174160e+000 135 71 66
-1.659376e+000 1.696657e+000 -8.006232e+000 176 136 141
-1.101780e+000 1.135159e+000 -7.501247e+000 160 68 69
-1.048765e+000 9.222948e-001 -7.262959e+000 157 66 67
-2.468103e-001 1.010775e+000 -8.100531e+000 84 81 62
-2.468103e-001 1.010775e+000 -8.100531e+000 84 81 62
-6.606352e-001 7.681790e-001 -7.559065e+000 193 183 181
1.099760e+000 5.865840e-001 -8.013444e+000 172 157 108
2.227911e-001 4.475289e-001 -7.441579e+000 188 173 126
2.980259e-001 2.685661e-001 -7.272178e+000 184 169 108
-3.426120e-001 -1.511488e-001 -6.562196e+000 165 151 86
-4.854979e+001 -9.228326e+000 -8.744831e+001 173 163 216
-3.953238e+001 -1.310947e+001 -8.677408e+001 201 27 62
-3.684016e+001 -1.573552e+001 -8.058107e+001 242 50 95
-3.542040e+001 -1.734305e+001 -7.627072e+001 250 56 101
8.660286e-001 1.538120e+000 -9.094770e+000 114 108 100
5.797592e-002 -2.867921e-001 -6.761137e+000 76 64 22
-3.520620e+001 -1.719313e+001 -8.493780e+001 67 54 124
-3.022478e+001 -1.704686e+001 -7.651404e+001 58 36 74
-1.236040e+000 1.438462e+000 -7.733052e+000 156 70 71
7.305034e-001 1.223455e+000 -8.607810e+000 177 171 135
-4.702473e+001 -8.910275e+000 -9.284155e+001 255 62 110
1.027992e+000 -5.568196e-003 -7.278063e+000 146 148 83
7.205075e-001 -6.434643e-001 -7.414058e+000 129 111 63
-5.536482e+001 -6.344532e+000 -1.001606e+002 69 47 109
1.738609e+000 2.162571e+000 -1.003545e+001 193 197 185
1.369355e+000 2.089307e-001 -7.872748e+000 169 156 115
-4.295372e+001 -7.731732e+000 -8.938977e+001 251 53 99
-1.277200e+000 5.459398e-001 -7.040336e+000 194 179 137
-2.874524e+000 2.303639e+000 -8.315315e+000 183 176 139
-1.609520e-001 1.050038e+000 -8.089139e+000 195 186 169
1.828567e+000 1.427364e+000 -9.313157e+000 82 78 74
5.755748e-001 2.624161e-001 -7.448163e+000 178 165 97
6.249243e-001 1.245971e-001 -7.315327e+000 128 92 53
6.249243e-001 1.245971e-001 -7.315327e+000 128 92 53
-1.610612e+000 -2.789631e-001 -5.774935e+000 90 87 49
1.599831e+000 -4.402518e-001 -7.740209e+000 88 90 67
2.317990e+000 -1.016139e+000 -8.658668e+000 114 104 95
-1.718857e+000 1.773375e+000 -8.064949e+000 131 69 69
1.998857e+000 2.089470e+000 -8.816076e+000 194 195 182
-2.249823e+000 1.605986e+000 -7.745759e+000 211 186 130
1.920793e+000 1.833615e+000 -9.022842e+000 185 186 178
3.567471e-001 1.723599e+000 -9.124732e+000 165 156 111
8.965695e-001 1.732268e+000 -9.333421e+000 111 105 97
-1.403562e+000 1.124139e+000 -7.402905e+000 200 190 186
1.384867e+000 1.038679e+000 -8.723301e+000 116 114 110
9.480311e-001 6.747489e-001 -8.105046e+000 171 170 118
1.842572e+000 5.827198e-001 -8.393311e+000 155 170 146
4.201797e-001 -6.658820e-001 -7.322011e+000 74 61 32
4.201797e-001 -6.658820e-001 -7.322011e+000 74 61 32
3.055817e-001 -1.164357e+000 -7.751226e+000 130 113 77
-1.531901e+000 2.812926e+000 -9.724236e+000 191 166 109
-1.720584e+000 1.715354e+000 -7.994373e+000 201 187 186
-1.480529e+000 8.405392e-001 -7.057517e+000 198 171 100
-4.541939e-001 -8.860521e-001 -7.043132e+000 75 61 36
-1.918120e-001 -3.505839e-001 -6.692127e+000 113 100 55
-1.136377e+000 -1.936024e+000 -7.746820e+000 75 63 47
-2.072127e+000 -8.762610e-001 -6.592053e+000 168 133 103
-5.052732e-001 -7.983496e-001 -6.909685e+000 123 105 66
-7.396668e-001 -1.250347e+000 -7.219196e+000 74 65 54
6.192954e-001 2.841116e-001 -7.364660e+000 168 167 98
6.192954e-001 2.841116e-001 -7.364660e+000 168 167 98
3.286490e-001 -5.902180e-001 -7.163312e+000 130 114 63
-1.628163e+000 1.240797e+000 -7.507291e+000 177 71 76
-4.207878e-001 3.991708e+000 -1.390969e+001 159 148 142
-3.261077e+000 2.622544e+000 -8.677034e+000 186 191 144
-2.769539e+000 2.294016e+000 -8.378978e+000 180 177 139
-1.913942e-001 2.786542e+000 -1.022265e+001 148 161 131
7.865548e-001 2.999048e+000 -1.095108e+001 115 114 100
-5.104612e-001 2.443424e+000 -9.699834e+000 143 87 68
-5.814636e-001 2.201510e+000 -9.391595e+000 193 158 116
-5.406000e-001 2.210491e+000 -9.365815e+000 159 116 74
-5.147845e-001 2.170364e+000 -9.310439e+000 193 168 119
6.524963e-001 2.421771e+000 -1.011128e+001 153 119 81
6.524963e-001 2.421771e+000 -1.011128e+001 153 119 81
-1.723978e+000 1.774656e+000 -8.062075e+000 128 63 64
-2.836510e-003 2.050575e+000 -9.329901e+000 191 175 141
7.978871e-001 2.203313e+000 -9.933829e+000 188 177 136
-1.598852e+000 1.457687e+000 -7.736068e+000 200 193 192
-1.598852e+000 1.457687e+000 -7.736068e+000 200 193 192
-1.435536e+000 1.520213e+000 -7.873363e+000 152 61 65
9.869256e-001 1.725996e+000 -9.392283e+000 149 145 133
1.005565e+000 1.620097e+000 -9.255754e+000 96 90 90
1.266080e+000 1.652389e+000 -9.447630e+000 72 84 73
1.266080e+000 1.652389e+000 -9.447630e+000 72 84 73
1.871932e+000 1.601656e+000 -9.136344e+000 87 85 78
-9.224886e-001 1.367712e+000 -7.588668e+000 162 132 62
1.350828e+000 1.454458e+000 -9.221536e+000 114 111 106
-3.347388e-001 9.627052e-001 -7.964899e+000 185 178 162
-2.937983e-001 1.011474e+000 -8.025155e+000 169 152 134
-2.209024e-001 1.014645e+000 -8.019015e+000 191 185 165
-2.508558e-001 9.605533e-001 -7.925800e+000 176 174 150
-2.508558e-001 9.605533e-001 -7.925800e+000 176 174 150
1.332419e+000 1.020350e+000 -8.618502e+000 91 89 85
1.359439e+000 9.516851e-001 -8.654941e+000 132 136 122
-2.411004e-001 7.825520e-001 -7.724371e+000 193 176 157
-2.411004e-001 7.825520e-001 -7.724371e+000 193 176 157
-2.105746e-001 7.954972e-001 -7.782165e+000 82 73 60
-2.116557e-001 7.178851e-001 -7.676051e+000 200 179 159
-1.283901e-001 7.253329e-001 -7.714588e+000 197 185 153
-6.571484e-002 8.170384e-001 -7.837966e+000 76 74 54
1.406621e+000 8.073247e-001 -8.462406e+000 93 108 68
3.065090e-002 6.912555e-001 -7.740261e+000 194 177 141
6.593958e-001 6.343118e-001 -7.926923e+000 138 89 62
1.590383e-001 3.728400e-001 -7.401754e+000 70 73 47
4.666033e-001 4.347749e-001 -7.606131e+000 136 91 59
4.666033e-001 4.347749e-001 -7.606131e+000 136 91 59
6.864843e-001 5.283673e-001 -7.796447e+000 184 157 104
6.864843e-001 5.283673e-001 -7.796447e+000 184 157 104
5.413919e-001 2.844931e-001 -7.457166e+000 140 99 65
8.042574e-001 2.902623e-001 -7.516430e+000 168 166 109
5.617725e-001 1.854179e-001 -7.335017e+000 175 163 103
6.096986e-001 8.220010e-002 -7.242558e+000 169 156 91
6.096986e-001 8.220010e-002 -7.242558e+000 169 156 91
8.481970e-001 9.696913e-002 -7.355734e+000 158 153 87
8.481970e-001 9.696913e-002 -7.355734e+000 158 153 87
-5.919574e-001 -1.922656e-001 -6.325859e+000 141 131 74
1.588923e+000 -3.486481e-001 -7.676064e+000 61 62 44
1.027075e+000 -5.828177e-001 -7.557418e+000 108 104 69
2.602876e-001 -8.440346e-001 -7.381282e+000 77 65 33
2.289770e+000 -1.167409e+000 -8.127689e+000 138 132 121
3.477209e-001 -1.398845e+000 -8.010841e+000 88 74 48
-3.942105e-001 -1.438953e+000 -7.635502e+000 134 118 92
-1.612996e-001 -1.564783e+000 -7.920196e+000 96 82 56
-2.277766e+000 -2.043371e+000 -7.234537e+000 78 62 31
-2.863544e+000 2.437301e+000 -8.593260e+000 181 178 140
2.669597e-001 2.160375e+000 -9.624081e+000 93 98 77
8.840516e-001 2.234426e+000 -1.002895e+001 168 143 86
-1.551755e+000 1.727332e+000 -8.089840e+000 189 184 183
2.610906e-001 1.798111e+000 -9.160242e+000 192 182 152
7.467957e-001 1.937844e+000 -9.552394e+000 190 182 163
-1.496319e+000 1.368472e+000 -7.672046e+000 154 59 67
-1.496319e+000 1.368472e+000 -7.672046e+000 154 59 67
7.752968e-001 1.658372e+000 -9.196415e+000 146 133 99
-2.733640e+000 1.248793e+000 -7.669436e+000 202 163 135
1.841094e+000 1.590051e+000 -9.222133e+000 173 173 165
1.810558e+000 1.521254e+000 -9.256928e+000 165 167 158
-1.226257e+000 1.141881e+000 -7.514307e+000 200 188 188
-1.226257e+000 1.141881e+000 -7.514307e+000 200 188 188
3.212867e-001 1.066895e+000 -8.314281e+000 142 92 69
1.417130e+000 1.119444e+000 -8.845918e+000 97 96 91
-2.124446e+000 6.622533e-001 -6.685981e+000 211 206 144
4.824879e-001 8.986264e-001 -8.129591e+000 182 170 105
-2.069718e+000 5.458673e-001 -6.604268e+000 198 199 130
5.850015e-002 5.691616e-001 -7.601521e+000 67 69 52
3.822283e-002 5.315619e-001 -7.554988e+000 189 167 134
5.511437e-001 6.273809e-001 -7.855329e+000 147 92 76
6.385946e-001 5.679353e-001 -7.837367e+000 138 93 62
6.986245e-001 6.211049e-001 -7.899073e+000 175 164 92
1.386810e-002 5.018592e-001 -7.531583e+000 74 73 51
8.367361e-002 3.665417e-001 -7.370740e+000 71 78 64
3.591681e-001 4.122971e-001 -7.552200e+000 145 88 63
1.523096e+000 5.598087e-001 -8.168866e+000 165 150 97
1.967580e+000 5.461566e-001 -8.361375e+000 132 146 119
2.026994e+000 4.484542e-001 -8.300162e+000 150 166 140
1.471215e-001 3.266985e-001 -7.326325e+000 180 162 117
2.040225e+000 3.555583e-001 -8.214523e+000 98 115 84
1.177100e-001 1.181375e-001 -7.151804e+000 180 162 101
2.135992e+000 1.681000e-001 -8.006479e+000 103 118 89
8.860251e-001 -2.669154e-001 -7.179065e+000 101 103 64
1.986041e+000 -2.077759e-001 -7.784512e+000 65 67 53
1.045023e+000 -3.857077e-001 -7.413017e+000 70 68 45
1.005370e+000 -5.342045e-001 -7.511625e+000 76 72 47
1.301524e+000 -4.053981e-001 -7.558397e+000 67 66 48
1.022116e+000 -7.722877e-001 -7.762289e+000 72 65 44
1.163770e+000 -5.984633e-001 -7.673058e+000 74 71 47
1.315202e+000 -6.685745e-001 -7.806149e+000 70 67 47
-1.544612e+000 -7.255086e-001 -6.249205e+000 72 63 59
-1.306056e+000 -6.485084e-001 -6.289972e+000 78 71 65
-1.169349e+000 -6.675767e-001 -6.383928e+000 75 69 64
-5.574246e-001 -7.774564e-001 -6.899601e+000 58 48 36
3.512968e-002 -7.425199e-001 -7.169563e+000 102 87 58
4.498774e-001 -8.256817e-001 -7.477093e+000 85 69 44
1.181240e+000 -9.650200e-001 -8.028961e+000 116 107 71
-2.493091e-001 -9.040801e-001 -7.181254e+000 98 82 56
-2.691030e-001 -9.622279e-001 -7.222401e+000 99 83 58
-2.156134e-001 -1.037095e+000 -7.334661e+000 95 79 53
-8.201667e-002 -1.126945e+000 -7.519607e+000 97 83 57
3.594617e-001 -1.118443e+000 -7.730510e+000 93 78 53
7.057385e-001 -1.207637e+000 -8.003632e+000 87 72 45
1.102121e+000 -1.084110e+000 -8.112705e+000 83 73 46
-1.152617e+000 -1.161446e+000 -6.857861e+000 74 68 61
-6.720147e-001 -1.321076e+000 -7.386770e+000 91 78 62
-5.796527e-001 -1.272231e+000 -7.353783e+000 91 75 60
-4.371469e-001 -1.167822e+000 -7.337189e+000 87 74 52
5.108901e-002 -1.260996e+000 -7.718392e+000 92 77 53
-1.600437e+000 -1.273261e+000 -6.745467e+000 76 66 64
-1.600437e+000 -1.273261e+000 -6.745467e+000 76 66 64
-5.205490e-001 -1.419610e+000 -7.554848e+000 92 77 58
-3.731629e-001 -1.496535e+000 -7.720947e+000 99 85 59
-2.784836e-001 -1.450993e+000 -7.726162e+000 103 86 67
-3.290663e-001 -1.828470e+000 -8.120802e+000 93 79 55
-8.695926e-001 -1.994881e+000 -7.994713e+000 124 109 84
-1.526706e+000 -2.191779e+000 -7.820619e+000 113 100 72
-1.434964e+000 -2.182361e+000 -7.878605e+000 112 98 72
-3.037475e+000 2.558026e+000 -8.658389e+000 172 170 132
-7.674707e-001 2.863995e+000 -1.009415e+001 90 92 76
-2.925713e+000 2.285248e+000 -8.329480e+000 145 144 110
-2.754622e+000 2.325151e+000 -8.272069e+000 178 171 132
-3.883038e-001 2.741689e+000 -1.012905e+001 129 87 83
-3.315200e-001 2.552446e+000 -9.833081e+000 169 127 104
-2.720166e-001 2.229372e+000 -9.477606e+000 183 157 118
-2.598753e+000 1.231932e+000 -7.471951e+000 229 208 135
1.123350e+000 1.444010e+000 -9.036693e+000 105 102 99
1.318676e+000 1.535468e+000 -9.377829e+000 139 142 131
-3.297444e-001 1.034518e+000 -8.035817e+000 75 82 71
-3.297444e-001 1.034518e+000 -8.035817e+000 75 82 71
-2.677762e-001 9.044408e-001 -7.882771e+000 72 82 69
-5.264578e-002 6.058544e-001 -7.594931e+000 194 178 146
-1.981308e+000 4.584476e-001 -6.525671e+000 162 158 91
7.231843e-001 4.133627e-001 -7.666056e+000 175 160 93
7.231843e-001 4.133627e-001 -7.666056e+000 175 160 93
1.222706e+000 4.674805e-001 -7.958257e+000 159 139 89
4.500236e-001 3.211170e-001 -7.458008e+000 186 167 108
4.500236e-001 3.211170e-001 -7.458008e+000 186 167 108
5.398205e-001 1.533761e-001 -7.293071e+000 144 99 68
2.909774e-001 -4.342667e-001 -7.040795e+000 117 104 60
9.127274e-001 -4.940048e-001 -7.405123e+000 118 111 69
2.569821e-001 -5.383714e-001 -7.114705e+000 121 107 63
-1.657341e+000 -9.125866e-001 -6.383379e+000 67 63 56
-1.657341e+000 -9.125866e-001 -6.383379e+000 67 63 56
-1.389213e+000 -8.797791e-001 -6.476483e+000 130 114 106
-1.310898e+000 -9.328099e-001 -6.565532e+000 132 115 105
-1.310898e+000 -9.328099e-001 -6.565532e+000 132 115 105
2.099051e-001 -1.157689e+000 -7.678708e+000 96 82 55
-1.389311e+000 -1.179351e+000 -6.737051e+000 73 68 62
2.576114e-001 -1.833301e+000 -8.467548e+000 106 91 60
-1.746802e+000 -2.067525e+000 -7.554873e+000 111 96 69
-1.511424e+000 -2.272817e+000 -7.938934e+000 81 65 42
-1.280081e+000 -2.114633e+000 -7.894216e+000 81 66 43
-9.716417e-001 2.840670e+000 -9.974853e+000 106 110 83
-3.024369e+000 2.450287e+000 -8.510628e+000 137 143 107
-2.969003e+000 2.362496e+000 -8.381330e+000 121 123 90
-2.481118e+000 2.528502e+000 -8.801493e+000 81 115 83
-8.046771e-001 2.696244e+000 -9.787369e+000 130 93 77
-1.688533e-001 2.818002e+000 -1.031696e+001 139 145 113
-1.688533e-001 2.818002e+000 -1.031696e+001 139 145 113
1.154177e+000 1.855470e+000 -9.588497e+000 171 147 95
-1.393017e+000 1.445752e+000 -7.785836e+000 206 186 192
-1.040538e+000 1.500829e+000 -8.436482e+000 176 150 76
-3.294036e-001 1.033307e+000 -8.036989e+000 75 82 71
-8.421647e-001 8.179259e-001 -7.249324e+000 201 184 160
-2.633446e-001 8.109866e-001 -7.788865e+000 197 184 174
1.290408e-001 1.801676e-001 -7.160485e+000 66 81 56
7.924183e-001 7.295220e-002 -7.316122e+000 140 92 62
7.924183e-001 7.295220e-002 -7.316122e+000 140 92 62
-1.236955e+000 -2.256678e+000 -8.091826e+000 91 76 52
-4.410247e-001 2.252734e+000 -9.382467e+000 186 152 103
-1.471924e+000 1.917779e+000 -8.399129e+000 200 175 118
-1.960054e+000 1.074223e+000 -7.201346e+000 204 186 154
-1.960054e+000 1.074223e+000 -7.201346e+000 204 186 154
-1.932806e+000 9.910269e-001 -7.082682e+000 199 172 95
-8.765468e-001 7.403501e-001 -7.227764e+000 143 112 69
-1.950864e-001 7.516154e-001 -7.729243e+000 54 76 58
-4.479887e-001 -1.903261e-001 -6.465672e+000 111 99 47
-2.688327e-001 -6.295076e-001 -6.884285e+000 131 113 68
-1.304945e+000 -1.172230e+000 -6.762370e+000 74 68 60
-1.304945e+000 -1.172230e+000 -6.762370e+000 74 68 60
-1.382464e+000 2.783169e+000 -9.757664e+000 195 167 113
-2.651994e-001 2.438316e+000 -9.592626e+000 171 139 101
8.840641e-001 8.197333e-001 -8.214641e+000 180 178 152
1.017561e+000 7.400261e-001 -8.191535e+000 136 142 85
1.247207e+000 7.795593e-001 -8.335841e+000 81 90 61
3.962492e-001 4.555832e-001 -7.564601e+000 172 137 99
7.468449e-001 1.878503e+000 -9.471724e+000 188 178 167
5.412251e-001 4.493503e-001 -7.662042e+000 180 163 99
4.586759e-001 -6.521871e-001 -7.407036e+000 120 105 72
1.823053e+000 -2.269702e+000 -9.727116e+000 198 163 149
-1.756442e+000 2.071015e+000 -8.439609e+000 197 190 178
-8.158671e-001 7.086588e-001 -7.245961e+000 148 122 92
1.038821e-001 3.250596e-001 -7.266409e+000 65 80 59
-5.635825e-001 -1.211933e-001 -6.302937e+000 152 146 76
1.169254e+000 1.230257e+000 -8.895765e+000 85 81 79
-1.741050e+000 -2.820256e-001 -5.992476e+000 188 178 125
-1.055872e-001 2.217801e+000 -9.548471e+000 191 168 127
-1.480853e+000 1.396469e+000 -7.657166e+000 202 184 184
-1.480853e+000 1.396469e+000 -7.657166e+000 202 184 184
1.362052e+000 1.697659e+000 -9.333500e+000 86 103 79
-1.811642e+000 2.618899e+000 -9.350604e+000 170 154 94
5.559505e-001 2.328417e+000 -1.002299e+001 181 157 109
1.024986e-001 9.009495e-001 -7.904134e+000 192 178 148
1.487592e+000 2.643407e-001 -7.707202e+000 176 170 145
-6.206961e-001 2.668216e+000 -1.005794e+001 126 86 79
2.147947e+000 1.248223e+000 -9.004164e+000 190 197 190
-1.698691e+000 8.520170e-001 -6.893530e+000 194 184 144
-4.475543e-001 5.018380e-001 -7.929684e+000 194 185 170
-1.785183e+000 2.247527e-001 -6.561288e+000 141 147 75
1.495457e+000 1.167304e+000 -9.019445e+000 72 80 69
-1.945169e-001 -1.115715e-001 1.110409e+000 0 255 0
-1.937786e-001 -1.112307e-001 1.060416e+000 255 255 0
-6.340483e-002 1.028435e+000 1.427887e+000 255 0 0
-6.241822e-002 1.023740e+000 1.378118e+000 255 255 0
-3.720161e-001 2.107699e+000 1.265037e+000 0 255 0
-3.711142e-001 2.098400e+000 1.215917e+000 255 255 0
