ply
format ascii 1.0
element face 0
property list uchar int vertex_indices
element vertex 876
property float x
property float y
property float z
property uchar diffuse_red
property uchar diffuse_green
property uchar diffuse_blue
end_header
-2.335120e-001 -1.967505e+000 -6.980013e+000 139 122 92
2.487104e+000 -2.065061e+000 -8.646759e+000 94 91 64
-9.508116e-001 -2.297905e+000 -6.975562e+000 140 124 99
-8.077948e-001 -2.209879e+000 -6.894336e+000 136 120 97
-4.720517e-001 -2.297163e+000 -7.204722e+000 135 118 90
-4.720517e-001 -2.297163e+000 -7.204722e+000 135 118 90
2.144558e-001 -2.380923e+000 -7.626414e+000 138 122 86
2.144558e-001 -2.380923e+000 -7.626414e+000 138 122 86
1.341254e+000 -2.512578e+000 -8.395129e+000 78 66 40
2.621500e+000 -2.340682e+000 -8.986498e+000 65 63 38
-4.575586e-001 -2.644594e+000 -7.539154e+000 131 115 81
1.528877e-001 -2.594925e+000 -7.901682e+000 137 121 89
1.120876e-001 -2.695027e+000 -7.945528e+000 126 112 77
4.587377e-001 -2.780757e+000 -8.179398e+000 87 71 46
4.587377e-001 -2.780757e+000 -8.179398e+000 87 71 46
1.390377e+000 -2.810927e+000 -8.797811e+000 79 65 38
1.390377e+000 -2.810927e+000 -8.797811e+000 79 65 38
-1.356758e+000 -2.971991e+000 -7.369132e+000 57 47 38
-1.108591e+000 -2.949520e+000 -7.529926e+000 82 67 44
2.135086e-002 -2.965098e+000 -8.224790e+000 115 101 72
3.739329e-001 -3.032116e+000 -8.422733e+000 92 76 51
4.629037e-001 -3.143183e+000 -8.571877e+000 88 72 46
4.629037e-001 -3.143183e+000 -8.571877e+000 88 72 46
1.189120e+000 -2.937117e+000 -8.757996e+000 88 74 50
1.126250e+000 -3.104266e+000 -8.845123e+000 95 81 54
1.978274e+000 -3.232058e+000 -9.537553e+000 74 65 42
-2.740734e+000 -3.710297e+000 -7.454157e+000 114 98 72
4.890045e+000 -3.791268e+000 -7.195388e+000 187 180 172
-4.932737e+000 3.903375e+000 -9.002130e+000 180 174 137
-3.429097e+000 4.580875e+000 -1.061160e+001 241 216 207
-3.374954e+000 4.482192e+000 -1.045927e+001 162 150 104
-4.893986e+000 3.680203e+000 -8.708763e+000 138 139 102
-4.764142e+000 3.626310e+000 -8.680089e+000 187 178 135
-4.225735e+000 3.860210e+000 -9.059350e+000 180 177 145
-4.239913e+000 3.879600e+000 -9.144250e+000 180 177 145
-1.625228e+000 4.469175e+000 -1.117681e+001 188 170 134
8.793957e-002 4.547275e+000 -1.200544e+001 166 133 122
-2.684556e+000 2.918036e+000 -8.465808e+000 194 189 186
-2.684500e+000 2.918237e+000 -8.465605e+000 194 189 186
4.793561e-001 3.773484e+000 -1.100672e+001 144 103 83
4.816298e-001 3.806186e+000 -1.116466e+001 144 103 83
1.458509e+000 3.766032e+000 -1.148263e+001 83 81 79
-2.695368e+000 2.505704e+000 -7.929780e+000 146 67 73
-2.693484e+000 2.191862e+000 -7.565257e+000 208 193 201
1.471701e+000 2.712171e+000 -1.021072e+001 165 155 119
1.396693e+000 2.616994e+000 -1.007180e+001 161 153 117
1.978644e+000 2.666797e+000 -1.039234e+001 139 138 127
2.144938e+000 2.664699e+000 -1.044054e+001 151 134 92
-2.222314e+000 1.963969e+000 -7.480809e+000 160 66 68
-2.226454e+000 1.965820e+000 -7.488512e+000 160 66 68
-2.424237e+000 1.765195e+000 -7.147508e+000 159 72 72
-2.321894e+000 1.722137e+000 -7.170433e+000 200 190 186
1.357387e+000 2.520994e+000 -9.935763e+000 102 96 84
1.366222e+000 2.192817e+000 -9.578460e+000 171 170 137
-1.465168e+000 1.416058e+000 -7.091775e+000 206 183 128
1.834550e+000 1.884770e+000 -9.385247e+000 88 82 81
2.501135e+000 2.149005e+000 -1.001974e+001 155 162 151
-2.203855e-001 1.252993e+000 -7.836414e+000 82 85 71
-1.831740e-001 1.323151e+000 -7.934357e+000 190 179 156
-1.832624e-001 1.323096e+000 -7.935560e+000 190 179 156
6.131197e-002 1.106043e+000 -7.765298e+000 196 186 156
5.902360e-002 1.105445e+000 -7.738485e+000 196 186 156
1.036144e+000 9.652109e-001 -8.000098e+000 188 163 105
1.818123e+000 1.248365e+000 -8.643817e+000 179 175 145
2.148978e+000 1.021018e+000 -8.481633e+000 148 149 91
-2.007759e-002 8.358438e-001 -7.430690e+000 193 181 144
2.242351e-001 6.686972e-001 -7.344869e+000 80 71 54
1.971145e-001 6.005131e-001 -7.272883e+000 177 163 125
1.971145e-001 6.005131e-001 -7.272883e+000 177 163 125
5.389545e-001 9.069060e-001 -7.733508e+000 189 172 118
5.292579e-001 8.275876e-001 -7.674826e+000 146 97 69
1.071385e+000 7.567888e-001 -7.768902e+000 148 101 74
1.973363e+000 7.060877e-001 -8.071408e+000 186 179 151
3.194210e+000 8.075692e-001 -8.671590e+000 155 170 146
1.619067e-001 2.567285e-001 -6.843019e+000 177 162 116
2.597577e-001 4.697775e-001 -7.108894e+000 185 171 123
3.224505e-001 3.562905e-001 -6.998137e+000 181 168 126
7.715268e-001 4.793512e-001 -7.305380e+000 191 170 117
7.790270e-001 4.808045e-001 -7.305172e+000 191 170 117
1.179012e+000 5.661914e-001 -7.581763e+000 139 96 68
1.179012e+000 5.661914e-001 -7.581763e+000 139 96 68
3.551835e+000 4.951915e-001 -8.448606e+000 145 159 134
-5.320911e+000 6.734567e-002 -9.326051e+000 183 78 92
4.953835e-001 1.195648e-001 -6.799038e+000 72 81 71
8.162520e-001 2.732970e-001 -7.107748e+000 149 100 72
9.743170e-001 2.310509e-001 -7.126640e+000 177 170 102
9.752993e-001 2.310665e-001 -7.110634e+000 177 170 102
1.522776e+000 2.502996e-001 -7.392507e+000 145 95 70
7.662252e-001 -1.135981e-001 -6.629429e+000 72 76 68
7.652350e-001 -1.118149e-001 -6.612012e+000 72 76 68
8.353941e-001 -8.159777e-002 -6.717072e+000 177 163 96
1.665022e+000 -7.593032e-002 -7.046180e+000 141 99 66
-4.506564e-001 -8.442911e-001 -5.825740e+000 72 63 34
1.143584e+000 -7.939309e-001 -6.647256e+000 107 102 59
1.563612e+000 -7.667407e-001 -6.808091e+000 105 101 63
1.902668e+000 -6.269290e-001 -6.859441e+000 65 65 39
1.903262e+000 -6.278983e-001 -6.875055e+000 65 65 39
2.008367e+000 -8.337348e-001 -7.123040e+000 63 62 39
2.066407e+000 -6.229748e-001 -6.992510e+000 64 64 40
2.027359e+000 -7.361864e-001 -7.023405e+000 65 65 39
2.287045e+000 -8.738359e-001 -7.286346e+000 65 64 44
2.698753e+000 -8.425251e-001 -7.576362e+000 86 89 64
3.069324e+000 -8.632345e-001 -7.789277e+000 58 61 41
-4.844445e-001 -9.257251e-001 -5.851749e+000 73 62 40
8.360366e-001 -1.157988e+000 -6.792267e+000 87 77 49
1.887908e+000 -9.888366e-001 -7.206668e+000 99 96 63
1.789984e+000 -1.106352e+000 -7.260006e+000 64 60 31
1.996649e+000 -1.061979e+000 -7.253167e+000 95 95 61
2.060221e+000 -1.131208e+000 -7.374166e+000 64 59 34
2.069865e+000 -8.859885e-001 -7.227744e+000 96 95 64
2.144514e+000 -1.095414e+000 -7.388898e+000 96 97 64
2.144514e+000 -1.095414e+000 -7.388898e+000 96 97 64
2.451282e+000 -9.613258e-001 -7.620306e+000 58 59 40
2.577712e+000 -1.029485e+000 -7.732236e+000 63 61 41
3.052836e+000 -1.125499e+000 -7.981624e+000 83 85 63
-1.956367e+000 -1.364399e+000 -5.403017e+000 72 69 60
-1.861172e+000 -1.408468e+000 -5.479953e+000 73 68 57
-6.372374e-002 -1.190232e+000 -6.324901e+000 82 67 35
-2.624441e-001 -1.437304e+000 -6.446826e+000 85 69 42
-4.667154e-003 -1.235688e+000 -6.477758e+000 120 106 69
-4.667154e-003 -1.235688e+000 -6.477758e+000 120 106 69
1.748586e+000 -1.502631e+000 -7.658564e+000 117 108 63
1.810890e+000 -1.495001e+000 -7.633095e+000 76 65 51
1.818299e+000 -1.265805e+000 -7.485141e+000 109 106 65
2.052650e+000 -1.202205e+000 -7.473523e+000 68 66 41
2.194065e+000 -1.514677e+000 -7.898943e+000 98 98 64
2.431202e+000 -1.454187e+000 -7.948446e+000 62 61 40
-2.403356e+000 -1.472352e+000 -5.235019e+000 76 69 63
-2.437097e+000 -1.615573e+000 -5.348168e+000 133 116 106
-2.341235e+000 -1.579337e+000 -5.389678e+000 135 118 111
-2.131983e+000 -1.461074e+000 -5.363574e+000 112 105 94
-5.242061e-001 -1.730993e+000 -6.581722e+000 80 66 37
-2.475515e-001 -1.601631e+000 -6.611839e+000 134 119 79
3.393980e-001 -1.760048e+000 -7.071080e+000 99 85 64
4.237162e-001 -1.745676e+000 -7.150138e+000 137 119 86
4.237162e-001 -1.745676e+000 -7.150138e+000 137 119 86
4.813297e-001 -1.789520e+000 -7.217521e+000 85 70 47
7.580193e-001 -1.689226e+000 -7.314479e+000 136 117 75
7.915888e-001 -1.775969e+000 -7.351136e+000 81 65 37
1.826359e+000 -1.666689e+000 -7.752396e+000 116 104 68
1.746955e+000 -1.696886e+000 -7.795947e+000 92 81 53
1.746955e+000 -1.696886e+000 -7.795947e+000 92 81 53
1.931655e+000 -1.638639e+000 -7.864556e+000 76 66 38
2.066967e+000 -1.635310e+000 -7.900252e+000 78 72 45
-2.876173e+000 -1.721056e+000 -5.226541e+000 68 61 51
-2.721524e+000 -1.718215e+000 -5.300913e+000 109 105 93
-2.559158e+000 -1.924054e+000 -5.627660e+000 74 63 60
-2.115374e+000 -1.900637e+000 -5.802334e+000 73 64 57
-2.115374e+000 -1.900637e+000 -5.802334e+000 73 64 57
-1.956808e+000 -1.985903e+000 -5.922770e+000 111 102 93
-7.688036e-001 -1.899926e+000 -6.635777e+000 84 68 45
-5.635870e-001 -1.867659e+000 -6.713339e+000 90 74 48
-3.352325e-001 -1.896471e+000 -6.918650e+000 141 122 92
-4.567292e-001 -2.065938e+000 -6.984191e+000 103 85 63
-2.262090e-001 -1.907041e+000 -6.817530e+000 134 118 84
-1.745647e-001 -1.983416e+000 -7.095486e+000 85 69 44
-1.134105e-001 -2.028987e+000 -7.150590e+000 139 123 94
-1.134105e-001 -2.028987e+000 -7.150590e+000 139 123 94
2.372543e-001 -2.107605e+000 -7.393599e+000 87 72 50
1.528518e+000 -2.138335e+000 -8.087544e+000 122 111 65
1.741996e+000 -1.935851e+000 -7.983635e+000 117 108 69
1.741996e+000 -1.935851e+000 -7.983635e+000 117 108 69
1.902789e+000 -2.151980e+000 -8.316440e+000 74 64 37
2.262058e+000 -1.922340e+000 -8.241312e+000 75 68 43
2.262058e+000 -1.922340e+000 -8.241312e+000 75 68 43
2.552830e+000 -2.030078e+000 -8.574142e+000 64 62 41
-2.132078e+000 -2.313596e+000 -6.167290e+000 70 67 56
-1.233751e+000 -2.303485e+000 -6.812958e+000 71 52 45
-1.084636e+000 -2.152835e+000 -6.642849e+000 58 44 36
-7.224384e-001 -2.361592e+000 -7.114268e+000 84 69 47
-5.099663e-001 -2.409817e+000 -7.292733e+000 135 120 89
-1.228570e-001 -2.269921e+000 -7.412339e+000 93 78 52
-1.897525e-001 -2.437922e+000 -7.454129e+000 100 84 61
1.931721e-001 -2.220534e+000 -7.463816e+000 90 76 49
4.590332e-001 -2.378667e+000 -7.778665e+000 83 67 45
9.483904e-001 -2.293944e+000 -7.975744e+000 81 64 40
1.550655e+000 -2.307398e+000 -8.280172e+000 86 74 42
1.479274e+000 -2.514493e+000 -8.460688e+000 83 66 44
-2.269671e+000 -2.367312e+000 -6.152665e+000 71 67 61
-2.263209e+000 -2.359888e+000 -6.109607e+000 71 67 61
-1.173560e+000 -2.416608e+000 -6.911245e+000 55 45 37
-1.027107e+000 -2.523917e+000 -7.140306e+000 134 118 94
-6.227578e-001 -2.579609e+000 -7.443412e+000 94 79 58
-8.090743e-001 -2.610240e+000 -7.324782e+000 90 74 55
-6.795748e-001 -2.744129e+000 -7.629742e+000 97 81 57
-6.787564e-001 -2.738778e+000 -7.599810e+000 97 81 57
-4.947744e-001 -2.580808e+000 -7.488146e+000 98 83 57
-4.349901e-001 -2.771579e+000 -7.703258e+000 89 74 44
-2.585044e-001 -2.446445e+000 -7.441089e+000 136 122 90
1.021262e-001 -2.512956e+000 -7.683085e+000 92 77 53
6.402071e-001 -2.641535e+000 -8.125496e+000 89 74 49
6.402071e-001 -2.641535e+000 -8.125496e+000 89 74 49
6.118223e-001 -2.732095e+000 -8.250422e+000 93 77 51
5.259467e-001 -2.755589e+000 -8.171956e+000 130 116 81
-1.209464e+000 -2.873157e+000 -7.395680e+000 93 77 58
-8.642418e-001 -2.786637e+000 -7.436590e+000 84 69 48
-3.071580e-001 -3.151960e+000 -8.129835e+000 97 82 55
-3.286404e-002 -2.909314e+000 -8.090652e+000 88 78 50
8.701132e-002 -2.923939e+000 -8.097635e+000 89 77 54
5.288686e-002 -3.041015e+000 -8.285608e+000 87 73 46
-2.064304e+000 -3.100488e+000 -7.113369e+000 123 107 82
-2.186104e+000 -3.236765e+000 -7.213637e+000 90 75 49
-1.318525e+000 -3.366068e+000 -7.883944e+000 127 113 86
-4.175230e-001 -3.474138e+000 -8.461404e+000 93 77 51
-2.272226e+000 -3.667631e+000 -7.595506e+000 112 99 71
-2.016976e+000 -3.537476e+000 -7.684795e+000 73 60 41
-1.519869e+000 -3.768056e+000 -8.197534e+000 94 80 59
-1.519869e+000 -3.768056e+000 -8.197534e+000 94 80 59
-1.125086e+000 -3.521441e+000 -8.124188e+000 93 79 53
-8.443966e-001 -3.557041e+000 -8.314443e+000 97 82 55
-3.186596e+000 -3.754664e+000 -7.175195e+000 121 108 72
-3.104597e+000 -3.917155e+000 -7.493741e+000 109 98 70
-2.817387e+000 -3.893559e+000 -7.570406e+000 111 96 68
-2.140999e+000 -3.723647e+000 -7.730050e+000 108 97 71
-2.011654e+000 -3.793707e+000 -7.925629e+000 117 106 76
4.844388e+000 -3.732853e+000 -7.281253e+000 188 181 174
-4.567196e+000 4.183734e+000 -9.437235e+000 105 114 85
-4.669870e+000 3.778775e+000 -8.867825e+000 185 177 141
-5.903155e-001 4.123549e+000 -1.112061e+001 136 94 80
2.561391e-001 3.994144e+000 -1.124980e+001 171 135 93
-2.622088e+000 3.198541e+000 -8.754337e+000 205 185 133
-5.994459e-001 3.648242e+000 -1.049734e+001 185 152 94
-2.604335e-001 3.291527e+000 -1.022749e+001 193 184 172
-2.621409e-001 3.292288e+000 -1.021834e+001 193 184 172
-2.513157e+000 2.497754e+000 -7.973782e+000 151 64 70
6.359804e-001 3.218086e+000 -1.047385e+001 184 177 143
-2.561268e+000 2.297337e+000 -7.720545e+000 153 71 68
-2.434420e+000 2.310688e+000 -7.764973e+000 150 71 75
2.178230e+000 2.942994e+000 -1.081858e+001 80 91 75
2.113610e+000 2.806752e+000 -1.061607e+001 168 146 105
-2.476820e+000 1.705323e+000 -7.091405e+000 199 186 183
-2.480549e+000 1.705362e+000 -7.101576e+000 199 186 183
-2.390466e+000 1.867408e+000 -7.314029e+000 201 185 183
-2.398768e+000 1.864431e+000 -7.281173e+000 201 185 183
-2.127499e+000 1.896892e+000 -7.397048e+000 202 192 190
-1.973677e+000 1.903300e+000 -7.489824e+000 198 199 192
-1.969514e+000 1.627835e+000 -7.171067e+000 198 192 191
-3.815978e-001 1.591922e+000 -8.202592e+000 88 82 69
-2.084098e-001 1.503742e+000 -8.135029e+000 87 86 66
2.496696e+000 1.474201e+000 -9.142770e+000 72 80 67
-1.958157e-001 1.168961e+000 -7.771543e+000 199 188 166
-1.958157e-001 1.168961e+000 -7.771543e+000 199 188 166
1.832522e-001 9.389949e-001 -7.593694e+000 95 82 65
2.355495e+000 1.330615e+000 -8.887785e+000 85 98 66
2.356685e+000 1.113359e+000 -8.695916e+000 168 174 140
-4.580165e-002 7.526674e-001 -7.351679e+000 71 93 73
2.634196e-004 6.181840e-001 -7.199360e+000 75 84 75
1.455962e-001 5.350605e-001 -7.102295e+000 73 86 69
7.655413e-001 3.956915e-001 -7.238935e+000 140 94 61
3.117533e+000 6.301474e-001 -8.398445e+000 119 133 80
-5.380510e+000 2.167293e-001 -9.318883e+000 189 82 94
-5.380510e+000 2.167293e-001 -9.318883e+000 189 82 94
5.693556e-001 2.973358e-003 -6.691728e+000 66 80 65
1.395693e+000 1.974475e-001 -7.241941e+000 180 165 109
1.173591e+000 -9.518648e-002 -6.815563e+000 143 97 64
1.174923e+000 -9.483248e-002 -6.812570e+000 143 97 64
2.820609e+000 1.045822e-002 -7.597588e+000 169 150 94
3.909735e+000 -5.008351e-001 -7.869917e+000 58 63 43
1.679624e+000 -8.926328e-001 -6.999650e+000 106 102 65
5.083256e-001 -1.241352e+000 -6.693458e+000 81 65 46
4.800742e-001 -1.323187e+000 -6.722975e+000 89 72 51
4.497926e-001 -1.416331e+000 -6.786780e+000 79 64 43
7.616566e-001 -1.426690e+000 -7.017817e+000 80 69 41
-1.997021e+000 -1.641219e+000 -5.611197e+000 130 115 104
-9.439439e-001 -1.693954e+000 -6.351854e+000 57 45 38
4.236943e-001 -1.524904e+000 -6.922118e+000 75 64 36
-7.956005e-001 -2.014558e+000 -6.739279e+000 86 69 50
-2.590942e-001 -1.827589e+000 -6.833228e+000 82 65 40
-2.590942e-001 -1.827589e+000 -6.833228e+000 82 65 40
1.758642e-002 -1.830155e+000 -7.040854e+000 81 68 42
3.093102e-001 -1.880036e+000 -7.205723e+000 78 66 41
7.578589e-001 -1.886330e+000 -7.449443e+000 86 73 46
-1.905739e+000 -2.192724e+000 -6.169005e+000 73 66 62
-8.286150e-001 -2.121093e+000 -6.832335e+000 89 75 58
9.491807e-001 -2.925323e+000 -8.590344e+000 132 118 85
-1.594318e+000 -3.034282e+000 -7.271752e+000 135 116 83
-1.754043e+000 -3.240385e+000 -7.437032e+000 96 81 57
-2.802397e+000 -3.303490e+000 -6.790264e+000 79 63 47
-2.768260e+000 -3.409544e+000 -7.002046e+000 115 100 71
-1.927829e+000 -3.699277e+000 -7.867139e+000 75 63 41
-3.307920e+000 -3.860844e+000 -7.231545e+000 87 70 53
-1.595699e+000 -4.009411e+000 -8.470267e+000 100 89 64
-5.022806e+000 4.218921e+000 -9.353812e+000 153 153 115
-3.936201e+000 4.054092e+000 -9.405013e+000 196 177 133
-3.399651e+000 4.597485e+000 -1.056461e+001 243 215 207
-4.654616e+000 3.574227e+000 -8.663174e+000 132 128 87
-4.654616e+000 3.574227e+000 -8.663174e+000 132 128 87
-4.556041e+000 3.748802e+000 -8.868090e+000 154 150 113
-3.976473e+000 3.859645e+000 -9.110110e+000 93 118 90
-2.956908e+000 2.862992e+000 -8.300810e+000 202 188 188
-2.956908e+000 2.862992e+000 -8.300810e+000 202 188 188
4.144325e-001 3.414548e+000 -1.067372e+001 182 166 123
-2.786944e+000 2.529848e+000 -7.989749e+000 200 188 187
1.740000e+000 3.363784e+000 -1.116755e+001 163 132 84
-2.743365e+000 2.332272e+000 -7.770283e+000 167 78 82
2.024591e+000 2.936879e+000 -1.068574e+001 165 150 100
1.845784e+000 2.190728e+000 -9.748733e+000 169 162 148
-2.287618e+000 1.451989e+000 -6.874343e+000 202 189 191
2.457896e+000 1.890485e+000 -9.592470e+000 103 103 94
2.244980e+000 1.485615e+000 -9.071154e+000 153 157 135
-2.470504e-002 1.141531e+000 -7.801006e+000 75 87 72
1.945265e+000 1.235056e+000 -8.692683e+000 178 173 144
-1.142187e-001 8.746560e-001 -7.478864e+000 74 89 71
-1.142187e-001 8.746560e-001 -7.478864e+000 74 89 71
3.255065e-001 1.984636e-001 -6.821472e+000 185 169 113
3.286674e-001 1.988960e-001 -6.804557e+000 185 169 113
4.987141e-001 -7.225652e-002 -6.581196e+000 177 166 103
4.885314e-001 -7.172968e-002 -6.581848e+000 177 166 103
1.053278e+000 -2.901702e-002 -6.850323e+000 174 164 96
1.045546e+000 -3.088741e-002 -6.849290e+000 174 164 96
6.426450e-001 -8.926796e-001 -6.384476e+000 68 56 29
-4.958638e+001 -8.851423e+000 -8.870094e+001 216 210 254
-1.725331e+000 -1.501157e+000 -5.628422e+000 68 67 55
-1.721022e+000 -1.499220e+000 -5.615125e+000 68 67 55
-6.149306e-001 -1.511115e+000 -6.350391e+000 128 111 69
3.912392e-001 -2.278248e+000 -7.622857e+000 82 68 34
2.268055e-001 -2.816575e+000 -8.196632e+000 85 72 40
3.089671e+000 -3.736652e+000 -1.072836e+001 83 65 50
-3.443618e+000 -3.799763e+000 -7.198211e+000 91 77 50
-3.091139e+001 -2.527522e+001 -7.626187e+001 74 47 105
-4.839254e+000 4.200031e+000 -9.272518e+000 181 173 137
-3.566331e+000 4.599547e+000 -1.047295e+001 179 166 113
4.443061e-001 4.246564e+000 -1.173576e+001 176 147 116
4.443061e-001 4.246564e+000 -1.173576e+001 176 147 116
1.725519e+000 3.164424e+000 -1.090497e+001 87 90 75
-2.099170e+000 1.602628e+000 -7.086530e+000 166 72 73
-2.099170e+000 1.602628e+000 -7.086530e+000 166 72 73
2.194169e+000 1.133569e+000 -8.623322e+000 83 96 68
2.574520e+000 9.646972e-001 -8.534720e+000 99 115 76
8.804280e-001 -1.805135e-002 -6.798413e+000 175 166 95
-5.274232e+001 -6.359423e+000 -9.148189e+001 76 51 115
-5.190463e+001 -6.909051e+000 -9.093409e+001 194 183 239
-4.996867e+001 -9.924855e+000 -8.409937e+001 107 69 122
1.489598e-001 -1.824615e+000 -7.118918e+000 136 116 74
1.489598e-001 -1.824615e+000 -7.118918e+000 136 116 74
2.785129e+000 -3.694385e+000 -1.055100e+001 69 62 44
-4.243544e+001 -1.839494e+001 -8.053421e+001 225 43 84
-3.013985e+001 -1.831080e+001 -8.271199e+001 222 49 82
-1.607941e+000 4.218144e+000 -1.086869e+001 183 166 142
1.170934e+000 3.146499e+000 -1.063516e+001 170 148 101
-1.929140e+000 1.508912e+000 -7.025456e+000 202 185 185
-1.930951e+000 1.508716e+000 -7.022807e+000 202 185 185
-1.520633e+000 1.415996e+000 -7.062592e+000 204 178 118
1.895132e+000 1.392067e+000 -8.841471e+000 142 148 89
6.169565e-001 7.832853e-001 -7.639243e+000 148 109 72
2.918154e+000 5.570809e-001 -8.409331e+000 176 169 148
3.362722e+000 6.648083e-001 -8.589604e+000 129 143 117
-5.606382e+001 -2.269491e+000 -9.683514e+001 233 68 122
-5.368168e+001 -4.201078e+000 -9.372449e+001 74 52 114
-1.817453e+000 -1.806460e+000 -5.834738e+000 76 69 61
-1.483971e+000 -1.969854e+000 -6.170667e+000 108 96 74
-3.433152e+001 -1.397178e+001 -8.699261e+001 59 34 64
-3.392103e+001 -1.307492e+001 -8.808174e+001 226 44 85
-3.977344e+001 -1.536862e+001 -8.776383e+001 197 26 70
-3.809267e+001 -1.604004e+001 -8.596720e+001 62 40 96
-3.382853e+001 -1.481170e+001 -8.767939e+001 205 35 66
-3.692972e+001 -1.730850e+001 -8.236292e+001 71 51 115
-3.241548e+001 -1.736867e+001 -8.471849e+001 226 42 76
-3.004637e+001 -1.911535e+001 -8.186249e+001 208 34 64
-3.744970e+000 -4.131135e+000 -7.498074e+000 76 63 44
-2.608649e+000 3.042257e+000 -8.835397e+000 131 72 74
7.027085e-001 1.139581e+000 -8.117363e+000 187 167 114
3.301138e-001 8.008510e-001 -7.503102e+000 191 173 133
1.165674e+000 7.656161e-001 -7.760550e+000 145 101 72
3.479369e+000 4.571046e-001 -8.503575e+000 140 155 132
-5.241794e+001 -2.842173e+000 -9.411475e+001 90 70 155
-9.720511e-001 -2.218412e+000 -6.773298e+000 103 89 63
-3.600116e+001 -1.908975e+001 -7.904524e+001 66 45 107
-3.602095e+001 -2.031859e+001 -7.653875e+001 206 31 70
-3.519116e+001 -2.503979e+001 -7.653052e+001 49 35 69
-4.226540e+000 4.008411e+000 -9.443523e+000 94 119 90
-3.164479e+000 2.969808e+000 -8.433083e+000 135 71 66
-2.732722e+000 2.689326e+000 -8.164112e+000 176 136 141
-1.831442e+000 1.739774e+000 -7.354814e+000 160 68 69
-1.748893e+000 1.371470e+000 -6.922596e+000 157 66 67
-3.454849e-001 1.530416e+000 -8.190598e+000 84 81 62
-3.448402e-001 1.534622e+000 -8.177816e+000 84 81 62
-1.059828e+000 1.112417e+000 -7.378310e+000 193 183 181
1.944733e+000 8.071867e-001 -8.128131e+000 172 157 108
4.595497e-001 5.651168e-001 -7.193605e+000 188 173 126
5.862086e-001 2.551800e-001 -6.898264e+000 184 169 108
-5.304119e-001 -4.728736e-001 -5.715136e+000 165 151 86
-4.837875e+001 -9.156221e+000 -8.688764e+001 173 163 216
-4.020582e+001 -1.338988e+001 -8.815857e+001 201 27 62
-3.846865e+001 -1.653526e+001 -8.373479e+001 242 50 95
-3.749092e+001 -1.850100e+001 -8.016927e+001 250 56 101
1.557215e+000 2.410639e+000 -9.903052e+000 114 108 100
1.642206e-001 -6.997894e-001 -6.025586e+000 76 64 22
-3.589866e+001 -1.765385e+001 -8.640530e+001 67 54 124
-3.223328e+001 -1.836246e+001 -8.119095e+001 58 36 74
-2.026000e+000 2.246649e+000 -7.678894e+000 156 70 71
1.317240e+000 1.887170e+000 -9.078936e+000 177 171 135
-4.555725e+001 -8.568479e+000 -8.990770e+001 255 62 110
1.827550e+000 -2.066425e-001 -6.867869e+000 146 148 83
1.304598e+000 -1.297000e+000 -7.112030e+000 129 111 63
-5.182621e+001 -5.822013e+000 -9.388246e+001 69 47 109
2.993811e+000 3.443914e+000 -1.134020e+001 193 197 185
2.404692e+000 1.658403e-001 -7.850523e+000 169 156 115
-4.255993e+001 -7.594712e+000 -8.837643e+001 251 53 99
-2.128623e+000 7.284331e-001 -6.526514e+000 194 179 137
-4.823741e+000 3.718684e+000 -8.776870e+000 183 176 139
-1.910337e-001 1.595364e+000 -8.252757e+000 195 186 169
3.151556e+000 2.229522e+000 -1.015165e+001 82 78 74
1.054182e+000 2.512879e-001 -7.160643e+000 178 165 97
1.139416e+000 1.623403e-002 -6.926642e+000 128 92 53
1.138411e+000 1.470786e-002 -6.937296e+000 128 92 53
-2.737728e+000 -7.070863e-001 -4.377309e+000 90 87 49
2.796790e+000 -9.395506e-001 -7.626421e+000 88 90 67
3.955730e+000 -1.858423e+000 -8.981470e+000 114 104 95
-2.855792e+000 2.821577e+000 -8.261763e+000 131 69 69
3.452205e+000 3.348039e+000 -9.395214e+000 194 195 182
-3.773556e+000 2.537540e+000 -7.749234e+000 211 186 130
3.317668e+000 2.913158e+000 -9.728179e+000 185 186 178
6.859444e-001 2.727041e+000 -9.931429e+000 165 156 111
1.592231e+000 2.740194e+000 -1.024513e+001 111 105 97
-2.336510e+000 1.719658e+000 -7.144029e+000 200 190 186
2.418433e+000 1.575824e+000 -9.231208e+000 116 114 110
1.681118e+000 9.565607e-001 -8.225743e+000 171 170 118
3.196791e+000 8.043090e-001 -8.683898e+000 155 170 146
7.899108e-001 -1.338184e+000 -6.955832e+000 74 61 32
7.899108e-001 -1.338184e+000 -6.955832e+000 74 61 32
5.979516e-001 -2.179411e+000 -7.678615e+000 130 113 77
-2.486601e+000 4.543589e+000 -1.096098e+001 191 166 109
-2.858428e+000 2.725699e+000 -8.156604e+000 201 187 186
-2.478080e+000 1.233677e+000 -6.563755e+000 198 171 100
-7.094363e-001 -1.725092e+000 -6.509121e+000 75 61 36
-2.596451e-001 -8.086287e-001 -5.909633e+000 113 100 55
-1.858218e+000 -3.505413e+000 -7.734299e+000 75 63 47
-3.499606e+000 -1.724132e+000 -5.789110e+000 168 133 103
-7.997244e-001 -1.577870e+000 -6.284771e+000 123 105 66
-1.189695e+000 -2.325971e+000 -6.749367e+000 74 65 54
1.151738e+000 2.772406e-001 -7.138206e+000 168 167 98
1.150198e+000 2.782006e-001 -7.136764e+000 168 167 98
6.323099e-001 -1.212134e+000 -6.690909e+000 130 114 63
-2.732498e+000 1.914378e+000 -7.353873e+000 177 71 76
-5.572897e-001 6.329385e+000 -1.741383e+001 159 148 142
-5.429236e+000 4.238766e+000 -9.266417e+000 186 191 144
-4.634886e+000 3.696867e+000 -8.828022e+000 180 177 139
-2.250771e-001 4.484627e+000 -1.172227e+001 148 161 131
1.404249e+000 4.819014e+000 -1.287399e+001 115 114 100
-7.676552e-001 3.919266e+000 -1.075491e+001 143 87 68
-8.893242e-001 3.515095e+000 -1.031167e+001 193 158 116
-8.220143e-001 3.539799e+000 -1.032312e+001 159 116 74
-7.822591e-001 3.475573e+000 -1.027349e+001 193 168 119
1.184164e+000 3.880335e+000 -1.152290e+001 153 119 81
1.184164e+000 3.880335e+000 -1.152290e+001 153 119 81
-2.865458e+000 2.823419e+000 -8.261274e+000 128 63 64
8.153255e-002 3.273992e+000 -1.028942e+001 191 175 141
1.418660e+000 3.512127e+000 -1.119013e+001 188 177 136
-2.661687e+000 2.286936e+000 -7.711136e+000 200 193 192
-2.661687e+000 2.286936e+000 -7.711136e+000 200 193 192
-2.376453e+000 2.394237e+000 -7.920964e+000 152 61 65
1.745457e+000 2.725171e+000 -1.035304e+001 149 145 133
1.798877e+000 2.550156e+000 -1.018230e+001 96 90 90
2.215997e+000 2.602255e+000 -1.043903e+001 72 84 73
2.211541e+000 2.604174e+000 -1.039005e+001 72 84 73
3.235108e+000 2.520229e+000 -9.907654e+000 87 85 78
-1.508186e+000 2.137244e+000 -7.443563e+000 162 132 62
2.355955e+000 2.268966e+000 -1.007635e+001 114 111 106
-4.957024e-001 1.444886e+000 -8.047159e+000 185 178 162
-4.251564e-001 1.527867e+000 -8.146724e+000 169 152 134
-3.010264e-001 1.533516e+000 -8.134640e+000 191 185 165
-3.549618e-001 1.438294e+000 -8.023067e+000 176 174 150
-3.548889e-001 1.439071e+000 -8.024530e+000 176 174 150
2.353729e+000 1.535940e+000 -9.166426e+000 91 89 85
2.367708e+000 1.433038e+000 -9.059877e+000 132 136 122
-3.416602e-001 1.134410e+000 -7.676743e+000 193 176 157
-3.381166e-001 1.135331e+000 -7.676285e+000 193 176 157
-2.856067e-001 1.160695e+000 -7.737310e+000 82 73 60
-2.918581e-001 1.025576e+000 -7.582522e+000 200 179 159
-1.427530e-001 1.043150e+000 -7.627995e+000 197 185 153
-3.649205e-002 1.198407e+000 -7.838671e+000 76 74 54
2.460024e+000 1.189109e+000 -8.772034e+000 93 108 68
1.199164e-001 9.830758e-001 -7.658096e+000 194 177 141
1.194570e+000 8.895773e-001 -7.941071e+000 138 89 62
3.450443e-001 4.405512e-001 -7.093894e+000 70 73 47
8.687162e-001 5.470242e-001 -7.423278e+000 136 91 59
8.666671e-001 5.472029e-001 -7.419317e+000 136 91 59
1.243778e+000 7.078716e-001 -7.736192e+000 184 157 104
1.243778e+000 7.078716e-001 -7.736192e+000 184 157 104
9.960778e-001 2.899094e-001 -7.172001e+000 140 99 65
1.444717e+000 3.009940e-001 -7.265501e+000 168 166 109
1.030214e+000 1.192145e-001 -6.970418e+000 175 163 103
1.112510e+000 -5.722704e-002 -6.810172e+000 169 156 91
1.112510e+000 -5.722704e-002 -6.810172e+000 169 156 91
1.532562e+000 -3.358725e-002 -7.037911e+000 158 153 87
1.529259e+000 -3.377144e-002 -7.033243e+000 158 153 87
-9.611122e-001 -5.437215e-001 -5.287663e+000 141 131 74
2.778709e+000 -7.835320e-001 -7.516837e+000 61 62 44
1.824545e+000 -1.187161e+000 -7.331211e+000 108 104 69
5.171063e-001 -1.640602e+000 -7.055571e+000 77 65 33
3.955630e+000 -2.159839e+000 -8.257404e+000 138 132 121
6.705565e-001 -2.569161e+000 -8.107405e+000 88 74 48
-5.956445e-001 -2.652903e+000 -7.502940e+000 134 118 92
-1.947864e-001 -2.857002e+000 -7.971823e+000 96 82 56
-3.819077e+000 -3.705021e+000 -6.891595e+000 78 62 31
-4.758590e+000 3.928248e+000 -9.085184e+000 181 178 140
5.463124e-001 3.451641e+000 -1.076257e+001 93 98 77
1.563390e+000 3.567053e+000 -1.130703e+001 168 143 86
-2.581613e+000 2.742005e+000 -8.287921e+000 189 184 183
5.256324e-001 2.851486e+000 -1.000350e+001 192 182 152
1.343755e+000 3.080509e+000 -1.062596e+001 190 182 163
-2.478604e+000 2.139578e+000 -7.612751e+000 154 59 67
-2.485807e+000 2.135694e+000 -7.618804e+000 154 59 67
1.387654e+000 2.616096e+000 -1.004619e+001 146 133 99
-4.603030e+000 1.924411e+000 -7.633892e+000 202 163 135
3.183266e+000 2.500031e+000 -1.005964e+001 173 173 165
3.131542e+000 2.383896e+000 -1.011603e+001 165 167 158
-2.038737e+000 1.750590e+000 -7.303280e+000 200 188 188
-2.029497e+000 1.750056e+000 -7.324594e+000 200 188 188
6.238474e-001 1.622380e+000 -8.608853e+000 142 92 69
2.475748e+000 1.710174e+000 -9.453068e+000 97 96 91
-3.598213e+000 9.241992e-001 -5.952287e+000 211 206 144
8.970959e-001 1.337510e+000 -8.297681e+000 182 170 105
-3.506385e+000 7.238132e-001 -5.810483e+000 198 199 130
1.605188e-001 7.741899e-001 -7.425521e+000 67 69 52
1.330946e-001 7.121725e-001 -7.346562e+000 189 167 134
1.013406e+000 8.762284e-001 -7.838580e+000 147 92 76
1.162248e+000 7.752361e-001 -7.805614e+000 138 93 62
1.273753e+000 8.645590e-001 -7.937937e+000 175 164 92
8.755105e-002 6.597310e-001 -7.297636e+000 74 73 51
2.105375e-001 4.241094e-001 -7.065172e+000 71 78 64
6.887023e-001 5.104745e-001 -7.337919e+000 145 88 63
2.661885e+000 7.642969e-001 -8.335175e+000 165 150 97
3.426211e+000 7.368325e-001 -8.704959e+000 132 146 119
3.505906e+000 5.799567e-001 -8.519941e+000 150 166 140
3.241150e-001 3.524752e-001 -7.013868e+000 180 162 117
3.531302e+000 4.220222e-001 -8.373181e+000 98 115 84
2.563090e-001 8.365899e-003 -6.593721e+000 180 162 101
3.700224e+000 1.006077e-001 -8.052801e+000 103 118 89
1.585079e+000 -6.541381e-001 -6.698867e+000 101 103 64
3.450442e+000 -5.406135e-001 -7.689150e+000 65 67 53
1.855711e+000 -8.531810e-001 -7.088647e+000 70 68 45
1.787811e+000 -1.105257e+000 -7.255273e+000 76 72 47
2.291544e+000 -8.833396e-001 -7.326602e+000 67 66 48
1.815386e+000 -1.506135e+000 -7.674205e+000 72 65 44
2.056513e+000 -1.211097e+000 -7.521464e+000 74 71 47
2.312801e+000 -1.327201e+000 -7.740392e+000 70 67 47
-2.605259e+000 -1.469773e+000 -5.189052e+000 72 63 59
-2.192735e+000 -1.335043e+000 -5.250672e+000 78 71 65
-1.954196e+000 -1.365470e+000 -5.406888e+000 75 69 64
-8.892669e-001 -1.541190e+000 -6.265459e+000 58 48 36
1.302378e-001 -1.472633e+000 -6.704807e+000 102 87 58
8.411779e-001 -1.606201e+000 -7.211449e+000 85 69 44
2.084066e+000 -1.827009e+000 -8.114702e+000 116 107 71
-3.561870e-001 -1.750533e+000 -6.733218e+000 98 82 56
-3.893492e-001 -1.849223e+000 -6.803482e+000 99 83 58
-2.961470e-001 -1.974219e+000 -6.990945e+000 95 79 53
-6.547154e-002 -2.122567e+000 -7.298779e+000 97 83 57
6.886543e-001 -2.099938e+000 -7.638962e+000 93 78 53
1.277987e+000 -2.242451e+000 -8.085280e+000 87 72 45
1.949592e+000 -2.027572e+000 -8.255829e+000 83 73 46
-1.910611e+000 -2.204147e+000 -6.216008e+000 74 68 61
-1.074596e+000 -2.460556e+000 -7.093379e+000 91 78 62
-9.175052e-001 -2.377532e+000 -7.035152e+000 91 75 60
-6.744904e-001 -2.198756e+000 -7.002220e+000 87 74 52
1.637765e-001 -2.344896e+000 -7.627888e+000 92 77 53
-2.682379e+000 -2.401069e+000 -6.040368e+000 76 66 64
-2.682379e+000 -2.401069e+000 -6.040368e+000 76 66 64
-8.125191e-001 -2.623040e+000 -7.371504e+000 92 77 58
-5.582943e-001 -2.748341e+000 -7.645515e+000 99 85 59
-3.970532e-001 -2.670114e+000 -7.651251e+000 103 86 67
-4.764167e-001 -3.299032e+000 -8.311446e+000 93 79 55
-1.396224e+000 -3.589008e+000 -8.119406e+000 124 109 84
-2.507940e+000 -3.892901e+000 -7.751431e+000 113 100 72
-2.359447e+000 -3.914344e+000 -7.944635e+000 112 98 72
-5.076170e+000 4.136110e+000 -9.254771e+000 172 170 132
-1.180173e+000 4.618433e+000 -1.156028e+001 90 92 76
-4.893286e+000 3.681984e+000 -8.724525e+000 145 144 110
-4.615232e+000 3.752465e+000 -8.653127e+000 178 171 132
-5.632463e-001 4.409299e+000 -1.151470e+001 129 87 83
-4.618966e-001 4.112233e+000 -1.118729e+001 169 127 104
-3.727694e-001 3.571410e+000 -1.050388e+001 183 157 118
-4.381866e+000 1.897767e+000 -7.299664e+000 229 208 135
1.977889e+000 2.252866e+000 -9.811604e+000 105 102 99
2.284609e+000 2.405250e+000 -1.020107e+001 139 142 131
-4.802484e-001 1.568400e+000 -8.165907e+000 75 82 71
-4.863093e-001 1.566957e+000 -8.165838e+000 75 82 71
-3.825422e-001 1.346031e+000 -7.908275e+000 72 82 69
-1.817451e-002 8.373192e-001 -7.419486e+000 194 178 146
-3.331511e+000 5.863690e-001 -5.568927e+000 162 158 91
1.295446e+000 5.099294e-001 -7.555372e+000 175 160 93
1.306326e+000 5.115309e-001 -7.517362e+000 175 160 93
2.147414e+000 6.088182e-001 -7.997937e+000 159 139 89
8.471311e-001 3.548856e-001 -7.182902e+000 186 167 108
8.441304e-001 3.501931e-001 -7.191710e+000 186 167 108
9.949216e-001 6.158961e-002 -6.920832e+000 144 99 68
5.668390e-001 -9.456810e-001 -6.480065e+000 117 104 60
1.630202e+000 -1.038791e+000 -7.078427e+000 118 111 69
5.092144e-001 -1.122895e+000 -6.605543e+000 121 107 63
-2.794223e+000 -1.789971e+000 -5.423131e+000 67 63 56
-2.794223e+000 -1.789971e+000 -5.423131e+000 67 63 56
-2.329492e+000 -1.730181e+000 -5.573048e+000 130 114 106
-2.191810e+000 -1.819171e+000 -5.722842e+000 132 115 105
-2.191810e+000 -1.819171e+000 -5.722842e+000 132 115 105
4.337396e-001 -2.168955e+000 -7.556579e+000 96 82 55
-2.323698e+000 -2.233277e+000 -5.996138e+000 73 68 62
5.212653e-001 -3.291512e+000 -8.868264e+000 106 91 60
-2.901268e+000 -3.732879e+000 -7.413499e+000 111 96 69
-2.487125e+000 -4.065808e+000 -8.047994e+000 81 65 42
-2.096008e+000 -3.798163e+000 -7.965665e+000 81 66 43
-1.538611e+000 4.584217e+000 -1.136130e+001 106 110 83
-5.056368e+000 3.954675e+000 -9.037682e+000 137 143 107
-4.974674e+000 3.805849e+000 -8.866414e+000 121 123 90
-4.125342e+000 4.086232e+000 -9.512352e+000 81 115 83
-1.263884e+000 4.355025e+000 -1.115114e+001 130 93 77
-1.879752e-001 4.536769e+000 -1.188237e+001 139 145 113
-1.873638e-001 4.528847e+000 -1.180620e+001 139 145 113
2.024622e+000 2.938223e+000 -1.068545e+001 171 147 95
-2.312797e+000 2.267501e+000 -7.770595e+000 206 186 192
-1.689469e+000 2.354923e+000 -8.853360e+000 176 150 76
-4.857087e-001 1.564891e+000 -8.167729e+000 75 82 71
-1.380000e+000 1.193546e+000 -6.906855e+000 201 184 160
-3.904257e-001 1.179843e+000 -7.754132e+000 197 184 174
2.941925e-001 1.036918e-001 -6.719115e+000 66 81 56
1.426379e+000 -7.151770e-002 -6.937025e+000 140 92 62
1.426756e+000 -7.153794e-002 -6.936849e+000 140 92 62
-2.016709e+000 -4.031234e+000 -8.293735e+000 91 76 52
-6.568138e-001 3.612914e+000 -1.038774e+001 186 152 103
-2.410236e+000 3.056984e+000 -8.749976e+000 200 175 118
-3.297823e+000 1.632429e+000 -6.822221e+000 204 186 154
-3.297823e+000 1.632429e+000 -6.822221e+000 204 186 154
-3.273431e+000 1.485373e+000 -6.664725e+000 199 172 95
-1.435644e+000 1.064371e+000 -6.828237e+000 143 112 69
-2.597154e-001 1.085935e+000 -7.645668e+000 54 76 58
-7.103085e-001 -5.380635e-001 -5.522537e+000 111 99 47
-3.944716e-001 -1.285977e+000 -6.230456e+000 131 113 68
-2.175290e+000 -2.229099e+000 -6.070355e+000 74 68 60
-2.175290e+000 -2.229099e+000 -6.070355e+000 74 68 60
-2.234277e+000 4.493231e+000 -1.102406e+001 195 167 113
-3.579530e-001 3.920613e+000 -1.072538e+001 171 139 101
1.575792e+000 1.201135e+000 -8.445488e+000 180 178 152
1.805398e+000 1.069122e+000 -8.385127e+000 136 142 85
2.185443e+000 1.134256e+000 -8.617582e+000 81 90 61
7.553556e-001 5.723385e-001 -7.420003e+000 172 137 99
1.360455e+000 2.985705e+000 -1.052118e+001 188 178 167
9.996238e-001 5.628771e-001 -7.589437e+000 180 163 99
8.557684e-001 -1.311542e+000 -7.093355e+000 120 105 72
3.143951e+000 -3.964340e+000 -1.087824e+001 198 163 149
-2.901990e+000 3.315189e+000 -8.792874e+000 197 190 178
-1.331012e+000 1.010262e+000 -6.856699e+000 148 122 92
2.515101e-001 3.455246e-001 -6.944787e+000 65 80 59
-9.127891e-001 -4.212718e-001 -5.247736e+000 152 146 76
2.053354e+000 1.898015e+000 -9.446313e+000 85 81 79
-2.955958e+000 -7.088997e-001 -4.752883e+000 188 178 125
-9.059186e-002 3.546266e+000 -1.034649e+001 191 168 127
-2.480733e+000 2.181258e+000 -7.658806e+000 202 184 184
-2.480733e+000 2.181258e+000 -7.658806e+000 202 184 184
2.430755e+000 2.686840e+000 -1.046648e+001 86 103 79
-2.970466e+000 4.227182e+000 -1.038170e+001 170 154 94
9.823777e-001 3.723791e+000 -1.128766e+001 181 157 109
2.656841e-001 1.331837e+000 -8.033813e+000 192 178 148
2.621385e+000 2.346438e-001 -7.692966e+000 176 170 145
-9.479763e-001 4.293428e+000 -1.148112e+001 126 86 79
3.701961e+000 1.926540e+000 -9.695944e+000 190 197 190
-2.858612e+000 1.252964e+000 -6.291590e+000 194 184 144
-6.867758e-001 6.599104e-001 -7.977610e+000 194 185 170
-3.015468e+000 1.716587e-001 -5.725397e+000 141 147 75
2.605730e+000 1.789904e+000 -9.734533e+000 72 80 69
-2.542864e+000 2.101577e+000 -7.529193e+000 163 64 72
3.207764e+000 2.394329e+000 -1.004884e+001 87 89 82
3.144323e+000 2.044542e+000 -1.024134e+001 163 165 158
-4.718247e+001 -9.059364e+000 -8.626978e+001 175 165 224
-5.276722e+000 4.017652e+000 -9.146436e+000 168 169 127
1.337914e+000 4.880464e+000 -1.286562e+001 213 208 196
-3.631907e+000 3.618626e+000 -9.028417e+000 173 129 104
1.438508e+000 3.348024e+000 -1.101865e+001 195 179 136
-1.575213e+000 2.147398e+000 -7.641449e+000 196 172 115
1.348216e+000 2.389051e+000 -9.751587e+000 103 96 88
-1.415275e-001 1.454780e+000 -8.109586e+000 193 187 165
-2.854441e-001 1.160694e+000 -7.737211e+000 82 73 60
6.432783e-001 9.780985e-001 -7.840460e+000 131 94 58
3.562350e+000 2.782588e-001 -8.183499e+000 102 116 90
3.562350e+000 2.782588e-001 -8.183499e+000 102 116 90
1.071239e+000 2.441713e-002 -6.898052e+000 174 168 99
1.464414e+000 9.818199e-002 -7.154695e+000 171 160 100
3.757517e+000 9.623726e-003 -7.962752e+000 110 122 95
-2.569367e+000 2.742674e+000 -8.292322e+000 189 184 183
2.222546e+000 2.761763e+000 -1.061359e+001 71 83 69
-1.862754e+000 1.472544e+000 -7.007596e+000 194 188 186
-1.862754e+000 1.472544e+000 -7.007596e+000 194 188 186
6.877692e-001 1.506681e+000 -8.481001e+000 142 94 71
2.472563e-001 7.216117e-001 -7.408421e+000 193 175 137
2.515608e+000 8.552877e-001 -8.440677e+000 172 148 97
2.931959e+000 7.016379e-001 -8.415888e+000 111 121 77
2.718746e+000 3.994667e-001 -8.004470e+000 165 150 92
-8.926533e-001 -1.056267e-001 -5.755619e+000 141 119 64
4.926101e+000 -3.761792e+000 -7.276083e+000 96 85 79
-6.132817e-001 4.655512e+000 -1.189513e+001 128 140 103
-3.733488e+000 2.374675e+000 -7.270678e+000 204 187 140
-3.733488e+000 2.374675e+000 -7.270678e+000 204 187 140
1.766463e+000 1.542308e+000 -8.922625e+000 144 149 84
2.764522e+000 5.951607e-001 -8.269125e+000 165 144 91
-5.023784e+000 4.218788e+000 -9.353552e+000 143 145 106
3.046614e+000 2.225523e+000 -1.023925e+001 157 160 153
6.929371e-001 6.855706e-001 -7.512752e+000 185 163 108
-4.093411e+001 -1.991091e+001 -7.679030e+001 216 65 97
-3.470144e+001 -2.634568e+001 -7.502347e+001 63 63 131
-2.458727e+000 4.528789e+000 -1.102424e+001 196 169 106
-3.768379e+001 -2.587397e+001 -7.343618e+001 188 34 71
-3.471993e+001 -2.578184e+001 -7.587045e+001 125 167 227
-2.878637e+001 -2.693790e+001 -7.205151e+001 187 30 61
-2.707213e+001 -3.100348e+001 -7.215155e+001 203 34 65
-2.759532e+001 -3.162077e+001 -7.084699e+001 213 30 57
1.853372e+000 1.660099e+000 -9.074005e+000 160 161 129
7.989683e-001 9.418907e-001 -7.774585e+000 183 164 108
8.006113e-001 9.386303e-001 -7.775652e+000 183 164 108
6.827033e-001 1.509471e-001 -6.841428e+000 179 165 104
-3.423214e+001 -2.636385e+001 -7.130866e+001 63 44 102
-3.837152e+001 -2.811528e+001 -6.667871e+001 203 29 65
-2.804734e+000 4.403817e+000 -1.074819e+001 163 157 91
1.179684e-001 6.105197e-001 -7.223345e+000 71 82 65
-3.713018e+001 -2.461595e+001 -7.512591e+001 122 22 47
-4.218340e+001 -2.083094e+001 -7.532048e+001 254 248 255
-3.549694e+001 -2.564395e+001 -7.376320e+001 143 195 247
-3.982028e+001 -2.780762e+001 -7.083375e+001 237 44 88
-3.316285e+001 -3.000291e+001 -7.367255e+001 38 21 37
-5.505010e+000 4.503430e+000 -9.532127e+000 136 142 91
-4.519834e+000 4.157331e+000 -9.445100e+000 85 102 64
-3.825579e+000 3.990075e+000 -9.310367e+000 200 182 136
-4.802027e-001 4.481675e+000 -1.165945e+001 131 147 113
-4.906836e+000 3.418971e+000 -8.400948e+000 180 160 106
-7.692439e-001 3.929511e+000 -1.070708e+001 135 80 60
-1.018736e+000 3.769405e+000 -1.050847e+001 185 146 107
-1.015591e+000 3.767467e+000 -1.056794e+001 185 146 107
-5.612889e-001 3.772894e+000 -1.071935e+001 169 124 88
2.745357e-001 3.674273e+000 -1.090591e+001 156 112 72
4.994789e-001 3.754126e+000 -1.125147e+001 137 101 77
-5.048439e+000 3.044447e+000 -8.440451e+000 244 203 148
7.043892e-001 2.794748e+000 -1.001690e+001 180 170 136
7.043892e-001 2.794748e+000 -1.001690e+001 180 170 136
1.409014e+000 2.765341e+000 -1.025958e+001 95 86 82
2.053451e+000 3.017385e+000 -1.086996e+001 163 144 100
2.053451e+000 3.017385e+000 -1.086996e+001 163 144 100
3.413575e+000 3.048444e+000 -9.500282e+000 67 67 59
-2.390188e+000 2.291907e+000 -7.820286e+000 121 58 55
-2.384543e+000 2.290499e+000 -7.836190e+000 121 58 55
6.382645e-001 2.623250e+000 -9.716913e+000 185 176 148
1.580232e+000 2.392605e+000 -9.866082e+000 81 76 72
1.575818e+000 2.395275e+000 -9.856614e+000 81 76 72
1.712120e+000 2.666878e+000 -1.025472e+001 103 101 88
1.772031e+000 2.605274e+000 -1.022172e+001 152 146 136
2.066438e+000 2.622510e+000 -1.037305e+001 110 111 110
1.760646e+000 2.219679e+000 -9.748200e+000 122 112 95
-3.669985e-001 1.655303e+000 -8.287386e+000 193 185 174
1.712040e+000 1.885584e+000 -9.336859e+000 152 152 125
-4.256452e-001 1.533134e+000 -8.110086e+000 160 146 123
-1.493383e-001 1.454025e+000 -8.101680e+000 187 176 156
8.661594e-001 1.525051e+000 -8.539649e+000 130 88 58
8.713167e-001 1.522968e+000 -8.556761e+000 130 88 58
-2.182137e-001 1.033385e+000 -7.597111e+000 69 69 48
9.513120e-001 9.594051e-001 -7.942919e+000 136 93 62
9.513694e-001 9.609013e-001 -7.947530e+000 136 93 62
1.193401e+000 8.911563e-001 -7.936661e+000 136 92 57
1.566673e+000 1.047841e+000 -8.258120e+000 128 132 81
-4.579337e-002 6.748125e-001 -7.249836e+000 176 156 123
1.124714e+000 5.985424e-001 -7.590594e+000 176 152 96
1.327614e+000 5.866993e-001 -7.641213e+000 129 88 58
1.325083e+000 5.882993e-001 -7.634905e+000 129 88 58
1.522461e-001 1.870943e-001 -6.732155e+000 170 155 96
3.537529e+000 3.603100e-001 -8.277608e+000 93 108 82
3.622046e+000 3.017613e-001 -8.263782e+000 161 172 148
1.451832e+000 -1.842613e-002 -7.005634e+000 135 87 62
4.934673e+000 -3.784402e+000 -7.169938e+000 123 114 105
-5.766778e-001 4.684421e+000 -1.191789e+001 120 130 96
-4.757827e+000 3.931070e+000 -9.079573e+000 176 172 133
-4.166965e+000 3.848002e+000 -9.143378e+000 83 110 82
-1.070545e-001 4.470400e+000 -1.169898e+001 131 138 105
1.396353e+000 3.443473e+000 -1.114380e+001 78 75 63
-4.384928e+000 2.487657e+000 -7.488734e+000 190 172 135
3.392190e+000 3.246608e+000 -9.301915e+000 182 183 175
-2.575105e+000 2.151305e+000 -7.582936e+000 190 179 176
1.274106e+000 2.429192e+000 -9.765311e+000 152 151 125
3.263056e+000 2.752926e+000 -9.834497e+000 182 183 177
-4.370119e+000 1.735968e+000 -7.485896e+000 217 200 129
1.958452e+000 2.107606e+000 -9.687609e+000 98 94 93
1.956807e+000 1.972924e+000 -9.530526e+000 77 76 72
-3.889714e+000 1.435108e+000 -6.491626e+000 222 216 193
-3.918555e+000 1.226852e+000 -6.588012e+000 183 180 103
-1.502734e-001 1.388866e+000 -8.045306e+000 71 72 55
6.225882e-001 1.626669e+000 -8.574942e+000 138 91 65
2.322001e+000 1.634310e+000 -9.225162e+000 86 83 80
8.645057e-001 1.155442e+000 -8.150392e+000 138 89 64
4.745976e-001 9.368714e-001 -7.773353e+000 141 87 66
-1.323253e-001 7.623823e-001 -7.350431e+000 182 168 138
1.970971e-001 5.958084e-001 -7.247878e+000 186 170 132
1.970971e-001 5.958084e-001 -7.247878e+000 186 170 132
1.297015e+000 6.681115e-001 -7.711198e+000 139 89 61
3.425447e+000 7.382432e-001 -8.695302e+000 127 141 118
1.201828e-001 4.659231e-001 -7.077345e+000 173 156 114
1.201828e-001 4.659231e-001 -7.077345e+000 173 156 114
1.452230e+000 3.664820e-001 -7.473313e+000 131 93 66
1.452230e+000 3.664820e-001 -7.473313e+000 131 93 66
3.420829e+000 5.874487e-001 -8.506934e+000 102 116 87
2.093170e-001 1.084856e-001 -6.732595e+000 177 161 106
1.291583e+000 3.387391e-001 -7.385074e+000 136 91 68
1.434352e+000 1.898412e-001 -7.255737e+000 162 157 100
3.642241e+000 -4.020926e-002 -7.903413e+000 173 180 166
-1.455533e+000 -6.220313e-001 -5.020138e+000 93 83 47
1.069372e+000 -7.429288e-001 -6.511532e+000 92 88 56
-3.464418e+000 -1.934054e+000 -5.779768e+000 105 85 68
-2.240878e+000 -1.752325e+000 -5.625030e+000 79 70 63
4.145951e+000 5.694763e+000 -7.329515e+000 194 187 181
4.220473e+000 5.711135e+000 -7.311383e+000 96 88 80
-4.855012e+000 3.931105e+000 -9.041524e+000 121 125 88
-2.749169e-002 4.540258e+000 -1.195414e+001 82 81 74
-5.194549e-001 4.226937e+000 -1.130861e+001 147 106 88
6.320235e-001 3.519375e+000 -1.084530e+001 183 181 168
2.023987e+000 3.358058e+000 -1.124181e+001 69 82 64
1.392664e+000 2.925711e+000 -1.038180e+001 175 170 158
2.150317e+000 2.089414e+000 -9.758625e+000 95 91 90
1.657938e+000 2.024104e+000 -9.442691e+000 88 84 79
1.020125e+000 8.748798e-001 -7.859027e+000 135 84 57
2.347941e+000 1.117481e+000 -8.647913e+000 165 167 143
2.841000e+000 7.507845e-001 -8.447893e+000 102 113 71
2.596286e-001 4.764354e-001 -7.103113e+000 178 157 115
1.329421e-001 3.917724e-001 -7.034237e+000 60 75 65
8.229603e-001 2.734859e-001 -7.112029e+000 140 87 65
3.661955e+000 1.074842e-001 -8.033211e+000 98 113 79
-4.152440e+000 -9.336828e-001 -6.889695e+000 209 177 148
8.245536e-001 -1.625362e-001 -6.584852e+000 167 158 91
1.714261e-001 -1.279268e+000 -6.541794e+000 94 80 54
-1.731188e+000 -1.488767e+000 -5.592413e+000 74 66 62
-4.640112e+000 4.075642e+000 -9.335856e+000 177 166 126
-1.109082e+000 4.434053e+000 -1.129323e+001 133 138 105
-8.105081e-001 4.499994e+000 -1.153176e+001 121 132 92
8.028346e-001 4.323228e+000 -1.184867e+001 128 81 63
3.389803e-001 3.839172e+000 -1.111913e+001 182 146 98
-3.326693e+000 3.038438e+000 -8.468626e+000 124 63 61
-3.323026e+000 3.037808e+000 -8.484696e+000 124 63 61
-2.850800e+000 2.722614e+000 -8.190511e+000 196 182 185
1.109010e+000 2.718612e+000 -1.008687e+001 152 152 128
-2.391446e+000 1.864551e+000 -7.323528e+000 198 180 185
3.051122e+000 1.968284e+000 -1.036873e+001 63 66 59
-4.107430e+000 1.278725e+000 -6.875560e+000 228 201 125
-1.622487e+000 1.311819e+000 -6.950410e+000 145 55 58
-1.622487e+000 1.311819e+000 -6.950410e+000 145 55 58
-1.379429e+000 1.188751e+000 -6.919111e+000 190 180 155
-1.610633e-001 1.168739e+000 -7.778781e+000 186 175 155
-1.607083e-001 1.169248e+000 -7.778368e+000 186 175 155
-2.821572e-002 1.132929e+000 -7.765358e+000 68 82 71
9.770299e-001 1.120172e+000 -8.124316e+000 179 154 98
9.783942e-001 1.121859e+000 -8.118668e+000 179 154 98
1.062631e+000 9.637408e-001 -7.974577e+000 179 154 94
2.356647e+000 1.108103e+000 -8.690917e+000 165 167 143
6.959817e-001 6.816384e-001 -7.520208e+000 181 157 111
1.337307e+000 1.262543e-001 -7.126014e+000 135 87 62
1.334451e+000 1.253900e-001 -7.127210e+000 135 87 62
4.866721e-001 -7.053944e-002 -6.581771e+000 177 158 97
5.939889e-001 -1.353854e-001 -6.553971e+000 63 82 65
1.184998e+000 1.047722e-001 -6.980627e+000 161 155 85
-3.612494e+000 -1.802375e+000 -5.881616e+000 172 157 91
-2.218524e+000 -1.970021e+000 -5.824344e+000 76 72 63
-3.530526e+000 9.774329e-001 -5.968399e+000 173 163 111
-5.640488e-002 1.004456e+000 -7.625526e+000 185 171 145
-5.491019e-002 1.005807e+000 -7.625222e+000 185 171 145
1.037867e+000 -3.116599e-002 -6.847195e+000 164 158 85
-5.170735e+000 4.224788e+000 -9.318995e+000 167 163 125
-4.188149e+000 4.253274e+000 -9.698322e+000 178 162 117
-3.707108e+000 1.956166e+000 -6.760556e+000 194 167 90
1.981155e+000 2.340761e+000 -9.984855e+000 98 95 92
9.145396e-001 1.229694e+000 -8.227401e+000 181 150 104
1.306402e+000 -6.389224e-003 -7.029600e+000 164 152 93
1.306402e+000 -6.389224e-003 -7.029600e+000 164 152 93
-3.876285e+000 3.731206e+000 -9.076398e+000 192 175 145
-2.640488e+000 3.055657e+000 -8.662670e+000 122 61 55
2.022784e+000 2.614523e+000 -1.028843e+001 111 107 102
2.930353e+000 2.401685e+000 -9.907453e+000 158 161 155
6.526042e-001 1.151425e+000 -8.055295e+000 179 162 111
6.220409e-001 4.603823e+000 -1.230681e+001 120 81 72
-1.726543e+000 1.033959e+000 -6.683761e+000 191 180 175
4.893797e-001 -4.479930e-002 -6.653664e+000 171 151 100
-7.702212e-001 1.217254e+000 -7.607886e+000 192 182 180
-7.702212e-001 1.217254e+000 -7.607886e+000 192 182 180
-2.502331e+000 2.138871e+000 -8.060596e+000 192 181 181
-5.388625e+000 4.307850e+000 -9.327515e+000 144 144 87
