ply
format ascii 1.0
element face 0
property list uchar int vertex_indices
element vertex 874
property float x
property float y
property float z
property uchar diffuse_red
property uchar diffuse_green
property uchar diffuse_blue
end_header
2.838338e+000 6.155292e-001 -8.382578e+000 111 121 77
2.631294e+000 3.278000e-001 -7.988374e+000 165 150 92
-8.303807e-001 -1.316942e-001 -5.837756e+000 141 119 64
4.718693e+000 -3.665407e+000 -7.281391e+000 96 85 79
-5.308790e-001 4.424392e+000 -1.172149e+001 128 140 103
-3.531649e+000 2.253918e+000 -7.292162e+000 204 187 140
-3.531649e+000 2.253918e+000 -7.292162e+000 204 187 140
1.727813e+000 1.427050e+000 -8.868382e+000 144 149 84
2.677130e+000 5.145726e-001 -8.242306e+000 165 144 91
-4.757206e+000 4.026543e+000 -9.287624e+000 143 145 106
2.961565e+000 2.073959e+000 -1.013154e+001 157 160 153
6.925861e-001 6.137856e-001 -7.518651e+000 185 163 108
-4.133601e+001 -2.001055e+001 -7.758254e+001 216 65 97
-3.503714e+001 -2.650878e+001 -7.569679e+001 63 63 131
-2.301237e+000 4.311741e+000 -1.089126e+001 196 169 106
-3.801784e+001 -2.599511e+001 -7.404966e+001 188 34 71
-3.506716e+001 -2.595278e+001 -7.658327e+001 125 167 227
-2.900769e+001 -2.707064e+001 -7.253223e+001 187 30 61
-2.732930e+001 -3.119798e+001 -7.268409e+001 203 34 65
-2.784126e+001 -3.179148e+001 -7.132275e+001 213 30 57
1.812011e+000 1.539288e+000 -9.013689e+000 160 161 129
7.958857e-001 8.582967e-001 -7.769114e+000 183 164 108
7.974290e-001 8.552106e-001 -7.770125e+000 183 164 108
6.786789e-001 1.030976e-001 -6.875258e+000 179 165 104
-3.448551e+001 -2.646098e+001 -7.179186e+001 63 44 102
-3.860421e+001 -2.814910e+001 -6.703298e+001 203 29 65
-2.632405e+000 4.193678e+000 -1.062191e+001 163 157 91
1.415255e-001 5.454501e-001 -7.242003e+000 71 82 65
-3.747546e+001 -2.474815e+001 -7.579904e+001 122 22 47
-4.258055e+001 -2.091863e+001 -7.605655e+001 254 248 255
-3.580562e+001 -2.577187e+001 -7.436667e+001 143 195 247
-4.015740e+001 -2.790905e+001 -7.137770e+001 237 44 88
-3.348886e+001 -3.018594e+001 -7.428489e+001 38 21 37
-5.216800e+000 4.301754e+000 -9.460216e+000 136 142 91
-4.276131e+000 3.964975e+000 -9.377970e+000 85 102 64
-3.612137e+000 3.801006e+000 -9.246390e+000 200 182 136
-4.045163e-001 4.256885e+000 -1.149836e+001 131 147 113
-4.649353e+000 3.259493e+000 -8.376651e+000 180 160 106
-6.854762e-001 3.728291e+000 -1.058127e+001 135 80 60
-9.256921e-001 3.576054e+000 -1.039220e+001 185 146 107
-9.226148e-001 3.574332e+000 -1.044744e+001 185 146 107
-4.870605e-001 3.577258e+000 -1.059264e+001 169 124 88
3.134582e-001 3.478238e+000 -1.077138e+001 156 112 72
5.301578e-001 3.553845e+000 -1.110486e+001 137 101 77
-4.787148e+000 2.902127e+000 -8.414692e+000 244 203 148
7.191771e-001 2.632641e+000 -9.918613e+000 180 170 136
7.191771e-001 2.632641e+000 -9.918613e+000 180 170 136
1.394636e+000 2.600502e+000 -1.015153e+001 95 86 82
2.014839e+000 2.838764e+000 -1.073674e+001 163 144 100
2.014839e+000 2.838764e+000 -1.073674e+001 163 144 100
3.314208e+000 2.859794e+000 -9.421190e+000 67 67 59
-2.247988e+000 2.167535e+000 -7.816571e+000 121 58 55
-2.242411e+000 2.166504e+000 -7.830336e+000 121 58 55
6.543837e-001 2.468731e+000 -9.630129e+000 185 176 148
1.555898e+000 2.242446e+000 -9.773526e+000 81 76 72
1.551681e+000 2.245091e+000 -9.764107e+000 81 76 72
1.684519e+000 2.504588e+000 -1.014630e+001 103 101 88
1.741565e+000 2.445231e+000 -1.011454e+001 152 146 136
2.024158e+000 2.459983e+000 -1.026018e+001 110 111 110
1.727680e+000 2.075533e+000 -9.661155e+000 122 112 95
-3.153820e-001 1.547144e+000 -8.262290e+000 193 185 174
1.678268e+000 1.756070e+000 -9.265534e+000 152 152 125
-3.724024e-001 1.430874e+000 -8.091463e+000 160 146 123
-1.084111e-001 1.353510e+000 -8.083751e+000 187 176 156
8.647400e-001 1.415695e+000 -8.502260e+000 130 88 58
8.695977e-001 1.413868e+000 -8.517517e+000 130 88 58
-1.772819e-001 9.515121e-001 -7.600589e+000 69 69 48
9.420431e-001 8.741169e-001 -7.930113e+000 136 93 62
9.422172e-001 8.753735e-001 -7.935083e+000 136 93 62
1.173399e+000 8.073713e-001 -7.923996e+000 136 92 57
1.532338e+000 9.549438e-001 -8.232095e+000 128 132 81
-1.471156e-002 6.078418e-001 -7.267450e+000 176 156 123
1.105431e+000 5.279205e-001 -7.592773e+000 176 152 96
1.299770e+000 5.154148e-001 -7.641153e+000 129 88 58
1.297251e+000 5.170255e-001 -7.634929e+000 129 88 58
1.712504e-001 1.409858e-001 -6.770639e+000 170 155 96
3.415644e+000 2.854539e-001 -8.249296e+000 93 108 82
3.496223e+000 2.289289e-001 -8.235961e+000 161 172 148
1.413843e+000 -6.331170e-002 -7.031247e+000 135 87 62
4.726076e+000 -3.685981e+000 -7.178706e+000 123 114 105
-4.956216e-001 4.452107e+000 -1.174722e+001 120 130 96
-4.504214e+000 3.749461e+000 -9.024970e+000 176 172 133
-3.939225e+000 3.666880e+000 -9.085407e+000 83 110 82
-4.685668e-002 4.244183e+000 -1.153229e+001 131 138 105
1.388120e+000 3.251030e+000 -1.100082e+001 78 75 63
-4.154224e+000 2.365628e+000 -7.501276e+000 190 172 135
3.293969e+000 3.049440e+000 -9.230658e+000 182 183 175
-2.425731e+000 2.034037e+000 -7.589500e+000 190 179 176
1.262536e+000 2.279281e+000 -9.676411e+000 152 151 125
3.169836e+000 2.577903e+000 -9.742214e+000 182 183 177
-4.144506e+000 1.646955e+000 -7.497551e+000 217 200 129
1.916496e+000 1.967079e+000 -9.602902e+000 98 94 93
1.913772e+000 1.838185e+000 -9.451868e+000 77 76 72
-3.685530e+000 1.357133e+000 -6.544970e+000 222 216 193
-3.714489e+000 1.158224e+000 -6.636943e+000 183 180 103
-1.097454e-001 1.291406e+000 -8.028586e+000 71 72 55
6.320751e-001 1.514505e+000 -8.535542e+000 138 91 65
2.260973e+000 1.511943e+000 -9.158097e+000 86 83 80
8.603476e-001 1.062258e+000 -8.128121e+000 138 89 64
4.854061e-001 8.553670e-001 -7.767921e+000 141 87 66
-9.695654e-002 6.923554e-001 -7.362471e+000 182 168 138
2.171392e-001 5.311812e-001 -7.264135e+000 186 170 132
2.171392e-001 5.311812e-001 -7.264135e+000 186 170 132
1.270944e+000 5.934186e-001 -7.708171e+000 139 89 61
3.311730e+000 6.478194e-001 -8.649279e+000 127 141 118
1.426506e-001 4.073419e-001 -7.101887e+000 173 156 114
1.426506e-001 4.073419e-001 -7.101887e+000 173 156 114
1.417237e+000 3.042627e-001 -7.479479e+000 131 93 66
1.417237e+000 3.042627e-001 -7.479479e+000 131 93 66
3.305850e+000 5.033723e-001 -8.469285e+000 102 116 87
2.254828e-001 6.522642e-002 -6.771879e+000 177 161 106
1.263288e+000 2.785687e-001 -7.395751e+000 136 91 68
1.398789e+000 1.354234e-001 -7.271865e+000 162 157 100
3.512451e+000 -9.783202e-002 -7.889617e+000 173 180 166
-1.371442e+000 -6.202993e-001 -5.134568e+000 93 83 47
1.042950e+000 -7.536287e-001 -6.558887e+000 92 88 56
-3.297906e+000 -1.863013e+000 -5.857859e+000 105 85 68
-2.127995e+000 -1.696570e+000 -5.710361e+000 79 70 63
4.018926e+000 5.382635e+000 -7.339680e+000 194 187 181
4.090141e+000 5.397838e+000 -7.322135e+000 96 88 80
-4.597336e+000 3.749891e+000 -8.989202e+000 121 125 88
2.996050e-002 4.311232e+000 -1.177580e+001 82 81 74
-4.439109e-001 4.012683e+000 -1.115723e+001 147 106 88
6.550914e-001 3.327813e+000 -1.071315e+001 183 181 168
1.989497e+000 3.165749e+000 -1.109379e+001 69 82 64
1.380150e+000 2.754438e+000 -1.026844e+001 175 170 158
2.100273e+000 1.948757e+000 -9.670207e+000 95 91 90
1.627624e+000 1.888821e+000 -9.368175e+000 88 84 79
1.007350e+000 7.927718e-001 -7.849999e+000 135 84 57
2.281936e+000 1.016820e+000 -8.605589e+000 165 167 143
2.751844e+000 6.628740e-001 -8.413702e+000 102 113 71
2.761496e-001 4.164941e-001 -7.126593e+000 178 157 115
1.543975e-001 3.362366e-001 -7.060874e+000 60 75 65
8.140248e-001 2.191794e-001 -7.134529e+000 140 87 65
3.532784e+000 4.352593e-002 -8.013509e+000 98 113 79
-3.951346e+000 -9.061619e-001 -6.922624e+000 209 177 148
8.121276e-001 -1.969845e-001 -6.628928e+000 167 158 91
1.812429e-001 -1.261555e+000 -6.587844e+000 94 80 54
-1.639558e+000 -1.447885e+000 -5.679779e+000 74 66 62
-4.390870e+000 3.887465e+000 -9.270282e+000 177 166 126
-1.007599e+000 4.214300e+000 -1.114294e+001 133 138 105
-7.210242e-001 4.276260e+000 -1.137140e+001 121 132 92
8.249772e-001 4.098239e+000 -1.167684e+001 128 81 63
3.763306e-001 3.636129e+000 -1.097553e+001 182 146 98
-3.139620e+000 2.887177e+000 -8.437931e+000 124 63 61
-3.136179e+000 2.886544e+000 -8.453619e+000 124 63 61
-2.686205e+000 2.582097e+000 -8.171771e+000 196 182 185
1.106597e+000 2.557352e+000 -9.986017e+000 152 152 128
-2.251960e+000 1.758632e+000 -7.341011e+000 198 180 185
2.964695e+000 1.827628e+000 -1.025554e+001 63 66 59
-3.895130e+000 1.208662e+000 -6.912361e+000 228 201 125
-1.519368e+000 1.226462e+000 -6.981547e+000 145 55 58
-1.519368e+000 1.226462e+000 -6.981547e+000 145 55 58
-1.287674e+000 1.107426e+000 -6.951377e+000 190 180 155
-1.216224e-001 1.080481e+000 -7.774803e+000 186 175 155
-1.212610e-001 1.081014e+000 -7.774345e+000 186 175 155
5.310540e-003 1.045752e+000 -7.761044e+000 68 82 71
9.679707e-001 1.027559e+000 -8.104482e+000 179 154 98
9.692360e-001 1.029249e+000 -8.098800e+000 179 154 98
1.048780e+000 8.774428e-001 -7.960883e+000 179 154 94
2.289973e+000 1.008010e+000 -8.645824e+000 165 167 143
6.953646e-001 6.101945e-001 -7.524634e+000 181 157 111
1.305364e+000 7.534966e-002 -7.147497e+000 135 87 62
1.302662e+000 7.459323e-002 -7.148478e+000 135 87 62
4.894878e-001 -1.072119e-001 -6.626855e+000 177 158 97
5.916739e-001 -1.697899e-001 -6.599931e+000 63 82 65
1.159181e+000 5.582657e-002 -7.008482e+000 161 155 85
-3.438748e+000 -1.736684e+000 -5.955652e+000 172 157 91
-2.107925e+000 -1.905266e+000 -5.900412e+000 76 72 63
-3.344735e+000 9.180158e-001 -6.044420e+000 173 163 111
-2.256338e-002 9.228504e-001 -7.627740e+000 185 171 145
-2.114353e-002 9.240352e-001 -7.627585e+000 185 171 145
1.017443e+000 -7.296185e-002 -6.880266e+000 164 158 85
-4.897921e+000 4.032941e+000 -9.255061e+000 167 163 125
-3.957809e+000 4.055337e+000 -9.617915e+000 178 162 117
-3.508206e+000 1.853991e+000 -6.802447e+000 194 167 90
1.940088e+000 2.190521e+000 -9.887418e+000 98 95 92
9.090153e-001 1.132578e+000 -8.203694e+000 181 150 104
1.274841e+000 -5.108746e-002 -7.054710e+000 164 152 93
1.274841e+000 -5.108746e-002 -7.054710e+000 164 152 93
-3.661720e+000 3.553412e+000 -9.020864e+000 192 175 145
-2.482965e+000 2.900012e+000 -8.623290e+000 122 61 55
1.982065e+000 2.452595e+000 -1.017886e+001 111 107 102
2.849641e+000 2.243448e+000 -9.812501e+000 158 161 155
6.573702e-001 1.059570e+000 -8.037848e+000 179 162 111
6.541038e-001 4.368880e+000 -1.212037e+001 120 81 72
-1.620793e+000 9.610805e-001 -6.727890e+000 191 180 175
4.923803e-001 -8.290060e-002 -6.696140e+000 171 151 100
-7.044625e-001 1.130460e+000 -7.611621e+000 192 182 180
-7.044625e-001 1.130460e+000 -7.611621e+000 192 182 180
-2.356221e+000 2.021881e+000 -8.046674e+000 192 181 181
-5.105853e+000 4.114079e+000 -9.262361e+000 144 144 87
-9.205872e-001 4.176028e+000 -1.112538e+001 139 148 124
-4.543547e+000 3.808727e+000 -9.095481e+000 171 169 133
-4.546071e+000 3.808069e+000 -9.109497e+000 171 169 133
-3.779604e+000 3.758176e+000 -9.293032e+000 77 100 71
1.180548e+000 4.074040e+000 -1.185686e+001 166 118 90
-4.714076e+000 3.504353e+000 -8.722461e+000 168 167 129
-4.606658e+000 3.448431e+000 -8.647407e+000 181 171 128
3.830026e-001 3.299150e+000 -1.041228e+001 184 155 115
2.096718e+000 2.229433e+000 -1.002273e+001 139 138 131
2.182719e+000 2.044369e+000 -9.640542e+000 138 137 133
7.864026e-001 1.549067e+000 -8.624793e+000 130 90 58
-3.919113e+000 8.131347e-001 -6.982917e+000 205 170 114
-2.643529e-001 1.225796e+000 -7.911398e+000 170 160 137
6.171282e-002 1.106978e+000 -7.866123e+000 189 175 149
-1.277064e+000 1.038501e+000 -6.913787e+000 134 114 88
-1.771775e-001 9.524503e-001 -7.599565e+000 81 69 54
1.500935e+000 9.932657e-001 -8.282061e+000 162 159 114
-4.862988e+000 -6.457930e-001 -8.918303e+000 217 162 174
5.842024e-001 7.162474e-001 -7.596074e+000 179 156 114
1.106539e+000 6.487366e-001 -7.750448e+000 168 147 92
1.106539e+000 6.487366e-001 -7.750448e+000 168 147 92
3.451490e-001 5.505851e-001 -7.326344e+000 180 163 119
1.901735e+000 5.697928e-001 -7.930184e+000 146 143 82
-4.071710e+000 -5.543968e-001 -7.219977e+000 131 93 80
-4.080655e+000 -5.752992e-001 -7.265043e+000 131 93 80
1.433795e+000 3.175473e-001 -7.502475e+000 138 94 71
1.420550e+000 3.412692e-001 -7.440625e+000 138 94 71
9.112154e-001 1.427146e-001 -7.102732e+000 132 88 52
8.928173e-001 1.106990e-001 -7.018646e+000 177 150 101
8.928173e-001 1.106990e-001 -7.018646e+000 177 150 101
3.481825e+000 1.276939e-001 -8.122079e+000 98 118 83
3.548220e+000 -1.590390e-001 -7.817333e+000 157 170 146
-3.782720e+000 -1.098539e+000 -6.736465e+000 131 103 63
-3.782720e+000 -1.098539e+000 -6.736465e+000 131 103 63
-3.724634e+000 -1.207126e+000 -6.616233e+000 114 89 57
-3.620132e+000 -1.397072e+000 -6.425458e+000 106 94 56
4.361267e+000 6.662688e+000 -6.097462e+000 190 183 176
1.436396e-002 4.280463e+000 -1.143321e+001 73 70 63
-3.950827e+000 3.589455e+000 -8.954112e+000 80 108 77
-7.612264e-001 3.732636e+000 -1.046321e+001 164 115 87
-7.399519e-001 3.360887e+000 -1.018146e+001 155 107 67
-4.711023e+000 2.626736e+000 -8.272421e+000 224 188 179
1.309324e-001 3.097655e+000 -1.022416e+001 186 173 141
-4.668868e+000 2.220475e+000 -8.146278e+000 218 180 177
-4.676598e+000 2.208370e+000 -8.194925e+000 218 180 177
1.944276e+000 2.661302e+000 -1.050723e+001 73 78 68
1.729973e+000 2.638151e+000 -1.030920e+001 105 100 97
-2.502213e+000 2.163081e+000 -7.721143e+000 189 186 185
-4.070131e+000 1.746517e+000 -7.114022e+000 217 198 134
1.902187e+000 1.844287e+000 -9.440274e+000 75 71 68
2.363795e+000 1.954696e+000 -9.733339e+000 97 96 92
-1.900448e+000 1.436604e+000 -7.168435e+000 135 46 54
-1.900448e+000 1.436604e+000 -7.168435e+000 135 46 54
7.594149e-001 1.308564e+000 -8.328146e+000 134 90 62
-3.547887e+000 1.015582e+000 -6.140177e+000 178 180 110
-2.207820e+000 1.126055e+000 -6.719935e+000 161 53 57
-5.008231e+000 -5.001812e-001 -9.133624e+000 184 92 105
-4.855311e+000 -5.561649e-001 -8.967102e+000 179 74 87
-3.419399e+000 6.742613e-001 -6.001050e+000 175 177 104
1.151564e+000 7.546517e-001 -7.857498e+000 169 152 92
-3.192952e+000 4.305877e-001 -5.647316e+000 181 188 120
8.544008e-001 4.723602e-001 -7.440233e+000 139 93 63
2.911342e+000 5.400517e-001 -8.204142e+000 68 76 61
9.740089e-001 2.186010e-001 -7.230014e+000 143 92 64
-3.994520e+000 -7.681505e-001 -7.119071e+000 169 136 110
3.444492e+000 7.865218e-002 -8.035760e+000 172 180 170
8.878091e-001 -1.550796e-001 -6.722320e+000 137 89 66
8.878091e-001 -1.550796e-001 -6.722320e+000 137 89 66
-3.658170e+000 -1.204131e+000 -6.569770e+000 188 165 98
-7.505151e-001 -4.331482e-001 -6.087190e+000 123 107 58
-7.505151e-001 -4.331482e-001 -6.087190e+000 123 107 58
-1.880811e+000 4.235817e+000 -1.082352e+001 194 175 141
1.084781e+000 4.296922e+000 -1.208970e+001 78 89 83
1.102684e+000 3.468858e+000 -1.088405e+001 171 145 96
-6.841813e-002 3.084673e+000 -1.012556e+001 183 173 149
1.694795e+000 2.428238e+000 -1.009867e+001 153 142 120
-2.543300e+000 2.062244e+000 -7.655400e+000 194 181 180
7.232696e-001 1.478997e+000 -8.517362e+000 182 162 101
5.429972e-001 7.434244e-001 -7.646333e+000 136 88 66
1.006686e+000 7.964085e-001 -7.842809e+000 139 88 69
1.464361e+000 -1.907036e-002 -7.117950e+000 138 91 73
3.529038e+000 5.029254e-002 -8.004253e+000 92 107 75
8.993428e-001 -1.841232e-001 -6.778829e+000 138 89 67
-3.716471e+000 -1.114506e+000 -6.684406e+000 200 173 101
-3.432740e+000 -1.612529e+000 -6.203638e+000 160 159 94
-3.432740e+000 -1.612529e+000 -6.203638e+000 160 159 94
-4.589018e+000 3.958358e+000 -9.239060e+000 179 170 127
-4.041505e+000 3.677314e+000 -9.163575e+000 181 169 131
-2.921058e-001 3.548089e+000 -1.059239e+001 178 150 105
-2.650139e+000 2.675380e+000 -8.270852e+000 122 56 57
-2.650139e+000 2.675380e+000 -8.270852e+000 122 56 57
-2.021593e+000 2.705528e+000 -8.723771e+000 165 142 103
-2.394351e-001 1.511663e+000 -8.218925e+000 73 74 62
-2.377481e-001 1.513865e+000 -8.217841e+000 73 74 62
-5.224498e+000 1.454626e-001 -9.533625e+000 130 62 53
8.570408e-001 1.249546e+000 -8.307587e+000 180 154 105
8.579694e-001 1.247613e+000 -8.313625e+000 180 154 105
1.260876e+000 4.505722e-001 -7.555744e+000 168 150 92
8.032460e-002 4.603684e+000 -1.204685e+001 224 214 207
1.759573e-001 4.297039e+000 -1.165323e+001 152 124 104
-5.593349e-001 3.460669e+000 -1.040595e+001 183 149 97
-3.091264e+000 2.883056e+000 -8.377966e+000 126 59 58
-3.091264e+000 2.883056e+000 -8.377966e+000 126 59 58
-2.778185e+000 2.720129e+000 -8.326612e+000 191 183 181
-2.387450e+000 2.174452e+000 -7.790729e+000 147 64 67
-2.327160e+000 2.175950e+000 -7.832882e+000 150 64 66
-2.327160e+000 2.175950e+000 -7.832882e+000 150 64 66
-3.506496e+000 2.070180e+000 -7.124110e+000 198 181 149
-3.506496e+000 2.070180e+000 -7.124110e+000 198 181 149
-3.442045e+000 1.784112e+000 -7.212338e+000 199 182 148
-3.442045e+000 1.784112e+000 -7.212338e+000 199 182 148
2.807917e+000 2.034287e+000 -1.028185e+001 88 91 82
3.554606e-001 1.542761e-001 -6.857600e+000 177 160 104
3.546183e-001 1.515557e-001 -6.859141e+000 177 160 104
-1.403486e+000 4.351302e+000 -1.125505e+001 94 101 73
-2.526524e+000 1.178289e+000 -6.577878e+000 193 167 93
-1.228682e+000 1.138889e+000 -7.281473e+000 146 115 67
-1.229622e+000 1.139159e+000 -7.280563e+000 146 115 67
-4.538920e+000 4.031264e+000 -9.335200e+000 173 165 120
-2.006957e+000 2.555081e+000 -8.476850e+000 192 168 110
-2.014819e+000 1.505945e+000 -7.118744e+000 158 57 65
-2.014819e+000 1.505945e+000 -7.118744e+000 158 57 65
-1.373520e+000 1.142835e+000 -6.929995e+000 195 170 115
-1.366459e+000 1.141992e+000 -6.937045e+000 195 170 115
8.912564e-001 6.955566e-001 -7.732600e+000 175 156 98
2.487907e+000 8.863817e-001 -8.457586e+000 99 111 71
3.258468e+000 5.809205e-001 -8.554024e+000 104 116 94
1.759687e+000 2.938735e+000 -1.069344e+001 77 88 71
-2.219119e+000 2.582916e+000 -8.195461e+000 133 57 59
-4.105552e+000 -1.905466e-001 -7.004772e+000 224 193 181
-2.872998e+000 2.432644e+000 -8.074994e+000 145 53 55
-2.563791e+000 2.538861e+000 -8.160978e+000 163 127 129
-2.046047e+000 2.255752e+000 -8.231596e+000 147 58 58
-4.418316e-001 4.723475e+000 -1.213695e+001 241 219 208
-2.795735e+000 4.011001e+000 -1.038552e+001 166 152 91
1.335565e+000 4.199569e+000 -1.220735e+001 85 88 80
2.524773e+000 3.558373e+000 -8.778497e+000 194 195 189
2.519406e+000 1.653729e+000 -9.736928e+000 62 72 61
-5.420686e+001 -5.624136e+000 -9.326272e+001 206 56 104
-5.082025e+001 1.232650e+000 -1.018839e+002 251 55 96
-4.756357e+001 5.460314e-001 -1.020769e+002 236 43 83
-3.895398e+001 -2.858014e+000 -1.032096e+002 250 200 179
-4.227337e+001 -1.065981e+001 -8.627031e+001 167 24 54
-3.956875e+001 -7.701929e+000 -9.729490e+001 64 37 89
-5.350588e+001 -6.842059e+000 -9.537462e+001 77 60 128
-5.231865e+001 -8.110226e+000 -9.265021e+001 174 165 218
-5.123454e+001 -8.384737e+000 -9.192711e+001 79 64 129
-3.119841e+001 -2.514849e+001 -7.824121e+001 197 39 78
-3.890333e+001 -6.697794e+000 -9.843562e+001 229 42 77
-3.478138e+001 -2.756474e+001 -7.016186e+001 188 11 47
-3.926055e+001 -4.026974e+000 -9.653150e+001 255 206 112
-3.996688e+001 -2.737350e+001 -7.003987e+001 235 49 93
-2.924032e+001 -2.544903e+001 -7.524515e+001 229 37 76
-2.924032e+001 -2.544903e+001 -7.524515e+001 229 37 76
-4.990425e+001 -8.487969e+000 -8.583732e+001 180 160 216
-4.990425e+001 -8.487969e+000 -8.583732e+001 180 160 216
-4.827018e+001 -1.254905e+001 -8.629324e+001 59 39 67
-6.812639e-001 3.849143e+000 -1.083380e+001 165 111 89
8.397354e-001 5.205263e-001 -7.493136e+000 180 158 103
1.388874e+000 2.267101e-002 -7.121082e+000 136 88 66
1.374485e+000 -2.726466e-002 -7.071611e+000 151 149 79
1.339941e+000 3.807602e-001 -7.524744e+000 141 93 71
7.587810e-001 3.216860e+000 -1.067715e+001 103 120 88
-4.991977e+001 -9.259289e+000 -8.824459e+001 120 110 171
2.054350e+000 9.050395e-001 -8.379729e+000 152 144 89
-5.354769e+001 -9.662203e+000 -9.022668e+001 255 198 238
-3.272766e+001 -1.406035e+001 -9.005375e+001 162 54 69
-3.943115e+001 -3.216689e+001 -6.428261e+001 64 52 115
9.720474e-001 2.805737e+000 -1.021541e+001 164 143 91
-5.017551e+001 -1.001487e+001 -8.668726e+001 212 203 246
-2.597622e+001 -3.372617e+001 -6.422594e+001 199 30 59
-2.569355e+001 -3.509893e+001 -6.348607e+001 182 32 61
-3.196991e+001 -2.474086e+001 -7.912068e+001 56 38 78
-3.176209e+001 -3.079401e+001 -6.579175e+001 64 47 90
-2.662038e+001 -3.201318e+001 -7.003156e+001 236 165 101
-2.687922e+001 -3.287246e+001 -6.888066e+001 214 36 64
-2.481247e+001 -3.259123e+001 -6.623104e+001 207 36 63
-4.011644e+001 -2.764350e+001 -6.741116e+001 56 37 92
-2.730476e+001 -3.266556e+001 -6.674183e+001 229 170 87
-2.843648e+001 -3.157683e+001 -6.452707e+001 47 32 67
-2.500300e+001 -3.500480e+001 -6.467321e+001 202 36 68
-2.518793e+001 -3.532762e+001 -6.524111e+001 202 36 68
-2.859132e+001 -3.210895e+001 -6.962028e+001 240 179 89
-2.859132e+001 -3.210895e+001 -6.962028e+001 240 179 89
-3.096093e+000 4.304697e+000 -1.049716e+001 159 149 100
-4.345935e+000 3.623621e+000 -8.913016e+000 125 119 83
3.339650e-001 3.253385e+000 -1.050413e+001 155 99 72
-4.634171e+000 2.153540e+000 -8.170234e+000 176 136 132
1.272308e+000 2.299003e+000 -9.631406e+000 154 152 129
-3.212808e+000 1.554222e+000 -9.618492e+000 202 174 170
-2.490637e+000 2.015721e+000 -7.582383e+000 165 53 64
-4.118639e+000 1.322477e+000 -7.173465e+000 237 204 169
-1.451740e+000 1.210752e+000 -7.088436e+000 189 165 111
-3.721213e+000 -1.203824e+000 -6.609317e+000 114 89 57
-3.947416e+000 3.584431e+000 -8.959605e+000 80 108 77
-4.650137e-001 3.800967e+000 -1.092040e+001 141 95 75
-2.604558e+000 3.286240e+000 -9.177345e+000 143 128 107
1.160269e+000 3.529857e+000 -1.120892e+001 187 163 108
2.429673e+000 1.809944e+000 -9.653486e+000 91 95 88
1.082789e+000 -1.099794e-001 -6.893403e+000 160 150 88
4.225325e+000 6.170028e+000 -6.604148e+000 188 184 173
-4.613291e+000 3.637369e+000 -8.894076e+000 173 166 130
-3.764101e+000 3.845015e+000 -9.335338e+000 194 172 129
4.356374e-001 2.730820e+000 -9.859224e+000 180 174 146
2.013396e+000 1.127420e+000 -8.637220e+000 172 169 140
1.741401e-001 1.956929e-001 -6.888813e+000 178 158 107
-7.244288e-002 4.465786e+000 -1.194585e+001 87 90 76
-2.241639e+000 1.755898e+000 -7.340814e+000 198 183 183
-4.950258e+001 -2.517977e+001 -7.672188e+001 239 59 104
-6.893219e-002 7.993032e-001 -7.493282e+000 67 81 71
-3.209828e+001 -3.129458e+001 -6.681393e+001 79 54 101
3.786605e-002 4.418363e+000 -1.192916e+001 93 100 83
1.842937e+000 1.275491e+000 -8.803671e+000 137 140 83
-3.432105e+001 -3.294655e+001 -6.295151e+001 155 20 50
-2.885222e+001 -3.226277e+001 -6.544738e+001 44 29 62
-3.915234e+001 -3.959286e+001 -6.100134e+001 76 69 77
-7.899283e-001 4.025140e+000 -1.131632e+001 132 84 74
-4.100516e+001 -3.061803e+001 -6.716620e+001 49 25 48
-4.212998e+001 -3.863432e+001 -6.707755e+001 45 30 72
8.694205e-002 5.010790e+000 -1.570476e+001 166 153 146
8.694205e-002 5.010790e+000 -1.570476e+001 166 153 146
-5.297910e+000 4.158971e+000 -9.646766e+000 165 170 127
-2.437545e+000 4.305806e+000 -1.073369e+001 193 173 118
-4.857684e+000 3.899352e+000 -9.095313e+000 125 127 90
-4.527186e+000 3.951601e+000 -9.218315e+000 174 169 127
-4.274563e+000 4.019950e+000 -9.435382e+000 177 165 118
-7.817926e-002 4.337838e+000 -1.162529e+001 136 142 119
-4.539861e+000 3.661053e+000 -8.888442e+000 177 173 135
-4.538760e+000 3.661195e+000 -8.889414e+000 177 173 135
-4.382457e+000 3.666170e+000 -8.940404e+000 164 160 122
-2.889691e+000 3.594927e+000 -9.686373e+000 186 164 115
3.072197e-001 3.847310e+000 -1.138796e+001 165 114 85
9.411059e-001 4.049783e+000 -1.134771e+001 165 120 95
-3.452876e+000 3.481555e+000 -9.032211e+000 177 121 100
-9.277329e-001 3.571852e+000 -1.038678e+001 185 143 107
5.721958e-001 3.596196e+000 -1.099730e+001 179 161 125
-2.677005e+000 3.319163e+000 -9.145600e+000 195 180 165
3.172395e-001 3.466097e+000 -1.079376e+001 149 106 68
1.456226e+000 3.340705e+000 -1.126850e+001 113 90 58
-8.608536e-001 3.172487e+000 -9.949822e+000 152 98 66
1.407309e+000 3.064746e+000 -1.090071e+001 163 144 93
1.962725e+000 3.255529e+000 -1.127965e+001 69 84 64
1.384678e+000 2.483433e+000 -1.014271e+001 124 115 92
1.393713e+000 2.308579e+000 -9.785708e+000 125 118 108
1.486207e+000 2.323735e+000 -9.867463e+000 88 81 75
1.519032e+000 2.279879e+000 -9.824789e+000 127 120 110
1.925732e+000 2.464305e+000 -1.024707e+001 143 138 134
2.016119e+000 2.397122e+000 -1.020985e+001 143 141 136
-2.543168e+000 2.138682e+000 -7.662511e+000 137 52 55
-2.543168e+000 2.138682e+000 -7.662511e+000 137 52 55
1.317289e+000 2.150486e+000 -9.628308e+000 152 150 131
2.045375e+000 2.128983e+000 -9.888367e+000 148 144 141
2.160824e+000 2.214762e+000 -9.961757e+000 110 106 102
2.323713e+000 2.190454e+000 -9.986671e+000 127 128 117
2.401579e+000 2.092322e+000 -1.006086e+001 131 137 125
-2.340064e+000 1.793383e+000 -7.354738e+000 160 63 77
-1.945521e+000 1.841955e+000 -7.540746e+000 121 39 45
-1.957555e+000 1.813647e+000 -7.605159e+000 121 39 45
-4.502817e+000 1.043963e+000 -7.943360e+000 179 148 93
-3.725747e-001 1.431581e+000 -8.088248e+000 169 147 127
-2.611939e-001 1.204548e+000 -7.960645e+000 175 162 136
-1.320801e+000 1.162003e+000 -7.196046e+000 188 160 83
8.535380e-001 1.126003e+000 -8.188390e+000 175 154 99
5.420370e-002 6.522813e-001 -7.313074e+000 169 153 121
6.984241e-001 7.225286e-001 -7.657224e+000 183 156 111
1.242027e+000 7.859775e-001 -7.907019e+000 169 159 88
1.116726e+000 6.264336e-001 -7.675110e+000 178 153 99
-3.760613e+000 -4.424325e-002 -6.601737e+000 164 123 80
1.365066e+000 3.437653e-001 -7.481965e+000 171 157 107
3.350789e+000 4.531817e-001 -8.413394e+000 92 106 81
-4.027251e+000 -6.602128e-001 -7.157940e+000 105 89 63
-3.951997e+000 -9.076134e-001 -7.088833e+000 108 93 68
1.022706e+000 1.683207e-001 -7.101764e+000 133 95 56
1.114631e+000 -1.474602e-002 -6.950251e+000 129 89 59
3.547862e+000 -1.611028e-001 -7.819060e+000 163 176 150
-2.747602e-001 4.440937e+000 -1.197540e+001 137 142 116
-9.448566e-001 4.099334e+000 -1.115210e+001 118 76 69
-4.567800e+000 3.558256e+000 -8.726594e+000 175 170 130
-4.011264e+000 3.702493e+000 -9.144088e+000 174 166 130
1.061252e+000 3.800257e+000 -1.157823e+001 176 142 104
-2.558224e+000 3.144785e+000 -8.868126e+000 197 183 174
-2.485396e+000 3.150973e+000 -8.920036e+000 142 125 115
1.253992e+000 2.999193e+000 -1.033902e+001 165 141 97
1.476981e+000 2.698760e+000 -1.031154e+001 104 95 86
-2.505443e+000 2.168227e+000 -7.715377e+000 188 179 181
-2.428565e+000 2.043754e+000 -7.579708e+000 188 176 175
2.520101e+000 2.018330e+000 -1.011557e+001 69 82 65
3.083596e+000 2.327385e+000 -9.877209e+000 161 162 156
3.152720e+000 2.333082e+000 -9.841073e+000 83 81 74
3.073192e+000 2.063899e+000 -1.007481e+001 81 82 77
7.833358e-001 1.552161e+000 -8.618212e+000 127 91 54
2.381670e+000 1.630156e+000 -9.252329e+000 93 92 88
-2.495798e-001 1.426494e+000 -8.132238e+000 182 178 153
7.541202e-001 1.367430e+000 -8.401280e+000 174 157 100
-2.922822e-001 1.141194e+000 -7.732534e+000 186 167 152
-2.418231e-001 1.076626e+000 -7.721628e+000 80 65 54
2.724451e-002 9.791581e-001 -7.684604e+000 184 168 145
6.059190e-001 6.313707e-001 -7.603663e+000 136 83 63
1.080641e+000 7.530125e-001 -7.823933e+000 173 153 94
1.217744e+000 6.413576e-001 -7.748176e+000 171 150 95
3.193545e+000 7.031827e-001 -8.605788e+000 94 110 80
3.208523e+000 6.834229e-001 -8.647327e+000 94 110 80
2.068761e-001 3.270049e-001 -6.972381e+000 165 150 111
-3.877611e+000 -9.834915e-001 -6.898085e+000 95 82 59
2.521676e+000 -4.387322e-002 -7.447636e+000 166 151 92
-8.217338e-001 4.158992e+000 -1.120230e+001 73 74 60
-3.997618e-001 4.255170e+000 -1.147323e+001 130 144 109
-3.759370e+000 3.782032e+000 -9.066656e+000 74 100 71
4.029901e+000 5.477403e+000 -7.185259e+000 188 181 175
-4.320888e+000 3.455176e+000 -8.701103e+000 186 171 128
2.064621e+000 3.253469e+000 -1.183116e+001 96 108 84
1.418764e+000 3.223947e+000 -1.098837e+001 76 74 61
-4.628955e+000 2.564902e+000 -8.099358e+000 215 186 178
-4.302412e+000 1.937697e+000 -7.644652e+000 210 193 124
-3.576300e+000 2.339555e+000 -7.590584e+000 199 180 130
-3.590687e+000 2.261944e+000 -7.655777e+000 199 180 130
-4.404723e+000 1.812447e+000 -7.761949e+000 147 117 103
-4.260439e+000 1.853101e+000 -7.562969e+000 210 195 115
-4.536118e+000 1.144630e+000 -7.834086e+000 219 191 176
1.547259e+000 1.860674e+000 -9.235461e+000 148 148 114
1.734727e+000 1.698953e+000 -9.248550e+000 147 151 116
7.224587e-001 1.473952e+000 -8.526569e+000 180 156 107
6.994938e-001 1.393529e+000 -8.449778e+000 137 92 63
2.383888e+000 9.667402e-001 -8.621950e+000 106 118 80
-1.277652e-001 7.121633e-001 -7.314664e+000 182 164 138
-4.664436e+000 -1.314047e+000 -8.420941e+000 209 185 162
1.148868e+000 -1.298113e-001 -6.850295e+000 135 85 64
1.146539e+000 -1.228730e-001 -6.842254e+000 135 85 64
-3.569184e+000 4.391460e+000 -1.029119e+001 163 153 100
1.391830e+000 4.511716e+000 -1.272204e+001 99 108 86
-1.882185e+000 4.228071e+000 -1.084782e+001 193 175 139
2.542791e-001 3.874811e+000 -1.121968e+001 162 115 83
-4.623937e+000 3.210958e+000 -8.464770e+000 181 157 96
4.173699e-001 3.524816e+000 -1.083363e+001 186 156 106
6.889237e-001 2.556932e+000 -9.812763e+000 157 151 92
1.834173e+000 2.811132e+000 -1.053707e+001 74 83 70
1.477194e+000 1.932245e+000 -9.374079e+000 139 136 99
2.425888e+000 1.991525e+000 -9.900638e+000 146 147 140
-5.222939e+000 1.547547e-001 -9.514456e+000 131 58 62
-2.297023e+000 1.673102e+000 -7.216019e+000 150 59 58
-2.339863e+000 1.612022e+000 -7.122498e+000 196 176 181
-1.920511e+000 1.652663e+000 -7.313371e+000 197 182 185
-1.851159e+000 1.525934e+000 -7.208913e+000 187 182 181
-2.193048e+000 1.174381e+000 -6.661426e+000 159 56 60
5.815772e-001 8.231078e-001 -7.722615e+000 178 157 109
2.966851e-002 7.708708e-001 -7.438540e+000 181 166 140
2.966851e-002 7.708708e-001 -7.438540e+000 181 166 140
6.973371e-001 6.082606e-001 -7.533593e+000 180 156 110
1.809193e-001 4.722903e-001 -7.156364e+000 60 76 66
2.016597e+000 5.000518e-001 -7.879481e+000 170 160 125
3.183871e+000 5.730140e-001 -8.424713e+000 125 138 118
3.193721e-001 2.363364e-001 -6.943496e+000 64 81 70
2.810020e-001 -1.016072e-001 -6.747009e+000 173 154 90
1.150856e+000 -1.434333e-001 -6.880076e+000 135 85 64
-3.992506e+000 4.352929e+000 -1.002925e+001 158 148 81
9.606559e-001 4.233995e+000 -1.178476e+001 145 98 80
1.474412e+000 3.222794e+000 -1.097556e+001 68 67 62
1.474412e+000 3.222794e+000 -1.097556e+001 68 67 62
2.071806e+000 2.892700e+000 -1.096182e+001 68 78 64
-4.535155e+000 1.722874e+000 -7.904993e+000 223 197 166
-3.927997e+000 -1.232614e+000 -6.968309e+000 195 181 125
2.271949e-001 4.286014e+000 -1.169843e+001 160 131 110
2.186604e-001 4.249897e+000 -1.182075e+001 160 131 110
-2.453885e+000 2.373466e+000 -7.986167e+000 146 57 64
-2.453885e+000 2.373466e+000 -7.986167e+000 146 57 64
1.190809e+000 2.294264e+000 -9.717558e+000 161 158 125
-3.715833e+000 2.027282e+000 -7.537720e+000 190 163 78
-2.474333e+000 2.086008e+000 -7.641061e+000 192 183 180
1.960851e+000 2.160552e+000 -9.989205e+000 100 96 94
-2.180470e+000 1.865859e+000 -7.469692e+000 162 57 67
-2.178923e+000 1.863639e+000 -7.474886e+000 162 57 67
-2.165338e-001 1.001697e+000 -7.644808e+000 62 76 63
1.347739e+000 2.011100e+000 -9.446318e+000 165 164 134
2.253740e+000 1.160651e+000 -8.814989e+000 93 100 70
-4.149611e+000 3.668683e+000 -9.093042e+000 190 176 137
-3.856109e+000 3.677252e+000 -9.044180e+000 68 96 65
-3.856109e+000 3.677252e+000 -9.044180e+000 68 96 65
-4.634663e+000 1.817487e+000 -8.477383e+000 154 118 112
1.639307e+000 1.979343e-001 -7.384029e+000 156 156 100
5.831526e-001 4.395832e+000 -1.189679e+001 103 70 68
6.416392e-001 4.845827e+000 -1.197591e+001 230 212 202
2.651894e+000 3.194151e+000 -9.268830e+000 184 189 182
-7.278406e-001 4.033556e+000 -1.123552e+001 127 81 75
-5.178109e+000 4.134028e+000 -9.438258e+000 140 140 84
-4.735813e+000 3.868120e+000 -9.080653e+000 164 165 129
-4.255279e+000 3.977474e+000 -9.291742e+000 76 101 64
-4.242096e+000 3.840682e+000 -9.274089e+000 172 162 122
-3.874168e+000 3.790007e+000 -9.323681e+000 66 101 69
-1.078024e+000 4.211633e+000 -1.114166e+001 136 147 116
-3.199310e-001 4.290812e+000 -1.156083e+001 106 120 92
-3.487262e+000 3.452157e+000 -8.963586e+000 196 179 146
1.604854e+000 2.883851e+000 -1.060529e+001 145 136 113
1.354053e+000 2.665270e+000 -1.022029e+001 118 111 102
1.878193e+000 2.392703e+000 -1.012843e+001 138 133 126
-1.890302e+000 1.605851e+000 -7.251908e+000 128 53 56
8.827688e-001 9.612552e-001 -8.133769e+000 132 90 58
2.399344e+000 1.107750e+000 -8.826223e+000 114 127 89
2.096386e+000 1.010048e+000 -8.407874e+000 120 133 86
3.560050e+000 -1.028521e-001 -7.846046e+000 99 114 91
3.587534e+000 -5.754313e-002 -7.861257e+000 145 159 136
3.587534e+000 -5.754313e-002 -7.861257e+000 145 159 136
-4.795145e+000 4.110308e+000 -9.338225e+000 163 156 108
-4.673326e+000 3.711620e+000 -8.976411e+000 171 169 130
3.215954e-002 3.620301e+000 -1.092980e+001 177 139 100
1.939152e+000 2.231058e+000 -1.003330e+001 102 96 93
1.730845e+000 2.158914e+000 -9.797174e+000 92 86 83
3.424232e+000 3.246919e-001 -8.360792e+000 93 111 81
3.502550e+000 2.607617e-001 -8.207455e+000 148 161 141
2.135305e-001 1.012240e-001 -6.707248e+000 165 144 98
1.410251e+000 1.212211e-001 -7.182105e+000 131 81 61
1.434794e+000 8.551291e-002 -7.131540e+000 152 145 90
1.134058e+000 -1.531146e-001 -6.762570e+000 154 148 83
4.066569e+000 -2.400983e+000 -8.442414e+000 124 117 107
-4.019514e+000 3.697055e+000 -9.133394e+000 182 168 132
8.919652e-002 3.024853e+000 -1.018689e+001 154 145 88
3.261637e+000 2.809737e+000 -9.530472e+000 183 182 175
2.393769e+000 1.750007e+000 -9.507313e+000 95 91 90
-1.089359e-001 1.295006e+000 -8.015743e+000 93 85 68
2.450220e+000 7.505399e-001 -8.411576e+000 167 140 92
2.460172e-001 6.044976e-001 -7.338041e+000 85 78 58
1.239543e-001 4.236783e-001 -7.069507e+000 176 155 116
1.239543e-001 4.236783e-001 -7.069507e+000 176 155 116
9.485405e-001 2.136155e-001 -7.097076e+000 168 149 91
-4.323330e+000 3.981237e+000 -9.384481e+000 80 109 85
-4.424494e+000 3.585882e+000 -8.846102e+000 172 167 126
-5.246008e-001 3.869462e+000 -1.126128e+001 121 73 62
4.182910e-001 3.456280e+000 -1.069778e+001 184 159 113
2.198676e+000 2.424042e+000 -1.029531e+001 67 85 70
7.330124e-001 1.472395e+000 -8.531112e+000 176 153 104
7.361238e-001 1.474200e+000 -8.531368e+000 176 153 104
7.789313e-001 4.289358e-001 -7.308722e+000 176 160 108
8.385940e-001 3.133432e-001 -7.186925e+000 173 153 97
-2.696023e-001 4.193517e+000 -1.141156e+001 116 74 64
-2.624675e+000 1.548513e+000 -6.964191e+000 192 175 147
9.676231e-001 5.471709e-001 -7.528575e+000 176 155 98
-2.330499e+000 2.732550e+000 -8.364293e+000 124 57 57
-2.073769e+000 1.749891e+000 -7.309178e+000 140 68 68
4.845256e-001 -7.493283e-002 -6.679671e+000 154 138 88
-3.458844e+001 -2.596373e+001 -7.031092e+001 202 48 95
-3.120187e+001 -3.154553e+001 -6.586766e+001 220 177 113
-2.655048e+001 -3.455734e+001 -6.368412e+001 44 28 68
-3.110195e+001 -3.505543e+001 -6.288942e+001 39 22 61
-3.106212e+001 -3.137965e+001 -7.140554e+001 47 30 49
-3.112499e+001 -3.186388e+001 -6.831174e+001 240 192 117
-3.112499e+001 -3.186388e+001 -6.831174e+001 240 192 117
-3.733067e+001 -3.199659e+001 -6.486372e+001 228 41 81
-3.454051e+001 -3.189117e+001 -6.618710e+001 223 34 74
-4.234366e+000 3.849471e+000 -9.234933e+000 171 168 125
-3.414742e+000 3.438847e+000 -8.936307e+000 175 118 97
-3.025493e+000 2.963117e+000 -8.475105e+000 190 158 78
-7.767724e-001 3.173455e+000 -9.989408e+000 190 157 114
-1.832300e+000 1.669213e+000 -7.327712e+000 148 52 58
2.624464e+000 -5.327323e-002 -7.516170e+000 166 145 93
1.453847e+000 2.211875e+000 -9.691409e+000 144 138 126
1.327348e+000 3.642769e+000 -1.136448e+001 182 158 108
2.984372e+000 7.594547e-001 -8.683461e+000 87 104 72
-3.630022e+001 -3.506318e+001 -6.208182e+001 221 25 66
-3.630022e+001 -3.506318e+001 -6.208182e+001 221 25 66
-3.256401e+001 -3.468693e+001 -6.251745e+001 223 28 66
1.418465e+000 4.309709e+000 -1.245336e+001 74 77 66
-2.777636e+000 2.628046e+000 -8.134012e+000 128 53 60
2.623116e+000 6.563992e-001 -8.348454e+000 157 150 104
9.529799e-001 4.323197e+000 -1.239189e+001 114 114 93
1.807976e+000 3.753588e+000 -1.168148e+001 95 107 85
2.285547e+000 1.251448e+000 -8.931146e+000 83 92 66
-4.747771e+000 3.699980e+000 -8.909975e+000 125 126 94
-1.976494e+000 1.567833e+000 -7.191457e+000 156 51 59
9.682201e-001 1.028035e+000 -8.103592e+000 176 156 96
-4.021447e+001 -2.593721e+001 -7.208581e+001 186 31 65
-2.718385e+001 -7.553578e+001 -9.033021e+001 117 109 104
-4.094054e+001 -2.644262e+001 -7.116595e+001 59 40 85
-2.482018e+001 -3.567732e+001 -6.226034e+001 46 35 39
-2.403471e-001 3.687395e+000 -1.094907e+001 168 136 95
-2.786482e+000 2.246735e+000 -7.695590e+000 159 54 61
-4.339049e+000 3.895488e+000 -9.290203e+000 165 165 123
-4.545876e+000 3.516221e+000 -8.711814e+000 178 170 133
-4.373836e+000 3.528214e+000 -8.722582e+000 179 171 130
-3.724990e+000 3.763057e+000 -9.287255e+000 187 172 132
-4.975144e-001 3.664043e+000 -1.073567e+001 163 113 82
-4.498992e-001 3.747836e+000 -1.080289e+001 138 93 72
-3.124773e+000 2.983645e+000 -8.380202e+000 188 159 85
-3.030432e+000 3.056040e+000 -8.615191e+000 177 158 125
-3.709016e-001 1.426122e+000 -8.100556e+000 161 140 119
5.852872e-001 9.353756e-001 -7.846423e+000 184 164 117
-4.413673e+000 3.758910e+000 -9.017886e+000 123 125 87
2.370740e+000 1.930240e+000 -9.800199e+000 91 91 89
1.761378e+000 1.811737e+000 -9.504829e+000 139 134 130
2.290591e+000 1.235804e+000 -8.978420e+000 87 99 67
-4.503623e+000 3.897564e+000 -9.184474e+000 126 128 92
1.054882e+000 3.816189e+000 -1.185042e+001 169 132 98
1.935545e+000 3.491464e+000 -1.144248e+001 97 114 87
3.094498e+000 7.129953e-001 -8.632317e+000 145 161 135
4.504421e-001 -1.165598e-002 -6.675486e+000 59 75 59
4.504421e-001 -1.165598e-002 -6.675486e+000 59 75 59
1.452565e+000 1.425826e-002 -7.073149e+000 129 87 60
-7.736515e-001 3.542212e+000 -1.057454e+001 179 137 102
-3.168347e+001 -3.103252e+001 -6.505025e+001 72 34 85
4.178566e+000 -4.055887e-001 -7.883695e+000 172 169 162
4.681806e-001 2.723830e+000 -9.880297e+000 175 168 138
-4.842237e+000 3.087888e+000 -8.504182e+000 154 131 99
2.271301e+000 2.332394e+000 -1.049305e+001 74 88 73
-4.181903e+000 4.065474e+000 -9.464436e+000 177 165 117
1.448810e-001 4.584082e+000 -1.224321e+001 230 219 208
-1.298778e+000 1.050473e+000 -6.698685e+000 137 119 105
-2.782188e+001 -2.953395e+001 -6.785426e+001 239 180 84
-2.066962e+000 1.718723e+000 -7.364694e+000 140 68 68
-3.231704e-001 4.490548e+000 -1.304787e+001 235 217 207
-3.577929e+001 -2.887042e+001 -6.643619e+001 133 14 41
-3.577929e+001 -2.887042e+001 -6.643619e+001 133 14 41
-2.783084e+000 3.995293e+000 -1.046736e+001 162 151 88
2.870747e+000 3.351378e+000 -1.004861e+001 191 193 180
-4.704608e+000 4.379113e+000 -9.685503e+000 156 152 80
-5.029395e+000 4.081724e+000 -9.250047e+000 179 171 124
-3.890152e+000 4.158677e+000 -9.729736e+000 185 166 116
-1.361949e+000 4.252266e+000 -1.104763e+001 133 145 109
-4.218117e+000 3.967813e+000 -9.359068e+000 181 174 130
-4.008707e+000 3.546210e+000 -9.090606e+000 181 176 137
1.497475e-001 3.833447e+000 -1.115155e+001 151 95 67
1.065156e+000 4.076712e+000 -1.175734e+001 182 136 101
1.102850e+000 3.867373e+000 -1.144520e+001 171 133 90
3.476569e-001 3.554760e+000 -1.077131e+001 200 172 118
1.003503e+000 3.327737e+000 -1.080460e+001 195 189 160
1.497334e+000 2.304675e+000 -9.786180e+000 140 133 123
2.210597e+000 1.998312e+000 -9.791605e+000 145 143 137
-2.666825e-001 1.123293e+000 -7.767615e+000 183 162 143
-1.550468e-001 8.108222e-001 -7.457270e+000 193 180 154
1.302907e+000 5.841065e-001 -7.656533e+000 172 155 88
4.181192e-001 4.359539e-001 -7.040317e+000 184 164 113
-5.146130e+000 4.052949e+000 -9.214588e+000 207 210 167
-4.703614e+000 3.977778e+000 -9.204945e+000 118 121 85
1.368693e+000 4.370830e+000 -1.224233e+001 79 85 71
-3.150256e-002 3.904726e+000 -1.104813e+001 143 85 63
1.836220e+000 3.479347e+000 -1.139691e+001 78 86 74
7.646282e-001 3.081664e+000 -1.043369e+001 170 142 92
6.185470e-001 2.736237e+000 -9.935089e+000 174 157 103
7.407047e-001 2.585817e+000 -9.851836e+000 163 157 101
1.586317e+000 2.631686e+000 -1.020357e+001 112 103 98
1.398804e+000 2.496910e+000 -9.990597e+000 179 158 123
2.129005e+000 2.410133e+000 -1.018434e+001 133 135 124
2.302177e+000 2.135095e+000 -9.982735e+000 113 110 105
1.520585e+000 2.009587e+000 -9.453866e+000 107 98 97
1.564762e+000 1.865737e+000 -9.269969e+000 157 159 120
7.895710e-001 1.550795e+000 -8.631854e+000 150 93 70
-1.346774e+000 1.096485e+000 -6.873018e+000 197 180 163
-3.591220e-002 6.749826e-001 -7.297452e+000 61 84 71
7.115762e-001 7.676983e-001 -7.698728e+000 136 91 58
1.176883e+000 8.058587e-001 -7.931673e+000 136 93 58
-3.323374e-002 6.262517e-001 -7.228802e+000 186 165 131
3.127056e+000 5.205876e-001 -8.528749e+000 98 113 76
2.623480e+000 3.363493e-001 -7.959057e+000 161 143 94
3.574407e+000 1.133029e-001 -8.164506e+000 95 109 74
3.600812e+000 7.888656e-002 -8.106956e+000 168 172 159
3.483907e+000 -4.545999e-002 -7.989536e+000 165 174 153
3.664997e+000 -1.340499e-001 -8.013150e+000 103 111 87
1.038554e+000 4.250933e-003 -6.901195e+000 169 155 93
-4.102624e-001 4.353470e+000 -1.152780e+001 148 158 134
-5.099066e-001 3.926353e+000 -1.088221e+001 137 83 66
1.903860e+000 2.749688e+000 -1.052655e+001 189 176 133
1.926665e+000 2.693846e+000 -1.045288e+001 81 86 81
1.701140e+000 2.579067e+000 -1.021678e+001 157 150 144
-4.398203e+000 1.845069e+000 -7.720359e+000 127 112 105
4.057280e+000 5.329610e+000 -7.423181e+000 197 190 182
4.079179e+000 5.465044e+000 -7.297720e+000 196 191 182
-2.190347e+000 2.189898e+000 -7.866033e+000 198 184 184
-2.218041e-001 1.527672e+000 -8.256195e+000 79 73 57
-2.218041e-001 1.527672e+000 -8.256195e+000 79 73 57
-1.896800e+000 1.499606e+000 -7.068048e+000 147 52 58
-2.550622e-001 1.292139e+000 -7.967827e+000 59 79 60
-2.550622e-001 1.292139e+000 -7.967827e+000 59 79 60
2.002524e+000 9.837728e-001 -8.903856e+000 129 134 77
9.050071e-002 1.002091e+000 -7.768848e+000 188 173 142
6.349667e-001 8.989658e-001 -7.822896e+000 153 95 74
-1.052322e-001 6.951588e-001 -7.342759e+000 183 167 142
1.134529e+000 6.787698e-001 -7.806234e+000 140 91 64
1.063977e-001 6.007044e-001 -7.287180e+000 61 82 63
3.438858e-001 4.678911e-001 -7.179717e+000 189 167 122
2.175589e-001 3.728610e-001 -7.063015e+000 66 77 60
6.836104e-001 -5.816256e-002 -6.804733e+000 70 77 53
1.452527e+000 -2.259624e-001 -6.966595e+000 156 152 79
-4.594487e+000 3.756590e+000 -8.987234e+000 118 120 81
-7.771178e-001 3.245226e+000 -1.005587e+001 174 127 87
-1.845849e+000 2.549185e+000 -8.786706e+000 192 169 135
-1.912708e+000 1.399738e+000 -7.175315e+000 144 50 55
-2.192837e+000 1.167176e+000 -6.667172e+000 164 56 59
1.798658e-001 7.089810e-001 -7.431429e+000 69 78 61
5.734772e-001 8.198711e-001 -7.716853e+000 187 164 114
1.145627e+000 4.062628e+000 -1.181966e+001 176 129 92
1.229810e+000 3.909669e+000 -1.175724e+001 178 141 96
-5.506839e-001 3.576652e+000 -1.055923e+001 184 141 89
-2.077175e+000 1.907261e+000 -7.619266e+000 202 187 185
1.657059e+000 9.066042e-001 -8.303713e+000 129 130 73
1.657059e+000 9.066042e-001 -8.303713e+000 129 130 73
4.890729e-001 -1.198254e-001 -6.632231e+000 175 160 100
-1.610155e+000 2.287321e+000 -8.828506e+000 191 173 139
-2.353235e+000 1.205654e+000 -6.750000e+000 196 181 156
-2.181531e-001 1.008199e+000 -7.636433e+000 61 82 66
-1.333345e+000 9.917420e-001 -6.790595e+000 139 120 106
2.448943e-001 4.282300e+000 -1.172505e+001 166 136 108
7.560193e-001 4.898052e-001 -7.452118e+000 167 129 91
-3.166857e+000 4.268829e+000 -1.035029e+001 148 138 83
-1.403402e+000 4.366664e+000 -1.122513e+001 91 102 77
-4.610358e+000 1.878102e+000 -8.273471e+000 127 113 104
-9.996971e-001 1.047765e+000 -7.389706e+000 190 179 173
-4.537602e+000 4.031844e+000 -9.334421e+000 180 169 123
1.301769e+000 3.437822e+000 -1.114500e+001 187 161 111
-1.974939e-001 1.223689e+000 -7.926368e+000 72 76 61
-1.974939e-001 1.223689e+000 -7.926368e+000 72 76 61
4.050467e+000 -5.132468e-001 -8.154717e+000 99 107 79
2.852599e+000 1.808114e+000 -1.029878e+001 84 103 73
-2.814657e+000 3.147240e+000 -8.811610e+000 202 190 181
-6.745540e-001 9.336218e-001 -7.533713e+000 195 184 180
1.255766e+000 4.299066e+000 -1.198966e+001 87 93 83
-3.403750e-001 2.051394e+000 -9.301464e+000 196 181 158
-3.403750e-001 2.051394e+000 -9.301464e+000 196 181 158
-4.387651e+000 3.524261e+000 -8.812025e+000 175 167 128
1.998956e+000 3.162443e+000 -1.106194e+001 70 86 60
1.369781e+000 -5.036069e-002 -7.097243e+000 162 154 90
-4.538095e+000 3.425274e+000 -8.628396e+000 195 179 130
-3.845046e-001 1.483143e+000 -8.139815e+000 71 82 73
6.302989e-001 2.551679e+000 -9.799748e+000 170 159 94
7.357916e-001 2.464449e+000 -9.674826e+000 192 185 159
-2.371471e+000 2.157522e+000 -7.795685e+000 163 59 68
2.535064e+000 1.903823e+000 -9.840199e+000 66 74 64
3.397807e+000 2.944109e-001 -8.519140e+000 131 145 119
3.383957e+000 1.861108e+000 -9.732168e+000 192 195 188
-3.234108e+000 2.941271e+000 -8.754948e+000 209 189 183
-1.893964e+000 1.476723e+000 -7.200937e+000 149 61 69
2.909720e+000 4.926939e-001 -8.207737e+000 69 76 52
2.830674e+000 -6.816041e-001 -7.338743e+000 56 60 37
3.355633e+000 -6.189458e-001 -7.621509e+000 82 87 65
1.673182e+000 -9.727533e-001 -7.045925e+000 81 76 45
1.713711e+000 -1.385502e+000 -7.452418e+000 116 108 71
1.899515e+000 -1.457366e+000 -7.628063e+000 71 64 36
-2.456101e+000 -1.647496e+000 -5.536885e+000 128 118 108
2.726522e-002 -1.584278e+000 -6.812928e+000 131 115 81
1.806383e+000 -1.505425e+000 -7.602656e+000 112 106 70
-2.183919e+000 -1.689286e+000 -5.680869e+000 128 115 106
-2.574673e+000 -2.069430e+000 -5.856125e+000 75 65 56
-1.963549e+000 -1.974564e+000 -6.056630e+000 76 72 61
1.002469e+000 7.887025e-001 -7.817913e+000 141 93 68
2.737463e+000 6.453247e-001 -8.296525e+000 112 125 79
-1.325277e+000 -5.659852e-001 -5.139011e+000 149 146 95
3.278310e+000 -5.651404e-001 -7.472465e+000 64 67 49
3.565905e+000 -5.621652e-001 -7.595475e+000 57 61 37
1.468366e+000 -6.737696e-001 -6.694315e+000 103 101 62
1.539640e+000 -6.706751e-001 -6.766396e+000 100 98 60
2.684136e+000 -7.458225e-001 -7.408792e+000 56 60 37
3.695271e+000 -6.216848e-001 -7.735245e+000 56 57 41
-4.068656e-001 -1.429662e+000 -6.451267e+000 81 66 38
-1.844563e-001 -1.246888e+000 -6.379684e+000 81 65 37
8.463961e-001 -1.279915e+000 -6.925395e+000 128 113 74
1.751102e+000 -1.188056e+000 -7.223019e+000 104 100 65
2.294636e+000 -1.281134e+000 -7.607103e+000 93 93 67
-4.881217e-001 -1.690455e+000 -6.667245e+000 80 66 37
4.493897e-001 -1.581580e+000 -6.999220e+000 141 123 74
-2.144126e+000 -1.785735e+000 -5.783586e+000 127 114 102
-2.691182e-001 -1.907696e+000 -6.968968e+000 79 63 38
-2.043036e+000 -2.244331e+000 -6.299576e+000 70 67 56
-1.029153e+000 -2.594643e+000 -7.264016e+000 137 121 98
-9.653928e-001 -2.596841e+000 -7.316799e+000 84 69 51
-2.166958e+000 -3.114897e+000 -7.243197e+000 125 109 83
-3.026391e+000 -3.494655e+000 -7.201187e+000 112 98 67
1.548742e+000 3.363726e+000 -1.115610e+001 164 142 92
-1.285548e+000 1.121543e+000 -6.989465e+000 201 188 165
1.221391e+000 4.695084e-001 -7.503797e+000 172 157 98
1.223667e+000 4.695726e-001 -7.501875e+000 172 157 98
3.489391e+000 2.208468e-001 -8.103839e+000 153 168 142
7.548357e-001 -8.265322e-001 -6.475232e+000 105 95 59
-4.713753e-001 -1.143553e+000 -6.134790e+000 127 110 65
9.241030e-001 -1.265527e+000 -6.999989e+000 85 71 54
-1.652574e+000 -1.815648e+000 -6.095504e+000 118 102 75
-1.741142e+000 -3.103356e+000 -7.434800e+000 131 115 89
-2.761647e+000 -3.574387e+000 -7.387258e+000 115 101 72
-2.606553e+000 -3.665146e+000 -7.602638e+000 82 67 46
-4.300969e+000 4.152201e+000 -9.838734e+000 185 172 127
4.388913e-001 3.497826e+000 -1.089456e+001 192 164 123
-2.170464e+000 2.156228e+000 -7.869430e+000 204 192 190
2.147721e+000 1.532582e+000 -9.147065e+000 85 77 74
-1.843938e-001 9.912670e-001 -7.661542e+000 75 83 68
6.035676e-001 -1.615601e-001 -6.575792e+000 64 80 69
1.012466e+000 -8.745360e-001 -6.673164e+000 79 72 46
1.365504e+000 -7.026831e-001 -6.652580e+000 102 100 63
