ply
format ascii 1.0
element face 0
property list uchar int vertex_indices
element vertex 868
property float x
property float y
property float z
property uchar diffuse_red
property uchar diffuse_green
property uchar diffuse_blue
end_header
-1.416884e+000 -3.736774e+000 -8.988142e+000 147 126 65
-4.740941e+000 -7.961815e-001 -9.332449e+000 225 145 162
-1.746840e+000 -1.670963e+000 -1.167572e+001 98 77 66
-1.466418e+000 -1.786184e+000 -1.169091e+001 155 108 78
5.954936e-001 -1.636576e+000 -7.776943e+000 165 145 87
-1.581695e+000 -1.813457e+000 -1.158185e+001 103 75 66
-8.326520e+001 8.427119e+001 -1.781551e+002 199 204 211
-4.770988e+001 1.282962e+001 -1.062854e+002 63 47 110
-4.260003e+000 1.089169e+002 -4.933235e+000 121 128 139
-8.498677e+000 1.085536e+002 3.187046e+000 74 65 73
-8.876455e+000 1.191561e+002 -6.358928e+000 64 57 64
-3.613644e+000 5.668882e+001 -1.456860e+001 113 93 86
-6.989304e+000 1.023739e+002 3.106024e+000 50 40 49
-7.628023e+000 1.058783e+002 2.223416e+000 84 77 84
-5.954170e+000 1.031208e+002 8.409177e-001 41 38 45
-6.622367e+000 1.033400e+002 -6.408158e-002 97 92 99
-9.691994e+000 1.203047e+002 -5.181979e+000 97 92 98
-7.565388e+000 1.045602e+002 -6.364501e+000 103 98 104
-9.914671e+000 1.189040e+002 -7.941421e+000 77 68 73
-1.674802e+001 1.190339e+002 -4.037743e-001 93 90 100
-6.164080e+000 9.580595e+001 -6.219469e+000 54 53 59
-1.005464e+000 1.028278e+002 9.805930e-001 149 158 173
-1.005464e+000 1.028278e+002 9.805930e-001 149 158 173
-8.230181e+000 1.158137e+002 -1.450643e-001 94 87 95
-3.493197e+000 -2.581634e+000 -9.733169e+000 159 125 90
-4.385689e+000 -2.030477e+000 -1.000091e+001 152 118 81
-2.760484e+000 -1.078498e+000 -1.200414e+001 118 96 83
-2.004146e+000 -3.406852e+000 -9.307894e+000 142 114 75
-1.588634e+000 -3.283076e+000 -9.649032e+000 138 108 70
-2.238896e+000 -1.630866e+000 -1.152046e+001 74 60 56
1.897499e-001 -1.386671e+000 -1.274900e+001 86 66 43
-7.886396e+000 1.057842e+002 3.560452e+000 93 88 95
-8.068380e+000 1.098871e+002 2.418638e+000 99 96 105
-1.871524e+000 -3.724586e+000 -8.769381e+000 138 125 63
-1.606400e+000 7.633708e+001 8.783225e+000 69 58 56
-1.373770e+000 7.593453e+001 8.017323e+000 101 84 79
-1.044206e+001 1.213199e+002 -3.491069e+000 93 90 97
1.269875e+000 -1.648490e+000 -1.327064e+001 141 129 115
-9.085946e+000 1.050449e+002 4.475038e+000 108 102 112
1.415220e+000 -1.517185e+000 -1.285374e+001 66 63 51
-4.727637e+000 9.893419e+001 3.907210e+000 43 37 49
2.484199e+000 -3.434272e+000 -1.066325e+001 70 60 44
2.381364e+000 -3.548718e+000 -1.081253e+001 100 89 67
2.134682e-001 -1.837863e+000 -1.221242e+001 104 77 50
1.227618e+000 -2.708682e+000 -9.222439e+000 96 88 51
-3.323549e+000 -3.588593e+000 -8.508309e+000 117 101 67
-1.871448e-001 -3.511980e+000 -9.983651e+000 139 129 96
-4.259146e-001 -3.274442e+000 -1.014346e+001 156 138 115
-5.294045e-001 -2.973584e+000 -1.048597e+001 160 134 118
-5.208965e-001 -2.918248e+000 -1.056878e+001 158 136 117
-2.774178e-001 -2.855906e+000 -1.073226e+001 83 72 48
-2.912899e-001 -2.881114e+000 -1.073425e+001 83 72 48
-3.681037e+000 -2.576322e+000 -9.629038e+000 131 123 91
-3.969305e+000 -2.459557e+000 -9.637471e+000 68 74 44
-3.766818e+000 -2.431965e+000 -9.788083e+000 83 82 51
-4.298736e+000 -2.114206e+000 -9.920670e+000 68 79 49
-3.214834e+000 -2.110503e+000 -1.041848e+001 158 129 115
-2.660589e+000 -2.159754e+000 -1.063074e+001 93 73 63
-2.488359e+000 -2.153729e+000 -1.072616e+001 136 116 105
1.240531e+000 -1.431609e+000 -1.306404e+001 103 95 82
-1.926551e+000 -1.757269e+000 -1.146877e+001 69 54 47
-2.463529e+000 -9.777161e-001 -1.217428e+001 108 87 70
-2.461152e+000 -9.806167e-001 -1.217125e+001 108 87 70
-4.386168e+000 -4.028874e-001 -1.200008e+001 126 117 78
-4.389711e+000 -4.103717e-001 -1.199824e+001 126 117 78
-4.075292e+000 -9.415942e-002 -1.247676e+001 83 81 51
1.390863e-002 -3.536240e+000 -9.992106e+000 85 90 62
-3.500811e+000 -3.605499e+000 -8.427202e+000 118 104 63
-3.403355e+000 -3.505479e+000 -8.462311e+000 121 104 63
-3.573411e+000 -3.496053e+000 -8.530531e+000 125 106 70
-2.114021e+000 -3.445660e+000 -9.260136e+000 148 119 74
-3.588499e+000 -3.307683e+000 -8.574272e+000 91 76 45
-3.588499e+000 -3.307683e+000 -8.574272e+000 91 76 45
-3.422274e+000 -3.273685e+000 -8.874725e+000 141 115 70
-2.384891e+000 -3.043761e+000 -9.379346e+000 153 117 71
-3.632668e+000 -2.634594e+000 -9.606163e+000 59 67 41
-1.358291e+000 -2.047259e+000 -1.135801e+001 90 66 51
-3.158958e-001 -9.347639e-001 -1.340333e+001 96 80 57
-4.243871e+000 -4.195756e-001 -1.205973e+001 153 125 77
3.446671e+000 7.134136e+001 9.414852e+000 78 72 74
-3.045881e+000 -3.085331e+000 -7.587175e+000 104 95 56
-3.134487e+000 -3.417473e+000 -7.759010e+000 93 85 54
4.495627e-001 -3.162195e+000 -9.256994e+000 125 110 67
-2.756234e+000 -3.521613e+000 -8.868524e+000 88 68 35
-2.545402e+000 -3.313745e+000 -8.957045e+000 92 67 37
-2.255048e+000 -3.610546e+000 -8.965478e+000 103 79 48
-2.255048e+000 -3.610546e+000 -8.965478e+000 103 79 48
-1.960030e+000 -3.496187e+000 -9.247785e+000 112 89 57
-1.340509e+000 -3.460182e+000 -9.554012e+000 106 85 53
-3.319915e-001 -3.326265e+000 -1.015166e+001 106 90 73
-3.319915e-001 -3.326265e+000 -1.015166e+001 106 90 73
-3.345949e+000 -3.375843e+000 -8.783476e+000 130 106 69
-3.248433e+000 -3.367365e+000 -8.828508e+000 131 105 65
-3.052726e+000 -3.413665e+000 -8.861851e+000 105 78 49
-2.186829e+000 -3.393938e+000 -9.272258e+000 124 97 67
-1.545964e+000 -3.243619e+000 -9.743517e+000 121 100 69
-9.901783e-001 -3.297821e+000 -9.866672e+000 87 70 41
-1.154955e-001 -2.651980e+000 -1.106251e+001 86 86 58
-3.939631e+000 -2.351528e+000 -9.779531e+000 161 128 87
-1.654783e+000 -2.207864e+000 -1.100869e+001 156 133 115
3.434068e-001 -1.931753e+000 -1.217575e+001 110 95 62
-3.102140e+000 -2.094366e+000 -1.053475e+001 122 95 84
8.752288e-002 -1.631106e+000 -1.242929e+001 99 72 51
-2.787094e-001 -8.323837e-001 -1.330680e+001 120 100 69
-7.032687e-002 -8.211057e-001 -1.341680e+001 117 98 69
1.047134e-001 -1.551184e+000 -7.439727e+000 125 109 84
1.689956e+000 7.667146e+001 3.823261e+000 66 62 68
-3.672466e+000 -6.612472e-001 -6.978992e+000 209 197 142
-3.559442e+000 -3.645925e+000 -8.332586e+000 87 79 50
-3.859932e+000 -3.215683e+000 -8.574505e+000 94 80 51
-2.488874e+000 -3.285337e+000 -9.289339e+000 110 81 49
-1.089919e+000 -2.042290e+000 -1.146507e+001 154 115 84
-2.703160e+000 -2.054092e+000 -1.075314e+001 84 65 59
-5.109118e+000 -1.309743e-001 -9.908346e+000 184 117 132
-5.109307e+000 -2.319022e-001 -9.931388e+000 184 117 132
-2.903302e+000 -1.716911e+000 -1.111490e+001 101 78 71
-4.676456e+000 -1.333229e+000 -1.074981e+001 127 108 78
6.446239e-001 -4.504682e-001 -1.418468e+001 75 62 53
-2.872551e+000 5.838565e-003 -1.307946e+001 125 107 70
-2.373643e+000 -1.522033e+000 -6.264154e+000 95 91 82
3.340657e+000 -7.599558e-001 -8.301917e+000 209 209 201
-6.386994e-001 -3.737460e+000 -9.367018e+000 160 140 77
-7.017614e-001 -3.039570e+000 -1.058496e+001 160 134 113
-2.051511e+000 -1.383364e+000 -1.185778e+001 82 61 58
-2.870877e+000 -9.604530e-001 -1.199956e+001 167 132 110
6.076406e-001 9.586853e-001 -1.547635e+001 168 157 142
6.026550e-002 6.978251e+001 1.409920e+001 108 97 88
5.108624e-001 7.002906e+001 1.292162e+001 59 50 53
5.098944e-001 7.009277e+001 1.294166e+001 59 50 53
-2.676376e+000 -1.548090e+000 -1.157497e+001 97 77 70
-1.801555e+000 -1.438152e+000 -1.192443e+001 146 106 78
1.072057e+000 6.853956e+001 1.436840e+001 59 53 53
1.101113e+000 6.872508e+001 1.443077e+001 59 53 53
-2.048334e+000 -2.112771e+000 -1.095613e+001 115 91 81
1.206371e+000 -1.205234e+000 -1.325774e+001 57 54 40
1.888348e-001 9.736262e-001 -1.529474e+001 104 103 83
1.522334e+000 6.687884e+001 1.638093e+001 56 47 48
1.403529e+000 6.974653e+001 1.363102e+001 110 100 91
5.112633e-001 7.077719e+001 1.196370e+001 104 95 87
1.930353e+000 6.827736e+001 1.535654e+001 110 100 88
-1.631183e+000 6.889309e+001 1.533553e+001 66 56 55
-1.631183e+000 6.889309e+001 1.533553e+001 66 56 55
1.409743e-001 6.823518e+001 1.571682e+001 103 89 80
-5.400035e+000 7.033893e+001 1.290502e+001 64 58 62
-3.827155e+000 7.015553e+001 1.442954e+001 107 99 94
-3.827155e+000 7.015553e+001 1.442954e+001 107 99 94
-3.123898e+000 -1.655127e+000 -1.136564e+001 167 125 82
-5.646364e+000 4.470513e-001 -1.219822e+001 115 103 65
-4.305580e+000 -1.919060e+000 -9.911649e+000 142 114 80
-3.606747e+000 -3.288620e+000 -8.452844e+000 109 96 62
-1.972929e+000 -2.600234e+000 -1.034994e+001 169 137 111
-2.378284e+000 -1.872131e+000 -1.128434e+001 70 56 53
-7.808990e-002 4.915839e-003 -1.435225e+001 94 89 69
-2.496342e-002 -3.490378e+000 -1.002468e+001 145 144 120
9.304869e-002 -3.386733e+000 -1.021908e+001 76 81 55
-2.859122e+000 -3.674778e+000 -8.690614e+000 108 84 48
-5.625955e-001 -2.561001e+000 -1.104473e+001 108 104 75
-5.875340e-001 -2.417593e+000 -1.118052e+001 164 151 124
-2.191048e+000 -1.236354e+000 -1.199220e+001 103 82 65
-2.511854e+000 -3.662928e+000 -8.876942e+000 110 87 53
-2.059145e+000 -3.497058e+000 -9.214824e+000 110 88 51
-3.535815e+000 -2.611053e+000 -9.633649e+000 178 149 107
-1.436880e-001 -1.234073e+000 -1.282738e+001 116 86 48
-3.435672e+000 -3.672731e+000 -8.398186e+000 98 84 49
-3.059414e+000 -3.654869e+000 -8.591176e+000 110 91 51
5.458098e+000 6.378071e+001 2.019661e+001 104 94 95
3.971380e+000 6.581939e+001 1.746303e+001 109 97 96
-4.468105e+000 -1.942352e+000 -1.008322e+001 83 93 58
-1.956608e+000 -1.985030e+000 -1.117476e+001 139 107 84
-2.538610e+000 -1.498819e+000 -1.149547e+001 112 93 79
-2.660752e+000 -1.042813e+000 -1.196352e+001 159 132 121
-3.565030e-001 -3.217572e+000 -1.024320e+001 168 150 127
-5.780377e-001 -2.905762e+000 -1.053864e+001 173 150 127
-5.755674e-001 -2.904577e+000 -1.053826e+001 173 150 127
-4.472337e+000 -1.752695e+000 -1.032883e+001 139 118 79
4.422181e+000 6.208783e+001 2.136628e+001 91 86 80
-1.910626e+000 -1.713676e+000 -1.167757e+001 95 76 67
-4.340272e+000 -4.756390e-001 -1.194977e+001 108 110 71
-4.753035e-001 6.607841e+001 1.692607e+001 74 69 70
-9.101472e+000 1.152685e+002 1.629368e+000 98 91 98
-1.177403e+001 1.018729e+002 1.179357e+001 93 86 98
-2.497169e+000 1.142490e+002 -2.155553e+000 68 71 86
-3.589847e+000 -3.586328e+000 -8.390899e+000 114 100 65
-3.589847e+000 -3.586328e+000 -8.390899e+000 114 100 65
-3.192268e+000 -3.508278e+000 -8.669255e+000 130 109 69
-3.194890e+000 -3.247048e+000 -8.973930e+000 141 112 69
-3.971512e+000 -2.467441e+000 -9.636209e+000 68 74 44
-1.472055e+000 -1.866030e+000 -1.153874e+001 126 97 79
-2.771525e+000 -1.699926e+000 -1.115392e+001 92 72 65
-4.737364e+000 -1.198540e+000 -1.087123e+001 92 74 41
-4.535588e-001 -6.623828e-001 -1.337389e+001 122 105 75
-2.254095e+000 -3.547040e+000 -9.035505e+000 139 115 70
-2.110051e+000 -3.438262e+000 -9.255787e+000 148 119 74
-9.053711e-001 -3.432029e+000 -9.759251e+000 90 77 45
-8.732676e-001 -3.377361e+000 -9.839114e+000 115 100 67
-3.645284e+000 -3.324714e+000 -8.698382e+000 95 78 48
-3.645284e+000 -3.324714e+000 -8.698382e+000 95 78 48
-2.752817e+000 -3.274559e+000 -9.144015e+000 112 82 49
-9.015528e+000 1.123928e+002 1.705641e+000 106 99 107
-3.267640e+000 -3.665800e+000 -8.480334e+000 89 73 40
-3.267640e+000 -3.665800e+000 -8.480334e+000 89 73 40
-2.938794e+000 -3.474273e+000 -8.853757e+000 136 110 69
-2.150806e+000 -3.491389e+000 -9.159078e+000 115 91 55
-1.030578e+000 -3.210862e+000 -9.997139e+000 120 100 72
-9.327619e+000 5.866507e+001 -1.068566e+001 78 69 72
-1.188401e-002 -5.343642e-001 -1.367866e+001 81 68 51
-6.901501e-001 -9.738416e-003 -1.407170e+001 124 110 84
-1.894121e+000 9.249897e-001 -1.444815e+001 239 237 238
1.715103e+000 7.695868e+001 3.857874e+000 66 62 68
-1.050041e+001 1.021075e+002 1.216535e+001 73 70 77
-8.678003e+000 1.182897e+002 -5.394330e+000 105 98 106
-1.037828e+001 9.600304e+001 1.204234e+001 68 63 70
-4.934755e+000 6.951296e+001 1.474758e+001 68 66 66
-1.146311e+001 1.013999e+002 1.334305e+001 129 123 133
-1.078190e+001 9.880334e+001 9.829496e+000 97 93 107
-3.596842e+000 -1.468972e+000 -7.009184e+000 218 216 142
-1.683215e+000 -3.459748e+000 -8.632913e+000 157 141 97
-3.778134e+000 -3.677597e+000 -8.229345e+000 126 118 72
-5.591077e-001 -3.646519e+000 -9.551822e+000 118 113 73
-3.420409e+000 -3.516295e+000 -8.602792e+000 128 110 72
-2.391320e+000 -3.238359e+000 -9.067031e+000 113 85 45
-1.997747e+000 -3.561427e+000 -9.188699e+000 146 123 82
-1.048992e-001 -3.332533e+000 -1.007167e+001 156 145 125
-1.048992e-001 -3.332533e+000 -1.007167e+001 156 145 125
-7.080843e-001 -3.082261e+000 -1.005027e+001 132 114 74
-2.442017e-001 -3.161876e+000 -1.031025e+001 156 142 114
-4.400162e+000 -3.113192e+000 -9.024653e+000 146 119 72
-2.416015e-001 -3.012306e+000 -1.046198e+001 122 123 92
-4.166842e-002 -2.973111e+000 -1.070547e+001 162 156 130
-4.243779e-001 -2.899386e+000 -1.060864e+001 167 146 128
-3.902969e+000 -2.570436e+000 -9.684361e+000 110 92 54
-3.450173e+000 -2.676611e+000 -9.622933e+000 182 144 96
-3.593574e+000 -2.645800e+000 -9.731955e+000 107 92 57
-4.707858e+000 -1.222793e+000 -9.203810e+000 229 135 140
-4.098320e+000 -2.412188e+000 -9.792816e+000 92 93 58
-4.626583e-001 -2.358837e+000 -1.127856e+001 146 124 74
-4.831620e+000 -9.464636e-001 -9.477248e+000 221 125 135
-2.983606e+000 -2.152101e+000 -1.071769e+001 97 72 66
-2.983606e+000 -2.152101e+000 -1.071769e+001 97 72 66
-2.437646e+000 -2.010198e+000 -1.091325e+001 115 95 88
-1.868923e+000 -2.079861e+000 -1.108832e+001 95 72 63
-1.826134e+000 -2.024567e+000 -1.113960e+001 139 111 97
-1.567457e+000 -2.020413e+000 -1.124297e+001 126 107 92
-4.546883e+000 -2.031437e+000 -1.007225e+001 75 83 51
-2.730195e+000 -1.800259e+000 -1.107243e+001 117 97 88
-2.668861e+000 -1.783548e+000 -1.112168e+001 84 62 56
-5.096050e+000 -1.600415e-001 -9.794882e+000 154 88 91
-5.088902e+000 -3.416535e-001 -9.845640e+000 229 211 208
-2.988483e+000 -1.727720e+000 -1.099322e+001 162 133 119
-2.967811e+000 -1.650930e+000 -1.112282e+001 152 124 112
-2.634172e+000 -1.826704e+000 -1.117611e+001 103 79 69
-2.564925e+000 -1.676730e+000 -1.126414e+001 79 59 52
-1.914698e+000 -1.737784e+000 -1.146450e+001 74 57 55
-2.943828e+000 -1.449193e+000 -1.138119e+001 149 117 101
-4.674226e+000 -1.263700e+000 -1.084924e+001 166 139 88
-4.680735e+000 -1.279242e+000 -1.085427e+001 166 139 88
-4.744743e+000 -1.220439e+000 -1.087907e+001 103 87 53
-4.702153e+000 -1.204536e+000 -1.093568e+001 165 139 94
-2.744708e+000 -1.019627e+000 -1.202029e+001 124 98 84
-2.353640e+000 -1.046809e+000 -1.212187e+001 130 108 87
-1.004993e-001 -9.256034e-001 -1.299116e+001 130 105 67
-2.422403e-001 -9.497107e-001 -1.303845e+001 132 108 72
-2.422403e-001 -9.497107e-001 -1.303845e+001 132 108 72
8.090748e-002 -1.108185e+000 -1.298679e+001 105 81 53
1.421063e-001 -1.016150e+000 -1.298730e+001 105 81 53
-4.687198e+000 -1.043037e+000 -1.117083e+001 155 135 87
-4.572650e+000 -6.832831e-001 -1.162095e+001 156 132 89
-4.295435e+000 -6.246981e-001 -1.194043e+001 84 83 49
-4.295341e+000 -5.186443e-001 -1.197623e+001 167 146 97
-4.295341e+000 -5.186443e-001 -1.197623e+001 167 146 97
-5.940699e-001 -3.541677e-001 -1.364335e+001 136 112 77
7.185068e-001 -4.688000e-001 -1.404331e+001 123 114 95
6.746626e-001 -5.411790e-001 -1.403915e+001 123 114 95
-5.747468e+000 1.855604e+000 -1.093652e+001 159 146 121
-4.498477e+000 -3.905167e-001 -1.196116e+001 83 88 51
-4.498477e+000 -3.905167e-001 -1.196116e+001 83 88 51
-4.451021e+000 -6.519434e-001 -1.196018e+001 75 83 54
-4.089228e+000 -2.898447e-001 -1.230913e+001 93 85 48
-4.086595e+000 -2.950508e-001 -1.231299e+001 93 85 48
-4.004496e+000 -5.026998e-001 -1.242766e+001 169 132 78
-2.077348e+000 -1.981924e-001 -1.324787e+001 151 131 81
-2.080105e+000 -2.042093e-001 -1.324178e+001 151 131 81
-4.274788e+000 -1.367218e-001 -1.241183e+001 85 84 49
-4.285000e+000 -1.533528e-001 -1.241649e+001 85 84 49
-4.108460e+000 -2.059760e-001 -1.248204e+001 80 91 64
-3.870419e+000 -3.998709e-002 -1.266556e+001 92 95 59
-3.870419e+000 -3.998709e-002 -1.266556e+001 92 95 59
-3.516680e+000 -4.845928e-002 -1.274522e+001 86 90 66
-3.516680e+000 -4.845928e-002 -1.274522e+001 86 90 66
-2.334674e+000 -7.858082e-002 -1.326036e+001 119 100 54
-9.047135e-001 3.527387e-001 -1.424744e+001 126 113 81
-9.633092e-001 -1.709414e+000 -7.042667e+000 192 175 148
-3.751395e+000 -1.173939e+000 -7.167671e+000 139 127 90
-2.874093e+000 -3.712069e+000 -8.705145e+000 108 84 48
-2.857002e+000 -3.591128e+000 -8.752035e+000 146 123 81
-3.830869e+000 -1.046522e+000 -7.323252e+000 146 130 111
-3.916495e+000 -3.418245e+000 -8.490993e+000 127 113 70
-3.916495e+000 -3.418245e+000 -8.490993e+000 127 113 70
-3.830284e+000 -3.437280e+000 -8.471741e+000 102 88 53
-3.314255e+000 -3.482676e+000 -8.651034e+000 144 120 78
-3.328537e+000 -3.515471e+000 -8.665944e+000 144 120 78
-3.086315e+000 -3.501293e+000 -8.796210e+000 151 127 81
-3.086315e+000 -3.501293e+000 -8.796210e+000 151 127 81
-2.959883e+000 -3.367781e+000 -8.978761e+000 158 127 80
-2.959883e+000 -3.367781e+000 -8.978761e+000 158 127 80
-2.641564e+000 -3.357558e+000 -9.132102e+000 154 126 79
-2.641072e+000 -3.349220e+000 -9.127630e+000 154 126 79
-2.477778e+000 -3.558927e+000 -8.957483e+000 150 123 78
-2.370245e+000 -3.451596e+000 -9.123996e+000 158 127 83
-2.440679e+000 -3.481920e+000 -9.210757e+000 123 95 57
-2.109051e+000 -3.451495e+000 -9.270007e+000 149 126 79
-2.115294e+000 -3.457715e+000 -9.271647e+000 149 126 79
-1.903296e+000 -3.549628e+000 -9.212489e+000 150 126 82
-1.899798e+000 -3.541739e+000 -9.211982e+000 150 126 82
-1.702291e+000 -3.421282e+000 -9.444243e+000 150 123 76
-1.318200e+000 -3.407692e+000 -9.629787e+000 139 117 76
-1.318200e+000 -3.407692e+000 -9.629787e+000 139 117 76
-6.911108e-001 -3.561154e+000 -9.626722e+000 116 108 69
-8.425385e-001 -3.472899e+000 -9.708410e+000 124 110 71
-7.055733e-001 -3.480055e+000 -9.780882e+000 117 109 71
1.443372e-001 -3.476713e+000 -1.002197e+001 121 128 100
3.358666e-001 -3.488980e+000 -1.006663e+001 122 129 98
-3.202408e+000 -3.254593e+000 -8.987571e+000 159 129 77
-2.454059e+000 -3.317303e+000 -9.208500e+000 159 131 83
-2.412852e+000 -3.368689e+000 -9.263470e+000 155 127 80
-2.412852e+000 -3.368689e+000 -9.263470e+000 155 127 80
-2.397718e+000 -3.310159e+000 -9.333346e+000 112 82 44
-2.655703e+000 -3.374449e+000 -9.318001e+000 167 133 79
-1.793121e+000 -3.305560e+000 -9.537462e+000 147 116 71
-1.376451e+000 -3.290624e+000 -9.747002e+000 144 117 74
-1.375101e+000 -3.289402e+000 -9.747048e+000 144 117 74
-8.544374e-001 -3.358235e+000 -9.833264e+000 131 113 77
-8.730371e-001 -3.376238e+000 -9.837354e+000 131 113 77
-7.449276e-001 -3.368311e+000 -9.902220e+000 123 111 71
-7.449276e-001 -3.368311e+000 -9.902220e+000 123 111 71
-9.272255e-001 -3.260280e+000 -9.956436e+000 138 118 81
-1.341713e-001 -3.250098e+000 -1.028097e+001 158 146 119
-4.556140e+000 -1.296728e+000 -8.838638e+000 236 222 214
-3.540558e+000 -2.692976e+000 -9.762183e+000 184 145 106
-6.431840e-001 -2.514570e+000 -1.104712e+001 167 153 131
-4.396584e-001 -2.493514e+000 -1.114264e+001 138 133 104
-4.648114e+000 -6.469152e-001 -8.963902e+000 198 108 116
-4.648114e+000 -6.469152e-001 -8.963902e+000 198 108 116
-4.137479e+000 -2.284555e+000 -9.839811e+000 75 84 57
-8.339955e-001 -2.365176e+000 -1.117676e+001 107 90 73
-7.215649e-001 -2.306579e+000 -1.122735e+001 173 147 126
-4.791828e+000 -6.737747e-001 -9.309384e+000 241 219 216
-4.250248e+000 -2.193127e+000 -9.912233e+000 81 83 60
-2.144712e+000 -1.816697e+000 -1.124518e+001 75 58 51
-4.622978e+000 -1.624548e+000 -1.055494e+001 168 137 91
-2.888339e+000 -1.635762e+000 -1.128735e+001 116 88 73
1.347909e+000 -1.947897e+000 -1.329820e+001 83 70 56
-5.108649e+000 -7.591206e-002 -9.994008e+000 182 107 102
-4.673655e+000 -1.505292e+000 -1.055562e+001 116 93 55
-2.880347e+000 -1.326082e+000 -1.148517e+001 137 113 101
-2.650248e+000 -1.467111e+000 -1.151693e+001 92 72 63
-2.529733e+000 -1.251410e+000 -1.181176e+001 126 103 85
5.633827e-002 -1.352226e+000 -1.259945e+001 112 79 46
-2.191329e+000 -1.133944e+000 -1.205314e+001 166 142 115
1.986110e-002 -8.782497e-001 -1.329409e+001 123 99 70
3.000508e-001 -6.591775e-001 -1.357548e+001 92 82 59
-4.424285e+000 -3.308325e-001 -1.208673e+001 73 84 45
-3.987054e+000 -2.222450e-001 -1.241138e+001 91 91 60
-4.277082e+000 -1.391647e-001 -1.233103e+001 158 127 73
-3.970204e+000 -1.781104e-001 -1.248678e+001 153 127 75
-3.970204e+000 -1.781104e-001 -1.248678e+001 153 127 75
-3.946773e+000 -3.528602e-001 -1.251070e+001 90 84 54
-3.712337e+000 -1.566070e-001 -1.264627e+001 89 84 63
-3.712337e+000 -1.566070e-001 -1.264627e+001 89 84 63
-3.777859e+000 -3.248316e-002 -1.271030e+001 78 91 67
-3.779264e+000 -3.207433e-002 -1.271040e+001 78 91 67
-9.147592e-001 7.803578e-001 -1.439983e+001 132 122 83
6.532759e-001 1.440617e+000 -1.530645e+001 174 161 145
-1.533983e+000 -2.383315e+000 -7.420224e+000 189 174 143
-1.908852e+000 -3.610258e+000 -8.570998e+000 175 162 119
-3.736741e+000 -1.444557e+000 -7.244518e+000 223 217 149
-3.855603e+000 -3.572281e+000 -8.323409e+000 93 83 48
-3.714518e+000 -3.642723e+000 -8.331391e+000 126 114 69
-3.732060e+000 -3.586989e+000 -8.392960e+000 93 82 53
-3.732060e+000 -3.586989e+000 -8.392960e+000 93 82 53
-3.425041e+000 -3.600822e+000 -8.460841e+000 127 112 71
-3.434946e+000 -3.628265e+000 -8.473145e+000 127 112 71
-3.378155e+000 -3.694736e+000 -8.444582e+000 98 84 49
-3.253219e+000 -3.553752e+000 -8.635289e+000 114 94 55
-2.931598e+000 -3.635709e+000 -8.733997e+000 145 122 78
-2.634455e+000 -3.642433e+000 -8.799675e+000 105 83 48
-1.723308e+000 -3.736785e+000 -9.207352e+000 145 125 77
-8.579621e-001 -3.649428e+000 -9.492466e+000 96 87 52
-3.781150e+000 -7.654800e-001 -7.142261e+000 226 210 150
-3.922887e+000 -3.724258e+000 -8.482734e+000 127 114 70
-3.711487e+000 -3.561970e+000 -8.494274e+000 132 117 75
-3.297646e+000 -3.458044e+000 -8.752514e+000 113 91 53
-3.000496e+000 -3.452556e+000 -8.717063e+000 111 89 50
-2.859252e+000 -3.402660e+000 -8.745221e+000 109 87 50
-2.859252e+000 -3.402660e+000 -8.745221e+000 109 87 50
-2.994353e+000 -3.468148e+000 -8.815637e+000 146 122 78
-2.898704e+000 -3.448877e+000 -8.958274e+000 109 86 45
-2.898704e+000 -3.448877e+000 -8.958274e+000 109 86 45
-2.829825e+000 -3.492001e+000 -8.912179e+000 154 125 81
-2.712287e+000 -3.476899e+000 -8.969067e+000 155 122 80
-2.429283e+000 -3.511472e+000 -9.025077e+000 117 90 55
-2.309122e+000 -3.514063e+000 -9.092495e+000 108 82 47
-2.303311e+000 -3.500815e+000 -9.087633e+000 108 82 47
-2.170507e+000 -3.553664e+000 -9.076666e+000 144 120 72
-2.081875e+000 -3.562675e+000 -9.137937e+000 149 123 74
-2.039130e+000 -3.466606e+000 -9.201053e+000 110 88 51
-2.271599e+000 -3.487902e+000 -9.194978e+000 151 124 79
-2.271599e+000 -3.487902e+000 -9.194978e+000 151 124 79
-2.000113e+000 -3.427113e+000 -9.303938e+000 158 128 76
-1.997970e+000 -3.423604e+000 -9.302440e+000 158 128 76
-2.080053e+000 -3.395141e+000 -9.353656e+000 121 93 54
-2.080053e+000 -3.395141e+000 -9.353656e+000 121 93 54
-1.698334e+000 -3.615937e+000 -9.267026e+000 113 92 62
-1.730283e+000 -3.514186e+000 -9.286958e+000 144 122 74
-1.832876e+000 -3.480758e+000 -9.327087e+000 114 90 54
-1.834893e+000 -3.487774e+000 -9.329570e+000 114 90 54
-1.491152e+000 -3.519115e+000 -9.403396e+000 143 118 77
-1.475581e+000 -3.497139e+000 -9.396450e+000 143 118 77
-1.279798e+000 -3.564131e+000 -9.441448e+000 102 81 48
-1.361804e+000 -3.495679e+000 -9.461968e+000 139 119 76
-1.604457e+000 -3.468497e+000 -9.427707e+000 117 94 55
-1.604457e+000 -3.468497e+000 -9.427707e+000 117 94 55
-1.481668e+000 -3.452246e+000 -9.476384e+000 114 94 59
-1.427486e+000 -3.408904e+000 -9.569818e+000 140 119 76
-1.057063e+000 -3.547788e+000 -9.555371e+000 101 88 54
-1.166158e+000 -3.383488e+000 -9.696250e+000 132 111 74
-1.166158e+000 -3.383488e+000 -9.696250e+000 132 111 74
-1.100114e+000 -3.446507e+000 -9.659521e+000 103 87 54
-7.793535e-001 -3.512754e+000 -9.560499e+000 119 106 71
-7.855642e-001 -3.543515e+000 -9.680909e+000 83 76 44
-7.813635e-001 -3.539219e+000 -9.680465e+000 83 76 44
-5.536057e-001 -3.509979e+000 -9.667536e+000 117 110 71
-8.945384e-001 -3.419231e+000 -9.757857e+000 102 88 53
-9.036733e-001 -3.430291e+000 -9.760436e+000 102 88 53
-5.838624e-001 -3.504780e+000 -9.758427e+000 99 93 57
1.637979e-001 -3.567357e+000 -9.946642e+000 88 101 69
1.903033e-001 -3.499411e+000 -1.010144e+001 73 95 74
2.010411e-001 -3.397058e+000 -1.016488e+001 167 158 138
6.517184e+000 6.298468e+001 1.976076e+001 74 66 64
-3.345303e+000 -3.341925e+000 -8.880803e+000 110 89 49
-3.201002e+000 -3.318911e+000 -8.931909e+000 108 84 48
-3.021993e+000 -3.324846e+000 -9.024323e+000 107 81 46
-2.277587e+000 -3.363436e+000 -9.329563e+000 161 130 82
-2.277587e+000 -3.363436e+000 -9.329563e+000 161 130 82
-1.778077e+000 -3.383663e+000 -9.490757e+000 102 78 44
-1.778077e+000 -3.383663e+000 -9.490757e+000 102 78 44
-1.522027e+000 -3.351268e+000 -9.598784e+000 115 90 54
-1.522027e+000 -3.351268e+000 -9.598784e+000 115 90 54
-1.585920e+000 -3.304969e+000 -9.655339e+000 143 114 70
-1.577493e+000 -3.288869e+000 -9.649450e+000 143 114 70
-1.411847e+000 -3.342531e+000 -9.667470e+000 101 81 46
-1.411847e+000 -3.342531e+000 -9.667470e+000 101 81 46
-1.483368e+000 -3.293115e+000 -9.695629e+000 144 120 75
-1.488267e+000 -3.299323e+000 -9.697332e+000 144 120 75
-1.336587e+000 -3.197353e+000 -9.817385e+000 100 76 50
-1.262544e+000 -3.286079e+000 -9.803834e+000 141 117 79
-1.256074e+000 -3.221515e+000 -9.875347e+000 100 83 50
-1.079531e+000 -3.274983e+000 -9.882775e+000 140 123 79
-1.824506e-001 -3.432906e+000 -1.024413e+001 152 141 119
-5.153219e-001 -2.611428e+000 -1.098436e+001 172 157 135
-5.155669e-001 -2.611121e+000 -1.098374e+001 172 157 135
-3.955035e+000 -2.373843e+000 -9.773875e+000 172 143 99
-4.776166e+000 -6.496063e-001 -9.184353e+000 203 92 106
-4.249152e+000 -2.127810e+000 -9.990200e+000 185 147 99
-4.249152e+000 -2.127810e+000 -9.990200e+000 185 147 99
-4.162388e+000 -2.275976e+000 -9.929531e+000 179 143 99
-4.155237e+000 -2.161091e+000 -9.989711e+000 86 88 65
-2.826597e+000 -2.235850e+000 -1.059599e+001 101 79 68
-1.867132e+000 -2.205502e+000 -1.095075e+001 158 136 113
4.030293e-001 -2.048249e+000 -1.206539e+001 113 99 65
-4.795101e+000 1.434334e+000 -8.881075e+000 143 129 121
-4.826271e+000 -4.402808e-001 -9.311438e+000 204 104 110
-2.987397e+000 -1.903954e+000 -1.080507e+001 100 76 66
-1.271031e+000 -1.878860e+000 -1.159132e+001 163 117 81
3.841557e-001 -1.700337e+000 -1.241894e+001 89 72 46
-4.946384e+000 -4.338826e-001 -9.690252e+000 216 122 137
-2.726447e+000 -1.642773e+000 -1.122272e+001 130 108 95
-2.731244e+000 -1.653381e+000 -1.122707e+001 130 108 95
3.721694e+000 7.030047e+001 8.987902e+000 42 37 41
1.223511e-001 -7.946352e-001 -1.310053e+001 101 79 51
2.859175e-001 -8.984493e-001 -1.316459e+001 80 65 43
1.901711e-001 -8.133123e-001 -1.331250e+001 71 57 38
-1.231640e-001 -5.096260e-001 -1.362838e+001 124 105 75
-2.286289e-001 -4.111627e-001 -1.375978e+001 117 101 68
1.218147e-001 -5.192748e-001 -1.367282e+001 111 94 69
7.401184e-002 -5.883447e-001 -1.367313e+001 111 94 69
1.845740e-001 -7.758961e-002 -1.396631e+001 89 77 51
-4.205881e+000 -3.645555e-001 -1.218226e+001 83 88 58
-4.440177e+000 -2.601726e-001 -1.218118e+001 153 124 79
-4.323107e+000 -2.559263e-001 -1.224763e+001 77 91 64
-4.324165e+000 -2.649963e-001 -1.225264e+001 77 91 64
-4.024405e-001 -2.876302e-001 -1.383372e+001 104 87 60
-2.697907e-001 -1.963091e-001 -1.404068e+001 98 84 57
-3.606384e+000 1.906045e-002 -1.283340e+001 89 95 61
-5.894497e-001 2.230804e-001 -1.425537e+001 92 80 58
-1.099102e+000 1.173916e+000 -1.484176e+001 229 223 213
-1.072200e-002 1.000732e+000 -1.533235e+001 237 236 229
8.768564e+000 5.903699e+001 2.395198e+001 83 73 71
-1.308830e+000 -3.836285e+000 -9.055576e+000 176 158 113
6.785977e+000 6.426278e+001 2.407723e+001 63 57 61
-3.692100e+000 -3.661639e+000 -8.243711e+000 95 85 50
-3.175727e+000 -3.670028e+000 -8.515062e+000 107 89 53
-3.674866e+000 -3.470290e+000 -8.570046e+000 110 94 61
-3.674866e+000 -3.470290e+000 -8.570046e+000 110 94 61
-3.425619e+000 -3.299828e+000 -8.782900e+000 110 91 58
-3.163532e+000 -3.434199e+000 -8.795212e+000 115 97 55
-2.589868e+000 -3.511006e+000 -8.953280e+000 116 92 56
-1.680004e+000 -3.232313e+000 -9.672190e+000 115 85 52
-2.656558e-001 -3.369762e+000 -1.007669e+001 161 145 119
-6.278690e-001 -2.836590e+000 -1.063036e+001 170 148 127
7.751846e-001 -2.837824e+000 -1.117267e+001 80 79 51
-3.954625e+000 -2.498608e+000 -9.698414e+000 75 88 59
-3.977146e+000 -2.194875e+000 -9.640513e+000 181 139 96
-4.632213e-001 -2.413300e+000 -1.120489e+001 94 99 68
-4.632213e-001 -2.413300e+000 -1.120489e+001 94 99 68
-2.361224e+000 -2.193274e+000 -1.071978e+001 165 143 122
-1.565211e+000 -1.773046e+000 -1.159976e+001 104 75 67
-7.387253e+000 6.965860e+001 1.544017e+001 132 124 121
-7.879410e+000 7.083654e+001 1.551419e+001 93 87 88
-6.835807e+000 6.925746e+001 1.517990e+001 100 92 89
-4.583316e+000 -1.618092e+000 -1.046133e+001 146 121 80
-1.935875e+000 -1.648505e+000 -1.161627e+001 74 61 50
-1.300246e-001 7.063307e+001 1.128251e+001 86 76 74
-4.641146e+000 -1.435027e+000 -1.064686e+001 176 138 93
-4.662935e+000 -1.138461e+000 -1.100819e+001 155 133 95
-2.933194e+000 -1.199187e+000 -1.180240e+001 174 140 112
-2.627638e+000 -1.195780e+000 -1.187264e+001 107 83 73
-2.818773e-001 -8.366767e-001 -1.330765e+001 126 102 66
-5.307690e-001 -2.719792e-001 -1.379633e+001 130 108 71
-3.013927e+000 4.154091e-002 -1.302257e+001 117 102 59
-8.551109e-001 3.073136e-001 -1.416977e+001 101 87 58
7.182433e-001 -4.910641e+000 -1.604302e+001 245 238 232
1.838659e+001 7.220555e+001 3.295348e+001 123 106 96
1.652117e+001 6.643427e+001 2.853013e+001 129 116 103
1.536227e+001 6.416589e+001 2.632302e+001 66 56 50
6.826058e+000 6.019948e+001 2.381941e+001 60 53 52
8.938627e+000 6.565057e+001 2.451487e+001 72 62 60
-3.582687e+000 -3.299284e+000 -8.743191e+000 111 92 62
-2.280423e+000 6.536523e+001 2.087720e+001 100 96 95
-4.068376e-001 -2.694403e+000 -1.091197e+001 102 104 73
-4.213286e+000 6.795892e+001 1.811856e+001 75 71 72
-2.350711e-001 7.000794e+001 1.528300e+001 85 77 72
-8.404965e+000 6.966497e+001 1.749251e+001 97 93 101
-2.930267e+000 -1.809547e+000 -1.097447e+001 120 93 86
-7.962956e+000 6.858464e+001 1.587561e+001 114 105 106
-7.234490e+000 6.941145e+001 1.474895e+001 138 130 127
-2.103968e+000 -1.641099e+000 -1.154464e+001 136 98 69
-5.090050e+000 -1.033003e-001 -9.886715e+000 175 97 90
-4.678316e+000 -1.342510e+000 -1.075782e+001 128 111 71
-2.681922e+000 -1.432181e+000 -1.155980e+001 99 80 67
-4.684298e+000 -9.938185e-001 -1.121511e+001 129 109 66
-4.044798e-001 -7.446776e-001 -1.328223e+001 104 84 51
-8.835519e-001 1.079225e+000 -1.499165e+001 232 227 222
7.531304e+000 6.427564e+001 2.459526e+001 102 96 96
2.538467e+000 -3.468429e+000 -1.089980e+001 84 76 63
5.161067e+000 6.484469e+001 2.120168e+001 62 56 56
1.541920e+000 6.677514e+001 1.797720e+001 91 76 70
-4.607270e+000 -1.158212e+000 -8.933798e+000 219 123 128
-8.457265e-001 -2.097888e+000 -1.150678e+001 153 108 67
-6.176804e+000 7.110923e+001 1.545964e+001 122 111 109
1.402332e+000 -1.549848e+000 -1.322353e+001 160 145 126
-2.524904e+000 -1.064894e+000 -1.208331e+001 109 84 76
-3.976845e+000 -2.205046e-001 -1.247359e+001 154 134 83
-6.062285e+000 4.852383e-001 -1.238510e+001 114 109 67
-6.062285e+000 4.852383e-001 -1.238510e+001 114 109 67
1.637807e+001 6.836556e+001 2.990512e+001 52 46 46
-3.774082e+000 -3.191804e+000 -8.743337e+000 152 130 87
-1.139604e+000 6.734495e+001 2.248042e+001 77 71 73
-1.177618e+000 6.495151e+001 2.008257e+001 111 103 101
-4.641852e+000 6.694366e+001 1.980626e+001 76 75 83
3.608268e+000 6.863770e+001 1.731827e+001 107 92 86
-2.742602e-001 -2.547019e+000 -1.110230e+001 129 128 97
-9.059370e-001 -1.835697e+000 -1.174975e+001 143 99 59
-9.065152e-001 -1.848070e+000 -1.175673e+001 143 99 59
-8.640731e+000 7.068209e+001 1.622413e+001 75 73 86
-5.453535e+000 2.532336e+000 -1.036352e+001 173 127 115
-2.727877e+000 -3.398355e+000 -7.875662e+000 161 148 113
-3.529371e+000 6.793630e+001 2.113790e+001 125 119 116
-4.732917e+000 -7.559563e-001 -9.184292e+000 243 196 195
-2.154542e+000 -1.162145e+000 -1.213167e+001 159 133 106
-1.995465e+000 -2.976558e+000 -7.935790e+000 159 144 111
-4.070319e+000 -2.648997e+000 -8.921540e+000 152 128 80
-3.639133e+000 6.641000e+001 1.878506e+001 133 129 120
-4.762041e+000 6.852501e+001 1.682502e+001 68 65 72
-4.762041e+000 6.852501e+001 1.682502e+001 68 65 72
-1.108614e+000 -2.244793e-001 -1.333139e+001 163 127 75
6.244144e-001 -2.249036e+000 -1.408808e+001 194 179 158
-2.248768e+000 -1.714614e+000 -1.132053e+001 83 65 61
-7.003272e-001 -1.751792e+000 -1.226187e+001 160 123 69
2.048039e+000 -2.745855e+000 -1.296206e+001 194 182 160
3.213486e-001 1.086291e+000 -1.450592e+001 82 77 55
1.772301e+000 -2.488318e+000 -1.091651e+001 79 88 62
-4.212304e+000 -5.008988e-001 -1.198336e+001 98 79 46
2.228227e+000 7.150892e+001 8.913814e-001 89 80 76
2.298757e+000 6.755224e+001 1.496499e+001 80 73 67
1.204655e+000 6.990840e+001 1.246735e+001 100 90 89
-4.342896e+000 -1.970847e+000 -1.007097e+001 157 122 83
-4.342896e+000 -1.970847e+000 -1.007097e+001 157 122 83
-1.504775e+000 -2.102239e+000 -1.119496e+001 98 73 66
-6.131794e+000 6.673873e-001 -1.219356e+001 208 222 200
-1.255288e+000 7.017196e+001 9.783743e+000 70 60 58
-8.817993e-001 6.229080e+001 2.236577e+001 89 81 78
4.333169e+000 6.444354e+001 1.839072e+001 89 78 74
2.110930e+000 7.214810e-001 -1.127849e+001 105 95 60
-3.395975e+000 -1.713029e+000 -6.541388e+000 173 170 111
-2.326472e+000 -3.575404e+000 -8.930298e+000 148 121 74
-1.388788e+000 -3.520497e+000 -9.400821e+000 101 81 49
-1.395150e+000 -3.527552e+000 -9.403764e+000 101 81 49
-1.762119e-001 -3.425351e+000 -1.001527e+001 108 104 71
-3.447933e+000 -3.391564e+000 -8.784534e+000 111 91 53
-2.614630e+000 -3.329287e+000 -9.189673e+000 114 85 37
-2.614630e+000 -3.329287e+000 -9.189673e+000 114 85 37
-1.707895e+000 -3.323486e+000 -9.618231e+000 156 125 81
-1.320662e-002 -3.337710e+000 -1.014342e+001 95 100 74
-1.320662e-002 -3.337710e+000 -1.014342e+001 95 100 74
2.609988e-002 -3.257051e+000 -1.020000e+001 92 98 72
5.871073e-002 -3.316500e+000 -1.021741e+001 166 161 134
-2.911941e+000 -3.317288e+000 -9.085760e+000 160 128 80
-2.198233e+000 -3.318430e+000 -9.397802e+000 113 79 42
-5.492820e-001 -3.017164e+000 -1.049394e+001 174 149 128
-5.492820e-001 -3.017164e+000 -1.049394e+001 174 149 128
-4.314139e-001 -2.908717e+000 -1.061109e+001 173 152 135
-2.449483e-001 -2.915219e+000 -1.073493e+001 180 162 140
-5.233769e-001 -2.796555e+000 -1.076780e+001 175 151 126
-3.679982e+000 -2.447683e+000 -9.559092e+000 70 88 50
-3.675608e+000 -2.566716e+000 -9.623551e+000 158 144 101
-5.962957e-001 -2.473553e+000 -1.115316e+001 168 152 128
-5.962957e-001 -2.473553e+000 -1.115316e+001 168 152 128
-9.333223e-001 -2.371518e+000 -1.115853e+001 182 157 133
-8.877508e-001 -2.305970e+000 -1.113777e+001 182 157 133
3.831712e-001 -2.171720e+000 -1.187090e+001 113 98 67
-2.898723e+000 -2.128794e+000 -1.056240e+001 105 76 73
-1.180489e+000 -2.076658e+000 -1.131147e+001 163 127 99
-4.115243e+000 -2.176347e+000 -9.997539e+000 89 90 61
-4.115243e+000 -2.176347e+000 -9.997539e+000 89 90 61
-2.993948e+000 -2.097191e+000 -1.055764e+001 171 138 133
-2.572145e+000 -2.088152e+000 -1.074075e+001 139 115 103
-2.572145e+000 -2.088152e+000 -1.074075e+001 139 115 103
-2.650124e+000 -1.958633e+000 -1.079799e+001 88 65 59
-1.645667e+000 -1.925813e+000 -1.136354e+001 104 85 78
-2.725533e+000 -1.793001e+000 -1.107016e+001 121 99 91
-2.145616e+000 -1.870331e+000 -1.133299e+001 102 82 76
-1.787674e+000 -1.811963e+000 -1.141628e+001 72 53 49
-1.787674e+000 -1.811963e+000 -1.141628e+001 72 53 49
5.287734e-001 -1.481861e+000 -1.269141e+001 78 75 46
-4.854131e+000 -5.057789e-001 -9.419506e+000 232 226 231
-4.520637e+000 -1.652049e+000 -1.035774e+001 175 143 92
-2.527974e+000 -1.543281e+000 -1.139760e+001 78 58 51
-2.396730e+000 -1.383177e+000 -1.164011e+001 80 56 52
-2.444756e+000 -1.349503e+000 -1.165923e+001 108 83 82
-3.102167e-001 -1.043631e+000 -1.296622e+001 82 58 31
-4.720649e+000 1.671440e+000 -8.931020e+000 206 201 174
-4.666579e+000 -1.228013e+000 -1.094798e+001 176 146 96
-2.353658e+000 -1.090432e+000 -1.206823e+001 165 137 125
-3.533988e-001 -9.877119e-001 -1.297847e+001 142 110 62
-3.882422e-001 -9.243808e-001 -1.305546e+001 148 116 71
-5.939086e-002 -9.236450e-001 -1.314444e+001 136 107 73
-4.641089e+000 -9.026394e-001 -1.131229e+001 165 136 87
-4.641089e+000 -9.026394e-001 -1.131229e+001 165 136 87
-4.930118e-001 -4.621466e-001 -1.351999e+001 144 116 78
-6.717797e-001 -3.094781e-001 -1.373938e+001 139 117 80
-4.338197e+000 -2.277857e-001 -1.218579e+001 79 89 53
-4.252207e+000 -3.338624e-001 -1.216921e+001 162 119 74
-4.157687e+000 -1.045210e-001 -1.235120e+001 78 84 56
-4.157687e+000 -1.045210e-001 -1.235120e+001 78 84 56
-3.902322e+000 -3.542124e-002 -1.260529e+001 173 133 79
-3.673975e+000 8.558841e-002 -1.283650e+001 166 131 71
-9.742418e-001 4.123288e-001 -1.431892e+001 130 117 86
-3.713448e+000 1.266546e-001 -1.286247e+001 86 93 66
-3.713448e+000 1.266546e-001 -1.286247e+001 86 93 66
-3.588930e+000 -3.606662e+000 -8.399337e+000 129 111 72
-2.750205e+000 -3.721507e+000 -8.698978e+000 146 119 65
-3.026813e+000 -3.601538e+000 -8.686620e+000 155 128 85
-2.509410e+000 -3.600478e+000 -8.980223e+000 154 124 80
-1.107748e+000 -3.637342e+000 -9.476791e+000 131 115 79
-8.769370e-001 -3.585042e+000 -9.550276e+000 128 119 78
-8.769370e-001 -3.585042e+000 -9.550276e+000 128 119 78
-7.116208e-001 -3.494352e+000 -9.789253e+000 125 116 79
-3.247488e+000 -3.536420e+000 -8.741835e+000 146 122 78
-3.118476e+000 -3.518396e+000 -8.717768e+000 156 129 82
-2.678661e+000 -3.493389e+000 -8.989564e+000 158 129 84
-2.890164e+000 -3.375070e+000 -9.066137e+000 160 125 84
-2.887985e+000 -3.370957e+000 -9.063669e+000 160 125 84
-2.409418e+000 -3.412108e+000 -9.189117e+000 116 88 50
-2.135291e+000 -3.345893e+000 -9.391525e+000 167 134 82
-3.193875e-001 -3.255533e+000 -9.971755e+000 123 111 72
-3.710880e+000 -1.141902e+000 -7.059830e+000 220 202 133
-5.388780e-002 -3.169879e+000 -1.045337e+001 95 103 71
1.187218e+000 -2.710040e+000 -1.142747e+001 77 79 55
-5.736189e-001 -2.774296e+000 -1.081808e+001 149 120 75
-4.044917e-001 -2.812649e+000 -1.134390e+001 90 95 63
-4.041637e+000 -2.227016e+000 -9.922065e+000 80 84 63
-2.873517e+000 -2.174008e+000 -1.052300e+001 159 130 123
-2.475982e+000 -2.226192e+000 -1.068833e+001 135 104 92
-1.590144e+000 -2.054040e+000 -1.118279e+001 97 70 61
-4.644151e+000 -6.773618e-001 -8.958600e+000 198 106 124
-2.149281e+000 -2.024469e+000 -1.094052e+001 119 95 86
-1.978218e+000 -1.934367e+000 -1.119472e+001 146 112 91
-1.361922e+000 -1.893165e+000 -1.154022e+001 113 78 58
-4.745053e+000 -7.998646e-001 -9.227535e+000 223 229 222
1.402232e+000 -1.706865e+000 -1.324992e+001 158 145 129
1.306787e+000 -2.268816e+000 -1.353562e+001 183 172 154
-1.902722e+000 -1.603268e+000 -1.170206e+001 83 60 52
-4.586664e+000 -1.517061e+000 -1.052779e+001 184 143 92
-2.339728e+000 -1.084544e+000 -1.199564e+001 97 74 64
1.650837e-001 -9.634299e-001 -1.327919e+001 85 70 50
-2.635327e+000 -9.449703e-001 -1.206979e+001 164 134 124
-2.615759e+000 -8.883211e-001 -1.224683e+001 152 121 102
-3.203051e-001 -4.679941e-001 -1.367500e+001 100 77 53
-3.203051e-001 -4.679941e-001 -1.367500e+001 100 77 53
-2.141024e-001 -4.318265e-001 -1.370086e+001 127 106 75
-4.434506e+000 -3.571304e-001 -1.208811e+001 66 88 58
-4.310809e+000 -4.038079e-001 -1.202025e+001 70 84 52
-2.384509e+000 -9.579619e-002 -1.320098e+001 153 131 85
-2.384509e+000 -9.579619e-002 -1.320098e+001 153 131 85
-8.664528e-001 6.482510e-003 -1.392817e+001 142 121 80
-8.664528e-001 6.482510e-003 -1.392817e+001 142 121 80
-8.482878e-001 3.084878e-002 -1.405757e+001 130 114 81
-4.063111e+000 -2.078323e-001 -1.236986e+001 166 133 80
-4.050943e+000 -1.931919e-001 -1.236848e+001 166 133 80
-4.104651e+000 -1.998377e-001 -1.248071e+001 76 85 51
-3.978463e+000 -9.144945e-002 -1.257319e+001 80 83 46
-3.955796e+000 -4.317574e-002 -1.256552e+001 80 83 46
-3.220712e+000 -3.161392e-002 -1.293257e+001 162 135 84
-3.425534e+000 -3.650888e+000 -8.391886e+000 81 67 38
-3.373429e+000 -3.682754e+000 -8.442210e+000 87 71 38
-3.471135e+000 -3.553201e+000 -8.506198e+000 100 82 45
-3.255858e+000 -3.626639e+000 -8.573187e+000 144 118 77
-3.260630e+000 -3.564183e+000 -8.641097e+000 116 92 54
-8.494508e-001 -3.487501e+000 -9.716730e+000 126 112 73
-3.776462e+000 -3.498201e+000 -8.416997e+000 128 112 76
-3.776462e+000 -3.498201e+000 -8.416997e+000 128 112 76
-2.594840e+000 -3.444439e+000 -9.108640e+000 119 91 54
-2.594840e+000 -3.444439e+000 -9.108640e+000 119 91 54
-1.895133e+000 -3.421531e+000 -9.352101e+000 158 128 82
-1.104318e+000 -3.343302e+000 -9.810461e+000 97 77 52
-8.179989e-001 -3.265057e+000 -1.001712e+001 133 116 72
-1.438398e+000 -3.247528e+000 -9.796436e+000 104 81 49
-9.880745e-001 -3.254668e+000 -1.003783e+001 100 80 48
1.054725e+000 -2.802597e+000 -1.121037e+001 82 82 56
-3.898339e+000 -7.406312e-001 -7.337651e+000 227 208 149
-7.322612e-002 -2.514959e+000 -1.116086e+001 97 94 66
-3.850413e+000 -2.431870e+000 -9.803089e+000 67 80 48
-1.252752e+000 -2.065071e+000 -1.138322e+001 132 92 67
-4.349217e+000 1.070534e+000 -8.152775e+000 108 109 83
-2.894857e+000 -1.687050e+000 -1.110523e+001 109 82 73
4.021735e-001 -1.317743e+000 -1.287459e+001 88 77 57
9.673573e-001 -3.159144e+000 -1.447562e+001 196 185 167
6.792803e-001 -4.248353e+000 -1.528781e+001 93 82 72
6.792803e-001 -4.248353e+000 -1.528781e+001 93 82 72
-4.992523e+000 -1.386669e-001 -9.647813e+000 171 94 110
1.867822e-001 -1.026594e+000 -1.307031e+001 117 90 60
-9.496576e-002 -1.052184e+000 -1.304655e+001 135 100 62
-2.907701e+000 -1.171388e+000 -1.179041e+001 176 142 116
-2.346874e-001 -9.683871e-001 -1.317637e+001 138 110 73
-2.327451e-001 -9.694087e-001 -1.317792e+001 138 110 73
-1.768533e-001 -7.671554e-001 -1.325527e+001 135 109 72
-2.345453e-001 -7.500548e-001 -1.345496e+001 115 93 60
-2.299460e-001 -6.520230e-001 -1.350555e+001 98 77 44
-3.971863e-001 -5.377950e-001 -1.357215e+001 134 112 75
-2.793152e-002 -2.122626e-001 -1.396970e+001 116 102 73
-3.871431e+000 -1.073689e-001 -1.259611e+001 171 129 70
-8.437412e+000 7.093027e+001 1.556434e+001 105 105 109
-7.130441e+000 7.021495e+001 1.441989e+001 88 88 87
-3.712450e+000 -3.709130e+000 -8.268069e+000 87 72 39
-3.564678e+000 -3.562872e+000 -8.469118e+000 93 77 41
-2.798332e+000 -3.672108e+000 -8.746375e+000 111 89 57
-2.585283e+000 -3.569856e+000 -8.874383e+000 162 132 82
-2.046110e+000 -3.610449e+000 -9.077628e+000 112 90 53
-1.397385e+000 -3.562792e+000 -9.390328e+000 112 96 62
-5.954777e-001 -3.513373e+000 -9.760306e+000 89 80 51
-1.098363e+000 -3.437663e+000 -9.653860e+000 95 79 47
-1.314523e+000 -3.357004e+000 -9.722515e+000 109 88 57
-9.830532e-001 -3.319555e+000 -9.868335e+000 99 84 55
-2.674728e+000 -3.322827e+000 -9.206745e+000 151 116 80
-1.171593e+000 -3.227419e+000 -9.904776e+000 111 87 56
-3.833027e-001 -2.929898e+000 -1.065344e+001 166 149 129
-4.006363e-001 -2.832819e+000 -1.073240e+001 178 158 135
6.165855e-001 -2.421283e+000 -1.150942e+001 95 88 62
7.334379e-001 -2.414147e+000 -1.170285e+001 72 68 41
-3.809770e+000 -2.476002e+000 -9.717428e+000 175 144 105
3.543384e-001 -1.881922e+000 -1.219252e+001 112 94 60
-1.883619e+000 -1.922626e+000 -1.127486e+001 77 54 52
3.064191e-001 -1.775566e+000 -1.230644e+001 122 99 58
6.082390e-001 -1.738757e+000 -1.232915e+001 100 85 54
5.829102e-001 -1.777364e+000 -1.247657e+001 79 72 45
6.003269e-001 -1.524447e+000 -1.244941e+001 111 94 63
-1.120185e+000 -1.772656e+000 -1.183273e+001 164 133 84
1.146152e-001 -1.447628e+000 -1.264424e+001 130 95 63
2.705499e-002 -1.389433e+000 -1.277643e+001 139 101 64
2.852082e-001 -1.092507e+000 -1.295829e+001 119 92 63
-1.913460e+000 -1.269440e+000 -1.213720e+001 145 100 64
-2.680374e+000 -1.091367e+000 -1.197104e+001 164 134 126
-1.125602e-001 -6.730134e-001 -1.353120e+001 122 100 61
4.598419e-003 -4.930572e-001 -1.368472e+001 79 61 37
5.514627e+000 5.828083e+001 1.759292e+001 66 61 65
-4.965272e-001 -4.817129e-001 -1.366853e+001 139 120 80
-4.802777e-001 9.835777e-003 -1.405405e+001 107 91 65
-3.383429e-001 5.384510e-002 -1.408578e+001 119 104 75
-4.335158e+000 -4.049201e-001 -1.215299e+001 164 126 77
-4.305026e+000 -3.296779e-001 -1.214237e+001 164 126 77
6.424505e-001 1.965846e-001 -1.470086e+001 156 146 128
-3.841002e+000 -3.624958e+000 -8.157362e+000 125 113 72
-1.192803e+000 -3.625374e+000 -9.395737e+000 136 118 73
-3.925168e+000 -2.435368e+000 -9.672197e+000 72 86 51
-4.472295e+000 -1.760203e+000 -1.033175e+001 167 149 115
-1.967097e-001 -1.081387e+000 -1.289012e+001 150 112 65
-3.489058e-001 -6.494737e-001 -1.344509e+001 136 111 71
-3.024831e+000 6.387682e+001 2.520680e+001 89 86 93
-7.743572e-001 -2.418067e-001 -1.386114e+001 142 118 75
-7.114302e-001 -1.344081e-001 -1.384180e+001 142 118 75
-7.210023e+000 6.962073e+001 1.482513e+001 122 121 117
-8.382249e+000 6.829150e+001 1.339897e+001 63 62 70
2.406508e+000 -3.833060e+000 -1.099575e+001 180 164 150
-1.457863e+000 -1.709848e+000 -1.171240e+001 166 114 80
-2.528835e+000 -1.068647e+000 -1.208258e+001 112 84 81
-7.748823e+000 7.060589e+001 1.460748e+001 101 100 97
-6.581870e+000 7.184236e+001 1.447145e+001 94 94 96
-5.079903e-001 -3.080122e+000 -1.033343e+001 140 118 71
-8.655847e+000 7.136586e+001 1.538394e+001 92 92 98
-3.656013e+000 6.615062e+001 2.036060e+001 106 107 109
-3.170761e-001 -3.320626e+000 -1.015740e+001 121 108 92
2.464367e+000 6.213053e+001 2.599935e+001 71 61 62
-3.898218e+000 -4.063644e-001 -1.210170e+001 183 137 88
-7.044351e+000 6.843499e+001 1.473352e+001 87 85 86
-3.089222e+000 -1.428842e+000 -1.133907e+001 190 139 86
-5.443171e+000 4.338219e-001 -1.225224e+001 125 111 64
-1.798077e+000 -2.478982e+000 -1.038566e+001 190 155 133
-3.304812e+000 -7.902526e-001 -1.182785e+001 182 134 85
1.703293e+000 -2.596361e+000 -1.095715e+001 65 73 50
1.443818e+000 -3.516098e+000 -1.027631e+001 129 129 94
1.443818e+000 -3.516098e+000 -1.027631e+001 129 129 94
-3.117040e+000 -3.659608e+000 -8.656146e+000 150 121 80
-1.080491e+000 -3.533248e+000 -9.621849e+000 140 122 85
3.348989e-002 -3.243964e+000 -1.019715e+001 97 102 80
9.123979e-002 -2.812726e+000 -1.079388e+001 98 95 68
-3.869935e+000 -2.480420e+000 -9.716146e+000 183 148 108
-4.529851e+000 -1.399831e+000 -8.877520e+000 216 133 148
-4.529851e+000 -1.399831e+000 -8.877520e+000 216 133 148
-3.994194e+000 -2.218478e+000 -9.858002e+000 161 139 104
-1.407455e+000 -1.875955e+000 -1.141799e+001 91 64 51
-4.439591e+000 -2.038355e+000 -1.005161e+001 92 88 52
-4.267860e+000 -2.032446e+000 -1.009941e+001 184 140 101
-3.082573e+000 -1.843752e+000 -1.071912e+001 182 144 133
1.374322e-001 -1.554876e+000 -1.254392e+001 131 94 65
-1.780616e+000 -1.414847e+000 -1.196310e+001 174 127 93
-2.389807e+000 -9.898092e-001 -1.216476e+001 164 137 114
-4.292745e+000 -1.999150e-001 -1.241472e+001 87 87 53
-3.879005e+000 -1.255815e-001 -1.273600e+001 159 129 81
6.899705e-001 6.483684e+000 -1.594223e+001 161 149 149
-2.518363e+000 -3.614340e+000 -8.984502e+000 157 129 81
-1.791773e+000 -3.347122e+000 -9.390412e+000 151 124 73
-2.739851e-001 -3.360150e+000 -9.976653e+000 117 104 69
-1.101843e+000 -3.337677e+000 -9.808945e+000 94 73 42
-7.851383e-001 -3.343562e+000 -9.975239e+000 91 80 50
-2.420106e+000 -1.786133e+000 -1.110246e+001 92 73 69
1.525928e+000 -1.689949e+000 -1.326183e+001 68 55 46
-2.481154e+000 -1.102644e+000 -1.195529e+001 134 110 100
-4.688620e+000 -1.049288e+000 -1.116476e+001 170 137 97
-2.502819e+000 -3.692469e+000 -8.795732e+000 157 129 78
-7.489048e-001 -3.637742e+000 -9.550901e+000 90 84 50
-7.489048e-001 -3.637742e+000 -9.550901e+000 90 84 50
-5.766092e-001 -3.549680e+000 -9.683619e+000 121 114 75
-3.724753e+000 -3.594488e+000 -8.509642e+000 142 127 86
-3.597386e+000 -3.542495e+000 -8.550398e+000 147 126 83
-2.793461e+000 -3.628433e+000 -8.813058e+000 152 125 80
-3.865090e+000 -3.306434e+000 -8.678831e+000 150 129 83
-2.708227e+000 -3.360310e+000 -9.098546e+000 161 127 74
