ply
format ascii 1.0
element face 0
property list uchar int vertex_indices
element vertex 874
property float x
property float y
property float z
property uchar diffuse_red
property uchar diffuse_green
property uchar diffuse_blue
end_header
3.753828e-001 -1.117270e+000 -6.937576e+000 79 64 43
6.368132e-001 -1.129637e+000 -7.136750e+000 80 69 41
-1.671756e+000 -1.283807e+000 -5.934725e+000 130 115 104
-7.936707e-001 -1.339299e+000 -6.563032e+000 57 45 38
3.527153e-001 -1.209557e+000 -7.054038e+000 75 64 36
-6.727668e-001 -1.612696e+000 -6.893211e+000 86 69 50
-2.217878e-001 -1.459017e+000 -6.972807e+000 82 65 40
-2.217878e-001 -1.459017e+000 -6.972807e+000 82 65 40
9.836030e-003 -1.464776e+000 -7.152817e+000 81 68 42
2.541818e-001 -1.509661e+000 -7.293815e+000 78 66 41
6.305295e-001 -1.519002e+000 -7.499378e+000 86 73 46
-1.601573e+000 -1.750760e+000 -6.402166e+000 73 66 62
-7.013081e-001 -1.702342e+000 -6.968782e+000 89 75 58
7.847409e-001 -2.405404e+000 -8.468769e+000 132 118 85
-1.351384e+000 -2.469572e+000 -7.335078e+000 135 116 83
-1.488366e+000 -2.645004e+000 -7.479725e+000 96 81 57
-2.364073e+000 -2.684049e+000 -6.919723e+000 79 63 47
-2.337673e+000 -2.775676e+000 -7.099335e+000 115 100 71
-1.639009e+000 -3.033831e+000 -7.838040e+000 75 63 41
-2.795388e+000 -3.154686e+000 -7.290030e+000 87 70 53
-1.365639e+000 -3.306358e+000 -8.361501e+000 100 89 64
-4.210827e+000 3.640529e+000 -9.113924e+000 153 153 115
-3.298637e+000 3.498654e+000 -9.141459e+000 196 177 133
-2.851406e+000 3.955322e+000 -1.015874e+001 243 215 207
-3.894671e+000 3.097922e+000 -8.513727e+000 132 128 87
-3.894671e+000 3.097922e+000 -8.513727e+000 132 128 87
-3.814773e+000 3.243409e+000 -8.693932e+000 154 150 113
-3.331844e+000 3.335325e+000 -8.919670e+000 93 118 90
-2.471185e+000 2.490100e+000 -8.227970e+000 202 188 188
-2.471185e+000 2.490100e+000 -8.227970e+000 202 188 188
3.594411e-001 2.935598e+000 -1.024267e+001 182 166 123
-2.327671e+000 2.209222e+000 -7.962658e+000 200 188 187
1.479034e+000 2.885752e+000 -1.068148e+001 163 132 84
-2.289441e+000 2.042563e+000 -7.770178e+000 167 78 82
1.722471e+000 2.525751e+000 -1.027381e+001 165 150 100
1.565680e+000 1.897667e+000 -9.467059e+000 169 162 148
-1.908701e+000 1.302423e+000 -7.017823e+000 202 189 191
2.079090e+000 1.641773e+000 -9.328239e+000 103 103 94
1.898351e+000 1.302070e+000 -8.896570e+000 153 157 135
-1.223635e-002 1.028080e+000 -7.807567e+000 75 87 72
1.645029e+000 1.093813e+000 -8.574627e+000 178 173 144
-8.792444e-002 8.053924e-001 -7.532433e+000 74 89 71
-8.792444e-002 8.053924e-001 -7.532433e+000 74 89 71
2.794136e-001 2.381700e-001 -6.973444e+000 185 169 113
2.822034e-001 2.386013e-001 -6.959029e+000 185 169 113
4.237952e-001 1.137259e-002 -6.769258e+000 177 166 103
4.188493e-001 9.721921e-003 -6.783832e+000 177 166 103
8.888875e-001 4.332746e-002 -6.999231e+000 174 164 96
8.821680e-001 4.125818e-002 -7.003309e+000 174 164 96
5.405857e-001 -6.761698e-001 -6.599510e+000 68 56 29
-5.075514e+001 -9.117264e+000 -9.093370e+001 216 210 254
-1.443597e+000 -1.168077e+000 -5.950752e+000 68 67 55
-1.439796e+000 -1.166214e+000 -5.938165e+000 68 67 55
-5.168689e-001 -1.187741e+000 -6.563820e+000 128 111 69
3.200418e-001 -1.848749e+000 -7.648297e+000 82 68 34
1.775923e-001 -2.305837e+000 -8.130775e+000 85 72 40
2.590764e+000 -3.126945e+000 -1.030952e+001 83 65 50
-2.908755e+000 -3.102228e+000 -7.261472e+000 91 77 50
-3.123772e+001 -2.539126e+001 -7.694782e+001 74 47 105
-4.059182e+000 3.627306e+000 -9.057547e+000 181 173 137
-2.985321e+000 3.956668e+000 -1.006174e+001 179 166 113
3.903104e-001 3.643670e+000 -1.119317e+001 176 147 116
3.903104e-001 3.643670e+000 -1.119317e+001 176 147 116
1.469260e+000 2.719266e+000 -1.047150e+001 87 90 75
-1.748664e+000 1.428198e+000 -7.194581e+000 166 72 73
-1.748664e+000 1.428198e+000 -7.194581e+000 166 72 73
1.853436e+000 1.006861e+000 -8.516203e+000 83 96 68
2.172823e+000 8.616717e-001 -8.450527e+000 99 115 76
7.457799e-001 5.173030e-002 -6.962617e+000 175 166 95
-5.423936e+001 -6.613394e+000 -9.422477e+001 76 51 115
-5.333546e+001 -7.170910e+000 -9.358354e+001 194 183 239
-5.057170e+001 -1.006526e+001 -8.533303e+001 107 69 122
1.200759e-001 -1.462273e+000 -7.224071e+000 136 116 74
1.200759e-001 -1.462273e+000 -7.224071e+000 136 116 74
2.332669e+000 -3.087344e+000 -1.015586e+001 69 62 44
-4.292497e+001 -1.856721e+001 -8.156772e+001 225 43 84
-3.072541e+001 -1.865186e+001 -8.413582e+001 222 49 82
-1.333591e+000 3.627233e+000 -1.041334e+001 183 166 142
1.001131e+000 2.706579e+000 -1.022827e+001 170 148 101
-1.605272e+000 1.348928e+000 -7.141076e+000 202 185 185
-1.606604e+000 1.348807e+000 -7.142794e+000 202 185 185
-1.263261e+000 1.268666e+000 -7.176298e+000 204 178 118
1.605372e+000 1.226750e+000 -8.691524e+000 142 148 89
5.290918e-001 7.210934e-001 -7.679924e+000 148 109 72
2.460792e+000 5.189087e-001 -8.333257e+000 176 169 148
2.835701e+000 6.057004e-001 -8.493551e+000 129 143 117
-5.823553e+001 -2.468768e+000 -1.007121e+002 233 68 122
-5.542811e+001 -4.433093e+000 -9.691477e+001 74 52 114
-1.523486e+000 -1.424711e+000 -6.121756e+000 76 69 61
-1.247116e+000 -1.566572e+000 -6.408672e+000 108 96 74
-3.519655e+001 -1.438446e+001 -8.906972e+001 59 34 64
-3.487241e+001 -1.352122e+001 -9.041979e+001 226 44 85
-4.087540e+001 -1.582933e+001 -9.014209e+001 197 26 70
-3.900388e+001 -1.644660e+001 -8.797442e+001 62 40 96
-3.477110e+001 -1.527903e+001 -8.996264e+001 205 35 66
-3.752380e+001 -1.758041e+001 -8.368562e+001 71 51 115
-3.316158e+001 -1.777674e+001 -8.650834e+001 226 42 76
-3.059157e+001 -1.943166e+001 -8.317081e+001 208 34 64
-3.168600e+000 -3.385007e+000 -7.521369e+000 76 63 44
-2.181384e+000 2.639124e+000 -8.686355e+000 131 72 74
5.987514e-001 1.021654e+000 -8.079320e+000 187 167 114
2.849001e-001 7.416110e-001 -7.550300e+000 191 173 133
9.862188e-001 7.056549e-001 -7.776551e+000 145 101 72
2.933420e+000 4.313983e-001 -8.415127e+000 140 155 132
-5.413994e+001 -3.049306e+000 -9.735069e+001 90 70 155
-8.219373e-001 -1.782716e+000 -6.917582e+000 103 89 63
-3.634587e+001 -1.923115e+001 -7.983599e+001 66 45 107
-3.618222e+001 -2.034242e+001 -7.695683e+001 206 31 70
-3.564044e+001 -2.523709e+001 -7.752092e+001 49 35 69
-3.544520e+000 3.458726e+000 -9.226974e+000 94 119 90
-2.649853e+000 2.577317e+000 -8.345530e+000 135 71 66
-2.283263e+000 2.344852e+000 -8.092356e+000 176 136 141
-1.523115e+000 1.541252e+000 -7.427114e+000 160 68 69
-1.452303e+000 1.233708e+000 -7.056543e+000 157 66 67
-2.816465e-001 1.353425e+000 -8.148031e+000 84 81 62
-2.816465e-001 1.353425e+000 -8.148031e+000 84 81 62
-8.805308e-001 1.010383e+000 -7.444532e+000 193 183 181
1.641658e+000 7.354222e-001 -8.091684e+000 172 157 108
3.927642e-001 5.435902e-001 -7.293561e+000 188 173 126
4.963193e-001 2.861683e-001 -7.039446e+000 184 169 108
-4.378960e-001 -3.141273e-001 -6.033122e+000 165 151 86
-4.930720e+001 -9.382500e+000 -8.871483e+001 173 163 216
-4.131706e+001 -1.381768e+001 -9.057268e+001 201 27 62
-3.918533e+001 -1.684897e+001 -8.529786e+001 242 50 95
-3.792470e+001 -1.868358e+001 -8.113808e+001 250 56 101
1.316975e+000 2.085458e+000 -9.580552e+000 114 108 100
1.413724e-001 -5.096549e-001 -6.295375e+000 76 64 22
-3.687665e+001 -1.814454e+001 -8.862953e+001 67 54 124
-3.271922e+001 -1.861874e+001 -8.232890e+001 58 36 74
-1.686592e+000 1.972471e+000 -7.674883e+000 156 70 71
1.118763e+000 1.645183e+000 -8.902253e+000 177 171 135
-4.681241e+001 -8.892671e+000 -9.246867e+001 255 62 110
1.537884e+000 -1.099401e-001 -7.015960e+000 146 148 83
1.093242e+000 -1.024143e+000 -7.217039e+000 129 111 63
-5.362169e+001 -6.121118e+000 -9.723360e+001 69 47 109
2.546093e+000 2.950806e+000 -1.085895e+001 193 197 185
2.025389e+000 1.948823e-001 -7.853832e+000 169 156 115
-4.353753e+001 -7.871087e+000 -9.050275e+001 251 53 99
-1.774767e+000 6.968335e-001 -6.717160e+000 194 179 137
-4.039131e+000 3.220637e+000 -8.619351e+000 183 176 139
-1.526065e-001 1.408716e+000 -8.192052e+000 195 186 169
2.673792e+000 1.918874e+000 -9.859827e+000 82 78 74
8.908322e-001 2.770648e-001 -7.263424e+000 178 165 97
9.605495e-001 7.912536e-002 -7.073427e+000 128 92 53
9.605495e-001 7.912536e-002 -7.073427e+000 128 92 53
-2.277206e+000 -4.900326e-001 -4.896000e+000 90 87 49
2.349559e+000 -7.354973e-001 -7.661698e+000 88 90 67
3.358234e+000 -1.556342e+000 -8.945397e+000 114 104 95
-2.385967e+000 2.454721e+000 -8.194961e+000 131 69 69
2.925722e+000 2.864367e+000 -9.179424e+000 194 195 182
-3.155252e+000 2.221344e+000 -7.755513e+000 211 186 130
2.811136e+000 2.498593e+000 -9.463850e+000 185 186 178
5.897967e-001 2.355307e+000 -9.631769e+000 165 156 111
1.353690e+000 2.361709e+000 -9.895882e+000 111 105 97
-1.947614e+000 1.527566e+000 -7.243171e+000 200 190 186
2.044723e+000 1.376513e+000 -9.034510e+000 116 114 110
1.422547e+000 8.631014e-001 -8.170086e+000 171 170 118
2.696526e+000 7.242281e-001 -8.570383e+000 155 170 146
6.610699e-001 -1.054900e+000 -7.084458e+000 74 61 32
6.610699e-001 -1.054900e+000 -7.084458e+000 74 61 32
4.942624e-001 -1.767076e+000 -7.696875e+000 130 113 77
-2.083096e+000 3.905642e+000 -1.050123e+001 191 166 109
-2.387182e+000 2.373767e+000 -8.101925e+000 201 187 186
-2.065105e+000 1.122185e+000 -6.749386e+000 198 171 100
-5.979584e-001 -1.368121e+000 -6.699135e+000 75 61 36
-2.191029e-001 -6.000266e-001 -6.193679e+000 113 100 55
-1.576370e+000 -2.864636e+000 -7.713279e+000 75 63 47
-2.932179e+000 -1.346756e+000 -6.079574e+000 168 133 103
-6.719275e-001 -1.242336e+000 -6.509111e+000 123 105 66
-1.009079e+000 -1.889023e+000 -6.955437e+000 74 65 54
9.718018e-001 2.999712e-001 -7.242770e+000 168 167 98
9.718018e-001 2.999712e-001 -7.242770e+000 168 167 98
5.298568e-001 -9.462546e-001 -6.859288e+000 130 114 63
-2.275405e+000 1.695897e+000 -7.412191e+000 177 71 76
-4.693528e-001 5.439981e+000 -1.612657e+001 159 148 142
-4.551815e+000 3.662018e+000 -9.034653e+000 186 191 144
-3.884300e+000 3.201495e+000 -8.675654e+000 180 177 139
-1.750784e-001 3.845805e+000 -1.114950e+001 148 161 131
1.203323e+000 4.123761e+000 -1.215954e+001 115 114 100
-6.330107e-001 3.369431e+000 -1.032084e+001 143 87 68
-7.357733e-001 3.028824e+000 -9.938535e+000 193 158 116
-6.793009e-001 3.048930e+000 -9.950200e+000 159 116 74
-6.466344e-001 2.994812e+000 -9.917624e+000 193 168 119
1.011260e+000 3.328333e+000 -1.096991e+001 153 119 81
1.011260e+000 3.328333e+000 -1.096991e+001 153 119 81
-2.393825e+000 2.456342e+000 -8.193356e+000 128 63 64
8.129515e-002 2.820104e+000 -9.932794e+000 191 175 141
1.210228e+000 3.015713e+000 -1.069493e+001 188 177 136
-2.221378e+000 2.004724e+000 -7.724696e+000 200 193 192
-2.221378e+000 2.004724e+000 -7.724696e+000 200 193 192
-1.983794e+000 2.092410e+000 -7.906103e+000 152 61 65
1.479589e+000 2.350566e+000 -9.961224e+000 149 145 133
1.516912e+000 2.203661e+000 -9.803849e+000 96 90 90
1.879639e+000 2.242031e+000 -1.006566e+001 72 84 73
1.875569e+000 2.243653e+000 -1.002150e+001 72 84 73
2.736530e+000 2.168158e+000 -9.610966e+000 87 85 78
-1.251375e+000 1.873155e+000 -7.499217e+000 162 132 62
1.991534e+000 1.963966e+000 -9.722766e+000 114 111 106
-4.072778e-001 1.284928e+000 -8.014375e+000 185 178 162
-3.478871e-001 1.354075e+000 -8.099449e+000 169 152 134
-2.434380e-001 1.358204e+000 -8.089443e+000 191 185 165
-2.889219e-001 1.277922e+000 -7.997578e+000 176 174 150
-2.881959e-001 1.278137e+000 -7.998629e+000 176 174 150
1.988213e+000 1.346124e+000 -8.966285e+000 91 89 85
2.000872e+000 1.257217e+000 -8.887178e+000 132 136 122
-2.753179e-001 1.024165e+000 -7.703786e+000 193 176 157
-2.749801e-001 1.024976e+000 -7.698999e+000 193 176 157
-2.309929e-001 1.045881e+000 -7.750469e+000 82 73 60
-2.346440e-001 9.320979e-001 -7.624547e+000 200 179 159
-1.117057e-001 9.454987e-001 -7.662601e+000 197 185 153
-2.204493e-002 1.075185e+000 -7.840474e+000 76 74 54
2.075433e+000 1.051074e+000 -8.639142e+000 93 108 68
1.113777e-001 8.937832e-001 -7.692686e+000 194 177 141
1.011133e+000 8.091347e-001 -7.930799e+000 138 89 62
2.968134e-001 4.383909e-001 -7.212345e+000 70 73 47
7.361464e-001 5.253851e-001 -7.485807e+000 136 91 59
7.345649e-001 5.253958e-001 -7.483978e+000 136 91 59
1.051702e+000 6.573168e-001 -7.753196e+000 184 157 104
1.051702e+000 6.573168e-001 -7.753196e+000 184 157 104
8.421463e-001 3.098589e-001 -7.272388e+000 140 99 65
1.218829e+000 3.163743e-001 -7.353129e+000 168 166 109
8.704109e-001 1.670104e-001 -7.103298e+000 175 163 103
9.385413e-001 1.960482e-002 -6.964996e+000 169 156 91
9.385413e-001 1.960482e-002 -6.964996e+000 169 156 91
1.290645e+000 3.300930e-002 -7.171098e+000 158 153 87
1.290645e+000 3.300930e-002 -7.171098e+000 158 153 87
-7.968552e-001 -3.685018e-001 -5.669530e+000 141 131 74
2.335160e+000 -6.040008e-001 -7.570846e+000 61 62 44
1.530912e+000 -9.370263e-001 -7.409352e+000 108 104 69
4.304015e-001 -1.309095e+000 -7.170049e+000 77 65 33
3.323737e+000 -1.777127e+000 -8.209900e+000 138 132 121
5.527933e-001 -2.101738e+000 -8.067614e+000 88 74 48
-5.115763e-001 -2.159193e+000 -7.546470e+000 134 118 92
-1.770805e-001 -2.338356e+000 -7.948392e+000 96 82 56
-3.223933e+000 -3.021341e+000 -7.012068e+000 78 62 31
-3.986856e+000 3.396686e+000 -8.881035e+000 181 178 140
4.698928e-001 2.967927e+000 -1.032193e+001 93 98 77
1.332293e+000 3.060370e+000 -1.080315e+001 168 143 86
-2.152111e+000 2.386443e+000 -8.215652e+000 189 184 183
4.545221e-001 2.461299e+000 -9.688426e+000 192 182 152
1.145349e+000 2.650263e+000 -1.022411e+001 190 182 163
-2.069849e+000 1.877747e+000 -7.641179e+000 154 59 67
-2.072675e+000 1.877038e+000 -7.640924e+000 154 59 67
1.181957e+000 2.257898e+000 -9.724038e+000 146 133 99
-3.855481e+000 1.710806e+000 -7.655098e+000 202 163 135
2.695161e+000 2.151134e+000 -9.742084e+000 173 173 165
2.651161e+000 2.053347e+000 -9.790675e+000 165 167 158
-1.696160e+000 1.550839e+000 -7.384702e+000 200 188 188
-1.690635e+000 1.551095e+000 -7.396631e+000 200 188 188
5.337589e-001 1.427005e+000 -8.495942e+000 142 92 69
2.093802e+000 1.489503e+000 -9.221767e+000 97 96 91
-3.001003e+000 8.706949e-001 -6.228529e+000 211 206 144
7.627318e-001 1.186687e+000 -8.231049e+000 182 170 105
-2.923948e+000 7.029172e-001 -6.108305e+000 198 199 130
1.475324e-001 7.179599e-001 -7.499227e+000 67 69 52
1.222058e-001 6.666872e-001 -7.427658e+000 189 167 134
8.588276e-001 7.996396e-001 -7.840009e+000 147 92 76
9.834493e-001 7.141040e-001 -7.812109e+000 138 93 62
1.077630e+000 7.877007e-001 -7.928738e+000 175 164 92
8.115117e-002 6.242057e-001 -7.380180e+000 74 73 51
1.838409e-001 4.267115e-001 -7.182697e+000 71 78 64
5.852758e-001 4.943817e-001 -7.420454e+000 145 88 63
2.244890e+000 6.950642e-001 -8.267552e+000 165 150 97
2.888108e+000 6.668689e-001 -8.584931e+000 132 146 119
2.955822e+000 5.329803e-001 -8.436315e+000 150 166 140
2.788979e-001 3.658855e-001 -7.140801e+000 180 162 117
2.974223e+000 4.030397e-001 -8.302167e+000 98 115 84
2.246454e-001 7.958643e-002 -6.787102e+000 180 162 101
3.115508e+000 1.321259e-001 -8.030105e+000 103 118 89
1.332242e+000 -4.833684e-001 -6.871240e+000 101 103 64
2.901703e+000 -4.043651e-001 -7.719976e+000 65 67 53
1.558573e+000 -6.546410e-001 -7.203242e+000 70 68 45
1.500414e+000 -8.674049e-001 -7.344738e+000 76 72 47
1.924831e+000 -6.840071e-001 -7.407169e+000 67 66 48
1.521866e+000 -1.208150e+000 -7.701761e+000 72 65 44
1.725937e+000 -9.598832e-001 -7.572312e+000 74 71 47
1.941238e+000 -1.060745e+000 -7.760000e+000 70 67 47
-2.177120e+000 -1.134320e+000 -5.578430e+000 72 63 59
-1.831561e+000 -1.024135e+000 -5.632208e+000 78 71 65
-1.633126e+000 -1.052027e+000 -5.764804e+000 75 69 64
-7.466816e-001 -1.211633e+000 -6.494525e+000 58 48 36
1.072922e-001 -1.162992e+000 -6.870763e+000 102 87 58
7.025618e-001 -1.283223e+000 -7.303885e+000 85 69 44
1.746839e+000 -1.483769e+000 -8.079052e+000 116 107 71
-3.025246e-001 -1.394111e+000 -6.892967e+000 98 82 56
-3.311502e-001 -1.477471e+000 -6.952439e+000 99 83 58
-2.542319e-001 -1.584682e+000 -7.111964e+000 95 79 53
-6.221765e-002 -1.713584e+000 -7.374937e+000 97 83 57
5.711902e-001 -1.701738e+000 -7.667520e+000 93 78 53
1.066009e+000 -1.829333e+000 -8.050972e+000 87 72 45
1.632755e+000 -1.653444e+000 -8.199355e+000 83 73 46
-1.606668e+000 -1.762271e+000 -6.447718e+000 74 68 61
-9.112971e-001 -1.990556e+000 -7.195848e+000 91 78 62
-7.785682e-001 -1.920978e+000 -7.146921e+000 91 75 60
-5.732837e-001 -1.771578e+000 -7.119947e+000 87 74 52
1.284312e-001 -1.905122e+000 -7.656127e+000 92 77 53
-2.253820e+000 -1.921899e+000 -6.295653e+000 76 66 64
-2.253820e+000 -1.921899e+000 -6.295653e+000 76 66 64
-6.932288e-001 -2.131523e+000 -7.433601e+000 92 77 58
-4.812552e-001 -2.241297e+000 -7.668265e+000 99 85 59
-3.451896e-001 -2.176314e+000 -7.673820e+000 103 86 67
-4.179434e-001 -2.713684e+000 -8.237955e+000 93 79 55
-1.193772e+000 -2.951234e+000 -8.069847e+000 124 109 84
-2.138349e+000 -3.232231e+000 -7.835580e+000 113 100 72
-2.006092e+000 -3.218547e+000 -7.916336e+000 112 98 72
-4.253850e+000 3.571597e+000 -9.031689e+000 172 170 132
-9.819846e-001 3.963382e+000 -1.098979e+001 90 92 76
-4.099287e+000 3.190168e+000 -8.578008e+000 145 144 110
-3.865539e+000 3.247960e+000 -8.526439e+000 178 171 132
-4.606966e-001 3.783577e+000 -1.097345e+001 129 87 83
-3.789335e-001 3.529850e+000 -1.069870e+001 169 127 104
-3.015967e-001 3.072817e+000 -1.010826e+001 183 157 118
-3.666111e+000 1.687818e+000 -7.371235e+000 229 208 135
1.677982e+000 1.949996e+000 -9.524688e+000 105 102 99
1.937140e+000 2.076344e+000 -9.855325e+000 139 142 131
-3.938927e-001 1.388198e+000 -8.116263e+000 75 82 71
-3.991707e-001 1.387217e+000 -8.115670e+000 75 82 71
-3.121721e-001 1.201606e+000 -7.896299e+000 72 82 69
-7.157241e-003 7.738470e-001 -7.480818e+000 194 178 146
-2.775532e+000 5.882219e-001 -5.901615e+000 162 158 91
1.096622e+000 4.876063e-001 -7.615382e+000 175 160 93
1.103459e+000 4.928740e-001 -7.566998e+000 175 160 93
1.812647e+000 5.650487e-001 -7.992154e+000 159 139 89
7.185650e-001 3.613489e-001 -7.294265e+000 186 167 108
7.151182e-001 3.606119e-001 -7.292611e+000 186 167 108
8.437478e-001 1.160415e-001 -7.074796e+000 144 99 68
4.768306e-001 -7.212158e-001 -6.682198e+000 117 104 60
1.368267e+000 -8.093399e-001 -7.193591e+000 118 111 69
4.273315e-001 -8.705337e-001 -6.788119e+000 121 107 63
-2.339015e+000 -1.403377e+000 -5.774523e+000 67 63 56
-2.339015e+000 -1.403377e+000 -5.774523e+000 67 63 56
-1.950601e+000 -1.356919e+000 -5.902960e+000 130 114 106
-1.836846e+000 -1.433480e+000 -6.029903e+000 132 115 105
-1.836846e+000 -1.433480e+000 -6.029903e+000 132 115 105
3.565837e-001 -1.757697e+000 -7.596254e+000 96 82 55
-1.952187e+000 -1.783498e+000 -6.262925e+000 73 68 62
4.218696e-001 -2.719443e+000 -8.719717e+000 106 91 60
-2.456974e+000 -3.055968e+000 -7.460487e+000 111 96 69
-2.115381e+000 -3.347087e+000 -8.004223e+000 81 65 42
-1.783609e+000 -3.122148e+000 -7.935442e+000 81 66 43
-1.284915e+000 3.937107e+000 -1.085141e+001 106 110 83
-4.237525e+000 3.419103e+000 -8.846511e+000 137 143 107
-4.158380e+000 3.299591e+000 -8.657475e+000 121 123 90
-3.459078e+000 3.527538e+000 -9.261420e+000 81 115 83
-1.051772e+000 3.739482e+000 -1.065517e+001 130 93 77
-1.446870e-001 3.890809e+000 -1.130199e+001 139 145 113
-1.444660e-001 3.882772e+000 -1.121347e+001 139 145 113
1.721163e+000 2.528547e+000 -1.026563e+001 171 147 95
-1.928449e+000 1.984805e+000 -7.785737e+000 206 186 192
-1.410566e+000 2.055392e+000 -8.700039e+000 176 150 76
-3.986839e-001 1.385472e+000 -8.117273e+000 75 82 71
-1.145771e+000 1.081817e+000 -7.041570e+000 201 184 160
-3.140335e-001 1.066945e+000 -7.760793e+000 197 184 174
2.531762e-001 1.567225e-001 -6.896024e+000 66 81 56
1.202802e+000 2.017587e-003 -7.086680e+000 140 92 62
1.203137e+000 2.157275e-003 -7.086817e+000 140 92 62
-1.720432e+000 -3.323610e+000 -8.216644e+000 91 76 52
-5.404644e-001 3.110108e+000 -1.001543e+001 186 152 103
-2.013517e+000 2.652508e+000 -8.591659e+000 200 175 118
-2.752487e+000 1.460247e+000 -6.967503e+000 204 186 154
-2.752487e+000 1.460247e+000 -6.967503e+000 204 186 154
-2.728952e+000 1.336053e+000 -6.840596e+000 199 172 95
-1.193144e+000 9.738822e-001 -6.975664e+000 143 112 69
-2.092837e-001 9.830683e-001 -7.673749e+000 54 76 58
-5.880187e-001 -3.665451e-001 -5.868705e+000 111 99 47
-3.303119e-001 -9.998121e-001 -6.466840e+000 131 113 68
-1.828236e+000 -1.781515e+000 -6.326573e+000 74 68 60
-1.828236e+000 -1.781515e+000 -6.326573e+000 74 68 60
-1.871662e+000 3.863275e+000 -1.056012e+001 195 167 113
-2.877302e-001 3.368660e+000 -1.030605e+001 171 139 101
1.335829e+000 1.068385e+000 -8.362614e+000 180 178 152
1.525508e+000 9.559000e-001 -8.307765e+000 136 142 85
1.850574e+000 1.007886e+000 -8.513924e+000 81 90 61
6.421666e-001 5.458881e-001 -7.489695e+000 172 137 99
1.153234e+000 2.569362e+000 -1.011615e+001 188 178 167
8.471027e-001 5.372693e-001 -7.627119e+000 180 163 99
7.164753e-001 -1.034627e+000 -7.203928e+000 120 105 72
2.639469e+000 -3.330883e+000 -1.046790e+001 198 163 149
-2.423624e+000 2.869978e+000 -8.636519e+000 197 190 178
-1.105820e+000 9.278504e-001 -6.999963e+000 148 122 92
2.201845e-001 3.580298e-001 -7.093158e+000 65 80 59
-7.555827e-001 -2.660803e-001 -5.636400e+000 152 146 76
1.737582e+000 1.649519e+000 -9.211679e+000 85 81 79
-2.462606e+000 -4.930628e-001 -5.212413e+000 188 178 125
-6.195915e-002 3.050997e+000 -9.984727e+000 191 168 127
-2.068261e+000 1.915295e+000 -7.674303e+000 202 184 184
-2.068261e+000 1.915295e+000 -7.674303e+000 202 184 184
2.049097e+000 2.315223e+000 -1.004284e+001 86 103 79
-2.490790e+000 3.641429e+000 -1.000789e+001 170 154 94
8.533582e-001 3.192190e+000 -1.083592e+001 181 157 109
2.328789e-001 1.183438e+000 -8.014830e+000 192 178 148
2.207918e+000 2.565249e-001 -7.714477e+000 176 170 145
-7.875173e-001 3.688267e+000 -1.095538e+001 126 86 79
3.129583e+000 1.665204e+000 -9.432816e+000 190 197 190
-2.381897e+000 1.141143e+000 -6.518066e+000 194 184 144
-5.718459e-001 6.260345e-001 -7.954699e+000 194 185 170
-2.515159e+000 2.384033e-001 -6.035998e+000 141 147 75
2.204167e+000 1.555468e+000 -9.463241e+000 72 80 69
-2.120866e+000 1.848151e+000 -7.567723e+000 163 64 72
2.716239e+000 2.061051e+000 -9.736595e+000 87 89 82
2.661573e+000 1.765981e+000 -9.902175e+000 163 165 158
-4.801680e+001 -9.271500e+000 -8.795743e+001 175 165 224
-4.425833e+000 3.474894e+000 -8.941362e+000 168 169 127
1.147580e+000 4.176164e+000 -1.215196e+001 213 208 196
-3.039167e+000 3.130663e+000 -8.820007e+000 173 129 104
1.228758e+000 2.877445e+000 -1.054592e+001 195 179 136
-1.308243e+000 1.881667e+000 -7.664210e+000 196 172 115
1.146166e+000 2.067133e+000 -9.472693e+000 103 96 88
-1.095871e-001 1.291244e+000 -8.067593e+000 193 187 165
-2.308667e-001 1.045850e+000 -7.750396e+000 82 73 60
5.482819e-001 8.871856e-001 -7.841235e+000 131 94 58
3.000977e+000 2.811282e-001 -8.146924e+000 102 116 90
3.000977e+000 2.811282e-001 -8.146924e+000 102 116 90
9.074430e-001 8.060907e-002 -7.063515e+000 174 168 99
1.238720e+000 1.463656e-001 -7.264464e+000 171 160 100
3.163274e+000 5.482835e-002 -7.960977e+000 110 122 95
-2.144526e+000 2.386510e+000 -8.215507e+000 189 184 183
1.885669e+000 2.376459e+000 -1.021365e+001 71 83 69
-1.549808e+000 1.318068e+000 -7.125172e+000 194 188 186
-1.549808e+000 1.318068e+000 -7.125172e+000 194 188 186
5.871755e-001 1.329611e+000 -8.386741e+000 142 94 71
2.151825e-001 6.751883e-001 -7.474123e+000 193 175 137
2.122254e+000 7.716947e-001 -8.360383e+000 172 148 97
2.472283e+000 6.402091e-001 -8.341562e+000 111 121 77
2.290780e+000 3.885093e-001 -7.990376e+000 165 150 92
-7.391744e-001 -4.994550e-003 -6.067313e+000 141 119 64
4.134982e+000 -3.129512e+000 -7.387359e+000 96 85 79
-5.012022e-001 3.992619e+000 -1.128695e+001 128 140 103
-3.116762e+000 2.084474e+000 -7.343359e+000 204 187 140
-3.116762e+000 2.084474e+000 -7.343359e+000 204 187 140
1.494929e+000 1.352914e+000 -8.766958e+000 144 149 84
2.324282e+000 5.575912e-001 -8.194729e+000 165 144 91
-4.212529e+000 3.639853e+000 -9.115077e+000 143 145 106
2.578626e+000 1.919875e+000 -9.896720e+000 157 160 153
5.901956e-001 6.411998e-001 -7.569981e+000 185 163 108
-4.113148e+001 -1.994522e+001 -7.731783e+001 216 65 97
-3.528273e+001 -2.667411e+001 -7.635319e+001 63 63 131
-2.060585e+000 3.893952e+000 -1.055576e+001 196 169 106
-3.777747e+001 -2.578766e+001 -7.370125e+001 188 34 71
-3.528405e+001 -2.608952e+001 -7.714519e+001 125 167 227
-2.929170e+001 -2.727880e+001 -7.335953e+001 187 30 61
-2.737667e+001 -3.107914e+001 -7.278564e+001 203 34 65
-2.790792e+001 -3.169891e+001 -7.151877e+001 213 30 57
1.568629e+000 1.451299e+000 -8.896845e+000 160 161 129
6.790613e-001 8.559058e-001 -7.787381e+000 183 164 108
6.803442e-001 8.532631e-001 -7.788254e+000 183 164 108
5.790891e-001 1.962219e-001 -6.992678e+000 179 165 104
-3.421739e+001 -2.619592e+001 -7.137601e+001 63 44 102
-3.815533e+001 -2.778512e+001 -6.657690e+001 203 29 65
-2.348924e+000 3.789322e+000 -1.031090e+001 163 157 91
1.072907e-001 5.862400e-001 -7.310891e+000 71 82 65
-3.755933e+001 -2.480320e+001 -7.611177e+001 122 22 47
-4.227211e+001 -2.079623e+001 -7.567114e+001 254 248 255
-3.582907e+001 -2.577215e+001 -7.457742e+001 143 195 247
-3.976534e+001 -2.759921e+001 -7.091386e+001 237 44 88
-3.344704e+001 -3.004564e+001 -7.425548e+001 38 21 37
-4.615914e+000 3.886848e+000 -9.256630e+000 136 142 91
-3.788182e+000 3.589337e+000 -9.192273e+000 85 102 64
-3.201505e+000 3.444362e+000 -9.073885e+000 200 182 136
-3.913414e-001 3.845028e+000 -1.110389e+001 131 147 113
-4.106721e+000 2.969064e+000 -8.295490e+000 180 160 106
-6.339836e-001 3.378662e+000 -1.027667e+001 135 80 60
-8.452527e-001 3.244285e+000 -1.011172e+001 185 146 107
-8.452527e-001 3.244285e+000 -1.011172e+001 185 146 107
-4.600497e-001 3.243944e+000 -1.029327e+001 169 124 88
2.453964e-001 3.158022e+000 -1.044916e+001 156 112 72
4.341317e-001 3.224095e+000 -1.075571e+001 137 101 77
-4.229565e+000 2.654863e+000 -8.331863e+000 244 203 148
6.071057e-001 2.412249e+000 -9.701827e+000 180 170 136
6.071057e-001 2.412249e+000 -9.701827e+000 180 170 136
1.196702e+000 2.385354e+000 -9.893987e+000 95 86 82
1.739908e+000 2.596136e+000 -1.041198e+001 163 144 100
1.739908e+000 2.596136e+000 -1.041198e+001 163 144 100
2.889544e+000 2.612370e+000 -9.261813e+000 67 67 59
-1.991361e+000 2.007892e+000 -7.813091e+000 121 58 55
-1.987823e+000 2.006846e+000 -7.823672e+000 121 58 55
5.486958e-001 2.268631e+000 -9.438767e+000 185 176 148
1.341634e+000 2.069237e+000 -9.569678e+000 81 76 72
1.337775e+000 2.071196e+000 -9.563486e+000 81 76 72
1.451200e+000 2.300323e+000 -9.892841e+000 103 101 88
1.504206e+000 2.247526e+000 -9.873455e+000 152 146 136
1.753805e+000 2.259422e+000 -1.000344e+001 110 111 110
1.491539e+000 1.924552e+000 -9.460776e+000 122 112 95
-2.938580e-001 1.461359e+000 -8.221454e+000 193 185 174
1.450370e+000 1.641439e+000 -9.120441e+000 152 152 125
-3.478178e-001 1.358753e+000 -8.067082e+000 160 146 123
-1.159736e-001 1.290151e+000 -8.063792e+000 187 176 156
7.372501e-001 1.343922e+000 -8.437724e+000 130 88 58
7.415227e-001 1.342217e+000 -8.451671e+000 130 88 58
-1.741759e-001 9.360458e-001 -7.639621e+000 69 69 48
8.070830e-001 8.690011e-001 -7.931771e+000 136 93 62
8.073945e-001 8.693034e-001 -7.938769e+000 136 93 62
1.010324e+000 8.101870e-001 -7.927567e+000 136 92 57
1.325040e+000 9.382837e-001 -8.204791e+000 128 132 81
-3.044505e-002 6.373651e-001 -7.339970e+000 176 156 123
9.516100e-001 5.653710e-001 -7.634518e+000 176 152 96
1.121108e+000 5.532422e-001 -7.682615e+000 129 88 58
1.122417e+000 5.502740e-001 -7.692581e+000 129 88 58
1.347613e-001 2.294460e-001 -6.899516e+000 170 155 96
2.980883e+000 3.486971e-001 -8.229271e+000 93 108 82
3.051812e+000 2.989365e-001 -8.217999e+000 161 172 148
1.234195e+000 3.595067e-002 -7.180874e+000 135 87 62
4.142854e+000 -3.151555e+000 -7.303052e+000 123 114 105
-4.728515e-001 4.017685e+000 -1.132682e+001 120 130 96
-3.984909e+000 3.400599e+000 -8.870278e+000 176 172 133
-3.488618e+000 3.327534e+000 -8.925734e+000 83 110 82
-7.496365e-002 3.834211e+000 -1.112548e+001 131 138 105
1.190591e+000 2.956753e+000 -1.066630e+001 78 75 63
-3.664120e+000 2.183852e+000 -7.520977e+000 190 172 135
2.870855e+000 2.779582e+000 -9.086496e+000 182 183 175
-2.147132e+000 1.890206e+000 -7.613586e+000 190 179 176
1.083571e+000 2.101556e+000 -9.483283e+000 152 151 125
2.762244e+000 2.364003e+000 -9.548665e+000 182 183 177
-3.656948e+000 1.552556e+000 -7.520293e+000 217 200 129
1.654895e+000 1.830932e+000 -9.402370e+000 98 94 93
1.653963e+000 1.718215e+000 -9.263914e+000 77 76 72
-3.245597e+000 1.299914e+000 -6.677747e+000 222 216 193
-3.272121e+000 1.125178e+000 -6.759428e+000 183 180 103
-1.169381e-001 1.236074e+000 -8.013228e+000 71 72 55
5.327691e-001 1.430729e+000 -8.466715e+000 138 91 65
1.963280e+000 1.426633e+000 -9.027606e+000 86 83 80
7.346730e-001 1.034027e+000 -8.106152e+000 138 89 64
4.066426e-001 8.531660e-001 -7.785703e+000 141 87 66
-1.029476e-001 7.116790e-001 -7.422488e+000 182 168 138
1.730795e-001 5.702697e-001 -7.336950e+000 186 170 132
1.730795e-001 5.702697e-001 -7.336950e+000 186 170 132
1.096564e+000 6.225251e-001 -7.737396e+000 139 89 61
2.889054e+000 6.655021e-001 -8.585997e+000 127 141 118
1.083075e-001 4.618428e-001 -7.194008e+000 173 156 114
1.083075e-001 4.618428e-001 -7.194008e+000 173 156 114
1.225765e+000 3.696111e-001 -7.533709e+000 131 93 66
1.225765e+000 3.696111e-001 -7.533709e+000 131 93 66
2.883931e+000 5.398877e-001 -8.423393e+000 102 116 87
1.822966e-001 1.624351e-001 -6.902564e+000 177 161 106
1.090835e+000 3.465660e-001 -7.461513e+000 136 91 68
1.210224e+000 2.215378e-001 -7.351582e+000 162 157 100
3.066762e+000 1.128538e-002 -7.914185e+000 173 180 166
-1.209233e+000 -4.302322e-001 -5.443837e+000 93 83 47
9.000870e-001 -5.558532e-001 -6.717254e+000 92 88 56
-2.905235e+000 -1.524885e+000 -6.076303e+000 105 85 68
-1.877395e+000 -1.378039e+000 -5.951502e+000 79 70 63
3.509201e+000 4.826044e+000 -7.408842e+000 194 187 181
3.571663e+000 4.839284e+000 -7.393683e+000 96 88 80
-4.066083e+000 3.400375e+000 -8.839474e+000 121 125 88
-1.028440e-002 3.889314e+000 -1.135323e+001 82 81 74
-4.266362e-001 3.627959e+000 -1.079626e+001 147 106 88
5.462397e-001 3.026531e+000 -1.039376e+001 183 181 168
1.720275e+000 2.881493e+000 -1.075008e+001 69 82 64
1.185497e+000 2.519359e+000 -1.001207e+001 175 170 158
1.820915e+000 1.810437e+000 -9.481495e+000 95 91 90
1.408755e+000 1.752565e+000 -9.221070e+000 88 84 79
8.646288e-001 7.975640e-001 -7.861351e+000 135 84 57
1.983517e+000 9.917074e-001 -8.537771e+000 165 167 143
2.400510e+000 6.807463e-001 -8.363229e+000 102 113 71
2.270905e-001 4.654167e-001 -7.229045e+000 178 157 115
1.187437e-001 3.991903e-001 -7.158754e+000 60 75 65
6.957877e-001 2.953471e-001 -7.227502e+000 140 87 65
3.085594e+000 1.345606e-001 -8.025682e+000 98 113 79
-3.486469e+000 -6.893631e-001 -7.015761e+000 209 177 148
7.004042e-001 -6.878444e-002 -6.784069e+000 167 158 91
1.437837e-001 -1.002061e+000 -6.740457e+000 94 80 54
-1.448540e+000 -1.159518e+000 -5.926453e+000 74 66 62
-3.887977e+000 3.521731e+000 -9.085095e+000 177 166 126
-9.257751e-001 3.809722e+000 -1.075166e+001 133 138 105
-6.739602e-001 3.862305e+000 -1.095950e+001 121 132 92
6.923963e-001 3.704845e+000 -1.126150e+001 128 81 63
3.012545e-001 3.290823e+000 -1.065239e+001 182 146 98
-2.779747e+000 2.640428e+000 -8.356979e+000 124 63 61
-2.777500e+000 2.639592e+000 -8.373349e+000 124 63 61
-2.384234e+000 2.372331e+000 -8.123034e+000 196 182 185
9.476908e-001 2.345142e+000 -9.760575e+000 152 152 128
-1.995732e+000 1.646800e+000 -7.398724e+000 198 180 185
2.579177e+000 1.704176e+000 -9.996509e+000 63 66 59
-3.433116e+000 1.168852e+000 -7.002697e+000 228 201 125
-1.348506e+000 1.182547e+000 -7.076574e+000 145 55 58
-1.348506e+000 1.182547e+000 -7.076574e+000 145 55 58
-1.145196e+000 1.077970e+000 -7.051338e+000 190 180 155
-1.261916e-001 1.051505e+000 -7.790626e+000 186 175 155
-1.261916e-001 1.051505e+000 -7.790626e+000 186 175 155
-1.483726e-002 1.020817e+000 -7.776613e+000 68 82 71
8.301162e-001 1.003927e+000 -8.084891e+000 179 154 98
8.303708e-001 1.004888e+000 -8.081215e+000 179 154 98
8.987218e-001 8.725843e-001 -7.955795e+000 179 154 94
1.989822e+000 9.844187e-001 -8.572680e+000 165 167 143
5.918437e-001 6.385960e-001 -7.570158e+000 181 157 111
1.129010e+000 1.668751e-001 -7.246923e+000 135 87 62
1.129010e+000 1.668751e-001 -7.246923e+000 135 87 62
4.202620e-001 5.205107e-004 -6.805358e+000 177 158 97
5.041236e-001 -4.294895e-002 -6.750528e+000 63 82 65
1.000698e+000 1.521370e-001 -7.118318e+000 161 155 85
-3.029419e+000 -1.414367e+000 -6.161968e+000 172 157 91
-1.861451e+000 -1.562799e+000 -6.120642e+000 76 72 63
-2.942951e+000 9.158337e-001 -6.236985e+000 173 163 111
-4.066597e-002 9.133368e-001 -7.660958e+000 185 171 145
-4.066597e-002 9.133368e-001 -7.660958e+000 185 171 145
8.797909e-001 3.831018e-002 -7.010403e+000 164 158 85
-4.333102e+000 3.649805e+000 -9.074788e+000 167 163 125
-3.508460e+000 3.668706e+000 -9.402593e+000 178 162 117
-3.091548e+000 1.735124e+000 -6.906237e+000 194 167 90
1.679036e+000 2.023126e+000 -9.673320e+000 98 95 92
7.788776e-001 1.091085e+000 -8.187415e+000 181 150 104
1.105517e+000 5.486847e-002 -7.169460e+000 164 152 93
1.105517e+000 5.486847e-002 -7.169460e+000 164 152 93
-3.250924e+000 3.224855e+000 -8.907597e+000 192 175 145
-2.202530e+000 2.651203e+000 -8.526756e+000 122 61 55
1.727047e+000 2.246042e+000 -9.962088e+000 111 107 102
2.480361e+000 2.069397e+000 -9.611701e+000 158 161 155
5.566875e-001 1.031903e+000 -8.025594e+000 179 162 111
5.400665e-001 3.944046e+000 -1.166626e+001 120 81 72
-1.434080e+000 9.477265e-001 -6.863194e+000 191 180 175
4.167077e-001 3.243173e-002 -6.837108e+000 171 151 100
-6.371365e-001 1.095895e+000 -7.640241e+000 192 182 180
-6.371365e-001 1.095895e+000 -7.640241e+000 192 182 180
-2.084828e+000 1.893006e+000 -7.952175e+000 192 181 181
-4.514353e+000 3.724810e+000 -9.054167e+000 144 144 87
-8.458458e-001 3.770238e+000 -1.077354e+001 139 148 124
-4.018355e+000 3.453830e+000 -8.926817e+000 171 169 133
-4.018355e+000 3.453830e+000 -8.926817e+000 171 169 133
-3.344075e+000 3.416731e+000 -9.074347e+000 77 100 71
1.003437e+000 3.687146e+000 -1.140475e+001 166 118 90
-4.161027e+000 3.185867e+000 -8.590589e+000 168 167 129
-4.076678e+000 3.129585e+000 -8.558364e+000 181 171 128
3.070512e-001 3.000293e+000 -1.013066e+001 184 155 115
1.811881e+000 2.061970e+000 -9.772307e+000 139 138 131
1.893138e+000 1.894649e+000 -9.455242e+000 138 137 133
6.725322e-001 1.462877e+000 -8.542567e+000 130 90 58
-3.455616e+000 8.209744e-001 -7.067172e+000 205 170 114
-2.521771e-001 1.178623e+000 -7.908973e+000 170 160 137
3.430091e-002 1.074084e+000 -7.870703e+000 189 175 149
-1.135665e+000 1.017403e+000 -7.018661e+000 134 114 88
-1.737300e-001 9.348494e-001 -7.640940e+000 81 69 54
1.294440e+000 9.745298e-001 -8.241032e+000 162 159 114
-4.309137e+000 -4.720933e-001 -8.794299e+000 217 162 174
4.939692e-001 7.309495e-001 -7.634746e+000 179 156 114
9.522225e-001 6.707207e-001 -7.774851e+000 168 147 92
9.522225e-001 6.707207e-001 -7.774851e+000 168 147 92
2.852474e-001 5.862543e-001 -7.394911e+000 180 163 119
1.650379e+000 6.000914e-001 -7.938914e+000 146 143 82
-3.595366e+000 -3.836048e-001 -7.283919e+000 131 93 80
-3.604710e+000 -4.039526e-001 -7.327668e+000 131 93 80
1.240499e+000 3.798409e-001 -7.557814e+000 138 94 71
1.228889e+000 4.007104e-001 -7.503105e+000 138 94 71
7.829483e-001 2.278807e-001 -7.201070e+000 132 88 52
7.670937e-001 2.000807e-001 -7.126418e+000 177 150 101
7.670937e-001 2.000807e-001 -7.126418e+000 177 150 101
3.032517e+000 2.145958e-001 -8.105216e+000 98 118 83
3.094050e+000 -3.599683e-002 -7.839158e+000 157 170 146
-3.338341e+000 -8.609042e-001 -6.858702e+000 131 103 63
-3.338341e+000 -8.609042e-001 -6.858702e+000 131 103 63
-3.286509e+000 -9.560141e-001 -6.752832e+000 114 89 57
-3.193510e+000 -1.122496e+000 -6.585109e+000 106 94 56
3.800643e+000 5.939573e+000 -6.289462e+000 190 183 176
-2.144661e-002 3.866286e+000 -1.103816e+001 73 70 63
-3.495658e+000 3.259963e+000 -8.806961e+000 80 108 77
-6.995124e-001 3.383728e+000 -1.016559e+001 164 115 87
-6.800567e-001 3.055662e+000 -9.917842e+000 155 107 67
-4.160582e+000 2.413390e+000 -8.202548e+000 224 188 179
8.446959e-002 2.823144e+000 -9.962285e+000 186 173 141
-4.123165e+000 2.056108e+000 -8.092449e+000 218 180 177
-4.130115e+000 2.045725e+000 -8.134556e+000 218 180 177
1.680224e+000 2.439584e+000 -1.021094e+001 73 78 68
1.494382e+000 2.416523e+000 -1.004735e+001 105 100 97
-2.216469e+000 2.003061e+000 -7.732148e+000 189 186 185
-3.587698e+000 1.640781e+000 -7.179488e+000 217 198 134
1.646132e+000 1.721235e+000 -9.268260e+000 75 71 68
2.052332e+000 1.815423e+000 -9.539382e+000 97 96 92
-1.683736e+000 1.366981e+000 -7.239519e+000 135 46 54
-1.683736e+000 1.366981e+000 -7.239519e+000 135 46 54
6.453434e-001 1.249884e+000 -8.283766e+000 134 90 62
-3.121693e+000 1.001220e+000 -6.320623e+000 178 180 110
-1.950709e+000 1.095481e+000 -6.841609e+000 161 53 57
-4.439025e+000 -3.444067e-001 -8.985052e+000 184 92 105
-4.302608e+000 -3.931612e-001 -8.837392e+000 179 74 87
-3.008516e+000 7.018971e-001 -6.199455e+000 175 177 104
9.917683e-001 7.623387e-001 -7.872889e+000 169 152 92
-2.807460e+000 4.890906e-001 -5.888371e+000 181 188 120
7.323982e-001 5.222544e-001 -7.495067e+000 139 93 63
2.537817e+000 5.708137e-001 -8.190784e+000 68 76 61
8.376199e-001 2.941329e-001 -7.313996e+000 143 92 64
-3.527134e+000 -5.715493e-001 -7.195789e+000 169 136 110
3.007145e+000 1.644648e-001 -8.046011e+000 172 180 170
7.639888e-001 -3.773830e-002 -6.873900e+000 137 89 66
7.639888e-001 -3.773830e-002 -6.873900e+000 137 89 66
-3.227683e+000 -9.531539e-001 -6.711922e+000 188 165 98
-6.706040e-001 -2.731228e-001 -6.294682e+000 123 107 58
-6.706040e-001 -2.731228e-001 -6.294682e+000 123 107 58
-1.692804e+000 3.824202e+000 -1.049792e+001 194 175 141
9.212035e-001 3.881794e+000 -1.162690e+001 78 89 83
9.391565e-001 3.149667e+000 -1.055438e+001 171 145 96
-8.904594e-002 2.812045e+000 -9.871599e+000 183 173 149
1.462044e+000 2.232940e+000 -9.851145e+000 153 142 120
-2.250663e+000 1.916058e+000 -7.666394e+000 194 181 180
6.128275e-001 1.399780e+000 -8.450060e+000 182 162 101
4.577016e-001 7.547018e-001 -7.679221e+000 136 88 66
8.640764e-001 8.004682e-001 -7.855547e+000 139 88 69
1.268272e+000 8.736756e-002 -7.215205e+000 138 91 73
3.082771e+000 1.389194e-001 -8.019464e+000 92 107 75
7.736994e-001 -5.840649e-002 -6.915206e+000 138 89 67
-3.280749e+000 -8.769785e-001 -6.817132e+000 200 173 101
-3.027540e+000 -1.311345e+000 -6.390567e+000 160 159 94
-3.027540e+000 -1.311345e+000 -6.390567e+000 160 159 94
-4.058816e+000 3.584389e+000 -9.043722e+000 179 170 127
-3.578766e+000 3.338372e+000 -8.985956e+000 181 169 131
-2.856008e-001 3.200534e+000 -1.034309e+001 178 150 105
-2.353470e+000 2.452843e+000 -8.216250e+000 122 56 57
-2.353470e+000 2.452843e+000 -8.216250e+000 122 56 57
-1.799062e+000 2.480069e+000 -8.615856e+000 165 142 103
-2.297548e-001 1.431052e+000 -8.183938e+000 73 74 62
-2.297548e-001 1.431052e+000 -8.183938e+000 73 74 62
-4.633351e+000 2.229060e-001 -9.341436e+000 130 62 53
7.315030e-001 1.197324e+000 -8.268130e+000 180 154 105
7.320599e-001 1.197534e+000 -8.267775e+000 180 154 105
1.088424e+000 4.968889e-001 -7.603529e+000 168 150 92
3.417694e-002 4.152281e+000 -1.158765e+001 224 214 207
1.200219e-001 3.881080e+000 -1.123600e+001 152 124 104
-5.215614e-001 3.130110e+000 -1.015665e+001 183 149 97
-2.736544e+000 2.637241e+000 -8.302497e+000 126 59 58
-2.736544e+000 2.637241e+000 -8.302497e+000 126 59 58
-2.466242e+000 2.491421e+000 -8.262725e+000 191 183 181
-2.114666e+000 2.014298e+000 -7.787021e+000 147 64 67
-2.061932e+000 2.015632e+000 -7.824377e+000 150 64 66
-2.061932e+000 2.015632e+000 -7.824377e+000 150 64 66
-3.091925e+000 1.924842e+000 -7.189175e+000 198 181 149
-3.091925e+000 1.924842e+000 -7.189175e+000 198 181 149
-3.036824e+000 1.673151e+000 -7.269702e+000 199 182 148
-3.036824e+000 1.673151e+000 -7.269702e+000 199 182 148
2.442501e+000 1.884536e+000 -1.003102e+001 88 91 82
2.967414e-001 2.370106e-001 -6.987263e+000 177 160 104
2.951881e-001 2.354185e-001 -6.985960e+000 177 160 104
-1.272022e+000 3.939201e+000 -1.079927e+001 94 101 73
-2.228754e+000 1.135975e+000 -6.731979e+000 193 167 93
-1.095367e+000 1.104660e+000 -7.344523e+000 146 115 67
-1.095367e+000 1.104660e+000 -7.344523e+000 146 115 67
-4.017476e+000 3.646730e+000 -9.147526e+000 173 165 120
-1.784865e+000 2.347752e+000 -8.397452e+000 192 168 110
-1.782170e+000 1.424881e+000 -7.206109e+000 158 57 65
-1.782170e+000 1.424881e+000 -7.206109e+000 158 57 65
-1.218451e+000 1.104765e+000 -7.046257e+000 195 170 115
-1.214104e+000 1.108306e+000 -7.038410e+000 195 170 115
7.651228e-001 7.113761e-001 -7.759455e+000 175 156 98
2.164395e+000 8.769135e-001 -8.409118e+000 99 111 71
2.831328e+000 6.218133e-001 -8.467819e+000 104 116 94
1.520732e+000 2.680443e+000 -1.038860e+001 77 88 71
-1.973800e+000 2.373297e+000 -8.148618e+000 133 57 59
-3.622113e+000 -6.206855e-002 -7.090418e+000 224 193 181
-2.552933e+000 2.231395e+000 -8.058637e+000 145 53 55
-2.271707e+000 2.341840e+000 -8.102348e+000 163 127 129
-1.817886e+000 2.084853e+000 -8.180453e+000 147 58 58
-4.268155e-001 4.258517e+000 -1.166625e+001 241 219 208
-2.498670e+000 3.624331e+000 -1.012934e+001 166 152 91
1.140571e+000 3.795179e+000 -1.173768e+001 85 88 80
2.195008e+000 3.228051e+000 -8.676830e+000 194 195 189
2.184774e+000 1.560246e+000 -9.512728e+000 62 72 61
-5.453681e+001 -5.864833e+000 -9.380986e+001 206 56 104
-5.182058e+001 9.529373e-001 -1.036426e+002 251 55 96
-4.858730e+001 2.567841e-001 -1.039668e+002 236 43 83
-4.005890e+001 -3.212688e+000 -1.056108e+002 250 200 179
-4.233741e+001 -1.080241e+001 -8.632932e+001 167 24 54
-4.037136e+001 -8.051383e+000 -9.890130e+001 64 37 89
-5.414472e+001 -7.133381e+000 -9.644038e+001 77 60 128
-5.276192e+001 -8.367466e+000 -9.340454e+001 174 165 218
-5.165186e+001 -8.636576e+000 -9.264487e+001 79 64 129
-3.129673e+001 -2.515536e+001 -7.840921e+001 197 39 78
-3.982915e+001 -7.071729e+000 -1.003819e+002 229 42 77
-3.438013e+001 -2.717112e+001 -6.951331e+001 188 11 47
-3.996388e+001 -4.331622e+000 -9.792392e+001 255 206 112
-3.936901e+001 -2.691829e+001 -6.922847e+001 235 49 93
-2.921389e+001 -2.533232e+001 -7.512790e+001 229 37 76
-2.921389e+001 -2.533232e+001 -7.512790e+001 229 37 76
-4.979547e+001 -8.626723e+000 -8.571640e+001 180 160 216
-4.979547e+001 -8.626723e+000 -8.571640e+001 180 160 216
-4.840211e+001 -1.271380e+001 -8.656708e+001 59 39 67
-6.339512e-001 3.484707e+000 -1.049817e+001 165 111 89
7.185646e-001 5.594342e-001 -7.544770e+000 180 158 103
1.203305e+000 1.206228e-001 -7.227507e+000 136 88 66
1.200935e+000 7.578564e-002 -7.190702e+000 151 149 79
1.157641e+000 4.361054e-001 -7.575890e+000 141 93 71
6.380700e-001 2.927291e+000 -1.036832e+001 103 120 88
-5.005606e+001 -9.445633e+000 -8.850997e+001 120 110 171
1.782977e+000 8.943501e-001 -8.336431e+000 152 144 89
-5.376880e+001 -9.869464e+000 -9.063246e+001 255 198 238
-3.321237e+001 -1.434944e+001 -9.103092e+001 162 54 69
-3.875945e+001 -3.155990e+001 -6.356681e+001 64 52 115
8.257579e-001 2.564501e+000 -9.951992e+000 164 143 91
-5.019378e+001 -1.016895e+001 -8.677661e+001 212 203 246
-2.564828e+001 -3.309489e+001 -6.358303e+001 199 30 59
-2.532724e+001 -3.436462e+001 -6.273922e+001 182 32 61
-3.209741e+001 -2.478215e+001 -7.936209e+001 56 38 78
-3.132169e+001 -3.025183e+001 -6.510916e+001 64 47 90
-2.645807e+001 -3.161705e+001 -6.962585e+001 236 165 101
-2.665086e+001 -3.238167e+001 -6.833948e+001 214 36 64
-2.461683e+001 -3.211326e+001 -6.578421e+001 207 36 63
-4.002034e+001 -2.762143e+001 -6.766948e+001 56 37 92
-2.698851e+001 -3.210354e+001 -6.610653e+001 229 170 87
-2.807129e+001 -3.107563e+001 -6.402765e+001 47 32 67
-2.467417e+001 -3.428189e+001 -6.390712e+001 202 36 68
-2.505450e+001 -3.491131e+001 -6.501988e+001 202 36 68
-2.831018e+001 -3.163377e+001 -6.905524e+001 240 179 89
-2.831018e+001 -3.163377e+001 -6.905524e+001 240 179 89
-2.759540e+000 3.887135e+000 -1.018022e+001 159 149 100
-3.843073e+000 3.290433e+000 -8.771380e+000 125 119 83
2.632155e-001 2.957743e+000 -1.021556e+001 155 99 72
-4.093140e+000 1.997154e+000 -8.114401e+000 176 136 132
1.091937e+000 2.119768e+000 -9.439752e+000 154 152 129
-2.856647e+000 1.465165e+000 -9.417008e+000 202 174 170
-2.203893e+000 1.875317e+000 -7.601748e+000 165 53 64
-3.632037e+000 1.267888e+000 -7.234412e+000 237 204 169
-1.289793e+000 1.168464e+000 -7.171679e+000 189 165 111
-3.284740e+000 -9.554205e-001 -6.751402e+000 114 89 57
-3.496016e+000 3.257381e+000 -8.810467e+000 80 108 77
-4.468487e-001 3.458028e+000 -1.047781e+001 141 95 75
-2.314179e+000 2.991199e+000 -9.014905e+000 143 128 107
9.837494e-001 3.214668e+000 -1.077736e+001 187 163 108
2.108720e+000 1.694323e+000 -9.453500e+000 91 95 88
9.341760e-001 5.527377e-003 -7.018889e+000 160 150 88
3.683858e+000 5.512998e+000 -6.733468e+000 188 184 173
-4.081990e+000 3.296894e+000 -8.762011e+000 173 166 130
-3.335129e+000 3.484717e+000 -9.145036e+000 194 172 129
3.554071e-001 2.500175e+000 -9.637540e+000 180 174 146
1.744377e+000 1.088562e+000 -8.563153e+000 172 169 140
1.367726e-001 2.755354e-001 -7.008005e+000 178 158 107
-9.852118e-002 4.025124e+000 -1.149505e+001 87 90 76
-1.987817e+000 1.646906e+000 -7.397089e+000 198 183 183
-4.935197e+001 -2.515607e+001 -7.675508e+001 239 59 104
-7.894041e-002 8.047161e-001 -7.539948e+000 67 81 71
-3.182530e+001 -3.094073e+001 -6.650093e+001 79 54 101
-7.594522e-003 3.982433e+000 -1.148179e+001 93 100 83
1.601295e+000 1.220148e+000 -8.709768e+000 137 140 83
-3.455112e+001 -3.330969e+001 -6.402176e+001 155 20 50
-2.860801e+001 -3.186167e+001 -6.512321e+001 44 29 62
-3.970147e+001 -4.033510e+001 -6.263759e+001 76 69 77
-7.296249e-001 3.641782e+000 -1.092924e+001 132 84 74
-4.054727e+001 -3.025687e+001 -6.677824e+001 49 25 48
-4.191724e+001 -3.839024e+001 -6.714553e+001 45 30 72
2.321766e-002 4.521426e+000 -1.487026e+001 166 153 146
2.321766e-002 4.521426e+000 -1.487026e+001 166 153 146
-4.688533e+000 3.762530e+000 -9.418825e+000 165 170 127
-2.185708e+000 3.877692e+000 -1.043647e+001 193 173 118
-4.293591e+000 3.535085e+000 -8.921871e+000 125 127 90
-4.004398e+000 3.580605e+000 -9.033306e+000 174 169 127
-3.784941e+000 3.638800e+000 -9.234780e+000 177 165 118
-1.036014e-001 3.918900e+000 -1.120129e+001 136 142 119
-4.011288e+000 3.324535e+000 -8.744846e+000 177 173 135
-4.011288e+000 3.324535e+000 -8.744846e+000 177 173 135
-3.876324e+000 3.326931e+000 -8.794334e+000 164 160 122
-2.568428e+000 3.263524e+000 -9.465856e+000 186 164 115
2.373589e-001 3.484506e+000 -1.098595e+001 165 114 85
7.950830e-001 3.664297e+000 -1.095631e+001 165 120 95
-3.059079e+000 3.164978e+000 -8.877370e+000 177 121 100
-8.460958e-001 3.242501e+000 -1.009701e+001 185 143 107
4.728558e-001 3.263481e+000 -1.064852e+001 179 161 125
-2.377644e+000 3.021149e+000 -8.983368e+000 195 180 165
2.486478e-001 3.148679e+000 -1.046645e+001 149 106 68
1.245434e+000 3.038520e+000 -1.089200e+001 113 90 58
-7.859302e-001 2.885361e+000 -9.721561e+000 152 98 66
1.179004e+000 2.841095e+000 -1.040130e+001 163 144 93
1.695156e+000 2.962087e+000 -1.089846e+001 69 84 64
1.166249e+000 2.325348e+000 -9.762804e+000 124 115 92
1.199291e+000 2.128141e+000 -9.578661e+000 125 118 108
1.278939e+000 2.142239e+000 -9.648683e+000 88 81 75
1.307944e+000 2.103591e+000 -9.611128e+000 127 120 110
1.666200e+000 2.264619e+000 -9.991574e+000 143 138 134
1.746987e+000 2.198475e+000 -9.966369e+000 143 141 136
-2.250361e+000 1.982839e+000 -7.674579e+000 137 52 55
-2.250361e+000 1.982839e+000 -7.674579e+000 137 52 55
1.115901e+000 2.030131e+000 -9.320968e+000 152 150 131
1.774202e+000 1.964976e+000 -9.684101e+000 148 144 141
1.872044e+000 2.045971e+000 -9.735821e+000 110 106 102
2.015358e+000 2.024354e+000 -9.759135e+000 127 128 117
2.085334e+000 1.936986e+000 -9.825241e+000 131 137 125
-2.071385e+000 1.679230e+000 -7.403843e+000 160 63 77
-1.736267e+000 1.697559e+000 -7.625010e+000 121 39 45
-1.736267e+000 1.697559e+000 -7.625010e+000 121 39 45
-3.978608e+000 1.019605e+000 -7.921359e+000 179 148 93
