ply
format ascii 1.0
element face 0
property list uchar int vertex_indices
element vertex 875
property float x
property float y
property float z
property uchar diffuse_red
property uchar diffuse_green
property uchar diffuse_blue
end_header
1.859259e+000 -1.864416e+000 -7.766496e+000 92 81 53
2.051593e+000 -1.804412e+000 -7.837791e+000 76 66 38
2.192363e+000 -1.801386e+000 -7.874899e+000 78 72 45
-2.954215e+000 -1.874815e+000 -5.092865e+000 68 61 51
-2.793108e+000 -1.872357e+000 -5.170241e+000 109 105 93
-2.624347e+000 -2.087141e+000 -5.511135e+000 74 63 60
-2.162083e+000 -2.064350e+000 -5.693982e+000 73 64 57
-2.162083e+000 -2.064350e+000 -5.693982e+000 73 64 57
-1.997186e+000 -2.153456e+000 -5.818229e+000 111 102 93
-7.596699e-001 -2.067686e+000 -6.559939e+000 84 68 45
-5.459171e-001 -2.035026e+000 -6.642600e+000 90 74 48
-3.082237e-001 -2.065443e+000 -6.854270e+000 141 122 92
-4.351332e-001 -2.241677e+000 -6.924983e+000 103 85 63
-1.948903e-001 -2.076842e+000 -6.748889e+000 134 118 84
-1.411857e-001 -2.156409e+000 -7.038517e+000 85 69 44
-7.766107e-002 -2.204019e+000 -7.095946e+000 139 123 94
-7.766107e-002 -2.204019e+000 -7.095946e+000 139 123 94
2.871154e-001 -2.286913e+000 -7.348948e+000 87 72 50
1.630690e+000 -2.322896e+000 -8.070842e+000 122 111 65
1.853377e+000 -2.112971e+000 -7.962262e+000 117 108 69
1.853377e+000 -2.112971e+000 -7.962262e+000 117 108 69
2.020004e+000 -2.338238e+000 -8.308969e+000 74 64 37
2.394407e+000 -2.100546e+000 -8.230266e+000 75 68 43
2.394407e+000 -2.100546e+000 -8.230266e+000 75 68 43
2.696500e+000 -2.213471e+000 -8.576756e+000 64 62 41
-2.180377e+000 -2.494092e+000 -6.074937e+000 70 67 56
-1.244697e+000 -2.486135e+000 -6.745732e+000 71 52 45
-1.089190e+000 -2.329886e+000 -6.568070e+000 58 44 36
-7.125163e-001 -2.548183e+000 -7.059259e+000 84 69 47
-4.914303e-001 -2.598998e+000 -7.245047e+000 135 120 89
-8.804671e-002 -2.454927e+000 -7.371001e+000 93 78 52
-1.582106e-001 -2.629235e+000 -7.412943e+000 100 84 61
2.409269e-001 -2.404261e+000 -7.422315e+000 90 76 49
5.172106e-001 -2.569564e+000 -7.750295e+000 83 67 45
1.026722e+000 -2.483201e+000 -7.956770e+000 81 64 40
1.653232e+000 -2.498788e+000 -8.271654e+000 86 74 42
1.578374e+000 -2.713927e+000 -8.459947e+000 83 66 44
-2.323775e+000 -2.549542e+000 -6.059806e+000 71 67 61
-2.317166e+000 -2.541749e+000 -6.014146e+000 71 67 61
-1.182341e+000 -2.604048e+000 -6.848335e+000 55 45 37
-1.030065e+000 -2.716119e+000 -7.087019e+000 134 118 94
-6.092218e-001 -2.775267e+000 -7.402434e+000 94 79 58
-8.032987e-001 -2.806596e+000 -7.279142e+000 90 74 55
-6.687170e-001 -2.946205e+000 -7.596877e+000 97 81 57
-6.678275e-001 -2.940923e+000 -7.567266e+000 97 81 57
-4.759814e-001 -2.777203e+000 -7.450664e+000 98 83 57
-4.142687e-001 -2.975543e+000 -7.673292e+000 89 74 44
-2.297833e-001 -2.637881e+000 -7.399422e+000 136 122 90
1.453922e-001 -2.708177e+000 -7.651300e+000 92 77 53
7.050295e-001 -2.843520e+000 -8.111775e+000 89 74 49
7.050295e-001 -2.843520e+000 -8.111775e+000 89 74 49
6.752756e-001 -2.937586e+000 -8.242011e+000 93 77 51
5.858245e-001 -2.961798e+000 -8.160460e+000 130 116 81
-1.220733e+000 -3.078898e+000 -7.354006e+000 93 77 58
-8.611870e-001 -2.989960e+000 -7.396072e+000 84 69 48
-2.821807e-001 -3.371574e+000 -8.118238e+000 97 82 55
3.943735e-003 -3.119977e+000 -8.076597e+000 88 78 50
1.286095e-001 -3.135590e+000 -8.083822e+000 89 77 54
9.285804e-002 -3.257185e+000 -8.279768e+000 87 73 46
-2.111405e+000 -3.312926e+000 -7.061585e+000 123 107 82
-2.238504e+000 -3.454337e+000 -7.166549e+000 90 75 49
-1.335358e+000 -3.591284e+000 -7.863845e+000 127 113 86
-3.977862e-001 -3.706260e+000 -8.464296e+000 93 77 51
-2.329137e+000 -3.902366e+000 -7.565655e+000 112 99 71
-2.062697e+000 -3.767472e+000 -7.657397e+000 73 60 41
-1.545871e+000 -4.008823e+000 -8.191742e+000 94 80 59
-1.545871e+000 -4.008823e+000 -8.191742e+000 94 80 59
-1.134369e+000 -3.753459e+000 -8.114190e+000 93 79 53
-8.422768e-001 -3.791276e+000 -8.312030e+000 97 82 55
-3.281680e+000 -3.990383e+000 -7.129418e+000 121 108 72
-3.195755e+000 -4.158907e+000 -7.459052e+000 109 98 70
-2.897308e+000 -4.135860e+000 -7.540947e+000 111 96 68
-2.192596e+000 -3.960996e+000 -7.705747e+000 108 97 71
-2.057990e+000 -4.034177e+000 -7.909402e+000 117 106 76
5.074117e+000 -3.992587e+000 -7.228981e+000 188 181 174
-4.687760e+000 4.270709e+000 -9.469631e+000 105 114 85
-4.795443e+000 3.851629e+000 -8.888206e+000 185 177 141
-5.498974e-001 4.194383e+000 -1.123228e+001 136 94 80
3.207535e-001 4.054451e+000 -1.135293e+001 171 135 93
-2.668210e+000 3.241815e+000 -8.768941e+000 205 185 133
-5.615266e-001 3.701011e+000 -1.058320e+001 185 152 94
-2.183111e-001 3.328673e+000 -1.027815e+001 193 184 172
-2.183111e-001 3.328673e+000 -1.027815e+001 193 184 172
-2.558284e+000 2.513258e+000 -7.955057e+000 151 64 70
7.220742e-001 3.247990e+000 -1.056414e+001 184 177 143
-2.609325e+000 2.305133e+000 -7.691008e+000 153 71 68
-2.477285e+000 2.318583e+000 -7.737311e+000 150 71 75
2.324074e+000 2.958099e+000 -1.091513e+001 80 91 75
2.254067e+000 2.815357e+000 -1.067991e+001 168 146 105
-2.523707e+000 1.689329e+000 -7.032959e+000 199 186 183
-2.526412e+000 1.689309e+000 -7.046602e+000 199 186 183
-2.438340e+000 1.856975e+000 -7.260310e+000 201 185 183
-2.442311e+000 1.854569e+000 -7.232739e+000 201 185 183
-2.159680e+000 1.887277e+000 -7.352416e+000 202 192 190
-1.995365e+000 1.893752e+000 -7.451082e+000 198 199 192
-1.995545e+000 1.602814e+000 -7.133281e+000 198 192 191
-3.437755e-001 1.563646e+000 -8.189592e+000 88 82 69
-1.633119e-001 1.471067e+000 -8.129850e+000 87 86 66
2.645478e+000 1.424822e+000 -9.181841e+000 72 80 67
-1.522986e-001 1.123450e+000 -7.741953e+000 199 188 166
-1.522986e-001 1.123450e+000 -7.741953e+000 199 188 166
2.411687e-001 8.830350e-001 -7.556345e+000 95 82 65
2.505690e+000 1.282165e+000 -8.933636e+000 85 98 66
2.503026e+000 1.056545e+000 -8.703611e+000 168 174 140
-1.240703e-003 6.918957e-001 -7.286952e+000 71 93 73
4.940124e-002 5.500357e-001 -7.145101e+000 75 84 75
2.002575e-001 4.631053e-001 -7.043983e+000 73 86 69
8.423010e-001 3.145854e-001 -7.194930e+000 140 94 61
3.287346e+000 5.513903e-001 -8.386581e+000 119 133 80
-5.544604e+000 1.495733e-001 -9.355051e+000 189 82 94
-5.544604e+000 1.495733e-001 -9.355051e+000 189 82 94
6.431007e-001 -9.384142e-002 -6.630592e+000 66 80 65
1.498733e+000 1.078418e-001 -7.185533e+000 180 165 109
1.267703e+000 -1.960316e-001 -6.745283e+000 143 97 64
1.269003e+000 -1.956831e-001 -6.742229e+000 143 97 64
2.988093e+000 -9.108608e-002 -7.561908e+000 169 150 94
4.112473e+000 -6.273284e-001 -7.841294e+000 58 63 43
1.791629e+000 -1.027493e+000 -6.936387e+000 106 102 65
5.716056e-001 -1.386684e+000 -6.620189e+000 81 65 46
5.419291e-001 -1.471564e+000 -6.649064e+000 89 72 51
5.101504e-001 -1.568388e+000 -6.715667e+000 79 64 43
8.347905e-001 -1.580373e+000 -6.958142e+000 80 69 41
-2.038268e+000 -1.794709e+000 -5.494321e+000 130 115 104
-9.415218e-001 -1.852785e+000 -6.263870e+000 57 45 38
4.827536e-001 -1.681497e+000 -6.858887e+000 75 64 36
-7.878274e-001 -2.187147e+000 -6.669979e+000 86 69 50
-2.288358e-001 -1.994033e+000 -6.765122e+000 82 65 40
-2.288358e-001 -1.994033e+000 -6.765122e+000 82 65 40
5.925332e-002 -1.997828e+000 -6.983324e+000 81 68 42
3.627530e-001 -2.050664e+000 -7.154913e+000 78 66 41
8.295255e-001 -2.058358e+000 -7.406433e+000 86 73 46
-1.944437e+000 -2.368868e+000 -6.075262e+000 73 66 62
-8.224648e-001 -2.297623e+000 -6.765173e+000 89 75 58
1.025742e+000 -3.139558e+000 -8.596065e+000 132 118 85
-1.621896e+000 -3.245444e+000 -7.225825e+000 135 116 83
-1.788465e+000 -3.459394e+000 -7.398939e+000 96 81 57
-2.880764e+000 -3.522117e+000 -6.726590e+000 79 63 47
-2.845289e+000 -3.632495e+000 -6.947438e+000 115 100 71
-1.970513e+000 -3.936196e+000 -7.848125e+000 75 63 41
-3.408257e+000 -4.100518e+000 -7.188615e+000 87 70 53
-1.625038e+000 -4.259346e+000 -8.475640e+000 100 89 64
-5.156819e+000 4.307264e+000 -9.389834e+000 153 153 115
-4.040128e+000 4.135032e+000 -9.412637e+000 196 177 133
-3.469510e+000 4.696681e+000 -1.065444e+001 243 215 207
-4.775937e+000 3.639423e+000 -8.654743e+000 132 128 87
-4.775937e+000 3.639423e+000 -8.654743e+000 132 128 87
-4.679953e+000 3.819737e+000 -8.893132e+000 154 150 113
-4.073823e+000 3.933271e+000 -9.140485e+000 93 118 90
-3.018096e+000 2.894227e+000 -8.295779e+000 202 188 188
-3.018096e+000 2.894227e+000 -8.295779e+000 202 188 188
4.879332e-001 3.453458e+000 -1.075505e+001 182 166 123
-2.842802e+000 2.547406e+000 -7.971102e+000 200 188 187
1.861193e+000 3.394778e+000 -1.125047e+001 163 132 84
-2.798017e+000 2.341895e+000 -7.741436e+000 167 78 82
2.167978e+000 2.953602e+000 -1.077655e+001 165 150 100
1.980591e+000 2.179928e+000 -9.792825e+000 169 162 148
-2.334110e+000 1.424225e+000 -6.804578e+000 202 189 191
2.609302e+000 1.864492e+000 -9.616599e+000 103 103 94
2.387784e+000 1.443721e+000 -9.092695e+000 153 157 135
2.564402e-002 1.094329e+000 -7.772563e+000 75 87 72
2.075546e+000 1.184509e+000 -8.700463e+000 178 173 144
-6.861617e-002 8.171450e-001 -7.436776e+000 74 89 71
-6.861617e-002 8.171450e-001 -7.436776e+000 74 89 71
3.861908e-001 1.123728e-001 -6.751193e+000 185 169 113
3.894275e-001 1.128124e-001 -6.734066e+000 185 169 113
5.653790e-001 -1.698503e-001 -6.500667e+000 177 166 103
5.613990e-001 -1.714385e-001 -6.513426e+000 177 166 103
1.142733e+000 -1.267732e-001 -6.780906e+000 174 164 96
1.135269e+000 -1.282642e-001 -6.779468e+000 174 164 96
7.123303e-001 -1.024096e+000 -6.295855e+000 68 56 29
-5.053365e+001 -8.989206e+000 -9.050816e+001 216 210 254
-1.754976e+000 -1.649809e+000 -5.511994e+000 68 67 55
-1.750468e+000 -1.647628e+000 -5.496380e+000 68 67 55
-5.984999e-001 -1.663567e+000 -6.261782e+000 128 111 69
4.469606e-001 -2.465204e+000 -7.589847e+000 82 68 34
2.744525e-001 -3.024251e+000 -8.186450e+000 85 72 40
3.249163e+000 -3.988847e+000 -1.082028e+001 83 65 50
-3.549296e+000 -4.036470e+000 -7.153797e+000 91 77 50
-3.163726e+001 -2.589747e+001 -7.803902e+001 74 47 105
-4.969461e+000 4.289788e+000 -9.310144e+000 181 173 137
-3.634818e+000 4.699719e+000 -1.054742e+001 179 166 113
5.264612e-001 4.318061e+000 -1.187192e+001 176 147 116
5.264612e-001 4.318061e+000 -1.187192e+001 176 147 116
1.853923e+000 3.189180e+000 -1.100173e+001 87 90 75
-2.131592e+000 1.581280e+000 -7.028842e+000 166 72 73
-2.131592e+000 1.581280e+000 -7.028842e+000 166 72 73
2.333772e+000 1.078814e+000 -8.621180e+000 83 96 68
2.724972e+000 8.989093e-001 -8.538123e+000 99 115 76
9.581938e-001 -1.146948e-001 -6.713627e+000 175 166 95
-5.359310e+001 -6.414423e+000 -9.307831e+001 76 51 115
-5.275227e+001 -6.977780e+000 -9.253621e+001 194 183 239
-5.100752e+001 -1.009802e+001 -8.592664e+001 107 69 122
1.962053e-001 -1.992496e+000 -7.064757e+000 136 116 74
1.962053e-001 -1.992496e+000 -7.064757e+000 136 116 74
2.932742e+000 -3.944051e+000 -1.063593e+001 69 62 44
-4.338584e+001 -1.880390e+001 -8.237860e+001 225 43 84
-3.060492e+001 -1.862778e+001 -8.401943e+001 222 49 82
-1.587540e+000 4.301478e+000 -1.098600e+001 183 166 142
1.281666e+000 3.173861e+000 -1.073714e+001 170 148 101
-1.952867e+000 1.484358e+000 -6.953944e+000 202 185 185
-1.952867e+000 1.484358e+000 -6.953944e+000 202 185 185
-1.527839e+000 1.386490e+000 -6.990674e+000 204 178 118
2.031282e+000 1.350014e+000 -8.844832e+000 142 148 89
6.970606e-001 7.148011e-001 -7.620170e+000 148 109 72
3.085030e+000 4.762061e-001 -8.404505e+000 176 169 148
3.548945e+000 5.822940e-001 -8.617732e+000 129 143 117
-5.687535e+001 -2.238962e+000 -9.840341e+001 233 68 122
-5.451254e+001 -4.213099e+000 -9.531951e+001 74 52 114
-1.851627e+000 -1.967125e+000 -5.725963e+000 76 69 61
-1.504688e+000 -2.138461e+000 -6.077740e+000 108 96 74
-3.497796e+001 -1.426572e+001 -8.875856e+001 59 34 64
-3.446314e+001 -1.331075e+001 -8.960787e+001 226 44 85
-4.010252e+001 -1.547961e+001 -8.847298e+001 197 26 70
-3.872618e+001 -1.631544e+001 -8.745745e+001 62 40 96
-3.426830e+001 -1.502580e+001 -8.889742e+001 205 35 66
-3.760450e+001 -1.763792e+001 -8.391196e+001 71 51 115
-3.287163e+001 -1.764184e+001 -8.597094e+001 226 42 76
-3.060379e+001 -1.951091e+001 -8.343217e+001 208 34 64
-3.862649e+000 -4.379299e+000 -7.463839e+000 76 63 44
-2.654626e+000 3.079128e+000 -8.853107e+000 131 72 74
7.825624e-001 1.089698e+000 -8.101790e+000 187 167 114
3.898284e-001 7.405133e-001 -7.437730e+000 191 173 133
1.260076e+000 6.998329e-001 -7.716689e+000 145 101 72
3.668306e+000 3.702982e-001 -8.502319e+000 140 155 132
-5.322731e+001 -2.835524e+000 -9.572792e+001 90 70 155
-9.721177e-001 -2.398477e+000 -6.704049e+000 103 89 63
-3.659084e+001 -1.941056e+001 -8.032879e+001 66 45 107
-3.711824e+001 -2.098300e+001 -7.901264e+001 206 31 70
-3.585372e+001 -2.551527e+001 -7.790614e+001 49 35 69
-4.324913e+000 4.086874e+000 -9.549660e+000 94 119 90
-3.243820e+000 3.001275e+000 -8.462020e+000 135 71 66
-2.795200e+000 2.714990e+000 -8.128245e+000 176 136 141
-1.845717e+000 1.723187e+000 -7.303395e+000 160 68 69
-1.758059e+000 1.342718e+000 -6.847490e+000 157 66 67
-3.065395e-001 1.494642e+000 -8.216090e+000 84 81 62
-3.065395e-001 1.494642e+000 -8.216090e+000 84 81 62
-1.051726e+000 1.067706e+000 -7.332667e+000 193 183 181
2.072963e+000 7.396952e-001 -8.110797e+000 172 157 108
5.233821e-001 4.949140e-001 -7.123953e+000 188 173 126
6.529457e-001 1.747286e-001 -6.814479e+000 184 169 108
-5.073635e-001 -5.831620e-001 -5.599426e+000 165 151 86
-4.922410e+001 -9.285441e+000 -8.849504e+001 173 163 216
-4.088264e+001 -1.361855e+001 -8.974092e+001 201 27 62
-3.914775e+001 -1.683953e+001 -8.529622e+001 242 50 95
-3.823439e+001 -1.888514e+001 -8.182222e+001 250 56 101
1.663058e+000 2.410446e+000 -9.902554e+000 114 108 100
2.148331e-001 -8.217324e-001 -5.921853e+000 76 64 22
-3.651815e+001 -1.797882e+001 -8.796875e+001 67 54 124
-3.279929e+001 -1.871487e+001 -8.265573e+001 58 36 74
-2.056180e+000 2.256827e+000 -7.610573e+000 156 70 71
1.424442e+000 1.864343e+000 -9.100873e+000 177 171 135
-4.635561e+001 -8.700261e+000 -9.161098e+001 255 62 110
1.947687e+000 -3.142218e-001 -6.799451e+000 146 148 83
1.400135e+000 -1.446994e+000 -7.053863e+000 129 111 63
-5.260430e+001 -5.864904e+000 -9.543282e+001 69 47 109
3.173601e+000 3.475501e+000 -1.145795e+001 193 197 185
2.549401e+000 7.114488e-002 -7.822082e+000 169 156 115
-4.327629e+001 -7.711734e+000 -8.999121e+001 251 53 99
-2.165993e+000 6.721199e-001 -6.445329e+000 194 179 137
-4.948778e+000 3.789053e+000 -8.768796e+000 183 176 139
-1.488573e-001 1.565568e+000 -8.238554e+000 195 186 169
3.339840e+000 2.209048e+000 -1.025919e+001 82 78 74
1.144598e+000 1.647836e-001 -7.104437e+000 178 165 97
1.231370e+000 -8.158406e-002 -6.872002e+000 128 92 53
1.231370e+000 -8.158406e-002 -6.872002e+000 128 92 53
-2.806938e+000 -8.192402e-001 -4.204040e+000 90 87 49
2.953594e+000 -1.080052e+000 -7.589243e+000 88 90 67
4.194326e+000 -2.074457e+000 -9.149132e+000 114 104 95
-2.913053e+000 2.850820e+000 -8.254962e+000 131 69 69
3.649955e+000 3.376090e+000 -9.432240e+000 194 195 182
-3.869558e+000 2.558965e+000 -7.722181e+000 211 186 130
3.508232e+000 2.923831e+000 -9.777470e+000 185 186 178
7.713000e-001 2.738823e+000 -9.988766e+000 165 156 111
1.717055e+000 2.749842e+000 -1.033838e+001 111 105 97
-2.377972e+000 1.703752e+000 -7.089083e+000 200 190 186
2.569523e+000 1.535978e+000 -9.270501e+000 116 114 110
1.801898e+000 8.964763e-001 -8.212740e+000 171 170 118
3.374691e+000 7.320922e-001 -8.688439e+000 155 170 146
8.644365e-001 -1.488297e+000 -6.893461e+000 74 61 32
8.644365e-001 -1.488297e+000 -6.893461e+000 74 61 32
6.623768e-001 -2.362940e+000 -7.647631e+000 130 113 77
-2.519650e+000 4.636915e+000 -1.106482e+001 191 166 109
-2.915871e+000 2.751009e+000 -8.143745e+000 201 187 186
-2.527694e+000 1.199001e+000 -6.484631e+000 198 171 100
-6.973809e-001 -1.886117e+000 -6.429827e+000 75 61 36
-2.333624e-001 -9.364501e-001 -5.800563e+000 113 100 55
-1.893812e+000 -3.727314e+000 -7.685466e+000 75 63 47
-3.602119e+000 -1.875739e+000 -5.680206e+000 168 133 103
-7.910694e-001 -1.732609e+000 -6.195889e+000 123 105 66
-1.203024e+000 -2.530132e+000 -6.749984e+000 74 65 54
1.236435e+000 2.019286e-001 -7.020616e+000 168 167 98
1.236435e+000 2.019286e-001 -7.020616e+000 168 167 98
7.007185e-001 -1.356619e+000 -6.617463e+000 130 114 63
-2.780739e+000 1.912027e+000 -7.296790e+000 177 71 76
-5.023706e-001 6.476031e+000 -1.777215e+001 159 148 142
-5.586617e+000 4.332572e+000 -9.310383e+000 186 191 144
-4.761549e+000 3.767065e+000 -8.853274e+000 180 177 139
-1.692222e-001 4.567443e+000 -1.182943e+001 148 161 131
1.526589e+000 4.907717e+000 -1.305245e+001 115 114 100
-7.341885e-001 3.983416e+000 -1.090554e+001 143 87 68
-8.646241e-001 3.565594e+000 -1.032225e+001 193 158 116
-7.940697e-001 3.588980e+000 -1.038696e+001 159 116 74
-7.521789e-001 3.521711e+000 -1.034358e+001 193 168 119
1.292302e+000 3.935704e+000 -1.164142e+001 153 119 81
1.292302e+000 3.935704e+000 -1.164142e+001 153 119 81
-2.923093e+000 2.852798e+000 -8.253474e+000 128 63 64
1.450082e-001 3.309228e+000 -1.035862e+001 191 175 141
1.536857e+000 3.554899e+000 -1.127550e+001 188 177 136
-2.713568e+000 2.294596e+000 -7.679287e+000 200 193 192
-2.713568e+000 2.294596e+000 -7.679287e+000 200 193 192
-2.417382e+000 2.402998e+000 -7.915195e+000 152 61 65
1.870739e+000 2.735374e+000 -1.040527e+001 149 145 133
1.914699e+000 2.553917e+000 -1.021274e+001 96 90 90
2.361303e+000 2.603676e+000 -1.051269e+001 72 84 73
2.355547e+000 2.605818e+000 -1.045770e+001 72 84 73
3.418872e+000 2.515688e+000 -9.962358e+000 87 85 78
-1.514469e+000 2.135325e+000 -7.398450e+000 162 132 62
2.505880e+000 2.260757e+000 -1.011715e+001 114 111 106
-4.630750e-001 1.411379e+000 -8.025897e+000 185 178 162
-3.893461e-001 1.497386e+000 -8.129363e+000 169 152 134
-2.602512e-001 1.502853e+000 -8.116723e+000 191 185 165
-3.155258e-001 1.404435e+000 -8.001365e+000 176 174 150
-3.155258e-001 1.404435e+000 -8.001365e+000 176 174 150
2.493440e+000 1.503251e+000 -9.149843e+000 91 89 85
2.514820e+000 1.388652e+000 -9.079932e+000 132 136 122
-3.002712e-001 1.089043e+000 -7.641047e+000 193 176 157
-3.002712e-001 1.089043e+000 -7.641047e+000 193 176 157
-2.456075e-001 1.115248e+000 -7.704100e+000 82 73 60
-2.502164e-001 9.748382e-001 -7.548277e+000 200 179 159
-1.013635e-001 9.884535e-001 -7.606433e+000 197 185 153
1.318041e-002 1.151277e+000 -7.820286e+000 76 74 54
2.601748e+000 1.136212e+000 -8.760604e+000 93 108 68
1.793616e-001 9.288556e-001 -7.627897e+000 194 177 141
1.294217e+000 8.283042e-001 -7.916633e+000 138 89 62
4.066035e-001 3.608297e-001 -7.044397e+000 70 73 47
9.527182e-001 4.730072e-001 -7.377798e+000 136 91 59
9.506913e-001 4.732157e-001 -7.373706e+000 136 91 59
1.343511e+000 6.389834e-001 -7.703004e+000 184 157 104
1.343511e+000 6.389834e-001 -7.703004e+000 184 157 104
1.084287e+000 2.050867e-001 -7.116757e+000 140 99 65
1.551104e+000 2.150864e-001 -7.213841e+000 168 166 109
1.119268e+000 2.747053e-002 -6.906640e+000 175 163 103
1.204185e+000 -1.565402e-001 -6.740774e+000 169 156 91
1.204185e+000 -1.565402e-001 -6.740774e+000 169 156 91
1.631473e+000 -1.348237e-001 -6.965008e+000 158 153 87
1.631473e+000 -1.348237e-001 -6.965008e+000 158 153 87
-9.566895e-001 -6.559431e-001 -5.156586e+000 141 131 74
2.935388e+000 -9.178714e-001 -7.475931e+000 61 62 44
1.941612e+000 -1.334966e+000 -7.284884e+000 108 104 69
5.797087e-001 -1.802793e+000 -7.000056e+000 77 65 33
4.154199e+000 -2.352688e+000 -8.244634e+000 138 132 121
7.369418e-001 -2.769182e+000 -8.096259e+000 88 74 48
-5.811154e-001 -2.852388e+000 -7.467683e+000 134 118 92
-1.643235e-001 -3.065860e+000 -7.955930e+000 96 82 56
-3.938541e+000 -3.935176e+000 -6.829552e+000 78 62 31
-4.891261e+000 4.007671e+000 -9.130576e+000 181 178 140
6.209868e-001 3.493913e+000 -1.082762e+001 93 98 77
1.689677e+000 3.607479e+000 -1.145013e+001 168 143 86
-2.620926e+000 2.766815e+000 -8.296941e+000 189 184 183
6.049768e-001 2.868846e+000 -1.006027e+001 192 182 152
1.456434e+000 3.103506e+000 -1.070757e+001 190 182 163
-2.530716e+000 2.136804e+000 -7.582399e+000 154 59 67
-2.530716e+000 2.136804e+000 -7.582399e+000 154 59 67
1.502954e+000 2.621546e+000 -1.010272e+001 146 133 99
-4.735064e+000 1.923828e+000 -7.603885e+000 202 163 135
3.366482e+000 2.494520e+000 -1.011854e+001 173 173 165
3.312271e+000 2.373917e+000 -1.017698e+001 165 167 158
-2.063046e+000 1.733166e+000 -7.271511e+000 200 188 188
-2.058171e+000 1.734362e+000 -7.275293e+000 200 188 188
7.021384e-001 1.591846e+000 -8.609668e+000 142 92 69
2.628207e+000 1.676282e+000 -9.487441e+000 97 96 91
-3.695479e+000 8.809128e-001 -5.849102e+000 211 206 144
9.851944e-001 1.294857e+000 -8.286248e+000 182 170 105
-3.600807e+000 6.721240e-001 -5.701232e+000 198 199 130
2.244142e-001 7.109668e-001 -7.388847e+000 67 69 52
1.926197e-001 6.449174e-001 -7.308634e+000 189 167 134
1.104465e+000 8.148758e-001 -7.809290e+000 147 92 76
1.258947e+000 7.093172e-001 -7.775144e+000 138 93 62
1.365570e+000 8.033687e-001 -7.880993e+000 175 164 92
1.435920e-001 5.932116e-001 -7.249623e+000 74 73 51
2.676125e-001 3.475836e-001 -7.004822e+000 71 78 64
7.639282e-001 4.336045e-001 -7.291278e+000 145 88 63
2.818706e+000 6.926608e-001 -8.325486e+000 165 150 97
3.611336e+000 6.617360e-001 -8.707313e+000 132 146 119
3.695368e+000 4.970522e-001 -8.520040e+000 150 166 140
3.844004e-001 2.749351e-001 -6.939870e+000 180 162 117
3.720344e+000 3.344881e-001 -8.363588e+000 98 115 84
3.174181e-001 -7.883613e-002 -6.492715e+000 180 162 101
3.896351e+000 -9.986029e-004 -8.031153e+000 103 118 89
1.694000e+000 -7.794562e-001 -6.625737e+000 101 103 64
3.634665e+000 -6.671896e-001 -7.653678e+000 65 67 53
1.975042e+000 -9.874881e-001 -7.031689e+000 70 68 45
1.903639e+000 -1.249618e+000 -7.205723e+000 76 72 47
2.428369e+000 -1.020232e+000 -7.278866e+000 67 66 48
1.931138e+000 -1.666820e+000 -7.642499e+000 72 65 44
2.182873e+000 -1.360568e+000 -7.482651e+000 74 71 47
2.449099e+000 -1.482135e+000 -7.710301e+000 70 67 47
-2.671369e+000 -1.614512e+000 -5.055212e+000 72 63 59
-2.241452e+000 -1.475694e+000 -5.119377e+000 78 71 65
-1.993049e+000 -1.508198e+000 -5.282301e+000 75 69 64
-8.842123e-001 -1.694729e+000 -6.177390e+000 58 48 36
1.774344e-001 -1.626746e+000 -6.634690e+000 102 87 58
9.171169e-001 -1.768000e+000 -7.162052e+000 85 69 44
2.209640e+000 -2.001394e+000 -8.101022e+000 116 107 71
-3.296695e-001 -1.914382e+000 -6.664927e+000 98 82 56
-3.644438e-001 -2.016978e+000 -6.738271e+000 99 83 58
-2.677036e-001 -2.147341e+000 -6.933676e+000 95 79 53
-2.790385e-002 -2.302404e+000 -7.254367e+000 97 83 57
7.570449e-001 -2.281216e+000 -7.608053e+000 93 78 53
1.369874e+000 -2.431192e+000 -8.072185e+000 87 72 45
2.069160e+000 -2.209607e+000 -8.248396e+000 83 73 46
-1.949394e+000 -2.381242e+000 -6.126517e+000 74 68 61
-1.079240e+000 -2.650743e+000 -7.040994e+000 91 78 62
-9.155690e-001 -2.564930e+000 -6.980280e+000 91 75 60
-6.621383e-001 -2.379735e+000 -6.945781e+000 87 74 52
2.101409e-001 -2.534407e+000 -7.597211e+000 92 77 53
-2.753382e+000 -2.583414e+000 -5.943263e+000 76 66 64
-2.753382e+000 -2.583414e+000 -5.943263e+000 76 66 64
-8.067943e-001 -2.820621e+000 -7.330803e+000 92 77 58
-5.424355e-001 -2.951742e+000 -7.616211e+000 99 85 59
-3.744152e-001 -2.870904e+000 -7.622090e+000 103 86 67
-4.584564e-001 -3.524490e+000 -8.309780e+000 93 79 55
-1.416372e+000 -3.822919e+000 -8.109836e+000 124 109 84
-2.583663e+000 -4.176538e+000 -7.829637e+000 113 100 72
-2.419458e+000 -4.157721e+000 -7.927285e+000 112 98 72
-5.216953e+000 4.221827e+000 -9.330909e+000 172 170 132
-1.162981e+000 4.708744e+000 -1.161520e+001 90 92 76
-5.033944e+000 3.751203e+000 -8.757054e+000 145 144 110
-4.741375e+000 3.825107e+000 -8.671518e+000 178 171 132
-5.174086e-001 4.492081e+000 -1.167417e+001 129 87 83
-4.202873e-001 4.179924e+000 -1.127726e+001 169 127 104
-3.254930e-001 3.619433e+000 -1.059634e+001 183 157 118
-4.505628e+000 1.895650e+000 -7.255201e+000 229 208 135
2.113517e+000 2.244973e+000 -9.839614e+000 105 102 99
2.434330e+000 2.400712e+000 -1.026580e+001 139 142 131
-4.512060e-001 1.538044e+000 -8.158973e+000 75 82 71
-4.527933e-001 1.538233e+000 -8.149245e+000 75 82 71
-3.458421e-001 1.308263e+000 -7.881447e+000 72 82 69
3.106251e-002 7.780709e-001 -7.373486e+000 194 178 146
-3.418565e+000 5.290864e-001 -5.445689e+000 162 158 91
1.406024e+000 4.246499e-001 -7.552669e+000 175 160 93
1.407878e+000 4.345631e-001 -7.475633e+000 175 160 93
2.292257e+000 5.265667e-001 -8.003505e+000 159 139 89
9.264797e-001 2.684554e-001 -7.136480e+000 186 167 108
9.264797e-001 2.684554e-001 -7.136480e+000 186 167 108
1.086634e+000 -3.404922e-002 -6.861518e+000 144 99 68
6.333684e-001 -1.079639e+000 -6.399326e+000 117 104 60
1.739836e+000 -1.179965e+000 -7.021679e+000 118 111 69
5.729012e-001 -1.263932e+000 -6.530426e+000 121 107 63
-2.868733e+000 -1.947133e+000 -5.299476e+000 67 63 56
-2.868733e+000 -1.947133e+000 -5.299476e+000 67 63 56
-2.384648e+000 -1.886536e+000 -5.455842e+000 130 114 106
-2.241436e+000 -1.979640e+000 -5.612107e+000 132 115 105
-2.241436e+000 -1.979640e+000 -5.612107e+000 132 115 105
4.915506e-001 -2.352244e+000 -7.522580e+000 96 82 55
-2.378720e+000 -2.408885e+000 -5.893372e+000 73 68 62
5.797180e-001 -3.519619e+000 -8.888737e+000 106 91 60
-2.983187e+000 -3.967322e+000 -7.373827e+000 111 96 69
-2.552565e+000 -4.314628e+000 -8.034750e+000 81 65 42
-2.145080e+000 -4.037910e+000 -7.949395e+000 81 66 43
-1.533753e+000 4.675708e+000 -1.148125e+001 106 110 83
-5.182659e+000 4.033496e+000 -9.014990e+000 137 143 107
-5.103771e+000 3.886814e+000 -8.843581e+000 121 123 90
-4.228805e+000 4.169579e+000 -9.565227e+000 81 115 83
-1.248398e+000 4.435847e+000 -1.123119e+001 130 93 77
-1.295434e-001 4.620887e+000 -1.201971e+001 139 145 113
-1.302787e-001 4.612889e+000 -1.191816e+001 139 145 113
2.165125e+000 2.957346e+000 -1.075325e+001 171 147 95
-2.348765e+000 2.271210e+000 -7.763378e+000 206 186 192
-1.700543e+000 2.361085e+000 -8.865795e+000 176 150 76
-4.521739e-001 1.536081e+000 -8.151214e+000 75 82 71
-1.384027e+000 1.154078e+000 -6.836988e+000 201 184 160
-3.447339e-001 1.141706e+000 -7.716444e+000 197 184 174
3.523538e-001 1.338274e-002 -6.643163e+000 66 81 56
1.530538e+000 -1.744535e-001 -6.875713e+000 140 92 62
1.530574e+000 -1.735717e-001 -6.871752e+000 140 92 62
-2.062909e+000 -4.280296e+000 -8.290938e+000 91 76 52
-6.212245e-001 3.663945e+000 -1.046270e+001 186 152 103
-2.451022e+000 3.097022e+000 -8.742919e+000 200 175 118
-3.379000e+000 1.616446e+000 -6.754740e+000 204 186 154
-3.379000e+000 1.616446e+000 -6.754740e+000 204 186 154
-3.339175e+000 1.467310e+000 -6.568071e+000 199 172 95
-1.443316e+000 1.019342e+000 -6.758330e+000 143 112 69
-2.190436e-001 1.037661e+000 -7.607415e+000 54 76 58
-6.953525e-001 -6.509115e-001 -5.401308e+000 111 99 47
-3.684250e-001 -1.430737e+000 -6.140413e+000 131 113 68
-2.224227e+000 -2.405130e+000 -5.970998e+000 74 68 60
-2.224227e+000 -2.405130e+000 -5.970998e+000 74 68 60
-2.257750e+000 4.584038e+000 -1.113220e+001 195 167 113
-3.092535e-001 3.982432e+000 -1.081455e+001 171 139 101
1.693714e+000 1.152299e+000 -8.438535e+000 180 178 152
1.928967e+000 1.012583e+000 -8.377427e+000 136 142 85
2.327727e+000 1.082186e+000 -8.608834e+000 81 90 61
8.311275e-001 5.055643e-001 -7.347262e+000 172 137 99
1.461920e+000 3.004016e+000 -1.058207e+001 188 178 167
1.088736e+000 4.955795e-001 -7.504852e+000 180 163 99
9.331884e-001 -1.461360e+000 -7.038535e+000 120 105 72
3.304149e+000 -4.224911e+000 -1.097385e+001 198 163 149
-2.955692e+000 3.364568e+000 -8.810719e+000 197 190 178
-1.334612e+000 9.626790e-001 -6.787958e+000 148 122 92
3.114971e-001 2.676876e-001 -6.869479e+000 65 80 59
-9.060162e-001 -5.285825e-001 -5.114699e+000 152 146 76
2.180998e+000 1.876359e+000 -9.451426e+000 85 81 79
-3.034543e+000 -8.210543e-001 -4.599639e+000 188 178 125
-2.880905e-002 3.590372e+000 -1.051931e+001 191 168 127
-2.521275e+000 2.185365e+000 -7.617963e+000 202 184 184
-2.521275e+000 2.185365e+000 -7.617963e+000 202 184 184
2.567607e+000 2.692223e+000 -1.050483e+001 86 103 79
-3.025092e+000 4.310830e+000 -1.046536e+001 170 154 94
1.105413e+000 3.769747e+000 -1.147778e+001 181 157 109
3.238287e-001 1.296867e+000 -7.968693e+000 192 178 148
2.774068e+000 1.544201e-001 -7.624040e+000 176 170 145
-9.205675e-001 4.371030e+000 -1.160257e+001 126 86 79
3.903751e+000 1.896891e+000 -9.739859e+000 190 197 190
-2.924037e+000 1.220517e+000 -6.201137e+000 194 184 144
-6.642587e-001 5.955148e-001 -7.955373e+000 194 185 170
-3.091848e+000 9.584367e-002 -5.612327e+000 141 147 75
2.763604e+000 1.758530e+000 -9.780041e+000 72 80 69
-2.590275e+000 2.101230e+000 -7.489195e+000 163 64 72
3.391958e+000 2.384492e+000 -1.011062e+001 87 89 82
3.324603e+000 2.020893e+000 -1.031047e+001 163 165 158
-4.807802e+001 -9.203510e+000 -8.799868e+001 175 165 224
-5.427598e+000 4.102111e+000 -9.183616e+000 168 169 127
1.457687e+000 4.971878e+000 -1.304432e+001 213 208 196
-3.716796e+000 3.684056e+000 -9.037232e+000 173 129 104
1.561709e+000 3.385997e+000 -1.109686e+001 195 179 136
-1.583497e+000 2.145967e+000 -7.603717e+000 196 172 115
1.458226e+000 2.385637e+000 -9.799567e+000 103 96 88
-9.446374e-002 1.420477e+000 -8.091210e+000 193 187 165
-2.453534e-001 1.115283e+000 -7.703936e+000 82 73 60
7.200092e-001 9.221381e-001 -7.811576e+000 131 94 58
3.753045e+000 1.840645e-001 -8.167383e+000 102 116 90
3.753045e+000 1.840645e-001 -8.167383e+000 102 116 90
1.169499e+000 -8.777760e-002 -6.883658e+000 174 168 99
1.576187e+000 4.334221e-003 -7.102209e+000 171 160 100
3.957503e+000 -1.005371e-001 -7.951471e+000 110 122 95
-2.614734e+000 2.767707e+000 -8.282864e+000 189 184 183
2.368271e+000 2.769214e+000 -1.069556e+001 71 83 69
-1.885484e+000 1.445410e+000 -6.943981e+000 194 188 186
-1.885484e+000 1.445410e+000 -6.943981e+000 194 188 186
7.682870e-001 1.471406e+000 -8.477814e+000 142 94 71
3.069719e-001 6.568424e-001 -7.362023e+000 193 175 137
2.666668e+000 7.877259e-001 -8.435651e+000 172 148 97
3.098969e+000 6.264380e-001 -8.409574e+000 111 121 77
2.876503e+000 3.130875e-001 -7.981802e+000 165 150 92
-8.827955e-001 -1.996249e-001 -5.640879e+000 141 119 64
5.157542e+000 -4.020400e+000 -7.218137e+000 96 85 79
-5.626866e-001 4.747454e+000 -1.198062e+001 128 140 103
-3.828409e+000 2.389663e+000 -7.220434e+000 204 187 140
-3.828409e+000 2.389663e+000 -7.220434e+000 204 187 140
1.890256e+000 1.504502e+000 -8.937527e+000 144 149 84
2.924801e+000 5.195950e-001 -8.257097e+000 165 144 91
-5.161401e+000 4.305742e+000 -9.397441e+000 143 145 106
3.222853e+000 2.209332e+000 -1.030583e+001 157 160 153
7.718189e-001 6.166740e-001 -7.475814e+000 185 163 108
-4.180774e+001 -2.032967e+001 -7.842077e+001 216 65 97
-3.580544e+001 -2.723934e+001 -7.747678e+001 63 63 131
-2.491013e+000 4.621481e+000 -1.113116e+001 196 169 106
-3.851757e+001 -2.643329e+001 -7.497708e+001 188 34 71
-3.568915e+001 -2.654303e+001 -7.802502e+001 125 167 227
-2.978571e+001 -2.796034e+001 -7.463233e+001 187 30 61
-2.800106e+001 -3.213428e+001 -7.465738e+001 203 34 65
-2.843119e+001 -3.261100e+001 -7.293570e+001 213 30 57
1.980761e+000 1.626538e+000 -9.094474e+000 160 161 129
8.832365e-001 8.787736e-001 -7.773849e+000 183 164 108
8.841567e-001 8.776655e-001 -7.769197e+000 183 164 108
7.579247e-001 6.174086e-002 -6.772199e+000 179 165 104
-3.516502e+001 -2.710730e+001 -7.323245e+001 63 44 102
-3.941309e+001 -2.888039e+001 -6.842562e+001 203 29 65
-2.842984e+000 4.496800e+000 -1.088445e+001 163 157 91
1.727892e-001 5.437262e-001 -7.168263e+000 71 82 65
-3.822093e+001 -2.537680e+001 -7.738694e+001 122 22 47
-4.319641e+001 -2.134147e+001 -7.718340e+001 254 248 255
-3.655352e+001 -2.646352e+001 -7.604339e+001 143 195 247
-4.065195e+001 -2.836707e+001 -7.222009e+001 237 44 88
-3.397284e+001 -3.075215e+001 -7.542929e+001 38 21 37
-5.656741e+000 4.608789e+000 -9.551985e+000 136 142 91
-4.638282e+000 4.244736e+000 -9.488746e+000 85 102 64
-3.916102e+000 4.068559e+000 -9.345965e+000 200 182 136
-4.337966e-001 4.564932e+000 -1.178828e+001 131 147 113
-5.044259e+000 3.479353e+000 -8.399755e+000 180 160 106
-7.341924e-001 3.989527e+000 -1.086550e+001 135 80 60
-9.968410e-001 3.827725e+000 -1.058892e+001 185 146 107
-9.968410e-001 3.827725e+000 -1.058892e+001 185 146 107
-5.183547e-001 3.826987e+000 -1.090021e+001 169 124 88
3.455757e-001 3.726279e+000 -1.097319e+001 156 112 72
5.816144e-001 3.805766e+000 -1.136198e+001 137 101 77
-5.192643e+000 3.090110e+000 -8.439825e+000 244 203 148
7.935470e-001 2.808461e+000 -1.008443e+001 180 170 136
7.935470e-001 2.808461e+000 -1.008443e+001 180 170 136
1.516115e+000 2.783981e+000 -1.028109e+001 95 86 82
2.170772e+000 3.054774e+000 -1.083795e+001 163 144 100
2.170772e+000 3.054774e+000 -1.083795e+001 163 144 100
3.609424e+000 3.064439e+000 -9.541890e+000 67 67 59
-2.425317e+000 2.296523e+000 -7.807783e+000 121 58 55
-2.424590e+000 2.297363e+000 -7.809239e+000 121 58 55
7.211207e-001 2.631324e+000 -9.764739e+000 185 176 148
1.695625e+000 2.391788e+000 -9.905170e+000 81 76 72
1.695168e+000 2.390969e+000 -9.910399e+000 81 76 72
1.829060e+000 2.679476e+000 -1.028245e+001 103 101 88
1.897098e+000 2.614712e+000 -1.026388e+001 152 146 136
2.208013e+000 2.628312e+000 -1.043159e+001 110 111 110
1.881115e+000 2.216077e+000 -9.758719e+000 122 112 95
-3.165302e-001 1.626139e+000 -8.301802e+000 193 185 174
1.834572e+000 1.861074e+000 -9.368415e+000 152 152 125
-3.896196e-001 1.502284e+000 -8.094797e+000 160 146 123
-1.022847e-001 1.417189e+000 -8.094378e+000 187 176 156
9.592297e-001 1.487380e+000 -8.557660e+000 130 88 58
9.592297e-001 1.487380e+000 -8.557660e+000 130 88 58
-1.752432e-001 9.798908e-001 -7.565046e+000 69 69 48
1.040135e+000 9.014364e-001 -7.918320e+000 136 93 62
1.042528e+000 8.962508e-001 -7.949643e+000 136 93 62
1.291738e+000 8.296451e-001 -7.911827e+000 136 92 57
1.673383e+000 9.900372e-001 -8.243672e+000 128 132 81
3.260376e-003 6.062905e-001 -7.208362e+000 176 156 123
1.210315e+000 5.407922e-001 -7.487517e+000 176 152 96
1.430597e+000 5.076851e-001 -7.622190e+000 129 88 58
1.430597e+000 5.076851e-001 -7.622190e+000 129 88 58
2.060237e-001 1.013451e-001 -6.658127e+000 170 155 96
3.727348e+000 2.693680e-001 -8.265448e+000 93 108 82
3.815000e+000 2.082394e-001 -8.250889e+000 161 172 148
1.570149e+000 -1.319704e-001 -6.997057e+000 135 87 62
5.167495e+000 -4.045387e+000 -7.109905e+000 123 114 105
-5.331803e-001 4.775701e+000 -1.205800e+001 120 130 96
-4.884980e+000 4.012946e+000 -9.096871e+000 176 172 133
-4.272114e+000 3.923487e+000 -9.166431e+000 83 110 82
-4.849714e-002 4.556478e+000 -1.178999e+001 131 138 105
1.512677e+000 3.479969e+000 -1.124991e+001 78 75 63
-4.505444e+000 2.509678e+000 -7.448772e+000 190 172 135
3.578788e+000 3.273398e+000 -9.297594e+000 182 183 175
-2.624986e+000 2.149677e+000 -7.563186e+000 190 179 176
1.381363e+000 2.427369e+000 -9.814523e+000 152 151 125
3.451430e+000 2.757221e+000 -9.889011e+000 182 183 177
-4.491771e+000 1.727931e+000 -7.442130e+000 217 200 129
2.073038e+000 2.107984e+000 -9.648971e+000 98 94 93
2.088702e+000 1.952840e+000 -9.564949e+000 77 76 72
-3.994528e+000 1.414233e+000 -6.405232e+000 222 216 193
-4.024989e+000 1.197628e+000 -6.505724e+000 183 180 103
-1.037300e-001 1.351716e+000 -8.025667e+000 71 72 55
7.008960e-001 1.596064e+000 -8.576491e+000 138 91 65
2.468434e+000 1.597647e+000 -9.253978e+000 86 83 80
9.507740e-001 1.105395e+000 -8.135026e+000 138 89 64
5.443679e-001 8.796954e-001 -7.742212e+000 141 87 66
-8.767162e-002 7.005154e-001 -7.301976e+000 182 168 138
2.543426e-001 5.261036e-001 -7.195409e+000 186 170 132
2.543426e-001 5.261036e-001 -7.195409e+000 186 170 132
1.399902e+000 5.971253e-001 -7.679146e+000 139 89 61
3.617138e+000 6.538877e-001 -8.729741e+000 127 141 118
1.736913e-001 3.914562e-001 -7.017302e+000 173 156 114
1.736913e-001 3.914562e-001 -7.017302e+000 173 156 114
1.559246e+000 2.830248e-001 -7.430454e+000 131 93 66
1.559246e+000 2.830248e-001 -7.430454e+000 131 93 66
3.607027e+000 5.059462e-001 -8.504484e+000 102 116 87
2.651631e-001 1.947763e-002 -6.658255e+000 177 161 106
1.391527e+000 2.516866e-001 -7.347402e+000 136 91 68
1.539607e+000 9.969393e-002 -7.202548e+000 162 157 100
3.830734e+000 -1.452429e-001 -7.867066e+000 173 180 166
-1.470671e+000 -7.333825e-001 -4.870652e+000 93 83 47
1.156942e+000 -8.693799e-001 -6.428405e+000 92 88 56
-3.563659e+000 -2.090989e+000 -5.662165e+000 105 85 68
-2.290715e+000 -1.906778e+000 -5.502166e+000 79 70 63
4.387317e+000 5.821194e+000 -7.293426e+000 194 187 181
4.465225e+000 5.838096e+000 -7.274993e+000 96 88 80
-4.984018e+000 4.012221e+000 -9.051473e+000 121 125 88
3.515678e-002 4.619214e+000 -1.209553e+001 82 81 74
-4.819388e-001 4.299365e+000 -1.138904e+001 147 106 88
7.131505e-001 3.567275e+000 -1.090125e+001 183 181 168
2.164133e+000 3.389051e+000 -1.134930e+001 69 82 64
1.506757e+000 2.942562e+000 -1.045683e+001 175 170 158
2.279683e+000 2.080091e+000 -9.771152e+000 95 91 90
1.796197e+000 1.986477e+000 -9.580782e+000 88 84 79
1.111812e+000 8.106737e-001 -7.840895e+000 135 84 57
2.501579e+000 1.050479e+000 -8.696318e+000 165 167 143
3.029298e+000 6.580282e-001 -8.521034e+000 102 113 71
3.221950e-001 3.922270e-001 -7.069299e+000 178 157 115
1.825083e-001 3.172308e-001 -6.958122e+000 60 75 65
9.028152e-001 1.859592e-001 -7.060708e+000 140 87 65
3.862968e+000 -1.074546e-003 -8.030638e+000 98 113 79
-4.274547e+000 -1.048975e+000 -6.821022e+000 209 177 148
9.080016e-001 -2.665961e-001 -6.512534e+000 167 158 91
2.210735e-001 -1.424447e+000 -6.461070e+000 94 80 54
-1.759713e+000 -1.634611e+000 -5.468671e+000 74 66 62
-4.760161e+000 4.163251e+000 -9.333326e+000 177 166 126
-1.104075e+000 4.521751e+000 -1.136921e+001 133 138 105
-7.890883e-001 4.592196e+000 -1.155330e+001 121 132 92
9.058071e-001 4.393112e+000 -1.205519e+001 128 81 63
4.108441e-001 3.892674e+000 -1.116958e+001 182 146 98
-3.402536e+000 3.075829e+000 -8.488856e+000 124 63 61
-3.397273e+000 3.077311e+000 -8.482861e+000 124 63 61
-2.915468e+000 2.746633e+000 -8.185914e+000 196 182 185
1.212998e+000 2.728093e+000 -1.014640e+001 152 152 128
-2.437527e+000 1.851061e+000 -7.285461e+000 198 180 185
3.222510e+000 1.949016e+000 -1.040581e+001 63 66 59
-4.220855e+000 1.251994e+000 -6.805620e+000 228 201 125
-1.635949e+000 1.277395e+000 -6.885553e+000 145 55 58
-1.635949e+000 1.277395e+000 -6.885553e+000 145 55 58
-1.383566e+000 1.148572e+000 -6.852830e+000 190 180 155
-1.161168e-001 1.122869e+000 -7.752470e+000 186 175 155
-1.161168e-001 1.122869e+000 -7.752470e+000 186 175 155
2.383451e-002 1.083207e+000 -7.744120e+000 68 82 71
1.068673e+000 1.068930e+000 -8.106201e+000 179 154 98
1.068810e+000 1.066903e+000 -8.115664e+000 179 154 98
1.150332e+000 9.083729e-001 -7.937208e+000 179 154 94
2.502662e+000 1.050641e+000 -8.698107e+000 165 167 143
7.736668e-001 6.134909e-001 -7.479115e+000 181 157 111
1.442809e+000 2.117766e-002 -7.100565e+000 135 87 62
1.442809e+000 2.117766e-002 -7.100565e+000 135 87 62
5.590212e-001 -1.764776e-001 -6.524250e+000 177 158 97
6.643973e-001 -2.356387e-001 -6.472511e+000 63 82 65
1.269027e+000 3.330405e-002 -6.847438e+000 161 155 85
-3.717124e+000 -1.953588e+000 -5.768522e+000 172 157 91
-2.267964e+000 -2.133505e+000 -5.710521e+000 76 72 63
-3.623416e+000 9.365949e-001 -5.862921e+000 173 163 111
-1.171538e-002 9.500935e-001 -7.597662e+000 185 171 145
-1.171538e-002 9.500935e-001 -7.597662e+000 185 171 145
1.130914e+000 -1.324712e-001 -6.787693e+000 164 158 85
-5.303238e+000 4.318444e+000 -9.312409e+000 167 163 125
-4.288837e+000 4.343774e+000 -9.762054e+000 178 162 117
-3.802599e+000 1.955367e+000 -6.685788e+000 194 167 90
2.112879e+000 2.335558e+000 -1.002388e+001 98 95 92
1.004595e+000 1.179273e+000 -8.222540e+000 181 150 104
1.409133e+000 -1.089590e-001 -6.981629e+000 164 152 93
1.409133e+000 -1.089590e-001 -6.981629e+000 164 152 93
-3.977604e+000 3.797752e+000 -9.138350e+000 192 175 145
-2.677938e+000 3.088013e+000 -8.716466e+000 122 61 55
2.170876e+000 2.616799e+000 -1.034748e+001 111 107 102
3.104000e+000 2.392935e+000 -9.964781e+000 158 161 155
7.302232e-001 1.102117e+000 -8.035386e+000 179 162 111
7.126407e-001 4.687331e+000 -1.246222e+001 120 81 72
-1.739445e+000 9.863801e-001 -6.615493e+000 191 180 175
5.559194e-001 -1.409222e-001 -6.575938e+000 171 151 100
-7.455946e-001 1.132139e+000 -7.725433e+000 192 182 180
-7.455946e-001 1.132139e+000 -7.725433e+000 192 182 180
-2.533455e+000 2.172639e+000 -7.869571e+000 192 181 181
-5.565656e+000 4.393362e+000 -9.438975e+000 144 144 87
-9.982760e-001 4.475867e+000 -1.136788e+001 139 148 124
-4.906641e+000 4.093786e+000 -9.076757e+000 171 169 133
-4.906641e+000 4.093786e+000 -9.076757e+000 171 169 133
-4.079880e+000 4.040287e+000 -9.291861e+000 77 100 71
1.262357e+000 4.390188e+000 -1.202366e+001 166 118 90
-5.130708e+000 3.725845e+000 -8.867963e+000 168 167 129
-5.009403e+000 3.669023e+000 -8.770649e+000 181 171 128
4.233619e-001 3.530435e+000 -1.061344e+001 184 155 115
2.259468e+000 2.411159e+000 -1.005593e+001 139 138 131
2.379822e+000 2.175820e+000 -9.773214e+000 138 137 133
8.763493e-001 1.634209e+000 -8.677854e+000 130 90 58
-4.245655e+000 8.192189e-001 -6.890933e+000 205 170 114
-2.713822e-001 1.279996e+000 -7.898280e+000 170 160 137
8.322957e-002 1.152086e+000 -7.848408e+000 189 175 149
-1.371577e+000 1.073395e+000 -6.812601e+000 134 114 88
-1.737571e-001 9.753923e-001 -7.576447e+000 81 69 54
1.652956e+000 1.019584e+000 -8.342475e+000 162 159 114
-5.259510e+000 -7.689899e-001 -9.001655e+000 217 162 174
6.546620e-001 7.218844e-001 -7.574332e+000 179 156 114
1.219630e+000 6.577331e-001 -7.721504e+000 168 147 92
1.219630e+000 6.577331e-001 -7.721504e+000 168 147 92
3.933009e-001 5.484917e-001 -7.260506e+000 180 163 119
2.083251e+000 5.743827e-001 -7.916961e+000 146 143 82
-4.406298e+000 -6.701708e-001 -7.154420e+000 131 93 80
-4.406298e+000 -6.701708e-001 -7.154420e+000 131 93 80
1.576621e+000 2.986376e-001 -7.452113e+000 138 94 71
1.576621e+000 2.986376e-001 -7.452113e+000 138 94 71
1.010012e+000 1.066855e-001 -7.017335e+000 132 88 52
9.902588e-001 7.177660e-002 -6.925731e+000 177 150 101
9.902588e-001 7.177660e-002 -6.925731e+000 177 150 101
3.791442e+000 1.001351e-001 -8.120156e+000 98 118 83
3.879622e+000 -2.180938e-001 -7.812165e+000 157 170 146
-4.091795e+000 -1.263191e+000 -6.630316e+000 131 103 63
-4.091795e+000 -1.263191e+000 -6.630316e+000 131 103 63
-4.028645e+000 -1.381727e+000 -6.499885e+000 114 89 57
-3.914946e+000 -1.589120e+000 -6.293019e+000 106 94 56
4.762980e+000 7.226927e+000 -5.914747e+000 190 183 176
1.971505e-002 4.592070e+000 -1.171642e+001 73 70 63
-4.298409e+000 3.816607e+000 -9.137870e+000 80 108 77
-8.176161e-001 4.031074e+000 -1.040355e+001 164 115 87
-7.946114e-001 3.602744e+000 -1.031838e+001 155 107 67
-5.118871e+000 2.777832e+000 -8.344929e+000 224 188 179
1.476510e-001 3.311144e+000 -1.041671e+001 186 173 141
-5.070353e+000 2.335400e+000 -8.205903e+000 218 180 177
-5.070353e+000 2.335400e+000 -8.205903e+000 218 180 177
2.081223e+000 2.891656e+000 -1.049991e+001 73 78 68
1.870527e+000 2.838968e+000 -1.040398e+001 105 100 97
-2.710984e+000 2.282555e+000 -7.729144e+000 189 186 185
-4.404011e+000 1.848247e+000 -6.989890e+000 217 198 134
2.068511e+000 1.964730e+000 -9.539921e+000 75 71 68
2.576030e+000 2.079028e+000 -9.873436e+000 97 96 92
-2.045347e+000 1.509935e+000 -7.076784e+000 135 46 54
-2.045347e+000 1.509935e+000 -7.076784e+000 135 46 54
8.399272e-001 1.373221e+000 -8.350132e+000 134 90 62
-3.844699e+000 1.040932e+000 -5.970565e+000 178 180 110
-2.384722e+000 1.165505e+000 -6.602240e+000 161 53 57
-5.416785e+000 -6.107629e-001 -9.234703e+000 184 92 105
-5.251248e+000 -6.714275e-001 -9.054207e+000 179 74 87
-3.703912e+000 6.693847e-001 -5.819524e+000 175 177 104
1.268579e+000 7.765505e-001 -7.829159e+000 169 152 92
-3.457265e+000 4.044067e-001 -5.433610e+000 181 188 120
9.489997e-001 4.654612e-001 -7.394010e+000 139 93 63
3.162111e+000 5.562252e-001 -8.191713e+000 68 76 61
1.077794e+000 1.895345e-001 -7.155697e+000 143 92 64
-4.321994e+000 -9.029350e-001 -7.045503e+000 169 136 110
3.766819e+000 3.078360e-002 -8.066317e+000 172 180 170
9.864267e-001 -2.520114e-001 -6.663665e+000 137 89 66
9.864267e-001 -2.520114e-001 -6.663665e+000 137 89 66
-3.956425e+000 -1.378294e+000 -6.449067e+000 188 165 98
-7.943964e-001 -5.268552e-001 -5.913219e+000 123 107 58
-7.943964e-001 -5.268552e-001 -5.913219e+000 123 107 58
-2.036892e+000 4.539801e+000 -1.104677e+001 194 175 141
1.133047e+000 4.653689e+000 -1.206008e+001 78 89 83
1.202376e+000 3.715952e+000 -1.112219e+001 171 145 96
-6.606030e-002 3.311724e+000 -1.022819e+001 183 173 149
1.830524e+000 2.619437e+000 -1.014849e+001 153 142 120
-2.751616e+000 2.182213e+000 -7.621931e+000 194 181 180
7.994564e-001 1.559973e+000 -8.549840e+000 182 162 101
6.073288e-001 7.587857e-001 -7.608560e+000 136 88 66
1.112016e+000 8.115907e-001 -7.838821e+000 139 88 69
1.621695e+000 -8.563781e-002 -7.078331e+000 138 91 73
3.858367e+000 4.902790e-003 -8.017272e+000 92 107 75
9.986498e-001 -2.492752e-001 -6.665399e+000 138 89 67
-4.009181e+000 -1.250068e+000 -6.514879e+000 200 173 101
-3.710961e+000 -1.824290e+000 -6.052382e+000 160 159 94
-3.710961e+000 -1.824290e+000 -6.052382e+000 160 159 94
-5.001328e+000 4.217957e+000 -9.438159e+000 179 170 127
-4.384872e+000 3.936332e+000 -9.234216e+000 181 169 131
-3.094038e-001 3.776237e+000 -1.086068e+001 178 150 105
-2.884218e+000 2.836505e+000 -8.332251e+000 122 56 57
-2.884218e+000 2.836505e+000 -8.332251e+000 122 56 57
-2.164243e+000 2.939345e+000 -8.534346e+000 165 142 103
-2.406915e-001 1.585270e+000 -8.257038e+000 73 74 62
-2.406915e-001 1.585270e+000 -8.257038e+000 73 74 62
-5.654342e+000 8.432795e-002 -9.684695e+000 130 62 53
9.441766e-001 1.315234e+000 -8.310505e+000 180 154 105
9.441766e-001 1.315234e+000 -8.310505e+000 180 154 105
1.388243e+000 4.427951e-001 -7.509783e+000 168 150 92
8.959125e-002 4.940938e+000 -1.237828e+001 224 214 207
1.945153e-001 4.609804e+000 -1.195373e+001 152 124 104
-6.023245e-001 3.700736e+000 -1.057742e+001 183 149 97
-3.349033e+000 3.072741e+000 -8.407055e+000 126 59 58
-3.349033e+000 3.072741e+000 -8.407055e+000 126 59 58
-3.017453e+000 2.889564e+000 -8.366111e+000 191 183 181
-2.582308e+000 2.304479e+000 -7.769501e+000 147 64 67
-2.514261e+000 2.306810e+000 -7.815277e+000 150 64 66
-2.514261e+000 2.306810e+000 -7.815277e+000 150 64 66
-3.800779e+000 2.189057e+000 -7.042113e+000 198 181 149
-3.800779e+000 2.189057e+000 -7.042113e+000 198 181 149
-3.740229e+000 1.853051e+000 -7.219820e+000 199 182 148
-3.740229e+000 1.853051e+000 -7.219820e+000 199 182 148
3.055366e+000 2.166214e+000 -1.046718e+001 88 91 82
4.100003e-001 9.827779e-002 -6.789432e+000 177 160 104
4.100003e-001 9.827779e-002 -6.789432e+000 177 160 104
-1.519218e+000 4.679103e+000 -1.142676e+001 94 101 73
-2.744179e+000 1.164643e+000 -6.595668e+000 193 167 93
-1.315358e+000 1.198207e+000 -7.171029e+000 146 115 67
-1.315358e+000 1.198207e+000 -7.171029e+000 146 115 67
-4.941873e+000 4.299077e+000 -9.540785e+000 173 165 120
-2.169037e+000 2.718512e+000 -8.515898e+000 192 168 110
-2.175007e+000 1.564283e+000 -7.079790e+000 158 57 65
-2.175007e+000 1.564283e+000 -7.079790e+000 158 57 65
-1.469127e+000 1.185638e+000 -6.838049e+000 195 170 115
-1.469127e+000 1.185638e+000 -6.838049e+000 195 170 115
1.001219e+000 6.775360e-001 -7.780442e+000 175 156 98
2.717436e+000 9.202066e-001 -8.489634e+000 99 111 71
3.537547e+000 6.073468e-001 -8.556984e+000 104 116 94
1.898556e+000 3.167260e+000 -1.080193e+001 77 88 71
-2.414755e+000 2.727530e+000 -8.291723e+000 133 57 59
-4.445055e+000 -2.743365e-001 -6.918314e+000 224 193 181
-3.122213e+000 2.570487e+000 -8.110344e+000 145 53 55
-2.777458e+000 2.711820e+000 -8.148122e+000 163 127 129
-2.210787e+000 2.393281e+000 -8.249199e+000 147 58 58
-4.765003e-001 5.069142e+000 -1.247506e+001 241 219 208
-3.036168e+000 4.288063e+000 -1.062987e+001 166 152 91
1.449644e+000 4.505833e+000 -1.254946e+001 85 88 80
2.751220e+000 3.824546e+000 -8.833430e+000 194 195 189
2.714477e+000 1.803616e+000 -9.700094e+000 62 72 61
-3.777254e-001 -6.107963e-001 8.930019e+000 0 255 0
-3.765528e-001 -6.101265e-001 8.880037e+000 255 255 0
