ply
format ascii 1.0
element face 0
property list uchar int vertex_indices
element vertex 879
property float x
property float y
property float z
property uchar diffuse_red
property uchar diffuse_green
property uchar diffuse_blue
end_header
2.948061e+000 -9.298273e-001 -7.767864e+000 59 67 44
3.135178e+000 -1.031166e+000 -7.936640e+000 88 93 67
3.408195e+000 -1.062180e+000 -8.041833e+000 86 95 68
-2.712739e+000 -1.802257e+000 -5.474907e+000 122 116 101
-2.444851e+000 -1.598412e+000 -5.417109e+000 125 121 109
-2.446350e+000 -1.597112e+000 -5.416904e+000 125 121 109
-1.955955e+000 -1.746568e+000 -5.806556e+000 77 72 59
-9.778358e-001 -1.561959e+000 -6.251109e+000 78 65 49
-8.422780e-001 -1.558156e+000 -6.316876e+000 131 121 67
-6.302888e-001 -1.617880e+000 -6.479982e+000 135 120 69
-6.312041e-001 -1.618488e+000 -6.477084e+000 135 120 69
-2.214990e-001 -1.465423e+000 -6.540778e+000 139 123 79
-2.318188e-001 -1.498375e+000 -6.608812e+000 145 130 87
-2.445732e-001 -1.535377e+000 -6.657148e+000 139 126 81
7.046149e-001 -1.488446e+000 -7.063539e+000 82 69 35
1.725512e+000 -1.333798e+000 -7.526497e+000 115 112 70
1.691859e+000 -1.467457e+000 -7.573286e+000 121 113 63
2.032215e+000 -1.288309e+000 -7.539799e+000 105 106 72
2.032215e+000 -1.288309e+000 -7.539799e+000 105 106 72
2.183402e+000 -1.260470e+000 -7.603733e+000 99 103 70
1.911051e+000 -1.463204e+000 -7.686528e+000 66 65 35
2.141682e+000 -1.420698e+000 -7.775585e+000 102 104 65
2.141682e+000 -1.420698e+000 -7.775585e+000 102 104 65
2.218971e+000 -1.399256e+000 -7.774118e+000 65 67 43
2.292224e+000 -1.408880e+000 -7.841056e+000 98 101 70
2.292224e+000 -1.408880e+000 -7.841056e+000 98 101 70
2.552259e+000 -1.305349e+000 -7.873655e+000 60 65 41
2.764074e+000 -1.304230e+000 -7.994992e+000 90 94 67
3.014242e+000 -1.205060e+000 -8.067475e+000 55 60 37
-2.745913e+000 -1.949357e+000 -5.618087e+000 79 73 63
-2.249299e+000 -1.914467e+000 -5.797127e+000 149 133 117
-2.111253e+000 -1.958392e+000 -5.931222e+000 80 76 68
-2.108436e+000 -1.958615e+000 -5.932331e+000 80 76 68
-1.981874e+000 -1.802671e+000 -5.839236e+000 77 73 62
-2.773660e-001 -1.659117e+000 -6.714420e+000 146 131 89
-3.469017e-001 -1.866722e+000 -6.857977e+000 150 135 90
-3.469017e-001 -1.866722e+000 -6.857977e+000 150 135 90
3.772155e-001 -1.599003e+000 -6.987016e+000 82 69 38
3.728223e-001 -1.807228e+000 -7.201781e+000 148 134 96
3.732637e-001 -1.808683e+000 -7.200254e+000 148 134 96
7.299841e-001 -1.626778e+000 -7.207722e+000 144 131 76
7.272987e-001 -1.632616e+000 -7.205979e+000 144 131 76
6.871685e-001 -1.758334e+000 -7.292156e+000 150 135 82
1.104456e+000 -1.635083e+000 -7.425683e+000 86 73 45
1.061534e+000 -1.789230e+000 -7.541369e+000 86 69 44
1.570030e+000 -1.616302e+000 -7.644371e+000 82 73 46
1.566048e+000 -1.625933e+000 -7.625860e+000 82 73 46
1.793536e+000 -1.601689e+000 -7.737874e+000 121 117 71
1.837714e+000 -1.695660e+000 -7.866388e+000 74 70 41
2.029758e+000 -1.534825e+000 -7.808534e+000 71 66 41
1.934600e+000 -1.619692e+000 -7.857501e+000 113 109 72
1.909451e+000 -1.698708e+000 -7.909876e+000 112 108 62
1.983026e+000 -1.703155e+000 -7.971406e+000 77 70 42
1.982232e+000 -1.704491e+000 -7.967678e+000 77 70 42
2.162399e+000 -1.614693e+000 -7.987466e+000 73 73 46
2.159987e+000 -1.622281e+000 -7.973534e+000 73 73 46
2.194631e+000 -1.725109e+000 -8.058247e+000 105 106 63
2.202398e+000 -1.706155e+000 -8.120808e+000 105 106 63
2.327693e+000 -1.514557e+000 -7.971544e+000 67 69 45
2.442378e+000 -1.648265e+000 -8.149279e+000 67 69 45
2.535172e+000 -1.585927e+000 -8.196189e+000 91 98 65
2.894976e+000 -1.589558e+000 -8.337144e+000 63 69 43
2.894557e+000 -1.590013e+000 -8.338529e+000 63 69 43
3.041529e+000 -1.584304e+000 -8.438933e+000 61 65 47
3.338606e+000 -1.546630e+000 -8.604232e+000 56 61 38
3.474359e+000 -1.551038e+000 -8.625569e+000 57 60 40
-2.814687e+000 -2.129087e+000 -5.741243e+000 124 117 103
-2.814687e+000 -2.129087e+000 -5.741243e+000 124 117 103
-2.696788e+000 -2.203745e+000 -5.869175e+000 79 79 68
-2.100766e+000 -2.031097e+000 -5.976698e+000 154 142 129
-2.223947e+000 -2.127683e+000 -5.974321e+000 74 73 64
-2.230342e+000 -2.119271e+000 -5.990309e+000 74 73 64
-1.580583e+000 -2.003745e+000 -6.187913e+000 127 115 79
-6.361612e-001 -2.075112e+000 -6.917439e+000 92 78 52
-4.154109e-001 -1.897159e+000 -6.870674e+000 87 71 45
-2.572024e-001 -1.978185e+000 -6.996939e+000 148 130 92
-4.038795e-001 -2.048371e+000 -7.037401e+000 158 138 105
-2.661579e-001 -2.024503e+000 -7.052686e+000 151 133 100
3.437353e-002 -1.922192e+000 -7.125432e+000 157 136 83
-1.532097e-001 -2.081968e+000 -7.190019e+000 149 135 100
-6.837979e-002 -2.005900e+000 -7.159253e+000 88 73 44
3.109152e-001 -2.001912e+000 -7.358272e+000 146 132 93
3.128373e-001 -2.003220e+000 -7.343291e+000 146 132 93
5.691080e-001 -1.926555e+000 -7.408310e+000 80 66 41
6.346793e-001 -1.927701e+000 -7.459286e+000 150 136 85
3.836025e-001 -1.977213e+000 -7.360978e+000 72 60 32
1.495756e+000 -1.857521e+000 -7.887859e+000 86 77 45
1.512813e+000 -2.022074e+000 -7.995966e+000 138 128 76
1.886090e+000 -1.777341e+000 -7.981358e+000 119 116 65
1.671395e+000 -1.996302e+000 -8.077430e+000 125 115 65
1.757587e+000 -1.945716e+000 -8.056946e+000 79 70 39
1.757587e+000 -1.945716e+000 -8.056946e+000 79 70 39
2.260413e+000 -1.738529e+000 -8.141746e+000 65 65 36
2.445291e+000 -1.845926e+000 -8.334983e+000 99 103 70
2.364020e+000 -1.883783e+000 -8.347867e+000 61 58 43
2.265919e+000 -1.951612e+000 -8.320587e+000 104 104 69
2.420098e+000 -1.935589e+000 -8.409357e+000 94 93 62
2.862137e+000 -1.692415e+000 -8.444479e+000 61 65 43
2.795138e+000 -1.852565e+000 -8.553307e+000 56 59 40
2.965435e+000 -1.764817e+000 -8.565111e+000 56 59 38
-2.490390e+000 -2.331389e+000 -6.079098e+000 119 111 100
-2.491192e+000 -2.333402e+000 -6.076853e+000 119 111 100
-2.450915e+000 -2.356238e+000 -6.128683e+000 77 73 64
-1.104483e+000 -2.229805e+000 -6.796486e+000 61 47 39
-1.128573e+000 -2.298284e+000 -6.856321e+000 59 43 30
-9.861302e-001 -2.197635e+000 -6.847607e+000 100 83 62
-6.576966e-001 -2.146526e+000 -6.969984e+000 97 85 60
-5.025539e-001 -2.347037e+000 -7.270791e+000 152 139 104
-3.438197e-001 -2.235968e+000 -7.229685e+000 151 133 97
-3.010132e-001 -2.332011e+000 -7.355455e+000 103 87 64
-3.005270e-001 -2.338818e+000 -7.338347e+000 103 87 64
-1.266538e-001 -2.206704e+000 -7.325470e+000 98 82 60
-1.270311e-001 -2.206008e+000 -7.326146e+000 98 82 60
-1.034809e-001 -2.321612e+000 -7.454055e+000 143 128 86
2.792002e-001 -2.104142e+000 -7.433660e+000 145 132 88
2.657676e-001 -2.145709e+000 -7.465262e+000 144 130 93
3.289553e-001 -2.129677e+000 -7.496719e+000 83 73 46
4.627022e-001 -2.246894e+000 -7.695940e+000 97 84 55
1.487285e+000 -2.100715e+000 -8.014299e+000 134 124 73
1.459013e+000 -2.179681e+000 -8.137384e+000 138 121 72
1.443251e+000 -2.237935e+000 -8.169467e+000 139 124 77
1.862634e+000 -2.088239e+000 -8.281489e+000 84 77 44
1.861496e+000 -2.090949e+000 -8.279581e+000 84 77 44
1.939056e+000 -2.075551e+000 -8.310270e+000 117 113 66
1.963379e+000 -2.200901e+000 -8.403436e+000 76 69 43
2.177301e+000 -2.239636e+000 -8.604226e+000 101 99 64
2.343966e+000 -2.191777e+000 -8.671157e+000 100 101 70
2.599460e+000 -2.045050e+000 -8.648019e+000 71 73 49
-1.012730e+000 -2.478381e+000 -7.129134e+000 148 133 102
-1.012748e+000 -2.480998e+000 -7.125997e+000 148 133 102
-1.045493e+000 -2.562601e+000 -7.211845e+000 148 132 106
-8.557199e-001 -2.526552e+000 -7.266262e+000 77 62 33
-9.805561e-001 -2.578700e+000 -7.253085e+000 93 78 55
-6.215409e-001 -2.537935e+000 -7.393451e+000 91 75 48
-4.190197e-001 -2.494390e+000 -7.473760e+000 150 131 88
-1.947738e-001 -2.419692e+000 -7.474399e+000 94 78 47
-1.423330e-001 -2.435818e+000 -7.575550e+000 147 133 91
-1.460982e-001 -2.443493e+000 -7.554469e+000 147 133 91
1.908523e-001 -2.365187e+000 -7.661983e+000 144 127 84
1.908523e-001 -2.365187e+000 -7.661983e+000 144 127 84
2.632576e-001 -2.361535e+000 -7.675358e+000 95 81 54
1.681759e-001 -2.434323e+000 -7.721787e+000 139 126 80
4.398585e-001 -2.334750e+000 -7.757746e+000 88 74 48
3.782819e-001 -2.529045e+000 -7.874636e+000 94 78 52
4.211545e-001 -2.568402e+000 -7.987872e+000 150 131 83
8.276999e-001 -2.521627e+000 -8.171091e+000 86 72 41
9.630440e-001 -2.477686e+000 -8.191215e+000 78 67 32
9.620839e-001 -2.482391e+000 -8.180878e+000 78 67 32
1.018195e+000 -2.432728e+000 -8.172034e+000 147 127 74
1.015241e+000 -2.432392e+000 -8.169669e+000 147 127 74
1.123079e+000 -2.540836e+000 -8.320096e+000 91 78 44
1.383763e+000 -2.419292e+000 -8.368734e+000 135 118 65
1.383763e+000 -2.419292e+000 -8.368734e+000 135 118 65
1.562788e+000 -2.314336e+000 -8.325320e+000 133 120 75
1.726778e+000 -2.280789e+000 -8.411115e+000 117 111 72
1.597357e+000 -2.422143e+000 -8.430854e+000 86 75 44
1.817044e+000 -2.439289e+000 -8.600666e+000 108 101 66
2.146456e+000 -2.321321e+000 -8.676788e+000 108 105 71
2.147668e+000 -2.321873e+000 -8.679193e+000 108 105 71
2.204166e+000 -2.359130e+000 -8.738208e+000 66 65 46
1.896270e+000 -2.412741e+000 -8.636437e+000 69 63 37
2.030254e+000 -2.458225e+000 -8.735630e+000 67 63 38
2.181034e+000 -2.439282e+000 -8.819722e+000 78 77 47
2.243774e+000 -2.260170e+000 -8.721733e+000 69 68 38
2.392061e+000 -2.247453e+000 -8.731308e+000 62 64 40
2.318905e+000 -2.443961e+000 -8.764458e+000 67 67 40
2.498730e+000 -2.374955e+000 -8.904031e+000 64 64 38
2.671569e+000 -2.254744e+000 -8.834171e+000 61 63 41
2.617738e+000 -2.423555e+000 -8.946346e+000 58 61 35
3.030216e+000 -2.460668e+000 -9.357080e+000 53 55 34
3.153177e+000 -2.353930e+000 -9.355228e+000 78 81 59
3.179036e+000 -2.438703e+000 -9.362085e+000 61 61 43
-1.682455e+000 -2.869753e+000 -7.173089e+000 146 130 96
-1.682678e+000 -2.869604e+000 -7.172465e+000 146 130 96
-1.035324e+000 -2.726147e+000 -7.377387e+000 71 59 34
-9.264238e-001 -2.727717e+000 -7.437018e+000 91 76 47
-8.878491e-001 -2.816181e+000 -7.551735e+000 87 76 48
-8.332481e-001 -2.659056e+000 -7.404043e+000 86 69 43
-8.339134e-001 -2.659685e+000 -7.404060e+000 86 69 43
-6.163922e-001 -2.676683e+000 -7.534261e+000 150 130 90
-4.572333e-001 -2.622588e+000 -7.605056e+000 152 133 91
-4.884397e-001 -2.681743e+000 -7.641462e+000 147 132 90
-3.608164e-001 -2.715619e+000 -7.734664e+000 144 129 87
-3.918201e-001 -2.801211e+000 -7.799196e+000 141 127 82
-2.271354e-001 -2.679437e+000 -7.729567e+000 145 128 82
-1.753310e-001 -2.742665e+000 -7.839586e+000 90 73 44
-2.628380e-001 -2.810261e+000 -7.891663e+000 138 123 79
1.695756e-001 -2.625943e+000 -7.900248e+000 90 76 48
6.964443e-002 -2.726936e+000 -7.967522e+000 137 124 73
7.015883e-002 -2.726338e+000 -7.968840e+000 137 124 73
1.152585e-001 -2.776548e+000 -8.045562e+000 84 72 46
3.456726e-001 -2.608565e+000 -7.982849e+000 88 74 46
3.937983e-001 -2.651918e+000 -8.096814e+000 144 127 83
3.937983e-001 -2.651918e+000 -8.096814e+000 144 127 83
4.563391e-001 -2.676671e+000 -8.129499e+000 85 70 40
4.563896e-001 -2.677159e+000 -8.132156e+000 85 70 40
5.236610e-001 -2.673032e+000 -8.130451e+000 138 125 75
5.866662e-001 -2.688079e+000 -8.201877e+000 88 76 54
3.558913e-001 -2.755452e+000 -8.122292e+000 139 125 76
4.061150e-001 -2.815892e+000 -8.224278e+000 84 73 46
6.163285e-001 -2.590595e+000 -8.179058e+000 87 75 42
9.056102e-001 -2.640312e+000 -8.275831e+000 91 76 44
1.067846e+000 -2.706331e+000 -8.433515e+000 98 85 51
1.248945e+000 -2.623269e+000 -8.537657e+000 83 72 41
1.373141e+000 -2.655158e+000 -8.596238e+000 76 65 45
1.373141e+000 -2.655158e+000 -8.596238e+000 76 65 45
1.272528e+000 -2.746710e+000 -8.618585e+000 131 121 73
1.272407e+000 -2.747187e+000 -8.618285e+000 131 121 73
1.637848e+000 -2.532978e+000 -8.597696e+000 126 115 71
1.709829e+000 -2.523517e+000 -8.635224e+000 75 69 41
1.823577e+000 -2.581757e+000 -8.757480e+000 69 62 34
1.655425e+000 -2.693700e+000 -8.817088e+000 83 73 46
1.731261e+000 -2.677849e+000 -8.786433e+000 117 110 67
1.872377e+000 -2.693531e+000 -8.784256e+000 112 104 68
1.872377e+000 -2.693531e+000 -8.784256e+000 112 104 68
1.986864e+000 -2.599162e+000 -8.859649e+000 71 66 37
2.149682e+000 -2.540122e+000 -8.873001e+000 65 63 42
2.126294e+000 -2.613131e+000 -8.988338e+000 69 64 46
2.172265e+000 -2.678260e+000 -9.030613e+000 99 99 65
2.173514e+000 -2.674613e+000 -9.043522e+000 99 99 65
2.275893e+000 -2.587391e+000 -9.026432e+000 74 73 47
2.241805e+000 -2.664891e+000 -9.018858e+000 68 66 42
2.595059e+000 -2.508091e+000 -9.134763e+000 57 61 38
2.674956e+000 -2.680988e+000 -9.358250e+000 60 60 39
2.905312e+000 -2.625778e+000 -9.386638e+000 79 82 54
3.101098e+000 -2.703728e+000 -9.647939e+000 55 56 38
-1.864247e+000 -2.972984e+000 -7.190477e+000 138 123 90
-1.864500e+000 -2.974935e+000 -7.183238e+000 138 123 90
-1.759621e+000 -3.081632e+000 -7.408645e+000 144 125 93
-1.255941e+000 -3.000609e+000 -7.540297e+000 103 85 62
-1.128447e+000 -3.002156e+000 -7.601330e+000 91 77 51
-1.152945e+000 -3.075559e+000 -7.680438e+000 79 65 38
-1.153093e+000 -3.073654e+000 -7.684055e+000 79 65 38
-7.080191e-001 -2.965111e+000 -7.785481e+000 149 135 99
-7.566876e-001 -3.103729e+000 -7.927697e+000 147 134 91
-6.861979e-001 -3.084542e+000 -7.932872e+000 86 70 45
-4.796414e-001 -3.052980e+000 -8.016150e+000 141 124 83
-4.803350e-001 -3.056272e+000 -8.006319e+000 141 124 83
-4.225194e-001 -3.085871e+000 -8.077686e+000 96 83 51
-5.923266e-002 -2.907730e+000 -8.087380e+000 84 73 44
-1.112910e-001 -3.060060e+000 -8.231424e+000 77 67 42
-1.098680e-001 -3.057834e+000 -8.238760e+000 77 67 42
7.302627e-002 -2.887182e+000 -8.140056e+000 86 74 47
-2.425583e-002 -2.989586e+000 -8.212112e+000 115 103 61
4.581360e-002 -2.987288e+000 -8.169361e+000 87 75 49
3.346194e-001 -2.835418e+000 -8.231262e+000 140 127 80
3.338886e-001 -2.836974e+000 -8.229751e+000 140 127 80
3.572779e-001 -2.949601e+000 -8.377482e+000 84 71 52
5.060064e-001 -2.912907e+000 -8.394619e+000 84 72 44
3.197091e-001 -3.061168e+000 -8.428224e+000 85 74 47
7.817724e-001 -2.826913e+000 -8.479536e+000 137 123 77
8.521610e-001 -2.808512e+000 -8.481780e+000 89 76 49
8.079288e-001 -2.938371e+000 -8.560696e+000 85 76 48
1.123956e+000 -2.966692e+000 -8.786897e+000 87 80 51
1.193886e+000 -2.962268e+000 -8.792436e+000 133 120 75
1.238056e+000 -2.842879e+000 -8.757223e+000 135 119 71
1.311681e+000 -2.832925e+000 -8.759297e+000 81 74 43
1.280135e+000 -2.924563e+000 -8.835078e+000 88 82 48
1.279943e+000 -2.923478e+000 -8.834856e+000 88 82 48
1.392484e+000 -2.815775e+000 -8.708813e+000 127 119 70
1.340207e+000 -2.966237e+000 -8.918753e+000 127 113 73
1.600403e+000 -2.841063e+000 -8.878529e+000 80 69 41
1.682635e+000 -2.827002e+000 -8.956502e+000 115 105 70
1.686103e+000 -2.823730e+000 -8.966690e+000 115 105 70
1.597591e+000 -3.049153e+000 -9.114145e+000 125 114 69
1.725080e+000 -2.929442e+000 -9.094199e+000 76 68 46
2.118740e+000 -2.828558e+000 -9.151310e+000 103 99 67
2.005171e+000 -2.956682e+000 -9.231779e+000 72 65 46
2.005171e+000 -2.956682e+000 -9.231779e+000 72 65 46
1.983880e+000 -3.011824e+000 -9.337718e+000 67 61 39
2.048778e+000 -3.045326e+000 -9.418533e+000 98 98 64
2.209568e+000 -2.989748e+000 -9.389657e+000 106 103 68
2.581458e+000 -2.961591e+000 -9.640810e+000 66 68 43
-2.238983e+000 -3.183039e+000 -7.195014e+000 140 125 91
-2.255701e+000 -3.251062e+000 -7.262538e+000 144 128 93
-2.255983e+000 -3.249229e+000 -7.268046e+000 144 128 93
-1.213243e+000 -3.239597e+000 -7.834528e+000 81 65 42
-8.260262e-001 -3.109194e+000 -7.914116e+000 95 79 51
-6.698635e-001 -3.202971e+000 -8.069019e+000 142 127 86
-7.428233e-001 -3.241831e+000 -8.092036e+000 105 89 62
-6.823769e-001 -3.278415e+000 -8.154706e+000 137 124 79
-5.823350e-001 -3.176315e+000 -8.082218e+000 96 85 57
-5.233112e-001 -3.352842e+000 -8.308150e+000 97 81 55
-3.799783e-001 -3.287861e+000 -8.302569e+000 107 96 64
-1.529492e-001 -3.167574e+000 -8.324125e+000 81 67 39
-1.533997e-001 -3.168602e+000 -8.322315e+000 81 67 39
-1.831950e-001 -3.258009e+000 -8.391422e+000 91 77 48
-1.817671e-001 -3.261508e+000 -8.384361e+000 91 77 48
-4.613062e-002 -3.233367e+000 -8.423297e+000 94 83 55
-6.436489e-002 -3.301981e+000 -8.505239e+000 85 74 43
1.068656e-001 -3.290854e+000 -8.602608e+000 87 75 47
2.291043e-001 -3.307464e+000 -8.661017e+000 97 86 54
4.121177e-001 -3.177506e+000 -8.607856e+000 87 73 44
3.797939e-001 -3.269555e+000 -8.715330e+000 83 70 46
3.797776e-001 -3.271294e+000 -8.714056e+000 83 70 46
5.503131e-001 -3.297306e+000 -8.830780e+000 92 78 50
6.839190e-001 -3.106708e+000 -8.702136e+000 137 124 83
6.863831e-001 -3.099017e+000 -8.716890e+000 137 124 83
7.175503e-001 -3.169938e+000 -8.767985e+000 89 79 52
7.579715e-001 -3.090516e+000 -8.712483e+000 84 73 43
1.103928e+000 -3.224634e+000 -9.080020e+000 134 126 80
1.104518e+000 -3.223707e+000 -9.082127e+000 134 126 80
1.349645e+000 -3.124861e+000 -9.044122e+000 81 72 41
1.406463e+000 -3.180753e+000 -9.160277e+000 124 115 76
1.320652e+000 -3.215822e+000 -9.194347e+000 85 75 39
1.319903e+000 -3.217164e+000 -9.198514e+000 85 75 39
1.819652e+000 -3.074602e+000 -9.385137e+000 79 71 48
1.865347e+000 -3.152452e+000 -9.427458e+000 108 102 68
1.938259e+000 -3.338952e+000 -9.595593e+000 108 101 72
2.303040e+000 -3.143566e+000 -9.667710e+000 96 95 67
2.477228e+000 -3.279338e+000 -9.907440e+000 66 65 45
2.969067e+000 -3.083143e+000 -9.868413e+000 57 59 38
2.977264e+000 -3.073634e+000 -9.931976e+000 57 59 38
-2.770092e+000 -3.458725e+000 -7.233657e+000 130 120 85
-2.590371e+000 -3.386639e+000 -7.213721e+000 132 118 84
-2.819787e+000 -3.604917e+000 -7.343492e+000 133 119 83
-2.345807e+000 -3.503490e+000 -7.487093e+000 138 125 86
-1.903916e+000 -3.432537e+000 -7.693395e+000 133 123 89
-2.015720e+000 -3.598027e+000 -7.762507e+000 86 75 56
-1.954839e+000 -3.616993e+000 -7.825850e+000 128 118 90
-1.957971e+000 -3.616687e+000 -7.828248e+000 128 118 90
-1.332150e+000 -3.573947e+000 -8.115590e+000 87 75 49
-1.331071e+000 -3.567586e+000 -8.128976e+000 87 75 49
-9.420384e-001 -3.598119e+000 -8.333325e+000 138 125 83
-7.985082e-001 -3.578034e+000 -8.412570e+000 143 128 92
-7.985082e-001 -3.578034e+000 -8.412570e+000 143 128 92
-5.857807e-001 -3.526354e+000 -8.487542e+000 85 71 42
-6.004166e-001 -3.579555e+000 -8.544519e+000 94 80 51
-1.646782e-001 -3.399767e+000 -8.567241e+000 133 122 77
-1.652776e-001 -3.391140e+000 -8.596943e+000 133 122 77
-2.918275e-001 -3.556807e+000 -8.653526e+000 109 98 70
-2.933755e-001 -3.563770e+000 -8.643409e+000 109 98 70
1.734261e-001 -3.471983e+000 -8.774153e+000 87 73 46
2.423126e-001 -3.466965e+000 -8.907351e+000 137 124 81
2.787407e-001 -3.361643e+000 -8.751543e+000 141 130 87
2.791704e-001 -3.359083e+000 -8.754377e+000 141 130 87
3.131655e-001 -3.444304e+000 -8.854761e+000 91 80 49
4.897992e-001 -3.443762e+000 -8.994212e+000 86 77 46
8.022867e-001 -3.438947e+000 -9.135632e+000 84 76 44
1.011920e+000 -3.481492e+000 -9.158280e+000 137 129 82
8.972729e-001 -3.594220e+000 -9.356343e+000 83 74 41
1.055954e+000 -3.542086e+000 -9.349288e+000 93 85 55
1.307306e+000 -3.457226e+000 -9.396802e+000 127 118 77
1.219965e+000 -3.494207e+000 -9.395345e+000 92 82 56
1.274766e+000 -3.547467e+000 -9.487722e+000 129 117 75
1.275735e+000 -3.542539e+000 -9.510588e+000 129 117 75
1.563918e+000 -3.350563e+000 -9.455226e+000 79 72 43
1.875106e+000 -3.505368e+000 -9.775926e+000 109 102 74
2.250113e+000 -3.493972e+000 -9.996489e+000 73 71 46
2.229171e+000 -3.565426e+000 -1.006448e+001 70 65 45
2.851872e+000 -3.496908e+000 -1.026873e+001 56 57 39
-3.245253e+000 -3.793937e+000 -7.302330e+000 77 67 40
-2.840224e+000 -3.663260e+000 -7.412509e+000 134 122 87
-2.494514e+000 -3.698725e+000 -7.622116e+000 88 76 49
-2.114179e+000 -3.688149e+000 -7.817430e+000 128 118 89
-1.972498e+000 -3.881889e+000 -8.118651e+000 86 75 48
-9.830237e-001 -3.726595e+000 -8.474994e+000 133 118 85
-9.830237e-001 -3.726595e+000 -8.474994e+000 133 118 85
-7.726825e-001 -3.702186e+000 -8.549414e+000 99 87 60
-7.734204e-001 -3.704418e+000 -8.533453e+000 99 87 60
-7.219264e-001 -3.735842e+000 -8.600359e+000 136 124 85
-7.219264e-001 -3.735842e+000 -8.600359e+000 136 124 85
-6.548430e-001 -3.729094e+000 -8.602315e+000 97 82 53
-2.508682e-001 -3.634747e+000 -8.774876e+000 138 125 90
-3.479409e-001 -3.703804e+000 -8.775350e+000 99 85 58
-3.478363e-001 -3.714765e+000 -8.720037e+000 99 85 58
-2.579367e-001 -3.834628e+000 -8.995184e+000 82 68 41
-1.514757e-002 -3.636980e+000 -8.901947e+000 89 77 52
9.945290e-002 -3.673477e+000 -9.011722e+000 91 80 50
9.922803e-002 -3.676332e+000 -9.007157e+000 91 80 50
1.948688e-001 -3.771761e+000 -9.154567e+000 88 76 49
4.825503e-001 -3.811708e+000 -9.340815e+000 98 84 53
2.276992e+000 -3.637086e+000 -1.017137e+001 96 92 65
-3.543617e+000 -4.048661e+000 -7.416566e+000 121 108 76
-3.225932e+000 -3.924602e+000 -7.451167e+000 118 107 82
-2.277198e+000 -3.918465e+000 -7.990290e+000 81 74 46
-9.167625e-001 -3.929817e+000 -8.735453e+000 147 130 85
6.507878e-001 -8.385040e-001 -6.491311e+000 79 73 44
-3.369435e-001 -1.024390e+000 -6.107827e+000 84 73 41
5.231532e-001 -9.246044e-001 -6.500093e+000 120 110 57
7.144297e-001 -9.041699e-001 -6.536290e+000 112 108 60
1.010245e+000 -1.022677e+000 -6.824386e+000 128 119 64
1.494766e+000 -8.398278e-001 -6.900382e+000 108 110 66
1.785197e+000 -8.838416e-001 -7.104738e+000 62 62 36
1.893482e+000 -9.900655e-001 -7.254189e+000 72 72 44
1.941961e+000 -8.346065e-001 -7.084143e+000 66 69 42
2.078194e+000 -8.461284e-001 -7.213739e+000 57 61 36
1.971334e+000 -9.858815e-001 -7.204916e+000 99 103 65
2.152626e+000 -9.001852e-001 -7.315318e+000 98 104 68
2.235442e+000 -8.353355e-001 -7.297884e+000 71 77 52
3.162239e+000 -6.835477e-001 -7.639194e+000 65 69 46
-1.961024e+000 -1.446053e+000 -5.506600e+000 76 72 60
-1.863738e+000 -1.488805e+000 -5.593243e+000 78 74 57
-1.863738e+000 -1.488805e+000 -5.593243e+000 78 74 57
-9.766496e-002 -1.254928e+000 -6.434796e+000 87 76 43
-1.031571e-002 -1.214136e+000 -6.447629e+000 133 119 70
4.565743e-001 -1.311226e+000 -6.765288e+000 82 72 47
2.007427e+000 -1.117583e+000 -7.432542e+000 66 66 40
2.008069e+000 -1.114433e+000 -7.438735e+000 66 66 40
2.124530e+000 -1.210499e+000 -7.564936e+000 62 65 36
2.751186e+000 -1.087586e+000 -7.877168e+000 57 63 40
3.072450e+000 -9.776960e-001 -7.885311e+000 64 67 46
3.053824e+000 -1.056223e+000 -7.938790e+000 59 67 44
3.053824e+000 -1.056223e+000 -7.938790e+000 59 67 44
3.740936e+000 -1.034497e+000 -8.295813e+000 81 86 64
-3.104603e+000 -2.235907e+000 -3.841901e+000 253 223 172
-2.881189e+000 -1.793092e+000 -5.436862e+000 80 78 66
-2.871217e+000 -1.802453e+000 -5.406033e+000 80 78 66
-2.481075e+000 -1.756110e+000 -5.540541e+000 75 72 62
4.062016e-001 -1.470590e+000 -6.937476e+000 80 64 50
1.779041e+000 -1.382208e+000 -7.547127e+000 85 82 53
1.777076e+000 -1.388473e+000 -7.532156e+000 85 82 53
1.947775e+000 -1.308030e+000 -7.563886e+000 78 76 51
1.948785e+000 -1.310299e+000 -7.561659e+000 78 76 51
2.816664e+000 -1.368379e+000 -8.086117e+000 58 62 36
-2.933066e+000 -1.901987e+000 -5.478406e+000 77 73 66
-2.471883e+000 -1.824463e+000 -5.612685e+000 127 118 111
-2.219580e+000 -1.797746e+000 -5.704866e+000 77 68 62
-7.318315e-001 -1.795630e+000 -6.609378e+000 75 61 36
-5.539364e-001 -1.802003e+000 -6.711944e+000 83 68 45
2.833170e-002 -1.701205e+000 -6.974248e+000 92 78 51
1.672826e+000 -1.741867e+000 -7.839544e+000 82 73 43
2.098726e+000 -1.567694e+000 -7.895944e+000 106 105 61
2.650977e+000 -1.444919e+000 -8.073214e+000 62 64 49
2.650977e+000 -1.444919e+000 -8.073214e+000 62 64 49
3.079083e+000 -1.421038e+000 -8.263301e+000 62 66 43
-8.195811e-001 -2.081658e+000 -6.838273e+000 90 73 55
-4.841106e-001 -2.104472e+000 -7.021937e+000 100 80 56
-1.057785e-001 -1.907930e+000 -7.047950e+000 158 136 95
-5.740285e-002 -1.973269e+000 -7.074824e+000 88 72 44
2.520985e-001 -1.939679e+000 -7.225662e+000 86 71 48
3.561070e-001 -2.051037e+000 -7.424150e+000 79 68 39
6.942448e-001 -1.959780e+000 -7.513191e+000 103 87 63
1.017591e+000 -1.932649e+000 -7.679836e+000 95 82 56
1.519015e+000 -1.771226e+000 -7.803531e+000 80 73 47
1.508383e+000 -1.788205e+000 -7.736225e+000 80 73 47
2.106990e+000 -1.758470e+000 -8.069617e+000 68 64 37
2.403889e+000 -1.754946e+000 -8.240268e+000 59 62 35
-2.752384e+000 -2.400287e+000 -6.040498e+000 70 69 57
-2.753401e+000 -2.399635e+000 -6.042494e+000 70 69 57
-2.379918e+000 -2.331321e+000 -6.122220e+000 137 135 122
-2.400028e+000 -2.450813e+000 -6.240296e+000 83 76 67
-2.399266e+000 -2.454471e+000 -6.228705e+000 83 76 67
-2.266776e+000 -2.432423e+000 -6.252761e+000 79 76 61
-2.267016e+000 -2.429205e+000 -6.257787e+000 79 76 61
-2.137900e+000 -2.381425e+000 -6.268256e+000 78 77 69
-2.137674e+000 -2.374559e+000 -6.280860e+000 78 77 69
-8.522925e-001 -2.187188e+000 -6.901606e+000 92 75 55
-5.080040e-001 -2.171492e+000 -7.067250e+000 102 85 64
-4.399311e-001 -2.336037e+000 -7.288607e+000 86 71 42
-1.645219e-001 -2.315172e+000 -7.403008e+000 99 86 52
1.974052e-001 -2.155290e+000 -7.476586e+000 96 82 53
1.971467e-001 -2.156400e+000 -7.474189e+000 96 82 53
6.301045e-001 -2.151801e+000 -7.666631e+000 88 76 53
1.521676e+000 -2.221155e+000 -8.208692e+000 87 77 47
1.600455e+000 -2.215820e+000 -8.142061e+000 132 118 69
1.690643e+000 -2.138573e+000 -8.219506e+000 92 85 53
2.022272e+000 -2.036508e+000 -8.323913e+000 73 67 42
2.747034e+000 -2.043830e+000 -8.695237e+000 62 64 42
-9.397956e-001 -2.450714e+000 -7.144147e+000 90 76 57
-9.397956e-001 -2.450714e+000 -7.144147e+000 90 76 57
-1.083910e+000 -2.503748e+000 -7.122500e+000 90 75 51
-7.501552e-001 -2.418032e+000 -7.179836e+000 81 64 46
-2.252816e-001 -2.496548e+000 -7.571786e+000 93 79 48
2.113699e-001 -2.487593e+000 -7.776262e+000 88 77 52
5.725784e-001 -2.320567e+000 -7.848431e+000 83 70 48
5.095960e-001 -2.524364e+000 -7.982220e+000 84 72 46
5.876590e-001 -2.525744e+000 -8.036299e+000 154 131 77
1.580983e+000 -2.472978e+000 -8.521536e+000 85 73 45
2.515532e+000 -2.475598e+000 -9.006184e+000 90 90 62
-1.751931e+000 -2.846613e+000 -7.105142e+000 80 63 43
-1.751693e+000 -2.847856e+000 -7.100776e+000 80 63 43
-1.604251e+000 -2.855442e+000 -7.182389e+000 90 74 51
-1.604251e+000 -2.855442e+000 -7.182389e+000 90 74 51
-5.278153e-001 -2.622612e+000 -7.536422e+000 105 90 57
-5.575125e-001 -2.707266e+000 -7.617942e+000 101 85 55
2.806876e-002 -2.636250e+000 -7.831220e+000 92 83 56
-9.302198e-003 -2.742277e+000 -7.925587e+000 89 74 48
1.191244e+000 -2.754673e+000 -8.605388e+000 87 76 46
1.405307e+000 -2.561262e+000 -8.506600e+000 73 64 41
1.533187e+000 -2.614302e+000 -8.446854e+000 78 71 44
1.361490e+000 -2.720804e+000 -8.671587e+000 79 69 41
1.970703e+000 -2.589952e+000 -8.700164e+000 81 76 48
1.970703e+000 -2.589952e+000 -8.700164e+000 81 76 48
2.377479e+000 -2.726150e+000 -9.193396e+000 69 69 48
2.810961e+000 -2.668145e+000 -9.365801e+000 65 67 44
-1.934169e+000 -2.941346e+000 -7.148444e+000 88 71 51
-1.988290e+000 -3.097631e+000 -7.264395e+000 94 79 55
-1.537235e+000 -3.080012e+000 -7.499413e+000 62 49 47
4.573851e-001 -3.038959e+000 -8.515337e+000 92 78 49
1.236129e+000 -3.024332e+000 -8.917653e+000 93 81 49
-2.394612e+000 -3.243045e+000 -7.175710e+000 141 127 90
-2.394612e+000 -3.243045e+000 -7.175710e+000 141 127 90
-2.313978e+000 -3.216923e+000 -7.201954e+000 92 78 52
-2.218938e+000 -3.365937e+000 -7.399860e+000 89 75 48
-1.605246e+000 -3.266289e+000 -7.665516e+000 65 52 43
-9.981854e-001 -3.116637e+000 -7.777154e+000 100 84 58
9.874236e-001 -3.331842e+000 -9.118191e+000 93 82 50
1.896316e+000 -3.229232e+000 -9.463213e+000 75 69 45
2.024589e+000 -3.299654e+000 -9.559619e+000 65 63 38
-2.987806e+000 -3.453158e+000 -7.090006e+000 76 63 47
-2.988247e+000 -3.448358e+000 -7.097273e+000 76 63 47
-2.936400e+000 -3.533474e+000 -7.185907e+000 129 116 81
-2.936212e+000 -3.535117e+000 -7.179024e+000 129 116 81
-2.681584e+000 -3.626535e+000 -7.461916e+000 123 112 78
-2.527832e+000 -3.398449e+000 -7.285503e+000 99 85 56
-2.459800e+000 -3.413032e+000 -7.354570e+000 134 121 86
-2.523702e+000 -3.587649e+000 -7.500168e+000 130 117 83
-2.264843e+000 -3.476796e+000 -7.494996e+000 91 77 50
-8.726145e-001 -3.591138e+000 -8.425799e+000 115 100 69
-2.299047e-001 -3.381997e+000 -8.519555e+000 94 79 56
1.103422e+000 -3.434054e+000 -9.317256e+000 83 74 43
-3.188879e+000 -3.829122e+000 -7.378369e+000 126 115 80
-2.715724e+000 -3.735138e+000 -7.543225e+000 130 118 81
-2.587878e+000 -3.744565e+000 -7.606987e+000 119 109 73
-2.339995e+000 -3.660923e+000 -7.676813e+000 104 92 66
-2.275659e+000 -3.718006e+000 -7.768093e+000 126 116 81
-2.160539e+000 -3.794575e+000 -7.891775e+000 124 115 82
-2.246325e+000 -3.850288e+000 -7.923407e+000 80 71 43
-2.239622e+000 -3.863868e+000 -7.867066e+000 80 71 43
-2.102630e+000 -3.847509e+000 -7.979675e+000 82 74 52
-2.010995e+000 -3.820341e+000 -8.032184e+000 127 115 73
-1.528710e+000 -3.804806e+000 -8.222120e+000 104 89 68
-1.171740e+000 -3.639230e+000 -8.300061e+000 97 83 54
-8.044442e-001 -3.774376e+000 -8.568186e+000 96 83 54
-7.079105e-001 -3.857809e+000 -8.792710e+000 98 85 53
-3.555045e+000 -4.001652e+000 -7.362381e+000 119 106 72
-3.412955e+000 -4.040611e+000 -7.495377e+000 122 111 81
-3.078376e+000 -3.955476e+000 -7.531549e+000 120 111 80
-3.106753e+000 -3.947567e+000 -7.644174e+000 120 111 80
-2.654536e+000 -3.922925e+000 -7.767399e+000 125 116 85
-2.047842e+000 -3.888998e+000 -8.058205e+000 133 123 85
-2.048800e+000 -3.887523e+000 -8.063786e+000 133 123 85
1.347194e+000 -7.538036e-001 -6.788696e+000 110 109 65
5.080278e-001 -1.044531e+000 -6.565178e+000 125 113 61
1.381994e+000 -9.298712e-001 -6.912621e+000 67 67 34
1.601128e+000 -9.727846e-001 -7.071536e+000 113 111 63
1.569498e+000 -1.085216e+000 -7.179202e+000 116 112 65
1.501287e+000 -1.325739e+000 -7.401456e+000 131 121 62
-1.446301e+000 -1.885027e+000 -6.141042e+000 116 107 76
2.940679e-001 -2.513347e+000 -7.871589e+000 126 110 69
-1.408745e+000 -2.687787e+000 -7.184186e+000 59 45 44
-1.271961e+000 -2.694403e+000 -7.182455e+000 59 48 41
2.516279e-001 -2.631429e+000 -8.029127e+000 119 106 64
1.808627e-001 -2.821452e+000 -8.097191e+000 87 75 35
-2.282734e+000 -3.122452e+000 -7.086256e+000 121 105 80
-2.045898e+000 -2.984750e+000 -7.062193e+000 143 124 85
2.458162e-002 -3.055686e+000 -8.294491e+000 78 68 45
2.854220e-002 -3.046734e+000 -8.313217e+000 78 68 45
5.652973e-001 -2.988611e+000 -8.452618e+000 101 89 51
8.950284e-001 -2.963854e+000 -8.649064e+000 127 114 70
-2.469549e+000 -3.217380e+000 -7.105118e+000 95 83 59
-2.466945e+000 -3.220215e+000 -7.095489e+000 95 83 59
-1.716325e+000 -3.181819e+000 -7.463359e+000 95 79 52
-3.191781e+000 -3.592073e+000 -7.146017e+000 98 87 59
-2.823042e+000 -3.386452e+000 -7.109539e+000 78 65 46
3.215188e+000 -3.473347e+000 -9.920788e+000 124 112 96
-3.071428e+000 -3.674180e+000 -7.314445e+000 92 80 57
-3.158132e+000 -3.746770e+000 -7.340682e+000 123 110 75
-2.986361e+000 -3.834471e+000 -7.487197e+000 81 75 51
-2.190500e+000 -3.694542e+000 -7.747679e+000 86 76 51
-1.884605e+000 -3.820877e+000 -8.072909e+000 132 119 81
-3.021849e+000 -3.986021e+000 -7.632375e+000 87 76 58
-3.024167e+000 -3.987404e+000 -7.631966e+000 87 76 58
-2.806899e+000 -3.923330e+000 -7.688386e+000 125 116 79
-2.347766e+000 -3.905813e+000 -7.904876e+000 128 115 80
-1.366960e+000 -3.892694e+000 -8.486307e+000 97 82 49
9.097272e-001 -8.113896e-001 -6.580001e+000 108 106 57
-2.929906e-001 -9.944185e-001 -6.093515e+000 110 99 59
8.528372e-001 -1.005820e+000 -6.713858e+000 117 110 56
1.126969e+000 -8.654255e-001 -6.779132e+000 115 111 63
-4.358750e-001 -1.417890e+000 -6.353041e+000 139 123 72
-1.162800e+000 -3.349866e+000 -7.965121e+000 111 95 61
-1.217417e+000 -3.508601e+000 -8.120536e+000 124 109 76
-1.220157e+000 -3.505490e+000 -8.141905e+000 124 109 76
1.242951e+000 -1.402044e+000 -7.248668e+000 141 125 66
1.406550e-001 -1.763967e+000 -6.975960e+000 152 131 86
1.406550e-001 -1.763967e+000 -6.975960e+000 152 131 86
-2.254368e+000 -2.287361e+000 -6.158106e+000 71 69 57
-3.884275e-001 -2.555561e+000 -7.554436e+000 149 130 89
-1.383653e+000 -3.384697e+000 -7.892230e+000 108 92 59
3.122797e+000 -3.864287e+000 -1.093315e+001 194 168 152
-3.623239e+000 -3.909898e+000 -7.291467e+000 85 73 50
-1.499960e+000 -2.644744e+000 -6.936197e+000 151 130 89
-1.762657e+000 -2.120684e+000 -6.212149e+000 128 113 70
-2.640577e-001 -8.210193e-001 -6.013399e+000 126 115 70
8.524656e-001 -2.240834e+000 -7.999324e+000 134 121 77
-1.718781e+000 -3.768924e+000 -8.392193e+000 62 58 49
-2.684423e-001 -9.350321e-001 -6.043044e+000 129 124 77
1.326369e+000 -7.218051e-001 -6.741533e+000 115 120 78
7.139597e-001 -1.042953e+000 -6.326993e+000 126 124 83
1.633345e+000 -7.253370e-001 -6.870472e+000 122 127 88
2.577310e+000 -7.595779e-001 -7.371391e+000 102 112 85
3.254940e+000 -6.327087e-001 -7.650567e+000 101 112 82
-2.562605e+000 -1.663893e+000 -5.403708e+000 74 77 66
-2.316406e+000 -1.600825e+000 -5.489142e+000 79 87 74
1.632615e-001 -1.261534e+000 -6.560775e+000 89 80 47
1.682518e+000 -1.091013e+000 -7.227019e+000 117 117 80
2.379430e+000 -8.197982e-001 -7.358419e+000 70 79 60
2.442369e+000 -8.670229e-001 -7.436416e+000 92 102 77
-2.053045e+000 -1.645931e+000 -5.687424e+000 161 151 141
-4.816420e-001 -1.427354e+000 -6.386894e+000 149 138 86
-4.752311e-002 -1.543359e+000 -6.714786e+000 83 72 36
-2.844611e+000 -1.951016e+000 -5.568817e+000 81 84 72
-2.136684e+000 -1.921475e+000 -5.863403e+000 104 101 89
-2.063220e+000 -1.929988e+000 -5.925638e+000 114 114 104
-1.965298e+000 -1.947473e+000 -5.959798e+000 81 85 71
-1.965136e+000 -1.948235e+000 -5.958419e+000 81 85 71
-3.757072e-001 -1.748297e+000 -6.752544e+000 150 141 102
3.328219e-001 -1.580068e+000 -6.763382e+000 138 125 83
2.947472e+000 -1.215196e+000 -8.020032e+000 96 105 76
3.323302e+000 -1.296869e+000 -8.098970e+000 88 97 76
-2.867558e+000 -2.098103e+000 -5.698027e+000 77 77 65
-1.911260e+000 -2.140379e+000 -6.211831e+000 93 97 82
-5.916635e-001 -1.919374e+000 -6.806425e+000 94 83 52
-2.050678e+000 -2.247210e+000 -6.220907e+000 78 80 68
-7.175619e-001 -2.152288e+000 -6.985820e+000 135 123 97
1.531607e+000 -1.979100e+000 -7.957536e+000 137 125 76
-1.083902e+000 -2.320840e+000 -6.939377e+000 133 122 95
-6.941451e-001 -2.242073e+000 -7.056012e+000 99 88 66
-6.941451e-001 -2.242073e+000 -7.056012e+000 99 88 66
-2.498119e-001 -2.194850e+000 -7.255192e+000 94 83 55
2.869487e+000 -1.908316e+000 -8.679905e+000 89 96 68
-7.702406e-001 -2.477962e+000 -7.258875e+000 88 77 57
1.198375e+000 -2.317430e+000 -8.168403e+000 92 84 48
-1.642100e-001 -2.500926e+000 -7.629904e+000 135 124 88
-3.770039e-001 -2.637543e+000 -7.632001e+000 161 148 95
1.424969e+000 -2.720291e+000 -8.629469e+000 135 123 81
-2.125912e+000 -3.051066e+000 -7.132658e+000 129 117 81
-1.125134e-001 -3.057969e+000 -8.238052e+000 92 83 51
-3.383497e+000 -3.646765e+000 -7.090834e+000 85 76 43
-3.396700e+000 -3.758516e+000 -7.196715e+000 82 76 45
-3.446709e+000 -3.815471e+000 -7.240584e+000 78 73 48
2.117876e+000 -7.935245e-001 -5.120442e+000 176 178 173
-6.486898e-001 -8.809785e-001 -5.808163e+000 138 132 79
6.585869e-001 -7.905144e-001 -6.426476e+000 133 130 84
-1.899522e+000 -1.451656e+000 -5.548424e+000 131 133 106
5.272540e-001 -9.335176e-001 -6.479824e+000 137 131 83
5.111979e-001 -9.990270e-001 -6.520136e+000 137 130 83
7.573833e-001 -1.013280e+000 -6.657926e+000 106 102 59
7.573833e-001 -1.013280e+000 -6.657926e+000 106 102 59
1.631857e+000 -8.355402e-001 -6.985587e+000 80 84 57
2.014665e+000 -8.283766e-001 -7.146242e+000 110 119 88
2.014665e+000 -8.283766e-001 -7.146242e+000 110 119 88
2.966292e+000 -6.376170e-001 -7.657131e+000 91 105 81
3.626569e+000 -6.128275e-001 -7.809381e+000 77 89 65
-2.499355e+000 -1.609422e+000 -5.391796e+000 84 87 76
1.807389e+000 -1.058995e+000 -7.259385e+000 120 122 83
1.976970e+000 -9.722887e-001 -7.279272e+000 112 119 82
1.976970e+000 -9.722887e-001 -7.279272e+000 112 119 82
2.111373e+000 -1.017929e+000 -7.391869e+000 109 115 82
2.111373e+000 -1.017929e+000 -7.391869e+000 109 115 82
2.884125e+000 -9.049779e-001 -7.749973e+000 94 106 82
3.462815e+000 -8.551425e-001 -7.759140e+000 93 107 81
-2.701562e+000 -1.747548e+000 -5.449824e+000 79 82 71
-2.209375e+000 -1.712393e+000 -5.644075e+000 103 91 83
-2.151881e+000 -1.714635e+000 -5.670090e+000 164 155 142
-1.676127e+000 -1.644636e+000 -5.797944e+000 131 129 89
-1.017200e+000 -1.467622e+000 -6.193386e+000 64 53 47
-4.541722e-001 -1.465497e+000 -6.443857e+000 101 91 57
-2.315140e-001 -1.507994e+000 -6.591182e+000 152 140 96
1.170900e-001 -1.404363e+000 -6.673793e+000 103 97 63
7.586145e-001 -1.318971e+000 -6.939147e+000 91 78 52
8.289070e-001 -1.272717e+000 -6.946014e+000 132 126 74
1.923135e+000 -1.147028e+000 -7.381726e+000 114 118 81
2.375683e+000 -1.125205e+000 -7.634738e+000 101 111 81
2.348253e+000 -1.219581e+000 -7.690606e+000 106 113 85
2.481811e+000 -1.255720e+000 -7.767183e+000 97 107 80
2.701231e+000 -1.020321e+000 -7.717146e+000 98 108 81
2.760629e+000 -1.050525e+000 -7.708456e+000 67 74 56
2.868967e+000 -1.149068e+000 -7.912611e+000 70 78 59
3.393630e+000 -8.991721e-001 -7.974484e+000 69 79 55
3.358492e+000 -1.013985e+000 -8.045918e+000 66 78 54
3.434159e+000 -1.014740e+000 -8.075740e+000 84 96 72
3.274366e+000 -1.069252e+000 -8.061117e+000 81 93 69
3.128562e+000 -1.232101e+000 -7.922209e+000 67 79 55
3.267831e+000 -1.385752e+000 -7.763264e+000 85 97 73
3.534354e+000 -9.592312e-001 -8.152271e+000 68 77 60
3.435104e+000 -1.326527e+000 -7.824546e+000 87 97 76
-1.741110e+000 -1.752930e+000 -6.042113e+000 136 134 96
-2.651212e-001 -1.603859e+000 -6.681693e+000 147 135 95
-2.651212e-001 -1.603859e+000 -6.681693e+000 147 135 95
-4.113557e-002 -1.572240e+000 -6.764876e+000 156 146 97
1.433276e-001 -1.567093e+000 -6.816505e+000 163 147 99
8.413412e-001 -1.469083e+000 -7.120343e+000 102 94 55
1.870884e+000 -1.388803e+000 -7.597891e+000 129 127 88
1.984370e+000 -1.464349e+000 -7.756772e+000 115 117 83
2.373274e+000 -1.332539e+000 -7.805410e+000 75 81 59
2.728702e+000 -1.419456e+000 -8.069090e+000 93 102 75
2.903763e+000 -1.308920e+000 -8.061978e+000 90 100 75
3.133084e+000 -1.286534e+000 -8.152733e+000 66 75 56
-1.817408e-001 -1.946958e+000 -7.031094e+000 91 82 53
3.164784e-001 -1.742631e+000 -7.100625e+000 95 84 54
1.788203e+000 -1.616353e+000 -7.714689e+000 132 127 82
1.887969e+000 -1.535067e+000 -7.744050e+000 74 76 44
2.278284e+000 -1.452158e+000 -7.973606e+000 105 112 71
2.215055e+000 -1.661005e+000 -8.024659e+000 110 113 80
2.220332e+000 -1.646075e+000 -8.036524e+000 110 113 80
2.574954e+000 -1.446191e+000 -8.025320e+000 95 104 75
2.904127e+000 -1.574797e+000 -8.357590e+000 65 75 48
3.165468e+000 -1.418504e+000 -8.294318e+000 86 96 71
-2.545563e+000 -2.372293e+000 -6.079420e+000 85 82 73
-2.448559e+000 -2.367239e+000 -6.124313e+000 83 83 71
-2.162440e+000 -2.340208e+000 -6.221425e+000 107 107 95
-7.950085e-001 -2.156852e+000 -6.936341e+000 133 119 91
-6.374177e-001 -2.074173e+000 -6.920448e+000 93 82 55
5.948085e-001 -2.060741e+000 -7.556656e+000 143 131 87
1.502476e+000 -1.855707e+000 -7.765263e+000 102 94 58
1.734263e+000 -1.779137e+000 -7.888621e+000 131 127 80
1.693687e+000 -1.915666e+000 -8.017807e+000 127 120 74
2.053381e+000 -1.711986e+000 -8.012178e+000 116 119 77
1.958780e+000 -1.757979e+000 -8.036511e+000 88 85 49
1.958780e+000 -1.757979e+000 -8.036511e+000 88 85 49
2.265374e+000 -1.737805e+000 -8.147221e+000 68 74 40
2.013185e+000 -1.905477e+000 -8.175607e+000 126 122 79
2.333501e+000 -2.139353e+000 -7.998385e+000 102 109 75
-4.434920e-001 -2.163508e+000 -7.144522e+000 143 130 96
-5.389232e-001 -2.274814e+000 -7.195640e+000 94 85 57
1.953555e-001 -2.139370e+000 -7.461015e+000 91 79 52
2.396834e-001 -2.207478e+000 -7.529873e+000 140 131 90
5.755846e-001 -2.113367e+000 -7.608006e+000 141 133 85
1.858260e+000 -2.100280e+000 -8.267700e+000 86 84 45
2.179519e+000 -1.995442e+000 -8.347930e+000 75 77 45
2.180668e+000 -1.996228e+000 -8.353092e+000 75 77 45
1.983057e+000 -2.125026e+000 -8.357047e+000 79 78 47
2.089723e+000 -2.062908e+000 -8.368657e+000 104 104 68
2.251093e+000 -2.010217e+000 -8.396577e+000 103 107 65
2.427703e+000 -1.920345e+000 -8.436614e+000 100 106 68
-1.192458e+000 -2.485642e+000 -7.034126e+000 65 55 45
-2.601953e-003 -2.377550e+000 -7.568102e+000 134 125 86
5.928658e-001 -2.269753e+000 -7.775282e+000 118 108 71
1.470987e+000 -2.357985e+000 -8.309245e+000 100 93 49
1.756263e+000 -2.179282e+000 -8.330613e+000 120 115 70
-3.658984e-001 -2.572789e+000 -7.569307e+000 153 139 92
1.013943e-001 -2.635556e+000 -7.899663e+000 132 121 79
4.394034e-001 -2.531989e+000 -7.944607e+000 144 134 85
6.683372e-001 -2.615230e+000 -8.118671e+000 136 125 80
1.732784e+000 -2.447324e+000 -8.562291e+000 81 77 42
1.814925e+000 -2.440387e+000 -8.598753e+000 114 110 72
1.505753e+000 -2.905327e+000 -8.844185e+000 122 113 68
1.505753e+000 -2.905327e+000 -8.844185e+000 122 113 68
-3.986767e-001 -3.190266e+000 -8.227191e+000 134 125 82
2.830452e+000 -2.879268e+000 -9.670141e+000 78 83 61
-2.134347e+000 -3.548444e+000 -7.638219e+000 83 76 44
-1.337473e+000 -3.417257e+000 -7.959114e+000 136 127 96
-1.341856e+000 -3.414717e+000 -7.956778e+000 136 127 96
2.062401e-001 -3.391340e+000 -8.755142e+000 100 91 53
2.075487e-001 -3.388539e+000 -8.759684e+000 100 91 53
-3.216417e-001 -3.615490e+000 -8.734258e+000 92 81 50
9.537146e-001 -3.450759e+000 -9.202171e+000 83 77 43
-3.959425e-001 -3.858550e+000 -8.916645e+000 97 90 59
1.319843e+000 -3.799608e+000 -9.743181e+000 115 112 77
-8.122933e-001 -4.963941e-001 -5.587658e+000 153 137 111
-4.913840e-001 -9.338347e-001 -5.929362e+000 84 77 51
-4.923485e-001 -9.313309e-001 -5.929746e+000 84 77 51
-2.191181e+000 -1.422258e+000 -5.388737e+000 84 86 75
-2.070758e+000 -1.417548e+000 -5.456805e+000 80 86 83
-1.961241e+000 -1.447535e+000 -5.525370e+000 81 85 78
5.520957e-001 -8.460234e-001 -6.460395e+000 130 128 79
6.522492e-001 -8.521756e-001 -6.461786e+000 84 81 51
6.881586e-001 -1.002314e+000 -6.581119e+000 132 126 77
1.282641e+000 -9.571750e-001 -6.878156e+000 128 129 78
1.505661e+000 -7.613925e-001 -6.809744e+000 114 118 81
1.461354e+000 -9.622149e-001 -6.932221e+000 122 124 83
2.873608e+000 -6.582325e-001 -7.460965e+000 77 86 65
2.974989e+000 -7.621107e-001 -7.399067e+000 82 92 67
3.869122e+000 -6.026461e-001 -7.705726e+000 104 114 90
-2.692700e+000 -1.622061e+000 -5.309761e+000 79 80 72
-2.131371e+000 -1.550991e+000 -5.517208e+000 127 131 117
-1.866724e+000 -1.490279e+000 -5.607262e+000 85 88 79
-7.447194e-003 -1.217136e+000 -6.438432e+000 148 138 87
-1.761002e-001 -1.316611e+000 -6.421326e+000 147 135 93
-1.761002e-001 -1.316611e+000 -6.421326e+000 147 135 93
2.681465e-001 -1.161186e+000 -6.563963e+000 145 136 80
9.964041e-001 -1.053286e+000 -6.800438e+000 137 134 80
1.914311e+000 -9.360555e-001 -7.175352e+000 70 76 50
1.874250e+000 -1.085247e+000 -7.318441e+000 87 87 59
2.055398e+000 -9.296396e-001 -7.290509e+000 81 86 63
2.160562e+000 -8.818902e-001 -7.327519e+000 102 109 80
2.235162e+000 -8.367726e-001 -7.299343e+000 79 87 63
2.357332e+000 -8.983901e-001 -7.398825e+000 69 78 57
2.357332e+000 -8.983901e-001 -7.398825e+000 69 78 57
2.598953e+000 -8.249000e-001 -7.441781e+000 96 106 79
2.519407e+000 -8.713638e-001 -7.484663e+000 70 79 58
2.525127e+000 -8.584233e-001 -7.493891e+000 70 79 58
2.496511e+000 -9.599436e-001 -7.521925e+000 76 83 66
2.511552e+000 -9.261115e-001 -7.563323e+000 76 83 66
2.580087e+000 -9.240009e-001 -7.533425e+000 96 108 80
2.956869e+000 -8.803323e-001 -7.663756e+000 75 84 64
3.425257e+000 -7.773499e-001 -7.862295e+000 68 76 61
-2.470679e+000 -1.831799e+000 -5.607760e+000 114 115 107
-2.977838e-001 -1.514079e+000 -6.549068e+000 97 86 56
7.240904e-001 -1.428521e+000 -7.009088e+000 100 91 60
1.843059e+000 -1.176745e+000 -7.394884e+000 78 81 51
1.895538e+000 -1.258311e+000 -7.512949e+000 114 116 81
1.890733e+000 -1.272317e+000 -7.492123e+000 114 116 81
2.147277e+000 -1.145499e+000 -7.493348e+000 77 82 58
1.991701e+000 -1.188029e+000 -7.509572e+000 81 84 55
2.454815e+000 -1.094381e+000 -7.634351e+000 63 72 50
2.425346e+000 -1.172289e+000 -7.553569e+000 63 72 50
2.273211e+000 -1.230140e+000 -7.667660e+000 77 85 54
2.929502e+000 -1.199104e+000 -7.929860e+000 98 109 76
3.681478e+000 -9.806707e-001 -8.233043e+000 68 77 59
-2.963336e+000 -2.009606e+000 -5.570595e+000 78 82 72
-9.280197e-001 -1.637944e+000 -6.360666e+000 59 52 48
-7.924740e-001 -1.769747e+000 -6.582351e+000 150 139 89
-1.600274e-001 -1.664507e+000 -6.769762e+000 157 144 99
-2.830102e-002 -1.689275e+000 -6.856234e+000 144 135 92
7.319950e-001 -1.619553e+000 -7.211682e+000 143 131 78
1.137603e+000 -1.556260e+000 -7.318332e+000 101 88 55
1.644154e+000 -1.369231e+000 -7.431361e+000 85 83 52
2.304744e+000 -1.354100e+000 -7.785403e+000 99 106 72
2.305469e+000 -1.359703e+000 -7.788272e+000 99 106 72
2.766518e+000 -1.295979e+000 -8.019769e+000 93 104 75
2.817988e+000 -1.362402e+000 -8.088911e+000 56 66 41
2.957329e+000 -1.374877e+000 -8.105782e+000 69 79 53
-2.285198e+000 -2.152238e+000 -5.989801e+000 156 146 136
-1.036687e+000 -1.981274e+000 -6.623053e+000 55 48 45
-8.565964e-001 -1.995732e+000 -6.746578e+000 144 135 96
-8.565964e-001 -1.995732e+000 -6.746578e+000 144 135 96
-1.895785e-001 -1.772614e+000 -6.918205e+000 152 139 92
-1.895785e-001 -1.772614e+000 -6.918205e+000 152 139 92
-5.960238e-002 -1.792493e+000 -6.972214e+000 145 130 88
4.671731e-001 -1.696725e+000 -7.154688e+000 90 80 47
3.743257e-001 -1.809613e+000 -7.180091e+000 137 126 82
3.743257e-001 -1.809613e+000 -7.180091e+000 137 126 82
6.901878e-001 -1.749643e+000 -7.308103e+000 161 146 96
7.538839e-001 -1.780607e+000 -7.402773e+000 104 92 54
1.982950e+000 -1.675527e+000 -7.877488e+000 80 83 52
2.464012e+000 -1.563484e+000 -8.090486e+000 75 81 53
2.584034e+000 -1.638589e+000 -8.207695e+000 67 75 52
2.581007e+000 -1.644574e+000 -8.202809e+000 67 75 52
-2.640733e+000 -2.300996e+000 -5.987453e+000 133 135 124
-2.640733e+000 -2.300996e+000 -5.987453e+000 133 135 124
-2.489928e+000 -2.334650e+000 -6.073565e+000 132 131 119
-1.981986e+000 -2.354176e+000 -6.330032e+000 145 132 100
-4.244795e-001 -2.117705e+000 -7.105929e+000 157 144 109
1.807208e+000 -1.773313e+000 -7.952715e+000 86 85 47
2.014598e+000 -1.812029e+000 -8.072849e+000 125 125 77
1.848076e+000 -1.894857e+000 -8.079590e+000 135 128 83
2.222250e+000 -1.872591e+000 -8.234221e+000 80 84 54
2.219653e+000 -1.880216e+000 -8.235001e+000 80 84 54
3.428862e+000 -1.697506e+000 -8.785464e+000 61 65 44
-6.890734e-001 -2.186680e+000 -7.038043e+000 99 87 63
-6.890734e-001 -2.186680e+000 -7.038043e+000 99 87 63
1.512081e-001 -2.259742e+000 -7.520310e+000 98 89 60
3.156401e-001 -2.180415e+000 -7.525567e+000 80 71 42
1.753609e+000 -1.944267e+000 -8.067615e+000 77 73 38
1.750990e+000 -1.950938e+000 -8.060885e+000 77 73 38
1.817264e+000 -1.982937e+000 -8.147359e+000 127 122 76
1.731837e+000 -2.029122e+000 -8.139470e+000 87 82 49
1.889585e+000 -1.989333e+000 -8.226151e+000 79 77 38
1.882062e+000 -2.009073e+000 -8.205427e+000 79 77 38
2.264462e+000 -1.949772e+000 -8.337079e+000 113 115 74
2.028824e+000 -2.024018e+000 -8.334053e+000 72 75 50
2.915577e+000 -1.953313e+000 -8.710403e+000 62 70 46
-1.012975e+000 -2.482129e+000 -7.124376e+000 143 133 104
-7.496795e-001 -2.408376e+000 -7.197959e+000 71 60 41
-2.471185e-001 -2.368471e+000 -7.446771e+000 154 141 99
-3.291527e-001 -2.401069e+000 -7.389463e+000 84 70 43
-1.152162e-001 -2.356134e+000 -7.486241e+000 146 137 95
-3.000867e-001 -2.499837e+000 -7.518045e+000 150 137 94
-1.409831e-001 -2.442863e+000 -7.568807e+000 151 140 94
1.091964e-001 -2.392040e+000 -7.594925e+000 86 78 49
9.089360e-002 -2.452289e+000 -7.675066e+000 95 86 54
4.065641e-001 -2.428574e+000 -7.850703e+000 102 91 59
8.835393e-001 -2.338132e+000 -7.948159e+000 90 77 43
1.528424e+000 -2.201414e+000 -8.226778e+000 88 78 41
1.404611e+000 -2.354536e+000 -8.284388e+000 129 122 68
1.404611e+000 -2.354536e+000 -8.284388e+000 129 122 68
1.906719e+000 -2.141066e+000 -8.341703e+000 118 114 73
1.730850e+000 -2.276051e+000 -8.410057e+000 130 123 81
1.772516e+000 -2.333407e+000 -8.464295e+000 86 81 53
1.969947e+000 -2.187689e+000 -8.437146e+000 80 79 48
1.932212e+000 -2.285569e+000 -8.496951e+000 84 81 48
2.175867e+000 -2.242744e+000 -8.598884e+000 109 109 72
2.168837e+000 -2.260569e+000 -8.576120e+000 109 109 72
2.263993e+000 -2.184759e+000 -8.613396e+000 72 75 47
2.254304e+000 -2.210854e+000 -8.568659e+000 72 75 47
