ply
format ascii 1.0
element face 0
property list uchar int vertex_indices
element vertex 868
property float x
property float y
property float z
property uchar diffuse_red
property uchar diffuse_green
property uchar diffuse_blue
end_header
-1.369097e+000 7.663586e+001 8.197184e+000 101 84 79
-1.052878e+001 1.223486e+002 -3.410987e+000 93 90 97
1.295106e+000 -1.652333e+000 -1.329005e+001 141 129 115
-9.154750e+000 1.059656e+002 4.623773e+000 108 102 112
1.442199e+000 -1.519589e+000 -1.286919e+001 66 63 51
-4.758725e+000 9.981143e+001 4.048965e+000 43 37 49
2.523495e+000 -3.455597e+000 -1.065813e+001 70 60 44
2.419569e+000 -3.571178e+000 -1.080879e+001 100 89 67
2.291996e-001 -1.843723e+000 -1.222077e+001 104 77 50
1.255567e+000 -2.723101e+000 -9.202268e+000 96 88 51
-3.339653e+000 -3.612629e+000 -8.477849e+000 117 101 67
-1.734913e-001 -3.534560e+000 -9.969946e+000 139 129 96
-4.146863e-001 -3.294568e+000 -1.013112e+001 156 138 115
-5.195440e-001 -2.990879e+000 -1.047693e+001 160 134 118
-5.110182e-001 -2.934982e+000 -1.056055e+001 158 136 117
-2.652610e-001 -2.871930e+000 -1.072581e+001 83 72 48
-2.792810e-001 -2.897426e+000 -1.072781e+001 83 72 48
-3.701586e+000 -2.590334e+000 -9.609288e+000 131 123 91
-3.992703e+000 -2.472438e+000 -9.617591e+000 68 74 44
-3.788341e+000 -2.444552e+000 -9.769827e+000 83 82 51
-4.325609e+000 -2.123692e+000 -9.903321e+000 68 79 49
-3.231453e+000 -2.119874e+000 -1.040682e+001 158 129 115
-2.671863e+000 -2.169386e+000 -1.062155e+001 93 73 63
-2.498005e+000 -2.163251e+000 -1.071803e+001 136 116 105
1.265668e+000 -1.433161e+000 -1.308143e+001 103 95 82
-1.931258e+000 -1.762730e+000 -1.146831e+001 69 54 47
-2.474096e+000 -9.754846e-001 -1.218031e+001 108 87 70
-2.471690e+000 -9.784181e-001 -1.217726e+001 108 87 70
-4.415565e+000 -3.952480e-001 -1.200300e+001 126 117 78
-4.419138e+000 -4.027923e-001 -1.200114e+001 126 117 78
-4.101987e+000 -8.339588e-002 -1.248457e+001 83 81 51
2.954882e-002 -3.558985e+000 -9.978631e+000 85 90 62
-3.518596e+000 -3.629728e+000 -8.395812e+000 118 104 63
-3.420245e+000 -3.528750e+000 -8.431324e+000 121 104 63
-3.592001e+000 -3.519205e+000 -8.500097e+000 125 106 70
-2.118783e+000 -3.467992e+000 -9.237929e+000 148 119 74
-3.607310e+000 -3.329008e+000 -8.544246e+000 91 76 45
-3.607310e+000 -3.329008e+000 -8.544246e+000 91 76 45
-3.439650e+000 -3.294595e+000 -8.847780e+000 141 115 70
-2.392469e+000 -3.062202e+000 -9.358096e+000 153 117 71
-3.652718e+000 -2.649175e+000 -9.586226e+000 59 67 41
-1.357304e+000 -2.055489e+000 -1.135688e+001 90 66 51
-3.063267e-001 -9.317633e-001 -1.342289e+001 96 80 57
-4.271908e+000 -4.120761e-001 -1.206334e+001 153 125 77
3.497184e+000 7.200912e+001 9.605565e+000 78 72 74
-3.058685e+000 -3.104451e+000 -7.547850e+000 104 95 56
-3.148247e+000 -3.439890e+000 -7.721312e+000 93 85 54
4.699121e-001 -3.181275e+000 -9.236606e+000 125 110 67
-2.767020e+000 -3.544858e+000 -8.842018e+000 88 68 35
-2.554230e+000 -3.334931e+000 -8.931539e+000 92 67 37
-2.260972e+000 -3.634565e+000 -8.940280e+000 103 79 48
-2.260972e+000 -3.634565e+000 -8.940280e+000 103 79 48
-1.963258e+000 -3.518990e+000 -9.225574e+000 112 89 57
-1.337863e+000 -3.482468e+000 -9.535254e+000 106 85 53
-3.199080e-001 -3.347031e+000 -1.013949e+001 106 90 73
-3.199080e-001 -3.347031e+000 -1.013949e+001 106 90 73
-3.362495e+000 -3.397749e+000 -8.755690e+000 130 106 69
-3.264077e+000 -3.389241e+000 -8.801250e+000 131 105 65
-3.066437e+000 -3.435884e+000 -8.835052e+000 105 78 49
-2.192315e+000 -3.415765e+000 -9.250120e+000 124 97 67
-1.545516e+000 -3.263822e+000 -9.726464e+000 121 100 69
-9.843750e-001 -3.318490e+000 -9.851223e+000 87 70 41
-1.020182e-001 -2.665943e+000 -1.105940e+001 86 86 58
-3.962846e+000 -2.363312e+000 -9.761066e+000 161 128 87
-1.656439e+000 -2.217761e+000 -1.100393e+001 156 133 115
3.604706e-001 -1.938483e+000 -1.218385e+001 110 95 62
-3.117708e+000 -2.103487e+000 -1.052430e+001 122 95 84
1.018898e-001 -1.634816e+000 -1.243966e+001 99 72 51
-2.686709e-001 -8.282787e-001 -1.332547e+001 120 100 69
-5.834180e-002 -8.168519e-001 -1.343669e+001 117 98 69
1.227786e-001 -1.554462e+000 -7.401243e+000 125 109 84
1.719100e+000 7.738010e+001 3.963217e+000 66 62 68
-3.691254e+000 -6.565458e-001 -6.933219e+000 209 197 142
-3.577736e+000 -3.670575e+000 -8.300224e+000 87 79 50
-3.881422e+000 -3.236137e+000 -8.544281e+000 94 80 51
-2.497358e+000 -3.306152e+000 -9.267146e+000 110 81 49
-1.086353e+000 -2.050409e+000 -1.146520e+001 154 115 84
-2.714967e+000 -2.062756e+000 -1.074513e+001 84 65 59
-5.144263e+000 -1.209456e-001 -9.890159e+000 184 117 132
-5.144334e+000 -2.228877e-001 -9.913502e+000 184 117 132
-2.917351e+000 -1.722147e+000 -1.111027e+001 101 78 71
-4.707793e+000 -1.335040e+000 -1.074025e+001 127 108 78
6.629909e-001 -4.424016e-001 -1.421256e+001 75 62 53
-2.887880e+000 1.781855e-002 -1.309403e+001 125 107 70
-2.379071e+000 -1.525615e+000 -6.212332e+000 95 91 82
3.389750e+000 -7.545964e-001 -8.274228e+000 209 209 201
-6.290350e-001 -3.762456e+000 -9.346934e+000 160 140 77
-6.936747e-001 -3.057585e+000 -1.057675e+001 160 134 113
-2.057690e+000 -1.385070e+000 -1.186105e+001 82 61 58
-2.885304e+000 -9.581395e-001 -1.200361e+001 167 132 110
6.244447e-001 9.804735e-001 -1.551663e+001 168 157 142
8.379145e-002 7.043723e+001 1.433541e+001 108 97 88
5.375224e-001 7.068550e+001 1.314663e+001 59 50 53
5.365519e-001 7.074977e+001 1.316684e+001 59 50 53
-2.688546e+000 -1.551611e+000 -1.157500e+001 97 77 70
-1.805327e+000 -1.440358e+000 -1.192853e+001 146 106 78
1.105237e+000 6.918409e+001 1.460668e+001 59 53 53
1.134570e+000 6.937110e+001 1.466952e+001 59 53 53
-2.053831e+000 -2.121808e+000 -1.095057e+001 115 91 81
1.230984e+000 -1.204585e+000 -1.327699e+001 57 54 40
2.018582e-001 9.958809e-001 -1.533309e+001 104 103 83
1.561490e+000 6.750976e+001 1.663774e+001 56 47 48
1.438968e+000 7.040126e+001 1.386206e+001 110 100 91
5.370610e-001 7.143971e+001 1.217979e+001 104 95 87
1.972231e+000 6.892033e+001 1.560343e+001 110 100 88
-1.622064e+000 6.953907e+001 1.558407e+001 66 56 55
-1.622064e+000 6.953907e+001 1.558407e+001 66 56 55
1.667013e-001 6.887672e+001 1.596803e+001 103 89 80
-5.427311e+000 7.099443e+001 1.313327e+001 64 58 62
-3.838949e+000 7.081059e+001 1.467078e+001 107 99 94
-3.838949e+000 7.081059e+001 1.467078e+001 107 99 94
-3.140297e+000 -1.659778e+000 -1.136330e+001 167 125 82
-5.688320e+000 4.630312e-001 -1.220219e+001 115 103 65
-4.332549e+000 -1.926643e+000 -9.894196e+000 142 114 80
-3.625654e+000 -3.309770e+000 -8.421611e+000 109 96 62
-1.977202e+000 -2.614136e+000 -1.033850e+001 169 137 111
-2.387285e+000 -1.878828e+000 -1.128175e+001 70 56 53
-6.701942e-002 1.721641e-002 -1.438118e+001 94 89 69
-9.728594e-003 -3.512677e+000 -1.001150e+001 145 144 120
1.092998e-001 -3.407933e+000 -1.020788e+001 76 81 55
-2.870760e+000 -3.699536e+000 -8.662276e+000 108 84 48
-5.535063e-001 -2.574172e+000 -1.104112e+001 108 104 75
-5.788109e-001 -2.429351e+000 -1.117822e+001 164 151 124
-2.198706e+000 -1.236608e+000 -1.199668e+001 103 82 65
-2.520214e+000 -3.687498e+000 -8.850688e+000 110 87 53
-2.063305e+000 -3.519856e+000 -9.192211e+000 110 88 51
-3.555018e+000 -2.625560e+000 -9.614096e+000 178 149 107
-1.318766e-001 -1.233854e+000 -1.284147e+001 116 86 48
-3.452779e+000 -3.697601e+000 -8.366554e+000 98 84 49
-3.072973e+000 -3.679531e+000 -8.561737e+000 110 91 51
5.537005e+000 6.438692e+001 2.048676e+001 104 94 95
4.034215e+000 6.644324e+001 1.772880e+001 109 97 96
-4.496902e+000 -1.950355e+000 -1.006733e+001 83 93 58
-1.961355e+000 -1.992796e+000 -1.117143e+001 139 107 84
-2.549369e+000 -1.501795e+000 -1.149481e+001 112 93 79
-2.673093e+000 -1.041252e+000 -1.196735e+001 159 132 121
-3.447011e-001 -3.237123e+000 -1.023189e+001 168 150 127
-5.686597e-001 -2.922278e+000 -1.053005e+001 173 150 127
-5.661412e-001 -2.921058e+000 -1.052966e+001 173 150 127
-4.501354e+000 -1.758748e+000 -1.031532e+001 139 118 79
4.492736e+000 6.267894e+001 2.166819e+001 91 86 80
-1.915322e+000 -1.718667e+000 -1.167916e+001 95 76 67
-4.369107e+000 -4.684798e-001 -1.195215e+001 108 110 71
-4.539174e-001 6.670194e+001 1.718942e+001 74 69 70
-9.172991e+000 1.162596e+002 1.752238e+000 98 91 98
-1.186027e+001 1.027695e+002 1.200777e+001 93 86 98
-2.515315e+000 1.152366e+002 -2.069221e+000 68 71 86
-3.608496e+000 -3.610397e+000 -8.359082e+000 114 100 65
-3.608496e+000 -3.610397e+000 -8.359082e+000 114 100 65
-3.207211e+000 -3.531480e+000 -8.640462e+000 130 109 69
-3.210107e+000 -3.267645e+000 -8.948121e+000 141 112 69
-3.994933e+000 -2.480414e+000 -9.616314e+000 68 74 44
-1.472335e+000 -1.872480e+000 -1.153930e+001 126 97 79
-2.784313e+000 -1.704987e+000 -1.114976e+001 92 72 65
-4.769340e+000 -1.198962e+000 -1.086285e+001 92 74 41
-4.453147e-001 -6.566343e-001 -1.339308e+001 122 105 75
-2.260062e+000 -3.570419e+000 -9.010995e+000 139 115 70
-2.114773e+000 -3.460524e+000 -9.233542e+000 148 119 74
-8.986023e-001 -3.453929e+000 -9.742823e+000 90 77 45
-8.662500e-001 -3.398713e+000 -9.823492e+000 115 100 67
-3.664724e+000 -3.346184e+000 -8.669542e+000 95 78 48
-3.664724e+000 -3.346184e+000 -8.669542e+000 95 78 48
-2.763802e+000 -3.295333e+000 -9.120199e+000 112 82 49
-9.086049e+000 1.133657e+002 1.829562e+000 106 99 107
-3.283161e+000 -3.690575e+000 -8.449637e+000 89 73 40
-3.283161e+000 -3.690575e+000 -8.449637e+000 89 73 40
-2.951368e+000 -3.497070e+000 -8.826965e+000 136 110 69
-2.155843e+000 -3.514172e+000 -9.135858e+000 115 91 55
-1.025251e+000 -3.230616e+000 -9.982947e+000 120 100 72
-9.407319e+000 5.921212e+001 -1.066951e+001 78 69 72
4.263966e-004 -5.272980e-001 -1.370113e+001 81 68 51
-6.848152e-001 2.434139e-003 -1.409750e+001 124 110 84
-1.900944e+000 9.462506e-001 -1.447674e+001 239 237 238
1.744480e+000 7.766992e+001 3.998110e+000 66 62 68
-1.057558e+001 1.030105e+002 1.238281e+001 73 70 77
-8.751141e+000 1.192960e+002 -5.331536e+000 105 98 106
-1.045220e+001 9.686033e+001 1.226008e+001 68 63 70
-4.956301e+000 7.016192e+001 1.499246e+001 68 66 66
-1.154567e+001 1.022981e+002 1.357164e+001 129 123 133
-1.086114e+001 9.968106e+001 1.002747e+001 97 93 107
-3.614831e+000 -1.472164e+000 -6.963822e+000 218 216 142
-1.683177e+000 -3.481966e+000 -8.604802e+000 157 141 97
-3.798494e+000 -3.702607e+000 -8.195814e+000 126 118 72
-5.486752e-001 -3.670373e+000 -9.533576e+000 118 113 73
-3.437536e+000 -3.539620e+000 -8.573188e+000 128 110 72
-2.398616e+000 -3.258551e+000 -9.042675e+000 113 85 45
-2.001245e+000 -3.584812e+000 -9.165859e+000 146 123 82
-9.042853e-002 -3.353166e+000 -1.005884e+001 156 145 125
-9.042853e-002 -3.353166e+000 -1.005884e+001 156 145 125
-6.995737e-001 -3.100565e+000 -1.003679e+001 132 114 74
-2.313104e-001 -3.180858e+000 -1.029967e+001 156 142 114
-4.427341e+000 -3.132807e+000 -8.998505e+000 146 119 72
-2.288222e-001 -3.029811e+000 -1.045289e+001 122 123 92
-2.706960e-002 -2.990114e+000 -1.069888e+001 162 156 130
-4.135342e-001 -2.915837e+000 -1.060085e+001 167 146 128
-3.925769e+000 -2.584487e+000 -9.665013e+000 110 92 54
-3.468454e+000 -2.691616e+000 -9.603310e+000 182 144 96
-3.613342e+000 -2.660510e+000 -9.713294e+000 107 92 57
-4.738381e+000 -1.223644e+000 -9.179116e+000 229 135 140
-4.123146e+000 -2.424714e+000 -9.774390e+000 92 93 58
-4.527706e-001 -2.369956e+000 -1.127730e+001 146 124 74
-4.863588e+000 -9.445879e-001 -9.455136e+000 221 125 135
-2.998135e+000 -2.161744e+000 -1.070912e+001 97 72 66
-2.998135e+000 -2.161744e+000 -1.070912e+001 97 72 66
-2.446962e+000 -2.018319e+000 -1.090699e+001 115 95 88
-1.872761e+000 -2.088543e+000 -1.108419e+001 95 72 63
-1.829595e+000 -2.032690e+000 -1.113600e+001 139 111 97
-1.568448e+000 -2.028433e+000 -1.124056e+001 126 107 92
-4.576376e+000 -2.040275e+000 -1.005623e+001 75 83 51
-2.742529e+000 -1.806352e+000 -1.106751e+001 117 97 88
-2.680632e+000 -1.789483e+000 -1.111730e+001 84 62 56
-5.130913e+000 -1.503229e-001 -9.775638e+000 154 88 91
-5.123727e+000 -3.338121e-001 -9.826932e+000 229 211 208
-3.003298e+000 -1.733120e+000 -1.098733e+001 162 133 119
-2.982537e+000 -1.655588e+000 -1.111822e+001 152 124 112
-2.645638e+000 -1.833048e+000 -1.117229e+001 103 79 69
-2.575779e+000 -1.681537e+000 -1.126121e+001 79 59 52
-1.919301e+000 -1.743073e+000 -1.146401e+001 74 57 55
-2.958523e+000 -1.451824e+000 -1.137913e+001 149 117 101
-4.705597e+000 -1.264844e+000 -1.084072e+001 166 139 88
-4.712173e+000 -1.280541e+000 -1.084579e+001 166 139 88
-4.776833e+000 -1.221161e+000 -1.087078e+001 103 87 53
-4.733865e+000 -1.205087e+000 -1.092797e+001 165 139 94
-2.757936e+000 -1.017903e+000 -1.202462e+001 124 98 84
-2.363098e+000 -1.045278e+000 -1.212747e+001 130 108 87
-8.855300e-002 -9.224999e-001 -1.300687e+001 130 105 67
-2.316467e-001 -9.467714e-001 -1.305452e+001 132 108 72
-2.316467e-001 -9.467714e-001 -1.305452e+001 132 108 72
9.470392e-002 -1.106784e+000 -1.300259e+001 105 81 53
1.565017e-001 -1.013801e+000 -1.300314e+001 105 81 53
-4.718942e+000 -1.041946e+000 -1.116543e+001 155 135 87
-4.603611e+000 -6.785345e-001 -1.162003e+001 156 132 89
-4.323889e+000 -6.192807e-001 -1.194285e+001 84 83 49
-4.323827e+000 -5.121516e-001 -1.197898e+001 167 146 97
-4.323827e+000 -5.121516e-001 -1.197898e+001 167 146 97
-5.874104e-001 -3.453356e-001 -1.366506e+001 136 112 77
7.377263e-001 -4.608671e-001 -1.406985e+001 123 114 95
6.934802e-001 -5.339662e-001 -1.406565e+001 123 114 95
-5.789725e+000 1.885283e+000 -1.092790e+001 159 146 121
-4.528967e+000 -3.827882e-001 -1.196362e+001 83 88 51
-4.528967e+000 -3.827882e-001 -1.196362e+001 83 88 51
-4.481019e+000 -6.468217e-001 -1.196268e+001 75 83 54
-4.115910e+000 -2.809499e-001 -1.231529e+001 93 85 48
-4.113277e+000 -2.862499e-001 -1.231918e+001 93 85 48
-4.030454e+000 -4.960243e-001 -1.243506e+001 169 132 78
-2.084958e+000 -1.880636e-001 -1.326465e+001 151 131 81
-2.087737e+000 -1.941414e-001 -1.325850e+001 151 131 81
-4.303399e+000 -1.263411e-001 -1.241885e+001 85 84 49
-4.313706e+000 -1.431269e-001 -1.242354e+001 85 84 49
-4.135469e+000 -1.962388e-001 -1.248987e+001 80 91 64
-3.895243e+000 -2.857763e-002 -1.267535e+001 92 95 59
-3.895243e+000 -2.857763e-002 -1.267535e+001 92 95 59
-3.538082e+000 -3.707938e-002 -1.275605e+001 86 90 66
-3.538082e+000 -3.707938e-002 -1.275605e+001 86 90 66
-2.344811e+000 -6.724656e-002 -1.327707e+001 119 100 54
-9.015871e-001 3.685974e-001 -1.427481e+001 126 113 81
-9.552236e-001 -1.714015e+000 -6.999391e+000 192 175 148
-3.770975e+000 -1.174025e+000 -7.123658e+000 139 127 90
-2.885878e+000 -3.737195e+000 -8.676935e+000 108 84 48
-2.868659e+000 -3.615035e+000 -8.724294e+000 146 123 81
-3.851343e+000 -1.045314e+000 -7.280684e+000 146 130 111
-3.938451e+000 -3.440726e+000 -8.459933e+000 127 113 70
-3.938451e+000 -3.440726e+000 -8.459933e+000 127 113 70
-3.851425e+000 -3.460029e+000 -8.440596e+000 102 88 53
-3.330391e+000 -3.505679e+000 -8.621994e+000 144 120 78
-3.344800e+000 -3.538757e+000 -8.637021e+000 144 120 78
-3.100283e+000 -3.524374e+000 -8.768739e+000 151 127 81
-3.100283e+000 -3.524374e+000 -8.768739e+000 151 127 81
-2.972757e+000 -3.389509e+000 -8.953173e+000 158 127 80
-2.972757e+000 -3.389509e+000 -8.953173e+000 158 127 80
-2.651409e+000 -3.379101e+000 -9.108247e+000 154 126 79
-2.650953e+000 -3.370760e+000 -9.103766e+000 154 126 79
-2.485844e+000 -3.582412e+000 -8.932028e+000 150 123 78
-2.377389e+000 -3.473989e+000 -9.100251e+000 158 127 83
-2.448551e+000 -3.504577e+000 -9.187798e+000 123 95 57
-2.113728e+000 -3.473828e+000 -9.247887e+000 149 126 79
-2.120031e+000 -3.480109e+000 -9.249537e+000 149 126 79
-1.905879e+000 -3.572868e+000 -9.189947e+000 150 126 82
-1.902342e+000 -3.564885e+000 -9.189432e+000 150 126 82
-1.703074e+000 -3.443181e+000 -9.424111e+000 150 123 76
-1.315348e+000 -3.429383e+000 -9.611763e+000 139 117 76
-1.315348e+000 -3.429383e+000 -9.611763e+000 139 117 76
-6.820395e-001 -3.584181e+000 -9.609108e+000 116 108 69
-8.350397e-001 -3.495103e+000 -9.691495e+000 124 110 71
-6.967739e-001 -3.502290e+000 -9.764775e+000 117 109 71
1.613163e-001 -3.498716e+000 -1.000884e+001 121 128 100
3.547133e-001 -3.511027e+000 -1.005407e+001 122 129 98
-3.217697e+000 -3.275256e+000 -8.961892e+000 159 129 77
-2.462115e+000 -3.338395e+000 -9.185526e+000 159 131 83
-2.420537e+000 -3.390285e+000 -9.241070e+000 155 127 80
-2.420537e+000 -3.390285e+000 -9.241070e+000 155 127 80
-2.405311e+000 -3.331168e+000 -9.311639e+000 112 82 44
-2.665773e+000 -3.396057e+000 -9.295929e+000 167 133 79
-1.794904e+000 -3.326372e+000 -9.518194e+000 147 116 71
-1.374280e+000 -3.311176e+000 -9.730086e+000 144 117 74
-1.372893e+000 -3.309903e+000 -9.730120e+000 144 117 74
-8.471700e-001 -3.379316e+000 -9.817566e+000 131 113 77
-8.659570e-001 -3.397505e+000 -9.821685e+000 131 113 77
-7.366294e-001 -3.389459e+000 -9.887277e+000 123 111 71
-7.366294e-001 -3.389459e+000 -9.887277e+000 123 111 71
-9.207305e-001 -3.280315e+000 -9.941853e+000 138 118 81
-1.201614e-001 -3.269925e+000 -1.027017e+001 158 146 119
-4.584895e+000 -1.298292e+000 -8.810474e+000 236 222 214
-3.559825e+000 -2.708151e+000 -9.743861e+000 184 145 106
-6.348283e-001 -2.527193e+000 -1.104344e+001 167 153 131
-4.294002e-001 -2.505919e+000 -1.114006e+001 138 133 104
-4.677956e+000 -6.421456e-001 -8.936904e+000 198 108 116
-4.677956e+000 -6.421456e-001 -8.936904e+000 198 108 116
-4.162738e+000 -2.295818e+000 -9.821812e+000 75 84 57
-8.276683e-001 -2.376425e+000 -1.117423e+001 107 90 73
-7.141916e-001 -2.317242e+000 -1.122541e+001 173 147 126
-4.823297e+000 -6.691341e-001 -9.285624e+000 241 219 216
-4.276682e+000 -2.203505e+000 -9.894861e+000 81 83 60
-2.151407e+000 -1.822820e+000 -1.124238e+001 75 58 51
-4.653601e+000 -1.629310e+000 -1.054359e+001 168 137 91
-2.902390e+000 -1.640218e+000 -1.128442e+001 116 88 73
1.373916e+000 -1.954658e+000 -1.331800e+001 83 70 56
-5.143791e+000 -6.534721e-002 -9.976700e+000 182 107 102
-4.704790e+000 -1.508869e+000 -1.054423e+001 116 93 55
-2.894505e+000 -1.327468e+000 -1.148417e+001 137 113 101
-2.662151e+000 -1.469858e+000 -1.151641e+001 92 72 63
-2.540679e+000 -1.251964e+000 -1.181421e+001 126 103 85
7.021973e-002 -1.353236e+000 -1.261145e+001 112 79 46
-2.199133e+000 -1.133252e+000 -1.205819e+001 166 142 115
3.287230e-002 -8.744922e-001 -1.331284e+001 123 99 70
3.155115e-001 -6.532651e-001 -1.359717e+001 92 82 59
-4.454136e+000 -3.224790e-001 -1.209047e+001 73 84 45
-4.012836e+000 -2.127051e-001 -1.241861e+001 91 91 60
-4.305669e+000 -1.288451e-001 -1.233726e+001 158 127 73
-3.995875e+000 -1.681175e-001 -1.249476e+001 153 127 75
-3.995875e+000 -1.681175e-001 -1.249476e+001 153 127 75
-3.972211e+000 -3.445946e-001 -1.251894e+001 90 84 54
-3.735585e+000 -1.463450e-001 -1.265600e+001 89 84 63
-3.735585e+000 -1.463450e-001 -1.265600e+001 89 84 63
-3.801805e+000 -2.097886e-002 -1.272060e+001 78 91 67
-3.803222e+000 -2.056597e-002 -1.272070e+001 78 91 67
-9.118793e-001 8.005081e-001 -1.442864e+001 132 122 83
6.707032e-001 1.467502e+000 -1.534514e+001 174 161 145
-1.531736e+000 -2.394806e+000 -7.380282e+000 189 174 143
-1.911009e+000 -3.634093e+000 -8.542144e+000 175 162 119
-3.756277e+000 -1.447527e+000 -7.201355e+000 223 217 149
-3.876824e+000 -3.596291e+000 -8.290754e+000 93 83 48
-3.734333e+000 -3.667380e+000 -8.298915e+000 126 114 69
-3.752099e+000 -3.611092e+000 -8.361069e+000 93 82 53
-3.752099e+000 -3.611092e+000 -8.361069e+000 93 82 53
-3.442208e+000 -3.625205e+000 -8.429965e+000 127 112 71
-3.452103e+000 -3.652699e+000 -8.442257e+000 127 112 71
-3.394727e+000 -3.719823e+000 -8.413454e+000 98 84 49
-3.268708e+000 -3.577395e+000 -8.606118e+000 114 94 55
-2.943977e+000 -3.660086e+000 -8.706027e+000 145 122 78
-2.643941e+000 -3.666788e+000 -8.772560e+000 105 83 48
-1.724078e+000 -3.761820e+000 -9.184888e+000 145 125 77
-8.504229e-001 -3.673375e+000 -9.473419e+000 96 87 52
-3.801105e+000 -7.616841e-001 -7.098030e+000 226 210 150
-3.944919e+000 -3.749906e+000 -8.451641e+000 127 114 70
-3.731409e+000 -3.585833e+000 -8.463398e+000 132 117 75
-3.313675e+000 -3.480753e+000 -8.724463e+000 113 91 53
-3.013565e+000 -3.475122e+000 -8.688868e+000 111 89 50
-2.870941e+000 -3.424667e+000 -8.717393e+000 109 87 50
-2.870941e+000 -3.424667e+000 -8.717393e+000 109 87 50
-3.007431e+000 -3.490872e+000 -8.788418e+000 146 122 78
-2.910947e+000 -3.471390e+000 -8.932529e+000 109 86 45
-2.910947e+000 -3.471390e+000 -8.932529e+000 109 86 45
-2.841348e+000 -3.514924e+000 -8.886031e+000 154 125 81
-2.722690e+000 -3.499637e+000 -8.943560e+000 155 122 80
-2.436953e+000 -3.534524e+000 -9.000346e+000 117 90 55
-2.315630e+000 -3.537062e+000 -9.068487e+000 108 82 47
-2.309778e+000 -3.523714e+000 -9.063597e+000 108 82 47
-2.175630e+000 -3.577018e+000 -9.052601e+000 144 120 72
-2.086167e+000 -3.586095e+000 -9.114538e+000 149 123 74
-2.043056e+000 -3.489057e+000 -9.178301e+000 110 88 51
-2.277820e+000 -3.510636e+000 -9.172005e+000 151 124 79
-2.277820e+000 -3.510636e+000 -9.172005e+000 151 124 79
-2.003741e+000 -3.449175e+000 -9.282230e+000 158 128 76
-2.001574e+000 -3.445624e+000 -9.280715e+000 158 128 76
-2.084515e+000 -3.416910e+000 -9.332378e+000 121 93 54
-2.084515e+000 -3.416910e+000 -9.332378e+000 121 93 54
-1.698928e+000 -3.639784e+000 -9.245168e+000 113 92 62
-1.731308e+000 -3.537146e+000 -9.265359e+000 144 122 74
-1.834858e+000 -3.503292e+000 -9.305719e+000 114 90 54
-1.836900e+000 -3.510389e+000 -9.308229e+000 114 90 54
-1.489811e+000 -3.541939e+000 -9.383019e+000 143 118 77
-1.474078e+000 -3.519729e+000 -9.376010e+000 143 118 77
-1.276363e+000 -3.587285e+000 -9.421573e+000 102 81 48
-1.359201e+000 -3.518172e+000 -9.442228e+000 139 119 76
-1.604245e+000 -3.490821e+000 -9.407475e+000 117 94 55
-1.604245e+000 -3.490821e+000 -9.407475e+000 117 94 55
-1.480306e+000 -3.474417e+000 -9.456736e+000 114 94 59
-1.425642e+000 -3.430596e+000 -9.551112e+000 140 119 76
-1.051557e+000 -3.570793e+000 -9.536803e+000 101 88 54
-1.161834e+000 -3.404858e+000 -9.678971e+000 132 111 74
-1.161834e+000 -3.404858e+000 -9.678971e+000 132 111 74
-1.095124e+000 -3.468521e+000 -9.641943e+000 103 87 54
-7.711134e-001 -3.535332e+000 -9.542175e+000 119 106 71
-7.774798e-001 -3.566418e+000 -9.663771e+000 83 76 44
-7.732285e-001 -3.562060e+000 -9.663319e+000 83 76 44
-5.432237e-001 -3.532476e+000 -9.650426e+000 117 110 71
-8.875988e-001 -3.440924e+000 -9.741391e+000 102 88 53
-8.968313e-001 -3.452106e+000 -9.743994e+000 102 88 53
-5.737735e-001 -3.527113e+000 -9.742139e+000 99 93 57
1.810606e-001 -3.590213e+000 -9.932775e+000 88 101 69
2.075173e-001 -3.521664e+000 -1.008916e+001 73 95 74
2.184668e-001 -3.418240e+000 -1.015319e+001 167 158 138
6.605415e+000 6.358324e+001 2.004595e+001 74 66 64
-3.361915e+000 -3.363499e+000 -8.853979e+000 110 89 49
-3.216228e+000 -3.340215e+000 -8.905688e+000 108 84 48
-3.035519e+000 -3.346163e+000 -8.999137e+000 107 81 46
-2.283981e+000 -3.384933e+000 -9.307902e+000 161 130 82
-2.283981e+000 -3.384933e+000 -9.307902e+000 161 130 82
-1.779657e+000 -3.405232e+000 -9.471037e+000 102 78 44
-1.779657e+000 -3.405232e+000 -9.471037e+000 102 78 44
-1.521165e+000 -3.372447e+000 -9.580305e+000 115 90 54
-1.521165e+000 -3.372447e+000 -9.580305e+000 115 90 54
-1.585735e+000 -3.325704e+000 -9.637369e+000 143 114 70
-1.577225e+000 -3.309443e+000 -9.631429e+000 143 114 70
-1.409959e+000 -3.363608e+000 -9.649751e+000 101 81 46
-1.409959e+000 -3.363608e+000 -9.649751e+000 101 81 46
-1.482195e+000 -3.313691e+000 -9.678122e+000 144 120 75
-1.487154e+000 -3.319982e+000 -9.679845e+000 144 120 75
-1.334077e+000 -3.216953e+000 -9.801180e+000 100 76 50
-1.259291e+000 -3.306554e+000 -9.787556e+000 141 117 79
-1.252824e+000 -3.241356e+000 -9.859778e+000 100 83 50
-1.074535e+000 -3.295302e+000 -9.867403e+000 140 123 79
-1.688651e-001 -3.454565e+000 -1.023296e+001 152 141 119
-5.056504e-001 -2.624975e+000 -1.098016e+001 172 157 135
-5.059586e-001 -2.624740e+000 -1.097957e+001 172 157 135
-3.978480e+000 -2.386041e+000 -9.755389e+000 172 143 99
-4.807392e+000 -6.447259e-001 -9.159376e+000 203 92 106
-4.275638e+000 -2.137534e+000 -9.973591e+000 185 147 99
-4.275638e+000 -2.137534e+000 -9.973591e+000 185 147 99
-4.187954e+000 -2.287148e+000 -9.912394e+000 179 143 99
-4.180792e+000 -2.171125e+000 -9.973166e+000 86 88 65
-2.839482e+000 -2.246295e+000 -1.058635e+001 101 79 68
-1.870838e+000 -2.215436e+000 -1.094527e+001 158 136 113
4.208361e-001 -2.055979e+000 -1.207240e+001 113 99 65
-4.826497e+000 1.459805e+000 -8.853048e+000 143 129 121
-4.858149e+000 -4.335298e-001 -9.287720e+000 204 104 110
-3.002058e+000 -1.911141e+000 -1.079735e+001 100 76 66
-1.269345e+000 -1.885387e+000 -1.159255e+001 163 117 81
4.014276e-001 -1.704665e+000 -1.242939e+001 89 72 46
-4.979674e+000 -4.268686e-001 -9.670104e+000 216 122 137
-2.738868e+000 -1.647291e+000 -1.121927e+001 130 108 95
-2.743717e+000 -1.658011e+000 -1.122367e+001 130 108 95
3.774683e+000 7.096041e+001 9.175017e+000 42 37 41
1.363978e-001 -7.901615e-001 -1.311745e+001 101 79 51
3.015331e-001 -8.949694e-001 -1.318227e+001 80 65 43
2.047835e-001 -8.089285e-001 -1.333154e+001 71 57 38
-1.117379e-001 -5.021235e-001 -1.365028e+001 124 105 75
-2.184519e-001 -4.028152e-001 -1.378289e+001 117 101 68
1.354954e-001 -5.119353e-001 -1.369533e+001 111 94 69
8.714451e-002 -5.818255e-001 -1.369561e+001 111 94 69
1.985929e-001 -6.584375e-002 -1.399169e+001 89 77 51
-4.233640e+000 -3.564819e-001 -1.218709e+001 83 88 58
-4.470248e+000 -2.510793e-001 -1.218582e+001 153 124 79
-4.352051e+000 -2.467233e-001 -1.225301e+001 77 91 64
-4.353150e+000 -2.559484e-001 -1.225807e+001 77 91 64
-3.940282e-001 -2.780759e-001 -1.385743e+001 104 87 60
-2.602516e-001 -1.858268e-001 -1.406649e+001 98 84 57
-3.628499e+000 3.149357e-002 -1.284498e+001 89 95 61
-5.831891e-001 2.377332e-001 -1.428306e+001 92 80 58
-1.098352e+000 1.198014e+000 -1.487474e+001 229 223 213
3.830041e-004 1.023381e+000 -1.537090e+001 237 236 229
8.883001e+000 5.960718e+001 2.427768e+001 83 73 71
-1.305414e+000 -3.862250e+000 -9.031935e+000 176 158 113
6.879741e+000 6.487262e+001 2.440138e+001 63 57 61
-3.711716e+000 -3.686664e+000 -8.210488e+000 95 85 50
-3.190386e+000 -3.694889e+000 -8.484809e+000 107 89 53
-3.694491e+000 -3.493231e+000 -8.539942e+000 110 94 61
-3.694491e+000 -3.493231e+000 -8.539942e+000 110 94 61
-3.442978e+000 -3.321050e+000 -8.755073e+000 110 91 58
-3.178271e+000 -3.456634e+000 -8.767674e+000 115 97 55
-2.599084e+000 -3.534123e+000 -8.927743e+000 116 92 56
-1.680771e+000 -3.252352e+000 -9.654317e+000 115 85 52
-2.527415e-001 -3.390760e+000 -1.006378e+001 161 145 119
-6.190059e-001 -2.852393e+000 -1.062262e+001 170 148 127
7.973752e-001 -2.853398e+000 -1.117127e+001 80 79 51
-3.977923e+000 -2.511875e+000 -9.679143e+000 75 88 59
-4.000656e+000 -2.205125e+000 -9.620644e+000 181 139 96
-4.532752e-001 -2.424956e+000 -1.120291e+001 94 99 68
-4.532752e-001 -2.424956e+000 -1.120291e+001 94 99 68
-2.369617e+000 -2.203181e+000 -1.071168e+001 165 143 122
-1.566414e+000 -1.778573e+000 -1.160085e+001 104 75 67
-7.430546e+000 7.030734e+001 1.569271e+001 132 124 121
-7.927189e+000 7.149449e+001 1.576728e+001 93 87 88
-6.874271e+000 6.990322e+001 1.542989e+001 100 92 89
-4.613487e+000 -1.622786e+000 -1.044907e+001 146 121 80
-1.940791e+000 -1.652920e+000 -1.161727e+001 74 61 50
-1.105409e-001 7.129424e+001 1.149290e+001 86 76 74
-4.672089e+000 -1.437883e+000 -1.063631e+001 176 138 93
-4.694334e+000 -1.138245e+000 -1.100113e+001 155 133 95
-2.948109e+000 -1.199304e+000 -1.180447e+001 174 140 112
-2.639556e+000 -1.195790e+000 -1.187564e+001 107 83 73
-2.718573e-001 -8.326005e-001 -1.332633e+001 126 102 66
-5.235074e-001 -2.622299e-001 -1.381960e+001 130 108 71
-3.030566e+000 5.398260e-002 -1.303646e+001 117 102 59
-8.514134e-001 3.227944e-001 -1.419640e+001 101 87 58
7.362114e-001 -4.947252e+000 -1.608948e+001 245 238 232
1.859049e+001 7.288476e+001 3.334688e+001 123 106 96
1.670653e+001 6.706385e+001 2.888673e+001 129 116 103
1.553846e+001 6.478315e+001 2.666472e+001 66 56 50
6.921091e+000 6.077512e+001 2.414280e+001 60 53 52
9.053311e+000 6.627772e+001 2.484337e+001 72 62 60
-3.601555e+000 -3.320512e+000 -8.714850e+000 111 92 62
-2.272893e+000 6.597720e+001 2.117591e+001 100 96 95
-3.960507e-001 -2.708779e+000 -1.090714e+001 102 104 73
-4.225525e+000 6.859541e+001 1.839409e+001 75 71 72
-2.134085e-001 7.066404e+001 1.553000e+001 85 77 72
-8.455873e+000 7.031341e+001 1.776429e+001 97 93 101
-2.944476e+000 -1.815790e+000 -1.096846e+001 120 93 86
-8.011041e+000 6.922450e+001 1.613286e+001 114 105 106
-7.276931e+000 7.005794e+001 1.499512e+001 138 130 127
-2.110414e+000 -1.645419e+000 -1.154481e+001 136 98 69
-5.124924e+000 -9.300784e-002 -9.868372e+000 175 97 90
-4.709685e+000 -1.344479e+000 -1.074840e+001 128 111 71
-2.694090e+000 -1.434523e+000 -1.155968e+001 99 80 67
-4.716053e+000 -9.922259e-001 -1.121014e+001 129 109 66
-3.956334e-001 -7.396829e-001 -1.330057e+001 104 84 51
-8.807729e-001 1.102447e+000 -1.502627e+001 232 227 222
7.632359e+000 6.488602e+001 2.492374e+001 102 96 96
2.578382e+000 -3.489625e+000 -1.089694e+001 84 76 63
5.237388e+000 6.545803e+001 2.150006e+001 62 56 56
1.582038e+000 6.740220e+001 1.824748e+001 91 76 70
-4.636601e+000 -1.158362e+000 -8.906507e+000 219 123 128
-8.397634e-001 -2.106461e+000 -1.150747e+001 153 108 67
-6.209220e+000 7.177123e+001 1.571146e+001 122 111 109
1.428963e+000 -1.552522e+000 -1.324259e+001 160 145 126
-2.535921e+000 -1.063504e+000 -1.208843e+001 109 84 76
-4.002555e+000 -2.109051e-001 -1.248144e+001 154 134 83
-6.108498e+000 5.017497e-001 -1.239051e+001 114 109 67
-6.108498e+000 5.017497e-001 -1.239051e+001 114 109 67
1.656251e+001 6.901143e+001 3.027357e+001 52 46 46
-3.794870e+000 -3.212047e+000 -8.714872e+000 152 130 87
-1.120284e+000 6.797850e+001 2.279427e+001 77 71 73
-1.160291e+000 6.556302e+001 2.037464e+001 111 103 101
-4.656542e+000 6.757185e+001 2.009785e+001 76 75 83
3.666938e+000 6.928434e+001 1.758185e+001 107 92 86
-2.622917e-001 -2.559839e+000 -1.109942e+001 129 128 97
-9.007693e-001 -1.841670e+000 -1.175277e+001 143 99 59
-9.013617e-001 -1.854192e+000 -1.175983e+001 143 99 59
-8.694823e+000 7.133810e+001 1.648403e+001 75 73 86
-5.492562e+000 2.568659e+000 -1.034947e+001 173 127 115
-2.737682e+000 -3.420390e+000 -7.839424e+000 161 148 113
-3.533033e+000 6.857320e+001 2.144057e+001 125 119 116
-4.763711e+000 -7.521323e-001 -9.159353e+000 243 196 195
-2.161869e+000 -1.161598e+000 -1.213752e+001 159 133 106
-1.998098e+000 -2.994121e+000 -7.900618e+000 159 144 111
-4.094247e+000 -2.663948e+000 -8.894603e+000 152 128 80
-3.645427e+000 6.703394e+001 1.906683e+001 133 129 120
-4.780324e+000 6.916606e+001 1.708901e+001 68 65 72
-4.780324e+000 6.916606e+001 1.708901e+001 68 65 72
-1.106651e+000 -2.143465e-001 -1.334971e+001 163 127 75
6.428674e-001 -2.258856e+000 -1.411513e+001 194 179 158
-2.256529e+000 -1.719753e+000 -1.131840e+001 83 65 61
-6.934665e-001 -1.756852e+000 -1.227007e+001 160 123 69
2.081336e+000 -2.760256e+000 -1.297909e+001 194 182 160
3.362378e-001 1.109736e+000 -1.453659e+001 82 77 55
1.804483e+000 -2.500065e+000 -1.091326e+001 79 88 62
-4.239962e+000 -4.941911e-001 -1.198625e+001 98 79 46
2.260892e+000 7.217429e+001 1.004860e+000 89 80 76
2.343964e+000 6.819016e+001 1.520854e+001 80 73 67
1.237332e+000 7.056417e+001 1.268784e+001 100 90 89
-4.370340e+000 -1.978930e+000 -1.005505e+001 157 122 83
-4.370340e+000 -1.978930e+000 -1.005505e+001 157 122 83
-1.505101e+000 -2.111043e+000 -1.119212e+001 98 73 66
-6.178600e+000 6.854752e-001 -1.219708e+001 208 222 200
-1.247161e+000 7.082859e+001 9.981240e+000 70 60 58
-8.595989e-001 6.287950e+001 2.267908e+001 89 81 78
4.400094e+000 6.505451e+001 1.866469e+001 89 78 74
2.145520e+000 7.412859e-001 -1.127891e+001 105 95 60
-3.411448e+000 -1.718204e+000 -6.491415e+000 173 170 111
-2.333019e+000 -3.599009e+000 -8.904683e+000 148 121 74
-1.386443e+000 -3.543318e+000 -9.380498e+000 101 81 49
-1.392861e+000 -3.550433e+000 -9.383458e+000 101 81 49
-1.623894e-001 -3.446912e+000 -1.000184e+001 108 104 71
-3.465477e+000 -3.413654e+000 -8.756690e+000 111 91 53
-2.624254e+000 -3.350544e+000 -9.166404e+000 114 85 37
-2.624254e+000 -3.350544e+000 -9.166404e+000 114 85 37
-1.708897e+000 -3.344459e+000 -9.599820e+000 156 125 81
2.128260e-003 -3.358338e+000 -1.013135e+001 95 100 74
2.128260e-003 -3.358338e+000 -1.013135e+001 95 100 74
4.177652e-002 -3.276852e+000 -1.018850e+001 92 98 72
7.467834e-002 -3.336925e+000 -1.020613e+001 166 161 134
-2.924425e+000 -3.338505e+000 -9.061259e+000 160 128 80
-2.203907e+000 -3.339477e+000 -9.376876e+000 113 79 42
-5.395602e-001 -3.034802e+000 -1.048494e+001 174 149 128
-5.395602e-001 -3.034802e+000 -1.048494e+001 174 149 128
-4.206440e-001 -2.925265e+000 -1.060333e+001 173 152 135
-2.323998e-001 -2.931728e+000 -1.072849e+001 180 162 140
-5.136394e-001 -2.812010e+000 -1.076150e+001 175 151 126
-3.700504e+000 -2.460461e+000 -9.538668e+000 70 88 50
-3.696123e+000 -2.580681e+000 -9.603770e+000 158 144 101
-5.876143e-001 -2.485843e+000 -1.115059e+001 168 152 128
-5.876143e-001 -2.485843e+000 -1.115059e+001 168 152 128
-9.279481e-001 -2.382845e+000 -1.115576e+001 182 157 133
-8.819427e-001 -2.316661e+000 -1.113482e+001 182 157 133
4.009033e-001 -2.180781e+000 -1.187603e+001 113 98 67
-2.912311e+000 -2.138207e+000 -1.055238e+001 105 76 73
-1.177723e+000 -2.085154e+000 -1.131001e+001 163 127 99
-4.140408e+000 -2.186522e+000 -9.981099e+000 89 90 61
-4.140408e+000 -2.186522e+000 -9.981099e+000 89 90 61
-3.008476e+000 -2.106316e+000 -1.054750e+001 171 138 133
-2.582652e+000 -2.097087e+000 -1.073271e+001 139 115 103
-2.582652e+000 -2.097087e+000 -1.073271e+001 139 115 103
-2.661458e+000 -1.966298e+000 -1.079045e+001 88 65 59
-1.647529e+000 -1.932915e+000 -1.136225e+001 104 85 78
-2.737820e+000 -1.799025e+000 -1.106523e+001 121 99 91
-2.152379e+000 -1.876995e+000 -1.133105e+001 102 82 76
-1.790978e+000 -1.817957e+000 -1.141541e+001 72 53 49
-1.790978e+000 -1.817957e+000 -1.141541e+001 72 53 49
5.472452e-001 -1.484038e+000 -1.270464e+001 78 75 46
-4.886307e+000 -4.994548e-001 -9.396764e+000 232 226 231
-4.550112e+000 -1.657068e+000 -1.034452e+001 175 143 92
-2.538583e+000 -1.546772e+000 -1.139601e+001 78 58 51
-2.406238e+000 -1.385039e+000 -1.164099e+001 80 56 52
-2.454752e+000 -1.351035e+000 -1.166025e+001 108 83 82
-3.002153e-001 -1.041628e+000 -1.298154e+001 82 58 31
-4.751338e+000 1.699480e+000 -8.903450e+000 206 201 174
-4.697950e+000 -1.228788e+000 -1.094042e+001 176 146 96
-2.363068e+000 -1.089333e+000 -1.207331e+001 165 137 125
-3.438356e-001 -9.851608e-001 -1.299388e+001 142 110 62
-3.790790e-001 -9.212017e-001 -1.307159e+001 148 116 71
-4.706951e-002 -9.203895e-001 -1.316166e+001 136 107 73
-4.672494e+000 -9.001291e-001 -1.130831e+001 165 136 87
-4.672494e+000 -9.001291e-001 -1.130831e+001 165 136 87
-4.852522e-001 -4.543641e-001 -1.354057e+001 144 116 78
-6.659545e-001 -3.002275e-001 -1.376198e+001 139 117 80
-4.367287e+000 -2.183886e-001 -1.219056e+001 79 89 53
-4.280432e+000 -3.255192e-001 -1.217388e+001 162 119 74
-4.185125e+000 -9.384935e-002 -1.235771e+001 78 84 56
-4.185125e+000 -9.384935e-002 -1.235771e+001 78 84 56
-3.927429e+000 -2.399603e-002 -1.261447e+001 173 133 79
-3.697004e+000 9.828224e-002 -1.284811e+001 166 131 71
-9.718292e-001 4.288044e-001 -1.434694e+001 130 117 86
-3.736891e+000 1.397472e-001 -1.287430e+001 86 93 66
-3.736891e+000 1.397472e-001 -1.287430e+001 86 93 66
-3.607546e+000 -3.630911e+000 -8.367607e+000 129 111 72
-2.760745e+000 -3.746673e+000 -8.670790e+000 146 119 65
-3.040089e+000 -3.625588e+000 -8.658113e+000 155 128 85
-2.517801e+000 -3.624391e+000 -8.954973e+000 154 124 80
-1.102670e+000 -3.661247e+000 -9.457417e+000 131 115 79
-8.696346e-001 -3.608349e+000 -9.531776e+000 128 119 78
-8.696346e-001 -3.608349e+000 -9.531776e+000 128 119 78
-7.028925e-001 -3.516738e+000 -9.773227e+000 125 116 79
-3.263002e+000 -3.559894e+000 -8.713716e+000 146 122 78
-3.132694e+000 -3.541648e+000 -8.689502e+000 156 129 82
-2.688745e+000 -3.516286e+000 -8.964284e+000 158 129 84
-2.902413e+000 -3.396856e+000 -9.041459e+000 160 125 84
-2.900208e+000 -3.392699e+000 -9.038969e+000 160 125 84
-2.417002e+000 -3.434127e+000 -9.165987e+000 116 88 50
-2.140335e+000 -3.367194e+000 -9.370582e+000 167 134 82
-3.069296e-001 -3.275388e+000 -9.957759e+000 123 111 72
-3.729939e+000 -1.141550e+000 -7.014737e+000 220 202 133
-3.922469e-002 -3.188882e+000 -1.044432e+001 95 103 71
1.213274e+000 -2.724189e+000 -1.142883e+001 77 79 55
-5.644212e-001 -2.789553e+000 -1.081224e+001 149 120 75
-3.939972e-001 -2.828234e+000 -1.134334e+001 90 95 63
-4.066016e+000 -2.237680e+000 -9.904939e+000 80 84 63
-2.886825e+000 -2.183870e+000 -1.051261e+001 159 130 123
-2.485488e+000 -2.236476e+000 -1.067985e+001 135 104 92
-1.591310e+000 -2.062400e+000 -1.117978e+001 97 70 61
-4.673902e+000 -6.726980e-001 -8.931486e+000 198 106 124
-2.155776e+000 -2.032667e+000 -1.093473e+001 119 95 86
-1.983230e+000 -1.941636e+000 -1.119155e+001 146 112 91
-1.361124e+000 -1.899873e+000 -1.154087e+001 113 78 58
-4.775988e+000 -7.964549e-001 -9.203003e+000 223 229 222
1.428887e+000 -1.711072e+000 -1.326925e+001 158 145 129
1.332363e+000 -2.278647e+000 -1.355774e+001 183 172 154
-1.907390e+000 -1.607208e+000 -1.170390e+001 83 60 52
-4.616922e+000 -1.520738e+000 -1.051619e+001 184 143 92
-2.348949e+000 -1.083386e+000 -1.200002e+001 97 74 64
1.794977e-001 -9.605442e-001 -1.329790e+001 85 70 50
-2.647486e+000 -9.424490e-001 -1.207469e+001 164 134 124
-2.627897e+000 -8.852590e-001 -1.225347e+001 152 121 102
-3.109774e-001 -4.602618e-001 -1.369723e+001 100 77 53
-3.109774e-001 -4.602618e-001 -1.369723e+001 100 77 53
-2.037583e-001 -4.237146e-001 -1.372340e+001 127 106 75
-4.464436e+000 -3.489829e-001 -1.209185e+001 66 88 58
-4.339471e+000 -3.961250e-001 -1.202341e+001 70 84 52
-2.395111e+000 -8.471053e-002 -1.321709e+001 153 131 85
-2.395111e+000 -8.471053e-002 -1.321709e+001 153 131 85
-8.626963e-001 1.886050e-002 -1.395247e+001 142 121 80
-8.626963e-001 1.886050e-002 -1.395247e+001 142 121 80
-8.444453e-001 4.348033e-002 -1.408315e+001 130 114 81
-4.089438e+000 -1.978205e-001 -1.237653e+001 166 133 80
-4.077311e+000 -1.833374e-001 -1.237523e+001 166 133 80
-4.131627e+000 -1.900496e-001 -1.248854e+001 76 85 51
-4.004290e+000 -8.059648e-002 -1.258200e+001 80 83 46
-3.981401e+000 -3.183998e-002 -1.257427e+001 80 83 46
-3.239343e+000 -2.002601e-002 -1.294545e+001 162 135 84
-3.442577e+000 -3.675626e+000 -8.360245e+000 81 67 38
-3.389939e+000 -3.707696e+000 -8.411051e+000 87 71 38
-3.488672e+000 -3.576885e+000 -8.475599e+000 100 82 45
-3.271312e+000 -3.650999e+000 -8.543401e+000 144 118 77
-3.276191e+000 -3.587927e+000 -8.611975e+000 116 92 54
-8.420326e-001 -3.509861e+000 -9.699896e+000 126 112 73
-3.796959e+000 -3.521424e+000 -8.385306e+000 128 112 76
-3.796959e+000 -3.521424e+000 -8.385306e+000 128 112 76
-2.604195e+000 -3.466833e+000 -9.084591e+000 119 91 54
-2.604195e+000 -3.466833e+000 -9.084591e+000 119 91 54
-1.897759e+000 -3.443502e+000 -9.330935e+000 158 128 82
-1.099489e+000 -3.364280e+000 -9.794353e+000 97 77 52
-8.105316e-001 -3.285215e+000 -1.000325e+001 133 116 72
-1.436882e+000 -3.267671e+000 -9.779961e+000 104 81 49
-9.822939e-001 -3.274761e+000 -1.002405e+001 100 80 48
1.079653e+000 -2.817698e+000 -1.120952e+001 82 82 56
-3.919516e+000 -7.363838e-001 -7.295157e+000 227 208 149
-5.939830e-002 -2.527520e+000 -1.115872e+001 97 94 66
-3.872797e+000 -2.444531e+000 -9.784940e+000 67 80 48
-1.250732e+000 -2.073460e+000 -1.138242e+001 132 92 67
-4.375630e+000 1.092626e+000 -8.117898e+000 108 109 83
-2.908870e+000 -1.692114e+000 -1.110054e+001 109 82 73
4.192487e-001 -1.318324e+000 -1.288953e+001 88 77 57
9.890284e-001 -3.177941e+000 -1.450680e+001 196 185 167
6.977082e-001 -4.278036e+000 -1.532685e+001 93 82 72
6.977082e-001 -4.278036e+000 -1.532685e+001 93 82 72
-5.026258e+000 -1.286812e-001 -9.627178e+000 171 94 110
2.015763e-001 -1.024316e+000 -1.308699e+001 117 90 60
-8.286332e-002 -1.050161e+000 -1.306280e+001 135 100 62
-2.922356e+000 -1.171221e+000 -1.179238e+001 176 142 116
-2.240969e-001 -9.656065e-001 -1.319380e+001 138 110 73
-2.221397e-001 -9.666399e-001 -1.319536e+001 138 110 73
-1.657775e-001 -7.623615e-001 -1.327349e+001 135 109 72
-2.241608e-001 -7.450952e-001 -1.347511e+001 115 93 60
-2.195696e-001 -6.460771e-001 -1.352619e+001 98 77 44
-3.885165e-001 -5.307456e-001 -1.359331e+001 134 112 75
-1.596665e-002 -2.019025e-001 -1.399500e+001 116 102 73
-3.896218e+000 -9.665612e-002 -1.260523e+001 171 129 70
-8.490187e+000 7.158943e+001 1.581847e+001 105 105 109
-7.172220e+000 7.086921e+001 1.466318e+001 88 88 87
-3.732175e+000 -3.734420e+000 -8.234955e+000 87 72 39
-3.583112e+000 -3.586681e+000 -8.438091e+000 93 77 41
-2.809386e+000 -3.696796e+000 -8.718619e+000 111 89 57
-2.594389e+000 -3.593552e+000 -8.848082e+000 162 132 82
-2.049992e+000 -3.634327e+000 -9.053661e+000 112 90 53
-1.395081e+000 -3.585989e+000 -9.369878e+000 112 96 62
-5.855797e-001 -3.535914e+000 -9.744077e+000 89 80 51
-1.093354e+000 -3.459588e+000 -9.636228e+000 95 79 47
-1.311714e+000 -3.378198e+000 -9.705406e+000 109 88 57
-9.770366e-001 -3.340192e+000 -9.852847e+000 99 84 55
-2.684961e+000 -3.344039e+000 -9.183601e+000 151 116 80
-1.167610e+000 -3.247359e+000 -9.889619e+000 111 87 56
-3.720385e-001 -2.946569e+000 -1.064609e+001 166 149 129
-3.897516e-001 -2.848661e+000 -1.072589e+001 178 158 135
6.369142e-001 -2.432748e+000 -1.151119e+001 95 88 62
7.547707e-001 -2.425515e+000 -1.170659e+001 72 68 41
-3.831687e+000 -2.489096e+000 -9.698470e+000 175 144 105
3.715445e-001 -1.888022e+000 -1.220074e+001 112 94 60
-1.887718e+000 -1.929757e+000 -1.127257e+001 77 54 52
3.231460e-001 -1.780543e+000 -1.231572e+001 122 99 58
6.277851e-001 -1.743467e+000 -1.233890e+001 100 85 54
6.021683e-001 -1.782366e+000 -1.248773e+001 79 72 45
6.196821e-001 -1.527028e+000 -1.246033e+001 111 94 63
-1.117203e+000 -1.778077e+000 -1.183642e+001 164 133 84
1.290584e-001 -1.449558e+000 -1.265672e+001 130 95 63
4.051958e-002 -1.390831e+000 -1.279015e+001 139 101 64
3.010535e-001 -1.090866e+000 -1.297395e+001 119 92 63
-1.918572e+000 -1.270034e+000 -1.214328e+001 145 100 64
-2.692869e+000 -1.090320e+000 -1.197496e+001 164 134 126
-1.010625e-001 -6.672619e-001 -1.355216e+001 122 100 61
1.720969e-002 -4.854093e-001 -1.370727e+001 79 61 37
5.593287e+000 5.883972e+001 1.786052e+001 66 61 65
-4.889054e-001 -4.741221e-001 -1.369056e+001 139 120 80
-4.728123e-001 2.235124e-002 -1.407983e+001 107 91 65
-3.295116e-001 6.683135e-002 -1.411197e+001 119 104 75
-4.364157e+000 -3.972415e-001 -1.215744e+001 164 126 77
-4.333750e+000 -3.213042e-001 -1.214674e+001 164 126 77
6.603936e-001 2.111357e-001 -1.473374e+001 156 146 128
-3.861954e+000 -3.649496e+000 -8.123095e+000 125 113 72
-1.188497e+000 -3.649168e+000 -9.375499e+000 136 118 73
-3.948327e+000 -2.448276e+000 -9.652780e+000 72 86 51
-4.501263e+000 -1.766295e+000 -1.031831e+001 167 149 115
-1.855348e-001 -1.079734e+000 -1.290477e+001 150 112 65
-3.395666e-001 -6.434585e-001 -1.346507e+001 136 111 71
-3.020107e+000 6.448067e+001 2.554805e+001 89 86 93
-7.696107e-001 -2.318654e-001 -1.388485e+001 142 118 75
-7.059617e-001 -1.232957e-001 -1.386540e+001 142 118 75
-7.252159e+000 7.026978e+001 1.507220e+001 122 121 117
-8.436007e+000 6.892871e+001 1.363409e+001 63 62 70
2.445159e+000 -3.857864e+000 -1.099372e+001 180 164 150
-1.458085e+000 -1.714719e+000 -1.171469e+001 166 114 80
-2.539816e+000 -1.067226e+000 -1.208767e+001 112 84 81
-7.796091e+000 7.126278e+001 1.485265e+001 101 100 97
-6.618769e+000 7.251058e+001 1.471454e+001 94 94 96
-4.978683e-001 -3.098443e+000 -1.032296e+001 140 118 71
-8.710737e+000 7.202879e+001 1.563654e+001 92 92 98
-3.661613e+000 6.676675e+001 2.065443e+001 106 107 109
-3.047119e-001 -3.341113e+000 -1.014523e+001 121 108 92
2.520216e+000 6.272007e+001 2.634426e+001 71 61 62
-3.922865e+000 -3.985930e-001 -1.210594e+001 183 137 88
-7.084955e+000 6.907446e+001 1.498004e+001 87 85 86
-3.105314e+000 -1.431303e+000 -1.133650e+001 190 139 86
-5.483198e+000 4.499388e-001 -1.225677e+001 125 111 64
-1.800652e+000 -2.491609e+000 -1.037469e+001 190 155 133
-3.323418e+000 -7.863364e-001 -1.182988e+001 182 134 85
1.734769e+000 -2.609204e+000 -1.095425e+001 65 73 50
1.473402e+000 -3.538132e+000 -1.026659e+001 129 129 94
1.473402e+000 -3.538132e+000 -1.026659e+001 129 129 94
-3.131186e+000 -3.684266e+000 -8.627277e+000 150 121 80
-1.075284e+000 -3.556143e+000 -9.603928e+000 140 122 85
4.919440e-002 -3.263707e+000 -1.018566e+001 97 102 80
1.069920e-001 -2.828207e+000 -1.078828e+001 98 95 68
-3.892441e+000 -2.493570e+000 -9.697132e+000 183 148 108
-4.558352e+000 -1.402369e+000 -8.849743e+000 216 133 148
-4.558352e+000 -1.402369e+000 -8.849743e+000 216 133 148
-4.018056e+000 -2.229045e+000 -9.840280e+000 161 139 104
-1.407014e+000 -1.882492e+000 -1.141741e+001 91 64 51
-4.468005e+000 -2.047223e+000 -1.003546e+001 92 88 52
-4.294616e+000 -2.041216e+000 -1.008385e+001 184 140 101
-3.098112e+000 -1.850358e+000 -1.071049e+001 182 144 133
1.521891e-001 -1.557858e+000 -1.255544e+001 131 94 65
-1.784282e+000 -1.416858e+000 -1.196757e+001 174 127 93
-2.399644e+000 -9.876880e-001 -1.217076e+001 164 137 114
-4.321546e+000 -1.902122e-001 -1.242177e+001 87 87 53
-3.903961e+000 -1.150312e-001 -1.274649e+001 159 129 81
7.068878e-001 6.560846e+000 -1.598671e+001 161 149 149
-2.526851e+000 -3.638403e+000 -8.959291e+000 157 129 81
-1.793433e+000 -3.368352e+000 -9.369704e+000 151 124 73
-2.611234e-001 -3.381121e+000 -9.962783e+000 117 104 69
-1.096986e+000 -3.358593e+000 -9.792823e+000 94 73 42
-7.773193e-001 -3.364515e+000 -9.960998e+000 91 80 50
-2.429407e+000 -1.792009e+000 -1.109806e+001 92 73 69
1.553785e+000 -1.693951e+000 -1.328136e+001 68 55 46
-2.491729e+000 -1.101676e+000 -1.195917e+001 134 110 100
-4.720373e+000 -1.048269e+000 -1.115931e+001 170 137 97
-2.510998e+000 -3.717292e+000 -8.768674e+000 157 129 78
-7.403573e-001 -3.661578e+000 -9.532518e+000 90 84 50
-7.403573e-001 -3.661578e+000 -9.532518e+000 90 84 50
-5.664765e-001 -3.572599e+000 -9.666661e+000 121 114 75
-3.744800e+000 -3.618652e+000 -8.478895e+000 142 127 86
-3.616213e+000 -3.566114e+000 -8.520144e+000 147 126 83
-2.804533e+000 -3.652701e+000 -8.785963e+000 152 125 80
-3.886689e+000 -3.327786e+000 -8.649647e+000 150 129 83
-2.718710e+000 -3.381907e+000 -9.074317e+000 161 127 74
-1.304350e+000 -3.363471e+000 -9.699172e+000 87 68 38
-1.762278e+000 -2.175261e+000 -1.101132e+001 109 82 75
9.457186e-001 -2.003401e+000 -1.206595e+001 84 79 57
-2.092493e+000 -1.843596e+000 -1.129706e+001 95 77 73
2.038688e-001 -1.585696e+000 -1.250798e+001 129 94 62
-2.028485e+000 -1.377705e+000 -1.186985e+001 79 53 49
-2.537226e+000 -9.123917e-001 -1.222056e+001 167 135 114
1.094971e-001 -6.847747e-001 -1.364027e+001 117 99 70
1.094971e-001 -6.847747e-001 -1.364027e+001 117 99 70
-6.821484e-002 -1.012671e-001 -1.392167e+001 116 100 74
-2.248064e+000 -3.630022e+000 -8.944344e+000 105 83 46
-6.253430e-001 -3.650677e+000 -9.560282e+000 92 85 56
-1.697449e-001 -3.589447e+000 -1.001818e+001 149 137 106
5.980907e-001 -2.182284e+000 -1.199312e+001 93 88 59
3.688765e-001 -1.339805e+000 -1.262984e+001 116 92 68
-6.929426e-001 5.834954e-001 -1.451904e+001 104 101 77
3.173086e+000 -2.661912e+000 -1.103694e+001 160 148 133
-4.525833e+000 -1.372435e+000 -8.707378e+000 209 126 137
-4.738176e+000 -1.444405e+000 -1.076808e+001 129 106 65
-4.093376e+000 -2.358681e+000 -9.841650e+000 89 91 63
3.416316e+000 -3.807106e-001 -7.009313e+000 229 224 218
-9.806337e-001 -3.498573e+000 -9.622262e+000 127 115 75
3.242266e-001 -1.624809e+000 -1.251206e+001 103 83 57
4.699835e+000 6.378694e+001 2.223714e+001 91 86 80
-2.183026e+000 6.642071e+001 2.013934e+001 84 80 83
-1.520812e+000 -3.412176e+000 -9.490103e+000 147 121 76
-3.425146e+000 -2.577331e+000 -9.621061e+000 82 86 57
9.427023e-001 -2.385848e+000 -1.187460e+001 72 66 42
1.375863e+000 -1.388864e+000 -1.311316e+001 77 64 56
-2.715440e+000 -3.552484e+000 -8.742344e+000 157 127 74
-2.716745e+000 -3.558089e+000 -8.743666e+000 157 127 74
-1.179525e+000 -3.449212e+000 -9.585490e+000 108 88 57
8.495234e-001 -2.151605e+000 -1.208058e+001 78 71 51
-3.960811e+000 -2.272456e+000 -9.807972e+000 79 89 56
-1.043466e+000 -3.694565e+000 -9.405339e+000 97 88 58
