ply
format ascii 1.0
element face 0
property list uchar int vertex_indices
element vertex 875
property float x
property float y
property float z
property uchar diffuse_red
property uchar diffuse_green
property uchar diffuse_blue
end_header
1.199544e+000 -4.911134e-001 -7.241188e+000 58 62 36
-1.264089e+000 -6.740306e-001 -6.010439e+000 77 73 66
-1.065046e+000 -6.439785e-001 -6.076529e+000 127 118 111
-9.565748e-001 -6.344027e-001 -6.120875e+000 77 68 62
-3.237736e-001 -6.473481e-001 -6.538707e+000 75 61 36
-2.480488e-001 -6.517004e-001 -6.586346e+000 83 68 45
1.754216e-003 -6.127526e-001 -6.710583e+000 92 78 51
7.032821e-001 -6.452550e-001 -7.113477e+000 82 73 43
8.888655e-001 -5.723959e-001 -7.145810e+000 106 105 61
1.127158e+000 -5.232868e-001 -7.232591e+000 62 64 49
1.127158e+000 -5.232868e-001 -7.232591e+000 62 64 49
1.310596e+000 -5.165858e-001 -7.322332e+000 62 66 43
-3.674782e-001 -7.724667e-001 -6.635476e+000 90 73 55
-2.245877e-001 -7.854107e-001 -6.720793e+000 100 80 56
-5.910910e-002 -7.023740e-001 -6.739209e+000 158 136 95
-3.889069e-002 -7.312319e-001 -6.751456e+000 88 72 44
9.357301e-002 -7.193570e-001 -6.822199e+000 86 71 48
1.349237e-001 -7.694675e-001 -6.909759e+000 79 68 39
2.812325e-001 -7.323447e-001 -6.954415e+000 103 87 63
4.194520e-001 -7.234061e-001 -7.032338e+000 95 82 56
6.367207e-001 -6.568504e-001 -7.095234e+000 80 73 47
6.330809e-001 -6.638854e-001 -7.065602e+000 80 73 47
8.884477e-001 -6.563754e-001 -7.220598e+000 68 64 37
1.014954e+000 -6.575637e-001 -7.299727e+000 59 62 35
-1.197719e+000 -8.949744e-001 -6.255391e+000 70 69 57
-1.198242e+000 -8.946497e-001 -6.256438e+000 70 69 57
-1.036495e+000 -8.677678e-001 -6.297241e+000 137 135 122
-1.047931e+000 -9.202085e-001 -6.347797e+000 83 76 67
-1.047412e+000 -9.218034e-001 -6.342644e+000 83 76 67
-9.900018e-001 -9.131432e-001 -6.355397e+000 79 76 61
-9.901721e-001 -9.117838e-001 -6.357579e+000 79 76 61
-9.338629e-001 -8.918286e-001 -6.364485e+000 78 77 69
-9.339287e-001 -8.888659e-001 -6.370109e+000 78 77 69
-3.834090e-001 -8.185305e-001 -6.661973e+000 92 75 55
-2.361533e-001 -8.146940e-001 -6.739739e+000 102 85 64
-2.111573e-001 -8.878398e-001 -6.836455e+000 86 71 42
-9.300925e-002 -8.810850e-001 -6.890739e+000 99 86 52
6.433417e-002 -8.141218e-001 -6.929451e+000 96 82 53
6.425455e-002 -8.145889e-001 -6.928405e+000 96 82 53
2.496103e-001 -8.162924e-001 -7.019214e+000 88 76 53
6.284664e-001 -8.548286e-001 -7.269301e+000 87 77 47
6.638799e-001 -8.527055e-001 -7.241549e+000 132 118 69
7.023676e-001 -8.199846e-001 -7.277190e+000 92 85 53
8.456763e-001 -7.781645e-001 -7.328515e+000 73 67 42
1.155090e+000 -7.878247e-001 -7.501775e+000 62 64 42
-4.270947e-001 -9.339194e-001 -6.764788e+000 90 76 57
-4.270947e-001 -9.339194e-001 -6.764788e+000 90 76 57
-4.898033e-001 -9.559936e-001 -6.752754e+000 90 75 51
-3.449278e-001 -9.210560e-001 -6.783610e+000 81 64 46
-1.233439e-001 -9.605225e-001 -6.962289e+000 93 79 48
6.344807e-002 -9.604021e-001 -7.058433e+000 88 77 52
2.205604e-001 -8.903229e-001 -7.096528e+000 83 70 48
1.896793e-001 -9.793334e-001 -7.152725e+000 84 72 46
2.227839e-001 -9.807193e-001 -7.177435e+000 154 131 77
6.476145e-001 -9.664545e-001 -7.405034e+000 85 73 45
1.046577e+000 -9.758727e-001 -7.631334e+000 90 90 62
-7.824131e-001 -1.100982e+000 -6.732594e+000 80 63 43
-7.822448e-001 -1.101510e+000 -6.730668e+000 80 63 43
-7.194527e-001 -1.106142e+000 -6.768579e+000 90 74 51
-7.194527e-001 -1.106142e+000 -6.768579e+000 90 74 51
-2.552474e-001 -1.013320e+000 -6.941344e+000 105 90 57
-2.700280e-001 -1.050400e+000 -6.975912e+000 101 85 55
-1.816686e-002 -1.024245e+000 -7.078621e+000 92 83 56
-3.662836e-002 -1.070655e+000 -7.118537e+000 89 74 48
4.748278e-001 -1.087026e+000 -7.433905e+000 87 76 46
5.708305e-001 -1.003712e+000 -7.395230e+000 73 64 41
6.271366e-001 -1.027370e+000 -7.370934e+000 78 71 44
5.480688e-001 -1.073672e+000 -7.465668e+000 79 69 41
8.136175e-001 -1.020812e+000 -7.488347e+000 81 76 48
8.136175e-001 -1.020812e+000 -7.488347e+000 81 76 48
9.818184e-001 -1.085135e+000 -7.709039e+000 69 69 48
1.168084e+000 -1.063483e+000 -7.791417e+000 65 67 44
-8.630273e-001 -1.141287e+000 -6.748012e+000 88 71 51
-8.894541e-001 -1.209573e+000 -6.796787e+000 94 79 55
-6.968443e-001 -1.205961e+000 -6.906359e+000 62 49 47
1.550517e-001 -1.205726e+000 -7.381306e+000 92 78 49
4.875803e-001 -1.206288e+000 -7.569170e+000 93 81 49
-1.065761e+000 -1.269885e+000 -6.750818e+000 141 127 90
-1.065761e+000 -1.269885e+000 -6.750818e+000 141 127 90
-1.030931e+000 -1.259145e+000 -6.763715e+000 92 78 52
-9.937135e-001 -1.325612e+000 -6.850643e+000 89 75 48
-7.303280e-001 -1.287426e+000 -6.976741e+000 65 52 43
-4.669840e-001 -1.226676e+000 -7.035940e+000 100 84 58
3.741303e-001 -1.339687e+000 -7.650715e+000 93 82 50
7.648076e-001 -1.302539e+000 -7.815979e+000 75 69 45
8.186360e-001 -1.334509e+000 -7.859650e+000 65 63 38
-1.323819e+000 -1.357182e+000 -6.702857e+000 76 63 47
-1.324103e+000 -1.355094e+000 -6.706073e+000 76 63 47
-1.303519e+000 -1.392946e+000 -6.745023e+000 129 116 81
-1.303355e+000 -1.393627e+000 -6.742001e+000 129 116 81
-1.197640e+000 -1.436538e+000 -6.868363e+000 123 112 78
-1.126487e+000 -1.337243e+000 -6.795686e+000 99 85 56
-1.098099e+000 -1.344364e+000 -6.826778e+000 134 121 86
-1.129368e+000 -1.420735e+000 -6.888201e+000 130 117 83
-1.015936e+000 -1.374070e+000 -6.890724e+000 91 77 50
-4.258011e-001 -1.437453e+000 -7.317147e+000 115 100 69
-1.463327e-001 -1.350810e+000 -7.370154e+000 94 79 56
4.207573e-001 -1.385873e+000 -7.738823e+000 83 74 43
-1.418364e+000 -1.521031e+000 -6.823166e+000 126 115 80
-1.214559e+000 -1.483895e+000 -6.903131e+000 130 118 81
-1.160015e+000 -1.489171e+000 -6.932852e+000 119 109 73
-1.052758e+000 -1.454719e+000 -6.967605e+000 104 92 66
-1.026601e+000 -1.480349e+000 -7.008225e+000 126 116 81
-9.789907e-001 -1.515073e+000 -7.063481e+000 124 115 82
-1.017195e+000 -1.538911e+000 -7.075619e+000 80 71 43
-1.013345e+000 -1.544742e+000 -7.050451e+000 80 71 43
-9.555523e-001 -1.538894e+000 -7.102452e+000 82 74 52
-9.163599e-001 -1.527904e+000 -7.126931e+000 127 115 73
-7.093576e-001 -1.525325e+000 -7.216712e+000 104 89 68
-5.543113e-001 -1.455741e+000 -7.257999e+000 97 83 54
-3.995862e-001 -1.518402e+000 -7.379206e+000 96 83 54
-3.618251e-001 -1.556298e+000 -7.478877e+000 98 85 53
-1.578526e+000 -1.593742e+000 -6.809386e+000 119 106 72
-1.519139e+000 -1.612246e+000 -6.869342e+000 122 111 81
-1.373589e+000 -1.577520e+000 -6.890964e+000 120 111 80
-1.387628e+000 -1.574503e+000 -6.939095e+000 120 111 80
-1.192749e+000 -1.567193e+000 -7.000691e+000 125 116 85
-9.332472e-001 -1.557728e+000 -7.137266e+000 133 123 85
-9.337489e-001 -1.557105e+000 -7.139686e+000 133 123 85
5.848054e-001 -2.076742e-001 -6.655877e+000 110 109 65
2.213315e-001 -3.279470e-001 -6.543339e+000 125 113 61
5.968423e-001 -2.852740e-001 -6.709325e+000 67 67 34
6.893877e-001 -3.061356e-001 -6.781839e+000 113 111 63
6.731603e-001 -3.554093e-001 -6.827638e+000 116 112 65
6.383287e-001 -4.607666e-001 -6.922121e+000 131 121 62
-6.276664e-001 -6.794360e-001 -6.322878e+000 116 107 76
9.773342e-002 -9.726236e-001 -7.101123e+000 126 110 69
-6.333418e-001 -1.034387e+000 -6.773348e+000 59 45 44
-5.738226e-001 -1.038122e+000 -6.774827e+000 59 48 41
7.596548e-002 -1.024568e+000 -7.168342e+000 119 106 64
4.285170e-002 -1.107194e+000 -7.195916e+000 87 75 35
-1.014835e+000 -1.217675e+000 -6.714183e+000 121 105 80
-9.105234e-001 -1.159054e+000 -6.708436e+000 143 124 85
-2.985459e-002 -1.209190e+000 -7.278039e+000 78 68 45
-2.838467e-002 -1.205383e+000 -7.286327e+000 78 68 45
2.033784e-001 -1.184277e+000 -7.355647e+000 101 89 51
3.438588e-001 -1.176467e+000 -7.447017e+000 127 114 70
-1.097065e+000 -1.257874e+000 -6.719045e+000 95 83 59
-1.095782e+000 -1.259109e+000 -6.714791e+000 95 83 59
-7.748517e-001 -1.248934e+000 -6.887395e+000 95 79 52
-1.414366e+000 -1.416647e+000 -6.723215e+000 98 87 59
-1.252017e+000 -1.329272e+000 -6.714377e+000 78 65 46
1.329908e+000 -1.419585e+000 -8.034886e+000 124 112 96
-1.365267e+000 -1.453997e+000 -6.798043e+000 92 80 57
-1.403876e+000 -1.485090e+000 -6.807792e+000 123 110 75
-1.332073e+000 -1.525175e+000 -6.873793e+000 81 75 51
-9.890582e-001 -1.470611e+000 -7.000795e+000 86 76 51
-8.620178e-001 -1.529187e+000 -7.146618e+000 132 119 81
-1.350806e+000 -1.591662e+000 -6.935629e+000 87 76 58
-1.351805e+000 -1.592252e+000 -6.935407e+000 87 76 58
-1.257772e+000 -1.566012e+000 -6.963821e+000 125 116 79
-1.061383e+000 -1.562354e+000 -7.065615e+000 128 115 80
-6.438964e-001 -1.565814e+000 -7.334511e+000 97 82 49
3.974061e-001 -2.290534e-001 -6.557461e+000 108 106 57
-1.193420e-001 -2.987208e-001 -6.325311e+000 110 99 59
3.692483e-001 -3.140081e-001 -6.613842e+000 117 110 56
4.883962e-001 -2.547775e-001 -6.647742e+000 115 111 63
-1.884433e-001 -4.835185e-001 -6.433786e+000 139 123 72
-5.431590e-001 -1.328118e+000 -7.113894e+000 111 95 61
-5.704611e-001 -1.397657e+000 -7.179844e+000 124 109 76
-5.719527e-001 -1.396478e+000 -7.188843e+000 124 109 76
5.278897e-001 -4.916362e-001 -6.851005e+000 141 125 66
5.022878e-002 -6.409081e-001 -6.712589e+000 152 131 86
5.022878e-002 -6.409081e-001 -6.712589e+000 152 131 86
-9.822279e-001 -8.494897e-001 -6.315455e+000 71 69 57
-1.944494e-001 -9.850942e-001 -6.951790e+000 149 130 89
-6.383203e-001 -1.341502e+000 -7.078432e+000 108 92 59
1.270806e+000 -1.594172e+000 -8.472283e+000 194 168 152
-1.606470e+000 -1.552986e+000 -6.777756e+000 85 73 50
-6.687444e-001 -1.013817e+000 -6.664294e+000 151 130 89
-7.679918e-001 -7.804087e-001 -6.347469e+000 128 113 70
-1.043517e-001 -2.229546e-001 -6.291830e+000 126 115 70
3.404310e-001 -8.581042e-001 -7.167185e+000 134 121 77
-7.947240e-001 -1.509257e+000 -7.288414e+000 62 58 49
-1.074762e-001 -2.728362e-001 -6.303984e+000 129 124 77
5.767038e-001 -1.934885e-001 -6.634979e+000 115 120 78
3.148410e-001 -3.275330e-001 -6.442937e+000 126 124 83
7.082329e-001 -1.975562e-001 -6.696119e+000 122 127 88
1.110773e+000 -2.210882e-001 -6.929142e+000 102 112 85
1.402048e+000 -1.714453e-001 -7.062339e+000 101 112 82
-1.100105e+000 -5.726198e-001 -5.984733e+000 74 77 66
-9.939575e-001 -5.471293e-001 -6.026240e+000 79 87 74
6.996831e-002 -4.202763e-001 -6.534715e+000 89 80 47
7.215310e-001 -3.589142e-001 -6.850233e+000 117 117 80
1.024462e+000 -2.459750e-001 -6.920000e+000 70 79 60
1.050323e+000 -2.672138e-001 -6.954849e+000 92 102 77
-8.828552e-001 -5.693443e-001 -6.116650e+000 161 151 141
-2.089508e-001 -4.875355e-001 -6.447737e+000 149 138 86
-2.605421e-002 -5.424015e-001 -6.596931e+000 83 72 36
-1.227327e+000 -6.966285e-001 -6.050596e+000 81 84 72
-9.238474e-001 -6.896864e-001 -6.190482e+000 104 101 89
-8.929433e-001 -6.941576e-001 -6.218724e+000 114 114 104
-8.509926e-001 -7.024786e-001 -6.235198e+000 81 85 71
-8.509028e-001 -7.028088e-001 -6.234590e+000 81 85 71
-1.707944e-001 -6.297113e-001 -6.607039e+000 150 141 102
1.384860e-001 -5.610666e-001 -6.624066e+000 138 125 83
1.258553e+000 -4.248785e-001 -7.215395e+000 96 105 76
1.420449e+000 -4.631451e-001 -7.255559e+000 88 97 76
-1.240341e+000 -7.611452e-001 -6.105737e+000 77 77 65
-8.327844e-001 -7.881053e-001 -6.344725e+000 93 97 82
-2.667470e-001 -7.031285e-001 -6.626094e+000 94 83 52
-8.942833e-001 -8.337289e-001 -6.345950e+000 78 80 68
-3.259250e-001 -8.046217e-001 -6.700969e+000 135 123 97
6.383956e-001 -7.482434e-001 -7.161363e+000 137 125 76
-4.856753e-001 -8.754685e-001 -6.673949e+000 133 122 95
-3.174369e-001 -8.442144e-001 -6.731449e+000 99 88 66
-3.174369e-001 -8.442144e-001 -6.731449e+000 99 88 66
-1.269765e-001 -8.274352e-001 -6.825619e+000 94 83 55
1.209502e+000 -7.295590e-001 -7.497801e+000 89 96 68
-3.553381e-001 -9.474375e-001 -6.817330e+000 88 77 57
4.877729e-001 -8.945020e-001 -7.246012e+000 92 84 48
-9.773803e-002 -9.631192e-001 -6.988538e+000 135 124 88
-1.912478e-001 -1.021256e+000 -6.985318e+000 161 148 95
5.764037e-001 -1.073620e+000 -7.448434e+000 135 123 81
-9.469183e-001 -1.187752e+000 -6.737476e+000 129 117 81
-8.861794e-002 -1.208963e+000 -7.251340e+000 92 83 51
-1.497234e+000 -1.438971e+000 -6.695809e+000 85 76 43
-1.505433e+000 -1.488049e+000 -6.741116e+000 82 76 45
-1.528298e+000 -1.512721e+000 -6.759141e+000 78 73 48
9.470142e-001 -2.225580e-001 -5.941368e+000 176 178 173
-2.688181e-001 -2.457123e-001 -6.195863e+000 138 132 79
2.907142e-001 -2.176369e-001 -6.486658e+000 133 130 84
-8.125720e-001 -4.850567e-001 -6.059647e+000 131 133 106
2.317796e-001 -2.793609e-001 -6.507016e+000 137 131 83
2.237245e-001 -3.079802e-001 -6.523979e+000 137 130 83
3.285565e-001 -3.164167e-001 -6.587888e+000 106 102 59
3.285565e-001 -3.164167e-001 -6.587888e+000 106 102 59
7.049986e-001 -2.461746e-001 -6.745567e+000 80 84 57
8.690765e-001 -2.462894e-001 -6.821733e+000 110 119 88
8.690765e-001 -2.462894e-001 -6.821733e+000 110 119 88
1.276353e+000 -1.715197e-001 -7.060755e+000 91 105 81
1.561421e+000 -1.660063e-001 -7.137522e+000 77 89 65
-1.072043e+000 -5.492474e-001 -5.980846e+000 84 87 76
7.755564e-001 -3.459290e-001 -6.866491e+000 120 122 83
8.496092e-001 -3.093563e-001 -6.878331e+000 112 119 82
8.496092e-001 -3.093563e-001 -6.878331e+000 112 119 82
9.059887e-001 -3.306707e-001 -6.929265e+000 109 115 82
9.059887e-001 -3.306707e-001 -6.929265e+000 109 115 82
1.237303e+000 -2.880698e-001 -7.098330e+000 94 106 82
1.489505e+000 -2.699815e-001 -7.112091e+000 93 107 81
-1.161857e+000 -6.083768e-001 -6.002134e+000 79 82 71
-9.506007e-001 -5.971298e-001 -6.094869e+000 103 91 83
-9.260164e-001 -5.985967e-001 -6.107117e+000 164 155 142
-7.206143e-001 -5.717173e-001 -6.170920e+000 131 129 89
-4.391553e-001 -5.007379e-001 -6.354587e+000 64 53 47
-1.981663e-001 -5.045696e-001 -6.472808e+000 101 91 57
-1.039019e-001 -5.252270e-001 -6.540317e+000 152 140 96
4.713733e-002 -4.827239e-001 -6.582452e+000 103 97 63
3.225987e-001 -4.509059e-001 -6.708794e+000 91 78 52
3.533778e-001 -4.312369e-001 -6.713159e+000 132 126 74
8.234162e-001 -3.855590e-001 -6.921250e+000 114 118 81
1.016445e+000 -3.802139e-001 -7.038770e+000 101 111 81
1.002991e+000 -4.214559e-001 -7.062150e+000 106 113 85
1.059663e+000 -4.384145e-001 -7.097477e+000 97 107 80
1.157494e+000 -3.369767e-001 -7.080500e+000 98 108 81
1.183299e+000 -3.504772e-001 -7.077527e+000 67 74 56
1.226534e+000 -3.950594e-001 -7.167683e+000 70 78 59
1.455573e+000 -2.898879e-001 -7.204348e+000 69 79 55
1.438344e+000 -3.400806e-001 -7.234219e+000 66 78 54
1.470696e+000 -3.412563e-001 -7.248196e+000 84 96 72
1.401081e+000 -3.637333e-001 -7.239132e+000 81 93 69
1.338928e+000 -4.328545e-001 -7.175750e+000 67 79 55
1.401151e+000 -4.999846e-001 -7.107966e+000 85 97 73
1.513515e+000 -3.178251e-001 -7.283701e+000 68 77 60
1.473370e+000 -4.755329e-001 -7.137676e+000 87 97 76
-7.535487e-001 -6.196526e-001 -6.275548e+000 136 134 96
-1.206063e-001 -5.671725e-001 -6.578713e+000 147 135 95
-1.206063e-001 -5.671725e-001 -6.578713e+000 147 135 95
-2.427166e-002 -5.552450e-001 -6.618704e+000 156 146 97
5.521673e-002 -5.544481e-001 -6.644187e+000 163 147 99
3.547311e-001 -5.176450e-001 -6.788308e+000 102 94 55
7.956432e-001 -4.915569e-001 -7.013308e+000 129 127 88
8.419648e-001 -5.260370e-001 -7.083831e+000 115 117 83
1.011329e+000 -4.713091e-001 -7.112019e+000 75 81 59
1.161200e+000 -5.128014e-001 -7.232047e+000 93 102 75
1.238255e+000 -4.656200e-001 -7.232482e+000 90 100 75
1.336757e+000 -4.577821e-001 -7.275815e+000 66 75 56
-9.214976e-002 -7.188376e-001 -6.730415e+000 91 82 53
1.248645e-001 -6.333615e-001 -6.769805e+000 95 84 54
7.563226e-001 -5.907026e-001 -7.061667e+000 132 127 82
7.997915e-001 -5.561044e-001 -7.076435e+000 74 76 44
9.665252e-001 -5.234808e-001 -7.183255e+000 105 112 71
9.368319e-001 -6.143719e-001 -7.203316e+000 110 113 80
9.390329e-001 -6.079581e-001 -7.208645e+000 110 113 80
1.094847e+000 -5.231174e-001 -7.210517e+000 95 104 75
1.231918e+000 -5.829464e-001 -7.359727e+000 65 75 48
1.347742e+000 -5.161425e-001 -7.337329e+000 86 96 71
-1.108142e+000 -8.843776e-001 -6.275697e+000 85 82 73
-1.066621e+000 -8.830118e-001 -6.296835e+000 83 83 71
-9.435159e-001 -8.735456e-001 -6.343877e+000 107 107 95
-3.588572e-001 -8.058789e-001 -6.678149e+000 133 119 91
-2.894874e-001 -7.708021e-001 -6.674206e+000 93 82 55
2.366045e-001 -7.758827e-001 -6.971229e+000 143 131 87
6.296173e-001 -6.933693e-001 -7.077846e+000 102 94 58
7.289974e-001 -6.620942e-001 -7.135696e+000 131 127 80
7.083679e-001 -7.219483e-001 -7.190536e+000 127 120 74
8.663476e-001 -6.355041e-001 -7.194965e+000 116 119 77
8.244480e-001 -6.550699e-001 -7.203753e+000 88 85 49
8.244480e-001 -6.550699e-001 -7.203753e+000 88 85 49
9.562682e-001 -6.487301e-001 -7.257111e+000 68 74 40
8.449669e-001 -7.202823e-001 -7.264534e+000 126 122 79
9.858030e-001 -8.233910e-001 -7.191361e+000 102 109 75
-2.092864e-001 -8.120058e-001 -6.774456e+000 143 130 96
-2.523528e-001 -8.601337e-001 -6.794589e+000 94 85 57
6.379208e-002 -8.071065e-001 -6.922727e+000 91 79 52
8.153311e-002 -8.373940e-001 -6.953054e+000 140 131 90
2.270700e-001 -7.989252e-001 -6.993002e+000 141 133 85
7.748035e-001 -8.045823e-001 -7.301131e+000 86 84 45
9.140139e-001 -7.613594e-001 -7.341805e+000 75 77 45
9.144207e-001 -7.617600e-001 -7.344010e+000 75 77 45
8.275122e-001 -8.166231e-001 -7.341861e+000 79 78 47
8.741582e-001 -7.902718e-001 -7.349027e+000 104 104 68
9.442805e-001 -7.685227e-001 -7.364002e+000 103 107 65
1.021079e+000 -7.307026e-001 -7.384750e+000 100 106 68
-5.354991e-001 -9.469828e-001 -6.712623e+000 65 55 45
-2.561055e-002 -9.100954e-001 -6.964922e+000 134 125 86
2.308934e-001 -8.679559e-001 -7.065308e+000 118 108 71
6.039055e-001 -9.145810e-001 -7.311556e+000 100 93 49
7.288764e-001 -8.386591e-001 -7.326422e+000 120 115 70
-1.849874e-001 -9.928223e-001 -6.958536e+000 153 139 92
1.264846e-002 -1.024724e+000 -7.109647e+000 132 121 79
1.596907e-001 -9.820211e-001 -7.135175e+000 144 134 85
2.559986e-001 -1.020553e+000 -7.214303e+000 136 125 80
7.132160e-001 -9.563523e-001 -7.425597e+000 81 77 42
7.484201e-001 -9.540418e-001 -7.442828e+000 114 110 72
6.069192e-001 -1.155773e+000 -7.542282e+000 122 113 68
6.069192e-001 -1.155773e+000 -7.542282e+000 122 113 68
-2.138289e-001 -1.264720e+000 -7.241266e+000 134 125 82
1.170403e+000 -1.156836e+000 -7.923641e+000 78 83 61
-9.619393e-001 -1.406741e+000 -6.954895e+000 83 76 44
-6.195097e-001 -1.356294e+000 -7.108126e+000 136 127 96
-6.213670e-001 -1.355115e+000 -7.107109e+000 136 127 96
3.960757e-002 -1.358744e+000 -7.479840e+000 100 91 53
4.012966e-002 -1.357555e+000 -7.481855e+000 100 91 53
-1.912161e-001 -1.452837e+000 -7.461133e+000 92 81 50
3.573447e-001 -1.391555e+000 -7.686309e+000 83 77 43
-2.280574e-001 -1.559177e+000 -7.537956e+000 97 90 59
5.057631e-001 -1.548463e+000 -7.926087e+000 115 112 77
-3.340352e-001 -7.618113e-002 -6.099063e+000 153 137 111
-2.026571e-001 -2.703272e-001 -6.250906e+000 84 77 51
-2.030623e-001 -2.692477e-001 -6.251056e+000 84 77 51
-9.367036e-001 -4.696952e-001 -5.985453e+000 84 86 75
-8.853753e-001 -4.687324e-001 -6.017066e+000 80 86 83
-8.390168e-001 -4.828140e-001 -6.048545e+000 81 85 78
2.434552e-001 -2.413067e-001 -6.499404e+000 130 128 79
2.869941e-001 -2.446428e-001 -6.501599e+000 84 81 51
2.997368e-001 -3.108358e-001 -6.553377e+000 132 126 77
5.539730e-001 -2.963825e-001 -6.692560e+000 128 129 78
6.533817e-001 -2.122761e-001 -6.667316e+000 114 118 81
6.308596e-001 -2.999913e-001 -6.718958e+000 122 124 83
1.238901e+000 -1.793866e-001 -6.973318e+000 77 86 65
1.283518e+000 -2.246537e-001 -6.947842e+000 82 92 67
1.668919e+000 -1.622798e-001 -7.096737e+000 104 114 90
-1.154953e+000 -5.530602e-001 -5.942036e+000 79 80 72
-9.135950e-001 -5.266314e-001 -6.041845e+000 127 131 117
-7.994835e-001 -5.024183e-001 -6.085517e+000 85 88 79
-2.064271e-003 -3.992574e-001 -6.478913e+000 148 138 87
-7.582118e-002 -4.413943e-001 -6.468260e+000 147 135 93
-7.582118e-002 -4.413943e-001 -6.468260e+000 147 135 93
1.161986e-001 -3.772217e-001 -6.538333e+000 145 136 80
4.300235e-001 -3.360643e-001 -6.653584e+000 137 134 80
8.242248e-001 -2.927322e-001 -6.832204e+000 70 76 50
8.035653e-001 -3.580463e-001 -6.893193e+000 87 87 59
8.838337e-001 -2.913366e-001 -6.884700e+000 81 86 63
9.293286e-001 -2.713746e-001 -6.902776e+000 102 109 80
9.625195e-001 -2.521097e-001 -6.891893e+000 79 87 63
1.013681e+000 -2.802714e-001 -6.936820e+000 69 78 57
1.013681e+000 -2.802714e-001 -6.936820e+000 69 78 57
1.118658e+000 -2.499782e-001 -6.959850e+000 96 106 79
1.083047e+000 -2.698718e-001 -6.977019e+000 70 79 58
1.085530e+000 -2.642379e-001 -6.981280e+000 70 79 58
1.071921e+000 -3.084403e-001 -6.992492e+000 76 83 66
1.077994e+000 -2.940568e-001 -7.010842e+000 76 83 66
1.108340e+000 -2.933762e-001 -6.999026e+000 96 108 80
1.270459e+000 -2.776183e-001 -7.061849e+000 75 84 64
1.471842e+000 -2.366718e-001 -7.156444e+000 68 76 61
-1.064503e+000 -6.471893e-001 -6.074349e+000 114 115 107
-1.321077e-001 -5.272411e-001 -6.520895e+000 97 86 56
3.057522e-001 -4.987072e-001 -6.738155e+000 100 91 60
7.881465e-001 -3.980960e-001 -6.925469e+000 78 81 51
8.085671e-001 -4.345149e-001 -6.977316e+000 114 116 81
8.067505e-001 -4.404829e-001 -6.968126e+000 114 116 81
9.191864e-001 -3.868659e-001 -6.973482e+000 77 82 58
8.509341e-001 -4.044914e-001 -6.977774e+000 81 84 55
1.051088e+000 -3.673003e-001 -7.040028e+000 63 72 50
1.039116e+000 -4.005604e-001 -7.004123e+000 63 72 50
9.706289e-001 -4.254622e-001 -7.050892e+000 77 85 54
1.252299e+000 -4.173306e-001 -7.175921e+000 98 109 76
1.576131e+000 -3.285982e-001 -7.321036e+000 68 77 59
-1.279392e+000 -7.213914e-001 -6.049149e+000 78 82 72
-4.041236e-001 -5.762460e-001 -6.428039e+000 59 52 48
-3.495692e-001 -6.355983e-001 -6.526058e+000 150 139 89
-7.667888e-002 -5.946921e-001 -6.618441e+000 157 144 99
-2.089768e-002 -6.067451e-001 -6.658089e+000 144 135 92
3.046991e-001 -5.829462e-001 -6.825503e+000 143 131 78
4.799278e-001 -5.584623e-001 -6.878866e+000 101 88 55
6.997710e-001 -4.807983e-001 -6.937215e+000 85 83 52
9.816813e-001 -4.801661e-001 -7.102085e+000 99 106 72
9.819232e-001 -4.825915e-001 -7.103373e+000 99 106 72
1.179329e+000 -4.588942e-001 -7.211946e+000 93 104 75
1.200115e+000 -4.885710e-001 -7.242433e+000 56 66 41
1.260503e+000 -4.948056e-001 -7.252203e+000 69 79 53
-9.919968e-001 -7.897877e-001 -6.242014e+000 156 146 136
-4.578439e-001 -7.263483e-001 -6.538758e+000 55 48 45
-3.815689e-001 -7.343746e-001 -6.595386e+000 144 135 96
-3.815689e-001 -7.343746e-001 -6.595386e+000 144 135 96
-9.263267e-002 -6.423096e-001 -6.682026e+000 152 139 92
-9.263267e-002 -6.423096e-001 -6.682026e+000 152 139 92
-3.706157e-002 -6.520482e-001 -6.707551e+000 145 130 88
1.898678e-001 -6.145911e-001 -6.796006e+000 90 80 47
1.483323e-001 -6.632860e-001 -6.805000e+000 137 126 82
1.483323e-001 -6.632860e-001 -6.805000e+000 137 126 82
2.841207e-001 -6.397902e-001 -6.866165e+000 161 146 96
3.101112e-001 -6.541362e-001 -6.908241e+000 104 92 54
8.380733e-001 -6.185471e-001 -7.135333e+000 80 83 52
1.044757e+000 -5.738349e-001 -7.236449e+000 75 81 53
1.094623e+000 -6.078931e-001 -7.289021e+000 67 75 52
1.093350e+000 -6.104559e-001 -7.286817e+000 67 75 52
-1.147613e+000 -8.523282e-001 -6.234394e+000 133 135 124
-1.147613e+000 -8.523282e-001 -6.234394e+000 133 135 124
-1.083592e+000 -8.683522e-001 -6.274165e+000 132 131 119
-8.668307e-001 -8.813402e-001 -6.393944e+000 145 132 100
-2.000980e-001 -7.920077e-001 -6.758185e+000 157 144 109
7.597497e-001 -6.603610e-001 -7.164765e+000 86 85 47
8.478233e-001 -6.791329e-001 -7.220218e+000 125 125 77
7.747127e-001 -7.141611e-001 -7.220057e+000 135 128 83
9.352353e-001 -7.075793e-001 -7.293611e+000 80 84 54
9.340357e-001 -7.109228e-001 -7.293804e+000 80 84 54
1.452711e+000 -6.417416e-001 -7.553992e+000 61 65 44
-3.145849e-001 -8.200108e-001 -6.724016e+000 99 87 63
-3.145849e-001 -8.200108e-001 -6.724016e+000 99 87 63
4.285111e-002 -8.595427e-001 -6.947193e+000 98 89 60
1.148433e-001 -8.260645e-001 -6.952574e+000 80 71 42
7.334425e-001 -7.350749e-001 -7.213000e+000 77 73 38
7.323897e-001 -7.378911e-001 -7.210038e+000 77 73 38
7.596400e-001 -7.526580e-001 -7.248607e+000 127 122 76
7.222887e-001 -7.721894e-001 -7.243552e+000 87 82 49
7.897783e-001 -7.563426e-001 -7.283996e+000 79 77 38
7.867356e-001 -7.647556e-001 -7.274796e+000 79 77 38
9.514545e-001 -7.419587e-001 -7.338686e+000 113 115 74
8.484570e-001 -7.727953e-001 -7.333125e+000 72 75 50
1.228883e+000 -7.493677e-001 -7.511898e+000 62 70 46
-4.588241e-001 -9.470509e-001 -6.754821e+000 143 133 104
-3.449659e-001 -9.169423e-001 -6.791516e+000 71 60 41
-1.300167e-001 -9.039902e-001 -6.908170e+000 154 141 99
-1.649881e-001 -9.173924e-001 -6.881734e+000 84 70 43
-7.316323e-002 -8.996548e-001 -6.927566e+000 146 137 95
-1.550552e-001 -9.612180e-001 -6.937663e+000 150 137 94
-8.626602e-002 -9.376597e-001 -6.962651e+000 151 140 94
2.252461e-002 -9.172606e-001 -6.978319e+000 86 78 49
1.286910e-002 -9.437678e-001 -7.012601e+000 95 86 54
1.475712e-001 -9.363065e-001 -7.094301e+000 102 91 59
3.541807e-001 -9.004355e-001 -7.144928e+000 90 77 43
6.312130e-001 -8.463980e-001 -7.277335e+000 88 78 41
5.754480e-001 -9.125083e-001 -7.299733e+000 129 122 68
5.754480e-001 -9.125083e-001 -7.299733e+000 129 122 68
7.944310e-001 -8.230425e-001 -7.333867e+000 118 114 73
7.159224e-001 -8.810066e-001 -7.360154e+000 130 123 81
7.327807e-001 -9.065992e-001 -7.384026e+000 86 81 53
8.200850e-001 -8.442660e-001 -7.376147e+000 80 79 48
8.020992e-001 -8.868895e-001 -7.401139e+000 84 81 48
9.067883e-001 -8.702649e-001 -7.449742e+000 109 109 72
9.039240e-001 -8.780222e-001 -7.439421e+000 109 109 72
9.452717e-001 -8.456747e-001 -7.457712e+000 72 75 47
9.416287e-001 -8.567327e-001 -7.438023e+000 72 75 47
9.301757e-001 -8.865487e-001 -7.482782e+000 72 72 46
-5.620395e-001 -1.013461e+000 -6.750400e+000 67 54 46
-2.708447e-001 -9.845381e-001 -6.913238e+000 159 146 113
-1.494155e-001 -1.020554e+000 -7.002954e+000 106 93 59
5.555043e-001 -9.628471e-001 -7.344236e+000 138 127 73
6.755452e-001 -9.773618e-001 -7.465952e+000 115 108 63
8.581445e-001 -9.098443e-001 -7.464186e+000 75 71 44
8.582999e-001 -9.095710e-001 -7.464541e+000 75 71 44
9.316065e-001 -9.708617e-001 -7.569635e+000 105 106 72
9.683688e-001 -9.509990e-001 -7.561479e+000 68 71 48
-8.958016e-001 -1.139832e+000 -6.726345e+000 145 131 92
-5.698954e-001 -1.082831e+000 -6.870415e+000 141 132 103
-2.745766e-001 -1.140986e+000 -7.055509e+000 140 127 88
-1.837299e-001 -1.119611e+000 -7.072494e+000 98 85 53
1.389482e-001 -1.107443e+000 -7.254362e+000 105 94 60
2.016298e-001 -1.086051e+000 -7.266074e+000 97 85 50
5.375312e-001 -1.012389e+000 -7.403965e+000 133 124 78
6.743306e-001 -1.061230e+000 -7.538971e+000 85 79 44
1.031846e+000 -1.022652e+000 -7.667176e+000 94 100 66
1.157996e+000 -1.016701e+000 -7.661748e+000 80 89 60
-6.015529e-001 -1.179526e+000 -6.917332e+000 133 121 90
-5.452261e-001 -1.171935e+000 -6.931104e+000 146 133 101
-5.455724e-001 -1.168058e+000 -6.938668e+000 146 133 101
-3.401401e-001 -1.162208e+000 -7.045547e+000 142 129 95
-4.732430e-003 -1.136019e+000 -7.212533e+000 91 81 46
-5.040486e-003 -1.135840e+000 -7.212574e+000 91 81 46
3.211181e-001 -1.133181e+000 -7.397547e+000 82 73 40
5.590840e-001 -1.119522e+000 -7.480412e+000 129 123 75
5.481903e-001 -1.140428e+000 -7.536093e+000 129 122 69
6.242847e-001 -1.108860e+000 -7.527503e+000 121 114 74
8.266079e-001 -1.081005e+000 -7.634314e+000 107 106 68
7.001797e-001 -1.147950e+000 -7.615456e+000 86 78 49
8.985232e-001 -1.132536e+000 -7.709059e+000 72 72 46
1.167521e+000 -1.064121e+000 -7.801014e+000 59 66 43
-1.135695e+000 -1.285484e+000 -6.734693e+000 139 128 90
-8.254646e-001 -1.304214e+000 -6.932787e+000 125 114 82
-4.948958e-001 -1.247601e+000 -7.036417e+000 132 122 88
-3.492068e-001 -1.245952e+000 -7.137266e+000 103 93 57
5.705293e-002 -1.244534e+000 -7.372771e+000 142 135 93
9.047071e-001 -1.194220e+000 -7.785745e+000 94 98 67
-1.085889e+000 -1.389543e+000 -6.866555e+000 135 123 81
-1.029556e+000 -1.347129e+000 -6.861823e+000 142 130 90
-9.973531e-001 -1.350610e+000 -6.878803e+000 142 129 93
-9.970605e-001 -1.351434e+000 -6.877597e+000 142 129 93
-1.016059e+000 -1.375208e+000 -6.884684e+000 91 82 51
-1.061824e+000 -1.416957e+000 -6.912146e+000 126 118 82
-1.034111e-001 -1.312698e+000 -7.365483e+000 127 119 82
-1.034111e-001 -1.312698e+000 -7.365483e+000 127 119 82
6.972407e-002 -1.344727e+000 -7.477216e+000 133 124 82
5.525285e-001 -1.288013e+000 -7.654363e+000 125 119 75
5.337325e-001 -1.338244e+000 -7.740563e+000 125 117 80
7.985815e-001 -1.301130e+000 -7.856374e+000 99 103 67
-9.591814e-001 -1.464983e+000 -7.032482e+000 117 111 76
-3.725926e-002 -1.402423e+000 -7.480450e+000 88 78 50
6.641362e-002 -1.420078e+000 -7.555760e+000 93 87 53
-1.420297e+000 -1.578838e+000 -6.887998e+000 99 96 65
-2.242015e-001 -1.534270e+000 -7.516540e+000 90 84 52
1.638069e-001 -1.502212e+000 -7.714127e+000 96 85 53
1.686033e-001 -1.502829e+000 -7.727839e+000 96 85 53
4.286349e-001 -1.518677e+000 -7.885897e+000 86 81 49
-2.196781e+000 -8.739989e-001 -7.594761e+000 203 181 135
-1.097974e+000 -1.588222e+000 -7.079288e+000 91 86 54
-9.221025e-001 -1.608041e+000 -7.208408e+000 96 90 58
1.471673e-001 -1.542910e+000 -7.745109e+000 89 82 55
1.442343e-001 -1.542071e+000 -7.744257e+000 89 82 55
4.224093e-001 -2.939270e-001 -6.619579e+000 93 96 64
7.965413e-002 -3.883848e-001 -6.511335e+000 110 101 61
5.548332e-001 -3.099527e-001 -6.714113e+000 128 128 77
6.201462e-001 -3.135617e-001 -6.746466e+000 125 126 83
7.636505e-001 -2.785798e-001 -6.798324e+000 78 83 62
1.697967e+000 -1.112796e-001 -7.321327e+000 96 108 83
-4.406119e-001 -5.241172e-001 -6.361474e+000 63 55 49
-1.718568e-001 -5.219506e-001 -6.528737e+000 123 111 75
1.805550e-001 -4.839335e-001 -6.644142e+000 92 88 61
1.678905e+000 -1.897122e-001 -7.535278e+000 89 97 72
-3.193531e-001 -6.239957e-001 -6.510931e+000 95 90 61
-4.459809e-001 -6.940362e-001 -6.512678e+000 61 54 48
-2.218474e-001 -6.755141e-001 -6.623000e+000 125 115 79
-3.763159e-002 -7.287429e-001 -6.761765e+000 110 96 68
-2.765793e-001 -8.366604e-001 -6.739078e+000 121 110 80
1.606550e-001 -7.949316e-001 -6.960384e+000 128 115 79
1.407095e-001 -8.824771e-001 -6.957216e+000 129 117 77
1.159233e-001 -9.232333e-001 -7.057450e+000 124 115 72
1.178847e-001 -9.151155e-001 -7.071292e+000 124 115 72
2.275846e-001 -8.603934e-001 -7.106582e+000 94 83 54
5.566869e-001 -8.524273e-001 -7.236222e+000 88 78 48
7.506973e-001 -8.541187e-001 -7.352281e+000 77 77 43
-7.450272e-001 -1.091235e+000 -6.726022e+000 152 137 104
-4.553070e-001 -1.011235e+000 -6.831968e+000 85 75 50
-4.146969e-001 -1.105893e+000 -6.969100e+000 96 86 62
3.104956e-002 -1.054031e+000 -7.132330e+000 85 77 56
-8.560352e-001 -1.210954e+000 -6.811527e+000 146 134 93
-8.573664e-001 -1.204473e+000 -6.820885e+000 146 134 93
-7.300266e-001 -1.219092e+000 -6.874595e+000 143 130 89
3.210028e-002 -1.141029e+000 -7.245695e+000 120 112 71
-6.772618e-001 -1.303132e+000 -6.996250e+000 56 47 39
-5.430272e-001 -1.235434e+000 -7.020804e+000 90 81 57
-4.526728e-001 -1.295732e+000 -7.138642e+000 120 108 70
-2.689271e-002 -1.295610e+000 -7.367754e+000 124 116 77
-1.368602e+000 -1.393213e+000 -6.715541e+000 121 110 68
-1.339057e+000 -1.389324e+000 -6.737354e+000 78 73 44
-1.339057e+000 -1.389324e+000 -6.737354e+000 78 73 44
-1.263555e+000 -1.366493e+000 -6.747741e+000 82 72 45
-1.277468e+000 -1.402538e+000 -6.783715e+000 75 68 41
-1.277679e+000 -1.399806e+000 -6.786056e+000 75 68 41
-1.176556e+000 -1.379191e+000 -6.810900e+000 128 120 83
-9.868175e-001 -1.385280e+000 -6.932678e+000 139 127 87
-9.304031e-001 -1.384963e+000 -6.943771e+000 133 123 87
1.492239e-001 -1.306610e+000 -7.529618e+000 127 120 76
2.884986e-001 -1.306569e+000 -7.575759e+000 121 112 71
-1.394165e+000 -1.448330e+000 -6.759652e+000 121 113 76
-1.132481e+000 -1.424650e+000 -6.886965e+000 123 119 75
-5.958284e-001 -1.448210e+000 -7.218133e+000 129 119 84
-5.475943e-001 -1.431515e+000 -7.216480e+000 92 83 52
-8.188508e-002 -1.433805e+000 -7.497928e+000 111 106 66
1.136660e-001 -1.389874e+000 -7.584721e+000 127 120 78
-1.194790e+000 -1.566190e+000 -7.001296e+000 126 119 75
8.519742e-002 -1.459995e+000 -7.617501e+000 126 118 75
8.519742e-002 -1.459995e+000 -7.617501e+000 126 118 75
-1.578367e+000 -1.594659e+000 -6.808635e+000 114 111 73
-1.520336e+000 -1.608312e+000 -6.868813e+000 109 107 69
-6.444535e-001 -1.572989e+000 -7.333256e+000 125 116 80
-3.244834e-001 -1.395262e-001 -6.110204e+000 235 229 226
-3.244834e-001 -1.395262e-001 -6.110204e+000 235 229 226
-2.176526e-001 -2.210791e-001 -6.370091e+000 105 100 69
5.057446e-001 -2.180151e-001 -6.610120e+000 124 127 84
-7.820120e-001 -5.682066e-001 -6.151401e+000 100 108 92
4.364912e-001 -4.082182e-001 -6.824311e+000 148 139 84
4.530466e-001 -6.596967e-001 -6.781835e+000 96 85 53
-9.619891e-001 -7.680322e-001 -6.234016e+000 78 80 71
-2.973946e-001 -6.892061e-001 -6.594430e+000 128 119 78
-3.261561e-001 -7.591850e-001 -6.658004e+000 123 112 80
4.247513e-001 -6.770466e-001 -6.975457e+000 97 91 63
4.247513e-001 -6.770466e-001 -6.975457e+000 97 91 63
1.602302e+000 -7.259383e-001 -7.633689e+000 127 119 108
-4.724283e-001 -1.155516e+000 -6.952314e+000 126 113 79
-1.155655e-001 -1.171280e+000 -7.172936e+000 129 118 73
-1.218827e+000 -1.300952e+000 -6.673752e+000 134 122 78
-5.253712e-001 -1.297427e+000 -7.076741e+000 126 114 76
-8.609374e-001 -1.361114e+000 -6.965966e+000 133 125 88
-8.199006e-001 -1.441816e+000 -7.067269e+000 130 122 83
-1.258510e+000 -1.566214e+000 -6.963108e+000 125 118 72
-1.121898e+000 -1.566907e+000 -7.039936e+000 126 122 75
-1.066679e+000 -1.559430e+000 -7.071369e+000 128 124 83
-1.934291e+000 -1.272708e+000 -7.239347e+000 137 143 89
-1.245115e-001 -2.994712e-001 -6.322179e+000 115 111 72
3.923523e-001 -3.853323e-001 -6.700181e+000 142 135 80
-9.067225e-001 -5.876512e-001 -6.098157e+000 157 148 133
2.794081e-002 -6.992528e-001 -6.770824e+000 161 147 99
4.439705e-001 -6.311907e-001 -6.949535e+000 93 88 50
4.439705e-001 -6.311907e-001 -6.949535e+000 93 88 50
3.390223e-001 -9.176135e-001 -7.163112e+000 98 88 54
3.391292e-001 -9.185970e-001 -7.162170e+000 98 88 54
1.593567e+000 -8.051104e-001 -7.725059e+000 132 126 114
-3.473012e-001 -1.116697e+000 -6.995520e+000 103 90 45
-8.858991e-001 -1.338114e+000 -6.902750e+000 108 100 72
-1.330934e+000 -1.524349e+000 -6.876075e+000 92 86 60
-1.095462e+000 -1.525855e+000 -7.009094e+000 104 99 72
-9.224047e-001 -6.432826e-001 -6.177630e+000 160 146 137
-8.053716e-001 -7.140300e-001 -6.272045e+000 103 106 95
-3.853483e-001 -6.670816e-001 -6.516006e+000 144 134 85
5.388681e-001 -7.806544e-001 -7.167788e+000 106 98 58
-5.226045e-001 -1.061213e+000 -6.824602e+000 154 140 112
2.528208e-001 -9.627313e-001 -7.172577e+000 159 141 80
-5.860859e-001 -1.213846e+000 -6.962589e+000 147 136 100
-6.123486e-001 -1.263872e+000 -7.027523e+000 109 98 68
-7.038086e-001 -1.476406e+000 -7.212491e+000 91 81 42
-7.346753e-001 -1.552301e+000 -7.269942e+000 112 104 71
1.211383e-001 -3.470099e-001 -6.449100e+000 138 129 72
1.836168e+000 -1.722491e-001 -7.333902e+000 171 172 167
-1.501872e+000 -2.509082e-001 -6.413405e+000 176 186 113
-3.432324e-001 -5.570690e-001 -6.461726e+000 149 138 85
1.553958e+000 -7.497678e-001 -7.686370e+000 50 48 43
-6.382590e-001 -1.147484e+000 -6.844126e+000 56 53 48
-6.382590e-001 -1.147484e+000 -6.844126e+000 56 53 48
-6.650134e-001 -1.211847e+000 -6.911295e+000 60 51 44
-6.650134e-001 -1.211847e+000 -6.911295e+000 60 51 44
-2.239013e+000 -3.140911e-001 -7.517710e+000 216 110 114
-6.992112e-001 -1.301723e+000 -6.982455e+000 57 48 39
-6.992112e-001 -1.301723e+000 -6.982455e+000 57 48 39
-3.243922e-001 -2.491642e-001 -6.189183e+000 65 64 56
-9.013027e-001 -6.246665e-001 -6.152018e+000 160 148 136
5.448662e-001 -6.203039e-001 -7.009346e+000 130 118 63
-7.927213e-001 -1.278766e+000 -6.915415e+000 96 85 56
-6.355087e-001 -1.595833e+000 -7.378297e+000 120 110 78
-2.138661e+000 -5.625026e-002 -7.671157e+000 224 206 155
-1.059843e+000 -1.601112e+000 -7.160109e+000 71 68 45
1.907342e-001 -6.819626e-001 -6.845497e+000 129 120 80
1.916794e-001 -6.787829e-001 -6.848481e+000 129 120 80
-1.308682e+000 -1.389724e+000 -6.749832e+000 114 110 73
-7.710361e-001 -9.736151e-001 -6.546031e+000 155 136 94
1.736229e+000 -8.644504e-001 -7.135382e+000 185 188 181
-8.021620e-001 -1.511505e+000 -7.239998e+000 57 53 50
1.750248e+000 -1.290470e+000 -7.714593e+000 190 190 178
-1.538958e-001 -2.961154e-001 -6.308083e+000 137 131 90
-8.165770e-001 -5.026394e-001 -6.073562e+000 81 83 74
-2.489889e-001 -3.654148e-001 -6.312369e+000 143 132 86
7.246064e-001 -2.338013e-001 -6.736658e+000 111 117 81
1.144242e+000 -1.916241e-001 -6.939547e+000 98 108 84
1.210811e+000 -1.658101e-001 -6.970450e+000 100 112 87
-1.109347e+000 -5.989319e-001 -6.020169e+000 84 86 75
-1.244137e+000 -8.485986e-001 -5.831805e+000 74 77 66
-1.152451e+000 -7.068608e-001 -6.029572e+000 156 144 130
-9.255282e-001 -6.133220e-001 -6.123636e+000 95 87 78
-1.268148e-001 -4.996227e-001 -6.505438e+000 150 138 93
-1.213328e+000 -7.285500e-001 -6.082513e+000 81 83 70
-1.213328e+000 -7.285500e-001 -6.082513e+000 81 83 70
-9.564900e-001 -6.991677e-001 -6.181110e+000 78 72 59
-8.113037e-001 -6.847519e-001 -6.230246e+000 76 79 68
-2.714478e-001 -6.473550e-001 -6.570484e+000 147 137 98
1.365513e+000 -4.664031e-001 -7.333327e+000 92 102 78
-3.654170e-001 -7.455339e-001 -6.617699e+000 85 78 52
-2.070368e-001 -7.363877e-001 -6.684692e+000 159 146 107
8.160746e-002 -6.883191e-001 -6.816229e+000 155 146 107
-9.861593e-001 -8.832521e-001 -6.342156e+000 107 109 98
-5.616625e-001 -8.594546e-001 -6.617097e+000 57 44 34
-3.409814e-001 -8.434068e-001 -6.713303e+000 152 144 108
1.120021e+000 -6.280881e-001 -7.329774e+000 91 101 69
-4.717045e-001 -9.098491e-001 -6.714926e+000 94 84 59
-2.251960e-001 -8.603867e-001 -6.807201e+000 155 142 107
-3.756827e-001 -9.314784e-001 -6.798532e+000 155 144 112
-1.787000e-001 -9.630367e-001 -6.926698e+000 147 134 91
3.523514e-002 -9.744900e-001 -7.060156e+000 149 136 92
-1.021950e-001 -1.039275e+000 -7.052773e+000 83 72 43
9.229615e-001 -9.924324e-001 -7.586940e+000 106 109 77
1.062437e+000 -9.571187e-001 -7.622088e+000 89 96 63
-5.224416e-001 -1.111924e+000 -6.896524e+000 154 142 108
-8.841545e-001 -1.281039e+000 -6.868319e+000 140 126 89
-1.001386e-001 -1.179645e+000 -7.201383e+000 144 135 93
-6.295619e-002 -1.220971e+000 -7.271354e+000 135 130 93
1.184807e+000 -1.113308e+000 -7.852187e+000 83 89 63
-1.387674e+000 -1.390443e+000 -6.698354e+000 90 76 49
-8.976893e-001 -1.384454e+000 -6.961587e+000 85 78 48
-7.957732e-001 -1.336638e+000 -6.959219e+000 100 88 61
-8.399441e-001 -1.338913e+000 -6.958203e+000 136 129 85
-3.558748e-001 -1.292122e+000 -7.179918e+000 77 66 34
-3.096172e-001 -1.304664e+000 -7.221557e+000 140 129 85
-3.096172e-001 -1.304664e+000 -7.221557e+000 140 129 85
-1.506764e+000 -1.487346e+000 -6.739331e+000 86 76 48
-9.556488e-001 -1.391676e+000 -6.941557e+000 139 125 87
-1.590327e+000 -1.534571e+000 -6.745315e+000 119 117 78
-7.131354e-001 -1.505626e+000 -7.214673e+000 69 64 34
6.697738e-001 -1.452546e+000 -7.960269e+000 105 102 69
1.356847e+000 -1.339870e+000 -8.436193e+000 85 75 64
1.040474e+000 -1.498807e+000 -8.215598e+000 83 85 64
-1.721213e+000 -1.679328e+000 -6.859536e+000 119 112 83
-9.826413e-001 -5.741375e-001 -6.061574e+000 96 88 79
-2.390464e-001 -4.562020e-001 -6.398402e+000 145 135 84
8.380433e-001 -3.456267e-001 -6.906342e+000 114 118 84
1.242253e+000 -2.653951e-001 -7.059121e+000 96 106 78
1.242253e+000 -2.653951e-001 -7.059121e+000 96 106 78
1.381590e+000 -2.310211e-001 -7.111065e+000 96 106 82
1.359786e+000 -3.010958e-001 -7.163592e+000 95 105 79
-1.257537e+000 -6.893687e-001 -6.019795e+000 81 84 73
-9.387152e-001 -6.465744e-001 -6.137983e+000 161 145 137
-2.558779e-001 -5.117075e-001 -6.428904e+000 144 132 88
-9.070010e-002 -4.790145e-001 -6.504814e+000 149 139 91
-5.077440e-002 -5.290825e-001 -6.563511e+000 150 140 95
8.139775e-001 -4.218664e-001 -6.942441e+000 120 121 82
1.554459e+000 -2.879755e-001 -7.259223e+000 91 103 81
1.558315e+000 -2.791347e-001 -7.272978e+000 91 103 81
1.585647e+000 -2.855057e-001 -7.308170e+000 62 74 54
1.585647e+000 -2.855057e-001 -7.308170e+000 62 74 54
1.542481e+000 -3.201979e-001 -7.321283e+000 84 94 70
-1.185669e+000 -7.760974e-001 -6.145974e+000 75 82 71
-8.830958e-002 -6.360354e-001 -6.658704e+000 159 144 104
-8.793741e-002 -6.366058e-001 -6.656375e+000 159 144 104
1.239629e+000 -4.581304e-001 -7.245336e+000 87 98 69
1.382023e+000 -4.193704e-001 -7.278635e+000 83 93 69
1.394294e+000 -4.640404e-001 -7.343095e+000 66 75 54
-1.233072e+000 -7.977247e-001 -6.150831e+000 78 78 70
-1.036269e+000 -8.044898e-001 -6.236125e+000 152 140 132
-1.018542e+000 -7.903944e-001 -6.223180e+000 77 78 70
-4.274999e-001 -7.109986e-001 -6.545348e+000 144 137 95
-3.674774e-001 -6.956406e-001 -6.567143e+000 146 133 92
-9.251775e-002 -7.182753e-001 -6.731153e+000 78 64 37
9.953613e-001 -6.249884e-001 -7.226379e+000 105 112 78
9.990673e-001 -6.146041e-001 -7.243709e+000 105 112 78
1.146321e+000 -5.504320e-001 -7.255164e+000 92 101 74
1.217878e+000 -5.237992e-001 -7.302215e+000 88 98 71
1.197140e+000 -5.848736e-001 -7.341259e+000 90 99 70
1.356099e+000 -4.963082e-001 -7.357689e+000 88 98 74
7.287386e-001 -6.610011e-001 -7.141289e+000 129 123 74
7.188734e-001 -6.938488e-001 -7.160347e+000 139 131 84
8.675808e-001 -7.063774e-001 -7.260584e+000 81 79 56
-6.705793e-002 -8.829573e-001 -6.915402e+000 153 139 95
9.258410e-002 -8.168751e-001 -6.914787e+000 153 140 85
2.258856e-001 -8.012904e-001 -6.991518e+000 153 141 81
8.600360e-001 -7.449026e-001 -7.288488e+000 64 62 39
1.111907e+000 -7.323779e-001 -7.432429e+000 65 70 48
1.004235e+000 -7.702563e-001 -7.442533e+000 99 99 71
1.028060e+000 -7.944708e-001 -7.445831e+000 60 64 37
-5.461147e-001 -9.791215e-001 -6.736754e+000 56 46 34
-3.539759e-001 -9.490087e-001 -6.811945e+000 93 83 66
-3.542573e-001 -9.493917e-001 -6.811316e+000 93 83 66
-1.958522e-001 -9.299446e-001 -6.889142e+000 151 138 106
8.855893e-002 -9.056530e-001 -7.017711e+000 91 82 54
1.645679e-001 -9.650300e-001 -7.126673e+000 146 134 82
6.820123e-001 -8.693946e-001 -7.314891e+000 88 81 53
7.124545e-001 -8.878085e-001 -7.355329e+000 122 118 72
8.425123e-001 -8.708822e-001 -7.419536e+000 112 109 70
8.922948e-001 -9.064985e-001 -7.482118e+000 109 110 73
-8.202138e-001 -1.124595e+000 -6.739588e+000 144 131 98
2.838126e-001 -1.004317e+000 -7.236112e+000 81 76 39
3.229025e-001 -1.053210e+000 -7.296553e+000 142 134 83
3.391920e-001 -1.004193e+000 -7.275243e+000 142 130 75
5.887120e-001 -9.616797e-001 -7.361581e+000 71 63 40
6.832101e-001 -9.612618e-001 -7.437165e+000 127 120 74
7.830435e-001 -9.436036e-001 -7.459682e+000 71 68 39
9.514697e-001 -9.124037e-001 -7.531715e+000 95 99 64
9.500434e-001 -9.160601e-001 -7.521601e+000 95 99 64
-6.510421e-001 -9.250534e-001 -7.144289e+000 55 45 43
-5.412270e-001 -1.159814e+000 -6.939192e+000 152 142 107
1.728009e-001 -1.089307e+000 -7.274742e+000 145 136 82
6.991746e-001 -1.079859e+000 -7.568559e+000 126 120 67
6.996035e-001 -1.078519e+000 -7.570769e+000 126 120 67
7.706828e-001 -1.061495e+000 -7.561537e+000 115 109 73
1.051591e+000 -1.061459e+000 -7.743884e+000 62 67 46
-3.150504e-001 -1.238452e+000 -7.150527e+000 148 140 95
2.823806e-001 -1.230771e+000 -7.472081e+000 82 76 44
7.871866e-001 -1.180269e+000 -7.706833e+000 105 102 71
1.100678e+000 -1.101153e+000 -7.813353e+000 54 59 38
1.100678e+000 -1.101153e+000 -7.813353e+000 54 59 38
1.169426e+000 -1.160601e+000 -7.918036e+000 79 84 62
1.200789e+000 -1.151629e+000 -7.927983e+000 58 63 43
-6.707308e-001 -1.353604e+000 -7.069952e+000 144 129 93
-6.210614e-001 -1.286082e+000 -7.018974e+000 62 56 32
-6.210614e-001 -1.286082e+000 -7.018974e+000 62 56 32
-2.968480e-001 -1.332464e+000 -7.256614e+000 141 134 88
-2.964751e-001 -1.331077e+000 -7.257107e+000 141 134 88
1.884258e-001 -1.321499e+000 -7.517841e+000 94 84 57
3.975941e-001 -1.289849e+000 -7.616263e+000 85 76 47
4.904712e-001 -1.291452e+000 -7.655746e+000 130 123 76
6.635896e-001 -1.262350e+000 -7.734206e+000 71 66 37
8.325864e-001 -1.225042e+000 -7.795919e+000 98 99 65
7.834770e-001 -1.264878e+000 -7.791141e+000 68 67 37
1.114445e+000 -1.207991e+000 -7.949151e+000 61 64 42
1.094685e+000 -1.269474e+000 -7.931721e+000 56 60 39
-1.004736e+000 -1.437839e+000 -6.965671e+000 127 122 83
-8.150966e-001 -1.384061e+000 -7.016903e+000 64 58 31
-4.397266e-001 -1.409016e+000 -7.264323e+000 139 129 80
-4.398290e-001 -1.409010e+000 -7.264310e+000 139 129 80
1.763335e-001 -1.341743e+000 -7.556760e+000 90 81 52
1.763335e-001 -1.341743e+000 -7.556760e+000 90 81 52
5.107243e-001 -1.395139e+000 -7.799644e+000 128 122 81
7.974731e-001 -1.311755e+000 -7.815570e+000 109 111 74
8.656204e-001 -1.296301e+000 -7.886473e+000 96 96 68
8.914262e-001 -1.314836e+000 -7.928269e+000 73 73 47
8.914262e-001 -1.314836e+000 -7.928269e+000 73 73 47
8.363255e-001 -1.364647e+000 -7.926389e+000 94 97 66
9.033471e-001 -1.354388e+000 -7.995584e+000 95 99 66
-1.066958e+000 -1.539721e+000 -7.033859e+000 91 85 58
-9.569838e-001 -1.469676e+000 -7.031467e+000 128 124 81
7.123238e-003 -1.503885e+000 -7.632340e+000 138 127 88
1.527604e-001 -1.475813e+000 -7.672429e+000 145 135 92
2.647144e-001 -1.456040e+000 -7.709956e+000 80 74 43
5.977712e-001 -1.422687e+000 -7.864584e+000 81 76 46
8.985313e-001 -1.452278e+000 -8.086638e+000 62 61 41
-4.985629e-001 -1.554711e+000 -7.389537e+000 142 134 87
-4.311403e-001 -1.587301e+000 -7.467562e+000 147 135 87
-4.311403e-001 -1.587301e+000 -7.467562e+000 147 135 87
1.008209e-001 -1.532278e+000 -7.713766e+000 82 76 48
1.001615e-001 -1.532576e+000 -7.712270e+000 82 76 48
1.344314e-001 -1.518902e+000 -7.716210e+000 139 136 85
3.104281e-001 -1.501267e+000 -7.812480e+000 71 63 39
5.799341e-001 -1.531917e+000 -7.990638e+000 114 108 76
8.419810e-001 -1.512682e+000 -8.061844e+000 99 100 72
-1.051229e+000 -4.910379e-001 -5.946981e+000 82 83 76
-8.870849e-001 -4.683828e-001 -6.007605e+000 78 78 78
-3.179578e-001 -4.043936e-001 -6.312394e+000 143 134 79
9.860756e-001 -1.688161e-001 -6.858006e+000 73 82 61
9.828640e-001 -1.811515e-001 -6.844097e+000 73 82 61
1.087837e+000 -2.383494e-001 -6.946569e+000 71 80 61
1.247818e+000 -1.550127e-001 -6.998547e+000 68 78 58
-8.841096e-001 -5.140689e-001 -6.045388e+000 79 82 71
-1.067622e-001 -4.501120e-001 -6.467136e+000 101 95 61
-1.195370e+000 -6.386105e-001 -6.013145e+000 78 80 70
-1.065518e+000 -6.457997e-001 -6.074540e+000 137 139 127
-8.585088e-001 -6.064608e-001 -6.136552e+000 156 148 139
-2.849569e-001 -5.236061e-001 -6.426371e+000 104 92 57
-3.798817e-002 -4.912034e-001 -6.549466e+000 145 136 92
4.076732e-001 -4.573016e-001 -6.746722e+000 153 140 87
8.505622e-001 -4.070815e-001 -6.977720e+000 70 73 46
8.841212e-001 -3.965598e-001 -6.978688e+000 114 118 82
-1.284606e+000 -7.656959e-001 -6.079928e+000 72 75 66
-1.284606e+000 -7.656959e-001 -6.079928e+000 72 75 66
-1.653074e-001 -6.140907e-001 -6.584499e+000 101 90 68
-1.785000e-001 -6.616643e-001 -6.612417e+000 99 92 64
1.668219e-001 -6.043121e-001 -6.761046e+000 162 146 89
1.668219e-001 -6.043121e-001 -6.761046e+000 162 146 89
8.577157e-001 -4.751145e-001 -7.031234e+000 111 115 77
9.314717e-001 -5.342710e-001 -7.138112e+000 75 77 52
1.272228e+000 -4.661733e-001 -7.287091e+000 65 74 52
-1.111655e+000 -8.151397e-001 -6.212932e+000 152 140 128
-1.371139e-001 -6.884008e-001 -6.676527e+000 96 85 54
2.390410e-001 -6.775102e-001 -6.868717e+000 103 94 65
-1.197510e-001 -7.879517e-001 -6.797073e+000 94 83 55
7.574506e-001 -6.660857e-001 -7.160929e+000 82 82 48
8.879731e-001 -6.581028e-001 -7.218888e+000 65 67 42
9.344551e-001 -7.105709e-001 -7.294617e+000 70 72 39
1.470830e+000 -6.060538e-001 -7.533277e+000 60 68 46
1.469780e+000 -6.077684e-001 -7.531631e+000 60 68 46
4.275594e-002 -8.594206e-001 -6.947175e+000 97 91 70
8.967360e-001 -8.056916e-001 -7.373449e+000 68 68 44
1.056689e+000 -7.245712e-001 -7.410361e+000 65 68 47
-4.480780e-001 -9.966470e-001 -6.803915e+000 97 87 63
-2.424935e-001 -9.765224e-001 -6.898824e+000 105 91 65
-5.535869e-002 -9.265831e-001 -6.963597e+000 104 93 62
5.388011e-001 -9.268522e-001 -7.286624e+000 84 77 58
1.123020e+000 -8.679524e-001 -7.586849e+000 63 69 46
