ply
format ascii 1.0
element face 0
property list uchar int vertex_indices
element vertex 876
property float x
property float y
property float z
property uchar diffuse_red
property uchar diffuse_green
property uchar diffuse_blue
end_header
-2.304222e+001 1.984190e+000 -4.957975e+001 60 44 89
-2.401777e+001 1.533980e+000 -4.860293e+001 133 164 219
-2.401777e+001 1.533980e+000 -4.860293e+001 133 164 219
-3.208703e-001 -2.649115e-001 -6.008427e+000 56 49 43
-2.430758e+001 5.087529e-001 -4.720530e+001 245 49 95
-2.054464e+001 -3.085245e-001 -4.686631e+001 254 204 99
-2.054464e+001 -3.085245e-001 -4.686631e+001 254 204 99
-1.880582e+001 -7.030109e-001 -4.727857e+001 246 55 91
-1.880582e+001 -7.030109e-001 -4.727857e+001 246 55 91
-1.937737e+001 1.790594e-001 -4.578566e+001 71 38 83
-2.376254e+001 2.297242e+000 -4.931427e+001 142 204 252
-2.376254e+001 2.297242e+000 -4.931427e+001 142 204 252
-1.094503e+000 9.720916e-001 -6.733162e+000 159 72 72
6.377768e-001 1.273890e+000 -8.099728e+000 102 96 84
9.980482e-001 1.105472e+000 -8.061081e+000 154 153 148
1.343743e-001 2.135725e-001 -6.591154e+000 72 86 70
3.464718e-001 9.771134e-002 -6.557055e+000 179 163 113
4.458202e-001 5.962211e-002 -6.548675e+000 144 95 75
7.320806e-001 1.226015e-001 -6.756662e+000 141 86 66
-8.849477e-001 1.030177e+000 -6.896420e+000 198 199 192
6.954372e-001 1.419456e+000 -8.280790e+000 128 122 110
9.388230e-001 9.282165e-001 -7.803592e+000 87 83 82
1.114576e+000 1.040239e+000 -8.049180e+000 92 92 89
1.807528e+000 5.743733e-002 -7.180567e+000 175 182 169
1.807528e+000 5.743733e-002 -7.180567e+000 175 182 169
9.683488e-001 -2.377916e-001 -6.722801e+000 65 65 39
1.147154e+000 -6.521575e-001 -7.221109e+000 94 93 65
-1.030852e+000 8.250786e-001 -6.598761e+000 202 189 191
9.289259e-001 1.170839e+000 -8.088106e+000 107 106 103
1.970720e-001 1.080670e-001 -6.515159e+000 69 83 61
7.546471e-001 -2.467534e-001 -6.614867e+000 105 101 63
7.324953e-001 -3.145491e-001 -6.687217e+000 107 101 65
9.086995e-001 -4.244545e-001 -6.863856e+000 76 71 46
5.404909e-001 -1.061438e+000 -7.287271e+000 86 74 48
-1.058853e+000 -1.358045e+000 -6.691584e+000 125 109 83
-1.465778e+000 -1.682040e+000 -6.845664e+000 109 98 70
-2.230976e+000 2.116799e+000 -7.698309e+000 181 173 137
-2.245198e-001 1.815209e+000 -8.354989e+000 132 90 74
-2.346669e+000 -6.969894e-002 -7.429157e+000 195 93 113
-1.023217e+000 7.521393e-001 -6.514914e+000 166 63 67
7.698301e-001 1.201966e+000 -8.089249e+000 101 98 93
1.293325e-001 -3.943186e-001 -6.400385e+000 101 87 58
-1.112413e+000 8.642860e-001 -6.655261e+000 171 66 70
6.579839e-001 2.906187e-001 -6.877834e+000 171 151 102
6.579839e-001 2.906187e-001 -6.877834e+000 171 151 102
-2.209980e+001 5.200370e+000 -5.177816e+001 240 60 99
-3.782845e-001 -6.915942e-001 -6.437932e+000 127 109 73
-1.011515e+000 -7.739036e-001 -6.095383e+000 70 65 59
3.230312e-001 -1.017324e+000 -7.123239e+000 143 122 77
-1.927661e+001 -3.784248e+000 -4.341634e+001 87 65 137
-1.657639e+001 -5.000811e+000 -4.268924e+001 230 42 80
-2.531117e+001 2.084225e+000 -4.780140e+001 246 42 93
-2.025858e+001 -2.052590e+000 -4.627521e+001 229 159 79
-5.868964e-001 6.112285e-001 -6.598673e+000 147 120 78
-1.853927e+001 -1.916811e+000 -4.712159e+001 243 50 85
-1.853927e+001 -1.916811e+000 -4.712159e+001 243 50 85
-1.972980e+001 -2.258685e+000 -4.650661e+001 67 37 65
-2.070237e+001 -1.114083e+000 -4.626340e+001 70 40 66
-9.554178e-002 -2.234196e-001 -6.132311e+000 112 99 54
-2.234500e+001 -2.001372e+000 -4.481386e+001 246 49 95
-1.945444e+001 -1.117113e+000 -4.619090e+001 253 204 91
-2.229581e+001 1.540017e+000 -5.130051e+001 59 39 75
-2.529606e+000 2.249943e+000 -7.761400e+000 147 144 99
-2.288647e+000 2.020647e+000 -7.593496e+000 175 172 137
-2.127341e+000 1.882261e+000 -7.466069e+000 185 177 139
-1.665862e+000 1.837424e+000 -7.581187e+000 172 137 111
-1.307848e+000 1.462041e+000 -7.240701e+000 131 68 69
2.076486e-001 1.690360e+000 -8.389825e+000 174 166 127
1.944674e-001 1.452915e+000 -8.093717e+000 190 181 141
6.148350e-001 1.607335e+000 -8.529663e+000 187 172 134
4.059536e-001 1.427259e+000 -8.170930e+000 172 154 107
5.976788e-001 1.299634e+000 -8.077003e+000 158 154 127
8.213263e-001 1.399808e+000 -8.343293e+000 113 108 102
9.219912e-001 1.413495e+000 -8.434019e+000 77 88 73
8.221404e-001 1.179290e+000 -8.057572e+000 101 94 89
8.043589e-001 1.101746e+000 -7.958507e+000 163 160 148
-9.280973e-001 9.249748e-001 -6.734901e+000 165 76 77
8.516878e-001 1.052017e+000 -7.902034e+000 94 90 84
-7.014128e-001 7.480664e-001 -6.625921e+000 155 73 63
-1.810179e-001 8.083627e-001 -7.156854e+000 82 75 57
-1.178104e-001 8.379089e-001 -7.223351e+000 200 188 168
-8.608473e-002 7.784314e-001 -7.167449e+000 179 166 143
-1.219310e-001 7.419543e-001 -7.111129e+000 186 174 152
-4.985202e-002 7.724140e-001 -7.190172e+000 79 77 62
-1.552747e-003 7.059361e-001 -7.111232e+000 196 186 158
-1.336861e-001 6.301786e-001 -6.969809e+000 83 78 64
-1.337956e-001 6.303339e-001 -6.969845e+000 83 78 64
6.606079e-002 6.069821e-001 -7.025167e+000 91 77 58
6.606079e-002 6.069821e-001 -7.025167e+000 91 77 58
8.184371e-001 6.476876e-001 -7.401732e+000 163 149 98
1.168032e+000 7.305806e-001 -7.678987e+000 154 162 140
1.066947e+000 6.006837e-001 -7.463448e+000 102 114 75
5.999601e-002 4.067117e-001 -6.776720e+000 173 158 118
5.959918e-002 4.067582e-001 -6.781643e+000 173 158 118
5.729907e-001 4.080862e-001 -7.009397e+000 170 162 90
6.027605e-001 4.792772e-001 -7.104648e+000 143 99 70
6.027605e-001 4.792772e-001 -7.104648e+000 143 99 70
1.892234e-001 3.260470e-001 -6.739047e+000 72 77 62
4.605460e-001 3.109041e-001 -6.845014e+000 139 103 64
4.605460e-001 3.109041e-001 -6.845014e+000 139 103 64
4.935200e-001 2.499978e-001 -6.785830e+000 131 100 53
6.024780e-001 3.926439e-001 -7.009044e+000 180 163 102
6.809879e-001 3.017809e-001 -6.931587e+000 175 166 106
6.692617e-001 2.765055e-001 -6.902783e+000 139 94 64
1.608172e+000 3.572726e-001 -7.452059e+000 106 120 94
1.659241e+000 2.820601e-001 -7.385966e+000 105 119 93
2.021402e-001 1.485139e-001 -6.542195e+000 177 162 108
2.021402e-001 1.485139e-001 -6.542195e+000 177 162 108
4.532224e-001 1.866029e-001 -6.702544e+000 180 161 102
5.108446e-001 1.705360e-001 -6.691456e+000 181 169 106
5.381236e-001 1.707480e-001 -6.718735e+000 126 82 51
7.575120e-001 1.783786e-001 -6.828927e+000 145 84 70
7.575120e-001 1.783786e-001 -6.828927e+000 145 84 70
1.692020e+000 2.688545e-001 -7.381482e+000 159 173 148
4.458202e-001 5.962211e-002 -6.548675e+000 144 95 75
1.716380e+000 6.707629e-002 -7.172713e+000 174 182 169
1.805745e+000 -2.621445e-001 -7.246961e+000 56 57 40
1.040460e+000 -3.381393e-001 -6.853100e+000 93 94 66
9.589659e-001 -5.880098e-001 -7.052674e+000 108 103 71
1.005009e+000 -4.550750e-001 -6.956556e+000 99 97 66
1.005009e+000 -4.550750e-001 -6.956556e+000 99 97 66
1.233101e+000 -5.995033e-001 -7.213053e+000 87 88 65
-1.165812e+000 -5.711510e-001 -5.805896e+000 74 66 57
-7.610071e-002 -5.635654e-001 -6.472652e+000 127 112 77
-7.610071e-002 -5.635654e-001 -6.472652e+000 127 112 77
3.432555e-001 -7.234292e-001 -6.865858e+000 136 118 80
9.776152e-001 -7.119621e-001 -7.149540e+000 114 106 73
1.052790e+000 -6.331096e-001 -7.149716e+000 66 62 34
-1.248872e+000 -7.188942e-001 -5.890057e+000 76 67 60
-9.909812e-002 -7.936738e-001 -6.661034e+000 139 122 92
1.145774e+000 -8.723081e-001 -7.480690e+000 94 91 64
-4.374399e-001 -9.418587e-001 -6.646327e+000 140 124 99
-3.685383e-001 -9.015229e-001 -6.611032e+000 136 120 97
-2.170106e-001 -9.470141e-001 -6.760739e+000 135 118 90
-2.170106e-001 -9.470141e-001 -6.760739e+000 135 118 90
9.681248e-002 -9.945441e-001 -6.967777e+000 138 122 86
9.681248e-002 -9.945441e-001 -6.967777e+000 138 122 86
6.104235e-001 -1.070117e+000 -7.343181e+000 78 66 40
1.200697e+000 -1.004128e+000 -7.639743e+000 65 63 38
-2.183968e-001 -1.111448e+000 -6.915394e+000 131 115 81
6.189079e-002 -1.095527e+000 -7.094194e+000 137 121 89
4.126206e-002 -1.142208e+000 -7.113505e+000 126 112 77
1.989453e-001 -1.186592e+000 -7.227540e+000 87 71 46
1.989453e-001 -1.186592e+000 -7.227540e+000 87 71 46
6.244153e-001 -1.212094e+000 -7.530078e+000 79 65 38
6.244153e-001 -1.212094e+000 -7.530078e+000 79 65 38
-6.391327e-001 -1.255649e+000 -6.820528e+000 57 47 38
-5.253345e-001 -1.248191e+000 -6.899506e+000 82 67 44
-7.830920e-003 -1.269122e+000 -7.240989e+000 115 101 72
1.533266e-001 -1.304593e+000 -7.338357e+000 92 76 51
1.916223e-001 -1.358061e+000 -7.408696e+000 88 72 46
1.916223e-001 -1.358061e+000 -7.408696e+000 88 72 46
5.298935e-001 -1.269099e+000 -7.507727e+000 88 74 50
4.976819e-001 -1.347111e+000 -7.546474e+000 95 81 54
8.836263e-001 -1.417783e+000 -7.881484e+000 74 65 42
-1.293700e+000 -1.588731e+000 -6.834867e+000 114 98 72
2.276080e+000 -1.692553e+000 -6.829914e+000 187 180 172
-2.268063e+000 1.979850e+000 -7.544913e+000 180 174 137
-1.585841e+000 2.271438e+000 -8.325247e+000 241 216 207
-1.568278e+000 2.229451e+000 -8.296286e+000 162 150 104
-2.253334e+000 1.878365e+000 -7.431907e+000 138 139 102
-2.191548e+000 1.852353e+000 -7.419369e+000 187 178 135
-1.944521e+000 1.954157e+000 -7.605926e+000 180 177 145
-1.952536e+000 1.962940e+000 -7.646332e+000 180 177 145
-7.532638e-001 2.202694e+000 -8.640799e+000 188 170 134
3.047411e-002 2.217268e+000 -9.048695e+000 166 133 122
-1.219433e+000 1.505599e+000 -7.348615e+000 194 189 186
-1.219331e+000 1.505726e+000 -7.348295e+000 194 189 186
2.218117e-001 1.859274e+000 -8.583787e+000 144 103 83
2.207132e-001 1.874231e+000 -8.662236e+000 144 103 83
6.672077e-001 1.842134e+000 -8.805411e+000 83 81 79
-1.225034e+000 1.315114e+000 -7.092128e+000 146 67 73
-1.221446e+000 1.170661e+000 -6.919619e+000 208 193 201
6.882614e-001 1.360067e+000 -8.224439e+000 165 155 119
6.547492e-001 1.317555e+000 -8.158262e+000 161 153 117
9.215854e-001 1.333163e+000 -8.313599e+000 139 138 127
9.990618e-001 1.331799e+000 -8.338904e+000 151 134 92
-1.002158e+000 1.060639e+000 -6.886994e+000 160 66 68
-1.004133e+000 1.061464e+000 -6.890432e+000 160 66 68
-1.093119e+000 9.713863e-001 -6.725563e+000 159 72 72
-1.050608e+000 9.497370e-001 -6.737650e+000 200 190 186
6.373404e-001 1.273640e+000 -8.092756e+000 102 96 84
6.445725e-001 1.122696e+000 -7.924519e+000 171 170 137
-6.470795e-001 7.999907e-001 -6.712034e+000 206 183 128
8.641013e-001 9.763870e-001 -7.835270e+000 88 82 81
1.167039e+000 1.089026e+000 -8.145527e+000 155 162 151
-7.888563e-002 7.081224e-001 -7.077933e+000 82 85 71
-6.150329e-002 7.400276e-001 -7.126198e+000 190 179 156
-6.150329e-002 7.400276e-001 -7.126198e+000 190 179 156
5.355881e-002 6.373689e-001 -7.049201e+000 196 186 156
5.284791e-002 6.372678e-001 -7.036758e+000 196 186 156
5.043642e-001 5.613563e-001 -7.173277e+000 188 163 105
8.622119e-001 6.828785e-001 -7.488637e+000 179 175 145
1.017132e+000 5.757400e-001 -7.404770e+000 148 149 91
1.826616e-002 5.137219e-001 -6.890138e+000 193 181 144
1.324320e-001 4.338594e-001 -6.852821e+000 80 71 54
1.202338e-001 4.026144e-001 -6.817793e+000 177 163 125
1.202338e-001 4.026144e-001 -6.817793e+000 177 163 125
2.755845e-001 5.401357e-001 -7.040451e+000 189 172 118
2.712729e-001 5.034735e-001 -7.012343e+000 146 97 69
5.226504e-001 4.649440e-001 -7.064534e+000 148 101 74
9.419906e-001 4.304350e-001 -7.225971e+000 186 179 151
1.500558e+000 4.635183e-001 -7.522747e+000 155 170 146
1.074554e-001 2.445992e-001 -6.615066e+000 177 162 116
1.509326e-001 3.418601e-001 -6.741310e+000 185 171 123
1.809757e-001 2.888547e-001 -6.690550e+000 181 168 126
3.872714e-001 3.406098e-001 -6.841637e+000 191 170 117
3.872714e-001 3.406098e-001 -6.841637e+000 191 170 117
5.739771e-001 3.753615e-001 -6.981182e+000 139 96 68
5.739771e-001 3.753615e-001 -6.981182e+000 139 96 68
1.668434e+000 3.161032e-001 -7.419922e+000 145 159 134
-2.492042e+000 1.903897e-001 -7.687457e+000 183 78 92
2.663032e-001 1.773700e-001 -6.602970e+000 72 81 71
4.095097e-001 2.449498e-001 -6.749020e+000 149 100 72
4.827605e-001 2.236533e-001 -6.760064e+000 177 170 102
4.834602e-001 2.237529e-001 -6.752071e+000 177 170 102
7.352060e-001 2.261945e-001 -6.892688e+000 145 95 70
3.900484e-001 6.769362e-002 -6.517483e+000 72 76 68
3.900266e-001 6.807965e-002 -6.513593e+000 72 76 68
4.204581e-001 7.991453e-002 -6.567530e+000 177 163 96
8.067601e-001 7.436939e-002 -6.735666e+000 141 99 66
-1.730793e-001 -2.594869e-001 -6.123140e+000 72 63 34
5.605177e-001 -2.547880e-001 -6.532517e+000 107 102 59
7.546471e-001 -2.467534e-001 -6.614867e+000 105 101 63
9.136464e-001 -1.845996e-001 -6.644551e+000 65 65 39
9.136315e-001 -1.851789e-001 -6.652209e+000 65 65 39
9.570866e-001 -2.838079e-001 -6.768355e+000 63 62 39
9.880849e-001 -1.849867e-001 -6.709601e+000 64 64 40
9.683488e-001 -2.377916e-001 -6.722801e+000 65 65 39
1.084356e+000 -3.059804e-001 -6.848846e+000 65 64 44
1.272514e+000 -2.966166e-001 -6.991055e+000 86 89 64
1.442122e+000 -3.108136e-001 -7.096447e+000 58 61 41
-1.900089e-001 -2.974726e-001 -6.134452e+000 73 62 40
4.112077e-001 -4.232660e-001 -6.593692e+000 87 77 49
8.980813e-001 -3.557766e-001 -6.804692e+000 99 96 63
8.504270e-001 -4.101927e-001 -6.827486e+000 64 60 31
9.475498e-001 -3.912304e-001 -6.827764e+000 95 95 61
9.747452e-001 -4.248611e-001 -6.884946e+000 64 59 34
9.837155e-001 -3.093897e-001 -6.817940e+000 96 95 64
1.014230e+000 -4.089453e-001 -6.893344e+000 96 97 64
1.014230e+000 -4.089453e-001 -6.893344e+000 96 97 64
1.155104e+000 -3.502294e-001 -7.006986e+000 58 59 40
1.211823e+000 -3.838707e-001 -7.060979e+000 63 61 41
1.429018e+000 -4.343920e-001 -7.184477e+000 83 85 63
-8.759438e-001 -4.873186e-001 -5.900806e+000 72 69 60
-8.329359e-001 -5.092395e-001 -5.938014e+000 73 68 57
-2.749031e-003 -4.277405e-001 -6.361069e+000 82 67 35
-9.977534e-002 -5.423205e-001 -6.413870e+000 85 69 42
2.212181e-002 -4.503914e-001 -6.433206e+000 120 106 69
2.212181e-002 -4.503914e-001 -6.433206e+000 120 106 69
8.212948e-001 -5.974234e-001 -7.010928e+000 117 108 63
8.508201e-001 -5.942482e-001 -6.999805e+000 76 65 51
8.587034e-001 -4.862945e-001 -6.932263e+000 109 106 65
9.690041e-001 -4.585588e-001 -6.930853e+000 68 66 41
1.025609e+000 -6.083267e-001 -7.130127e+000 98 98 64
1.136048e+000 -5.823479e-001 -7.156693e+000 62 61 40
-1.083450e+000 -5.328342e-001 -5.814039e+000 76 69 63
-1.102199e+000 -6.002360e-001 -5.865839e+000 133 116 106
-1.057648e+000 -5.843561e-001 -5.886883e+000 135 118 111
-9.583092e-001 -5.307120e-001 -5.878407e+000 112 105 94
-2.268929e-001 -6.782147e-001 -6.471533e+000 80 66 37
-9.679104e-002 -6.202946e-001 -6.490502e+000 134 119 79
1.692926e-001 -7.021753e-001 -6.713406e+000 99 85 64
2.076275e-001 -6.966212e-001 -6.751685e+000 137 119 86
2.076275e-001 -6.966212e-001 -6.751685e+000 137 119 86
2.331420e-001 -7.180161e-001 -6.783837e+000 85 70 47
3.619092e-001 -6.740628e-001 -6.833879e+000 136 117 75
3.762783e-001 -7.151570e-001 -6.851129e+000 81 65 37
8.547372e-001 -6.753810e-001 -7.055171e+000 116 104 68
8.166590e-001 -6.890296e-001 -7.074051e+000 92 81 53
8.166590e-001 -6.890296e-001 -7.074051e+000 92 81 53
9.024166e-001 -6.637917e-001 -7.109273e+000 76 66 38
9.651244e-001 -6.636269e-001 -7.128069e+000 78 72 45
-1.306718e+000 -6.449962e-001 -5.801718e+000 68 61 51
-1.235459e+000 -6.454751e-001 -5.838906e+000 109 105 93
-1.166193e+000 -7.451211e-001 -5.993319e+000 74 63 60
-9.609916e-001 -7.391731e-001 -6.082329e+000 73 64 57
-9.609916e-001 -7.391731e-001 -6.082329e+000 73 64 57
-8.893826e-001 -7.811397e-001 -6.140332e+000 111 102 93
-3.436352e-001 -7.554059e-001 -6.492280e+000 84 68 45
-2.485127e-001 -7.425665e-001 -6.531924e+000 90 74 48
-1.451134e-001 -7.591825e-001 -6.631114e+000 141 122 92
-2.044041e-001 -8.377496e-001 -6.658968e+000 103 85 63
-9.265045e-002 -7.645746e-001 -6.585544e+000 134 118 84
-7.344335e-002 -8.022612e-001 -6.715802e+000 85 69 44
-4.608741e-002 -8.244282e-001 -6.742257e+000 139 123 94
-4.608741e-002 -8.244282e-001 -6.742257e+000 139 123 94
1.134732e-001 -8.656399e-001 -6.860782e+000 87 72 50
7.060802e-001 -8.951485e-001 -7.204526e+000 122 111 65
8.092815e-001 -8.017810e-001 -7.160404e+000 117 108 69
8.092815e-001 -8.017810e-001 -7.160404e+000 117 108 69
8.772595e-001 -9.060475e-001 -7.317068e+000 74 64 37
1.048355e+000 -8.014326e-001 -7.288803e+000 75 68 43
1.048355e+000 -8.014326e-001 -7.288803e+000 75 68 43
1.177955e+000 -8.561554e-001 -7.448084e+000 64 62 41
-9.778375e-001 -9.342809e-001 -6.250462e+000 70 67 56
-5.673571e-001 -9.410675e-001 -6.565983e+000 71 52 45
-4.937081e-001 -8.710027e-001 -6.489541e+000 58 44 36
-3.332978e-001 -9.744460e-001 -6.714326e+000 84 69 47
-2.370763e-001 -9.998488e-001 -6.800689e+000 135 120 89
-5.661793e-002 -9.384143e-001 -6.862816e+000 93 78 52
-9.004775e-002 -1.016711e+000 -6.880858e+000 100 84 61
9.078142e-002 -9.184617e-001 -6.892345e+000 90 76 49
2.088318e-001 -9.964638e-001 -7.042641e+000 83 67 45
4.352569e-001 -9.620994e-001 -7.141919e+000 81 64 40
7.119053e-001 -9.754299e-001 -7.293903e+000 86 74 42
6.738775e-001 -1.072575e+000 -7.375896e+000 83 66 44
-1.042438e+000 -9.580981e-001 -6.241235e+000 71 67 61
-1.038796e+000 -9.544695e-001 -6.221262e+000 71 67 61
-5.416877e-001 -9.950782e-001 -6.612313e+000 55 45 37
-4.776059e-001 -1.047805e+000 -6.721008e+000 134 118 94
-2.936143e-001 -1.079064e+000 -6.868459e+000 94 79 58
-3.792009e-001 -1.091113e+000 -6.810071e+000 90 74 55
-3.244643e-001 -1.156473e+000 -6.953705e+000 97 81 57
-3.234904e-001 -1.153700e+000 -6.939148e+000 97 81 57
-2.343940e-001 -1.080905e+000 -6.890786e+000 98 83 57
-2.114670e-001 -1.171891e+000 -6.991669e+000 89 74 44
-1.220730e-001 -1.020011e+000 -6.873646e+000 136 122 90
4.225393e-002 -1.055612e+000 -6.991864e+000 92 77 53
2.858343e-001 -1.122817e+000 -7.205901e+000 89 74 49
2.858343e-001 -1.122817e+000 -7.205901e+000 89 74 49
2.698255e-001 -1.165550e+000 -7.263242e+000 93 77 51
2.306991e-001 -1.175379e+000 -7.225221e+000 130 116 81
-5.698011e-001 -1.210875e+000 -6.835678e+000 93 77 58
-4.082441e-001 -1.173728e+000 -6.860564e+000 84 69 48
-1.615654e-001 -1.353091e+000 -7.190690e+000 97 82 55
-3.061846e-002 -1.241878e+000 -7.177900e+000 88 78 50
2.518621e-002 -1.249828e+000 -7.182947e+000 89 77 54
5.308634e-003 -1.305207e+000 -7.269436e+000 87 73 46
-9.672203e-001 -1.308045e+000 -6.689564e+000 123 107 82
-1.026836e+000 -1.371183e+000 -6.733773e+000 90 75 49
-6.324508e-001 -1.442868e+000 -7.059237e+000 127 113 86
-2.210397e-001 -1.504350e+000 -7.341812e+000 93 77 51
-1.076492e+000 -1.573779e+000 -6.908351e+000 112 99 71
-9.571792e-001 -1.515449e+000 -6.953684e+000 73 60 41
-7.347532e-001 -1.630495e+000 -7.200165e+000 94 80 59
-7.347532e-001 -1.630495e+000 -7.200165e+000 94 80 59
-5.470146e-001 -1.518443e+000 -7.173437e+000 93 79 53
-4.190234e-001 -1.538551e+000 -7.266291e+000 97 82 55
-1.498336e+000 -1.604033e+000 -6.697593e+000 121 108 72
-1.465778e+000 -1.682040e+000 -6.845664e+000 109 98 70
-1.332808e+000 -1.674276e+000 -6.886931e+000 111 96 68
-1.017647e+000 -1.601821e+000 -6.972831e+000 108 97 71
-9.607158e-001 -1.636693e+000 -7.065637e+000 117 106 76
2.253858e+000 -1.665273e+000 -6.869617e+000 188 181 174
-2.107015e+000 2.105333e+000 -7.774012e+000 105 114 85
-2.149660e+000 1.921177e+000 -7.508921e+000 185 177 141
-2.762833e-001 2.032163e+000 -8.626922e+000 136 94 80
1.119245e-001 1.962061e+000 -8.691320e+000 171 135 93
-1.197129e+000 1.633083e+000 -7.483579e+000 205 185 133
-2.751255e-001 1.814302e+000 -8.332405e+000 185 152 94
-1.188769e-001 1.646208e+000 -8.197432e+000 193 184 172
-1.188769e-001 1.646208e+000 -8.197432e+000 193 184 172
-1.140653e+000 1.309532e+000 -7.115472e+000 151 64 70
2.985620e-001 1.601566e+000 -8.338919e+000 184 177 143
-1.161075e+000 1.217844e+000 -6.994931e+000 153 71 68
-1.102373e+000 1.222703e+000 -7.017798e+000 150 71 75
1.010819e+000 1.458169e+000 -8.521860e+000 80 91 75
9.817172e-001 1.395519e+000 -8.410984e+000 168 146 105
-1.117579e+000 9.443454e-001 -6.699625e+000 199 186 183
-1.119034e+000 9.442820e-001 -6.706063e+000 199 186 183
-1.081454e+000 1.017849e+000 -6.804168e+000 201 185 183
-1.082352e+000 1.016743e+000 -6.789099e+000 201 185 183
-9.572794e-001 1.028962e+000 -6.849089e+000 202 192 190
-8.849477e-001 1.030177e+000 -6.896420e+000 198 199 192
-8.822988e-001 9.011568e-001 -6.752186e+000 198 192 191
-1.560307e-001 8.658592e-001 -7.249691e+000 88 82 69
-7.465537e-002 8.232858e-001 -7.224971e+000 87 86 66
1.170913e+000 7.764352e-001 -7.737868e+000 72 80 67
-6.623453e-002 6.690280e-001 -7.048175e+000 199 188 166
-6.623453e-002 6.690280e-001 -7.048175e+000 199 188 166
1.117304e-001 5.591615e-001 -6.969636e+000 95 82 65
1.111071e+000 7.147059e-001 -7.624749e+000 85 98 66
1.111891e+000 6.146067e-001 -7.520845e+000 168 174 140
5.510145e-003 4.764572e-001 -6.844969e+000 71 93 73
2.945099e-002 4.130888e-001 -6.781123e+000 75 84 75
9.819462e-002 3.734732e-001 -6.737526e+000 73 86 69
3.834536e-001 3.012501e-001 -6.814057e+000 140 94 61
1.465365e+000 3.836726e-001 -7.386050e+000 119 133 80
-2.518443e+000 2.607244e-001 -7.684152e+000 189 82 94
-2.518443e+000 2.607244e-001 -7.684152e+000 189 82 94
2.996464e-001 1.220528e-001 -6.555721e+000 66 80 65
6.771917e-001 2.036363e-001 -6.818441e+000 180 165 109
5.779973e-001 7.100258e-002 -6.616017e+000 143 97 64
5.786463e-001 7.117480e-002 -6.614596e+000 143 97 64
1.339197e+000 1.014785e-001 -7.008248e+000 169 150 94
1.836374e+000 -1.492284e-001 -7.148606e+000 58 63 43
8.048037e-001 -3.077414e-001 -6.705136e+000 106 102 65
2.587028e-001 -4.588665e-001 -6.542425e+000 81 65 46
2.443319e-001 -4.970417e-001 -6.554979e+000 89 72 51
2.283585e-001 -5.407242e-001 -6.583884e+000 79 64 43
3.705189e-001 -5.496402e-001 -6.696819e+000 80 69 41
-9.005019e-001 -6.177367e-001 -5.996122e+000 130 115 104
-4.194310e-001 -6.558656e-001 -6.357803e+000 57 45 38
2.130807e-001 -5.920798e-001 -6.646412e+000 75 64 36
-3.587184e-001 -8.093784e-001 -6.539700e+000 86 69 50
-1.075799e-001 -7.271671e-001 -6.592724e+000 82 65 40
-1.075799e-001 -7.271671e-001 -6.592724e+000 82 65 40
1.862699e-002 -7.319500e-001 -6.693960e+000 81 68 42
1.520765e-001 -7.587728e-001 -6.775155e+000 78 66 41
3.580038e-001 -7.670320e-001 -6.896005e+000 86 73 46
-8.710097e-001 -8.797598e-001 -6.255302e+000 73 66 62
-3.765521e-001 -8.594446e-001 -6.582144e+000 89 75 58
4.205052e-001 -1.260638e+000 -7.426039e+000 132 118 85
-7.492850e-001 -1.282151e+000 -6.771119e+000 135 116 83
-8.280452e-001 -1.377745e+000 -6.843912e+000 96 81 57
-1.309238e+000 -1.394656e+000 -6.526293e+000 79 63 47
-1.297316e+000 -1.445623e+000 -6.625109e+000 115 100 71
-9.198611e-001 -1.593041e+000 -7.040208e+000 75 63 41
-1.556764e+000 -1.652842e+000 -6.721443e+000 87 70 53
-7.761280e-001 -1.743556e+000 -7.323444e+000 100 89 64
-2.316598e+000 2.125796e+000 -7.733076e+000 153 153 115
-1.816779e+000 2.040430e+000 -7.758793e+000 196 177 133
-1.574812e+000 2.281361e+000 -8.326140e+000 243 215 207
-2.139612e+000 1.827356e+000 -7.405641e+000 132 128 87
-2.139612e+000 1.827356e+000 -7.405641e+000 132 128 87
-2.098711e+000 1.906303e+000 -7.514888e+000 154 150 113
-1.828950e+000 1.951417e+000 -7.633525e+000 93 118 90
-1.349878e+000 1.482216e+000 -7.265120e+000 202 188 188
-1.349878e+000 1.482216e+000 -7.265120e+000 202 188 188
1.919440e-001 1.694419e+000 -8.422073e+000 182 166 123
-1.268774e+000 1.326989e+000 -7.120199e+000 200 188 187
8.005736e-001 1.655283e+000 -8.663837e+000 163 132 84
-1.246779e+000 1.235697e+000 -7.017572e+000 167 78 82
9.425332e-001 1.457679e+000 -8.453777e+000 165 150 100
8.681484e-001 1.117105e+000 -8.006062e+000 169 162 148
-1.030852e+000 8.250786e-001 -6.598761e+000 202 189 191
1.151016e+000 9.718278e-001 -7.934671e+000 103 103 94
1.056731e+000 7.872608e-001 -7.694687e+000 153 157 135
-2.192894e+001 4.492301e+000 -5.139616e+001 243 49 89
1.306325e-002 6.544975e-001 -7.064504e+000 75 87 72
9.207258e-001 6.752156e-001 -7.513293e+000 178 173 144
-2.613865e-002 5.324102e-001 -6.910834e+000 74 89 71
-2.613865e-002 5.324102e-001 -6.910834e+000 74 89 71
1.837805e-001 2.160087e-001 -6.606357e+000 185 169 113
1.855045e-001 2.162736e-001 -6.599317e+000 185 169 113
2.661784e-001 8.915740e-002 -6.495234e+000 177 166 103
2.641559e-001 8.836787e-002 -6.501519e+000 177 166 103
5.217479e-001 1.028678e-001 -6.630106e+000 174 164 96
5.183831e-001 1.022495e-001 -6.629621e+000 174 164 96
3.294277e-001 -2.950701e-001 -6.401337e+000 68 56 29
-2.335786e+001 -3.851465e+000 -4.228588e+001 216 210 254
-7.724118e-001 -5.546889e-001 -6.009054e+000 68 67 55
-7.701399e-001 -5.536686e-001 -6.002230e+000 68 67 55
-2.638637e-001 -5.731955e-001 -6.363002e+000 128 111 69
1.804353e-001 -9.479874e-001 -6.968890e+000 82 68 34
8.994457e-002 -1.201347e+000 -7.231736e+000 85 72 40
1.378844e+000 -1.668918e+000 -8.449715e+000 83 65 50
-1.619142e+000 -1.622851e+000 -6.704053e+000 91 77 50
-1.509384e+001 -1.135032e+001 -3.714642e+001 74 47 105
-2.230976e+000 2.116799e+000 -7.698309e+000 181 173 137
-1.647431e+000 2.284445e+000 -8.275893e+000 179 166 113
1.982613e-001 2.076506e+000 -8.931436e+000 176 147 116
1.982613e-001 2.076506e+000 -8.931436e+000 176 147 116
7.997470e-001 1.564550e+000 -8.552441e+000 87 90 75
-9.419634e-001 8.930030e-001 -6.702554e+000 166 72 73
-9.419634e-001 8.930030e-001 -6.702554e+000 166 72 73
1.037140e+000 6.262898e-001 -7.480049e+000 83 96 68
1.212878e+000 5.430773e-001 -7.447603e+000 99 115 76
4.398825e-001 1.099801e-001 -6.597512e+000 175 166 95
-2.475771e+001 -2.725229e+000 -4.345093e+001 76 51 115
-2.438521e+001 -2.974718e+000 -4.322230e+001 194 183 239
-2.080190e+001 -3.305142e+000 -4.680373e+001 82 60 132
-2.353159e+001 -4.313450e+000 -4.031219e+001 107 69 122
7.899821e-002 -7.308855e-001 -6.732176e+000 136 116 74
7.899821e-002 -7.308855e-001 -6.732176e+000 136 116 74
1.239971e+000 -1.645658e+000 -8.362707e+000 69 62 44
-2.024967e+001 -8.176098e+000 -3.890288e+001 225 43 84
-1.467626e+001 -8.198530e+000 -3.981750e+001 222 49 82
-7.375762e-001 2.088652e+000 -8.499796e+000 183 166 142
5.467028e-001 1.563238e+000 -8.424226e+000 170 148 101
-8.612933e-001 8.485858e-001 -6.671716e+000 202 185 185
-8.612933e-001 8.485858e-001 -6.671716e+000 202 185 185
-6.714674e-001 8.013554e-001 -6.693850e+000 204 178 118
8.997623e-001 7.491134e-001 -7.577746e+000 142 148 89
3.144914e-001 4.799263e-001 -7.004851e+000 148 109 72
1.373978e+000 3.511695e-001 -7.392474e+000 176 169 148
1.579476e+000 3.944146e-001 -7.493665e+000 129 143 117
-2.622848e+001 -9.024466e-001 -4.573190e+001 233 68 122
-2.517032e+001 -1.766543e+000 -4.441836e+001 74 52 114
-8.212813e-001 -6.978918e-001 -6.102110e+000 76 69 61
-6.717293e-001 -7.792450e-001 -6.263762e+000 108 96 74
-1.661654e+001 -6.273877e+000 -4.181868e+001 59 34 64
-1.639549e+001 -5.862963e+000 -4.219961e+001 226 44 85
-1.571328e+001 -6.262285e+000 -4.257604e+001 174 54 73
-1.885547e+001 -6.765200e+000 -4.159419e+001 197 26 70
-1.824969e+001 -7.137749e+000 -4.117698e+001 62 40 96
-1.631225e+001 -6.612210e+000 -4.188314e+001 205 35 66
-1.773137e+001 -7.713199e+000 -3.966663e+001 71 51 115
-1.568411e+001 -7.756817e+000 -4.062738e+001 226 42 76
-1.467329e+001 -8.582792e+000 -3.955524e+001 208 34 64
-1.766794e+000 -1.776190e+000 -6.836606e+000 76 63 44
-1.193426e+000 1.559412e+000 -7.520497e+000 131 72 74
3.481829e-001 6.451816e-001 -7.223932e+000 187 167 114
1.793448e-001 4.946931e-001 -6.918688e+000 191 173 133
5.659467e-001 4.686328e-001 -7.056453e+000 145 101 72
1.633815e+000 2.988224e-001 -7.445010e+000 140 155 132
-2.422664e+001 1.204068e+000 -5.001141e+001 210 25 67
-2.495988e+001 -1.775879e+000 -4.320211e+001 253 201 233
-2.460116e+001 -1.174539e+000 -4.461835e+001 90 70 155
-4.436071e-001 -9.034139e-001 -6.551977e+000 103 89 63
-1.726064e+001 -8.485593e+000 -3.812990e+001 66 45 107
-1.748605e+001 -9.166460e+000 -3.754120e+001 206 31 70
-1.694155e+001 -1.115545e+001 -3.703744e+001 49 35 69
-1.946986e+000 2.019961e+000 -7.815621e+000 94 119 90
-1.453148e+000 1.531029e+000 -7.337826e+000 135 71 66
-1.248682e+000 1.401144e+000 -7.193135e+000 176 136 141
-8.166765e-001 9.532582e-001 -6.831395e+000 160 68 69
-7.731244e-001 7.841026e-001 -6.626011e+000 157 66 67
-1.401577e-001 8.344234e-001 -7.261586e+000 84 81 62
-1.401577e-001 8.344234e-001 -7.261586e+000 84 81 62
-4.646196e-001 6.526422e-001 -6.850490e+000 193 183 181
9.254565e-001 4.785454e-001 -7.245475e+000 172 157 108
2.424316e-001 3.850177e-001 -6.778594e+000 188 173 126
3.031460e-001 2.417804e-001 -6.639911e+000 184 169 108
-2.054130e-001 -8.426670e-002 -6.073198e+000 165 151 86
-2.281427e+001 -3.990991e+000 -4.152122e+001 173 163 216
-1.919708e+001 -5.949632e+000 -4.213694e+001 201 27 62
-1.841514e+001 -7.356713e+000 -4.024047e+001 242 50 95
-1.799223e+001 -8.247954e+000 -3.874881e+001 250 56 101
7.254505e-001 1.222349e+000 -8.051811e+000 114 108 100
1.128406e-001 -1.984477e-001 -6.226852e+000 76 64 22
-1.729943e+001 -7.883215e+000 -4.141686e+001 67 54 124
-1.562200e+001 -8.216058e+000 -3.919608e+001 58 36 74
-9.121280e-001 1.192950e+000 -6.969266e+000 156 70 71
6.267776e-001 9.832364e-001 -7.686696e+000 177 171 135
-2.596938e+001 2.295448e+000 -4.722659e+001 73 53 112
-2.600578e+001 -1.338106e-001 -4.583043e+001 62 37 67
-2.155801e+001 -3.762628e+000 -4.285223e+001 255 62 110
8.820071e-001 1.269238e-002 -6.649955e+000 146 148 83
6.241160e-001 -4.942478e-001 -6.749580e+000 129 111 63
-2.434237e+001 -2.502607e+000 -4.447753e+001 69 47 109
1.387729e+000 1.681547e+000 -8.782463e+000 193 197 185
1.139396e+000 1.760981e-001 -7.119985e+000 169 156 115
-2.021109e+001 -3.348904e+000 -4.225324e+001 251 53 99
-9.547411e-001 4.876096e-001 -6.433227e+000 194 179 137
-2.217785e+000 1.895129e+000 -7.455064e+000 183 176 139
-6.913415e-002 8.650913e-001 -7.274389e+000 195 186 169
1.471549e+000 1.117633e+000 -8.236222e+000 82 78 74
5.197593e-001 2.322135e-001 -6.777323e+000 178 165 97
5.606017e-001 1.220532e-001 -6.672969e+000 128 92 53
5.606017e-001 1.220532e-001 -6.672969e+000 128 92 53
-1.220301e+000 -1.664562e-001 -5.411824e+000 90 87 49
1.316541e+000 -3.431571e-001 -7.015057e+000 88 90 67
1.842413e+000 -8.070765e-001 -7.726582e+000 114 104 95
-1.302403e+000 1.462268e+000 -7.248170e+000 131 69 69
1.631542e+000 1.644418e+000 -7.878181e+000 194 195 182
-1.726121e+000 1.340837e+000 -6.993212e+000 211 186 130
1.559508e+000 1.440305e+000 -8.027931e+000 185 186 178
3.258705e-001 1.375840e+000 -8.079820e+000 165 156 111
7.453859e-001 1.371895e+000 -8.249878e+000 111 105 97
-1.052742e+000 9.495552e-001 -6.726619e+000 200 190 186
1.136222e+000 8.264002e-001 -7.777211e+000 116 114 110
8.032134e-001 5.504031e-001 -7.288033e+000 171 170 118
1.501165e+000 4.625383e-001 -7.523585e+000 155 170 146
3.855040e-001 -5.081380e-001 -6.668826e+000 74 61 32
3.855040e-001 -5.081380e-001 -6.668826e+000 74 61 32
2.770761e-001 -9.038966e-001 -6.998588e+000 130 113 77
-1.154888e+000 2.245354e+000 -8.523679e+000 191 166 109
-1.302820e+000 1.418113e+000 -7.198022e+000 201 187 186
-1.114545e+000 7.270347e-001 -6.450222e+000 198 171 100
-2.493248e+001 -2.404001e+000 -4.335969e+001 206 56 104
-3.123685e-001 -6.734252e-001 -6.435073e+000 75 61 36
-8.763112e-002 -2.462183e-001 -6.165243e+000 113 100 55
-8.814999e-001 -1.498773e+000 -6.968920e+000 75 63 47
-2.334371e+001 5.228830e-001 -4.684507e+001 251 55 96
-2.195028e+001 2.065803e-001 -4.698574e+001 236 43 83
-1.606667e+000 -6.438035e-001 -6.055709e+000 168 133 103
-3.499011e-001 -6.024797e-001 -6.329653e+000 123 105 66
-5.489274e-001 -9.610384e-001 -6.567301e+000 74 65 54
5.624921e-001 2.487274e-001 -6.741202e+000 168 167 98
5.624921e-001 2.487274e-001 -6.741202e+000 168 167 98
-1.824968e+001 -1.318657e+000 -4.754469e+001 250 200 179
3.170328e-001 -4.462866e-001 -6.543390e+000 130 114 63
-1.235468e+000 1.044883e+000 -6.815644e+000 177 71 76
-1.983151e+001 -4.678219e+000 -4.076558e+001 167 24 54
-1.856534e+001 -3.401551e+000 -4.518937e+001 64 37 89
-3.365483e-001 3.013328e+000 -1.154171e+001 159 148 142
-2.508483e+000 2.140388e+000 -7.692403e+000 186 191 144
-2.134440e+000 1.883132e+000 -7.492861e+000 180 177 139
-1.115949e-001 2.193012e+000 -8.898986e+000 148 161 131
6.331020e-001 2.326152e+000 -9.470931e+000 115 114 100
-3.554050e-001 1.940302e+000 -8.474168e+000 143 87 68
-4.081445e-001 1.757000e+000 -8.208861e+000 193 158 116
-3.772647e-001 1.766627e+000 -8.238970e+000 159 116 74
-3.583269e-001 1.736351e+000 -8.219713e+000 193 168 119
5.429223e-001 1.900082e+000 -8.832663e+000 153 119 81
5.429223e-001 1.900082e+000 -8.832663e+000 153 119 81
-1.307175e+000 1.463149e+000 -7.248800e+000 128 63 64
4.290759e-002 1.634456e+000 -8.238646e+000 191 175 141
6.556619e-001 1.729493e+000 -8.670411e+000 188 177 136
-1.208527e+000 1.214013e+000 -6.991737e+000 200 193 192
-1.208527e+000 1.214013e+000 -6.991737e+000 200 193 192
-1.078029e+000 1.259349e+000 -7.101804e+000 152 61 65
8.132282e-001 1.364065e+000 -8.281245e+000 149 145 133
8.346645e-001 1.283339e+000 -8.194654e+000 96 90 90
1.030929e+000 1.300751e+000 -8.335979e+000 72 84 73
1.029195e+000 1.302083e+000 -8.311078e+000 72 84 73
1.513598e+000 1.256706e+000 -8.105354e+000 87 85 78
-6.665302e-001 1.135545e+000 -6.882932e+000 162 132 62
1.099551e+000 1.147930e+000 -8.158880e+000 114 111 106
-2.082922e-001 7.990588e-001 -7.174629e+000 185 178 162
-1.761146e-001 8.366309e-001 -7.222620e+000 169 152 134
-1.178600e-001 8.382437e-001 -7.218901e+000 191 185 165
-1.415969e-001 7.950954e-001 -7.164871e+000 176 174 150
-1.415969e-001 7.950954e-001 -7.164871e+000 176 174 150
1.103612e+000 8.130963e-001 -7.721239e+000 91 89 85
1.113496e+000 7.618332e-001 -7.689547e+000 132 136 122
-1.315021e-001 6.551682e-001 -7.001779e+000 193 176 157
-1.315021e-001 6.551682e-001 -7.001779e+000 193 176 157
-1.077053e-001 6.662054e-001 -7.031069e+000 82 73 60
-1.083975e-001 6.039694e-001 -6.960257e+000 200 179 159
-4.227379e-002 6.087158e-001 -6.988591e+000 197 185 153
7.110996e-003 6.799389e-001 -7.087070e+000 76 74 54
1.155697e+000 6.495298e-001 -7.546366e+000 93 108 68
8.316549e-002 5.798054e-001 -7.001993e+000 194 177 141
5.791087e-001 5.250867e-001 -7.147200e+000 138 89 62
1.901932e-001 3.259421e-001 -6.740481e+000 70 73 47
4.314105e-001 3.706637e-001 -6.898940e+000 136 91 59
4.305603e-001 3.708188e-001 -6.896877e+000 136 91 59
6.032506e-001 4.407293e-001 -7.051565e+000 184 157 104
6.032506e-001 4.407293e-001 -7.051565e+000 184 157 104
4.926560e-001 2.506820e-001 -6.782189e+000 140 99 65
7.010625e-001 2.513251e-001 -6.832791e+000 168 166 109
5.103364e-001 1.717019e-001 -6.687431e+000 175 163 103
5.497550e-001 8.925866e-002 -6.613158e+000 169 156 91
5.497550e-001 8.925866e-002 -6.613158e+000 169 156 91
7.384712e-001 9.481711e-002 -6.719928e+000 158 153 87
7.384712e-001 9.481711e-002 -6.719928e+000 158 153 87
-4.013251e-001 -1.115103e-001 -5.867531e+000 141 131 74
1.311136e+000 -2.693222e-001 -6.964306e+000 61 62 44
8.646052e-001 -4.486810e-001 -6.860744e+000 108 104 69
2.536452e-001 -6.477630e-001 -6.709493e+000 77 65 33
1.836665e+000 -9.270160e-001 -7.319293e+000 138 132 121
3.009373e-001 -1.088782e+000 -7.196852e+000 88 74 48
-2.823208e-001 -1.113623e+000 -6.895253e+000 134 118 92
-1.038853e-001 -1.214958e+000 -7.118743e+000 96 82 56
-1.788767e+000 -1.573374e+000 -6.554973e+000 78 62 31
-2.195961e+000 1.990681e+000 -7.620100e+000 181 178 140
2.508738e-001 1.711288e+000 -8.456263e+000 93 98 77
7.219529e-001 1.750984e+000 -8.751029e+000 168 143 86
-1.172603e+000 1.422141e+000 -7.272067e+000 189 184 183
2.509758e-001 1.435068e+000 -8.109619e+000 192 182 152
6.250996e-001 1.530647e+000 -8.412654e+000 190 182 163
-1.125891e+000 1.142350e+000 -6.949425e+000 154 59 67
-1.125891e+000 1.142350e+000 -6.949425e+000 154 59 67
6.519242e-001 1.317304e+000 -8.139778e+000 146 133 99
-2.117908e+000 1.061913e+000 -6.924852e+000 202 163 135
1.487497e+000 1.246695e+000 -8.174017e+000 173 173 165
1.461441e+000 1.192583e+000 -8.198652e+000 165 167 158
-9.138886e-001 9.593158e-001 -6.814469e+000 200 188 188
-9.118828e-001 9.597524e-001 -6.817088e+000 200 188 188
3.078305e-001 8.686672e-001 -7.454333e+000 142 92 69
1.160215e+000 8.879485e-001 -7.876051e+000 97 96 91
-1.632611e+000 5.953482e-001 -6.148179e+000 211 206 144
4.378919e-001 7.349363e-001 -7.311782e+000 182 170 105
-1.589309e+000 5.015763e-001 -6.081939e+000 198 199 130
1.055180e-001 4.828149e-001 -6.894249e+000 67 69 52
9.198123e-002 4.537786e-001 -6.857431e+000 189 167 134
4.954234e-001 5.209269e-001 -7.096789e+000 147 92 76
5.646354e-001 4.725587e-001 -7.083075e+000 138 93 62
6.115930e-001 5.135009e-001 -7.132711e+000 175 164 92
7.047679e-002 4.311951e-001 -6.829954e+000 74 73 51
1.282218e-001 3.211840e-001 -6.720611e+000 71 78 64
3.475677e-001 3.547969e-001 -6.856808e+000 145 88 63
1.256885e+000 4.509165e-001 -7.352861e+000 165 150 97
1.606548e+000 4.293959e-001 -7.534522e+000 132 146 119
1.646024e+000 3.558155e-001 -7.450932e+000 150 166 140
1.811987e-001 2.880368e-001 -6.692796e+000 180 162 117
1.658506e+000 2.834410e-001 -7.380037e+000 98 115 84
1.553964e-001 1.318143e-001 -6.489285e+000 180 162 101
1.740646e+000 1.329739e-001 -7.233397e+000 103 118 89
7.673165e-001 -1.937066e-001 -6.565133e+000 101 103 64
1.624310e+000 -1.626033e-001 -7.056370e+000 65 67 53
8.859497e-001 -2.913908e-001 -6.750018e+000 70 68 45
8.493548e-001 -4.096327e-001 -6.825244e+000 76 72 47
1.085638e+000 -3.106602e-001 -6.867538e+000 67 66 48
8.520913e-001 -5.996284e-001 -7.018682e+000 72 65 44
9.698026e-001 -4.629507e-001 -6.952880e+000 74 71 47
1.085069e+000 -5.206883e-001 -7.058203e+000 70 67 47
-1.177377e+000 -5.299794e-001 -5.791342e+000 72 63 59
-9.840898e-001 -4.709201e-001 -5.827116e+000 78 71 65
-8.750474e-001 -4.881437e-001 -5.903544e+000 75 69 64
-3.911959e-001 -5.845230e-001 -6.319761e+000 58 48 36
7.960109e-002 -5.638685e-001 -6.540844e+000 102 87 58
4.030610e-001 -6.353680e-001 -6.787376e+000 85 69 44
9.678350e-001 -7.543502e-001 -7.226216e+000 116 107 71
-1.507749e-001 -6.897273e-001 -6.545071e+000 98 82 56
-1.682177e-001 -7.359778e-001 -6.576791e+000 99 83 58
-1.285834e-001 -7.962639e-001 -6.664962e+000 95 79 53
-2.672900e-002 -8.693120e-001 -6.811251e+000 97 83 57
3.207773e-001 -8.671795e-001 -6.981544e+000 93 78 53
5.880023e-001 -9.413171e-001 -7.197754e+000 87 72 45
9.010041e-001 -8.476582e-001 -7.288731e+000 83 73 46
-8.739405e-001 -8.853711e-001 -6.277368e+000 74 68 61
-4.983626e-001 -1.017314e+000 -6.698040e+000 91 78 62
-4.233135e-001 -9.795978e-001 -6.673767e+000 91 75 60
-3.076310e-001 -8.979799e-001 -6.663142e+000 87 74 52
7.344828e-002 -9.770099e-001 -6.966923e+000 92 77 53
-1.233967e+000 -9.696533e-001 -6.182532e+000 76 66 64
-1.233967e+000 -9.696533e-001 -6.182532e+000 76 66 64
-3.814497e-001 -1.097056e+000 -6.830821e+000 92 77 58
-2.678589e-001 -1.159292e+000 -6.961737e+000 99 85 59
-1.918993e-001 -1.124190e+000 -6.967337e+000 103 86 67
-2.445059e-001 -1.420680e+000 -7.270043e+000 93 79 55
-6.738436e-001 -1.546979e+000 -7.164792e+000 124 109 84
-1.196437e+000 -1.696251e+000 -7.020569e+000 113 100 72
-1.123993e+000 -1.689427e+000 -7.066717e+000 112 98 72
-2.343589e+000 2.087960e+000 -7.706308e+000 172 170 132
-5.534838e-001 2.264767e+000 -8.789540e+000 90 92 76
-2.256437e+000 1.878626e+000 -7.449283e+000 145 144 110
-2.122336e+000 1.910124e+000 -7.412207e+000 178 171 132
-2.660752e-001 2.162585e+000 -8.824012e+000 129 87 83
-2.186814e-001 2.024114e+000 -8.646151e+000 169 127 104
-1.697690e-001 1.775757e+000 -8.339682e+000 183 157 118
-2.010052e+000 1.049592e+000 -6.772149e+000 229 208 135
9.275322e-001 1.145230e+000 -8.028842e+000 105 102 99
1.066104e+000 1.210475e+000 -8.225156e+000 139 142 131
-2.040370e-001 8.552324e-001 -7.234452e+000 75 82 71
-2.046505e-001 8.553350e-001 -7.230864e+000 75 82 71
-1.541330e-001 7.526656e-001 -7.110982e+000 72 82 69
1.929705e-002 5.143963e-001 -6.885415e+000 194 178 146
-1.504556e+000 4.373851e-001 -5.968756e+000 162 158 91
6.320965e-001 3.447899e-001 -6.983368e+000 175 160 93
6.342239e-001 3.496049e-001 -6.949334e+000 175 160 93
1.024084e+000 3.818666e-001 -7.199035e+000 159 139 89
4.218312e-001 2.802184e-001 -6.788864e+000 186 167 108
4.218312e-001 2.802184e-001 -6.788864e+000 186 167 108
4.958903e-001 1.445371e-001 -6.666188e+000 144 99 68
2.919149e-001 -3.199140e-001 -6.445648e+000 117 104 60
7.790484e-001 -3.761813e-001 -6.740708e+000 118 111 69
2.614607e-001 -4.030268e-001 -6.502315e+000 121 107 63
-1.271978e+000 -6.794370e-001 -5.896053e+000 67 63 56
-1.271978e+000 -6.794370e-001 -5.896053e+000 67 63 56
-1.056259e+000 -6.564147e-001 -5.973436e+000 130 114 106
-9.948319e-001 -7.001008e-001 -6.044992e+000 132 115 105
-9.948319e-001 -7.001008e-001 -6.044992e+000 132 115 105
2.022862e-001 -8.967692e-001 -6.938831e+000 96 82 55
-1.063652e+000 -8.935720e-001 -6.166542e+000 73 68 62
2.130829e-001 -1.428748e+000 -7.544629e+000 106 91 60
-1.367762e+000 -1.597210e+000 -6.812040e+000 111 96 69
-1.186442e+000 -1.759510e+000 -7.112022e+000 81 65 42
-1.000256e+000 -1.637640e+000 -7.081233e+000 81 66 43
-7.179767e-001 2.253076e+000 -8.720992e+000 106 110 83
-2.324303e+000 2.004885e+000 -7.562057e+000 137 143 107
-2.288097e+000 1.939537e+000 -7.487850e+000 121 123 90
-1.902774e+000 2.055999e+000 -7.821290e+000 81 115 83
-5.880018e-001 2.145152e+000 -8.615011e+000 130 93 77
-9.629019e-002 2.215355e+000 -8.982204e+000 139 145 113
-9.513545e-002 2.212605e+000 -8.939471e+000 139 145 113
9.415872e-001 1.459648e+000 -8.442599e+000 171 147 95
-1.045863e+000 1.200480e+000 -7.033995e+000 206 186 192
-7.704288e-001 1.230056e+000 -7.538323e+000 176 150 76
-2.044166e-001 8.543520e-001 -7.231740e+000 75 82 71
-6.061899e-001 6.965112e-001 -6.626137e+000 201 184 160
-1.522561e-001 6.787474e-001 -7.035213e+000 197 184 174
1.694666e-001 1.722383e-001 -6.557764e+000 66 81 56
6.942026e-001 7.818786e-002 -6.678266e+000 140 92 62
6.943388e-001 7.855087e-002 -6.676793e+000 140 92 62
-9.700709e-001 -1.748779e+000 -7.233875e+000 91 76 52
-3.003049e-001 1.798601e+000 -8.275560e+000 186 152 103
-1.100547e+000 1.566801e+000 -7.476259e+000 200 175 118
-1.498647e+000 9.189265e-001 -6.563441e+000 204 186 154
-1.498647e+000 9.189265e-001 -6.563441e+000 204 186 154
-1.478944e+000 8.526439e-001 -6.478858e+000 199 172 95
-6.326744e-001 6.367120e-001 -6.589749e+000 143 112 69
-9.484189e-002 6.316723e-001 -6.987597e+000 54 76 58
-2.874447e-001 -1.124038e-001 -5.981159e+000 111 99 47
-1.569525e-001 -4.692924e-001 -6.312423e+000 131 113 68
-9.953383e-001 -8.933766e-001 -6.203585e+000 74 68 60
-9.953383e-001 -8.933766e-001 -6.203585e+000 74 68 60
-1.038338e+000 2.219089e+000 -8.553695e+000 195 167 113
-1.632800e-001 1.937318e+000 -8.438956e+000 171 139 101
7.528826e-001 6.650201e-001 -7.388821e+000 180 178 152
8.586091e-001 6.008070e-001 -7.364760e+000 136 142 85
1.034586e+000 6.280412e-001 -7.474032e+000 81 90 61
3.774202e-001 3.863716e-001 -6.883342e+000 172 137 99
6.288148e-001 1.486657e+000 -8.355882e+000 188 178 167
4.907648e-001 3.791787e-001 -6.957823e+000 180 163 99
4.143028e-001 -4.970124e-001 -6.734198e+000 120 105 72
1.399404e+000 -1.775208e+000 -8.514621e+000 198 163 149
-1.326413e+000 1.690181e+000 -7.501074e+000 197 190 178
-5.846298e-001 6.102971e-001 -6.604234e+000 148 122 92
1.494412e-001 2.856747e-001 -6.660140e+000 65 80 59
-3.770336e-001 -5.436235e-002 -5.850311e+000 152 146 76
9.612197e-001 9.813030e-001 -7.853771e+000 85 81 79
-1.328563e+000 -1.681363e-001 -5.586642e+000 188 178 125
-3.558434e-002 1.761046e+000 -8.309462e+000 191 168 127
-1.121839e+000 1.163915e+000 -6.965812e+000 202 184 184
-1.121839e+000 1.163915e+000 -6.965812e+000 202 184 184
1.124264e+000 1.339093e+000 -8.335872e+000 86 103 79
-1.374843e+000 2.105793e+000 -8.242961e+000 170 154 94
4.603859e-001 1.827876e+000 -8.755734e+000 181 157 109
1.454894e-001 7.423709e-001 -7.159052e+000 192 178 148
1.243748e+000 2.132138e-001 -7.034003e+000 176 170 145
-4.467752e-001 2.111365e+000 -8.783196e+000 126 86 79
1.730489e+000 9.764663e-001 -8.009329e+000 190 197 190
-1.288741e+000 7.407193e-001 -6.319604e+000 194 184 144
-3.032368e-001 4.341328e-001 -7.133901e+000 194 185 170
-1.363112e+000 2.392572e-001 -6.045749e+000 141 147 75
1.217064e+000 9.223011e-001 -8.009420e+000 72 80 69
-1.151369e+000 1.127529e+000 -6.905564e+000 163 64 72
1.498420e+000 1.196884e+000 -8.171574e+000 87 89 82
1.462602e+000 1.032881e+000 -8.257681e+000 163 165 158
-1.990013e+001 7.044054e-001 -4.993418e+001 206 73 101
-2.228601e+001 -3.958427e+000 -4.129352e+001 175 165 224
-2.436168e+000 2.036483e+000 -7.633991e+000 168 169 127
6.028203e-001 2.355577e+000 -9.466417e+000 213 208 196
-1.669399e+000 1.837827e+000 -7.593347e+000 173 129 104
6.684103e-001 1.654533e+000 -8.589830e+000 195 179 136
-7.004626e-001 1.139643e+000 -6.973078e+000 196 172 115
6.348163e-001 1.213316e+000 -8.002014e+000 103 96 88
-4.349422e-002 8.001859e-001 -7.208665e+000 193 187 165
-1.075905e-001 6.661876e-001 -7.031005e+000 82 73 60
3.233290e-001 5.718892e-001 -7.092392e+000 131 94 58
1.675228e+000 2.166018e-001 -7.291819e+000 102 116 90
1.675228e+000 2.166018e-001 -7.291819e+000 102 116 90
5.323898e-001 1.196565e-001 -6.677012e+000 174 168 99
7.125233e-001 1.569724e-001 -6.781833e+000 171 160 100
1.768354e+000 8.845835e-002 -7.196609e+000 110 122 95
-1.169641e+000 1.422558e+000 -7.265818e+000 189 184 183
1.032392e+000 1.374012e+000 -8.418558e+000 71 83 69
-8.312207e-001 8.304466e-001 -6.668510e+000 194 188 186
-8.312207e-001 8.304466e-001 -6.668510e+000 194 188 186
3.387272e-001 8.147965e-001 -7.394931e+000 142 94 71
-2.456257e+001 -2.931631e+000 -4.410680e+001 77 60 128
1.426186e-001 4.580051e-001 -6.883152e+000 193 175 137
1.187431e+000 4.941978e-001 -7.399748e+000 172 148 97
1.380846e+000 4.187461e-001 -7.393344e+000 111 121 77
1.285348e+000 2.818457e-001 -7.196710e+000 165 150 92
-3.722770e-001 9.058443e-002 -6.088894e+000 141 119 64
2.290851e+000 -1.677511e+000 -6.863312e+000 96 85 79
-2.891850e-001 2.275780e+000 -8.961556e+000 128 140 103
-1.701966e+000 1.267147e+000 -6.769767e+000 204 187 140
-1.701966e+000 1.267147e+000 -6.769767e+000 204 187 140
8.360285e-001 8.191048e-001 -7.617678e+000 144 149 84
1.304243e+000 3.728259e-001 -7.321962e+000 165 144 91
-2.318968e+000 2.125002e+000 -7.737017e+000 143 145 106
1.418186e+000 1.118580e+000 -8.253526e+000 157 160 153
-2.411789e+001 -3.494031e+000 -4.310625e+001 174 165 218
-2.365912e+001 -3.620262e+000 -4.284110e+001 79 64 129
3.495320e-001 4.360179e-001 -6.940740e+000 185 163 108
-1.952612e+001 -8.841240e+000 -3.720644e+001 216 65 97
-1.692309e+001 -1.190728e+001 -3.683158e+001 63 63 131
-1.142951e+000 2.237802e+000 -8.551853e+000 196 169 106
-1.824579e+001 -2.962865e+000 -4.559599e+001 229 42 77
-1.808263e+001 -1.152990e+001 -3.572522e+001 188 34 71
-1.687490e+001 -1.160519e+001 -3.707668e+001 125 167 227
-1.425671e+001 -1.225920e+001 -3.568997e+001 187 30 61
-1.348975e+001 -1.409038e+001 -3.566994e+001 203 34 65
-1.366054e+001 -1.429189e+001 -3.491675e+001 213 30 57
8.750280e-001 8.724249e-001 -7.689587e+000 160 161 129
3.969316e-001 5.514472e-001 -7.077542e+000 183 164 108
3.973726e-001 5.509576e-001 -7.075430e+000 183 164 108
3.501551e-001 1.903966e-001 -6.621989e+000 179 165 104
-1.659802e+001 -1.184531e+001 -3.501879e+001 63 44 102
-1.668780e+001 -1.230888e+001 -3.422047e+001 188 11 47
-1.838839e+001 -1.795205e+000 -4.483887e+001 255 206 112
-1.842461e+001 -1.258353e+001 -3.287061e+001 203 29 65
-1.298301e+000 2.185854e+000 -8.436843e+000 163 157 91
8.447226e-002 4.091519e-001 -6.793672e+000 71 82 65
-1.797600e+001 -1.107821e+001 -3.678152e+001 122 22 47
-1.898937e+001 -1.217986e+001 -3.406226e+001 235 49 93
-2.012369e+001 -9.268673e+000 -3.663916e+001 254 248 255
-1.723288e+001 -1.155980e+001 -3.621337e+001 143 195 247
-1.392926e+001 -1.111297e+001 -3.573255e+001 229 37 76
-1.392926e+001 -1.111297e+001 -3.573255e+001 229 37 76
-1.900098e+001 -1.235558e+001 -3.448855e+001 237 44 88
-2.313798e+001 -3.668053e+000 -4.042051e+001 180 160 216
-2.313798e+001 -3.668053e+000 -4.042051e+001 180 160 216
-2.245066e+001 -5.465259e+000 -4.063138e+001 59 39 67
-1.611238e+001 -1.344920e+001 -3.593702e+001 38 21 37
-2.542162e+000 2.263151e+000 -7.803930e+000 136 142 91
-2.085725e+000 2.093085e+000 -7.785216e+000 85 102 64
-1.760936e+000 2.009810e+000 -7.732304e+000 200 182 136
-2.297988e-001 2.193879e+000 -8.877324e+000 131 147 113
