ply
format ascii 1.0
element face 0
property list uchar int vertex_indices
element vertex 869
property float x
property float y
property float z
property uchar diffuse_red
property uchar diffuse_green
property uchar diffuse_blue
end_header
-1.226323e+000 -1.335797e+000 -7.052234e+000 137 126 81
-1.864273e-002 -1.272306e+000 -7.713021e+000 122 104 56
1.054464e-001 -1.269890e+000 -7.779399e+000 124 110 62
-1.386676e+000 -1.446751e+000 -7.095180e+000 133 126 80
-1.484339e+000 -1.532020e+000 -7.132083e+000 125 119 70
-1.305525e+000 -1.521634e+000 -7.218528e+000 130 125 67
-1.246668e+000 -1.496814e+000 -7.259970e+000 131 120 63
-1.074249e+000 -1.487390e+000 -7.348908e+000 133 121 61
1.114881e-001 -1.470509e+000 -7.903351e+000 92 81 48
1.402290e-002 -1.386216e+000 -8.091097e+000 68 86 67
-4.923212e-002 -1.336269e+000 -8.140266e+000 110 108 87
-2.711604e-001 -1.143496e+000 -8.310238e+000 169 146 128
-1.328086e+000 -7.749203e-001 -8.255272e+000 125 100 94
5.476989e-001 -6.273600e-001 -9.364195e+000 151 133 119
-1.159051e+000 -3.932998e-001 -8.848621e+000 122 102 94
-2.790950e+000 3.495336e-001 -8.945998e+000 144 132 89
-2.708736e+000 6.443117e+000 -1.503245e+001 175 158 150
-2.708736e+000 6.443117e+000 -1.503245e+001 175 158 150
-2.449442e-001 -1.839695e-001 -6.496519e+000 130 117 72
-1.799214e-001 -2.000463e-001 -6.526713e+000 129 116 78
-9.325434e-001 -5.195073e-001 -6.331974e+000 88 90 79
3.166830e-001 -2.571336e-001 -6.870724e+000 146 136 84
2.583589e-001 -4.385044e-001 -6.954411e+000 164 148 88
1.355770e+000 -4.724267e-001 -7.796680e+000 84 79 63
1.818791e-001 -1.088504e+000 -7.596373e+000 138 121 70
-1.317553e+000 -1.351870e+000 -7.011677e+000 84 76 47
-9.002365e-001 -1.298542e+000 -7.206760e+000 77 72 47
-1.189369e+000 -1.515752e+000 -7.282831e+000 139 128 70
3.172744e-001 -1.439060e+000 -8.083052e+000 132 120 68
-2.148051e+000 -2.336207e-001 -7.668327e+000 221 115 118
-4.723855e-001 -1.462287e-001 -6.310320e+000 136 116 79
-8.626253e-001 -6.659170e-001 -6.510095e+000 96 94 79
1.338267e+000 -6.610252e-001 -7.766551e+000 135 123 109
-1.379804e+000 -1.257756e+000 -6.878868e+000 145 129 78
-1.658279e+000 -1.474445e+000 -6.978641e+000 129 124 74
-1.275199e+000 -1.495769e+000 -7.196102e+000 93 87 55
-1.145715e+000 -1.490054e+000 -7.265191e+000 103 98 60
2.394841e-001 -1.446210e+000 -8.037927e+000 135 122 66
-3.962011e-001 -1.743043e-001 -6.359647e+000 225 212 208
1.393838e+000 -7.546116e-002 -7.355916e+000 92 97 77
-6.069205e-001 -9.644367e-001 -7.031016e+000 147 132 98
-9.719734e-001 -1.058533e+000 -6.913540e+000 161 143 97
-9.696333e-001 -1.369254e+000 -7.257289e+000 98 89 60
5.857097e-001 -6.162609e-001 -9.395182e+000 151 133 119
-2.718809e-002 -1.859723e-001 -6.630581e+000 148 135 84
2.949635e-001 -2.323942e-001 -6.788837e+000 137 133 94
3.473409e-001 -1.383571e+000 -8.023830e+000 92 87 50
-2.638031e-001 3.764632e-001 -1.030810e+001 232 223 214
3.482059e-001 -3.981821e-001 -7.030272e+000 158 146 82
-8.364392e-001 -9.173786e-001 -6.747823e+000 164 146 98
1.492722e+000 -1.121734e+000 -7.904370e+000 188 182 166
1.087234e+000 7.804731e-001 -8.966359e+000 122 116 75
-2.343612e+001 3.598729e+000 -4.707347e+001 203 35 68
-2.177122e+000 1.263817e+000 -7.706209e+000 162 145 138
-7.980876e+000 2.429576e+001 -1.964191e+001 166 143 137
-6.680518e+000 2.441690e+001 -2.055980e+001 99 79 72
-7.906468e+000 2.335048e+001 -2.109740e+001 219 194 187
-2.567576e+000 1.478457e-001 -8.691647e+000 233 213 186
-6.265311e+000 2.568569e+001 -1.756331e+001 188 148 146
-6.266659e+000 2.568680e+001 -1.756387e+001 188 148 146
-7.273891e+000 2.780876e+001 -1.966591e+001 191 156 152
-7.299190e+000 2.797333e+001 -1.973854e+001 191 156 152
-8.613395e+000 2.948735e+001 -2.049508e+001 94 122 133
-8.126550e+000 2.970025e+001 -2.051476e+001 172 140 134
-7.070354e+000 2.568451e+001 -2.031059e+001 134 109 102
-5.968242e+000 2.798235e+001 -1.655091e+001 134 106 105
-5.543254e+000 2.494916e+001 -1.765772e+001 187 149 140
-7.729076e+000 2.878509e+001 -2.019377e+001 209 171 168
-7.106645e+000 2.598999e+001 -1.967217e+001 137 109 106
-6.629361e+000 2.571802e+001 -2.038985e+001 124 106 96
-8.029562e+000 2.453719e+001 -1.976095e+001 164 137 131
-6.257125e+000 2.826086e+001 -1.623809e+001 96 81 85
-5.836698e+000 2.691633e+001 -1.654420e+001 180 156 152
-5.690353e+000 2.461506e+001 -1.706070e+001 173 137 129
-6.031396e+000 2.589364e+001 -1.906992e+001 140 116 104
-6.444934e+000 2.610752e+001 -1.938343e+001 188 161 154
-6.828658e+000 2.604924e+001 -2.015858e+001 174 155 148
-5.303962e+000 2.619175e+001 -1.619012e+001 139 112 101
-4.961094e+000 2.532127e+001 -1.707470e+001 144 115 103
-5.967246e+000 2.589714e+001 -1.844120e+001 217 175 171
-6.481706e+000 2.613427e+001 -1.987132e+001 81 68 62
-7.476287e+000 2.582372e+001 -1.970779e+001 203 177 173
-7.741975e+000 2.529101e+001 -1.978199e+001 137 108 100
-5.041735e+000 2.576602e+001 -1.642023e+001 183 156 149
-6.168083e+000 2.571219e+001 -1.729993e+001 212 178 176
-5.301426e+000 2.507918e+001 -1.777456e+001 94 68 60
-7.153072e+000 2.841848e+001 -1.686683e+001 199 168 163
-7.107935e+000 2.806027e+001 -1.673092e+001 199 168 163
-6.996517e+000 2.856768e+001 -1.791681e+001 86 91 100
-7.011689e+000 2.864167e+001 -1.794423e+001 86 91 100
-9.974474e+000 2.726113e+001 -2.463797e+001 144 127 128
-6.809034e+000 2.501232e+001 -2.047424e+001 105 80 73
-7.850317e+000 3.177959e+001 -2.113776e+001 207 173 168
-6.120139e+000 2.595167e+001 -1.873550e+001 184 150 144
-6.119289e+000 2.555278e+001 -1.772000e+001 213 180 176
-8.340508e+000 2.943219e+001 -2.037443e+001 197 175 169
-6.233479e+000 2.578459e+001 -2.027471e+001 200 186 177
-5.842465e+000 2.588141e+001 -1.957330e+001 212 194 190
-3.302353e-001 -3.767734e-001 -6.556434e+000 151 139 89
1.344669e-001 -3.653533e-001 -6.897001e+000 164 145 97
1.452451e+000 -6.223278e-002 -7.352352e+000 119 123 105
-9.596815e-001 -7.588499e-001 -6.458831e+000 104 102 89
-7.750384e-001 -6.143126e-001 -6.504465e+000 117 109 70
-1.457511e-001 -5.565443e-001 -6.872028e+000 159 144 103
5.622467e-001 -3.811999e-001 -7.076637e+000 136 129 83
7.012582e-001 -3.223910e-001 -7.142972e+000 118 124 86
1.023870e+000 -3.750653e-001 -7.333058e+000 101 107 79
-9.178652e-001 -7.694913e-001 -6.546197e+000 148 146 131
-8.795660e-001 -7.589237e-001 -6.556429e+000 154 145 110
6.243146e-001 -5.442084e-001 -7.295672e+000 132 125 86
8.494669e-001 -5.553256e-001 -7.414514e+000 119 120 93
-4.834678e-001 -8.260621e-001 -6.902973e+000 161 146 113
5.212329e-001 -6.660397e-001 -7.351690e+000 144 136 89
5.083421e-001 -7.051665e-001 -7.373204e+000 141 135 75
1.021874e+000 -5.565763e-001 -7.532470e+000 101 106 80
1.021874e+000 -5.565763e-001 -7.532470e+000 101 106 80
-2.035941e-001 -8.600391e-001 -7.089638e+000 167 154 111
4.471661e-002 -8.300604e-001 -7.253429e+000 155 142 87
6.333172e-001 -6.810954e-001 -7.444750e+000 140 130 81
4.457307e-002 -8.319781e-001 -7.280543e+000 155 139 90
2.370566e-001 -8.980793e-001 -7.391980e+000 167 150 91
2.298488e-001 -8.767458e-001 -7.415049e+000 94 79 46
-8.203503e-001 -1.081992e+000 -6.987774e+000 106 91 62
-6.562590e-001 -1.087073e+000 -7.115831e+000 116 102 73
8.330150e-001 -9.120543e-001 -7.785178e+000 101 104 74
8.044128e-001 -1.008882e+000 -7.960309e+000 107 109 75
-1.486416e+000 -1.329133e+000 -6.881778e+000 100 89 46
-8.954132e-001 -1.221623e+000 -7.149882e+000 139 125 87
-8.581095e-002 -1.164679e+000 -7.545081e+000 150 140 87
1.011133e-001 -1.209345e+000 -7.677855e+000 86 74 37
9.433935e-001 -1.080907e+000 -8.067961e+000 89 93 66
-2.121100e+000 9.240400e-001 -7.473893e+000 145 135 123
8.414341e-001 -1.202941e+000 -8.146639e+000 90 96 62
8.414341e-001 -1.202941e+000 -8.146639e+000 90 96 62
-1.659608e+000 -1.436446e+000 -6.923960e+000 142 135 79
-1.235951e+000 -1.424031e+000 -7.136043e+000 87 77 47
-9.148742e-001 -1.357557e+000 -7.307513e+000 110 98 58
5.106964e-001 -1.419044e+000 -8.130961e+000 112 107 73
7.956651e-001 -1.328283e+000 -8.305618e+000 90 88 65
9.890206e-001 -1.345887e+000 -8.473673e+000 119 102 83
1.134107e+000 -1.230579e+000 -8.472085e+000 88 73 60
-1.067478e+000 -1.403322e+000 -7.566324e+000 161 127 89
-1.001381e+000 -1.424327e+000 -7.571830e+000 131 102 72
-9.157706e-001 -1.381028e+000 -7.652594e+000 155 131 93
-8.352090e-001 -1.405161e+000 -7.661852e+000 119 94 63
-5.486050e-001 -1.377441e+000 -7.820763e+000 111 94 64
-5.486050e-001 -1.377441e+000 -7.820763e+000 111 94 64
-1.824692e-003 -1.410637e+000 -8.041162e+000 115 111 86
-1.633884e+000 -1.330818e+000 -7.377878e+000 152 126 99
-1.601531e+000 -1.339196e+000 -7.390011e+000 152 128 99
-1.561730e+000 -1.337247e+000 -7.411786e+000 148 125 95
-1.266709e+000 -1.306016e+000 -7.584909e+000 166 134 95
-9.497081e-001 -1.337582e+000 -7.699187e+000 160 130 94
-9.135344e-001 -1.287008e+000 -7.783216e+000 166 131 88
-9.035995e-001 -1.275945e+000 -7.815130e+000 133 99 69
-5.669053e-001 -1.295003e+000 -7.931924e+000 112 91 63
-2.258358e-001 -1.302870e+000 -8.066672e+000 163 147 125
-3.313847e-001 -9.369540e-001 -8.542966e+000 117 112 89
-1.047942e+000 -5.906562e-001 -8.662329e+000 158 128 113
-1.045870e+000 -5.823734e-001 -8.666787e+000 158 128 113
4.251639e-001 -8.177364e-001 -9.737854e+000 176 164 150
-1.277738e-001 5.010015e-001 -1.038701e+001 117 110 88
-1.095173e+000 -4.861412e-001 -6.213392e+000 93 90 82
-8.647561e-001 -5.019566e-001 -6.337421e+000 97 93 82
1.295647e-001 -2.428236e-001 -6.726226e+000 109 100 62
-9.918893e-001 -6.233442e-001 -6.393989e+000 167 151 136
-3.463024e-001 -4.266515e-001 -6.586747e+000 154 141 86
-3.986803e-001 -5.144554e-001 -6.650804e+000 126 112 65
-1.835729e-001 -3.685471e-001 -6.682174e+000 155 139 87
-2.416338e-002 -3.610502e-001 -6.754561e+000 156 136 85
-8.592342e-002 -4.586050e-001 -6.790875e+000 114 100 67
6.053391e-001 -3.227195e-001 -7.044388e+000 95 95 69
7.082025e-001 -2.900492e-001 -7.075850e+000 116 122 84
7.982421e-001 -2.823105e-001 -7.152260e+000 88 92 67
8.516348e-001 -2.551302e-001 -7.120954e+000 84 89 64
1.112428e+000 -1.947114e-001 -7.226718e+000 86 90 67
1.030633e+000 -2.087572e-001 -7.240904e+000 111 117 91
-1.939868e-001 -5.397297e-001 -6.837287e+000 161 147 101
1.718977e-001 -4.082124e-001 -6.918321e+000 105 93 53
6.647730e-001 -3.406994e-001 -7.137313e+000 86 85 57
6.862426e-001 -3.654506e-001 -7.166921e+000 126 127 91
6.885947e-001 -4.101598e-001 -7.133861e+000 88 91 64
7.474377e-001 -3.437851e-001 -7.154837e+000 116 122 86
7.474377e-001 -3.437851e-001 -7.154837e+000 116 122 86
6.107348e-001 -4.102049e-001 -7.148942e+000 127 124 83
8.494583e-001 -3.138565e-001 -7.222569e+000 80 86 62
8.494583e-001 -3.138565e-001 -7.222569e+000 80 86 62
7.709373e-001 -3.751385e-001 -7.231340e+000 84 84 57
1.063045e+000 -3.502069e-001 -7.344861e+000 80 84 59
1.289444e+000 -2.425261e-001 -7.450415e+000 74 79 58
-2.721806e-001 -7.004762e-001 -6.883758e+000 111 94 62
-2.188244e-001 -6.868628e-001 -6.935994e+000 105 89 63
3.563487e-002 -5.986255e-001 -6.985185e+000 97 83 52
8.601636e-002 -6.438114e-001 -7.059051e+000 111 96 61
4.744855e-001 -5.537123e-001 -7.205623e+000 94 90 51
5.642478e-001 -5.382739e-001 -7.210971e+000 137 133 88
8.792079e-001 -4.166547e-001 -7.387093e+000 80 84 59
8.463019e-001 -4.964455e-001 -7.405867e+000 82 85 61
8.525730e-001 -5.456051e-001 -7.409059e+000 114 116 86
9.601968e-001 -4.767060e-001 -7.390504e+000 73 79 54
1.061087e+000 -5.002746e-001 -7.466274e+000 77 82 60
-3.062051e-001 -7.166016e-001 -6.962412e+000 165 147 110
-3.552739e-001 -7.951439e-001 -6.951926e+000 110 94 64
-2.744995e-001 -7.560175e-001 -6.964221e+000 150 136 100
-1.828679e-001 -7.335713e-001 -7.026992e+000 113 96 70
-4.912962e-002 -6.940040e-001 -7.048143e+000 105 91 63
-6.631592e-002 -7.506304e-001 -7.113180e+000 93 83 50
1.660973e-001 -6.506256e-001 -7.130948e+000 171 153 81
2.355927e-001 -7.197812e-001 -7.229134e+000 104 92 49
4.387937e-001 -6.564015e-001 -7.266625e+000 99 91 60
4.983110e-001 -6.474272e-001 -7.343247e+000 96 86 59
5.594598e-001 -6.373545e-001 -7.347364e+000 93 85 49
6.460072e-001 -6.355215e-001 -7.376390e+000 136 131 84
5.481771e-001 -6.723064e-001 -7.376937e+000 89 80 47
7.331658e-001 -6.464990e-001 -7.453543e+000 81 77 50
1.035610e+000 -5.929145e-001 -7.601797e+000 72 78 51
1.074437e+000 -5.685640e-001 -7.594599e+000 101 105 79
1.087052e+000 -6.016426e-001 -7.610715e+000 67 70 48
-6.473777e-001 -8.819151e-001 -6.886447e+000 101 83 63
-3.752562e-002 -8.064612e-001 -7.210053e+000 99 84 54
4.251575e-001 -7.023644e-001 -7.346620e+000 103 87 54
5.776906e-001 -6.749674e-001 -7.413929e+000 139 130 87
5.882914e-001 -7.159275e-001 -7.424449e+000 90 84 50
9.562802e-001 -6.452021e-001 -7.584151e+000 68 72 45
1.052630e+000 -6.969922e-001 -7.691530e+000 70 74 51
-3.368865e-001 -9.304677e-001 -7.113628e+000 166 145 98
-2.552401e-001 -9.334333e-001 -7.193028e+000 124 110 64
3.703002e-001 -9.111159e-001 -7.474634e+000 162 146 92
3.703002e-001 -9.111159e-001 -7.474634e+000 162 146 92
5.836928e-001 -8.834407e-001 -7.592593e+000 84 81 43
6.168793e-001 -8.709900e-001 -7.593964e+000 123 119 72
7.356910e-001 -7.968738e-001 -7.626975e+000 77 74 57
7.356910e-001 -7.968738e-001 -7.626975e+000 77 74 57
6.428463e-001 -8.857351e-001 -7.641217e+000 87 82 52
8.698529e-001 -7.488176e-001 -7.671425e+000 70 69 46
8.510088e-001 -7.947857e-001 -7.691913e+000 76 78 56
8.988745e-001 -8.150816e-001 -7.736217e+000 72 74 52
9.641755e-001 -7.944510e-001 -7.763720e+000 71 75 52
-7.050712e-001 -1.105621e+000 -7.102399e+000 62 55 42
4.127294e-001 -9.545503e-001 -7.573077e+000 145 132 87
4.127294e-001 -9.545503e-001 -7.573077e+000 145 132 87
5.996634e-001 -9.178129e-001 -7.637246e+000 125 121 77
5.491808e-001 -9.752049e-001 -7.685595e+000 86 79 51
7.412777e-001 -8.695041e-001 -7.727215e+000 106 107 70
6.677844e-001 -9.091181e-001 -7.735530e+000 120 118 73
6.974274e-001 -9.129584e-001 -7.785259e+000 76 75 47
7.974526e-001 -9.204967e-001 -7.767409e+000 70 73 45
7.378548e-001 -9.334413e-001 -7.762990e+000 78 78 50
7.800712e-001 -9.643745e-001 -7.795374e+000 75 75 51
8.749105e-001 -8.907125e-001 -7.844423e+000 69 71 45
-1.169662e+000 -1.232864e+000 -6.955913e+000 106 96 61
-1.071338e+000 -1.229341e+000 -7.027177e+000 141 127 88
-3.780633e-001 -1.178698e+000 -7.351487e+000 150 136 88
-1.462935e-001 -1.089290e+000 -7.406687e+000 87 76 46
-1.462935e-001 -1.089290e+000 -7.406687e+000 87 76 46
-2.319776e-001 -1.168148e+000 -7.437351e+000 95 82 50
-4.392817e-002 -1.064012e+000 -7.441996e+000 144 132 82
-3.685898e-002 -1.108267e+000 -7.498588e+000 99 86 48
3.657146e-001 -1.007121e+000 -7.648186e+000 88 78 44
4.369646e-001 -1.039962e+000 -7.663042e+000 141 130 77
4.310182e-001 -1.058506e+000 -7.710992e+000 137 121 74
4.310182e-001 -1.058506e+000 -7.710992e+000 137 121 74
6.016245e-001 -9.949583e-001 -7.753436e+000 75 72 48
5.486934e-001 -1.048404e+000 -7.740114e+000 125 119 76
7.084901e-001 -1.016567e+000 -7.840730e+000 65 64 44
7.190463e-001 -1.003882e+000 -7.895745e+000 68 68 40
8.529021e-001 -9.457526e-001 -7.868097e+000 62 65 38
8.529021e-001 -9.457526e-001 -7.868097e+000 62 65 38
8.481060e-001 -9.607548e-001 -7.894262e+000 75 78 50
8.532646e-001 -9.574296e-001 -7.934369e+000 74 77 47
8.240858e-001 -1.023357e+000 -7.952717e+000 78 78 51
8.611001e-001 -1.010277e+000 -7.965832e+000 98 103 71
8.611001e-001 -1.010277e+000 -7.965832e+000 98 103 71
1.096456e+000 -9.090325e-001 -8.020143e+000 66 68 46
9.344544e-001 -1.025001e+000 -8.007336e+000 61 65 41
-1.311172e+000 -1.249663e+000 -6.933677e+000 132 121 85
-1.039226e+000 -1.244582e+000 -7.075000e+000 155 140 98
-5.039688e-001 -1.237079e+000 -7.360499e+000 154 139 93
-5.038648e-001 -1.236595e+000 -7.360656e+000 154 139 93
-2.007062e-001 -1.154839e+000 -7.533443e+000 147 138 83
-7.633135e-002 -1.202341e+000 -7.593729e+000 103 90 51
-5.559675e-002 -1.220448e+000 -7.627143e+000 148 135 82
8.347849e-002 -1.178547e+000 -7.637524e+000 154 138 87
3.365519e-001 -1.154985e+000 -7.799187e+000 140 130 75
3.365519e-001 -1.154985e+000 -7.799187e+000 140 130 75
3.937805e-001 -1.147032e+000 -7.810834e+000 140 130 71
4.064558e-001 -1.180693e+000 -7.823122e+000 89 78 52
8.477201e-001 -1.110540e+000 -8.057751e+000 63 66 40
-1.387809e+000 -1.369392e+000 -7.015465e+000 143 130 86
-1.387809e+000 -1.369392e+000 -7.015465e+000 143 130 86
-1.286993e+000 -1.336070e+000 -7.042579e+000 140 132 85
-1.219515e+000 -1.360969e+000 -7.083114e+000 93 84 53
-8.119721e-002 -1.224650e+000 -7.632407e+000 94 81 49
2.461076e-001 -1.232022e+000 -7.805928e+000 148 134 83
4.399707e-001 -1.191386e+000 -7.955738e+000 137 127 76
5.825172e-001 -1.257993e+000 -8.033321e+000 119 116 74
7.471327e-001 -1.203015e+000 -8.053393e+000 73 73 49
-1.311422e+000 -1.426013e+000 -7.087541e+000 132 124 77
-4.110708e-001 -1.383780e+000 -7.573898e+000 149 132 86
-2.770549e-001 -1.350957e+000 -7.622080e+000 150 138 79
-3.017202e-001 -1.406352e+000 -7.690998e+000 149 135 87
1.684035e-002 -1.347463e+000 -7.804752e+000 142 131 79
3.891485e-002 -1.358133e+000 -7.855519e+000 84 72 41
1.732518e-001 -1.406536e+000 -7.927281e+000 140 128 71
1.732518e-001 -1.406536e+000 -7.927281e+000 140 128 71
3.391464e-001 -1.287147e+000 -7.946098e+000 138 132 73
6.086000e-001 -1.323638e+000 -8.088686e+000 97 93 64
5.845084e-001 -1.318329e+000 -8.114186e+000 72 68 44
6.416055e-001 -1.269601e+000 -8.163980e+000 113 109 79
-9.915206e-001 -1.468033e+000 -7.355908e+000 123 114 71
3.400134e-001 -1.424048e+000 -8.047626e+000 124 114 72
4.175327e-001 -1.435371e+000 -8.092166e+000 78 72 43
8.309172e-001 -1.409934e+000 -8.259256e+000 56 57 40
-2.082400e+000 -2.338081e-001 -7.481739e+000 237 182 188
-1.405614e+000 -1.430734e+000 -7.360191e+000 129 104 73
-1.256983e+000 -1.434898e+000 -7.431201e+000 122 98 67
-1.172402e+000 -1.424441e+000 -7.485518e+000 127 101 68
-1.107490e+000 -1.406171e+000 -7.542577e+000 150 122 83
-7.388008e-001 -1.391994e+000 -7.716389e+000 118 92 65
-6.421769e-001 -1.403313e+000 -7.762415e+000 115 94 63
-5.435453e-001 -1.454833e+000 -7.747029e+000 108 92 65
-3.617518e-001 -1.438979e+000 -7.836781e+000 105 91 62
-3.090990e-001 -1.431069e+000 -7.871350e+000 104 93 63
-2.363555e+000 9.676299e-001 -7.929426e+000 203 185 148
-2.409152e+000 9.186363e-001 -8.033775e+000 203 180 135
-1.041642e+000 -1.281971e+000 -7.735456e+000 133 102 71
-8.292785e-001 -1.263664e+000 -7.861040e+000 126 96 65
-7.324659e-001 -1.361551e+000 -7.778149e+000 125 98 73
-7.324659e-001 -1.361551e+000 -7.778149e+000 125 98 73
-7.142382e-001 -1.290187e+000 -7.862100e+000 124 97 68
-7.853366e-001 -1.290238e+000 -7.846792e+000 157 128 88
-1.588258e-001 -1.286158e+000 -8.149510e+000 164 148 120
-1.536065e-001 -1.270266e+000 -8.157686e+000 164 148 120
-1.002360e-001 -1.294049e+000 -8.143659e+000 103 100 71
-6.896214e-002 -1.288994e+000 -8.144023e+000 156 151 122
-7.777860e-002 -1.314475e+000 -8.129579e+000 156 151 122
-7.587306e-002 -1.209213e+000 -8.279981e+000 134 130 100
-1.801291e-001 -1.119893e+000 -8.372789e+000 110 100 71
-9.327116e-001 -7.792101e-001 -8.461271e+000 125 103 90
-4.353642e-001 -8.921371e-001 -8.558052e+000 181 153 127
-1.401121e+000 -5.365096e-001 -8.508912e+000 175 141 130
-9.334888e-001 -7.061195e-001 -8.562284e+000 110 88 82
-2.122395e+000 -4.637470e-001 -8.247741e+000 186 152 117
-1.367685e+000 -5.140672e-001 -8.590480e+000 173 145 133
-1.355564e+000 -3.848951e-001 -8.753088e+000 151 124 110
-1.992384e+000 -8.038794e-003 -8.904046e+000 171 144 114
-1.231544e+000 -6.525090e-001 -6.279435e+000 85 85 76
1.094157e-001 -3.902032e-001 -6.767315e+000 147 141 87
6.057968e-002 -3.859638e-001 -6.848850e+000 101 88 56
-2.038244e-001 -5.096632e-001 -6.786236e+000 121 105 70
5.696026e-001 -4.435701e-001 -7.165187e+000 101 94 61
-9.305053e-001 -7.901636e-001 -6.605370e+000 88 90 79
5.351806e-001 -5.422350e-001 -7.228762e+000 89 85 61
6.571897e-001 -5.346223e-001 -7.322002e+000 91 86 57
8.942147e-001 -5.050022e-001 -7.392671e+000 74 79 59
-4.295112e-001 -8.064777e-001 -6.939998e+000 106 90 69
6.382618e-001 -6.718016e-001 -7.429019e+000 136 128 80
-2.101138e-001 -8.039303e-001 -7.086865e+000 116 100 66
-8.470451e-001 -1.022289e+000 -6.940863e+000 96 83 63
-2.534970e-001 -9.192306e-001 -7.153710e+000 119 104 73
5.236663e-001 -8.891118e-001 -7.558635e+000 89 83 55
-1.772456e+000 -1.833680e-001 -6.848243e+000 224 213 184
-1.095023e+000 -1.155041e+000 -6.925493e+000 152 137 94
-9.412286e-001 -1.108315e+000 -6.999396e+000 104 93 61
-5.297013e-001 -1.069972e+000 -7.180906e+000 100 85 54
-3.959566e-001 -1.018790e+000 -7.179301e+000 110 95 55
-1.685979e-001 -1.010614e+000 -7.313348e+000 100 85 52
-2.541717e-001 -1.048317e+000 -7.309829e+000 106 90 66
-1.279705e-001 -1.036951e+000 -7.377234e+000 95 81 53
3.779919e-001 -9.701769e-001 -7.574750e+000 82 73 44
3.714251e-001 -9.840783e-001 -7.568508e+000 82 73 44
5.550708e-001 -9.401691e-001 -7.646135e+000 77 67 42
-1.064349e+000 -1.241531e+000 -6.976739e+000 148 135 94
-7.534616e-001 -1.154033e+000 -7.118495e+000 85 72 62
-4.328859e-001 -1.181598e+000 -7.325711e+000 157 141 92
1.440130e-001 -1.028472e+000 -7.527949e+000 152 139 77
3.944336e-001 -1.076775e+000 -7.732682e+000 92 81 53
6.037268e-001 -1.056230e+000 -7.797677e+000 116 113 70
-1.134558e+000 -1.249104e+000 -7.016954e+000 147 133 89
-9.524351e-001 -1.271972e+000 -7.163984e+000 95 89 58
-6.054947e-001 -1.267287e+000 -7.319244e+000 116 101 70
-3.975363e-001 -1.204563e+000 -7.387566e+000 148 134 85
-4.816037e-001 -1.238049e+000 -7.379492e+000 92 82 46
-4.816037e-001 -1.238049e+000 -7.379492e+000 92 82 46
-2.375722e-001 -1.180867e+000 -7.500955e+000 100 87 54
-2.375722e-001 -1.180867e+000 -7.500955e+000 100 87 54
5.966639e-001 -1.150626e+000 -7.955327e+000 81 78 51
5.966639e-001 -1.150626e+000 -7.955327e+000 81 78 51
7.802997e-001 -1.107552e+000 -7.963615e+000 72 75 46
-1.166181e+000 -1.338697e+000 -7.070313e+000 137 125 76
-1.001700e+000 -1.337688e+000 -7.218846e+000 130 117 74
-7.121826e-001 -1.356357e+000 -7.382594e+000 86 71 39
-7.121826e-001 -1.356357e+000 -7.382594e+000 86 71 39
-5.707041e-001 -1.334403e+000 -7.450591e+000 95 82 38
-4.514954e-001 -1.352249e+000 -7.517717e+000 152 137 78
2.984628e-001 -1.305532e+000 -7.890930e+000 98 86 54
-4.145663e-001 -1.448628e+000 -7.595540e+000 93 80 45
-1.711187e-001 -1.433875e+000 -7.763347e+000 95 81 46
6.119530e-001 -1.381709e+000 -8.162040e+000 72 69 44
6.590585e-001 -1.413823e+000 -8.216034e+000 68 68 43
-8.696483e-001 -1.424915e+000 -7.634624e+000 129 104 73
-8.694911e-001 -1.427170e+000 -7.633666e+000 129 104 73
-1.019588e-001 -1.308134e+000 -8.099003e+000 101 99 78
-3.713627e-001 -1.348421e+000 -7.967437e+000 112 99 68
-1.895570e-001 -1.240426e+000 -8.217617e+000 106 104 79
-1.155953e-001 -1.256142e+000 -8.151174e+000 156 142 116
-5.403568e-002 -1.229584e+000 -8.288595e+000 97 101 71
-2.286452e-001 -1.185618e+000 -8.269534e+000 111 105 80
-1.340680e-001 -1.121403e+000 -8.383853e+000 108 105 79
-1.726417e+000 -9.654097e-001 -7.808700e+000 97 96 70
-1.753892e+000 -9.082217e-001 -7.845248e+000 179 143 106
-1.353564e+000 -7.873446e-001 -8.210903e+000 168 140 128
-1.910845e+000 -7.781031e-001 -7.961552e+000 117 106 88
-1.491595e+000 -7.461539e-001 -8.217661e+000 181 148 133
-1.218910e+000 -3.279993e-001 -8.905418e+000 135 111 106
-2.743171e+000 2.098470e-001 -8.698200e+000 160 167 123
2.282962e-001 -3.516444e-001 -6.905824e+000 156 144 86
-1.603846e+000 -4.669933e-001 -6.571473e+000 220 214 157
-1.608051e+000 -4.962040e-001 -6.607496e+000 166 167 151
-1.278311e+000 -1.246060e+000 -6.917673e+000 96 87 59
-1.128011e+000 -1.134566e+000 -6.938874e+000 113 99 70
-1.554991e-001 -1.118256e+000 -7.441228e+000 88 80 49
-1.377515e+000 -1.358570e+000 -6.987257e+000 90 84 51
-1.202147e+000 -1.344529e+000 -7.080430e+000 103 96 67
-1.202147e+000 -1.344529e+000 -7.080430e+000 103 96 67
-1.090547e+000 -1.354482e+000 -7.141872e+000 98 90 53
-1.010342e+000 -1.288003e+000 -7.158659e+000 108 100 64
-5.215651e-003 -1.239539e+000 -7.728212e+000 122 104 56
-1.484300e+000 -1.460117e+000 -7.061352e+000 92 87 53
-1.454560e+000 -1.501228e+000 -7.115567e+000 85 81 48
-8.229469e-001 -1.504673e+000 -7.453759e+000 109 99 63
-6.920451e-001 -1.478571e+000 -7.569405e+000 156 135 72
-3.516174e-001 -1.459265e+000 -7.693386e+000 83 69 33
-2.069636e+000 -2.238126e-001 -7.432062e+000 199 103 103
-2.190493e+000 -1.026411e-001 -7.633640e+000 178 85 92
-3.735628e-001 -1.099947e+000 -8.290824e+000 178 153 132
-1.145558e+000 -7.775426e-001 -8.358863e+000 123 101 93
-6.980550e-001 -7.441831e-001 -8.626136e+000 134 105 89
5.216633e-002 2.805509e-001 -1.025178e+001 165 147 130
-7.908318e-001 -6.855802e-001 -6.553919e+000 121 115 79
-5.285114e-001 -1.146405e+000 -7.263416e+000 139 126 84
-1.484464e+000 -1.302622e+000 -6.906642e+000 128 121 75
-1.465865e+000 -1.349926e+000 -6.945919e+000 139 127 81
-5.210087e+000 2.643887e+001 -1.560564e+001 189 162 155
-1.133885e+000 -1.507872e+000 -7.316656e+000 134 121 68
9.819889e-001 -1.407288e+000 -8.554111e+000 155 137 123
-1.393063e-001 -1.148759e+000 -8.327655e+000 148 133 117
5.669614e-001 -4.653837e-001 -9.428013e+000 63 50 41
-8.442301e+000 2.998022e+001 -2.061620e+001 207 173 174
-1.450338e+000 -6.160551e-001 -8.396916e+000 181 149 137
-9.441426e-001 -5.252454e-001 -8.762951e+000 120 96 87
-1.013043e+000 -4.634264e-001 -8.809959e+000 118 101 95
-1.015477e+000 -3.963759e-001 -8.916062e+000 182 148 124
-1.227718e+000 -2.331374e-001 -9.005825e+000 178 150 128
-7.381189e+000 2.370099e+001 -2.062181e+001 207 174 165
1.474116e+000 -1.365410e-001 -7.438775e+000 97 95 82
-7.372348e-001 -7.226250e-001 -6.605048e+000 128 125 85
-1.101746e+000 -1.123495e+000 -6.895810e+000 159 141 91
-1.941538e+000 7.618386e-001 -7.158919e+000 118 123 118
-4.899482e+000 2.667246e+001 -1.576131e+001 122 91 86
-1.594271e+000 -1.436315e+000 -6.968333e+000 88 82 50
6.106876e-001 -1.419664e+000 -8.237551e+000 109 104 62
8.401540e-001 -1.353606e+000 -8.370128e+000 94 95 63
-1.422665e+000 -1.477465e+000 -7.280432e+000 158 132 99
-2.307196e+000 2.346747e-002 -7.930838e+000 195 104 112
-7.535337e+000 2.834696e+001 -1.958131e+001 214 174 168
-8.220655e+000 2.901736e+001 -2.066466e+001 113 121 127
-7.424992e+000 2.494869e+001 -1.990580e+001 137 98 91
-2.119995e+000 -1.517688e-001 -8.645938e+000 151 126 95
4.069080e-001 -6.371600e-001 -7.271914e+000 112 102 65
-4.527546e+000 2.938756e+001 -1.524227e+001 130 115 112
-5.220702e+000 2.535744e+001 -1.590648e+001 145 112 103
3.975727e-001 -7.025237e-001 -9.362821e+000 153 136 120
-8.411616e+000 2.609770e+001 -2.007990e+001 191 163 159
-8.849908e-001 -1.488444e+000 -7.391691e+000 61 54 48
-7.143165e+000 2.480211e+001 -2.139017e+001 91 57 50
-1.071097e+000 -6.537237e-001 -6.417177e+000 87 90 82
-5.050181e+000 2.937298e+001 -1.505357e+001 92 76 77
-5.469988e+000 2.618912e+001 -1.551026e+001 179 148 143
4.759897e-001 -4.250785e-001 -9.618495e+000 156 141 122
-1.075027e+001 3.333976e+001 -1.986898e+001 54 49 55
1.746164e+000 -1.168107e-001 -7.810360e+000 171 165 152
-5.334541e+000 2.784518e+001 -1.540135e+001 185 156 150
-5.241039e+000 2.700279e+001 -1.514560e+001 185 156 150
-6.433131e+000 9.251272e+000 -1.239321e+001 45 36 42
-1.218145e+000 -1.715816e-001 -6.332312e+000 82 82 66
3.132595e-001 -3.357553e-001 -6.921943e+000 142 133 79
-1.005260e+000 -6.585230e-001 -6.437287e+000 89 87 72
-1.141646e+000 -1.164485e+000 -6.914094e+000 88 75 49
-1.263911e+000 -1.216103e+000 -6.896658e+000 141 124 78
-8.988823e-001 -4.678355e-001 -6.301665e+000 89 83 69
-1.978100e-001 -4.150672e-001 -6.692697e+000 146 132 87
1.243287e+000 -1.680392e-001 -7.304400e+000 75 81 58
-2.075373e-001 -5.874810e-001 -6.869061e+000 155 141 96
5.652638e-001 -5.449151e-001 -7.253404e+000 131 127 81
5.652638e-001 -5.449151e-001 -7.253404e+000 131 127 81
7.527166e-001 -4.968809e-001 -7.283469e+000 105 113 75
7.643161e-001 -4.731304e-001 -7.294007e+000 105 113 75
-9.845841e-001 -8.071503e-001 -6.565821e+000 82 80 67
-9.036816e-001 -8.046623e-001 -6.627899e+000 150 138 99
9.237195e-001 -6.712853e-001 -7.594319e+000 93 101 72
-3.076975e-001 -8.590311e-001 -7.079206e+000 155 139 103
-9.716172e-001 -1.132527e+000 -6.987275e+000 148 133 94
8.317177e-001 -1.202063e+000 -8.107430e+000 89 92 63
-1.930501e-001 -1.007106e+000 -8.509998e+000 150 139 117
8.210680e-001 -3.800413e-001 -7.229446e+000 75 79 56
1.319719e+000 -3.697620e-001 -7.496217e+000 98 102 75
1.284930e+000 -3.728784e-001 -7.506909e+000 69 73 56
-3.455462e-002 -7.278645e-001 -7.108639e+000 150 134 92
-5.942974e-001 -9.227770e-001 -6.991572e+000 109 93 68
6.134585e-001 -1.104765e+000 -7.872100e+000 65 63 32
5.271698e-001 -1.312263e+000 -8.059324e+000 71 67 40
-4.795458e-001 -4.875734e-001 -6.625074e+000 66 59 43
3.102761e-001 -5.145217e-001 -7.082828e+000 100 87 49
-4.306972e+000 2.752477e+001 -1.505492e+001 130 115 110
2.958120e-001 -8.604958e-001 -7.414338e+000 96 83 48
-8.554245e-001 -1.204326e+000 -7.101469e+000 103 89 63
-9.743346e-001 -1.495295e+000 -7.364227e+000 91 80 50
1.246826e-001 -1.445298e+000 -7.980954e+000 141 125 66
-6.536978e-002 -1.404536e+000 -7.987785e+000 111 106 74
1.708785e-001 -4.459925e-001 -6.954101e+000 133 119 80
4.964640e-001 2.385164e-001 -1.055979e+001 185 169 154
-2.894942e+001 1.551639e+001 -6.791268e+001 168 161 168
-3.524118e+001 3.620639e+001 -7.692146e+001 203 198 204
-1.981747e+001 4.145001e+000 -4.744337e+001 240 49 90
-1.781273e+001 3.058643e+001 -2.839034e+001 248 247 252
-7.199095e+000 2.656604e+001 -1.994015e+001 137 109 106
-1.901622e+001 5.044836e+001 -3.373124e+001 29 27 30
-4.672918e+000 2.759954e+001 -1.606067e+001 161 142 138
-5.465588e+000 2.581750e+001 -1.647716e+001 139 115 103
-5.465588e+000 2.581750e+001 -1.647716e+001 139 115 103
-1.870855e+001 4.756431e+001 -3.144900e+001 117 104 111
-8.736886e+000 2.785299e+001 -2.496789e+001 215 186 178
-1.782784e+001 3.279092e+001 -2.796905e+001 147 127 126
-8.349881e-001 -1.406693e+000 -7.661664e+000 119 94 63
-1.255602e+000 -1.281651e+000 -7.624407e+000 131 99 62
-1.156253e+000 -1.257354e+000 -7.708846e+000 176 137 90
-6.952446e-001 -1.372938e+000 -7.774654e+000 143 121 81
-3.700928e-001 -9.321636e-001 -8.539001e+000 170 149 121
-1.890867e-001 -4.177773e-001 -9.273954e+000 135 101 71
-7.611544e-001 -6.984005e-001 -6.576038e+000 145 137 95
6.145244e-001 -4.842458e-001 -7.223814e+000 88 85 48
3.205107e-001 -9.730125e-001 -7.569942e+000 91 79 48
5.919301e-001 -9.485212e-001 -7.696470e+000 122 114 75
-3.325474e-001 -1.124183e+000 -7.339196e+000 99 86 52
-2.140434e-001 -1.126659e+000 -7.400586e+000 95 82 47
-2.283218e-001 -1.159265e+000 -7.441459e+000 95 82 50
9.011912e-001 -1.034700e+000 -7.963899e+000 98 102 74
2.682459e-001 -1.321888e+000 -7.904959e+000 142 131 70
4.598429e-001 -1.340864e+000 -8.050775e+000 80 75 46
7.157514e-001 -1.282691e+000 -8.136214e+000 65 60 40
7.744814e-001 -1.354889e+000 -8.218318e+000 101 99 74
-1.014528e+000 -1.478144e+000 -7.341134e+000 98 88 52
3.763763e-001 -1.408015e+000 -8.051125e+000 75 68 39
-1.347676e+000 -1.309831e+000 -7.550031e+000 166 131 95
-2.410182e-001 -1.123726e+000 -8.309275e+000 166 147 124
-8.786004e-001 -8.121459e-001 -8.449692e+000 133 105 94
-5.826897e-001 2.410336e+001 -8.527711e+000 149 136 128
-8.600636e-001 2.250204e+001 -8.638841e+000 110 95 92
-3.794183e-001 -6.709052e-001 -6.841892e+000 108 93 62
-1.903318e-001 -8.792757e-001 -7.186549e+000 117 102 65
-2.946879e-002 -1.151713e+000 -7.530294e+000 135 122 69
4.070105e-001 -1.049664e+000 -7.694968e+000 82 74 39
-6.927419e-001 -1.299590e+000 -7.346342e+000 101 85 58
-2.594201e-001 -1.365461e+000 -7.646809e+000 88 76 53
4.878082e-001 -1.285988e+000 -8.028787e+000 80 73 47
8.754369e-001 -1.325775e+000 -8.249770e+000 55 57 36
3.712947e-001 -1.416630e+000 -8.074803e+000 93 85 55
-6.165629e+000 2.672228e+001 -1.680009e+001 175 134 128
-1.448843e-001 -1.209346e+000 -8.233360e+000 103 101 77
-1.755023e+000 -9.072555e-001 -7.845551e+000 179 143 106
-1.035784e+000 -1.097024e+000 -6.907943e+000 162 143 100
-4.206446e+000 2.594866e+001 -1.465477e+001 135 119 112
9.024539e-001 -1.394237e+000 -8.322548e+000 66 67 51
-7.694854e+000 3.026652e+001 -1.958037e+001 161 132 129
-2.153805e+000 -1.689323e-001 -7.631106e+000 230 188 190
-1.695065e+000 -9.598441e-001 -7.820622e+000 130 114 89
-1.239332e+000 2.457817e+001 -9.802504e+000 84 74 67
-4.562516e+000 2.496886e+001 -1.624559e+001 110 81 77
-4.122736e+000 2.564865e+001 -1.498095e+001 101 84 76
5.880754e-001 -6.825563e-001 -9.359492e+000 158 142 126
-3.654354e-001 -4.894155e-001 -6.656104e+000 149 133 89
5.965286e-001 -3.625538e-001 -7.075259e+000 86 84 59
-2.089028e-001 -5.901691e-001 -6.867749e+000 151 139 88
1.507587e-001 -5.403135e-001 -7.018679e+000 154 137 89
7.319506e-001 -3.902175e-001 -7.208512e+000 115 118 87
-1.654511e-001 -6.089426e-001 -6.954629e+000 158 140 100
5.116417e-001 -5.296723e-001 -7.205628e+000 132 127 83
4.983627e-001 -5.728941e-001 -7.240519e+000 135 127 83
1.063964e+000 -5.649627e-001 -7.519361e+000 94 98 75
-5.560407e-001 -7.605641e-001 -6.842473e+000 139 130 93
-2.044118e-001 -7.160932e-001 -6.993414e+000 155 139 103
5.485386e-001 -7.478840e-001 -7.444190e+000 136 125 84
4.466874e-002 -8.293473e-001 -7.253496e+000 154 135 93
3.186309e-001 -8.191040e-001 -7.375494e+000 83 70 35
5.535592e-001 -8.812709e-001 -7.545002e+000 121 113 76
-3.812496e-001 -1.051928e+000 -7.238755e+000 148 131 79
3.411963e-001 -9.929440e-001 -7.584577e+000 137 125 73
3.398082e-001 -9.966322e-001 -7.583429e+000 137 125 73
6.467080e-001 -9.349404e-001 -7.657288e+000 112 108 73
-1.233793e+000 -1.178723e+000 -6.935089e+000 136 124 86
-4.935163e-001 -1.147849e+000 -7.259272e+000 91 75 48
-2.362056e-001 -1.126739e+000 -7.424273e+000 142 127 82
5.011837e-001 -1.018933e+000 -7.675505e+000 122 115 69
5.011837e-001 -1.018933e+000 -7.675505e+000 122 115 69
4.873309e-001 -1.054723e+000 -7.715615e+000 129 118 70
-1.029815e+000 -1.252524e+000 -7.108397e+000 131 122 79
-9.965927e-001 -1.281013e+000 -7.155134e+000 95 81 42
3.617334e-001 -1.098257e+000 -7.739226e+000 133 121 76
-1.395760e+000 -1.359993e+000 -7.035421e+000 79 65 39
-5.784363e-001 -1.307464e+000 -7.426653e+000 145 128 83
-5.504532e-001 -1.351260e+000 -7.455909e+000 147 132 76
2.128911e-001 -1.306287e+000 -7.822528e+000 140 128 69
3.492989e-001 -1.253993e+000 -7.845739e+000 136 125 75
-1.133221e+000 -1.411259e+000 -7.207584e+000 92 87 50
-1.692507e+000 -1.521029e+000 -7.007033e+000 131 130 76
3.916647e-001 -1.434805e+000 -8.075995e+000 117 112 71
-6.663875e-001 -1.410602e+000 -7.778617e+000 129 106 70
-4.561228e-002 -1.409158e+000 -8.041193e+000 118 116 95
-1.761181e+000 -1.381066e+000 -7.245949e+000 124 110 76
-1.532938e+000 -1.361136e+000 -7.376095e+000 140 117 85
-1.370528e+000 -1.302322e+000 -7.533273e+000 152 118 80
-1.303718e+000 -1.301066e+000 -7.578053e+000 148 115 78
-9.386093e-001 -1.326530e+000 -7.731850e+000 111 82 51
-8.728828e-001 -1.353533e+000 -7.736046e+000 136 108 72
-7.415294e-001 -1.340428e+000 -7.805268e+000 134 108 75
-3.919053e-001 -9.685242e-001 -8.476340e+000 169 145 126
-1.737683e+000 -9.028481e-001 -7.877420e+000 113 86 59
-3.946677e-001 -9.622555e-001 -8.503607e+000 108 89 74
-3.736959e-001 -9.508977e-001 -8.530406e+000 153 129 107
-9.761635e-001 -7.164943e-001 -8.520764e+000 143 116 98
-7.459213e-001 -7.862973e-001 -8.557853e+000 111 87 75
-6.978831e-001 -7.866524e-001 -8.570827e+000 152 125 109
-2.047344e+000 -6.974199e-001 -7.972387e+000 174 133 100
-1.940408e+000 -7.352679e-001 -8.012808e+000 168 135 102
-2.002349e+000 -9.145071e-002 -8.836388e+000 114 97 68
-2.687378e+000 1.253776e-001 -8.720541e+000 158 152 99
-2.812303e+000 2.854454e-001 -8.906202e+000 204 182 166
-2.773916e+000 4.389854e-001 -9.035801e+000 207 184 170
1.481701e-001 -2.801254e-001 -6.743093e+000 132 123 82
-1.528711e-001 -3.494735e-001 -6.707193e+000 105 87 52
1.839568e-001 -3.641413e-001 -6.889738e+000 100 88 56
2.224178e-001 -4.082752e-001 -6.932990e+000 100 87 57
4.277755e-001 -3.271093e-001 -6.938687e+000 135 127 89
6.209451e-001 -2.023490e-001 -6.985475e+000 114 114 84
-9.619568e-001 -6.753135e-001 -6.490724e+000 153 146 130
-8.372689e-001 -6.136631e-001 -6.516100e+000 82 83 69
6.213758e-001 -4.479458e-001 -7.169174e+000 83 82 60
-1.115267e+000 -7.791897e-001 -6.525027e+000 135 134 117
-5.067302e-001 -6.779588e-001 -6.827343e+000 99 84 60
-4.569899e-001 -6.864332e-001 -6.841163e+000 107 93 64
-1.186346e-001 -6.280218e-001 -6.956363e+000 164 144 94
1.099623e-001 -5.771827e-001 -7.025460e+000 88 72 44
5.568631e-001 -6.358080e-001 -7.321612e+000 94 87 58
1.062522e+000 -4.956749e-001 -7.467084e+000 68 70 48
-5.506449e-001 -8.158107e-001 -6.897445e+000 97 79 55
-3.114231e-001 -7.909467e-001 -7.045541e+000 96 80 51
-3.114231e-001 -7.909467e-001 -7.045541e+000 96 80 51
-1.743769e-001 -7.071748e-001 -7.032790e+000 105 89 58
-1.902848e-001 -8.192052e-001 -7.111280e+000 151 135 97
-1.494324e-001 -7.765712e-001 -7.123941e+000 111 98 64
-6.178584e-002 -7.970883e-001 -7.130178e+000 148 135 93
1.029831e-001 -7.495938e-001 -7.200464e+000 88 71 45
5.696508e-002 -7.974199e-001 -7.198006e+000 148 132 82
-4.719482e-001 -9.165371e-001 -7.078213e+000 85 69 44
-2.269518e-001 -8.476315e-001 -7.122890e+000 106 90 57
-2.144307e-001 -8.774889e-001 -7.136066e+000 152 138 93
4.099280e-003 -8.691403e-001 -7.261841e+000 91 77 46
2.136269e-001 -8.483324e-001 -7.335963e+000 154 135 68
3.442131e-001 -9.023839e-001 -7.429918e+000 88 78 42
4.354013e-001 -8.944834e-001 -7.502564e+000 136 122 77
5.881589e-001 -8.559127e-001 -7.537832e+000 85 80 50
-1.503986e-001 -9.631247e-001 -7.252101e+000 99 85 57
-2.516894e-001 -9.801302e-001 -7.284666e+000 152 135 92
4.059627e-001 -8.973487e-001 -7.502469e+000 78 69 40
4.079564e-001 -8.938205e-001 -7.504330e+000 78 69 40
3.604121e-001 -9.364140e-001 -7.493084e+000 137 127 77
4.395213e-001 -9.551079e-001 -7.577524e+000 92 81 55
8.242654e-001 -9.147869e-001 -7.751133e+000 100 102 69
8.968688e-001 -9.423688e-001 -7.835126e+000 66 65 44
-7.403427e-001 -1.104024e+000 -7.133528e+000 84 71 53
-6.432223e-001 -1.120361e+000 -7.173664e+000 147 131 96
-6.094518e-001 -1.088103e+000 -7.184810e+000 91 75 50
-6.127919e-001 -1.099190e+000 -7.182067e+000 91 75 50
-6.773765e-001 -1.140985e+000 -7.176226e+000 95 80 53
-3.505882e-001 -1.092776e+000 -7.281171e+000 144 132 80
-3.182637e-001 -1.080777e+000 -7.319386e+000 81 69 36
-2.771382e-001 -1.103478e+000 -7.381865e+000 88 75 43
-1.702746e-001 -1.078150e+000 -7.405790e+000 123 109 63
-7.161970e-002 -1.066096e+000 -7.398617e+000 95 79 56
-7.832372e-002 -1.088564e+000 -7.430638e+000 85 70 39
2.035116e-003 -1.018317e+000 -7.439738e+000 89 78 46
-2.547215e-002 -1.079751e+000 -7.455388e+000 91 78 51
-6.094585e-002 -1.107759e+000 -7.477706e+000 145 129 83
-7.527567e-003 -1.103529e+000 -7.493425e+000 149 136 83
2.963144e-001 -1.038654e+000 -7.651144e+000 97 83 54
3.994419e-001 -1.059628e+000 -7.684951e+000 85 73 45
6.195348e-001 -1.014897e+000 -7.745724e+000 114 112 72
4.969661e-001 -1.092913e+000 -7.731095e+000 82 77 48
5.002576e-001 -1.095011e+000 -7.768191e+000 76 68 39
8.611998e-001 -1.047289e+000 -7.927893e+000 62 62 42
-1.055318e+000 -1.248209e+000 -7.091802e+000 85 78 52
-1.099177e+000 -1.303954e+000 -7.103956e+000 126 115 71
-6.946110e-001 -1.250000e+000 -7.276760e+000 150 132 90
-6.942119e-001 -1.249542e+000 -7.276482e+000 150 132 90
-3.535044e-001 -1.175581e+000 -7.384139e+000 91 78 43
-3.340317e-001 -1.193237e+000 -7.407504e+000 146 132 85
-3.340317e-001 -1.193237e+000 -7.407504e+000 146 132 85
-3.444951e-001 -1.214169e+000 -7.441743e+000 142 129 79
-3.489795e-001 -1.227877e+000 -7.436654e+000 142 129 79
-2.333612e-001 -1.170579e+000 -7.436672e+000 86 72 37
-2.060211e-001 -1.172537e+000 -7.465080e+000 139 126 81
-3.300049e-001 -1.242272e+000 -7.474270e+000 96 82 43
-1.327543e-001 -1.220527e+000 -7.549748e+000 88 73 43
-1.051840e-002 -1.177606e+000 -7.570813e+000 87 72 46
3.874919e-002 -1.226417e+000 -7.649405e+000 105 92 60
2.572807e-001 -1.134521e+000 -7.709288e+000 90 79 51
1.764820e-001 -1.189485e+000 -7.696020e+000 87 72 41
2.076096e-001 -1.250583e+000 -7.715789e+000 78 65 31
3.266071e-001 -1.171981e+000 -7.770325e+000 134 123 70
3.314693e-001 -1.216890e+000 -7.794137e+000 77 67 39
3.698876e-001 -1.203300e+000 -7.823208e+000 125 113 68
5.398338e-001 -1.147070e+000 -7.874475e+000 80 74 42
5.273367e-001 -1.170782e+000 -7.864261e+000 80 74 42
6.371924e-001 -1.187864e+000 -7.939949e+000 67 63 36
-1.003109e+000 -1.344014e+000 -7.217597e+000 124 116 71
-8.467938e-001 -1.306876e+000 -7.249795e+000 54 45 38
-7.231222e-001 -1.316234e+000 -7.341606e+000 142 130 88
-5.168061e-001 -1.260127e+000 -7.406936e+000 142 128 78
-5.599770e-001 -1.310463e+000 -7.410091e+000 90 80 51
-4.494221e-001 -1.282231e+000 -7.449788e+000 87 74 40
-4.913666e-001 -1.330424e+000 -7.463940e+000 144 132 85
-4.913666e-001 -1.330424e+000 -7.463940e+000 144 132 85
-2.872610e-001 -1.305487e+000 -7.575382e+000 93 82 53
-2.473324e-001 -1.274262e+000 -7.590796e+000 141 125 77
-1.597059e-001 -1.293332e+000 -7.651746e+000 90 77 44
6.821740e-002 -1.282705e+000 -7.771108e+000 75 60 30
2.765773e-001 -1.225772e+000 -7.800066e+000 72 61 37
2.390945e-001 -1.247287e+000 -7.798624e+000 134 125 69
2.493453e-001 -1.286524e+000 -7.841443e+000 84 75 45
3.905857e-001 -1.231084e+000 -7.866515e+000 80 71 40
3.945349e-001 -1.283991e+000 -7.913028e+000 124 116 69
6.658898e-001 -1.255515e+000 -8.048914e+000 68 64 37
8.252693e-001 -1.279761e+000 -8.132797e+000 59 58 35
-1.590518e+000 -1.430595e+000 -6.972575e+000 79 73 40
-1.103623e+000 -1.474254e+000 -7.258424e+000 123 114 71
-5.684914e-001 -1.388243e+000 -7.489111e+000 140 130 76
-1.784154e-001 -1.333563e+000 -7.679732e+000 82 69 37
-2.069091e-001 -1.410006e+000 -7.715406e+000 83 69 39
-9.482162e-002 -1.380281e+000 -7.751810e+000 87 76 43
2.882362e-001 -1.335079e+000 -7.960743e+000 76 66 32
3.811433e-001 -1.381443e+000 -7.988072e+000 73 66 40
3.811433e-001 -1.381443e+000 -7.988072e+000 73 66 40
7.016839e-001 -1.368186e+000 -8.139882e+000 93 93 59
7.016839e-001 -1.368186e+000 -8.139882e+000 93 93 59
7.992641e-001 -1.355919e+000 -8.214666e+000 67 66 45
1.037935e+000 -1.265918e+000 -8.319596e+000 59 53 39
-1.702189e+000 -1.566320e+000 -7.050234e+000 111 99 61
-1.401678e+000 -1.489353e+000 -7.147538e+000 108 104 67
-1.147387e+000 -1.506001e+000 -7.284845e+000 86 79 38
-6.952982e-001 -1.486232e+000 -7.508707e+000 86 73 41
-5.038532e-001 -1.471151e+000 -7.615164e+000 141 127 65
-4.063745e-001 -1.462868e+000 -7.666102e+000 144 126 74
2.910689e-001 -1.453038e+000 -8.029816e+000 78 69 36
2.910689e-001 -1.453038e+000 -8.029816e+000 78 69 36
9.914045e-001 -1.509671e+000 -8.343300e+000 141 122 105
1.029641e+000 -1.461110e+000 -8.403108e+000 150 131 117
-2.176501e+000 1.155635e+000 -7.597793e+000 202 194 174
-1.736957e+000 -1.453613e+000 -7.190518e+000 123 108 77
-1.499040e+000 -1.402347e+000 -7.338837e+000 132 109 75
-1.326182e+000 -1.427992e+000 -7.400896e+000 113 83 55
-1.321558e+000 -1.409558e+000 -7.435569e+000 140 109 75
-9.955728e-001 -1.401564e+000 -7.609411e+000 145 112 76
-4.695100e-001 -1.455167e+000 -7.784006e+000 90 76 47
-1.784485e+000 -1.305614e+000 -7.299677e+000 121 105 72
-1.744016e+000 -1.314465e+000 -7.325714e+000 118 103 75
-1.530987e+000 -1.283749e+000 -7.475330e+000 115 89 61
-1.420899e+000 -1.345763e+000 -7.470145e+000 118 91 62
-1.413901e+000 -1.312992e+000 -7.481668e+000 118 91 62
-1.476458e+000 -1.281442e+000 -7.504933e+000 118 88 59
-1.334593e+000 -1.336257e+000 -7.517288e+000 111 84 55
-1.334593e+000 -1.336257e+000 -7.517288e+000 111 84 55
-1.136539e+000 -1.340129e+000 -7.597769e+000 148 118 83
-9.900853e-001 -1.321624e+000 -7.707946e+000 117 86 57
-9.530907e-001 -1.289161e+000 -7.762086e+000 149 116 75
-9.889933e-001 -1.279348e+000 -7.773115e+000 125 91 60
-8.838497e-001 -1.376262e+000 -7.699469e+000 115 86 52
-7.451583e-001 -1.304547e+000 -7.864489e+000 137 109 70
-6.588456e-001 -1.348198e+000 -7.846183e+000 127 104 73
-5.605402e-001 -1.294980e+000 -7.961894e+000 136 113 81
-1.798897e-001 -1.339015e+000 -8.089313e+000 100 83 68
-1.767424e-001 -1.331808e+000 -8.092472e+000 100 83 68
-2.387768e-001 -1.146248e+000 -8.337743e+000 105 91 63
-3.519758e-001 -9.995871e-001 -8.477354e+000 97 93 68
-2.980699e-001 -1.108315e+000 -8.345078e+000 149 128 102
-1.670122e+000 -9.734662e-001 -7.806286e+000 89 79 56
-1.594506e+000 -9.863440e-001 -7.832043e+000 109 81 53
-1.594862e+000 -9.886879e-001 -7.831472e+000 109 81 53
-1.322917e+000 -7.988566e-001 -8.240092e+000 105 78 68
-1.374458e+000 -7.654453e-001 -8.233572e+000 114 87 78
-1.042129e+000 -6.135912e-001 -8.624831e+000 91 72 66
-1.337134e+000 -5.269119e-001 -8.601615e+000 112 89 77
-2.015215e+000 -2.818143e-002 -8.920665e+000 116 102 74
-1.714835e+000 8.862733e-002 -9.202646e+000 121 106 72
1.810947e+000 -1.278829e+000 -7.092090e+000 184 180 166
-8.101662e-002 -2.785935e-001 -6.644307e+000 104 94 64
6.205563e-001 -3.472932e-002 -6.928053e+000 111 112 81
-7.957325e-001 -4.781336e-001 -6.418426e+000 84 84 70
-3.757267e-001 -4.929941e-001 -6.699553e+000 151 135 87
3.133194e-002 -4.653783e-001 -6.875351e+000 96 82 54
1.030500e+000 -3.611492e-001 -7.357257e+000 100 104 81
-2.338252e-001 -7.170641e-001 -6.971820e+000 114 101 72
-4.857108e-001 -7.708202e-001 -6.882598e+000 89 76 50
-4.857108e-001 -7.708202e-001 -6.882598e+000 89 76 50
-2.674759e-001 -8.135233e-001 -7.073727e+000 101 88 61
4.639134e-003 -6.901522e-001 -7.099617e+000 85 70 49
-3.914377e-001 -8.778936e-001 -7.064946e+000 106 89 60
-2.857162e-001 -8.660213e-001 -7.091991e+000 103 87 59
-5.942918e-001 -1.051151e+000 -7.113765e+000 104 89 58
1.886127e-002 -9.687710e-001 -7.379523e+000 88 76 48
-9.407826e-001 -1.105924e+000 -6.999568e+000 90 77 51
-6.914391e-001 -1.122408e+000 -7.149927e+000 147 133 94
-4.725182e-001 -1.148881e+000 -7.281569e+000 152 134 87
5.951119e-003 -1.129214e+000 -7.520832e+000 90 75 49
-1.255273e+000 -1.250957e+000 -6.973526e+000 138 126 84
-1.210426e+000 -1.310187e+000 -6.999474e+000 140 128 88
-1.074830e+000 -1.248741e+000 -7.049089e+000 146 129 86
-9.107391e-001 -1.262873e+000 -7.145198e+000 139 123 81
-2.539520e-002 -1.209012e+000 -7.609072e+000 80 68 44
7.957317e-001 -1.080904e+000 -7.975584e+000 60 60 36
-1.448304e+000 -1.385098e+000 -6.995958e+000 79 72 42
-1.448304e+000 -1.385098e+000 -6.995958e+000 79 72 42
-1.221112e+000 -1.315686e+000 -7.058884e+000 132 119 71
-9.426410e-001 -1.327486e+000 -7.219357e+000 137 123 85
-1.042856e+000 -1.388917e+000 -7.205074e+000 90 78 53
-1.042856e+000 -1.388917e+000 -7.205074e+000 90 78 53
-9.776222e-001 -1.341679e+000 -7.229143e+000 84 74 49
-9.404594e-001 -1.380619e+000 -7.272892e+000 80 72 41
-7.341900e-001 -1.405854e+000 -7.430260e+000 76 64 35
-8.017507e-001 -1.450595e+000 -7.437190e+000 88 79 47
-4.980434e-001 -1.346114e+000 -7.508416e+000 145 130 78
-5.685937e-001 -1.438867e+000 -7.563010e+000 114 98 64
-5.077818e-001 -1.432556e+000 -7.555526e+000 100 86 60
-4.661509e-001 -1.447170e+000 -7.610107e+000 105 90 57
-3.383755e-001 -1.428041e+000 -7.649915e+000 85 71 46
3.035015e-003 -1.430837e+000 -7.857938e+000 73 64 31
2.558770e-001 -1.416442e+000 -7.974622e+000 73 64 30
8.535290e-001 -1.361872e+000 -8.230347e+000 55 54 34
-6.095549e-001 -1.480311e+000 -7.555514e+000 152 134 75
-6.107634e-001 -1.481500e+000 -7.554434e+000 152 134 75
-5.570349e-001 -1.474919e+000 -7.585806e+000 146 127 71
8.907061e-001 -1.412285e+000 -8.317099e+000 55 53 38
-1.463799e+000 -1.410391e+000 -7.362483e+000 137 111 75
-8.499947e-001 -1.383831e+000 -7.688866e+000 141 114 77
-8.699676e-002 -1.409719e+000 -8.017111e+000 86 85 59
-1.578247e+000 -1.279766e+000 -7.445061e+000 119 95 67
-4.413279e-001 -1.276145e+000 -8.034189e+000 126 105 68
-1.509563e-001 -1.013326e+000 -8.514497e+000 88 88 61
-1.836577e-001 -9.989157e-001 -8.517456e+000 127 119 88
-1.619793e+000 -9.764536e-001 -7.848625e+000 168 128 93
-1.619793e+000 -9.764536e-001 -7.848625e+000 168 128 93
-4.996554e-001 -9.183181e-001 -8.488162e+000 166 139 120
-1.982439e+000 -8.222066e-001 -7.920397e+000 80 84 60
-1.137276e+000 -8.158335e-001 -8.308493e+000 158 130 116
-9.429759e-001 -7.576933e-001 -8.502814e+000 128 99 84
-1.989551e+000 -7.022669e-001 -7.999884e+000 169 130 95
-2.039594e+000 -6.465519e-001 -8.053163e+000 171 130 99
-1.285614e+000 -3.473565e-001 -8.853731e+000 152 124 112
-2.472031e-001 -1.960956e-001 -6.491859e+000 123 112 71
