ply
format ascii 1.0
element face 0
property list uchar int vertex_indices
element vertex 875
property float x
property float y
property float z
property uchar diffuse_red
property uchar diffuse_green
property uchar diffuse_blue
end_header
1.519041e-001 3.252135e-001 -6.796396e+000 70 73 47
3.595062e-001 3.623804e-001 -6.937453e+000 136 91 59
3.587369e-001 3.625170e-001 -6.935614e+000 136 91 59
5.079517e-001 4.227049e-001 -7.070580e+000 184 157 104
5.079517e-001 4.227049e-001 -7.070580e+000 184 157 104
4.124922e-001 2.587971e-001 -6.836174e+000 140 99 65
5.925322e-001 2.591467e-001 -6.880642e+000 168 166 109
4.277813e-001 1.906767e-001 -6.754017e+000 175 163 103
4.618844e-001 1.195934e-001 -6.689536e+000 169 156 91
4.618844e-001 1.195934e-001 -6.689536e+000 169 156 91
6.287723e-001 1.242316e-001 -6.788998e+000 158 153 87
6.275305e-001 1.242183e-001 -6.786997e+000 158 153 87
-3.567829e-001 -5.127007e-002 -6.041322e+000 141 131 74
1.120019e+000 -1.917859e-001 -6.996717e+000 61 62 44
7.337024e-001 -3.462345e-001 -6.905396e+000 108 104 69
2.056386e-001 -5.172961e-001 -6.772088e+000 77 65 33
1.576126e+000 -7.633849e-001 -7.307804e+000 138 132 121
2.455382e-001 -9.013872e-001 -7.196306e+000 88 74 48
-2.584550e-001 -9.207233e-001 -6.931664e+000 134 118 92
-1.048256e-001 -1.009899e+000 -7.126845e+000 96 82 56
-1.559589e+000 -1.315423e+000 -6.630349e+000 78 62 31
-1.912541e+000 1.766493e+000 -7.545051e+000 181 178 140
2.043888e-001 1.524353e+000 -8.302342e+000 93 98 77
6.097185e-001 1.560592e+000 -8.540671e+000 168 143 86
-1.029257e+000 1.272957e+000 -7.248964e+000 189 184 183
2.021543e-001 1.284724e+000 -7.991755e+000 192 182 152
5.265220e-001 1.368147e+000 -8.258121e+000 190 182 163
-9.837067e-001 1.031258e+000 -6.973223e+000 154 59 67
-9.856244e-001 1.030369e+000 -6.975141e+000 154 59 67
5.486956e-001 1.182278e+000 -8.020061e+000 146 133 99
-1.843328e+000 9.616939e-001 -6.952551e+000 202 163 135
1.274911e+000 1.120815e+000 -8.051439e+000 173 173 165
1.252359e+000 1.073914e+000 -8.073193e+000 165 167 158
-8.033813e-001 8.727428e-001 -6.852126e+000 200 188 188
-8.002982e-001 8.722827e-001 -6.862235e+000 200 188 188
2.521417e-001 7.930740e-001 -7.420264e+000 142 92 69
9.905365e-001 8.095060e-001 -7.790769e+000 97 96 91
-1.418662e+000 5.583033e-001 -6.280664e+000 211 206 144
3.648215e-001 6.772128e-001 -7.296464e+000 182 170 105
-1.380978e+000 4.774730e-001 -6.223535e+000 198 199 130
7.519658e-002 4.598453e-001 -6.929444e+000 67 69 52
6.480330e-002 4.353456e-001 -6.897000e+000 189 167 134
4.147091e-001 4.920971e-001 -7.109595e+000 147 92 76
4.745523e-001 4.502306e-001 -7.097888e+000 138 93 62
5.184978e-001 4.847245e-001 -7.153896e+000 175 164 92
4.664014e-002 4.148905e-001 -6.875804e+000 74 73 51
9.779521e-002 3.199566e-001 -6.782130e+000 71 78 64
2.878046e-001 3.493644e-001 -6.900685e+000 145 88 63
1.073636e+000 4.308749e-001 -7.334662e+000 165 150 97
1.377853e+000 4.114921e-001 -7.496551e+000 132 146 119
1.411350e+000 3.482348e-001 -7.422132e+000 150 166 140
1.438539e-001 2.903378e-001 -6.762832e+000 180 162 117
1.422485e+000 2.847626e-001 -7.362776e+000 98 115 84
1.198535e-001 1.542139e-001 -6.589817e+000 180 162 101
1.492334e+000 1.554374e-001 -7.232056e+000 103 118 89
6.496803e-001 -1.248384e-001 -6.648312e+000 101 103 64
1.391205e+000 -9.995164e-002 -7.077679e+000 65 67 53
7.521627e-001 -2.098791e-001 -6.809195e+000 70 68 45
7.205189e-001 -3.123258e-001 -6.874478e+000 76 72 47
9.248562e-001 -2.270640e-001 -6.911909e+000 67 66 48
7.228731e-001 -4.774263e-001 -7.042815e+000 72 65 44
8.247124e-001 -3.589970e-001 -6.985866e+000 74 71 47
9.245087e-001 -4.094527e-001 -7.077902e+000 70 67 47
-1.025304e+000 -4.110125e-001 -5.972616e+000 72 63 59
-8.589223e-001 -3.603787e-001 -6.004201e+000 78 71 65
-7.653901e-001 -3.755661e-001 -6.070539e+000 75 69 64
-3.500835e-001 -4.606018e-001 -6.432065e+000 58 48 36
5.567116e-002 -4.439808e-001 -6.625185e+000 102 87 58
3.346633e-001 -5.070231e-001 -6.840227e+000 85 69 44
8.231037e-001 -6.123976e-001 -7.224035e+000 116 107 71
-1.433643e-001 -5.525535e-001 -6.628074e+000 98 82 56
-1.585548e-001 -5.926394e-001 -6.655513e+000 99 83 58
-1.246158e-001 -6.451747e-001 -6.732166e+000 95 79 53
-3.703146e-002 -7.091056e-001 -6.859562e+000 97 83 57
2.631414e-001 -7.083781e-001 -7.008823e+000 93 78 53
4.941514e-001 -7.738891e-001 -7.198030e+000 87 72 45
7.652306e-001 -6.934779e-001 -7.278383e+000 83 73 46
-7.667399e-001 -7.197692e-001 -6.393413e+000 74 68 61
-4.444319e-001 -8.361765e-001 -6.759569e+000 91 78 62
-3.794500e-001 -8.034882e-001 -6.738729e+000 91 75 60
-2.793869e-001 -7.329605e-001 -6.729948e+000 87 74 52
4.915798e-002 -8.031597e-001 -6.995274e+000 92 77 53
-1.076976e+000 -7.918320e-001 -6.309991e+000 76 66 64
-1.076976e+000 -7.918320e-001 -6.309991e+000 76 66 64
-3.439399e-001 -9.059535e-001 -6.875305e+000 92 77 58
-2.462006e-001 -9.606416e-001 -6.989555e+000 99 85 59
-1.804809e-001 -9.303463e-001 -6.994698e+000 103 86 67
-2.271890e-001 -1.189004e+000 -7.258248e+000 93 79 55
-5.987101e-001 -1.297430e+000 -7.164895e+000 124 109 84
-1.050569e+000 -1.425403e+000 -7.037264e+000 113 100 72
-9.881197e-001 -1.419875e+000 -7.077747e+000 112 98 72
-2.042039e+000 1.852407e+000 -7.610260e+000 172 170 132
-4.972065e-001 2.007694e+000 -8.606131e+000 90 92 76
-1.963198e+000 1.669457e+000 -7.395837e+000 145 144 110
-1.849853e+000 1.696140e+000 -7.374742e+000 178 171 132
-2.484558e-001 1.918069e+000 -8.597703e+000 129 87 83
-2.048302e-001 1.798314e+000 -8.462844e+000 169 127 104
-1.630056e-001 1.581330e+000 -8.183937e+000 183 157 118
-1.748757e+000 9.507905e-001 -6.820084e+000 229 208 135
7.881431e-001 1.031491e+000 -7.931967e+000 105 102 99
9.081508e-001 1.088899e+000 -8.095640e+000 139 142 131
-1.881993e-001 7.822971e-001 -7.224040e+000 75 82 71
-1.907982e-001 7.817667e-001 -7.224219e+000 75 82 71
-1.468345e-001 6.929074e-001 -7.120094e+000 72 82 69
3.491322e-003 4.868805e-001 -6.924561e+000 194 178 146
-1.307348e+000 4.221467e-001 -6.126021e+000 162 158 91
5.299525e-001 3.430103e-001 -6.997921e+000 175 160 93
5.347525e-001 3.439935e-001 -6.981776e+000 175 160 93
8.690590e-001 3.736658e-001 -7.190600e+000 159 139 89
3.534065e-001 2.852305e-001 -6.841055e+000 186 167 108
3.513309e-001 2.842596e-001 -6.842354e+000 186 167 108
4.139332e-001 1.677403e-001 -6.733995e+000 144 99 68
2.392844e-001 -2.331179e-001 -6.543352e+000 117 104 60
6.597522e-001 -2.830619e-001 -6.800802e+000 118 111 69
2.128614e-001 -3.050531e-001 -6.592383e+000 121 107 63
-1.107638e+000 -5.401692e-001 -6.062530e+000 67 63 56
-1.107638e+000 -5.401692e-001 -6.062530e+000 67 63 56
-9.221225e-001 -5.207717e-001 -6.130136e+000 130 114 106
-8.696046e-001 -5.587767e-001 -6.192132e+000 132 115 105
-8.696046e-001 -5.587767e-001 -6.192132e+000 132 115 105
1.607027e-001 -7.336779e-001 -6.971258e+000 96 82 55
-9.301433e-001 -7.264992e-001 -6.297684e+000 73 68 62
1.686601e-001 -1.198223e+000 -7.499665e+000 106 91 60
-1.197379e+000 -1.338027e+000 -6.855195e+000 111 96 69
-1.042550e+000 -1.480910e+000 -7.116966e+000 81 65 42
-8.810095e-001 -1.375180e+000 -7.090856e+000 81 66 43
-6.402477e-001 1.997406e+000 -8.523741e+000 106 110 83
-2.033340e+000 1.778601e+000 -7.526174e+000 137 143 107
-1.993438e+000 1.722085e+000 -7.438019e+000 121 123 90
-1.662917e+000 1.823719e+000 -7.732319e+000 81 115 83
-5.272447e-001 1.902599e+000 -8.440491e+000 130 93 77
-1.008391e-001 1.965364e+000 -8.755230e+000 139 145 113
-9.943593e-002 1.962421e+000 -8.721359e+000 139 145 113
8.012891e-001 1.305501e+000 -8.290871e+000 171 147 95
-9.170055e-001 1.081517e+000 -7.039833e+000 206 186 192
-6.812708e-001 1.106737e+000 -7.490301e+000 176 150 76
-1.905993e-001 7.809167e-001 -7.224985e+000 75 82 71
-5.359582e-001 6.444927e-001 -6.698433e+000 201 184 160
-1.483336e-001 6.287714e-001 -7.051741e+000 197 184 174
1.345241e-001 1.910974e-001 -6.642794e+000 66 81 56
5.869749e-001 1.103400e-001 -6.746247e+000 140 92 62
5.871349e-001 1.103424e-001 -6.746191e+000 140 92 62
-8.558290e-001 -1.472661e+000 -7.224006e+000 91 76 52
-2.762330e-001 1.600833e+000 -8.134892e+000 186 152 103
-9.651613e-001 1.397589e+000 -7.435766e+000 200 175 118
-1.305549e+000 8.373456e-001 -6.640505e+000 204 186 154
-1.305549e+000 8.373456e-001 -6.640505e+000 204 186 154
-1.294162e+000 7.787082e-001 -6.574133e+000 199 172 95
-5.584642e-001 5.930894e-001 -6.666010e+000 143 112 69
-9.533027e-002 5.881447e-001 -7.013760e+000 54 76 58
-2.590745e-001 -5.240156e-002 -6.139808e+000 111 99 47
-1.478620e-001 -3.612860e-001 -6.426505e+000 131 113 68
-8.713865e-001 -7.265310e-001 -6.329931e+000 74 68 60
-8.713865e-001 -7.265310e-001 -6.329931e+000 74 68 60
-9.177420e-001 1.967414e+000 -8.376108e+000 195 167 113
-1.577083e-001 1.721651e+000 -8.278033e+000 171 139 101
6.360958e-001 6.162586e-001 -7.364889e+000 180 178 152
7.288603e-001 5.608670e-001 -7.343881e+000 136 142 85
8.809857e-001 5.824664e-001 -7.446977e+000 81 90 61
3.140837e-001 3.733672e-001 -6.935317e+000 172 137 99
5.327701e-001 1.330087e+000 -8.212128e+000 188 178 167
4.103222e-001 3.666790e-001 -7.007514e+000 180 163 99
3.445060e-001 -3.872016e-001 -6.794113e+000 120 105 72
1.199415e+000 -1.507924e+000 -8.355506e+000 198 163 149
-1.162398e+000 1.504980e+000 -7.450854e+000 197 190 178
-5.170792e-001 5.702492e-001 -6.678730e+000 148 122 92
1.155290e-001 2.884095e-001 -6.734100e+000 65 80 59
-3.357521e-001 -2.018496e-003 -6.026569e+000 152 146 76
8.210099e-001 8.888908e-001 -7.783124e+000 85 81 79
-1.153823e+000 -9.869506e-002 -5.796133e+000 188 178 125
-4.674696e-002 1.569508e+000 -8.123933e+000 191 168 127
-9.838149e-001 1.048545e+000 -6.991650e+000 202 184 184
-9.838149e-001 1.048545e+000 -6.991650e+000 202 184 184
9.659093e-001 1.200626e+000 -8.206973e+000 86 103 79
-1.208122e+000 1.868071e+000 -8.102892e+000 170 154 94
3.756307e-001 1.628971e+000 -8.523595e+000 181 157 109
1.136712e-001 6.807722e-001 -7.182045e+000 192 178 148
1.062029e+000 2.201403e-001 -7.071966e+000 176 170 145
-4.049797e-001 1.874389e+000 -8.579698e+000 126 86 79
1.485455e+000 8.860801e-001 -7.908472e+000 190 197 190
-1.123024e+000 6.833435e-001 -6.429948e+000 194 184 144
-2.761323e-001 4.175326e-001 -7.140000e+000 194 185 170
-1.186068e+000 2.512491e-001 -6.192923e+000 141 147 75
1.040005e+000 8.393462e-001 -7.907615e+000 72 80 69
-1.007651e+000 1.017389e+000 -6.938160e+000 163 64 72
1.284538e+000 1.077380e+000 -8.049217e+000 87 89 82
1.253685e+000 9.352312e-001 -8.125161e+000 163 165 158
-2.058515e+001 6.692191e-001 -5.137644e+001 206 73 101
-2.227864e+001 -3.965457e+000 -4.129063e+001 175 165 224
-2.123057e+000 1.806515e+000 -7.565796e+000 168 169 127
5.068898e-001 2.088948e+000 -9.181323e+000 213 208 196
-1.458521e+000 1.633269e+000 -7.531603e+000 173 129 104
5.618471e-001 1.474432e+000 -8.419704e+000 195 179 136
-6.182396e-001 1.027650e+000 -6.997749e+000 196 172 115
5.351178e-001 1.092026e+000 -7.898539e+000 103 96 88
-5.142919e-002 7.339453e-001 -7.205136e+000 193 187 165
-1.064915e-001 6.181043e-001 -7.050571e+000 82 73 60
2.658816e-001 5.362774e-001 -7.105169e+000 131 94 58
1.436284e+000 2.276954e-001 -7.284306e+000 102 116 90
1.436284e+000 2.276954e-001 -7.284306e+000 102 116 90
4.447989e-001 1.522181e-001 -6.725739e+000 174 168 99
6.006002e-001 1.775322e-001 -6.835491e+000 171 160 100
1.516330e+000 1.181833e-001 -7.197504e+000 110 122 95
-1.025026e+000 1.273059e+000 -7.250580e+000 189 184 183
8.802554e-001 1.231989e+000 -8.264230e+000 71 83 69
-7.301269e-001 7.604648e-001 -6.733507e+000 194 188 186
-7.301269e-001 7.604648e-001 -6.733507e+000 194 188 186
2.789112e-001 7.464067e-001 -7.368286e+000 142 94 71
-2.484838e+001 -2.985972e+000 -4.455686e+001 77 60 128
1.100266e-001 4.380489e-001 -6.923244e+000 193 175 137
1.013705e+000 4.682824e-001 -7.376012e+000 172 148 97
1.181367e+000 4.028772e-001 -7.371420e+000 111 121 77
1.098258e+000 2.845441e-001 -7.199759e+000 165 150 92
-3.325386e-001 1.223097e-001 -6.233138e+000 141 119 64
1.969240e+000 -1.413050e+000 -6.914418e+000 96 85 79
-2.723176e-001 2.016850e+000 -8.751846e+000 128 140 103
-1.482106e+000 1.138327e+000 -6.818040e+000 204 187 140
-1.482106e+000 1.138327e+000 -6.818040e+000 204 187 140
7.093462e-001 7.499242e-001 -7.563736e+000 144 149 84
1.114932e+000 3.615855e-001 -7.309934e+000 165 144 91
-2.025277e+000 1.881660e+000 -7.663536e+000 143 145 106
1.215108e+000 1.009831e+000 -8.121606e+000 157 160 153
-2.428255e+001 -3.531855e+000 -4.336353e+001 174 165 218
-2.379819e+001 -3.654570e+000 -4.306242e+001 79 64 129
2.884365e-001 4.192254e-001 -6.972399e+000 185 163 108
-1.924455e+001 -8.687690e+000 -3.677980e+001 216 65 97
-1.651703e+001 -1.155037e+001 -3.603572e+001 63 63 131
-1.008283e+000 1.983541e+000 -8.372689e+000 196 169 106
-1.857667e+001 -3.041796e+000 -4.627280e+001 229 42 77
-1.782289e+001 -1.133427e+001 -3.536179e+001 188 34 71
-1.654496e+001 -1.131782e+001 -3.643805e+001 125 167 227
-1.381805e+001 -1.179095e+001 -3.469271e+001 187 30 61
-1.315037e+001 -1.364083e+001 -3.485942e+001 203 34 65
-1.332365e+001 -1.385220e+001 -3.417702e+001 213 30 57
7.433312e-001 7.961332e-001 -7.627225e+000 160 161 129
3.294751e-001 5.206842e-001 -7.080932e+000 183 164 108
3.300967e-001 5.193745e-001 -7.081369e+000 183 164 108
2.895057e-001 2.070333e-001 -6.696816e+000 179 165 104
-1.619175e+001 -1.149774e+001 -3.430844e+001 63 44 102
-1.628342e+001 -1.195367e+001 -3.355547e+001 188 11 47
-1.864705e+001 -1.851366e+000 -4.535613e+001 255 206 112
-1.792438e+001 -1.219151e+001 -3.218620e+001 203 29 65
-1.144361e+000 1.936875e+000 -8.251037e+000 163 157 91
5.968502e-002 3.950174e-001 -6.846372e+000 71 82 65
-1.756725e+001 -1.076841e+001 -3.604890e+001 122 22 47
-1.852401e+001 -1.183192e+001 -3.340590e+001 235 49 93
-1.975799e+001 -9.063787e+000 -3.607774e+001 254 248 255
-1.679993e+001 -1.119836e+001 -3.539786e+001 143 195 247
-1.397783e+001 -1.112232e+001 -3.593983e+001 229 37 76
-1.397783e+001 -1.112232e+001 -3.593983e+001 229 37 76
-1.865549e+001 -1.208806e+001 -3.402325e+001 237 44 88
-2.305010e+001 -3.662077e+000 -4.031248e+001 180 160 216
-2.305010e+001 -3.662077e+000 -4.031248e+001 180 160 216
-2.240328e+001 -5.453063e+000 -4.057058e+001 59 39 67
-1.584300e+001 -1.315791e+001 -3.543423e+001 38 21 37
-2.216961e+000 2.003475e+000 -7.718662e+000 136 142 91
-1.820284e+000 1.855876e+000 -7.697597e+000 85 102 64
-1.538443e+000 1.783234e+000 -7.650842e+000 200 182 136
-2.164438e-001 1.946239e+000 -8.659871e+000 131 147 113
-1.965502e+000 1.564786e+000 -7.263345e+000 180 160 106
-3.237635e-001 1.728688e+000 -8.262673e+000 135 80 60
-4.231984e-001 1.666609e+000 -8.178506e+000 185 146 107
-4.227128e-001 1.665653e+000 -8.200976e+000 185 146 107
-2.408590e-001 1.663683e+000 -8.269340e+000 169 124 88
9.402699e-002 1.616153e+000 -8.357478e+000 156 112 72
1.807973e-001 1.645169e+000 -8.503979e+000 137 101 77
-2.026501e+000 1.414399e+000 -7.275884e+000 244 203 148
2.738214e-001 1.260333e+000 -7.998416e+000 180 170 136
2.738214e-001 1.260333e+000 -7.998416e+000 180 170 136
5.554804e-001 1.241604e+000 -8.107764e+000 95 86 82
8.099149e-001 1.335857e+000 -8.366751e+000 163 144 100
8.099149e-001 1.335857e+000 -8.366751e+000 163 144 100
1.379330e+000 1.343513e+000 -7.829720e+000 67 67 59
-9.487898e-001 1.091824e+000 -7.058894e+000 121 58 55
-9.467171e-001 1.091281e+000 -7.064788e+000 121 58 55
2.499982e-001 1.192778e+000 -7.874683e+000 185 176 148
6.274179e-001 1.091099e+000 -7.948507e+000 81 76 72
6.257924e-001 1.092239e+000 -7.944730e+000 81 76 72
6.775005e-001 1.199360e+000 -8.109676e+000 103 101 88
7.017656e-001 1.174072e+000 -8.096890e+000 152 146 136
8.190297e-001 1.177916e+000 -8.163182e+000 110 111 110
7.007953e-001 1.020024e+000 -7.902941e+000 122 112 95
-1.434591e-001 8.158341e-001 -7.275608e+000 193 185 174
6.841699e-001 8.872483e-001 -7.732978e+000 152 152 125
-1.655901e-001 7.679463e-001 -7.201680e+000 160 146 123
-5.436744e-002 7.337016e-001 -7.202359e+000 187 176 156
3.503605e-001 7.520744e-001 -7.395126e+000 130 88 58
3.521485e-001 7.512102e-001 -7.401560e+000 130 88 58
-7.795556e-002 5.664955e-001 -6.994769e+000 69 69 48
3.887871e-001 5.256755e-001 -7.151457e+000 136 93 62
3.888755e-001 5.260761e-001 -7.153945e+000 136 93 62
4.862034e-001 4.961191e-001 -7.152177e+000 136 92 57
6.339709e-001 5.546461e-001 -7.289435e+000 128 132 81
-6.380736e-003 4.222907e-001 -6.854619e+000 176 156 123
4.610575e-001 3.801199e-001 -7.009668e+000 176 152 96
5.420274e-001 3.739190e-001 -7.032436e+000 129 88 58
5.413971e-001 3.740988e-001 -7.030699e+000 129 88 58
7.717713e-002 2.266279e-001 -6.644753e+000 170 155 96
1.425533e+000 2.604476e-001 -7.322769e+000 93 108 82
1.459470e+000 2.361384e-001 -7.318122e+000 161 172 148
5.966902e-001 1.312565e-001 -6.774425e+000 135 87 62
1.973971e+000 -1.421851e+000 -6.871912e+000 123 114 105
-2.577563e-001 2.028212e+000 -8.765182e+000 120 130 96
-1.912048e+000 1.767850e+000 -7.542401e+000 176 172 133
-1.674751e+000 1.729294e+000 -7.576504e+000 83 110 82
-6.578891e-002 1.938692e+000 -8.678082e+000 131 138 105
5.433614e-001 1.512520e+000 -8.471870e+000 78 75 63
-1.747340e+000 1.188496e+000 -6.896081e+000 190 172 135
1.374659e+000 1.424773e+000 -7.749047e+000 182 183 175
-1.020986e+000 1.037616e+000 -6.959336e+000 190 179 176
5.051538e-001 1.108850e+000 -7.903040e+000 152 151 125
1.311876e+000 1.223569e+000 -7.962372e+000 182 183 177
-1.747435e+000 8.848404e-001 -6.891350e+000 217 200 129
7.804030e-001 9.743812e-001 -7.878043e+000 98 94 93
7.812661e-001 9.196456e-001 -7.815990e+000 77 76 72
-1.539913e+000 7.645711e-001 -6.493944e+000 222 216 193
-1.554796e+000 6.802571e-001 -6.531476e+000 183 180 103
-5.451261e-002 7.077663e-001 -7.178539e+000 71 72 55
2.521297e-001 7.950512e-001 -7.406012e+000 138 91 65
9.306445e-001 7.811412e-001 -7.695431e+000 86 83 80
3.522734e-001 6.046679e-001 -7.234784e+000 138 89 64
1.983662e-001 5.213047e-001 -7.075497e+000 141 87 66
-4.213222e-002 4.580454e-001 -6.893715e+000 182 168 138
9.108317e-002 3.885930e-001 -6.856257e+000 186 170 132
9.108317e-002 3.885930e-001 -6.856257e+000 186 170 132
5.295390e-001 4.062154e-001 -7.061415e+000 139 89 61
1.377666e+000 4.119104e-001 -7.493096e+000 127 141 118
6.147541e-002 3.375325e-001 -6.785995e+000 173 156 114
6.147541e-002 3.375325e-001 -6.785995e+000 173 156 114
5.931709e-001 2.844243e-001 -6.965201e+000 131 93 66
5.931709e-001 2.844243e-001 -6.965201e+000 131 93 66
1.377006e+000 3.520772e-001 -7.415259e+000 102 116 87
9.963944e-002 1.942364e-001 -6.645965e+000 177 161 106
5.293566e-001 2.748267e-001 -6.927570e+000 136 91 68
5.876596e-001 2.142430e-001 -6.876396e+000 162 157 100
1.469815e+000 9.956745e-002 -7.170538e+000 173 180 166
-5.524945e-001 -7.684835e-002 -5.924487e+000 93 83 47
4.433732e-001 -1.554430e-001 -6.564527e+000 92 88 56
-1.384247e+000 -5.943981e-001 -6.193952e+000 105 85 68
-8.871365e-001 -5.302249e-001 -6.150914e+000 79 70 63
1.722514e+000 2.415301e+000 -6.970620e+000 194 187 181
1.752928e+000 2.421382e+000 -6.964388e+000 96 88 80
-1.950688e+000 1.768764e+000 -7.525949e+000 121 125 88
-3.669974e-002 1.965515e+000 -8.782672e+000 82 81 74
-2.289782e-001 1.844883e+000 -8.511442e+000 147 106 88
2.383558e-001 1.552002e+000 -8.333965e+000 183 181 168
7.956560e-001 1.472476e+000 -8.520061e+000 69 82 64
5.484410e-001 1.306125e+000 -8.158421e+000 175 170 158
8.573727e-001 9.641854e-001 -7.912056e+000 95 91 90
6.622221e-001 9.412408e-001 -7.780382e+000 88 84 79
4.171569e-001 4.913010e-001 -7.118247e+000 135 84 57
9.452422e-001 5.743466e-001 -7.459913e+000 165 167 143
1.144797e+000 4.214596e-001 -7.386655e+000 102 113 71
1.177991e-001 3.395720e-001 -6.801231e+000 178 157 115
6.668314e-002 3.075924e-001 -6.768604e+000 60 75 65
3.434495e-001 2.535784e-001 -6.810180e+000 140 87 65
1.477426e+000 1.582743e-001 -7.224695e+000 98 113 79
-1.671648e+000 -1.920808e-001 -6.638932e+000 209 177 148
3.480976e-001 8.051952e-002 -6.594023e+000 167 158 91
-1.619979e+001 -1.126551e+001 -3.364704e+001 202 48 95
7.625687e-002 -3.651450e-001 -6.560917e+000 94 80 54
-6.790673e-001 -4.278878e-001 -6.146906e+000 74 66 62
-1.867388e+000 1.824308e+000 -7.648830e+000 177 166 126
-4.663033e-001 1.934778e+000 -8.491954e+000 133 138 105
-3.487577e-001 1.957330e+000 -8.595945e+000 121 132 92
2.996552e-001 1.871046e+000 -8.753329e+000 128 81 63
1.183435e-001 1.681638e+000 -8.445592e+000 182 146 98
-1.331077e+000 1.398139e+000 -7.311251e+000 124 63 61
-1.329945e+000 1.397749e+000 -7.318157e+000 124 63 61
-1.137261e+000 1.268481e+000 -7.201924e+000 196 182 185
4.360929e-001 1.225875e+000 -8.032835e+000 152 152 128
-2.316325e+001 -4.026454e+000 -4.146555e+001 120 110 171
-9.452826e-001 9.224942e-001 -6.852799e+000 198 180 185
1.213063e+000 9.048752e-001 -8.173449e+000 63 66 59
-1.635215e+000 7.012115e-001 -6.645437e+000 228 201 125
-6.334601e-001 6.941433e-001 -6.712596e+000 145 55 58
-6.334601e-001 6.941433e-001 -6.712596e+000 145 55 58
-5.358832e-001 6.426297e-001 -6.702945e+000 190 180 155
-5.681694e-002 6.205764e-001 -7.069431e+000 186 175 155
-5.681694e-002 6.205764e-001 -7.069431e+000 186 175 155
-3.140076e-003 6.046486e-001 -7.065939e+000 68 82 71
3.979403e-001 5.894167e-001 -7.226611e+000 179 154 98
3.985504e-001 5.901844e-001 -7.224112e+000 179 154 98
4.334460e-001 5.262221e-001 -7.166394e+000 179 154 94
9.478812e-001 5.705675e-001 -7.476357e+000 165 167 143
2.893902e-001 4.177620e-001 -6.974449e+000 181 157 111
5.499062e-001 1.897772e-001 -6.822762e+000 135 87 62
5.487553e-001 1.894749e-001 -6.823118e+000 135 87 62
2.124324e-001 1.204201e-001 -6.588355e+000 177 158 97
2.555326e-001 9.373763e-002 -6.577602e+000 63 82 65
4.901249e-001 1.833701e-001 -6.760929e+000 161 155 85
-1.444522e+000 -5.407213e-001 -6.233709e+000 172 157 91
-8.829219e-001 -6.196315e-001 -6.230679e+000 76 72 63
-2.478685e+001 -4.191672e+000 -4.227916e+001 255 198 238
-1.574656e+001 -6.253899e+000 -4.258612e+001 162 54 69
-1.390577e+000 5.796629e-001 -6.285610e+000 173 163 111
-1.404498e-002 5.543210e-001 -7.007676e+000 185 171 145
-1.404498e-002 5.543210e-001 -7.007676e+000 185 171 145
4.316462e-001 1.302060e-001 -6.704471e+000 164 158 85
-1.821015e+001 -1.387620e+001 -3.087210e+001 64 52 115
-2.080386e+000 1.888918e+000 -7.635279e+000 167 163 125
-1.689030e+000 1.891021e+000 -7.804060e+000 178 162 117
-2.323876e+001 -4.343377e+000 -4.075304e+001 212 203 246
-1.466327e+000 9.720339e-001 -6.608069e+000 194 167 90
7.877060e-001 1.066272e+000 -8.002750e+000 98 95 92
3.721593e-001 6.335730e-001 -7.268410e+000 181 150 104
5.376971e-001 1.371349e-001 -6.782130e+000 164 152 93
5.376971e-001 1.371349e-001 -6.782130e+000 164 152 93
-1.468577e+001 -1.368911e+001 -3.173964e+001 220 177 113
-1.240300e+001 -1.466304e+001 -3.110391e+001 199 30 59
-1.227830e+001 -1.526105e+001 -3.078542e+001 182 32 61
-1.557131e+000 1.679985e+000 -7.552914e+000 192 175 145
-1.056650e+000 1.398759e+000 -7.400037e+000 122 61 55
8.045637e-001 1.172533e+000 -8.137526e+000 111 107 102
1.173588e+000 1.083659e+000 -7.985642e+000 158 161 155
-1.525087e+001 -1.083879e+001 -3.764739e+001 56 38 78
-1.491039e+001 -1.334450e+001 -3.167382e+001 64 47 90
-1.278454e+001 -1.396431e+001 -3.366505e+001 236 165 101
-1.288184e+001 -1.432922e+001 -3.315234e+001 214 36 64
-1.192703e+001 -1.419149e+001 -3.200812e+001 207 36 63
-1.264963e+001 -1.501964e+001 -3.085766e+001 44 28 68
2.679515e-001 6.051861e-001 -7.193472e+000 179 162 111
-1.854500e+001 -1.193430e+001 -3.226154e+001 56 37 92
-1.302137e+001 -1.421411e+001 -3.219474e+001 229 170 87
-1.461286e+001 -1.519933e+001 -3.042834e+001 39 22 61
2.220897e-001 1.984460e+000 -8.941510e+000 120 81 72
-1.474065e+001 -1.367315e+001 -3.420407e+001 47 30 49
-1.470713e+001 -1.385415e+001 -3.282754e+001 240 192 117
-1.470713e+001 -1.385415e+001 -3.282754e+001 240 192 117
-1.345728e+001 -1.370669e+001 -3.119045e+001 47 32 67
-6.737100e-001 5.839375e-001 -6.602521e+000 191 180 175
2.126428e-001 1.304651e-001 -6.617388e+000 171 151 100
-2.999145e-001 6.453672e-001 -6.992090e+000 192 182 180
-2.999145e-001 6.453672e-001 -6.992090e+000 192 182 180
-1.732694e+001 -1.383579e+001 -3.119075e+001 228 41 81
-1.614570e+001 -1.382280e+001 -3.182711e+001 223 34 74
-1.200121e+001 -1.523628e+001 -3.132279e+001 202 36 68
-1.209206e+001 -1.537683e+001 -3.156210e+001 202 36 68
-1.363483e+001 -1.399066e+001 -3.345126e+001 240 179 89
-1.363483e+001 -1.399066e+001 -3.345126e+001 240 179 89
-9.990248e-001 1.029776e+000 -7.153946e+000 192 181 181
-2.168133e+000 1.924429e+000 -7.635309e+000 144 144 87
-4.289688e-001 1.917107e+000 -8.490888e+000 139 148 124
-1.929364e+000 1.792939e+000 -7.571582e+000 171 169 133
-1.930693e+000 1.792608e+000 -7.577481e+000 171 169 133
-1.610157e+000 1.766002e+000 -7.667300e+000 77 100 71
4.470413e-001 1.858158e+000 -8.833772e+000 166 118 90
-1.997136e+000 1.667100e+000 -7.409438e+000 168 167 129
-1.950884e+000 1.643045e+000 -7.379516e+000 181 171 128
1.278951e-001 1.541767e+000 -8.205621e+000 184 155 115
8.520318e-001 1.081149e+000 -8.062675e+000 139 138 131
8.931737e-001 1.004309e+000 -7.901109e+000 138 137 133
3.161467e-001 8.082980e-001 -7.446397e+000 130 90 58
-1.648801e+000 5.338120e-001 -6.673382e+000 205 170 114
-1.183234e-001 6.815101e-001 -7.126308e+000 170 160 137
1.937993e-002 6.295905e-001 -7.111722e+000 189 175 149
-5.311907e-001 6.135741e-001 -6.687059e+000 134 114 88
-7.785966e-002 5.666888e-001 -6.994616e+000 81 69 54
6.201974e-001 5.706053e-001 -7.310546e+000 162 159 114
-2.087823e+000 -8.778706e-002 -7.472064e+000 217 162 174
2.419971e-001 4.627492e-001 -7.003811e+000 179 156 114
4.597686e-001 4.303130e-001 -7.077038e+000 168 147 92
4.597686e-001 4.303130e-001 -7.077038e+000 168 147 92
1.443029e-001 3.955828e-001 -6.885048e+000 180 163 119
7.923987e-001 3.912792e-001 -7.165261e+000 146 143 82
-1.725244e+000 -4.455712e-002 -6.765213e+000 131 93 80
-1.729966e+000 -5.376020e-002 -6.784428e+000 131 93 80
5.999325e-001 2.896893e-001 -6.975623e+000 138 94 71
5.954569e-001 3.000581e-001 -6.949495e+000 138 94 71
3.844623e-001 2.210324e-001 -6.797351e+000 132 88 52
3.778156e-001 2.080658e-001 -6.761298e+000 177 150 101
3.778156e-001 2.080658e-001 -6.761298e+000 177 150 101
1.454848e+000 1.932552e-001 -7.270745e+000 98 118 83
1.485932e+000 7.309936e-002 -7.141580e+000 157 170 146
-1.598615e+000 -2.736698e-001 -6.562561e+000 131 103 63
-1.598615e+000 -2.736698e-001 -6.562561e+000 131 103 63
-1.572788e+000 -3.192552e-001 -6.512074e+000 114 89 57
-1.526710e+000 -3.991185e-001 -6.432085e+000 106 94 56
1.891617e+000 2.958788e+000 -6.453994e+000 190 183 176
-3.820525e-002 1.954168e+000 -8.637507e+000 73 70 63
-1.677973e+000 1.697327e+000 -7.520198e+000 80 108 77
-3.538142e-001 1.731714e+000 -8.210668e+000 164 115 87
-3.425932e-001 1.575643e+000 -8.090242e+000 155 107 67
-1.993486e+000 1.298362e+000 -7.215042e+000 224 188 179
2.324656e-002 1.459060e+000 -8.120578e+000 186 173 141
-1.976028e+000 1.127041e+000 -7.160495e+000 218 180 177
-1.980121e+000 1.121754e+000 -7.180842e+000 218 180 177
7.825710e-001 1.262424e+000 -8.267330e+000 73 78 68
6.949514e-001 1.254828e+000 -8.179979e+000 105 100 97
-1.054595e+000 1.091921e+000 -7.014455e+000 189 186 185
-1.709165e+000 9.283870e-001 -6.730723e+000 217 198 134
7.766283e-001 9.222831e-001 -7.811117e+000 75 71 68
9.677732e-001 9.648491e-001 -7.942925e+000 97 96 92
-7.960167e-001 7.841982e-001 -6.786738e+000 135 46 54
-7.960167e-001 7.841982e-001 -6.786738e+000 135 46 54
3.079590e-001 7.082763e-001 -7.319286e+000 134 90 62
-1.477252e+000 6.215255e-001 -6.323503e+000 178 180 110
-9.204140e-001 6.571339e-001 -6.590672e+000 161 53 57
-2.151862e+000 -2.648891e-002 -7.561709e+000 184 92 105
-2.084839e+000 -5.018091e-002 -7.493273e+000 179 74 87
-1.422804e+000 4.773135e-001 -6.265124e+000 175 177 104
4.778410e-001 4.740713e-001 -7.124065e+000 169 152 92
-1.322984e+000 3.749118e-001 -6.117940e+000 181 188 120
3.555981e-001 3.622368e-001 -6.936416e+000 139 93 63
1.214721e+000 3.708523e-001 -7.297964e+000 68 76 61
4.094319e-001 2.520525e-001 -6.852581e+000 143 92 64
-1.692287e+000 -1.348382e-001 -6.722738e+000 169 136 110
1.439940e+000 1.736177e-001 -7.232545e+000 172 180 170
3.792086e-001 9.650059e-002 -6.635449e+000 137 89 66
3.792086e-001 9.650059e-002 -6.635449e+000 137 89 66
-1.543956e+000 -3.181273e-001 -6.493470e+000 188 165 98
-3.043982e-001 -6.926507e-003 -6.338684e+000 123 107 58
-3.043982e-001 -6.926507e-003 -6.338684e+000 123 107 58
-8.296771e-001 1.949506e+000 -8.348022e+000 194 175 141
4.041646e-001 1.951930e+000 -8.931986e+000 78 89 83
4.256855e-001 1.607032e+000 -8.417904e+000 171 145 96
-5.958633e-002 1.455136e+000 -8.075890e+000 183 173 149
6.821391e-001 1.167266e+000 -8.089310e+000 153 142 120
-1.071509e+000 1.049906e+000 -6.985503e+000 194 181 180
2.907362e-001 7.795804e-001 -7.399614e+000 182 162 101
2.239530e-001 4.742241e-001 -7.024543e+000 136 88 66
4.170253e-001 4.928223e-001 -7.115322e+000 139 88 69
6.170513e-001 1.488430e-001 -6.812648e+000 138 91 73
1.476127e+000 1.609023e-001 -7.221147e+000 92 107 75
3.826241e-001 8.471447e-002 -6.658504e+000 138 89 67
-1.569993e+000 -2.807843e-001 -6.541981e+000 200 173 101
-1.445294e+000 -4.900845e-001 -6.340161e+000 160 159 94
-1.445294e+000 -4.900845e-001 -6.340161e+000 160 159 94
-1.949989e+000 1.856350e+000 -7.630481e+000 179 170 127
-1.719113e+000 1.734052e+000 -7.607783e+000 181 169 131
-1.586496e-001 1.650293e+000 -8.271969e+000 178 150 105
-1.122851e+000 1.306338e+000 -7.247733e+000 122 56 57
-1.122851e+000 1.306338e+000 -7.247733e+000 122 56 57
-8.645882e-001 1.313313e+000 -7.449147e+000 165 142 103
-1.116496e-001 8.023896e-001 -7.255338e+000 73 74 62
-1.107269e-001 8.025445e-001 -7.256376e+000 73 74 62
-2.246065e+000 2.456919e-001 -7.731037e+000 130 62 53
3.492720e-001 6.827875e-001 -7.312079e+000 180 154 105
3.495733e-001 6.818628e-001 -7.314756e+000 180 154 105
5.268352e-001 3.466652e-001 -6.996077e+000 168 150 92
-1.806195e-002 2.087673e+000 -8.900712e+000 224 214 207
2.675703e-002 1.959197e+000 -8.733583e+000 152 124 104
-2.687632e-001 1.612763e+000 -8.196893e+000 183 149 97
-1.309666e+000 1.396455e+000 -7.286421e+000 126 59 58
-1.309666e+000 1.396455e+000 -7.286421e+000 126 59 58
-1.177590e+000 1.325950e+000 -7.268968e+000 191 183 181
-1.007233e+000 1.095703e+000 -7.045778e+000 147 64 67
-9.824435e-001 1.095763e+000 -7.064602e+000 150 64 66
-9.824435e-001 1.095763e+000 -7.064602e+000 150 64 66
-1.469471e+000 1.061719e+000 -6.745284e+000 198 181 149
-1.469471e+000 1.061719e+000 -6.745284e+000 198 181 149
-1.445398e+000 9.400066e-001 -6.782474e+000 199 182 148
-1.445398e+000 9.400066e-001 -6.782474e+000 199 182 148
1.147581e+000 9.931259e-001 -8.182967e+000 88 91 82
1.538285e-001 2.302671e-001 -6.685483e+000 177 160 104
1.534175e-001 2.291355e-001 -6.686108e+000 177 160 104
-6.342486e-001 1.993432e+000 -8.539394e+000 94 101 73
-1.052319e+000 6.818732e-001 -6.525652e+000 193 167 93
-5.159907e-001 6.538134e-001 -6.843890e+000 146 115 67
-5.163351e-001 6.539151e-001 -6.843557e+000 146 115 67
-1.930813e+000 1.885016e+000 -7.676167e+000 173 165 120
-8.553433e-001 1.250863e+000 -7.344070e+000 192 168 110
-8.430452e-001 8.144184e-001 -6.764224e+000 158 57 65
-8.430452e-001 8.144184e-001 -6.764224e+000 158 57 65
-5.714589e-001 6.581484e-001 -6.692882e+000 195 170 115
-5.686894e-001 6.577117e-001 -6.695956e+000 195 170 115
3.695134e-001 4.512892e-001 -7.066771e+000 175 156 98
1.033715e+000 5.188950e-001 -7.399310e+000 99 111 71
1.356313e+000 3.841238e-001 -7.452072e+000 104 116 94
7.041635e-001 1.380255e+000 -8.345345e+000 77 88 71
-9.408470e-001 1.264071e+000 -7.223521e+000 133 57 59
-1.733852e+000 1.106344e-001 -6.675153e+000 224 193 181
-1.217305e+000 1.206650e+000 -7.155735e+000 145 53 55
-1.084550e+000 1.251055e+000 -7.197529e+000 163 127 129
-8.696754e-001 1.125811e+000 -7.238268e+000 147 58 58
-2.395517e-001 2.141032e+000 -8.931340e+000 241 219 208
-1.210649e+000 1.861876e+000 -8.146982e+000 166 152 91
5.078727e-001 1.908533e+000 -8.986833e+000 85 88 80
1.059341e+000 1.646705e+000 -7.547212e+000 194 195 189
1.031783e+000 8.366039e-001 -7.945644e+000 62 72 61
-1.489417e+001 -1.100854e+001 -3.725223e+001 197 39 78
-3.251903e-001 1.778575e+000 -8.370027e+000 165 111 89
3.503695e-001 3.791217e-001 -6.963253e+000 180 158 103
5.852964e-001 1.672206e-001 -6.812619e+000 136 88 66
5.796457e-001 1.465865e-001 -6.790920e+000 151 149 79
5.603149e-001 3.168983e-001 -6.983884e+000 141 93 71
2.821941e-001 1.503416e+000 -8.323443e+000 103 120 88
8.518607e-001 5.297796e-001 -7.359654e+000 152 144 89
3.771191e-001 1.330550e+000 -8.129096e+000 164 143 91
-1.337725e+000 1.987304e+000 -8.191037e+000 159 149 100
-1.844138e+000 1.714283e+000 -7.496765e+000 125 119 83
1.055694e-001 1.522371e+000 -8.243161e+000 155 99 72
-1.962185e+000 1.098418e+000 -7.170919e+000 176 136 132
5.100688e-001 1.117415e+000 -7.884001e+000 154 152 129
-1.388915e+000 8.291393e-001 -7.804873e+000 202 174 170
-1.048385e+000 1.030294e+000 -6.955236e+000 165 53 64
-1.733156e+000 7.491947e-001 -6.753281e+000 237 204 169
-6.066676e-001 6.865066e-001 -6.758953e+000 189 165 111
-1.571342e+000 -3.181180e-001 -6.509765e+000 114 89 57
-1.676680e+000 1.695149e+000 -7.522540e+000 80 108 77
-2.355104e-001 1.756668e+000 -8.409610e+000 141 95 75
-1.114677e+000 1.560037e+000 -7.634722e+000 143 128 107
4.453206e-001 1.631024e+000 -8.556476e+000 187 163 108
9.960462e-001 9.035413e-001 -7.909736e+000 91 95 88
4.587530e-001 1.142243e-001 -6.710512e+000 160 150 88
1.824366e+000 2.749762e+000 -6.663942e+000 188 184 173
-1.956756e+000 1.721762e+000 -7.484640e+000 173 166 130
-1.603790e+000 1.802448e+000 -7.685721e+000 194 172 129
1.555105e-001 1.303824e+000 -7.969329e+000 180 174 146
8.319356e-001 6.225310e-001 -7.469509e+000 172 169 140
7.693248e-002 2.489122e-001 -6.695578e+000 178 158 107
-8.178359e-002 2.030921e+000 -8.853532e+000 87 90 76
-9.408499e-001 9.202933e-001 -6.855625e+000 198 183 183
-2.281861e+001 -1.088892e+001 -3.625808e+001 239 59 104
-3.168821e-002 5.022836e-001 -6.950369e+000 67 81 71
-1.509460e+001 -1.358548e+001 -3.214852e+001 79 54 101
-3.516265e-002 2.010262e+000 -8.848019e+000 93 100 83
7.581855e-001 6.853586e-001 -7.537915e+000 137 140 83
-1.599095e+001 -1.425476e+001 -3.039821e+001 155 20 50
-1.366413e+001 -1.401583e+001 -3.159575e+001 44 29 62
-1.685916e+001 -1.517029e+001 -2.999815e+001 221 25 66
-1.685916e+001 -1.517029e+001 -2.999815e+001 221 25 66
-1.524407e+001 -1.503508e+001 -3.025450e+001 223 28 66
-1.809431e+001 -1.710235e+001 -2.944201e+001 76 69 77
-3.777925e-001 1.851477e+000 -8.573986e+000 132 84 74
-1.895905e+001 -1.323241e+001 -3.215021e+001 49 25 48
-1.951845e+001 -1.673432e+001 -3.209241e+001 45 30 72
-7.030930e-002 2.243396e+000 -1.045809e+001 166 153 146
-7.030930e-002 2.243396e+000 -1.045809e+001 166 153 146
-2.254885e+000 1.943028e+000 -7.794657e+000 165 170 127
-1.063119e+000 1.982866e+000 -8.301469e+000 193 173 118
-2.061572e+000 1.833181e+000 -7.566838e+000 125 127 90
-1.923642e+000 1.852689e+000 -7.624437e+000 174 169 127
-1.819945e+000 1.879023e+000 -7.720802e+000 177 165 118
-8.000665e-002 1.978185e+000 -8.717416e+000 136 142 119
-1.925438e+000 1.731362e+000 -7.483516e+000 177 173 135
-1.924979e+000 1.731417e+000 -7.483948e+000 177 173 135
-1.859727e+000 1.732350e+000 -7.508024e+000 164 160 122
-1.241509e+000 1.689788e+000 -7.847409e+000 186 164 115
8.380441e-002 1.769653e+000 -8.619982e+000 165 114 85
3.535069e-001 1.851629e+000 -8.614242e+000 165 120 95
-1.469500e+000 1.648427e+000 -7.560488e+000 177 121 100
-4.239520e-001 1.664996e+000 -8.175272e+000 185 143 107
2.005097e-001 1.663681e+000 -8.457382e+000 179 161 125
-1.144543e+000 1.574587e+000 -7.620110e+000 195 180 165
9.516101e-002 1.611122e+000 -8.366530e+000 149 106 68
5.683601e-001 1.549120e+000 -8.585264e+000 113 90 58
-3.909604e-001 1.497929e+000 -7.988968e+000 152 98 66
5.517878e-001 1.434450e+000 -8.427219e+000 163 144 93
7.817952e-001 1.510108e+000 -8.597446e+000 69 84 64
5.506406e-001 1.192378e+000 -8.102948e+000 124 115 92
5.591030e-001 1.120039e+000 -7.951263e+000 125 118 108
5.969381e-001 1.125448e+000 -7.987559e+000 88 81 75
6.112195e-001 1.106916e+000 -7.969800e+000 127 120 110
7.776207e-001 1.180522e+000 -8.155833e+000 143 138 134
8.160450e-001 1.151630e+000 -8.141445e+000 143 141 136
-1.071089e+000 1.082139e+000 -6.988894e+000 137 52 55
-1.071089e+000 1.082139e+000 -6.988894e+000 137 52 55
5.283148e-001 1.054296e+000 -7.882886e+000 152 150 131
8.318508e-001 1.039604e+000 -8.004544e+000 148 144 141
8.799552e-001 1.074904e+000 -8.037706e+000 110 106 102
9.482846e-001 1.063523e+000 -8.050769e+000 127 128 117
9.794834e-001 1.021215e+000 -8.082951e+000 131 137 125
-9.824149e-001 9.366862e-001 -6.860075e+000 160 63 77
-8.185572e-001 9.538732e-001 -6.945366e+000 121 39 45
-8.248767e-001 9.416225e-001 -6.972412e+000 121 39 45
-1.909635e+000 6.296989e-001 -7.072236e+000 179 148 93
-1.654813e-001 7.681994e-001 -7.200507e+000 169 147 127
-1.178606e-001 6.723101e-001 -7.147021e+000 175 162 136
-5.533721e-001 6.646144e-001 -6.806301e+000 188 160 83
3.489958e-001 6.311221e-001 -7.261110e+000 175 154 99
2.239992e-002 4.401299e-001 -6.875778e+000 169 153 121
2.893335e-001 4.643718e-001 -7.031598e+000 183 156 111
5.155224e-001 4.864053e-001 -7.146746e+000 169 159 88
4.652964e-001 4.208986e-001 -7.045877e+000 178 153 99
-1.580896e+000 1.722906e-001 -6.511171e+000 164 123 80
5.714560e-001 3.010864e-001 -6.966384e+000 171 157 107
1.396826e+000 3.301188e-001 -7.393563e+000 92 106 81
-1.706253e+000 -8.968827e-002 -6.739963e+000 105 89 63
-1.674851e+000 -1.944466e-001 -6.710891e+000 108 93 68
4.318954e-001 2.307742e-001 -6.799643e+000 133 95 56
4.696224e-001 1.588923e-001 -6.729787e+000 129 89 59
1.485745e+000 7.203254e-002 -7.142483e+000 163 176 150
-1.679816e-001 2.021546e+000 -8.862571e+000 137 142 116
-4.401813e-001 1.884704e+000 -8.501539e+000 118 76 69
-1.935194e+000 1.688852e+000 -7.414040e+000 175 170 130
-1.705955e+000 1.744629e+000 -7.600058e+000 174 166 130
3.992901e-001 1.744259e+000 -8.713000e+000 176 142 104
-1.090960e+000 1.501437e+000 -7.503849e+000 197 183 174
-1.063442e+000 1.494861e+000 -7.544746e+000 142 125 115
4.953668e-001 1.410188e+000 -8.186735e+000 165 141 97
5.883170e-001 1.281926e+000 -8.177360e+000 104 95 86
-1.055848e+000 1.094125e+000 -7.012077e+000 188 179 181
-1.021936e+000 1.041772e+000 -6.955220e+000 188 176 175
1.028357e+000 9.888888e-001 -8.107873e+000 69 82 65
1.271885e+000 1.117507e+000 -8.016840e+000 161 162 156
1.301607e+000 1.119809e+000 -8.002296e+000 83 81 74
1.262950e+000 1.005172e+000 -8.099277e+000 81 82 77
3.149771e-001 8.096843e-001 -7.443531e+000 127 91 54
9.808721e-001 8.298875e-001 -7.737927e+000 93 92 88
-1.144558e-001 7.653578e-001 -7.221301e+000 182 178 153
3.067320e-001 7.290662e-001 -7.355544e+000 174 157 100
-1.277692e-001 6.468928e-001 -7.049642e+000 186 167 152
-1.065770e-001 6.190024e-001 -7.046386e+000 80 65 54
7.057246e-003 5.765820e-001 -7.034012e+000 184 168 145
2.505912e-001 4.266543e-001 -7.007090e+000 136 83 63
4.484621e-001 4.738756e-001 -7.108851e+000 173 153 94
5.067800e-001 4.264397e-001 -7.078015e+000 171 150 95
1.328787e+000 4.359278e-001 -7.473484e+000 94 110 80
1.334359e+000 4.274086e-001 -7.490968e+000 94 110 80
9.034249e-002 3.034764e-001 -6.732608e+000 165 150 111
-1.640798e+000 -2.259584e-001 -6.630985e+000 95 82 59
1.058525e+000 1.298872e-001 -6.969323e+000 166 151 92
-3.885557e-001 1.908996e+000 -8.524922e+000 73 74 60
-2.143370e-001 1.947507e+000 -8.642221e+000 130 144 109
-1.597717e+000 1.777076e+000 -7.571658e+000 74 100 71
1.729412e+000 2.456103e+000 -6.903532e+000 188 181 175
-1.831082e+000 1.643932e+000 -7.406629e+000 186 171 128
8.163178e-001 1.506054e+000 -8.833007e+000 96 108 84
5.562584e-001 1.501301e+000 -8.465267e+000 76 74 61
-1.956366e+000 1.272578e+000 -7.142788e+000 215 186 178
-1.814766e+000 1.007827e+000 -6.952662e+000 210 193 124
-1.504940e+000 1.173678e+000 -6.942708e+000 199 180 130
-1.512533e+000 1.140650e+000 -6.969755e+000 199 180 130
-1.860774e+000 9.549608e-001 -7.000045e+000 147 117 103
-1.796213e+000 9.722371e-001 -6.918370e+000 210 195 115
-1.921307e+000 6.730242e-001 -7.025841e+000 219 191 176
6.298579e-001 9.324318e-001 -7.718556e+000 148 148 114
7.080277e-001 8.628153e-001 -7.726535e+000 147 151 116
2.902290e-001 7.774149e-001 -7.403468e+000 180 156 107
2.825456e-001 7.413624e-001 -7.373357e+000 137 92 63
9.878434e-001 5.523109e-001 -7.468420e+000 106 118 80
-5.415763e-002 4.665897e-001 -6.873721e+000 182 164 138
-2.000070e+000 -3.696155e-001 -7.262525e+000 209 185 162
4.857113e-001 1.084787e-001 -6.691455e+000 135 85 64
4.866031e-001 1.080873e-001 -6.690752e+000 135 85 64
-1.533722e+000 2.027832e+000 -8.096584e+000 163 153 100
5.254199e-001 2.038070e+000 -9.206946e+000 99 108 86
-8.307378e-001 1.946138e+000 -8.358244e+000 193 175 139
6.430223e-002 1.782393e+000 -8.547878e+000 162 115 83
-1.956425e+000 1.543879e+000 -7.300228e+000 181 157 96
1.372455e-001 1.635168e+000 -8.385264e+000 186 156 106
2.622443e-001 1.229043e+000 -7.952824e+000 157 151 92
7.364479e-001 1.326323e+000 -8.278886e+000 74 83 70
5.986047e-001 9.624153e-001 -7.776570e+000 139 136 99
9.916797e-001 9.791294e-001 -8.015208e+000 146 147 140
-2.245113e+000 2.495617e-001 -7.723255e+000 131 58 62
-9.627574e-001 8.862307e-001 -6.801671e+000 150 59 58
-9.796885e-001 8.611421e-001 -6.761146e+000 196 176 181
-8.054627e-001 8.748170e-001 -6.848809e+000 197 182 185
-7.752630e-001 8.213979e-001 -6.805119e+000 187 182 181
-9.129303e-001 6.777668e-001 -6.566312e+000 159 56 60
2.396079e-001 5.070928e-001 -7.058190e+000 178 157 109
1.111465e-002 4.883091e-001 -6.931458e+000 181 166 140
1.111465e-002 4.883091e-001 -6.931458e+000 181 166 140
2.901509e-001 4.167148e-001 -6.978736e+000 180 156 110
7.733613e-002 3.640839e-001 -6.810712e+000 60 76 66
8.414065e-001 3.611346e-001 -7.145769e+000 170 160 125
1.326775e+000 3.818003e-001 -7.396125e+000 125 138 118
1.377536e-001 2.646641e-001 -6.721702e+000 64 81 70
1.226141e-001 1.232084e-001 -6.636156e+000 173 154 90
4.875923e-001 9.951940e-002 -6.706119e+000 135 85 64
-1.708515e+000 2.015346e+000 -7.978446e+000 158 148 81
3.560434e-001 1.927411e+000 -8.800890e+000 145 98 80
5.816942e-001 1.500887e+000 -8.462696e+000 68 67 62
5.816942e-001 1.500887e+000 -8.462696e+000 68 67 62
8.307418e-001 1.357431e+000 -8.462983e+000 68 78 64
-1.918593e+000 9.171001e-001 -7.058341e+000 223 197 166
-1.664739e+000 -3.314955e-001 -6.658954e+000 195 181 125
-1.513523e+001 -3.476811e+001 -4.379788e+001 81 68 59
4.771328e-002 1.954295e+000 -8.752333e+000 160 131 110
4.190442e-002 1.938321e+000 -8.804694e+000 160 131 110
-1.868723e+001 -1.123819e+001 -3.435060e+001 186 31 65
-1.036999e+000 1.179987e+000 -7.127139e+000 146 57 64
-1.036999e+000 1.179987e+000 -7.127139e+000 146 57 64
4.742713e-001 1.115475e+000 -7.919216e+000 161 158 125
-1.564820e+000 1.042716e+000 -6.917039e+000 190 163 78
-1.041442e+000 1.060811e+000 -6.979095e+000 192 183 180
7.947507e-001 1.052936e+000 -8.046111e+000 100 96 94
-9.164589e-001 9.656572e-001 -6.911808e+000 162 57 67
-9.164589e-001 9.656572e-001 -6.911808e+000 162 57 67
-9.568220e-002 5.895130e-001 -7.010373e+000 62 76 63
-1.898906e+001 -1.144703e+001 -3.393202e+001 59 40 85
5.432416e-001 9.960658e-001 -7.805651e+000 165 164 134
9.327581e-001 6.297951e-001 -7.556397e+000 93 100 70
-1.189000e+001 -1.552710e+001 -3.028586e+001 46 35 39
-1.764841e+000 1.730052e+000 -7.578658e+000 190 176 137
-1.636069e+000 1.736560e+000 -7.556103e+000 68 96 65
-1.636069e+000 1.736560e+000 -7.556103e+000 68 96 65
-1.969439e+000 9.547773e-001 -7.299710e+000 154 118 112
6.881219e-001 2.379114e-001 -6.929258e+000 156 156 100
1.956442e-001 1.997578e+000 -8.843271e+000 103 70 68
2.217141e-001 2.187304e+000 -8.879517e+000 230 212 202
1.103512e+000 1.489687e+000 -7.755352e+000 184 189 182
-3.501133e-001 1.855223e+000 -8.539969e+000 127 81 75
-2.201354e+000 1.932671e+000 -7.708246e+000 140 140 84
-2.010092e+000 1.819326e+000 -7.562378e+000 164 165 129
-1.809861e+000 1.861648e+000 -7.659949e+000 76 101 64
-1.804807e+000 1.803834e+000 -7.652080e+000 172 162 122
-1.650487e+000 1.779846e+000 -7.678959e+000 66 101 69
-4.955439e-001 1.933171e+000 -8.495270e+000 136 147 116
-1.813465e-001 1.960248e+000 -8.685283e+000 106 120 92
-1.479183e+000 1.645958e+000 -7.516666e+000 196 179 146
6.389192e-001 1.358066e+000 -8.304574e+000 145 136 113
5.376770e-001 1.268941e+000 -8.136516e+000 118 111 102
7.590139e-001 1.150935e+000 -8.104779e+000 138 133 126
-7.919962e-001 8.551457e-001 -6.823085e+000 128 53 56
3.612916e-001 5.614186e-001 -7.237936e+000 132 90 58
9.920395e-001 6.107614e-001 -7.555881e+000 114 127 89
8.699375e-001 5.734266e-001 -7.373358e+000 120 133 86
1.490824e+000 9.634403e-002 -7.154434e+000 99 114 91
1.502547e+000 1.151141e-001 -7.161726e+000 145 159 136
1.502547e+000 1.151141e-001 -7.161726e+000 145 159 136
-2.038566e+000 1.919475e+000 -7.674809e+000 163 156 108
-1.983080e+000 1.753024e+000 -7.519048e+000 171 169 130
-2.648678e-002 1.677429e+000 -8.420373e+000 177 139 100
7.852809e-001 1.082820e+000 -8.064488e+000 102 96 93
7.005257e-001 1.054652e+000 -7.960891e+000 92 86 83
1.427896e+000 2.754718e-001 -7.372010e+000 93 111 81
1.463046e+000 2.486677e-001 -7.308144e+000 148 161 141
9.605544e-002 2.091652e-001 -6.619721e+000 165 144 98
5.973128e-001 2.005009e-001 -6.850184e+000 131 81 61
6.050757e-001 1.927672e-001 -6.818811e+000 152 145 90
4.824567e-001 9.558140e-002 -6.656868e+000 154 148 83
1.684097e+000 -8.854084e-001 -7.408915e+000 124 117 107
-1.709353e+000 1.742324e+000 -7.595625e+000 182 168 132
5.833225e-003 1.428706e+000 -8.103863e+000 154 145 88
1.354982e+000 1.322472e+000 -7.873841e+000 183 182 175
9.828241e-001 8.790411e-001 -7.847070e+000 95 91 90
-5.101751e-002 7.009774e-001 -7.179903e+000 93 85 68
1.017941e+000 4.613334e-001 -7.379719e+000 167 140 92
1.028256e-001 4.184126e-001 -6.890600e+000 85 78 58
5.440592e-002 3.441781e-001 -6.772971e+000 176 155 116
5.440592e-002 3.441781e-001 -6.772971e+000 176 155 116
4.009760e-001 2.501381e-001 -6.796954e+000 168 149 91
-1.840116e+000 1.863208e+000 -7.698222e+000 80 109 85
-1.875397e+000 1.702167e+000 -7.461108e+000 172 167 126
-2.656161e-001 1.784591e+000 -8.553230e+000 121 73 62
1.393543e-001 1.606885e+000 -8.327268e+000 184 159 113
8.919957e-001 1.161653e+000 -8.180408e+000 67 85 70
-1.487822e+001 -1.345991e+001 -3.137967e+001 72 34 85
2.947610e-001 7.765219e-001 -7.405865e+000 176 153 104
2.960650e-001 7.772578e-001 -7.406019e+000 176 153 104
3.277876e-001 3.395863e-001 -6.886764e+000 176 160 108
3.551883e-001 2.880429e-001 -6.838730e+000 173 153 97
-1.583457e-001 1.919474e+000 -8.622249e+000 116 74 64
-1.097769e+000 8.367914e-001 -6.689352e+000 192 175 147
4.041871e-001 3.889324e-001 -6.981219e+000 176 155 98
-1.323578e+001 -1.284172e+001 -3.266158e+001 239 180 84
-9.897500e-001 1.323698e+000 -7.299199e+000 124 57 57
-8.695034e-001 9.168565e-001 -6.844996e+000 140 68 68
2.098500e-001 1.334162e-001 -6.611336e+000 154 138 88
-1.666382e+001 -1.249768e+001 -3.191879e+001 133 14 41
-1.666382e+001 -1.249768e+001 -3.191879e+001 133 14 41
-1.800808e+000 1.807613e+000 -7.635809e+000 171 168 125
-1.452059e+000 1.630589e+000 -7.520194e+000 175 118 97
-1.282970e+000 1.429443e+000 -7.328809e+000 190 158 78
-3.561576e-001 1.497600e+000 -8.006940e+000 190 157 114
-7.683719e-001 8.812689e-001 -6.856227e+000 148 52 58
1.100685e+000 1.254692e-001 -6.999136e+000 166 145 93
5.853897e-001 1.079158e+000 -7.912006e+000 144 138 126
5.142316e-001 1.677129e+000 -8.625386e+000 182 158 108
1.239414e+000 4.609340e-001 -7.502771e+000 87 104 72
5.396781e-001 1.953699e+000 -9.092159e+000 74 77 66
-1.174742e+000 1.288096e+000 -7.186697e+000 128 53 60
1.091383e+000 4.210707e-001 -7.354917e+000 157 150 104
3.438719e-001 1.962428e+000 -9.058770e+000 114 114 93
7.130799e-001 1.719721e+000 -8.767981e+000 95 107 85
9.430817e-001 6.718704e-001 -7.598805e+000 83 92 66
-2.013224e+000 1.749134e+000 -7.489145e+000 125 126 94
-8.276498e-001 8.399185e-001 -6.795986e+000 156 51 59
3.981612e-001 5.893646e-001 -7.226708e+000 176 156 96
-1.382813e+001 -3.351986e+001 -4.283375e+001 117 109 104
-1.416860e-001 1.707298e+000 -8.424397e+000 168 136 95
-1.173658e+000 1.129191e+000 -6.999285e+000 159 54 61
