ply
format ascii 1.0
element face 0
property list uchar int vertex_indices
element vertex 874
property float x
property float y
property float z
property uchar diffuse_red
property uchar diffuse_green
property uchar diffuse_blue
end_header
-9.780092e-001 -6.101103e-001 -6.419952e+000 138 118 109
-9.780092e-001 -6.101103e-001 -6.419952e+000 138 118 109
2.333414e-001 -8.507061e-001 -7.373719e+000 134 116 66
-1.596600e+000 -1.423045e+000 -6.975603e+000 79 62 44
-9.743492e-001 -1.476802e+000 -7.376656e+000 92 76 59
4.733029e-001 5.173183e-001 -7.542846e+000 187 180 157
1.343954e+000 7.177875e-002 -7.374339e+000 105 115 99
-2.227444e-001 -3.682924e-001 -6.655667e+000 101 86 56
5.491596e-002 -5.315572e-001 -6.949530e+000 142 122 71
-5.930515e-001 -7.326114e-001 -6.783501e+000 91 79 67
1.065975e+000 7.965962e-001 -8.137622e+000 171 174 165
9.608567e-002 4.033931e-002 -6.829469e+000 82 83 58
-6.709053e-001 -9.369283e-001 -6.911228e+000 61 51 42
-1.411441e+000 1.271066e+000 -7.671269e+000 135 71 66
-9.552451e-001 -5.662950e-001 -6.418947e+000 139 117 107
3.651933e-001 1.222948e+000 -8.355116e+000 187 179 162
4.854904e-001 6.055177e-001 -7.745625e+000 161 157 93
-8.617937e-001 -1.361531e+000 -7.459608e+000 62 53 49
1.327652e+000 -6.699311e-001 -7.847898e+000 57 47 38
5.406340e-001 -4.282189e-001 -7.105353e+000 107 101 67
-1.929534e+001 3.116055e+000 -4.637884e+001 234 39 81
1.364882e+000 -7.533714e-001 -7.723127e+000 85 75 66
3.536134e-001 1.628899e+000 -8.874073e+000 68 72 67
-9.821277e+000 -2.589342e+001 -2.930555e+001 173 174 178
9.675603e-001 2.670863e-001 -7.517134e+000 172 165 147
-1.997213e+000 1.679757e+000 -7.790631e+000 135 131 96
4.165841e-001 1.210080e+000 -8.373337e+000 179 151 102
1.081070e+000 3.120420e-001 -7.637509e+000 78 93 62
1.032627e+000 8.906778e-001 -8.288679e+000 154 153 148
-1.884172e+000 1.709939e+000 -7.897864e+000 184 169 117
-1.006336e+000 1.693107e+000 -8.335153e+000 198 177 122
-1.150719e+000 1.148883e+000 -7.439265e+000 196 188 188
-6.095633e+000 -2.814135e+001 -2.231253e+001 169 153 143
5.089996e-001 1.349962e+000 -8.623320e+000 168 125 80
-2.050213e+000 1.036743e+000 -7.273606e+000 138 127 123
-6.197748e+000 -2.764650e+001 -2.283835e+001 202 203 202
-5.807643e+000 -2.797862e+001 -2.203139e+001 203 184 170
-7.014256e+000 -2.806602e+001 -2.137423e+001 203 178 161
-6.876475e+000 -2.819327e+001 -2.115218e+001 156 133 124
-6.591198e+000 -3.849296e+001 -2.155666e+001 188 137 116
-4.938236e+000 -4.021079e+001 -2.251079e+001 180 152 140
-5.743261e+000 -3.688833e+001 -1.976590e+001 122 110 114
-5.636113e+000 -3.688604e+001 -2.021100e+001 122 107 110
-5.266071e+000 -2.777533e+001 -2.220104e+001 197 181 171
-1.891934e+000 1.474316e+000 -7.590399e+000 190 171 128
-5.818964e+000 -2.781842e+001 -2.262078e+001 94 88 85
-5.818964e+000 -2.781842e+001 -2.262078e+001 94 88 85
3.839162e-001 1.295955e+000 -8.534306e+000 178 143 80
-1.182618e+000 1.275700e+000 -7.572396e+000 129 55 56
-5.350292e+000 -3.820109e+001 -2.173481e+001 145 107 89
-1.804888e+000 1.680900e+000 -7.837669e+000 66 110 75
-4.805313e-002 5.797217e-001 -7.369889e+000 189 173 140
8.044644e-001 -2.355496e-001 -7.093172e+000 59 61 40
5.871977e-001 -2.996394e-001 -7.027417e+000 100 100 66
-8.411836e-001 -4.633799e-001 -6.359138e+000 113 106 86
5.099229e-001 -4.460925e-001 -7.124023e+000 66 60 28
-1.019592e+000 -5.016750e-001 -6.298731e+000 78 71 60
-1.708215e-001 -6.166103e-001 -6.913927e+000 140 124 91
6.190824e-001 -6.166256e-001 -7.347724e+000 64 57 31
7.285511e-001 -6.569643e-001 -7.441206e+000 68 67 40
-1.181646e+000 -5.930979e-001 -6.295585e+000 82 73 64
-1.264391e+000 -6.688831e-001 -6.332945e+000 76 66 57
-1.004521e+000 -6.459425e-001 -6.436257e+000 73 63 54
-9.446447e-001 -6.788540e-001 -6.498413e+000 78 71 61
-3.952696e-001 -7.125212e-001 -6.880163e+000 92 74 60
-2.499337e-001 -6.956562e-001 -6.938680e+000 139 122 92
-1.490970e-001 -6.972577e-001 -7.000019e+000 140 124 98
3.766832e-001 -6.605889e-001 -7.250728e+000 80 66 37
-1.257669e+000 -7.350746e-001 -6.407455e+000 75 67 56
-1.149538e+000 -7.696597e-001 -6.486654e+000 76 68 56
-1.059646e+000 -8.044395e-001 -6.563508e+000 74 69 58
-2.839794e-001 -8.007663e-001 -7.031114e+000 145 126 96
5.227218e-001 -8.192276e-001 -7.493456e+000 114 105 73
-2.332603e-001 -9.217039e-001 -7.185939e+000 134 120 83
4.603100e-001 -9.785223e-001 -7.639501e+000 121 108 73
8.962726e-001 -1.041778e+000 -7.955430e+000 80 79 59
8.962726e-001 -1.041778e+000 -7.955430e+000 80 79 59
5.754313e-004 -1.080179e+000 -7.492397e+000 133 120 83
3.813104e-001 -1.174183e+000 -7.793728e+000 123 109 74
-7.614247e-001 -1.232829e+000 -7.239515e+000 59 46 38
-4.761195e-001 -1.146221e+000 -7.283177e+000 142 122 92
-6.008257e-001 -1.453905e+000 -7.576716e+000 129 114 84
-9.428931e-001 -4.340430e-001 -6.276008e+000 72 66 55
2.225386e-001 -4.038338e-001 -6.932278e+000 79 67 44
8.348307e-001 -5.036239e-001 -7.350620e+000 63 65 45
-1.143027e+000 -4.778530e-001 -6.216332e+000 72 63 54
-9.579317e-001 -5.033074e-001 -6.335592e+000 74 69 63
-5.006897e-001 -5.415601e-001 -6.651751e+000 60 48 38
-2.946201e-001 -6.077665e-001 -6.834048e+000 96 80 52
1.989261e-002 -5.636129e-001 -6.959037e+000 141 123 74
6.228071e-002 -5.540256e-001 -6.977699e+000 144 125 74
-2.726398e-002 -6.191950e-001 -6.990931e+000 99 85 64
2.836841e-001 -5.833199e-001 -7.127517e+000 68 52 29
6.478124e-001 -5.467163e-001 -7.282114e+000 78 74 45
-5.150757e-001 -6.989120e-001 -6.819144e+000 93 77 53
-5.266919e-001 -7.315947e-001 -6.837569e+000 84 73 55
-2.158390e-001 -8.116018e-001 -7.080711e+000 93 78 52
4.165011e-002 -9.066983e-001 -7.308347e+000 78 64 43
1.668658e-001 -9.061632e-001 -7.391311e+000 91 74 48
3.635311e-001 -8.560934e-001 -7.438546e+000 85 73 46
4.614946e-001 -8.951764e-001 -7.535749e+000 83 71 48
-5.968597e-001 -9.183909e-001 -6.986113e+000 86 70 54
-1.906508e-002 -9.926816e-001 -7.372152e+000 130 115 76
3.193712e-001 -1.041086e+000 -7.627361e+000 129 117 76
-1.150435e+000 -1.281544e+000 -7.058025e+000 117 101 77
-1.073042e+000 -1.235549e+000 -7.055715e+000 126 108 84
-1.058322e+000 -1.261539e+000 -7.089532e+000 86 72 46
-7.268211e-001 -1.317660e+000 -7.340241e+000 129 113 88
-7.266057e-001 -1.317484e+000 -7.340208e+000 129 113 88
-2.923025e-001 -2.312056e-001 -6.491621e+000 111 98 54
1.339465e-001 -3.115597e-001 -6.784762e+000 112 99 55
-2.643128e-001 -5.857264e-001 -6.829445e+000 133 115 75
-5.714765e-001 -7.266247e-001 -6.794260e+000 61 48 35
-1.017090e+000 -7.079753e-001 -6.503637e+000 80 74 66
1.843490e-001 -1.083487e+000 -7.583854e+000 132 118 85
-9.913386e-001 -1.148346e+000 -7.000622e+000 125 109 83
-8.400055e-001 -1.144225e+000 -7.089374e+000 96 81 59
-9.280586e-002 -1.022310e+000 -7.336816e+000 85 72 40
-2.125172e+001 2.468281e+000 -4.394636e+001 254 55 104
-1.038078e+000 -7.840842e-001 -6.544254e+000 68 64 55
-2.183885e+001 2.133682e+000 -4.471775e+001 170 186 249
-2.183885e+001 2.133682e+000 -4.471775e+001 170 186 249
-2.119512e+001 3.048774e+000 -4.592545e+001 57 39 84
-1.352015e+001 -1.219511e+001 -3.041279e+001 223 170 89
7.391921e-001 -1.813267e-001 -7.025862e+000 92 97 67
7.391921e-001 -1.813267e-001 -7.025862e+000 92 97 67
-1.576347e-001 -5.163740e-001 -6.826293e+000 146 127 84
-1.704796e-001 -5.362355e-001 -6.810860e+000 88 73 40
7.517368e-001 -5.011545e-001 -7.335574e+000 91 92 62
5.184875e-001 -6.662459e-001 -7.355786e+000 122 113 75
1.361660e+000 -6.329102e-001 -7.939603e+000 105 94 82
-1.184477e+000 -7.176889e-001 -6.414650e+000 82 68 57
-1.146350e+000 -6.871034e-001 -6.407053e+000 138 127 116
6.835224e-001 -6.884649e-001 -7.468165e+000 102 97 63
-1.116645e+000 -7.781347e-001 -6.506380e+000 88 75 63
-1.888444e+000 1.645470e+000 -7.766153e+000 148 143 111
-1.088278e+000 7.224704e-001 -6.940558e+000 221 191 185
-1.088278e+000 7.224704e-001 -6.940558e+000 221 191 185
-2.883053e-001 7.092699e-001 -7.447307e+000 209 197 183
-2.296776e-001 6.467326e-001 -7.411818e+000 101 93 79
-2.840365e-001 5.275713e-001 -7.250747e+000 196 184 170
-7.196702e-002 4.314391e-001 -7.211584e+000 127 109 89
2.721440e-001 4.779305e-001 -7.414660e+000 155 122 76
5.383619e-001 5.350854e-001 -7.600562e+000 195 191 149
1.537801e-001 1.920209e-002 -6.810789e+000 100 93 78
1.335377e-001 -2.103857e-001 -6.700167e+000 118 111 64
6.376626e-001 -2.304317e-001 -6.998509e+000 66 66 38
8.971219e-001 -2.298713e-001 -7.146859e+000 83 89 62
9.280928e-001 -2.286164e-001 -7.171093e+000 62 65 47
1.009331e+000 -1.615296e-001 -7.168750e+000 60 67 43
1.116808e+000 -1.836471e-001 -7.225580e+000 63 66 44
6.803302e-001 -2.715155e-001 -7.100628e+000 62 62 34
1.738613e-001 -3.850350e-001 -6.886964e+000 93 81 43
8.608239e-001 -3.535196e-001 -7.271114e+000 91 94 67
8.608239e-001 -3.535196e-001 -7.271114e+000 91 94 67
9.101735e-001 -3.722355e-001 -7.280351e+000 88 90 66
-3.211620e-001 -4.967989e-001 -6.713652e+000 86 70 38
1.237483e-001 -5.336724e-001 -6.997638e+000 95 78 41
5.651419e-001 -5.376474e-001 -7.253294e+000 113 104 63
7.341328e-001 -4.624600e-001 -7.267195e+000 75 74 49
1.442750e-001 -6.286660e-001 -7.100906e+000 88 70 33
4.678912e-001 -6.514924e-001 -7.307623e+000 123 112 66
6.454713e-001 -6.302577e-001 -7.375786e+000 111 103 68
7.740636e-001 -6.012281e-001 -7.425038e+000 91 90 59
-1.144344e+000 -7.296344e-001 -6.446196e+000 77 71 61
5.090616e-001 -6.967971e-001 -7.385357e+000 119 110 70
-3.489242e-001 -8.222895e-001 -7.021786e+000 139 122 92
2.736659e-001 -8.645824e-001 -7.412445e+000 97 83 46
8.213170e-002 -9.301960e-001 -7.398236e+000 96 82 45
4.832171e-001 -9.142563e-001 -7.581626e+000 110 98 60
2.366458e-001 -1.034501e+000 -7.566746e+000 96 83 50
3.840680e-001 -1.019704e+000 -7.643966e+000 123 109 72
-1.074221e+000 -1.153170e+000 -6.969596e+000 101 80 59
-2.103104e+000 1.673178e+000 -7.732013e+000 185 183 143
-1.079169e+000 1.027413e+000 -7.310475e+000 210 199 196
5.693979e-001 9.102025e-001 -8.096372e+000 175 169 157
-3.340642e-001 6.594760e-001 -7.379722e+000 107 101 83
6.825093e-001 4.509058e-001 -7.592975e+000 174 163 111
2.707506e-001 5.157641e-002 -6.917591e+000 186 173 108
1.314298e-001 -2.312288e-001 -6.720351e+000 84 75 47
1.063819e+000 -1.584608e-001 -7.181660e+000 70 75 52
1.103962e+000 -2.176440e-001 -7.253550e+000 62 67 44
-3.420913e-001 -3.805694e-001 -6.576894e+000 136 118 68
6.138683e-001 -2.993862e-001 -7.046268e+000 78 77 49
6.470186e-001 -2.893931e-001 -7.053775e+000 98 98 64
7.331464e-001 -2.872435e-001 -7.105743e+000 67 67 39
7.329075e-001 -2.875858e-001 -7.106829e+000 67 67 39
8.371830e-001 -3.353503e-001 -7.248325e+000 58 62 40
1.038402e+000 -2.483884e-001 -7.245403e+000 69 74 52
5.273453e-001 -3.961336e-001 -7.103202e+000 63 58 29
7.227484e-001 -4.067670e-001 -7.200989e+000 90 94 66
-1.003763e-001 -5.004937e-001 -6.838176e+000 110 91 58
1.661319e-001 -5.634454e-001 -7.041178e+000 102 86 53
-1.287815e+000 -6.237364e-001 -6.280187e+000 83 74 65
-7.974320e-001 -6.744559e-001 -6.560220e+000 101 90 58
-1.527661e-001 -6.419098e-001 -6.951488e+000 100 83 58
-2.762139e-002 -6.200008e-001 -6.990665e+000 93 76 49
-8.204611e-001 -1.085646e+000 -7.059933e+000 105 90 61
-8.204611e-001 -1.085646e+000 -7.059933e+000 105 90 61
-5.599437e-001 -1.125175e+000 -7.231613e+000 101 85 59
-8.550375e-001 -1.185036e+000 -7.102743e+000 109 93 67
-8.749699e-001 -1.222031e+000 -7.173567e+000 105 90 61
-1.316953e+000 -1.322029e+000 -7.021326e+000 92 77 52
1.725550e+000 -1.409733e+000 -7.178843e+000 199 190 183
-1.406002e+000 -1.418671e+000 -7.044685e+000 86 75 53
-1.326170e+000 -1.434151e+000 -7.127350e+000 130 117 86
-1.965550e+000 1.430215e+000 -7.476314e+000 197 186 141
-3.258946e-001 1.558171e+000 -8.449005e+000 194 163 134
1.542976e-003 1.417627e+000 -8.448001e+000 202 180 141
4.777409e-001 5.219776e-001 -7.562228e+000 195 189 160
-1.197381e+000 -1.817413e-001 -5.892589e+000 164 174 122
5.256428e-001 -2.053067e-001 -6.923821e+000 105 103 64
1.078329e-001 -2.848549e-001 -6.753354e+000 86 73 38
5.708428e-002 -3.670479e-001 -6.801521e+000 137 120 66
5.856119e-002 -3.665868e-001 -6.804060e+000 137 120 66
5.003837e-001 -2.878787e-001 -6.979043e+000 114 108 66
-3.876243e-001 -4.406113e-001 -6.605776e+000 124 109 70
4.316110e-001 -4.962909e-001 -7.130526e+000 136 119 63
-1.141245e+000 -6.099366e-001 -6.326145e+000 75 71 65
-8.994497e-001 -7.751484e-001 -6.608039e+000 79 74 67
-7.760785e-001 -9.759892e-001 -6.942220e+000 106 88 66
-9.963473e-001 -1.149341e+000 -7.002558e+000 144 128 95
-1.153854e+000 -1.205786e+000 -6.963799e+000 109 93 66
-9.304971e-001 -1.214739e+000 -7.087397e+000 116 100 75
-9.381353e-001 -1.370854e+000 -7.277435e+000 99 87 61
-1.237176e+000 -1.399251e+000 -7.136676e+000 99 87 63
-1.581571e+000 -2.413218e-001 -6.524558e+000 196 165 113
-1.853381e-002 -3.718454e-001 -6.773216e+000 137 121 70
-8.084612e-001 -4.996797e-001 -6.411467e+000 75 73 60
-3.916880e-001 -5.141279e-001 -6.689783e+000 139 119 67
1.351582e-001 -4.819922e-001 -6.942230e+000 83 68 37
-1.069271e-001 -6.481486e-001 -6.966987e+000 159 136 92
-9.871524e-001 -7.197566e-001 -6.514821e+000 150 130 120
-1.690278e+000 -1.451709e+000 -7.097922e+000 127 111 77
-2.103640e+000 1.764136e+000 -7.865060e+000 171 168 126
-1.128326e+000 1.216759e+000 -7.553819e+000 149 93 92
1.308260e+000 1.450895e-001 -7.476658e+000 120 129 110
-4.348278e-001 -4.499843e-001 -6.609724e+000 137 119 70
-6.623996e-002 -5.380400e-001 -6.868169e+000 158 136 91
-6.623996e-002 -5.380400e-001 -6.868169e+000 158 136 91
-8.521823e-001 -6.143750e-001 -6.463026e+000 83 80 65
1.306777e+000 -7.464448e-001 -7.793587e+000 118 104 93
-3.136048e-001 -9.099392e-001 -7.145786e+000 151 133 97
-6.637767e-001 -1.104182e+000 -7.152820e+000 124 109 76
-7.742824e-001 -1.357962e+000 -7.379499e+000 127 114 82
-6.968678e-001 -1.465138e+000 -7.578826e+000 111 96 67
-7.518194e-001 7.068331e-001 -7.041723e+000 209 187 130
1.354562e-002 2.898823e-001 -7.053703e+000 202 186 137
1.072620e-001 1.329321e-001 -6.912367e+000 195 179 120
2.504611e-001 -3.694295e-001 -6.896100e+000 132 117 60
-9.189086e-001 -5.036409e-001 -6.341872e+000 70 71 61
-4.683270e-002 -4.762794e-001 -6.820983e+000 154 133 83
-4.683270e-002 -4.762794e-001 -6.820983e+000 154 133 83
-7.334566e-001 -6.976124e-001 -6.609013e+000 112 97 67
-1.019930e+000 -7.852917e-001 -6.558190e+000 82 75 67
-5.347131e-001 -7.930832e-001 -6.912091e+000 118 101 75
3.461959e-001 -7.959576e-001 -7.382056e+000 98 85 51
7.250757e-001 1.069146e+000 -8.296597e+000 111 124 104
9.763132e-001 9.818926e-001 -8.294572e+000 181 183 174
-2.682668e-001 6.599210e-001 -7.485643e+000 122 114 96
1.021562e+000 -3.904944e-002 -7.136463e+000 119 136 93
-1.669802e-001 -3.031149e-001 -6.623729e+000 135 118 62
-1.785607e-001 1.735856e+000 -8.784125e+000 154 120 104
-1.082779e+000 8.990098e-001 -7.169401e+000 181 141 142
-7.678825e-001 4.747600e-001 -6.826281e+000 211 201 187
-1.071887e+000 -6.586637e-001 -6.394407e+000 65 65 55
-7.373840e-001 -6.632789e-001 -6.569498e+000 107 96 65
4.439627e-001 1.637716e+000 -8.966056e+000 103 106 95
4.083500e-002 -6.481004e-001 -7.012453e+000 133 117 81
4.083500e-002 -6.481004e-001 -7.012453e+000 133 117 81
3.493391e-001 -4.347197e-001 -7.010140e+000 140 124 67
9.408210e-001 -1.883903e-001 -7.139248e+000 64 67 46
1.736850e-001 -3.459235e-001 -6.847081e+000 130 117 72
-1.074965e+000 -4.921446e-001 -6.260716e+000 74 68 55
2.279950e-002 -4.214018e-001 -6.838075e+000 118 104 66
4.286990e-002 -4.131186e-001 -6.835186e+000 81 67 32
-9.831331e-001 -5.075788e-001 -6.317695e+000 78 71 59
-9.753646e-001 -5.718776e-001 -6.381634e+000 116 92 80
-6.755800e-002 -6.749179e-001 -7.027090e+000 128 112 80
1.944966e-001 -7.454961e-001 -7.247650e+000 101 84 53
6.834170e-001 -6.891203e-001 -7.467239e+000 102 97 63
-9.657450e-001 -7.918507e-001 -6.585534e+000 105 97 84
3.168185e-001 -9.099586e-001 -7.493006e+000 107 93 59
-1.046214e+000 -1.089602e+000 -6.918152e+000 144 124 90
-5.046383e-001 -1.159032e+000 -7.288590e+000 109 92 60
1.264563e-001 -1.127155e+000 -7.622158e+000 93 79 45
3.851224e-001 -2.445091e-001 -6.895297e+000 114 111 67
6.654916e-001 -2.320445e-001 -7.016093e+000 91 92 61
7.900744e-001 -2.035627e-001 -7.059529e+000 85 92 63
-2.197435e-001 -4.470705e-001 -6.716183e+000 143 129 84
-8.803840e-002 -4.514516e-001 -6.790792e+000 103 87 54
1.535706e-001 -4.438296e-001 -6.952523e+000 99 85 50
1.535706e-001 -4.438296e-001 -6.952523e+000 99 85 50
7.582078e-001 -4.816872e-001 -7.306840e+000 96 96 67
7.591079e-001 -4.805203e-001 -7.312478e+000 96 96 67
8.825656e-001 -4.504570e-001 -7.333151e+000 85 88 61
-1.220905e+000 -6.728582e-001 -6.356589e+000 91 83 70
-2.873748e-001 -6.644873e-001 -6.892117e+000 150 130 95
1.157700e-001 -6.315078e-001 -7.077401e+000 135 117 77
1.163342e-001 -6.298300e-001 -7.081480e+000 135 117 77
8.470151e-001 -6.432621e-001 -7.528042e+000 64 67 41
-1.219292e+000 -6.980503e-001 -6.380694e+000 89 83 70
-1.244856e+000 -7.156233e-001 -6.384999e+000 128 122 108
-1.213083e+000 -7.690634e-001 -6.452185e+000 111 106 92
-3.357142e-001 -7.231754e-001 -6.917013e+000 111 93 64
-8.955442e-002 -8.656664e-001 -7.197821e+000 135 120 78
3.777636e-001 -8.878739e-001 -7.491145e+000 127 112 70
4.303344e-001 -9.002336e-001 -7.540349e+000 118 104 65
2.348728e-001 -1.034480e+000 -7.564201e+000 96 83 50
-6.675523e-001 -1.165136e+000 -7.206003e+000 138 119 85
-7.640038e-001 -1.236125e+000 -7.216094e+000 79 63 48
-1.402238e-001 -1.428757e+000 -7.806548e+000 146 131 92
-1.402238e-001 -1.428757e+000 -7.806548e+000 146 131 92
-1.454095e+000 -1.376921e+000 -6.997638e+000 100 85 60
1.641166e-001 -2.117271e-001 -6.723336e+000 111 107 60
6.507401e-001 -1.830325e-001 -6.973639e+000 65 66 40
7.349279e-001 -2.018331e-001 -7.029925e+000 91 94 65
1.103148e+000 -2.167128e-001 -7.252042e+000 62 67 44
6.685299e-001 -3.182898e-001 -7.095052e+000 74 74 46
8.165312e-001 -3.835952e-001 -7.223639e+000 61 63 41
8.823500e-001 -3.866372e-001 -7.301094e+000 64 66 45
5.297878e-001 -5.494690e-001 -7.224417e+000 82 73 41
-5.240789e-001 -6.667184e-001 -6.760492e+000 116 101 68
3.919957e-001 -6.094854e-001 -7.213409e+000 141 121 65
3.923233e-001 -6.114117e-001 -7.212439e+000 141 121 65
7.545272e-001 -5.778887e-001 -7.399881e+000 72 71 41
-9.194193e-001 -6.941516e-001 -6.518970e+000 138 126 110
3.991308e-002 -6.891658e-001 -7.104081e+000 126 110 76
-5.054084e-001 -9.185625e-001 -7.039733e+000 133 116 89
-8.010351e-001 -1.047947e+000 -6.988723e+000 96 80 55
-8.013938e-001 -1.047989e+000 -6.988338e+000 96 80 55
-1.576209e-001 -1.110180e+000 -7.445064e+000 84 72 43
-1.439235e-001 -1.144492e+000 -7.477620e+000 129 116 82
-1.176866e+000 -1.276667e+000 -7.024493e+000 104 90 62
-1.183297e+000 -1.276234e+000 -7.044170e+000 104 90 62
-6.965715e-001 -1.230845e+000 -7.270306e+000 138 122 89
-1.360392e+000 -1.360468e+000 -7.021951e+000 119 105 76
-1.772512e+000 -1.383367e+000 -7.151543e+000 164 145 108
-3.695653e-001 -4.028001e-001 -6.608862e+000 114 98 62
-4.034777e-001 -6.389572e-001 -6.807878e+000 124 108 73
-4.403774e-001 -1.029174e+000 -7.184452e+000 119 100 68
-1.135137e+000 -1.153767e+000 -6.924200e+000 94 80 53
1.016773e+000 7.880120e-001 -8.176300e+000 90 98 83
-2.926297e-001 -2.500319e-001 -6.516299e+000 127 110 61
5.911685e-001 -1.824030e-001 -6.930935e+000 62 65 35
1.246524e+000 -1.622978e-001 -7.250966e+000 64 72 50
-4.139075e-001 -3.433572e-001 -6.522815e+000 131 117 69
-1.766072e-001 -3.521821e-001 -6.659261e+000 101 90 45
5.960087e-001 -2.688562e-001 -7.012287e+000 106 107 73
7.226223e-001 -2.347071e-001 -7.066108e+000 92 97 66
8.294059e-001 -2.613623e-001 -7.125833e+000 90 100 68
9.481866e-001 -2.514613e-001 -7.183784e+000 89 95 69
1.319980e+000 -1.739825e-001 -7.314356e+000 79 89 65
-1.073151e+000 -4.924505e-001 -6.267141e+000 78 74 62
-1.072935e+000 -4.923435e-001 -6.266789e+000 78 74 62
-1.054775e+000 -4.875315e-001 -6.261604e+000 139 133 119
-1.057413e+000 -4.800666e-001 -6.285326e+000 139 133 119
-3.419540e-001 -4.122698e-001 -6.614755e+000 136 123 80
-3.419540e-001 -4.122698e-001 -6.614755e+000 136 123 80
-3.569474e-001 -4.519824e-001 -6.651308e+000 138 126 76
5.759019e-001 -3.369377e-001 -7.065783e+000 105 105 65
6.982323e-001 -3.818190e-001 -7.129082e+000 61 64 33
1.085087e+000 -3.602581e-001 -7.358946e+000 85 93 65
1.201201e+000 -2.769202e-001 -7.349094e+000 53 61 40
-1.292640e+000 -5.734275e-001 -6.227857e+000 126 116 86
-1.224908e+000 -5.778598e-001 -6.275584e+000 80 75 65
-1.223907e+000 -5.806651e-001 -6.272465e+000 80 75 65
-1.166666e+000 -5.422128e-001 -6.274616e+000 79 76 61
-1.164898e+000 -5.442834e-001 -6.267958e+000 79 76 61
-1.165117e+000 -5.754427e-001 -6.286763e+000 81 78 67
-1.086232e+000 -5.208888e-001 -6.282335e+000 76 70 58
-1.045448e+000 -5.058262e-001 -6.290068e+000 77 75 60
-1.030134e+000 -5.308042e-001 -6.324967e+000 84 74 62
-9.899289e-001 -5.039253e-001 -6.313417e+000 81 77 63
-1.002277e+000 -5.513160e-001 -6.351678e+000 81 69 55
-9.783048e-001 -5.668316e-001 -6.382252e+000 84 67 56
-8.826719e-001 -5.374619e-001 -6.409334e+000 81 79 67
-4.013778e-001 -5.436169e-001 -6.713658e+000 73 61 27
-2.627946e-001 -4.626012e-001 -6.714280e+000 145 130 86
-1.150667e-001 -4.542540e-001 -6.792832e+000 137 125 85
-1.841285e-001 -5.173488e-001 -6.811579e+000 142 127 84
-1.850876e-001 -5.171164e-001 -6.811649e+000 142 127 84
-1.290503e-001 -4.987768e-001 -6.823220e+000 140 127 84
-4.330634e-003 -4.933132e-001 -6.893817e+000 146 130 92
8.944784e-001 -4.149277e-001 -7.311575e+000 88 95 65
8.940715e-001 -4.151401e-001 -7.311751e+000 88 95 65
1.117425e+000 -4.398241e-001 -7.472785e+000 81 86 61
-1.239825e+000 -6.265737e-001 -6.307784e+000 138 134 123
-9.457734e-001 -6.147168e-001 -6.445757e+000 73 69 59
-8.522808e-001 -5.843202e-001 -6.450897e+000 74 72 57
-8.786232e-001 -6.001886e-001 -6.461879e+000 74 72 57
-9.272692e-001 -6.600499e-001 -6.486834e+000 132 129 114
-9.254192e-001 -6.584242e-001 -6.490938e+000 132 129 114
-8.828181e-001 -6.475339e-001 -6.500824e+000 74 75 59
-7.916189e-001 -6.408595e-001 -6.536646e+000 97 91 59
-7.322990e-001 -6.006750e-001 -6.532150e+000 119 110 76
-2.269615e-001 -6.274878e-001 -6.888077e+000 149 134 86
-1.629302e-001 -5.920742e-001 -6.896667e+000 150 136 91
1.361212e-001 -5.726254e-001 -7.041655e+000 153 137 87
1.357949e-001 -5.756239e-001 -7.032500e+000 153 137 87
5.915662e-001 -5.477668e-001 -7.270679e+000 72 68 38
4.976981e-001 -5.637549e-001 -7.209729e+000 122 114 71
4.976981e-001 -5.637549e-001 -7.209729e+000 122 114 71
4.928175e-001 -5.776402e-001 -7.243357e+000 126 119 74
4.842834e-001 -6.029596e-001 -7.261913e+000 133 123 75
6.279834e-001 -5.237645e-001 -7.258608e+000 113 111 70
6.282204e-001 -5.226405e-001 -7.261509e+000 113 111 70
7.399762e-001 -5.393905e-001 -7.341941e+000 98 99 68
9.538454e-001 -5.814895e-001 -7.520105e+000 86 92 62
-1.197834e+000 -7.079662e-001 -6.382603e+000 146 135 117
-1.182776e+000 -7.321266e-001 -6.434552e+000 135 128 114
-1.149335e+000 -7.032080e-001 -6.423764e+000 85 75 61
-9.787051e-001 -7.439971e-001 -6.537275e+000 79 70 61
-9.143185e-001 -6.728040e-001 -6.505287e+000 83 78 67
-9.157072e-001 -6.707401e-001 -6.508775e+000 83 78 67
-8.888605e-001 -6.674904e-001 -6.518848e+000 74 75 58
-8.908461e-001 -6.889715e-001 -6.530351e+000 77 77 62
-9.416105e-001 -7.534755e-001 -6.575605e+000 134 131 116
-9.228902e-001 -7.488065e-001 -6.566841e+000 72 70 58
-9.231090e-001 -7.486377e-001 -6.566720e+000 72 70 58
-8.763527e-001 -7.167795e-001 -6.561753e+000 141 126 96
-8.916040e-001 -7.497741e-001 -6.600020e+000 76 69 57
-7.701558e-001 -6.982818e-001 -6.589136e+000 131 116 77
-7.438171e-001 -7.112644e-001 -6.622515e+000 130 120 85
-4.989502e-001 -6.665878e-001 -6.790100e+000 75 58 29
-5.467823e-001 -7.201058e-001 -6.811547e+000 136 121 87
-2.162827e-001 -6.602255e-001 -6.935325e+000 74 57 38
-1.957606e-001 -6.861155e-001 -6.968143e+000 140 125 92
-1.957933e-001 -6.852116e-001 -6.971816e+000 140 125 92
-1.493335e-001 -6.956895e-001 -7.005224e+000 148 134 99
-5.207410e-002 -6.311756e-001 -6.995379e+000 152 136 97
5.537797e-001 -6.445652e-001 -7.348464e+000 70 64 32
7.535427e-001 -6.552171e-001 -7.461702e+000 105 105 72
9.774228e-001 -6.331317e-001 -7.566762e+000 91 97 71
9.800559e-001 -6.624365e-001 -7.587868e+000 88 92 67
-1.197226e+000 -7.993964e-001 -6.488831e+000 82 78 67
-1.167354e+000 -7.641257e-001 -6.474304e+000 80 75 64
-5.542082e-001 -7.436300e-001 -6.834390e+000 152 139 106
-5.606955e-001 -7.641921e-001 -6.845072e+000 142 129 97
-5.105807e-001 -7.571910e-001 -6.871769e+000 149 133 108
-2.717142e-001 -7.481959e-001 -7.010360e+000 149 133 100
-2.717142e-001 -7.481959e-001 -7.010360e+000 149 133 100
-2.965670e-001 -8.227352e-001 -7.056582e+000 146 131 92
-2.235947e-001 -7.638160e-001 -7.033609e+000 149 134 100
-2.235947e-001 -7.638160e-001 -7.033609e+000 149 134 100
-1.771859e-001 -7.742049e-001 -7.063425e+000 145 132 89
-9.503537e-002 -8.042348e-001 -7.153738e+000 80 64 41
5.298431e-002 -8.010924e-001 -7.231228e+000 146 130 83
4.944769e-001 -7.371137e-001 -7.403307e+000 122 110 67
5.450228e-001 -7.520738e-001 -7.436003e+000 122 114 68
4.829387e-001 -7.672557e-001 -7.426014e+000 132 119 75
4.829387e-001 -7.672557e-001 -7.426014e+000 132 119 75
6.546238e-001 -7.717340e-001 -7.533041e+000 106 104 65
7.769800e-001 -7.486524e-001 -7.572731e+000 100 102 66
7.775567e-001 -7.487525e-001 -7.572691e+000 100 102 66
9.053410e-001 -7.061422e-001 -7.598183e+000 89 92 64
9.205014e-001 -7.431197e-001 -7.669167e+000 55 57 36
9.382773e-001 -7.658514e-001 -7.690805e+000 85 89 64
1.138122e+000 -6.867170e-001 -7.731290e+000 77 80 58
-5.872765e-001 -8.317587e-001 -6.898294e+000 138 123 96
-3.034295e-001 -9.132639e-001 -7.136902e+000 155 136 95
-2.568259e-001 -8.489320e-001 -7.105888e+000 149 134 92
4.181301e-002 -8.309862e-001 -7.250917e+000 139 125 81
1.926506e-001 -8.979469e-001 -7.396958e+000 141 126 80
1.924298e-001 -8.983750e-001 -7.396138e+000 141 126 80
3.553462e-001 -8.781361e-001 -7.465758e+000 80 69 37
3.683517e-001 -9.085720e-001 -7.524556e+000 126 116 65
4.083067e-001 -8.863107e-001 -7.506723e+000 75 63 33
6.062518e-001 -9.057857e-001 -7.644514e+000 107 102 64
6.622882e-001 -9.008228e-001 -7.652086e+000 106 103 68
7.876968e-001 -8.705075e-001 -7.698190e+000 99 100 68
1.054761e+000 -9.053364e-001 -7.889573e+000 78 83 60
1.054761e+000 -9.053364e-001 -7.889573e+000 78 83 60
-5.781623e-001 -9.401396e-001 -7.017968e+000 143 128 97
-5.942411e-001 -9.876657e-001 -7.049222e+000 139 125 97
-4.384374e-001 -9.514182e-001 -7.105221e+000 148 130 92
-4.124974e-001 -9.918413e-001 -7.168035e+000 145 130 90
-4.125753e-001 -9.955089e-001 -7.157065e+000 145 130 90
-3.545510e-001 -9.667488e-001 -7.195404e+000 149 136 93
-2.652822e-001 -9.391286e-001 -7.184409e+000 104 90 55
-2.379053e-001 -9.374821e-001 -7.223315e+000 139 124 79
3.965208e-002 -9.774671e-001 -7.400109e+000 137 123 76
3.938614e-002 -9.767719e-001 -7.405089e+000 137 123 76
2.753476e-002 -1.003281e+000 -7.428276e+000 143 129 89
1.663287e-001 -9.657205e-001 -7.452757e+000 142 128 83
1.757574e-001 -9.805405e-001 -7.476561e+000 77 63 28
4.128549e-001 -9.502622e-001 -7.530150e+000 128 115 71
5.402443e-001 -9.858013e-001 -7.648836e+000 80 70 44
5.879712e-001 -9.408209e-001 -7.663434e+000 111 105 73
6.479117e-001 -1.014911e+000 -7.778314e+000 70 66 38
6.479117e-001 -1.014911e+000 -7.778314e+000 70 66 38
8.309158e-001 -9.807850e-001 -7.844099e+000 59 63 40
9.313069e-001 -9.409009e-001 -7.855305e+000 82 84 62
1.059682e+000 -9.690929e-001 -7.988887e+000 58 62 39
-9.457716e-001 -1.053674e+000 -6.941377e+000 132 117 79
-9.604746e-001 -1.092907e+000 -6.964082e+000 140 124 93
-9.697834e-001 -1.120561e+000 -6.984070e+000 135 123 92
-8.325276e-001 -1.045105e+000 -6.981089e+000 144 130 98
-8.370737e-001 -1.065688e+000 -6.997426e+000 143 128 96
-8.370737e-001 -1.065688e+000 -6.997426e+000 143 128 96
-6.719262e-001 -1.051403e+000 -7.094274e+000 146 129 101
-6.811826e-001 -1.082847e+000 -7.103278e+000 147 134 98
-5.370950e-001 -1.028806e+000 -7.127237e+000 141 127 92
-4.730995e-001 -1.035238e+000 -7.177310e+000 150 134 97
-4.557436e-001 -1.108331e+000 -7.254776e+000 149 135 100
-2.739931e-001 -1.030625e+000 -7.273360e+000 140 125 87
-2.857955e-001 -1.118924e+000 -7.366627e+000 85 71 42
-8.524233e-002 -1.100066e+000 -7.456420e+000 92 78 49
-5.024921e-002 -1.073137e+000 -7.435127e+000 138 125 81
-5.024921e-002 -1.073137e+000 -7.435127e+000 138 125 81
3.476466e-001 -1.120175e+000 -7.727005e+000 135 124 78
4.827058e-001 -1.069308e+000 -7.750168e+000 120 111 72
7.151414e-001 -1.061882e+000 -7.873009e+000 91 90 60
-1.240471e+000 -1.206433e+000 -6.928743e+000 136 121 88
-1.027606e+000 -1.168927e+000 -7.015255e+000 86 69 42
-1.029773e+000 -1.167675e+000 -7.023233e+000 86 69 42
-9.936108e-001 -1.125256e+000 -6.977465e+000 95 82 55
-9.920797e-001 -1.166689e+000 -7.025088e+000 140 125 91
-1.004888e+000 -1.200690e+000 -7.041068e+000 139 125 95
-8.343610e-001 -1.154741e+000 -7.099439e+000 101 84 54
-5.800738e-001 -1.135447e+000 -7.225675e+000 138 123 94
-4.497367e-001 -1.146325e+000 -7.301821e+000 96 83 53
-4.534067e-001 -1.226751e+000 -7.385802e+000 136 122 81
-4.530515e-001 -1.226523e+000 -7.387427e+000 136 122 81
-3.455095e-001 -1.211167e+000 -7.435747e+000 134 122 84
-3.009727e-001 -1.174597e+000 -7.409460e+000 99 88 58
-2.044113e-001 -1.161337e+000 -7.466457e+000 130 120 85
-2.043022e-001 -1.161407e+000 -7.465694e+000 130 120 85
-8.177326e-002 -1.150052e+000 -7.521457e+000 138 125 86
-3.349772e-002 -1.165149e+000 -7.561124e+000 137 125 86
6.961443e-002 -1.210638e+000 -7.668861e+000 140 128 89
2.463775e-001 -1.151794e+000 -7.696885e+000 85 75 40
2.782369e-001 -1.144591e+000 -7.708846e+000 137 125 85
2.785783e-001 -1.143220e+000 -7.713998e+000 137 125 85
3.595284e-001 -1.229733e+000 -7.857153e+000 127 118 74
8.186026e-001 -1.156240e+000 -8.009919e+000 64 68 43
7.711809e-001 -1.207867e+000 -8.055476e+000 89 89 60
-1.483817e+000 -1.291166e+000 -6.896372e+000 85 71 38
-1.311346e+000 -1.243621e+000 -6.930555e+000 129 115 79
-1.001729e+000 -1.293599e+000 -7.140218e+000 85 74 46
-9.662466e-001 -1.251489e+000 -7.130086e+000 133 120 86
-8.992122e-001 -1.228778e+000 -7.143626e+000 135 124 93
-8.350221e-001 -1.262929e+000 -7.227138e+000 67 49 46
-5.321325e-001 -1.302588e+000 -7.401742e+000 139 125 87
-3.849224e-001 -1.307583e+000 -7.519452e+000 142 129 87
-3.854039e-001 -1.307245e+000 -7.519492e+000 142 129 87
-2.130800e-001 -1.250413e+000 -7.556242e+000 84 72 50
-1.340916e-001 -1.279491e+000 -7.633106e+000 143 131 93
2.360358e-002 -1.318513e+000 -7.763274e+000 139 126 90
4.040159e-001 -1.259261e+000 -7.925560e+000 125 117 81
8.710129e-001 -1.255748e+000 -8.192843e+000 85 86 56
1.061798e+000 -1.334440e+000 -8.378630e+000 87 74 58
-1.309900e+000 -1.397764e+000 -7.096591e+000 129 118 86
-1.018493e+000 -1.371122e+000 -7.239063e+000 128 119 88
-9.760631e-001 -1.336405e+000 -7.220565e+000 81 71 46
-9.459322e-001 -1.404921e+000 -7.308415e+000 133 123 88
-5.866195e-001 -1.427216e+000 -7.533797e+000 143 128 89
-5.236846e-001 -1.398624e+000 -7.544245e+000 137 123 88
-5.236846e-001 -1.398624e+000 -7.544245e+000 137 123 88
-4.871121e-001 -1.426502e+000 -7.587594e+000 140 127 83
-1.148995e-001 -1.362618e+000 -7.728527e+000 141 128 86
-1.239125e-001 -1.381895e+000 -7.754361e+000 136 124 84
-1.351796e-001 -1.407337e+000 -7.774271e+000 134 122 84
-1.347962e-001 -1.408672e+000 -7.776286e+000 134 122 84
2.508204e-001 -1.349971e+000 -7.953635e+000 138 124 88
3.041979e-001 -1.363603e+000 -7.972971e+000 125 115 80
2.893879e-001 -1.397439e+000 -7.985255e+000 126 112 82
2.905428e-001 -1.395464e+000 -7.996801e+000 126 112 82
3.987762e-001 -1.412977e+000 -8.050548e+000 121 111 82
4.614079e-001 -1.394295e+000 -8.093288e+000 108 101 72
4.633257e-001 -1.394443e+000 -8.098922e+000 108 101 72
-1.128480e+000 -1.436173e+000 -7.222479e+000 124 115 84
-4.907983e-001 -1.454970e+000 -7.619332e+000 144 126 79
2.866551e-001 -2.014642e-001 -6.785731e+000 109 108 60
2.866551e-001 -2.014642e-001 -6.785731e+000 109 108 60
6.807740e-001 -1.859861e-001 -6.988308e+000 96 101 69
7.106930e-001 -1.800051e-001 -6.993392e+000 65 69 45
7.101769e-001 -1.800750e-001 -6.991846e+000 65 69 45
1.298940e+000 -1.603722e-001 -7.298547e+000 62 71 50
-3.262977e-001 -2.872285e-001 -6.516715e+000 74 64 37
-3.130165e-001 -3.084937e-001 -6.557522e+000 127 118 61
4.510348e-001 -2.672878e-001 -6.931789e+000 113 113 65
7.799141e-001 -2.361801e-001 -7.082425e+000 91 98 65
7.813478e-001 -2.343889e-001 -7.086303e+000 91 98 65
7.615076e-001 -2.952487e-001 -7.117385e+000 99 105 69
7.612071e-001 -2.945454e-001 -7.117179e+000 99 105 69
9.959645e-001 -2.072448e-001 -7.169578e+000 60 63 44
9.601979e-001 -2.159988e-001 -7.177428e+000 90 96 70
1.123575e+000 -2.508883e-001 -7.308354e+000 85 94 65
1.137515e+000 -2.006337e-001 -7.249480e+000 91 97 67
1.137515e+000 -2.006337e-001 -7.249480e+000 91 97 67
1.228698e+000 -1.924249e-001 -7.285498e+000 62 66 48
-1.075719e+000 -4.852891e-001 -6.259799e+000 78 74 63
-1.866338e-001 -3.694997e-001 -6.677683e+000 134 122 72
-1.230727e-001 -3.501116e-001 -6.687684e+000 110 102 56
-1.482161e-001 -4.062185e-001 -6.704745e+000 132 121 69
-1.481488e-001 -4.026703e-001 -6.713001e+000 132 121 69
-1.090137e-001 -4.360214e-001 -6.777352e+000 135 126 85
5.221249e-001 -3.159891e-001 -7.018336e+000 89 86 51
5.372940e-001 -3.679193e-001 -7.067168e+000 67 63 39
5.650855e-001 -3.658287e-001 -7.078517e+000 115 112 73
5.658464e-001 -3.641293e-001 -7.079664e+000 115 112 73
6.235726e-001 -3.584830e-001 -7.098688e+000 104 104 68
7.463008e-001 -3.401213e-001 -7.160419e+000 97 103 67
7.464966e-001 -3.394132e-001 -7.161430e+000 97 103 67
9.644572e-001 -2.976147e-001 -7.242203e+000 59 65 37
9.564741e-001 -3.206401e-001 -7.278222e+000 59 64 42
9.564741e-001 -3.206401e-001 -7.278222e+000 59 64 42
9.811498e-001 -3.278903e-001 -7.272599e+000 88 94 68
1.026264e+000 -2.845913e-001 -7.270445e+000 59 67 44
1.097750e+000 -3.268612e-001 -7.339568e+000 88 93 67
1.204706e+000 -3.415194e-001 -7.384826e+000 86 95 68
-1.200009e+000 -5.829740e-001 -6.281555e+000 122 116 101
-1.091355e+000 -5.036024e-001 -6.262874e+000 125 121 109
-1.091937e+000 -5.030415e-001 -6.262807e+000 125 121 109
-9.031657e-001 -5.674333e-001 -6.423482e+000 77 72 59
-5.189233e-001 -5.025682e-001 -6.613734e+000 78 65 49
-4.658754e-001 -5.022752e-001 -6.641638e+000 131 121 67
-3.841636e-001 -5.281472e-001 -6.709004e+000 135 120 69
-3.844951e-001 -5.283780e-001 -6.707825e+000 135 120 69
-2.214132e-001 -4.706261e-001 -6.739117e+000 139 123 79
-2.266326e-001 -4.839210e-001 -6.765889e+000 145 130 87
-2.325888e-001 -4.986914e-001 -6.784884e+000 139 126 81
1.397210e-001 -4.882893e-001 -6.958914e+000 82 69 35
5.405770e-001 -4.357297e-001 -7.156921e+000 115 112 70
5.256715e-001 -4.888507e-001 -7.174513e+000 121 113 63
6.626527e-001 -4.198527e-001 -7.166388e+000 105 106 72
6.626527e-001 -4.198527e-001 -7.166388e+000 105 106 72
7.221172e-001 -4.100833e-001 -7.193902e+000 99 103 70
6.113578e-001 -4.891131e-001 -7.222447e+000 66 65 35
7.021740e-001 -4.741868e-001 -7.261002e+000 102 104 65
7.021740e-001 -4.741868e-001 -7.261002e+000 102 104 65
7.330712e-001 -4.661849e-001 -7.261538e+000 65 67 43
7.612413e-001 -4.707936e-001 -7.289039e+000 98 101 70
7.612413e-001 -4.707936e-001 -7.289039e+000 98 101 70
8.649234e-001 -4.315632e-001 -7.305835e+000 60 65 41
9.475439e-001 -4.330861e-001 -7.356805e+000 90 94 67
1.046744e+000 -3.956823e-001 -7.389283e+000 55 60 37
-1.216063e+000 -6.418307e-001 -6.337382e+000 79 73 63
-1.020794e+000 -6.321022e-001 -6.415223e+000 149 133 117
-9.679785e-001 -6.510618e-001 -6.470146e+000 80 76 68
-9.668772e-001 -6.511735e-001 -6.470623e+000 80 76 68
-9.142756e-001 -5.896908e-001 -6.435901e+000 77 73 62
-2.472325e-001 -5.479319e-001 -6.806622e+000 146 131 89
-2.781879e-001 -6.305543e-001 -6.861937e+000 150 135 90
-2.781879e-001 -6.305543e-001 -6.861937e+000 150 135 90
9.812538e-003 -5.296688e-001 -6.923771e+000 82 69 38
3.819670e-003 -6.132660e-001 -7.008243e+000 148 134 96
4.006899e-003 -6.138458e-001 -7.007632e+000 148 134 96
1.469676e-001 -5.440445e-001 -7.015994e+000 144 131 76
1.458848e-001 -5.463083e-001 -7.015304e+000 144 131 76
1.279326e-001 -5.963889e-001 -7.048464e+000 150 135 82
2.929162e-001 -5.508153e-001 -7.107490e+000 86 73 45
2.732775e-001 -6.122595e-001 -7.152288e+000 86 69 44
4.752719e-001 -5.474630e-001 -7.200574e+000 82 73 46
4.738639e-001 -5.511734e-001 -7.193163e+000 82 73 46
5.630071e-001 -5.435763e-001 -7.240732e+000 121 117 71
5.782477e-001 -5.817657e-001 -7.292005e+000 74 70 41
6.564599e-001 -5.189088e-001 -7.272190e+000 71 66 41
6.173933e-001 -5.521977e-001 -7.290034e+000 113 109 72
6.061725e-001 -5.836332e-001 -7.310236e+000 112 108 62
6.345871e-001 -5.861606e-001 -7.335627e+000 77 70 42
6.343117e-001 -5.866575e-001 -7.334167e+000 77 70 42
7.062920e-001 -5.523154e-001 -7.344694e+000 73 73 46
7.054710e-001 -5.552505e-001 -7.339110e+000 73 73 46
7.174217e-001 -5.967202e-001 -7.372803e+000 105 106 63
7.198252e-001 -5.894784e-001 -7.397851e+000 105 106 63
7.729115e-001 -5.135900e-001 -7.340929e+000 67 69 45
8.152660e-001 -5.682498e-001 -7.412552e+000 67 69 45
8.519667e-001 -5.443008e-001 -7.432613e+000 91 98 65
9.931425e-001 -5.488136e-001 -7.493361e+000 63 69 43
9.929645e-001 -5.489915e-001 -7.493910e+000 63 69 43
1.050117e+000 -5.481671e-001 -7.535729e+000 61 65 47
1.166317e+000 -5.359261e-001 -7.605366e+000 56 61 38
1.219981e+000 -5.387121e-001 -7.615616e+000 57 60 40
-1.246256e+000 -7.132539e-001 -6.384754e+000 124 117 103
-1.246256e+000 -7.132539e-001 -6.384754e+000 124 117 103
-1.201587e+000 -7.442546e-001 -6.436840e+000 79 79 68
-9.649090e-001 -6.802204e-001 -6.488064e+000 154 142 129
-1.014502e+000 -7.177345e-001 -6.485137e+000 74 73 64
-1.017196e+000 -7.144063e-001 -6.491439e+000 74 73 64
-7.607244e-001 -6.737826e-001 -6.578950e+000 127 115 79
-3.953828e-001 -7.116160e-001 -6.880955e+000 92 78 52
-3.057949e-001 -6.422265e-001 -6.865967e+000 87 71 45
-2.451193e-001 -6.760097e-001 -6.917991e+000 148 130 92
-3.044401e-001 -7.030807e-001 -6.931781e+000 158 138 105
-2.497299e-001 -6.946177e-001 -6.939749e+000 151 133 100
-1.305109e-001 -6.562932e-001 -6.973046e+000 157 136 83
-2.070269e-001 -7.187796e-001 -6.995612e+000 149 135 100
-1.723791e-001 -6.889623e-001 -6.984939e+000 88 73 44
-2.418222e-002 -6.908673e-001 -7.068846e+000 146 132 93
-2.322695e-002 -6.913113e-001 -7.062979e+000 146 132 93
7.831899e-002 -6.629162e-001 -7.092402e+000 80 66 41
1.037118e-001 -6.640144e-001 -7.113533e+000 150 136 85
4.847189e-003 -6.815653e-001 -7.070969e+000 72 60 32
4.408951e-001 -6.438069e-001 -7.295429e+000 86 77 45
4.451174e-001 -7.097803e-001 -7.337979e+000 138 128 76
5.954049e-001 -6.150268e-001 -7.338005e+000 119 116 65
5.072820e-001 -7.009668e-001 -7.372513e+000 125 115 65
5.421613e-001 -6.813764e-001 -7.365703e+000 79 70 39
5.421613e-001 -6.813764e-001 -7.365703e+000 79 70 39
7.423960e-001 -6.028384e-001 -7.406814e+000 65 65 36
8.126353e-001 -6.475954e-001 -7.485629e+000 99 103 70
7.798900e-001 -6.621145e-001 -7.489568e+000 61 58 43
7.407618e-001 -6.883238e-001 -7.477097e+000 104 104 69
8.010210e-001 -6.833566e-001 -7.514515e+000 94 93 62
9.779768e-001 -5.899132e-001 -7.535154e+000 61 65 43
9.488197e-001 -6.535473e-001 -7.576934e+000 56 59 40
1.016975e+000 -6.199081e-001 -7.584192e+000 56 59 38
-1.123183e+000 -7.972705e-001 -6.522476e+000 119 111 100
-1.123493e+000 -7.980572e-001 -6.521564e+000 119 111 100
-1.108314e+000 -8.076213e-001 -6.542599e+000 77 73 64
-5.810166e-001 -7.693663e-001 -6.826148e+000 61 47 39
-5.918502e-001 -7.966518e-001 -6.849389e+000 59 43 30
-5.344234e-001 -7.576185e-001 -6.848137e+000 100 83 62
-4.051265e-001 -7.400753e-001 -6.901266e+000 97 85 60
-3.487799e-001 -8.220648e-001 -7.022048e+000 152 139 104
-2.843769e-001 -7.788408e-001 -7.008258e+000 151 133 97
-2.696729e-001 -8.178313e-001 -7.058396e+000 103 87 64
-2.693026e-001 -8.204543e-001 -7.051635e+000 103 87 64
-1.991062e-001 -7.691064e-001 -7.049263e+000 98 82 60
-1.992599e-001 -7.688297e-001 -7.049530e+000 98 82 60
-1.923720e-001 -8.154647e-001 -7.100209e+000 143 128 86
-3.848204e-002 -7.315685e-001 -7.098024e+000 145 132 88
-4.452530e-002 -7.481453e-001 -7.110205e+000 144 130 93
-1.970802e-002 -7.423344e-001 -7.123601e+000 83 73 46
3.004434e-002 -7.906645e-001 -7.204058e+000 97 84 55
4.341907e-001 -7.409534e-001 -7.344597e+000 134 124 73
4.207981e-001 -7.726358e-001 -7.392832e+000 138 121 72
4.137088e-001 -7.958173e-001 -7.405142e+000 139 124 77
5.800066e-001 -7.396642e-001 -7.455760e+000 84 77 44
5.795616e-001 -7.407238e-001 -7.454981e+000 84 77 44
6.100986e-001 -7.352629e-001 -7.468264e+000 117 113 66
6.176823e-001 -7.856620e-001 -7.505057e+000 76 69 43
6.998310e-001 -8.033604e-001 -7.587497e+000 101 99 64
7.655466e-001 -7.857591e-001 -7.616470e+000 100 101 70
8.684392e-001 -7.291086e-001 -7.611209e+000 71 73 49
-5.506224e-001 -8.701599e-001 -6.958546e+000 148 133 102
-5.506077e-001 -8.711941e-001 -6.957293e+000 148 133 102
-5.653118e-001 -9.037468e-001 -6.990650e+000 148 132 106
-4.903421e-001 -8.909494e-001 -7.014907e+000 77 62 33
-5.401508e-001 -9.107609e-001 -7.007827e+000 93 78 55
-3.990027e-001 -8.976187e-001 -7.068473e+000 91 75 48
-3.192521e-001 -8.820363e-001 -7.103217e+000 150 131 88
-2.296048e-001 -8.538902e-001 -7.106754e+000 94 78 47
-2.101940e-001 -8.610631e-001 -7.147577e+000 147 133 91
-2.114690e-001 -8.640192e-001 -7.139075e+000 147 133 91
-7.839402e-002 -8.356532e-001 -7.186558e+000 144 127 84
-7.839402e-002 -8.356532e-001 -7.186558e+000 144 127 84
-4.976259e-002 -8.347672e-001 -7.192808e+000 95 81 54
-8.867055e-002 -8.632330e-001 -7.209723e+000 139 126 80
1.954491e-002 -8.256797e-001 -7.227973e+000 88 74 48
-7.801300e-003 -9.029689e-001 -7.272836e+000 94 78 52
7.483595e-003 -9.193621e-001 -7.318249e+000 150 131 83
1.670258e-001 -9.043126e-001 -7.396621e+000 86 72 41
2.208652e-001 -8.878794e-001 -7.406529e+000 78 67 32
2.205872e-001 -8.896993e-001 -7.402405e+000 78 67 32
2.433513e-001 -8.703128e-001 -7.399808e+000 147 127 74
2.422090e-001 -8.701467e-001 -7.398838e+000 147 127 74
2.823646e-001 -9.146098e-001 -7.459621e+000 91 78 44
3.862047e-001 -8.682861e-001 -7.482873e+000 135 118 65
3.862047e-001 -8.682861e-001 -7.482873e+000 135 118 65
4.586590e-001 -8.276526e-001 -7.468341e+000 133 120 75
5.229653e-001 -8.157914e-001 -7.504720e+000 117 111 72
4.702818e-001 -8.711699e-001 -7.510322e+000 86 75 44
5.552760e-001 -8.801974e-001 -7.580610e+000 108 101 66
6.860441e-001 -8.359459e-001 -7.615439e+000 108 105 71
6.865056e-001 -8.361277e-001 -7.616620e+000 108 105 71
7.079316e-001 -8.515880e-001 -7.640655e+000 66 65 46
5.864929e-001 -8.703289e-001 -7.595985e+000 69 63 37
6.381488e-001 -8.897431e-001 -7.636980e+000 67 63 38
6.971224e-001 -8.836014e-001 -7.672451e+000 78 77 47
7.245825e-001 -8.124529e-001 -7.634957e+000 69 68 38
7.835043e-001 -8.084538e-001 -7.640839e+000 62 64 40
7.526012e-001 -8.862855e-001 -7.652004e+000 67 67 40
8.227852e-001 -8.605626e-001 -7.710429e+000 64 64 38
8.932027e-001 -8.137847e-001 -7.685080e+000 61 63 41
8.691850e-001 -8.809470e-001 -7.728464e+000 58 61 35
1.027551e+000 -9.002129e-001 -7.896950e+000 53 55 34
1.077202e+000 -8.586161e-001 -7.898260e+000 78 81 59
1.086804e+000 -8.925428e-001 -7.900975e+000 61 61 43
-8.201085e-001 -1.021279e+000 -6.965666e+000 146 130 96
-8.201866e-001 -1.021217e+000 -6.965416e+000 146 130 96
-5.645687e-001 -9.694971e-001 -7.055920e+000 71 59 34
-5.220679e-001 -9.711211e-001 -7.081036e+000 91 76 47
-5.088550e-001 -1.007004e+000 -7.126787e+000 87 76 48
-4.841320e-001 -9.443358e-001 -7.069445e+000 86 69 43
-4.843979e-001 -9.445899e-001 -7.069416e+000 86 69 43
-3.997592e-001 -9.533770e-001 -7.123948e+000 150 130 90
-3.370464e-001 -9.332571e-001 -7.154386e+000 152 133 91
-3.503342e-001 -9.567058e-001 -7.168200e+000 147 132 90
-3.010602e-001 -9.714334e-001 -7.206786e+000 144 129 87
-3.148218e-001 -1.005504e+000 -7.231682e+000 141 127 82
-2.476023e-001 -9.579617e-001 -7.206663e+000 145 128 82
-2.288860e-001 -9.839004e-001 -7.250812e+000 90 73 44
-2.648235e-001 -1.010367e+000 -7.270088e+000 138 123 79
-9.177360e-002 -9.401375e-001 -7.279898e+000 90 76 48
-1.330753e-001 -9.798610e-001 -7.304925e+000 137 124 73
-1.328848e-001 -9.796303e-001 -7.305460e+000 137 124 73
-1.163095e-001 -1.000214e+000 -7.336337e+000 84 72 46
-2.273358e-002 -9.347836e-001 -7.315107e+000 88 74 46
-5.389521e-003 -9.528108e-001 -7.360835e+000 144 127 83
-5.389521e-003 -9.528108e-001 -7.360835e+000 144 127 83
1.887243e-002 -9.632224e-001 -7.374540e+000 85 70 40
1.885531e-002 -9.634273e-001 -7.375609e+000 85 70 40
4.564752e-002 -9.622520e-001 -7.375829e+000 138 125 75
6.965074e-002 -9.689484e-001 -7.404991e+000 88 76 54
-2.151237e-002 -9.938106e-001 -7.370072e+000 139 125 76
-3.301128e-003 -1.018600e+000 -7.411016e+000 84 73 46
8.241912e-002 -9.303056e-001 -7.396697e+000 87 75 42
1.958042e-001 -9.524934e-001 -7.438710e+000 91 76 44
2.577753e-001 -9.805328e-001 -7.503099e+000 98 85 51
3.289842e-001 -9.491512e-001 -7.547340e+000 83 72 41
3.773725e-001 -9.629148e-001 -7.572194e+000 76 65 45
3.773725e-001 -9.629148e-001 -7.572194e+000 76 65 45
3.364433e-001 -9.987073e-001 -7.579362e+000 131 121 73
3.363907e-001 -9.989077e-001 -7.579230e+000 131 121 73
4.834193e-001 -9.162419e-001 -7.576485e+000 126 115 71
5.116208e-001 -9.130948e-001 -7.592587e+000 75 69 41
5.548356e-001 -9.375185e-001 -7.642454e+000 69 62 34
4.864452e-001 -9.810686e-001 -7.663541e+000 83 73 46
5.170822e-001 -9.752113e-001 -7.652340e+000 117 110 67
5.730983e-001 -9.824847e-001 -7.652988e+000 112 104 68
5.730983e-001 -9.824847e-001 -7.652988e+000 112 104 68
6.182943e-001 -9.460121e-001 -7.685015e+000 71 66 37
6.832674e-001 -9.237024e-001 -7.692803e+000 65 63 42
6.719575e-001 -9.530064e-001 -7.738072e+000 69 64 46
6.892265e-001 -9.794299e-001 -7.755190e+000 99 99 65
6.895833e-001 -9.780053e-001 -7.760374e+000 99 99 65
7.311000e-001 -9.440194e-001 -7.755150e+000 74 73 47
7.170867e-001 -9.746220e-001 -7.751104e+000 68 66 42
8.571213e-001 -9.151473e-001 -7.802703e+000 57 61 38
8.847872e-001 -9.853189e-001 -7.891994e+000 60 60 39
9.763153e-001 -9.651866e-001 -7.906011e+000 79 82 54
1.050246e+000 -9.985242e-001 -8.012477e+000 55 56 38
-8.933067e-001 -1.061126e+000 -6.969781e+000 138 123 90
-8.933250e-001 -1.061892e+000 -6.966814e+000 138 123 90
-8.553162e-001 -1.105952e+000 -7.057253e+000 144 125 93
-6.562860e-001 -1.077747e+000 -7.116647e+000 103 85 62
-6.064240e-001 -1.079468e+000 -7.142599e+000 91 77 51
-6.177043e-001 -1.108812e+000 -7.173405e+000 79 65 38
-6.177969e-001 -1.108067e+000 -7.174849e+000 79 65 38
-4.414610e-001 -1.068414e+000 -7.221433e+000 149 135 99
-4.636271e-001 -1.123753e+000 -7.276750e+000 147 134 91
-4.355442e-001 -1.116645e+000 -7.279806e+000 86 70 45
-3.543086e-001 -1.105862e+000 -7.315729e+000 141 124 83
-3.544802e-001 -1.107129e+000 -7.311809e+000 141 124 83
-3.326356e-001 -1.119593e+000 -7.340799e+000 96 83 51
-1.871246e-001 -1.051324e+000 -7.350140e+000 84 73 44
-2.107574e-001 -1.112101e+000 -7.406096e+000 77 67 42
-2.102674e-001 -1.111269e+000 -7.409026e+000 77 67 42
-1.350921e-001 -1.044299e+000 -7.372859e+000 86 74 47
-1.754157e-001 -1.084601e+000 -7.399866e+000 115 103 61
-1.469852e-001 -1.084039e+000 -7.383731e+000 87 75 49
-3.194779e-002 -1.025889e+000 -7.412780e+000 140 127 80
-3.222967e-002 -1.026496e+000 -7.412160e+000 140 127 80
-2.564063e-002 -1.072041e+000 -7.470702e+000 84 71 52
3.350752e-002 -1.058548e+000 -7.479633e+000 84 72 44
-4.201233e-002 -1.116325e+000 -7.489960e+000 85 74 47
1.426194e-001 -1.026606e+000 -7.517370e+000 137 123 77
1.706950e-001 -1.019815e+000 -7.519217e+000 89 76 49
1.511865e-001 -1.071438e+000 -7.549503e+000 85 76 48
2.736536e-001 -1.085816e+000 -7.643410e+000 87 80 51
3.014249e-001 -1.084550e+000 -7.646594e+000 133 120 75
3.202640e-001 -1.037281e+000 -7.633544e+000 135 119 71
3.495693e-001 -1.033834e+000 -7.635449e+000 81 74 43
3.354071e-001 -1.070328e+000 -7.664800e+000 88 82 48
3.353406e-001 -1.069897e+000 -7.664714e+000 88 82 48
3.824664e-001 -1.027432e+000 -7.616230e+000 127 119 70
3.579058e-001 -1.087648e+000 -7.698678e+000 127 113 73
4.627312e-001 -1.039566e+000 -7.686557e+000 80 69 41
4.945098e-001 -1.034828e+000 -7.718735e+000 115 105 70
4.957632e-001 -1.033616e+000 -7.722810e+000 115 105 70
4.570985e-001 -1.123198e+000 -7.779376e+000 125 114 69
