ply
format ascii 1.0
element face 0
property list uchar int vertex_indices
element vertex 876
property float x
property float y
property float z
property uchar diffuse_red
property uchar diffuse_green
property uchar diffuse_blue
end_header
8.011727e-001 -4.504478e-001 -6.970511e+000 85 82 53
8.004037e-001 -4.531862e-001 -6.963615e+000 85 82 53
8.765691e-001 -4.185197e-001 -6.980966e+000 78 76 51
8.770609e-001 -4.195244e-001 -6.980004e+000 78 76 51
1.255815e+000 -4.531895e-001 -7.227744e+000 58 62 36
-1.269859e+000 -6.442499e-001 -5.968429e+000 77 73 66
-1.066436e+000 -6.121304e-001 -6.037205e+000 127 118 111
-9.553488e-001 -6.021247e-001 -6.082594e+000 77 68 62
-3.063395e-001 -6.165683e-001 -6.507821e+000 75 61 36
-2.288035e-001 -6.195031e-001 -6.557555e+000 83 68 45
2.723436e-002 -5.795751e-001 -6.683793e+000 92 78 51
7.469673e-001 -6.115215e-001 -7.097142e+000 82 73 43
9.371834e-001 -5.366644e-001 -7.130222e+000 106 105 61
1.181670e+000 -4.861385e-001 -7.219178e+000 62 64 49
1.181670e+000 -4.861385e-001 -7.219178e+000 62 64 49
1.369395e+000 -4.797447e-001 -7.309989e+000 62 66 43
-3.508528e-001 -7.429198e-001 -6.608668e+000 90 73 55
-2.043891e-001 -7.562370e-001 -6.695611e+000 100 80 56
-3.492213e-002 -6.709497e-001 -6.714497e+000 158 136 95
-1.417357e-002 -7.005630e-001 -6.727056e+000 88 72 44
1.217172e-001 -6.880020e-001 -6.799567e+000 86 71 48
1.642802e-001 -7.394896e-001 -6.888808e+000 79 68 39
3.150517e-001 -6.995087e-001 -6.936927e+000 103 87 63
4.555446e-001 -6.939873e-001 -7.011524e+000 95 82 56
6.788573e-001 -6.225737e-001 -7.081999e+000 80 73 47
6.747529e-001 -6.310028e-001 -7.047762e+000 80 73 47
9.368220e-001 -6.230232e-001 -7.206347e+000 68 64 37
1.066606e+000 -6.241899e-001 -7.287159e+000 59 62 35
-1.201463e+000 -8.697781e-001 -6.219374e+000 70 69 57
-1.200122e+000 -8.711351e-001 -6.213536e+000 70 69 57
-1.036635e+000 -8.408022e-001 -6.263214e+000 137 135 122
-1.048085e+000 -8.952867e-001 -6.314071e+000 83 76 67
-1.047625e+000 -8.963173e-001 -6.309416e+000 83 76 67
-9.887904e-001 -8.878700e-001 -6.322087e+000 79 76 61
-9.889847e-001 -8.859490e-001 -6.324778e+000 79 76 61
-9.315346e-001 -8.653520e-001 -6.331868e+000 78 77 69
-9.314038e-001 -8.631217e-001 -6.336787e+000 78 77 69
-3.670593e-001 -7.900275e-001 -6.635855e+000 92 75 55
-2.160932e-001 -7.860102e-001 -6.715260e+000 102 85 64
-1.902729e-001 -8.609875e-001 -6.813615e+000 86 71 42
-6.917299e-002 -8.539170e-001 -6.869485e+000 99 86 52
9.206077e-002 -7.852279e-001 -6.909059e+000 96 82 53
9.195887e-002 -7.856873e-001 -6.908011e+000 96 82 53
2.820331e-001 -7.873066e-001 -7.000722e+000 88 76 53
6.707316e-001 -8.264679e-001 -7.256118e+000 87 77 47
7.072024e-001 -8.231212e-001 -7.232082e+000 132 118 69
7.465201e-001 -7.907170e-001 -7.264576e+000 92 85 53
8.932963e-001 -7.479616e-001 -7.316458e+000 73 67 42
1.211367e+000 -7.563823e-001 -7.497400e+000 62 64 42
-4.114704e-001 -9.082236e-001 -6.740948e+000 90 76 57
-4.114704e-001 -9.082236e-001 -6.740948e+000 90 76 57
-4.756326e-001 -9.307953e-001 -6.728830e+000 90 75 51
-3.273725e-001 -8.949564e-001 -6.760230e+000 81 64 46
-9.993338e-002 -9.352193e-001 -6.942775e+000 93 79 48
9.157093e-002 -9.349888e-001 -7.040921e+000 88 77 52
2.525043e-001 -8.622390e-001 -7.082924e+000 83 70 48
2.201767e-001 -9.578364e-001 -7.132399e+000 84 72 46
2.550598e-001 -9.546133e-001 -7.166546e+000 154 131 77
6.909979e-001 -9.401700e-001 -7.397204e+000 85 73 45
1.099938e+000 -9.505376e-001 -7.625671e+000 90 90 62
-7.752626e-001 -1.079594e+000 -6.708039e+000 80 63 43
-7.752329e-001 -1.080019e+000 -6.706413e+000 80 63 43
-7.106297e-001 -1.084650e+000 -6.745115e+000 90 74 51
-7.106297e-001 -1.084650e+000 -6.745115e+000 90 74 51
-2.349454e-001 -9.902698e-001 -6.920339e+000 105 90 57
-2.500069e-001 -1.027303e+000 -6.956860e+000 101 85 55
8.090894e-003 -1.000408e+000 -7.061614e+000 92 83 56
-1.069775e-002 -1.047888e+000 -7.102536e+000 89 74 48
5.140018e-001 -1.064217e+000 -7.425146e+000 87 76 46
6.122932e-001 -9.784675e-001 -7.386915e+000 73 64 41
6.700323e-001 -1.001938e+000 -7.365239e+000 78 71 44
5.889895e-001 -1.050823e+000 -7.456820e+000 79 69 41
8.616727e-001 -9.947570e-001 -7.486796e+000 81 76 48
8.616727e-001 -9.947570e-001 -7.486796e+000 81 76 48
1.034140e+000 -1.061309e+000 -7.707261e+000 69 69 48
1.225234e+000 -1.038919e+000 -7.791623e+000 65 67 44
-8.575957e-001 -1.120751e+000 -6.724212e+000 88 71 51
-8.844982e-001 -1.190581e+000 -6.774127e+000 94 79 55
-6.871398e-001 -1.186653e+000 -6.886409e+000 62 49 47
1.863817e-001 -1.186063e+000 -7.371098e+000 92 78 49
5.276575e-001 -1.186173e+000 -7.563413e+000 93 81 49
-1.065022e+000 -1.252419e+000 -6.727169e+000 141 127 90
-1.065022e+000 -1.252419e+000 -6.727169e+000 141 127 90
-1.029314e+000 -1.241369e+000 -6.740415e+000 92 78 52
-9.910194e-001 -1.309414e+000 -6.829221e+000 89 75 48
-7.210664e-001 -1.270156e+000 -6.958092e+000 65 52 43
-4.514340e-001 -1.207795e+000 -7.018502e+000 100 84 58
4.114749e-001 -1.322408e+000 -7.647666e+000 93 82 50
8.118994e-001 -1.284306e+000 -7.815303e+000 75 69 45
8.670971e-001 -1.317058e+000 -7.859615e+000 65 63 38
-1.329378e+000 -1.341912e+000 -6.678365e+000 76 63 47
-1.329376e+000 -1.341049e+000 -6.679799e+000 76 63 47
-1.308383e+000 -1.378331e+000 -6.721675e+000 129 116 81
-1.308101e+000 -1.379105e+000 -6.718457e+000 129 116 81
-1.199449e+000 -1.423006e+000 -6.847498e+000 123 112 78
-1.127072e+000 -1.321320e+000 -6.773221e+000 99 85 56
-1.097915e+000 -1.328567e+000 -6.805070e+000 134 121 86
-1.129797e+000 -1.406739e+000 -6.867888e+000 130 117 83
-1.013627e+000 -1.358940e+000 -6.870348e+000 91 77 50
-4.088075e-001 -1.422586e+000 -7.311158e+000 115 100 69
-1.222715e-001 -1.334391e+000 -7.360346e+000 94 79 56
4.596930e-001 -1.369989e+000 -7.737797e+000 83 74 43
-1.425766e+000 -1.509378e+000 -6.801721e+000 126 115 80
-1.216283e+000 -1.472299e+000 -6.882276e+000 130 118 81
-1.160977e+000 -1.476844e+000 -6.913455e+000 119 109 73
-1.051269e+000 -1.441483e+000 -6.949012e+000 104 92 66
-1.024949e+000 -1.467868e+000 -6.989753e+000 126 116 81
-9.752914e-001 -1.503281e+000 -7.046904e+000 124 115 82
-1.014312e+000 -1.529037e+000 -7.056829e+000 80 71 43
-1.010671e+000 -1.533329e+000 -7.035321e+000 80 71 43
-9.515904e-001 -1.526291e+000 -7.088419e+000 82 74 52
-9.107798e-001 -1.516469e+000 -7.111766e+000 127 115 73
-6.993205e-001 -1.512965e+000 -7.207174e+000 104 89 68
-5.400809e-001 -1.442120e+000 -7.246178e+000 97 83 54
-3.817843e-001 -1.505430e+000 -7.375023e+000 96 83 54
-3.423372e-001 -1.545000e+000 -7.471624e+000 98 85 53
-1.589782e+000 -1.583740e+000 -6.787914e+000 119 106 72
-1.527437e+000 -1.603358e+000 -6.846404e+000 122 111 81
-1.379637e+000 -1.567244e+000 -6.870924e+000 120 111 80
-1.393558e+000 -1.564218e+000 -6.920298e+000 120 111 80
-1.194279e+000 -1.556200e+000 -6.983679e+000 125 116 85
-9.282293e-001 -1.546785e+000 -7.122576e+000 133 123 85
-9.287092e-001 -1.546160e+000 -7.125021e+000 133 123 85
6.241974e-001 -1.638608e-001 -6.629079e+000 110 109 65
2.516359e-001 -2.871592e-001 -6.514311e+000 125 113 61
6.367361e-001 -2.428330e-001 -6.684211e+000 67 67 34
7.315738e-001 -2.645579e-001 -6.757792e+000 113 111 63
7.152102e-001 -3.145752e-001 -6.805119e+000 116 112 65
6.799904e-001 -4.228179e-001 -6.901511e+000 131 121 62
-6.180856e-001 -6.482123e-001 -6.288243e+000 116 107 76
1.267299e-001 -9.472850e-001 -7.084746e+000 126 110 69
-6.223973e-001 -1.011411e+000 -6.748831e+000 59 45 44
-5.615778e-001 -1.014954e+000 -6.751376e+000 59 48 41
1.046646e-001 -1.000209e+000 -7.154381e+000 119 106 64
7.089063e-002 -1.085183e+000 -7.181580e+000 87 75 35
-1.012589e+000 -1.199456e+000 -6.687541e+000 121 105 80
-9.063311e-001 -1.138944e+000 -6.683651e+000 143 124 85
-3.299139e-003 -1.189489e+000 -7.265839e+000 78 68 45
-2.061498e-003 -1.186825e+000 -7.272277e+000 78 68 45
2.357881e-001 -1.162860e+000 -7.350283e+000 101 89 51
3.799409e-001 -1.155817e+000 -7.438734e+000 127 114 70
-1.097159e+000 -1.240138e+000 -6.694727e+000 95 83 59
-1.096021e+000 -1.241557e+000 -6.690131e+000 95 83 59
-7.669122e-001 -1.231328e+000 -6.865950e+000 95 79 52
-1.422000e+000 -1.402729e+000 -6.699360e+000 98 87 59
-1.255815e+000 -1.313279e+000 -6.690050e+000 78 65 46
1.392818e+000 -1.403254e+000 -8.046301e+000 124 112 96
-1.371407e+000 -1.440896e+000 -6.775882e+000 92 80 57
-1.410465e+000 -1.473842e+000 -6.784744e+000 123 110 75
-1.337103e+000 -1.513580e+000 -6.853614e+000 81 75 51
-9.857909e-001 -1.457765e+000 -6.982760e+000 86 76 51
-8.553354e-001 -1.517432e+000 -7.132447e+000 132 119 81
-1.356205e+000 -1.581492e+000 -6.917024e+000 87 76 58
-1.357214e+000 -1.581727e+000 -6.917429e+000 87 76 58
-1.261182e+000 -1.555884e+000 -6.944498e+000 125 116 79
-1.059782e+000 -1.550675e+000 -7.050555e+000 128 115 80
-6.314891e-001 -1.554812e+000 -7.324362e+000 97 82 49
4.319338e-001 -1.858227e-001 -6.528560e+000 108 106 57
-9.786517e-002 -2.577672e-001 -6.291223e+000 110 99 59
4.032967e-001 -2.727665e-001 -6.586311e+000 117 110 56
5.251701e-001 -2.124331e-001 -6.619943e+000 115 111 63
-1.672944e-001 -4.442526e-001 -6.405393e+000 139 123 72
-5.291147e-001 -1.311656e+000 -7.098288e+000 111 95 61
-5.568260e-001 -1.382938e+000 -7.165578e+000 124 109 76
-5.586072e-001 -1.381446e+000 -7.174827e+000 124 109 76
5.664818e-001 -4.544163e-001 -6.828742e+000 141 125 66
7.694665e-002 -6.078547e-001 -6.687266e+000 152 131 86
7.694665e-002 -6.078547e-001 -6.687266e+000 152 131 86
-9.795038e-001 -8.245122e-001 -6.274546e+000 71 69 57
-1.736184e-001 -9.631501e-001 -6.928018e+000 149 130 89
-6.264180e-001 -1.324232e+000 -7.063543e+000 108 92 59
1.331004e+000 -1.583819e+000 -8.480480e+000 194 168 152
-1.616999e+000 -1.542846e+000 -6.752580e+000 85 73 50
-6.587293e-001 -9.908848e-001 -6.635497e+000 151 130 89
-7.616616e-001 -7.515342e-001 -6.313946e+000 128 113 70
-8.250477e-002 -1.808588e-001 -6.256242e+000 126 115 70
3.754934e-001 -8.300531e-001 -7.152092e+000 134 121 77
-7.863996e-001 -1.496878e+000 -7.277570e+000 62 58 49
-8.563542e-002 -2.302917e-001 -6.270202e+000 129 124 77
6.159018e-001 -1.495447e-001 -6.607531e+000 115 120 78
3.470330e-001 -2.860942e-001 -6.411458e+000 126 124 83
7.511041e-001 -1.512101e-001 -6.672018e+000 122 127 88
1.163577e+000 -1.766719e-001 -6.908492e+000 102 112 85
1.461552e+000 -1.275566e-001 -7.042850e+000 101 112 82
-1.103020e+000 -5.369683e-001 -5.945125e+000 74 77 66
-9.942571e-001 -5.108798e-001 -5.987413e+000 79 87 74
9.645505e-002 -3.814485e-001 -6.505658e+000 89 80 47
7.647335e-001 -3.188051e-001 -6.827441e+000 117 117 80
1.075227e+000 -2.021352e-001 -6.899297e+000 70 79 60
1.101096e+000 -2.252855e-001 -6.933539e+000 92 102 77
-8.800457e-001 -5.358417e-001 -6.077841e+000 161 151 141
-1.892023e-001 -4.503836e-001 -6.417059e+000 149 138 86
-1.461110e-003 -5.066954e-001 -6.569332e+000 83 72 36
-1.232920e+000 -6.641640e-001 -6.012524e+000 81 84 72
-9.218980e-001 -6.571423e-001 -6.154956e+000 104 101 89
-8.901647e-001 -6.617592e-001 -6.183785e+000 114 114 104
-8.469499e-001 -6.718903e-001 -6.199275e+000 81 85 71
-8.468756e-001 -6.722132e-001 -6.198666e+000 81 85 71
-1.496116e-001 -5.969421e-001 -6.579047e+000 150 141 102
1.669721e-001 -5.260071e-001 -6.596426e+000 138 125 83
1.315468e+000 -3.867200e-001 -7.199839e+000 96 105 76
1.482010e+000 -4.237740e-001 -7.242754e+000 88 97 76
-1.246023e+000 -7.303454e-001 -6.068804e+000 77 77 65
-8.282042e-001 -7.587302e-001 -6.311930e+000 93 97 82
-2.478191e-001 -6.713614e-001 -6.599366e+000 94 83 52
-8.909499e-001 -8.065259e-001 -6.312255e+000 78 80 68
-3.081049e-001 -7.754266e-001 -6.675923e+000 135 123 97
6.803554e-001 -7.179562e-001 -7.145145e+000 137 125 76
-4.716795e-001 -8.479858e-001 -6.648469e+000 133 122 95
-2.993102e-001 -8.159971e-001 -6.707018e+000 99 88 66
-2.993102e-001 -8.159971e-001 -6.707018e+000 99 88 66
-1.040455e-001 -7.990230e-001 -6.802919e+000 94 83 55
1.266376e+000 -6.981327e-001 -7.489307e+000 89 96 68
-3.377803e-001 -9.218270e-001 -6.794785e+000 88 77 57
5.265660e-001 -8.673866e-001 -7.232303e+000 92 84 48
-7.367376e-002 -9.379571e-001 -6.969495e+000 135 124 88
-1.693486e-001 -9.975128e-001 -6.966289e+000 161 148 95
6.181355e-001 -1.050358e+000 -7.439911e+000 135 123 81
-9.433947e-001 -1.167956e+000 -6.713883e+000 129 117 81
-6.327772e-002 -1.189972e+000 -7.238040e+000 92 83 51
-1.506956e+000 -1.425311e+000 -6.671652e+000 85 76 43
-1.515108e+000 -1.475174e+000 -6.718593e+000 82 76 45
-1.538373e+000 -1.500221e+000 -6.737531e+000 78 73 48
9.919172e-001 -1.798573e-001 -5.895492e+000 176 178 173
-2.511037e-001 -2.029833e-001 -6.159635e+000 138 132 79
3.226059e-001 -1.743400e-001 -6.456111e+000 133 130 84
-8.082977e-001 -4.476227e-001 -6.020886e+000 131 133 106
2.619623e-001 -2.370732e-001 -6.477229e+000 137 131 83
2.537785e-001 -2.664094e-001 -6.494540e+000 137 130 83
3.612916e-001 -2.751328e-001 -6.559671e+000 106 102 59
3.612916e-001 -2.751328e-001 -6.559671e+000 106 102 59
7.473373e-001 -2.034490e-001 -6.720398e+000 80 84 57
9.156910e-001 -2.033423e-001 -6.798338e+000 110 119 88
9.156910e-001 -2.033423e-001 -6.798338e+000 110 119 88
1.334309e+000 -1.238604e-001 -7.045330e+000 91 105 81
1.624916e+000 -1.210675e-001 -7.120518e+000 77 89 65
-1.074325e+000 -5.130018e-001 -5.941152e+000 84 87 76
8.200908e-001 -3.055815e-001 -6.843970e+000 120 122 83
8.959397e-001 -2.679437e-001 -6.856223e+000 112 119 82
8.959397e-001 -2.679437e-001 -6.856223e+000 112 119 82
9.538975e-001 -2.892041e-001 -6.908575e+000 109 115 82
9.538975e-001 -2.892041e-001 -6.908575e+000 109 115 82
1.293371e+000 -2.466478e-001 -7.080270e+000 94 106 82
1.552047e+000 -2.259322e-001 -7.095947e+000 93 107 81
-1.166127e+000 -5.736569e-001 -5.963010e+000 79 82 71
-9.496352e-001 -5.621934e-001 -6.057406e+000 103 91 83
-9.244352e-001 -5.636974e-001 -6.069885e+000 164 155 142
-7.138174e-001 -5.364490e-001 -6.134424e+000 131 129 89
-4.252498e-001 -4.637492e-001 -6.322305e+000 64 53 47
-1.778165e-001 -4.688712e-001 -6.442033e+000 101 91 57
-8.140722e-002 -4.892495e-001 -6.511429e+000 152 140 96
7.325777e-002 -4.454841e-001 -6.554437e+000 103 97 63
3.557613e-001 -4.129988e-001 -6.683282e+000 91 78 52
3.873304e-001 -3.929053e-001 -6.687721e+000 132 126 74
8.692757e-001 -3.464661e-001 -6.899552e+000 114 118 81
1.067038e+000 -3.407544e-001 -7.019756e+000 101 111 81
1.053602e+000 -3.822754e-001 -7.044227e+000 106 113 85
1.111721e+000 -3.997158e-001 -7.080183e+000 97 107 80
1.211597e+000 -2.968170e-001 -7.061820e+000 98 108 81
1.238004e+000 -3.106447e-001 -7.058792e+000 67 74 56
1.282559e+000 -3.562066e-001 -7.151075e+000 70 78 59
1.516750e+000 -2.482686e-001 -7.188637e+000 69 79 55
1.499151e+000 -2.998883e-001 -7.218896e+000 66 78 54
1.533146e+000 -2.993800e-001 -7.234826e+000 84 96 72
1.461385e+000 -3.237375e-001 -7.224356e+000 81 93 69
1.398314e+000 -3.927111e-001 -7.161211e+000 67 79 55
1.461275e+000 -4.623753e-001 -7.090324e+000 85 97 73
1.576332e+000 -2.773184e-001 -7.269153e+000 68 77 60
1.535272e+000 -4.372617e-001 -7.120765e+000 87 97 76
-7.472902e-001 -5.855171e-001 -6.241838e+000 136 134 96
-9.832388e-002 -5.325844e-001 -6.550434e+000 147 135 95
-9.832388e-002 -5.325844e-001 -6.550434e+000 147 135 95
3.981548e-004 -5.201400e-001 -6.591348e+000 156 146 97
8.174515e-002 -5.190074e-001 -6.617465e+000 163 147 99
3.890227e-001 -4.818413e-001 -6.764076e+000 102 94 55
8.411355e-001 -4.549841e-001 -6.993748e+000 129 127 88
8.887779e-001 -4.895515e-001 -7.066465e+000 115 117 83
1.061851e+000 -4.342469e-001 -7.094431e+000 75 81 59
1.216138e+000 -4.758060e-001 -7.217812e+000 93 102 75
1.294753e+000 -4.284305e-001 -7.217304e+000 90 100 75
1.395631e+000 -4.204245e-001 -7.261466e+000 66 75 56
-6.876551e-002 -6.875322e-001 -6.705714e+000 91 82 53
1.534677e-001 -5.999977e-001 -6.745704e+000 95 84 54
8.009316e-001 -5.565876e-001 -7.042998e+000 132 127 82
8.454021e-001 -5.208705e-001 -7.058561e+000 74 76 44
1.017070e+000 -4.857675e-001 -7.169463e+000 105 112 71
9.860818e-001 -5.808494e-001 -7.187698e+000 110 113 80
9.881498e-001 -5.744803e-001 -7.192886e+000 110 113 80
1.147754e+000 -4.875116e-001 -7.194718e+000 95 104 75
1.288814e+000 -5.479709e-001 -7.348000e+000 65 75 48
1.406702e+000 -4.807150e-001 -7.323533e+000 86 96 71
-1.110048e+000 -8.577370e-001 -6.241132e+000 85 82 73
-1.067456e+000 -8.563226e-001 -6.262770e+000 83 83 71
-9.412633e-001 -8.461817e-001 -6.310970e+000 107 107 95
-3.418894e-001 -7.766942e-001 -6.652627e+000 133 119 91
-2.709168e-001 -7.407347e-001 -6.648516e+000 93 82 55
2.684990e-001 -7.461074e-001 -6.951423e+000 143 131 87
6.713149e-001 -6.617256e-001 -7.059737e+000 102 94 58
7.731554e-001 -6.297378e-001 -7.118784e+000 131 127 80
7.522417e-001 -6.905795e-001 -7.175378e+000 127 120 74
9.139736e-001 -6.018233e-001 -7.180088e+000 116 119 77
8.711638e-001 -6.220456e-001 -7.188836e+000 88 85 49
8.711638e-001 -6.220456e-001 -7.188836e+000 88 85 49
1.005955e+000 -6.162723e-001 -7.242387e+000 68 74 40
8.921066e-001 -6.895351e-001 -7.250148e+000 126 122 79
1.036200e+000 -7.944840e-001 -7.175099e+000 102 109 75
-1.884151e-001 -7.831271e-001 -6.750940e+000 143 130 96
-2.324770e-001 -8.323726e-001 -6.771464e+000 94 85 57
9.150693e-002 -7.781439e-001 -6.902023e+000 91 79 52
1.098663e-001 -8.086439e-001 -6.933536e+000 140 131 90
2.588609e-001 -7.695325e-001 -6.973964e+000 141 133 85
8.204479e-001 -7.758712e-001 -7.287654e+000 86 84 45
9.631747e-001 -7.314064e-001 -7.329309e+000 75 77 45
9.636639e-001 -7.314123e-001 -7.331973e+000 75 77 45
8.746637e-001 -7.876070e-001 -7.329831e+000 79 78 47
9.226045e-001 -7.605223e-001 -7.337389e+000 104 104 68
9.942799e-001 -7.383181e-001 -7.352367e+000 103 107 65
1.072864e+000 -6.998797e-001 -7.373270e+000 100 106 68
-5.222115e-001 -9.200811e-001 -6.689647e+000 65 55 45
1.661709e-004 -8.836610e-001 -6.945219e+000 134 125 86
2.630246e-001 -8.404410e-001 -7.047644e+000 118 108 71
6.456082e-001 -8.881687e-001 -7.298904e+000 100 93 49
7.734969e-001 -8.107028e-001 -7.313740e+000 120 115 70
-1.630692e-001 -9.684359e-001 -6.938840e+000 153 139 92
3.980628e-002 -1.000929e+000 -7.093340e+000 132 121 79
1.903613e-001 -9.571393e-001 -7.119252e+000 144 134 85
2.892391e-001 -9.969431e-001 -7.199664e+000 136 125 80
7.578721e-001 -9.313649e-001 -7.415017e+000 81 77 42
7.942352e-001 -9.279617e-001 -7.433886e+000 114 110 72
6.497293e-001 -1.134213e+000 -7.536277e+000 122 113 68
6.497293e-001 -1.134213e+000 -7.536277e+000 122 113 68
-1.915845e-001 -1.246256e+000 -7.228886e+000 134 125 82
1.227396e+000 -1.136874e+000 -7.923754e+000 78 83 61
-9.579652e-001 -1.392311e+000 -6.936216e+000 83 76 44
-6.071859e-001 -1.340639e+000 -7.092327e+000 136 127 96
-6.089267e-001 -1.339572e+000 -7.091328e+000 136 127 96
6.839825e-002 -1.343343e+000 -7.471358e+000 100 91 53
6.912477e-002 -1.341376e+000 -7.474290e+000 100 91 53
-1.674975e-001 -1.439758e+000 -7.452860e+000 92 81 50
3.944376e-001 -1.376706e+000 -7.682292e+000 83 77 43
-2.051654e-001 -1.547614e+000 -7.532320e+000 97 90 59
5.478462e-001 -1.534425e+000 -7.932769e+000 115 112 77
-3.181282e-001 -2.771808e-002 -6.062390e+000 153 137 111
-1.832033e-001 -2.277909e-001 -6.215998e+000 84 77 51
-1.837131e-001 -2.269448e-001 -6.215953e+000 84 77 51
-9.358244e-001 -4.314619e-001 -5.945748e+000 84 86 75
-8.831818e-001 -4.305091e-001 -5.977978e+000 80 86 83
-8.356270e-001 -4.449651e-001 -6.010034e+000 81 85 78
2.741310e-001 -1.982855e-001 -6.469466e+000 130 128 79
3.186573e-001 -2.017113e-001 -6.471539e+000 84 81 51
3.318951e-001 -2.693947e-001 -6.524495e+000 132 126 77
5.927869e-001 -2.543778e-001 -6.666836e+000 128 129 78
6.944690e-001 -1.677990e-001 -6.641135e+000 114 118 81
6.716124e-001 -2.576518e-001 -6.693896e+000 122 124 83
1.295009e+000 -1.335008e-001 -6.954055e+000 77 86 65
1.340821e+000 -1.791926e-001 -6.928416e+000 82 92 67
1.734829e+000 -1.166729e-001 -7.079088e+000 104 114 90
-1.159049e+000 -5.173047e-001 -5.901065e+000 79 80 72
-9.115966e-001 -4.909222e-001 -6.002393e+000 127 131 117
-7.950335e-001 -4.650899e-001 -6.047726e+000 85 88 79
2.264339e-002 -3.601141e-001 -6.448632e+000 148 138 87
-5.277723e-002 -4.036029e-001 -6.437593e+000 147 135 93
-5.277723e-002 -4.036029e-001 -6.437593e+000 147 135 93
1.440269e-001 -3.378473e-001 -6.509066e+000 145 136 80
4.657170e-001 -2.949718e-001 -6.627026e+000 137 134 80
8.698938e-001 -2.502582e-001 -6.809452e+000 70 76 50
8.489066e-001 -3.174557e-001 -6.871713e+000 87 87 59
9.308507e-001 -2.496173e-001 -6.862527e+000 81 86 63
9.774300e-001 -2.289848e-001 -6.881171e+000 102 109 80
1.011552e+000 -2.092519e-001 -6.869970e+000 79 87 63
1.064220e+000 -2.373505e-001 -6.916386e+000 69 78 57
1.064220e+000 -2.373505e-001 -6.916386e+000 69 78 57
1.171665e+000 -2.065608e-001 -6.939592e+000 96 106 79
1.134890e+000 -2.277233e-001 -6.956588e+000 70 79 58
1.138182e+000 -2.202478e-001 -6.962390e+000 70 79 58
1.123332e+000 -2.675314e-001 -6.971925e+000 76 83 66
1.130070e+000 -2.523211e-001 -6.991442e+000 76 83 66
1.161024e+000 -2.521983e-001 -6.978520e+000 96 108 80
1.327567e+000 -2.342945e-001 -7.044294e+000 75 84 64
1.533783e+000 -1.926706e-001 -7.140602e+000 68 76 61
-1.065883e+000 -6.141072e-001 -6.035781e+000 114 115 107
-1.101828e-001 -4.910973e-001 -6.491815e+000 97 86 56
3.387643e-001 -4.615707e-001 -6.713645e+000 100 91 60
8.331841e-001 -3.587981e-001 -6.904427e+000 78 81 51
8.540917e-001 -3.963477e-001 -6.957183e+000 114 116 81
8.521330e-001 -4.030558e-001 -6.947193e+000 114 116 81
9.674558e-001 -3.478191e-001 -6.952821e+000 77 82 58
8.976373e-001 -3.651681e-001 -6.958036e+000 81 84 55
1.102331e+000 -3.277328e-001 -7.020671e+000 63 72 50
1.090784e+000 -3.597335e-001 -6.985921e+000 63 72 50
1.020430e+000 -3.863993e-001 -7.032745e+000 77 85 54
1.308490e+000 -3.792247e-001 -7.159010e+000 98 109 76
1.640721e+000 -2.875168e-001 -7.308142e+000 68 77 59
-1.286177e+000 -6.895659e-001 -6.011091e+000 78 82 72
-3.890244e-001 -5.423549e-001 -6.396190e+000 59 52 48
-3.328535e-001 -6.021689e-001 -6.497255e+000 150 139 89
-5.311138e-002 -5.601887e-001 -6.591593e+000 157 144 99
3.964484e-003 -5.728337e-001 -6.631632e+000 144 135 92
3.379402e-001 -5.478843e-001 -6.803057e+000 143 131 78
5.174637e-001 -5.236462e-001 -6.856444e+000 101 88 55
7.426013e-001 -4.439816e-001 -6.915953e+000 85 83 52
1.031655e+000 -4.431968e-001 -7.084398e+000 99 106 72
1.031662e+000 -4.459901e-001 -7.085259e+000 99 106 72
1.234817e+000 -4.200123e-001 -7.197772e+000 93 104 75
1.255819e+000 -4.516109e-001 -7.227850e+000 56 66 41
1.318404e+000 -4.560567e-001 -7.239828e+000 69 79 53
-9.912488e-001 -7.601931e-001 -6.207065e+000 156 146 136
-4.436518e-001 -6.954690e-001 -6.510066e+000 55 48 45
-3.653735e-001 -7.038369e-001 -6.567802e+000 144 135 96
-3.653735e-001 -7.038369e-001 -6.567802e+000 144 135 96
-6.942980e-002 -6.091202e-001 -6.656350e+000 152 139 92
-6.942980e-002 -6.091202e-001 -6.656350e+000 152 139 92
-1.233913e-002 -6.190965e-001 -6.682493e+000 145 130 88
2.202092e-001 -5.807300e-001 -6.772647e+000 90 80 47
1.776085e-001 -6.306803e-001 -6.781606e+000 137 126 82
1.776085e-001 -6.306803e-001 -6.781606e+000 137 126 82
3.168761e-001 -6.067854e-001 -6.843877e+000 161 146 96
3.437040e-001 -6.210722e-001 -6.887409e+000 104 92 54
8.848463e-001 -5.847541e-001 -7.118649e+000 80 83 52
1.096628e+000 -5.390965e-001 -7.221752e+000 75 81 53
1.147766e+000 -5.741491e-001 -7.275239e+000 67 75 52
1.146339e+000 -5.769143e-001 -7.272835e+000 67 75 52
-1.150675e+000 -8.238870e-001 -6.200024e+000 133 135 124
-1.150675e+000 -8.238870e-001 -6.200024e+000 133 135 124
-1.085119e+000 -8.409384e-001 -6.240078e+000 132 131 119
-8.627803e-001 -8.537120e-001 -6.362627e+000 145 132 100
-1.790588e-001 -7.624866e-001 -6.734366e+000 157 144 109
8.049805e-001 -6.267647e-001 -7.149646e+000 86 85 47
8.950055e-001 -6.470181e-001 -7.205258e+000 125 125 77
8.202592e-001 -6.825360e-001 -7.205541e+000 135 128 83
9.845704e-001 -6.765478e-001 -7.279709e+000 80 84 54
9.835660e-001 -6.792364e-001 -7.280659e+000 80 84 54
1.515179e+000 -6.085293e-001 -7.546049e+000 61 65 44
-2.964379e-001 -7.918772e-001 -6.698784e+000 99 87 63
-2.964379e-001 -7.918772e-001 -6.698784e+000 99 87 63
7.021552e-002 -8.315395e-001 -6.927434e+000 98 89 60
1.438558e-001 -7.975725e-001 -6.932403e+000 80 71 42
7.779641e-001 -7.039999e-001 -7.198294e+000 77 73 38
7.768630e-001 -7.068620e-001 -7.195267e+000 77 73 38
8.048274e-001 -7.222689e-001 -7.234469e+000 127 122 76
7.665749e-001 -7.422769e-001 -7.229331e+000 87 82 49
8.358671e-001 -7.257830e-001 -7.270881e+000 79 77 38
8.326766e-001 -7.344388e-001 -7.261377e+000 79 77 38
1.001329e+000 -7.118239e-001 -7.325632e+000 113 115 74
8.960648e-001 -7.426279e-001 -7.321026e+000 72 75 50
1.286805e+000 -7.172334e-001 -7.505253e+000 62 70 46
-4.439520e-001 -9.215830e-001 -6.730861e+000 143 133 104
-3.275853e-001 -8.918520e-001 -6.767352e+000 71 60 41
-1.067245e-001 -8.762771e-001 -6.888679e+000 154 141 99
-1.427969e-001 -8.912119e-001 -6.860224e+000 84 70 43
-4.863008e-002 -8.729472e-001 -6.907094e+000 146 137 95
-1.324087e-001 -9.358710e-001 -6.917734e+000 150 137 94
-6.191244e-002 -9.119102e-001 -6.942963e+000 151 140 94
4.941590e-002 -8.909531e-001 -6.958869e+000 86 78 49
3.998915e-002 -9.167983e-001 -6.995191e+000 95 86 54
1.777477e-001 -9.105066e-001 -7.077307e+000 102 91 59
3.894682e-001 -8.737113e-001 -7.128806e+000 90 77 43
6.734563e-001 -8.181966e-001 -7.264058e+000 88 78 41
6.164870e-001 -8.861612e-001 -7.286738e+000 129 122 68
6.164870e-001 -8.861612e-001 -7.286738e+000 129 122 68
8.407140e-001 -7.944461e-001 -7.321498e+000 118 114 73
7.604038e-001 -8.541838e-001 -7.348113e+000 130 123 81
7.777668e-001 -8.798825e-001 -7.372960e+000 86 81 53
8.671454e-001 -8.159754e-001 -7.364882e+000 80 79 48
8.487543e-001 -8.598256e-001 -7.390239e+000 84 81 48
9.563519e-001 -8.422442e-001 -7.440589e+000 109 109 72
9.532117e-001 -8.505957e-001 -7.429415e+000 109 109 72
9.955166e-001 -8.176358e-001 -7.447945e+000 72 75 47
9.919619e-001 -8.284527e-001 -7.428451e+000 72 75 47
9.801151e-001 -8.594379e-001 -7.473612e+000 72 72 46
-5.495405e-001 -9.894116e-001 -6.726573e+000 67 54 46
-2.509890e-001 -9.598076e-001 -6.892891e+000 159 146 113
-1.263899e-001 -9.968493e-001 -6.984186e+000 106 93 59
5.961963e-001 -9.379595e-001 -7.332081e+000 138 127 73
7.196172e-001 -9.519737e-001 -7.457402e+000 115 108 63
9.065231e-001 -8.829210e-001 -7.455143e+000 75 71 44
9.065828e-001 -8.827812e-001 -7.455276e+000 75 71 44
9.822414e-001 -9.449278e-001 -7.563707e+000 105 106 72
1.019608e+000 -9.253303e-001 -7.554233e+000 68 71 48
-8.911309e-001 -1.118883e+000 -6.702456e+000 145 131 92
-5.571215e-001 -1.060613e+000 -6.849325e+000 141 132 103
-2.543112e-001 -1.120209e+000 -7.038049e+000 140 127 88
-1.613136e-001 -1.098260e+000 -7.055351e+000 98 85 53
1.694860e-001 -1.085735e+000 -7.240965e+000 105 94 60
2.337856e-001 -1.064076e+000 -7.252675e+000 97 85 50
5.779281e-001 -9.883194e-001 -7.393590e+000 133 124 78
7.185171e-001 -1.038366e+000 -7.531502e+000 85 79 44
1.084708e+000 -9.990572e-001 -7.661761e+000 94 100 66
1.214494e+000 -9.916193e-001 -7.657829e+000 80 89 60
-5.893497e-001 -1.159650e+000 -6.897229e+000 133 121 90
-5.317344e-001 -1.151954e+000 -6.911088e+000 146 133 101
-5.320133e-001 -1.147879e+000 -6.919011e+000 146 133 101
-3.214423e-001 -1.141946e+000 -7.027952e+000 142 129 95
2.167342e-002 -1.116571e+000 -7.196715e+000 91 81 46
2.194283e-002 -1.114727e+000 -7.198493e+000 91 81 46
3.565093e-001 -1.112002e+000 -7.387364e+000 82 73 40
6.005199e-001 -1.097265e+000 -7.472786e+000 129 123 75
5.882559e-001 -1.121224e+000 -7.525976e+000 129 122 69
6.672434e-001 -1.087562e+000 -7.519392e+000 121 114 74
8.746450e-001 -1.058603e+000 -7.628738e+000 107 106 68
7.451711e-001 -1.127168e+000 -7.609378e+000 86 78 49
9.484205e-001 -1.111595e+000 -7.704815e+000 72 72 46
1.224006e+000 -1.041634e+000 -7.798407e+000 59 66 43
-1.136689e+000 -1.268611e+000 -6.710507e+000 139 128 90
-8.185206e-001 -1.287374e+000 -6.913228e+000 125 114 82
-4.797826e-001 -1.229428e+000 -7.018785e+000 132 122 88
-3.303389e-001 -1.227805e+000 -7.121734e+000 103 93 57
8.622527e-002 -1.226446e+000 -7.362028e+000 142 135 93
9.551153e-001 -1.175066e+000 -7.783150e+000 94 98 67
-1.085173e+000 -1.374637e+000 -6.845991e+000 135 123 81
-1.027488e+000 -1.331223e+000 -6.841164e+000 142 130 90
-9.946131e-001 -1.334909e+000 -6.858166e+000 142 129 93
-9.943509e-001 -1.335835e+000 -6.856856e+000 142 129 93
-1.013683e+000 -1.359993e+000 -6.864421e+000 91 82 51
-1.060543e+000 -1.402852e+000 -6.892299e+000 126 118 82
-7.799904e-002 -1.296255e+000 -7.354827e+000 127 119 82
-7.799904e-002 -1.296255e+000 -7.354827e+000 127 119 82
9.957393e-002 -1.329062e+000 -7.468859e+000 133 124 82
5.942910e-001 -1.271005e+000 -7.649326e+000 125 119 75
5.762538e-001 -1.319968e+000 -7.740789e+000 125 117 80
8.467944e-001 -1.284536e+000 -7.855697e+000 99 103 67
-9.548587e-001 -1.451977e+000 -7.015620e+000 117 111 76
-1.040753e-002 -1.387264e+000 -7.472702e+000 88 78 50
9.626240e-002 -1.405573e+000 -7.549508e+000 93 87 53
-1.427223e+000 -1.568199e+000 -6.869010e+000 99 96 65
-2.009505e-001 -1.520814e+000 -7.512403e+000 90 84 52
1.967272e-001 -1.490337e+000 -7.711306e+000 96 85 53
2.014104e-001 -1.490545e+000 -7.725205e+000 96 85 53
4.682275e-001 -1.506394e+000 -7.887028e+000 86 81 49
-2.221149e+000 -8.410376e-001 -7.605183e+000 203 181 135
-1.097139e+000 -1.577930e+000 -7.063452e+000 91 86 54
-9.165392e-001 -1.598076e+000 -7.195733e+000 96 90 58
1.793050e-001 -1.532243e+000 -7.742199e+000 89 82 55
1.768118e-001 -1.531138e+000 -7.742214e+000 89 82 55
4.577243e-001 -2.521618e-001 -6.592060e+000 93 96 64
1.065608e-001 -3.488410e-001 -6.481886e+000 110 101 61
5.936425e-001 -2.686162e-001 -6.688519e+000 128 128 77
6.604034e-001 -2.723673e-001 -6.721452e+000 125 126 83
8.075217e-001 -2.366424e-001 -6.774244e+000 78 83 62
1.764996e+000 -6.578460e-002 -7.308122e+000 96 108 83
-4.266078e-001 -4.889265e-001 -6.328243e+000 63 55 49
-1.507913e-001 -4.856706e-001 -6.500006e+000 123 111 75
2.101812e-001 -4.469292e-001 -6.617255e+000 92 88 61
1.746629e+000 -1.453868e-001 -7.528001e+000 89 97 72
-3.019146e-001 -5.907135e-001 -6.481476e+000 95 90 61
-4.315910e-001 -6.623634e-001 -6.483377e+000 61 54 48
-2.017257e-001 -6.431011e-001 -6.596229e+000 125 115 79
-1.241790e-002 -6.964190e-001 -6.739145e+000 110 96 68
-2.574731e-001 -8.082495e-001 -6.714755e+000 121 110 80
1.908126e-001 -7.654914e-001 -6.940653e+000 128 115 79
1.701485e-001 -8.558805e-001 -6.936271e+000 129 117 77
1.456842e-001 -8.964758e-001 -7.040574e+000 124 115 72
1.473284e-001 -8.888849e-001 -7.053763e+000 124 115 72
2.597080e-001 -8.326012e-001 -7.090049e+000 94 83 54
5.970215e-001 -8.248115e-001 -7.221672e+000 88 78 48
7.960248e-001 -8.260806e-001 -7.340565e+000 77 77 43
-7.369569e-001 -1.069304e+000 -6.701641e+000 152 137 104
-4.400436e-001 -9.872667e-001 -6.809865e+000 85 75 50
-3.980542e-001 -1.084233e+000 -6.949996e+000 96 86 62
5.864930e-002 -1.030975e+000 -7.116417e+000 85 77 56
-8.500922e-001 -1.191705e+000 -6.789559e+000 146 134 93
-8.514484e-001 -1.185159e+000 -6.799035e+000 146 134 93
-7.209412e-001 -1.200196e+000 -6.853691e+000 143 130 89
6.007148e-002 -1.120743e+000 -7.231549e+000 120 112 71
-6.666638e-001 -1.286226e+000 -6.977945e+000 56 47 39
-5.292274e-001 -1.216883e+000 -7.002962e+000 90 81 57
-4.361999e-001 -1.278801e+000 -7.123278e+000 120 108 70
1.008224e-004 -1.278284e+000 -7.357182e+000 124 116 77
-1.375403e+000 -1.376165e+000 -6.694372e+000 121 110 68
-1.344766e+000 -1.374496e+000 -6.714002e+000 78 73 44
-1.344766e+000 -1.374496e+000 -6.714002e+000 78 73 44
-1.267537e+000 -1.351462e+000 -6.724108e+000 82 72 45
-1.281612e+000 -1.388069e+000 -6.761216e+000 75 68 41
-1.281866e+000 -1.385310e+000 -6.763631e+000 75 68 41
-1.178087e+000 -1.363980e+000 -6.789378e+000 128 120 83
-9.835013e-001 -1.369790e+000 -6.913996e+000 139 127 87
-9.258846e-001 -1.370063e+000 -6.924515e+000 133 123 87
1.811383e-001 -1.288122e+000 -7.525041e+000 127 120 76
3.238238e-001 -1.289413e+000 -7.570044e+000 121 112 71
-1.400927e+000 -1.434622e+000 -6.737484e+000 121 113 76
-1.132715e+000 -1.410563e+000 -6.867119e+000 123 119 75
-5.823950e-001 -1.434929e+000 -7.204865e+000 129 119 84
-5.333418e-001 -1.416880e+000 -7.204237e+000 92 83 52
-5.572781e-002 -1.419944e+000 -7.490293e+000 111 106 66
1.449344e-001 -1.375341e+000 -7.578866e+000 127 120 78
-1.196184e+000 -1.555461e+000 -6.984103e+000 126 119 75
1.159261e-001 -1.447104e+000 -7.612474e+000 126 118 75
1.159261e-001 -1.447104e+000 -7.612474e+000 126 118 75
-1.589625e+000 -1.584685e+000 -6.786982e+000 114 111 73
-1.530830e+000 -1.600710e+000 -6.845963e+000 109 107 69
-6.321017e-001 -1.562758e+000 -7.322327e+000 125 116 80
-3.083622e-001 -9.443863e-002 -6.072079e+000 235 229 226
-3.083622e-001 -9.443863e-002 -6.072079e+000 235 229 226
-1.981293e-001 -1.765644e-001 -6.339160e+000 105 100 69
5.431615e-001 -1.747059e-001 -6.582119e+000 124 127 84
-7.766050e-001 -5.341144e-001 -6.113824e+000 100 108 92
4.729647e-001 -3.683562e-001 -6.802425e+000 148 139 84
4.893089e-001 -6.274379e-001 -6.756466e+000 96 85 53
-9.607645e-001 -7.374597e-001 -6.199412e+000 78 80 71
-2.787333e-001 -6.579198e-001 -6.566687e+000 128 119 78
-3.084335e-001 -7.291437e-001 -6.631913e+000 123 112 80
4.612409e-001 -6.445455e-001 -6.955888e+000 97 91 63
4.612409e-001 -6.445455e-001 -6.955888e+000 97 91 63
1.668142e+000 -6.951873e-001 -7.626638e+000 127 119 108
-4.579695e-001 -1.139119e+000 -6.928580e+000 126 113 79
-9.131014e-002 -1.150407e+000 -7.158803e+000 129 118 73
-1.222727e+000 -1.285566e+000 -6.646775e+000 134 122 78
-5.108175e-001 -1.280478e+000 -7.060065e+000 126 114 76
-8.547035e-001 -1.345659e+000 -6.947158e+000 133 125 88
-8.125157e-001 -1.428432e+000 -7.050293e+000 130 122 83
-1.261663e+000 -1.555493e+000 -6.944837e+000 125 118 72
-1.121574e+000 -1.556225e+000 -7.023223e+000 126 122 75
-1.064723e+000 -1.548622e+000 -7.055697e+000 128 124 83
-1.952920e+000 -1.252247e+000 -7.234939e+000 137 143 89
-1.022500e-001 -2.564783e-001 -6.290015e+000 115 111 72
4.270672e-001 -3.459266e-001 -6.674329e+000 142 135 80
-9.043294e-001 -5.538869e-001 -6.059562e+000 157 148 133
5.437748e-002 -6.674684e-001 -6.747018e+000 161 147 99
4.807540e-001 -5.977202e-001 -6.929152e+000 93 88 50
4.807540e-001 -5.977202e-001 -6.929152e+000 93 88 50
3.740734e-001 -8.908601e-001 -7.147917e+000 98 88 54
3.741297e-001 -8.911330e-001 -7.147576e+000 98 88 54
1.659796e+000 -7.756966e-001 -7.720765e+000 132 126 114
-3.290629e-001 -1.095298e+000 -6.976826e+000 103 90 45
-8.805538e-001 -1.321734e+000 -6.882982e+000 108 100 72
-1.336639e+000 -1.512314e+000 -6.855948e+000 92 86 60
-1.094680e+000 -1.514131e+000 -6.991716e+000 104 99 72
-9.200869e-001 -6.110700e-001 -6.140739e+000 160 146 137
-8.001749e-001 -6.824327e-001 -6.237772e+000 103 106 95
-3.690747e-001 -6.339882e-001 -6.487650e+000 144 134 85
5.785238e-001 -7.509846e-001 -7.152121e+000 106 98 58
-5.089782e-001 -1.038498e+000 -6.802249e+000 154 140 112
2.880532e-001 -9.307921e-001 -7.164395e+000 159 141 80
-5.734835e-001 -1.194808e+000 -6.943426e+000 147 136 100
-6.001120e-001 -1.246064e+000 -7.009892e+000 109 98 68
-6.932910e-001 -1.462137e+000 -7.201495e+000 91 81 42
-7.247463e-001 -1.539584e+000 -7.260786e+000 112 104 71
1.487720e-001 -3.061979e-001 -6.418180e+000 138 129 72
1.906808e+000 -1.266895e-001 -7.322047e+000 171 172 167
-1.512335e+000 -2.063778e-001 -6.388259e+000 176 186 113
-3.264013e-001 -5.217729e-001 -6.431676e+000 149 138 85
1.620198e+000 -7.174000e-001 -7.683649e+000 50 48 43
-6.273052e-001 -1.127046e+000 -6.822124e+000 56 53 48
-6.273052e-001 -1.127046e+000 -6.822124e+000 56 53 48
-6.544141e-001 -1.192795e+000 -6.891025e+000 60 51 44
-6.544141e-001 -1.192795e+000 -6.891025e+000 60 51 44
-2.264666e+000 -2.661388e-001 -7.528888e+000 216 110 114
-6.892145e-001 -1.284862e+000 -6.963745e+000 57 48 39
-6.892145e-001 -1.284862e+000 -6.963745e+000 57 48 39
-3.104777e-001 -2.176138e-001 -6.142652e+000 65 64 56
-8.983141e-001 -5.890545e-001 -6.117198e+000 160 148 136
5.844815e-001 -5.859591e-001 -6.991026e+000 130 118 63
-7.851451e-001 -1.261358e+000 -6.895337e+000 96 85 56
-6.228581e-001 -1.584159e+000 -7.371625e+000 120 110 78
-2.161919e+000 -1.630364e-005 -7.688841e+000 224 206 155
-1.058005e+000 -1.589831e+000 -7.148559e+000 71 68 45
2.212732e-001 -6.495105e-001 -6.823311e+000 129 120 80
2.222782e-001 -6.461913e-001 -6.826442e+000 129 120 80
-1.313778e+000 -1.375230e+000 -6.726300e+000 114 110 73
-7.642187e-001 -9.488798e-001 -6.517473e+000 155 136 94
1.801694e+000 -8.388624e-001 -7.112630e+000 185 188 181
-7.935616e-001 -1.499333e+000 -7.227991e+000 57 53 50
1.818480e+000 -1.274109e+000 -7.705993e+000 190 190 178
-1.331371e-001 -2.547475e-001 -6.274071e+000 137 131 90
-8.123857e-001 -4.675930e-001 -6.033557e+000 81 83 74
-2.307880e-001 -3.249665e-001 -6.279033e+000 143 132 86
7.673595e-001 -1.911710e-001 -6.710589e+000 111 117 81
1.197759e+000 -1.473462e-001 -6.918564e+000 98 108 84
1.265740e+000 -1.221053e-001 -6.948650e+000 100 112 87
-1.111970e+000 -5.664628e-001 -5.979327e+000 84 86 75
-1.250630e+000 -8.234519e-001 -5.784449e+000 74 77 66
-1.156103e+000 -6.774779e-001 -5.988087e+000 156 144 130
-9.236763e-001 -5.811894e-001 -6.084595e+000 95 87 78
-1.048583e-001 -4.633162e-001 -6.475655e+000 150 138 93
-1.218172e+000 -6.992714e-001 -6.043027e+000 81 83 70
-1.218172e+000 -6.992714e-001 -6.043027e+000 81 83 70
-9.551239e-001 -6.686434e-001 -6.144032e+000 78 72 59
-8.063778e-001 -6.537839e-001 -6.194127e+000 76 79 68
-2.527338e-001 -6.148015e-001 -6.542179e+000 147 137 98
1.425162e+000 -4.296076e-001 -7.319632e+000 92 102 78
-3.488172e-001 -7.156411e-001 -6.590146e+000 85 78 52
-1.864868e-001 -7.061505e-001 -6.658549e+000 159 146 107
1.094572e-001 -6.566857e-001 -6.792967e+000 155 146 107
-9.851471e-001 -8.554769e-001 -6.310307e+000 107 109 98
-5.496801e-001 -8.324909e-001 -6.589516e+000 57 44 34
-3.234892e-001 -8.156655e-001 -6.688137e+000 152 144 108
1.174131e+000 -5.944309e-001 -7.317261e+000 91 101 69
-4.572992e-001 -8.839138e-001 -6.689634e+000 94 84 59
-2.046406e-001 -8.327570e-001 -6.784334e+000 155 142 107
-3.587442e-001 -9.059549e-001 -6.775123e+000 155 144 112
-1.567185e-001 -9.379872e-001 -6.906246e+000 147 134 91
6.270680e-002 -9.495571e-001 -7.042591e+000 149 136 92
-7.800269e-002 -1.015923e+000 -7.035188e+000 83 72 43
9.732517e-001 -9.674706e-001 -7.580539e+000 106 109 77
1.115941e+000 -9.318164e-001 -7.615717e+000 89 96 63
-5.086346e-001 -1.090551e+000 -6.875705e+000 154 142 108
-8.788548e-001 -1.263798e+000 -6.847181e+000 140 126 89
-7.541346e-002 -1.159334e+000 -7.187573e+000 144 135 93
-3.713468e-002 -1.201810e+000 -7.258734e+000 135 130 93
1.242467e+000 -1.089949e+000 -7.853668e+000 83 89 63
-1.394708e+000 -1.375654e+000 -6.674175e+000 90 76 49
-8.924155e-001 -1.369421e+000 -6.942816e+000 85 78 48
-7.881486e-001 -1.320531e+000 -6.940162e+000 100 88 61
-8.333377e-001 -1.322810e+000 -6.939304e+000 136 129 85
-3.372447e-001 -1.274594e+000 -7.165749e+000 77 66 34
-2.895957e-001 -1.287804e+000 -7.207814e+000 140 129 85
-2.895957e-001 -1.287804e+000 -7.207814e+000 140 129 85
-1.516404e+000 -1.474492e+000 -6.716745e+000 86 76 48
-9.517733e-001 -1.376901e+000 -6.922308e+000 139 125 87
-1.601965e+000 -1.522186e+000 -6.724254e+000 119 117 78
-7.027336e-001 -1.492910e+000 -7.202150e+000 69 64 34
7.158675e-001 -1.436040e+000 -7.967826e+000 105 102 69
1.421706e+000 -1.318658e+000 -8.457692e+000 85 75 64
1.095997e+000 -1.485068e+000 -8.224804e+000 83 85 64
-1.735873e+000 -1.668903e+000 -6.843868e+000 119 112 83
-9.816672e-001 -5.400938e-001 -6.022422e+000 96 88 79
-2.201246e-001 -4.190693e-001 -6.366077e+000 145 135 84
8.837557e-001 -3.057779e-001 -6.883714e+000 114 118 84
1.298160e+000 -2.240913e-001 -7.039122e+000 96 106 78
1.298160e+000 -2.240913e-001 -7.039122e+000 96 106 78
1.440771e+000 -1.889883e-001 -7.092023e+000 96 106 82
1.418494e+000 -2.599943e-001 -7.146721e+000 95 105 79
-1.263527e+000 -6.595476e-001 -5.978508e+000 81 84 73
-9.370721e-001 -6.147727e-001 -6.099937e+000 161 145 137
-2.369244e-001 -4.734647e-001 -6.399359e+000 144 132 88
-6.784880e-002 -4.419467e-001 -6.475226e+000 149 139 91
-2.688483e-002 -4.935596e-001 -6.534785e+000 150 140 95
8.592701e-001 -3.838092e-001 -6.920658e+000 120 121 82
1.618220e+000 -2.463671e-001 -7.244589e+000 91 103 81
1.621692e+000 -2.383139e-001 -7.257198e+000 91 103 81
1.649998e+000 -2.446891e-001 -7.293464e+000 62 74 54
1.649998e+000 -2.446891e-001 -7.293464e+000 62 74 54
1.605957e+000 -2.801583e-001 -7.306941e+000 84 94 70
-1.189770e+000 -7.474692e-001 -6.108385e+000 75 82 71
-6.495339e-002 -6.028892e-001 -6.632458e+000 159 144 104
-6.463576e-002 -6.038973e-001 -6.629521e+000 159 144 104
1.296138e+000 -4.211517e-001 -7.229792e+000 87 98 69
1.442051e+000 -3.807254e-001 -7.264732e+000 83 93 69
1.454608e+000 -4.272159e-001 -7.329538e+000 66 75 54
-1.238107e+000 -7.703336e-001 -6.112492e+000 78 78 70
-1.036577e+000 -7.771246e-001 -6.199421e+000 152 140 132
-1.018653e+000 -7.620369e-001 -6.187095e+000 77 78 70
-4.126000e-001 -6.820890e-001 -6.514965e+000 144 137 95
-3.510877e-001 -6.645612e-001 -6.538445e+000 146 133 92
-6.913017e-002 -6.869738e-001 -6.706520e+000 78 64 37
1.046143e+000 -5.918429e-001 -7.210837e+000 105 112 78
1.050017e+000 -5.805119e-001 -7.229492e+000 105 112 78
1.200801e+000 -5.149161e-001 -7.240912e+000 92 101 74
1.273760e+000 -4.887532e-001 -7.287367e+000 88 98 71
1.253024e+000 -5.506830e-001 -7.328224e+000 90 99 70
1.415636e+000 -4.601501e-001 -7.344649e+000 88 98 74
7.730181e-001 -6.285625e-001 -7.124515e+000 129 123 74
7.629688e-001 -6.621780e-001 -7.144028e+000 139 131 84
9.153565e-001 -6.747923e-001 -7.246668e+000 81 79 56
-4.245850e-002 -8.558370e-001 -6.894728e+000 153 139 95
1.210173e-001 -7.877787e-001 -6.894274e+000 153 140 85
2.576491e-001 -7.721587e-001 -6.972187e+000 153 141 81
9.077097e-001 -7.142857e-001 -7.275141e+000 64 62 39
1.166162e+000 -7.013922e-001 -7.422021e+000 65 70 48
1.056072e+000 -7.399738e-001 -7.432892e+000 99 99 71
1.080406e+000 -7.648089e-001 -7.436079e+000 60 64 37
-5.333524e-001 -9.547371e-001 -6.712249e+000 56 46 34
-3.363953e-001 -9.235049e-001 -6.789334e+000 93 83 66
-3.367349e-001 -9.240502e-001 -6.788506e+000 93 83 66
-1.743138e-001 -9.038526e-001 -6.868224e+000 151 138 106
1.171449e-001 -8.790937e-001 -6.999085e+000 91 82 54
1.952978e-001 -9.397073e-001 -7.110585e+000 146 134 82
7.255929e-001 -8.419661e-001 -7.302137e+000 88 81 53
7.568965e-001 -8.604911e-001 -7.343750e+000 122 118 72
8.902118e-001 -8.435382e-001 -7.408880e+000 112 109 70
9.415391e-001 -8.794723e-001 -7.473427e+000 109 110 73
-8.138336e-001 -1.103746e+000 -6.715409e+000 144 131 98
3.176934e-001 -9.799398e-001 -7.222290e+000 81 76 39
3.578988e-001 -1.029979e+000 -7.284019e+000 142 134 83
3.752564e-001 -9.782878e-001 -7.264331e+000 142 130 75
6.302542e-001 -9.361479e-001 -7.350303e+000 71 63 40
7.274265e-001 -9.353105e-001 -7.428255e+000 127 120 74
8.294411e-001 -9.179275e-001 -7.450113e+000 71 68 39
1.002375e+000 -8.852390e-001 -7.524585e+000 95 99 64
1.000793e+000 -8.890831e-001 -7.513849e+000 95 99 64
-6.388908e-001 -9.000123e-001 -7.129568e+000 55 45 43
-5.277101e-001 -1.139602e+000 -6.919275e+000 152 142 107
2.042243e-001 -1.066842e+000 -7.262102e+000 145 136 82
7.442609e-001 -1.056338e+000 -7.563295e+000 126 120 67
7.444373e-001 -1.056218e+000 -7.563578e+000 126 120 67
8.173061e-001 -1.038073e+000 -7.554949e+000 115 109 73
1.105703e+000 -1.037173e+000 -7.742598e+000 62 67 46
-2.954925e-001 -1.219901e+000 -7.135375e+000 148 140 95
3.171331e-001 -1.210967e+000 -7.465032e+000 82 76 44
8.347802e-001 -1.159503e+000 -7.703843e+000 105 102 71
1.156237e+000 -1.077569e+000 -7.814015e+000 54 59 38
1.156237e+000 -1.077569e+000 -7.814015e+000 54 59 38
1.226424e+000 -1.139974e+000 -7.918577e+000 79 84 62
1.259199e+000 -1.128815e+000 -7.931901e+000 58 63 43
-6.598104e-001 -1.337692e+000 -7.053533e+000 144 129 93
-6.091585e-001 -1.268696e+000 -7.001163e+000 62 56 32
-6.091585e-001 -1.268696e+000 -7.001163e+000 62 56 32
-2.767373e-001 -1.316859e+000 -7.242739e+000 141 134 88
-2.765982e-001 -1.316057e+000 -7.242651e+000 141 134 88
2.209687e-001 -1.304701e+000 -7.510388e+000 94 84 57
4.354625e-001 -1.272359e+000 -7.610939e+000 85 76 47
5.309047e-001 -1.272505e+000 -7.653663e+000 130 123 76
7.084964e-001 -1.242493e+000 -7.734069e+000 71 66 37
8.815080e-001 -1.205399e+000 -7.794756e+000 98 99 65
8.310349e-001 -1.246712e+000 -7.789151e+000 68 67 37
1.170119e+000 -1.189421e+000 -7.949311e+000 61 64 42
1.150619e+000 -1.249319e+000 -7.936191e+000 56 60 39
-1.001711e+000 -1.423311e+000 -6.948207e+000 127 122 83
-8.076287e-001 -1.369101e+000 -6.999213e+000 64 58 31
-4.227596e-001 -1.394480e+000 -7.251833e+000 139 129 80
-4.228483e-001 -1.394449e+000 -7.251825e+000 139 129 80
2.088347e-001 -1.325015e+000 -7.550900e+000 90 81 52
2.088347e-001 -1.325015e+000 -7.550900e+000 90 81 52
5.520932e-001 -1.379429e+000 -7.799278e+000 128 122 81
8.458782e-001 -1.292871e+000 -7.817433e+000 109 111 74
9.155289e-001 -1.278586e+000 -7.886899e+000 96 96 68
9.426277e-001 -1.295510e+000 -7.933646e+000 73 73 47
9.426277e-001 -1.295510e+000 -7.933646e+000 73 73 47
8.855565e-001 -1.348774e+000 -7.927685e+000 94 97 66
9.551726e-001 -1.335634e+000 -8.003284e+000 95 99 66
-1.065430e+000 -1.528038e+000 -7.017341e+000 91 85 58
-9.528493e-001 -1.456679e+000 -7.014314e+000 128 124 81
3.591641e-002 -1.490807e+000 -7.628720e+000 138 127 88
1.850422e-001 -1.462495e+000 -7.668854e+000 145 135 92
2.997261e-001 -1.442436e+000 -7.706814e+000 80 74 43
6.416791e-001 -1.405936e+000 -7.869035e+000 81 76 46
9.506946e-001 -1.435312e+000 -8.097658e+000 62 61 41
-4.826305e-001 -1.542308e+000 -7.382354e+000 142 134 87
-4.127944e-001 -1.576857e+000 -7.460062e+000 147 135 87
-4.127944e-001 -1.576857e+000 -7.460062e+000 147 135 87
1.319945e-001 -1.520009e+000 -7.711416e+000 82 76 48
1.313601e-001 -1.520544e+000 -7.709786e+000 82 76 48
1.664075e-001 -1.506936e+000 -7.713340e+000 139 136 85
3.472340e-001 -1.486327e+000 -7.816375e+000 71 63 39
6.240229e-001 -1.516997e+000 -7.999775e+000 114 108 76
8.926384e-001 -1.497243e+000 -8.072206e+000 99 100 72
-1.052816e+000 -4.560825e-001 -5.904280e+000 82 83 76
-8.846159e-001 -4.320070e-001 -5.966955e+000 78 78 78
-3.011935e-001 -3.662290e-001 -6.277962e+000 143 134 79
1.035541e+000 -1.249937e-001 -6.834157e+000 73 82 61
1.031917e+000 -1.375968e-001 -6.819748e+000 73 82 61
1.139606e+000 -1.955354e-001 -6.925274e+000 71 80 61
1.303684e+000 -1.110594e-001 -6.977372e+000 68 78 58
-8.815694e-001 -4.781527e-001 -6.005811e+000 79 82 71
-8.426178e-002 -4.119852e-001 -6.437082e+000 101 95 61
-1.199976e+000 -6.075246e-001 -5.971696e+000 78 80 70
-1.067020e+000 -6.141380e-001 -6.035128e+000 137 139 127
-8.550891e-001 -5.740573e-001 -6.097773e+000 156 148 139
-2.670757e-001 -4.873713e-001 -6.395230e+000 104 92 57
-1.378704e-002 -4.546110e-001 -6.520638e+000 145 136 92
4.428264e-001 -4.196904e-001 -6.721601e+000 153 140 87
8.972680e-001 -3.678423e-001 -6.957966e+000 70 73 46
9.315615e-001 -3.580894e-001 -6.957641e+000 114 118 82
-1.291011e+000 -7.376964e-001 -6.039946e+000 72 75 66
-1.291011e+000 -7.376964e-001 -6.039946e+000 72 75 66
-1.440498e-001 -5.803952e-001 -6.556584e+000 101 90 68
-1.575812e-001 -6.287078e-001 -6.585530e+000 99 92 64
1.964810e-001 -5.703393e-001 -6.736712e+000 162 146 89
1.964810e-001 -5.703393e-001 -6.736712e+000 162 146 89
9.044906e-001 -4.385745e-001 -7.011213e+000 111 115 77
9.805233e-001 -4.989611e-001 -7.120752e+000 75 77 52
1.329639e+000 -4.293270e-001 -7.272552e+000 65 74 52
-1.113751e+000 -7.880942e-001 -6.175771e+000 152 140 128
-1.149415e-001 -6.563290e-001 -6.650773e+000 96 85 54
2.707336e-001 -6.451436e-001 -6.846866e+000 103 94 65
-9.678772e-002 -7.583971e-001 -6.773950e+000 94 83 55
8.024207e-001 -6.332471e-001 -7.145160e+000 82 82 48
9.362025e-001 -6.250957e-001 -7.204211e+000 65 67 42
9.840081e-001 -6.789309e-001 -7.281452e+000 70 72 39
1.533430e+000 -5.723241e-001 -7.524546e+000 60 68 46
1.532567e+000 -5.737349e-001 -7.523139e+000 60 68 46
7.012245e-002 -8.314282e-001 -6.927415e+000 97 91 70
9.456225e-001 -7.763486e-001 -7.362082e+000 68 68 44
1.109503e+000 -6.931720e-001 -7.399979e+000 65 68 47
-4.328448e-001 -9.726243e-001 -6.780792e+000 97 87 63
-2.217566e-001 -9.500756e-001 -6.879813e+000 105 91 65
