ply
format ascii 1.0
element face 0
property list uchar int vertex_indices
element vertex 875
property float x
property float y
property float z
property uchar diffuse_red
property uchar diffuse_green
property uchar diffuse_blue
end_header
-2.087096e+000 1.819499e+000 -7.631258e+000 171 169 133
-1.746957e+000 1.793127e+000 -7.726020e+000 77 100 71
4.313605e-001 1.901274e+000 -8.956341e+000 166 118 90
-2.157238e+000 1.686119e+000 -7.453502e+000 168 167 129
-2.108127e+000 1.661082e+000 -7.421362e+000 181 171 128
9.628343e-002 1.565331e+000 -8.294269e+000 184 155 115
8.654069e-001 1.082392e+000 -8.141657e+000 139 138 131
9.099267e-001 1.000881e+000 -7.972162e+000 138 137 133
3.007324e-001 7.893686e-001 -7.491896e+000 130 90 58
-1.782955e+000 4.846026e-001 -6.675366e+000 205 170 114
-1.588670e-001 6.515980e-001 -7.154232e+000 170 160 137
-1.248785e-002 5.973598e-001 -7.138713e+000 189 175 149
-5.967332e-001 5.759903e-001 -6.689525e+000 134 114 88
-1.152242e-001 5.299974e-001 -7.014356e+000 81 69 54
6.244097e-001 5.392299e-001 -7.347884e+000 162 159 114
-2.239838e+000 -1.736079e-001 -7.519240e+000 217 162 174
2.247080e-001 4.215927e-001 -7.024322e+000 179 156 114
4.557639e-001 3.886838e-001 -7.101820e+000 168 147 92
4.557639e-001 3.886838e-001 -7.101820e+000 168 147 92
1.215998e-001 3.493855e-001 -6.898825e+000 180 163 119
8.084802e-001 3.495409e-001 -7.195082e+000 146 143 82
-1.859548e+000 -1.292320e-001 -6.773384e+000 131 93 80
-1.863912e+000 -1.382463e-001 -6.792359e+000 131 93 80
6.054095e-001 2.401083e-001 -6.994626e+000 138 94 71
6.006629e-001 2.509318e-001 -6.967098e+000 138 94 71
3.775557e-001 1.653803e-001 -6.806094e+000 132 88 52
3.706451e-001 1.514389e-001 -6.767976e+000 177 150 101
3.706451e-001 1.514389e-001 -6.767976e+000 177 150 101
1.510708e+000 1.445814e-001 -7.305332e+000 98 118 83
1.544899e+000 1.680141e-002 -7.169425e+000 157 170 146
-1.724480e+000 -3.727170e-001 -6.559607e+000 131 103 63
-1.724480e+000 -3.727170e-001 -6.559607e+000 131 103 63
-1.696970e+000 -4.212681e-001 -6.506332e+000 114 89 57
-1.647844e+000 -5.063101e-001 -6.421945e+000 106 94 56
1.968785e+000 3.085383e+000 -6.444765e+000 190 183 176
-8.223014e-002 2.000477e+000 -8.748880e+000 73 70 63
-1.818819e+000 1.720065e+000 -7.570504e+000 80 108 77
-4.148530e-001 1.763619e+000 -8.299700e+000 164 115 87
-4.019736e-001 1.598561e+000 -8.172284e+000 155 107 67
-2.151648e+000 1.295005e+000 -7.247654e+000 224 188 179
-1.400765e-002 1.477293e+000 -8.203966e+000 186 173 141
-2.132065e+000 1.113351e+000 -7.189842e+000 218 180 177
-2.136309e+000 1.107721e+000 -7.211378e+000 218 180 177
7.905268e-001 1.273609e+000 -8.358214e+000 73 78 68
6.980208e-001 1.265213e+000 -8.265780e+000 105 100 97
-1.154890e+000 1.081406e+000 -7.035584e+000 189 186 185
-1.849428e+000 9.035759e-001 -6.735113e+000 217 198 134
7.870498e-001 9.135600e-001 -7.876294e+000 75 71 68
9.889389e-001 9.596126e-001 -8.016099e+000 97 96 92
-8.788459e-001 7.559446e-001 -6.794599e+000 135 46 54
-8.788459e-001 7.559446e-001 -6.794599e+000 135 46 54
2.928501e-001 6.829470e-001 -7.358066e+000 134 90 62
-1.602749e+000 5.777896e-001 -6.304425e+000 178 180 110
-1.010558e+000 6.196469e-001 -6.587524e+000 161 53 57
-2.307561e+000 -1.086903e-001 -7.613585e+000 184 92 105
-2.236842e+000 -1.336918e-001 -7.541540e+000 179 74 87
-1.544088e+000 4.246326e-001 -6.242732e+000 175 177 104
4.745027e-001 4.354138e-001 -7.151231e+000 169 152 92
-1.437773e+000 3.158255e-001 -6.086725e+000 181 188 120
3.457873e-001 3.155331e-001 -6.952926e+000 139 93 63
1.255634e+000 3.308682e-001 -7.335088e+000 68 76 61
4.037760e-001 1.986362e-001 -6.864502e+000 143 92 64
-1.824139e+000 -2.250269e-001 -6.728653e+000 169 136 110
1.495661e+000 1.227876e-001 -7.266626e+000 172 180 170
3.729057e-001 3.237401e-002 -6.635207e+000 137 89 66
3.729057e-001 3.237401e-002 -6.635207e+000 137 89 66
-1.666443e+000 -4.200002e-001 -6.486604e+000 188 165 98
-3.521983e-001 -8.272202e-002 -6.320899e+000 123 107 58
-3.521983e-001 -8.272202e-002 -6.320899e+000 123 107 58
-9.200163e-001 1.991092e+000 -8.445221e+000 194 175 141
3.852478e-001 2.000057e+000 -9.059468e+000 78 89 83
4.107359e-001 1.636095e+000 -8.517543e+000 171 145 96
-1.015987e-001 1.472652e+000 -8.156874e+000 183 173 149
6.851163e-001 1.172480e+000 -8.170010e+000 153 142 120
-1.172784e+000 1.036432e+000 -7.005727e+000 194 181 180
2.740443e-001 7.586700e-001 -7.442603e+000 182 162 101
2.054864e-001 4.336687e-001 -7.046366e+000 136 88 66
4.099992e-001 4.548281e-001 -7.142213e+000 139 88 69
6.245508e-001 9.021635e-002 -6.822361e+000 138 91 73
1.533826e+000 1.096545e-001 -7.254230e+000 92 107 75
3.766162e-001 2.016744e-002 -6.659336e+000 138 89 67
-1.693606e+000 -3.793712e-001 -6.536320e+000 200 173 101
-1.561148e+000 -6.030737e-001 -6.324947e+000 160 159 94
-1.561148e+000 -6.030737e-001 -6.324947e+000 160 159 94
-2.107996e+000 1.886257e+000 -7.689247e+000 179 170 127
-1.862421e+000 1.758588e+000 -7.663482e+000 181 169 131
-2.078016e-001 1.678518e+000 -8.364111e+000 178 150 105
-1.228259e+000 1.309048e+000 -7.281540e+000 122 56 57
-1.228259e+000 1.309048e+000 -7.281540e+000 122 56 57
-9.540188e-001 1.317576e+000 -7.495559e+000 165 142 103
-1.526026e-001 7.803431e-001 -7.289841e+000 73 74 62
-1.516317e-001 7.805128e-001 -7.290938e+000 73 74 62
-2.407889e+000 1.798203e-001 -7.790620e+000 130 62 53
3.366994e-001 6.563153e-001 -7.349970e+000 180 154 105
3.369702e-001 6.554995e-001 -7.352445e+000 180 154 105
5.275242e-001 3.001496e-001 -7.016238e+000 168 150 92
-6.189835e-002 2.141384e+000 -9.025154e+000 224 214 207
-1.363395e-002 2.006024e+000 -8.849758e+000 152 124 104
-3.245338e-001 1.641445e+000 -8.275792e+000 183 149 97
-1.427023e+000 1.403040e+000 -7.323892e+000 126 59 58
-1.427023e+000 1.403040e+000 -7.323892e+000 126 59 58
-1.286415e+000 1.329203e+000 -7.304768e+000 191 183 181
-1.104741e+000 1.085473e+000 -7.069571e+000 147 64 67
-1.078293e+000 1.085901e+000 -7.088792e+000 150 64 66
-1.078293e+000 1.085901e+000 -7.088792e+000 150 64 66
-1.596044e+000 1.046411e+000 -6.751123e+000 198 181 149
-1.596044e+000 1.046411e+000 -6.751123e+000 198 181 149
-1.569324e+000 9.175326e-001 -6.789980e+000 199 182 148
-1.569324e+000 9.175326e-001 -6.789980e+000 199 182 148
1.178145e+000 9.909019e-001 -8.268669e+000 88 91 82
1.328653e-001 1.732319e-001 -6.687935e+000 177 160 104
1.324543e-001 1.720408e-001 -6.688594e+000 177 160 104
-7.130382e-001 2.038443e+000 -8.647132e+000 94 101 73
-1.150660e+000 6.449478e-001 -6.518643e+000 193 167 93
-5.806822e-001 6.193579e-001 -6.855095e+000 146 115 67
-5.810352e-001 6.195612e-001 -6.854501e+000 146 115 67
-2.086824e+000 1.918232e+000 -7.733515e+000 173 165 120
-9.440529e-001 1.251202e+000 -7.385159e+000 192 168 110
-9.289465e-001 7.876131e-001 -6.770958e+000 158 57 65
-9.289465e-001 7.876131e-001 -6.770958e+000 158 57 65
-6.396955e-001 6.230610e-001 -6.695604e+000 195 170 115
-6.368264e-001 6.226343e-001 -6.698972e+000 195 170 115
3.598416e-001 4.104741e-001 -7.090654e+000 175 156 98
1.062866e+000 4.868208e-001 -7.442353e+000 99 111 71
1.404698e+000 3.466565e-001 -7.496864e+000 104 116 94
7.058372e-001 1.397528e+000 -8.439669e+000 77 88 71
-1.034304e+000 1.266322e+000 -7.254559e+000 133 57 59
-1.870192e+000 3.494343e-002 -6.677864e+000 224 193 181
-1.325692e+000 1.202139e+000 -7.188778e+000 145 53 55
-1.188257e+000 1.248085e+000 -7.233086e+000 163 127 129
-9.586130e-001 1.118399e+000 -7.273209e+000 147 58 58
-2.963391e-001 2.196444e+000 -9.057211e+000 241 219 208
-1.323022e+000 1.896351e+000 -8.233297e+000 166 152 91
4.947969e-001 1.954893e+000 -9.115232e+000 85 88 80
1.084393e+000 1.682521e+000 -7.600315e+000 194 195 189
1.057192e+000 8.244200e-001 -8.018232e+000 62 72 61
-1.437613e+001 -1.064973e+001 -3.613513e+001 197 39 78
-3.847423e-001 1.813501e+000 -8.467156e+000 165 111 89
3.402936e-001 3.331506e-001 -6.981914e+000 180 158 103
5.908246e-001 1.093757e-001 -6.822452e+000 136 88 66
5.850674e-001 8.720150e-002 -6.799935e+000 151 149 79
5.632794e-001 2.684906e-001 -7.003757e+000 141 93 71
2.596222e-001 1.525754e+000 -8.417619e+000 103 120 88
8.702111e-001 4.970021e-001 -7.400691e+000 152 144 89
3.613879e-001 1.343312e+000 -8.212809e+000 164 143 91
-1.458273e+000 2.028629e+000 -8.279118e+000 159 149 100
-1.995045e+000 1.737154e+000 -7.545593e+000 125 119 83
7.269330e-002 1.544712e+000 -8.333338e+000 155 99 72
-2.117146e+000 1.083062e+000 -7.200855e+000 176 136 132
5.037013e-001 1.118415e+000 -7.953917e+000 154 152 129
-1.505149e+000 8.020119e-001 -7.869532e+000 202 174 170
-1.148023e+000 1.015913e+000 -6.972970e+000 165 53 64
-1.873439e+000 7.132301e-001 -6.758980e+000 237 204 169
-6.771803e-001 6.533102e-001 -6.765153e+000 189 165 111
-1.694862e+000 -4.192165e-001 -6.502224e+000 114 89 57
-1.817428e+000 1.717807e+000 -7.572954e+000 80 108 77
-2.896344e-001 1.790453e+000 -8.509704e+000 141 95 75
-1.220411e+000 1.577670e+000 -7.691810e+000 143 128 107
4.312627e-001 1.661459e+000 -8.663447e+000 187 163 108
1.019140e+000 8.951875e-001 -7.980091e+000 91 95 88
4.571573e-001 5.210424e-002 -6.714451e+000 160 150 88
1.896550e+000 2.861475e+000 -6.666986e+000 188 184 173
-2.114415e+000 1.744455e+000 -7.532673e+000 173 166 130
-1.740362e+000 1.831829e+000 -7.745638e+000 194 172 129
1.271183e-001 1.313712e+000 -8.044211e+000 180 174 146
8.481519e-001 5.956546e-001 -7.516178e+000 172 169 140
5.115157e-002 1.927664e-001 -6.698343e+000 178 158 107
-1.287970e-001 2.080659e+000 -8.978096e+000 87 90 76
-1.033340e+000 8.996196e-001 -6.867560e+000 198 183 183
-2.197547e+001 -1.055116e+001 -3.511033e+001 239 59 104
-6.579863e-002 4.617628e-001 -6.967739e+000 67 81 71
-1.467974e+001 -1.326408e+001 -3.142352e+001 79 54 101
-7.937084e-002 2.059141e+000 -8.972099e+000 93 100 83
7.695229e-001 6.618661e-001 -7.588454e+000 137 140 83
-1.558490e+001 -1.395684e+001 -2.977377e+001 155 20 50
-1.329978e+001 -1.369302e+001 -3.091318e+001 44 29 62
-1.639720e+001 -1.482231e+001 -2.933283e+001 221 25 66
-1.639720e+001 -1.482231e+001 -2.933283e+001 221 25 66
-1.483261e+001 -1.469014e+001 -2.959453e+001 223 28 66
-1.756151e+001 -1.668386e+001 -2.875809e+001 76 69 77
-4.407546e-001 1.889859e+000 -8.681972e+000 132 84 74
-1.841901e+001 -1.292337e+001 -3.139402e+001 49 25 48
-1.885755e+001 -1.625001e+001 -3.121990e+001 45 30 72
-1.186532e-001 2.301116e+000 -1.065742e+001 166 153 146
-1.186532e-001 2.301116e+000 -1.065742e+001 166 153 146
-2.431588e+000 1.975685e+000 -7.864165e+000 165 170 127
-1.167497e+000 2.025025e+000 -8.396273e+000 193 173 118
-2.226137e+000 1.861635e+000 -7.620264e+000 125 127 90
-2.079902e+000 1.883106e+000 -7.681154e+000 174 169 127
-1.970296e+000 1.910964e+000 -7.785030e+000 177 165 118
-1.265607e-001 2.025370e+000 -8.833544e+000 136 142 119
-2.081364e+000 1.754797e+000 -7.531572e+000 177 173 135
-2.080876e+000 1.754834e+000 -7.532043e+000 177 173 135
-2.011669e+000 1.756180e+000 -7.557527e+000 164 160 122
-1.355254e+000 1.714168e+000 -7.916808e+000 186 164 115
4.802124e-002 1.805794e+000 -8.730979e+000 165 114 85
3.327353e-001 1.894387e+000 -8.724105e+000 165 120 95
-1.597352e+000 1.669384e+000 -7.613248e+000 177 121 100
-4.886494e-001 1.692783e+000 -8.261551e+000 185 143 107
1.720997e-001 1.694620e+000 -8.559410e+000 179 161 125
-1.252250e+000 1.593026e+000 -7.676104e+000 195 180 165
6.106493e-002 1.638443e+000 -8.463586e+000 149 106 68
5.618002e-001 1.575458e+000 -8.693602e+000 113 90 58
-4.529807e-001 1.516060e+000 -8.065186e+000 152 98 66
5.451786e-001 1.454199e+000 -8.526936e+000 163 144 93
7.877180e-001 1.535344e+000 -8.706581e+000 69 84 64
5.458445e-001 1.198193e+000 -8.184679e+000 124 115 92
5.554226e-001 1.121550e+000 -8.024952e+000 125 118 108
5.952890e-001 1.127870e+000 -8.062178e+000 88 81 75
6.105447e-001 1.108325e+000 -8.043445e+000 127 120 110
7.860101e-001 1.186830e+000 -8.240791e+000 143 138 134
8.267511e-001 1.156900e+000 -8.224644e+000 143 141 136
-1.172352e+000 1.071014e+000 -7.008468e+000 137 52 55
-1.172352e+000 1.071014e+000 -7.008468e+000 137 52 55
5.232618e-001 1.052086e+000 -7.951830e+000 152 150 131
8.443658e-001 1.038412e+000 -8.080116e+000 148 144 141
8.949753e-001 1.076037e+000 -8.115026e+000 110 106 102
9.672958e-001 1.064411e+000 -8.128747e+000 127 128 117
1.000621e+000 1.019475e+000 -8.163525e+000 131 137 125
-1.077585e+000 9.169283e-001 -6.872168e+000 160 63 77
-9.036031e-001 9.365323e-001 -6.961825e+000 121 39 45
-9.101822e-001 9.235795e-001 -6.990320e+000 121 39 45
-2.057913e+000 5.867892e-001 -7.095324e+000 179 148 93
-2.095102e-001 7.437192e-001 -7.231906e+000 169 147 127
-1.583690e-001 6.423129e-001 -7.175159e+000 175 162 136
-6.204603e-001 6.308232e-001 -6.814734e+000 188 160 83
3.367267e-001 6.015479e-001 -7.295953e+000 175 154 99
-8.080812e-003 3.960928e-001 -6.888585e+000 169 153 121
2.748392e-001 4.237507e-001 -7.053560e+000 183 156 111
5.142834e-001 4.488654e-001 -7.175084e+000 169 159 88
4.615893e-001 3.788059e-001 -7.068506e+000 178 153 99
-1.708187e+000 1.020092e-001 -6.501769e+000 164 123 80
5.751332e-001 2.519244e-001 -6.984957e+000 171 157 107
1.448272e+000 2.891856e-001 -7.435866e+000 92 106 81
-1.838191e+000 -1.752485e-001 -6.743773e+000 105 89 63
-1.804223e+000 -2.861727e-001 -6.713072e+000 108 93 68
4.277144e-001 1.758603e-001 -6.808612e+000 133 95 56
4.683050e-001 9.945047e-002 -6.734913e+000 129 89 59
1.544563e+000 1.586852e-002 -7.170128e+000 163 176 150
-2.198991e-001 2.070199e+000 -8.987096e+000 137 142 116
-5.070940e-001 1.924670e+000 -8.606263e+000 118 76 69
-2.091647e+000 1.709721e+000 -7.458083e+000 175 170 130
-1.848478e+000 1.769838e+000 -7.655262e+000 174 166 130
3.815180e-001 1.781012e+000 -8.827222e+000 176 142 104
-1.195180e+000 1.515879e+000 -7.553127e+000 197 183 174
-1.163329e+000 1.518215e+000 -7.577410e+000 142 125 115
4.858766e-001 1.428672e+000 -8.272517e+000 165 141 97
5.849076e-001 1.293516e+000 -8.262257e+000 104 95 86
-1.156229e+000 1.083809e+000 -7.032995e+000 188 179 181
-1.119999e+000 1.028353e+000 -6.972901e+000 188 176 175
1.052166e+000 9.859770e-001 -8.188690e+000 69 82 65
1.309701e+000 1.123329e+000 -8.093397e+000 161 162 156
1.341497e+000 1.125369e+000 -8.079579e+000 83 81 74
1.300615e+000 1.004072e+000 -8.180938e+000 81 82 77
2.994575e-001 7.909565e-001 -7.488635e+000 127 91 54
1.004043e+000 8.167950e-001 -7.799203e+000 93 92 88
-1.554015e-001 7.411546e-001 -7.253684e+000 182 178 153
2.911826e-001 7.054692e-001 -7.395385e+000 174 157 100
-1.686865e-001 6.150639e-001 -7.072259e+000 186 167 152
-1.460453e-001 5.855196e-001 -7.068962e+000 80 65 54
-2.527118e-002 5.411545e-001 -7.055925e+000 184 168 145
2.339851e-001 3.834711e-001 -7.027625e+000 136 83 63
4.433225e-001 4.350752e-001 -7.135034e+000 173 153 94
5.055981e-001 3.848921e-001 -7.102766e+000 171 150 95
1.375403e+000 4.010041e-001 -7.520323e+000 94 110 80
1.381173e+000 3.919566e-001 -7.538957e+000 94 110 80
6.492653e-002 2.510149e-001 -6.737206e+000 165 150 111
-1.768215e+000 -3.197960e-001 -6.628628e+000 95 82 59
1.092420e+000 7.348646e-002 -6.987821e+000 166 151 92
-4.526714e-001 1.950553e+000 -8.631239e+000 73 74 60
-2.680920e-001 1.990725e+000 -8.759352e+000 130 144 109
-1.734413e+000 1.804638e+000 -7.626566e+000 74 100 71
1.795365e+000 2.547411e+000 -6.920951e+000 188 181 175
-1.980996e+000 1.662670e+000 -7.450301e+000 186 171 128
8.237058e-001 1.530979e+000 -8.954349e+000 96 108 84
5.493948e-001 1.524880e+000 -8.567370e+000 76 74 61
-2.112414e+000 1.267809e+000 -7.171379e+000 215 186 178
-1.960926e+000 9.878667e-001 -6.969520e+000 210 193 124
-1.633513e+000 1.165449e+000 -6.959706e+000 199 180 130
-1.641216e+000 1.130369e+000 -6.988290e+000 199 180 130
-2.008730e+000 9.314857e-001 -7.019810e+000 147 117 103
-1.941111e+000 9.502019e-001 -6.933159e+000 210 195 115
-2.070852e+000 6.325136e-001 -7.046348e+000 219 191 176
6.318243e-001 9.233696e-001 -7.778661e+000 148 148 114
7.149966e-001 8.498905e-001 -7.787576e+000 147 151 116
2.734463e-001 7.566447e-001 -7.446118e+000 180 156 107
2.654479e-001 7.184488e-001 -7.414113e+000 137 92 63
1.013648e+000 5.222308e-001 -7.514963e+000 106 118 80
-8.944381e-002 4.236875e-001 -6.886419e+000 182 164 138
-2.144651e+000 -4.701220e-001 -7.294921e+000 209 185 162
4.858459e-001 4.575574e-002 -6.694757e+000 135 85 64
4.866211e-001 4.592435e-002 -6.693044e+000 135 85 64
-1.666706e+000 2.069809e+000 -8.182104e+000 163 153 100
5.123931e-001 2.091339e+000 -9.347382e+000 99 108 86
-9.209748e-001 1.987581e+000 -8.455808e+000 193 175 139
2.729444e-002 1.819208e+000 -8.655345e+000 162 115 83
-2.113777e+000 1.555637e+000 -7.338105e+000 181 157 96
1.054280e-001 1.664170e+000 -8.483392e+000 186 156 106
2.404695e-001 1.235566e+000 -8.025687e+000 157 151 92
7.413659e-001 1.341094e+000 -8.370175e+000 74 83 70
5.984667e-001 9.547391e-001 -7.840539e+000 139 136 99
1.013797e+000 9.754006e-001 -8.091187e+000 146 147 140
-2.406491e+000 1.846377e-001 -7.781115e+000 131 58 62
-1.056407e+000 8.632723e-001 -6.810572e+000 150 59 58
-1.074290e+000 8.364072e-001 -6.767704e+000 196 176 181
-8.893349e-001 8.521585e-001 -6.860396e+000 197 182 185
-8.569802e-001 7.955041e-001 -6.814227e+000 187 182 181
-1.002439e+000 6.415836e-001 -6.561759e+000 159 56 60
2.217632e-001 4.689712e-001 -7.081392e+000 178 157 109
-2.034963e-002 4.471743e-001 -6.947650e+000 181 166 140
-2.034963e-002 4.471743e-001 -6.947650e+000 181 166 140
2.760587e-001 3.730302e-001 -6.997740e+000 180 156 110
5.069118e-002 3.155683e-001 -6.819732e+000 60 76 66
8.606061e-001 3.177722e-001 -7.174562e+000 170 160 125
1.373705e+000 3.434911e-001 -7.438627e+000 125 138 118
1.155752e-001 2.097187e-001 -6.726253e+000 64 81 70
1.003867e-001 5.940163e-002 -6.635578e+000 173 154 90
4.878385e-001 3.654492e-002 -6.709961e+000 135 85 64
-1.852299e+000 2.055606e+000 -8.057899e+000 158 148 81
3.347195e-001 1.974205e+000 -8.920657e+000 145 98 80
5.745308e-001 1.524229e+000 -8.562479e+000 68 67 62
5.745308e-001 1.524229e+000 -8.562479e+000 68 67 62
8.404740e-001 1.374456e+000 -8.564033e+000 68 78 64
-2.069813e+000 8.912003e-001 -7.081152e+000 223 197 166
-1.792666e+000 -4.315111e-001 -6.658195e+000 195 181 125
-1.368068e+001 -3.157942e+001 -4.031320e+001 81 68 59
8.668517e-003 2.000518e+000 -8.871403e+000 160 131 110
2.521812e-003 1.983812e+000 -8.924886e+000 160 131 110
-1.813696e+001 -1.096648e+001 -3.349913e+001 186 31 65
-1.136752e+000 1.174501e+000 -7.155711e+000 146 57 64
-1.136752e+000 1.174501e+000 -7.155711e+000 146 57 64
4.656292e-001 1.116549e+000 -7.990150e+000 161 158 125
-1.696186e+000 1.026343e+000 -6.931829e+000 190 163 78
-1.141286e+000 1.047515e+000 -6.999226e+000 192 183 180
8.049374e-001 1.052371e+000 -8.123866e+000 100 96 94
-1.007642e+000 9.480824e-001 -6.926985e+000 162 57 67
-1.006989e+000 9.475400e-001 -6.928590e+000 162 57 67
-1.337979e-001 5.528651e-001 -7.033166e+000 62 76 63
-1.843277e+001 -1.117399e+001 -3.309964e+001 59 40 85
5.395216e-001 9.904024e-001 -7.870499e+000 165 164 134
9.525331e-001 6.091643e-001 -7.599073e+000 93 100 70
-1.154974e+001 -1.513070e+001 -2.959367e+001 46 35 39
-1.909702e+000 1.755585e+000 -7.629652e+000 190 176 137
-1.777532e+000 1.758675e+000 -7.612671e+000 68 96 65
-1.777532e+000 1.758675e+000 -7.612671e+000 68 96 65
-2.122869e+000 9.311234e-001 -7.336343e+000 154 118 112
6.991100e-001 1.857230e-001 -6.945367e+000 156 156 100
1.647099e-001 2.047321e+000 -8.965688e+000 103 70 68
1.912523e-001 2.247942e+000 -9.005256e+000 230 212 202
1.130904e+000 1.516362e+000 -7.818905e+000 184 189 182
-4.116653e-001 1.893825e+000 -8.647172e+000 127 81 75
-2.374092e+000 1.966393e+000 -7.769082e+000 140 140 84
-2.171403e+000 1.847514e+000 -7.615108e+000 164 165 129
-1.959197e+000 1.893514e+000 -7.718239e+000 76 101 64
-1.953417e+000 1.832230e+000 -7.709834e+000 172 162 122
-1.789753e+000 1.807687e+000 -7.738174e+000 66 101 69
-5.661763e-001 1.975244e+000 -8.600721e+000 136 147 116
-2.336668e-001 2.005480e+000 -8.801027e+000 106 120 92
-1.611759e+000 1.656880e+000 -7.581549e+000 196 179 146
6.379627e-001 1.374151e+000 -8.397225e+000 145 136 113
5.315254e-001 1.279340e+000 -8.219829e+000 118 111 102
7.664832e-001 1.155862e+000 -8.185973e+000 138 133 126
-8.749035e-001 8.312132e-001 -6.833334e+000 128 53 56
3.501863e-001 5.277251e-001 -7.271364e+000 132 90 58
1.017582e+000 5.842717e-001 -7.607407e+000 114 127 89
8.889795e-001 5.434831e-001 -7.414920e+000 120 133 86
1.549465e+000 4.221008e-002 -7.182283e+000 99 114 91
1.562115e+000 6.155102e-002 -7.190843e+000 145 159 136
1.562115e+000 6.155102e-002 -7.190843e+000 145 159 136
-2.201507e+000 1.954612e+000 -7.730986e+000 163 156 108
-2.142354e+000 1.777594e+000 -7.568817e+000 171 169 130
-6.811593e-002 1.707707e+000 -8.520650e+000 177 139 100
7.949137e-001 1.083269e+000 -8.144606e+000 102 96 93
7.055433e-001 1.052992e+000 -8.035211e+000 92 86 83
1.481055e+000 2.323420e-001 -7.411811e+000 93 111 81
1.519074e+000 2.031381e-001 -7.345598e+000 148 161 141
7.165908e-002 1.506379e-001 -6.617735e+000 165 144 98
6.032575e-001 1.448442e-001 -6.862136e+000 131 81 61
6.115123e-001 1.370746e-001 -6.828403e+000 152 145 90
4.823040e-001 3.262929e-002 -6.657111e+000 154 148 83
1.755972e+000 -9.899818e-001 -7.446237e+000 124 117 107
-1.852126e+000 1.767630e+000 -7.650062e+000 182 168 132
-3.233559e-002 1.445131e+000 -8.186054e+000 154 145 88
1.397746e+000 1.339718e+000 -7.945681e+000 183 182 175
1.005333e+000 8.693872e-001 -7.913678e+000 95 91 90
-8.770788e-002 6.731833e-001 -7.209936e+000 93 85 68
1.046005e+000 4.264806e-001 -7.420309e+000 167 140 92
7.740326e-002 3.733875e-001 -6.904554e+000 85 78 58
2.651775e-002 2.942464e-001 -6.779773e+000 176 155 116
2.651775e-002 2.942464e-001 -6.779773e+000 176 155 116
3.947289e-001 1.966174e-001 -6.805241e+000 168 149 91
-1.991083e+000 1.894936e+000 -7.758604e+000 80 109 85
-2.029310e+000 1.721018e+000 -7.513895e+000 172 167 126
-3.217178e-001 1.819514e+000 -8.660744e+000 121 73 62
1.079160e-001 1.634164e+000 -8.422447e+000 184 159 113
9.071537e-001 1.167360e+000 -8.266936e+000 67 85 70
-1.449067e+001 -1.316017e+001 -3.070738e+001 72 34 85
2.782228e-001 7.554802e-001 -7.449092e+000 176 153 104
2.796323e-001 7.562280e-001 -7.449298e+000 176 153 104
3.164651e-001 2.910776e-001 -6.900562e+000 176 160 108
3.459099e-001 2.363451e-001 -6.849875e+000 173 153 97
-2.090330e-001 1.962910e+000 -8.733810e+000 116 74 64
-1.199531e+000 8.095305e-001 -6.691940e+000 192 175 147
3.970131e-001 3.443656e-001 -7.000164e+000 176 155 98
-1.289307e+001 -1.255435e+001 -3.196861e+001 239 180 84
-1.086422e+000 1.333007e+000 -7.329022e+000 124 57 57
-9.575836e-001 8.961824e-001 -6.856614e+000 140 68 68
1.930150e-001 7.018934e-002 -6.609875e+000 154 138 88
-1.623720e+001 -1.223521e+001 -3.124072e+001 133 14 41
-1.623720e+001 -1.223521e+001 -3.124072e+001 133 14 41
-1.949404e+000 1.836152e+000 -7.693015e+000 171 168 125
-1.578952e+000 1.650545e+000 -7.570984e+000 175 118 97
-1.398788e+000 1.438255e+000 -7.368449e+000 190 158 78
-4.158682e-001 1.515777e+000 -8.084881e+000 190 157 114
-8.499919e-001 8.593105e-001 -6.867962e+000 148 52 58
1.137116e+000 6.862844e-002 -7.020478e+000 166 145 93
5.835461e-001 1.078566e+000 -7.982832e+000 144 138 126
5.038333e-001 1.710566e+000 -8.736306e+000 182 158 108
1.280424e+000 4.268947e-001 -7.551449e+000 87 104 72
5.284167e-001 2.002243e+000 -9.228077e+000 74 77 66
-1.283360e+000 1.289100e+000 -7.217672e+000 128 53 60
1.124377e+000 3.834026e-001 -7.395395e+000 157 150 104
3.215306e-001 2.010322e+000 -9.193362e+000 114 114 93
7.135227e-001 1.756608e+000 -8.886098e+000 95 107 85
9.652018e-001 6.489922e-001 -7.652371e+000 83 92 66
-2.174695e+000 1.772756e+000 -7.538310e+000 125 126 94
-9.127087e-001 8.148450e-001 -6.804595e+000 156 51 59
3.890828e-001 5.576673e-001 -7.259235e+000 176 156 96
-1.275788e+001 -3.119986e+001 -4.028975e+001 117 109 104
-1.900386e-001 1.738583e+000 -8.525668e+000 168 136 95
-1.281537e+000 1.120453e+000 -7.019108e+000 159 54 61
-1.996932e+000 1.857069e+000 -7.715757e+000 165 165 123
-2.081738e+000 1.691019e+000 -7.451413e+000 178 170 133
-2.004846e+000 1.695660e+000 -7.459209e+000 179 171 130
-1.722521e+000 1.795212e+000 -7.724219e+000 187 172 132
-3.015165e-001 1.729913e+000 -8.426869e+000 163 113 82
-2.812204e-001 1.767301e+000 -8.456763e+000 138 93 72
-1.441623e+000 1.448643e+000 -7.323827e+000 188 159 85
-1.402884e+000 1.479433e+000 -7.431122e+000 177 158 125
-2.089778e-001 7.411623e-001 -7.237413e+000 161 140 119
2.217226e-001 5.186066e-001 -7.137546e+000 184 164 117
-2.026647e+000 1.797570e+000 -7.591987e+000 123 125 87
9.905821e-001 9.487713e-001 -8.044803e+000 91 91 89
7.228217e-001 8.991821e-001 -7.902653e+000 139 134 130
9.664074e-001 6.420365e-001 -7.672914e+000 87 99 67
-2.069150e+000 1.859128e+000 -7.665747e+000 126 128 92
3.745661e-001 1.785842e+000 -8.951281e+000 169 132 98
7.739025e-001 1.640099e+000 -8.780325e+000 97 114 87
1.329993e+000 4.065768e-001 -7.529037e+000 145 161 135
1.781424e-001 9.847446e-002 -6.608055e+000 59 75 59
1.781424e-001 9.847446e-002 -6.608055e+000 59 75 59
6.203751e-001 1.044511e-001 -6.803457e+000 129 87 60
-4.228315e-001 1.677355e+000 -8.349414e+000 179 137 102
1.824116e+000 -9.535585e-002 -7.207282e+000 172 169 162
1.412965e-001 1.310595e+000 -8.053580e+000 175 168 138
-2.212339e+000 1.501444e+000 -7.350692e+000 154 131 99
9.357478e-001 1.125194e+000 -8.355536e+000 74 88 73
-1.928818e+000 1.931615e+000 -7.797494e+000 177 165 117
-3.604294e-002 2.130850e+000 -9.115812e+000 230 219 208
-6.026796e-001 5.824821e-001 -6.592449e+000 137 119 105
-9.555258e-001 8.825249e-001 -6.880435e+000 140 68 68
-2.589772e-001 2.085313e+000 -9.468660e+000 235 217 207
-1.318937e+000 1.888814e+000 -8.269434e+000 162 151 88
1.215466e+000 1.581915e+000 -8.171471e+000 191 193 180
-2.165251e+000 2.073123e+000 -7.888844e+000 156 152 80
-2.305151e+000 1.942870e+000 -7.687875e+000 179 171 124
-1.802439e+000 1.970057e+000 -7.922388e+000 185 166 116
-6.915539e-001 1.994509e+000 -8.554985e+000 133 145 109
-1.943951e+000 1.888096e+000 -7.749654e+000 181 174 130
-1.847108e+000 1.700024e+000 -7.630471e+000 181 176 137
-1.848251e-002 1.801971e+000 -8.621894e+000 151 95 67
3.817038e-001 1.903346e+000 -8.910322e+000 182 136 101
4.030131e-001 1.811356e+000 -8.770152e+000 171 133 90
7.539744e-002 1.678095e+000 -8.454666e+000 200 172 118
3.672682e-001 1.574169e+000 -8.478625e+000 195 189 160
6.014729e-001 1.120278e+000 -8.025599e+000 140 133 123
9.190506e-001 9.808678e-001 -8.037763e+000 145 143 137
-1.560239e-001 5.984548e-001 -7.095875e+000 183 162 143
-1.035110e-001 4.668406e-001 -6.950899e+000 193 180 154
5.450661e-001 3.590587e-001 -7.063209e+000 172 155 88
1.590537e-001 2.976577e-001 -6.772778e+000 184 164 113
-2.356929e+000 1.930632e+000 -7.669868e+000 207 210 167
-2.158863e+000 1.895365e+000 -7.672482e+000 118 121 85
5.105465e-001 2.030594e+000 -9.134466e+000 79 85 71
-9.751770e-002 1.834319e+000 -8.574581e+000 143 85 63
7.300935e-001 1.635793e+000 -8.757579e+000 78 86 74
2.657723e-001 1.466997e+000 -8.307494e+000 170 142 92
2.075686e-001 1.315599e+000 -8.080339e+000 174 157 103
2.631971e-001 1.247995e+000 -8.044629e+000 163 157 101
6.353657e-001 1.264147e+000 -8.215305e+000 112 103 98
5.546494e-001 1.205604e+000 -8.116361e+000 179 158 123
8.774080e-001 1.163373e+000 -8.214129e+000 133 135 124
9.572105e-001 1.040806e+000 -8.125334e+000 113 110 105
6.166854e-001 9.891578e-001 -7.876610e+000 107 98 97
6.388378e-001 9.260783e-001 -7.793824e+000 157 159 120
3.019048e-001 7.905177e-001 -7.494656e+000 150 93 70
-6.267169e-001 6.017190e-001 -6.671007e+000 197 180 163
-4.790329e-002 4.059550e-001 -6.880941e+000 61 84 71
2.802656e-001 4.433907e-001 -7.073045e+000 136 91 58
4.846509e-001 4.580267e-001 -7.184915e+000 136 93 58
-4.587985e-002 3.851548e-001 -6.849233e+000 186 165 131
1.345278e+000 3.218049e-001 -7.481610e+000 98 113 76
1.129693e+000 2.426264e-001 -7.218672e+000 161 143 94
1.550154e+000 1.394751e-001 -7.324294e+000 95 109 74
1.562875e+000 1.241494e-001 -7.298914e+000 168 172 159
1.512324e+000 6.910501e-002 -7.244160e+000 165 174 153
1.592467e+000 2.889533e-002 -7.257123e+000 103 111 87
4.379199e-001 1.019605e-001 -6.719213e+000 169 155 93
-2.732520e-001 2.033453e+000 -8.786022e+000 148 158 134
-3.087195e-001 1.846664e+000 -8.492738e+000 137 83 66
7.724705e-001 1.313587e+000 -8.366031e+000 189 176 133
7.837865e-001 1.288468e+000 -8.333769e+000 81 86 81
6.864984e-001 1.239571e+000 -8.223433e+000 157 150 144
-2.005086e+000 9.459755e-001 -7.001851e+000 127 112 105
1.799717e+000 2.480448e+000 -7.026256e+000 197 190 182
1.812293e+000 2.541973e+000 -6.971030e+000 196 191 182
-1.017333e+000 1.091855e+000 -7.105390e+000 198 184 184
-1.440513e-001 7.838259e-001 -7.311813e+000 79 73 57
-1.440513e-001 7.838259e-001 -7.311813e+000 79 73 57
-8.750941e-001 7.841712e-001 -6.750646e+000 147 52 58
-1.559969e-001 6.843297e-001 -7.176520e+000 59 79 60
-1.559969e-001 6.843297e-001 -7.176520e+000 59 79 60
8.377708e-001 5.312028e-001 -7.633167e+000 129 134 77
1.796591e-003 5.506026e-001 -7.095017e+000 188 173 142
2.442835e-001 5.021206e-001 -7.127785e+000 153 95 74
-7.965107e-002 4.151602e-001 -6.900069e+000 183 167 142
4.675548e-001 4.005253e-001 -7.127626e+000 140 91 64
1.576096e-002 3.721202e-001 -6.878415e+000 61 82 63
1.235136e-001 3.119480e-001 -6.833843e+000 189 167 122
6.861603e-002 2.701283e-001 -6.779202e+000 66 77 60
2.803862e-001 7.561701e-002 -6.669862e+000 70 77 53
6.213626e-001 -2.890862e-003 -6.754233e+000 156 152 79
-2.107199e+000 1.797321e+000 -7.575208e+000 118 120 81
-4.169258e-001 1.547666e+000 -8.114586e+000 174 127 87
-8.768700e-001 1.246631e+000 -7.525376e+000 192 169 135
-8.843895e-001 7.391663e-001 -6.797532e+000 144 50 55
-1.002258e+000 6.378426e-001 -6.564731e+000 164 56 59
4.656701e-002 4.199530e-001 -6.944537e+000 69 78 61
2.183093e-001 4.672315e-001 -7.079074e+000 187 164 114
4.162977e-001 1.897060e+000 -8.938123e+000 176 129 92
4.547206e-001 1.827987e+000 -8.911919e+000 178 141 96
-3.228168e-001 1.692630e+000 -8.344921e+000 184 141 89
-9.635933e-001 9.663275e-001 -6.995104e+000 202 187 185
6.934070e-001 5.001439e-001 -7.359350e+000 129 130 73
6.934070e-001 5.001439e-001 -7.359350e+000 129 130 73
1.960091e-001 4.911354e-002 -6.589302e+000 175 160 100
-7.726636e-001 1.128053e+000 -7.546983e+000 191 173 139
-1.075559e+000 6.557588e-001 -6.598609e+000 196 181 156
-1.341365e-001 5.549587e-001 -7.030769e+000 61 82 66
-6.196718e-001 5.549371e-001 -6.633925e+000 139 120 106
1.603393e-002 1.999235e+000 -8.882332e+000 166 136 108
3.032950e-001 3.201583e-001 -6.961716e+000 167 129 91
-1.488140e+000 2.012839e+000 -8.213098e+000 148 138 83
-7.126090e-001 2.044750e+000 -8.634508e+000 91 102 77
-2.108438e+000 9.590841e-001 -7.245834e+000 127 113 104
-4.798940e-001 5.766510e-001 -6.907557e+000 190 179 173
-2.086376e+000 1.918474e+000 -7.733114e+000 180 169 123
4.953621e-001 1.620167e+000 -8.636611e+000 187 161 111
-1.290489e-001 6.504434e-001 -7.161589e+000 72 76 61
-1.290489e-001 6.504434e-001 -7.161589e+000 72 76 61
1.760282e+000 -1.420252e-001 -7.324164e+000 99 107 79
1.196302e+000 8.915144e-001 -8.273024e+000 84 103 73
-1.309094e+000 1.518505e+000 -7.523218e+000 202 190 181
-3.370335e-001 5.237082e-001 -6.976815e+000 195 184 180
4.635460e-001 2.001223e+000 -9.017301e+000 87 93 83
-2.130257e-001 1.015095e+000 -7.778560e+000 196 181 158
-2.130257e-001 1.015095e+000 -7.778560e+000 196 181 158
-2.012454e+000 1.693385e+000 -7.499047e+000 175 167 128
8.075520e-001 1.494861e+000 -8.609326e+000 70 86 60
5.822234e-001 7.690160e-002 -6.811190e+000 162 154 90
-2.077331e+000 1.650606e+000 -7.413618e+000 195 179 130
-2.151957e-001 7.653746e-001 -7.258522e+000 71 82 73
2.145719e-001 1.233336e+000 -8.019323e+000 170 159 94
2.635656e-001 1.194488e+000 -7.964826e+000 192 185 159
-1.097408e+000 1.078385e+000 -7.070658e+000 163 59 68
1.063228e+000 9.362856e-001 -8.065080e+000 66 74 64
1.465537e+000 2.193448e-001 -7.480718e+000 131 145 119
1.444567e+000 9.143362e-001 -8.030944e+000 192 195 188
-1.494291e+000 1.426925e+000 -7.484271e+000 209 189 183
-8.757619e-001 7.741609e-001 -6.813147e+000 149 61 69
1.254804e+000 3.099866e-001 -7.338636e+000 69 76 52
1.230749e+000 -2.124666e-001 -6.943984e+000 56 60 37
1.465315e+000 -1.858616e-001 -7.089927e+000 82 87 65
7.157939e-001 -3.374577e-001 -6.791081e+000 81 76 45
7.252147e-001 -5.240291e-001 -6.970187e+000 116 108 71
8.051141e-001 -5.575484e-001 -7.051691e+000 71 64 36
-1.112063e+000 -6.217605e-001 -6.025931e+000 128 118 108
-1.964153e-002 -6.044266e-001 -6.654059e+000 131 115 81
7.636590e-001 -5.786262e-001 -7.038316e+000 112 106 70
-9.914835e-001 -6.403183e-001 -6.106663e+000 128 115 106
-1.173492e+000 -8.090774e-001 -6.175017e+000 75 65 56
-9.000113e-001 -7.703642e-001 -6.275084e+000 76 72 61
4.088749e-001 4.515709e-001 -7.135513e+000 141 93 68
1.176642e+000 3.786327e-001 -7.376277e+000 112 125 79
-5.941792e-001 -1.366670e-001 -5.883452e+000 149 146 95
1.429619e+000 -1.624857e-001 -7.011933e+000 64 67 49
1.556461e+000 -1.627338e-001 -7.071802e+000 57 61 37
6.313331e-001 -2.012975e-001 -6.632658e+000 103 101 62
6.614310e-001 -2.006149e-001 -6.662019e+000 100 98 60
1.162262e+000 -2.411574e-001 -6.967586e+000 56 60 37
1.611731e+000 -1.904503e-001 -7.136198e+000 56 57 41
-2.071522e-001 -5.325970e-001 -6.484257e+000 81 66 38
-1.055771e-001 -4.500762e-001 -6.461741e+000 81 65 37
3.464679e-001 -4.704986e-001 -6.734477e+000 128 113 74
7.467566e-001 -4.349060e-001 -6.869922e+000 104 100 65
9.831974e-001 -4.800851e-001 -7.050552e+000 93 93 67
-2.473460e-001 -6.511531e-001 -6.574188e+000 80 66 37
1.662132e-001 -6.054412e-001 -6.744548e+000 141 123 74
-9.766485e-001 -6.835547e-001 -6.150877e+000 127 114 102
-1.562020e-001 -7.471499e-001 -6.712797e+000 79 63 38
-9.418788e-001 -8.914324e-001 -6.387040e+000 70 67 56
-5.042978e-001 -1.055887e+000 -6.831496e+000 137 121 98
-4.762371e-001 -1.056263e+000 -6.857594e+000 84 69 51
-1.016238e+000 -1.284765e+000 -6.805501e+000 125 109 83
-1.404013e+000 -1.453023e+000 -6.774532e+000 112 98 67
6.052089e-001 1.584414e+000 -8.639291e+000 164 142 92
-6.009327e-001 6.135046e-001 -6.728425e+000 201 188 165
5.102952e-001 3.085782e-001 -6.993479e+000 172 157 98
5.121327e-001 3.090978e-001 -6.996510e+000 172 157 98
1.515518e+000 1.864720e-001 -7.300627e+000 153 168 142
3.147559e-001 -2.662756e-001 -6.521412e+000 105 95 59
-2.293004e-001 -4.021556e-001 -6.348069e+000 127 110 65
3.795635e-001 -4.661854e-001 -6.747936e+000 85 71 54
-7.616337e-001 -6.997078e-001 -6.303852e+000 118 102 75
-8.256423e-001 -1.280769e+000 -6.887566e+000 131 115 89
-1.286016e+000 -1.490587e+000 -6.844492e+000 115 101 72
-1.216153e+000 -1.531338e+000 -6.944331e+000 82 67 46
-1.981930e+000 1.964918e+000 -7.945913e+000 185 172 127
1.149692e-001 1.650139e+000 -8.505723e+000 192 164 123
-1.008066e+000 1.076422e+000 -7.108551e+000 204 192 190
9.009358e-001 7.741478e-001 -7.749694e+000 85 77 74
-1.190130e-001 5.476228e-001 -7.046949e+000 75 83 68
2.478094e-001 3.224488e-002 -6.568538e+000 64 80 69
4.282829e-001 -2.890663e-001 -6.615875e+000 79 72 46
5.858455e-001 -2.137133e-001 -6.612091e+000 102 100 63
-1.486861e-001 -3.452626e-001 -6.340045e+000 126 109 63
5.603351e-001 -3.055751e-001 -6.693069e+000 110 103 61
-1.869299e-001 -4.738309e-001 -6.434388e+000 131 108 64
-4.602112e-001 -1.114817e+000 -6.912615e+000 88 72 47
-9.654145e-001 -1.211468e+000 -6.747156e+000 94 82 58
-8.500886e-001 -1.405837e+000 -7.023830e+000 75 63 47
-8.618291e-001 -1.531478e+000 -7.115050e+000 122 108 73
6.667135e-001 9.598607e-002 -6.823923e+000 160 160 97
-6.264860e-001 -1.647806e-001 -5.870734e+000 89 83 44
4.763806e-001 -3.062279e-001 -6.651658e+000 120 108 61
-3.120530e-001 -4.239965e-001 -6.332721e+000 127 110 67
-1.644137e-001 -4.072440e-001 -6.391431e+000 129 111 61
4.778371e-001 -5.563806e-001 -6.889149e+000 81 63 39
4.778371e-001 -5.563806e-001 -6.889149e+000 81 63 39
4.410936e-001 -6.395956e-001 -6.895355e+000 84 73 42
4.410936e-001 -6.395956e-001 -6.895355e+000 84 73 42
-9.294354e-001 -6.599253e-001 -6.156336e+000 138 118 109
-9.294354e-001 -6.599253e-001 -6.156336e+000 138 118 109
4.019186e-001 -9.227830e-001 -7.213353e+000 134 116 66
-1.611559e+000 -1.558994e+000 -6.764895e+000 79 62 44
-9.273931e-001 -1.616865e+000 -7.209878e+000 92 76 59
6.611107e-001 5.856671e-001 -7.403000e+000 187 180 157
1.623028e+000 9.762089e-002 -7.220760e+000 105 115 99
-9.877286e-002 -3.912946e-001 -6.420320e+000 101 86 56
2.063727e-001 -5.708158e-001 -6.745463e+000 142 122 71
-5.064695e-001 -7.943222e-001 -6.558831e+000 91 79 67
1.310356e+000 8.943457e-001 -8.061984e+000 171 174 165
2.505081e-001 5.989338e-002 -6.613944e+000 82 83 58
-5.922768e-001 -1.020016e+000 -6.698957e+000 61 51 42
-1.419444e+000 1.410253e+000 -7.536598e+000 135 71 66
-9.044767e-001 -6.115460e-001 -6.155413e+000 139 117 107
5.355003e-001 1.361676e+000 -8.299031e+000 187 179 162
6.732162e-001 6.825768e-001 -7.626733e+000 161 157 93
-8.040991e-001 -1.489558e+000 -7.302003e+000 62 53 49
1.605054e+000 -7.207161e-001 -7.741647e+000 57 47 38
7.406652e-001 -4.556267e-001 -6.919724e+000 107 101 67
-2.125275e+001 3.309749e+000 -4.995193e+001 234 39 81
1.646973e+000 -8.123639e-001 -7.604086e+000 85 75 66
5.188278e-001 1.808237e+000 -8.871923e+000 68 72 67
-1.070786e+001 -2.860006e+001 -3.130436e+001 173 174 178
1.206586e+000 3.107718e-001 -7.377043e+000 172 165 147
-2.066829e+000 1.859516e+000 -7.666050e+000 135 131 96
5.920148e-001 1.348045e+000 -8.318983e+000 179 151 102
1.331301e+000 3.597019e-001 -7.510697e+000 78 93 62
1.272571e+000 9.971577e-001 -8.228727e+000 154 153 148
-1.943059e+000 1.892785e+000 -7.784884e+000 184 169 117
-9.772831e-001 1.876521e+000 -8.270833e+000 198 177 122
-1.132806e+000 1.275670e+000 -7.279405e+000 196 188 188
-6.585824e+000 -3.126306e+001 -2.372428e+001 169 153 143
6.921450e-001 1.502205e+000 -8.595063e+000 168 125 80
-2.121407e+000 1.151300e+000 -7.094121e+000 138 127 123
-6.702027e+000 -3.070950e+001 -2.430320e+001 202 203 202
-6.266048e+000 -3.108186e+001 -2.341477e+001 203 184 170
-7.600770e+000 -3.118969e+001 -2.268480e+001 203 178 161
-7.446902e+000 -3.133135e+001 -2.244003e+001 156 133 124
-7.112664e+000 -4.285927e+001 -2.292194e+001 188 137 116
-5.277697e+000 -4.478548e+001 -2.399651e+001 180 152 140
-6.166592e+000 -4.105858e+001 -2.093487e+001 122 110 114
-6.049762e+000 -4.105708e+001 -2.142977e+001 122 107 110
-5.666998e+000 -3.085007e+001 -2.360294e+001 197 181 171
-1.949514e+000 1.633663e+000 -7.445148e+000 190 171 128
-6.281097e+000 -3.089948e+001 -2.406454e+001 94 88 85
-6.281097e+000 -3.089948e+001 -2.406454e+001 94 88 85
5.549320e-001 1.442397e+000 -8.496324e+000 178 143 80
-1.166214e+000 1.414771e+000 -7.429941e+000 129 55 56
-5.736453e+000 -4.253212e+001 -2.312663e+001 145 107 89
-1.853534e+000 1.857850e+000 -7.722745e+000 66 110 75
8.677152e-002 6.533986e-001 -7.209593e+000 189 173 140
1.030906e+000 -2.423911e-001 -6.907898e+000 59 61 40
7.919611e-001 -3.136291e-001 -6.834229e+000 100 100 66
-7.787597e-001 -4.976282e-001 -6.090198e+000 113 106 86
7.067556e-001 -4.754681e-001 -6.940125e+000 66 60 28
-9.750149e-001 -5.403241e-001 -6.022660e+000 78 71 60
-4.203270e-002 -6.652987e-001 -6.704836e+000 140 124 91
8.264818e-001 -6.634687e-001 -7.186893e+000 64 57 31
9.467929e-001 -7.077303e-001 -7.290409e+000 68 67 40
-1.153360e+000 -6.416293e-001 -6.018244e+000 82 73 64
-1.244527e+000 -7.254935e-001 -6.058929e+000 76 66 57
-9.586223e-001 -6.995388e-001 -6.174125e+000 73 63 54
-8.928225e-001 -7.357297e-001 -6.242896e+000 78 71 61
-2.889855e-001 -7.716928e-001 -6.666400e+000 92 74 60
-1.291190e-001 -7.527261e-001 -6.731656e+000 139 122 92
-1.826206e-002 -7.542663e-001 -6.799766e+000 140 124 98
5.599369e-001 -7.125498e-001 -7.078799e+000 80 66 37
-1.237275e+000 -7.985633e-001 -6.141012e+000 75 67 56
-1.118351e+000 -8.364742e-001 -6.228776e+000 76 68 56
-1.019524e+000 -8.746490e-001 -6.313902e+000 74 69 58
-1.667735e-001 -8.688571e-001 -6.833194e+000 145 126 96
7.201749e-001 -8.873392e-001 -7.346749e+000 114 105 73
-1.112573e-001 -1.002247e+000 -7.003958e+000 134 120 83
6.511653e-001 -1.063358e+000 -7.507251e+000 121 108 73
1.130247e+000 -1.132162e+000 -7.857413e+000 80 79 59
1.130247e+000 -1.132162e+000 -7.857413e+000 80 79 59
1.454755e-001 -1.176672e+000 -7.342652e+000 133 120 83
5.639233e-001 -1.279530e+000 -7.676542e+000 123 109 74
-6.927546e-001 -1.347006e+000 -7.059985e+000 59 46 38
-3.787388e-001 -1.250682e+000 -7.109596e+000 142 122 92
-5.166933e-001 -1.590707e+000 -7.432143e+000 129 114 84
-8.905609e-001 -4.654797e-001 -5.998099e+000 72 66 55
3.908032e-001 -4.294920e-001 -6.727406e+000 79 67 44
1.063929e+000 -5.382122e-001 -7.191419e+000 63 65 45
-1.110762e+000 -5.143180e-001 -5.931233e+000 72 63 54
-9.072225e-001 -5.419811e-001 -6.063603e+000 74 69 63
-4.046009e-001 -5.832005e-001 -6.414328e+000 60 48 38
-1.781309e-001 -6.558188e-001 -6.616186e+000 96 80 52
1.678043e-001 -6.063359e-001 -6.755580e+000 141 123 74
2.144013e-001 -5.956538e-001 -6.776439e+000 144 125 74
1.158320e-001 -6.678012e-001 -6.790481e+000 99 85 64
4.577998e-001 -6.274819e-001 -6.942613e+000 68 52 29
8.582607e-001 -5.862094e-001 -7.114821e+000 78 74 45
-4.207959e-001 -7.569772e-001 -6.598562e+000 93 77 53
-4.335889e-001 -7.930722e-001 -6.618765e+000 84 73 55
-9.187838e-002 -8.806538e-001 -6.888216e+000 93 78 52
1.911227e-001 -9.850173e-001 -7.140272e+000 78 64 43
3.287309e-001 -9.841581e-001 -7.232313e+000 91 74 48
5.451046e-001 -9.284040e-001 -7.285392e+000 85 73 46
6.527270e-001 -9.713233e-001 -7.392994e+000 83 71 48
-5.110824e-001 -9.994567e-001 -6.781891e+000 86 70 54
1.241471e-001 -1.080098e+000 -7.210139e+000 130 115 76
4.960765e-001 -1.132756e+000 -7.493090e+000 129 117 76
-1.120537e+000 -1.401677e+000 -6.857975e+000 117 101 77
-1.035351e+000 -1.350719e+000 -6.855764e+000 126 108 84
-1.019212e+000 -1.379377e+000 -6.893180e+000 86 72 46
-6.548391e-001 -1.440555e+000 -7.171008e+000 129 113 88
-6.546021e-001 -1.440361e+000 -7.170973e+000 129 113 88
-1.750699e-001 -2.401281e-001 -6.239348e+000 111 98 54
2.935977e-001 -3.278219e-001 -6.564493e+000 112 99 55
-1.447755e-001 -6.314105e-001 -6.611342e+000 133 115 75
-4.827576e-001 -7.876696e-001 -6.570807e+000 61 48 35
-9.726152e-001 -7.680737e-001 -6.248258e+000 80 74 66
3.475992e-001 -1.179866e+000 -7.444382e+000 132 118 85
-9.452859e-001 -1.254260e+000 -6.795540e+000 125 109 83
-7.789140e-001 -1.249349e+000 -6.894169e+000 96 81 59
4.313543e-002 -1.112941e+000 -7.170789e+000 85 72 40
-2.338726e+001 2.595985e+000 -4.727031e+001 254 55 104
-9.957119e-001 -8.521098e-001 -6.292827e+000 68 64 55
-2.403241e+001 2.225277e+000 -4.810962e+001 170 186 249
-2.403241e+001 2.225277e+000 -4.810962e+001 170 186 249
-2.333198e+001 3.229595e+000 -4.943548e+001 57 39 84
-1.480516e+001 -1.347866e+001 -3.246353e+001 223 170 89
9.591356e-001 -1.826971e-001 -6.833453e+000 92 97 67
9.591356e-001 -1.826971e-001 -6.833453e+000 92 97 67
-2.737739e-002 -5.546040e-001 -6.608512e+000 146 127 84
-4.138792e-002 -5.765272e-001 -6.591341e+000 88 73 40
9.724006e-001 -5.357211e-001 -7.174393e+000 91 92 62
7.157350e-001 -7.184877e-001 -7.195303e+000 122 113 75
1.641947e+000 -6.799272e-001 -7.843064e+000 105 94 82
-1.156677e+000 -7.791846e-001 -6.149296e+000 82 68 57
-1.114710e+000 -7.453290e-001 -6.141159e+000 138 127 116
8.971487e-001 -7.426251e-001 -7.319964e+000 102 97 63
-1.082159e+000 -8.457554e-001 -6.250657e+000 88 75 63
-1.946907e+000 1.821179e+000 -7.639407e+000 148 143 111
-1.057925e+000 8.079747e-001 -6.732063e+000 221 191 185
-1.057925e+000 8.079747e-001 -6.732063e+000 221 191 185
-1.785654e-001 7.950525e-001 -7.294459e+000 209 197 183
-1.135553e-001 7.263666e-001 -7.255526e+000 101 93 79
-1.722718e-001 5.951245e-001 -7.077531e+000 196 184 170
6.201553e-002 4.898943e-001 -7.035235e+000 127 109 89
4.401427e-001 5.418745e-001 -7.260807e+000 155 122 76
7.324369e-001 6.053913e-001 -7.467089e+000 195 191 149
3.142676e-001 3.685309e-002 -6.593836e+000 100 93 78
2.932685e-001 -2.161359e-001 -6.471382e+000 118 111 64
8.475257e-001 -2.370922e-001 -6.802804e+000 66 66 38
1.132756e+000 -2.358947e-001 -6.967591e+000 83 89 62
1.166756e+000 -2.344566e-001 -6.994409e+000 62 65 47
1.256108e+000 -1.602199e-001 -6.992433e+000 60 67 43
1.374347e+000 -1.843769e-001 -7.055499e+000 63 66 44
8.941594e-001 -2.824296e-001 -6.915430e+000 62 62 34
3.373177e-001 -4.088486e-001 -6.677242e+000 93 81 43
1.092496e+000 -3.725213e-001 -7.104126e+000 91 94 67
1.092496e+000 -3.725213e-001 -7.104126e+000 91 94 67
1.146916e+000 -3.930061e-001 -7.114562e+000 88 90 66
-2.071466e-001 -5.333679e-001 -6.483556e+000 86 70 38
2.819947e-001 -5.730446e-001 -6.798758e+000 95 78 41
7.672711e-001 -5.764122e-001 -7.082768e+000 113 104 63
9.532331e-001 -4.930064e-001 -7.099054e+000 75 74 49
3.044071e-001 -6.778613e-001 -6.912552e+000 88 70 33
6.601577e-001 -7.023120e-001 -7.141984e+000 123 112 66
8.554898e-001 -6.784354e-001 -7.218047e+000 111 103 68
9.968864e-001 -6.460991e-001 -7.273017e+000 91 90 59
-1.112549e+000 -7.922795e-001 -6.184249e+000 77 71 61
7.052840e-001 -7.522504e-001 -7.227742e+000 119 110 70
-2.382536e-001 -8.927762e-001 -6.822578e+000 139 122 92
4.462165e-001 -9.380029e-001 -7.256236e+000 97 83 46
2.353673e-001 -1.010938e+000 -7.239448e+000 96 82 45
6.765058e-001 -9.923455e-001 -7.443678e+000 110 98 60
4.051772e-001 -1.125666e+000 -7.425879e+000 96 83 50
5.672341e-001 -1.109002e+000 -7.511720e+000 123 109 72
-1.036486e+000 -1.259808e+000 -6.760909e+000 101 80 59
-2.183421e+000 1.851085e+000 -7.600766e+000 185 183 143
-1.050698e+000 1.143470e+000 -7.140320e+000 210 199 196
7.628421e-001 1.018051e+000 -8.014218e+000 175 169 157
-2.285024e-001 7.401413e-001 -7.219668e+000 107 101 83
8.916332e-001 5.130680e-001 -7.459275e+000 174 163 111
4.425578e-001 7.273172e-002 -6.712184e+000 186 173 108
2.909093e-001 -2.391540e-001 -6.493588e+000 84 75 47
1.316091e+000 -1.566823e-001 -7.006943e+000 70 75 52
1.360152e+000 -2.219422e-001 -7.086210e+000 62 67 44
-2.298971e-001 -4.050800e-001 -6.332846e+000 136 118 68
8.212759e-001 -3.132642e-001 -6.855208e+000 78 77 49
8.577469e-001 -3.021533e-001 -6.863665e+000 98 98 64
9.524116e-001 -2.995897e-001 -6.921383e+000 67 67 39
9.521296e-001 -2.999909e-001 -6.922526e+000 67 67 39
1.066496e+000 -3.525330e-001 -7.078913e+000 58 62 40
1.288032e+000 -2.560255e-001 -7.076862e+000 69 74 52
7.259157e-001 -4.203037e-001 -6.917292e+000 63 58 29
9.408465e-001 -4.315380e-001 -7.026127e+000 90 94 66
3.562703e-002 -5.369299e-001 -6.621921e+000 110 91 58
3.285894e-001 -6.057908e-001 -6.846930e+000 102 86 53
-1.270249e+000 -6.757154e-001 -6.000701e+000 83 74 65
-7.308546e-001 -7.305116e-001 -6.311761e+000 101 90 58
-2.224072e-002 -6.931814e-001 -6.746343e+000 100 83 58
1.154441e-001 -6.686860e-001 -6.790189e+000 93 76 49
-7.574063e-001 -1.184683e+000 -6.861849e+000 105 90 61
-7.574063e-001 -1.184683e+000 -6.861849e+000 105 90 61
-4.709484e-001 -1.227687e+000 -7.052318e+000 101 85 59
-7.954261e-001 -1.294425e+000 -6.908742e+000 109 93 67
-8.176303e-001 -1.335378e+000 -6.986662e+000 105 90 61
-1.303788e+000 -1.446796e+000 -6.816502e+000 92 77 52
2.049685e+000 -1.533800e+000 -7.005541e+000 199 190 183
-1.401762e+000 -1.553655e+000 -6.841736e+000 86 75 53
-1.314121e+000 -1.570609e+000 -6.933132e+000 130 117 86
-2.029817e+000 1.584256e+000 -7.319316e+000 197 186 141
-2.278300e-001 1.728698e+000 -8.399441e+000 194 163 134
1.335132e-001 1.574849e+000 -8.399716e+000 202 180 141
6.658591e-001 5.908169e-001 -7.424517e+000 195 189 160
-1.170083e+000 -1.874445e-001 -5.574650e+000 164 174 122
7.243381e-001 -2.096430e-001 -6.719914e+000 105 103 64
2.648882e-001 -2.983996e-001 -6.529796e+000 86 73 38
2.089713e-001 -3.892482e-001 -6.582526e+000 137 120 66
2.105827e-001 -3.887412e-001 -6.585325e+000 137 120 66
6.964818e-001 -3.008382e-001 -6.780543e+000 114 108 66
-2.800459e-001 -4.714681e-001 -6.364360e+000 124 109 70
6.205699e-001 -5.310564e-001 -6.946838e+000 136 119 63
-1.108905e+000 -6.601374e-001 -6.052086e+000 75 71 65
-8.432334e-001 -8.419242e-001 -6.363816e+000 79 74 67
-7.082474e-001 -1.063475e+000 -6.732496e+000 106 88 66
-9.508132e-001 -1.255373e+000 -6.797654e+000 144 128 95
-1.124080e+000 -1.318046e+000 -6.754060e+000 109 93 66
-8.784292e-001 -1.327388e+000 -6.891405e+000 116 100 75
