ply
format ascii 1.0
element face 0
property list uchar int vertex_indices
element vertex 870
property float x
property float y
property float z
property uchar diffuse_red
property uchar diffuse_green
property uchar diffuse_blue
end_header
-1.107469e+000 -1.239351e+000 -6.709973e+000 106 92 61
3.859461e-001 -1.400979e+000 -7.715133e+000 141 128 81
-1.540246e+000 -1.518374e+000 -7.143008e+000 130 107 76
-1.147028e+000 -1.548594e+000 -7.321259e+000 101 76 46
-1.139278e+000 -1.450249e+000 -7.463917e+000 120 87 53
-5.859513e-001 -1.513099e+000 -7.655535e+000 133 109 72
-1.345076e+000 -1.390907e+000 -7.427643e+000 151 113 74
-2.618913e-001 -1.068197e+000 -8.413198e+000 107 90 65
-2.618913e-001 -1.068197e+000 -8.413198e+000 107 90 65
-1.782920e+000 1.037448e-001 -9.146502e+000 111 92 56
-1.782920e+000 1.037448e-001 -9.146502e+000 111 92 56
-1.277888e+000 -7.126778e-001 -6.035682e+000 86 84 75
-1.289570e-001 -5.899724e-001 -6.550232e+000 152 135 91
-1.289570e-001 -5.899724e-001 -6.550232e+000 152 135 91
-1.249504e+000 -8.912783e-001 -6.203383e+000 89 86 80
-1.249504e+000 -8.912783e-001 -6.203383e+000 89 86 80
-1.169605e-001 -7.152204e-001 -6.710897e+000 149 133 97
1.608999e+000 -3.228222e-001 -7.302197e+000 104 108 89
8.687983e-001 -8.910196e-001 -7.449456e+000 85 82 51
-6.265479e-001 -1.091637e+000 -6.823698e+000 90 74 59
-1.096155e-003 -1.061372e+000 -7.091405e+000 144 131 86
2.146428e-001 -1.062137e+000 -7.260720e+000 96 82 45
5.520447e-001 -1.059620e+000 -7.435323e+000 86 76 40
-1.294717e+000 -1.346020e+000 -6.721711e+000 136 123 85
1.351283e-001 -1.123540e+000 -7.281901e+000 95 81 47
5.491344e-001 -1.077507e+000 -7.474025e+000 87 76 44
4.403002e-001 -1.173032e+000 -7.452523e+000 99 86 53
-1.421789e+000 -1.460437e+000 -6.765483e+000 97 85 46
-2.394423e-001 -1.327029e+000 -7.284876e+000 144 130 85
1.144857e-001 -1.311735e+000 -7.470599e+000 85 73 42
5.579907e-001 -1.284595e+000 -7.687321e+000 133 124 79
9.804820e-001 -1.231048e+000 -7.857109e+000 71 71 45
-4.117032e-001 -1.401579e+000 -7.288172e+000 102 88 53
-4.810585e-001 -1.505694e+000 -7.335180e+000 141 128 76
4.941552e-002 -1.473252e+000 -7.582039e+000 91 82 45
2.948826e-001 -1.404768e+000 -7.666091e+000 99 86 51
2.948826e-001 -1.404768e+000 -7.666091e+000 99 86 51
4.566570e-001 -1.456906e+000 -7.830880e+000 87 77 41
7.021942e-001 -1.389014e+000 -7.857319e+000 118 110 74
7.192199e-001 -1.418853e+000 -7.894394e+000 76 71 42
1.124840e+000 -1.353227e+000 -8.065742e+000 64 63 42
-6.151879e-001 -1.595034e+000 -7.363443e+000 95 82 47
-1.978503e-001 -1.555238e+000 -7.546789e+000 136 123 78
1.340063e-001 -1.528989e+000 -7.716880e+000 134 121 78
-4.770801e-001 -1.562366e+000 -7.645514e+000 123 105 67
-2.472613e-001 -1.538057e+000 -7.763934e+000 108 98 62
-1.447132e+000 -1.538087e+000 -7.192267e+000 135 109 74
-8.269574e-001 -1.485352e+000 -7.567858e+000 114 88 51
-7.074662e-001 -1.510003e+000 -7.592848e+000 135 111 75
-7.074662e-001 -1.510003e+000 -7.592848e+000 135 111 75
-6.628048e-001 -1.512143e+000 -7.615401e+000 126 104 67
-5.870514e-001 -1.427004e+000 -7.766062e+000 93 70 39
-4.118100e-001 -1.426529e+000 -7.852910e+000 87 69 39
-4.118100e-001 -1.426529e+000 -7.852910e+000 87 69 39
-1.782238e+000 -1.407307e+000 -7.177837e+000 100 82 57
-1.456441e+000 -1.429066e+000 -7.327360e+000 145 112 77
-6.799936e-001 -1.421063e+000 -7.746538e+000 141 110 72
3.231810e-002 -2.734111e-001 -9.573210e+000 88 72 49
-2.225684e+000 -2.672284e-001 -8.407683e+000 154 130 94
-1.056816e+000 -8.294138e-001 -6.239856e+000 164 148 135
-9.613638e-001 -7.726037e-001 -6.231351e+000 89 82 72
-1.242741e+000 -1.462349e+000 -6.858378e+000 103 93 57
-1.242741e+000 -1.462349e+000 -6.858378e+000 103 93 57
-8.295236e-001 -1.393972e+000 -6.962765e+000 103 92 62
-4.590922e-001 -1.296441e+000 -7.137939e+000 127 113 73
2.597217e-001 -1.487573e+000 -7.716664e+000 94 82 45
-1.681139e+000 -1.667810e+000 -6.838929e+000 122 114 67
-8.695099e-001 -1.565268e+000 -7.182493e+000 132 126 78
-1.659979e-001 -1.645840e+000 -7.555981e+000 132 117 77
-1.659979e-001 -1.645840e+000 -7.555981e+000 132 117 77
-3.616884e-001 -1.557819e+000 -7.706813e+000 114 99 68
-1.163737e+000 -1.483081e+000 -7.412066e+000 152 115 76
-9.889371e-001 -1.510002e+000 -7.441724e+000 143 113 74
-4.433607e-001 -1.430380e+000 -7.841858e+000 96 80 49
-1.748394e+000 -1.016538e+000 -7.693924e+000 80 81 62
-8.758116e-001 -7.388934e-001 -8.520166e+000 82 65 61
1.316348e-001 -8.160249e-001 -8.940163e+000 109 91 61
1.225636e-001 -6.243175e-001 -6.709622e+000 112 97 67
4.974379e-001 -6.177568e-001 -6.935944e+000 166 147 87
-9.824368e-001 -1.439437e+000 -6.995023e+000 93 86 58
-9.824368e-001 -1.439437e+000 -6.995023e+000 93 86 58
-6.322322e-001 -1.624570e+000 -7.407965e+000 147 126 65
-2.222049e+000 -1.882120e-001 -7.529544e+000 225 145 162
-8.302315e-001 -6.443102e-001 -8.710131e+000 98 77 66
-6.961543e-001 -7.017387e-001 -8.722071e+000 155 108 78
3.742135e-001 -6.162756e-001 -6.877545e+000 165 145 87
-7.497525e-001 -7.134406e-001 -8.667135e+000 103 75 66
-4.462703e+001 4.056187e+001 -9.061785e+001 193 201 212
-1.220248e+000 5.270749e+001 -6.161082e+000 121 128 139
-3.112026e+000 5.261931e+001 -2.162313e+000 74 65 73
-3.408636e+000 5.769240e+001 -6.827708e+000 64 57 64
-1.419949e+000 2.748285e+001 -1.046284e+001 113 93 86
-2.424084e+000 4.960682e+001 -2.190886e+000 50 40 49
-2.725790e+000 5.131993e+001 -2.626343e+000 84 77 84
-1.963520e+000 4.995136e+001 -3.307195e+000 41 38 45
-2.301547e+000 5.007188e+001 -3.730863e+000 97 92 99
-3.772298e+000 5.826405e+001 -6.252292e+000 97 92 98
-2.867799e+000 5.063612e+001 -6.757071e+000 103 98 104
-3.941331e+000 5.757800e+001 -7.568732e+000 77 68 73
-7.095775e+000 5.776817e+001 -3.800744e+000 93 90 100
-2.244280e+000 4.640110e+001 -6.655166e+000 54 53 59
4.199710e-001 4.972012e+001 -3.337808e+000 149 158 173
4.199710e-001 4.972012e+001 -3.337808e+000 149 158 173
-2.999101e+000 5.610375e+001 -3.823052e+000 94 87 95
-1.639691e+000 -1.058745e+000 -7.734784e+000 159 125 90
-2.071458e+000 -7.894639e-001 -7.850207e+000 152 118 81
-1.321279e+000 -3.549682e-001 -8.852561e+000 118 96 83
-9.192437e-001 -1.463775e+000 -7.552937e+000 142 114 75
-7.248684e-001 -1.408904e+000 -7.726123e+000 138 108 70
-1.063910e+000 -6.199470e-001 -8.626395e+000 74 60 56
8.370041e-002 -5.261754e-001 -9.266279e+000 86 66 43
-2.827279e+000 5.126527e+001 -1.976777e+000 93 88 95
-2.911240e+000 5.325766e+001 -2.549579e+000 99 96 105
-8.468890e-001 -1.614107e+000 -7.293957e+000 138 125 63
1.091716e-001 3.694661e+001 5.961742e-001 69 58 56
2.034832e-001 3.674201e+001 2.248141e-001 101 84 79
-4.099005e+000 5.888206e+001 -5.427358e+000 93 90 97
5.927135e-001 -6.621840e-001 -9.537037e+000 141 129 115
-3.392893e+000 5.093228e+001 -1.506680e+000 108 102 112
6.710642e-001 -5.978649e-001 -9.339339e+000 66 63 51
-1.340251e+000 4.790072e+001 -1.829879e+000 43 37 49
1.217306e+000 -1.513770e+000 -8.292406e+000 70 60 44
1.164112e+000 -1.569316e+000 -8.361553e+000 100 89 67
1.031976e-001 -7.395924e-001 -9.005745e+000 104 77 50
6.448041e-001 -1.145268e+000 -7.578959e+000 96 88 51
-1.542065e+000 -1.540535e+000 -7.141545e+000 117 101 67
-5.726356e-002 -1.529882e+000 -7.912873e+000 139 129 96
-1.738725e-001 -1.414432e+000 -7.986701e+000 156 138 115
-2.283744e-001 -1.271039e+000 -8.151967e+000 160 134 118
-2.256227e-001 -1.245122e+000 -8.192372e+000 158 136 117
-1.112272e-001 -1.217649e+000 -8.276109e+000 83 72 48
-1.179532e-001 -1.229831e+000 -8.276783e+000 83 72 48
-1.727943e+000 -1.053494e+000 -7.680934e+000 131 123 91
-1.866462e+000 -9.961696e-001 -7.680238e+000 68 74 44
-1.771471e+000 -9.845047e-001 -7.756887e+000 83 82 51
-2.028522e+000 -8.296989e-001 -7.812629e+000 68 79 49
-1.515527e+000 -8.376055e-001 -8.073626e+000 158 129 115
-1.253060e+000 -8.662233e-001 -8.186040e+000 93 73 63
-1.171899e+000 -8.651498e-001 -8.235384e+000 136 116 105
5.832053e-001 -5.561567e-001 -9.437546e+000 103 95 82
-9.132673e-001 -6.828933e-001 -8.606537e+000 69 54 47
-1.180753e+000 -3.083417e-001 -8.941249e+000 108 87 70
-1.179263e+000 -3.093105e-001 -8.939856e+000 108 87 70
-2.100359e+000 -1.827806e-002 -8.824012e+000 126 117 78
-2.100927e+000 -1.758944e-002 -8.823294e+000 126 117 78
-1.957721e+000 1.253021e-001 -9.061709e+000 83 81 51
3.919052e-002 -1.543101e+000 -7.920666e+000 85 90 62
-1.624535e+000 -1.542957e+000 -7.098230e+000 118 104 63
-1.577874e+000 -1.497876e+000 -7.117890e+000 121 104 63
-1.660709e+000 -1.490296e+000 -7.147370e+000 125 106 70
-9.711634e-001 -1.480416e+000 -7.527615e+000 148 119 74
-1.668046e+000 -1.402368e+000 -7.169573e+000 91 76 45
-1.668046e+000 -1.402368e+000 -7.169573e+000 91 76 45
-1.593088e+000 -1.386218e+000 -7.317700e+000 141 115 70
-1.101941e+000 -1.287374e+000 -7.582410e+000 153 117 71
-1.704464e+000 -1.081568e+000 -7.670412e+000 59 67 41
-6.389543e-001 -8.251261e-001 -8.562170e+000 90 66 51
-1.696318e-001 -3.094699e-001 -9.574894e+000 96 80 57
-2.033056e+000 -2.769738e-002 -8.855382e+000 153 125 77
2.515691e+000 3.447608e+001 8.239530e-001 78 72 74
-1.386221e+000 -1.292265e+000 -6.706094e+000 104 95 56
-1.434250e+000 -1.452675e+000 -6.784899e+000 93 85 54
2.662490e-001 -1.359342e+000 -7.577522e+000 125 110 67
-1.274694e+000 -1.511969e+000 -7.325728e+000 88 68 35
-1.172727e+000 -1.413485e+000 -7.374092e+000 92 67 37
-1.034675e+000 -1.557497e+000 -7.381773e+000 103 79 48
-1.034675e+000 -1.557497e+000 -7.381773e+000 103 79 48
-8.971316e-001 -1.505806e+000 -7.524290e+000 112 89 57
-6.042112e-001 -1.494169e+000 -7.684011e+000 106 85 53
-1.290873e-001 -1.440333e+000 -7.992296e+000 106 90 73
-1.290873e-001 -1.440333e+000 -7.992296e+000 106 90 73
-1.555132e+000 -1.435344e+000 -7.274500e+000 130 106 69
-1.509143e+000 -1.432584e+000 -7.297910e+000 131 105 65
-1.415602e+000 -1.455906e+000 -7.317701e+000 105 78 49
-1.006092e+000 -1.454739e+000 -7.532340e+000 124 97 67
-7.055866e-001 -1.389873e+000 -7.772838e+000 121 100 69
-4.406479e-001 -1.420648e+000 -7.842449e+000 87 70 41
-3.830157e-002 -1.122569e+000 -8.439671e+000 86 86 58
-1.854554e+000 -9.476656e-001 -7.749693e+000 161 128 87
-7.760819e-001 -8.983176e-001 -8.387133e+000 156 133 115
1.661770e-001 -7.850990e-001 -8.990026e+000 110 95 62
-1.462923e+000 -8.307326e-001 -8.132022e+000 122 95 84
3.779972e-002 -6.423261e-001 -9.108462e+000 99 72 51
-1.486169e-001 -2.583196e-001 -9.529778e+000 120 100 69
-5.068224e-002 -2.564800e-001 -9.587115e+000 117 98 69
1.448019e-001 -5.699432e-001 -6.706205e+000 125 109 84
1.597285e+000 3.700892e+001 -1.862308e+000 66 62 68
-1.661448e+000 -1.174869e-001 -6.417478e+000 209 197 142
-1.651364e+000 -1.562148e+000 -7.051345e+000 87 79 50
-1.798277e+000 -1.356492e+000 -7.165053e+000 94 80 51
-1.151295e+000 -1.400531e+000 -7.535483e+000 110 81 49
-5.137734e-001 -8.287145e-001 -8.619603e+000 154 115 84
-1.276889e+000 -8.212512e-001 -8.246572e+000 84 65 59
-2.408495e+000 1.238326e-001 -7.805927e+000 184 117 132
-2.407728e+000 8.068378e-002 -7.814586e+000 184 117 132
-1.376666e+000 -6.544444e-001 -8.417567e+000 101 78 71
-2.219151e+000 -4.473469e-001 -8.208370e+000 127 108 78
2.815181e-001 -8.682240e-002 -9.973558e+000 75 62 53
-1.389136e+000 1.623199e-001 -9.375955e+000 125 107 70
-1.027467e+000 -5.359710e-001 -6.092448e+000 95 91 82
1.692772e+000 -2.139848e-001 -7.189309e+000 209 209 201
-2.641398e-001 -1.630978e+000 -7.605605e+000 160 140 77
-3.139789e-001 -1.302678e+000 -8.195758e+000 160 134 113
-9.765244e-001 -5.012170e-001 -8.794019e+000 82 61 58
-1.373981e+000 -2.953923e-001 -8.849004e+000 167 132 110
2.482303e-001 5.868665e-001 -1.060542e+001 168 157 142
9.642598e-001 3.375750e+001 3.145541e+000 108 97 88
1.161784e+000 3.388469e+001 2.574545e+000 59 50 53
1.162096e+000 3.391536e+001 2.583744e+000 59 50 53
-1.275691e+000 -5.800002e-001 -8.644137e+000 97 77 70
-8.524637e-001 -5.190825e-001 -8.829649e+000 146 106 78
1.447111e+000 3.315396e+001 3.262906e+000 59 53 53
1.464398e+000 3.324799e+001 3.292512e+000 59 53 53
-9.641762e-001 -8.496816e-001 -8.354881e+000 115 91 81
5.654009e-001 -4.483545e-001 -9.532733e+000 57 54 40
4.781501e-002 5.937252e-001 -1.050836e+001 104 103 83
1.688425e+000 3.234612e+001 4.225666e+000 56 47 48
1.600665e+000 3.373114e+001 2.895335e+000 110 100 91
1.149561e+000 3.424724e+001 2.111529e+000 104 95 87
1.874411e+000 3.301173e+001 3.717431e+000 110 100 88
1.707164e-001 3.336674e+001 3.784036e+000 66 56 55
1.707164e-001 3.336674e+001 3.784036e+000 66 56 55
1.023029e+000 3.302195e+001 3.930870e+000 103 89 80
-1.677106e+000 3.410700e+001 2.689794e+000 64 58 62
-8.935262e-001 3.401148e+001 3.391590e+000 107 99 94
-8.935262e-001 3.401148e+001 3.391590e+000 107 99 94
-1.487896e+000 -6.274810e-001 -8.533957e+000 167 125 82
-2.706060e+000 3.997349e-001 -8.901290e+000 115 103 65
-2.030268e+000 -7.348491e-001 -7.809403e+000 142 114 80
-1.674409e+000 -1.392421e+000 -7.110860e+000 109 96 62
-9.195286e-001 -1.082705e+000 -8.060796e+000 169 137 111
-1.128499e+000 -7.360708e-001 -8.507758e+000 70 56 53
-6.715990e-002 1.367916e-001 -1.004331e+001 94 89 69
2.014612e-002 -1.520864e+000 -7.935983e+000 145 144 120
7.379905e-002 -1.473345e+000 -8.032673e+000 76 81 55
-1.320478e+000 -1.581699e+000 -7.236977e+000 108 84 48
-2.526969e-001 -1.075811e+000 -8.423232e+000 108 104 75
-2.661522e-001 -1.006598e+000 -8.489173e+000 164 151 124
-1.043712e+000 -4.259838e-001 -8.855962e+000 103 82 65
-1.156835e+000 -1.580057e+000 -7.333728e+000 110 87 53
-9.450474e-001 -1.507179e+000 -7.506907e+000 110 88 51
-1.656345e+000 -1.068078e+000 -7.684568e+000 178 149 107
-7.720477e-002 -4.497971e-001 -9.297617e+000 116 86 48
-1.592771e+000 -1.575157e+000 -7.084843e+000 98 84 49
-1.414677e+000 -1.571190e+000 -7.185510e+000 110 91 51
3.605845e+000 3.071468e+001 5.945904e+000 104 94 95
2.869772e+000 3.177237e+001 4.684238e+000 109 97 96
-2.111307e+000 -7.429451e-001 -7.887508e+000 83 93 58
-9.233458e-001 -7.900034e-001 -8.462251e+000 139 107 84
-1.206676e+000 -5.538538e-001 -8.609286e+000 112 93 79
-1.271747e+000 -3.360988e-001 -8.835486e+000 159 132 121
-1.462556e-001 -1.392126e+000 -8.036431e+000 168 150 127
-2.519507e-001 -1.239049e+000 -8.176982e+000 173 150 127
-2.519507e-001 -1.239049e+000 -8.176982e+000 173 150 127
-2.117567e+000 -6.525568e-001 -8.006314e+000 139 118 79
3.133777e+000 2.998353e+001 6.561993e+000 91 86 80
-9.090963e-001 -6.626544e-001 -8.707684e+000 95 76 67
-2.079190e+000 -5.253187e-002 -8.800592e+000 108 110 71
7.336824e-001 3.197844e+001 4.531318e+000 74 69 70
-3.391173e+000 5.588882e+001 -2.944205e+000 98 91 98
-4.571426e+000 4.945341e+001 2.094848e+000 93 86 98
-2.853738e-001 5.526141e+001 -4.893753e+000 68 71 86
-1.666704e+000 -1.533615e+000 -7.079324e+000 114 100 65
-1.666704e+000 -1.533615e+000 -7.079324e+000 114 100 65
-1.479902e+000 -1.500170e+000 -7.221681e+000 130 109 69
-1.485351e+000 -1.376127e+000 -7.370211e+000 141 112 69
-1.867497e+000 -9.996379e-001 -7.679559e+000 68 74 44
-6.961448e-001 -7.383674e-001 -8.648230e+000 126 97 79
-1.313867e+000 -6.478026e-001 -8.438966e+000 92 72 65
-2.252662e+000 -3.916745e-001 -8.268211e+000 92 74 41
-2.335462e-001 -1.775262e-001 -9.560009e+000 122 105 75
-1.035027e+000 -1.527024e+000 -7.416017e+000 139 115 70
-9.691683e-001 -1.476903e+000 -7.525674e+000 148 119 74
-3.983604e-001 -1.484898e+000 -7.791509e+000 90 77 45
-3.840699e-001 -1.459240e+000 -7.830969e+000 115 100 67
-1.697533e+000 -1.408099e+000 -7.228100e+000 95 78 48
-1.697533e+000 -1.408099e+000 -7.228100e+000 95 78 48
-1.275741e+000 -1.393242e+000 -7.460522e+000 112 82 49
-3.368195e+000 5.449798e+001 -2.888657e+000 106 99 107
-1.513510e+000 -1.573594e+000 -7.127988e+000 89 73 40
-1.513510e+000 -1.573594e+000 -7.127988e+000 89 73 40
-1.360938e+000 -1.485850e+000 -7.315618e+000 136 110 69
-9.871532e-001 -1.501091e+000 -7.477878e+000 115 91 55
-4.619255e-001 -1.379054e+000 -7.905204e+000 120 100 72
-4.090505e+000 2.856275e+001 -8.496295e+000 78 69 72
-2.580883e-002 -1.203825e-001 -9.716202e+000 81 68 51
-3.569074e-001 1.342643e-001 -9.895984e+000 124 110 84
-9.382991e-001 5.904809e-001 -1.006055e+001 239 237 238
1.610108e+000 3.713621e+001 -1.848645e+000 66 62 68
-3.946332e+000 4.950969e+001 2.237173e+000 73 70 77
-3.301836e+000 5.743610e+001 -6.357561e+000 105 98 106
-3.931220e+000 4.654936e+001 2.214906e+000 68 63 70
-1.423896e+000 3.371049e+001 3.570054e+000 68 66 66
-4.394270e+000 4.917438e+001 2.827514e+000 129 123 133
-4.148335e+000 4.791868e+001 1.142347e+000 97 93 107
-1.632551e+000 -5.113783e-001 -6.429807e+000 218 216 142
-7.495720e-001 -1.482886e+000 -7.232413e+000 157 141 97
-1.753917e+000 -1.572550e+000 -6.995880e+000 126 118 72
-2.288391e-001 -1.589509e+000 -7.696739e+000 118 113 73
-1.587396e+000 -1.499124e+000 -7.183957e+000 128 110 72
-1.097983e+000 -1.374130e+000 -7.429553e+000 113 85 45
-9.136807e-001 -1.535009e+000 -7.494100e+000 146 123 82
-1.835825e-002 -1.444902e+000 -7.958232e+000 156 145 125
-1.835825e-002 -1.444902e+000 -7.958232e+000 156 145 125
-3.072076e-001 -1.320328e+000 -7.938045e+000 132 114 74
-8.913678e-002 -1.363458e+000 -8.071769e+000 156 142 114
-2.065618e+000 -1.301977e+000 -7.371393e+000 146 119 72
-9.017518e-002 -1.292716e+000 -8.146006e+000 122 123 92
3.117322e-003 -1.274175e+000 -8.266387e+000 162 156 130
-1.801566e-001 -1.237620e+000 -8.213760e+000 167 146 128
-1.835255e+000 -1.048103e+000 -7.702812e+000 110 92 54
-1.616351e+000 -1.101451e+000 -7.681171e+000 182 144 96
-1.687649e+000 -1.087044e+000 -7.731331e+000 107 92 57
-2.205992e+000 -3.918875e-001 -7.464986e+000 229 135 140
-1.930581e+000 -9.713204e-001 -7.752362e+000 92 93 58
-2.089394e-001 -9.822341e-001 -8.539528e+000 146 124 74
-2.269168e+000 -2.596390e-001 -7.596193e+000 221 125 135
-1.410265e+000 -8.607344e-001 -8.221685e+000 97 72 66
-1.410265e+000 -8.607344e-001 -8.221685e+000 97 72 66
-1.150229e+000 -7.975838e-001 -8.327419e+000 115 95 88
-8.801714e-001 -8.361519e-001 -8.422293e+000 95 72 63
-8.602893e-001 -8.103016e-001 -8.448216e+000 139 111 97
-7.378145e-001 -8.109472e-001 -8.503082e+000 126 107 92
-2.149418e+000 -7.857827e-001 -7.880647e+000 75 83 51
-1.293059e+000 -6.958419e-001 -8.399866e+000 117 97 88
-1.262898e+000 -6.864888e-001 -8.424825e+000 84 62 56
-2.398675e+000 1.158929e-001 -7.750095e+000 154 88 91
-2.396601e+000 3.082894e-002 -7.772824e+000 229 211 208
-1.414825e+000 -6.573074e-001 -8.357013e+000 162 133 119
-1.408076e+000 -6.235615e-001 -8.420722e+000 152 124 112
-1.249291e+000 -7.102499e-001 -8.451556e+000 103 79 69
-1.216803e+000 -6.393731e-001 -8.496399e+000 79 59 52
-9.083284e-001 -6.750642e-001 -8.605134e+000 74 57 55
-1.400660e+000 -5.289453e-001 -8.547008e+000 149 117 101
-2.222186e+000 -4.232477e-001 -8.258335e+000 166 139 88
-2.225505e+000 -4.306714e-001 -8.260515e+000 166 139 88
-2.256495e+000 -4.021472e-001 -8.271625e+000 103 87 53
-2.236961e+000 -3.952629e-001 -8.299769e+000 165 139 94
-1.312517e+000 -3.241253e-001 -8.861268e+000 124 98 84
-1.127911e+000 -3.435455e-001 -8.917711e+000 130 108 87
-6.193725e-002 -3.105172e-001 -9.381114e+000 130 105 67
-1.281000e-001 -3.168059e-001 -9.400803e+000 132 108 72
-1.281000e-001 -3.168059e-001 -9.400803e+000 132 108 72
2.656116e-002 -3.964962e-001 -9.381547e+000 105 81 53
5.721140e-002 -3.515106e-001 -9.383122e+000 105 81 53
-2.233452e+000 -3.193488e-001 -8.414514e+000 155 135 87
-2.184881e+000 -1.502034e-001 -8.636000e+000 156 132 89
-2.055836e+000 -1.222648e-001 -8.795324e+000 84 83 49
-2.057407e+000 -7.568708e-002 -8.813635e+000 167 146 97
-2.057407e+000 -7.568708e-002 -8.813635e+000 167 146 97
-3.051450e-001 -3.095046e-002 -9.689422e+000 136 112 77
3.192933e-001 -9.685864e-002 -9.907053e+000 123 114 95
2.979349e-001 -1.295266e-001 -9.902909e+000 123 114 95
-2.720470e+000 1.091039e+000 -8.299770e+000 159 146 121
-2.153988e+000 -1.206113e-002 -8.803267e+000 83 88 51
-2.153988e+000 -1.206113e-002 -8.803267e+000 83 88 51
-2.131284e+000 -1.340602e-001 -8.801605e+000 75 83 54
-1.958775e+000 4.151929e-002 -8.979030e+000 93 85 48
-1.962029e+000 2.834154e-002 -8.981343e+000 93 85 48
-1.924622e+000 -6.949506e-002 -9.036583e+000 169 132 78
-1.011250e+000 5.630516e-002 -9.471033e+000 151 131 81
-1.012584e+000 5.324613e-002 -9.468007e+000 151 131 81
-2.053501e+000 1.056545e-001 -9.026327e+000 85 84 49
-2.058421e+000 9.811575e-002 -9.028031e+000 85 84 49
-1.970419e+000 8.301342e-002 -9.062194e+000 80 91 64
-1.862870e+000 1.480171e-001 -9.156998e+000 92 95 59
-1.862870e+000 1.480171e-001 -9.156998e+000 92 95 59
-1.694126e+000 1.407517e-001 -9.202155e+000 86 90 66
-1.694126e+000 1.407517e-001 -9.202155e+000 86 90 66
-1.135186e+000 1.147413e-001 -9.472974e+000 119 100 54
-4.617083e-001 3.085667e-001 -9.979294e+000 126 113 81
-3.616982e-001 -6.365974e-001 -6.492293e+000 192 175 148
-1.705896e+000 -3.632106e-001 -6.502908e+000 139 127 90
-1.327436e+000 -1.598265e+000 -7.242856e+000 108 84 48
-1.319314e+000 -1.540199e+000 -7.266483e+000 146 123 81
-1.747497e+000 -3.055011e-001 -6.578541e+000 146 130 111
-1.823888e+000 -1.448059e+000 -7.121101e+000 127 113 70
-1.823888e+000 -1.448059e+000 -7.121101e+000 127 113 70
-1.787523e+000 -1.468436e+000 -7.116997e+000 102 88 53
-1.542478e+000 -1.494631e+000 -7.213692e+000 144 120 78
-1.544401e+000 -1.499992e+000 -7.216304e+000 144 120 78
-1.430072e+000 -1.495651e+000 -7.283957e+000 151 127 81
-1.430072e+000 -1.495651e+000 -7.283957e+000 151 127 81
-1.371782e+000 -1.433175e+000 -7.375309e+000 158 127 80
-1.371782e+000 -1.433175e+000 -7.375309e+000 158 127 80
-1.221298e+000 -1.431583e+000 -7.455565e+000 154 126 79
-1.222114e+000 -1.431236e+000 -7.454950e+000 154 126 79
-1.140381e+000 -1.528689e+000 -7.373186e+000 150 123 78
-1.091717e+000 -1.480097e+000 -7.456725e+000 158 127 83
-1.125877e+000 -1.491595e+000 -7.496089e+000 123 95 57
-9.680515e-001 -1.481551e+000 -7.531806e+000 149 126 79
-9.710060e-001 -1.484319e+000 -7.532318e+000 149 126 79
-8.684516e-001 -1.529991e+000 -7.507384e+000 150 126 82
-8.665801e-001 -1.527235e+000 -7.507783e+000 150 126 82
-7.787972e-001 -1.476210e+000 -7.625585e+000 150 123 76
-5.941096e-001 -1.468854e+000 -7.721062e+000 139 117 76
-5.941096e-001 -1.468854e+000 -7.721062e+000 139 117 76
-2.931171e-001 -1.547623e+000 -7.730777e+000 116 108 69
-3.672802e-001 -1.504702e+000 -7.767909e+000 124 110 71
-3.029869e-001 -1.509894e+000 -7.805539e+000 117 109 71
1.018732e-001 -1.515721e+000 -7.938101e+000 121 128 100
1.920466e-001 -1.524875e+000 -7.963753e+000 122 129 98
-1.488697e+000 -1.378455e+000 -7.376072e+000 159 129 77
-1.136657e+000 -1.422443e+000 -7.499190e+000 159 131 83
-1.113692e+000 -1.439333e+000 -7.523260e+000 155 127 80
-1.113692e+000 -1.439333e+000 -7.523260e+000 155 127 80
-1.107523e+000 -1.411749e+000 -7.557664e+000 112 82 44
-1.231084e+000 -1.439316e+000 -7.544440e+000 167 133 79
-8.200948e-001 -1.415146e+000 -7.667855e+000 147 116 71
-6.237154e-001 -1.412784e+000 -7.777218e+000 144 117 74
-6.244599e-001 -1.414464e+000 -7.777959e+000 144 117 74
-3.750082e-001 -1.450586e+000 -7.828700e+000 131 113 77
-3.837194e-001 -1.458465e+000 -7.830045e+000 131 113 77
-3.234993e-001 -1.456392e+000 -7.863954e+000 123 111 71
-3.234993e-001 -1.456392e+000 -7.863954e+000 123 111 71
-4.109576e-001 -1.402832e+000 -7.887150e+000 138 118 81
-3.645235e-002 -1.406923e+000 -8.059277e+000 158 146 119
-2.125979e+000 -4.255741e-001 -7.291279e+000 236 222 214
-1.663008e+000 -1.110351e+000 -7.746619e+000 184 145 106
-2.918277e-001 -1.053757e+000 -8.423419e+000 167 153 131
-1.943895e-001 -1.043704e+000 -8.472831e+000 138 133 104
-2.171826e+000 -1.229728e-001 -7.356876e+000 198 108 116
-2.171826e+000 -1.229728e-001 -7.356876e+000 198 108 116
-1.949609e+000 -9.100470e-001 -7.775150e+000 75 84 57
-3.849762e-001 -9.804015e-001 -8.482736e+000 107 90 73
-3.318321e-001 -9.543262e-001 -8.510035e+000 173 147 126
-2.245734e+000 -1.300055e-001 -7.518605e+000 241 219 216
-2.004835e+000 -8.658266e-001 -7.808496e+000 81 83 60
-1.014630e+000 -7.090484e-001 -8.494334e+000 75 58 51
-2.193179e+000 -5.929998e-001 -8.114674e+000 168 137 91
-1.371763e+000 -6.156840e-001 -8.501270e+000 116 88 73
6.250569e-001 -8.118765e-001 -9.550200e+000 83 70 56
-2.407480e+000 1.561823e-001 -7.845990e+000 182 107 102
-2.217582e+000 -5.372610e-001 -8.115201e+000 116 93 55
-1.371461e+000 -4.710788e-001 -8.599172e+000 137 113 101
-1.262111e+000 -5.405253e-001 -8.617950e+000 92 72 63
-1.207998e+000 -4.388965e-001 -8.763621e+000 126 103 85
2.144770e-002 -5.102159e-001 -9.192515e+000 112 79 46
-1.049065e+000 -3.863660e-001 -8.887207e+000 166 142 115
-4.503847e-003 -2.814334e-001 -9.528497e+000 123 99 70
1.239200e-001 -1.851980e-001 -9.672513e+000 92 82 59
-2.120316e+000 1.535952e-002 -8.865579e+000 73 84 45
-1.915326e+000 6.244032e-002 -9.031120e+000 91 91 60
-2.052954e+000 1.050685e-001 -8.987372e+000 158 127 73
-1.908406e+000 8.310602e-002 -9.068057e+000 153 127 75
-1.908406e+000 8.310602e-002 -9.068057e+000 153 127 75
-1.897221e+000 2.552979e-003 -9.078683e+000 90 84 54
-1.787132e+000 9.070628e-002 -9.149988e+000 89 84 63
-1.787132e+000 9.070628e-002 -9.149988e+000 89 84 63
-1.819137e+000 1.506094e-001 -9.180395e+000 78 91 67
-1.819827e+000 1.507040e-001 -9.180346e+000 78 91 67
-4.699471e-001 5.079531e-001 -1.005495e+001 132 122 83
2.702088e-001 8.070725e-001 -1.052630e+001 174 161 145
-6.484424e-001 -9.598406e-001 -6.658664e+000 189 174 143
-8.581759e-001 -1.553624e+000 -7.197177e+000 175 162 119
-1.704312e+000 -5.002047e-001 -6.540654e+000 223 217 149
-1.793209e+000 -1.523853e+000 -7.041280e+000 93 83 48
-1.724764e+000 -1.556446e+000 -7.046404e+000 126 114 69
-1.734179e+000 -1.530048e+000 -7.076271e+000 93 82 53
-1.734179e+000 -1.530048e+000 -7.076271e+000 93 82 53
-1.589308e+000 -1.544177e+000 -7.117244e+000 127 112 71
-1.592630e+000 -1.552311e+000 -7.120373e+000 127 112 71
-1.566079e+000 -1.586590e+000 -7.108101e+000 98 84 49
-1.507791e+000 -1.518847e+000 -7.202760e+000 114 94 55
-1.355975e+000 -1.562782e+000 -7.256674e+000 145 122 78
-1.213305e+000 -1.566754e+000 -7.293425e+000 105 83 48
-7.813080e-001 -1.618785e+000 -7.506466e+000 145 125 77
-3.716967e-001 -1.588408e+000 -7.662378e+000 96 87 52
-1.719941e+000 -1.739111e-001 -6.495707e+000 226 210 150
-1.830627e+000 -1.599848e+000 -7.116527e+000 127 114 70
-1.726834e+000 -1.520642e+000 -7.126453e+000 132 117 75
-1.530821e+000 -1.473092e+000 -7.259061e+000 113 91 53
-1.387130e+000 -1.472843e+000 -7.248057e+000 111 89 50
-1.319113e+000 -1.449604e+000 -7.264619e+000 109 87 50
-1.319113e+000 -1.449604e+000 -7.264619e+000 109 87 50
-1.386662e+000 -1.482021e+000 -7.295916e+000 146 122 78
-1.342448e+000 -1.472599e+000 -7.366119e+000 109 86 45
-1.342448e+000 -1.472599e+000 -7.366119e+000 109 86 45
-1.308590e+000 -1.493600e+000 -7.344913e+000 154 125 81
-1.252966e+000 -1.487541e+000 -7.374719e+000 155 122 80
-1.119731e+000 -1.509599e+000 -7.407527e+000 117 90 55
-1.061474e+000 -1.509293e+000 -7.441953e+000 108 82 47
-1.058738e+000 -1.504455e+000 -7.440265e+000 108 82 47
-9.983821e-001 -1.535785e+000 -7.439134e+000 144 120 72
-9.532267e-001 -1.534686e+000 -7.467980e+000 149 123 74
-9.373833e-001 -1.496100e+000 -7.502404e+000 110 88 51
-1.045880e+000 -1.498850e+000 -7.492686e+000 151 124 79
-1.045880e+000 -1.498850e+000 -7.492686e+000 151 124 79
-9.192098e-001 -1.476337e+000 -7.552397e+000 158 128 76
-9.190748e-001 -1.476033e+000 -7.552234e+000 158 128 76
-9.553986e-001 -1.455213e+000 -7.573108e+000 121 93 54
-9.553986e-001 -1.455213e+000 -7.573108e+000 121 93 54
-7.718426e-001 -1.564854e+000 -7.537584e+000 113 92 62
-7.913625e-001 -1.519594e+000 -7.548252e+000 144 122 74
-8.348309e-001 -1.497750e+000 -7.564640e+000 114 90 54
-8.375859e-001 -1.501713e+000 -7.565732e+000 114 90 54
-6.736418e-001 -1.519772e+000 -7.607756e+000 143 118 77
-6.686044e-001 -1.513563e+000 -7.606418e+000 143 118 77
-5.718124e-001 -1.541732e+000 -7.628867e+000 102 81 48
-6.077065e-001 -1.506313e+000 -7.637788e+000 139 119 76
-7.260401e-001 -1.493093e+000 -7.616991e+000 117 94 55
-7.260401e-001 -1.493093e+000 -7.616991e+000 117 94 55
-6.700372e-001 -1.488026e+000 -7.643595e+000 114 94 59
-6.473351e-001 -1.471043e+000 -7.690910e+000 140 119 76
-4.679403e-001 -1.538036e+000 -7.689404e+000 101 88 54
-5.238673e-001 -1.461372e+000 -7.756970e+000 132 111 74
-5.238673e-001 -1.461372e+000 -7.756970e+000 132 111 74
-4.901712e-001 -1.489729e+000 -7.739502e+000 103 87 54
-3.344008e-001 -1.523701e+000 -7.697663e+000 119 106 71
-3.400108e-001 -1.539337e+000 -7.755385e+000 83 76 44
-3.378164e-001 -1.537093e+000 -7.755236e+000 83 76 44
-2.277958e-001 -1.524725e+000 -7.753660e+000 117 110 71
-3.931435e-001 -1.479079e+000 -7.791134e+000 102 88 53
-3.977838e-001 -1.484529e+000 -7.792208e+000 102 88 53
-2.441949e-001 -1.522377e+000 -7.796673e+000 99 93 57
1.116521e-001 -1.560071e+000 -7.901893e+000 88 101 69
1.284929e-001 -1.521868e+000 -7.975637e+000 73 95 74
1.260643e-001 -1.479828e+000 -8.008976e+000 167 158 138
4.071176e+000 3.020005e+001 5.668891e+000 74 66 64
-1.555442e+000 -1.417465e+000 -7.320733e+000 110 89 49
-1.486825e+000 -1.407888e+000 -7.348427e+000 108 84 48
-1.402362e+000 -1.412541e+000 -7.396429e+000 107 81 46
-1.050548e+000 -1.439612e+000 -7.558227e+000 161 130 82
-1.050548e+000 -1.439612e+000 -7.558227e+000 161 130 82
-8.126430e-001 -1.452886e+000 -7.645177e+000 102 78 44
-8.126430e-001 -1.452886e+000 -7.645177e+000 102 78 44
-6.913579e-001 -1.439935e+000 -7.702509e+000 115 90 54
-6.913579e-001 -1.439935e+000 -7.702509e+000 115 90 54
-7.234401e-001 -1.418497e+000 -7.729103e+000 143 114 70
-7.207415e-001 -1.413386e+000 -7.727460e+000 143 114 70
-6.401268e-001 -1.438008e+000 -7.738135e+000 101 81 46
-6.401268e-001 -1.438008e+000 -7.738135e+000 101 81 46
-6.768325e-001 -1.416783e+000 -7.751599e+000 144 120 75
-6.766287e-001 -1.415790e+000 -7.750999e+000 144 120 75
-6.058878e-001 -1.369533e+000 -7.812784e+000 100 76 50
-5.701000e-001 -1.412025e+000 -7.806930e+000 141 117 79
-5.678076e-001 -1.381132e+000 -7.841883e+000 100 83 50
-4.834450e-001 -1.408537e+000 -7.848611e+000 140 123 79
-5.985234e-002 -1.493990e+000 -8.039241e+000 152 141 119
-2.258979e-001 -1.096542e+000 -8.393870e+000 172 157 135
-2.258979e-001 -1.096542e+000 -8.393870e+000 172 157 135
-1.861532e+000 -9.556212e-001 -7.746915e+000 172 143 99
-2.235657e+000 -1.177982e-001 -7.458870e+000 203 92 106
-2.005466e+000 -8.350453e-001 -7.846574e+000 185 147 99
-2.005466e+000 -8.350453e-001 -7.846574e+000 185 147 99
-1.963229e+000 -9.061644e-001 -7.817927e+000 179 143 99
-1.960363e+000 -8.516278e-001 -7.847923e+000 86 88 65
-1.332898e+000 -9.015601e-001 -8.165591e+000 101 79 68
-8.777341e-001 -8.961174e-001 -8.355322e+000 158 136 113
1.932746e-001 -8.433394e-001 -8.936019e+000 113 99 65
-2.225393e+000 8.889038e-001 -7.326114e+000 143 129 121
-2.263200e+000 -2.521824e-002 -7.522229e+000 204 104 110
-1.412280e+000 -7.420439e-001 -8.265377e+000 100 76 66
-5.975953e-001 -7.425863e-001 -8.676589e+000 163 117 81
1.671556e-001 -6.915874e-001 -9.111150e+000 89 72 46
-2.326101e+000 -1.593936e-002 -7.700688e+000 216 122 137
-1.293381e+000 -6.214380e-001 -8.473414e+000 130 108 95
-1.296251e+000 -6.271311e-001 -8.475510e+000 130 108 95
2.644789e+000 3.402829e+001 6.314521e-001 42 37 41
4.416744e-002 -2.495083e-001 -9.438952e+000 101 79 51
1.212545e-001 -3.006086e-001 -9.472272e+000 80 65 43
7.581471e-002 -2.557717e-001 -9.542190e+000 71 57 38
-8.336139e-002 -1.115273e-001 -9.689787e+000 124 105 75
-1.308252e-001 -5.914126e-002 -9.751752e+000 117 101 68
3.948816e-002 -1.123762e-001 -9.715776e+000 111 94 69
1.108891e-002 -1.535475e-001 -9.715061e+000 111 94 69
6.459218e-002 9.382859e-002 -9.861778e+000 89 77 51
-2.017391e+000 -3.493138e-003 -8.915622e+000 83 88 58
-2.129502e+000 4.869456e-002 -8.911236e+000 153 124 79
-2.069927e+000 6.085081e-002 -8.944980e+000 77 91 64
-2.074927e+000 4.525177e-002 -8.947865e+000 77 91 64
-2.147565e-001 1.629855e-003 -9.784898e+000 104 87 60
-1.550971e-001 4.132857e-002 -9.888234e+000 98 84 57
-1.738124e+000 1.784744e-001 -9.245111e+000 89 95 61
-3.095890e-001 2.469956e-001 -9.987882e+000 92 80 58
-5.591823e-001 7.064208e-001 -1.026799e+001 229 223 213
-4.794514e-002 6.080001e-001 -1.052374e+001 237 236 229
5.169296e+000 2.822237e+001 7.603455e+000 83 73 71
-5.791638e-001 -1.668670e+000 -7.440620e+000 176 158 113
4.324668e+000 3.098492e+001 7.778712e+000 63 57 61
-1.714544e+000 -1.571849e+000 -7.008097e+000 95 85 50
-1.470252e+000 -1.578174e+000 -7.146002e+000 107 89 53
-1.709116e+000 -1.474967e+000 -7.163495e+000 110 94 61
-1.709116e+000 -1.474967e+000 -7.163495e+000 110 94 61
-1.597033e+000 -1.405898e+000 -7.275915e+000 110 91 58
-1.466860e+000 -1.462732e+000 -7.282444e+000 115 97 55
-1.194515e+000 -1.506909e+000 -7.369371e+000 116 92 56
-7.699379e-001 -1.385236e+000 -7.736690e+000 115 85 52
-9.605730e-002 -1.461529e+000 -7.957090e+000 161 145 119
-2.772795e-001 -1.204496e+000 -8.220128e+000 170 148 127
3.864821e-001 -1.220727e+000 -8.509222e+000 80 79 51
-1.860525e+000 -1.014608e+000 -7.709391e+000 75 88 59
-1.868600e+000 -8.685362e-001 -7.683286e+000 181 139 96
-2.077272e-001 -1.007505e+000 -8.503545e+000 94 99 68
-2.077272e-001 -1.007505e+000 -8.503545e+000 94 99 68
-1.110466e+000 -8.844099e-001 -8.234400e+000 165 143 122
-7.423055e-001 -6.945387e-001 -8.677279e+000 104 75 67
-2.594085e+000 3.377063e+001 3.940986e+000 132 124 121
-2.822259e+000 3.433458e+001 3.976455e+000 93 87 88
-2.335496e+000 3.358523e+001 3.811881e+000 100 92 89
-2.172677e+000 -5.911478e-001 -8.070591e+000 146 121 80
-9.196281e-001 -6.316829e-001 -8.678738e+000 74 61 50
8.395174e-001 3.426619e+001 1.821747e+000 86 76 74
-2.199093e+000 -4.927620e-001 -8.156761e+000 176 138 93
-2.218712e+000 -3.611407e-001 -8.335462e+000 155 133 95
-1.402288e+000 -4.117019e-001 -8.751775e+000 174 140 112
-1.253518e+000 -4.070451e-001 -8.790992e+000 107 83 73
-1.490696e-001 -2.588380e-001 -9.529833e+000 126 102 66
-2.854475e-001 -3.615807e-003 -9.765158e+000 130 108 71
-1.456153e+000 1.805152e-001 -9.346065e+000 117 102 59
-4.368871e-001 2.863947e-001 -9.942265e+000 101 87 58
2.568794e-001 -2.245593e+000 -1.084356e+001 245 238 232
1.036873e+001 3.550819e+001 1.212089e+001 123 106 96
9.300048e+000 3.258672e+001 9.996584e+000 129 116 103
8.335964e+000 3.049184e+001 8.498327e+000 66 56 50
4.345396e+000 2.916744e+001 7.741751e+000 60 53 52
5.301893e+000 3.137071e+001 7.821039e+000 72 62 60
-1.671324e+000 -1.403437e+000 -7.253340e+000 111 92 62
-6.323577e-002 3.168692e+001 6.475286e+000 100 96 95
-1.756810e-001 -1.139634e+000 -8.361046e+000 102 104 73
-1.030659e+000 3.290549e+001 5.161853e+000 75 71 72
8.457569e-001 3.387604e+001 3.718389e+000 85 77 72
-3.047567e+000 3.373044e+001 4.925689e+000 97 93 101
-1.381768e+000 -6.898100e-001 -8.347202e+000 120 93 86
-2.870357e+000 3.324237e+001 4.162461e+000 114 105 106
-2.533631e+000 3.366559e+001 3.613396e+000 138 130 127
-1.001644e+000 -6.271148e-001 -8.639546e+000 136 98 69
-2.397188e+000 1.426072e-001 -7.794821e+000 175 97 90
-2.220194e+000 -4.543153e-001 -8.212528e+000 128 111 71
-1.263956e+000 -5.048559e-001 -8.636974e+000 99 80 67
-2.229631e+000 -2.880967e-001 -8.435208e+000 129 109 66
-2.075980e-001 -2.143454e-001 -9.516003e+000 104 84 51
-4.588138e-001 6.584794e-001 -1.034372e+001 232 227 222
4.696367e+000 3.100700e+001 8.019982e+000 102 96 96
1.240652e+000 -1.531874e+000 -8.406470e+000 84 76 63
3.466085e+000 3.112585e+001 6.377589e+000 62 56 56
1.679542e+000 3.201161e+001 4.885027e+000 91 76 70
-2.152432e+000 -3.615692e-001 -7.337827e+000 219 123 128
-3.909136e-001 -8.484618e-001 -8.642486e+000 153 108 67
-1.999550e+000 3.448903e+001 3.925919e+000 122 111 109
6.566997e-001 -6.185990e-001 -9.518226e+000 160 145 126
-1.207677e+000 -3.479762e-001 -8.896129e+000 109 84 76
-1.907215e+000 7.409011e-002 -9.060649e+000 154 134 83
-2.909471e+000 4.232963e-001 -8.982200e+000 114 109 67
-2.909471e+000 4.232963e-001 -8.982200e+000 114 109 67
9.247166e+000 3.345792e+001 1.061487e+001 52 46 46
-1.764001e+000 -1.352515e+000 -7.251115e+000 152 130 87
5.097957e-001 3.249525e+001 7.149715e+000 77 71 73
4.459170e-001 3.144102e+001 6.060923e+000 111 103 101
-1.216681e+000 3.237841e+001 5.967342e+000 76 75 83
2.699823e+000 3.306458e+001 4.580873e+000 107 92 86
-1.140142e-001 -1.069395e+000 -8.455815e+000 129 128 97
-4.235193e-001 -7.234511e-001 -8.760012e+000 143 99 59
-4.183595e-001 -7.174449e-001 -8.756842e+000 143 99 59
-3.177717e+000 3.422832e+001 4.319839e+000 75 73 86
-2.565076e+000 1.411720e+000 -8.035034e+000 173 127 115
-1.239871e+000 -1.444879e+000 -6.848548e+000 161 148 113
-6.510962e-001 3.284764e+001 6.574442e+000 125 119 116
-2.215333e+000 -1.690108e-001 -7.458927e+000 243 196 195
-1.034037e+000 -4.027693e-001 -8.928624e+000 159 133 106
-8.844241e-001 -1.245286e+000 -6.894076e+000 159 144 111
-1.904508e+000 -1.085345e+000 -7.332741e+000 152 128 80
-7.540964e-001 3.213902e+001 5.472183e+000 133 129 120
-1.312811e+000 3.320399e+001 4.558392e+000 68 65 72
-1.312811e+000 3.320399e+001 4.558392e+000 68 65 72
-5.334837e-001 5.626215e-002 -9.533428e+000 163 127 75
2.609868e-001 -9.547160e-001 -9.914708e+000 194 179 158
-1.083424e+000 -6.805640e-001 -8.532047e+000 83 65 61
-3.501991e-001 -7.116189e-001 -9.019469e+000 160 123 69
9.657279e-001 -1.197380e+000 -9.397039e+000 194 182 160
1.276725e-001 6.503744e-001 -1.013220e+001 82 77 55
8.705953e-001 -1.062511e+000 -8.408647e+000 79 88 62
-2.015140e+000 -6.043335e-002 -8.819476e+000 98 79 46
1.765846e+000 3.449491e+001 -3.247114e+000 89 80 76
2.036877e+000 3.264238e+001 3.522099e+000 80 73 67
1.484521e+000 3.381321e+001 2.342075e+000 100 90 89
-2.051547e+000 -7.601727e-001 -7.884988e+000 157 122 83
-2.051547e+000 -7.601727e-001 -7.884988e+000 157 122 83
-7.065431e-001 -8.494605e-001 -8.480438e+000 98 73 66
-2.939171e+000 5.098864e-001 -8.890948e+000 208 222 200
2.530681e-001 3.393405e+001 1.098505e+000 70 60 58
6.222054e-001 3.023288e+001 7.190906e+000 89 81 78
3.032053e+000 3.100262e+001 5.091498e+000 89 78 74
1.049517e+000 4.834615e-001 -8.609271e+000 105 95 60
-1.530164e+000 -6.300071e-001 -6.208790e+000 173 170 111
-1.067155e+000 -1.537857e+000 -7.363046e+000 148 121 74
-6.245170e-001 -1.521507e+000 -7.608670e+000 101 81 49
-6.269769e-001 -1.523955e+000 -7.609465e+000 101 81 49
-5.278847e-002 -1.489631e+000 -7.929418e+000 108 104 71
-1.603330e+000 -1.439924e+000 -7.271876e+000 111 91 53
-1.208452e+000 -1.417300e+000 -7.483417e+000 114 85 37
-1.208452e+000 -1.417300e+000 -7.483417e+000 114 85 37
-7.808324e-001 -1.425086e+000 -7.708376e+000 156 125 81
2.338699e-002 -1.449895e+000 -7.995082e+000 95 100 74
2.338699e-002 -1.449895e+000 -7.995082e+000 95 100 74
4.331749e-002 -1.409187e+000 -8.022602e+000 92 98 72
5.682907e-002 -1.440494e+000 -8.032159e+000 166 161 134
-1.349635e+000 -1.408724e+000 -7.427572e+000 160 128 80
-1.012716e+000 -1.417628e+000 -7.592619e+000 113 79 42
-2.383352e-001 -1.292085e+000 -8.155080e+000 174 149 128
-2.383352e-001 -1.292085e+000 -8.155080e+000 174 149 128
-1.834425e-001 -1.241854e+000 -8.214696e+000 173 152 135
-9.569985e-002 -1.246039e+000 -8.277380e+000 180 162 140
-2.300062e-001 -1.188019e+000 -8.289063e+000 175 151 126
-1.724575e+000 -9.897299e-001 -7.647615e+000 70 88 50
-1.724369e+000 -1.047194e+000 -7.677869e+000 158 144 101
-2.706060e-001 -1.034485e+000 -8.475457e+000 168 152 128
-2.706060e-001 -1.034485e+000 -8.475457e+000 168 152 128
-4.394191e-001 -9.944256e-001 -8.475713e+000 182 157 133
-4.100313e-001 -9.521410e-001 -8.463601e+000 182 157 133
1.885923e-001 -9.014288e-001 -8.842367e+000 113 98 67
-1.365935e+000 -8.487447e-001 -8.148569e+000 105 76 73
-5.528808e-001 -8.407072e-001 -8.543055e+000 163 127 99
-1.941407e+000 -8.594253e-001 -7.852416e+000 89 90 61
-1.941407e+000 -8.594253e-001 -7.852416e+000 89 90 61
-1.411411e+000 -8.326516e-001 -8.144555e+000 171 138 133
-1.211757e+000 -8.324611e-001 -8.241019e+000 139 115 103
-1.211757e+000 -8.324611e-001 -8.241019e+000 139 115 103
-1.250219e+000 -7.709262e-001 -8.268222e+000 88 65 59
-7.774000e-001 -7.658253e-001 -8.560257e+000 104 85 78
-1.290496e+000 -6.920339e-001 -8.398823e+000 121 99 91
-1.017370e+000 -7.356884e-001 -8.536275e+000 102 82 76
-8.456324e-001 -7.098554e-001 -8.583519e+000 72 53 49
-8.456324e-001 -7.098554e-001 -8.583519e+000 72 53 49
2.473394e-001 -5.756181e-001 -9.245144e+000 78 75 46
-2.277173e+000 -5.019313e-002 -7.571848e+000 232 226 231
-2.141531e+000 -6.089904e-001 -8.022357e+000 175 143 92
-1.201117e+000 -5.769223e-001 -8.562353e+000 78 58 51
-1.141796e+000 -5.026337e-001 -8.682776e+000 80 56 52
-1.165243e+000 -4.865111e-001 -8.691335e+000 108 83 82
-1.593173e-001 -3.601114e-001 -9.363912e+000 82 58 31
-2.192368e+000 9.912550e-001 -7.356684e+000 206 201 174
-2.220474e+000 -4.073479e-001 -8.306446e+000 176 146 96
-1.126974e+000 -3.639735e-001 -8.891527e+000 165 137 125
-1.800082e-001 -3.329889e-001 -9.369348e+000 142 110 62
-1.977625e-001 -3.027583e-001 -9.406232e+000 148 116 71
-4.100520e-002 -3.052188e-001 -9.455563e+000 136 107 73
-2.213315e+000 -2.535537e-001 -8.484524e+000 165 136 87
-2.213315e+000 -2.535537e-001 -8.484524e+000 165 136 87
-2.541550e-001 -8.196874e-002 -9.631053e+000 144 116 78
-3.432843e-001 -8.109722e-003 -9.734340e+000 139 117 80
-2.081451e+000 6.079005e-002 -8.916173e+000 79 89 53
-2.040312e+000 9.378800e-003 -8.909105e+000 162 119 74
-1.996877e+000 1.179824e-001 -9.000085e+000 78 84 56
-1.996877e+000 1.179824e-001 -9.000085e+000 78 84 56
-1.878284e+000 1.481846e-001 -9.127753e+000 173 133 79
-1.771943e+000 2.036702e-001 -9.244266e+000 166 131 71
-4.948161e-001 3.393415e-001 -1.001287e+001 130 117 86
-1.790898e+000 2.242745e-001 -9.256195e+000 86 93 66
-1.790898e+000 2.242745e-001 -9.256195e+000 86 93 66
-1.664560e+000 -1.538993e+000 -7.081088e+000 129 111 72
-1.267761e+000 -1.603526e+000 -7.242154e+000 146 119 65
-1.399115e+000 -1.542384e+000 -7.230832e+000 155 128 85
-1.156249e+000 -1.548614e+000 -7.383245e+000 154 124 80
-4.914883e-001 -1.580455e+000 -7.650003e+000 131 115 79
-3.810352e-001 -1.557000e+000 -7.690038e+000 128 119 78
-3.810352e-001 -1.557000e+000 -7.690038e+000 128 119 78
-3.062120e-001 -1.516863e+000 -7.809408e+000 125 116 79
-1.506777e+000 -1.510770e+000 -7.254176e+000 146 122 78
-1.443357e+000 -1.501855e+000 -7.244636e+000 156 129 82
-1.237316e+000 -1.495917e+000 -7.385197e+000 158 129 84
-1.339853e+000 -1.437712e+000 -7.418722e+000 160 125 84
-1.337969e+000 -1.434542e+000 -7.416987e+000 160 125 84
-1.110186e+000 -1.458824e+000 -7.486656e+000 116 88 50
-9.823864e-001 -1.431289e+000 -7.590600e+000 167 134 82
-1.203953e-001 -1.406623e+000 -7.906751e+000 123 111 72
-1.687450e+000 -3.551632e-001 -6.455821e+000 220 202 133
-7.414722e-004 -1.370109e+000 -8.144517e+000 95 103 71
5.791386e-001 -1.166221e+000 -8.641619e+000 77 79 55
-2.550906e-001 -1.177332e+000 -8.312506e+000 149 120 75
-1.830616e-001 -1.199023e+000 -8.568239e+000 90 95 63
-1.904759e+000 -8.837827e-001 -7.817125e+000 80 84 63
-1.353178e+000 -8.701669e-001 -8.129681e+000 159 130 123
-1.165236e+000 -8.991011e-001 -8.216703e+000 135 104 92
-7.473034e-001 -8.259025e-001 -8.473254e+000 97 70 61
-2.169089e+000 -1.337183e-001 -7.353834e+000 198 106 124
-1.012291e+000 -8.071097e-001 -8.346158e+000 119 95 86
-9.341382e-001 -7.662916e-001 -8.472395e+000 146 112 91
-6.433950e-001 -7.524301e-001 -8.650905e+000 113 78 58
-2.222576e+000 -1.907738e-001 -7.479369e+000 223 229 222
6.554409e-001 -6.943461e-001 -9.530138e+000 158 145 129
6.024643e-001 -9.636185e-001 -9.662104e+000 183 172 154
-9.053425e-001 -6.104858e-001 -8.720335e+000 83 60 52
-2.175310e+000 -5.435758e-001 -8.103495e+000 184 143 92
-1.118735e+000 -3.607533e-001 -8.856816e+000 97 74 64
6.412149e-002 -3.268142e-001 -9.524622e+000 85 70 50
-1.257200e+000 -2.847193e-001 -8.887159e+000 164 134 124
-1.256578e+000 -2.679679e-001 -8.974118e+000 152 121 102
-1.737594e-001 -8.661216e-002 -9.709134e+000 100 77 53
-1.737594e-001 -8.661216e-002 -9.709134e+000 100 77 53
-1.227766e-001 -7.000741e-002 -9.723919e+000 127 106 75
-2.121130e+000 1.392917e-002 -8.865156e+000 66 88 58
-2.060628e+000 -9.965130e-003 -8.834742e+000 70 84 52
-1.158450e+000 1.065725e-001 -9.443288e+000 153 131 85
-1.158450e+000 1.065725e-001 -9.443288e+000 153 131 85
-4.383939e-001 1.447562e-001 -9.823664e+000 142 121 80
-4.383939e-001 1.447562e-001 -9.823664e+000 142 121 80
-4.315793e-001 1.562829e-001 -9.886558e+000 130 114 81
-1.944178e+000 8.350634e-002 -9.009745e+000 166 133 80
-1.938435e+000 9.282214e-002 -9.007679e+000 166 133 80
-1.968310e+000 8.633299e-002 -9.061575e+000 76 85 51
-1.913656e+000 1.241301e-001 -9.110142e+000 80 83 46
-1.903322e+000 1.450493e-001 -9.107525e+000 80 83 46
-1.556080e+000 1.438367e-001 -9.298424e+000 162 135 84
-1.593192e+000 -1.574579e+000 -7.085790e+000 81 67 38
-1.562809e+000 -1.578816e+000 -7.106288e+000 87 71 38
-1.609709e+000 -1.515130e+000 -7.135559e+000 100 82 45
-1.508280e+000 -1.553391e+000 -7.172156e+000 144 118 77
-1.511499e+000 -1.523712e+000 -7.205262e+000 116 92 54
-3.708473e-001 -1.511720e+000 -7.771694e+000 126 112 73
-1.754735e+000 -1.485703e+000 -7.086777e+000 128 112 76
-1.754735e+000 -1.485703e+000 -7.086777e+000 128 112 76
-1.198858e+000 -1.473569e+000 -7.444539e+000 119 91 54
-1.198858e+000 -1.473569e+000 -7.444539e+000 119 91 54
-8.706537e-001 -1.474441e+000 -7.577230e+000 158 128 82
-4.958617e-001 -1.443086e+000 -7.813560e+000 97 77 52
-3.601683e-001 -1.406702e+000 -7.918559e+000 133 116 72
-6.534809e-001 -1.390875e+000 -7.799676e+000 104 81 49
-4.418751e-001 -1.399850e+000 -7.925004e+000 100 80 48
5.197296e-001 -1.207703e+000 -8.533595e+000 82 82 56
-1.778827e+000 -1.590198e-001 -6.586803e+000 227 208 149
-1.950145e-002 -1.058885e+000 -8.489237e+000 97 94 66
-1.811428e+000 -9.825975e-001 -7.762027e+000 67 80 48
-5.887835e-001 -8.379521e-001 -8.578353e+000 132 92 67
-2.000850e+000 7.082992e-001 -6.983715e+000 108 109 83
-1.375125e+000 -6.448746e-001 -8.415155e+000 109 82 73
1.831671e-001 -4.975515e-001 -9.332084e+000 88 77 57
4.196551e-001 -1.390927e+000 -1.010303e+001 196 185 167
2.579268e-001 -1.918896e+000 -1.048271e+001 93 82 72
2.579268e-001 -1.918896e+000 -1.048271e+001 93 82 72
-2.347143e+000 1.227953e-001 -7.682750e+000 171 94 110
7.816210e-002 -3.561091e-001 -9.423902e+000 117 90 60
-5.601008e-002 -3.629135e-001 -9.405475e+000 135 100 62
-1.388876e+000 -3.972724e-001 -8.746474e+000 176 142 116
-1.263759e-001 -3.256875e-001 -9.467205e+000 138 110 73
-1.255043e-001 -3.260388e-001 -9.467909e+000 138 110 73
-9.872040e-002 -2.297254e-001 -9.507717e+000 135 109 72
-1.264269e-001 -2.159532e-001 -9.602095e+000 115 93 60
-1.274253e-001 -1.727847e-001 -9.627363e+000 98 77 44
-2.093876e-001 -1.192057e-001 -9.657547e+000 134 112 75
-3.683200e-002 3.277809e-002 -9.858688e+000 116 102 73
-1.862564e+000 1.156574e-001 -9.123019e+000 171 129 70
-3.089597e+000 3.434519e+001 3.997574e+000 105 105 109
-2.484805e+000 3.406041e+001 3.451141e+000 88 88 87
-1.723156e+000 -1.588207e+000 -7.015493e+000 87 72 39
-1.653984e+000 -1.518594e+000 -7.115601e+000 93 77 41
-1.290547e+000 -1.578310e+000 -7.263604e+000 111 89 57
-1.194018e+000 -1.536058e+000 -7.330300e+000 162 132 82
-9.352701e-001 -1.559716e+000 -7.439942e+000 112 90 53
-6.314456e-001 -1.545667e+000 -7.604541e+000 112 96 62
-2.499421e-001 -1.526858e+000 -7.797643e+000 89 80 51
-4.893269e-001 -1.485693e+000 -7.736974e+000 95 79 47
-5.939502e-001 -1.445245e+000 -7.766240e+000 109 88 57
-4.350787e-001 -1.430124e+000 -7.843663e+000 99 84 55
-1.238477e+000 -1.415045e+000 -7.491116e+000 151 116 80
-5.251069e-001 -1.383582e+000 -7.857820e+000 111 87 56
-1.606580e-001 -1.251292e+000 -8.235009e+000 166 149 129
-1.702392e-001 -1.206732e+000 -8.274899e+000 178 158 135
3.062502e-001 -1.021513e+000 -8.671324e+000 95 88 62
3.587758e-001 -1.020200e+000 -8.766831e+000 72 68 41
-1.790357e+000 -1.003361e+000 -7.721167e+000 175 144 105
1.711134e-001 -7.611672e-001 -8.996497e+000 112 94 60
-8.777291e-001 -7.479085e-001 -8.507482e+000 77 54 52
1.313468e-001 -7.281922e-001 -9.056812e+000 122 99 58
2.906488e-001 -6.977998e-001 -9.070413e+000 100 85 54
2.774067e-001 -7.121763e-001 -9.138782e+000 79 72 45
2.859143e-001 -5.955794e-001 -9.129741e+000 111 94 63
-5.296602e-001 -6.947840e-001 -8.796491e+000 164 133 84
4.888328e-002 -5.557192e-001 -9.214424e+000 130 95 63
4.749957e-003 -5.275952e-001 -9.276780e+000 139 101 64
