ply
format ascii 1.0
element face 0
property list uchar int vertex_indices
element vertex 876
property float x
property float y
property float z
property uchar diffuse_red
property uchar diffuse_green
property uchar diffuse_blue
end_header
7.510605e-001 -8.366762e-001 -7.323813e+000 120 115 70
-1.813215e-001 -9.927892e-001 -6.948397e+000 153 139 92
2.027517e-002 -1.025645e+000 -7.102542e+000 132 121 79
1.703281e-001 -9.822336e-001 -7.128629e+000 144 134 85
2.685320e-001 -1.021686e+000 -7.209334e+000 136 125 80
7.349636e-001 -9.567830e-001 -7.424925e+000 81 77 42
7.708708e-001 -9.544897e-001 -7.442483e+000 114 110 72
6.263444e-001 -1.160190e+000 -7.543855e+000 122 113 68
6.263444e-001 -1.160190e+000 -7.543855e+000 122 113 68
-2.110203e-001 -1.270333e+000 -7.236742e+000 134 125 82
1.201005e+000 -1.162042e+000 -7.932865e+000 78 83 61
-9.745476e-001 -1.414341e+000 -6.944486e+000 83 76 44
-6.250433e-001 -1.363255e+000 -7.100921e+000 136 127 96
-6.269353e-001 -1.362069e+000 -7.099845e+000 136 127 96
4.745535e-002 -1.366622e+000 -7.480155e+000 100 91 53
4.798087e-002 -1.365411e+000 -7.482209e+000 100 91 53
-1.881428e-001 -1.462355e+000 -7.461072e+000 92 81 50
3.715388e-001 -1.400533e+000 -7.690742e+000 83 77 43
-2.258198e-001 -1.570861e+000 -7.539424e+000 97 90 59
5.227734e-001 -1.560829e+000 -7.935373e+000 115 112 77
-3.325029e-001 -5.671900e-002 -6.071866e+000 153 137 111
-1.986069e-001 -2.551400e-001 -6.226655e+000 84 77 51
-1.990284e-001 -2.540216e-001 -6.226814e+000 84 77 51
-9.479189e-001 -4.576520e-001 -5.955358e+000 84 86 75
-8.955278e-001 -4.567410e-001 -5.987650e+000 80 86 83
-8.482251e-001 -4.711799e-001 -6.019787e+000 81 85 78
2.565622e-001 -2.261479e-001 -6.480370e+000 130 128 79
3.009894e-001 -2.295652e-001 -6.482659e+000 84 81 51
3.139048e-001 -2.972127e-001 -6.535375e+000 132 126 77
5.732591e-001 -2.828115e-001 -6.677453e+000 128 129 78
6.747240e-001 -1.971594e-001 -6.651700e+000 114 118 81
6.516732e-001 -2.866307e-001 -6.704355e+000 122 124 83
1.271927e+000 -1.644668e-001 -6.963945e+000 77 86 65
1.317500e+000 -2.105101e-001 -6.938067e+000 82 92 67
1.710642e+000 -1.473263e-001 -7.090098e+000 104 114 90
-1.170770e+000 -5.424678e-001 -5.910942e+000 79 80 72
-9.243719e-001 -5.157807e-001 -6.012951e+000 127 131 117
-8.078942e-001 -4.912511e-001 -6.057528e+000 85 88 79
5.916980e-003 -3.870369e-001 -6.459336e+000 148 138 87
-6.937943e-002 -4.299734e-001 -6.448389e+000 147 135 93
-6.937943e-002 -4.299734e-001 -6.448389e+000 147 135 93
1.265909e-001 -3.647342e-001 -6.519977e+000 145 136 80
4.467621e-001 -3.232187e-001 -6.637581e+000 137 134 80
8.488858e-001 -2.795727e-001 -6.819864e+000 70 76 50
8.277465e-001 -3.462011e-001 -6.882061e+000 87 87 59
9.097277e-001 -2.781478e-001 -6.873523e+000 81 86 63
9.561239e-001 -2.578579e-001 -6.891961e+000 102 109 80
9.900207e-001 -2.382100e-001 -6.880899e+000 79 87 63
1.042121e+000 -2.671332e-001 -6.926619e+000 69 78 57
1.042121e+000 -2.671332e-001 -6.926619e+000 69 78 57
1.149227e+000 -2.363272e-001 -6.950163e+000 96 106 79
1.112925e+000 -2.565191e-001 -6.967735e+000 70 79 58
1.115355e+000 -2.509425e-001 -6.971934e+000 70 79 58
1.101578e+000 -2.958390e-001 -6.983555e+000 76 83 66
1.107741e+000 -2.812040e-001 -7.002238e+000 76 83 66
1.138729e+000 -2.804979e-001 -6.990244e+000 96 108 80
1.304013e+000 -2.647730e-001 -7.054194e+000 75 84 64
1.509418e+000 -2.232527e-001 -7.150758e+000 68 76 61
-1.078517e+000 -6.386794e-001 -6.046029e+000 114 115 107
-1.268894e-001 -5.175517e-001 -6.502047e+000 97 86 56
3.198176e-001 -4.891083e-001 -6.723747e+000 100 91 60
8.119994e-001 -3.870234e-001 -6.915016e+000 78 81 51
8.327917e-001 -4.242233e-001 -6.967904e+000 114 116 81
8.309038e-001 -4.303550e-001 -6.958443e+000 114 116 81
9.457015e-001 -3.756824e-001 -6.964087e+000 77 82 58
8.760138e-001 -3.936553e-001 -6.968370e+000 81 84 55
1.080233e+000 -3.559304e-001 -7.031960e+000 63 72 50
1.067986e+000 -3.898611e-001 -6.995256e+000 63 72 50
9.980559e-001 -4.152693e-001 -7.042920e+000 77 85 54
1.285420e+000 -4.072633e-001 -7.170591e+000 98 109 76
1.615630e+000 -3.172604e-001 -7.318583e+000 68 77 59
-1.297941e+000 -7.142244e-001 -6.020128e+000 78 82 72
-4.045001e-001 -5.671903e-001 -6.407232e+000 59 52 48
-3.488869e-001 -6.278881e-001 -6.507234e+000 150 139 89
-7.040416e-002 -5.864904e-001 -6.601566e+000 157 144 99
-1.351404e-002 -5.988661e-001 -6.642028e+000 144 135 92
3.186677e-001 -5.750553e-001 -6.812871e+000 143 131 78
4.974580e-001 -5.502542e-001 -6.867387e+000 101 88 55
7.217973e-001 -4.712857e-001 -6.926988e+000 85 83 52
1.009312e+000 -4.710636e-001 -7.095168e+000 99 106 72
1.009573e+000 -4.735216e-001 -7.096517e+000 99 106 72
1.210788e+000 -4.497916e-001 -7.207104e+000 93 104 75
1.232069e+000 -4.799607e-001 -7.238354e+000 56 66 41
1.293626e+000 -4.864629e-001 -7.248233e+000 69 79 53
-1.004654e+000 -7.843743e-001 -6.217120e+000 156 146 136
-4.594589e-001 -7.203768e-001 -6.520133e+000 55 48 45
-3.816259e-001 -7.286951e-001 -6.577923e+000 144 135 96
-3.816259e-001 -7.286951e-001 -6.577923e+000 144 135 96
-8.674154e-002 -6.350978e-001 -6.666432e+000 152 139 92
-8.674154e-002 -6.350978e-001 -6.666432e+000 152 139 92
-3.005231e-002 -6.451152e-001 -6.692465e+000 145 130 88
2.014944e-001 -6.071813e-001 -6.782773e+000 90 80 47
1.590750e-001 -6.568279e-001 -6.791916e+000 137 126 82
1.590750e-001 -6.568279e-001 -6.791916e+000 137 126 82
2.976193e-001 -6.330294e-001 -6.854358e+000 161 146 96
3.241074e-001 -6.477524e-001 -6.897243e+000 104 92 54
8.626905e-001 -6.121211e-001 -7.128983e+000 80 83 52
1.073512e+000 -5.668019e-001 -7.232149e+000 75 81 53
1.124350e+000 -6.016151e-001 -7.285783e+000 67 75 52
1.123047e+000 -6.042243e-001 -7.283533e+000 67 75 52
-1.163540e+000 -8.480841e-001 -6.209207e+000 133 135 124
-1.163540e+000 -8.480841e-001 -6.209207e+000 133 135 124
-1.098208e+000 -8.645211e-001 -6.249811e+000 132 131 119
-8.769792e-001 -8.780585e-001 -6.372116e+000 145 132 100
-1.965320e-001 -7.877650e-001 -6.744062e+000 157 144 109
7.827016e-001 -6.547878e-001 -7.158915e+000 86 85 47
8.725592e-001 -6.739968e-001 -7.215548e+000 125 125 77
7.979250e-001 -7.097013e-001 -7.215309e+000 135 128 83
9.616898e-001 -7.031447e-001 -7.290421e+000 80 84 54
9.604199e-001 -7.066217e-001 -7.290536e+000 80 84 54
1.489414e+000 -6.367539e-001 -7.555963e+000 61 65 44
-3.133775e-001 -8.162152e-001 -6.709143e+000 99 87 63
-3.133775e-001 -8.162152e-001 -6.709143e+000 99 87 63
5.126438e-002 -8.570414e-001 -6.936895e+000 98 89 60
1.247378e-001 -8.229683e-001 -6.942390e+000 80 71 42
7.558217e-001 -7.309723e-001 -7.208125e+000 77 73 38
7.547380e-001 -7.338541e-001 -7.205087e+000 77 73 38
7.825262e-001 -7.489428e-001 -7.244451e+000 127 122 76
7.444109e-001 -7.688251e-001 -7.239286e+000 87 82 49
8.132471e-001 -7.527741e-001 -7.280541e+000 79 77 38
8.101301e-001 -7.613641e-001 -7.271129e+000 79 77 38
9.781911e-001 -7.382604e-001 -7.336393e+000 113 115 74
8.730483e-001 -7.697068e-001 -7.330583e+000 72 75 50
1.261031e+000 -7.464103e-001 -7.512831e+000 62 70 46
-4.606755e-001 -9.457125e-001 -6.740489e+000 143 133 104
-3.444576e-001 -9.151411e-001 -6.777977e+000 71 60 41
-1.251404e-001 -9.022009e-001 -6.897041e+000 154 141 99
-1.608423e-001 -9.158205e-001 -6.870039e+000 84 70 43
-6.713990e-002 -8.978420e-001 -6.916824e+000 146 137 95
-1.507448e-001 -9.605592e-001 -6.927125e+000 150 137 94
-8.054697e-002 -9.366236e-001 -6.952606e+000 151 140 94
3.046448e-002 -9.159289e-001 -6.968613e+000 86 78 49
2.059678e-002 -9.429876e-001 -7.003587e+000 95 86 54
1.580093e-001 -9.355504e-001 -7.086959e+000 102 91 59
3.688161e-001 -8.992037e-001 -7.138621e+000 90 77 43
6.514341e-001 -8.444651e-001 -7.273712e+000 88 78 41
5.944935e-001 -9.118390e-001 -7.296555e+000 129 122 68
5.944935e-001 -9.118390e-001 -7.296555e+000 129 122 68
8.179436e-001 -8.208244e-001 -7.331405e+000 118 114 73
7.378034e-001 -8.798811e-001 -7.358208e+000 130 123 81
7.549703e-001 -9.060493e-001 -7.382520e+000 86 81 53
8.440725e-001 -8.425554e-001 -7.374501e+000 80 79 48
8.256870e-001 -8.860241e-001 -7.399975e+000 84 81 48
9.324866e-001 -8.691870e-001 -7.449596e+000 109 109 72
9.295566e-001 -8.771176e-001 -7.439028e+000 109 109 72
9.717538e-001 -8.441478e-001 -7.457728e+000 72 75 47
9.680416e-001 -8.554147e-001 -7.437633e+000 72 75 47
9.562863e-001 -8.859067e-001 -7.483209e+000 72 72 46
-5.660580e-001 -1.013368e+000 -6.735929e+000 67 54 46
-2.689067e-001 -9.842180e-001 -6.902190e+000 159 146 113
-1.450567e-001 -1.021158e+000 -6.993681e+000 106 93 59
5.740950e-001 -9.631976e-001 -7.341924e+000 138 127 73
6.965050e-001 -9.782110e-001 -7.466083e+000 115 108 63
8.828282e-001 -9.095288e-001 -7.464297e+000 75 71 44
8.829699e-001 -9.092853e-001 -7.464612e+000 75 71 44
9.576862e-001 -9.719106e-001 -7.571839e+000 105 106 72
9.952044e-001 -9.516928e-001 -7.563514e+000 68 71 48
-9.067822e-001 -1.141962e+000 -6.711301e+000 145 131 92
-5.741418e-001 -1.084198e+000 -6.858394e+000 141 132 103
-2.728776e-001 -1.143932e+000 -7.047249e+000 140 127 88
-1.801583e-001 -1.122212e+000 -7.064620e+000 98 85 53
1.490381e-001 -1.110229e+000 -7.250188e+000 105 94 60
2.129989e-001 -1.088479e+000 -7.262125e+000 97 85 50
5.557079e-001 -1.013769e+000 -7.402828e+000 133 124 78
6.951804e-001 -1.063792e+000 -7.540553e+000 85 79 44
1.059835e+000 -1.024975e+000 -7.671211e+000 94 100 66
1.188512e+000 -1.019118e+000 -7.665546e+000 80 89 60
-6.065414e-001 -1.182852e+000 -6.906221e+000 133 121 90
-5.490606e-001 -1.175174e+000 -6.920275e+000 146 133 101
-5.494065e-001 -1.171187e+000 -6.928059e+000 146 133 101
-3.397927e-001 -1.165512e+000 -7.037074e+000 142 129 95
2.450881e-003 -1.139195e+000 -7.207525e+000 91 81 46
2.121411e-003 -1.139035e+000 -7.207539e+000 91 81 46
3.348347e-001 -1.136752e+000 -7.396252e+000 82 73 40
5.775899e-001 -1.123126e+000 -7.480754e+000 129 123 75
5.664466e-001 -1.144466e+000 -7.537563e+000 129 122 69
6.440962e-001 -1.112324e+000 -7.528819e+000 121 114 74
8.504763e-001 -1.084193e+000 -7.637769e+000 107 106 68
7.214484e-001 -1.152326e+000 -7.618512e+000 86 78 49
9.237800e-001 -1.136901e+000 -7.713966e+000 72 72 46
1.198143e+000 -1.067502e+000 -7.807693e+000 59 66 43
-1.151793e+000 -1.290331e+000 -6.719780e+000 139 128 90
-8.351704e-001 -1.309824e+000 -6.922000e+000 125 114 82
-4.977766e-001 -1.252474e+000 -7.027724e+000 132 122 88
-3.491245e-001 -1.250984e+000 -7.130644e+000 103 93 57
6.534718e-002 -1.250062e+000 -7.370941e+000 142 135 93
9.300118e-001 -1.199826e+000 -7.792212e+000 94 98 67
-1.101047e+000 -1.396626e+000 -6.854334e+000 135 123 81
-1.043498e+000 -1.353409e+000 -6.849504e+000 142 130 90
-1.010648e+000 -1.356966e+000 -6.866883e+000 142 129 93
-1.010349e+000 -1.357802e+000 -6.865646e+000 142 129 93
-1.029750e+000 -1.382085e+000 -6.872826e+000 91 82 51
-1.076520e+000 -1.424606e+000 -6.900898e+000 126 118 82
-9.842265e-002 -1.319433e+000 -7.363495e+000 127 119 82
-9.842265e-002 -1.319433e+000 -7.363495e+000 127 119 82
7.817354e-002 -1.352339e+000 -7.477477e+000 133 124 82
5.707280e-001 -1.295070e+000 -7.658183e+000 125 119 75
5.515190e-001 -1.346322e+000 -7.746134e+000 125 117 80
8.216580e-001 -1.308802e+000 -7.864246e+000 99 103 67
-9.717907e-001 -1.473800e+000 -7.023670e+000 117 111 76
-3.098462e-002 -1.411055e+000 -7.480839e+000 88 78 50
7.473478e-002 -1.429279e+000 -7.557565e+000 93 87 53
-1.442598e+000 -1.589458e+000 -6.876208e+000 99 96 65
-2.218475e-001 -1.545392e+000 -7.517656e+000 90 84 52
1.739890e-001 -1.513192e+000 -7.719176e+000 96 85 53
1.788992e-001 -1.513859e+000 -7.733131e+000 96 85 53
4.441314e-001 -1.530407e+000 -7.894289e+000 86 81 49
-2.233539e+000 -8.706528e-001 -7.596837e+000 203 181 135
-1.113598e+000 -1.599384e+000 -7.071469e+000 91 86 54
-9.340920e-001 -1.619876e+000 -7.203188e+000 96 90 58
1.570053e-001 -1.554758e+000 -7.750725e+000 89 82 55
1.539838e-001 -1.553848e+000 -7.749917e+000 89 82 55
4.390649e-001 -2.801237e-001 -6.602967e+000 93 96 64
8.930172e-002 -3.760838e-001 -6.492398e+000 110 101 61
5.741195e-001 -2.966863e-001 -6.699426e+000 128 128 77
6.407466e-001 -3.004562e-001 -6.732439e+000 125 126 83
7.871728e-001 -2.649330e-001 -6.785408e+000 78 83 62
1.740179e+000 -9.554583e-002 -7.319281e+000 96 108 83
-4.416787e-001 -5.139146e-001 -6.339324e+000 63 55 49
-1.674455e-001 -5.120930e-001 -6.510077e+000 123 111 75
1.921381e-001 -4.737623e-001 -6.627879e+000 92 88 61
1.720516e+000 -1.757422e-001 -7.537432e+000 89 97 72
-3.180390e-001 -6.160481e-001 -6.491821e+000 95 90 61
-4.473229e-001 -6.874090e-001 -6.493524e+000 61 54 48
-2.186033e-001 -6.688080e-001 -6.606159e+000 125 115 79
-3.070250e-002 -7.234128e-001 -6.747734e+000 110 96 68
-2.746112e-001 -8.332521e-001 -6.724502e+000 121 110 80
1.715041e-001 -7.912515e-001 -6.950392e+000 128 115 79
1.510812e-001 -8.805623e-001 -6.947073e+000 129 117 77
1.257439e-001 -9.221737e-001 -7.049353e+000 124 115 72
1.277408e-001 -9.138910e-001 -7.063488e+000 124 115 72
2.396789e-001 -8.582975e-001 -7.099409e+000 94 83 54
5.754204e-001 -8.504852e-001 -7.231793e+000 88 78 48
7.732911e-001 -8.525163e-001 -7.350156e+000 77 77 43
-7.528682e-001 -1.092531e+000 -6.710992e+000 152 137 104
-4.571486e-001 -1.011221e+000 -6.819235e+000 85 75 50
-4.158037e-001 -1.107921e+000 -6.959130e+000 96 86 62
3.902207e-002 -1.055558e+000 -7.125703e+000 85 77 56
-8.662742e-001 -1.214595e+000 -6.798258e+000 146 134 93
-8.676188e-001 -1.208003e+000 -6.807772e+000 146 134 93
-7.376891e-001 -1.223029e+000 -6.862654e+000 143 130 89
4.000787e-002 -1.144377e+000 -7.241341e+000 120 112 71
-6.839287e-001 -1.308898e+000 -6.986775e+000 56 47 39
-5.468732e-001 -1.239954e+000 -7.011869e+000 90 81 57
-4.547429e-001 -1.301670e+000 -7.132032e+000 120 108 70
-2.032770e-002 -1.302085e+000 -7.365821e+000 124 116 77
-1.389672e+000 -1.400011e+000 -6.700177e+000 121 110 68
-1.359475e+000 -1.396088e+000 -6.722446e+000 78 73 44
-1.359475e+000 -1.396088e+000 -6.722446e+000 78 73 44
-1.282397e+000 -1.372820e+000 -6.733113e+000 82 72 45
-1.296628e+000 -1.409637e+000 -6.769795e+000 75 68 41
-1.296835e+000 -1.406867e+000 -6.772159e+000 75 68 41
-1.193574e+000 -1.385956e+000 -6.797516e+000 128 120 83
-9.999279e-001 -1.392376e+000 -6.921862e+000 139 127 87
-9.423525e-001 -1.392120e+000 -6.933179e+000 133 123 87
1.592975e-001 -1.313698e+000 -7.530763e+000 127 120 76
3.013715e-001 -1.313685e+000 -7.578009e+000 121 112 71
-1.415782e+000 -1.456267e+000 -6.745188e+000 121 113 76
-1.148631e+000 -1.432415e+000 -6.875152e+000 123 119 75
-6.009696e-001 -1.457125e+000 -7.213128e+000 129 119 84
-5.517311e-001 -1.440150e+000 -7.211427e+000 92 83 52
-7.655358e-002 -1.443046e+000 -7.498652e+000 111 106 66
1.229481e-001 -1.398485e+000 -7.587161e+000 127 120 78
-1.212381e+000 -1.576823e+000 -6.991825e+000 126 119 75
9.384151e-002 -1.470005e+000 -7.620597e+000 126 118 75
9.384151e-002 -1.470005e+000 -7.620597e+000 126 118 75
-1.604040e+000 -1.605381e+000 -6.795179e+000 114 111 73
-1.544837e+000 -1.619393e+000 -6.856592e+000 109 107 69
-6.507076e-001 -1.584399e+000 -7.330645e+000 125 116 80
-3.228068e-001 -1.214918e-001 -6.083084e+000 235 229 226
-3.228068e-001 -1.214918e-001 -6.083084e+000 235 229 226
-2.139045e-001 -2.049442e-001 -6.348411e+000 105 100 69
5.241703e-001 -2.026739e-001 -6.593475e+000 124 127 84
-7.901150e-001 -5.584029e-001 -6.124797e+000 100 108 92
4.532488e-001 -3.969224e-001 -6.811809e+000 148 139 84
4.699990e-001 -6.533743e-001 -6.768341e+000 96 85 53
-9.739975e-001 -7.622454e-001 -6.208906e+000 78 80 71
-2.956921e-001 -6.827136e-001 -6.576960e+000 128 119 78
-3.251185e-001 -7.540747e-001 -6.641843e+000 123 112 80
4.410263e-001 -6.712927e-001 -6.965809e+000 97 91 63
4.410263e-001 -6.712927e-001 -6.965809e+000 97 91 63
1.641967e+000 -7.227851e-001 -7.637281e+000 127 119 108
-4.747497e-001 -1.158476e+000 -6.941991e+000 126 113 79
-1.106641e-001 -1.175042e+000 -7.167106e+000 129 118 73
-1.236686e+000 -1.306001e+000 -6.657556e+000 134 122 78
-5.289230e-001 -1.303298e+000 -7.068860e+000 126 114 76
-8.714309e-001 -1.367859e+000 -6.955845e+000 133 125 88
-8.296197e-001 -1.450283e+000 -7.059224e+000 130 122 83
-1.277436e+000 -1.576750e+000 -6.952861e+000 125 118 72
-1.137985e+000 -1.577622e+000 -7.031278e+000 126 122 75
-1.081606e+000 -1.570075e+000 -7.063360e+000 128 124 83
-1.966647e+000 -1.276908e+000 -7.234732e+000 137 143 89
-1.188957e-001 -2.850334e-001 -6.299379e+000 115 111 72
4.082976e-001 -3.734171e-001 -6.685149e+000 142 135 80
-9.174164e-001 -5.780577e-001 -6.070419e+000 157 148 133
3.621826e-002 -6.933835e-001 -6.757006e+000 161 147 99
4.606659e-001 -6.245480e-001 -6.939355e+000 93 88 50
4.606659e-001 -6.245480e-001 -6.939355e+000 93 88 50
3.533303e-001 -9.167329e-001 -7.157155e+000 98 88 54
3.534397e-001 -9.177365e-001 -7.156193e+000 98 88 54
1.632959e+000 -8.036122e-001 -7.730423e+000 132 126 114
-3.470444e-001 -1.118990e+000 -6.986120e+000 103 90 45
-8.968820e-001 -1.344268e+000 -6.891410e+000 108 100 72
-1.351353e+000 -1.533898e+000 -6.864050e+000 92 86 60
-1.110957e+000 -1.535763e+000 -6.999784e+000 104 99 72
-9.334794e-001 -6.348828e-001 -6.151502e+000 160 146 137
-8.141031e-001 -7.072878e-001 -6.247840e+000 103 106 95
-3.854121e-001 -6.600180e-001 -6.496912e+000 144 134 85
5.573105e-001 -7.772205e-001 -7.161995e+000 106 98 58
-5.258640e-001 -1.062097e+000 -6.811726e+000 154 140 112
2.653434e-001 -9.626748e-001 -7.166794e+000 159 141 80
-5.907891e-001 -1.217847e+000 -6.952475e+000 147 136 100
-6.176454e-001 -1.268940e+000 -7.018678e+000 109 98 68
-7.111762e-001 -1.485749e+000 -7.207423e+000 91 81 42
-7.427535e-001 -1.563149e+000 -7.266091e+000 112 104 71
1.316779e-001 -3.337284e-001 -6.429035e+000 138 129 72
1.880994e+000 -1.580140e-001 -7.331891e+000 171 172 167
-1.524278e+000 -2.346085e-001 -6.392102e+000 176 186 113
-3.423324e-001 -5.477101e-001 -6.441644e+000 149 138 85
1.592521e+000 -7.472718e-001 -7.690773e+000 50 48 43
-6.439722e-001 -1.150052e+000 -6.831573e+000 56 53 48
-6.439722e-001 -1.150052e+000 -6.831573e+000 56 53 48
-6.713317e-001 -1.215720e+000 -6.900103e+000 60 51 44
-6.713317e-001 -1.215720e+000 -6.900103e+000 60 51 44
-2.275687e+000 -2.999987e-001 -7.517998e+000 216 110 114
-7.063216e-001 -1.307416e+000 -6.972708e+000 57 48 39
-7.063216e-001 -1.307416e+000 -6.972708e+000 57 48 39
-3.228056e-001 -2.334998e-001 -6.163554e+000 65 64 56
-9.119051e-001 -6.159716e-001 -6.125321e+000 160 148 136
5.635955e-001 -6.135400e-001 -7.000431e+000 130 118 63
-8.017190e-001 -1.283922e+000 -6.904214e+000 96 85 56
-6.416019e-001 -1.607764e+000 -7.376569e+000 120 110 78
-2.172807e+000 -3.759177e-002 -7.674363e+000 224 206 155
-1.074689e+000 -1.612490e+000 -7.154159e+000 71 68 45
2.023118e-001 -6.759485e-001 -6.833230e+000 129 120 80
2.032723e-001 -6.727382e-001 -6.836251e+000 129 120 80
-1.328496e+000 -1.396490e+000 -6.735223e+000 114 110 73
-7.793021e-001 -9.723975e-001 -6.527318e+000 155 136 94
1.779031e+000 -8.637432e-001 -7.128973e+000 185 188 181
-8.115862e-001 -1.521502e+000 -7.235453e+000 57 53 50
1.792663e+000 -1.298915e+000 -7.719462e+000 190 190 178
-1.488898e-001 -2.815310e-001 -6.285007e+000 137 131 90
-8.253521e-001 -4.914353e-001 -6.045326e+000 81 83 74
-2.460004e-001 -3.521420e-001 -6.289331e+000 143 132 86
7.474204e-001 -2.191253e-001 -6.722584e+000 111 117 81
1.175451e+000 -1.767076e-001 -6.929592e+000 98 108 84
1.243407e+000 -1.503968e-001 -6.961257e+000 100 112 87
-1.124256e+000 -5.893612e-001 -5.990714e+000 84 86 75
-1.262136e+000 -8.440079e-001 -5.797955e+000 74 77 66
-1.168361e+000 -6.995147e-001 -6.000148e+000 156 144 130
-9.366484e-001 -6.043237e-001 -6.096336e+000 95 87 78
-1.214687e-001 -4.893579e-001 -6.486292e+000 150 138 93
-1.230518e+000 -7.215717e-001 -6.054260e+000 81 83 70
-1.230518e+000 -7.215717e-001 -6.054260e+000 81 83 70
-9.683292e-001 -6.918990e-001 -6.154998e+000 78 72 59
-8.201314e-001 -6.773685e-001 -6.205188e+000 76 79 68
-2.691900e-001 -6.399879e-001 -6.552574e+000 147 137 98
1.400799e+000 -4.575438e-001 -7.331173e+000 92 102 78
-3.651751e-001 -7.401037e-001 -6.600681e+000 85 78 52
-2.035659e-001 -7.309715e-001 -6.669073e+000 159 146 107
9.096773e-002 -6.822980e-001 -6.803371e+000 155 146 107
-9.987716e-001 -8.798675e-001 -6.319214e+000 107 109 98
-5.655320e-001 -8.561538e-001 -6.599964e+000 57 44 34
-3.403331e-001 -8.400379e-001 -6.698215e+000 152 144 108
1.150217e+000 -6.222855e-001 -7.327331e+000 91 101 69
-4.737871e-001 -9.077189e-001 -6.699791e+000 94 84 59
-2.222113e-001 -8.575420e-001 -6.794035e+000 155 142 107
-3.758317e-001 -9.299337e-001 -6.785112e+000 155 144 112
-1.748769e-001 -9.623849e-001 -6.915931e+000 147 134 91
4.336575e-002 -9.743805e-001 -7.052084e+000 149 136 92
-9.690603e-002 -1.040335e+000 -7.044512e+000 83 72 43
9.488399e-001 -9.939271e-001 -7.589463e+000 106 109 77
1.091130e+000 -9.580475e-001 -7.625355e+000 89 96 63
-5.257578e-001 -1.113928e+000 -6.885052e+000 154 142 108
-8.950491e-001 -1.286066e+000 -6.856233e+000 140 126 89
-9.494980e-002 -1.183626e+000 -7.196090e+000 144 135 93
-5.705024e-002 -1.225845e+000 -7.267503e+000 135 130 93
1.215765e+000 -1.117609e+000 -7.860039e+000 83 89 63
-1.409106e+000 -1.397153e+000 -6.682644e+000 90 76 49
-9.089593e-001 -1.391647e+000 -6.951351e+000 85 78 48
-8.048906e-001 -1.342998e+000 -6.948876e+000 100 88 61
-8.499676e-001 -1.345275e+000 -6.947842e+000 136 129 85
-3.559768e-001 -1.298093e+000 -7.174182e+000 77 66 34
-3.087992e-001 -1.310961e+000 -7.216645e+000 140 129 85
-3.087992e-001 -1.310961e+000 -7.216645e+000 140 129 85
-1.530762e+000 -1.495951e+000 -6.724428e+000 86 76 48
-9.681211e-001 -1.398952e+000 -6.930899e+000 139 125 87
-1.616086e+000 -1.544100e+000 -6.730464e+000 119 117 78
-7.207321e-001 -1.515583e+000 -7.209601e+000 69 64 34
6.901320e-001 -1.463147e+000 -7.970282e+000 105 102 69
1.390850e+000 -1.349122e+000 -8.455728e+000 85 75 64
1.068144e+000 -1.510930e+000 -8.230494e+000 83 85 64
-1.749858e+000 -1.691719e+000 -6.847086e+000 119 112 83
-9.948748e-001 -5.642723e-001 -6.033003e+000 96 88 79
-2.359411e-001 -4.448654e-001 -6.377057e+000 145 135 84
8.629855e-001 -3.334774e-001 -6.895626e+000 114 118 84
1.275358e+000 -2.521180e-001 -7.051618e+000 96 106 78
1.275358e+000 -2.521180e-001 -7.051618e+000 96 106 78
1.417505e+000 -2.172249e-001 -7.104654e+000 96 106 82
1.395152e+000 -2.887728e-001 -7.158106e+000 95 105 79
-1.275602e+000 -6.815461e-001 -5.990180e+000 81 84 73
-9.501380e-001 -6.382191e-001 -6.111006e+000 161 145 137
-2.531448e-001 -5.015241e-001 -6.408152e+000 144 132 88
-8.459547e-002 -4.683417e-001 -6.485699e+000 149 139 91
-4.391841e-002 -5.195368e-001 -6.545540e+000 150 140 95
8.383554e-001 -4.112730e-001 -6.932381e+000 120 121 82
1.593673e+000 -2.756730e-001 -7.255654e+000 91 103 81
1.597682e+000 -2.666285e-001 -7.269802e+000 91 103 81
1.625513e+000 -2.731798e-001 -7.305691e+000 62 74 54
1.625513e+000 -2.731798e-001 -7.305691e+000 62 74 54
1.581446e+000 -3.085386e-001 -7.319039e+000 84 94 70
-1.202334e+000 -7.701366e-001 -6.119054e+000 75 82 71
-8.231924e-002 -6.286734e-001 -6.642641e+000 159 144 104
-8.195065e-002 -6.292572e-001 -6.640258e+000 159 144 104
1.272432e+000 -4.489141e-001 -7.241409e+000 87 98 69
1.417673e+000 -4.095662e-001 -7.275348e+000 83 93 69
1.430156e+000 -4.551693e-001 -7.341139e+000 66 75 54
-1.250719e+000 -7.922331e-001 -6.123901e+000 78 78 70
-1.049848e+000 -7.993828e-001 -6.211007e+000 152 140 132
-1.031740e+000 -7.849724e-001 -6.197875e+000 77 78 70
-4.284659e-001 -7.047699e-001 -6.526863e+000 144 137 95
-3.672287e-001 -6.891581e-001 -6.549118e+000 146 133 92
-8.670467e-002 -7.126449e-001 -6.716498e+000 78 64 37
1.023124e+000 -6.188904e-001 -7.221919e+000 105 112 78
1.026844e+000 -6.083985e-001 -7.239474e+000 105 112 78
1.177135e+000 -5.430359e-001 -7.251270e+000 92 101 74
1.250175e+000 -5.159327e-001 -7.299384e+000 88 98 71
1.228944e+000 -5.782475e-001 -7.339159e+000 90 99 70
1.391159e+000 -4.880638e-001 -7.355996e+000 88 98 74
7.511282e-001 -6.552987e-001 -7.135088e+000 129 123 74
7.410310e-001 -6.888156e-001 -7.154504e+000 139 131 84
8.926593e-001 -7.018685e-001 -7.256664e+000 81 79 56
-6.089684e-002 -8.807986e-001 -6.904439e+000 153 139 95
1.020476e-001 -8.135438e-001 -6.903847e+000 153 140 85
2.380392e-001 -7.978337e-001 -6.982144e+000 153 141 81
8.849254e-001 -7.411790e-001 -7.285110e+000 64 62 39
1.141845e+000 -7.287038e-001 -7.432055e+000 65 70 48
1.031975e+000 -7.672368e-001 -7.442350e+000 99 99 71
1.056248e+000 -7.919956e-001 -7.445637e+000 60 64 37
-5.497823e-001 -9.783106e-001 -6.722069e+000 56 46 34
-3.536871e-001 -9.478194e-001 -6.798842e+000 93 83 66
-3.539803e-001 -9.482134e-001 -6.798192e+000 93 83 66
-1.923354e-001 -9.285820e-001 -6.877629e+000 151 138 106
9.783537e-002 -9.041714e-001 -7.008824e+000 91 82 54
1.753186e-001 -9.649061e-001 -7.119961e+000 146 134 82
7.032326e-001 -8.679807e-001 -7.312031e+000 88 81 53
7.342441e-001 -8.868629e-001 -7.353222e+000 122 118 72
8.669284e-001 -8.697250e-001 -7.418789e+000 112 109 70
9.176589e-001 -9.061632e-001 -7.482589e+000 109 110 73
-8.296378e-001 -1.126465e+000 -6.724880e+000 144 131 98
2.969170e-001 -1.005177e+000 -7.231592e+000 81 76 39
3.367443e-001 -1.055131e+000 -7.293229e+000 142 134 83
3.533971e-001 -1.005119e+000 -7.271518e+000 142 130 75
6.079617e-001 -9.620851e-001 -7.359586e+000 71 63 40
7.043488e-001 -9.617578e-001 -7.436763e+000 127 120 74
8.061838e-001 -9.438967e-001 -7.459664e+000 71 68 39
9.780094e-001 -9.122496e-001 -7.533236e+000 95 99 64
9.765138e-001 -9.160438e-001 -7.522791e+000 95 99 64
-6.567767e-001 -9.232382e-001 -7.138123e+000 55 45 43
-5.449688e-001 -1.162820e+000 -6.928528e+000 152 142 107
1.835875e-001 -1.091782e+000 -7.270982e+000 145 136 82
7.205045e-001 -1.082830e+000 -7.570753e+000 126 120 67
7.209358e-001 -1.081457e+000 -7.573016e+000 126 120 67
7.934647e-001 -1.064200e+000 -7.563535e+000 115 109 73
1.079955e+000 -1.064521e+000 -7.749598e+000 62 67 46
-3.142653e-001 -1.243355e+000 -7.144223e+000 148 140 95
2.952196e-001 -1.236304e+000 -7.472273e+000 82 76 44
8.101716e-001 -1.185459e+000 -7.711705e+000 105 102 71
1.129973e+000 -1.105097e+000 -7.820446e+000 54 59 38
1.129973e+000 -1.105097e+000 -7.820446e+000 54 59 38
1.199998e+000 -1.165890e+000 -7.927132e+000 79 84 62
1.232010e+000 -1.156749e+000 -7.937351e+000 58 63 43
-6.773115e-001 -1.360451e+000 -7.061950e+000 144 129 93
-6.265549e-001 -1.291613e+000 -7.009890e+000 62 56 32
-6.265549e-001 -1.291613e+000 -7.009890e+000 62 56 32
-2.957765e-001 -1.339329e+000 -7.252463e+000 141 134 88
-2.953827e-001 -1.337907e+000 -7.252975e+000 141 134 88
1.992983e-001 -1.328807e+000 -7.518911e+000 94 84 57
4.126832e-001 -1.296777e+000 -7.619319e+000 85 76 47
5.074179e-001 -1.298505e+000 -7.659635e+000 130 123 76
6.840208e-001 -1.269035e+000 -7.739677e+000 71 66 37
8.564163e-001 -1.231233e+000 -7.802544e+000 98 99 65
8.062992e-001 -1.271837e+000 -7.797636e+000 68 67 37
1.143885e+000 -1.214154e+000 -7.958937e+000 61 64 42
1.123704e+000 -1.276857e+000 -7.941111e+000 56 60 39
-1.018279e+000 -1.445989e+000 -6.955532e+000 127 122 83
-8.246691e-001 -1.391346e+000 -7.007819e+000 64 58 31
-4.416417e-001 -1.417293e+000 -7.260301e+000 139 129 80
-4.417455e-001 -1.417286e+000 -7.260288e+000 139 129 80
1.869345e-001 -1.349462e+000 -7.558617e+000 90 81 52
1.869345e-001 -1.349462e+000 -7.558617e+000 90 81 52
5.279745e-001 -1.404412e+000 -7.806335e+000 128 122 81
8.205383e-001 -1.319614e+000 -7.822648e+000 109 111 74
8.900353e-001 -1.304032e+000 -7.894845e+000 96 96 68
9.163389e-001 -1.322899e+000 -7.937629e+000 73 73 47
9.163389e-001 -1.322899e+000 -7.937629e+000 73 73 47
8.600797e-001 -1.373646e+000 -7.935697e+000 94 97 66
9.284499e-001 -1.363282e+000 -8.006295e+000 95 99 66
-1.081873e+000 -1.549944e+000 -7.025065e+000 91 85 58
-9.695627e-001 -1.478559e+000 -7.022665e+000 128 124 81
1.415902e-002 -1.514738e+000 -7.635700e+000 138 127 88
1.627618e-001 -1.486287e+000 -7.676566e+000 145 135 92
2.769904e-001 -1.466238e+000 -7.714861e+000 80 74 43
6.167283e-001 -1.432579e+000 -7.872664e+000 81 76 46
9.234450e-001 -1.463167e+000 -8.099170e+000 62 61 41
-5.018259e-001 -1.565961e+000 -7.388004e+000 142 134 87
-4.330470e-001 -1.599266e+000 -7.467680e+000 147 135 87
-4.330470e-001 -1.599266e+000 -7.467680e+000 147 135 87
1.097640e-001 -1.543766e+000 -7.718867e+000 82 76 48
1.090493e-001 -1.544157e+000 -7.717209e+000 82 76 48
1.440253e-001 -1.530213e+000 -7.721269e+000 139 136 85
3.235517e-001 -1.512414e+000 -7.819535e+000 71 63 39
5.984224e-001 -1.544031e+000 -8.001265e+000 114 108 76
8.657309e-001 -1.524718e+000 -8.073866e+000 99 100 72
-1.064843e+000 -4.792766e-001 -5.916048e+000 82 83 76
-8.972677e-001 -4.563154e-001 -5.978056e+000 78 78 78
-3.164151e-001 -3.918234e-001 -6.289339e+000 143 134 79
1.014181e+000 -1.531410e-001 -6.846525e+000 73 82 61
1.010912e+000 -1.657423e-001 -6.832289e+000 73 82 61
1.117872e+000 -2.243239e-001 -6.936721e+000 71 80 61
1.281157e+000 -1.394351e-001 -6.989947e+000 68 78 58
-8.942813e-001 -5.030060e-001 -6.016561e+000 79 82 71
-1.009423e-001 -4.388363e-001 -6.447243e+000 101 95 61
-1.212099e+000 -6.297973e-001 -5.983448e+000 78 80 70
-1.079567e+000 -6.372575e-001 -6.046213e+000 137 139 127
-8.682421e-001 -5.973967e-001 -6.109535e+000 156 148 139
-2.828523e-001 -5.136245e-001 -6.405544e+000 104 92 57
-3.083404e-002 -4.808912e-001 -6.531238e+000 145 136 92
4.238590e-001 -4.468804e-001 -6.732614e+000 153 140 87
8.756349e-001 -3.962935e-001 -6.968312e+000 70 73 46
9.099234e-001 -3.855321e-001 -6.969412e+000 114 118 82
-1.303298e+000 -7.594553e-001 -6.051516e+000 72 75 66
-1.303298e+000 -7.594553e-001 -6.051516e+000 72 75 66
-1.608587e-001 -6.061685e-001 -6.566902e+000 101 90 68
-1.743729e-001 -6.547182e-001 -6.595352e+000 99 92 64
1.779970e-001 -5.966410e-001 -6.747112e+000 162 146 89
1.779970e-001 -5.966410e-001 -6.747112e+000 162 146 89
8.829063e-001 -4.657070e-001 -7.022945e+000 111 115 77
9.580535e-001 -5.262049e-001 -7.131950e+000 75 77 52
1.305660e+000 -4.571816e-001 -7.284004e+000 65 74 52
-1.126802e+000 -8.101631e-001 -6.187310e+000 152 140 128
-1.321734e-001 -6.820793e-001 -6.660776e+000 96 85 54
2.515950e-001 -6.714766e-001 -6.856924e+000 103 94 65
-1.145622e-001 -7.837445e-001 -6.783734e+000 94 83 55
7.803727e-001 -6.605972e-001 -7.155018e+000 82 82 48
9.135006e-001 -6.526327e-001 -7.214137e+000 65 67 42
9.608618e-001 -7.062355e-001 -7.291389e+000 70 72 39
1.507950e+000 -6.003233e-001 -7.534883e+000 60 68 46
1.506855e+000 -6.020982e-001 -7.533169e+000 60 68 46
5.116687e-002 -8.569188e-001 -6.936875e+000 97 91 70
9.222762e-001 -8.033048e-001 -7.371727e+000 68 68 44
1.085473e+000 -7.207368e-001 -7.409411e+000 65 68 47
-4.497648e-001 -9.963385e-001 -6.790592e+000 97 87 63
-2.399655e-001 -9.760816e-001 -6.887467e+000 105 91 65
-4.899907e-002 -9.253470e-001 -6.953601e+000 104 93 62
5.571019e-001 -9.264392e-001 -7.283160e+000 84 77 58
1.153017e+000 -8.671134e-001 -7.589500e+000 63 69 46
-3.264018e-001 -1.061162e+000 -6.933163e+000 106 95 73
-2.678151e-001 -1.049931e+000 -6.967318e+000 99 86 71
4.043327e-003 -9.915680e-001 -7.050768e+000 91 84 56
6.221592e-002 -9.903693e-001 -7.084711e+000 83 72 52
1.166398e-001 -1.047772e+000 -7.171034e+000 85 75 43
2.431429e-001 -1.016908e+000 -7.204522e+000 95 86 56
5.358645e-001 -9.811363e-001 -7.338958e+000 98 92 58
6.319734e-001 -9.808414e-001 -7.385458e+000 129 121 72
-7.128010e-001 -1.156013e+000 -6.823509e+000 145 132 97
-7.928918e-001 -1.192123e+000 -6.815689e+000 143 131 89
-7.928383e-001 -1.191932e+000 -6.815862e+000 143 131 89
-6.927665e-001 -1.173218e+000 -6.863323e+000 57 50 41
-1.694411e-001 -1.084789e+000 -7.063030e+000 81 71 43
-1.685204e-001 -1.086412e+000 -7.061154e+000 81 71 43
-2.332541e-001 -1.173648e+000 -7.106297e+000 144 131 85
8.079388e-002 -1.138251e+000 -7.242835e+000 76 70 48
2.155504e-001 -1.084859e+000 -7.270025e+000 89 80 51
8.483696e-001 -1.089111e+000 -7.630612e+000 109 108 72
8.136357e-001 -1.096732e+000 -7.637786e+000 75 71 44
-5.699863e-001 -1.217904e+000 -6.986728e+000 139 128 96
4.215996e-002 -1.235454e+000 -7.334450e+000 82 74 49
2.315063e-001 -1.250826e+000 -7.417353e+000 87 77 50
5.978364e-001 -1.151759e+000 -7.564753e+000 79 76 43
6.599885e-001 -1.150468e+000 -7.589436e+000 82 77 48
9.146189e-001 -1.166879e+000 -7.773801e+000 62 61 40
1.162415e+000 -1.167350e+000 -7.882984e+000 54 59 39
1.163240e+000 -1.166827e+000 -7.885170e+000 54 59 39
-4.403004e-001 -1.335630e+000 -7.183759e+000 95 83 57
-2.411244e-001 -1.282332e+000 -7.208105e+000 98 89 58
-2.411244e-001 -1.282332e+000 -7.208105e+000 98 89 58
-1.284033e-001 -1.328250e+000 -7.333961e+000 87 80 55
2.450836e-001 -1.276806e+000 -7.504603e+000 134 127 74
6.175969e-001 -1.243765e+000 -7.667417e+000 78 69 40
8.287126e-001 -1.216937e+000 -7.760642e+000 66 63 42
1.069260e+000 -1.259563e+000 -7.949000e+000 65 67 44
-1.415998e+000 -1.465078e+000 -6.760300e+000 122 111 66
-9.491425e-001 -1.417167e+000 -6.988092e+000 131 124 82
-6.035834e-001 -1.379401e+000 -7.119514e+000 97 86 59
-6.037432e-001 -1.381528e+000 -7.117033e+000 97 86 59
-3.945760e-001 -1.442860e+000 -7.310581e+000 137 127 76
3.373901e-001 -1.327185e+000 -7.603406e+000 83 77 45
4.576105e-001 -1.335466e+000 -7.691745e+000 76 69 43
5.884743e-001 -1.334584e+000 -7.757475e+000 84 80 54
6.270085e-001 -1.320346e+000 -7.764157e+000 127 119 77
5.643515e-001 -1.392004e+000 -7.800648e+000 74 67 39
5.637271e-001 -1.392980e+000 -7.798282e+000 74 67 39
6.964769e-001 -1.369448e+000 -7.854724e+000 76 71 41
7.862838e-001 -1.310829e+000 -7.825082e+000 71 71 48
7.430393e-001 -1.342513e+000 -7.885312e+000 114 111 72
7.611221e-001 -1.378334e+000 -7.884733e+000 76 74 52
-1.620799e+000 -1.577826e+000 -6.734423e+000 75 71 46
-1.506353e+000 -1.545076e+000 -6.770771e+000 117 115 63
-1.370585e+000 -1.495105e+000 -6.809940e+000 127 122 82
-1.368858e+000 -1.495795e+000 -6.807964e+000 127 122 82
-1.459769e+000 -1.572434e+000 -6.842579e+000 117 116 85
-1.116528e+000 -1.500390e+000 -6.956732e+000 123 118 80
-5.128030e-001 -1.529431e+000 -7.344272e+000 91 82 51
-5.122651e-001 -1.529039e+000 -7.348237e+000 91 82 51
-1.209056e-001 -1.452760e+000 -7.477927e+000 71 65 42
-1.930252e-002 -1.455358e+000 -7.541097e+000 137 126 82
3.803851e-001 -1.445891e+000 -7.758093e+000 141 133 86
4.256556e-001 -1.500036e+000 -7.812184e+000 130 120 76
4.279890e-001 -1.489651e+000 -7.832002e+000 130 120 76
5.224840e-001 -1.494209e+000 -7.890139e+000 82 73 56
7.512427e-001 -1.403108e+000 -7.908513e+000 77 71 53
7.512427e-001 -1.403108e+000 -7.908513e+000 77 71 53
8.102197e-001 -1.427366e+000 -7.959298e+000 65 63 45
1.092401e+000 -1.436807e+000 -8.139319e+000 85 87 66
-1.605434e+000 -1.659584e+000 -6.832557e+000 116 114 77
-1.070262e+000 -1.627746e+000 -7.136805e+000 83 79 54
-7.082698e-001 -1.568535e+000 -7.266293e+000 135 123 85
-6.854199e-001 -1.583412e+000 -7.301850e+000 80 75 55
-6.177159e-001 -1.595136e+000 -7.371409e+000 85 79 53
1.792516e-001 -1.512025e+000 -7.736782e+000 81 75 51
7.549526e-001 -1.554927e+000 -8.076055e+000 65 64 39
-3.482867e-001 -2.252068e-001 -6.128163e+000 61 61 59
-3.482867e-001 -2.252068e-001 -6.128163e+000 61 61 59
1.653825e+000 -3.072602e-001 -7.297413e+000 83 95 71
-3.259158e-001 -8.543682e-001 -6.732929e+000 104 94 79
3.902432e-002 -1.054712e+000 -7.127443e+000 82 70 55
-8.301639e-001 -1.209718e+000 -6.804518e+000 92 82 59
-8.301639e-001 -1.209718e+000 -6.804518e+000 92 82 59
4.117796e-002 -1.135833e+000 -7.261903e+000 131 122 85
1.349262e+000 -1.005202e+000 -7.858439e+000 56 63 40
-1.059610e+000 -1.294648e+000 -6.785380e+000 96 87 57
-8.449732e-001 -1.244681e+000 -6.828770e+000 84 73 52
-5.467736e-001 -1.238561e+000 -7.012055e+000 87 78 49
-1.142898e+000 -1.344758e+000 -6.781121e+000 92 85 59
-1.078268e+000 -1.342403e+000 -6.814962e+000 95 86 55
-1.083948e+000 -1.370127e+000 -6.846861e+000 105 96 67
-1.449987e+000 -1.467682e+000 -6.759028e+000 94 84 57
-1.126375e+000 -1.400673e+000 -6.849006e+000 137 124 86
-1.109670e+000 -1.427563e+000 -6.872639e+000 99 92 63
-1.041347e+000 -1.424178e+000 -6.904370e+000 79 72 52
-1.001972e+000 -1.474659e+000 -6.994547e+000 95 93 70
-1.494832e+000 -1.517087e+000 -6.746764e+000 123 116 71
-1.482603e+000 -1.550797e+000 -6.813138e+000 86 81 51
-1.497123e+000 -1.566702e+000 -6.846320e+000 92 88 58
-1.010979e+000 -1.498843e+000 -7.027691e+000 81 77 52
-1.011582e+000 -1.498979e+000 -7.029681e+000 81 77 52
-6.827917e-001 -1.504686e+000 -7.176210e+000 139 130 90
-1.209704e+000 -1.577353e+000 -6.992218e+000 121 116 78
1.346915e-002 -3.269589e-001 -6.409971e+000 146 135 79
-1.686464e-001 -1.324038e+000 -7.327572e+000 108 96 65
1.858093e-001 -1.241868e+000 -7.420115e+000 100 91 49
8.509621e-002 -3.200717e-001 -6.446132e+000 141 130 73
-1.628642e+000 -1.569198e+000 -6.746136e+000 77 73 48
-4.016421e-001 -1.249815e-001 -6.011122e+000 115 102 71
-4.762117e-001 -9.143940e-001 -6.718195e+000 105 95 70
-2.395890e-001 4.280286e-002 -6.216452e+000 231 226 220
-2.439790e+000 1.396428e+000 -7.590664e+000 211 179 163
-2.557143e+000 1.341542e+000 -8.015621e+000 197 166 106
1.299170e+000 -1.756246e-001 -6.960294e+000 96 105 76
-7.671460e-002 -3.926009e-001 -6.385445e+000 90 77 40
1.471573e+000 -2.434931e-001 -7.132728e+000 90 100 74
-1.227221e-001 -5.345854e-001 -6.488812e+000 84 71 39
8.050052e-001 -5.106159e-001 -7.034008e+000 123 119 81
1.538627e+000 -4.256378e-001 -7.381409e+000 84 92 70
1.538627e+000 -4.256378e-001 -7.381409e+000 84 92 70
-1.484954e+000 -6.130940e-001 -6.089354e+000 90 93 51
-8.276814e-001 -7.093541e-001 -6.200551e+000 79 80 67
-2.348509e-001 -8.298707e-001 -6.749877e+000 89 73 49
1.085213e+000 -7.980716e-001 -7.449933e+000 99 103 70
-2.132748e+000 -2.807031e-001 -7.260784e+000 228 205 205
-1.293667e-001 -1.057778e+000 -7.069762e+000 147 133 89
-3.696476e-001 -1.122595e+000 -7.003435e+000 153 135 86
-1.261446e-001 -1.165498e+000 -7.163661e+000 145 130 90
-2.815035e-001 -1.166077e+000 -7.102313e+000 145 131 85
-2.815035e-001 -1.166077e+000 -7.102313e+000 145 131 85
1.153764e-001 -1.269436e+000 -7.423623e+000 138 127 82
2.301977e-001 -1.317609e+000 -7.556197e+000 138 126 85
-9.374168e-001 -1.464280e+000 -7.040436e+000 78 70 42
4.801241e-001 -1.451578e+000 -7.835205e+000 89 80 44
4.901097e-001 -1.494635e+000 -7.882006e+000 128 120 83
1.516945e+000 -1.253409e-001 -7.179685e+000 94 104 77
-8.914885e-001 -5.061405e-001 -6.010722e+000 68 68 60
-2.069752e-001 -3.512470e-001 -6.307706e+000 139 123 69
-6.361774e-002 -4.400733e-001 -6.396708e+000 140 127 74
-6.361774e-002 -4.400733e-001 -6.396708e+000 140 127 74
1.184896e+000 -2.338899e-001 -6.960948e+000 64 68 53
-8.156987e-001 -6.630422e-001 -6.156521e+000 75 77 64
3.780534e-001 -6.044573e-001 -6.733088e+000 151 132 66
8.707337e-001 -5.023311e-001 -7.114319e+000 112 110 70
-1.556200e+000 -5.390760e-001 -6.220379e+000 172 178 91
-6.931742e-001 -7.329681e-001 -6.301136e+000 130 121 84
8.253188e-001 -5.457600e-001 -7.075427e+000 69 65 36
1.070351e+000 -5.782644e-001 -7.208580e+000 68 73 43
-9.369041e-001 -8.241079e-001 -6.243319e+000 77 78 65
1.817369e-001 -6.692870e-001 -6.840977e+000 82 71 44
1.352108e+000 -6.601730e-001 -7.444349e+000 54 57 40
7.164947e-001 -7.603088e-001 -7.195880e+000 129 122 71
1.184625e+000 -7.058428e-001 -7.490591e+000 89 96 67
1.281500e+000 -6.962116e-001 -7.535458e+000 67 72 48
7.027092e-001 -8.709976e-001 -7.380492e+000 69 61 29
1.183926e+000 -8.753414e-001 -7.623983e+000 83 89 61
-5.391948e-001 -9.955652e-001 -6.776697e+000 145 132 94
-5.437521e-001 -1.084323e+000 -6.839510e+000 112 96 71
9.840072e-001 -9.901405e-001 -7.598005e+000 70 69 49
1.399633e+000 -8.970062e-001 -7.862964e+000 55 58 37
-6.274466e-001 -1.183590e+000 -6.869549e+000 59 48 43
-3.637442e-001 -1.142469e+000 -7.018502e+000 114 100 73
-3.637442e-001 -1.142469e+000 -7.018502e+000 114 100 73
2.316525e-002 -1.081003e+000 -7.188728e+000 80 68 42
-3.335951e-001 -1.217285e+000 -7.110453e+000 74 58 32
-3.143653e-001 -1.243260e+000 -7.144463e+000 150 136 90
1.393597e-001 -1.186858e+000 -7.380263e+000 151 137 93
1.006565e+000 -1.174200e+000 -7.853430e+000 100 100 71
-2.329187e-001 -1.318909e+000 -7.293488e+000 138 125 83
-2.329187e-001 -1.318909e+000 -7.293488e+000 138 125 83
8.796356e-001 -1.260290e+000 -7.846497e+000 66 64 41
-7.166655e-001 -1.372669e+000 -7.107962e+000 62 52 48
1.936402e-003 -1.375593e+000 -7.573184e+000 138 128 76
4.200026e-001 -1.343569e+000 -7.724252e+000 136 125 78
4.200026e-001 -1.343569e+000 -7.724252e+000 136 125 78
-3.577683e-002 -1.544832e+000 -7.698711e+000 101 93 67
-2.217592e+000 1.385936e+000 -7.293036e+000 132 102 61
-1.831109e+000 7.558861e-001 -6.650821e+000 177 163 90
-1.921716e+000 7.305956e-001 -6.765072e+000 145 134 78
1.670665e+000 -1.364414e-001 -7.165062e+000 67 74 56
-1.526277e+000 -2.554766e-001 -6.112267e+000 183 181 96
1.518058e+000 -2.059917e-001 -7.174301e+000 56 66 43
1.664808e+000 -1.647286e-001 -7.216566e+000 56 65 49
-4.342086e-001 -6.530554e-001 -6.469738e+000 58 53 40
7.430923e-001 -5.911604e-001 -7.027788e+000 71 67 42
1.251079e+000 -7.734780e-001 -7.459653e+000 55 60 40
7.692760e-001 -8.607557e-001 -7.350925e+000 78 73 48
7.692760e-001 -8.607557e-001 -7.350925e+000 78 73 48
-8.216635e-001 -1.183432e+000 -6.782366e+000 88 73 44
-8.189140e-001 -1.189528e+000 -6.767201e+000 88 73 44
-6.773165e-001 -1.137833e+000 -6.825568e+000 55 47 35
-6.842882e-001 -1.244964e+000 -6.905116e+000 78 65 50
-4.675995e-001 -1.233347e+000 -7.019740e+000 81 69 43
-8.055355e-001 -1.307710e+000 -6.925526e+000 89 72 43
5.895002e-001 -1.319790e+000 -7.801535e+000 85 74 46
-3.661793e-001 -1.379741e+000 -7.213292e+000 147 128 84
1.430597e-002 -1.446304e+000 -7.520662e+000 82 71 48
1.430597e-002 -1.446304e+000 -7.520662e+000 82 71 48
5.196795e-001 -1.334818e+000 -7.837171e+000 82 74 50
4.872372e-001 -1.417026e+000 -7.801888e+000 83 73 47
9.275486e-001 -1.448405e+000 -8.006182e+000 73 67 48
-1.417287e+000 -1.565879e+000 -6.854910e+000 79 71 44
-2.973981e-001 -1.549710e+000 -7.450710e+000 89 79 47
3.287844e-002 -1.543705e+000 -7.631553e+000 83 71 45
1.568207e-001 -1.552789e+000 -7.758254e+000 92 81 54
-1.571453e+000 -1.606660e+000 -6.817427e+000 89 81 56
2.646267e-001 -2.467827e-001 -6.394221e+000 121 117 69
3.050961e-001 -3.170734e-001 -6.564128e+000 123 115 66
-4.207486e-001 -6.116542e-001 -6.440713e+000 60 50 40
2.069803e+000 -1.553687e+000 -6.933558e+000 208 206 194
-8.455248e-001 -1.242513e+000 -6.832897e+000 76 63 44
-1.304347e+000 -1.333108e+000 -6.681897e+000 136 119 76
7.172372e-002 -1.522398e+000 -7.747213e+000 109 99 63
1.824765e+000 -1.091068e+000 -7.436382e+000 187 187 175
-1.120347e+000 -1.540054e+000 -6.988502e+000 102 91 69
-1.603072e+000 -1.671655e+000 -6.908866e+000 114 105 75
3.689160e-001 -1.557650e+000 -7.981869e+000 124 112 70
-9.841712e-001 -7.356717e-001 -6.193698e+000 76 79 68
-1.062979e+000 -1.624289e+000 -7.143437e+000 106 95 67
1.228612e-001 -1.555503e+000 -7.770597e+000 127 114 81
-2.524823e+000 1.420845e+000 -7.457673e+000 209 183 170
-1.494405e+000 -1.509705e+000 -6.775706e+000 119 112 70
-1.077906e+000 -1.632331e-001 -5.657311e+000 109 113 76
-3.376165e-001 -1.589577e-001 -6.098976e+000 144 134 87
-3.321206e-001 -2.100421e-001 -6.108460e+000 132 130 81
4.715956e-001 -2.872578e-001 -6.605138e+000 134 132 84
3.313266e-001 -3.406298e-001 -6.600082e+000 87 82 40
3.423894e-001 -3.662175e-001 -6.610404e+000 133 130 78
9.130302e-001 -2.970986e-001 -6.914401e+000 74 79 49
-1.359328e+000 2.797745e-002 -6.460079e+000 117 117 95
1.322971e-002 -5.225934e-001 -6.602769e+000 142 131 89
-1.107673e+000 -7.245794e-001 -6.129116e+000 71 75 67
-8.652296e-001 -7.273005e-001 -6.231985e+000 82 88 76
-1.143055e+000 -7.763798e-001 -6.134355e+000 138 134 122
-8.880677e-001 -7.463160e-001 -6.261229e+000 137 139 126
1.173961e+000 -5.582722e-001 -7.294968e+000 95 104 77
-1.049036e+000 -8.451210e-001 -6.250159e+000 92 90 79
8.148960e-001 -8.380250e-001 -7.363762e+000 118 111 74
-7.755100e-001 -1.140324e+000 -6.768507e+000 135 121 90
6.860085e-001 -1.012197e+000 -7.489992e+000 120 113 73
7.805098e-001 -1.264923e+000 -7.835349e+000 110 107 72
-1.528144e+000 -1.503548e+000 -6.718991e+000 82 76 45
-1.551089e+000 -1.521236e+000 -6.745421e+000 78 73 48
-1.556180e+000 -1.565573e+000 -6.754049e+000 84 81 48
-1.361240e+000 -1.529075e+000 -6.830835e+000 79 74 48
-2.933752e-001 -1.983211e-001 -6.131759e+000 136 133 88
-1.901210e-001 -3.316429e-001 -6.257957e+000 146 134 83
1.497102e+000 -1.670266e-001 -7.099453e+000 100 112 88
1.497102e+000 -1.670266e-001 -7.099453e+000 100 112 88
-7.802924e-001 -4.875651e-001 -6.071268e+000 138 135 108
5.097461e-002 -3.979394e-001 -6.480966e+000 147 136 90
2.570565e-001 -3.263510e-001 -6.547675e+000 138 132 82
1.009640e+000 -2.766752e-001 -6.942335e+000 98 109 77
1.229765e+000 -2.001753e-001 -6.999269e+000 98 108 81
1.527239e+000 -1.759823e-001 -7.126118e+000 73 82 60
-4.498311e-001 -5.230700e-001 -6.354412e+000 61 51 49
-4.230381e-001 -5.383553e-001 -6.354048e+000 78 67 54
-3.104736e-001 -5.101759e-001 -6.374444e+000 148 138 88
2.428591e-002 -4.879049e-001 -6.549008e+000 142 133 92
8.508580e-001 -3.666773e-001 -6.918679e+000 114 118 81
9.229491e-001 -3.491879e-001 -6.947141e+000 108 112 77
8.975300e-001 -4.254716e-001 -7.005940e+000 104 108 74
8.905208e-001 -4.454524e-001 -6.984319e+000 104 108 74
1.165796e+000 -3.946759e-001 -7.106748e+000 91 104 77
1.653220e-001 -5.576772e-001 -6.709882e+000 93 83 51
3.122521e-001 -5.076520e-001 -6.756437e+000 91 83 47
4.025965e-001 -5.030951e-001 -6.765136e+000 155 143 87
8.824959e-001 -4.675317e-001 -7.019276e+000 118 118 81
9.483204e-001 -4.593358e-001 -7.060079e+000 105 110 80
9.483204e-001 -4.593358e-001 -7.060079e+000 105 110 80
1.353436e+000 -4.154109e-001 -7.248479e+000 86 100 73
1.341529e+000 -4.557844e-001 -7.317307e+000 91 100 73
1.329516e+000 -4.789828e-001 -7.296383e+000 91 100 73
-8.751909e-001 -8.065422e-001 -6.304389e+000 84 88 74
-3.696388e-002 -6.617135e-001 -6.697278e+000 149 133 101
-3.696388e-002 -6.617135e-001 -6.697278e+000 149 133 101
7.565352e-001 -5.433057e-001 -7.036738e+000 89 86 53
8.124735e-001 -5.760843e-001 -7.098516e+000 77 76 44
8.243832e-001 -6.347716e-001 -7.121709e+000 117 118 77
1.419798e+000 -4.926001e-001 -7.372048e+000 64 73 52
1.419798e+000 -4.926001e-001 -7.372048e+000 64 73 52
-1.000596e+000 -9.084099e-001 -6.294656e+000 103 105 94
-9.177787e-001 -8.782257e-001 -6.355712e+000 147 138 112
5.976683e-003 -7.889910e-001 -6.838147e+000 92 80 47
7.325087e-001 -7.112238e-001 -7.190979e+000 127 120 74
-4.260358e-002 -8.330635e-001 -6.866982e+000 146 136 97
7.276939e-002 -8.131938e-001 -6.902044e+000 91 79 52
8.990670e-001 -7.881088e-001 -7.345622e+000 104 104 68
1.190122e+000 -7.685489e-001 -7.508471e+000 58 67 40
1.749328e-001 -8.944057e-001 -7.045073e+000 95 82 50
-6.124010e-001 -1.055548e+000 -6.770077e+000 99 81 71
-1.881102e-001 -9.908024e-001 -6.942873e+000 153 139 92
6.541077e-001 -9.269499e-001 -7.356065e+000 122 116 67
9.764488e-001 -9.162437e-001 -7.521302e+000 106 107 76
1.867393e-001 -1.077814e+000 -7.285185e+000 139 126 81
1.067134e+000 -1.024924e+000 -7.739582e+000 92 97 65
1.085263e+000 -1.053347e+000 -7.754354e+000 69 73 48
-1.035148e+000 -1.208934e+000 -6.698438e+000 100 86 60
-3.578488e-001 -1.206042e+000 -7.083404e+000 147 135 97
3.052408e-002 -1.402307e+000 -7.502302e+000 101 93 57
1.076494e+000 -1.333019e+000 -8.082422e+000 83 87 62
-3.637951e-001 -2.035151e-001 -6.096022e+000 137 132 81
-2.747073e-002 -1.401785e-001 -6.266805e+000 139 132 86
3.422373e-001 -2.076723e-001 -6.487528e+000 126 126 82
3.439739e-001 -2.063040e-001 -6.488798e+000 126 126 82
-1.004150e+000 -4.599022e-001 -5.933994e+000 80 83 74
8.771553e-001 -1.786020e-001 -6.760465e+000 78 84 58
9.705089e-001 -2.919062e-001 -6.914233e+000 72 79 55
7.380335e-001 -4.296860e-001 -6.896540e+000 90 90 60
7.663883e-001 -4.313706e-001 -6.911680e+000 124 119 82
7.660186e-001 -4.323841e-001 -6.908877e+000 124 119 82
1.007866e+000 -3.732925e-001 -6.987976e+000 75 84 58
1.066468e+000 -4.028801e-001 -7.079146e+000 74 81 57
1.616164e+000 -2.914705e-001 -7.283673e+000 70 78 58
-1.230834e+000 -7.094498e-001 -6.039797e+000 113 115 101
-8.891754e-001 -6.752547e-001 -6.162720e+000 84 88 74
-1.029295e-001 -6.020605e-001 -6.608180e+000 113 101 70
-1.029295e-001 -6.020605e-001 -6.608180e+000 113 101 70
8.083766e-001 -4.072940e-001 -7.011120e+000 92 91 60
7.457526e-001 -5.945464e-001 -7.081777e+000 91 90 52
