ply
format ascii 1.0
element face 0
property list uchar int vertex_indices
element vertex 877
property float x
property float y
property float z
property uchar diffuse_red
property uchar diffuse_green
property uchar diffuse_blue
end_header
-1.661869e-001 7.094589e-001 -7.187135e+000 82 75 57
-1.096574e-001 7.365891e-001 -7.237802e+000 200 188 168
-8.146190e-002 6.844522e-001 -7.189563e+000 179 166 143
-1.129990e-001 6.518396e-001 -7.138529e+000 186 174 152
-4.976905e-002 6.788905e-001 -7.208151e+000 79 77 62
-6.701126e-003 6.200882e-001 -7.143284e+000 196 186 158
-1.222459e-001 5.533903e-001 -7.015425e+000 83 78 64
-1.222016e-001 5.535994e-001 -7.015266e+000 83 78 64
5.346468e-002 5.332597e-001 -7.063302e+000 91 77 58
5.346468e-002 5.332597e-001 -7.063302e+000 91 77 58
7.148989e-001 5.705167e-001 -7.399398e+000 163 149 98
1.020897e+000 6.441714e-001 -7.640749e+000 154 162 140
9.345597e-001 5.289840e-001 -7.460912e+000 102 114 75
4.761929e-002 3.565105e-001 -6.845546e+000 173 158 118
4.725081e-002 3.565570e-001 -6.849753e+000 173 158 118
4.984790e-001 3.584839e-001 -7.051727e+000 170 162 90
5.243783e-001 4.212695e-001 -7.134538e+000 143 99 70
5.243783e-001 4.212695e-001 -7.134538e+000 143 99 70
1.612294e-001 2.856505e-001 -6.812785e+000 72 77 62
3.965635e-001 2.727985e-001 -6.903356e+000 139 103 64
3.965635e-001 2.727985e-001 -6.903356e+000 139 103 64
4.285676e-001 2.190890e-001 -6.854595e+000 131 100 53
5.236874e-001 3.463104e-001 -7.041623e+000 180 163 102
5.932800e-001 2.649390e-001 -6.983144e+000 175 166 106
5.829147e-001 2.424028e-001 -6.960420e+000 139 94 64
1.409968e+000 3.151648e-001 -7.444701e+000 106 120 94
1.454736e+000 2.494516e-001 -7.382665e+000 105 119 93
1.748123e-001 1.303195e-001 -6.639477e+000 177 162 108
1.748123e-001 1.303195e-001 -6.639477e+000 177 162 108
3.932106e-001 1.632513e-001 -6.781205e+000 180 161 102
4.438451e-001 1.491531e-001 -6.771740e+000 181 169 106
4.677900e-001 1.493944e-001 -6.795576e+000 126 82 51
6.604762e-001 1.567762e-001 -6.892037e+000 145 84 70
6.582722e-001 1.567396e-001 -6.889649e+000 145 84 70
1.482112e+000 2.384890e-001 -7.374643e+000 159 173 148
3.868648e-001 5.154783e-002 -6.646229e+000 144 95 75
1.504334e+000 5.947043e-002 -7.197151e+000 174 182 169
1.583467e+000 -2.300887e-001 -7.263153e+000 56 57 40
9.095685e-001 -2.973646e-001 -6.915134e+000 93 94 66
8.383330e-001 -5.171654e-001 -7.091132e+000 108 103 71
8.786173e-001 -4.001943e-001 -7.006339e+000 99 97 66
8.786173e-001 -4.001943e-001 -7.006339e+000 99 97 66
1.079707e+000 -5.272313e-001 -7.232833e+000 87 88 65
-1.024245e+000 -5.025961e-001 -5.992246e+000 74 66 57
-7.091892e-002 -4.958926e-001 -6.579486e+000 127 112 77
-7.091892e-002 -4.958926e-001 -6.579486e+000 127 112 77
2.970653e-001 -6.364252e-001 -6.925996e+000 136 118 80
8.549152e-001 -6.262571e-001 -7.176583e+000 114 106 73
9.209985e-001 -5.568522e-001 -7.176807e+000 66 62 34
-1.097277e+000 -6.320857e-001 -6.065387e+000 76 67 60
-9.132216e-002 -6.981346e-001 -6.745015e+000 139 122 92
1.003482e+000 -7.677255e-001 -7.469327e+000 94 91 64
-3.883755e-001 -8.284119e-001 -6.731298e+000 140 124 99
-3.277916e-001 -7.928975e-001 -6.700409e+000 136 120 97
-1.950181e-001 -8.330346e-001 -6.832437e+000 135 118 90
-1.950181e-001 -8.330346e-001 -6.832437e+000 135 118 90
8.047849e-002 -8.750115e-001 -7.015307e+000 138 122 86
8.047849e-002 -8.750115e-001 -7.015307e+000 138 122 86
5.321393e-001 -9.419299e-001 -7.347185e+000 78 66 40
1.052199e+000 -8.840611e-001 -7.610017e+000 65 63 38
-1.964695e-001 -9.778047e-001 -6.968418e+000 131 115 81
4.965650e-002 -9.640781e-001 -7.126685e+000 137 121 89
3.151157e-002 -1.005175e+000 -7.143607e+000 126 112 77
1.701207e-001 -1.044386e+000 -7.244405e+000 87 71 46
1.701207e-001 -1.044386e+000 -7.244405e+000 87 71 46
5.445666e-001 -1.067342e+000 -7.512348e+000 79 65 38
5.445666e-001 -1.067342e+000 -7.512348e+000 79 65 38
-5.658537e-001 -1.104395e+000 -6.883435e+000 57 47 38
-4.661194e-001 -1.098029e+000 -6.953412e+000 82 67 44
-1.179845e-002 -1.117135e+000 -7.255871e+000 115 101 72
1.299209e-001 -1.148513e+000 -7.342056e+000 92 76 51
1.635866e-001 -1.195733e+000 -7.404157e+000 88 72 46
1.635866e-001 -1.195733e+000 -7.404157e+000 88 72 46
4.613462e-001 -1.117523e+000 -7.492359e+000 88 74 50
4.330094e-001 -1.186320e+000 -7.526427e+000 95 81 54
7.732782e-001 -1.249359e+000 -7.823504e+000 74 65 42
-1.140519e+000 -1.396895e+000 -6.892447e+000 114 98 72
1.996256e+000 -1.486427e+000 -6.893829e+000 187 180 172
-2.008176e+000 1.742826e+000 -7.534111e+000 180 174 137
-1.409781e+000 2.005397e+000 -8.221296e+000 241 216 207
-1.385919e+000 1.964827e+000 -8.158882e+000 162 150 104
-1.989810e+000 1.651761e+000 -7.414621e+000 138 139 102
-1.936200e+000 1.628624e+000 -7.403695e+000 187 178 135
-1.719657e+000 1.719854e+000 -7.570090e+000 180 177 145
-1.726362e+000 1.727491e+000 -7.604021e+000 180 177 145
-6.765903e-001 1.944337e+000 -8.479023e+000 188 170 134
1.735132e-002 1.961604e+000 -8.849900e+000 166 133 122
-1.083595e+000 1.322761e+000 -7.341697e+000 194 189 186
-1.083567e+000 1.322845e+000 -7.341615e+000 194 189 186
1.871315e-001 1.642657e+000 -8.438140e+000 144 103 83
1.861151e-001 1.656193e+000 -8.507049e+000 144 103 83
5.836041e-001 1.630561e+000 -8.647879e+000 83 81 79
-1.083106e+000 1.155090e+000 -7.118913e+000 146 67 73
-1.079103e+000 1.027429e+000 -6.967508e+000 208 193 201
5.990333e-001 1.200686e+000 -8.119614e+000 165 155 119
5.696809e-001 1.162820e+000 -8.062665e+000 161 153 117
8.051315e-001 1.177559e+000 -8.201909e+000 139 138 127
8.726761e-001 1.175188e+000 -8.223969e+000 151 134 92
-8.861749e-001 9.307207e-001 -6.939350e+000 160 66 68
-8.879945e-001 9.314736e-001 -6.942446e+000 160 66 68
-9.653959e-001 8.517170e-001 -6.797528e+000 159 72 72
-9.243154e-001 8.332791e-001 -6.809452e+000 200 190 186
5.544049e-001 1.123815e+000 -8.003879e+000 102 96 84
5.608077e-001 9.901071e-001 -7.856329e+000 171 170 137
-5.734887e-001 7.013713e-001 -6.786533e+000 206 183 128
7.537797e-001 8.603216e-001 -7.781340e+000 88 82 81
1.021731e+000 9.617327e-001 -8.054496e+000 155 162 151
-7.427082e-002 6.220690e-001 -7.111273e+000 82 85 71
-5.986140e-002 6.502692e-001 -7.152172e+000 190 179 156
-5.991600e-002 6.502481e-001 -7.152491e+000 190 179 156
4.142787e-002 5.598400e-001 -7.085065e+000 196 186 156
4.084543e-002 5.597186e-001 -7.073909e+000 196 186 156
4.377895e-001 4.935501e-001 -7.194689e+000 188 163 105
7.526546e-001 6.014808e-001 -7.472994e+000 179 175 145
8.891989e-001 5.060523e-001 -7.409893e+000 148 149 91
1.073205e-002 4.507525e-001 -6.945055e+000 193 181 144
1.111270e-001 3.805468e-001 -6.912812e+000 80 71 54
1.004760e-001 3.530222e-001 -6.881632e+000 177 163 125
1.004760e-001 3.530222e-001 -6.881632e+000 177 163 125
2.367014e-001 4.744478e-001 -7.077390e+000 189 172 118
2.329566e-001 4.421533e-001 -7.052762e+000 146 97 69
4.539524e-001 4.085356e-001 -7.099151e+000 148 101 74
8.202979e-001 3.795227e-001 -7.237257e+000 186 179 151
1.315126e+000 4.094370e-001 -7.502521e+000 155 170 146
8.959018e-002 2.138608e-001 -6.703952e+000 177 162 116
1.275691e-001 2.995211e-001 -6.814563e+000 185 171 123
1.540649e-001 2.528809e-001 -6.770425e+000 181 168 126
3.351510e-001 2.987227e-001 -6.903681e+000 191 170 117
3.380219e-001 2.994371e-001 -6.903658e+000 191 170 117
4.994090e-001 3.301324e-001 -7.023641e+000 139 96 68
4.994090e-001 3.301324e-001 -7.023641e+000 139 96 68
1.462943e+000 2.791455e-001 -7.414397e+000 145 159 134
-2.203157e+000 1.663601e-001 -7.647307e+000 183 78 92
2.261656e-001 1.552078e-001 -6.689859e+000 72 81 71
3.547631e-001 2.145469e-001 -6.822107e+000 149 100 72
4.191263e-001 1.958951e-001 -6.831986e+000 177 170 102
4.197326e-001 1.959738e-001 -6.824704e+000 177 170 102
6.409386e-001 1.984720e-001 -6.948739e+000 145 95 70
3.379268e-001 5.824556e-002 -6.622767e+000 72 76 68
3.378704e-001 5.890191e-002 -6.615313e+000 72 76 68
3.654908e-001 7.036290e-002 -6.660070e+000 177 163 96
7.011792e-001 6.546764e-002 -6.806442e+000 141 99 66
-1.555044e-001 -2.290699e-001 -6.272425e+000 72 63 34
4.877376e-001 -2.244481e-001 -6.632577e+000 107 102 59
6.582586e-001 -2.172660e-001 -6.705242e+000 105 101 63
7.978169e-001 -1.625771e-001 -6.731316e+000 65 65 39
7.978773e-001 -1.630910e-001 -6.738262e+000 65 65 39
8.361703e-001 -2.496722e-001 -6.840399e+000 63 62 39
8.633442e-001 -1.628633e-001 -6.788896e+000 64 64 40
8.460594e-001 -2.092582e-001 -6.800533e+000 65 65 39
9.482178e-001 -2.690991e-001 -6.911773e+000 65 64 44
1.113752e+000 -2.607341e-001 -7.036897e+000 86 89 64
1.263135e+000 -2.731133e-001 -7.129945e+000 58 61 41
-1.703524e-001 -2.623861e-001 -6.282330e+000 73 62 40
3.567281e-001 -3.724801e-001 -6.686382e+000 87 77 49
7.844130e-001 -3.129457e-001 -6.872420e+000 99 96 63
7.425926e-001 -3.607961e-001 -6.892487e+000 64 60 31
8.279257e-001 -3.440738e-001 -6.892789e+000 95 95 61
8.519111e-001 -3.736291e-001 -6.943201e+000 64 59 34
8.596437e-001 -2.721345e-001 -6.884126e+000 96 95 64
8.866150e-001 -3.596189e-001 -6.950622e+000 96 97 64
8.866150e-001 -3.596189e-001 -6.950622e+000 96 97 64
1.010588e+000 -3.079420e-001 -7.050894e+000 58 59 40
1.060574e+000 -3.374956e-001 -7.098542e+000 63 61 41
1.251909e+000 -3.818392e-001 -7.207708e+000 83 85 63
-7.707585e-001 -4.290201e-001 -6.075498e+000 72 69 60
-7.332065e-001 -4.482227e-001 -6.108179e+000 73 68 57
-6.426540e-003 -3.765817e-001 -6.481508e+000 82 67 35
-9.160506e-002 -4.772168e-001 -6.527782e+000 85 69 42
1.530256e-002 -3.964751e-001 -6.544942e+000 120 106 69
1.530256e-002 -3.964751e-001 -6.544942e+000 120 106 69
7.172453e-001 -5.254987e-001 -7.054244e+000 117 108 63
7.432800e-001 -5.227031e-001 -7.044727e+000 76 65 51
7.500030e-001 -4.277214e-001 -6.984871e+000 109 106 65
8.469408e-001 -4.032707e-001 -6.983682e+000 68 66 41
8.970512e-001 -5.350553e-001 -7.159519e+000 98 98 64
9.943607e-001 -5.122122e-001 -7.183606e+000 62 61 40
-9.521777e-001 -4.690115e-001 -5.999665e+000 76 69 63
-9.687858e-001 -5.280868e-001 -6.044866e+000 133 116 106
-9.298688e-001 -5.141771e-001 -6.063454e+000 135 118 111
-8.428417e-001 -4.671365e-001 -6.056364e+000 112 105 94
-2.032251e-001 -5.966090e-001 -6.578226e+000 80 66 37
-8.908202e-002 -5.457119e-001 -6.595111e+000 134 119 79
1.443164e-001 -6.176773e-001 -6.791509e+000 99 85 64
1.779536e-001 -6.128204e-001 -6.825276e+000 137 119 86
1.779536e-001 -6.128204e-001 -6.825276e+000 137 119 86
2.003540e-001 -6.316380e-001 -6.853611e+000 85 70 47
3.134501e-001 -5.929938e-001 -6.897843e+000 136 117 75
3.260916e-001 -6.291126e-001 -6.913017e+000 81 65 37
7.467279e-001 -5.940619e-001 -7.093248e+000 116 104 68
7.132676e-001 -6.061139e-001 -7.109917e+000 92 81 53
7.132676e-001 -6.061139e-001 -7.109917e+000 92 81 53
7.887065e-001 -5.839002e-001 -7.141056e+000 76 66 38
8.438809e-001 -5.837337e-001 -7.157678e+000 78 72 45
-1.147561e+000 -5.673095e-001 -5.988023e+000 68 61 51
-1.085343e+000 -5.677360e-001 -6.020804e+000 109 105 93
-1.025338e+000 -6.551586e-001 -6.156114e+000 74 63 60
-8.459088e-001 -6.498989e-001 -6.234181e+000 73 64 57
-8.459088e-001 -6.498989e-001 -6.234181e+000 73 64 57
-7.833296e-001 -6.867984e-001 -6.285739e+000 111 102 93
-3.057129e-001 -6.644465e-001 -6.596196e+000 84 68 45
-2.222786e-001 -6.531009e-001 -6.630713e+000 90 74 48
-1.317032e-001 -6.678358e-001 -6.718667e+000 141 122 92
-1.837712e-001 -7.368288e-001 -6.742549e+000 103 85 63
-8.553650e-002 -6.724720e-001 -6.678587e+000 134 118 84
-6.888030e-002 -7.057418e-001 -6.793276e+000 85 69 44
-4.487912e-002 -7.252348e-001 -6.816588e+000 139 123 94
-4.487912e-002 -7.252348e-001 -6.816588e+000 139 123 94
9.518701e-002 -7.615279e-001 -6.921160e+000 87 72 50
6.161862e-001 -7.876548e-001 -7.224909e+000 122 111 65
7.069013e-001 -7.053874e-001 -7.186062e+000 117 108 69
7.069013e-001 -7.053874e-001 -7.186062e+000 117 108 69
7.668995e-001 -7.973221e-001 -7.324436e+000 74 64 37
9.173871e-001 -7.051080e-001 -7.299618e+000 75 68 43
9.173871e-001 -7.051080e-001 -7.299618e+000 75 68 43
1.031748e+000 -7.534256e-001 -7.440469e+000 64 62 41
-8.612807e-001 -8.211896e-001 -6.381410e+000 70 67 56
-5.022228e-001 -8.276301e-001 -6.660305e+000 71 52 45
-4.373736e-001 -7.659657e-001 -6.593319e+000 58 44 36
-2.970565e-001 -8.570981e-001 -6.791298e+000 84 69 47
-2.127049e-001 -8.795304e-001 -6.867513e+000 135 120 89
-5.425491e-002 -8.255314e-001 -6.922369e+000 93 78 52
-8.364006e-002 -8.944223e-001 -6.938360e+000 100 84 61
7.523133e-002 -8.080098e-001 -6.948887e+000 90 76 49
1.788951e-001 -8.767787e-001 -7.081479e+000 83 67 45
3.780165e-001 -8.466268e-001 -7.169505e+000 81 64 40
6.213923e-001 -8.584398e-001 -7.303788e+000 86 74 42
5.880036e-001 -9.441198e-001 -7.376139e+000 83 66 44
-9.178887e-001 -8.420823e-001 -6.373102e+000 71 67 61
-9.145280e-001 -8.389028e-001 -6.355898e+000 71 67 61
-4.797865e-001 -8.751084e-001 -6.700995e+000 55 45 37
-4.237958e-001 -9.215985e-001 -6.796743e+000 134 118 94
-2.624988e-001 -9.492914e-001 -6.926998e+000 94 79 58
-3.375558e-001 -9.597800e-001 -6.875314e+000 90 74 55
-2.897753e-001 -1.017523e+000 -7.001961e+000 97 81 57
-2.888937e-001 -1.015009e+000 -6.988906e+000 97 81 57
-2.104952e-001 -9.508801e-001 -6.946514e+000 98 83 57
-1.905054e-001 -1.031099e+000 -7.035587e+000 89 74 44
-1.117739e-001 -8.973278e-001 -6.931961e+000 136 122 90
3.251058e-002 -9.287642e-001 -7.036369e+000 92 77 53
2.465573e-001 -9.881911e-001 -7.225508e+000 89 74 49
2.465573e-001 -9.881911e-001 -7.225508e+000 89 74 49
2.324495e-001 -1.025932e+000 -7.276104e+000 93 77 51
1.980572e-001 -1.034499e+000 -7.242414e+000 130 116 81
-5.050254e-001 -1.065103e+000 -6.897139e+000 93 77 58
-3.631534e-001 -1.032468e+000 -6.919526e+000 84 69 48
-1.469155e-001 -1.190884e+000 -7.210873e+000 97 82 55
-3.176139e-002 -1.093011e+000 -7.200136e+000 88 78 50
1.733167e-002 -1.099974e+000 -7.204620e+000 89 77 54
-2.586253e-004 -1.148939e+000 -7.280924e+000 87 73 46
-8.534651e-001 -1.150099e+000 -6.766848e+000 123 107 82
-9.059444e-001 -1.205647e+000 -6.805352e+000 90 75 49
-5.606378e-001 -1.269557e+000 -7.093422e+000 127 113 86
-1.994696e-001 -1.324407e+000 -7.343881e+000 93 77 51
-9.501243e-001 -1.384026e+000 -6.958137e+000 112 99 71
-8.457991e-001 -1.333140e+000 -6.999418e+000 73 60 41
-6.509219e-001 -1.434921e+000 -7.216797e+000 94 80 59
-6.509219e-001 -1.434921e+000 -7.216797e+000 94 80 59
-4.858128e-001 -1.336319e+000 -7.194201e+000 93 79 53
-3.734782e-001 -1.354281e+000 -7.276513e+000 97 82 55
-1.319342e+000 -1.409764e+000 -6.770421e+000 121 108 72
-1.292117e+000 -1.479191e+000 -6.902139e+000 109 98 70
-1.175013e+000 -1.472130e+000 -6.937702e+000 111 96 68
-8.986899e-001 -1.408878e+000 -7.015115e+000 108 97 71
-8.490389e-001 -1.439861e+000 -7.097126e+000 117 106 76
1.976918e+000 -1.462652e+000 -6.928955e+000 188 181 174
-1.862525e+000 1.854001e+000 -7.719535e+000 105 114 85
-1.899823e+000 1.690283e+000 -7.484590e+000 185 177 141
-2.527295e-001 1.795119e+000 -8.474495e+000 136 94 80
9.328593e-002 1.734338e+000 -8.534827e+000 171 135 93
-1.060463e+000 1.436594e+000 -7.462996e+000 205 185 133
-2.509357e-001 1.601156e+000 -8.213862e+000 185 152 94
-1.098837e-001 1.452275e+000 -8.103466e+000 193 184 172
-1.104857e-001 1.452630e+000 -8.099574e+000 193 184 172
-1.008997e+000 1.150311e+000 -7.139523e+000 151 64 70
2.549913e-001 1.414438e+000 -8.217746e+000 184 177 143
-1.026387e+000 1.069212e+000 -7.033670e+000 153 71 68
-9.748764e-001 1.073595e+000 -7.053808e+000 150 71 75
8.840063e-001 1.288765e+000 -8.385447e+000 80 91 75
8.583874e-001 1.233312e+000 -8.296438e+000 168 146 105
-9.867492e-001 8.278473e-001 -6.774665e+000 199 186 183
-9.885599e-001 8.278371e-001 -6.778838e+000 199 186 183
-9.535237e-001 8.929203e-001 -6.868120e+000 201 185 183
-9.562260e-001 8.917784e-001 -6.853258e+000 201 185 183
-8.464815e-001 9.027593e-001 -6.905809e+000 202 192 190
-7.846906e-001 9.038909e-001 -6.946451e+000 198 199 192
-7.807394e-001 7.899736e-001 -6.820484e+000 198 192 191
-1.433092e-001 7.612280e-001 -7.260598e+000 88 82 69
-7.175645e-002 7.239273e-001 -7.235094e+000 87 86 66
1.026602e+000 6.872244e-001 -7.689311e+000 72 80 67
-6.388253e-002 5.875853e-001 -7.083398e+000 199 188 166
-6.388253e-002 5.875853e-001 -7.083398e+000 199 188 166
9.272969e-002 4.909123e-001 -7.014771e+000 95 82 65
9.709275e-001 6.302417e-001 -7.581468e+000 85 98 66
9.725669e-001 5.416148e-001 -7.502063e+000 168 174 140
7.613380e-004 4.172247e-001 -6.910789e+000 71 93 73
2.077620e-002 3.621050e-001 -6.849357e+000 75 84 75
8.124527e-002 3.272562e-001 -6.811195e+000 73 86 69
3.328382e-001 2.648119e-001 -6.875605e+000 140 94 61
1.285808e+000 3.382218e-001 -7.387893e+000 119 133 80
-2.226420e+000 2.283385e-001 -7.644201e+000 189 82 94
-2.226420e+000 2.283385e-001 -7.644201e+000 189 82 94
2.572005e-001 1.071823e-001 -6.646474e+000 66 80 65
5.904234e-001 1.783708e-001 -6.885366e+000 180 165 109
5.028965e-001 6.168318e-002 -6.705635e+000 143 97 64
5.034761e-001 6.183504e-002 -6.704379e+000 143 97 64
1.169938e+000 8.913928e-002 -7.051062e+000 169 150 94
1.610216e+000 -1.307998e-001 -7.177069e+000 58 63 43
7.023541e-001 -2.707939e-001 -6.784676e+000 106 102 65
2.228980e-001 -4.037820e-001 -6.640895e+000 81 65 46
2.102623e-001 -4.373476e-001 -6.652208e+000 89 72 51
1.962349e-001 -4.757312e-001 -6.677623e+000 79 64 43
3.210506e-001 -4.835268e-001 -6.776966e+000 80 69 41
-7.925933e-001 -5.433594e-001 -6.158853e+000 130 115 104
-3.719464e-001 -5.769852e-001 -6.477972e+000 57 45 38
1.828162e-001 -5.208481e-001 -6.732336e+000 75 64 36
-3.190242e-001 -7.118140e-001 -6.637282e+000 86 69 50
-9.868342e-002 -6.396509e-001 -6.684945e+000 82 65 40
-9.868342e-002 -6.396509e-001 -6.684945e+000 82 65 40
1.202412e-002 -6.438477e-001 -6.773846e+000 81 68 42
1.291812e-001 -6.674419e-001 -6.845578e+000 78 66 41
3.100343e-001 -6.747678e-001 -6.952517e+000 86 73 46
-7.676048e-001 -7.734175e-001 -6.386500e+000 73 66 62
-3.347821e-001 -7.559177e-001 -6.675058e+000 89 75 58
3.650352e-001 -1.109909e+000 -7.419942e+000 132 118 85
-6.624202e-001 -1.127551e+000 -6.839463e+000 135 116 83
-7.319360e-001 -1.211762e+000 -6.903229e+000 96 81 57
-1.152729e+000 -1.225575e+000 -6.621363e+000 79 63 47
-1.142743e+000 -1.270602e+000 -6.708214e+000 115 100 71
-8.130680e-001 -1.401428e+000 -7.075024e+000 75 63 41
-1.370684e+000 -1.452645e+000 -6.790900e+000 87 70 53
-6.878925e-001 -1.535025e+000 -7.326045e+000 100 89 64
-2.048201e+000 1.872240e+000 -7.678661e+000 153 153 115
-1.603580e+000 1.796122e+000 -7.714746e+000 196 177 133
-1.397168e+000 2.012229e+000 -8.203548e+000 243 215 207
-1.891176e+000 1.606519e+000 -7.397375e+000 132 128 87
-1.891176e+000 1.606519e+000 -7.397375e+000 132 128 87
-1.852507e+000 1.676864e+000 -7.483971e+000 154 150 113
-1.617959e+000 1.717588e+000 -7.594440e+000 93 118 90
-1.193607e+000 1.302684e+000 -7.270162e+000 202 188 188
-1.193607e+000 1.302684e+000 -7.270162e+000 202 188 188
1.624031e-001 1.496353e+000 -8.297594e+000 182 166 123
-1.121539e+000 1.165585e+000 -7.143099e+000 200 188 187
7.009519e-001 1.463749e+000 -8.520520e+000 163 132 84
-1.101764e+000 1.084837e+000 -7.052508e+000 167 78 82
8.217010e-001 1.287354e+000 -8.324322e+000 165 150 100
7.556104e-001 9.848033e-001 -7.932565e+000 169 162 148
-9.078568e-001 7.232156e-001 -6.687090e+000 202 189 191
1.007554e+000 8.571570e-001 -7.875683e+000 103 103 94
9.241220e-001 6.941425e-001 -7.656055e+000 153 157 135
-2.263744e+001 4.649975e+000 -5.276666e+001 243 49 89
5.813664e-003 5.748982e-001 -7.097910e+000 75 87 72
8.042027e-001 5.948395e-001 -7.494960e+000 178 173 144
-2.834241e-002 4.671899e-001 -6.962954e+000 74 89 71
-2.834241e-002 4.671899e-001 -6.962954e+000 74 89 71
1.566365e-001 1.887867e-001 -6.696283e+000 185 169 113
1.581745e-001 1.890116e-001 -6.690096e+000 185 169 113
2.291538e-001 7.731581e-002 -6.599001e+000 177 166 103
2.252919e-001 7.742312e-002 -6.599820e+000 177 166 103
4.534615e-001 8.965387e-002 -6.717760e+000 174 164 96
4.503341e-001 8.899358e-002 -6.717701e+000 174 164 96
2.849615e-001 -2.599584e-001 -6.517124e+000 68 56 29
-2.340186e+001 -3.828009e+000 -4.235383e+001 216 210 254
-6.804070e-001 -4.880605e-001 -6.170543e+000 68 67 55
-6.784292e-001 -4.872432e-001 -6.165285e+000 68 67 55
-2.354913e-001 -5.043697e-001 -6.482855e+000 128 111 69
1.540030e-001 -8.340190e-001 -7.016329e+000 82 68 34
7.421138e-002 -1.057456e+000 -7.248021e+000 85 72 40
1.211323e+000 -1.472563e+000 -8.328294e+000 83 65 50
-1.425394e+000 -1.426318e+000 -6.775576e+000 91 77 50
-1.481610e+001 -1.108339e+001 -3.660374e+001 74 47 105
-1.972935e+000 1.863726e+000 -7.651326e+000 181 173 137
-1.463962e+000 2.014498e+000 -8.162256e+000 179 166 113
1.658952e-001 1.836438e+000 -8.745634e+000 176 147 116
1.658952e-001 1.836438e+000 -8.745634e+000 176 147 116
6.975831e-001 1.382812e+000 -8.412932e+000 87 90 75
-8.324029e-001 7.828567e-001 -6.777362e+000 166 72 73
-8.324029e-001 7.828567e-001 -6.777362e+000 166 72 73
9.066573e-001 5.514422e-001 -7.469355e+000 83 96 68
1.063146e+000 4.793858e-001 -7.437854e+000 99 115 76
3.842080e-001 9.502449e-002 -6.695824e+000 175 166 95
-2.492278e+001 -2.715747e+000 -4.369374e+001 76 51 115
-2.452427e+001 -2.963311e+000 -4.342964e+001 194 183 239
-2.342228e+001 -4.264363e+000 -4.016356e+001 107 69 122
6.496738e-002 -6.429252e-001 -6.807568e+000 136 116 74
6.496738e-002 -6.429252e-001 -6.807568e+000 136 116 74
1.088493e+000 -1.451799e+000 -8.250881e+000 69 62 44
-2.000451e+001 -8.033724e+000 -3.852030e+001 225 43 84
-1.460208e+001 -8.105162e+000 -3.966903e+001 222 49 82
-6.668341e-001 1.841795e+000 -8.351404e+000 183 166 142
4.724392e-001 1.380380e+000 -8.291671e+000 170 148 101
-7.624579e-001 7.433193e-001 -6.754459e+000 202 185 185
-7.631854e-001 7.432679e-001 -6.753406e+000 202 185 185
-5.959750e-001 7.019514e-001 -6.775184e+000 204 178 118
7.825808e-001 6.592172e-001 -7.555993e+000 142 148 89
2.705870e-001 4.221527e-001 -7.043190e+000 148 109 72
1.203312e+000 3.095918e-001 -7.389889e+000 176 169 148
1.384396e+000 3.497945e-001 -7.470341e+000 129 143 117
-2.662447e+001 -8.917722e-001 -4.630655e+001 233 68 122
-2.542105e+001 -1.758198e+000 -4.478576e+001 74 52 114
-7.235365e-001 -6.137566e-001 -6.252543e+000 76 69 61
-5.929116e-001 -6.851296e-001 -6.394055e+000 108 96 74
-1.654391e+001 -6.196460e+000 -4.164128e+001 59 34 64
-1.639471e+001 -5.816086e+000 -4.218765e+001 226 44 85
-1.901301e+001 -6.787549e+000 -4.195437e+001 197 26 70
-1.821076e+001 -7.077663e+000 -4.111584e+001 62 40 96
-1.635008e+001 -6.581320e+000 -4.197510e+001 205 35 66
-1.759262e+001 -7.607160e+000 -3.942293e+001 71 51 115
-1.565981e+001 -7.694458e+000 -4.058817e+001 226 42 76
-1.454758e+001 -8.453535e+000 -3.927695e+001 208 34 64
-1.556496e+000 -1.561936e+000 -6.892969e+000 76 63 44
-1.057367e+000 1.371970e+000 -7.495864e+000 131 72 74
3.003459e-001 5.673121e-001 -7.238847e+000 187 167 114
1.533601e-001 4.333830e-001 -6.980154e+000 191 173 133
4.929327e-001 4.114629e-001 -7.097931e+000 145 101 72
1.432260e+000 2.637544e-001 -7.436855e+000 140 155 132
-2.494221e+001 1.262719e+000 -5.125174e+001 210 25 67
-2.484804e+001 -1.161344e+000 -4.498722e+001 90 70 155
-3.935454e-001 -7.944868e-001 -6.648263e+000 103 89 63
-1.709750e+001 -8.362350e+000 -3.787442e+001 66 45 107
-1.704463e+001 -8.874615e+000 -3.670521e+001 206 31 70
-1.673094e+001 -1.096811e+001 -3.671579e+001 49 35 69
-1.723877e+000 1.779434e+000 -7.726200e+000 94 119 90
-1.279941e+000 1.347726e+000 -7.321585e+000 135 71 66
-1.100608e+000 1.230158e+000 -7.215933e+000 176 136 141
-7.255028e-001 8.361536e-001 -6.892280e+000 160 68 69
-6.879757e-001 6.859299e-001 -6.714208e+000 157 66 67
-1.287253e-001 7.356584e-001 -7.256481e+000 84 81 62
-1.282432e-001 7.374954e-001 -7.251030e+000 84 81 62
-4.135752e-001 5.724474e-001 -6.908985e+000 193 183 181
8.084140e-001 4.211083e-001 -7.260495e+000 172 157 108
2.091849e-001 3.368284e-001 -6.853635e+000 188 173 126
2.619287e-001 2.110008e-001 -6.729415e+000 184 169 108
-1.838673e-001 -7.543865e-002 -6.227764e+000 165 151 86
-2.279684e+001 -3.957592e+000 -4.150136e+001 173 163 216
-1.920519e+001 -5.910171e+000 -4.215349e+001 201 27 62
-1.831297e+001 -7.269739e+000 -4.005562e+001 242 50 95
-1.778730e+001 -8.105817e+000 -3.838679e+001 250 56 101
6.363004e-001 1.076968e+000 -7.992857e+000 114 108 100
9.504619e-002 -1.753465e-001 -6.363677e+000 76 64 22
-1.726942e+001 -7.819006e+000 -4.136109e+001 67 54 124
-1.548459e+001 -8.093293e+000 -3.892417e+001 58 36 74
-8.063362e-001 1.044735e+000 -7.024470e+000 156 70 71
5.452199e-001 8.664618e-001 -7.647509e+000 177 171 135
-2.162050e+001 -3.740383e+000 -4.295391e+001 255 62 110
7.699539e-001 1.067532e-002 -6.736025e+000 146 148 83
5.437633e-001 -4.347710e-001 -6.823836e+000 129 111 63
-2.460452e+001 -2.501269e+000 -4.488266e+001 69 47 109
1.217171e+000 1.487586e+000 -8.617148e+000 193 197 185
9.966385e-001 1.549784e-001 -7.150241e+000 169 156 115
-2.021443e+001 -3.317052e+000 -4.225612e+001 251 53 99
-8.425317e-001 4.262691e-001 -6.542237e+000 194 179 137
-1.961356e+000 1.666781e+000 -7.442544e+000 183 176 139
-6.562484e-002 7.609987e-001 -7.284391e+000 195 186 169
1.288139e+000 9.895080e-001 -8.116443e+000 82 78 74
4.516523e-001 2.034724e-001 -6.847221e+000 178 165 97
4.882041e-001 1.072213e-001 -6.751456e+000 128 92 53
4.876127e-001 1.065792e-001 -6.755653e+000 128 92 53
-1.070556e+000 -1.483807e-001 -5.647184e+000 90 87 49
1.152715e+000 -3.016456e-001 -7.058730e+000 88 90 67
1.604682e+000 -6.952219e-001 -7.628233e+000 114 104 95
-1.151790e+000 1.285062e+000 -7.255281e+000 131 69 69
1.429956e+000 1.450133e+000 -7.815624e+000 194 195 182
-1.523023e+000 1.176983e+000 -7.030561e+000 211 186 130
1.367179e+000 1.271092e+000 -7.949239e+000 185 186 178
2.796759e-001 1.213809e+000 -7.993460e+000 165 156 111
6.483447e-001 1.211132e+000 -8.135664e+000 111 105 97
-9.298511e-001 8.325313e-001 -6.798124e+000 200 190 186
9.938847e-001 7.292844e-001 -7.724903e+000 116 114 110
6.998460e-001 4.841060e-001 -7.297705e+000 171 170 118
1.315902e+000 4.080040e-001 -7.507637e+000 155 170 146
3.342189e-001 -4.470550e-001 -6.752358e+000 74 61 32
3.342189e-001 -4.470550e-001 -6.752358e+000 74 61 32
2.389505e-001 -7.952735e-001 -7.042772e+000 130 113 77
-1.027777e+000 1.982016e+000 -8.379805e+000 191 166 109
-1.151957e+000 1.246049e+000 -7.211567e+000 201 187 186
-9.828459e-001 6.362933e-001 -6.555779e+000 198 171 100
-2.509039e+001 -2.392638e+000 -4.358822e+001 206 56 104
-2.781537e-001 -5.923548e-001 -6.545423e+000 75 61 36
-7.912072e-002 -2.161989e-001 -6.308860e+000 113 100 55
-7.817910e-001 -1.321915e+000 -7.026417e+000 75 63 47
-2.375405e+001 5.550236e-001 -4.752527e+001 251 55 96
-2.233344e+001 2.351707e-001 -4.765908e+001 236 43 83
-1.411984e+000 -5.666989e-001 -6.209584e+000 168 133 103
-3.108693e-001 -5.300236e-001 -6.452725e+000 123 105 66
-4.833719e-001 -8.369592e-001 -6.634651e+000 74 65 54
4.922647e-001 2.135374e-001 -6.839430e+000 168 167 98
4.916635e-001 2.139255e-001 -6.838853e+000 168 167 98
-1.857206e+001 -1.307346e+000 -4.821483e+001 250 200 179
2.741151e-001 -3.927136e-001 -6.641828e+000 130 114 63
-1.094288e+000 9.147273e-001 -6.879109e+000 177 71 76
-1.975248e+001 -4.624966e+000 -4.063996e+001 167 24 54
-1.875519e+001 -3.397451e+000 -4.555794e+001 64 37 89
-3.137318e-001 2.687755e+000 -1.108624e+001 159 148 142
-2.214034e+000 1.883762e+000 -7.637430e+000 186 191 144
-1.884774e+000 1.656260e+000 -7.466476e+000 180 177 139
-1.079886e-001 1.938761e+000 -8.723873e+000 148 161 131
5.497300e-001 2.060982e+000 -9.225207e+000 115 114 100
-3.216023e-001 1.712893e+000 -8.315539e+000 143 87 68
-3.682542e-001 1.548830e+000 -8.129633e+000 193 158 116
-3.405056e-001 1.558462e+000 -8.135428e+000 159 116 74
-3.240040e-001 1.531872e+000 -8.115400e+000 193 168 119
4.707835e-001 1.679773e+000 -8.660348e+000 153 119 81
4.707835e-001 1.679773e+000 -8.660348e+000 153 119 81
-1.155739e+000 1.285868e+000 -7.255509e+000 128 63 64
2.982003e-002 1.442358e+000 -8.133482e+000 191 175 141
5.693101e-001 1.527351e+000 -8.525337e+000 188 177 136
-1.067771e+000 1.065789e+000 -7.030189e+000 200 193 192
-1.067771e+000 1.065789e+000 -7.030189e+000 200 193 192
-9.528300e-001 1.107019e+000 -7.120079e+000 152 61 65
7.098120e-001 1.203575e+000 -8.181893e+000 149 145 133
7.329106e-001 1.131598e+000 -8.112059e+000 96 90 90
9.016820e-001 1.149145e+000 -8.223468e+000 72 84 73
9.003372e-001 1.149995e+000 -8.203818e+000 72 84 73
1.327692e+000 1.109604e+000 -8.017320e+000 87 85 78
-5.910876e-001 9.966244e-001 -6.935698e+000 162 132 62
9.616663e-001 1.012049e+000 -8.074989e+000 114 111 106
-1.890694e-001 7.021716e-001 -7.195011e+000 185 178 162
-1.608891e-001 7.353779e-001 -7.237299e+000 169 152 134
-1.096478e-001 7.368138e-001 -7.234104e+000 191 185 165
-1.305922e-001 6.982712e-001 -7.187011e+000 176 174 150
-1.304344e-001 6.984200e-001 -7.188366e+000 176 174 150
9.678628e-001 7.135972e-001 -7.697338e+000 91 89 85
9.742296e-001 6.716717e-001 -7.652710e+000 132 136 122
-1.228402e-001 5.748093e-001 -7.043816e+000 193 176 157
-1.211976e-001 5.752145e-001 -7.043085e+000 193 176 157
-1.003302e-001 5.849940e-001 -7.069048e+000 82 73 60
-1.016814e-001 5.300684e-001 -7.004990e+000 200 179 159
-4.093272e-002 5.359704e-001 -7.025906e+000 197 185 153
7.596841e-004 5.982631e-001 -7.114544e+000 76 74 54
1.014444e+000 5.716169e-001 -7.534933e+000 93 108 68
6.599292e-002 5.092222e-001 -7.041976e+000 194 177 141
5.031531e-001 4.614782e-001 -7.173016e+000 138 89 62
1.626269e-001 2.868680e-001 -6.810590e+000 70 73 47
3.738799e-001 3.252403e-001 -6.954091e+000 136 91 59
3.731131e-001 3.253760e-001 -6.952215e+000 136 91 59
5.248588e-001 3.872179e-001 -7.088800e+000 184 157 104
5.248588e-001 3.872179e-001 -7.088800e+000 184 157 104
4.278130e-001 2.196560e-001 -6.851544e+000 140 99 65
6.109294e-001 2.204051e-001 -6.896474e+000 168 166 109
4.433972e-001 1.501585e-001 -6.768239e+000 175 163 103
4.781011e-001 7.769427e-002 -6.703058e+000 169 156 91
4.781011e-001 7.769427e-002 -6.703058e+000 169 156 91
6.477857e-001 8.336395e-002 -6.802220e+000 158 153 87
6.465235e-001 8.334276e-002 -6.800201e+000 158 153 87
-3.549127e-001 -9.940617e-002 -6.046812e+000 141 131 74
1.147868e+000 -2.368478e-001 -7.014245e+000 61 62 44
7.552212e-001 -3.946582e-001 -6.922123e+000 108 104 69
2.184414e-001 -5.696928e-001 -6.787611e+000 77 65 33
1.612169e+000 -8.157996e-001 -7.329442e+000 138 132 121
2.598911e-001 -9.582197e-001 -7.217641e+000 88 74 48
-2.526275e-001 -9.795703e-001 -6.950058e+000 134 118 92
-9.613372e-002 -1.069170e+000 -7.147676e+000 96 82 56
-1.574906e+000 -1.383434e+000 -6.646622e+000 78 62 31
-1.937675e+000 1.751614e+000 -7.570812e+000 181 178 140
2.156644e-001 1.510411e+000 -8.336087e+000 93 98 77
6.278119e-001 1.548547e+000 -8.575813e+000 168 143 86
-1.039943e+000 1.250272e+000 -7.269238e+000 189 184 183
2.135570e-001 1.266054e+000 -8.020445e+000 192 182 152
5.433711e-001 1.352068e+000 -8.289661e+000 190 182 163
-9.921248e-001 1.004355e+000 -6.990362e+000 154 59 67
-9.951251e-001 1.002692e+000 -6.993232e+000 154 59 67
5.659629e-001 1.162375e+000 -8.050064e+000 146 133 99
-1.866765e+000 9.316266e-001 -6.969825e+000 202 163 135
1.304282e+000 1.101052e+000 -8.080521e+000 173 173 165
1.281433e+000 1.053418e+000 -8.102664e+000 165 167 158
-8.097874e-001 8.422917e-001 -6.868281e+000 200 188 188
-8.063558e-001 8.418832e-001 -6.877957e+000 200 188 188
2.645452e-001 7.645634e-001 -7.442703e+000 142 92 69
1.015495e+000 7.834317e-001 -7.817398e+000 97 96 91
-1.435555e+000 5.198457e-001 -6.289570e+000 211 206 144
3.791664e-001 6.465236e-001 -7.317396e+000 182 170 105
-1.397195e+000 4.375029e-001 -6.231778e+000 198 199 130
8.458140e-002 4.239886e-001 -6.945727e+000 67 69 52
7.396818e-002 3.990301e-001 -6.912613e+000 189 167 134
4.299856e-001 4.577726e-001 -7.128306e+000 147 92 76
4.908825e-001 4.152489e-001 -7.116459e+000 138 93 62
5.355596e-001 4.506063e-001 -7.172762e+000 175 164 92
5.557692e-002 3.780436e-001 -6.891547e+000 74 73 51
1.076534e-001 2.812589e-001 -6.796769e+000 71 78 64
3.008982e-001 3.119566e-001 -6.916139e+000 145 88 63
1.100194e+000 3.971596e-001 -7.355953e+000 165 150 97
1.409502e+000 3.785562e-001 -7.518897e+000 132 146 119
1.443551e+000 3.141739e-001 -7.443164e+000 150 166 140
1.545044e-001 2.511922e-001 -6.776960e+000 180 162 117
1.454939e+000 2.495488e-001 -7.382785e+000 98 115 84
1.300308e-001 1.123990e-001 -6.601009e+000 180 162 101
1.526131e+000 1.173835e-001 -7.252084e+000 103 118 89
6.693429e-001 -1.706810e-001 -6.661422e+000 101 103 64
1.423516e+000 -1.428631e-001 -7.096011e+000 65 67 53
7.737647e-001 -2.564050e-001 -6.824492e+000 70 68 45
7.417561e-001 -3.603291e-001 -6.890772e+000 76 72 47
9.494367e-001 -2.732684e-001 -6.928476e+000 67 66 48
7.444598e-001 -5.274764e-001 -7.061478e+000 72 65 44
8.478180e-001 -4.072106e-001 -7.003606e+000 74 71 47
9.493880e-001 -4.580080e-001 -7.096826e+000 70 67 47
-1.034348e+000 -4.663073e-001 -5.978378e+000 72 63 59
-8.651808e-001 -4.144913e-001 -6.010140e+000 78 71 65
-7.699457e-001 -4.295591e-001 -6.077314e+000 75 69 64
-3.470368e-001 -5.140948e-001 -6.443469e+000 58 48 36
6.572399e-002 -4.959378e-001 -6.638799e+000 102 87 58
3.496674e-001 -5.588260e-001 -6.856540e+000 85 69 44
8.466242e-001 -6.637902e-001 -7.245087e+000 116 107 71
-1.364933e-001 -6.065303e-001 -6.642020e+000 98 82 56
-1.518509e-001 -6.471812e-001 -6.669880e+000 99 83 58
-1.171881e-001 -7.002270e-001 -6.747573e+000 95 79 53
-2.792445e-002 -7.645796e-001 -6.876631e+000 97 83 57
2.773650e-001 -7.628658e-001 -7.027583e+000 93 78 53
5.124270e-001 -8.283779e-001 -7.219102e+000 87 72 45
7.879264e-001 -7.460266e-001 -7.300231e+000 83 73 46
-7.703263e-001 -7.781779e-001 -6.405022e+000 74 68 61
-4.420052e-001 -8.946075e-001 -6.775830e+000 91 78 62
-3.760196e-001 -8.613907e-001 -6.754617e+000 91 75 60
-2.744104e-001 -7.896367e-001 -6.745555e+000 87 74 52
5.995871e-002 -8.594908e-001 -7.014117e+000 92 77 53
-1.085747e+000 -8.521458e-001 -6.320913e+000 76 66 64
-1.085747e+000 -8.521458e-001 -6.320913e+000 76 66 64
-3.396085e-001 -9.649034e-001 -6.893039e+000 92 77 58
-2.400483e-001 -1.019873e+000 -7.008719e+000 99 85 59
-1.732863e-001 -9.889938e-001 -7.013843e+000 103 86 67
-2.200921e-001 -1.250691e+000 -7.280978e+000 93 79 55
-5.975887e-001 -1.361660e+000 -7.186893e+000 124 109 84
-1.050714e+000 -1.475537e+000 -7.017177e+000 113 100 72
-9.932239e-001 -1.486866e+000 -7.099158e+000 112 98 72
-2.069244e+000 1.838976e+000 -7.636768e+000 172 170 132
-4.978597e-001 2.001524e+000 -8.643579e+000 90 92 76
-1.989359e+000 1.652510e+000 -7.419478e+000 145 144 110
-1.873463e+000 1.679494e+000 -7.394957e+000 178 171 132
-2.448068e-001 1.910849e+000 -8.633692e+000 129 87 83
-2.005609e-001 1.788750e+000 -8.498663e+000 169 127 104
-1.580192e-001 1.567511e+000 -8.216515e+000 183 157 118
-1.770851e+000 9.202572e-001 -6.835593e+000 229 208 135
8.095414e-001 1.009178e+000 -7.960585e+000 105 102 99
9.315632e-001 1.068175e+000 -8.126221e+000 139 142 131
-1.834684e-001 7.523708e-001 -7.244512e+000 75 82 71
-1.860118e-001 7.518393e-001 -7.244461e+000 75 82 71
-1.412930e-001 6.612166e-001 -7.139081e+000 72 82 69
1.166249e-002 4.512992e-001 -6.941139e+000 194 178 146
-1.322621e+000 3.809199e-001 -6.133522e+000 162 158 91
5.472174e-001 3.062166e-001 -7.014258e+000 175 160 93
5.521439e-001 3.069316e-001 -6.998898e+000 175 160 93
8.921187e-001 3.385058e-001 -7.209111e+000 159 139 89
3.676187e-001 2.467266e-001 -6.855449e+000 186 167 108
3.655973e-001 2.455269e-001 -6.857570e+000 186 167 108
4.292327e-001 1.270363e-001 -6.746889e+000 144 99 68
2.520686e-001 -2.816749e-001 -6.555473e+000 117 104 60
6.798851e-001 -3.309384e-001 -6.816128e+000 118 111 69
2.253397e-001 -3.546498e-001 -6.605272e+000 121 107 63
-1.117726e+000 -5.973715e-001 -6.069807e+000 67 63 56
-1.117726e+000 -5.973715e-001 -6.069807e+000 67 63 56
-9.290117e-001 -5.771493e-001 -6.138101e+000 130 114 106
-8.754583e-001 -6.154731e-001 -6.200936e+000 132 115 105
-8.754583e-001 -6.154731e-001 -6.200936e+000 132 115 105
1.732304e-001 -7.888488e-001 -6.989634e+000 96 82 55
-9.366654e-001 -7.855385e-001 -6.307922e+000 73 68 62
1.824290e-001 -1.258547e+000 -7.525058e+000 106 91 60
-1.206359e+000 -1.404962e+000 -6.873958e+000 111 96 69
-1.048372e+000 -1.548744e+000 -7.138975e+000 81 65 42
-8.844364e-001 -1.441287e+000 -7.112281e+000 81 66 43
-6.429567e-001 1.990574e+000 -8.556883e+000 106 110 83
-2.059105e+000 1.764859e+000 -7.547006e+000 137 143 107
-2.024069e+000 1.703584e+000 -7.477123e+000 121 123 90
-1.683030e+000 1.810422e+000 -7.756585e+000 81 115 83
-5.282471e-001 1.894882e+000 -8.473006e+000 130 93 77
-9.457637e-002 1.959425e+000 -8.791064e+000 139 145 113
-9.336708e-002 1.956404e+000 -8.759492e+000 139 145 113
8.216875e-001 1.287990e+000 -8.324036e+000 171 147 95
-9.253846e-001 1.054988e+000 -7.058722e+000 206 186 192
-6.848368e-001 1.082390e+000 -7.513671e+000 176 150 76
-1.858076e-001 7.509778e-001 -7.245238e+000 75 82 71
-5.375291e-001 6.100642e-001 -6.712379e+000 201 184 160
-1.435489e-001 5.936920e-001 -7.074401e+000 197 184 174
1.449543e-001 1.500774e-001 -6.654716e+000 66 81 56
6.052742e-001 6.902690e-002 -6.759042e+000 140 92 62
6.054395e-001 6.900503e-002 -6.758958e+000 140 92 62
-8.585000e-001 -1.539671e+000 -7.247139e+000 91 76 52
-2.729958e-001 1.587089e+000 -8.164707e+000 186 152 103
-9.740126e-001 1.376883e+000 -7.463110e+000 200 175 118
-1.320387e+000 8.049468e-001 -6.653661e+000 204 186 154
-1.320387e+000 8.049468e-001 -6.653661e+000 204 186 154
-1.309215e+000 7.450765e-001 -6.587186e+000 199 172 95
-5.602685e-001 5.576740e-001 -6.679406e+000 143 112 69
-8.891311e-002 5.544283e-001 -7.031476e+000 54 76 58
-2.554201e-001 -1.000753e-001 -6.146585e+000 111 99 47
-1.415561e-001 -4.128987e-001 -6.437521e+000 131 113 68
-8.768758e-001 -7.853650e-001 -6.340529e+000 74 68 60
-8.768758e-001 -7.853650e-001 -6.340529e+000 74 68 60
-9.250636e-001 1.959298e+000 -8.407669e+000 195 167 113
-1.525392e-001 1.710434e+000 -8.309123e+000 171 139 101
6.552578e-001 5.847185e-001 -7.387480e+000 180 178 152
7.494997e-001 5.288815e-001 -7.365345e+000 136 142 85
9.031683e-001 5.518760e-001 -7.466870e+000 81 90 61
3.276029e-001 3.365404e-001 -6.951096e+000 172 137 99
5.508348e-001 1.313111e+000 -8.246929e+000 188 178 167
4.255497e-001 3.300712e-001 -7.024244e+000 180 163 99
3.594809e-001 -4.372236e-001 -6.809692e+000 120 105 72
1.230545e+000 -1.567983e+000 -8.390413e+000 198 163 149
-1.174898e+000 1.486510e+000 -7.474823e+000 197 190 178
-5.181311e-001 5.345466e-001 -6.692301e+000 148 122 92
1.255951e-001 2.492350e-001 -6.747358e+000 65 80 59
-3.336121e-001 -4.934991e-002 -6.031762e+000 152 146 76
8.430420e-001 8.638616e-001 -7.809761e+000 85 81 79
-1.165852e+000 -1.495900e-001 -5.799117e+000 188 178 125
-3.984716e-002 1.555528e+000 -8.155459e+000 191 168 127
-9.933111e-001 1.021227e+000 -7.009927e+000 202 184 184
-9.933111e-001 1.021227e+000 -7.009927e+000 202 184 184
9.901624e-001 1.182183e+000 -8.238547e+000 86 103 79
-1.220389e+000 1.857193e+000 -8.131584e+000 170 154 94
3.897908e-001 1.617553e+000 -8.559815e+000 181 157 109
1.232967e-001 6.500801e-001 -7.199634e+000 192 178 148
1.088397e+000 1.824420e-001 -7.088522e+000 176 170 145
-4.036844e-001 1.866098e+000 -8.613940e+000 126 86 79
1.518546e+000 8.622881e-001 -7.936109e+000 190 197 190
-1.134870e+000 6.479075e-001 -6.440426e+000 194 184 144
-2.723904e-001 3.811057e-001 -7.159995e+000 194 185 170
-1.198656e+000 2.076041e-001 -6.200964e+000 141 147 75
1.065809e+000 8.142002e-001 -7.935633e+000 72 80 69
-1.017550e+000 9.895079e-001 -6.955243e+000 163 64 72
1.313856e+000 1.057081e+000 -8.077204e+000 87 89 82
1.282738e+000 9.127950e-001 -8.154459e+000 163 165 158
-2.044470e+001 7.511897e-001 -5.105597e+001 206 73 101
-2.223920e+001 -3.919747e+000 -4.122379e+001 175 165 224
-2.151425e+000 1.792080e+000 -7.590055e+000 168 169 127
5.229645e-001 2.086862e+000 -9.220898e+000 213 208 196
-1.475989e+000 1.616047e+000 -7.562371e+000 173 129 104
5.786044e-001 1.460104e+000 -8.454415e+000 195 179 136
-6.213946e-001 1.000568e+000 -7.015640e+000 196 172 115
5.522111e-001 1.070351e+000 -7.926579e+000 103 96 88
-4.426756e-002 7.033385e-001 -7.225442e+000 193 187 165
-1.002599e-001 5.849758e-001 -7.069010e+000 82 73 60
2.785952e-001 5.024697e-001 -7.123984e+000 131 94 58
1.469002e+000 1.909854e-001 -7.304405e+000 102 116 90
1.469002e+000 1.909854e-001 -7.304405e+000 102 116 90
4.606221e-001 1.113386e-001 -6.738352e+000 174 168 99
6.191457e-001 1.374885e-001 -6.849747e+000 171 160 100
1.550383e+000 8.004634e-002 -7.215002e+000 110 122 95
-1.035105e+000 1.250341e+000 -7.271804e+000 189 184 183
9.030478e-001 1.214167e+000 -8.296130e+000 71 83 69
-7.351470e-001 7.278462e-001 -6.748305e+000 194 188 186
-7.351470e-001 7.278462e-001 -6.748305e+000 194 188 186
2.917888e-001 7.169820e-001 -7.390335e+000 142 94 71
-2.477253e+001 -2.926782e+000 -4.442131e+001 77 60 128
1.200545e-001 4.017933e-001 -6.939673e+000 193 175 137
1.039231e+000 4.352675e-001 -7.397566e+000 172 148 97
1.209719e+000 3.689855e-001 -7.392779e+000 111 121 77
1.125309e+000 2.480315e-001 -7.219070e+000 165 150 92
-3.303371e-001 7.779328e-002 -6.241031e+000 141 119 64
2.011740e+000 -1.476038e+000 -6.929700e+000 96 85 79
-2.691140e-001 2.011555e+000 -8.790379e+000 128 140 103
-1.500445e+000 1.111372e+000 -6.834291e+000 204 187 140
-1.500445e+000 1.111372e+000 -6.834291e+000 204 187 140
7.295711e-001 7.217612e-001 -7.587822e+000 144 149 84
1.142167e+000 3.269859e-001 -7.329786e+000 165 144 91
-2.048521e+000 1.872368e+000 -7.678309e+000 143 145 106
1.243595e+000 9.883658e-001 -8.151760e+000 157 160 153
-2.423401e+001 -3.480085e+000 -4.327746e+001 174 165 218
-2.374537e+001 -3.602230e+000 -4.296970e+001 79 64 129
3.014847e-001 3.831585e-001 -6.988864e+000 185 163 108
-1.922632e+001 -8.665270e+000 -3.677055e+001 216 65 97
-1.648637e+001 -1.152728e+001 -3.602101e+001 63 63 131
-1.017249e+000 1.975716e+000 -8.405385e+000 196 169 106
-1.844967e+001 -2.957477e+000 -4.600027e+001 229 42 77
-1.780353e+001 -1.132041e+001 -3.536269e+001 188 34 71
-1.651212e+001 -1.129185e+001 -3.641887e+001 125 167 227
-1.379086e+001 -1.177387e+001 -3.468980e+001 187 30 61
-1.311174e+001 -1.361596e+001 -3.483886e+001 203 34 65
-1.328850e+001 -1.383281e+001 -3.416359e+001 213 30 57
7.640877e-001 7.689859e-001 -7.651962e+000 160 161 129
3.432589e-001 4.866644e-001 -7.099084e+000 183 164 108
3.438848e-001 4.853150e-001 -7.099527e+000 183 164 108
3.026994e-001 1.663924e-001 -6.710381e+000 179 165 104
-1.617477e+001 -1.148840e+001 -3.431660e+001 63 44 102
-1.628037e+001 -1.195863e+001 -3.359092e+001 188 11 47
-1.853256e+001 -1.776294e+000 -4.510754e+001 255 206 112
-1.793296e+001 -1.220667e+001 -3.222655e+001 203 29 65
-1.155953e+000 1.927772e+000 -8.284778e+000 163 157 91
6.875031e-002 3.578881e-001 -6.861260e+000 71 82 65
-1.754281e+001 -1.074840e+001 -3.604072e+001 122 22 47
-1.853740e+001 -1.184639e+001 -3.345659e+001 235 49 93
-1.974993e+001 -9.048914e+000 -3.608353e+001 254 248 255
-1.677732e+001 -1.118187e+001 -3.539543e+001 143 195 247
-1.394229e+001 -1.109328e+001 -3.591598e+001 229 37 76
-1.394229e+001 -1.109328e+001 -3.591598e+001 229 37 76
-1.865302e+001 -1.209064e+001 -3.404890e+001 237 44 88
-2.302720e+001 -3.622173e+000 -4.026671e+001 180 160 216
-2.302720e+001 -3.622173e+000 -4.026671e+001 180 160 216
-2.236352e+001 -5.410015e+000 -4.050829e+001 59 39 67
-1.581191e+001 -1.313898e+001 -3.542547e+001 38 21 37
-2.247274e+000 1.992423e+000 -7.746577e+000 136 142 91
-1.843867e+000 1.842866e+000 -7.724839e+000 85 102 64
-1.557398e+000 1.769295e+000 -7.677788e+000 200 182 136
-2.121966e-001 1.939603e+000 -8.695696e+000 131 147 113
-1.992110e+000 1.545443e+000 -7.286282e+000 180 160 106
-3.214694e-001 1.717280e+000 -8.295762e+000 135 80 60
-4.225218e-001 1.653843e+000 -8.210301e+000 185 146 107
-4.220753e-001 1.652882e+000 -8.233999e+000 185 146 107
-2.372192e-001 1.651232e+000 -8.303233e+000 169 124 88
1.033995e-001 1.603690e+000 -8.391972e+000 156 112 72
1.917714e-001 1.633814e+000 -8.538420e+000 137 101 77
-2.053906e+000 1.392453e+000 -7.299340e+000 244 203 148
2.864472e-001 1.241252e+000 -8.028472e+000 180 170 136
2.864472e-001 1.241252e+000 -8.028472e+000 180 170 136
5.728547e-001 1.222855e+000 -8.139008e+000 95 86 82
8.315489e-001 1.319692e+000 -8.401014e+000 163 144 100
8.315489e-001 1.319692e+000 -8.401014e+000 163 144 100
1.409898e+000 1.326902e+000 -7.855068e+000 67 67 59
-9.577340e-001 1.065454e+000 -7.078006e+000 121 58 55
-9.555696e-001 1.064845e+000 -7.084314e+000 121 58 55
2.622308e-001 1.172261e+000 -7.902825e+000 185 176 148
6.460893e-001 1.069569e+000 -7.977529e+000 81 76 72
6.444459e-001 1.070818e+000 -7.973174e+000 81 76 72
6.969669e-001 1.180120e+000 -8.140733e+000 103 101 88
7.216626e-001 1.154422e+000 -8.127723e+000 152 146 136
8.409093e-001 1.158636e+000 -8.194864e+000 110 111 110
7.207457e-001 9.972939e-001 -7.931340e+000 122 112 95
-1.379978e-001 7.866992e-001 -7.296681e+000 193 185 174
7.039259e-001 8.618674e-001 -7.759033e+000 152 152 125
-1.604324e-001 7.377267e-001 -7.221929e+000 160 146 123
-4.734819e-002 7.030811e-001 -7.222369e+000 187 176 156
3.644641e-001 7.229443e-001 -7.417284e+000 130 88 58
3.663140e-001 7.220411e-001 -7.424073e+000 130 88 58
-7.131210e-002 5.324965e-001 -7.011837e+000 69 69 48
4.036389e-001 4.920508e-001 -7.170534e+000 136 93 62
4.036530e-001 4.925847e-001 -7.172630e+000 136 93 62
5.027426e-001 4.621561e-001 -7.171183e+000 136 92 57
6.529481e-001 5.224141e-001 -7.309628e+000 128 132 81
1.611636e-003 3.854740e-001 -6.870022e+000 176 156 123
4.771819e-001 3.438177e-001 -7.026557e+000 176 152 96
5.594530e-001 3.378725e-001 -7.049089e+000 129 88 58
5.588577e-001 3.379199e-001 -7.047615e+000 129 88 58
8.669513e-002 1.858665e-001 -6.657752e+000 170 155 96
1.458063e+000 2.245295e-001 -7.343106e+000 93 108 82
1.492580e+000 1.998633e-001 -7.338362e+000 161 172 148
6.151493e-001 9.046956e-002 -6.787511e+000 135 87 62
2.016467e+000 -1.484550e+000 -6.885769e+000 123 114 105
-2.541711e-001 2.023100e+000 -8.801866e+000 120 130 96
-1.937199e+000 1.752862e+000 -7.568389e+000 176 172 133
-1.695948e+000 1.714080e+000 -7.602763e+000 83 110 82
-5.917507e-002 1.932059e+000 -8.716265e+000 131 138 105
5.603894e-001 1.499427e+000 -8.505616e+000 78 75 63
-1.770394e+000 1.161973e+000 -6.914472e+000 190 172 135
1.405134e+000 1.409194e+000 -7.774140e+000 182 183 175
-1.031214e+000 1.009933e+000 -6.977197e+000 190 179 176
5.217625e-001 1.087392e+000 -7.931264e+000 152 151 125
1.341549e+000 1.205303e+000 -7.989610e+000 182 183 177
-1.770072e+000 8.531095e-001 -6.910356e+000 217 200 129
8.021815e-001 9.499210e-001 -7.908699e+000 98 94 93
8.026528e-001 8.951473e-001 -7.843136e+000 77 76 72
-1.559463e+000 7.298253e-001 -6.507344e+000 222 216 193
-1.574392e+000 6.441761e-001 -6.545470e+000 183 180 103
-4.738766e-002 6.766141e-001 -7.198467e+000 71 72 55
2.645421e-001 7.665043e-001 -7.428485e+000 138 91 65
9.545993e-001 7.542451e-001 -7.720775e+000 86 83 80
3.664990e-001 5.725264e-001 -7.255233e+000 138 89 64
2.099423e-001 4.870932e-001 -7.093809e+000 141 87 66
-3.472750e-002 4.217702e-001 -6.910211e+000 182 168 138
1.008230e-001 3.512379e-001 -6.872091e+000 186 170 132
1.008230e-001 3.512379e-001 -6.872091e+000 186 170 132
5.468287e-001 3.706006e-001 -7.078968e+000 139 89 61
1.409256e+000 3.791901e-001 -7.514907e+000 127 141 118
7.069046e-002 2.991198e-001 -6.800597e+000 173 156 114
7.069046e-002 2.991198e-001 -6.800597e+000 173 156 114
6.116548e-001 2.464484e-001 -6.981936e+000 131 93 66
6.116548e-001 2.464484e-001 -6.981936e+000 131 93 66
1.408674e+000 3.178894e-001 -7.436810e+000 102 116 87
1.095626e-001 1.530603e-001 -6.658667e+000 177 161 106
5.466938e-001 2.366331e-001 -6.943315e+000 136 91 68
6.060273e-001 1.748714e-001 -6.891684e+000 162 157 100
1.503097e+000 6.080674e-002 -7.188347e+000 173 180 166
-5.541681e-001 -1.260337e-001 -5.928325e+000 93 83 47
4.595297e-001 -2.021872e-001 -6.576129e+000 92 88 56
-1.398990e+000 -6.523866e-001 -6.203315e+000 105 85 68
-8.935375e-001 -5.864948e-001 -6.158687e+000 79 70 63
1.757029e+000 2.414688e+000 -6.982163e+000 194 187 181
1.787955e+000 2.420903e+000 -6.975815e+000 96 88 80
-1.976733e+000 1.753636e+000 -7.551790e+000 121 125 88
-2.961106e-002 1.959557e+000 -8.822392e+000 82 81 74
