ply
format ascii 1.0
element face 0
property list uchar int vertex_indices
element vertex 874
property float x
property float y
property float z
property uchar diffuse_red
property uchar diffuse_green
property uchar diffuse_blue
end_header
7.794195e-001 1.021210e+000 -7.956321e+000 169 162 148
-9.410675e-001 7.542806e-001 -6.669957e+000 202 189 191
1.039577e+000 8.891271e-001 -7.897358e+000 103 103 94
9.533019e-001 7.210719e-001 -7.670465e+000 153 157 135
-2.236845e+001 4.590777e+000 -5.226941e+001 243 49 89
4.089033e-003 5.994579e-001 -7.093620e+000 75 87 72
8.293564e-001 6.187751e-001 -7.503848e+000 178 173 144
-3.134972e-002 4.882712e-001 -6.953906e+000 74 89 71
-3.134972e-002 4.882712e-001 -6.953906e+000 74 89 71
1.597096e-001 2.004071e-001 -6.677619e+000 185 169 113
1.612486e-001 2.006350e-001 -6.671732e+000 185 169 113
2.346338e-001 8.509872e-002 -6.576841e+000 177 166 103
2.304939e-001 8.513916e-002 -6.578547e+000 177 166 103
4.666527e-001 9.756203e-002 -6.699655e+000 174 164 96
4.632865e-001 9.682733e-002 -6.700288e+000 174 164 96
2.920666e-001 -2.638692e-001 -6.492057e+000 68 56 29
-2.326814e+001 -3.801778e+000 -4.214859e+001 216 210 254
-7.074703e-001 -4.991024e-001 -6.134769e+000 68 67 55
-7.052847e-001 -4.981379e-001 -6.128391e+000 68 67 55
-2.466991e-001 -5.163216e-001 -6.457060e+000 128 111 69
1.559370e-001 -8.577731e-001 -7.009573e+000 82 68 34
7.325657e-002 -1.088600e+000 -7.248798e+000 85 72 40
1.246984e+000 -1.517468e+000 -8.362839e+000 83 65 50
-1.478254e+000 -1.468878e+000 -6.760944e+000 91 77 50
-1.480818e+001 -1.107058e+001 -3.655196e+001 74 47 105
-2.040553e+000 1.933125e+000 -7.671936e+000 181 173 137
-1.513167e+000 2.086803e+000 -8.197760e+000 179 166 113
1.707035e-001 1.899869e+000 -8.798661e+000 176 147 116
1.707035e-001 1.899869e+000 -8.798661e+000 176 147 116
7.195128e-001 1.431488e+000 -8.453431e+000 87 90 75
-8.628946e-001 8.157880e-001 -6.763151e+000 166 72 73
-8.628946e-001 8.157880e-001 -6.763151e+000 166 72 73
9.352458e-001 5.738643e-001 -7.477299e+000 83 96 68
1.096882e+000 4.992955e-001 -7.444449e+000 99 115 76
3.948918e-001 1.031439e-001 -6.677706e+000 175 166 95
-2.475491e+001 -2.693137e+000 -4.344990e+001 76 51 115
-2.436600e+001 -2.940015e+000 -4.319690e+001 194 183 239
-2.333508e+001 -4.242554e+000 -4.003487e+001 107 69 122
6.399861e-002 -6.600281e-001 -6.793489e+000 136 116 74
6.399861e-002 -6.600281e-001 -6.793489e+000 136 116 74
1.120294e+000 -1.496035e+000 -8.283172e+000 69 62 44
-1.995573e+001 -8.008019e+000 -3.842352e+001 225 43 84
-1.456000e+001 -8.080589e+000 -3.954882e+001 222 49 82
-6.893767e-001 1.907122e+000 -8.391969e+000 183 166 142
4.872231e-001 1.429479e+000 -8.328176e+000 170 148 101
-7.905913e-001 7.748492e-001 -6.739604e+000 202 185 185
-7.913345e-001 7.747939e-001 -6.738483e+000 202 185 185
-6.183887e-001 7.318661e-001 -6.760854e+000 204 178 118
8.070732e-001 6.852669e-001 -7.566995e+000 142 148 89
2.776764e-001 4.413241e-001 -7.037053e+000 148 109 72
1.241642e+000 3.236616e-001 -7.394836e+000 176 169 148
1.428721e+000 3.649731e-001 -7.477816e+000 129 143 117
-2.637919e+001 -8.795523e-001 -4.595481e+001 233 68 122
-2.522582e+001 -1.740774e+000 -4.450250e+001 74 52 114
-7.520249e-001 -6.290636e-001 -6.218887e+000 76 69 61
-6.169109e-001 -7.031937e-001 -6.366282e+000 108 96 74
-1.646927e+001 -6.168688e+000 -4.146886e+001 59 34 64
-1.631228e+001 -5.787724e+000 -4.199581e+001 226 44 85
-1.891190e+001 -6.749310e+000 -4.175213e+001 197 26 70
-1.812943e+001 -7.043811e+000 -4.094525e+001 62 40 96
-1.626963e+001 -6.549252e+000 -4.178524e+001 205 35 66
-1.754209e+001 -7.582001e+000 -3.930891e+001 71 51 115
-1.560043e+001 -7.664284e+000 -4.043768e+001 226 42 76
-1.450963e+001 -8.429677e+000 -3.916522e+001 208 34 64
-1.613903e+000 -1.609115e+000 -6.883319e+000 76 63 44
-1.094327e+000 1.424006e+000 -7.508021e+000 131 72 74
3.086148e-001 5.911482e-001 -7.239216e+000 187 167 114
1.564711e-001 4.531148e-001 -6.971989e+000 191 173 133
5.075535e-001 4.299939e-001 -7.093507e+000 145 101 72
1.478131e+000 2.760124e-001 -7.443313e+000 140 155 132
-2.464946e+001 1.246325e+000 -5.076249e+001 210 25 67
-2.465876e+001 -1.149323e+000 -4.470695e+001 90 70 155
-4.104572e-001 -8.163976e-001 -6.628643e+000 103 89 63
-1.707209e+001 -8.345280e+000 -3.780440e+001 66 45 107
-1.703688e+001 -8.864709e+000 -3.666588e+001 206 31 70
-1.671472e+001 -1.094955e+001 -3.665338e+001 49 35 69
-1.782740e+000 1.845150e+000 -7.746873e+000 94 119 90
-1.324630e+000 1.399396e+000 -7.327323e+000 135 71 66
-1.139415e+000 1.277887e+000 -7.217748e+000 176 136 141
-7.521474e-001 8.706360e-001 -6.882182e+000 160 68 69
-7.136221e-001 7.154592e-001 -6.697839e+000 157 66 67
-1.348442e-001 7.656193e-001 -7.258067e+000 84 81 62
-1.343408e-001 7.675187e-001 -7.252477e+000 84 81 62
-4.297066e-001 5.975637e-001 -6.898483e+000 193 183 181
8.337009e-001 4.394681e-001 -7.261466e+000 172 157 108
2.140921e-001 3.533197e-001 -6.841115e+000 188 173 126
2.685169e-001 2.232119e-001 -6.712591e+000 184 169 108
-1.930671e-001 -7.241197e-002 -6.193596e+000 165 151 86
-2.269422e+001 -3.935649e+000 -4.134400e+001 173 163 216
-1.910233e+001 -5.876867e+000 -4.195225e+001 201 27 62
-1.824884e+001 -7.241081e+000 -3.992092e+001 242 50 95
-1.775149e+001 -8.084912e+000 -3.830111e+001 250 56 101
6.562333e-001 1.116451e+000 -8.018830e+000 114 108 100
9.564874e-002 -1.760713e-001 -6.333238e+000 76 64 22
-1.718609e+001 -7.779429e+000 -4.117347e+001 67 54 124
-1.544978e+001 -8.072668e+000 -3.882736e+001 58 36 74
-8.354630e-001 1.086224e+000 -7.019276e+000 156 70 71
5.619080e-001 8.995580e-001 -7.661988e+000 177 171 135
-2.149183e+001 -3.715809e+000 -4.273646e+001 255 62 110
7.938880e-001 1.553345e-002 -6.718893e+000 146 148 83
5.595062e-001 -4.450301e-001 -6.809308e+000 129 111 63
-2.443823e+001 -2.481760e+000 -4.463781e+001 69 47 109
1.255915e+000 1.538776e+000 -8.664879e+000 193 197 185
1.028100e+000 1.642456e-001 -7.147178e+000 169 156 115
-2.011905e+001 -3.300262e+000 -4.208869e+001 251 53 99
-8.738691e-001 4.471798e-001 -6.519041e+000 194 179 137
-2.028825e+000 1.729565e+000 -7.453609e+000 183 176 139
-6.957743e-002 7.917192e-001 -7.286930e+000 195 186 169
1.328692e+000 1.025280e+000 -8.145509e+000 82 78 74
4.647895e-001 2.151931e-001 -6.834136e+000 178 165 97
5.024624e-001 1.158518e-001 -6.733949e+000 128 92 53
5.019231e-001 1.150088e-001 -6.739381e+000 128 92 53
-1.111644e+000 -1.467635e-001 -5.592660e+000 90 87 49
1.189060e+000 -3.079720e-001 -7.052328e+000 88 90 67
1.654495e+000 -7.148898e-001 -7.638904e+000 114 104 95
-1.192260e+000 1.334652e+000 -7.258869e+000 131 69 69
1.476784e+000 1.501596e+000 -7.837433e+000 194 195 182
-1.576600e+000 1.223643e+000 -7.026676e+000 211 186 130
1.411477e+000 1.316334e+000 -7.974696e+000 185 186 178
2.877652e-001 1.258164e+000 -8.020115e+000 165 156 111
6.688150e-001 1.254796e+000 -8.166555e+000 111 105 97
-9.636218e-001 8.672314e-001 -6.784777e+000 200 190 186
1.025428e+000 7.572463e-001 -7.741441e+000 116 114 110
7.214610e-001 5.046999e-001 -7.299863e+000 171 170 118
1.357972e+000 4.251594e-001 -7.516493e+000 155 170 146
3.427361e-001 -4.576176e-001 -6.736258e+000 74 61 32
3.427361e-001 -4.576176e-001 -6.736258e+000 74 61 32
2.438241e-001 -8.177454e-001 -7.036816e+000 130 113 77
-1.062126e+000 2.052255e+000 -8.421857e+000 191 166 109
-1.192500e+000 1.294369e+000 -7.213368e+000 201 187 186
-1.018902e+000 6.646178e-001 -6.533776e+000 198 171 100
-2.492586e+001 -2.372673e+000 -4.335278e+001 206 56 104
-2.909923e-001 -6.074276e-001 -6.522734e+000 75 61 36
-8.522970e-002 -2.181241e-001 -6.271753e+000 113 100 55
-8.126323e-001 -1.359297e+000 -7.010323e+000 75 63 47
-2.355672e+001 5.502105e-001 -4.721282e+001 251 55 96
-2.214693e+001 2.316768e-001 -4.734191e+001 236 43 83
-1.464653e+000 -5.797381e-001 -6.175614e+000 168 133 103
-3.248312e-001 -5.428827e-001 -6.426776e+000 123 105 66
-5.037449e-001 -8.606277e-001 -6.616206e+000 74 65 54
5.066986e-001 2.255400e-001 -6.826181e+000 168 167 98
5.060349e-001 2.261468e-001 -6.825296e+000 168 167 98
-1.838902e+001 -1.299141e+000 -4.781666e+001 250 200 179
2.806317e-001 -4.013228e-001 -6.621955e+000 130 114 63
-1.133489e+000 9.522733e-001 -6.868979e+000 177 71 76
-1.969990e+001 -4.610823e+000 -4.054853e+001 167 24 54
-1.860903e+001 -3.373373e+000 -4.525588e+001 64 37 89
-3.223927e-001 2.771881e+000 -1.121079e+001 159 148 142
-2.289426e+000 1.953739e+000 -7.655388e+000 186 191 144
-1.949611e+000 1.718729e+000 -7.478479e+000 180 177 139
-1.116676e-001 2.005810e+000 -8.776293e+000 148 161 131
5.675060e-001 2.130005e+000 -9.292820e+000 115 114 100
-3.327680e-001 1.773739e+000 -8.354076e+000 143 87 68
-3.812245e-001 1.604696e+000 -8.161827e+000 193 158 116
-3.525525e-001 1.614600e+000 -8.167871e+000 159 116 74
-3.355549e-001 1.587168e+000 -8.147019e+000 193 168 119
4.858523e-001 1.737916e+000 -8.709458e+000 153 119 81
4.858523e-001 1.737916e+000 -8.709458e+000 153 119 81
-1.196319e+000 1.335508e+000 -7.258664e+000 128 63 64
2.993838e-002 1.494283e+000 -8.165230e+000 191 175 141
5.874796e-001 1.580708e+000 -8.569598e+000 188 177 136
-1.105822e+000 1.108250e+000 -7.025203e+000 200 193 192
-1.105822e+000 1.108250e+000 -7.025203e+000 200 193 192
-9.868105e-001 1.150605e+000 -7.118275e+000 152 61 65
7.322986e-001 1.246821e+000 -8.214270e+000 149 145 133
7.560985e-001 1.172608e+000 -8.141853e+000 96 90 90
9.302667e-001 1.190281e+000 -8.257068e+000 72 84 73
9.290467e-001 1.191272e+000 -8.236542e+000 72 84 73
1.369863e+000 1.149499e+000 -8.043462e+000 87 85 78
-6.129557e-001 1.036436e+000 -6.927069e+000 162 132 62
9.922925e-001 1.048899e+000 -8.103357e+000 114 111 106
-1.973059e-001 7.311065e-001 -7.194708e+000 185 178 162
-1.681174e-001 7.653568e-001 -7.238424e+000 169 152 134
-1.151346e-001 7.667970e-001 -7.235097e+000 191 185 165
-1.368352e-001 7.270557e-001 -7.186244e+000 176 174 150
-1.366752e-001 7.272065e-001 -7.187643e+000 176 174 150
9.985391e-001 7.411501e-001 -7.712771e+000 91 89 85
1.005129e+000 6.978085e-001 -7.666918e+000 132 136 122
-1.289965e-001 5.995581e-001 -7.038111e+000 193 176 157
-1.273159e-001 5.999544e-001 -7.037448e+000 193 176 157
-1.057109e-001 6.100155e-001 -7.064298e+000 82 73 60
-1.071774e-001 5.533171e-001 -6.997896e+000 200 179 159
-4.434230e-002 5.593397e-001 -7.019499e+000 197 185 153
-1.142473e-003 6.236106e-001 -7.111148e+000 76 74 54
1.046598e+000 5.945845e-001 -7.544820e+000 93 108 68
6.620170e-002 5.315525e-001 -7.036029e+000 194 177 141
5.181754e-001 4.815871e-001 -7.171277e+000 138 89 62
1.658749e-001 3.017176e-001 -6.796582e+000 70 73 47
3.844540e-001 3.410069e-001 -6.945307e+000 136 91 59
3.836314e-001 3.411767e-001 -6.943121e+000 136 91 59
5.406139e-001 4.048314e-001 -7.084487e+000 184 157 104
5.406139e-001 4.048314e-001 -7.084487e+000 184 157 104
4.401536e-001 2.318266e-001 -6.839245e+000 140 99 65
6.295356e-001 2.323915e-001 -6.885597e+000 168 166 109
4.561808e-001 1.600214e-001 -6.752780e+000 175 163 103
4.920756e-001 8.500910e-002 -6.685708e+000 169 156 91
4.920756e-001 8.500910e-002 -6.685708e+000 169 156 91
6.674102e-001 9.074175e-002 -6.787559e+000 158 153 87
6.660869e-001 9.071762e-002 -6.785499e+000 158 153 87
-3.703303e-001 -9.718523e-002 -6.007025e+000 141 131 74
1.184220e+000 -2.411067e-001 -7.006975e+000 61 62 44
7.781290e-001 -4.040016e-001 -6.912157e+000 108 104 69
2.227981e-001 -5.846379e-001 -6.773579e+000 77 65 33
1.662996e+000 -8.399472e-001 -7.331823e+000 138 132 121
2.652478e-001 -9.863566e-001 -7.217972e+000 88 74 48
-2.648359e-001 -1.008195e+000 -6.941959e+000 134 118 92
-1.029950e-001 -1.100849e+000 -7.146018e+000 96 82 56
-1.633421e+000 -1.425020e+000 -6.629233e+000 78 62 31
-2.004067e+000 1.817024e+000 -7.586204e+000 181 178 140
2.221582e-001 1.563981e+000 -8.374494e+000 93 98 77
6.478389e-001 1.602415e+000 -8.621638e+000 168 143 86
-1.076615e+000 1.298527e+000 -7.272845e+000 189 184 183
2.195861e-001 1.312164e+000 -8.048047e+000 192 182 152
5.603562e-001 1.400145e+000 -8.325966e+000 190 182 163
-1.027653e+000 1.044696e+000 -6.984071e+000 154 59 67
-1.030795e+000 1.042983e+000 -6.986895e+000 154 59 67
5.836881e-001 1.204673e+000 -8.078110e+000 146 133 99
-1.932377e+000 9.702952e-001 -6.963251e+000 202 163 135
1.346204e+000 1.140446e+000 -8.109279e+000 173 173 165
1.322512e+000 1.091219e+000 -8.132023e+000 165 167 158
-8.393421e-001 8.770855e-001 -6.857448e+000 200 188 188
-8.358145e-001 8.766644e-001 -6.867304e+000 200 188 188
2.717852e-001 7.948157e-001 -7.450530e+000 142 92 69
1.047733e+000 8.130068e-001 -7.837238e+000 97 96 91
-1.487955e+000 5.448263e-001 -6.258577e+000 211 206 144
3.901751e-001 6.728425e-001 -7.320906e+000 182 170 105
-1.448438e+000 4.596221e-001 -6.198697e+000 198 199 130
8.531673e-002 4.434780e-001 -6.936483e+000 67 69 52
7.431497e-002 4.177181e-001 -6.902205e+000 189 167 134
4.425681e-001 4.778505e-001 -7.125357e+000 147 92 76
5.054997e-001 4.338241e-001 -7.113102e+000 138 93 62
5.516762e-001 4.703150e-001 -7.170971e+000 175 164 92
5.526404e-002 3.960339e-001 -6.880478e+000 74 73 51
1.090154e-001 2.959538e-001 -6.782418e+000 71 78 64
3.089039e-001 3.274398e-001 -6.905648e+000 145 88 63
1.135255e+000 4.142775e-001 -7.360228e+000 165 150 97
1.454656e+000 3.946198e-001 -7.528008e+000 132 146 119
1.489858e+000 3.281258e-001 -7.449688e+000 150 166 140
1.574378e-001 2.648294e-001 -6.761859e+000 180 162 117
1.501539e+000 2.614304e-001 -7.386975e+000 98 115 84
1.319682e-001 1.213801e-001 -6.579883e+000 180 162 101
1.575318e+000 1.247313e-001 -7.252483e+000 103 118 89
6.896894e-001 -1.721554e-001 -6.642634e+000 101 103 64
1.469180e+000 -1.441632e-001 -7.091196e+000 65 67 53
7.975126e-001 -2.609808e-001 -6.811177e+000 70 68 45
7.642568e-001 -3.684707e-001 -6.879730e+000 76 72 47
9.790904e-001 -2.785939e-001 -6.918518e+000 67 66 48
7.667689e-001 -5.413554e-001 -7.056159e+000 72 65 44
8.738094e-001 -4.170594e-001 -6.996267e+000 74 71 47
9.786951e-001 -4.696713e-001 -7.092477e+000 70 67 47
-1.074248e+000 -4.764967e-001 -5.936739e+000 72 63 59
-8.990024e-001 -4.230015e-001 -5.969520e+000 78 71 65
-8.003399e-001 -4.387050e-001 -6.039063e+000 75 69 64
-3.623450e-001 -5.266271e-001 -6.417934e+000 58 48 36
6.486827e-002 -5.082020e-001 -6.619766e+000 102 87 58
3.585417e-001 -5.734934e-001 -6.844726e+000 85 69 44
8.721166e-001 -6.823522e-001 -7.245715e+000 116 107 71
-1.444679e-001 -6.224654e-001 -6.623265e+000 98 82 56
-1.603871e-001 -6.645126e-001 -6.652107e+000 99 83 58
-1.245486e-001 -7.194149e-001 -6.732458e+000 95 79 53
-3.223111e-002 -7.860130e-001 -6.865796e+000 97 83 57
2.835319e-001 -7.844463e-001 -7.021598e+000 93 78 53
5.264724e-001 -8.522915e-001 -7.219228e+000 87 72 45
8.113131e-001 -7.673127e-001 -7.302715e+000 83 73 46
-8.007183e-001 -7.996090e-001 -6.378563e+000 74 68 61
-4.607580e-001 -9.202332e-001 -6.761958e+000 91 78 62
-3.924774e-001 -8.859388e-001 -6.739981e+000 91 75 60
-2.872927e-001 -8.117911e-001 -6.730519e+000 87 74 52
5.859859e-002 -8.842101e-001 -7.007869e+000 92 77 53
-1.127348e+000 -8.759041e-001 -6.291726e+000 76 66 64
-1.127348e+000 -8.759041e-001 -6.291726e+000 76 66 64
-3.548222e-001 -9.929830e-001 -6.883083e+000 92 77 58
-2.518339e-001 -1.049850e+000 -7.002568e+000 99 85 59
-1.827541e-001 -1.017963e+000 -7.007802e+000 103 86 67
-2.312854e-001 -1.288316e+000 -7.283797e+000 93 79 55
-6.217704e-001 -1.402834e+000 -7.186942e+000 124 109 84
-1.090980e+000 -1.520786e+000 -7.012911e+000 113 100 72
-1.031092e+000 -1.532047e+000 -7.096613e+000 112 98 72
-2.139919e+000 1.907285e+000 -7.654685e+000 172 170 132
-5.144082e-001 2.071223e+000 -8.693942e+000 90 92 76
-2.057859e+000 1.714946e+000 -7.429647e+000 145 144 110
-1.938066e+000 1.742922e+000 -7.404617e+000 178 171 132
-2.530796e-001 1.977367e+000 -8.682879e+000 129 87 83
-2.075308e-001 1.851523e+000 -8.543449e+000 169 127 104
-1.639329e-001 1.623594e+000 -8.251492e+000 183 157 118
-1.833471e+000 9.586737e-001 -6.824301e+000 229 208 135
8.351828e-001 1.046312e+000 -7.985237e+000 105 102 99
9.612514e-001 1.106863e+000 -8.156242e+000 139 142 131
-1.914327e-001 7.829550e-001 -7.245788e+000 75 82 71
-1.940742e-001 7.823929e-001 -7.245843e+000 75 82 71
-1.479652e-001 6.887861e-001 -7.136838e+000 72 82 69
9.951054e-003 4.717713e-001 -6.932048e+000 194 178 146
-1.371433e+000 4.010895e-001 -6.096895e+000 162 158 91
5.635814e-001 3.211821e-001 -7.006907e+000 175 160 93
5.687829e-001 3.218562e-001 -6.991534e+000 175 160 93
9.201032e-001 3.540733e-001 -7.208060e+000 159 139 89
3.778290e-001 2.599530e-001 -6.842846e+000 186 167 108
3.757715e-001 2.586947e-001 -6.845121e+000 186 167 108
4.414417e-001 1.361593e-001 -6.730528e+000 144 99 68
2.578887e-001 -2.866143e-001 -6.533336e+000 117 104 60
7.003450e-001 -3.380143e-001 -6.802648e+000 118 111 69
2.301570e-001 -3.621284e-001 -6.584927e+000 121 107 63
-1.160570e+000 -6.121439e-001 -6.031578e+000 67 63 56
-1.160570e+000 -6.121439e-001 -6.031578e+000 67 63 56
-9.650915e-001 -5.913851e-001 -6.102202e+000 130 114 106
-9.096124e-001 -6.311116e-001 -6.167260e+000 132 115 105
-9.096124e-001 -6.311116e-001 -6.167260e+000 132 115 105
1.758133e-001 -8.112544e-001 -6.982484e+000 96 82 55
-9.728560e-001 -8.069263e-001 -6.277632e+000 73 68 62
1.848578e-001 -1.296485e+000 -7.535337e+000 106 91 60
-1.251788e+000 -1.447408e+000 -6.864043e+000 111 96 69
-1.088114e+000 -1.595926e+000 -7.137783e+000 81 65 42
-9.185381e-001 -1.484999e+000 -7.110087e+000 81 66 43
-6.643935e-001 2.060357e+000 -8.604486e+000 106 110 83
-2.129698e+000 1.830857e+000 -7.561798e+000 137 143 107
-2.093603e+000 1.767652e+000 -7.489399e+000 121 123 90
-1.740396e+000 1.877246e+000 -7.778576e+000 81 115 83
-5.460291e-001 1.961529e+000 -8.517584e+000 130 93 77
-9.789693e-002 2.026997e+000 -8.845551e+000 139 145 113
-9.651462e-002 2.023949e+000 -8.812896e+000 139 145 113
8.479390e-001 1.333643e+000 -8.361087e+000 171 147 95
-9.585378e-001 1.096895e+000 -7.054655e+000 206 186 192
-7.093015e-001 1.124180e+000 -7.524778e+000 176 150 76
-1.938636e-001 7.815006e-001 -7.246648e+000 75 82 71
-5.580966e-001 6.368246e-001 -6.695720e+000 201 184 160
-1.503606e-001 6.190756e-001 -7.069739e+000 197 184 174
1.474478e-001 1.603213e-001 -6.635411e+000 66 81 56
6.234425e-001 7.596883e-002 -6.742990e+000 140 92 62
6.236146e-001 7.594849e-002 -6.742906e+000 140 92 62
-8.916362e-001 -1.586571e+000 -7.249346e+000 91 76 52
-2.827817e-001 1.644067e+000 -8.198122e+000 186 152 103
-1.008134e+000 1.428985e+000 -7.473436e+000 200 175 118
-1.367905e+000 8.392692e-001 -6.635542e+000 204 186 154
-1.367905e+000 8.392692e-001 -6.635542e+000 204 186 154
-1.356353e+000 7.773917e-001 -6.566931e+000 199 172 95
-5.817054e-001 5.826812e-001 -6.661597e+000 143 112 69
-9.395074e-002 5.784473e-001 -7.025372e+000 54 76 58
-2.672665e-001 -9.801048e-002 -6.110280e+000 111 99 47
-1.495940e-001 -4.220722e-001 -6.411628e+000 131 113 68
-9.109391e-001 -8.067891e-001 -6.311330e+000 74 68 60
-9.109391e-001 -8.067891e-001 -6.311330e+000 74 68 60
-9.560038e-001 2.028723e+000 -8.450700e+000 195 167 113
-1.581574e-001 1.771055e+000 -8.347434e+000 171 139 101
6.754464e-001 6.086616e-001 -7.392705e+000 180 178 152
7.728830e-001 5.507855e-001 -7.370217e+000 136 142 85
9.315964e-001 5.743905e-001 -7.474487e+000 81 90 61
3.365349e-001 3.528074e-001 -6.941787e+000 172 137 99
5.682039e-001 1.360021e+000 -8.281728e+000 188 178 167
4.378071e-001 3.459508e-001 -7.017341e+000 180 163 99
3.688219e-001 -4.476817e-001 -6.796186e+000 120 105 72
1.266460e+000 -1.615582e+000 -8.425714e+000 198 163 149
-1.215703e+000 1.542524e+000 -7.485782e+000 197 190 178
-5.381236e-001 5.586956e-001 -6.674914e+000 148 122 92
1.275320e-001 2.628589e-001 -6.731254e+000 65 80 59
-3.482330e-001 -4.535478e-002 -5.991372e+000 152 146 76
8.696936e-001 8.963779e-001 -7.829205e+000 85 81 79
-1.210323e+000 -1.482481e-001 -5.750741e+000 188 178 125
-4.184461e-002 1.611251e+000 -8.188382e+000 191 168 127
-1.028880e+000 1.062122e+000 -7.004202e+000 202 184 184
-1.028880e+000 1.062122e+000 -7.004202e+000 202 184 184
1.021846e+000 1.224339e+000 -8.272504e+000 86 103 79
-1.261554e+000 1.924201e+000 -8.165513e+000 170 154 94
4.021628e-001 1.673964e+000 -8.605609e+000 181 157 109
1.256199e-001 6.769648e-001 -7.199087e+000 192 178 148
1.122893e+000 1.926037e-001 -7.083286e+000 176 170 145
-4.172974e-001 1.931361e+000 -8.662693e+000 126 86 79
1.567391e+000 8.937939e-001 -7.959579e+000 190 197 190
-1.176427e+000 6.769036e-001 -6.414611e+000 194 184 144
-2.837840e-001 3.992375e-001 -7.158162e+000 194 185 170
-1.243240e+000 2.214667e-001 -6.166717e+000 141 147 75
1.099644e+000 8.445698e-001 -7.959295e+000 72 80 69
-1.054009e+000 1.029412e+000 -6.947647e+000 163 64 72
1.355976e+000 1.095010e+000 -8.105992e+000 87 89 82
1.323548e+000 9.458572e-001 -8.185305e+000 163 165 158
-2.021309e+001 7.374137e-001 -5.058217e+001 206 73 101
-2.214318e+001 -3.899485e+000 -4.107231e+001 175 165 224
-2.224761e+000 1.859003e+000 -7.606103e+000 168 169 127
5.398630e-001 2.156740e+000 -9.288558e+000 213 208 196
-1.526864e+000 1.676466e+000 -7.576910e+000 173 129 104
5.970619e-001 1.511388e+000 -8.496265e+000 195 179 136
-6.442342e-001 1.040406e+000 -7.009808e+000 196 172 115
5.693477e-001 1.109787e+000 -7.950637e+000 103 96 88
-4.756699e-002 7.321325e-001 -7.226045e+000 193 187 165
-1.056298e-001 6.099965e-001 -7.064253e+000 82 73 60
2.860675e-001 5.242353e-001 -7.120844e+000 131 94 58
1.516243e+000 2.008795e-001 -7.306237e+000 102 116 90
1.516243e+000 2.008795e-001 -7.306237e+000 102 116 90
4.739014e-001 1.198794e-001 -6.721685e+000 174 168 99
6.378696e-001 1.466804e-001 -6.836901e+000 171 160 100
1.600161e+000 8.625554e-002 -7.213503e+000 110 122 95
-1.071574e+000 1.298619e+000 -7.275270e+000 189 184 183
9.317925e-001 1.257324e+000 -8.332209e+000 71 83 69
-7.623892e-001 7.588226e-001 -6.733049e+000 194 188 186
-7.623892e-001 7.588226e-001 -6.733049e+000 194 188 186
2.999077e-001 7.456774e-001 -7.396303e+000 142 94 71
-2.457326e+001 -2.898149e+000 -4.411930e+001 77 60 128
1.220053e-001 4.204727e-001 -6.930265e+000 193 175 137
1.072238e+000 4.537115e-001 -7.403031e+000 172 148 97
1.248381e+000 3.850383e-001 -7.397883e+000 111 121 77
1.161147e+000 2.602439e-001 -7.218362e+000 165 150 92
-3.445503e-001 8.622335e-002 -6.207711e+000 141 119 64
2.075626e+000 -1.522774e+000 -6.917979e+000 96 85 79
-2.779757e-001 2.080977e+000 -8.845102e+000 128 140 103
-1.553599e+000 1.156145e+000 -6.822896e+000 204 187 140
-1.553599e+000 1.156145e+000 -6.822896e+000 204 187 140
7.523720e-001 7.499017e-001 -7.600130e+000 144 149 84
1.178457e+000 3.418435e-001 -7.332462e+000 165 144 91
-2.118495e+000 1.941607e+000 -7.697831e+000 143 145 106
1.283394e+000 1.023988e+000 -8.182557e+000 157 160 153
-2.406081e+001 -3.449476e+000 -4.301366e+001 174 165 218
-2.358451e+001 -3.572334e+000 -4.272086e+001 79 64 129
3.095846e-001 4.009904e-001 -6.980911e+000 185 163 108
-1.920608e+001 -8.648163e+000 -3.671521e+001 216 65 97
-1.647670e+001 -1.151082e+001 -3.596772e+001 63 63 131
-1.051173e+000 2.045682e+000 -8.447811e+000 196 169 106
-1.829212e+001 -2.934287e+000 -4.566483e+001 229 42 77
-1.780078e+001 -1.130784e+001 -3.532453e+001 188 34 71
-1.649779e+001 -1.127305e+001 -3.635814e+001 125 167 227
-1.380451e+001 -1.177577e+001 -3.467589e+001 187 30 61
-1.311439e+001 -1.360568e+001 -3.479388e+001 203 34 65
-1.329809e+001 -1.382861e+001 -3.413208e+001 213 30 57
7.880797e-001 7.985874e-001 -7.666411e+000 160 161 129
3.528948e-001 5.078631e-001 -7.094989e+000 183 164 108
3.535482e-001 5.064612e-001 -7.095448e+000 183 164 108
3.106924e-001 1.769898e-001 -6.693009e+000 179 165 104
-1.619020e+001 -1.148828e+001 -3.430561e+001 63 44 102
-1.631031e+001 -1.196879e+001 -3.360396e+001 188 11 47
-1.839618e+001 -1.764923e+000 -4.482963e+001 255 206 112
-1.797545e+001 -1.222083e+001 -3.224989e+001 203 29 65
-1.194839e+000 1.996535e+000 -8.323814e+000 163 157 91
6.887371e-002 3.752092e-001 -6.849104e+000 71 82 65
-1.753148e+001 -1.073189e+001 -3.598893e+001 122 22 47
-1.856998e+001 -1.185449e+001 -3.347169e+001 235 49 93
-1.973651e+001 -9.033164e+000 -3.603856e+001 254 248 255
-1.677841e+001 -1.117268e+001 -3.536271e+001 143 195 247
-1.393932e+001 -1.108284e+001 -3.587015e+001 229 37 76
-1.393932e+001 -1.108284e+001 -3.587015e+001 229 37 76
-1.866547e+001 -1.208529e+001 -3.403205e+001 237 44 88
-2.293771e+001 -3.601788e+000 -4.013259e+001 180 160 216
-2.293771e+001 -3.601788e+000 -4.013259e+001 180 160 216
-2.226451e+001 -5.380116e+000 -4.034893e+001 59 39 67
-1.580416e+001 -1.312029e+001 -3.536870e+001 38 21 37
-2.323506e+000 2.065831e+000 -7.768360e+000 136 142 91
-1.906434e+000 1.910975e+000 -7.744698e+000 85 102 64
-1.610569e+000 1.834777e+000 -7.696073e+000 200 182 136
-2.193087e-001 2.006891e+000 -8.746388e+000 131 147 113
-2.060839e+000 1.604632e+000 -7.291200e+000 180 160 106
-3.326160e-001 1.778328e+000 -8.333678e+000 135 80 60
-4.371216e-001 1.713096e+000 -8.245015e+000 185 146 107
-4.366558e-001 1.712019e+000 -8.270017e+000 185 146 107
-2.456269e-001 1.709953e+000 -8.341345e+000 169 124 88
1.062885e-001 1.660333e+000 -8.432497e+000 156 112 72
1.975668e-001 1.691019e+000 -8.583292e+000 137 101 77
-2.124692e+000 1.446461e+000 -7.304238e+000 244 203 148
2.949789e-001 1.286467e+000 -8.056269e+000 180 170 136
2.949789e-001 1.286467e+000 -8.056269e+000 180 170 136
5.908868e-001 1.267003e+000 -8.170028e+000 95 86 82
8.581823e-001 1.366265e+000 -8.440489e+000 163 144 100
8.581823e-001 1.366265e+000 -8.440489e+000 163 144 100
1.456136e+000 1.374175e+000 -7.877331e+000 67 67 59
-9.919597e-001 1.107685e+000 -7.074745e+000 121 58 55
-9.897328e-001 1.107063e+000 -7.081189e+000 121 58 55
2.698461e-001 1.215432e+000 -7.926484e+000 185 176 148
6.663951e-001 1.108824e+000 -8.003067e+000 81 76 72
6.646555e-001 1.110096e+000 -7.998677e+000 81 76 72
7.190637e-001 1.222696e+000 -8.171736e+000 103 101 88
7.445344e-001 1.196143e+000 -8.158250e+000 152 146 136
8.677163e-001 1.200303e+000 -8.227324e+000 110 111 110
7.434547e-001 1.034211e+000 -7.955009e+000 122 112 95
-1.443647e-001 8.183503e-001 -7.299685e+000 193 185 174
7.259734e-001 8.944843e-001 -7.777157e+000 152 152 125
-1.676574e-001 7.678176e-001 -7.222468e+000 160 146 123
-5.076120e-002 7.319041e-001 -7.222749e+000 187 176 156
3.750265e-001 7.517540e-001 -7.424017e+000 130 88 58
3.769351e-001 7.507917e-001 -7.431113e+000 130 88 58
-7.577193e-002 5.558073e-001 -7.004948e+000 69 69 48
4.152974e-001 5.133146e-001 -7.168759e+000 136 93 62
4.153054e-001 5.138898e-001 -7.170835e+000 136 93 62
5.177312e-001 4.823126e-001 -7.169337e+000 136 92 57
6.730307e-001 5.443272e-001 -7.312314e+000 128 132 81
-5.671514e-004 4.038187e-001 -6.858196e+000 176 156 123
4.911952e-001 3.601261e-001 -7.019732e+000 176 152 96
5.762143e-001 3.539108e-001 -7.042879e+000 129 88 58
5.756225e-001 3.539238e-001 -7.041450e+000 129 88 58
8.718492e-002 1.974459e-001 -6.638506e+000 170 155 96
1.504868e+000 2.355900e-001 -7.346130e+000 93 108 82
1.540516e+000 2.100652e-001 -7.341185e+000 161 172 148
6.336424e-001 9.811637e-002 -6.772502e+000 135 87 62
2.080337e+000 -1.531442e+000 -6.872262e+000 123 114 105
-2.625246e-001 2.092888e+000 -8.856083e+000 120 130 96
-2.003607e+000 1.818304e+000 -7.583721e+000 176 172 133
-1.754143e+000 1.777919e+000 -7.619004e+000 83 110 82
-6.121984e-002 1.998880e+000 -8.768185e+000 131 138 105
5.781534e-001 1.551908e+000 -8.549047e+000 78 75 63
-1.832601e+000 1.208603e+000 -6.906072e+000 190 172 135
1.451450e+000 1.459457e+000 -7.793683e+000 182 183 175
-1.068109e+000 1.050508e+000 -6.970486e+000 190 179 176
5.379427e-001 1.127423e+000 -7.955539e+000 152 151 125
1.385154e+000 1.248313e+000 -8.015880e+000 182 183 177
-1.832407e+000 8.891457e-001 -6.901209e+000 217 200 129
8.275412e-001 9.852025e-001 -7.931521e+000 98 94 93
8.280004e-001 9.286826e-001 -7.863832e+000 77 76 72
-1.615503e+000 7.619906e-001 -6.484161e+000 222 216 193
-1.630925e+000 6.733322e-001 -6.523530e+000 183 180 103
-5.084875e-002 7.045403e-001 -7.198125e+000 71 72 55
2.717801e-001 7.968493e-001 -7.435791e+000 138 91 65
9.848950e-001 7.830656e-001 -7.737381e+000 86 83 80
3.769785e-001 5.964474e-001 -7.256444e+000 138 89 64
2.150149e-001 5.084631e-001 -7.089557e+000 141 87 66
-3.810264e-002 4.413439e-001 -6.899829e+000 182 168 138
1.020063e-001 3.683035e-001 -6.860281e+000 186 170 132
1.020063e-001 3.683035e-001 -6.860281e+000 186 170 132
5.632284e-001 3.877024e-001 -7.073895e+000 139 89 61
1.454411e+000 3.953136e-001 -7.523825e+000 127 141 118
7.076857e-002 3.144967e-001 -6.786304e+000 173 156 114
7.076857e-002 3.144967e-001 -6.786304e+000 173 156 114
6.301620e-001 2.593422e-001 -6.973481e+000 131 93 66
6.301620e-001 2.593422e-001 -6.973481e+000 131 93 66
1.453850e+000 3.320438e-001 -7.443085e+000 102 116 87
1.108001e-001 1.634921e-001 -6.639391e+000 177 161 106
5.629736e-001 2.492922e-001 -6.933549e+000 136 91 68
6.242832e-001 1.854137e-001 -6.880057e+000 162 157 100
1.551382e+000 6.638583e-002 -7.186164e+000 173 180 166
-5.767024e-001 -1.243767e-001 -5.883949e+000 93 83 47
4.724479e-001 -2.042952e-001 -6.553646e+000 92 88 56
-1.451150e+000 -6.684349e-001 -6.169177e+000 105 85 68
-9.281257e-001 -6.007502e-001 -6.122675e+000 79 70 63
1.818246e+000 2.501315e+000 -6.978612e+000 194 187 181
1.850275e+000 2.507734e+000 -6.972078e+000 96 88 80
-2.044379e+000 1.819234e+000 -7.566344e+000 121 125 88
-3.058729e-002 2.026935e+000 -8.878044e+000 82 81 74
-2.328602e-001 1.900302e+000 -8.594719e+000 147 106 88
2.579712e-001 1.591666e+000 -8.411491e+000 183 181 168
8.430465e-001 1.509955e+000 -8.599616e+000 69 82 64
5.834383e-001 1.334943e+000 -8.222061e+000 175 170 158
9.079398e-001 9.756138e-001 -7.964264e+000 95 91 90
7.026196e-001 9.532940e-001 -7.822467e+000 88 84 79
4.450944e-001 4.771927e-001 -7.133704e+000 135 84 57
1.000155e+000 5.656179e-001 -7.490033e+000 165 167 143
1.209590e+000 4.068578e-001 -7.409755e+000 102 113 71
1.299487e-001 3.169627e-001 -6.801476e+000 178 157 115
7.622825e-002 2.830757e-001 -6.767762e+000 60 75 65
3.672973e-001 2.267836e-001 -6.810237e+000 140 87 65
1.559232e+000 1.284600e-001 -7.242240e+000 98 113 79
-1.752370e+000 -2.439217e-001 -6.636333e+000 209 177 148
3.720764e-001 4.412596e-002 -6.583797e+000 167 158 91
-1.621678e+001 -1.126957e+001 -3.367400e+001 202 48 95
8.630328e-002 -4.249234e-001 -6.550423e+000 94 80 54
-7.092065e-001 -4.929873e-001 -6.117901e+000 74 66 62
-1.956289e+000 1.877732e+000 -7.695072e+000 177 166 126
-4.816221e-001 1.993290e+000 -8.580674e+000 133 138 105
-3.576766e-001 2.017936e+000 -8.686792e+000 121 132 92
3.224917e-001 1.928156e+000 -8.844687e+000 128 81 63
1.318841e-001 1.729039e+000 -8.524981e+000 182 146 98
-1.393495e+000 1.429818e+000 -7.340281e+000 124 63 61
-1.392234e+000 1.429425e+000 -7.347493e+000 124 63 61
-1.189692e+000 1.292950e+000 -7.227352e+000 196 182 185
4.654253e-001 1.250365e+000 -8.091895e+000 152 152 128
-2.299632e+001 -3.951415e+000 -4.119714e+001 120 110 171
-9.885957e-001 9.285635e-001 -6.860672e+000 198 180 185
1.281413e+000 9.138851e-001 -8.236664e+000 63 66 59
-1.715134e+000 6.955669e-001 -6.643211e+000 228 201 125
-6.607356e-001 6.889658e-001 -6.711027e+000 145 55 58
-6.607356e-001 6.889658e-001 -6.711027e+000 145 55 58
-5.580369e-001 6.348191e-001 -6.700661e+000 190 180 155
-5.366336e-002 6.127933e-001 -7.083046e+000 186 175 155
-5.347326e-002 6.128259e-001 -7.083213e+000 186 175 155
3.052908e-003 5.959907e-001 -7.079796e+000 68 82 71
4.249221e-001 5.805618e-001 -7.247191e+000 179 154 98
4.255888e-001 5.813303e-001 -7.244683e+000 179 154 98
4.622137e-001 5.140560e-001 -7.183965e+000 179 154 94
1.003044e+000 5.614306e-001 -7.508120e+000 165 167 143
3.106933e-001 3.993641e-001 -6.983781e+000 181 157 111
5.844347e-001 1.598856e-001 -6.822990e+000 135 87 62
5.832094e-001 1.595558e-001 -6.823394e+000 135 87 62
2.293466e-001 8.597413e-002 -6.578199e+000 177 158 97
2.748062e-001 5.761458e-002 -6.567737e+000 63 82 65
5.216302e-001 1.526983e-001 -6.758926e+000 161 155 85
-1.514509e+000 -6.118734e-001 -6.211018e+000 172 157 91
-9.233924e-001 -6.944242e-001 -6.206376e+000 76 72 63
-2.459713e+001 -4.112937e+000 -4.198930e+001 255 198 238
-1.557485e+001 -6.144161e+000 -4.220609e+001 162 54 69
-1.458794e+000 5.671268e-001 -6.264750e+000 173 163 111
-8.550462e-003 5.430920e-001 -7.018324e+000 185 171 145
-7.705694e-003 5.435163e-001 -7.018532e+000 185 171 145
4.599713e-001 9.690549e-002 -6.699135e+000 164 158 85
-1.828444e+001 -1.393155e+001 -3.095897e+001 64 52 115
-2.180331e+000 1.945501e+000 -7.681049e+000 167 163 125
-1.768363e+000 1.948023e+000 -7.856818e+000 178 162 117
-2.309692e+001 -4.273448e+000 -4.052750e+001 212 203 246
-1.537860e+000 9.805759e-001 -6.603778e+000 194 167 90
8.347589e-001 1.082950e+000 -8.059166e+000 98 95 92
3.977729e-001 6.271191e-001 -7.290784e+000 181 150 104
5.716152e-001 1.042894e-001 -6.780747e+000 164 152 93
5.716152e-001 1.042894e-001 -6.780747e+000 164 152 93
-1.470825e+001 -1.371032e+001 -3.177007e+001 220 177 113
-1.241704e+001 -1.468798e+001 -3.112740e+001 199 30 59
-1.229007e+001 -1.528559e+001 -3.080197e+001 182 32 61
-1.630570e+000 1.726158e+000 -7.594175e+000 192 175 145
-1.104708e+000 1.430694e+000 -7.432855e+000 122 61 55
8.502898e-001 1.197634e+000 -8.190622e+000 111 107 102
1.239929e+000 1.101358e+000 -8.040374e+000 158 161 155
-1.516987e+001 -1.076453e+001 -3.748850e+001 56 38 78
-1.495278e+001 -1.338475e+001 -3.174397e+001 64 47 90
-1.276454e+001 -1.394651e+001 -3.362889e+001 236 165 101
-1.286644e+001 -1.431684e+001 -3.312317e+001 214 36 64
-1.193020e+001 -1.420392e+001 -3.201810e+001 207 36 63
-1.266392e+001 -1.504489e+001 -3.087756e+001 44 28 68
2.882692e-001 5.969088e-001 -7.213046e+000 179 162 111
-1.859948e+001 -1.196147e+001 -3.232570e+001 56 37 92
-1.302405e+001 -1.422185e+001 -3.219835e+001 229 170 87
-1.464183e+001 -1.523296e+001 -3.045993e+001 39 22 61
2.411555e-001 2.047168e+000 -9.038761e+000 120 81 72
-1.471451e+001 -1.364641e+001 -3.415484e+001 47 30 49
-1.470603e+001 -1.385242e+001 -3.282046e+001 240 192 117
-1.470603e+001 -1.385242e+001 -3.282046e+001 240 192 117
-1.348525e+001 -1.373886e+001 -3.123581e+001 47 32 67
-7.032990e-001 5.729068e-001 -6.595152e+000 191 180 175
2.296744e-001 9.642019e-002 -6.609210e+000 171 151 100
-3.092689e-001 6.385891e-001 -7.002708e+000 192 182 180
-3.092689e-001 6.385891e-001 -7.002708e+000 192 182 180
-1.737081e+001 -1.386739e+001 -3.123690e+001 228 41 81
-1.616939e+001 -1.384052e+001 -3.185192e+001 223 34 74
-1.200368e+001 -1.525003e+001 -3.132488e+001 202 36 68
-1.209573e+001 -1.539396e+001 -3.157114e+001 202 36 68
-1.361875e+001 -1.397573e+001 -3.342050e+001 240 179 89
-1.361875e+001 -1.397573e+001 -3.342050e+001 240 179 89
-1.044475e+000 1.042517e+000 -7.174442e+000 192 181 181
-2.272355e+000 1.982717e+000 -7.681563e+000 144 144 87
-4.430011e-001 1.975754e+000 -8.574195e+000 139 148 124
-2.021829e+000 1.844500e+000 -7.614744e+000 171 169 133
-2.023182e+000 1.844152e+000 -7.620935e+000 171 169 133
-1.685978e+000 1.816474e+000 -7.714145e+000 77 100 71
4.773634e-001 1.914188e+000 -8.930950e+000 166 118 90
-2.093527e+000 1.712130e+000 -7.444924e+000 168 167 129
-2.044961e+000 1.687024e+000 -7.412976e+000 181 171 128
1.417945e-001 1.582090e+000 -8.273429e+000 184 155 115
9.023734e-001 1.098603e+000 -8.121980e+000 139 138 131
9.455646e-001 1.017729e+000 -7.952858e+000 138 137 133
3.390713e-001 8.109445e-001 -7.477751e+000 130 90 58
-1.729010e+000 5.198015e-001 -6.671595e+000 205 170 114
-1.180394e-001 6.769397e-001 -7.143163e+000 170 160 137
2.677603e-002 6.224045e-001 -7.127591e+000 189 175 149
-5.531318e-001 6.044082e-001 -6.683534e+000 134 114 88
-7.570567e-002 5.561300e-001 -7.004660e+000 81 69 54
6.584946e-001 5.613521e-001 -7.334099e+000 162 159 114
-2.186190e+000 -1.313102e-001 -7.508097e+000 217 162 174
2.607911e-001 4.469805e-001 -7.013827e+000 179 156 114
4.898758e-001 4.130950e-001 -7.090336e+000 168 147 92
4.898758e-001 4.130950e-001 -7.090336e+000 168 147 92
1.579636e-001 3.759856e-001 -6.889681e+000 180 163 119
8.396006e-001 3.724459e-001 -7.182157e+000 146 143 82
-1.808271e+000 -8.797807e-002 -6.767622e+000 131 93 80
-1.812974e+000 -9.727631e-002 -6.787105e+000 131 93 80
6.372054e-001 2.651359e-001 -6.983753e+000 138 94 71
6.324455e-001 2.760674e-001 -6.956135e+000 138 94 71
4.105160e-001 1.923934e-001 -6.797271e+000 132 88 52
4.035018e-001 1.786551e-001 -6.759506e+000 177 150 101
4.035018e-001 1.786551e-001 -6.759506e+000 177 150 101
1.535269e+000 1.658529e-001 -7.289623e+000 98 118 83
1.568008e+000 3.941753e-002 -7.154162e+000 157 170 146
-1.675590e+000 -3.293545e-001 -6.554890e+000 131 103 63
-1.675590e+000 -3.293545e-001 -6.554890e+000 131 103 63
-1.648559e+000 -3.774289e-001 -6.501905e+000 114 89 57
-1.600287e+000 -4.616309e-001 -6.417936e+000 106 94 56
1.998667e+000 3.075057e+000 -6.438802e+000 190 183 176
-3.228590e-002 2.015058e+000 -8.725441e+000 73 70 63
-1.757707e+000 1.744223e+000 -7.560160e+000 80 108 77
-3.643650e-001 1.781212e+000 -8.280505e+000 164 115 87
-3.526355e-001 1.617393e+000 -8.153767e+000 155 107 67
-2.090219e+000 1.324362e+000 -7.240670e+000 224 188 179
3.173822e-002 1.494994e+000 -8.185137e+000 186 173 141
-2.071858e+000 1.144216e+000 -7.183228e+000 218 180 177
-2.076096e+000 1.138657e+000 -7.204618e+000 218 180 177
8.295053e-001 1.288947e+000 -8.336758e+000 73 78 68
7.374355e-001 1.280916e+000 -8.245462e+000 105 100 97
-1.103399e+000 1.107731e+000 -7.028307e+000 189 186 185
-1.792735e+000 9.349322e-001 -6.731974e+000 217 198 134
8.230899e-001 9.315052e-001 -7.858585e+000 75 71 68
1.023906e+000 9.763787e-001 -7.996376e+000 97 96 92
-8.316866e-001 7.839461e-001 -6.788607e+000 135 46 54
-8.316866e-001 7.839461e-001 -6.788607e+000 135 46 54
3.304036e-001 7.056275e-001 -7.344581e+000 134 90 62
-1.549915e+000 6.114185e-001 -6.304257e+000 178 180 110
-9.630114e-001 6.498002e-001 -6.583287e+000 161 53 57
-2.253126e+000 -6.673326e-002 -7.602026e+000 184 92 105
-2.183021e+000 -9.177253e-002 -7.530308e+000 179 74 87
-1.492641e+000 4.595658e-001 -6.242809e+000 175 177 104
5.087814e-001 4.593980e-001 -7.139055e+000 169 152 92
-1.387951e+000 3.514931e-001 -6.088072e+000 181 188 120
3.800957e-001 3.414543e-001 -6.942456e+000 139 93 63
1.283249e+000 3.518732e-001 -7.319535e+000 68 76 61
4.368137e-001 2.251586e-001 -6.855129e+000 143 92 64
-1.773661e+000 -1.829622e-001 -6.722996e+000 169 136 110
1.519879e+000 1.445520e-001 -7.250768e+000 172 180 170
4.047164e-001 6.144004e-002 -6.626665e+000 137 89 66
4.047164e-001 6.144004e-002 -6.626665e+000 137 89 66
-1.618304e+000 -3.762954e-001 -6.482338e+000 188 165 98
-3.147802e-001 -4.902342e-002 -6.317520e+000 123 107 58
-3.147802e-001 -4.902342e-002 -6.317520e+000 123 107 58
-8.641266e-001 2.009586e+000 -8.425583e+000 194 175 141
4.324080e-001 2.012607e+000 -9.033576e+000 78 89 83
4.546915e-001 1.650815e+000 -8.494783e+000 171 145 96
-5.527212e-002 1.490960e+000 -8.138021e+000 183 173 149
7.239484e-001 1.188931e+000 -8.150419e+000 153 142 120
-1.121224e+000 1.063475e+000 -6.998004e+000 194 181 180
3.123358e-001 7.807159e-001 -7.428697e+000 182 162 101
2.418581e-001 4.590137e-001 -7.035770e+000 136 88 66
4.449227e-001 4.789216e-001 -7.130373e+000 139 88 69
6.549341e-001 1.171389e-001 -6.811887e+000 138 91 73
1.557761e+000 1.315127e-001 -7.238131e+000 92 107 75
4.084951e-001 4.869897e-002 -6.651688e+000 138 89 67
-1.645365e+000 -3.364611e-001 -6.532457e+000 200 173 101
-1.514862e+000 -5.575408e-001 -6.321357e+000 160 159 94
-1.514862e+000 -5.575408e-001 -6.321357e+000 160 159 94
-2.043438e+000 1.910499e+000 -7.678611e+000 179 170 127
-1.800732e+000 1.782748e+000 -7.652235e+000 181 169 131
-1.592523e-001 1.695770e+000 -8.344248e+000 178 150 105
-1.174692e+000 1.333746e+000 -7.272363e+000 122 56 57
-1.174692e+000 1.333746e+000 -7.272363e+000 122 56 57
-9.025271e-001 1.341064e+000 -7.483594e+000 165 142 103
-1.109757e-001 8.042867e-001 -7.278257e+000 73 74 62
-1.099966e-001 8.044442e-001 -7.279338e+000 73 74 62
-2.351522e+000 2.195118e-001 -7.779113e+000 130 62 53
3.737334e-001 6.789314e-001 -7.336660e+000 180 154 105
3.740311e-001 6.780401e-001 -7.339314e+000 180 154 105
5.603553e-001 3.250235e-001 -7.005356e+000 168 150 92
-1.086026e-002 2.155115e+000 -9.000127e+000 224 214 207
3.603108e-002 2.020347e+000 -8.825575e+000 152 124 104
-2.754041e-001 1.659441e+000 -8.257003e+000 183 149 97
-1.371098e+000 1.428032e+000 -7.314261e+000 126 59 58
-1.371098e+000 1.428032e+000 -7.314261e+000 126 59 58
-1.232210e+000 1.354006e+000 -7.295564e+000 191 183 181
-1.053473e+000 1.111759e+000 -7.061087e+000 147 64 67
-1.027336e+000 1.111887e+000 -7.080663e+000 150 64 66
-1.027336e+000 1.111887e+000 -7.080663e+000 150 64 66
-1.540717e+000 1.075307e+000 -6.747056e+000 198 181 149
-1.540717e+000 1.075307e+000 -6.747056e+000 198 181 149
-1.515077e+000 9.474070e-001 -6.785674e+000 199 182 148
-1.515077e+000 9.474070e-001 -6.785674e+000 199 182 148
1.212626e+000 1.006460e+000 -8.246923e+000 88 91 82
1.676881e-001 2.019491e-001 -6.679791e+000 177 160 104
1.672745e-001 2.007472e-001 -6.680448e+000 177 160 104
-6.583210e-001 2.055882e+000 -8.624957e+000 94 101 73
-1.101990e+000 6.755829e-001 -6.515441e+000 193 167 93
-5.368344e-001 6.470997e-001 -6.847825e+000 146 115 67
-5.372313e-001 6.472252e-001 -6.847420e+000 146 115 67
-2.022259e+000 1.942114e+000 -7.722466e+000 173 165 120
-8.930358e-001 1.275316e+000 -7.373513e+000 192 168 110
-8.812891e-001 8.156156e-001 -6.765242e+000 158 57 65
-8.812891e-001 8.156156e-001 -6.765242e+000 158 57 65
-5.955916e-001 6.512627e-001 -6.689721e+000 195 170 115
-5.926024e-001 6.508285e-001 -6.692974e+000 195 170 115
3.948437e-001 4.352856e-001 -7.079213e+000 175 156 98
1.093219e+000 5.071400e-001 -7.426952e+000 99 111 71
1.431864e+000 3.664568e-001 -7.480182e+000 104 116 94
7.462461e-001 1.412303e+000 -8.417995e+000 77 88 71
-9.826463e-001 1.290448e+000 -7.245180e+000 133 57 59
-1.817900e+000 7.483521e-002 -6.673386e+000 224 193 181
-1.271987e+000 1.228215e+000 -7.180530e+000 145 53 55
-1.135415e+000 1.273123e+000 -7.224198e+000 163 127 129
-9.082851e-001 1.143732e+000 -7.262528e+000 147 58 58
-2.432902e-001 2.210993e+000 -9.032488e+000 241 219 208
-1.264703e+000 1.917436e+000 -8.215723e+000 166 152 91
5.411845e-001 1.967322e+000 -9.088798e+000 85 88 80
1.120378e+000 1.692327e+000 -7.583970e+000 194 195 189
1.091117e+000 8.417972e-001 -7.998756e+000 62 72 61
-1.482575e+001 -1.094478e+001 -3.712200e+001 197 39 78
-3.340233e-001 1.830749e+000 -8.446501e+000 165 111 89
3.747649e-001 3.588674e-001 -6.971317e+000 180 158 103
6.216226e-001 1.360752e-001 -6.812349e+000 136 88 66
6.157257e-001 1.141855e-001 -6.789946e+000 151 149 79
5.955433e-001 2.936374e-001 -6.992497e+000 141 93 71
3.039100e-001 1.542041e+000 -8.396300e+000 103 120 88
9.021052e-001 5.183536e-001 -7.385716e+000 152 144 89
4.035221e-001 1.360397e+000 -8.192782e+000 164 143 91
-1.398088e+000 2.049186e+000 -8.261943e+000 159 149 100
-1.932316e+000 1.761999e+000 -7.535865e+000 125 119 83
1.183333e-001 1.561559e+000 -8.313333e+000 155 99 72
-2.057204e+000 1.114154e+000 -7.194058e+000 176 136 132
5.431092e-001 1.136358e+000 -7.935729e+000 154 152 129
-1.451951e+000 8.325789e-001 -7.855685e+000 202 174 170
-1.096942e+000 1.042863e+000 -6.966069e+000 165 53 64
-1.817611e+000 7.465117e-001 -6.755431e+000 237 204 169
-6.324358e-001 6.812635e-001 -6.758983e+000 189 165 111
-1.646811e+000 -3.757959e-001 -6.498599e+000 114 89 57
-1.756313e+000 1.741960e+000 -7.562609e+000 80 108 77
-2.396895e-001 1.807526e+000 -8.488249e+000 141 95 75
-1.165123e+000 1.600340e+000 -7.678776e+000 143 128 107
4.754661e-001 1.675949e+000 -8.640084e+000 187 163 108
1.053585e+000 9.120852e-001 -7.961233e+000 91 95 88
4.885639e-001 8.007185e-002 -6.705701e+000 160 150 88
1.926758e+000 2.854033e+000 -6.658814e+000 188 184 173
-2.050653e+000 1.769809e+000 -7.523321e+000 173 166 130
-1.679244e+000 1.854770e+000 -7.733602e+000 194 172 129
1.706330e-001 1.332070e+000 -8.025922e+000 180 174 146
8.811143e-001 6.161821e-001 -7.500483e+000 172 169 140
8.690200e-002 2.213753e-001 -6.690852e+000 178 158 107
-7.779320e-002 2.095172e+000 -8.952999e+000 87 90 76
-9.840602e-001 9.270543e-001 -6.861426e+000 198 183 183
-2.278217e+001 -1.085115e+001 -3.619724e+001 239 59 104
-2.711197e-002 4.882753e-001 -6.958339e+000 67 81 71
-1.510896e+001 -1.359610e+001 -3.216401e+001 79 54 101
-2.885102e-002 2.073542e+000 -8.947043e+000 93 100 83
8.036445e-001 6.822068e-001 -7.572399e+000 137 140 83
-1.603844e+001 -1.429587e+001 -3.045223e+001 155 20 50
-1.368048e+001 -1.403491e+001 -3.161920e+001 44 29 62
-1.689663e+001 -1.519932e+001 -3.002330e+001 221 25 66
-1.689663e+001 -1.519932e+001 -3.002330e+001 221 25 66
-1.526998e+001 -1.505829e+001 -3.027179e+001 223 28 66
-1.815359e+001 -1.715960e+001 -2.949166e+001 76 69 77
-3.888609e-001 1.907094e+000 -8.659675e+000 132 84 74
-1.899672e+001 -1.325069e+001 -3.218489e+001 49 25 48
-1.951916e+001 -1.673068e+001 -3.207208e+001 45 30 72
-6.350784e-002 2.317308e+000 -1.062178e+001 166 153 146
-6.350784e-002 2.317308e+000 -1.062178e+001 166 153 146
-2.363419e+000 2.001716e+000 -7.849932e+000 165 170 127
-1.109470e+000 2.044430e+000 -8.377442e+000 193 173 118
-2.160814e+000 1.886629e+000 -7.610251e+000 125 127 90
-2.015666e+000 1.907250e+000 -7.670306e+000 174 169 127
-1.906536e+000 1.934908e+000 -7.771365e+000 177 165 118
-7.603360e-002 2.040125e+000 -8.809501e+000 136 142 119
-2.017836e+000 1.779909e+000 -7.522113e+000 177 173 135
-2.017356e+000 1.779949e+000 -7.522573e+000 177 173 135
-1.948716e+000 1.780967e+000 -7.547690e+000 164 160 122
-1.297914e+000 1.736601e+000 -7.901978e+000 186 164 115
9.592770e-002 1.821100e+000 -8.707991e+000 165 114 85
3.790241e-001 1.907515e+000 -8.700705e+000 165 120 95
-1.538431e+000 1.692904e+000 -7.602088e+000 177 121 100
-4.379978e-001 1.711188e+000 -8.243070e+000 185 143 107
2.182377e-001 1.709945e+000 -8.537574e+000 179 161 125
-1.196617e+000 1.615547e+000 -7.663728e+000 195 180 165
1.075613e-001 1.654694e+000 -8.442634e+000 149 106 68
6.047545e-001 1.589869e+000 -8.670162e+000 113 90 58
-4.037755e-001 1.535511e+000 -8.048303e+000 152 98 66
5.872941e-001 1.469431e+000 -8.504866e+000 163 144 93
8.288612e-001 1.548890e+000 -8.682758e+000 69 84 64
5.859287e-001 1.215116e+000 -8.165299e+000 124 115 92
5.946174e-001 1.139084e+000 -8.006345e+000 125 118 108
6.344035e-001 1.145001e+000 -8.043731e+000 88 81 75
6.493973e-001 1.125531e+000 -8.025093e+000 127 120 110
8.243043e-001 1.202791e+000 -8.220169e+000 143 138 134
8.646114e-001 1.172640e+000 -8.204613e+000 143 141 136
-1.120799e+000 1.097417e+000 -7.001524e+000 137 52 55
-1.120799e+000 1.097417e+000 -7.001524e+000 137 52 55
5.622690e-001 1.070112e+000 -7.934387e+000 152 150 131
8.811518e-001 1.054947e+000 -8.061064e+000 148 144 141
9.316571e-001 1.092112e+000 -8.095533e+000 110 106 102
1.003405e+000 1.080218e+000 -8.109013e+000 127 128 117
1.036282e+000 1.035636e+000 -8.143082e+000 131 137 125
-1.027778e+000 9.442621e-001 -6.866227e+000 160 63 77
-8.551932e-001 9.626095e-001 -6.955205e+000 121 39 45
-8.617089e-001 9.498476e-001 -6.983353e+000 121 39 45
-2.001621e+000 6.215982e-001 -7.089518e+000 179 148 93
-1.676846e-001 7.682386e-001 -7.220874e+000 169 147 127
-1.175496e-001 6.674117e-001 -7.164597e+000 175 162 136
-5.762658e-001 6.584413e-001 -6.808353e+000 188 160 83
3.733540e-001 6.246351e-001 -7.283071e+000 175 154 99
2.957156e-002 4.230236e-001 -6.879611e+000 169 153 121
3.105492e-001 4.489018e-001 -7.042621e+000 183 156 111
5.483399e-001 4.725469e-001 -7.162609e+000 169 159 88
4.954720e-001 4.034893e-001 -7.056913e+000 178 153 99
-1.657489e+000 1.399035e-001 -6.500062e+000 164 123 80
6.071363e-001 2.773910e-001 -6.973502e+000 171 157 107
1.474448e+000 3.096366e-001 -7.418917e+000 92 106 81
-1.788006e+000 -1.346175e-001 -6.739669e+000 105 89 63
-1.754935e+000 -2.446578e-001 -6.708945e+000 108 93 68
4.601825e-001 2.030914e-001 -6.798717e+000 133 95 56
4.998146e-001 1.274080e-001 -6.725330e+000 129 89 59
1.567802e+000 3.853521e-002 -7.154872e+000 163 176 150
-1.682043e-001 2.085251e+000 -8.962491e+000 137 142 116
-4.546002e-001 1.941728e+000 -8.585104e+000 118 76 69
-2.028315e+000 1.735198e+000 -7.449308e+000 175 170 130
-1.786848e+000 1.793838e+000 -7.644157e+000 174 166 130
