ply
format ascii 1.0
element face 0
property list uchar int vertex_indices
element vertex 875
property float x
property float y
property float z
property uchar diffuse_red
property uchar diffuse_green
property uchar diffuse_blue
end_header
2.524128e-001 1.410287e+000 -8.213775e+000 184 177 143
-1.027614e+000 1.064070e+000 -7.028861e+000 153 71 68
-9.761327e-001 1.068478e+000 -7.049067e+000 150 71 75
8.811506e-001 1.285146e+000 -8.382685e+000 80 91 75
8.555851e-001 1.229657e+000 -8.292882e+000 168 146 105
-9.878198e-001 8.227327e-001 -6.770233e+000 199 186 183
-9.896850e-001 8.227165e-001 -6.774587e+000 199 186 183
-9.547324e-001 8.878202e-001 -6.863848e+000 201 185 183
-9.573024e-001 8.866670e-001 -6.848603e+000 201 185 183
-8.476648e-001 8.977059e-001 -6.901349e+000 202 192 190
-7.860085e-001 8.988842e-001 -6.942300e+000 198 199 192
-7.819481e-001 7.849786e-001 -6.816417e+000 198 192 191
-1.449379e-001 7.567063e-001 -7.257082e+000 88 82 69
-7.344129e-002 7.194525e-001 -7.231649e+000 87 86 66
1.024239e+000 6.836361e-001 -7.686307e+000 72 80 67
-6.539121e-002 5.831467e-001 -7.079975e+000 199 188 166
-6.539121e-002 5.831467e-001 -7.079975e+000 199 188 166
9.118201e-002 4.865976e-001 -7.011405e+000 95 82 65
9.686021e-001 6.266302e-001 -7.578338e+000 85 98 66
9.702620e-001 5.380209e-001 -7.499005e+000 168 174 140
-6.739779e-004 4.128456e-001 -6.907459e+000 71 93 73
1.940811e-002 3.577717e-001 -6.845781e+000 75 84 75
7.986575e-002 3.229685e-001 -6.807625e+000 73 86 69
3.313186e-001 2.607011e-001 -6.872500e+000 140 94 61
1.283643e+000 3.348884e-001 -7.385015e+000 119 133 80
-2.226840e+000 2.233286e-001 -7.638567e+000 189 82 94
-2.226840e+000 2.233286e-001 -7.638567e+000 189 82 94
2.558918e-001 1.030468e-001 -6.643317e+000 66 80 65
5.887902e-001 1.745141e-001 -6.882175e+000 180 165 109
5.014168e-001 5.780578e-002 -6.702207e+000 143 97 64
5.019751e-001 5.796659e-002 -6.700806e+000 143 97 64
1.168075e+000 8.572265e-002 -7.048284e+000 169 150 94
1.608231e+000 -1.337218e-001 -7.173870e+000 58 63 43
7.008486e-001 -2.742537e-001 -6.781242e+000 106 102 65
2.218810e-001 -4.073999e-001 -6.636950e+000 81 65 46
2.092572e-001 -4.409349e-001 -6.648222e+000 89 72 51
1.952555e-001 -4.792760e-001 -6.673598e+000 79 64 43
3.199538e-001 -4.869604e-001 -6.773066e+000 80 69 41
-7.926536e-001 -5.477232e-001 -6.154315e+000 130 115 104
-3.722919e-001 -5.808213e-001 -6.473343e+000 57 45 38
1.818672e-001 -5.243366e-001 -6.728342e+000 75 64 36
-3.194271e-001 -7.154774e-001 -6.633014e+000 86 69 50
-9.930228e-002 -6.431758e-001 -6.680529e+000 82 65 40
-9.930228e-002 -6.431758e-001 -6.680529e+000 82 65 40
1.127282e-002 -6.472997e-001 -6.769749e+000 81 68 42
1.283224e-001 -6.707780e-001 -6.841546e+000 78 66 41
3.089808e-001 -6.779523e-001 -6.948537e+000 86 73 46
-7.675550e-001 -7.774344e-001 -6.381638e+000 73 66 62
-3.351212e-001 -7.594792e-001 -6.670413e+000 89 75 58
3.640505e-001 -1.112551e+000 -7.416186e+000 132 118 85
-6.624189e-001 -1.131075e+000 -6.834919e+000 135 116 83
-7.319553e-001 -1.215405e+000 -6.899267e+000 96 81 57
-1.152575e+000 -1.229774e+000 -6.617143e+000 79 63 47
-1.142599e+000 -1.274740e+000 -6.704081e+000 115 100 71
-8.130151e-001 -1.404978e+000 -7.071026e+000 75 63 41
-1.370657e+000 -1.457132e+000 -6.787424e+000 87 70 53
-6.879561e-001 -1.538424e+000 -7.322708e+000 100 89 64
-2.049917e+000 1.866841e+000 -7.672521e+000 153 153 115
-1.605393e+000 1.790881e+000 -7.709070e+000 196 177 133
-1.399334e+000 2.007182e+000 -8.197976e+000 243 215 207
-1.892683e+000 1.601112e+000 -7.391623e+000 132 128 87
-1.892683e+000 1.601112e+000 -7.391623e+000 132 128 87
-1.854081e+000 1.671497e+000 -7.478129e+000 154 150 113
-1.619539e+000 1.712213e+000 -7.588036e+000 93 118 90
-1.195025e+000 1.297492e+000 -7.265011e+000 202 188 188
-1.195025e+000 1.297492e+000 -7.265011e+000 202 188 188
1.597904e-001 1.492119e+000 -8.293897e+000 182 166 123
-1.122850e+000 1.160414e+000 -7.138133e+000 200 188 187
6.980317e-001 1.459993e+000 -8.516820e+000 163 132 84
-1.103064e+000 1.079708e+000 -7.047943e+000 167 78 82
8.188771e-001 1.283674e+000 -8.320705e+000 165 150 100
7.531055e-001 9.810223e-001 -7.929167e+000 169 162 148
-9.089236e-001 7.181327e-001 -6.682988e+000 202 189 191
1.005017e+000 8.535765e-001 -7.872492e+000 103 103 94
9.217481e-001 6.904890e-001 -7.652954e+000 153 157 135
-2.264719e+001 4.651598e+000 -5.276160e+001 243 49 89
4.256085e-003 5.705124e-001 -7.094535e+000 75 87 72
8.019645e-001 5.910972e-001 -7.491910e+000 178 173 144
-2.976751e-002 4.628017e-001 -6.959491e+000 74 89 71
-2.976751e-002 4.628017e-001 -6.959491e+000 74 89 71
1.553113e-001 1.846056e-001 -6.692753e+000 185 169 113
1.568572e-001 1.848297e-001 -6.686476e+000 185 169 113
2.278643e-001 7.322847e-002 -6.595430e+000 177 166 103
2.240432e-001 7.323698e-002 -6.596773e+000 177 166 103
4.519557e-001 8.573201e-002 -6.714347e+000 174 164 96
4.489139e-001 8.498235e-002 -6.714759e+000 174 164 96
2.838395e-001 -2.637442e-001 -6.513330e+000 68 56 29
-2.339100e+001 -3.825860e+000 -4.233209e+001 216 210 254
-6.805534e-001 -4.923737e-001 -6.166054e+000 68 67 55
-6.785125e-001 -4.915147e-001 -6.160464e+000 68 67 55
-2.359997e-001 -5.081924e-001 -6.478379e+000 128 111 69
1.531631e-001 -8.371335e-001 -7.012349e+000 82 68 34
7.349041e-002 -1.060306e+000 -7.243851e+000 85 72 40
1.209924e+000 -1.474579e+000 -8.326508e+000 83 65 50
-1.425379e+000 -1.430864e+000 -6.772061e+000 91 77 50
-1.481894e+001 -1.108178e+001 -3.661756e+001 74 47 105
-1.974466e+000 1.858165e+000 -7.644061e+000 181 173 137
-1.466136e+000 2.009423e+000 -8.156659e+000 179 166 113
1.630078e-001 1.832458e+000 -8.742886e+000 176 147 116
1.630078e-001 1.832458e+000 -8.742886e+000 176 147 116
6.947734e-001 1.379046e+000 -8.410125e+000 87 90 75
-8.334685e-001 7.778161e-001 -6.772940e+000 166 72 73
-8.334685e-001 7.778161e-001 -6.772940e+000 166 72 73
9.044745e-001 5.477817e-001 -7.466278e+000 83 96 68
1.060960e+000 4.758496e-001 -7.434881e+000 99 115 76
3.828275e-001 9.096180e-002 -6.692831e+000 175 166 95
-2.490834e+001 -2.714689e+000 -4.366698e+001 76 51 115
-2.451211e+001 -2.962120e+000 -4.340615e+001 194 183 239
-2.340636e+001 -4.262071e+000 -4.013862e+001 107 69 122
6.414940e-002 -6.464107e-001 -6.803927e+000 136 116 74
6.414940e-002 -6.464107e-001 -6.803927e+000 136 116 74
1.087120e+000 -1.453850e+000 -8.248826e+000 69 62 44
-2.000037e+001 -8.030425e+000 -3.851565e+001 225 43 84
-1.460368e+001 -8.099936e+000 -3.967306e+001 222 49 82
-6.692882e-001 1.837093e+000 -8.346674e+000 183 166 142
4.697427e-001 1.376381e+000 -8.288053e+000 170 148 101
-7.636189e-001 7.383160e-001 -6.750450e+000 202 185 185
-7.643516e-001 7.382636e-001 -6.749393e+000 202 185 185
-5.972047e-001 6.970488e-001 -6.771319e+000 204 178 118
7.803518e-001 6.554496e-001 -7.552817e+000 142 148 89
2.689510e-001 4.179843e-001 -7.039973e+000 148 109 72
1.201050e+000 3.062494e-001 -7.386770e+000 176 169 148
1.382166e+000 3.465535e-001 -7.467492e+000 129 143 117
-2.660065e+001 -8.921544e-001 -4.626264e+001 233 68 122
-2.540426e+001 -1.757750e+000 -4.475323e+001 74 52 114
-7.235486e-001 -6.179162e-001 -6.247671e+000 76 69 61
-5.930696e-001 -6.891285e-001 -6.389644e+000 108 96 74
-1.654695e+001 -6.192272e+000 -4.164403e+001 59 34 64
-1.639625e+001 -5.810998e+000 -4.218639e+001 226 44 85
-1.901481e+001 -6.784320e+000 -4.195559e+001 197 26 70
-1.821305e+001 -7.074542e+000 -4.111882e+001 62 40 96
-1.635288e+001 -6.576665e+000 -4.197800e+001 205 35 66
-1.759477e+001 -7.604537e+000 -3.942720e+001 71 51 115
-1.566200e+001 -7.689783e+000 -4.059240e+001 226 42 76
-1.454869e+001 -8.448316e+000 -3.928106e+001 208 34 64
-1.556485e+000 -1.566641e+000 -6.889834e+000 76 63 44
-1.058936e+000 1.366892e+000 -7.491001e+000 131 72 74
2.985312e-001 5.631607e-001 -7.235665e+000 187 167 114
1.518081e-001 4.291133e-001 -6.976879e+000 191 173 133
4.911650e-001 4.074585e-001 -7.094801e+000 145 101 72
1.429931e+000 2.606098e-001 -7.433676e+000 140 155 132
-2.494545e+001 1.263616e+000 -5.124084e+001 210 25 67
-2.483395e+001 -1.161184e+000 -4.495589e+001 90 70 155
-3.938083e-001 -7.980712e-001 -6.643581e+000 103 89 63
-1.709936e+001 -8.360201e+000 -3.788008e+001 66 45 107
-1.704556e+001 -8.872642e+000 -3.671048e+001 206 31 70
-1.673128e+001 -1.096570e+001 -3.672408e+001 49 35 69
-1.725651e+000 1.774163e+000 -7.720440e+000 94 119 90
-1.281454e+000 1.342531e+000 -7.316646e+000 135 71 66
-1.102082e+000 1.225015e+000 -7.211258e+000 176 136 141
-7.267892e-001 8.311791e-001 -6.888226e+000 160 68 69
-6.891301e-001 6.809697e-001 -6.710289e+000 157 66 67
-1.303925e-001 7.311683e-001 -7.252896e+000 84 81 62
-1.299067e-001 7.329943e-001 -7.247477e+000 84 81 62
-4.147630e-001 5.677642e-001 -6.905193e+000 193 183 181
8.063948e-001 4.173839e-001 -7.257317e+000 172 157 108
2.077010e-001 3.325930e-001 -6.850434e+000 188 173 126
2.605345e-001 2.068159e-001 -6.726306e+000 184 169 108
-1.846377e-001 -7.980142e-002 -6.223983e+000 165 151 86
-2.279040e+001 -3.956202e+000 -4.148734e+001 173 163 216
-1.920694e+001 -5.907091e+000 -4.215303e+001 201 27 62
-1.831464e+001 -7.267023e+000 -4.005812e+001 242 50 95
-1.778867e+001 -8.103556e+000 -3.839087e+001 250 56 101
6.337867e-001 1.073092e+000 -7.989362e+000 114 108 100
9.408635e-002 -1.793764e-001 -6.359769e+000 76 64 22
-1.727118e+001 -7.814847e+000 -4.136451e+001 67 54 124
-1.548687e+001 -8.089604e+000 -3.892996e+001 58 36 74
-8.077555e-001 1.039691e+000 -7.020190e+000 156 70 71
5.429707e-001 8.624565e-001 -7.644379e+000 177 171 135
-2.161809e+001 -3.738209e+000 -4.294268e+001 255 62 110
7.683065e-001 7.014070e-003 -6.732503e+000 146 148 83
5.424349e-001 -4.381389e-001 -6.820195e+000 129 111 63
-2.460086e+001 -2.500803e+000 -4.487087e+001 69 47 109
1.214023e+000 1.484249e+000 -8.614159e+000 193 197 185
9.946481e-001 1.515145e-001 -7.146919e+000 169 156 115
-2.021628e+001 -3.315292e+000 -4.225161e+001 251 53 99
-8.432338e-001 4.213310e-001 -6.537805e+000 194 179 137
-1.962857e+000 1.661373e+000 -7.436608e+000 183 176 139
-6.735760e-002 7.565313e-001 -7.280862e+000 195 186 169
1.285611e+000 9.860586e-001 -8.114444e+000 82 78 74
4.500533e-001 1.995147e-001 -6.843718e+000 178 165 97
4.866720e-001 1.032637e-001 -6.748285e+000 128 92 53
4.860714e-001 1.026849e-001 -6.752094e+000 128 92 53
-1.070687e+000 -1.534695e-001 -5.642696e+000 90 87 49
1.150944e+000 -3.047366e-001 -7.055372e+000 88 90 67
1.603034e+000 -6.978965e-001 -7.626411e+000 114 104 95
-1.153198e+000 1.279886e+000 -7.250228e+000 131 69 69
1.427125e+000 1.446729e+000 -7.811913e+000 194 195 182
-1.524127e+000 1.171636e+000 -7.024841e+000 211 186 130
1.364371e+000 1.267706e+000 -7.945908e+000 185 186 178
2.772907e-001 1.209629e+000 -7.990377e+000 165 156 111
6.457052e-001 1.207277e+000 -8.132067e+000 111 105 97
-9.308982e-001 8.274349e-001 -6.793584e+000 200 190 186
9.914877e-001 7.256969e-001 -7.721774e+000 116 114 110
6.978676e-001 4.802718e-001 -7.294613e+000 171 170 118
1.313607e+000 4.047334e-001 -7.504561e+000 155 170 146
3.330836e-001 -4.505187e-001 -6.748453e+000 74 61 32
3.330836e-001 -4.505187e-001 -6.748453e+000 74 61 32
2.379916e-001 -7.983471e-001 -7.038819e+000 130 113 77
-1.030154e+000 1.977167e+000 -8.374931e+000 191 166 109
-1.153361e+000 1.240885e+000 -7.206678e+000 201 187 186
-9.836568e-001 6.311837e-001 -6.551179e+000 198 171 100
-2.507440e+001 -2.392009e+000 -4.355971e+001 206 56 104
-2.786293e-001 -5.961178e-001 -6.541165e+000 75 61 36
-7.946542e-002 -2.205560e-001 -6.306532e+000 113 100 55
-7.806379e-001 -1.324609e+000 -7.016280e+000 75 63 47
-2.375553e+001 5.552205e-001 -4.751347e+001 251 55 96
-2.233785e+001 2.364827e-001 -4.765215e+001 236 43 83
-1.411916e+000 -5.715122e-001 -6.204869e+000 168 133 103
-3.113236e-001 -5.339053e-001 -6.448451e+000 123 105 66
-4.835610e-001 -8.404751e-001 -6.629818e+000 74 65 54
4.907131e-001 2.095238e-001 -6.836425e+000 168 167 98
4.901080e-001 2.099038e-001 -6.835859e+000 168 167 98
-1.857769e+001 -1.303047e+000 -4.821264e+001 250 200 179
2.730368e-001 -3.963081e-001 -6.637891e+000 130 114 63
-1.095461e+000 9.095640e-001 -6.874732e+000 177 71 76
-1.975480e+001 -4.623497e+000 -4.063902e+001 167 24 54
-1.875799e+001 -3.393263e+000 -4.555378e+001 64 37 89
-3.178977e-001 2.684629e+000 -1.108510e+001 159 148 142
-2.215635e+000 1.878254e+000 -7.630964e+000 186 191 144
-1.886290e+000 1.650809e+000 -7.460113e+000 180 177 139
-1.108970e-001 1.934528e+000 -8.719318e+000 148 161 131
5.463546e-001 2.057372e+000 -9.221974e+000 115 114 100
-3.241457e-001 1.708387e+000 -8.311346e+000 143 87 68
-3.706054e-001 1.544269e+000 -8.125340e+000 193 158 116
-3.428757e-001 1.553932e+000 -8.131006e+000 159 116 74
-3.263393e-001 1.527332e+000 -8.111661e+000 193 168 119
4.677842e-001 1.675923e+000 -8.656274e+000 153 119 81
4.677842e-001 1.675923e+000 -8.656274e+000 153 119 81
-1.157193e+000 1.280688e+000 -7.250419e+000 128 63 64
2.736540e-002 1.438039e+000 -8.130086e+000 191 175 141
5.663935e-001 1.523547e+000 -8.521396e+000 188 177 136
-1.069032e+000 1.060631e+000 -7.025306e+000 200 193 192
-1.069032e+000 1.060631e+000 -7.025306e+000 200 193 192
-9.542727e-001 1.101931e+000 -7.115628e+000 152 61 65
7.071273e-001 1.199790e+000 -8.178406e+000 149 145 133
7.302690e-001 1.127856e+000 -8.108472e+000 96 90 90
8.989463e-001 1.145509e+000 -8.220487e+000 72 84 73
8.975842e-001 1.146401e+000 -8.200282e+000 72 84 73
1.325218e+000 1.106084e+000 -8.015525e+000 87 85 78
-5.925158e-001 9.916563e-001 -6.931409e+000 162 132 62
9.590109e-001 1.008469e+000 -8.071677e+000 114 111 106
-1.906294e-001 6.976428e-001 -7.191350e+000 185 178 162
-1.625017e-001 7.308620e-001 -7.233662e+000 169 152 134
-1.112915e-001 7.323238e-001 -7.230496e+000 191 185 165
-1.322246e-001 6.937853e-001 -7.183425e+000 176 174 150
-1.320631e-001 6.939338e-001 -7.184780e+000 176 174 150
9.655028e-001 7.099976e-001 -7.694176e+000 91 89 85
9.718970e-001 6.680719e-001 -7.649579e+000 132 136 122
-1.243543e-001 5.703260e-001 -7.040328e+000 193 176 157
-1.227106e-001 5.707125e-001 -7.039689e+000 193 176 157
-1.018552e-001 5.805161e-001 -7.065625e+000 82 73 60
-1.031659e-001 5.255982e-001 -7.001559e+000 200 179 159
-4.246015e-002 5.315437e-001 -7.022491e+000 197 185 153
-8.543649e-004 5.938682e-001 -7.111094e+000 76 74 54
1.012209e+000 5.680329e-001 -7.531904e+000 93 108 68
6.441701e-002 5.048773e-001 -7.038623e+000 194 177 141
5.013253e-001 4.574821e-001 -7.169828e+000 138 89 62
1.612159e-001 2.825980e-001 -6.807397e+000 70 73 47
3.722635e-001 3.212014e-001 -6.950544e+000 136 91 59
3.715055e-001 3.213057e-001 -6.948918e+000 136 91 59
5.230664e-001 3.832811e-001 -7.085324e+000 184 157 104
5.230664e-001 3.832811e-001 -7.085324e+000 184 157 104
4.262555e-001 2.156926e-001 -6.847946e+000 140 99 65
6.092395e-001 2.165749e-001 -6.892894e+000 168 166 109
4.419156e-001 1.461826e-001 -6.764902e+000 175 163 103
4.766410e-001 7.382187e-002 -6.699359e+000 169 156 91
4.766410e-001 7.382187e-002 -6.699359e+000 169 156 91
6.462805e-001 7.943894e-002 -6.799440e+000 158 153 87
6.450179e-001 7.941559e-002 -6.797422e+000 158 153 87
-3.554825e-001 -1.039168e-001 -6.042688e+000 141 131 74
1.146070e+000 -2.399300e-001 -7.010559e+000 61 62 44
7.537597e-001 -3.978689e-001 -6.918365e+000 108 104 69
2.175047e-001 -5.731448e-001 -6.783795e+000 77 65 33
1.610474e+000 -8.181921e-001 -7.326187e+000 138 132 121
2.590054e-001 -9.612055e-001 -7.214094e+000 88 74 48
-2.530638e-001 -9.830297e-001 -6.946409e+000 134 118 92
-9.668707e-002 -1.072382e+000 -7.144164e+000 96 82 56
-1.574734e+000 -1.388182e+000 -6.642973e+000 78 62 31
-1.939309e+000 1.746190e+000 -7.564938e+000 181 178 140
2.129846e-001 1.506302e+000 -8.332008e+000 93 98 77
6.248570e-001 1.544758e+000 -8.572270e+000 168 143 86
-1.041486e+000 1.245163e+000 -7.264591e+000 189 184 183
2.111518e-001 1.261839e+000 -8.017159e+000 192 182 152
5.406760e-001 1.348153e+000 -8.286625e+000 190 182 163
-9.934477e-001 9.992304e-001 -6.985989e+000 154 59 67
-9.964495e-001 9.975566e-001 -6.988938e+000 154 59 67
5.634070e-001 1.158483e+000 -8.046395e+000 146 133 99
-1.867604e+000 9.262111e-001 -6.963929e+000 202 163 135
1.301481e+000 1.097683e+000 -8.077464e+000 173 173 165
1.278644e+000 1.050054e+000 -8.099628e+000 165 167 158
-8.110491e-001 8.372600e-001 -6.864171e+000 200 188 188
-8.075437e-001 8.368657e-001 -6.873532e+000 200 188 188
2.625861e-001 7.603584e-001 -7.439321e+000 142 92 69
1.013000e+000 7.798683e-001 -7.814237e+000 97 96 91
-1.436087e+000 5.145061e-001 -6.284325e+000 211 206 144
3.772467e-001 6.424092e-001 -7.314008e+000 182 170 105
-1.397678e+000 4.321929e-001 -6.226633e+000 198 199 130
8.307871e-002 4.196590e-001 -6.942428e+000 67 69 52
7.250294e-002 3.946856e-001 -6.909351e+000 189 167 134
4.282013e-001 4.537392e-001 -7.124855e+000 147 92 76
4.890865e-001 4.112810e-001 -7.112994e+000 138 93 62
5.337192e-001 4.466366e-001 -7.169589e+000 175 164 92
5.413452e-002 3.737031e-001 -6.888245e+000 74 73 51
1.062756e-001 2.769793e-001 -6.793459e+000 71 78 64
2.993628e-001 3.077987e-001 -6.912996e+000 145 88 63
1.097991e+000 3.937035e-001 -7.352556e+000 165 150 97
1.407247e+000 3.753156e-001 -7.516062e+000 132 146 119
1.441375e+000 3.109288e-001 -7.440436e+000 150 166 140
1.531249e-001 2.469426e-001 -6.773709e+000 180 162 117
1.452822e+000 2.462844e-001 -7.380230e+000 98 115 84
1.288242e-001 1.080733e-001 -6.597986e+000 180 162 101
1.523935e+000 1.143595e-001 -7.248555e+000 103 118 89
6.679081e-001 -1.742356e-001 -6.657602e+000 101 103 64
1.421534e+000 -1.458316e-001 -7.092391e+000 65 67 53
7.722509e-001 -2.597607e-001 -6.820722e+000 70 68 45
7.402961e-001 -3.635911e-001 -6.887015e+000 76 72 47
9.477905e-001 -2.764671e-001 -6.924744e+000 67 66 48
7.430318e-001 -5.305331e-001 -7.057784e+000 72 65 44
8.462764e-001 -4.103273e-001 -6.999889e+000 74 71 47
9.477821e-001 -4.609923e-001 -7.093155e+000 70 67 47
-1.034390e+000 -4.710773e-001 -5.973920e+000 72 63 59
-8.653098e-001 -4.191504e-001 -6.005780e+000 78 71 65
-7.701228e-001 -4.341105e-001 -6.073034e+000 75 69 64
-3.475010e-001 -5.181245e-001 -6.439488e+000 58 48 36
6.490609e-002 -4.996099e-001 -6.634925e+000 102 87 58
3.486048e-001 -5.621749e-001 -6.852753e+000 85 69 44
8.451470e-001 -6.666146e-001 -7.241492e+000 116 107 71
-1.371075e-001 -6.102591e-001 -6.638145e+000 98 82 56
-1.524411e-001 -6.508810e-001 -6.666020e+000 99 83 58
-1.177978e-001 -7.038317e-001 -6.743750e+000 95 79 53
-2.860323e-002 -7.680278e-001 -6.872891e+000 97 83 57
2.764159e-001 -7.660411e-001 -7.023891e+000 93 78 53
5.112828e-001 -8.312854e-001 -7.215512e+000 87 72 45
7.865167e-001 -7.488019e-001 -7.296673e+000 83 73 46
-7.704258e-001 -7.824002e-001 -6.400988e+000 74 68 61
-4.423177e-001 -8.983354e-001 -6.772061e+000 91 78 62
-3.763798e-001 -8.650921e-001 -6.750827e+000 91 75 60
-2.748670e-001 -7.933021e-001 -6.741743e+000 87 74 52
5.922634e-002 -8.627568e-001 -7.010451e+000 92 77 53
-1.085697e+000 -8.566479e-001 -6.316781e+000 76 66 64
-1.085697e+000 -8.566479e-001 -6.316781e+000 76 66 64
-3.399813e-001 -9.684637e-001 -6.889357e+000 92 77 58
-2.404905e-001 -1.023279e+000 -7.005120e+000 99 85 59
-1.737887e-001 -9.923601e-001 -7.010230e+000 103 86 67
-2.205160e-001 -1.253876e+000 -7.277663e+000 93 79 55
-5.977372e-001 -1.365195e+000 -7.183649e+000 124 109 84
-1.050623e+000 -1.479111e+000 -7.012789e+000 113 100 72
-9.931779e-001 -1.490825e+000 -7.096005e+000 112 98 72
-2.070916e+000 1.833517e+000 -7.630705e+000 172 170 132
-5.006153e-001 1.997043e+000 -8.638763e+000 90 92 76
-1.990870e+000 1.647023e+000 -7.413668e+000 145 144 110
-1.874976e+000 1.674016e+000 -7.388528e+000 178 171 132
-2.476148e-001 1.906487e+000 -8.629470e+000 129 87 83
-2.032644e-001 1.784399e+000 -8.494168e+000 169 127 104
-1.605114e-001 1.563113e+000 -8.212188e+000 183 157 118
-1.771671e+000 9.148327e-001 -6.829749e+000 229 208 135
8.069889e-001 1.005469e+000 -7.957127e+000 105 102 99
9.288696e-001 1.064599e+000 -8.122762e+000 139 142 131
-1.851167e-001 7.478362e-001 -7.240919e+000 75 82 71
-1.876218e-001 7.473032e-001 -7.240809e+000 75 82 71
-1.428381e-001 6.567155e-001 -7.135442e+000 72 82 69
1.021561e-002 4.469417e-001 -6.937535e+000 194 178 146
-1.323185e+000 3.755600e-001 -6.129054e+000 162 158 91
5.455367e-001 3.022324e-001 -7.011266e+000 175 160 93
5.504083e-001 3.030372e-001 -6.995373e+000 175 160 93
8.901991e-001 3.347949e-001 -7.206233e+000 159 139 89
3.661184e-001 2.425940e-001 -6.852428e+000 186 167 108
3.640760e-001 2.414575e-001 -6.854319e+000 186 167 108
4.278105e-001 1.229691e-001 -6.743906e+000 144 99 68
2.510211e-001 -2.854379e-001 -6.551608e+000 117 104 60
6.784749e-001 -3.342880e-001 -6.812333e+000 118 111 69
2.243361e-001 -3.583455e-001 -6.601402e+000 121 107 63
-1.117711e+000 -6.021056e-001 -6.065400e+000 67 63 56
-1.117711e+000 -6.021056e-001 -6.065400e+000 67 63 56
-9.290734e-001 -5.817139e-001 -6.133814e+000 130 114 106
-8.755372e-001 -6.199494e-001 -6.196716e+000 132 115 105
-8.755372e-001 -6.199494e-001 -6.196716e+000 132 115 105
1.723850e-001 -7.920903e-001 -6.985929e+000 96 82 55
-9.367918e-001 -7.901612e-001 -6.304491e+000 73 68 62
1.816705e-001 -1.261325e+000 -7.521863e+000 106 91 60
-1.206247e+000 -1.409242e+000 -6.870568e+000 111 96 69
-1.048309e+000 -1.552747e+000 -7.135917e+000 81 65 42
-8.844339e-001 -1.445129e+000 -7.109087e+000 81 66 43
-6.456269e-001 1.986031e+000 -8.552830e+000 106 110 83
-2.060723e+000 1.759385e+000 -7.541024e+000 137 143 107
-2.025626e+000 1.698096e+000 -7.471224e+000 121 123 90
-1.684843e+000 1.805126e+000 -7.750567e+000 81 115 83
-5.308447e-001 1.890373e+000 -8.468026e+000 130 93 77
-9.751642e-002 1.955276e+000 -8.787774e+000 139 145 113
-9.631010e-002 1.952182e+000 -8.755092e+000 139 145 113
8.188515e-001 1.284344e+000 -8.320383e+000 171 147 95
-9.267855e-001 1.049898e+000 -7.054368e+000 206 186 192
-6.864674e-001 1.077561e+000 -7.509504e+000 176 150 76
-1.874174e-001 7.464426e-001 -7.241587e+000 75 82 71
-5.387325e-001 6.051870e-001 -6.708673e+000 201 184 160
-1.450655e-001 5.891773e-001 -7.070956e+000 197 184 174
1.436972e-001 1.457695e-001 -6.651672e+000 66 81 56
6.038041e-001 6.508954e-002 -6.756166e+000 140 92 62
6.039653e-001 6.507502e-002 -6.756091e+000 140 92 62
-8.585094e-001 -1.543426e+000 -7.244132e+000 91 76 52
-2.754072e-001 1.582589e+000 -8.160989e+000 186 152 103
-9.757290e-001 1.371844e+000 -7.458386e+000 200 175 118
-1.321240e+000 7.996620e-001 -6.648488e+000 204 186 154
-1.321240e+000 7.996620e-001 -6.648488e+000 204 186 154
-1.310123e+000 7.397421e-001 -6.582800e+000 199 172 95
-5.613393e-001 5.528397e-001 -6.675344e+000 143 112 69
-9.043148e-002 5.499549e-001 -7.028075e+000 54 76 58
-2.560850e-001 -1.044836e-001 -6.142544e+000 111 99 47
-1.422085e-001 -4.168595e-001 -6.433559e+000 131 113 68
-8.770242e-001 -7.899184e-001 -6.337122e+000 74 68 60
-8.770242e-001 -7.899184e-001 -6.337122e+000 74 68 60
-9.275383e-001 1.954554e+000 -8.403121e+000 195 167 113
-1.551344e-001 1.706052e+000 -8.305556e+000 171 139 101
6.532389e-001 5.807914e-001 -7.384437e+000 180 178 152
7.474082e-001 5.251030e-001 -7.361993e+000 136 142 85
9.010382e-001 5.481397e-001 -7.463973e+000 81 90 61
3.260316e-001 3.323884e-001 -6.947989e+000 172 137 99
5.481374e-001 1.309251e+000 -8.243111e+000 188 178 167
4.239019e-001 3.260254e-001 -7.021157e+000 180 163 99
3.583563e-001 -4.406889e-001 -6.805919e+000 120 105 72
1.229102e+000 -1.569793e+000 -8.388226e+000 198 163 149
-1.176607e+000 1.481366e+000 -7.469876e+000 197 190 178
-5.192154e-001 5.297517e-001 -6.688290e+000 148 122 92
1.242535e-001 2.449157e-001 -6.744229e+000 65 80 59
-3.342205e-001 -5.389341e-002 -6.027651e+000 152 146 76
8.406101e-001 8.601642e-001 -7.806433e+000 85 81 79
-1.165973e+000 -1.546838e-001 -5.794377e+000 188 178 125
-4.236977e-002 1.551160e+000 -8.151304e+000 191 168 127
-9.946512e-001 1.016096e+000 -7.005596e+000 202 184 184
-9.946512e-001 1.016096e+000 -7.005596e+000 202 184 184
9.873544e-001 1.178632e+000 -8.235135e+000 86 103 79
-1.222568e+000 1.852217e+000 -8.126532e+000 170 154 94
3.868972e-001 1.613622e+000 -8.555762e+000 181 157 109
1.215619e-001 6.457406e-001 -7.196274e+000 192 178 148
1.086557e+000 1.788378e-001 -7.085861e+000 176 170 145
-4.063828e-001 1.861694e+000 -8.610275e+000 126 86 79
1.515818e+000 8.591127e-001 -7.932978e+000 190 197 190
-1.135635e+000 6.426849e-001 -6.435547e+000 194 184 144
-2.737258e-001 3.766893e-001 -7.156622e+000 194 185 170
-1.199064e+000 2.024795e-001 -6.196238e+000 141 147 75
1.063237e+000 8.107034e-001 -7.932526e+000 72 80 69
-1.018749e+000 9.844031e-001 -6.950729e+000 163 64 72
1.311069e+000 1.053730e+000 -8.074083e+000 87 89 82
1.279971e+000 9.094948e-001 -8.151469e+000 163 165 158
-2.045184e+001 7.547935e-001 -5.105363e+001 206 73 101
-2.223232e+001 -3.918027e+000 -4.120801e+001 175 165 224
-2.152976e+000 1.786581e+000 -7.583518e+000 168 169 127
5.195938e-001 2.083215e+000 -9.217647e+000 213 208 196
-1.477688e+000 1.610812e+000 -7.557005e+000 173 129 104
5.757412e-001 1.456325e+000 -8.450444e+000 195 179 136
-6.228769e-001 9.956190e-001 -7.011582e+000 196 172 115
5.497630e-001 1.066377e+000 -7.923301e+000 103 96 88
-4.595223e-002 6.988966e-001 -7.222027e+000 193 187 165
-1.017882e-001 5.805075e-001 -7.065588e+000 82 73 60
2.768747e-001 4.982991e-001 -7.120697e+000 131 94 58
1.466849e+000 1.878464e-001 -7.301399e+000 102 116 90
1.466849e+000 1.878464e-001 -7.301399e+000 102 116 90
4.592047e-001 1.072641e-001 -6.735467e+000 174 168 99
6.175640e-001 1.336052e-001 -6.846804e+000 171 160 100
1.548449e+000 7.676094e-002 -7.212656e+000 110 122 95
-1.036630e+000 1.245238e+000 -7.267138e+000 189 184 183
9.002451e-001 1.210529e+000 -8.292919e+000 71 83 69
-7.363155e-001 7.228586e-001 -6.744325e+000 194 188 186
-7.363155e-001 7.228586e-001 -6.744325e+000 194 188 186
2.898479e-001 7.127967e-001 -7.387059e+000 142 94 71
-2.476435e+001 -2.926019e+000 -4.440344e+001 77 60 128
1.185469e-001 3.975152e-001 -6.936354e+000 193 175 137
1.037080e+000 4.317468e-001 -7.394439e+000 172 148 97
1.207519e+000 3.656167e-001 -7.389689e+000 111 121 77
1.123289e+000 2.446079e-001 -7.215956e+000 165 150 92
-3.311470e-001 7.318618e-002 -6.237417e+000 141 119 64
2.011153e+000 -1.479017e+000 -6.928476e+000 96 85 79
-2.720279e-001 2.007235e+000 -8.785868e+000 128 140 103
-1.501552e+000 1.106000e+000 -6.829021e+000 204 187 140
-1.501552e+000 1.106000e+000 -6.829021e+000 204 187 140
7.273287e-001 7.179362e-001 -7.584658e+000 144 149 84
1.140113e+000 3.234821e-001 -7.327006e+000 165 144 91
-2.050233e+000 1.866918e+000 -7.672248e+000 143 145 106
1.240812e+000 9.850095e-001 -8.148624e+000 157 160 153
-2.422028e+001 -3.477972e+000 -4.325100e+001 174 165 218
-2.373376e+001 -3.600092e+000 -4.294615e+001 79 64 129
2.998797e-001 3.790083e-001 -6.985671e+000 185 163 108
-1.922351e+001 -8.663004e+000 -3.676990e+001 216 65 97
-1.648645e+001 -1.152509e+001 -3.603020e+001 63 63 131
-1.019664e+000 1.970900e+000 -8.400485e+000 196 169 106
-1.845555e+001 -2.953821e+000 -4.600174e+001 229 42 77
-1.780110e+001 -1.131792e+001 -3.536765e+001 188 34 71
-1.651253e+001 -1.128959e+001 -3.642811e+001 125 167 227
-1.379119e+001 -1.177087e+001 -3.470044e+001 187 30 61
-1.311132e+001 -1.361237e+001 -3.485191e+001 203 34 65
-1.328798e+001 -1.382995e+001 -3.417715e+001 213 30 57
7.617868e-001 7.651881e-001 -7.648776e+000 160 161 129
3.415203e-001 4.825315e-001 -7.095821e+000 183 164 108
3.421478e-001 4.811848e-001 -7.096264e+000 183 164 108
3.013021e-001 1.623034e-001 -6.707025e+000 179 165 104
-1.617395e+001 -1.148656e+001 -3.432475e+001 63 44 102
-1.628043e+001 -1.195815e+001 -3.360206e+001 188 11 47
-1.853871e+001 -1.773417e+000 -4.510808e+001 255 206 112
-1.792334e+001 -1.220112e+001 -3.222385e+001 203 29 65
-1.158253e+000 1.922857e+000 -8.279496e+000 163 157 91
6.732750e-002 3.535463e-001 -6.858017e+000 71 82 65
-1.754209e+001 -1.074643e+001 -3.604721e+001 122 22 47
-1.852945e+001 -1.184225e+001 -3.345650e+001 235 49 93
-1.974429e+001 -9.046007e+000 -3.607994e+001 254 248 255
-1.677679e+001 -1.117984e+001 -3.540310e+001 143 195 247
-1.394169e+001 -1.108856e+001 -3.592284e+001 229 37 76
-1.394169e+001 -1.108856e+001 -3.592284e+001 229 37 76
-1.864574e+001 -1.208640e+001 -3.404898e+001 237 44 88
-2.301947e+001 -3.621877e+000 -4.025245e+001 180 160 216
-2.301947e+001 -3.621877e+000 -4.025245e+001 180 160 216
-2.235705e+001 -5.408023e+000 -4.049658e+001 59 39 67
-1.581265e+001 -1.313790e+001 -3.543984e+001 38 21 37
-2.248956e+000 1.986913e+000 -7.740097e+000 136 142 91
-1.845609e+000 1.837510e+000 -7.718734e+000 85 102 64
-1.559175e+000 1.764034e+000 -7.672115e+000 200 182 136
-2.150638e-001 1.935311e+000 -8.691497e+000 131 147 113
-1.993433e+000 1.539936e+000 -7.280335e+000 180 160 106
-3.240250e-001 1.712790e+000 -8.291432e+000 135 80 60
-4.249499e-001 1.649267e+000 -8.206109e+000 185 146 107
-4.245076e-001 1.648327e+000 -8.229560e+000 185 146 107
-2.397628e-001 1.646838e+000 -8.298711e+000 169 124 88
1.006861e-001 1.599526e+000 -8.387758e+000 156 112 72
1.889613e-001 1.629726e+000 -8.534724e+000 137 101 77
-2.055182e+000 1.386943e+000 -7.293559e+000 244 203 148
2.839763e-001 1.237148e+000 -8.024680e+000 180 170 136
2.839763e-001 1.237148e+000 -8.024680e+000 180 170 136
5.702193e-001 1.219032e+000 -8.135208e+000 95 86 82
8.286575e-001 1.316129e+000 -8.397233e+000 163 144 100
8.286575e-001 1.316129e+000 -8.397233e+000 163 144 100
1.407074e+000 1.323517e+000 -7.851400e+000 67 67 59
-9.591413e-001 1.060359e+000 -7.073599e+000 121 58 55
-9.570066e-001 1.059697e+000 -7.080161e+000 121 58 55
2.598658e-001 1.168065e+000 -7.899362e+000 185 176 148
6.435666e-001 1.065744e+000 -7.973999e+000 81 76 72
6.419431e-001 1.066942e+000 -7.969910e+000 81 76 72
6.943031e-001 1.176367e+000 -8.137104e+000 103 101 88
7.190055e-001 1.150685e+000 -8.124145e+000 152 146 136
8.381732e-001 1.155036e+000 -8.191228e+000 110 111 110
7.182442e-001 9.935509e-001 -7.927805e+000 122 112 95
-1.397283e-001 7.822333e-001 -7.292990e+000 193 185 174
7.015858e-001 8.580300e-001 -7.755825e+000 152 152 125
-1.621039e-001 7.331826e-001 -7.218442e+000 160 146 123
-4.904223e-002 6.986383e-001 -7.218870e+000 187 176 156
3.624701e-001 7.188153e-001 -7.413966e+000 130 88 58
3.643257e-001 7.178922e-001 -7.420891e+000 130 88 58
-7.282101e-002 5.280447e-001 -7.008412e+000 69 69 48
4.018568e-001 4.879469e-001 -7.167374e+000 136 93 62
4.018741e-001 4.884856e-001 -7.169465e+000 136 93 62
5.009268e-001 4.581368e-001 -7.168045e+000 136 92 57
6.509883e-001 5.185121e-001 -7.306537e+000 128 132 81
1.952581e-004 3.810559e-001 -6.866759e+000 176 156 123
4.755030e-001 3.397787e-001 -7.023470e+000 176 152 96
5.577531e-001 3.338557e-001 -7.046130e+000 129 88 58
5.571459e-001 3.339258e-001 -7.044604e+000 129 88 58
8.544306e-002 1.815095e-001 -6.654602e+000 170 155 96
1.455992e+000 2.213150e-001 -7.340255e+000 93 108 82
1.490520e+000 1.966761e-001 -7.335539e+000 161 172 148
6.136744e-001 8.646673e-002 -6.784767e+000 135 87 62
2.016131e+000 -1.487934e+000 -6.885118e+000 123 114 105
-2.571083e-001 2.018823e+000 -8.797593e+000 120 130 96
-1.938826e+000 1.747410e+000 -7.562578e+000 176 172 133
-1.697652e+000 1.708734e+000 -7.597174e+000 83 110 82
-6.212276e-002 1.927893e+000 -8.711681e+000 131 138 105
5.575112e-001 1.495594e+000 -8.502152e+000 78 75 63
-1.771507e+000 1.156457e+000 -6.909299e+000 190 172 135
1.402273e+000 1.405756e+000 -7.770334e+000 182 183 175
-1.032521e+000 1.004776e+000 -6.972795e+000 190 179 176
5.193177e-001 1.083410e+000 -7.927921e+000 152 151 125
1.338745e+000 1.201934e+000 -7.986167e+000 182 183 177
-1.771040e+000 8.476389e-001 -6.905606e+000 217 200 129
7.996989e-001 9.461931e-001 -7.905352e+000 98 94 93
8.002060e-001 8.914321e-001 -7.839783e+000 77 76 72
-1.560318e+000 7.242927e-001 -6.502863e+000 222 216 193
-1.575210e+000 6.386705e-001 -6.541100e+000 183 180 103
-4.907003e-002 6.721365e-001 -7.195147e+000 71 72 55
2.625757e-001 7.622737e-001 -7.425220e+000 138 91 65
9.522289e-001 7.506137e-001 -7.717661e+000 86 83 80
3.646568e-001 5.683824e-001 -7.252098e+000 138 89 64
2.082800e-001 4.828361e-001 -7.090612e+000 141 87 66
-3.615052e-002 4.173065e-001 -6.907019e+000 182 168 138
9.938565e-002 3.468839e-001 -6.868940e+000 186 170 132
9.938565e-002 3.468839e-001 -6.868940e+000 186 170 132
5.450831e-001 3.666154e-001 -7.075878e+000 139 89 61
1.407064e+000 3.758783e-001 -7.512221e+000 127 141 118
6.932380e-002 2.947560e-001 -6.797390e+000 173 156 114
6.932380e-002 2.947560e-001 -6.797390e+000 173 156 114
6.099872e-001 2.425335e-001 -6.978882e+000 131 93 66
6.099872e-001 2.425335e-001 -6.978882e+000 131 93 66
1.406522e+000 3.146455e-001 -7.433906e+000 102 116 87
1.083104e-001 1.487491e-001 -6.655486e+000 177 161 106
5.450812e-001 2.326543e-001 -6.940286e+000 136 91 68
6.044437e-001 1.709589e-001 -6.888619e+000 162 157 100
1.501227e+000 5.753440e-002 -7.185785e+000 173 180 166
-5.546812e-001 -1.309895e-001 -5.924946e+000 93 83 47
4.583603e-001 -2.061199e-001 -6.573100e+000 92 88 56
-1.399203e+000 -6.578246e-001 -6.200339e+000 105 85 68
-8.937975e-001 -5.915031e-001 -6.155675e+000 79 70 63
1.753828e+000 2.411130e+000 -6.976213e+000 194 187 181
1.784739e+000 2.417361e+000 -6.969849e+000 96 88 80
-1.978298e+000 1.748186e+000 -7.545801e+000 121 125 88
-3.261502e-002 1.955463e+000 -8.817765e+000 82 81 74
-2.279064e-001 1.831748e+000 -8.543481e+000 147 106 88
2.475261e-001 1.533337e+000 -8.367550e+000 183 181 168
8.138898e-001 1.455550e+000 -8.551228e+000 69 82 64
5.629969e-001 1.284847e+000 -8.185740e+000 175 170 158
8.774700e-001 9.371617e-001 -7.936989e+000 95 91 90
6.789186e-001 9.149274e-001 -7.799683e+000 88 84 79
4.307251e-001 4.530220e-001 -7.133539e+000 135 84 57
9.673646e-001 5.398112e-001 -7.478960e+000 165 167 143
1.170314e+000 3.862481e-001 -7.402167e+000 102 113 71
1.264918e-001 2.972244e-001 -6.812163e+000 178 157 115
7.464776e-002 2.643783e-001 -6.779511e+000 60 75 65
3.560358e-001 2.104066e-001 -6.821030e+000 140 87 65
1.508826e+000 1.175806e-001 -7.240140e+000 98 113 79
-1.691858e+000 -2.478516e-001 -6.651563e+000 209 177 148
3.610011e-001 3.373956e-002 -6.602076e+000 167 158 91
-1.618693e+001 -1.125899e+001 -3.366975e+001 202 48 95
8.559281e-002 -4.198570e-001 -6.569916e+000 94 80 54
-6.824419e-001 -4.870331e-001 -6.151139e+000 74 66 62
-1.893356e+000 1.805237e+000 -7.670204e+000 177 166 126
-4.686796e-001 1.921454e+000 -8.528977e+000 133 138 105
-3.489199e-001 1.945788e+000 -8.631835e+000 121 132 92
3.093239e-001 1.860187e+000 -8.786992e+000 128 81 63
1.252654e-001 1.666338e+000 -8.476978e+000 182 146 98
-1.348111e+000 1.371813e+000 -7.329275e+000 124 63 61
-1.346980e+000 1.371420e+000 -7.336500e+000 124 63 61
-1.150724e+000 1.239532e+000 -7.220446e+000 196 182 185
4.488969e-001 1.202567e+000 -8.059433e+000 152 152 128
-2.311908e+001 -3.980164e+000 -4.138595e+001 120 110 171
-9.554181e-001 8.867916e-001 -6.866946e+000 198 180 185
1.239046e+000 8.785410e-001 -8.201506e+000 63 66 59
-1.656886e+000 6.602410e-001 -6.656672e+000 228 201 125
-6.379999e-001 6.554047e-001 -6.723402e+000 145 55 58
-6.379999e-001 6.554047e-001 -6.723402e+000 145 55 58
-5.386805e-001 6.032165e-001 -6.713569e+000 190 180 155
-5.159238e-002 5.832352e-001 -7.083971e+000 186 175 155
-5.140809e-002 5.833090e-001 -7.084054e+000 186 175 155
3.265130e-003 5.671075e-001 -7.080847e+000 68 82 71
4.110347e-001 5.530824e-001 -7.243199e+000 179 154 98
4.116761e-001 5.538271e-001 -7.240754e+000 179 154 98
4.472116e-001 4.887469e-001 -7.182161e+000 179 154 94
9.700922e-001 5.359079e-001 -7.496091e+000 165 167 143
3.009728e-001 3.773836e-001 -6.988500e+000 181 157 111
5.660150e-001 1.460957e-001 -6.833599e+000 135 87 62
5.648407e-001 1.457816e-001 -6.833976e+000 135 87 62
2.230144e-001 7.395483e-002 -6.596509e+000 177 158 97
2.669715e-001 4.663227e-002 -6.586393e+000 63 82 65
5.053031e-001 1.390495e-001 -6.771424e+000 161 155 85
-1.460588e+000 -6.032716e-001 -6.240709e+000 172 157 91
-8.892319e-001 -6.819771e-001 -6.236673e+000 76 72 63
-2.475511e+001 -4.149179e+000 -4.222198e+001 255 198 238
-1.566303e+001 -6.171790e+000 -4.241818e+001 162 54 69
-1.408212e+000 5.359139e-001 -6.291250e+000 173 163 111
-7.838924e-003 5.158681e-001 -7.021449e+000 185 171 145
-7.022676e-003 5.162148e-001 -7.021769e+000 185 171 145
4.458554e-001 8.489999e-002 -6.713808e+000 164 158 85
-1.821939e+001 -1.390382e+001 -3.092832e+001 64 52 115
-2.110181e+000 1.870445e+000 -7.656152e+000 167 163 125
-1.712162e+000 1.873831e+000 -7.826982e+000 178 162 117
-2.320605e+001 -4.302325e+000 -4.069437e+001 212 203 246
-1.485770e+000 9.358145e-001 -6.618100e+000 194 167 90
8.065122e-001 1.041074e+000 -8.028646e+000 98 95 92
3.847183e-001 5.981010e-001 -7.285350e+000 181 150 104
5.537116e-001 9.234792e-002 -6.792690e+000 164 152 93
5.537116e-001 9.234792e-002 -6.792690e+000 164 152 93
-1.466576e+001 -1.368799e+001 -3.176087e+001 220 177 113
-1.237399e+001 -1.465661e+001 -3.111747e+001 199 30 59
-1.224674e+001 -1.525394e+001 -3.079602e+001 182 32 61
-1.578130e+000 1.658709e+000 -7.573608e+000 192 175 145
-1.069055e+000 1.373258e+000 -7.419091e+000 122 61 55
8.213215e-001 1.152349e+000 -8.155654e+000 111 107 102
1.198522e+000 1.059546e+000 -8.010415e+000 158 161 155
-1.519769e+001 -1.078675e+001 -3.758836e+001 56 38 78
-1.490402e+001 -1.335704e+001 -3.172115e+001 64 47 90
-1.274670e+001 -1.393935e+001 -3.365923e+001 236 165 101
-1.284471e+001 -1.430726e+001 -3.314905e+001 214 36 64
-1.189502e+001 -1.417775e+001 -3.201597e+001 207 36 63
-1.261990e+001 -1.501399e+001 -3.087002e+001 44 28 68
2.789118e-001 5.686282e-001 -7.210009e+000 179 162 111
-1.855320e+001 -1.194903e+001 -3.230940e+001 56 37 92
-1.299069e+001 -1.420176e+001 -3.220299e+001 229 170 87
-1.459040e+001 -1.520342e+001 -3.044882e+001 39 22 61
2.304218e-001 1.975855e+000 -8.975435e+000 120 81 72
-1.470474e+001 -1.365002e+001 -3.419850e+001 47 30 49
-1.467901e+001 -1.384266e+001 -3.283621e+001 240 192 117
-1.467901e+001 -1.384266e+001 -3.283621e+001 240 192 117
-1.343692e+001 -1.370681e+001 -3.121404e+001 47 32 67
-6.788705e-001 5.430708e-001 -6.611363e+000 191 180 175
2.232913e-001 8.409468e-002 -6.626446e+000 171 151 100
-2.986328e-001 6.077224e-001 -7.005848e+000 192 182 180
-2.986328e-001 6.077224e-001 -7.005848e+000 192 182 180
-1.731843e+001 -1.384678e+001 -3.122185e+001 228 41 81
-1.612832e+001 -1.382432e+001 -3.184910e+001 223 34 74
-1.196635e+001 -1.522349e+001 -3.132786e+001 202 36 68
-1.205982e+001 -1.536868e+001 -3.157636e+001 202 36 68
-1.359950e+001 -1.396973e+001 -3.344925e+001 240 179 89
-1.359950e+001 -1.396973e+001 -3.344925e+001 240 179 89
-1.009987e+000 9.974500e-001 -7.170365e+000 192 181 181
-2.199005e+000 1.906428e+000 -7.656266e+000 144 144 87
-4.312839e-001 1.904552e+000 -8.522798e+000 139 148 124
-1.956502e+000 1.772845e+000 -7.592400e+000 171 169 133
-1.957823e+000 1.772523e+000 -7.598423e+000 171 169 133
-1.631910e+000 1.746412e+000 -7.689128e+000 77 100 71
4.590534e-001 1.847299e+000 -8.869896e+000 166 118 90
-2.025348e+000 1.644304e+000 -7.428484e+000 168 167 129
-1.978292e+000 1.619987e+000 -7.397732e+000 181 171 128
1.352447e-001 1.523480e+000 -8.234063e+000 184 155 115
8.718683e-001 1.056436e+000 -8.089533e+000 139 138 131
9.137824e-001 9.779507e-001 -7.925798e+000 138 137 133
3.275704e-001 7.761146e-001 -7.465759e+000 130 90 58
-1.670157e+000 4.904550e-001 -6.684295e+000 205 170 114
-1.139573e-001 6.452997e-001 -7.141869e+000 170 160 137
2.611557e-002 5.927753e-001 -7.127008e+000 189 175 149
-5.338964e-001 5.738644e-001 -6.696936e+000 134 114 88
-7.277155e-002 5.283680e-001 -7.008116e+000 81 69 54
6.369358e-001 5.349072e-001 -7.327736e+000 162 159 114
-2.113850e+000 -1.389732e-001 -7.495184e+000 217 162 174
2.526465e-001 4.233807e-001 -7.017437e+000 179 156 114
4.741176e-001 3.910816e-001 -7.091668e+000 168 147 92
4.741176e-001 3.910816e-001 -7.091668e+000 168 147 92
1.534222e-001 3.544626e-001 -6.897315e+000 180 163 119
8.122999e-001 3.524134e-001 -7.180880e+000 146 143 82
-1.746448e+000 -9.709104e-002 -6.778306e+000 131 93 80
-1.751105e+000 -1.061224e-001 -6.797259e+000 131 93 80
6.168006e-001 2.481344e-001 -6.988884e+000 138 94 71
6.121982e-001 2.586541e-001 -6.962159e+000 138 94 71
3.978344e-001 1.772922e-001 -6.808375e+000 132 88 52
3.910871e-001 1.639696e-001 -6.771840e+000 177 150 101
3.910871e-001 1.639696e-001 -6.771840e+000 177 150 101
1.485802e+000 1.533361e-001 -7.286769e+000 98 118 83
1.517595e+000 3.101212e-002 -7.155677e+000 157 170 146
-1.617458e+000 -3.304022e-001 -6.572975e+000 131 103 63
-1.617458e+000 -3.304022e-001 -6.572975e+000 131 103 63
-1.591162e+000 -3.768631e-001 -6.521805e+000 114 89 57
-1.544235e+000 -4.582239e-001 -6.440732e+000 106 94 56
1.926040e+000 2.963092e+000 -6.453968e+000 190 183 176
-3.409892e-002 1.943492e+000 -8.670373e+000 73 70 63
-1.700890e+000 1.676031e+000 -7.540277e+000 80 108 77
-3.546919e-001 1.715517e+000 -8.239295e+000 164 115 87
-3.430066e-001 1.556640e+000 -8.117409e+000 155 107 67
-2.021365e+000 1.268871e+000 -7.232161e+000 224 188 179
2.892390e-002 1.438913e+000 -8.148342e+000 186 173 141
-2.003347e+000 1.094579e+000 -7.177191e+000 218 180 177
-2.007518e+000 1.089226e+000 -7.197964e+000 218 180 177
8.010109e-001 1.241056e+000 -8.296839e+000 73 78 68
7.119460e-001 1.232911e+000 -8.208352e+000 105 100 97
-1.066783e+000 1.060214e+000 -7.028482e+000 189 186 185
-1.732271e+000 8.916946e-001 -6.741624e+000 217 198 134
7.954584e-001 8.940996e-001 -7.834797e+000 75 71 68
9.896574e-001 9.381546e-001 -7.968142e+000 97 96 92
-8.034393e-001 7.471310e-001 -6.797911e+000 135 46 54
-8.034393e-001 7.471310e-001 -6.797911e+000 135 46 54
3.194078e-001 6.740333e-001 -7.337081e+000 134 90 62
-1.496368e+000 5.786913e-001 -6.329112e+000 178 180 110
-9.298556e-001 6.169880e-001 -6.599516e+000 161 53 57
-2.178932e+000 -7.648868e-002 -7.585992e+000 184 92 105
-2.110871e+000 -1.006855e-001 -7.516621e+000 179 74 87
-1.440748e+000 4.319939e-001 -6.270048e+000 175 177 104
4.923454e-001 4.358735e-001 -7.138922e+000 169 152 92
-1.339182e+000 3.275653e-001 -6.120764e+000 181 188 120
3.681988e-001 3.213857e-001 -6.948813e+000 139 93 63
1.241485e+000 3.332763e-001 -7.314422e+000 68 76 61
4.231833e-001 2.090612e-001 -6.864325e+000 143 92 64
-1.712794e+000 -1.889136e-001 -6.735321e+000 169 136 110
1.470680e+000 1.330805e-001 -7.248301e+000 172 180 170
3.925405e-001 5.043594e-002 -6.643740e+000 137 89 66
3.925405e-001 5.043594e-002 -6.643740e+000 137 89 66
-1.561873e+000 -3.757282e-001 -6.502901e+000 188 165 98
-3.023287e-001 -5.746968e-002 -6.344097e+000 123 107 58
-3.023287e-001 -5.746968e-002 -6.344097e+000 123 107 58
-8.385261e-001 1.936310e+000 -8.378161e+000 194 175 141
4.154058e-001 1.942783e+000 -8.969199e+000 78 89 83
4.377812e-001 1.591041e+000 -8.448585e+000 171 145 96
-5.518751e-002 1.434692e+000 -8.102917e+000 183 173 149
6.990680e-001 1.143655e+000 -8.116580e+000 153 142 120
-1.083905e+000 1.017267e+000 -6.999540e+000 194 181 180
3.017891e-001 7.467488e-001 -7.418343e+000 182 162 101
2.343136e-001 4.350274e-001 -7.038601e+000 136 88 66
4.305540e-001 4.546891e-001 -7.130308e+000 139 88 69
6.342956e-001 1.047665e-001 -6.823143e+000 138 91 73
1.507433e+000 1.204523e-001 -7.236253e+000 92 107 75
3.961531e-001 3.828010e-002 -6.667731e+000 138 89 67
-1.588266e+000 -3.372976e-001 -6.551399e+000 200 173 101
-1.461363e+000 -5.508333e-001 -6.347517e+000 160 159 94
-1.461363e+000 -5.508333e-001 -6.347517e+000 160 159 94
-1.977541e+000 1.836875e+000 -7.653877e+000 179 170 127
-1.742756e+000 1.713466e+000 -7.629270e+000 181 169 131
-1.562220e-001 1.633333e+000 -8.301494e+000 178 150 105
-1.136334e+000 1.279129e+000 -7.263855e+000 122 56 57
-1.136334e+000 1.279129e+000 -7.263855e+000 122 56 57
-8.735779e-001 1.286993e+000 -7.468740e+000 165 142 103
-1.074227e-001 7.686705e-001 -7.272278e+000 73 74 62
-1.064749e-001 7.688268e-001 -7.273328e+000 73 74 62
-2.274885e+000 2.006076e-001 -7.756812e+000 130 62 53
3.613642e-001 6.482477e-001 -7.329583e+000 180 154 105
3.616626e-001 6.473701e-001 -7.332196e+000 180 154 105
5.424078e-001 3.059426e-001 -7.009623e+000 168 150 92
-1.375207e-002 2.079934e+000 -8.936241e+000 224 214 207
3.193896e-002 1.949011e+000 -8.767533e+000 152 124 104
-2.684370e-001 1.597827e+000 -8.216927e+000 183 149 97
-1.326396e+000 1.370069e+000 -7.304143e+000 126 59 58
-1.326396e+000 1.370069e+000 -7.304143e+000 126 59 58
-1.191985e+000 1.298697e+000 -7.286192e+000 191 183 181
-1.018583e+000 1.064148e+000 -7.060532e+000 147 64 67
-9.933437e-001 1.064379e+000 -7.079380e+000 150 64 66
-9.933437e-001 1.064379e+000 -7.079380e+000 150 64 66
-1.488863e+000 1.027682e+000 -6.756225e+000 198 181 149
-1.488863e+000 1.027682e+000 -6.756225e+000 198 181 149
-1.464039e+000 9.041976e-001 -6.793892e+000 199 182 148
-1.464039e+000 9.041976e-001 -6.793892e+000 199 182 148
1.172306e+000 9.680528e-001 -8.211056e+000 88 91 82
1.632031e-001 1.859781e-001 -6.694667e+000 177 160 104
1.627971e-001 1.848210e-001 -6.695306e+000 177 160 104
-6.398139e-001 1.981900e+000 -8.571687e+000 94 101 73
-1.064157e+000 6.417180e-001 -6.533413e+000 193 167 93
-5.184084e-001 6.153932e-001 -6.855776e+000 146 115 67
-5.188006e-001 6.155149e-001 -6.855378e+000 146 115 67
-1.957177e+000 1.867596e+000 -7.696228e+000 173 165 120
-8.641732e-001 1.223146e+000 -7.362564e+000 192 168 110
-8.514136e-001 7.777146e-001 -6.774972e+000 158 57 65
-8.514136e-001 7.777146e-001 -6.774972e+000 158 57 65
-5.750412e-001 6.191833e-001 -6.702569e+000 195 170 115
-5.721074e-001 6.186737e-001 -6.705946e+000 195 170 115
3.822507e-001 4.123106e-001 -7.080959e+000 175 156 98
1.057376e+000 4.833721e-001 -7.417793e+000 99 111 71
1.385414e+000 3.476028e-001 -7.470523e+000 104 116 94
7.202162e-001 1.360515e+000 -8.375036e+000 77 88 71
-9.505971e-001 1.237453e+000 -7.237914e+000 133 57 59
-1.755682e+000 6.022646e-002 -6.686786e+000 224 193 181
-1.230159e+000 1.176762e+000 -7.175189e+000 145 53 55
-1.098230e+000 1.220462e+000 -7.217481e+000 163 127 129
-8.785937e-001 1.095666e+000 -7.255525e+000 147 58 58
-2.388186e-001 2.133801e+000 -8.967186e+000 241 219 208
-1.225605e+000 1.845973e+000 -8.174973e+000 166 152 91
5.208525e-001 1.899225e+000 -9.023519e+000 85 88 80
1.081497e+000 1.629880e+000 -7.566129e+000 194 195 189
1.054943e+000 8.080071e-001 -7.971035e+000 62 72 61
-1.484833e+001 -1.096433e+001 -3.721299e+001 197 39 78
-3.255767e-001 1.763815e+000 -8.400279e+000 165 111 89
3.629788e-001 3.383239e-001 -6.976549e+000 180 158 103
6.020241e-001 1.231479e-001 -6.823344e+000 136 88 66
5.963426e-001 1.020024e-001 -6.801593e+000 151 149 79
5.764920e-001 2.756387e-001 -6.997291e+000 141 93 71
2.920781e-001 1.485246e+000 -8.353338e+000 103 120 88
8.725410e-001 4.938881e-001 -7.377718e+000 152 144 89
3.887938e-001 1.309141e+000 -8.156802e+000 164 143 91
-1.354825e+000 1.973379e+000 -8.219115e+000 159 149 100
-1.869693e+000 1.692950e+000 -7.516509e+000 125 119 83
1.125053e-001 1.503769e+000 -8.272387e+000 155 99 72
-1.989190e+000 1.065544e+000 -7.187791e+000 176 136 132
5.242624e-001 1.092046e+000 -7.908620e+000 154 152 129
-1.405036e+000 7.952108e-001 -7.830202e+000 202 174 170
-1.060356e+000 9.973344e-001 -6.968630e+000 165 53 64
-1.756222e+000 7.095874e-001 -6.764763e+000 237 204 169
-6.107323e-001 6.481321e-001 -6.769673e+000 189 165 111
-1.589567e+000 -3.753453e-001 -6.518705e+000 114 89 57
-1.699541e+000 1.673845e+000 -7.542672e+000 80 108 77
-2.343404e-001 1.741708e+000 -8.440690e+000 141 95 75
-1.128064e+000 1.537864e+000 -7.656452e+000 143 128 107
4.577311e-001 1.615810e+000 -8.589218e+000 187 163 108
1.018512e+000 8.758358e-001 -7.934559e+000 91 95 88
4.734819e-001 6.874918e-002 -6.720039e+000 160 150 88
1.857832e+000 2.750633e+000 -6.668212e+000 188 184 173
-1.984107e+000 1.700334e+000 -7.504201e+000 173 166 130
-1.625503e+000 1.783476e+000 -7.707870e+000 194 172 129
1.636315e-001 1.281024e+000 -7.995064e+000 180 174 146
8.521077e-001 5.885852e-001 -7.488741e+000 172 169 140
8.508758e-002 2.046951e-001 -6.705184e+000 178 158 107
-7.850929e-002 2.021834e+000 -8.889754e+000 87 90 76
-9.509918e-001 8.853763e-001 -6.867766e+000 198 183 183
-2.282230e+001 -1.088737e+001 -3.628742e+001 239 59 104
-2.566696e-002 4.627924e-001 -6.963455e+000 67 81 71
-1.507143e+001 -1.357920e+001 -3.216248e+001 79 54 101
-3.111288e-002 2.000937e+000 -8.884157e+000 93 100 83
