ply
format ascii 1.0
element face 0
property list uchar int vertex_indices
element vertex 869
property float x
property float y
property float z
property uchar diffuse_red
property uchar diffuse_green
property uchar diffuse_blue
end_header
1.343622e+000 -5.454648e-001 -7.662798e+000 79 79 65
-1.025083e+000 -6.928596e-001 -6.443964e+000 76 82 75
1.353713e+000 -6.545500e-001 -7.866040e+000 53 49 46
1.058825e-001 -1.684324e-001 -6.653718e+000 131 129 86
1.050869e+000 -1.581737e+000 -8.449474e+000 187 173 162
-7.077048e-001 -1.020186e+000 -7.010295e+000 103 81 68
-8.282698e-001 -5.694549e-001 -6.430503e+000 140 138 101
8.376097e-001 -3.210739e-001 -7.161467e+000 104 118 83
7.945782e-001 -8.548479e-001 -7.661752e+000 58 62 39
-1.286993e+000 -1.282215e+000 -6.982733e+000 128 120 81
-1.250609e+000 -1.420951e+000 -7.132527e+000 76 70 46
1.025792e+000 -3.748386e-001 -7.317399e+000 72 81 61
-3.617894e-001 -6.282529e-001 -6.800886e+000 99 88 59
8.707054e-001 -4.842290e-001 -7.289868e+000 68 76 55
9.199558e-001 -5.177052e-001 -7.403984e+000 64 72 50
-8.639701e-002 -8.206886e-001 -7.137495e+000 93 83 58
-3.365202e-001 -8.707036e-001 -7.070026e+000 80 68 44
-2.366394e-001 -8.944126e-001 -7.137485e+000 100 89 61
-5.909495e-001 -1.042992e+000 -7.108793e+000 97 85 61
-4.602459e-001 -1.061159e+000 -7.192526e+000 106 94 69
-3.089046e-001 -1.011350e+000 -7.228207e+000 150 137 82
-4.386591e-001 -1.078143e+000 -7.222709e+000 159 146 104
-4.399016e-001 -1.081860e+000 -7.218680e+000 159 146 104
1.789725e-001 -1.235826e+000 -7.726934e+000 94 85 54
-7.629508e-001 -1.407508e+000 -7.397447e+000 126 118 79
2.826616e-001 -1.336340e+000 -7.907950e+000 140 131 74
7.239449e-001 -2.198414e-001 -7.031293e+000 85 93 69
-1.200853e+000 -8.454641e-001 -6.513623e+000 79 81 70
7.799916e-001 -6.471269e-001 -7.426935e+000 112 118 75
-5.123757e-001 -8.416196e-001 -6.931820e+000 89 76 57
-5.123757e-001 -8.416196e-001 -6.931820e+000 89 76 57
-1.455292e+000 -1.348954e+000 -6.963476e+000 86 80 48
-1.455419e+000 -1.350184e+000 -6.961997e+000 86 80 48
-1.144966e+000 -1.316187e+000 -7.072261e+000 104 95 64
1.006884e+000 -1.323031e+000 -8.283348e+000 79 83 58
-1.434586e+000 -1.288848e+000 -6.896323e+000 95 86 53
-8.435654e-001 -5.713677e-001 -6.411572e+000 104 101 91
-2.853284e-001 -3.606559e-001 -6.596963e+000 162 147 87
2.116259e-001 -3.939858e-001 -6.900930e+000 149 137 84
8.214364e-001 -1.999153e-001 -7.081347e+000 112 123 89
-1.228804e+000 -6.367813e-001 -6.338891e+000 108 102 91
-2.208467e-001 -5.561626e-001 -6.819951e+000 116 101 65
6.908399e-001 -4.115186e-001 -7.176979e+000 124 126 88
1.144005e+000 -3.028480e-001 -7.353511e+000 107 112 89
-1.190771e+000 -7.831640e-001 -6.469869e+000 140 138 125
-4.367329e-001 -6.951966e-001 -6.811113e+000 157 139 104
-4.143245e-002 -6.409414e-001 -6.988418e+000 155 139 106
7.850151e-002 -5.569259e-001 -6.971168e+000 168 149 92
6.420925e-001 -5.534953e-001 -7.286688e+000 132 125 86
9.644240e-001 -4.824049e-001 -7.419766e+000 103 110 78
1.240864e+000 -4.386957e-001 -7.536087e+000 60 68 45
-5.781814e-001 -8.178952e-001 -6.866765e+000 146 131 98
-3.910179e-001 -7.097942e-001 -6.870184e+000 104 88 62
8.927116e-002 -7.486866e-001 -7.161289e+000 159 143 92
1.146882e+000 -5.949332e-001 -7.565785e+000 97 101 75
-1.679884e+000 9.128817e-002 -6.649300e+000 195 176 123
-5.868089e-001 -8.401158e-001 -6.888586e+000 153 137 105
-3.712032e-001 -8.440815e-001 -7.004333e+000 100 81 54
-3.999221e-001 -8.705893e-001 -7.023685e+000 160 143 109
-3.453632e-001 -8.355903e-001 -7.011736e+000 160 144 109
-3.453632e-001 -8.355903e-001 -7.011736e+000 160 144 109
6.520085e-001 -6.927305e-001 -7.439786e+000 140 130 81
6.122806e-001 -7.970878e-001 -7.499895e+000 133 126 81
-4.218229e-001 -9.164156e-001 -7.061861e+000 149 133 98
-2.432389e-001 -1.035298e+000 -7.284485e+000 112 95 65
1.025808e-002 -1.021620e+000 -7.413794e+000 99 85 46
4.810674e-001 -9.891284e-001 -7.631275e+000 140 129 81
-2.960494e-001 -1.113008e+000 -7.347893e+000 150 133 89
-1.040361e-001 -1.132747e+000 -7.454211e+000 136 122 77
6.480012e-001 -1.159211e+000 -7.899326e+000 118 117 75
-2.183839e+000 1.098580e+000 -7.555406e+000 175 164 142
-1.367008e+000 -1.413989e+000 -7.049307e+000 94 85 53
-1.192482e+000 -1.429136e+000 -7.169896e+000 125 117 83
-1.222207e+000 -1.488753e+000 -7.208898e+000 84 77 44
3.172792e-001 -1.391091e+000 -7.975868e+000 127 118 74
4.683556e-001 -1.313759e+000 -7.983634e+000 123 116 72
6.839550e-001 -1.355609e+000 -8.143629e+000 109 104 76
-1.780423e+000 -1.510270e+000 -7.059461e+000 156 164 109
-1.597078e+000 -1.549382e+000 -7.044264e+000 118 114 69
-1.469349e+000 -1.521365e+000 -7.110439e+000 85 81 46
-6.683801e-001 -1.504497e+000 -7.550469e+000 105 88 41
8.418745e-001 -1.411810e+000 -8.286032e+000 95 98 71
9.848117e-001 -1.441939e+000 -8.378730e+000 78 69 54
-2.309989e-001 -1.339367e+000 -8.064882e+000 163 147 125
-2.333840e-001 -1.318337e+000 -8.098209e+000 111 92 75
-1.060315e-001 -1.179688e+000 -8.313176e+000 141 133 112
-1.124932e-001 -1.200064e+000 -8.298704e+000 141 133 112
-3.669627e-001 -3.564062e-001 -6.512315e+000 155 142 90
-5.170341e-001 -4.145016e-001 -6.593880e+000 77 63 54
9.766628e-001 -1.833899e-001 -7.171450e+000 79 82 60
8.976971e-001 -2.354369e-001 -7.153606e+000 82 85 64
1.155399e+000 -1.666063e-001 -7.225987e+000 86 90 67
1.375920e+000 -2.227371e-001 -7.399444e+000 78 86 62
-2.802108e-001 -5.883660e-001 -6.778890e+000 116 102 67
1.671575e-001 -5.227422e-001 -6.978522e+000 151 136 84
9.504893e-001 -2.761709e-001 -7.276660e+000 76 82 60
7.513737e-001 -4.796244e-001 -7.245049e+000 87 89 62
1.132227e+000 -2.540371e-001 -7.322242e+000 75 78 61
1.341541e+000 -3.212178e-001 -7.455591e+000 75 77 63
-1.202882e+000 -8.057854e-001 -6.445246e+000 140 138 123
-1.202882e+000 -8.057854e-001 -6.445246e+000 140 138 123
-5.410449e-001 -7.153532e-001 -6.789007e+000 153 139 104
-1.958214e-001 -6.365687e-001 -6.888600e+000 117 101 71
-2.360648e-001 -6.757509e-001 -6.927544e+000 168 152 111
-2.367122e-001 -6.773248e-001 -6.926837e+000 168 152 111
1.587716e-002 -6.184549e-001 -6.996761e+000 158 144 100
5.969254e-001 -5.141131e-001 -7.211493e+000 137 133 88
7.450842e-001 -5.263536e-001 -7.351930e+000 77 76 46
1.183807e+000 -4.283491e-001 -7.497616e+000 73 78 55
1.193208e+000 -4.258104e-001 -7.537250e+000 71 76 51
1.193208e+000 -4.258104e-001 -7.537250e+000 71 76 51
1.270517e+000 -4.879053e-001 -7.546620e+000 65 70 50
-1.073701e+000 -8.428106e-001 -6.583886e+000 149 140 112
-1.018613e+000 -8.293686e-001 -6.592928e+000 154 143 111
-6.267400e-001 -8.272348e-001 -6.825917e+000 102 86 63
-2.141173e-001 -7.657894e-001 -7.024402e+000 157 141 105
-2.140777e-001 -7.653362e-001 -7.024560e+000 157 141 105
-2.055730e-002 -7.860808e-001 -7.116174e+000 100 89 66
4.728775e-001 -6.102163e-001 -7.237551e+000 94 87 53
5.027712e-001 -6.173382e-001 -7.288444e+000 152 140 88
5.693559e-001 -5.962725e-001 -7.297523e+000 139 132 86
1.132201e+000 -5.662600e-001 -7.574756e+000 71 75 52
-3.567365e-001 -8.013343e-001 -6.978369e+000 111 95 68
4.014212e-001 -7.999500e-001 -7.390273e+000 95 82 46
6.452904e-001 -7.808076e-001 -7.520472e+000 88 83 43
7.874257e-001 -7.162466e-001 -7.533055e+000 68 68 42
9.689704e-001 -6.950729e-001 -7.607468e+000 73 77 50
-6.197550e-001 -9.195147e-001 -6.975952e+000 148 133 101
-6.431292e-001 -9.896060e-001 -7.017058e+000 150 136 101
-4.063341e-001 -9.985896e-001 -7.147367e+000 169 149 103
-4.063341e-001 -9.985896e-001 -7.147367e+000 169 149 103
-8.666555e-002 -9.658851e-001 -7.269768e+000 94 79 45
-8.153465e-003 -9.325196e-001 -7.316911e+000 98 86 48
6.227853e-003 -9.707233e-001 -7.340866e+000 153 142 88
4.112275e-001 -8.618394e-001 -7.448247e+000 153 143 84
4.654369e-001 -8.763740e-001 -7.517595e+000 144 133 87
4.654369e-001 -8.763740e-001 -7.517595e+000 144 133 87
5.155359e-001 -8.950068e-001 -7.551213e+000 132 124 76
5.152129e-001 -8.950958e-001 -7.551042e+000 132 124 76
-6.851319e-001 -1.100006e+000 -7.096576e+000 144 131 98
-3.699059e-001 -1.032737e+000 -7.203177e+000 163 147 97
-1.547032e-001 -9.954678e-001 -7.286680e+000 95 82 51
-1.241055e-001 -9.912071e-001 -7.301741e+000 157 143 90
3.748246e-001 -9.620543e-001 -7.538225e+000 146 137 77
-6.997827e-001 -1.188867e+000 -7.199026e+000 99 84 58
-1.602941e-001 -1.082471e+000 -7.366985e+000 157 144 98
-1.563049e-001 -1.068214e+000 -7.374291e+000 157 144 98
3.380587e-001 -1.050576e+000 -7.630305e+000 152 135 84
-1.074096e+000 -1.271894e+000 -7.072052e+000 101 84 56
-8.600008e-002 -1.193615e+000 -7.575422e+000 145 133 82
-1.067922e-001 -1.247173e+000 -7.573595e+000 151 138 87
1.140155e-001 -1.146937e+000 -7.616551e+000 151 138 79
3.187389e-001 -1.163961e+000 -7.739130e+000 95 82 48
2.727741e-001 -1.212718e+000 -7.731813e+000 142 131 74
2.724091e-001 -1.216465e+000 -7.755979e+000 147 137 81
5.488480e-001 -1.118264e+000 -7.840943e+000 122 117 74
6.356731e-001 -1.117803e+000 -7.877708e+000 66 64 40
6.837435e-001 -1.140880e+000 -7.915509e+000 74 75 48
-1.567569e+000 -1.424415e+000 -6.953240e+000 127 120 76
-1.137570e+000 -1.375777e+000 -7.115522e+000 126 115 73
-1.109537e+000 -1.412517e+000 -7.183682e+000 100 89 57
-6.224093e-001 -1.299650e+000 -7.368627e+000 101 87 51
-1.591097e-001 -1.319128e+000 -7.579510e+000 96 85 53
3.726216e-001 -1.259452e+000 -7.852940e+000 146 133 78
2.938026e-001 -1.302257e+000 -7.897011e+000 135 126 72
3.562955e-001 -1.296264e+000 -7.914249e+000 139 129 80
8.938817e-001 -1.194690e+000 -8.087429e+000 72 74 50
-1.052480e+000 -1.443778e+000 -7.278582e+000 134 122 80
-7.651035e-001 -1.415739e+000 -7.392713e+000 137 123 86
-8.328530e-001 -1.462233e+000 -7.426607e+000 136 125 75
-7.160642e-001 -1.418138e+000 -7.420488e+000 139 125 86
-5.976892e-001 -1.412105e+000 -7.497115e+000 93 79 42
-5.270701e-001 -1.426368e+000 -7.538225e+000 141 129 80
-1.683310e-001 -1.397274e+000 -7.740567e+000 146 130 79
-1.429601e-001 -1.401411e+000 -7.749594e+000 92 78 43
-3.165663e-002 -1.429196e+000 -7.804801e+000 101 91 53
3.183816e-001 -1.388765e+000 -8.018296e+000 132 120 78
3.183816e-001 -1.388765e+000 -8.018296e+000 132 120 78
6.590351e-001 -1.345734e+000 -8.147462e+000 77 73 48
6.590351e-001 -1.345734e+000 -8.147462e+000 77 73 48
7.101141e-001 -1.365330e+000 -8.166523e+000 69 68 40
6.948143e-001 -1.338892e+000 -8.198309e+000 113 112 82
6.948143e-001 -1.338892e+000 -8.198309e+000 113 112 82
-1.731177e+000 -1.573106e+000 -7.045448e+000 120 107 63
-6.209374e-001 -1.470787e+000 -7.529003e+000 93 77 44
1.326760e-001 -1.423430e+000 -7.919345e+000 113 107 59
5.398219e-001 -1.421519e+000 -8.143231e+000 113 107 71
5.636648e-001 -1.432436e+000 -8.172906e+000 79 75 49
-1.344973e+000 -1.453360e+000 -7.394002e+000 124 99 69
-1.344973e+000 -1.453360e+000 -7.394002e+000 124 99 69
5.058264e-002 -1.425311e+000 -8.071368e+000 129 126 101
-1.189719e+000 -1.288365e+000 -7.677613e+000 132 101 67
-8.397954e-002 -1.252982e+000 -8.272682e+000 134 130 100
-2.232967e+000 -1.375519e-001 -7.717727e+000 228 182 183
-1.930170e+000 -8.543520e-001 -7.882908e+000 115 105 81
-6.144854e-001 -7.950157e-001 -8.623243e+000 151 117 90
-2.098363e+000 -6.017133e-001 -8.113217e+000 159 131 105
-1.140473e-001 5.018126e-001 -1.047498e+001 214 201 191
5.226881e-001 -2.813607e-001 -6.965594e+000 134 130 83
5.912199e-001 -2.679299e-001 -6.981139e+000 87 83 62
1.493401e+000 -1.173472e-001 -7.369287e+000 179 176 170
1.513968e+000 -7.891027e-002 -7.386544e+000 179 176 170
6.517165e-001 -4.307854e-001 -7.164610e+000 95 95 63
-2.580138e-001 -6.756532e-001 -6.860242e+000 106 90 57
-5.625058e-002 -7.283609e-001 -7.079881e+000 131 114 84
-5.625058e-002 -7.283609e-001 -7.079881e+000 131 114 84
6.392259e-001 -6.245499e-001 -7.358943e+000 98 92 61
6.235547e-001 -6.638197e-001 -7.340829e+000 98 92 61
5.469111e-001 -7.313102e-001 -7.440200e+000 97 86 56
5.800140e-001 -7.967763e-001 -7.492338e+000 87 77 51
-3.609608e-001 -9.429292e-001 -7.116549e+000 111 96 63
-2.363956e-001 -9.609947e-001 -7.203586e+000 153 138 83
-1.051265e+000 -1.101524e+000 -6.900685e+000 157 141 98
-4.418821e-001 -1.026095e+000 -7.134246e+000 101 84 63
3.297358e-002 -9.626325e-001 -7.382307e+000 99 87 59
2.878104e-002 -9.751670e-001 -7.376596e+000 99 87 59
7.075061e-001 -9.439562e-001 -7.716204e+000 77 75 52
-1.805416e+000 -2.213633e-001 -6.916232e+000 239 229 204
-1.200511e+000 -1.231326e+000 -6.963920e+000 153 139 100
-6.722193e-001 -1.193476e+000 -7.191504e+000 157 139 101
-6.722193e-001 -1.193476e+000 -7.191504e+000 157 139 101
-2.030998e-001 -1.117931e+000 -7.374364e+000 101 88 54
9.185978e-002 -1.130011e+000 -7.589290e+000 93 77 49
1.026873e+000 -1.120273e+000 -8.002177e+000 61 63 41
-3.515859e-001 -1.186774e+000 -7.379243e+000 101 89 52
-2.882521e-001 -1.158761e+000 -7.414673e+000 106 91 67
-1.779857e-001 -1.188928e+000 -7.489520e+000 95 83 49
-3.515713e-002 -1.206158e+000 -7.561459e+000 148 137 83
4.403714e-001 -1.146968e+000 -7.794592e+000 80 72 37
8.079045e-001 -1.114377e+000 -7.974409e+000 72 75 46
-1.422050e+000 -1.398886e+000 -7.021990e+000 88 80 51
-1.169075e+000 -1.369227e+000 -7.118374e+000 84 77 40
-6.444560e-001 -1.373034e+000 -7.402164e+000 98 85 52
-2.960163e-001 -1.350600e+000 -7.592449e+000 101 92 61
-2.960163e-001 -1.350600e+000 -7.592449e+000 101 92 61
2.566677e-002 -1.295076e+000 -7.697786e+000 100 86 58
5.543236e-001 -1.236939e+000 -7.961038e+000 121 115 73
7.877494e-001 -1.179688e+000 -8.040440e+000 65 67 44
-1.466680e+000 -1.449476e+000 -7.049179e+000 124 120 82
-1.124190e+000 -1.437491e+000 -7.210041e+000 93 83 48
-3.142079e-001 -1.394297e+000 -7.615276e+000 91 80 53
1.115146e-001 -1.396205e+000 -7.905789e+000 82 70 31
3.777035e-001 -1.309578e+000 -7.939342e+000 74 64 35
5.657038e-001 -1.408807e+000 -8.115642e+000 80 75 53
-6.107595e-001 -1.493070e+000 -7.557223e+000 157 137 78
-2.841628e-001 -1.451280e+000 -7.708217e+000 75 64 34
1.046815e+000 -1.342683e+000 -8.393558e+000 67 55 45
1.007615e+000 -1.426579e+000 -8.424271e+000 89 70 55
-2.076961e-001 -1.360792e+000 -8.063752e+000 166 150 125
-3.353777e-001 -1.156944e+000 -8.267927e+000 170 144 117
-2.602095e-001 -1.054359e+000 -8.436976e+000 113 106 78
-9.810254e-002 -1.210422e+000 -8.324538e+000 87 97 72
-2.901347e-001 -1.058118e+000 -8.438119e+000 118 109 83
-1.733239e-001 -1.088078e+000 -8.484963e+000 98 102 78
-1.355689e+000 -4.331445e-001 -8.724739e+000 171 143 131
-2.052657e+000 -4.092151e-002 -8.860708e+000 132 117 92
-1.012219e+000 -5.698988e-001 -6.361220e+000 105 98 86
5.078750e-001 -3.457271e-001 -7.062149e+000 153 143 81
-6.776280e-001 -8.974906e-001 -6.825181e+000 66 56 43
-7.804667e-001 -9.845593e-001 -6.931127e+000 103 90 63
-2.784166e-002 -8.993832e-001 -7.270048e+000 127 110 66
2.260439e-001 -9.891822e-001 -7.503003e+000 137 129 77
-1.243829e+000 -1.352165e+000 -7.040351e+000 137 126 81
-1.025621e-002 -1.287410e+000 -7.715724e+000 122 104 56
1.164861e-001 -1.284850e+000 -7.783607e+000 124 110 62
-1.407725e+000 -1.465543e+000 -7.084161e+000 133 126 80
-1.507544e+000 -1.552712e+000 -7.121820e+000 125 119 70
-1.324814e+000 -1.542068e+000 -7.210225e+000 130 125 67
-1.264670e+000 -1.516698e+000 -7.252597e+000 131 120 63
-1.088501e+000 -1.507052e+000 -7.343528e+000 133 121 61
1.226831e-001 -1.489770e+000 -7.910235e+000 92 81 48
2.302282e-002 -1.403735e+000 -8.101931e+000 68 86 67
-4.162278e-002 -1.352669e+000 -8.152155e+000 110 108 87
-2.683697e-001 -1.155864e+000 -8.325642e+000 169 146 128
-1.347850e+000 -7.794965e-001 -8.269212e+000 125 100 94
5.669335e-001 -6.291672e-001 -9.401291e+000 151 133 119
-1.175200e+000 -3.895618e-001 -8.875188e+000 122 102 94
-2.841055e+000 3.676476e-001 -8.973470e+000 144 132 89
-2.751438e+000 6.557598e+000 -1.515812e+001 175 158 150
-2.751438e+000 6.557598e+000 -1.515812e+001 175 158 150
-2.411537e-001 -1.755345e-001 -6.473308e+000 130 117 72
-1.747231e-001 -1.918653e-001 -6.504211e+000 129 116 78
-9.434072e-001 -5.179610e-001 -6.304811e+000 88 90 79
3.322453e-001 -2.504822e-001 -6.855697e+000 146 136 84
2.727677e-001 -4.355196e-001 -6.941161e+000 164 148 88
1.392760e+000 -4.704899e-001 -7.801569e+000 84 79 63
1.945338e-001 -1.099644e+000 -7.596638e+000 138 121 70
-1.337057e+000 -1.368591e+000 -6.998869e+000 84 76 47
-9.106696e-001 -1.314131e+000 -7.198338e+000 77 72 47
-1.206132e+000 -1.536048e+000 -7.275966e+000 139 128 70
3.327618e-001 -1.457713e+000 -8.093770e+000 132 120 68
-2.185192e+000 -2.265282e-001 -7.669657e+000 221 115 118
-4.733199e-001 -1.366358e-001 -6.283100e+000 136 116 79
-8.720404e-001 -6.676163e-001 -6.486760e+000 96 94 79
1.374836e+000 -6.632470e-001 -7.770642e+000 135 123 109
-1.400634e+000 -1.272412e+000 -6.863157e+000 145 129 78
-1.685283e+000 -1.493896e+000 -6.964956e+000 129 124 74
-1.293819e+000 -1.515607e+000 -7.187331e+000 93 87 55
-1.161510e+000 -1.509779e+000 -7.257965e+000 103 98 60
2.533378e-001 -1.465003e+000 -8.047679e+000 135 122 66
-3.955520e-001 -1.655126e-001 -6.333478e+000 225 212 208
1.431701e+000 -6.496284e-002 -7.351663e+000 92 97 77
-6.109755e-001 -9.728119e-001 -7.018935e+000 147 132 98
-9.838926e-001 -1.068883e+000 -6.898775e+000 161 143 97
-9.815795e-001 -1.386340e+000 -7.249959e+000 98 89 60
6.057020e-001 -6.179357e-001 -9.432856e+000 151 133 119
-1.875115e-002 -1.774418e-001 -6.610406e+000 148 135 84
3.101085e-001 -2.251609e-001 -6.772069e+000 137 133 94
3.634364e-001 -1.401088e+000 -8.033244e+000 92 87 50
-2.619726e-001 3.944660e-001 -1.036317e+001 232 223 214
3.644570e-001 -3.943993e-001 -7.018677e+000 158 146 82
-8.453713e-001 -9.246189e-001 -6.729549e+000 164 146 98
1.533138e+000 -1.133287e+000 -7.911674e+000 188 182 166
1.116749e+000 8.067818e-001 -8.994614e+000 122 116 75
-2.339203e+001 3.546065e+000 -4.692274e+001 203 35 68
-2.214151e+000 1.300951e+000 -7.708148e+000 162 145 138
-8.056632e+000 2.450215e+001 -1.974614e+001 166 143 137
-6.743561e+000 2.461713e+001 -2.066876e+001 99 79 72
-7.981328e+000 2.354625e+001 -2.121293e+001 219 194 187
-2.612799e+000 1.614438e-001 -8.713276e+000 233 213 186
-6.325039e+000 2.590291e+001 -1.764906e+001 188 148 146
-6.326387e+000 2.590398e+001 -1.764960e+001 188 148 146
-7.334622e+000 2.800584e+001 -1.975390e+001 191 156 152
-7.360361e+000 2.817403e+001 -1.982805e+001 191 156 152
-8.674902e+000 2.965762e+001 -2.057179e+001 94 122 133
-8.186591e+000 2.987957e+001 -2.059554e+001 172 140 134
-7.132980e+000 2.587931e+001 -2.040930e+001 134 109 102
-6.021251e+000 2.819771e+001 -1.662105e+001 134 106 105
-5.598179e+000 2.516972e+001 -1.774817e+001 187 149 140
-7.789500e+000 2.897192e+001 -2.027815e+001 209 171 168
-7.169279e+000 2.618639e+001 -1.976536e+001 137 109 106
-6.689403e+000 2.591812e+001 -2.049205e+001 124 106 96
-8.105536e+000 2.474544e+001 -1.986614e+001 164 137 131
-6.312021e+000 2.847637e+001 -1.630505e+001 96 81 85
-5.890895e+000 2.713618e+001 -1.661845e+001 180 156 152
-5.747278e+000 2.483523e+001 -1.714653e+001 173 137 129
-6.087297e+000 2.610061e+001 -1.916381e+001 140 116 104
-6.503618e+000 2.631274e+001 -1.947836e+001 188 161 154
-6.889728e+000 2.624946e+001 -2.025766e+001 174 155 148
-5.354738e+000 2.641172e+001 -1.626324e+001 139 112 101
-5.010104e+000 2.554085e+001 -1.715829e+001 144 115 103
-6.023246e+000 2.610915e+001 -1.853191e+001 217 175 171
-6.539927e+000 2.633501e+001 -1.996806e+001 81 68 62
-7.543761e+000 2.602772e+001 -1.980562e+001 203 177 173
-7.812719e+000 2.549497e+001 -1.988234e+001 137 108 100
-5.091131e+000 2.598919e+001 -1.649783e+001 183 156 149
-6.227383e+000 2.593313e+001 -1.738462e+001 212 178 176
-5.353441e+000 2.529437e+001 -1.786352e+001 94 68 60
-7.213693e+000 2.862697e+001 -1.693587e+001 199 168 163
-7.169686e+000 2.827383e+001 -1.680149e+001 199 168 163
-7.055438e+000 2.877498e+001 -1.799338e+001 86 91 100
-7.069890e+000 2.884416e+001 -1.801896e+001 86 91 100
-1.004989e+001 2.743497e+001 -2.475111e+001 144 127 128
-6.873073e+000 2.521979e+001 -2.058355e+001 105 80 73
-7.902506e+000 3.194318e+001 -2.121072e+001 207 173 168
-6.177006e+000 2.616096e+001 -1.882743e+001 184 150 144
-6.177847e+000 2.576917e+001 -1.780729e+001 213 180 176
-8.400795e+000 2.960420e+001 -2.045139e+001 197 175 169
-6.290141e+000 2.598381e+001 -2.037540e+001 200 186 177
-5.896414e+000 2.608509e+001 -1.967009e+001 212 194 190
-3.281092e-001 -3.719357e-001 -6.534524e+000 151 139 89
1.463400e-001 -3.605445e-001 -6.882570e+000 164 145 97
1.491618e+000 -5.124728e-002 -7.348099e+000 119 123 105
-9.711671e-001 -7.623846e-001 -6.434325e+000 104 102 89
-7.825152e-001 -6.147093e-001 -6.481106e+000 117 109 70
-1.398305e-001 -5.558850e-001 -6.856870e+000 159 144 103
5.831120e-001 -3.767891e-001 -7.066185e+000 136 129 83
7.249855e-001 -3.167835e-001 -7.133988e+000 118 124 86
1.054248e+000 -3.707305e-001 -7.328160e+000 101 107 79
-9.284725e-001 -7.733286e-001 -6.523601e+000 148 146 131
-8.893412e-001 -7.625226e-001 -6.534079e+000 154 145 110
6.463481e-001 -5.435331e-001 -7.289790e+000 132 125 86
8.760499e-001 -5.551470e-001 -7.411130e+000 119 120 93
-4.848065e-001 -8.313158e-001 -6.888237e+000 161 146 113
5.410750e-001 -6.680469e-001 -7.346915e+000 144 136 89
5.279080e-001 -7.080306e-001 -7.368867e+000 141 135 75
1.052079e+000 -5.563408e-001 -7.531672e+000 101 106 80
1.052079e+000 -5.563408e-001 -7.531672e+000 101 106 80
-1.989973e-001 -8.661165e-001 -7.078996e+000 167 154 111
5.451369e-002 -8.356164e-001 -7.246356e+000 155 142 87
6.554129e-001 -6.835706e-001 -7.441932e+000 140 130 81
5.436142e-002 -8.375751e-001 -7.274054e+000 155 139 90
2.509071e-001 -9.051150e-001 -7.387913e+000 167 150 91
2.435160e-001 -8.833697e-001 -7.411461e+000 94 79 46
-8.290017e-001 -1.092876e+000 -6.974660e+000 106 91 62
-6.613979e-001 -1.098111e+000 -7.105538e+000 116 102 73
8.591937e-001 -9.196162e-001 -7.789542e+000 101 104 74
8.299000e-001 -1.018611e+000 -7.968321e+000 107 109 75
-1.509597e+000 -1.345307e+000 -6.866089e+000 100 89 46
-9.057394e-001 -1.235584e+000 -7.140224e+000 139 125 87
-7.882687e-002 -1.177465e+000 -7.544173e+000 150 140 87
1.119973e-001 -1.223224e+000 -7.679773e+000 86 74 37
9.717590e-001 -1.092208e+000 -8.078254e+000 89 93 66
-2.157057e+000 9.545450e-001 -7.471064e+000 145 135 123
8.676858e-001 -1.216849e+000 -8.158581e+000 90 96 62
8.676858e-001 -1.216849e+000 -8.158581e+000 90 96 62
-1.686628e+000 -1.454920e+000 -6.909132e+000 142 135 79
-1.253696e+000 -1.442319e+000 -7.125973e+000 87 77 47
-9.256585e-001 -1.374469e+000 -7.301257e+000 110 98 58
5.301348e-001 -1.437505e+000 -8.142586e+000 112 107 73
8.209420e-001 -1.344869e+000 -8.320925e+000 90 88 65
1.018252e+000 -1.362882e+000 -8.492522e+000 119 102 83
1.166261e+000 -1.245175e+000 -8.490857e+000 88 73 60
-1.081609e+000 -1.421143e+000 -7.565690e+000 161 127 89
-1.014082e+000 -1.442624e+000 -7.571320e+000 131 102 72
-9.266293e-001 -1.398400e+000 -7.653847e+000 155 131 93
-8.443231e-001 -1.423060e+000 -7.663322e+000 119 94 63
-5.516012e-001 -1.394829e+000 -7.825673e+000 111 94 64
-5.516012e-001 -1.394829e+000 -7.825673e+000 111 94 64
6.881264e-003 -1.428660e+000 -8.050944e+000 115 111 86
-1.660322e+000 -1.346891e+000 -7.373085e+000 152 126 99
-1.627264e+000 -1.355470e+000 -7.385482e+000 152 128 99
-1.586594e+000 -1.353491e+000 -7.407738e+000 148 125 95
-1.285169e+000 -1.321756e+000 -7.584623e+000 166 134 95
-9.613085e-001 -1.354007e+000 -7.701445e+000 160 130 94
-9.243668e-001 -1.302344e+000 -7.787293e+000 166 131 88
-9.142490e-001 -1.291145e+000 -7.819851e+000 133 99 69
-5.703303e-001 -1.310609e+000 -7.939216e+000 112 91 63
-2.220240e-001 -1.318730e+000 -8.076860e+000 163 147 125
-3.299540e-001 -9.449010e-001 -8.563258e+000 117 112 89
-1.061735e+000 -5.911316e-001 -8.685017e+000 158 128 113
-1.059622e+000 -5.826991e-001 -8.689554e+000 158 128 113
4.419899e-001 -8.231639e-001 -9.783032e+000 176 164 150
-1.229130e-001 5.222738e-001 -1.044423e+001 117 110 88
-1.109510e+000 -4.836608e-001 -6.183629e+000 93 90 82
-8.741130e-001 -4.998064e-001 -6.310459e+000 97 93 82
1.414498e-001 -2.351458e-001 -6.708226e+000 109 100 62
-1.004044e+000 -6.239173e-001 -6.368128e+000 167 151 136
-3.445367e-001 -4.229278e-001 -6.565456e+000 154 141 86
-3.980763e-001 -5.127157e-001 -6.630822e+000 126 112 65
-1.784976e-001 -3.640508e-001 -6.662932e+000 155 139 87
-1.557928e-002 -3.560081e-001 -6.737038e+000 156 136 85
-7.879956e-002 -4.560754e-001 -6.773963e+000 114 100 67
6.271330e-001 -3.170025e-001 -7.033299e+000 95 95 69
7.321396e-001 -2.836460e-001 -7.065477e+000 116 122 84
8.240013e-001 -2.758320e-001 -7.143526e+000 88 92 67
8.785533e-001 -2.480026e-001 -7.111599e+000 84 89 64
1.144705e+000 -1.863867e-001 -7.219697e+000 86 90 67
1.061170e+000 -2.007843e-001 -7.234137e+000 111 117 91
-1.890852e-001 -5.386913e-001 -6.821372e+000 161 147 101
1.845699e-001 -4.043215e-001 -6.904345e+000 105 93 53
6.877388e-001 -3.354845e-001 -7.128190e+000 86 85 57
7.096447e-001 -3.607940e-001 -7.158419e+000 126 127 91
7.121079e-001 -4.063899e-001 -7.124658e+000 88 91 64
7.721460e-001 -3.386249e-001 -7.146117e+000 116 122 86
7.721460e-001 -3.386249e-001 -7.146117e+000 116 122 86
6.324109e-001 -4.067970e-001 -7.139918e+000 127 124 83
8.762388e-001 -3.081324e-001 -7.215313e+000 80 86 62
8.762388e-001 -3.081324e-001 -7.215313e+000 80 86 62
7.960730e-001 -3.707490e-001 -7.224218e+000 84 84 57
1.094221e+000 -3.453543e-001 -7.340229e+000 80 84 59
1.325180e+000 -2.355122e-001 -7.448077e+000 74 79 58
-2.689632e-001 -7.029480e-001 -6.868743e+000 111 94 62
-2.144944e-001 -6.890882e-001 -6.922120e+000 105 89 63
4.538326e-002 -5.989290e-001 -6.972498e+000 97 83 52
9.680086e-002 -6.451503e-001 -7.047936e+000 111 96 61
4.932856e-001 -5.534276e-001 -7.197702e+000 94 90 51
5.850868e-001 -5.373795e-001 -7.203293e+000 137 133 88
9.064827e-001 -4.133290e-001 -7.383246e+000 80 84 59
8.729044e-001 -4.948334e-001 -7.402382e+000 82 85 61
8.793331e-001 -5.450288e-001 -7.405636e+000 114 116 86
9.892178e-001 -4.746162e-001 -7.386752e+000 73 79 54
1.092020e+000 -4.989789e-001 -7.464042e+000 77 82 60
-3.038035e-001 -7.196340e-001 -6.949021e+000 165 147 110
-3.538754e-001 -7.997444e-001 -6.938301e+000 110 94 64
-2.713738e-001 -7.597698e-001 -6.950904e+000 150 136 100
-1.778500e-001 -7.369854e-001 -7.015025e+000 113 96 70
-4.127353e-002 -6.965752e-001 -7.036684e+000 105 91 63
-5.881195e-002 -7.543615e-001 -7.103119e+000 93 83 50
1.785430e-001 -6.521669e-001 -7.121386e+000 171 153 81
2.494696e-001 -7.228813e-001 -7.221657e+000 104 92 49
4.569542e-001 -6.581299e-001 -7.260034e+000 99 91 60
5.176638e-001 -6.490400e-001 -7.338288e+000 96 86 59
5.801062e-001 -6.387370e-001 -7.342518e+000 93 85 49
6.684654e-001 -6.368706e-001 -7.372186e+000 136 131 84
5.685718e-001 -6.744671e-001 -7.372699e+000 89 80 47
7.574021e-001 -6.481461e-001 -7.450982e+000 81 77 50
1.066049e+000 -5.935252e-001 -7.602436e+000 72 78 51
1.105685e+000 -5.686455e-001 -7.595105e+000 101 105 79
1.118569e+000 -6.024355e-001 -7.611555e+000 67 70 48
-6.522644e-001 -8.884585e-001 -6.871252e+000 101 83 63
-2.945516e-002 -8.114707e-001 -7.202045e+000 99 84 54
4.429739e-001 -7.051663e-001 -7.341693e+000 103 87 54
5.986788e-001 -6.772186e-001 -7.410476e+000 139 130 87
6.094431e-001 -7.191595e-001 -7.421169e+000 90 84 50
9.850386e-001 -6.469646e-001 -7.584364e+000 68 72 45
1.083393e+000 -6.998922e-001 -7.694023e+000 70 74 51
-3.351600e-001 -9.381090e-001 -7.103428e+000 166 145 98
-2.518008e-001 -9.411876e-001 -7.184551e+000 124 110 64
3.869318e-001 -9.184868e-001 -7.472347e+000 162 146 92
3.869318e-001 -9.184868e-001 -7.472347e+000 162 146 92
6.047693e-001 -8.902271e-001 -7.592881e+000 84 81 43
6.386340e-001 -8.775610e-001 -7.594269e+000 123 119 72
7.598925e-001 -8.018826e-001 -7.628014e+000 77 74 57
7.598925e-001 -8.018826e-001 -7.628014e+000 77 74 57
6.651431e-001 -8.925862e-001 -7.642548e+000 87 82 52
8.968182e-001 -7.528272e-001 -7.673437e+000 70 69 46
8.775837e-001 -7.997883e-001 -7.694343e+000 76 78 56
9.264284e-001 -8.205442e-001 -7.739583e+000 72 74 52
9.930644e-001 -7.994930e-001 -7.767677e+000 71 75 52
-7.112584e-001 -1.117050e+000 -7.091799e+000 62 55 42
4.302401e-001 -9.628337e-001 -7.572907e+000 145 132 87
4.302401e-001 -9.628337e-001 -7.572907e+000 145 132 87
6.210710e-001 -9.253378e-001 -7.638484e+000 125 121 77
5.695244e-001 -9.839520e-001 -7.687846e+000 86 79 51
7.655467e-001 -8.761360e-001 -7.730343e+000 106 107 70
6.905153e-001 -9.166059e-001 -7.738809e+000 120 118 73
7.207452e-001 -9.205604e-001 -7.789585e+000 76 75 47
8.229431e-001 -9.281122e-001 -7.771442e+000 70 73 45
7.620574e-001 -9.414520e-001 -7.766864e+000 78 78 50
8.052144e-001 -9.729275e-001 -7.799998e+000 75 75 51
9.019046e-001 -8.978658e-001 -7.850031e+000 69 71 45
-1.185909e+000 -1.246999e+000 -6.941959e+000 106 96 61
-1.085457e+000 -1.243430e+000 -7.014803e+000 141 127 88
-3.772916e-001 -1.191808e+000 -7.346321e+000 150 136 88
-1.405934e-001 -1.100498e+000 -7.402776e+000 87 76 46
-1.405934e-001 -1.100498e+000 -7.402776e+000 87 76 46
-2.280712e-001 -1.180961e+000 -7.434107e+000 95 82 50
-3.602770e-002 -1.074598e+000 -7.438907e+000 144 132 82
-2.881551e-002 -1.119806e+000 -7.496711e+000 99 86 48
3.822008e-001 -1.016569e+000 -7.649587e+000 88 78 44
4.549865e-001 -1.050074e+000 -7.664791e+000 141 130 77
4.488320e-001 -1.069170e+000 -7.713691e+000 137 121 74
4.488320e-001 -1.069170e+000 -7.713691e+000 137 121 74
6.230326e-001 -1.004177e+000 -7.757120e+000 75 72 48
5.689764e-001 -1.058858e+000 -7.743457e+000 125 119 76
7.320567e-001 -1.026393e+000 -7.846223e+000 65 64 44
7.427842e-001 -1.013473e+000 -7.902389e+000 68 68 40
8.794462e-001 -9.540871e-001 -7.874194e+000 62 65 38
8.794462e-001 -9.540871e-001 -7.874194e+000 62 65 38
8.745372e-001 -9.694224e-001 -7.900905e+000 75 78 50
8.797664e-001 -9.660566e-001 -7.941847e+000 74 77 47
8.500016e-001 -1.033386e+000 -7.960576e+000 78 78 51
8.877752e-001 -1.020035e+000 -7.973972e+000 98 103 71
8.877752e-001 -1.020035e+000 -7.973972e+000 98 103 71
1.127948e+000 -9.166801e-001 -8.029454e+000 66 68 46
9.626444e-001 -1.035090e+000 -8.016357e+000 61 65 41
-1.330507e+000 -1.264156e+000 -6.919189e+000 132 121 85
-1.052657e+000 -1.259008e+000 -7.063675e+000 155 140 98
-5.058737e-001 -1.251371e+000 -7.355520e+000 154 139 93
-5.057656e-001 -1.250870e+000 -7.355683e+000 154 139 93
-1.962160e-001 -1.167511e+000 -7.532215e+000 147 138 83
-6.913682e-002 -1.215900e+000 -7.593882e+000 103 90 51
-4.802740e-002 -1.234549e+000 -7.627946e+000 148 135 82
9.405969e-002 -1.191607e+000 -7.638650e+000 154 138 87
3.523499e-001 -1.167749e+000 -7.803725e+000 140 130 75
3.523499e-001 -1.167749e+000 -7.803725e+000 140 130 75
4.107811e-001 -1.159630e+000 -7.815630e+000 140 130 71
4.238270e-001 -1.193814e+000 -7.828281e+000 89 78 52
8.741065e-001 -1.122462e+000 -8.067819e+000 63 66 40
-1.408861e+000 -1.386511e+000 -7.002710e+000 143 130 86
-1.408861e+000 -1.386511e+000 -7.002710e+000 143 130 86
-1.305828e+000 -1.352441e+000 -7.030465e+000 140 132 85
-1.236886e+000 -1.377894e+000 -7.071898e+000 93 84 53
-7.417595e-002 -1.238842e+000 -7.633318e+000 94 81 49
2.600175e-001 -1.246426e+000 -7.810596e+000 148 134 83
4.578834e-001 -1.204979e+000 -7.963604e+000 137 127 76
6.034315e-001 -1.273023e+000 -8.042857e+000 119 116 74
7.714690e-001 -1.216888e+000 -8.063368e+000 73 73 49
-1.330821e+000 -1.444370e+000 -7.076376e+000 132 124 77
-4.110506e-001 -1.401344e+000 -7.573496e+000 149 132 86
-2.741293e-001 -1.367706e+000 -7.622799e+000 150 138 79
-2.993864e-001 -1.424422e+000 -7.693134e+000 149 135 87
2.600102e-002 -1.364141e+000 -7.809458e+000 142 131 79
4.844780e-002 -1.375224e+000 -7.861221e+000 84 72 41
1.857162e-001 -1.424502e+000 -7.934636e+000 140 128 71
1.857162e-001 -1.424502e+000 -7.934636e+000 140 128 71
3.549809e-001 -1.302764e+000 -7.953759e+000 138 132 73
6.300696e-001 -1.340075e+000 -8.099405e+000 97 93 64
6.054528e-001 -1.334656e+000 -8.125440e+000 72 68 44
6.636930e-001 -1.284911e+000 -8.176278e+000 113 109 79
-1.003976e+000 -1.487306e+000 -7.350689e+000 123 114 71
3.559976e-001 -1.442372e+000 -8.057593e+000 124 114 72
4.351485e-001 -1.453939e+000 -8.103094e+000 78 72 43
8.571596e-001 -1.427986e+000 -8.273768e+000 56 57 40
-2.118136e+000 -2.265519e-001 -7.479138e+000 237 182 188
-1.427108e+000 -1.449179e+000 -7.354972e+000 129 104 73
-1.275236e+000 -1.453435e+000 -7.427568e+000 122 98 67
-1.188824e+000 -1.442805e+000 -7.483072e+000 127 101 68
-1.122486e+000 -1.424047e+000 -7.541422e+000 150 122 83
-7.458582e-001 -1.409653e+000 -7.719034e+000 118 92 65
-6.471377e-001 -1.421174e+000 -7.766097e+000 115 94 63
-5.464025e-001 -1.473898e+000 -7.750367e+000 108 92 65
-3.606993e-001 -1.457640e+000 -7.842106e+000 105 91 62
-3.069283e-001 -1.449562e+000 -7.877425e+000 104 93 63
-2.404566e+000 9.991862e-001 -7.936145e+000 203 185 148
-2.451150e+000 9.493320e-001 -8.042716e+000 203 180 135
-1.055236e+000 -1.297199e+000 -7.738476e+000 133 102 71
-8.383035e-001 -1.278509e+000 -7.866805e+000 126 96 65
-7.393829e-001 -1.378510e+000 -7.782152e+000 125 98 73
-7.393829e-001 -1.378510e+000 -7.782152e+000 125 98 73
-7.208039e-001 -1.305652e+000 -7.867883e+000 124 97 68
-7.934110e-001 -1.305657e+000 -7.852260e+000 157 128 88
-1.535496e-001 -1.301530e+000 -8.161553e+000 164 148 120
-1.482469e-001 -1.285336e+000 -8.169878e+000 164 148 120
-9.378363e-002 -1.309746e+000 -8.155493e+000 103 100 71
-6.184970e-002 -1.304594e+000 -8.155863e+000 156 151 122
-7.078326e-002 -1.330496e+000 -8.141188e+000 156 151 122
-6.892203e-002 -1.222996e+000 -8.294764e+000 134 130 100
-1.754284e-001 -1.131784e+000 -8.389521e+000 110 100 71
-9.440431e-001 -7.836896e-001 -8.479767e+000 125 103 90
-4.361415e-001 -8.991201e-001 -8.578648e+000 181 153 127
-1.422413e+000 -5.358402e-001 -8.528294e+000 175 141 130
-9.448485e-001 -7.090511e-001 -8.582898e+000 110 88 82
-2.159173e+000 -4.611698e-001 -8.261544e+000 186 152 117
-1.388266e+000 -5.127289e-001 -8.611657e+000 173 145 133
-1.375858e+000 -3.807789e-001 -8.777681e+000 151 124 110
-2.026102e+000 3.926458e-003 -8.931602e+000 171 144 114
-1.248900e+000 -6.537123e-001 -6.250952e+000 85 85 76
1.208783e-001 -3.857165e-001 -6.750118e+000 147 141 87
7.079107e-002 -3.818781e-001 -6.833269e+000 101 88 56
-1.991035e-001 -5.079166e-001 -6.769241e+000 121 105 70
5.905589e-001 -4.406083e-001 -7.156576e+000 101 94 61
-9.414199e-001 -7.946028e-001 -6.584020e+000 88 90 79
5.552756e-001 -5.416582e-001 -7.221373e+000 89 85 61
6.798901e-001 -5.337685e-001 -7.316686e+000 91 86 57
9.218525e-001 -5.035343e-001 -7.388930e+000 74 79 59
-4.297066e-001 -8.113324e-001 -6.926084e+000 106 90 69
6.604666e-001 -6.740734e-001 -7.425871e+000 136 128 80
-2.056819e-001 -8.088538e-001 -7.076160e+000 116 100 66
-8.562602e-001 -1.031865e+000 -6.926742e+000 96 83 63
-2.500069e-001 -9.266629e-001 -7.144394e+000 119 104 73
5.434757e-001 -8.960284e-001 -7.558177e+000 89 83 55
-1.801493e+000 -1.751463e-001 -6.832061e+000 224 213 184
-1.109629e+000 -1.167488e+000 -6.910919e+000 152 137 94
-9.524997e-001 -1.119764e+000 -6.986493e+000 104 93 61
-5.321299e-001 -1.080650e+000 -7.172062e+000 100 85 54
-3.955123e-001 -1.028359e+000 -7.170474e+000 110 95 55
-1.633465e-001 -1.020087e+000 -7.307452e+000 100 85 52
-2.507461e-001 -1.058606e+000 -7.303824e+000 106 90 66
-1.218498e-001 -1.046953e+000 -7.372735e+000 95 81 53
3.947573e-001 -9.788103e-001 -7.574598e+000 82 73 44
3.880778e-001 -9.929850e-001 -7.568231e+000 82 73 44
5.755240e-001 -9.481941e-001 -7.647537e+000 77 67 42
-1.078305e+000 -1.255860e+000 -6.963269e+000 148 135 94
-7.607053e-001 -1.166529e+000 -7.108210e+000 85 72 62
-4.332575e-001 -1.194694e+000 -7.320005e+000 157 141 92
1.558634e-001 -1.038331e+000 -7.526743e+000 152 139 77
4.114650e-001 -1.087844e+000 -7.735827e+000 92 81 53
6.252123e-001 -1.066717e+000 -7.802321e+000 116 113 70
-1.150051e+000 -1.263601e+000 -7.004339e+000 147 133 89
-9.639946e-001 -1.286986e+000 -7.154621e+000 95 89 58
-6.095977e-001 -1.282292e+000 -7.313315e+000 116 101 70
-3.971622e-001 -1.218152e+000 -7.383204e+000 148 134 85
-4.830389e-001 -1.252383e+000 -7.374922e+000 92 82 46
-4.830389e-001 -1.252383e+000 -7.374922e+000 92 82 46
-2.338502e-001 -1.194082e+000 -7.499023e+000 100 87 54
-2.338502e-001 -1.194082e+000 -7.499023e+000 100 87 54
6.178642e-001 -1.163354e+000 -7.963208e+000 81 78 51
6.178642e-001 -1.163354e+000 -7.963208e+000 81 78 51
8.053390e-001 -1.119367e+000 -7.971702e+000 72 75 46
-1.182384e+000 -1.355145e+000 -7.058834e+000 137 125 76
-1.014348e+000 -1.354143e+000 -7.210648e+000 130 117 74
-7.185771e-001 -1.373212e+000 -7.378034e+000 86 71 39
-7.185771e-001 -1.373212e+000 -7.378034e+000 86 71 39
-5.740580e-001 -1.350789e+000 -7.447540e+000 95 82 38
-4.522935e-001 -1.369024e+000 -7.516144e+000 152 137 78
3.135655e-001 -1.321330e+000 -7.897521e+000 98 86 54
-4.145810e-001 -1.467501e+000 -7.595649e+000 93 80 45
-1.659377e-001 -1.452401e+000 -7.767139e+000 95 81 46
6.336141e-001 -1.399150e+000 -8.174461e+000 72 69 44
6.817091e-001 -1.431947e+000 -8.229616e+000 68 68 43
-8.795291e-001 -1.443330e+000 -7.635463e+000 129 104 73
-8.793435e-001 -1.445544e+000 -7.634519e+000 129 104 73
-9.552485e-002 -1.324135e+000 -8.109886e+000 101 99 78
-3.705720e-001 -1.365132e+000 -7.975557e+000 112 99 68
-1.849983e-001 -1.254905e+000 -8.231068e+000 106 104 79
-1.094849e-001 -1.271035e+000 -8.163156e+000 156 142 116
-4.661762e-002 -1.243836e+000 -8.303566e+000 97 101 71
-2.249411e-001 -1.198918e+000 -8.284072e+000 111 105 80
-1.283794e-001 -1.133252e+000 -8.400849e+000 108 105 79
-1.754760e+000 -9.734451e-001 -7.813326e+000 97 96 70
-1.782849e+000 -9.153382e-001 -7.850501e+000 179 143 106
-1.373833e+000 -7.917294e-001 -8.224151e+000 168 140 128
-1.943183e+000 -7.823982e-001 -7.969263e+000 117 106 88
-1.514888e+000 -7.498215e-001 -8.230904e+000 181 148 133
-1.236318e+000 -3.229327e-001 -8.933120e+000 135 111 106
-2.792716e+000 2.265944e-001 -8.721380e+000 160 167 123
2.419943e-001 -3.469400e-001 -6.891511e+000 156 144 86
-1.629315e+000 -4.645878e-001 -6.549270e+000 220 214 157
-1.633624e+000 -4.944336e-001 -6.586061e+000 166 167 151
-1.296924e+000 -1.260464e+000 -6.902849e+000 96 87 59
-1.143337e+000 -1.146588e+000 -6.924583e+000 113 99 70
-1.499705e-001 -1.130007e+000 -7.438088e+000 88 80 49
-1.398332e+000 -1.375437e+000 -6.973894e+000 90 84 51
-1.219138e+000 -1.361103e+000 -7.069160e+000 103 96 67
-1.219138e+000 -1.361103e+000 -7.069160e+000 103 96 67
-1.105115e+000 -1.371288e+000 -7.131971e+000 98 90 53
-1.023166e+000 -1.303388e+000 -7.149152e+000 108 100 64
3.387689e-003 -1.254078e+000 -7.731180e+000 122 104 56
-1.507492e+000 -1.479194e+000 -7.049564e+000 92 87 53
-1.477118e+000 -1.521211e+000 -7.104966e+000 85 81 48
-8.317552e-001 -1.524743e+000 -7.450708e+000 109 99 63
-6.980594e-001 -1.498128e+000 -7.568869e+000 156 135 72
-3.502895e-001 -1.478342e+000 -7.695635e+000 83 69 33
-2.105093e+000 -2.163736e-001 -7.428388e+000 199 103 103
-2.228481e+000 -9.256906e-002 -7.634303e+000 178 85 92
-3.729569e-001 -1.111356e+000 -8.305797e+000 178 153 132
-1.161439e+000 -7.819564e-001 -8.375156e+000 123 101 93
-7.044425e-001 -7.479611e-001 -8.648117e+000 134 105 89
6.069222e-002 2.973584e-001 -1.030642e+001 165 147 130
-7.986990e-001 -6.877344e-001 -6.531554e+000 121 115 79
-5.309300e-001 -1.158739e+000 -7.256342e+000 139 126 84
-1.507604e+000 -1.318273e+000 -6.891490e+000 128 121 75
-1.488614e+000 -1.366613e+000 -6.931621e+000 139 127 81
-5.260358e+000 2.666608e+001 -1.567533e+001 189 162 155
-1.149436e+000 -1.527979e+000 -7.310555e+000 134 121 68
1.011138e+000 -1.425455e+000 -8.574753e+000 155 137 123
-1.337031e-001 -1.161167e+000 -8.343477e+000 148 133 117
5.864414e-001 -4.640680e-001 -9.466200e+000 63 50 41
-8.505377e+000 3.016760e+001 -2.070026e+001 207 173 174
-1.472715e+000 -6.168858e-001 -8.413971e+000 181 149 137
-9.557326e-001 -5.242703e-001 -8.787798e+000 120 96 87
-1.026118e+000 -4.613101e-001 -8.835671e+000 118 101 95
-1.028612e+000 -3.928630e-001 -8.943970e+000 182 148 124
-1.245220e+000 -2.256041e-001 -9.035751e+000 178 150 128
-7.455059e+000 2.391844e+001 -2.074324e+001 207 174 165
1.513663e+000 -1.272456e-001 -7.436290e+000 97 95 82
-7.439615e-001 -7.255992e-001 -6.583795e+000 128 125 85
-1.116490e+000 -1.135264e+000 -6.880593e+000 159 141 91
-1.973796e+000 7.891632e-001 -7.149501e+000 118 123 118
-4.946430e+000 2.689741e+001 -1.583118e+001 122 91 86
-1.619868e+000 -1.454871e+000 -6.954472e+000 88 82 50
6.323121e-001 -1.437911e+000 -8.251588e+000 109 104 62
8.663428e-001 -1.370738e+000 -8.386802e+000 94 95 63
-1.444512e+000 -1.496818e+000 -7.273508e+000 158 132 99
-2.347609e+000 3.636664e-002 -7.937904e+000 195 104 112
-7.597870e+000 2.854954e+001 -1.966919e+001 214 174 168
-8.285307e+000 2.921135e+001 -2.075468e+001 113 121 127
-7.496259e+000 2.516546e+001 -2.001466e+001 137 98 91
-2.156579e+000 -1.422516e-001 -8.668178e+000 151 126 95
4.242834e-001 -6.386647e-001 -7.265364e+000 112 102 65
-4.567042e+000 2.960087e+001 -1.529881e+001 130 115 112
-5.272937e+000 2.558644e+001 -1.598241e+001 145 112 103
4.137935e-001 -7.058560e-001 -9.399970e+000 153 136 120
-8.488070e+000 2.631122e+001 -2.018397e+001 191 163 159
-8.951328e-001 -1.508151e+000 -7.387280e+000 61 54 48
-7.211111e+000 2.501358e+001 -2.151032e+001 91 57 50
-1.084988e+000 -6.551239e-001 -6.391751e+000 87 90 82
-5.094394e+000 2.959443e+001 -1.511077e+001 92 76 77
-5.522761e+000 2.641408e+001 -1.557890e+001 179 148 143
4.935749e-001 -4.228286e-001 -9.660635e+000 156 141 122
-1.081568e+001 3.350432e+001 -1.993167e+001 54 49 55
1.790797e+000 -1.076602e-001 -7.815546e+000 171 165 152
-5.383360e+000 2.806810e+001 -1.546469e+001 185 156 150
-5.290292e+000 2.722541e+001 -1.520843e+001 185 156 150
-6.536487e+000 9.411006e+000 -1.247236e+001 45 36 42
-1.235173e+000 -1.627055e-001 -6.305222e+000 82 82 66
3.288224e-001 -3.305492e-001 -6.908072e+000 142 133 79
-1.017758e+000 -6.600297e-001 -6.412315e+000 89 87 72
-1.157265e+000 -1.177120e+000 -6.899257e+000 88 75 49
-1.282203e+000 -1.229849e+000 -6.881387e+000 141 124 78
-9.090203e-001 -4.651284e-001 -6.273894e+000 89 83 69
-1.930005e-001 -4.114460e-001 -6.673695e+000 146 132 87
1.278115e+000 -1.594270e-001 -7.299005e+000 75 81 58
-2.029946e-001 -5.876737e-001 -6.853762e+000 155 141 96
5.860337e-001 -5.443374e-001 -7.246582e+000 131 127 81
5.860337e-001 -5.443374e-001 -7.246582e+000 131 127 81
7.773529e-001 -4.953597e-001 -7.277320e+000 105 113 75
7.892378e-001 -4.710233e-001 -7.288134e+000 105 113 75
-9.966780e-001 -8.119313e-001 -6.543584e+000 82 80 67
-9.140349e-001 -8.094184e-001 -6.607044e+000 150 138 99
9.518859e-001 -6.735249e-001 -7.594775e+000 93 101 72
-3.053462e-001 -8.651467e-001 -7.068290e+000 155 139 103
-9.835471e-001 -1.144491e+000 -6.974095e+000 148 133 94
8.579221e-001 -1.215732e+000 -8.118658e+000 89 92 63
-1.887330e-001 -1.016631e+000 -8.529554e+000 150 139 117
8.471941e-001 -3.759065e-001 -7.222261e+000 75 79 56
1.356109e+000 -3.655112e-001 -7.494809e+000 98 102 75
1.320579e+000 -3.687153e-001 -7.505707e+000 69 73 56
-2.641880e-002 -7.312125e-001 -7.098463e+000 150 134 92
-5.980696e-001 -9.302437e-001 -6.978655e+000 109 93 68
6.351338e-001 -1.116325e+000 -7.878305e+000 65 63 32
5.470291e-001 -1.328274e+000 -8.069499e+000 71 67 40
-4.807577e-001 -4.855758e-001 -6.604447e+000 66 59 43
3.256940e-001 -5.132933e-001 -7.072278e+000 100 87 49
-4.347897e+000 2.775408e+001 -1.511804e+001 130 115 110
3.108921e-001 -8.667377e-001 -7.410770e+000 96 83 48
-8.648606e-001 -1.217871e+000 -7.090785e+000 103 89 63
-9.864129e-001 -1.515134e+000 -7.359201e+000 91 80 50
1.361032e-001 -1.464105e+000 -7.989445e+000 141 125 66
-5.804010e-002 -1.422489e+000 -7.996369e+000 111 106 74
1.834063e-001 -4.432163e-001 -6.940799e+000 133 119 80
5.136552e-001 2.537612e-001 -1.062011e+001 185 169 154
-2.850603e+001 1.518901e+001 -6.685202e+001 168 161 168
-3.440342e+001 3.521191e+001 -7.512055e+001 203 198 204
-1.979601e+001 4.094849e+000 -4.732330e+001 240 49 90
-1.787869e+001 3.066180e+001 -2.844749e+001 248 247 252
-7.262351e+000 2.676812e+001 -2.003636e+001 137 109 106
-1.893875e+001 5.015627e+001 -3.358980e+001 29 27 30
-4.716053e+000 2.781539e+001 -1.612801e+001 161 142 138
-5.518738e+000 2.604039e+001 -1.655499e+001 139 115 103
-5.518738e+000 2.604039e+001 -1.655499e+001 139 115 103
-1.866256e+001 4.737189e+001 -3.136089e+001 117 104 111
-8.802007e+000 2.802336e+001 -2.507906e+001 215 186 178
-1.789178e+001 3.287116e+001 -2.802481e+001 147 127 126
-8.440971e-001 -1.424623e+000 -7.663132e+000 119 94 63
-1.273820e+000 -1.296858e+000 -7.624982e+000 131 99 62
-1.172318e+000 -1.272025e+000 -7.711276e+000 176 137 90
-7.013626e-001 -1.390149e+000 -7.778585e+000 143 121 81
-3.695217e-001 -9.400747e-001 -8.559181e+000 170 149 121
-1.848465e-001 -4.146437e-001 -9.309447e+000 135 101 71
-7.683762e-001 -7.007648e-001 -6.554168e+000 145 137 95
6.363131e-001 -4.823632e-001 -7.216381e+000 88 85 48
3.360697e-001 -9.816967e-001 -7.569681e+000 91 79 48
6.131434e-001 -9.567329e-001 -7.698953e+000 122 114 75
-3.307784e-001 -1.136053e+000 -7.333814e+000 99 86 52
-2.097580e-001 -1.138602e+000 -7.396552e+000 95 82 47
-2.243507e-001 -1.171917e+000 -7.438296e+000 95 82 50
9.287822e-001 -1.044827e+000 -7.972084e+000 98 102 74
2.826816e-001 -1.338080e+000 -7.911826e+000 142 131 70
4.782787e-001 -1.357482e+000 -8.060774e+000 80 75 46
7.395009e-001 -1.298101e+000 -8.148039e+000 65 60 40
7.994634e-001 -1.371845e+000 -8.231899e+000 101 99 74
-1.027482e+000 -1.497632e+000 -7.335588e+000 98 88 52
3.930811e-001 -1.426058e+000 -8.061135e+000 75 68 39
-1.367888e+000 -1.325622e+000 -7.548983e+000 166 131 95
-2.376024e-001 -1.135656e+000 -8.324655e+000 166 147 124
-8.887778e-001 -8.173339e-001 -8.467950e+000 133 105 94
-5.898341e-001 2.435346e+001 -8.537008e+000 149 136 128
-8.699797e-001 2.275386e+001 -8.650315e+000 110 95 92
-3.785354e-001 -6.728767e-001 -6.825902e+000 108 93 62
-1.855072e-001 -8.858597e-001 -7.177967e+000 117 102 65
-2.126941e-002 -1.164196e+000 -7.529096e+000 135 122 69
4.243659e-001 -1.060025e+000 -7.697377e+000 82 74 39
-6.987185e-001 -1.315245e+000 -7.340997e+000 101 85 58
-2.561234e-001 -1.382532e+000 -7.648064e+000 88 76 53
5.068155e-001 -1.301440e+000 -8.038312e+000 80 73 47
9.024969e-001 -1.342125e+000 -8.264015e+000 55 57 36
3.878851e-001 -1.434859e+000 -8.085318e+000 93 85 55
-6.223231e+000 2.694461e+001 -1.687783e+001 175 134 128
-1.393838e-001 -1.223111e+000 -8.247153e+000 103 101 77
-1.783997e+000 -9.143402e-001 -7.850812e+000 179 143 106
-1.049091e+000 -1.108222e+000 -6.893019e+000 162 143 100
-4.248278e+000 2.617297e+001 -1.471641e+001 135 119 112
9.301423e-001 -1.411962e+000 -8.338401e+000 66 67 51
-7.753249e+000 3.045892e+001 -1.965900e+001 161 132 129
-2.191047e+000 -1.605331e-001 -7.631607e+000 230 188 190
-1.722785e+000 -9.681419e-001 -7.825333e+000 130 114 89
-1.253522e+000 2.482325e+001 -9.824255e+000 84 74 67
-4.608652e+000 2.519180e+001 -1.632394e+001 110 81 77
-4.164027e+000 2.587214e+001 -1.504605e+001 101 84 76
6.085189e-001 -6.852088e-001 -9.396837e+000 158 142 126
-3.642598e-001 -4.876147e-001 -6.636175e+000 149 133 89
6.178213e-001 -3.583145e-001 -7.064644e+000 86 84 59
-2.044483e-001 -5.905895e-001 -6.852382e+000 151 139 88
1.627763e-001 -5.397434e-001 -7.006675e+000 154 137 89
7.560242e-001 -3.866055e-001 -7.200751e+000 115 118 87
-1.600787e-001 -6.097412e-001 -6.941145e+000 158 140 100
5.311843e-001 -5.289408e-001 -7.197717e+000 132 127 83
5.176339e-001 -5.730713e-001 -7.233338e+000 135 127 83
1.094917e+000 -5.650729e-001 -7.518227e+000 94 98 75
-5.589735e-001 -7.645691e-001 -6.826390e+000 139 130 93
-1.998746e-001 -7.192049e-001 -6.980710e+000 155 139 103
5.688722e-001 -7.517604e-001 -7.441329e+000 136 125 84
5.445618e-002 -8.349006e-001 -7.246422e+000 154 135 93
3.341565e-001 -8.244945e-001 -7.371093e+000 83 70 35
5.740326e-001 -8.879477e-001 -7.544283e+000 121 113 76
-3.804982e-001 -1.062212e+000 -7.231210e+000 148 131 79
3.572251e-001 -1.001989e+000 -7.584647e+000 137 125 73
3.557786e-001 -1.005809e+000 -7.583454e+000 137 125 73
6.691184e-001 -9.427786e-001 -7.658970e+000 112 108 73
-1.251430e+000 -1.191697e+000 -6.920669e+000 136 124 86
-4.951709e-001 -1.160185e+000 -7.252124e+000 91 75 48
-2.323805e-001 -1.138636e+000 -7.420756e+000 142 127 82
5.205737e-001 -1.028537e+000 -7.677550e+000 122 115 69
5.205737e-001 -1.028537e+000 -7.677550e+000 122 115 69
5.064310e-001 -1.065087e+000 -7.718512e+000 129 118 70
-1.043048e+000 -1.267118e+000 -7.097801e+000 131 122 79
