ply
format ascii 1.0
element face 0
property list uchar int vertex_indices
element vertex 877
property float x
property float y
property float z
property uchar diffuse_red
property uchar diffuse_green
property uchar diffuse_blue
end_header
-2.710946e-001 -1.002529e+000 -6.924427e+000 150 130 90
-2.016958e-001 -9.800137e-001 -6.959016e+000 152 133 91
-2.164156e-001 -1.005684e+000 -6.975892e+000 147 132 90
-1.620421e-001 -1.022670e+000 -7.016562e+000 144 129 87
-1.773050e-001 -1.060362e+000 -7.044015e+000 141 127 82
-1.028443e-001 -1.007817e+000 -7.016751e+000 145 128 82
-8.231049e-002 -1.036562e+000 -7.065578e+000 90 73 44
-1.220222e-001 -1.065921e+000 -7.086656e+000 138 123 79
6.945993e-002 -9.887339e-001 -7.098169e+000 90 76 48
2.378931e-002 -1.032738e+000 -7.125456e+000 137 124 73
2.394005e-002 -1.032268e+000 -7.126365e+000 137 124 73
4.227458e-002 -1.054721e+000 -7.161164e+000 84 72 46
1.458520e-001 -9.832066e-001 -7.137081e+000 88 74 46
1.650230e-001 -1.002747e+000 -7.189359e+000 144 127 83
1.650230e-001 -1.002747e+000 -7.189359e+000 144 127 83
1.918229e-001 -1.014352e+000 -7.204518e+000 85 70 40
1.916903e-001 -1.014573e+000 -7.205165e+000 85 70 40
2.213107e-001 -1.013329e+000 -7.205470e+000 138 125 75
2.478706e-001 -1.021442e+000 -7.236525e+000 88 76 54
1.470805e-001 -1.048271e+000 -7.198240e+000 139 125 76
1.672528e-001 -1.076378e+000 -7.242834e+000 84 73 46
2.620776e-001 -9.780999e-001 -7.228899e+000 87 75 42
3.874993e-001 -1.002972e+000 -7.276174e+000 91 76 44
4.560716e-001 -1.033410e+000 -7.351618e+000 98 85 51
5.347580e-001 -9.997687e-001 -7.396288e+000 83 72 41
5.884450e-001 -1.015186e+000 -7.423957e+000 76 65 45
5.884450e-001 -1.015186e+000 -7.423957e+000 76 65 45
5.427992e-001 -1.055487e+000 -7.430278e+000 131 121 73
5.427497e-001 -1.055583e+000 -7.430194e+000 131 121 73
7.060592e-001 -9.626571e-001 -7.434864e+000 126 115 71
7.367229e-001 -9.622717e-001 -7.444499e+000 75 69 41
7.850056e-001 -9.873549e-001 -7.502365e+000 69 62 34
7.090628e-001 -1.036063e+000 -7.525072e+000 83 73 46
7.426903e-001 -1.029698e+000 -7.511527e+000 117 110 67
8.052457e-001 -1.036383e+000 -7.519654e+000 112 104 68
8.052457e-001 -1.036383e+000 -7.519654e+000 112 104 68
8.549565e-001 -9.972344e-001 -7.550469e+000 71 66 37
9.261207e-001 -9.758741e-001 -7.553793e+000 65 63 42
9.145150e-001 -1.005263e+000 -7.608441e+000 69 64 46
9.334878e-001 -1.034485e+000 -7.627547e+000 99 99 65
9.339975e-001 -1.032949e+000 -7.633172e+000 99 99 65
9.796901e-001 -9.953451e-001 -7.627557e+000 74 73 47
9.649235e-001 -1.027991e+000 -7.630125e+000 68 66 42
1.119255e+000 -9.636909e-001 -7.680901e+000 57 61 38
1.149973e+000 -1.041575e+000 -7.780006e+000 60 60 39
1.252470e+000 -1.018194e+000 -7.804225e+000 79 82 54
1.332675e+000 -1.057012e+000 -7.912586e+000 55 56 38
-8.163453e-001 -1.120133e+000 -6.752512e+000 138 123 90
-8.159537e-001 -1.120957e+000 -6.748507e+000 138 123 90
-7.743277e-001 -1.169689e+000 -6.849794e+000 144 125 93
-5.545610e-001 -1.139061e+000 -6.915888e+000 103 85 62
-4.996216e-001 -1.141617e+000 -6.943969e+000 91 77 51
-5.121877e-001 -1.173937e+000 -6.978069e+000 79 65 38
-5.121853e-001 -1.173092e+000 -6.979717e+000 79 65 38
-3.170927e-001 -1.129632e+000 -7.032311e+000 149 135 99
-3.418493e-001 -1.190867e+000 -7.093180e+000 147 134 91
-3.109430e-001 -1.183023e+000 -7.096532e+000 86 70 45
-2.209513e-001 -1.171499e+000 -7.136596e+000 141 124 83
-2.213145e-001 -1.172772e+000 -7.132201e+000 141 124 83
-1.972528e-001 -1.186605e+000 -7.164339e+000 96 83 51
-3.626260e-002 -1.111415e+000 -7.175385e+000 84 73 44
-6.244318e-002 -1.178679e+000 -7.237125e+000 77 67 42
-6.200938e-002 -1.177761e+000 -7.240506e+000 77 67 42
2.127829e-002 -1.103709e+000 -7.201268e+000 86 74 47
-2.309938e-002 -1.148556e+000 -7.230804e+000 115 103 61
8.020425e-003 -1.147659e+000 -7.213044e+000 87 75 49
1.356411e-001 -1.083468e+000 -7.246057e+000 140 127 80
1.355295e-001 -1.083711e+000 -7.246088e+000 140 127 80
1.422178e-001 -1.134998e+000 -7.309136e+000 84 71 52
2.082402e-001 -1.119823e+000 -7.320318e+000 84 72 44
1.241599e-001 -1.184066e+000 -7.330345e+000 85 74 47
3.285292e-001 -1.085631e+000 -7.361253e+000 137 123 77
3.586706e-001 -1.079760e+000 -7.360474e+000 89 76 49
3.378651e-001 -1.135113e+000 -7.397175e+000 85 76 48
4.731760e-001 -1.151456e+000 -7.500702e+000 87 80 51
5.042545e-001 -1.150201e+000 -7.505524e+000 133 120 75
5.248886e-001 -1.097517e+000 -7.491031e+000 135 119 71
5.574695e-001 -1.094400e+000 -7.492742e+000 81 74 43
5.419236e-001 -1.134271e+000 -7.525733e+000 88 82 48
5.418487e-001 -1.133859e+000 -7.525575e+000 88 82 48
5.940965e-001 -1.085678e+000 -7.478206e+000 127 119 70
5.668941e-001 -1.153349e+000 -7.563681e+000 127 113 73
6.825584e-001 -1.100724e+000 -7.549506e+000 80 69 41
7.177763e-001 -1.096036e+000 -7.584992e+000 115 105 70
7.189909e-001 -1.094435e+000 -7.589313e+000 115 105 70
6.765305e-001 -1.193496e+000 -7.652630e+000 125 114 69
7.333302e-001 -1.142238e+000 -7.645147e+000 76 68 46
9.065938e-001 -1.100921e+000 -7.677954e+000 103 99 67
8.553033e-001 -1.155569e+000 -7.719013e+000 72 65 46
8.553033e-001 -1.155569e+000 -7.719013e+000 72 65 46
8.433470e-001 -1.181631e+000 -7.757602e+000 67 61 39
8.711934e-001 -1.195900e+000 -7.802260e+000 98 98 64
9.422720e-001 -1.173827e+000 -7.784695e+000 106 103 68
1.101851e+000 -1.166191e+000 -7.898954e+000 66 68 43
-9.820394e-001 -1.208261e+000 -6.749121e+000 140 125 91
-9.916050e-001 -1.238756e+000 -6.777395e+000 144 128 93
-9.916507e-001 -1.238316e+000 -6.779351e+000 144 128 93
-5.423331e-001 -1.246185e+000 -7.044056e+000 81 65 42
-3.722307e-001 -1.192511e+000 -7.086075e+000 95 79 51
-3.065750e-001 -1.236106e+000 -7.155930e+000 142 127 86
-3.394938e-001 -1.252432e+000 -7.164964e+000 105 89 62
-3.141405e-001 -1.269407e+000 -7.193057e+000 137 124 79
-2.682679e-001 -1.224994e+000 -7.163383e+000 96 85 57
-2.469562e-001 -1.303754e+000 -7.263507e+000 97 81 55
-1.835511e-001 -1.276988e+000 -7.262683e+000 107 96 64
-8.306383e-002 -1.226197e+000 -7.276357e+000 81 67 39
-8.313009e-002 -1.226484e+000 -7.276012e+000 81 67 39
-9.804212e-002 -1.265821e+000 -7.305376e+000 91 77 48
-9.743816e-002 -1.267476e+000 -7.302066e+000 91 77 48
-3.808787e-002 -1.256758e+000 -7.321070e+000 94 83 55
-4.785848e-002 -1.286980e+000 -7.356870e+000 85 74 43
2.615913e-002 -1.283706e+000 -7.402957e+000 87 75 47
7.884043e-002 -1.293136e+000 -7.429485e+000 97 86 54
1.612743e-001 -1.236610e+000 -7.410694e+000 87 73 44
1.447266e-001 -1.277501e+000 -7.457029e+000 83 70 46
1.446658e-001 -1.278093e+000 -7.456315e+000 83 70 46
2.178468e-001 -1.291415e+000 -7.510723e+000 92 78 50
2.797785e-001 -1.209033e+000 -7.455554e+000 137 124 83
2.809897e-001 -1.204816e+000 -7.463729e+000 137 124 83
2.939152e-001 -1.235536e+000 -7.488094e+000 89 79 52
3.122913e-001 -1.202333e+000 -7.461589e+000 84 73 43
4.582791e-001 -1.265980e+000 -7.629028e+000 134 126 80
4.581773e-001 -1.266189e+000 -7.628539e+000 134 126 80
5.670421e-001 -1.225905e+000 -7.614155e+000 81 72 41
5.909382e-001 -1.249275e+000 -7.670631e+000 124 115 76
5.518913e-001 -1.264914e+000 -7.682594e+000 85 75 39
5.512160e-001 -1.265423e+000 -7.683134e+000 85 75 39
7.699875e-001 -1.207435e+000 -7.775923e+000 79 71 48
7.886919e-001 -1.242858e+000 -7.793735e+000 108 102 68
8.162166e-001 -1.326637e+000 -7.865721e+000 108 101 72
9.776376e-001 -1.244319e+000 -7.906103e+000 96 95 67
1.049211e+000 -1.306807e+000 -8.011231e+000 66 65 45
1.269864e+000 -1.223000e+000 -8.014771e+000 57 59 38
1.270607e+000 -1.220610e+000 -8.031642e+000 57 59 38
-1.218192e+000 -1.326220e+000 -6.754202e+000 130 120 85
-1.138681e+000 -1.295593e+000 -6.748984e+000 132 118 84
-1.243362e+000 -1.388829e+000 -6.802944e+000 133 119 83
-1.036591e+000 -1.350310e+000 -6.872480e+000 138 125 86
-8.450549e-001 -1.324124e+000 -6.970442e+000 133 123 89
-8.960579e-001 -1.393466e+000 -7.002855e+000 86 75 56
-8.705569e-001 -1.405564e+000 -7.026650e+000 128 118 90
-8.720897e-001 -1.404922e+000 -7.028333e+000 128 118 90
-6.013346e-001 -1.393698e+000 -7.163714e+000 87 75 49
-6.013379e-001 -1.390519e+000 -7.170394e+000 87 75 49
-4.334584e-001 -1.407748e+000 -7.266884e+000 138 125 83
-3.715913e-001 -1.400868e+000 -7.307776e+000 143 128 92
-3.715913e-001 -1.400868e+000 -7.307776e+000 143 128 92
-2.788109e-001 -1.380973e+000 -7.339560e+000 85 71 42
-2.865091e-001 -1.404477e+000 -7.364220e+000 94 80 51
-9.352314e-002 -1.329765e+000 -7.381714e+000 133 122 77
-9.395224e-002 -1.325969e+000 -7.396087e+000 133 122 77
-1.523257e-001 -1.400288e+000 -7.413124e+000 109 98 70
-1.526795e-001 -1.400866e+000 -7.412608e+000 109 98 70
5.145223e-002 -1.365451e+000 -7.477800e+000 87 73 46
7.959279e-002 -1.364421e+000 -7.536691e+000 137 124 81
9.896139e-002 -1.317197e+000 -7.470708e+000 141 130 87
9.893760e-002 -1.317044e+000 -7.470545e+000 141 130 87
1.119545e-001 -1.354152e+000 -7.516504e+000 91 80 49
1.875630e-001 -1.355774e+000 -7.587196e+000 86 77 46
3.228665e-001 -1.358437e+000 -7.646609e+000 84 76 44
4.146038e-001 -1.377885e+000 -7.666880e+000 137 129 82
3.600817e-001 -1.428830e+000 -7.744036e+000 83 74 41
4.308613e-001 -1.406865e+000 -7.745625e+000 93 85 55
5.414783e-001 -1.370927e+000 -7.777927e+000 127 118 77
5.027355e-001 -1.386469e+000 -7.775599e+000 92 82 56
5.247709e-001 -1.411497e+000 -7.809961e+000 129 117 75
5.243984e-001 -1.410052e+000 -7.816496e+000 129 117 75
6.545922e-001 -1.326262e+000 -7.802385e+000 79 72 43
7.854993e-001 -1.399800e+000 -7.946637e+000 109 102 74
9.470672e-001 -1.399612e+000 -8.049379e+000 73 71 46
9.352262e-001 -1.431589e+000 -8.073370e+000 70 65 45
1.206528e+000 -1.407993e+000 -8.172774e+000 56 57 39
-1.429857e+000 -1.469445e+000 -6.774219e+000 77 67 40
-1.253840e+000 -1.415361e+000 -6.832228e+000 134 122 87
-1.105159e+000 -1.435820e+000 -6.927239e+000 88 76 49
-9.411833e-001 -1.435506e+000 -7.019848e+000 128 118 89
-8.855539e-001 -1.525993e+000 -7.149257e+000 86 75 48
-4.548350e-001 -1.464982e+000 -7.331453e+000 133 118 85
-4.548350e-001 -1.464982e+000 -7.331453e+000 133 118 85
-3.632661e-001 -1.456836e+000 -7.363040e+000 99 87 60
-3.632748e-001 -1.458003e+000 -7.354938e+000 99 87 60
-3.415863e-001 -1.472835e+000 -7.385356e+000 136 124 85
-3.415863e-001 -1.472835e+000 -7.385356e+000 136 124 85
-3.125210e-001 -1.469533e+000 -7.393158e+000 97 82 53
-1.361663e-001 -1.433377e+000 -7.471354e+000 138 125 90
-1.797194e-001 -1.462582e+000 -7.469098e+000 99 85 58
-1.791592e-001 -1.466508e+000 -7.450101e+000 99 85 58
-1.446315e-001 -1.522362e+000 -7.564320e+000 82 68 41
-3.475741e-002 -1.436524e+000 -7.530596e+000 89 77 52
1.370991e-002 -1.455381e+000 -7.578805e+000 91 80 50
1.370205e-002 -1.455636e+000 -7.578316e+000 91 80 50
5.286646e-002 -1.498672e+000 -7.644866e+000 88 76 49
1.762221e-001 -1.520107e+000 -7.731135e+000 98 84 53
9.550183e-001 -1.464743e+000 -8.123966e+000 96 92 65
-1.565133e+000 -1.579685e+000 -6.819229e+000 121 108 76
-1.424852e+000 -1.527893e+000 -6.838513e+000 118 107 82
-1.017706e+000 -1.535682e+000 -7.092929e+000 81 74 46
-4.310424e-001 -1.557008e+000 -7.439529e+000 147 130 85
3.160805e-001 -2.004948e-001 -6.494873e+000 79 73 44
-1.133506e-001 -2.712732e-001 -6.312424e+000 84 73 41
2.596446e-001 -2.366392e-001 -6.498468e+000 120 110 57
3.428139e-001 -2.296068e-001 -6.517072e+000 112 108 60
4.679497e-001 -2.857907e-001 -6.647499e+000 128 119 64
6.811142e-001 -2.096979e-001 -6.689655e+000 108 110 66
8.062059e-001 -2.314375e-001 -6.786084e+000 62 62 36
8.501390e-001 -2.808097e-001 -6.850733e+000 72 72 44
8.754407e-001 -2.111414e-001 -6.779380e+000 66 69 42
9.332772e-001 -2.192817e-001 -6.836235e+000 57 61 36
8.851717e-001 -2.784308e-001 -6.832154e+000 99 103 65
9.640933e-001 -2.439198e-001 -6.881972e+000 98 104 68
1.000990e+000 -2.153449e-001 -6.876948e+000 71 77 52
1.405436e+000 -1.577486e-001 -7.042681e+000 65 69 46
-8.209512e-001 -4.380662e-001 -6.023027e+000 76 72 60
-7.796341e-001 -4.595018e-001 -6.061063e+000 78 74 57
-7.796341e-001 -4.595018e-001 -6.061063e+000 78 74 57
-1.564927e-002 -3.786124e-001 -6.455220e+000 87 76 43
2.325239e-002 -3.593538e-001 -6.464955e+000 133 119 70
2.232449e-001 -4.074487e-001 -6.611472e+000 82 72 47
8.967534e-001 -3.391482e-001 -6.929620e+000 66 66 40
8.968558e-001 -3.370226e-001 -6.933556e+000 66 66 40
9.454871e-001 -3.812081e-001 -6.989732e+000 62 65 36
1.218678e+000 -3.314736e-001 -7.144664e+000 57 63 40
1.361001e+000 -2.856553e-001 -7.154367e+000 64 67 46
1.351324e+000 -3.211570e-001 -7.174254e+000 59 67 44
1.351324e+000 -3.211570e-001 -7.174254e+000 59 67 44
1.647194e+000 -3.214007e-001 -7.337030e+000 81 86 64
-1.302606e+000 -7.712697e-001 -5.263463e+000 253 223 172
-1.223818e+000 -5.871856e-001 -5.965018e+000 80 78 66
-1.221253e+000 -5.887844e-001 -5.959840e+000 80 78 66
-1.051625e+000 -5.696904e-001 -6.028764e+000 75 72 62
1.964774e-001 -4.744028e-001 -6.690049e+000 80 64 50
7.924025e-001 -4.533239e-001 -6.975946e+000 85 82 53
7.917888e-001 -4.558780e-001 -6.969315e+000 85 82 53
8.670371e-001 -4.229460e-001 -6.985337e+000 78 76 51
8.674108e-001 -4.234126e-001 -6.985036e+000 78 76 51
1.241172e+000 -4.587310e-001 -7.229346e+000 58 62 36
-1.250360e+000 -6.321630e-001 -5.990364e+000 77 73 66
-1.049713e+000 -6.012396e-001 -6.058407e+000 127 118 111
-9.402472e-001 -5.924673e-001 -6.102349e+000 77 68 62
-3.007013e-001 -6.112851e-001 -6.519629e+000 75 61 36
-2.241179e-001 -6.142224e-001 -6.569187e+000 83 68 45
2.857034e-002 -5.763706e-001 -6.693509e+000 92 78 51
7.388696e-001 -6.121498e-001 -7.100693e+000 82 73 43
9.267511e-001 -5.399983e-001 -7.132596e+000 106 105 61
1.167904e+000 -4.907283e-001 -7.221124e+000 62 64 49
1.167904e+000 -4.907283e-001 -7.221124e+000 62 64 49
1.353143e+000 -4.860789e-001 -7.309658e+000 62 66 43
-3.448120e-001 -7.353216e-001 -6.619580e+000 90 73 55
-2.005504e-001 -7.493462e-001 -6.704932e+000 100 80 56
-3.308781e-002 -6.661311e-001 -6.723722e+000 158 136 95
-1.275550e-002 -6.954847e-001 -6.735872e+000 88 72 44
1.215265e-001 -6.843121e-001 -6.806914e+000 86 71 48
1.631978e-001 -7.350068e-001 -6.895289e+000 79 68 39
3.121806e-001 -6.962802e-001 -6.942917e+000 103 87 63
4.507085e-001 -6.925910e-001 -7.015083e+000 95 82 56
6.713241e-001 -6.227146e-001 -7.085516e+000 80 73 47
6.673267e-001 -6.308489e-001 -7.051981e+000 80 73 47
9.262960e-001 -6.244446e-001 -7.208607e+000 68 64 37
1.054552e+000 -6.265829e-001 -7.288170e+000 59 62 35
-1.183880e+000 -8.551715e-001 -6.236873e+000 70 69 57
-1.182571e+000 -8.565063e-001 -6.231094e+000 70 69 57
-1.021239e+000 -8.272695e-001 -6.280289e+000 137 135 122
-1.032868e+000 -8.812691e-001 -6.329879e+000 83 76 67
-1.032274e+000 -8.824959e-001 -6.325160e+000 83 76 67
-9.744130e-001 -8.737745e-001 -6.338599e+000 79 76 61
-9.745804e-001 -8.723767e-001 -6.340469e+000 79 76 61
-9.178434e-001 -8.523719e-001 -6.347445e+000 78 77 69
-9.177648e-001 -8.502249e-001 -6.352137e+000 78 77 69
-3.611794e-001 -7.818471e-001 -6.645932e+000 92 75 55
-2.122603e-001 -7.788043e-001 -6.724141e+000 102 85 64
-1.869719e-001 -8.527677e-001 -6.821506e+000 86 71 42
-6.738954e-002 -8.467010e-001 -6.876169e+000 99 86 52
9.196485e-002 -7.799934e-001 -6.914920e+000 96 82 53
9.174267e-002 -7.801985e-001 -6.914259e+000 96 82 53
2.791685e-001 -7.828867e-001 -7.005510e+000 88 76 53
6.630293e-001 -8.233021e-001 -7.258229e+000 87 77 47
6.985667e-001 -8.207920e-001 -7.233284e+000 132 118 69
7.376457e-001 -7.890256e-001 -7.265664e+000 92 85 53
8.829673e-001 -7.473403e-001 -7.317395e+000 73 67 42
1.196526e+000 -7.580886e-001 -7.494536e+000 62 64 42
-4.052528e-001 -8.979985e-001 -6.750027e+000 90 76 57
-4.052528e-001 -8.979985e-001 -6.750027e+000 90 76 57
-4.688289e-001 -9.202705e-001 -6.737282e+000 90 75 51
-3.223223e-001 -8.854839e-001 -6.768789e+000 81 64 46
-9.814841e-002 -9.267131e-001 -6.948404e+000 93 79 48
9.077138e-002 -9.275336e-001 -7.045191e+000 88 77 52
2.498687e-001 -8.567447e-001 -7.086723e+000 83 70 48
2.173910e-001 -9.521004e-001 -7.133470e+000 84 72 46
2.520771e-001 -9.479477e-001 -7.169171e+000 154 131 77
6.823625e-001 -9.364631e-001 -7.395956e+000 85 73 45
1.086916e+000 -9.476582e-001 -7.624131e+000 90 90 62
-7.645038e-001 -1.065119e+000 -6.717308e+000 80 63 43
-7.646078e-001 -1.065414e+000 -6.716071e+000 80 63 43
-7.010416e-001 -1.070606e+000 -6.753664e+000 90 74 51
-7.010416e-001 -1.070606e+000 -6.753664e+000 90 74 51
-2.313923e-001 -9.798747e-001 -6.926962e+000 105 90 57
-2.466447e-001 -1.016772e+000 -6.962166e+000 101 85 55
8.144928e-003 -9.916007e-001 -7.065615e+000 92 83 56
-1.041878e-002 -1.038432e+000 -7.105989e+000 89 74 48
5.074349e-001 -1.057797e+000 -7.424087e+000 87 76 46
6.045563e-001 -9.737946e-001 -7.385842e+000 73 64 41
6.613054e-001 -9.971041e-001 -7.364574e+000 78 71 44
5.817875e-001 -1.044228e+000 -7.456617e+000 79 69 41
8.505491e-001 -9.912382e-001 -7.484380e+000 81 76 48
8.505491e-001 -9.912382e-001 -7.484380e+000 81 76 48
1.020709e+000 -1.058251e+000 -7.701346e+000 69 69 48
1.209423e+000 -1.037321e+000 -7.784404e+000 65 67 44
-8.460393e-001 -1.104982e+000 -6.733781e+000 88 71 51
-8.727003e-001 -1.173920e+000 -6.782803e+000 94 79 55
-6.781362e-001 -1.171296e+000 -6.893422e+000 62 49 47
1.835190e-001 -1.176230e+000 -7.370391e+000 92 78 49
5.206714e-001 -1.178119e+000 -7.560913e+000 93 81 49
-1.050765e+000 -1.234037e+000 -6.735980e+000 141 127 90
-1.050765e+000 -1.234037e+000 -6.735980e+000 141 127 90
-1.015683e+000 -1.223107e+000 -6.749682e+000 92 78 52
-9.782742e-001 -1.290567e+000 -6.836966e+000 89 75 48
-7.120274e-001 -1.253729e+000 -6.963582e+000 65 52 43
-4.456661e-001 -1.193692e+000 -7.023226e+000 100 84 58
4.054775e-001 -1.312255e+000 -7.643675e+000 93 82 50
8.006869e-001 -1.277205e+000 -7.808016e+000 75 69 45
8.550344e-001 -1.309880e+000 -7.851591e+000 65 63 38
-1.311631e+000 -1.321080e+000 -6.688032e+000 76 63 47
-1.311503e+000 -1.320847e+000 -6.688333e+000 76 63 47
-1.291571e+000 -1.356263e+000 -6.732018e+000 129 116 81
-1.290907e+000 -1.357458e+000 -6.727892e+000 129 116 81
-1.184078e+000 -1.401463e+000 -6.855392e+000 123 112 78
-1.112239e+000 -1.302061e+000 -6.781083e+000 99 85 56
-1.083658e+000 -1.309184e+000 -6.812828e+000 134 121 86
-1.115433e+000 -1.386207e+000 -6.874608e+000 130 117 83
-1.000776e+000 -1.339600e+000 -6.877130e+000 91 77 50
-4.044592e-001 -1.406074e+000 -7.312391e+000 115 100 69
-1.214931e-001 -1.320794e+000 -7.360026e+000 94 79 56
4.530957e-001 -1.359525e+000 -7.733173e+000 83 74 43
-1.406857e+000 -1.486203e+000 -6.808823e+000 126 115 80
-1.200484e+000 -1.450658e+000 -6.888556e+000 130 118 81
-1.146189e+000 -1.454228e+000 -6.921308e+000 119 109 73
-1.037935e+000 -1.420722e+000 -6.954836e+000 104 92 66
-1.012498e+000 -1.448141e+000 -6.992741e+000 126 116 81
-9.634816e-001 -1.482811e+000 -7.050269e+000 124 115 82
-1.001615e+000 -1.508657e+000 -7.058332e+000 80 71 43
-9.984690e-001 -1.511541e+000 -7.040372e+000 80 71 43
-9.403678e-001 -1.504625e+000 -7.092866e+000 82 74 52
-8.998164e-001 -1.496722e+000 -7.113510e+000 127 115 73
-6.913840e-001 -1.493441e+000 -7.209831e+000 104 89 68
-5.339113e-001 -1.424531e+000 -7.248259e+000 97 83 54
-3.781429e-001 -1.488009e+000 -7.375264e+000 96 83 54
-3.395711e-001 -1.527333e+000 -7.470081e+000 98 85 53
-1.568401e+000 -1.558901e+000 -6.794933e+000 119 106 72
-1.507871e+000 -1.577539e+000 -6.853853e+000 122 111 81
-1.362251e+000 -1.542675e+000 -6.878463e+000 120 111 80
-1.375891e+000 -1.539783e+000 -6.927103e+000 120 111 80
-1.179432e+000 -1.533539e+000 -6.988346e+000 125 116 85
-9.173020e-001 -1.525729e+000 -7.125473e+000 133 123 85
-9.173447e-001 -1.525393e+000 -7.127275e+000 133 123 85
6.188287e-001 -1.695427e-001 -6.639757e+000 110 109 65
2.507415e-001 -2.895109e-001 -6.526038e+000 125 113 61
6.303947e-001 -2.485751e-001 -6.692422e+000 67 67 34
7.242901e-001 -2.700662e-001 -6.765663e+000 113 111 63
7.074589e-001 -3.207528e-001 -6.810503e+000 116 112 65
6.729666e-001 -4.254144e-001 -6.907983e+000 131 121 62
-6.080580e-001 -6.402177e-001 -6.303661e+000 116 107 76
1.255130e-001 -9.399350e-001 -7.088441e+000 126 110 69
-6.136324e-001 -9.986497e-001 -6.758030e+000 59 45 44
-5.538538e-001 -1.002757e+000 -6.759686e+000 59 48 41
1.035898e-001 -9.921589e-001 -7.157000e+000 119 106 64
6.995476e-002 -1.075808e+000 -7.183711e+000 87 75 35
-9.990537e-001 -1.181817e+000 -6.697730e+000 121 105 80
-8.940439e-001 -1.122677e+000 -6.693762e+000 143 124 85
-3.651495e-003 -1.178368e+000 -7.266817e+000 78 68 45
-2.809355e-003 -1.176828e+000 -7.271059e+000 78 68 45
2.323683e-001 -1.153456e+000 -7.350390e+000 101 89 51
3.748473e-001 -1.147451e+000 -7.437527e+000 127 114 70
-1.082562e+000 -1.221456e+000 -6.704715e+000 95 83 59
-1.081441e+000 -1.222900e+000 -6.700144e+000 95 83 59
-7.570156e-001 -1.215862e+000 -6.871523e+000 95 79 52
-1.403026e+000 -1.380588e+000 -6.708665e+000 98 87 59
-1.238944e+000 -1.293130e+000 -6.699629e+000 78 65 46
1.373476e+000 -1.397927e+000 -8.035244e+000 124 112 96
-1.353667e+000 -1.418033e+000 -6.784773e+000 92 80 57
-1.391760e+000 -1.451107e+000 -6.792357e+000 123 110 75
-1.320041e+000 -1.490049e+000 -6.861162e+000 81 75 51
-9.735495e-001 -1.438368e+000 -6.985875e+000 86 76 51
-8.451392e-001 -1.496911e+000 -7.136120e+000 132 119 81
-1.339596e+000 -1.556616e+000 -6.924319e+000 87 76 58
-1.339726e+000 -1.558145e+000 -6.922602e+000 87 76 58
-1.245383e+000 -1.532756e+000 -6.949796e+000 125 116 79
-1.047099e+000 -1.528369e+000 -7.054954e+000 128 115 80
-6.245103e-001 -1.535365e+000 -7.325052e+000 97 82 49
4.292024e-001 -1.906814e-001 -6.540134e+000 108 106 57
-9.371859e-002 -2.581076e-001 -6.307091e+000 110 99 59
4.004026e-001 -2.762110e-001 -6.596894e+000 117 110 56
5.209683e-001 -2.169781e-001 -6.630570e+000 115 111 63
-1.632137e-001 -4.421401e-001 -6.418624e+000 139 123 72
-5.227120e-001 -1.295799e+000 -7.101918e+000 111 95 61
-5.505895e-001 -1.366509e+000 -7.167209e+000 124 109 76
-5.520742e-001 -1.364511e+000 -7.177594e+000 124 109 76
5.606619e-001 -4.561882e-001 -6.835669e+000 141 125 66
7.725299e-002 -6.045790e-001 -6.696547e+000 152 131 86
7.725299e-002 -6.045790e-001 -6.696547e+000 152 131 86
-9.650085e-001 -8.118273e-001 -6.290952e+000 71 69 57
-1.715324e-001 -9.569174e-001 -6.928859e+000 149 130 89
-6.188909e-001 -1.308211e+000 -7.066697e+000 108 92 59
1.312560e+000 -1.576803e+000 -8.463553e+000 194 168 152
-1.595905e+000 -1.517219e+000 -6.761736e+000 85 73 50
-6.494569e-001 -9.780329e-001 -6.646194e+000 151 130 89
-7.499815e-001 -7.410244e-001 -6.329648e+000 128 113 70
-7.839486e-002 -1.821183e-001 -6.273125e+000 126 115 70
3.714454e-001 -8.261623e-001 -7.154222e+000 134 121 77
-7.769943e-001 -1.477317e+000 -7.279496e+000 62 58 49
-8.179897e-002 -2.317148e-001 -6.285782e+000 129 124 77
6.104755e-001 -1.549609e-001 -6.619023e+000 115 120 78
3.441117e-001 -2.894700e-001 -6.423811e+000 126 124 83
7.435572e-001 -1.572862e-001 -6.682502e+000 122 127 88
1.149909e+000 -1.872095e-001 -6.913196e+000 102 112 85
1.445017e+000 -1.373900e-001 -7.048793e+000 101 112 82
-1.085324e+000 -5.280071e-001 -5.965866e+000 74 77 66
-9.781244e-001 -5.028697e-001 -6.007509e+000 79 87 74
9.732731e-002 -3.811668e-001 -6.518038e+000 89 80 47
7.568065e-001 -3.236394e-001 -6.834554e+000 117 117 80
1.062713e+000 -2.120691e-001 -6.903911e+000 70 79 60
1.089049e+000 -2.323989e-001 -6.940235e+000 92 102 77
-8.656845e-001 -5.285287e-001 -6.096117e+000 161 151 141
-1.844202e-001 -4.475774e-001 -6.430937e+000 149 138 86
7.811400e-004 -5.046842e-001 -6.580390e+000 83 72 36
-1.213762e+000 -6.527034e-001 -6.032196e+000 81 84 72
-9.074005e-001 -6.475562e-001 -6.172180e+000 104 101 89
-8.761577e-001 -6.522896e-001 -6.200586e+000 114 114 104
-8.336220e-001 -6.609202e-001 -6.218001e+000 81 85 71
-8.335446e-001 -6.611724e-001 -6.217538e+000 81 85 71
-1.459771e-001 -5.925039e-001 -6.590146e+000 150 141 102
1.662977e-001 -5.242178e-001 -6.606950e+000 138 125 83
1.300352e+000 -3.928466e-001 -7.202791e+000 96 105 76
1.464368e+000 -4.298008e-001 -7.245258e+000 88 97 76
-1.226933e+000 -7.179187e-001 -6.087507e+000 77 77 65
-8.154779e-001 -7.483831e-001 -6.326645e+000 93 97 82
-2.430530e-001 -6.654065e-001 -6.610124e+000 94 83 52
-8.776079e-001 -7.945243e-001 -6.327975e+000 78 80 68
-3.028217e-001 -7.677804e-001 -6.685550e+000 135 123 97
6.725841e-001 -7.169893e-001 -7.147590e+000 137 125 76
-4.643507e-001 -8.384447e-001 -6.658441e+000 133 122 95
-2.942882e-001 -8.078759e-001 -6.716101e+000 99 88 66
-2.942882e-001 -8.078759e-001 -6.716101e+000 99 88 66
-1.016721e-001 -7.922417e-001 -6.810631e+000 94 83 55
1.250589e+000 -7.019199e-001 -7.485816e+000 89 96 68
-3.325571e-001 -9.121370e-001 -6.802569e+000 88 77 57
5.203331e-001 -8.639259e-001 -7.233157e+000 92 84 48
-7.217817e-002 -9.300599e-001 -6.974306e+000 135 124 88
-1.667505e-001 -9.877992e-001 -6.971653e+000 161 148 95
6.104006e-001 -1.044450e+000 -7.438976e+000 135 123 81
-9.305229e-001 -1.151451e+000 -6.722998e+000 129 117 81
-6.256562e-002 -1.178569e+000 -7.239714e+000 92 83 51
-1.486589e+000 -1.403234e+000 -6.680694e+000 85 76 43
-1.495465e+000 -1.450799e+000 -6.728562e+000 82 76 45
-1.518424e+000 -1.475444e+000 -6.747210e+000 78 73 48
9.789495e-001 -1.854514e-001 -5.916771e+000 176 178 173
-2.449315e-001 -2.039665e-001 -6.176960e+000 138 132 79
3.210196e-001 -1.780198e-001 -6.469560e+000 133 130 84
-7.947612e-001 -4.410953e-001 -6.041138e+000 131 133 106
2.610065e-001 -2.395501e-001 -6.490307e+000 137 131 83
2.528409e-001 -2.684754e-001 -6.507279e+000 137 130 83
3.588640e-001 -2.776649e-001 -6.571436e+000 106 102 59
3.588640e-001 -2.776649e-001 -6.571436e+000 106 102 59
7.400969e-001 -2.093778e-001 -6.729525e+000 80 84 57
9.061068e-001 -2.118859e-001 -6.804678e+000 110 119 88
9.061068e-001 -2.118859e-001 -6.804678e+000 110 119 88
1.319574e+000 -1.328500e-001 -7.051583e+000 91 105 81
1.602827e+000 -1.398321e-001 -7.118078e+000 77 89 65
-1.056978e+000 -5.045164e-001 -5.962004e+000 84 87 76
8.115514e-001 -3.106715e-001 -6.851057e+000 120 122 83
8.865785e-001 -2.754422e-001 -6.861752e+000 112 119 82
8.865785e-001 -2.754422e-001 -6.861752e+000 112 119 82
9.426729e-001 -2.988467e-001 -6.911686e+000 109 115 82
9.426729e-001 -2.988467e-001 -6.911686e+000 109 115 82
1.278906e+000 -2.543538e-001 -7.085218e+000 94 106 82
1.533525e+000 -2.350926e-001 -7.100484e+000 93 107 81
-1.147628e+000 -5.638120e-001 -5.983552e+000 79 82 71
-9.343708e-001 -5.537319e-001 -6.076302e+000 103 91 83
-9.095559e-001 -5.553448e-001 -6.088579e+000 164 155 142
-7.019970e-001 -5.292164e-001 -6.152732e+000 131 129 89
-4.172981e-001 -4.595213e-001 -6.337461e+000 64 53 47
-1.735582e-001 -4.660930e-001 -6.455123e+000 101 91 57
-7.836883e-002 -4.865925e-001 -6.523624e+000 152 140 96
7.426194e-002 -4.442492e-001 -6.566023e+000 103 97 63
3.532728e-001 -4.146549e-001 -6.692172e+000 91 78 52
3.844918e-001 -3.948959e-001 -6.696613e+000 132 126 74
8.599403e-001 -3.507751e-001 -6.906409e+000 114 118 81
1.055135e+000 -3.475865e-001 -7.023372e+000 101 111 81
1.040880e+000 -3.908823e-001 -7.045417e+000 106 113 85
1.098044e+000 -4.085170e-001 -7.080534e+000 97 107 80
1.197922e+000 -3.034922e-001 -7.066735e+000 98 108 81
1.223934e+000 -3.173257e-001 -7.063610e+000 67 74 56
1.267914e+000 -3.625471e-001 -7.154697e+000 70 78 59
1.499438e+000 -2.582219e-001 -7.190887e+000 69 79 55
1.481279e+000 -3.100459e-001 -7.219392e+000 66 78 54
1.515174e+000 -3.074632e-001 -7.237686e+000 84 96 72
1.444385e+000 -3.314547e-001 -7.226994e+000 81 93 69
1.381736e+000 -3.987722e-001 -7.164681e+000 67 79 55
1.442817e+000 -4.684680e-001 -7.093278e+000 85 97 73
1.558142e+000 -2.859781e-001 -7.271795e+000 68 77 60
1.516073e+000 -4.436555e-001 -7.123903e+000 87 97 76
-7.351169e-001 -5.778635e-001 -6.258054e+000 136 134 96
-9.509870e-002 -5.292670e-001 -6.562152e+000 147 135 95
-9.509870e-002 -5.292670e-001 -6.562152e+000 147 135 95
2.145367e-003 -5.180088e-001 -6.601947e+000 156 146 97
8.240198e-002 -5.168519e-001 -6.628020e+000 163 147 99
3.856818e-001 -4.818167e-001 -6.772649e+000 102 94 55
8.319377e-001 -4.577689e-001 -6.999180e+000 129 127 88
8.782303e-001 -4.951410e-001 -7.067902e+000 115 117 83
1.049878e+000 -4.399354e-001 -7.096654e+000 75 81 59
1.201346e+000 -4.822504e-001 -7.218080e+000 93 102 75
1.279780e+000 -4.339495e-001 -7.219880e+000 90 100 75
1.379366e+000 -4.265678e-001 -7.263499e+000 66 75 56
-6.653460e-002 -6.823870e-001 -6.714860e+000 91 82 53
1.529285e-001 -5.972201e-001 -6.754357e+000 95 84 54
7.918777e-001 -5.578630e-001 -7.047479e+000 132 127 82
8.362351e-001 -5.230882e-001 -7.062765e+000 74 76 44
1.005677e+000 -4.886834e-001 -7.173142e+000 105 112 71
9.746906e-001 -5.829861e-001 -7.190181e+000 110 113 80
9.767330e-001 -5.767818e-001 -7.195277e+000 110 113 80
1.134532e+000 -4.916936e-001 -7.197282e+000 95 104 75
1.272453e+000 -5.552129e-001 -7.345009e+000 65 75 48
1.390051e+000 -4.863868e-001 -7.324358e+000 86 96 71
-1.093527e+000 -8.442920e-001 -6.257607e+000 85 82 73
-1.051619e+000 -8.428909e-001 -6.279299e+000 83 83 71
-9.273380e-001 -8.339726e-001 -6.326069e+000 107 107 95
-3.361433e-001 -7.688469e-001 -6.662548e+000 133 119 91
-2.660521e-001 -7.337511e-001 -6.658481e+000 93 82 55
2.660205e-001 -7.422490e-001 -6.956865e+000 143 131 87
6.637338e-001 -6.609733e-001 -7.063853e+000 102 94 58
7.643844e-001 -6.300847e-001 -7.122138e+000 131 127 80
7.439316e-001 -6.896808e-001 -7.178294e+000 127 120 74
9.039488e-001 -6.034191e-001 -7.182859e+000 116 119 77
8.610661e-001 -6.241336e-001 -7.189904e+000 88 85 49
8.610661e-001 -6.241336e-001 -7.189904e+000 88 85 49
9.942198e-001 -6.181567e-001 -7.244069e+000 68 74 40
8.816594e-001 -6.898883e-001 -7.251636e+000 126 122 79
1.023004e+000 -7.938943e-001 -7.176589e+000 102 109 75
-1.851983e-001 -7.766935e-001 -6.758737e+000 143 130 96
-2.284215e-001 -8.244429e-001 -6.779647e+000 94 85 57
9.131900e-002 -7.727684e-001 -6.908390e+000 91 79 52
1.090714e-001 -8.033333e-001 -6.938917e+000 140 131 90
2.561802e-001 -7.650954e-001 -6.979247e+000 141 133 85
8.106984e-001 -7.747714e-001 -7.288509e+000 86 84 45
9.517452e-001 -7.315688e-001 -7.329774e+000 75 77 45
9.530043e-001 -7.300201e-001 -7.334568e+000 75 77 45
8.647243e-001 -7.856801e-001 -7.331206e+000 79 78 47
9.117094e-001 -7.599148e-001 -7.337984e+000 104 104 68
9.830514e-001 -7.375536e-001 -7.353634e+000 103 107 65
1.059987e+000 -7.017406e-001 -7.372031e+000 100 106 68
-5.147451e-001 -9.089878e-001 -6.699358e+000 65 55 45
8.901153e-004 -8.764188e-001 -6.950880e+000 134 125 86
2.604533e-001 -8.355734e-001 -7.051369e+000 118 108 71
6.377371e-001 -8.849789e-001 -7.298887e+000 100 93 49
7.642962e-001 -8.092077e-001 -7.313752e+000 120 115 70
-1.604368e-001 -9.588300e-001 -6.944993e+000 153 139 92
3.969239e-002 -9.923286e-001 -7.097098e+000 132 121 79
1.883044e-001 -9.499612e-001 -7.122510e+000 144 134 85
2.857821e-001 -9.900023e-001 -7.201598e+000 136 125 80
7.485928e-001 -9.280156e-001 -7.414143e+000 81 77 42
7.846046e-001 -9.245731e-001 -7.433154e+000 114 110 72
6.414013e-001 -1.127445e+000 -7.534106e+000 122 113 68
6.414013e-001 -1.127445e+000 -7.534106e+000 122 113 68
-1.893339e-001 -1.233219e+000 -7.230966e+000 134 125 82
1.211989e+000 -1.133861e+000 -7.916614e+000 78 83 61
-9.457561e-001 -1.372791e+000 -6.942391e+000 83 76 44
-6.000091e-001 -1.324085e+000 -7.095724e+000 136 127 96
-6.013438e-001 -1.322933e+000 -7.095259e+000 136 127 96
6.710592e-002 -1.328987e+000 -7.471780e+000 100 91 53
6.731485e-002 -1.328802e+000 -7.472423e+000 100 91 53
-1.661200e-001 -1.424647e+000 -7.452029e+000 92 81 50
3.888789e-001 -1.364304e+000 -7.680061e+000 83 77 43
-2.041578e-001 -1.530623e+000 -7.529996e+000 97 90 59
5.400862e-001 -1.522030e+000 -7.926813e+000 115 112 77
-3.105522e-001 -3.298032e-002 -6.080050e+000 153 137 111
-1.782608e-001 -2.290222e-001 -6.232073e+000 84 77 51
-1.780355e-001 -2.275167e-001 -6.232908e+000 84 77 51
-9.202711e-001 -4.248692e-001 -5.966597e+000 84 86 75
-8.684227e-001 -4.242108e-001 -5.998319e+000 80 86 83
-8.216326e-001 -4.387391e-001 -6.029790e+000 81 85 78
2.734339e-001 -2.017777e-001 -6.482351e+000 130 128 79
3.171007e-001 -2.049696e-001 -6.484758e+000 84 81 51
3.301905e-001 -2.728717e-001 -6.535871e+000 132 126 77
5.869323e-001 -2.588874e-001 -6.676394e+000 128 129 78
6.873474e-001 -1.758089e-001 -6.649882e+000 114 118 81
6.647504e-001 -2.640172e-001 -6.702035e+000 122 124 83
1.280010e+000 -1.437797e-001 -6.959711e+000 77 86 65
1.325085e+000 -1.880151e-001 -6.935036e+000 82 92 67
1.713833e+000 -1.280288e-001 -7.084340e+000 104 114 90
-1.140604e+000 -5.076328e-001 -5.923659e+000 79 80 72
-8.967544e-001 -4.815552e-001 -6.024869e+000 127 131 117
-7.817190e-001 -4.588110e-001 -6.066838e+000 85 88 79
2.465226e-002 -3.597211e-001 -6.461910e+000 148 138 87
-4.959256e-002 -4.026887e-001 -6.450727e+000 147 135 93
-4.959256e-002 -4.026887e-001 -6.450727e+000 147 135 93
1.445311e-001 -3.387213e-001 -6.521185e+000 145 136 80
4.615536e-001 -3.008769e-001 -6.635192e+000 137 134 80
8.602361e-001 -2.580526e-001 -6.815653e+000 70 76 50
8.398723e-001 -3.230615e-001 -6.877900e+000 87 87 59
9.210298e-001 -2.569719e-001 -6.868460e+000 81 86 63
9.670622e-001 -2.364635e-001 -6.887384e+000 102 109 80
1.000627e+000 -2.169872e-001 -6.876566e+000 79 87 63
1.051909e+000 -2.464429e-001 -6.921028e+000 69 78 57
1.051909e+000 -2.464429e-001 -6.921028e+000 69 78 57
1.157197e+000 -2.197223e-001 -6.941215e+000 96 106 79
1.122277e+000 -2.368076e-001 -6.960945e+000 70 79 58
1.124831e+000 -2.310898e-001 -6.965666e+000 70 79 58
1.110859e+000 -2.742535e-001 -6.977941e+000 76 83 66
1.117663e+000 -2.600072e-001 -6.996434e+000 76 83 66
1.148043e+000 -2.591569e-001 -6.984598e+000 96 108 80
1.312007e+000 -2.431745e-001 -7.048676e+000 75 84 64
1.515125e+000 -2.045277e-001 -7.142537e+000 68 76 61
-1.049249e+000 -6.026670e-001 -6.057205e+000 114 115 107
-1.071698e-001 -4.889575e-001 -6.503406e+000 97 86 56
3.359012e-001 -4.633639e-001 -6.721293e+000 100 91 60
8.241619e-001 -3.646114e-001 -6.909214e+000 78 81 51
8.449356e-001 -4.011345e-001 -6.961806e+000 114 116 81
8.433362e-001 -4.059099e-001 -6.954289e+000 114 116 81
9.568357e-001 -3.526246e-001 -6.958959e+000 77 82 58
8.880624e-001 -3.693327e-001 -6.964119e+000 81 84 55
1.089903e+000 -3.340006e-001 -7.025339e+000 63 72 50
1.078190e+000 -3.649856e-001 -6.991382e+000 63 72 50
1.008157e+000 -3.947830e-001 -7.034098e+000 77 85 54
1.293329e+000 -3.855765e-001 -7.162218e+000 98 109 76
1.618806e+000 -3.026181e-001 -7.303859e+000 68 77 59
-1.266296e+000 -6.774857e-001 -6.030762e+000 78 82 72
-3.818899e-001 -5.373715e-001 -6.410009e+000 59 52 48
-3.265916e-001 -5.964729e-001 -6.509992e+000 150 139 89
-5.118846e-002 -5.584182e-001 -6.600587e+000 157 144 99
5.554604e-003 -5.695637e-001 -6.641943e+000 144 135 92
3.351382e-001 -5.470206e-001 -6.810653e+000 143 131 78
5.122741e-001 -5.237803e-001 -6.863597e+000 101 88 55
7.346831e-001 -4.464684e-001 -6.922315e+000 85 83 52
1.019959e+000 -4.483616e-001 -7.087061e+000 99 106 72
1.019951e+000 -4.500826e-001 -7.089284e+000 99 106 72
1.221693e+000 -4.245272e-001 -7.201390e+000 93 104 75
1.241131e+000 -4.570993e-001 -7.229576e+000 56 66 41
1.303119e+000 -4.606891e-001 -7.242673e+000 69 79 53
-9.762702e-001 -7.486685e-001 -6.223860e+000 156 146 136
-4.360780e-001 -6.879150e-001 -6.522561e+000 55 48 45
-3.592191e-001 -6.957190e-001 -6.580189e+000 144 135 96
-3.592191e-001 -6.957190e-001 -6.580189e+000 144 135 96
-6.692204e-002 -6.049771e-001 -6.666414e+000 152 139 92
-6.692204e-002 -6.049771e-001 -6.666414e+000 152 139 92
-1.089655e-002 -6.156501e-001 -6.691394e+000 145 130 88
2.188029e-001 -5.789603e-001 -6.780435e+000 90 80 47
1.766437e-001 -6.276586e-001 -6.789665e+000 137 126 82
1.766437e-001 -6.276586e-001 -6.789665e+000 137 126 82
3.140946e-001 -6.048148e-001 -6.851119e+000 161 146 96
3.403596e-001 -6.192705e-001 -6.893698e+000 104 92 54
8.747553e-001 -5.871382e-001 -7.120939e+000 80 83 52
1.084273e+000 -5.422405e-001 -7.224021e+000 75 81 53
1.134253e+000 -5.780767e-001 -7.275352e+000 67 75 52
1.132805e+000 -5.809107e-001 -7.272901e+000 67 75 52
-1.133401e+000 -8.107360e-001 -6.216523e+000 133 135 124
-1.133401e+000 -8.107360e-001 -6.216523e+000 133 135 124
-1.068885e+000 -8.280325e-001 -6.255814e+000 132 131 119
-8.498735e-001 -8.418281e-001 -6.376451e+000 145 132 100
-1.756979e-001 -7.560887e-001 -6.742778e+000 157 144 109
7.959217e-001 -6.278807e-001 -7.152082e+000 86 85 47
8.845764e-001 -6.485497e-001 -7.206376e+000 125 125 77
8.112756e-001 -6.817316e-001 -7.208522e+000 135 128 83
9.729453e-001 -6.775893e-001 -7.280755e+000 80 84 54
9.728615e-001 -6.786363e-001 -7.283242e+000 80 84 54
1.498037e+000 -6.118882e-001 -7.545540e+000 61 65 44
-2.914033e-001 -7.840958e-001 -6.708026e+000 99 87 63
-2.914033e-001 -7.840958e-001 -6.708026e+000 99 87 63
7.018124e-002 -8.250496e-001 -6.933631e+000 98 89 60
1.428819e-001 -7.922754e-001 -6.938193e+000 80 71 42
7.685494e-001 -7.051793e-001 -7.198564e+000 77 73 38
7.684392e-001 -7.052774e-001 -7.198433e+000 77 73 38
7.956986e-001 -7.213831e-001 -7.236512e+000 127 122 76
7.578694e-001 -7.409048e-001 -7.231440e+000 87 82 49
8.255829e-001 -7.272656e-001 -7.269874e+000 79 77 38
8.236368e-001 -7.324806e-001 -7.264095e+000 79 77 38
9.893678e-001 -7.125323e-001 -7.325970e+000 113 115 74
8.866043e-001 -7.400450e-001 -7.324093e+000 72 75 50
1.271646e+000 -7.186397e-001 -7.504433e+000 62 70 46
-4.372968e-001 -9.112588e-001 -6.739555e+000 143 133 104
-3.228287e-001 -8.832368e-001 -6.774910e+000 71 60 41
-1.047606e-001 -8.683633e-001 -6.895192e+000 154 141 99
-1.402223e-001 -8.830473e-001 -6.866942e+000 84 70 43
-4.721693e-002 -8.655763e-001 -6.913266e+000 146 137 95
-1.303535e-001 -9.272621e-001 -6.923496e+000 150 137 94
-6.042891e-002 -9.039726e-001 -6.948638e+000 151 140 94
4.939687e-002 -8.837633e-001 -6.964406e+000 86 78 49
3.968836e-002 -9.097739e-001 -6.999541e+000 95 86 54
1.759967e-001 -9.042790e-001 -7.080636e+000 102 91 59
3.850354e-001 -8.690993e-001 -7.131334e+000 90 77 43
6.651260e-001 -8.171343e-001 -7.263514e+000 88 78 41
6.090549e-001 -8.824606e-001 -7.287567e+000 129 122 68
6.090549e-001 -8.824606e-001 -7.287567e+000 129 122 68
8.306270e-001 -7.936590e-001 -7.321059e+000 118 114 73
7.512887e-001 -8.517795e-001 -7.348222e+000 130 123 81
7.679743e-001 -8.782441e-001 -7.371232e+000 86 81 53
8.562746e-001 -8.159731e-001 -7.362970e+000 80 79 48
8.388077e-001 -8.571346e-001 -7.390587e+000 84 81 48
9.448328e-001 -8.408296e-001 -7.439752e+000 109 109 72
9.412561e-001 -8.501554e-001 -7.427098e+000 109 109 72
9.832943e-001 -8.174928e-001 -7.445721e+000 72 75 47
9.800089e-001 -8.273972e-001 -7.427746e+000 72 75 47
9.695008e-001 -8.555021e-001 -7.474855e+000 72 72 46
-5.415942e-001 -9.776064e-001 -6.735231e+000 67 54 46
-2.474084e-001 -9.501453e-001 -6.899133e+000 159 146 113
-1.242947e-001 -9.874768e-001 -6.989191e+000 106 93 59
5.889591e-001 -9.335774e-001 -7.332322e+000 138 127 73
7.107060e-001 -9.485317e-001 -7.455315e+000 115 108 63
8.953401e-001 -8.813240e-001 -7.453053e+000 75 71 44
8.961255e-001 -8.795730e-001 -7.455293e+000 75 71 44
9.702334e-001 -9.423952e-001 -7.561327e+000 105 106 72
1.006749e+000 -9.241661e-001 -7.550485e+000 68 71 48
-8.788196e-001 -1.103346e+000 -6.711751e+000 145 131 92
-5.492932e-001 -1.047861e+000 -6.856547e+000 141 132 103
-2.509177e-001 -1.108476e+000 -7.042336e+000 140 127 88
-1.592837e-001 -1.087249e+000 -7.059424e+000 98 85 53
1.672418e-001 -1.077079e+000 -7.242082e+000 105 94 60
2.309040e-001 -1.056007e+000 -7.253948e+000 97 85 50
5.705512e-001 -9.841456e-001 -7.391737e+000 133 124 78
7.095341e-001 -1.033409e+000 -7.529289e+000 85 79 44
1.073310e+000 -9.924271e-001 -7.662721e+000 94 100 66
1.199534e+000 -9.894142e-001 -7.654397e+000 80 89 60
-5.814190e-001 -1.145424e+000 -6.903590e+000 133 121 90
-5.246488e-001 -1.138164e+000 -6.917150e+000 146 133 101
-5.252388e-001 -1.134383e+000 -6.924494e+000 146 133 101
-3.172034e-001 -1.129538e+000 -7.032424e+000 142 129 95
2.138937e-002 -1.105715e+000 -7.199546e+000 91 81 46
2.162298e-002 -1.104282e+000 -7.200986e+000 91 81 46
3.518025e-001 -1.104101e+000 -7.386620e+000 82 73 40
5.928901e-001 -1.090678e+000 -7.471404e+000 129 123 75
5.798613e-001 -1.116308e+000 -7.520872e+000 129 122 69
6.587597e-001 -1.081787e+000 -7.517129e+000 121 114 74
8.632834e-001 -1.054660e+000 -7.624122e+000 107 106 68
7.353388e-001 -1.121732e+000 -7.605262e+000 86 78 49
9.358127e-001 -1.107438e+000 -7.699045e+000 72 72 46
1.210622e+000 -1.035369e+000 -7.797323e+000 59 66 43
-1.121557e+000 -1.249180e+000 -6.720488e+000 139 128 90
-8.081627e-001 -1.270441e+000 -6.918942e+000 125 114 82
-4.736003e-001 -1.214989e+000 -7.023358e+000 132 122 88
-3.261744e-001 -1.214312e+000 -7.124990e+000 103 93 57
8.487943e-002 -1.215503e+000 -7.362067e+000 142 135 93
9.429066e-001 -1.169973e+000 -7.777615e+000 94 98 67
-1.071206e+000 -1.354442e+000 -6.853621e+000 135 123 81
-1.014068e+000 -1.312056e+000 -6.848684e+000 142 130 90
-9.818330e-001 -1.316448e+000 -6.864565e+000 142 129 93
-9.816615e-001 -1.317737e+000 -6.863067e+000 142 129 93
-1.000620e+000 -1.340524e+000 -6.871516e+000 91 82 51
-1.047041e+000 -1.383469e+000 -6.897889e+000 126 118 82
-7.737730e-002 -1.283460e+000 -7.355110e+000 127 119 82
-7.737730e-002 -1.283460e+000 -7.355110e+000 127 119 82
9.777304e-002 -1.316947e+000 -7.467522e+000 133 124 82
5.862845e-001 -1.262574e+000 -7.645363e+000 125 119 75
5.690131e-001 -1.308790e+000 -7.738820e+000 125 117 80
8.357675e-001 -1.277519e+000 -7.849471e+000 99 103 67
-9.429367e-001 -1.431717e+000 -7.020887e+000 117 111 76
-1.126348e-002 -1.373377e+000 -7.471375e+000 88 78 50
9.435974e-002 -1.391345e+000 -7.548414e+000 93 87 53
-1.409191e+000 -1.543308e+000 -6.876869e+000 99 96 65
-1.999130e-001 -1.504706e+000 -7.509710e+000 90 84 52
1.933167e-001 -1.476871e+000 -7.707265e+000 96 85 53
1.978254e-001 -1.475538e+000 -7.722645e+000 96 85 53
4.615317e-001 -1.492502e+000 -7.882609e+000 86 81 49
-2.193854e+000 -8.206208e-001 -7.615192e+000 203 181 135
-1.083943e+000 -1.556047e+000 -7.066263e+000 91 86 54
-9.061832e-001 -1.575863e+000 -7.198684e+000 96 90 58
1.763227e-001 -1.515437e+000 -7.740416e+000 89 82 55
1.735485e-001 -1.517069e+000 -7.737841e+000 89 82 55
4.543584e-001 -2.565571e-001 -6.602365e+000 93 96 64
1.071665e-001 -3.499271e-001 -6.493626e+000 110 101 61
5.881700e-001 -2.733507e-001 -6.697579e+000 128 128 77
6.543566e-001 -2.778096e-001 -6.729650e+000 125 126 83
7.994703e-001 -2.425898e-001 -6.782426e+000 78 83 62
1.745515e+000 -7.762087e-002 -7.311851e+000 96 108 83
-4.187285e-001 -4.844900e-001 -6.343089e+000 63 55 49
-1.470601e-001 -4.841347e-001 -6.511319e+000 123 111 75
2.095659e-001 -4.469759e-001 -6.627375e+000 92 88 61
1.727904e+000 -1.562249e-001 -7.529276e+000 89 97 72
-2.962791e-001 -5.858749e-001 -6.493767e+000 95 90 61
-4.241907e-001 -6.552207e-001 -6.496392e+000 61 54 48
-1.978450e-001 -6.383921e-001 -6.606355e+000 125 115 79
-1.078772e-002 -6.890762e-001 -6.750127e+000 110 96 68
-2.530136e-001 -8.004623e-001 -6.723695e+000 121 110 80
1.893319e-001 -7.609258e-001 -6.946267e+000 128 115 79
1.686477e-001 -8.492042e-001 -6.942498e+000 129 117 77
1.445643e-001 -8.894704e-001 -7.045418e+000 124 115 72
1.460457e-001 -8.824734e-001 -7.057900e+000 124 115 72
2.573098e-001 -8.266499e-001 -7.094977e+000 94 83 54
5.900498e-001 -8.217999e-001 -7.223486e+000 88 78 48
7.860708e-001 -8.255711e-001 -7.338988e+000 77 77 43
-7.266971e-001 -1.055373e+000 -6.710623e+000 152 137 104
-4.339562e-001 -9.763451e-001 -6.817111e+000 85 75 50
-3.928399e-001 -1.072192e+000 -6.955436e+000 96 86 62
5.800607e-002 -1.021996e+000 -7.119790e+000 85 77 56
-8.388892e-001 -1.175848e+000 -6.797069e+000 146 134 93
-8.399459e-001 -1.169010e+000 -6.806996e+000 146 134 93
-7.115561e-001 -1.182012e+000 -6.863806e+000 143 130 89
5.920775e-002 -1.110420e+000 -7.233703e+000 120 112 71
-6.585191e-001 -1.269950e+000 -6.983054e+000 56 47 39
-5.227008e-001 -1.202776e+000 -7.007177e+000 90 81 57
-4.307585e-001 -1.264049e+000 -7.126574e+000 120 108 70
-4.009851e-004 -1.265164e+000 -7.358146e+000 124 116 77
-1.357336e+000 -1.352388e+000 -6.706735e+000 121 110 68
-1.326581e+000 -1.353723e+000 -6.722140e+000 78 73 44
-1.326581e+000 -1.353723e+000 -6.722140e+000 78 73 44
-1.250881e+000 -1.330828e+000 -6.733235e+000 82 72 45
-1.264300e+000 -1.367674e+000 -6.768484e+000 75 68 41
-1.264648e+000 -1.365350e+000 -6.770545e+000 75 68 41
-1.162671e+000 -1.343425e+000 -6.797736e+000 128 120 83
-9.709775e-001 -1.351860e+000 -6.918574e+000 139 127 87
-9.142912e-001 -1.351550e+000 -6.929917e+000 133 123 87
1.788741e-001 -1.275409e+000 -7.525675e+000 127 120 76
3.192166e-001 -1.279011e+000 -7.567602e+000 121 112 71
-1.382632e+000 -1.411696e+000 -6.746816e+000 121 113 76
-1.118145e+000 -1.389673e+000 -6.874478e+000 123 119 75
-5.755021e-001 -1.417257e+000 -7.207354e+000 129 119 84
-5.270872e-001 -1.399576e+000 -7.206845e+000 92 83 52
-5.644666e-002 -1.407240e+000 -7.486012e+000 111 106 66
1.424911e-001 -1.362964e+000 -7.576423e+000 127 120 78
-1.181433e+000 -1.532374e+000 -6.989679e+000 126 119 75
1.136297e-001 -1.433650e+000 -7.609551e+000 126 118 75
1.136297e-001 -1.433650e+000 -7.609551e+000 126 118 75
-1.568439e+000 -1.559899e+000 -6.794001e+000 114 111 73
-1.510446e+000 -1.577928e+000 -6.849836e+000 109 107 69
-6.252518e-001 -1.543341e+000 -7.322523e+000 125 116 80
-3.007280e-001 -9.649241e-002 -6.091428e+000 235 229 226
-3.007280e-001 -9.649241e-002 -6.091428e+000 235 229 226
-1.926416e-001 -1.788992e-001 -6.353651e+000 105 100 69
5.386126e-001 -1.794746e-001 -6.593826e+000 124 127 84
-7.639517e-001 -5.265836e-001 -6.132744e+000 100 108 92
4.688053e-001 -3.701903e-001 -6.811014e+000 148 139 84
4.837480e-001 -6.259535e-001 -6.764158e+000 96 85 53
-9.459870e-001 -7.265577e-001 -6.215848e+000 78 80 71
-2.737832e-001 -6.508261e-001 -6.579169e+000 128 119 78
-3.032982e-001 -7.223234e-001 -6.641932e+000 123 112 80
4.565069e-001 -6.430391e-001 -6.961276e+000 97 91 63
4.565069e-001 -6.430391e-001 -6.961276e+000 97 91 63
1.647059e+000 -7.002193e-001 -7.621935e+000 127 119 108
-4.523651e-001 -1.126833e+000 -6.933180e+000 126 113 79
-9.014349e-002 -1.137342e+000 -7.163853e+000 129 118 73
-1.206853e+000 -1.264392e+000 -6.658305e+000 134 122 78
-5.043774e-001 -1.265204e+000 -7.064145e+000 126 114 76
-8.441045e-001 -1.327990e+000 -6.952183e+000 133 125 88
-8.027793e-001 -1.409598e+000 -7.054182e+000 130 122 83
-1.245594e+000 -1.533019e+000 -6.949472e+000 125 118 72
-1.107702e+000 -1.534472e+000 -7.026813e+000 126 122 75
-1.051675e+000 -1.526407e+000 -7.060663e+000 128 124 83
-1.928842e+000 -1.227426e+000 -7.245341e+000 137 143 89
-9.783906e-002 -2.571606e-001 -6.305786e+000 115 111 72
4.238222e-001 -3.483776e-001 -6.683876e+000 142 135 80
-8.897824e-001 -5.451128e-001 -6.079696e+000 157 148 133
5.478029e-002 -6.636518e-001 -6.755026e+000 161 147 99
4.755991e-001 -5.979144e-001 -6.933989e+000 93 88 50
4.755991e-001 -5.979144e-001 -6.933989e+000 93 88 50
3.697378e-001 -8.863839e-001 -7.149801e+000 98 88 54
3.698377e-001 -8.863294e-001 -7.149911e+000 98 88 54
1.639108e+000 -7.790259e-001 -7.715887e+000 132 126 114
-3.246111e-001 -1.082878e+000 -6.982600e+000 103 90 45
-8.693061e-001 -1.301170e+000 -6.892802e+000 108 100 72
-1.319598e+000 -1.489579e+000 -6.862195e+000 92 86 60
-1.081186e+000 -1.492842e+000 -6.996139e+000 104 99 72
-9.056180e-001 -5.993362e-001 -6.161170e+000 160 146 137
-7.875110e-001 -6.719663e-001 -6.255794e+000 103 106 95
-3.624594e-001 -6.275960e-001 -6.500475e+000 144 134 85
5.721791e-001 -7.485890e-001 -7.155109e+000 106 98 58
-5.018290e-001 -1.025179e+000 -6.811144e+000 154 140 112
2.853564e-001 -9.229969e-001 -7.168883e+000 159 141 80
-5.661193e-001 -1.178735e+000 -6.950524e+000 147 136 100
-5.926942e-001 -1.230742e+000 -7.014583e+000 109 98 68
-6.850199e-001 -1.441218e+000 -7.207496e+000 91 81 42
-7.163510e-001 -1.517438e+000 -7.266306e+000 112 104 71
1.488015e-001 -3.079253e-001 -6.431070e+000 138 129 72
1.884203e+000 -1.386279e-001 -7.324822e+000 171 172 167
-1.487983e+000 -2.021207e-001 -6.404205e+000 176 186 113
-3.202573e-001 -5.189909e-001 -6.443708e+000 149 138 85
1.600903e+000 -7.204535e-001 -7.680857e+000 50 48 43
-6.189619e-001 -1.112207e+000 -6.830503e+000 56 53 48
-6.189619e-001 -1.112207e+000 -6.830503e+000 56 53 48
-6.459493e-001 -1.178412e+000 -6.896687e+000 60 51 44
-6.459493e-001 -1.178412e+000 -6.896687e+000 60 51 44
