ply
format ascii 1.0
element face 0
property list uchar int vertex_indices
element vertex 869
property float x
property float y
property float z
property uchar diffuse_red
property uchar diffuse_green
property uchar diffuse_blue
end_header
-4.778021e-001 -1.281762e+000 -7.443196e+000 135 127 78
3.149885e-001 -1.266579e+000 -7.861067e+000 72 65 33
8.228306e-001 -1.215611e+000 -8.096570e+000 94 99 68
-1.629452e+000 -1.335705e+000 -6.864750e+000 140 130 81
-1.524602e+000 -1.383616e+000 -6.968843e+000 81 73 47
-9.048128e-001 -1.331129e+000 -7.269027e+000 90 85 55
-5.482290e-001 -1.333228e+000 -7.462317e+000 138 130 83
-4.730982e-001 -1.332541e+000 -7.497428e+000 107 97 67
-4.829930e-001 -1.361641e+000 -7.522624e+000 109 100 68
-3.302986e-001 -1.357194e+000 -7.592477e+000 129 120 79
-1.736138e-001 -1.319313e+000 -7.639249e+000 104 98 62
-1.728150e-001 -1.312234e+000 -7.645803e+000 104 98 62
8.780483e-001 -1.316519e+000 -8.217589e+000 63 66 47
-1.369099e+000 -1.402525e+000 -7.080729e+000 77 72 43
-1.307777e+000 -1.414042e+000 -7.116351e+000 99 92 66
-1.176477e+000 -1.405733e+000 -7.179984e+000 117 112 77
-4.983012e-001 -1.400793e+000 -7.556651e+000 106 100 70
-4.007089e-001 -1.418203e+000 -7.629743e+000 104 98 64
3.957629e-001 -1.419457e+000 -8.070045e+000 117 114 73
-1.021195e+000 -1.463951e+000 -7.343361e+000 88 83 54
6.482470e-001 -1.029852e-001 -6.917550e+000 224 229 224
-9.285213e-002 -5.490642e-001 -6.873318e+000 165 149 99
-6.099133e-001 -7.235630e-001 -6.774851e+000 64 53 49
-1.541859e-001 -7.146829e-001 -7.011947e+000 156 145 109
1.183020e-001 -6.266819e-001 -7.085705e+000 161 150 97
7.205338e-001 -5.868087e-001 -7.364111e+000 119 122 83
7.205338e-001 -5.868087e-001 -7.364111e+000 119 122 83
1.139026e+000 -6.025764e-001 -7.646851e+000 58 69 47
-2.690809e-001 -7.533116e-001 -6.991066e+000 152 143 106
-7.356376e-003 -7.154089e-001 -7.093895e+000 80 74 49
-3.635627e-001 -8.552218e-001 -7.059104e+000 163 149 109
-4.129274e-001 -9.408310e-001 -7.100805e+000 105 90 76
-4.392747e-001 -9.960331e-001 -7.155359e+000 94 80 54
1.321644e-001 -9.855545e-001 -7.453182e+000 86 76 46
5.559030e-001 -9.355306e-001 -7.644913e+000 63 59 33
1.084437e+000 -8.984625e-001 -7.908337e+000 67 77 53
-6.988207e-001 -1.073368e+000 -7.087485e+000 59 50 40
1.191324e-001 -1.016002e+000 -7.487717e+000 92 84 48
4.075724e-001 -1.031397e+000 -7.664364e+000 108 104 68
4.075724e-001 -1.031397e+000 -7.664364e+000 108 104 68
-2.058158e-001 -1.095216e+000 -7.380629e+000 87 78 55
-6.987725e-002 -1.127532e+000 -7.495917e+000 146 137 80
-6.759602e-002 -1.120188e+000 -7.502680e+000 146 137 80
-9.555873e-001 -1.224350e+000 -7.114654e+000 92 81 55
-4.376896e-001 -1.196692e+000 -7.368677e+000 144 132 82
-4.964442e-001 -1.204180e+000 -7.355241e+000 150 138 93
-7.987912e-002 -1.151639e+000 -7.518021e+000 138 129 75
5.410973e-001 -1.134954e+000 -7.831290e+000 84 80 54
6.583818e-001 -1.128732e+000 -7.906677e+000 65 69 41
-7.743138e-001 -1.262007e+000 -7.252999e+000 55 47 45
-7.314439e-001 -1.273416e+000 -7.292553e+000 82 76 49
-4.652248e-001 -1.249165e+000 -7.407840e+000 144 132 80
-3.612027e-001 -1.250952e+000 -7.468440e+000 139 131 83
-4.298837e-001 -1.294748e+000 -7.485023e+000 130 121 79
2.126345e-001 -1.226523e+000 -7.765044e+000 71 62 31
2.925276e-001 -1.249814e+000 -7.817746e+000 145 135 76
2.925276e-001 -1.249814e+000 -7.817746e+000 145 135 76
3.883155e-001 -1.227771e+000 -7.855026e+000 63 60 29
6.860086e-001 -1.268905e+000 -8.066661e+000 101 107 73
6.860086e-001 -1.268905e+000 -8.066661e+000 101 107 73
7.709725e-001 -1.267764e+000 -8.098881e+000 73 75 53
9.498770e-001 -1.249292e+000 -8.175858e+000 58 63 41
-1.214688e+000 -1.339942e+000 -7.093004e+000 78 73 54
-1.120102e+000 -1.331900e+000 -7.136756e+000 121 116 79
-5.173865e-001 -1.310893e+000 -7.453691e+000 119 112 86
-4.980893e-001 -1.346981e+000 -7.503137e+000 141 132 82
-4.290760e-001 -1.351874e+000 -7.538483e+000 118 108 73
2.661775e-001 -1.318403e+000 -7.902568e+000 138 126 77
6.069817e-001 -1.318256e+000 -8.083974e+000 90 89 59
5.693297e-001 -1.338239e+000 -8.076738e+000 69 69 44
7.037192e-001 -1.300725e+000 -8.128099e+000 64 64 40
7.177353e-001 -1.336931e+000 -8.148369e+000 93 96 66
9.473384e-001 -1.278349e+000 -8.232478e+000 57 60 41
-1.144583e+000 -1.405032e+000 -7.193610e+000 83 76 56
-9.944695e-001 -1.389955e+000 -7.259612e+000 79 74 54
-3.037553e-001 -1.402936e+000 -7.671393e+000 136 129 85
-2.708698e-001 -1.387556e+000 -7.671842e+000 75 65 38
-2.708698e-001 -1.387556e+000 -7.671842e+000 75 65 38
1.140359e-001 -1.414317e+000 -7.902495e+000 108 104 69
3.351120e-001 -1.355028e+000 -7.987137e+000 87 82 53
4.098046e-001 -1.386251e+000 -8.030505e+000 117 113 77
5.144222e-001 -1.407714e+000 -8.124420e+000 105 104 72
1.243610e-002 -2.048686e+000 -9.718297e+000 213 201 189
-1.298762e+000 -7.406221e-001 -6.389158e+000 80 80 68
-1.257615e+000 -8.034529e-001 -6.467059e+000 76 79 66
5.841226e-002 -7.229742e-001 -7.136666e+000 95 89 57
2.394135e-001 -1.032637e+000 -7.572292e+000 98 89 58
4.751331e-001 -1.006562e+000 -7.650049e+000 104 99 70
4.588400e-002 -1.170849e+000 -7.607809e+000 104 94 60
1.357545e-001 -1.209158e+000 -7.701072e+000 127 116 71
-1.333261e+000 -1.306891e+000 -6.974694e+000 131 127 82
-8.240534e-001 -6.524516e-001 -6.533943e+000 135 130 87
-7.158874e-001 -1.114525e+000 -7.114542e+000 56 51 46
-1.465772e+000 -1.322370e+000 -6.955216e+000 130 122 78
1.304855e+000 -5.439138e-001 -7.659969e+000 79 79 65
-1.013511e+000 -6.889874e-001 -6.468038e+000 76 82 75
1.314955e+000 -6.504734e-001 -7.859049e+000 53 49 46
9.296108e-002 -1.757946e-001 -6.672542e+000 131 129 86
1.018294e+000 -1.557914e+000 -8.430027e+000 187 173 162
-7.029165e-001 -1.008832e+000 -7.022072e+000 103 81 68
-8.210031e-001 -5.683553e-001 -6.454708e+000 140 138 101
8.092843e-001 -3.247031e-001 -7.169285e+000 104 118 83
7.673123e-001 -8.467336e-001 -7.659126e+000 58 62 39
-1.269507e+000 -1.265115e+000 -6.995388e+000 128 120 81
-1.233875e+000 -1.400823e+000 -7.141891e+000 76 70 46
9.935470e-001 -3.771896e-001 -7.321870e+000 72 81 61
-3.645917e-001 -6.256110e-001 -6.816892e+000 99 88 59
8.416894e-001 -4.842770e-001 -7.295003e+000 68 76 55
8.899687e-001 -5.169479e-001 -7.406699e+000 64 72 50
-9.504561e-002 -8.136303e-001 -7.146254e+000 93 83 58
-3.397835e-001 -8.625930e-001 -7.080331e+000 80 68 44
-2.420442e-001 -8.857498e-001 -7.146317e+000 100 89 61
-5.886785e-001 -1.031101e+000 -7.118404e+000 97 85 61
-4.607912e-001 -1.048836e+000 -7.200295e+000 106 94 69
-3.127191e-001 -1.000094e+000 -7.235149e+000 150 137 82
-4.396646e-001 -1.065438e+000 -7.229825e+000 159 146 104
-4.408824e-001 -1.069072e+000 -7.225888e+000 159 146 104
1.647869e-001 -1.219530e+000 -7.723086e+000 94 85 54
-7.568637e-001 -1.387592e+000 -7.400921e+000 126 118 79
2.663057e-001 -1.317829e+000 -7.900218e+000 140 131 74
6.979501e-001 -2.258068e-001 -7.041820e+000 85 93 69
-1.185367e+000 -8.381769e-001 -6.536336e+000 79 81 70
7.529495e-001 -6.435951e-001 -7.429238e+000 112 118 75
-5.118645e-001 -8.342222e-001 -6.945153e+000 89 76 57
-5.118645e-001 -8.342222e-001 -6.945153e+000 89 76 57
-1.434077e+000 -1.330448e+000 -6.976584e+000 86 80 48
-1.434200e+000 -1.331651e+000 -6.975139e+000 86 80 48
-1.130583e+000 -1.298319e+000 -7.082927e+000 104 95 64
9.752439e-001 -1.304746e+000 -8.267478e+000 79 83 58
-1.413845e+000 -1.271673e+000 -6.910886e+000 95 86 53
-8.359916e-001 -5.701229e-001 -6.436226e+000 104 101 91
-2.897654e-001 -3.635897e-001 -6.617348e+000 162 147 87
1.965690e-001 -3.961798e-001 -6.914555e+000 149 137 84
7.935959e-001 -2.059138e-001 -7.090927e+000 112 123 89
-1.212816e+000 -6.341830e-001 -6.365300e+000 108 102 91
-2.266191e-001 -5.547836e-001 -6.835579e+000 116 101 65
6.657366e-001 -4.130002e-001 -7.184629e+000 124 126 88
1.109422e+000 -3.065735e-001 -7.357230e+000 107 112 89
-1.175540e+000 -7.772110e-001 -6.493512e+000 140 138 125
-4.378871e-001 -6.909663e-001 -6.827009e+000 157 139 104
-5.102118e-002 -6.376573e-001 -7.000390e+000 155 139 106
6.634906e-002 -5.554279e-001 -6.983453e+000 168 149 92
6.179982e-001 -5.520133e-001 -7.292013e+000 132 125 86
9.335940e-001 -4.823019e-001 -7.422175e+000 103 110 78
1.204256e+000 -4.394982e-001 -7.535931e+000 60 68 45
-5.762396e-001 -8.109409e-001 -6.881568e+000 146 131 98
-3.931206e-001 -7.051297e-001 -6.884827e+000 104 88 62
7.691164e-002 -7.430319e-001 -7.169530e+000 159 143 92
1.112183e+000 -5.924345e-001 -7.565050e+000 97 101 75
-1.654292e+000 7.867195e-002 -6.668681e+000 195 176 123
-5.846757e-001 -8.326778e-001 -6.902923e+000 153 137 105
-3.737102e-001 -8.364898e-001 -7.016103e+000 100 81 54
-4.018054e-001 -8.624253e-001 -7.035049e+000 160 143 109
-3.484358e-001 -8.282129e-001 -7.023320e+000 160 144 109
-3.484358e-001 -8.282129e-001 -7.023320e+000 160 144 109
6.277435e-001 -6.881747e-001 -7.441894e+000 140 130 81
5.888403e-001 -7.902872e-001 -7.500744e+000 133 126 81
-4.232274e-001 -9.072625e-001 -7.072413e+000 149 133 98
-2.484607e-001 -1.023520e+000 -7.290193e+000 112 95 65
-3.710923e-004 -1.010035e+000 -7.416679e+000 99 85 46
4.604073e-001 -9.782133e-001 -7.629357e+000 140 129 81
-3.001255e-001 -1.099557e+000 -7.352248e+000 150 133 89
-1.122322e-001 -1.118832e+000 -7.456233e+000 136 122 77
6.238058e-001 -1.144613e+000 -7.891635e+000 118 117 75
-2.148111e+000 1.065981e+000 -7.555302e+000 175 164 142
-1.347721e+000 -1.394121e+000 -7.060494e+000 94 85 53
-1.177030e+000 -1.408920e+000 -7.178387e+000 125 117 83
-1.206087e+000 -1.467225e+000 -7.216553e+000 84 77 44
3.001101e-001 -1.371513e+000 -7.966580e+000 127 118 74
4.479763e-001 -1.295837e+000 -7.974162e+000 123 116 72
6.590066e-001 -1.336758e+000 -8.130697e+000 109 104 76
-1.751961e+000 -1.488226e+000 -7.070579e+000 156 164 109
-1.572660e+000 -1.526508e+000 -7.055674e+000 118 114 69
-1.447769e+000 -1.499115e+000 -7.120340e+000 85 81 46
-6.643549e-001 -1.482582e+000 -7.550528e+000 105 88 41
8.135883e-001 -1.391728e+000 -8.270032e+000 95 98 71
9.535033e-001 -1.421198e+000 -8.360731e+000 78 69 54
-2.363120e-001 -1.320844e+000 -8.053795e+000 163 147 125
-2.386501e-001 -1.300352e+000 -8.086354e+000 111 92 75
-1.139443e-001 -1.164621e+000 -8.296732e+000 141 133 112
-1.202740e-001 -1.184502e+000 -8.282601e+000 141 133 112
-3.696683e-001 -3.595058e-001 -6.534558e+000 155 142 90
-5.164767e-001 -4.163177e-001 -6.614422e+000 77 63 54
9.455875e-001 -1.896943e-001 -7.179057e+000 79 82 60
8.681902e-001 -2.408545e-001 -7.161562e+000 82 85 64
1.120505e+000 -1.734498e-001 -7.232304e+000 86 90 67
1.336499e+000 -2.281565e-001 -7.402091e+000 78 86 62
-2.847501e-001 -5.864401e-001 -6.795394e+000 116 102 67
1.531147e-001 -5.219635e-001 -6.990613e+000 151 136 84
9.199879e-001 -2.804608e-001 -7.282068e+000 76 82 60
7.249829e-001 -4.796446e-001 -7.251246e+000 87 89 62
1.097864e+000 -2.589285e-001 -7.326571e+000 75 78 61
1.302818e+000 -3.245451e-001 -7.457082e+000 75 77 63
-1.187397e+000 -7.994228e-001 -6.469422e+000 140 138 123
-1.187397e+000 -7.994228e-001 -6.469422e+000 140 138 123
-5.399453e-001 -7.107023e-001 -6.805422e+000 153 139 104
-2.021524e-001 -6.335522e-001 -6.902722e+000 117 101 71
-2.415053e-001 -6.718332e-001 -6.940866e+000 168 152 111
-2.421413e-001 -6.733790e-001 -6.940173e+000 168 152 111
5.032138e-003 -6.157545e-001 -7.008485e+000 158 144 100
5.737625e-001 -5.135247e-001 -7.218416e+000 137 133 88
7.188659e-001 -5.253327e-001 -7.355858e+000 77 76 46
1.148396e+000 -4.294139e-001 -7.498288e+000 73 78 55
1.157624e+000 -4.268682e-001 -7.537084e+000 71 76 51
1.157624e+000 -4.268682e-001 -7.537084e+000 71 76 51
1.233247e+000 -4.876856e-001 -7.546236e+000 65 70 50
-1.061011e+000 -8.354995e-001 -6.605020e+000 149 140 112
-1.007129e+000 -8.223391e-001 -6.613842e+000 154 143 111
-6.237653e-001 -8.201416e-001 -6.841609e+000 102 86 63
-2.200076e-001 -7.598844e-001 -7.035660e+000 157 141 105
-2.199757e-001 -7.594592e-001 -7.035807e+000 157 141 105
-3.058744e-002 -7.796900e-001 -7.125411e+000 100 89 66
4.523802e-001 -6.074980e-001 -7.244010e+000 94 87 53
4.816517e-001 -6.144121e-001 -7.293817e+000 152 140 88
5.468079e-001 -5.938612e-001 -7.302652e+000 139 132 86
1.097842e+000 -5.643522e-001 -7.573832e+000 71 75 52
-3.595715e-001 -7.947134e-001 -6.990665e+000 111 95 68
3.824456e-001 -7.931260e-001 -7.393524e+000 95 82 46
6.211803e-001 -7.743255e-001 -7.520886e+000 88 83 43
7.603186e-001 -7.111427e-001 -7.533153e+000 68 68 42
9.380264e-001 -6.904189e-001 -7.605913e+000 73 77 50
-6.168904e-001 -9.103478e-001 -6.988417e+000 148 133 101
-6.397495e-001 -9.789196e-001 -7.028655e+000 150 136 101
-4.080607e-001 -9.876503e-001 -7.156078e+000 169 149 103
-4.080607e-001 -9.876503e-001 -7.156078e+000 169 149 103
-9.525606e-002 -9.555806e-001 -7.275753e+000 94 79 45
-1.840433e-002 -9.228900e-001 -7.321863e+000 98 86 48
-4.341437e-003 -9.602899e-001 -7.345295e+000 153 142 88
3.920512e-001 -8.536601e-001 -7.450273e+000 153 143 84
4.451110e-001 -8.678845e-001 -7.518109e+000 144 133 87
4.451110e-001 -8.678845e-001 -7.518109e+000 144 133 87
4.941763e-001 -8.860748e-001 -7.551024e+000 132 124 76
4.938574e-001 -8.861570e-001 -7.550858e+000 132 124 76
-6.808194e-001 -1.086906e+000 -7.106487e+000 144 131 98
-3.724051e-001 -1.021026e+000 -7.210685e+000 163 147 97
-1.618282e-001 -9.845339e-001 -7.292316e+000 95 82 51
-1.318759e-001 -9.803296e-001 -7.307059e+000 157 143 90
3.564138e-001 -9.517386e-001 -7.538326e+000 146 137 77
-6.951374e-001 -1.173854e+000 -7.206711e+000 99 84 58
-1.672917e-001 -1.069656e+000 -7.370898e+000 157 144 98
-1.633692e-001 -1.055654e+000 -7.378068e+000 157 144 98
3.204386e-001 -1.038355e+000 -7.628440e+000 152 135 84
-1.061281e+000 -1.255129e+000 -7.082622e+000 101 84 56
-9.456376e-002 -1.178375e+000 -7.574821e+000 145 133 82
-1.149074e-001 -1.230727e+000 -7.573074e+000 151 138 87
1.011700e-001 -1.132672e+000 -7.615028e+000 151 138 79
3.015688e-001 -1.149207e+000 -7.734989e+000 95 82 48
2.565344e-001 -1.197014e+000 -7.727784e+000 142 131 74
2.561849e-001 -1.200677e+000 -7.751429e+000 147 137 81
5.267694e-001 -1.104552e+000 -7.834520e+000 122 117 74
6.118140e-001 -1.103962e+000 -7.870566e+000 66 64 40
6.588530e-001 -1.126568e+000 -7.907534e+000 74 75 48
-1.543839e+000 -1.404366e+000 -6.966595e+000 127 120 76
-1.123340e+000 -1.356739e+000 -7.125181e+000 126 115 73
-1.095903e+000 -1.392636e+000 -7.191862e+000 100 89 57
-6.194181e-001 -1.282207e+000 -7.372617e+000 101 87 51
-1.661186e-001 -1.301188e+000 -7.578846e+000 96 85 53
3.542659e-001 -1.242721e+000 -7.846289e+000 146 133 78
2.771405e-001 -1.284604e+000 -7.889424e+000 135 126 72
3.383274e-001 -1.278650e+000 -7.906337e+000 139 129 80
8.645030e-001 -1.179300e+000 -8.075673e+000 72 74 50
-1.040087e+000 -1.423199e+000 -7.284672e+000 134 122 80
-7.589877e-001 -1.395726e+000 -7.396251e+000 137 123 86
-8.252510e-001 -1.441215e+000 -7.429421e+000 136 125 75
-7.110228e-001 -1.398123e+000 -7.423381e+000 139 125 86
-5.952044e-001 -1.392141e+000 -7.498348e+000 93 79 42
-5.261238e-001 -1.406147e+000 -7.538520e+000 141 129 80
-1.750865e-001 -1.377533e+000 -7.736473e+000 146 130 79
-1.502705e-001 -1.381588e+000 -7.745294e+000 92 78 43
-4.137803e-002 -1.408840e+000 -7.799245e+000 101 91 53
3.012530e-001 -1.369100e+000 -8.008181e+000 132 120 78
3.012530e-001 -1.369100e+000 -8.008181e+000 132 120 78
6.346985e-001 -1.326935e+000 -8.134563e+000 77 73 48
6.346985e-001 -1.326935e+000 -8.134563e+000 77 73 48
6.846117e-001 -1.346266e+000 -8.153097e+000 69 68 40
6.696689e-001 -1.320389e+000 -8.184211e+000 113 112 82
6.696689e-001 -1.320389e+000 -8.184211e+000 113 112 82
-1.703778e+000 -1.549683e+000 -7.056883e+000 120 107 63
-6.179506e-001 -1.449607e+000 -7.529519e+000 93 77 44
1.194486e-001 -1.403172e+000 -7.911296e+000 113 107 59
5.179312e-001 -1.401250e+000 -8.130323e+000 113 107 71
5.413130e-001 -1.411818e+000 -8.159436e+000 79 75 49
-1.326153e+000 -1.432569e+000 -7.397614e+000 124 99 69
-1.326153e+000 -1.432569e+000 -7.397614e+000 124 99 69
3.920365e-002 -1.404888e+000 -8.060126e+000 129 126 101
-1.174325e+000 -1.271165e+000 -7.674959e+000 132 101 67
-9.239219e-002 -1.236354e+000 -8.257088e+000 134 130 100
-2.195455e+000 -1.447508e-001 -7.714370e+000 228 182 183
-1.898783e+000 -8.466895e-001 -7.875795e+000 115 105 81
-6.114510e-001 -7.881176e-001 -8.600313e+000 151 117 90
-2.063538e+000 -5.989617e-001 -8.101422e+000 159 131 105
-1.209603e-001 4.829469e-001 -1.041485e+001 214 201 191
5.010880e-001 -2.858432e-001 -6.977721e+000 134 130 83
5.681793e-001 -2.726566e-001 -6.992917e+000 87 83 62
1.451545e+000 -1.250072e-001 -7.372504e+000 179 176 170
1.471690e+000 -8.747712e-002 -7.389347e+000 179 176 170
6.274314e-001 -4.318667e-001 -7.172541e+000 95 95 63
-2.629872e-001 -6.717077e-001 -6.875056e+000 106 90 57
-6.552386e-002 -7.232415e-001 -7.089881e+000 131 114 84
-6.552386e-002 -7.232415e-001 -7.089881e+000 131 114 84
6.152242e-001 -6.214877e-001 -7.362761e+000 98 92 61
5.998565e-001 -6.598991e-001 -7.345057e+000 98 92 61
5.248707e-001 -7.259190e-001 -7.442333e+000 97 86 56
5.572603e-001 -7.899838e-001 -7.493356e+000 87 77 51
-3.636696e-001 -9.331819e-001 -7.125908e+000 111 96 63
-2.417727e-001 -9.508160e-001 -7.211039e+000 153 138 83
-1.038993e+000 -1.088496e+000 -6.914960e+000 157 141 98
-4.428417e-001 -1.014557e+000 -7.143263e+000 101 84 63
2.184441e-002 -9.523609e-001 -7.385833e+000 99 87 59
1.774615e-002 -9.646063e-001 -7.380262e+000 99 87 59
6.820615e-001 -9.339827e-001 -7.712415e+000 77 75 52
-1.776984e+000 -2.272408e-001 -6.930008e+000 239 229 204
-1.184932e+000 -1.215450e+000 -6.976896e+000 153 139 100
-6.681748e-001 -1.178360e+000 -7.199351e+000 157 139 101
-6.681748e-001 -1.178360e+000 -7.199351e+000 157 139 101
-2.091678e-001 -1.104318e+000 -7.378153e+000 101 88 54
7.948628e-002 -1.116117e+000 -7.588356e+000 93 77 49
9.946500e-001 -1.106504e+000 -7.992211e+000 61 63 41
-3.544504e-001 -1.171681e+000 -7.382967e+000 101 89 52
-2.924691e-001 -1.144249e+000 -7.417619e+000 106 91 67
-1.845877e-001 -1.173810e+000 -7.490794e+000 95 83 49
-4.482386e-002 -1.190645e+000 -7.561155e+000 148 137 83
4.206278e-001 -1.132563e+000 -7.789242e+000 80 72 37
7.803503e-001 -1.100722e+000 -7.965085e+000 72 75 46
-1.401553e+000 -1.379348e+000 -7.033791e+000 88 80 51
-1.154154e+000 -1.350333e+000 -7.127975e+000 84 77 40
-6.409673e-001 -1.353937e+000 -7.405471e+000 98 85 52
-3.000653e-001 -1.331995e+000 -7.591523e+000 101 92 61
-3.000653e-001 -1.331995e+000 -7.591523e+000 101 92 61
1.470865e-002 -1.277625e+000 -7.694531e+000 100 86 58
5.321872e-001 -1.220525e+000 -7.952132e+000 121 115 73
7.606862e-001 -1.164505e+000 -8.029791e+000 65 67 44
-1.445171e+000 -1.428844e+000 -7.060403e+000 124 120 82
-1.110226e+000 -1.417065e+000 -7.217650e+000 93 83 48
-3.178627e-001 -1.374744e+000 -7.613861e+000 91 80 53
9.875921e-002 -1.376465e+000 -7.898077e+000 82 70 31
3.592769e-001 -1.291680e+000 -7.930883e+000 74 64 35
5.433140e-001 -1.388668e+000 -8.103423e+000 80 75 53
-6.079893e-001 -1.471400e+000 -7.557125e+000 157 137 78
-2.884330e-001 -1.430393e+000 -7.704836e+000 75 64 34
1.014255e+000 -1.324068e+000 -8.375253e+000 67 55 45
9.758569e-001 -1.406158e+000 -8.405307e+000 89 70 55
-2.134600e-001 -1.341685e+000 -8.052734e+000 166 150 125
-3.383809e-001 -1.142331e+000 -8.252504e+000 170 144 117
-2.647709e-001 -1.041954e+000 -8.417933e+000 113 106 78
-1.061248e-001 -1.194478e+000 -8.307937e+000 87 97 72
-2.940858e-001 -1.045587e+000 -8.419055e+000 118 109 83
-1.797310e-001 -1.074932e+000 -8.464892e+000 98 102 78
-1.336926e+000 -4.344907e-001 -8.699542e+000 171 143 131
-2.019236e+000 -4.952494e-002 -8.833312e+000 132 117 92
-1.000995e+000 -5.687096e-001 -6.387025e+000 105 98 86
4.866437e-001 -3.486425e-001 -7.072287e+000 153 143 81
-6.735457e-001 -8.888863e-001 -6.840932e+000 66 56 43
-7.741163e-001 -9.740171e-001 -6.944632e+000 103 90 63
-3.768357e-002 -8.904932e-001 -7.276001e+000 127 110 66
2.108185e-001 -9.782641e-001 -7.503915e+000 137 129 77
-1.227272e+000 -1.333654e+000 -7.051685e+000 137 126 81
-2.040135e-002 -1.270021e+000 -7.712146e+000 122 104 56
1.036019e-001 -1.267601e+000 -7.778485e+000 124 110 62
-1.387513e+000 -1.444548e+000 -7.094606e+000 133 126 80
-1.485109e+000 -1.529761e+000 -7.131491e+000 125 119 70
-1.306418e+000 -1.519362e+000 -7.217891e+000 130 125 67
-1.247606e+000 -1.494549e+000 -7.259307e+000 131 120 63
-1.075304e+000 -1.485108e+000 -7.348200e+000 133 121 61
1.096478e-001 -1.468081e+000 -7.902382e+000 92 81 48
1.222534e-002 -1.383816e+000 -8.090006e+000 68 86 67
-5.100373e-002 -1.333917e+000 -8.139123e+000 110 108 87
-2.728242e-001 -1.141250e+000 -8.308964e+000 169 146 128
-1.329139e+000 -7.730096e-001 -8.253905e+000 125 100 94
5.454174e-001 -6.252541e-001 -9.362301e+000 151 133 119
-1.160300e+000 -3.915541e-001 -8.846865e+000 122 102 94
-2.791308e+000 3.507408e-001 -8.944004e+000 144 132 89
-2.710543e+000 6.442361e+000 -1.502718e+001 175 158 150
-2.710543e+000 6.442361e+000 -1.502718e+001 175 158 150
-2.465704e-001 -1.825067e-001 -6.496253e+000 130 117 72
-1.815968e-001 -1.985920e-001 -6.526426e+000 129 116 78
-9.337031e-001 -5.179491e-001 -6.331800e+000 88 90 79
3.146923e-001 -2.555332e-001 -6.870274e+000 146 136 84
2.564085e-001 -4.368040e-001 -6.953921e+000 164 148 88
1.353099e+000 -4.705086e-001 -7.795764e+000 84 79 63
1.799899e-001 -1.086328e+000 -7.595564e+000 138 121 70
-1.318437e+000 -1.349730e+000 -7.011150e+000 84 76 47
-9.014071e-001 -1.296376e+000 -7.206133e+000 77 72 47
-1.190341e+000 -1.513467e+000 -7.282160e+000 139 128 70
3.152962e-001 -1.436600e+000 -8.081995e+000 132 120 68
-2.148600e+000 -2.321827e-001 -7.667194e+000 221 115 118
-4.738703e-001 -1.448679e-001 -6.310141e+000 136 116 79
-8.638273e-001 -6.642304e-001 -6.509832e+000 96 94 79
1.335632e+000 -6.589845e-001 -7.765681e+000 135 123 109
-1.380647e+000 -1.255695e+000 -6.878410e+000 145 129 78
-1.658929e+000 -1.472249e+000 -6.978130e+000 129 124 74
-1.276112e+000 -1.493515e+000 -7.195477e+000 93 87 55
-1.146717e+000 -1.487786e+000 -7.264530e+000 103 98 60
2.375570e-001 -1.443759e+000 -8.036892e+000 135 122 66
-3.977349e-001 -1.729117e-001 -6.359446e+000 225 212 208
1.391138e+000 -7.384038e-002 -7.355219e+000 92 97 77
-6.082936e-001 -9.624750e-001 -7.030481e+000 147 132 98
-9.730993e-001 -1.056557e+000 -6.913064e+000 161 143 97
-9.707591e-001 -1.367051e+000 -7.256631e+000 98 89 60
5.834065e-001 -6.141379e-001 -9.393285e+000 151 133 119
-2.896680e-002 -1.845015e-001 -6.630237e+000 148 135 84
2.929898e-001 -2.308196e-001 -6.788433e+000 137 133 94
3.453438e-001 -1.381150e+000 -8.022805e+000 92 87 50
-2.657718e-001 3.780226e-001 -1.030553e+001 232 223 214
3.461922e-001 -3.964885e-001 -7.029737e+000 158 146 82
-8.376505e-001 -9.154989e-001 -6.747443e+000 164 146 98
1.490001e+000 -1.119392e+000 -7.903473e+000 188 182 166
1.084560e+000 7.817702e-001 -8.964602e+000 122 116 75
-2.345087e+001 3.602956e+000 -4.708562e+001 203 35 68
-2.177918e+000 1.264646e+000 -7.705088e+000 162 145 138
-7.984634e+000 2.429447e+001 -1.963567e+001 166 143 137
-6.684643e+000 2.441617e+001 -2.055370e+001 99 79 72
-7.910345e+000 2.334972e+001 -2.109119e+001 219 194 187
-2.568141e+000 1.493471e-001 -8.690082e+000 233 213 186
-6.269348e+000 2.568450e+001 -1.755753e+001 188 148 146
-6.270697e+000 2.568561e+001 -1.755809e+001 188 148 146
-7.278480e+000 2.780870e+001 -1.966005e+001 191 156 152
-7.303791e+000 2.797320e+001 -1.973263e+001 191 156 152
-8.618423e+000 2.948838e+001 -2.048940e+001 94 122 133
-8.131597e+000 2.970120e+001 -2.050904e+001 172 140 134
-7.074722e+000 2.568440e+001 -2.030478e+001 134 109 102
-5.972643e+000 2.798177e+001 -1.654536e+001 134 106 105
-5.547284e+000 2.494788e+001 -1.765196e+001 187 149 140
-7.733919e+000 2.878563e+001 -2.018801e+001 209 171 168
-7.110980e+000 2.598977e+001 -1.966640e+001 137 109 106
-6.633734e+000 2.571770e+001 -2.038392e+001 124 106 96
-8.033379e+000 2.453600e+001 -1.975473e+001 164 137 131
-6.261507e+000 2.826025e+001 -1.623254e+001 96 81 85
-5.840918e+000 2.691537e+001 -1.653862e+001 180 156 152
-5.694245e+000 2.461364e+001 -1.705503e+001 173 137 129
-6.035703e+000 2.589304e+001 -1.906411e+001 140 116 104
-6.449258e+000 2.610697e+001 -1.937755e+001 188 161 154
-6.833039e+000 2.604893e+001 -2.015267e+001 174 155 148
-5.308123e+000 2.619082e+001 -1.618471e+001 139 112 101
-4.965241e+000 2.532024e+001 -1.706916e+001 144 115 103
-5.971479e+000 2.589631e+001 -1.843541e+001 217 175 171
-6.486118e+000 2.613399e+001 -1.986549e+001 81 68 62
-7.480469e+000 2.582305e+001 -1.970178e+001 203 177 173
-7.746050e+000 2.529026e+001 -1.977595e+001 137 108 100
-5.045861e+000 2.576483e+001 -1.641472e+001 183 156 149
-6.172106e+000 2.571092e+001 -1.729417e+001 212 178 176
-5.305550e+000 2.507817e+001 -1.776890e+001 94 68 60
-7.157482e+000 2.841811e+001 -1.686122e+001 199 168 163
-7.112239e+000 2.805961e+001 -1.672527e+001 199 168 163
-7.001056e+000 2.856739e+001 -1.791107e+001 86 91 100
-7.016286e+000 2.864167e+001 -1.793859e+001 86 91 100
-9.979370e+000 2.726181e+001 -2.463174e+001 144 127 128
-6.813204e+000 2.501150e+001 -2.046809e+001 105 80 73
-7.855871e+000 3.178153e+001 -2.113221e+001 207 173 168
-6.124388e+000 2.595089e+001 -1.872966e+001 184 150 144
-6.123343e+000 2.555161e+001 -1.771421e+001 213 180 176
-8.345526e+000 2.943322e+001 -2.036878e+001 197 175 169
-6.237905e+000 2.578436e+001 -2.026887e+001 200 186 177
-5.846855e+000 2.588098e+001 -1.956749e+001 212 194 190
-3.318118e-001 -3.752486e-001 -6.556134e+000 151 139 89
1.325820e-001 -3.637361e-001 -6.896522e+000 164 145 97
1.449706e+000 -6.063179e-002 -7.351655e+000 119 123 105
-9.608129e-001 -7.571418e-001 -6.458602e+000 104 102 89
-7.763055e-001 -6.126748e-001 -6.504200e+000 117 109 70
-1.474414e-001 -5.548296e-001 -6.871571e+000 159 144 103
5.600881e-001 -3.795134e-001 -7.076081e+000 136 129 83
6.990060e-001 -3.207186e-001 -7.142379e+000 118 124 86
1.021416e+000 -3.733030e-001 -7.332382e+000 101 107 79
-9.190283e-001 -7.677568e-001 -6.545917e+000 148 146 131
-8.807554e-001 -7.571919e-001 -6.556144e+000 154 145 110
6.221255e-001 -5.423720e-001 -7.295012e+000 132 125 86
8.471388e-001 -5.534393e-001 -7.413804e+000 119 120 93
-4.849223e-001 -8.241955e-001 -6.902508e+000 161 146 113
5.191166e-001 -6.641237e-001 -7.351006e+000 144 136 89
5.062363e-001 -7.032234e-001 -7.372510e+000 141 135 75
1.019431e+000 -5.546627e-001 -7.531701e+000 101 106 80
1.019431e+000 -5.546627e-001 -7.531701e+000 101 106 80
-2.052306e-001 -8.580985e-001 -7.089083e+000 167 154 111
4.291325e-002 -8.280956e-001 -7.252788e+000 155 142 87
6.311290e-001 -6.791470e-001 -7.444020e+000 140 130 81
4.277053e-002 -8.300030e-001 -7.279889e+000 155 139 90
2.351318e-001 -8.960392e-001 -7.391278e+000 167 150 91
2.279289e-001 -8.747076e-001 -7.414333e+000 94 79 46
-8.215744e-001 -1.079978e+000 -6.987265e+000 106 91 62
-6.575947e-001 -1.085025e+000 -7.115255e+000 116 102 73
8.307078e-001 -9.098930e-001 -7.784291e+000 101 104 74
8.021224e-001 -1.006637e+000 -7.959328e+000 107 109 75
-1.487185e+000 -1.327044e+000 -6.881317e+000 100 89 46
-8.965885e-001 -1.219506e+000 -7.149284e+000 139 125 87
-8.752364e-002 -1.162480e+000 -7.544293e+000 150 140 87
9.928555e-002 -1.207075e+000 -7.677011e+000 86 74 37
9.410163e-001 -1.078594e+000 -8.066933e+000 89 93 66
-2.121788e+000 9.248005e-001 -7.472755e+000 145 135 123
8.391226e-001 -1.200554e+000 -8.145569e+000 90 96 62
8.391226e-001 -1.200554e+000 -8.145569e+000 90 96 62
-1.660257e+000 -1.434304e+000 -6.923471e+000 142 135 79
-1.236891e+000 -1.421825e+000 -7.135451e+000 87 77 47
-9.160364e-001 -1.355338e+000 -7.306832e+000 110 98 58
5.086018e-001 -1.416559e+000 -8.129896e+000 112 107 73
7.933787e-001 -1.325806e+000 -8.304462e+000 90 88 65
9.866055e-001 -1.343364e+000 -8.472432e+000 119 102 83
1.131597e+000 -1.228111e+000 -8.470846e+000 88 73 60
-1.068563e+000 -1.401065e+000 -7.565473e+000 161 127 89
-1.002505e+000 -1.422049e+000 -7.570984e+000 131 102 72
-9.169606e-001 -1.378766e+000 -7.651696e+000 155 131 93
-8.364474e-001 -1.402874e+000 -7.660958e+000 119 94 63
-5.500325e-001 -1.375116e+000 -7.819798e+000 111 94 64
-5.500325e-001 -1.375116e+000 -7.819798e+000 111 94 64
-3.606900e-003 -1.408229e+000 -8.040102e+000 115 111 86
-1.634604e+000 -1.328695e+000 -7.377087e+000 152 126 99
-1.602271e+000 -1.337062e+000 -7.389216e+000 152 128 99
-1.562498e+000 -1.335106e+000 -7.410981e+000 148 125 95
-1.267681e+000 -1.303841e+000 -7.584018e+000 166 134 95
-9.508839e-001 -1.335338e+000 -7.698257e+000 160 130 94
-9.147447e-001 -1.284783e+000 -7.782232e+000 166 131 88
-9.048204e-001 -1.273732e+000 -7.814122e+000 133 99 69
-5.683386e-001 -1.292719e+000 -7.930880e+000 112 91 63
-2.274856e-001 -1.300531e+000 -8.065576e+000 163 147 125
-3.330513e-001 -9.348166e-001 -8.541524e+000 117 112 89
-1.049221e+000 -5.887977e-001 -8.660716e+000 158 128 113
-1.047152e+000 -5.805188e-001 -8.665171e+000 158 128 113
4.229314e-001 -8.154998e-001 -9.735734e+000 176 164 150
-1.298555e-001 5.024820e-001 -1.038437e+001 117 110 88
-1.096228e+000 -4.846579e-001 -6.213276e+000 93 90 82
-8.659661e-001 -5.004273e-001 -6.337242e+000 97 93 82
1.276768e-001 -2.413224e-001 -6.725834e+000 109 100 62
-9.930095e-001 -6.217356e-001 -6.393781e+000 167 151 136
-3.478654e-001 -4.250899e-001 -6.586434e+000 154 141 86
-4.002048e-001 -5.128283e-001 -6.650459e+000 126 112 65
-1.852417e-001 -3.669678e-001 -6.681811e+000 155 139 87
-2.594394e-002 -3.594761e-001 -6.754157e+000 156 136 85
-8.765082e-002 -4.569453e-001 -6.790463e+000 114 100 67
6.031490e-001 -3.210742e-001 -7.043847e+000 95 95 69
7.059440e-001 -2.884121e-001 -7.075292e+000 116 122 84
7.959255e-001 -2.806555e-001 -7.151663e+000 88 92 67
8.492825e-001 -2.534969e-001 -7.120375e+000 84 89 64
1.109905e+000 -1.930778e-001 -7.226088e+000 86 90 67
1.028163e+000 -2.071157e-001 -7.240262e+000 111 117 91
-1.956467e-001 -5.380350e-001 -6.836845e+000 161 147 101
1.699922e-001 -4.065626e-001 -6.917838e+000 105 93 53
6.625453e-001 -3.390190e-001 -7.136724e+000 86 85 57
6.840029e-001 -3.637474e-001 -7.166318e+000 126 127 91
6.863572e-001 -4.084373e-001 -7.133283e+000 88 91 64
7.451577e-001 -3.420952e-001 -7.154243e+000 116 122 86
7.451577e-001 -3.420952e-001 -7.154243e+000 116 122 86
6.085540e-001 -4.084674e-001 -7.148355e+000 127 124 83
8.471109e-001 -3.121642e-001 -7.221938e+000 80 86 62
8.471109e-001 -3.121642e-001 -7.221938e+000 80 86 62
7.686439e-001 -3.734113e-001 -7.230707e+000 84 84 57
1.060565e+000 -3.484547e-001 -7.344178e+000 80 84 59
1.286813e+000 -2.408031e-001 -7.449674e+000 74 79 58
-2.737787e-001 -6.986779e-001 -6.883303e+000 111 94 62
-2.204596e-001 -6.850588e-001 -6.935509e+000 105 89 63
3.382966e-002 -5.968516e-001 -6.984677e+000 97 83 52
8.418079e-002 -6.419915e-001 -7.058507e+000 111 96 61
4.723981e-001 -5.518875e-001 -7.205010e+000 94 90 51
5.620980e-001 -5.364621e-001 -7.210357e+000 137 133 88
8.768477e-001 -4.148620e-001 -7.386382e+000 80 84 59
8.439678e-001 -4.946031e-001 -7.405152e+000 82 85 61
8.502382e-001 -5.437324e-001 -7.408349e+000 114 116 86
9.577895e-001 -4.748733e-001 -7.389804e+000 73 79 54
1.058623e+000 -4.983960e-001 -7.465543e+000 77 82 60
-3.077828e-001 -7.147739e-001 -6.961911e+000 165 147 110
-3.568144e-001 -7.932788e-001 -6.951436e+000 110 94 64
-2.760948e-001 -7.541688e-001 -6.963724e+000 150 136 100
-1.845248e-001 -7.317145e-001 -7.026462e+000 113 96 70
-5.087411e-002 -6.921582e-001 -7.047605e+000 105 91 63
-6.804887e-002 -7.487430e-001 -7.112608e+000 93 83 50
1.642094e-001 -6.487826e-001 -7.130368e+000 171 153 81
2.336636e-001 -7.178726e-001 -7.228509e+000 104 92 49
4.367309e-001 -6.545127e-001 -7.265984e+000 99 91 60
4.962082e-001 -6.455246e-001 -7.342564e+000 96 86 59
5.573175e-001 -6.354544e-001 -7.346681e+000 93 85 49
6.438093e-001 -6.336127e-001 -7.375695e+000 136 131 84
5.460437e-001 -6.703801e-001 -7.376240e+000 89 80 47
7.309126e-001 -6.445628e-001 -7.452811e+000 81 77 50
1.033160e+000 -5.909639e-001 -7.600993e+000 72 78 51
1.071961e+000 -5.666277e-001 -7.593799e+000 101 105 79
1.084570e+000 -5.996826e-001 -7.609910e+000 67 70 48
-6.487218e-001 -8.800232e-001 -6.885990e+000 101 83 63
-3.927606e-002 -8.045198e-001 -7.209432e+000 99 84 54
4.231044e-001 -7.004328e-001 -7.345936e+000 103 87 54
5.755380e-001 -6.730304e-001 -7.413213e+000 139 130 87
5.861352e-001 -7.139638e-001 -7.423732e+000 90 84 50
9.538850e-001 -6.432299e-001 -7.583358e+000 68 72 45
1.050175e+000 -6.949618e-001 -7.690688e+000 70 74 51
-3.384347e-001 -9.284884e-001 -7.113059e+000 166 145 98
-2.568430e-001 -9.314320e-001 -7.192417e+000 124 110 64
3.682929e-001 -9.090382e-001 -7.473896e+000 162 146 92
3.682929e-001 -9.090382e-001 -7.473896e+000 162 146 92
5.815419e-001 -8.813541e-001 -7.591794e+000 84 81 43
6.147107e-001 -8.689001e-001 -7.593168e+000 123 119 72
7.334421e-001 -7.948145e-001 -7.626160e+000 77 74 57
7.334421e-001 -7.948145e-001 -7.626160e+000 77 74 57
6.406566e-001 -8.836356e-001 -7.640394e+000 87 82 52
8.675158e-001 -7.467708e-001 -7.670587e+000 70 69 46
8.486858e-001 -7.927091e-001 -7.691068e+000 76 78 56
8.965217e-001 -8.129821e-001 -7.735352e+000 72 74 52
9.617798e-001 -7.923548e-001 -7.762841e+000 71 75 52
-7.063739e-001 -1.103568e+000 -7.101830e+000 62 55 42
4.106898e-001 -9.524379e-001 -7.572284e+000 145 132 87
4.106898e-001 -9.524379e-001 -7.572284e+000 145 132 87
5.975027e-001 -9.156982e-001 -7.636425e+000 125 121 77
5.470526e-001 -9.730535e-001 -7.684747e+000 86 79 51
7.390269e-001 -8.673838e-001 -7.726350e+000 106 107 70
6.655816e-001 -9.069777e-001 -7.734660e+000 120 118 73
6.952046e-001 -9.108053e-001 -7.784363e+000 76 75 47
7.951643e-001 -9.183462e-001 -7.766525e+000 70 73 45
7.356091e-001 -9.312772e-001 -7.762111e+000 78 78 50
7.777947e-001 -9.621950e-001 -7.794477e+000 75 75 51
8.725738e-001 -8.885511e-001 -7.843501e+000 69 71 45
-1.170649e+000 -1.230793e+000 -6.955417e+000 106 96 61
-1.072393e+000 -1.227253e+000 -7.026644e+000 141 127 88
-3.795777e-001 -1.176532e+000 -7.350801e+000 150 136 88
-1.479624e-001 -1.087152e+000 -7.405974e+000 87 76 46
-1.479624e-001 -1.087152e+000 -7.405974e+000 87 76 46
-2.335936e-001 -1.165977e+000 -7.436616e+000 95 82 50
-4.566959e-002 -1.061888e+000 -7.441261e+000 144 132 82
-3.860496e-002 -1.106109e+000 -7.497823e+000 99 86 48
3.637048e-001 -1.004968e+000 -7.647352e+000 88 78 44
4.349111e-001 -1.037784e+000 -7.662206e+000 141 130 77
4.289736e-001 -1.056297e+000 -7.710136e+000 137 121 74
4.289736e-001 -1.056297e+000 -7.710136e+000 137 121 74
5.994632e-001 -9.927785e-001 -7.752556e+000 75 72 48
5.465738e-001 -1.046188e+000 -7.739248e+000 125 119 76
7.062648e-001 -1.014343e+000 -7.839813e+000 65 64 44
7.168112e-001 -1.001656e+000 -7.894795e+000 68 68 40
8.505815e-001 -9.435566e-001 -7.867167e+000 62 65 38
8.505815e-001 -9.435566e-001 -7.867167e+000 62 65 38
8.457886e-001 -9.585455e-001 -7.893318e+000 75 78 50
8.509418e-001 -9.552161e-001 -7.933401e+000 74 77 47
8.217843e-001 -1.021104e+000 -7.951743e+000 78 78 51
8.587744e-001 -1.008027e+000 -7.964851e+000 98 103 71
8.587744e-001 -1.008027e+000 -7.964851e+000 98 103 71
1.093977e+000 -9.068169e-001 -8.019137e+000 66 68 46
9.320823e-001 -1.022730e+000 -8.006337e+000 61 65 41
-1.312065e+000 -1.247596e+000 -6.933188e+000 132 121 85
-1.040303e+000 -1.242475e+000 -7.074441e+000 155 140 98
-5.054042e-001 -1.234897e+000 -7.359800e+000 154 139 93
-5.053007e-001 -1.234414e+000 -7.359956e+000 154 139 93
-2.023437e-001 -1.152647e+000 -7.532658e+000 147 138 83
-7.805189e-002 -1.200118e+000 -7.592914e+000 103 90 51
-5.732407e-002 -1.218191e+000 -7.626319e+000 148 135 82
8.165470e-002 -1.176318e+000 -7.636692e+000 154 138 87
3.345680e-001 -1.152712e+000 -7.798283e+000 140 130 75
3.345680e-001 -1.152712e+000 -7.798283e+000 140 130 75
3.917599e-001 -1.144759e+000 -7.809926e+000 140 130 71
4.044214e-001 -1.178412e+000 -7.822203e+000 89 78 52
8.454041e-001 -1.108218e+000 -8.056726e+000 63 66 40
-1.388647e+000 -1.367246e+000 -7.014933e+000 143 130 86
-1.388647e+000 -1.367246e+000 -7.014933e+000 143 130 86
-1.287902e+000 -1.333935e+000 -7.042032e+000 140 132 85
-1.220467e+000 -1.358807e+000 -7.082550e+000 93 84 53
-8.290877e-002 -1.222392e+000 -7.631579e+000 94 81 49
2.441845e-001 -1.229709e+000 -7.805021e+000 148 134 83
4.379165e-001 -1.189063e+000 -7.954752e+000 137 127 76
5.803750e-001 -1.255609e+000 -8.032305e+000 119 116 74
7.448846e-001 -1.200647e+000 -8.052373e+000 73 73 49
-1.312308e+000 -1.423816e+000 -7.086976e+000 132 124 77
-4.125621e-001 -1.381463e+000 -7.573097e+000 149 132 86
-2.786407e-001 -1.348656e+000 -7.621249e+000 150 138 79
-3.032855e-001 -1.403998e+000 -7.690136e+000 149 135 87
1.505953e-002 -1.345117e+000 -7.803832e+000 142 131 79
3.712502e-002 -1.355757e+000 -7.854579e+000 84 72 41
1.713720e-001 -1.404124e+000 -7.926305e+000 140 128 71
1.713720e-001 -1.404124e+000 -7.926305e+000 140 128 71
3.371612e-001 -1.284777e+000 -7.945119e+000 138 132 73
6.064422e-001 -1.321206e+000 -8.087645e+000 97 93 64
5.823636e-001 -1.315899e+000 -8.113128e+000 72 68 44
6.394196e-001 -1.267189e+000 -8.162892e+000 113 109 79
-9.926286e-001 -1.465752e+000 -7.355201e+000 123 114 71
3.380237e-001 -1.421597e+000 -8.046592e+000 124 114 72
4.154937e-001 -1.432900e+000 -8.091112e+000 78 72 43
8.286146e-001 -1.407418e+000 -8.258134e+000 56 57 40
-2.082972e+000 -2.323955e-001 -7.480723e+000 237 182 188
-1.406464e+000 -1.428516e+000 -7.359446e+000 129 104 73
-1.257934e+000 -1.432656e+000 -7.430423e+000 122 98 67
-1.173412e+000 -1.422197e+000 -7.484709e+000 127 101 68
-1.108547e+000 -1.403919e+000 -7.541738e+000 150 122 83
-7.401021e-001 -1.389692e+000 -7.715473e+000 118 92 65
-6.435438e-001 -1.400999e+000 -7.761474e+000 115 94 63
-5.449658e-001 -1.452480e+000 -7.746111e+000 108 92 65
-3.632933e-001 -1.436607e+000 -7.835822e+000 105 91 62
-3.106761e-001 -1.428692e+000 -7.870373e+000 104 93 63
-2.364145e+000 9.683681e-001 -7.927984e+000 203 185 148
-2.409717e+000 9.193981e-001 -8.032268e+000 203 180 135
-1.042771e+000 -1.279775e+000 -7.734486e+000 133 102 71
-8.305521e-001 -1.261446e+000 -7.860007e+000 126 96 65
-7.337824e-001 -1.359271e+000 -7.777187e+000 125 98 73
-7.337824e-001 -1.359271e+000 -7.777187e+000 125 98 73
-7.155765e-001 -1.287929e+000 -7.861085e+000 124 97 68
-7.866334e-001 -1.288001e+000 -7.845774e+000 157 128 88
-1.605316e-001 -1.283831e+000 -8.148359e+000 164 148 120
-1.553157e-001 -1.267944e+000 -8.156530e+000 164 148 120
-1.019689e-001 -1.291695e+000 -8.142526e+000 103 100 71
-7.071416e-002 -1.286639e+000 -8.142892e+000 156 151 122
-7.952749e-002 -1.312120e+000 -8.128451e+000 156 151 122
-7.764428e-002 -1.206906e+000 -8.278751e+000 134 130 100
-1.818550e-001 -1.117644e+000 -8.371482e+000 110 100 71
-9.340235e-001 -7.772435e-001 -8.459810e+000 125 103 90
-4.369737e-001 -8.900354e-001 -8.556588e+000 181 153 127
-1.402177e+000 -5.347327e-001 -8.507356e+000 175 141 130
-9.348166e-001 -7.041881e-001 -8.560753e+000 110 88 82
-2.122984e+000 -4.621169e-001 -8.246275e+000 186 152 117
-1.368769e+000 -5.122949e-001 -8.588875e+000 173 145 133
-1.356685e+000 -3.831851e-001 -8.751372e+000 151 124 110
-1.993170e+000 -6.610549e-003 -8.902142e+000 171 144 114
-1.232499e+000 -6.509187e-001 -6.279290e+000 85 85 76
1.075521e-001 -3.886034e-001 -6.766915e+000 147 141 87
5.875141e-002 -3.843292e-001 -6.848403e+000 101 88 56
-2.054788e-001 -5.079990e-001 -6.785820e+000 121 105 70
5.674427e-001 -4.418255e-001 -7.164587e+000 101 94 61
-9.316607e-001 -7.883956e-001 -6.605057e+000 88 90 79
5.330530e-001 -5.404107e-001 -7.228138e+000 89 85 61
6.549787e-001 -5.327843e-001 -7.321328e+000 91 86 57
8.918510e-001 -5.031554e-001 -7.391967e+000 74 79 59
-4.310035e-001 -8.046126e-001 -6.939512e+000 106 90 69
6.360707e-001 -6.698606e-001 -7.428298e+000 136 128 80
-2.117514e-001 -8.020244e-001 -7.086305e+000 116 100 66
-8.482550e-001 -1.020321e+000 -6.940374e+000 96 83 63
-2.551021e-001 -9.172493e-001 -7.153120e+000 119 104 73
5.215552e-001 -8.870309e-001 -7.557853e+000 89 83 55
-1.773170e+000 -1.820173e-001 -6.847642e+000 224 213 184
-1.096063e+000 -1.153015e+000 -6.925012e+000 152 137 94
-9.423757e-001 -1.106296e+000 -6.998873e+000 104 93 61
-5.311227e-001 -1.067916e+000 -7.180297e+000 100 85 54
-3.974662e-001 -1.016756e+000 -7.178696e+000 110 95 55
-1.702545e-001 -1.008539e+000 -7.312681e+000 100 85 52
-2.557718e-001 -1.046227e+000 -7.309162e+000 106 90 66
-1.296579e-001 -1.034857e+000 -7.376529e+000 95 81 53
3.759751e-001 -9.680571e-001 -7.573956e+000 82 73 44
3.694135e-001 -9.819520e-001 -7.567718e+000 82 73 44
5.529390e-001 -9.380430e-001 -7.645308e+000 77 67 42
-1.065403e+000 -1.239442e+000 -6.976239e+000 148 135 94
-7.547296e-001 -1.151948e+000 -7.117919e+000 85 72 62
-4.343678e-001 -1.179449e+000 -7.325032e+000 157 141 92
1.421471e-001 -1.026343e+000 -7.527172e+000 152 139 77
3.924120e-001 -1.074554e+000 -7.731812e+000 92 81 53
6.015641e-001 -1.054011e+000 -7.796775e+000 116 113 70
-1.135570e+000 -1.247011e+000 -7.016424e+000 147 133 89
-9.535717e-001 -1.269832e+000 -7.163378e+000 95 89 58
-6.068581e-001 -1.265091e+000 -7.318570e+000 116 101 70
-3.990430e-001 -1.202390e+000 -7.386854e+000 148 134 85
-4.830535e-001 -1.235860e+000 -7.378784e+000 92 82 46
-4.830535e-001 -1.235860e+000 -7.378784e+000 92 82 46
-2.391826e-001 -1.178666e+000 -7.500189e+000 100 87 54
-2.391826e-001 -1.178666e+000 -7.500189e+000 100 87 54
5.945108e-001 -1.148314e+000 -7.954348e+000 81 78 51
5.945108e-001 -1.148314e+000 -7.954348e+000 81 78 51
7.780299e-001 -1.105250e+000 -7.962640e+000 72 75 46
-1.167169e+000 -1.336544e+000 -7.069758e+000 137 125 76
-1.002803e+000 -1.335504e+000 -7.218209e+000 130 117 74
-7.134790e-001 -1.354118e+000 -7.381879e+000 86 71 39
-7.134790e-001 -1.354118e+000 -7.381879e+000 86 71 39
-5.720962e-001 -1.332157e+000 -7.449842e+000 95 82 38
-4.529650e-001 -1.349974e+000 -7.516937e+000 152 137 78
2.965001e-001 -1.303176e+000 -7.889975e+000 98 86 54
-4.160548e-001 -1.446279e+000 -7.594727e+000 93 80 45
-1.727733e-001 -1.431498e+000 -7.762447e+000 95 81 46
6.097868e-001 -1.379244e+000 -8.160954e+000 72 69 44
6.568627e-001 -1.411327e+000 -8.214923e+000 68 68 43
-8.708602e-001 -1.422626e+000 -7.633747e+000 129 104 73
-8.707032e-001 -1.424876e+000 -7.632790e+000 129 104 73
-1.036858e-001 -1.305776e+000 -8.097898e+000 101 99 78
-3.729170e-001 -1.346092e+000 -7.966387e+000 112 99 68
-1.912525e-001 -1.238119e+000 -8.216417e+000 106 104 79
-1.173226e-001 -1.253812e+000 -8.150031e+000 156 142 116
-5.582040e-002 -1.227263e+000 -8.287362e+000 97 101 71
-2.303265e-001 -1.183345e+000 -8.268294e+000 111 105 80
-1.358233e-001 -1.119152e+000 -8.382543e+000 108 105 79
-1.727160e+000 -9.634887e-001 -7.807586e+000 97 96 70
-1.754625e+000 -9.063183e-001 -7.844110e+000 179 143 106
-1.354596e+000 -7.854449e-001 -8.209556e+000 168 140 128
-1.911504e+000 -7.762871e-001 -7.960315e+000 117 106 88
-1.492543e+000 -7.442893e-001 -8.216299e+000 181 148 133
-1.220135e+000 -3.262953e-001 -8.903616e+000 135 111 106
-2.743496e+000 2.110341e-001 -8.696327e+000 160 167 123
2.263585e-001 -3.500085e-001 -6.905351e+000 156 144 86
-1.604608e+000 -4.654965e-001 -6.571093e+000 220 214 157
-1.608810e+000 -4.946842e-001 -6.607097e+000 166 167 151
-1.279224e+000 -1.243997e+000 -6.917194e+000 96 87 59
-1.129033e+000 -1.132554e+000 -6.938381e+000 113 99 70
-1.571673e-001 -1.116108e+000 -7.440492e+000 88 80 49
-1.378358e+000 -1.356434e+000 -6.986742e+000 90 84 51
-1.203111e+000 -1.342375e+000 -7.079867e+000 103 96 67
-1.203111e+000 -1.342375e+000 -7.079867e+000 103 96 67
-1.091586e+000 -1.352304e+000 -7.141280e+000 98 90 53
-1.011440e+000 -1.285854e+000 -7.158055e+000 108 100 64
-6.978932e-003 -1.237253e+000 -7.727334e+000 122 104 56
-1.485071e+000 -1.457920e+000 -7.060794e+000 92 87 53
-1.455349e+000 -1.498994e+000 -7.114982e+000 85 81 48
-8.241648e-001 -1.502343e+000 -7.453009e+000 109 99 63
-6.933545e-001 -1.476225e+000 -7.568593e+000 156 135 72
-3.531528e-001 -1.456896e+000 -7.692518e+000 83 69 33
-2.070213e+000 -2.224083e-001 -7.431078e+000 199 103 103
-2.191027e+000 -1.013095e-001 -7.632503e+000 178 85 92
-3.751657e-001 -1.097739e+000 -8.289551e+000 178 153 132
-1.146729e+000 -7.756057e-001 -8.357448e+000 123 101 93
-6.995230e-001 -7.421855e-001 -8.624599e+000 134 105 89
5.002193e-002 2.821738e-001 -1.024926e+001 165 147 130
-7.920822e-001 -6.838742e-001 -6.553635e+000 121 115 79
-5.299327e-001 -1.144292e+000 -7.262764e+000 139 126 84
-1.485237e+000 -1.300538e+000 -6.906165e+000 128 121 75
-1.466649e+000 -1.347806e+000 -6.945423e+000 139 127 81
-5.214216e+000 2.643766e+001 -1.560021e+001 189 162 155
-1.134897e+000 -1.505583e+000 -7.315968e+000 134 121 68
9.795797e-001 -1.404717e+000 -8.552829e+000 155 137 123
-1.410514e-001 -1.146499e+000 -8.326380e+000 148 133 117
5.646654e-001 -4.633229e-001 -9.426099e+000 63 50 41
-8.447228e+000 2.998039e+001 -2.061011e+001 207 173 174
-1.451341e+000 -6.142472e-001 -8.395434e+000 181 149 137
-9.454993e-001 -5.234022e-001 -8.761282e+000 120 96 87
-1.014369e+000 -4.616247e-001 -8.808248e+000 118 101 95
-1.016818e+000 -3.946048e-001 -8.914280e+000 182 148 124
-1.228956e+000 -2.314789e-001 -9.003953e+000 178 150 128
-7.384874e+000 2.369906e+001 -2.061509e+001 207 174 165
1.471362e+000 -1.348738e-001 -7.438040e+000 97 95 82
-7.385188e-001 -7.208834e-001 -6.604740e+000 128 125 85
-1.102782e+000 -1.121491e+000 -6.895345e+000 159 141 91
-1.942286e+000 7.626728e-001 -7.158004e+000 118 123 118
-4.903720e+000 2.667146e+001 -1.575591e+001 122 91 86
-1.594964e+000 -1.434151e+000 -6.967824e+000 88 82 50
6.085202e-001 -1.417166e+000 -8.236424e+000 109 104 62
8.378373e-001 -1.351103e+000 -8.368939e+000 94 95 63
-1.423494e+000 -1.475233e+000 -7.279739e+000 158 132 99
-2.307701e+000 2.472540e-002 -7.929488e+000 195 104 112
-7.539916e+000 2.834658e+001 -1.957529e+001 214 174 168
-8.225393e+000 2.901715e+001 -2.065848e+001 113 121 127
-7.428877e+000 2.494708e+001 -1.989938e+001 137 98 91
-2.120658e+000 -1.502956e-001 -8.644196e+000 151 126 95
4.048651e-001 -6.352803e-001 -7.271266e+000 112 102 65
-4.532228e+000 2.938756e+001 -1.523700e+001 130 115 112
-5.224670e+000 2.535592e+001 -1.590098e+001 145 112 103
3.953932e-001 -7.003613e-001 -9.360940e+000 153 136 120
-8.415580e+000 2.609621e+001 -2.007341e+001 191 163 159
-8.861667e-001 -1.486139e+000 -7.390972e+000 61 54 48
-7.147213e+000 2.480064e+001 -2.138350e+001 91 57 50
-1.072164e+000 -6.520833e-001 -6.416956e+000 87 90 82
-5.054692e+000 2.937181e+001 -1.504799e+001 92 76 77
-5.474055e+000 2.618805e+001 -1.550490e+001 179 148 143
4.737209e-001 -4.230428e-001 -9.616450e+000 156 141 122
-1.075573e+001 3.334084e+001 -1.986290e+001 54 49 55
1.743241e+000 -1.150580e-001 -7.809431e+000 171 165 152
-5.338877e+000 2.784438e+001 -1.539595e+001 185 156 150
-5.245246e+000 2.700198e+001 -1.514032e+001 185 156 150
-6.433392e+000 9.248738e+000 -1.238857e+001 45 36 42
-1.219159e+000 -1.702528e-001 -6.332074e+000 82 82 66
3.112678e-001 -3.341198e-001 -6.921463e+000 142 133 79
-1.006365e+000 -6.568608e-001 -6.437060e+000 89 87 72
-1.142654e+000 -1.162458e+000 -6.913618e+000 88 75 49
-1.264835e+000 -1.214057e+000 -6.896191e+000 141 124 78
-9.000638e-001 -4.663035e-001 -6.301506e+000 89 83 69
-1.994642e-001 -4.134556e-001 -6.692332e+000 146 132 87
1.240688e+000 -1.663819e-001 -7.303735e+000 75 81 58
-2.091810e-001 -5.857374e-001 -6.868608e+000 155 141 96
5.631163e-001 -5.430834e-001 -7.252768e+000 131 127 81
5.631163e-001 -5.430834e-001 -7.252768e+000 131 127 81
7.504496e-001 -4.950578e-001 -7.282823e+000 105 113 75
7.620377e-001 -4.713221e-001 -7.293352e+000 105 113 75
-9.856984e-001 -8.053760e-001 -6.565533e+000 82 80 67
-9.048524e-001 -8.028746e-001 -6.627576e+000 150 138 99
9.213425e-001 -6.693013e-001 -7.593519e+000 93 101 72
-3.092688e-001 -8.571000e-001 -7.078650e+000 155 139 103
-9.727420e-001 -1.130497e+000 -6.986762e+000 148 133 94
8.294044e-001 -1.199698e+000 -8.106375e+000 89 92 63
-1.947897e-001 -1.004918e+000 -8.508596e+000 150 139 117
8.187502e-001 -3.782956e-001 -7.228822e+000 75 79 56
1.317080e+000 -3.679466e-001 -7.495467e+000 98 102 75
1.282312e+000 -3.710619e-001 -7.506151e+000 69 73 56
-3.630866e-002 -7.259874e-001 -7.108069e+000 150 134 92
-5.956791e-001 -9.208429e-001 -6.991057e+000 109 93 68
6.112878e-001 -1.102507e+000 -7.871159e+000 65 63 32
5.250544e-001 -1.309864e+000 -8.058286e+000 71 67 40
-4.810139e-001 -4.859478e-001 -6.624742e+000 66 59 43
