ply
format ascii 1.0
element face 0
property list uchar int vertex_indices
element vertex 875
property float x
property float y
property float z
property uchar diffuse_red
property uchar diffuse_green
property uchar diffuse_blue
end_header
-7.818064e-002 -7.296271e-001 -6.909467e+000 140 124 98
4.784208e-001 -6.901478e-001 -7.178043e+000 80 66 37
-1.251789e+000 -7.708573e-001 -6.275327e+000 75 67 56
-1.137335e+000 -8.074873e-001 -6.359796e+000 76 68 56
-1.042235e+000 -8.443433e-001 -6.441781e+000 74 69 58
-2.212851e-001 -8.397360e-001 -6.941629e+000 145 126 96
6.324081e-001 -8.585435e-001 -7.435890e+000 114 105 73
-1.680032e-001 -9.681631e-001 -7.106118e+000 134 120 83
5.657704e-001 -1.027836e+000 -7.590533e+000 121 108 73
1.026739e+000 -1.094590e+000 -7.927394e+000 80 79 59
1.026739e+000 -1.094590e+000 -7.927394e+000 80 79 59
7.889131e-002 -1.136310e+000 -7.432110e+000 133 120 83
4.815216e-001 -1.235763e+000 -7.753533e+000 123 109 74
-7.281875e-001 -1.299282e+000 -7.160084e+000 59 46 38
-4.257999e-001 -1.206944e+000 -7.207888e+000 142 122 92
-5.589993e-001 -1.533981e+000 -7.518359e+000 129 114 84
-9.175708e-001 -4.506729e-001 -6.137611e+000 72 66 55
3.159816e-001 -4.175362e-001 -6.839724e+000 79 67 44
9.637286e-001 -5.229563e-001 -7.286387e+000 63 65 45
-1.129658e+000 -4.974129e-001 -6.073296e+000 72 63 54
-9.337186e-001 -5.242812e-001 -6.200714e+000 74 69 63
-4.498775e-001 -5.645384e-001 -6.538392e+000 60 48 38
-2.319547e-001 -6.346938e-001 -6.732705e+000 96 80 52
1.011056e-001 -5.874759e-001 -6.866862e+000 141 123 74
1.459797e-001 -5.772479e-001 -6.886971e+000 144 125 74
5.100896e-002 -6.465684e-001 -6.900509e+000 99 85 64
3.802190e-001 -6.081657e-001 -7.046912e+000 68 52 29
7.657166e-001 -5.689182e-001 -7.212610e+000 78 74 45
-4.656707e-001 -7.317688e-001 -6.715785e+000 93 77 53
-4.780317e-001 -7.664942e-001 -6.735245e+000 84 73 55
-1.491967e-001 -8.511704e-001 -6.994664e+000 93 78 52
1.230803e-001 -9.519348e-001 -7.237309e+000 78 64 43
2.555261e-001 -9.512643e-001 -7.325848e+000 91 74 48
4.638531e-001 -8.978599e-001 -7.376854e+000 85 73 46
5.673884e-001 -9.392859e-001 -7.480480e+000 83 71 48
-5.528852e-001 -9.650267e-001 -6.892291e+000 86 70 54
5.848139e-002 -1.043354e+000 -7.304479e+000 130 115 76
4.164162e-001 -1.094436e+000 -7.576968e+000 129 117 76
-1.140080e+000 -1.351430e+000 -6.965696e+000 117 101 77
-1.058046e+000 -1.302474e+000 -6.963610e+000 126 108 84
-1.042505e+000 -1.330080e+000 -6.999565e+000 86 72 46
-6.918241e-001 -1.389339e+000 -7.267119e+000 129 113 88
-6.915960e-001 -1.389153e+000 -7.267086e+000 129 113 88
-2.284784e-001 -2.346115e-001 -6.369844e+000 111 98 54
2.225536e-001 -3.195705e-001 -6.682882e+000 112 99 55
-1.998052e-001 -6.112454e-001 -6.728051e+000 133 115 75
-5.253571e-001 -7.612436e-001 -6.689073e+000 61 48 35
-9.969416e-001 -7.418187e-001 -6.378561e+000 80 74 66
2.734428e-001 -1.139612e+000 -7.530066e+000 132 118 85
-9.712196e-001 -1.209739e+000 -6.905605e+000 125 109 83
-8.110286e-001 -1.205214e+000 -7.000508e+000 96 81 59
-1.953728e-002 -1.074875e+000 -7.266619e+000 85 72 40
-2.242961e+001 2.513220e+000 -4.562544e+001 254 55 104
-1.019280e+000 -8.226800e-001 -6.421487e+000 68 64 55
-2.304428e+001 2.159164e+000 -4.642325e+001 170 186 249
-2.304428e+001 2.159164e+000 -4.642325e+001 170 186 249
-2.236907e+001 3.118554e+000 -4.768410e+001 57 39 84
-1.426472e+001 -1.289910e+001 -3.150278e+001 223 170 89
8.633520e-001 -1.806774e-001 -6.941761e+000 92 97 67
8.633520e-001 -1.806774e-001 -6.941761e+000 92 97 67
-8.670393e-002 -5.374501e-001 -6.725321e+000 146 127 84
-1.002222e-001 -5.585376e-001 -6.708800e+000 88 73 40
8.756423e-001 -5.204469e-001 -7.269970e+000 91 92 62
6.283696e-001 -6.960301e-001 -7.290182e+000 122 113 75
1.519801e+000 -6.599684e-001 -7.913544e+000 105 94 82
-1.174167e+000 -7.523176e-001 -6.283238e+000 82 68 57
-1.133721e+000 -7.197712e-001 -6.275407e+000 138 127 116
8.029418e-001 -7.194613e-001 -7.410188e+000 102 97 63
-1.102504e+000 -8.164695e-001 -6.380859e+000 88 75 63
-1.931094e+000 1.751746e+000 -7.717374e+000 148 143 111
-1.076956e+000 7.754889e-001 -6.844175e+000 221 191 185
-1.076956e+000 7.754889e-001 -6.844175e+000 221 191 185
-2.304997e-001 7.619188e-001 -7.385471e+000 209 197 183
-1.680165e-001 6.957247e-001 -7.347998e+000 101 93 79
-2.247043e-001 5.694778e-001 -7.176699e+000 196 184 170
6.679528e-004 4.678869e-001 -7.135976e+000 127 109 89
3.646768e-001 5.174340e-001 -7.353037e+000 155 122 76
6.460643e-001 5.781898e-001 -7.551516e+000 195 191 149
2.429080e-001 3.145571e-002 -6.711125e+000 100 93 78
2.223790e-001 -2.120598e-001 -6.593275e+000 118 111 64
7.558553e-001 -2.329005e-001 -6.912260e+000 66 66 38
1.030377e+000 -2.320751e-001 -7.070897e+000 83 89 62
1.063114e+000 -2.307426e-001 -7.096685e+000 62 65 47
1.149211e+000 -1.594024e-001 -7.094761e+000 60 67 43
1.262944e+000 -1.827689e-001 -7.155503e+000 63 66 44
8.006744e-001 -2.765832e-001 -7.020680e+000 62 62 34
2.645314e-001 -3.975999e-001 -6.791440e+000 93 81 43
9.914492e-001 -3.635257e-001 -7.202309e+000 91 94 67
9.914492e-001 -3.635257e-001 -7.202309e+000 91 94 67
1.043794e+000 -3.832974e-001 -7.212392e+000 88 90 66
-2.597247e-001 -5.168076e-001 -6.605016e+000 86 70 38
2.110726e-001 -5.555610e-001 -6.908454e+000 95 78 41
6.781598e-001 -5.593645e-001 -7.181824e+000 113 104 63
8.572545e-001 -4.793125e-001 -7.197485e+000 75 74 49
2.325125e-001 -6.564598e-001 -7.018023e+000 88 70 33
5.748954e-001 -6.803946e-001 -7.238872e+000 123 112 66
7.629359e-001 -6.576519e-001 -7.312057e+000 111 103 68
8.990660e-001 -6.266927e-001 -7.364963e+000 91 90 59
-1.131695e+000 -7.649727e-001 -6.316898e+000 77 71 61
6.182602e-001 -7.285150e-001 -7.321357e+000 119 110 70
-2.901177e-001 -8.626649e-001 -6.931484e+000 139 122 92
3.686776e-001 -9.069626e-001 -7.348927e+000 97 83 46
1.656264e-001 -9.769162e-001 -7.332677e+000 96 82 45
5.902580e-001 -9.595191e-001 -7.529341e+000 110 98 60
3.289404e-001 -1.087501e+000 -7.512282e+000 96 83 50
4.849278e-001 -1.071654e+000 -7.594836e+000 123 109 72
-1.059033e+000 -1.214973e+000 -6.872269e+000 101 80 59
-2.158683e+000 1.780812e+000 -7.680142e+000 185 183 143
-1.069504e+000 1.098399e+000 -7.237131e+000 210 199 196
6.757929e-001 9.752876e-001 -8.077966e+000 175 169 157
-2.786366e-001 7.091319e-001 -7.313495e+000 107 101 83
7.991685e-001 4.891291e-001 -7.543994e+000 174 163 111
3.664384e-001 6.583871e-002 -6.825036e+000 186 173 108
2.200783e-001 -2.342121e-001 -6.614652e+000 84 75 47
1.206950e+000 -1.560717e-001 -7.108724e+000 70 75 52
1.249237e+000 -2.189039e-001 -7.185073e+000 62 67 44
-2.814779e-001 -3.932975e-001 -6.459951e+000 136 118 68
7.304896e-001 -3.061776e-001 -6.962728e+000 78 77 49
7.656084e-001 -2.955279e-001 -6.970865e+000 98 98 64
8.567232e-001 -2.931743e-001 -7.026411e+000 67 67 39
8.564303e-001 -2.935479e-001 -7.027525e+000 67 67 39
9.664512e-001 -3.442567e-001 -7.178040e+000 58 62 40
1.179785e+000 -2.516256e-001 -7.176078e+000 69 74 52
6.385583e-001 -4.090802e-001 -7.022501e+000 63 58 29
8.454189e-001 -4.201477e-001 -7.127266e+000 90 94 66
-2.603034e-002 -5.205229e-001 -6.738210e+000 110 91 58
2.558756e-001 -5.871337e-001 -6.954826e+000 102 86 53
-1.283397e+000 -6.525912e-001 -6.140146e+000 83 74 65
-7.641477e-001 -7.059521e-001 -6.439678e+000 101 90 58
-8.193021e-002 -6.708271e-001 -6.858035e+000 100 83 58
5.063562e-002 -6.474151e-001 -6.900231e+000 93 76 49
-7.902449e-001 -1.142997e+000 -6.969377e+000 105 90 61
-7.902449e-001 -1.142997e+000 -6.969377e+000 105 90 61
-5.145255e-001 -1.184709e+000 -7.152635e+000 101 85 59
-8.269886e-001 -1.248565e+000 -7.014598e+000 109 93 67
-8.484156e-001 -1.287945e+000 -7.089612e+000 105 90 61
-1.316597e+000 -1.394645e+000 -6.925837e+000 92 77 52
1.911587e+000 -1.482600e+000 -7.108051e+000 199 190 183
-1.411026e+000 -1.497392e+000 -6.950113e+000 86 75 53
-1.326731e+000 -1.513752e+000 -7.038228e+000 130 117 86
-2.011283e+000 1.523853e+000 -7.409307e+000 197 186 141
-2.766806e-001 1.660452e+000 -8.448722e+000 194 163 134
7.085183e-002 1.511918e+000 -8.448938e+000 202 180 141
5.819723e-001 5.642494e-001 -7.510559e+000 195 189 160
-1.186411e+000 -1.826967e-001 -5.729908e+000 164 174 122
6.373090e-001 -2.063278e-001 -6.832479e+000 105 103 64
1.949557e-001 -2.912151e-001 -6.649477e+000 86 73 38
1.410154e-001 -3.785827e-001 -6.700266e+000 137 120 66
1.425656e-001 -3.780954e-001 -6.702961e+000 137 120 66
6.103821e-001 -2.940650e-001 -6.890863e+000 114 108 66
-3.298366e-001 -4.571380e-001 -6.490296e+000 124 109 70
5.370181e-001 -5.155438e-001 -7.050982e+000 136 119 63
-1.128030e+000 -6.377866e-001 -6.189622e+000 75 71 65
-8.724659e-001 -8.130607e-001 -6.489804e+000 79 74 67
-7.427776e-001 -1.026405e+000 -6.844831e+000 106 88 66
-9.765321e-001 -1.210818e+000 -6.907612e+000 144 128 95
-1.143440e+000 -1.270934e+000 -6.865689e+000 109 93 66
-9.069184e-001 -1.280215e+000 -6.997797e+000 116 100 75
-9.156969e-001 -1.446077e+000 -7.199424e+000 99 87 61
-1.232374e+000 -1.476568e+000 -7.048591e+000 99 87 63
-1.596936e+000 -2.475148e-001 -6.398820e+000 196 165 113
6.090706e-002 -3.837707e-001 -6.669827e+000 137 121 70
-7.754188e-001 -5.203039e-001 -6.281939e+000 75 73 60
-3.344216e-001 -5.352913e-001 -6.579318e+000 139 119 67
2.233614e-001 -5.006264e-001 -6.849780e+000 83 68 37
-3.335637e-002 -6.773856e-001 -6.874696e+000 159 136 92
-9.651901e-001 -7.543192e-001 -6.390495e+000 150 130 120
-1.712913e+000 -1.532990e+000 -7.005301e+000 127 111 77
-2.159967e+000 1.877015e+000 -7.821350e+000 171 168 126
-1.123092e+000 1.298739e+000 -7.495286e+000 149 93 92
1.464150e+000 1.659298e-001 -7.423148e+000 120 129 110
-3.799276e-001 -4.671817e-001 -6.494231e+000 137 119 70
1.011275e-002 -5.603465e-001 -6.770158e+000 158 136 91
1.011275e-002 -5.603465e-001 -6.770158e+000 158 136 91
-8.218866e-001 -6.421615e-001 -6.336317e+000 83 80 65
1.462573e+000 -7.803159e-001 -7.758315e+000 118 104 93
-2.530824e-001 -9.557886e-001 -7.062983e+000 151 133 97
-6.243691e-001 -1.162516e+000 -7.068572e+000 124 109 76
-7.422876e-001 -1.432262e+000 -7.308373e+000 127 114 82
-6.608964e-001 -1.546078e+000 -7.520051e+000 111 96 67
-7.203735e-001 7.592857e-001 -6.953079e+000 209 187 130
9.242574e-002 3.180812e-001 -6.968653e+000 202 186 137
1.928421e-001 1.519109e-001 -6.818873e+000 195 179 120
3.457554e-001 -3.809241e-001 -6.801488e+000 132 117 60
-8.923187e-001 -5.245887e-001 -6.207545e+000 70 71 61
3.083465e-002 -4.947081e-001 -6.720257e+000 154 133 83
3.083465e-002 -4.947081e-001 -6.720257e+000 154 133 83
-6.964251e-001 -7.304997e-001 -6.491721e+000 112 97 67
-1.000077e+000 -8.239827e-001 -6.436289e+000 82 75 67
-4.867958e-001 -8.318550e-001 -6.814219e+000 118 101 75
4.456555e-001 -8.339545e-001 -7.317133e+000 98 85 51
8.395998e-001 1.143752e+000 -8.291184e+000 111 124 104
1.106217e+000 1.051607e+000 -8.290029e+000 181 183 174
-2.093396e-001 7.095249e-001 -7.426141e+000 122 114 96
1.162119e+000 -2.939721e-002 -7.060651e+000 119 136 93
-9.600391e-002 -3.108615e-001 -6.510622e+000 135 118 62
-1.223555e-001 1.848426e+000 -8.804825e+000 154 120 104
-1.072471e+000 9.624148e-001 -7.087264e+000 181 141 142
-7.360099e-001 5.133583e-001 -6.724037e+000 211 201 187
-1.054695e+000 -6.894343e-001 -6.262425e+000 65 65 55
-7.004789e-001 -6.940023e-001 -6.449811e+000 107 96 65
5.370578e-001 1.744951e+000 -9.000262e+000 103 106 95
1.232233e-001 -6.771484e-001 -6.923628e+000 133 117 81
1.232233e-001 -6.771484e-001 -6.923628e+000 133 117 81
4.502122e-001 -4.501877e-001 -6.922929e+000 140 124 67
1.076727e+000 -1.879792e-001 -7.063101e+000 64 67 46
2.644912e-001 -3.560310e-001 -6.749208e+000 130 117 72
-1.057626e+000 -5.125168e-001 -6.120725e+000 74 68 55
1.045510e-001 -4.363741e-001 -6.738823e+000 118 104 66
1.258493e-001 -4.275456e-001 -6.735864e+000 81 67 32
-9.603687e-001 -5.288378e-001 -6.181573e+000 78 71 59
-9.523240e-001 -5.971516e-001 -6.249398e+000 116 92 80
8.176218e-003 -7.058101e-001 -6.938625e+000 128 112 80
2.852792e-001 -7.805357e-001 -7.173829e+000 101 84 53
8.028340e-001 -7.201677e-001 -7.409177e+000 102 97 63
-9.427002e-001 -8.308675e-001 -6.465581e+000 105 97 84
4.141326e-001 -9.551521e-001 -7.434469e+000 107 93 59
-1.029149e+000 -1.147413e+000 -6.817825e+000 144 124 90
-4.560596e-001 -1.220610e+000 -7.213372e+000 109 92 60
2.118943e-001 -1.186091e+000 -7.570306e+000 93 79 45
4.884214e-001 -2.481285e-001 -6.801489e+000 114 111 67
7.853043e-001 -2.345908e-001 -6.931056e+000 91 92 61
9.172047e-001 -2.042192e-001 -6.977766e+000 85 92 63
-1.521972e-001 -4.638583e-001 -6.608278e+000 143 129 84
-1.278906e-002 -4.683936e-001 -6.688052e+000 103 87 54
2.427932e-001 -4.601105e-001 -6.860858e+000 99 85 50
2.427932e-001 -4.601105e-001 -6.860858e+000 99 85 50
8.826268e-001 -4.997312e-001 -7.239630e+000 96 96 67
8.835588e-001 -4.984994e-001 -7.245624e+000 96 96 67
1.014387e+000 -4.664163e-001 -7.268192e+000 85 88 61
-1.212649e+000 -7.047116e-001 -6.221502e+000 91 83 70
-2.244473e-001 -6.949447e-001 -6.794348e+000 150 130 95
2.023888e-001 -6.594989e-001 -6.992937e+000 135 117 77
2.029589e-001 -6.577208e-001 -6.997270e+000 135 117 77
9.760034e-001 -6.713054e-001 -7.474527e+000 64 67 41
-1.211007e+000 -7.314784e-001 -6.247065e+000 89 83 70
-1.238127e+000 -7.501789e-001 -6.251490e+000 128 122 108
-1.204636e+000 -8.069248e-001 -6.322918e+000 111 106 92
-2.757644e-001 -7.573409e-001 -6.820456e+000 111 93 64
-1.566838e-002 -9.084857e-001 -7.119417e+000 135 120 78
4.787743e-001 -9.316058e-001 -7.432863e+000 127 112 70
5.343273e-001 -9.446901e-001 -7.485300e+000 118 104 65
3.270616e-001 -1.087496e+000 -7.509528e+000 96 83 50
-6.285449e-001 -1.227253e+000 -7.125066e+000 138 119 85
-7.308317e-001 -1.302747e+000 -7.135274e+000 79 63 48
-7.142603e-002 -1.506758e+000 -7.764449e+000 146 131 92
-7.142603e-002 -1.506758e+000 -7.764449e+000 146 131 92
-1.461911e+000 -1.453109e+000 -6.899945e+000 100 85 60
2.547183e-001 -2.134574e-001 -6.618042e+000 111 107 60
7.697753e-001 -1.825485e-001 -6.885997e+000 65 66 40
8.588378e-001 -2.024371e-001 -6.946086e+000 91 94 65
1.248417e+000 -2.179162e-001 -7.183509e+000 62 67 44
7.882445e-001 -3.262188e-001 -7.014691e+000 74 74 46
9.447304e-001 -3.954368e-001 -7.151742e+000 61 63 41
1.014208e+000 -3.986581e-001 -7.234263e+000 64 66 45
6.408044e-001 -5.719297e-001 -7.151005e+000 82 73 41
-4.750070e-001 -6.975417e-001 -6.653537e+000 116 101 68
4.947737e-001 -6.358397e-001 -7.138584e+000 141 121 65
4.951066e-001 -6.378590e-001 -7.137575e+000 141 121 65
8.784204e-001 -6.019341e-001 -7.338205e+000 72 71 41
-8.933926e-001 -7.270086e-001 -6.395296e+000 138 126 110
1.218611e-001 -7.208442e-001 -7.020818e+000 126 110 76
-4.560982e-001 -9.651275e-001 -6.949651e+000 133 116 89
-7.693662e-001 -1.102864e+000 -6.893991e+000 96 80 55
-7.697447e-001 -1.102913e+000 -6.893568e+000 96 80 55
-8.867993e-002 -1.168361e+000 -7.381092e+000 84 72 43
-7.424004e-002 -1.204771e+000 -7.415777e+000 129 116 82
-1.168031e+000 -1.346258e+000 -6.929932e+000 104 90 62
-1.174911e+000 -1.345852e+000 -6.950721e+000 104 90 62
-6.595188e-001 -1.297121e+000 -7.192980e+000 138 122 89
-1.362603e+000 -1.435518e+000 -6.926200e+000 119 105 76
-1.800522e+000 -1.460650e+000 -7.061781e+000 164 145 108
-3.107435e-001 -4.170036e-001 -6.493682e+000 114 98 62
-3.472885e-001 -6.679422e-001 -6.704433e+000 124 108 73
-3.875926e-001 -1.082578e+000 -7.103339e+000 119 100 68
-1.123460e+000 -1.215660e+000 -6.823791e+000 94 80 53
1.150075e+000 8.462407e-001 -8.164523e+000 90 98 83
-2.289219e-001 -2.546041e-001 -6.396034e+000 127 110 61
7.067731e-001 -1.819130e-001 -6.840412e+000 62 65 35
1.400445e+000 -1.599045e-001 -7.183174e+000 64 72 50
-3.574998e-001 -3.538662e-001 -6.402238e+000 131 117 69
-1.063128e-001 -3.630136e-001 -6.548181e+000 101 90 45
7.116328e-001 -2.737702e-001 -6.926601e+000 106 107 73
8.456684e-001 -2.373631e-001 -6.984450e+000 92 97 66
9.587083e-001 -2.655605e-001 -7.048255e+000 90 100 68
1.084432e+000 -2.549180e-001 -7.110375e+000 89 95 69
1.478068e+000 -1.722658e-001 -7.250766e+000 79 89 65
-1.055717e+000 -5.128706e-001 -6.127503e+000 78 74 62
-1.055484e+000 -5.127552e-001 -6.127130e+000 78 74 62
-1.036168e+000 -5.076252e-001 -6.121702e+000 139 133 119
-1.039123e+000 -4.997170e-001 -6.146920e+000 139 133 119
-2.814541e-001 -4.270085e-001 -6.500061e+000 136 123 80
-2.814541e-001 -4.270085e-001 -6.500061e+000 136 123 80
-2.974826e-001 -4.692148e-001 -6.538755e+000 138 126 76
6.901504e-001 -3.461187e-001 -6.983179e+000 105 105 65
8.197359e-001 -3.935877e-001 -7.050967e+000 61 64 33
1.228966e+000 -3.703755e-001 -7.296685e+000 85 93 65
1.352056e+000 -2.817388e-001 -7.286904e+000 53 61 40
-1.288356e+000 -5.991451e-001 -6.084628e+000 126 116 86
-1.216674e+000 -6.037952e-001 -6.135611e+000 80 75 65
-1.215589e+000 -6.067697e-001 -6.132303e+000 80 75 65
-1.154929e+000 -5.658494e-001 -6.134941e+000 79 76 61
-1.153012e+000 -5.680402e-001 -6.127863e+000 79 76 61
-1.153279e+000 -6.011364e-001 -6.147783e+000 81 78 67
-1.069596e+000 -5.431141e-001 -6.143511e+000 76 70 58
-1.026364e+000 -5.270746e-001 -6.151930e+000 77 75 60
-1.010228e+000 -5.536113e-001 -6.189012e+000 84 74 62
-9.675540e-001 -5.249842e-001 -6.176992e+000 81 77 63
-9.807650e-001 -5.753517e-001 -6.217484e+000 81 69 55
-9.554398e-001 -5.918179e-001 -6.250032e+000 84 67 56
-8.541351e-001 -5.605061e-001 -6.279294e+000 81 79 67
-3.447721e-001 -5.666310e-001 -6.604575e+000 73 61 27
-1.978506e-001 -4.804071e-001 -6.606026e+000 145 130 86
-4.147796e-002 -4.714032e-001 -6.690113e+000 137 125 85
-1.147461e-001 -5.385041e-001 -6.709584e+000 142 127 84
-1.157640e-001 -5.382666e-001 -6.709639e+000 142 127 84
-5.638806e-002 -5.187143e-001 -6.722239e+000 140 127 84
7.560512e-002 -5.128069e-001 -6.797730e+000 146 130 92
1.027079e+000 -4.286450e-001 -7.245445e+000 88 95 65
1.026645e+000 -4.288713e-001 -7.245623e+000 88 95 65
1.262821e+000 -4.549026e-001 -7.417488e+000 81 86 61
-1.232563e+000 -6.555787e-001 -6.169647e+000 138 134 123
-9.211391e-001 -6.426620e-001 -6.317537e+000 73 69 59
-8.219859e-001 -6.102491e-001 -6.323481e+000 74 72 57
-8.499799e-001 -6.271401e-001 -6.335009e+000 74 72 57
-9.016218e-001 -6.907935e-001 -6.361171e+000 132 129 114
-8.996863e-001 -6.890651e-001 -6.365554e+000 132 129 114
-8.545290e-001 -6.774509e-001 -6.376249e+000 74 75 59
-7.579196e-001 -6.702613e-001 -6.414715e+000 97 91 59
-6.950020e-001 -6.275081e-001 -6.410278e+000 119 110 76
-1.603793e-001 -6.555626e-001 -6.790411e+000 149 134 86
-9.253531e-002 -6.178785e-001 -6.799887e+000 150 136 91
2.240552e-001 -5.969248e-001 -6.955183e+000 153 137 87
2.237626e-001 -6.000835e-001 -6.945494e+000 153 137 87
7.061248e-001 -5.700677e-001 -7.200401e+000 72 68 38
6.068723e-001 -5.870914e-001 -7.135337e+000 122 114 71
6.068723e-001 -5.870914e-001 -7.135337e+000 122 114 71
6.015468e-001 -6.018883e-001 -7.170934e+000 126 119 74
5.924450e-001 -6.287832e-001 -7.190588e+000 133 123 75
7.447843e-001 -5.445218e-001 -7.187804e+000 113 111 70
7.450256e-001 -5.433227e-001 -7.190914e+000 113 111 70
8.632130e-001 -5.610229e-001 -7.276727e+000 98 99 68
1.089294e+000 -6.055455e-001 -7.466745e+000 86 92 62
-1.188232e+000 -7.419688e-001 -6.249201e+000 146 135 117
-1.172432e+000 -7.676690e-001 -6.304353e+000 135 128 114
-1.136941e+000 -7.369019e-001 -6.293101e+000 85 75 61
-9.563071e-001 -7.800385e-001 -6.414358e+000 79 70 61
-8.879322e-001 -7.043388e-001 -6.380799e+000 83 78 67
-8.894417e-001 -7.021419e-001 -6.384518e+000 83 78 67
-8.609995e-001 -6.986598e-001 -6.395341e+000 74 75 58
-8.631127e-001 -7.214863e-001 -6.407496e+000 77 77 62
-9.171012e-001 -7.900829e-001 -6.455207e+000 134 131 116
-8.971997e-001 -7.850845e-001 -6.446001e+000 72 70 58
-8.974313e-001 -7.849101e-001 -6.445870e+000 72 70 58
-8.478350e-001 -7.510152e-001 -6.440860e+000 141 126 96
-8.641457e-001 -7.861004e-001 -6.481368e+000 76 69 57
-7.352956e-001 -7.312243e-001 -6.470480e+000 131 116 77
-7.074686e-001 -7.450126e-001 -6.505996e+000 130 120 85
-4.484837e-001 -6.973794e-001 -6.685124e+000 75 58 29
-4.992481e-001 -7.542956e-001 -6.707554e+000 136 121 87
-1.492225e-001 -6.903352e-001 -6.840585e+000 74 57 38
-1.275583e-001 -7.178284e-001 -6.875453e+000 140 125 92
-1.276125e-001 -7.168664e-001 -6.879363e+000 140 125 92
-7.845629e-002 -7.279551e-001 -6.915013e+000 148 134 99
2.468615e-002 -6.593087e-001 -6.905120e+000 152 136 97
6.658146e-001 -6.729400e-001 -7.282635e+000 70 64 32
8.772084e-001 -6.840473e-001 -7.403714e+000 105 105 72
1.114146e+000 -6.603705e-001 -7.516250e+000 91 97 71
1.116896e+000 -6.914804e-001 -7.538631e+000 88 92 67
-1.187918e+000 -8.391492e-001 -6.361824e+000 82 78 67
-1.156202e+000 -8.016452e-001 -6.346587e+000 80 75 64
-5.071968e-001 -7.793007e-001 -6.731733e+000 152 139 106
-5.140974e-001 -8.011500e-001 -6.743010e+000 142 129 97
-4.610593e-001 -7.936579e-001 -6.771610e+000 149 133 108
-2.082571e-001 -7.838784e-001 -6.919837e+000 149 133 100
-2.082571e-001 -7.838784e-001 -6.919837e+000 149 133 100
-2.347240e-001 -8.630824e-001 -6.968667e+000 146 131 92
-1.572782e-001 -8.004079e-001 -6.944703e+000 149 134 100
-1.572782e-001 -8.004079e-001 -6.944703e+000 149 134 100
-1.081593e-001 -8.113826e-001 -6.976570e+000 145 132 89
-2.137425e-002 -8.432213e-001 -7.072759e+000 80 64 41
1.353074e-001 -8.397355e-001 -7.155679e+000 146 130 83
6.027867e-001 -7.713095e-001 -7.340436e+000 122 110 67
6.562805e-001 -7.871307e-001 -7.375366e+000 122 114 68
5.904852e-001 -8.033337e-001 -7.364453e+000 132 119 75
5.904852e-001 -8.033337e-001 -7.364453e+000 132 119 75
7.721115e-001 -8.079317e-001 -7.478799e+000 106 104 65
9.016791e-001 -7.832848e-001 -7.521506e+000 100 102 66
9.022963e-001 -7.833847e-001 -7.521483e+000 100 102 66
1.037665e+000 -7.379772e-001 -7.549225e+000 89 92 64
1.053450e+000 -7.772752e-001 -7.624548e+000 55 57 36
1.072237e+000 -8.013956e-001 -7.647537e+000 85 89 64
1.283894e+000 -7.171472e-001 -7.691518e+000 77 80 58
-5.424481e-001 -8.729587e-001 -6.799292e+000 138 123 96
-2.422383e-001 -9.592568e-001 -7.053763e+000 155 136 95
-1.927469e-001 -8.908697e-001 -7.021158e+000 149 134 92
1.234107e-001 -8.714975e-001 -7.176486e+000 139 125 81
2.828593e-001 -9.424659e-001 -7.332091e+000 141 126 80
2.826310e-001 -9.429227e-001 -7.331217e+000 141 126 80
4.551098e-001 -9.212526e-001 -7.405880e+000 80 69 37
4.686635e-001 -9.535967e-001 -7.468283e+000 126 116 65
5.111124e-001 -9.298858e-001 -7.449585e+000 75 63 33
7.204656e-001 -9.503786e-001 -7.596681e+000 107 102 64
7.798717e-001 -9.450252e-001 -7.604988e+000 106 103 68
9.126338e-001 -9.127022e-001 -7.654526e+000 99 100 68
1.195042e+000 -9.494299e-001 -7.858765e+000 78 83 60
1.195042e+000 -9.494299e-001 -7.858765e+000 78 83 60
-5.331626e-001 -9.881011e-001 -6.926217e+000 143 128 97
-5.502943e-001 -1.038600e+000 -6.959257e+000 139 125 97
-3.852875e-001 -9.999350e-001 -7.019465e+000 148 130 92
-3.579927e-001 -1.042859e+000 -7.086202e+000 145 130 90
-3.580153e-001 -1.046742e+000 -7.074546e+000 145 130 90
-2.966782e-001 -1.016170e+000 -7.115536e+000 149 136 93
-2.019426e-001 -9.866918e-001 -7.104335e+000 104 90 55
-1.730859e-001 -9.849470e-001 -7.145744e+000 139 124 79
1.206436e-001 -1.027109e+000 -7.334623e+000 137 123 76
1.203297e-001 -1.026382e+000 -7.339890e+000 137 123 76
1.076963e-001 -1.054548e+000 -7.364432e+000 143 129 89
2.547778e-001 -1.014493e+000 -7.391097e+000 142 128 83
2.646907e-001 -1.030225e+000 -7.416389e+000 77 63 28
5.159284e-001 -9.977598e-001 -7.474393e+000 128 115 71
6.505546e-001 -1.035393e+000 -7.600866e+000 80 70 44
7.010485e-001 -9.876037e-001 -7.616641e+000 111 105 73
7.641969e-001 -1.066247e+000 -7.738716e+000 70 66 38
7.641969e-001 -1.066247e+000 -7.738716e+000 70 66 38
9.579386e-001 -1.029806e+000 -7.809384e+000 59 63 40
1.064314e+000 -9.873324e-001 -7.821791e+000 82 84 62
1.199876e+000 -1.017183e+000 -7.964077e+000 58 62 39
-9.227321e-001 -1.109127e+000 -6.843046e+000 132 117 79
-9.383866e-001 -1.150807e+000 -6.867039e+000 140 124 93
-9.483150e-001 -1.180194e+000 -6.888180e+000 135 123 92
-8.027538e-001 -1.099886e+000 -6.885739e+000 144 130 98
-8.076195e-001 -1.121756e+000 -6.903034e+000 143 128 96
-8.076195e-001 -1.121756e+000 -6.903034e+000 143 128 96
-6.328420e-001 -1.106428e+000 -7.006612e+000 146 129 101
-6.426593e-001 -1.139815e+000 -7.016106e+000 147 134 98
-4.899550e-001 -1.082255e+000 -7.042262e+000 141 127 92
-4.222719e-001 -1.089030e+000 -7.095697e+000 150 134 97
-4.041022e-001 -1.166656e+000 -7.177893e+000 149 135 100
-2.114589e-001 -1.083904e+000 -7.198581e+000 140 125 87
-2.242799e-001 -1.177727e+000 -7.297406e+000 85 71 42
-1.193810e-002 -1.157475e+000 -7.393655e+000 92 78 49
2.523967e-002 -1.128828e+000 -7.371203e+000 138 125 81
2.523967e-002 -1.128828e+000 -7.371203e+000 138 125 81
4.460764e-001 -1.178383e+000 -7.682767e+000 135 124 78
5.891730e-001 -1.124202e+000 -7.708044e+000 120 111 72
8.351229e-001 -1.116077e+000 -7.839433e+000 91 90 60
-1.235188e+000 -1.271734e+000 -6.828061e+000 136 121 88
-1.009749e+000 -1.231654e+000 -6.920951e+000 86 69 42
-1.012071e+000 -1.230350e+000 -6.929376e+000 86 69 42
-9.735642e-001 -1.185209e+000 -6.881051e+000 95 82 55
-9.720960e-001 -1.229227e+000 -6.931561e+000 140 125 91
-9.856914e-001 -1.265364e+000 -6.948386e+000 139 125 95
-8.050816e-001 -1.216367e+000 -7.011227e+000 101 84 54
-5.358528e-001 -1.195597e+000 -7.146429e+000 138 123 94
-3.978877e-001 -1.207001e+000 -7.227841e+000 96 83 53
-4.020493e-001 -1.292450e+000 -7.316850e+000 136 122 81
-4.016802e-001 -1.292209e+000 -7.318581e+000 136 122 81
-2.878219e-001 -1.275793e+000 -7.370363e+000 134 122 84
-2.405005e-001 -1.236888e+000 -7.342682e+000 99 88 58
-1.383269e-001 -1.222694e+000 -7.403698e+000 130 120 85
-1.382110e-001 -1.222770e+000 -7.402878e+000 130 120 85
-8.497100e-003 -1.210595e+000 -7.462577e+000 138 125 86
4.257581e-002 -1.226558e+000 -7.504949e+000 137 125 86
1.515406e-001 -1.274766e+000 -7.619706e+000 140 128 89
3.388384e-001 -1.212073e+000 -7.650302e+000 85 75 40
3.725513e-001 -1.204398e+000 -7.663095e+000 137 125 85
3.729204e-001 -1.202911e+000 -7.668666e+000 137 125 85
4.582388e-001 -1.294755e+000 -7.820792e+000 127 118 74
9.443433e-001 -1.216176e+000 -7.984992e+000 64 68 43
8.938935e-001 -1.271086e+000 -8.033016e+000 89 89 60
-1.493178e+000 -1.362031e+000 -6.792469e+000 85 71 38
-1.310377e+000 -1.311311e+000 -6.829626e+000 129 115 79
-9.826474e-001 -1.364072e+000 -7.053519e+000 85 74 46
-9.450209e-001 -1.319307e+000 -7.043001e+000 133 120 86
-8.739920e-001 -1.295090e+000 -7.057740e+000 135 124 93
-8.062085e-001 -1.331318e+000 -7.146635e+000 67 49 46
-4.855284e-001 -1.373103e+000 -7.333186e+000 139 125 87
-3.298786e-001 -1.378249e+000 -7.458930e+000 142 129 87
-3.303903e-001 -1.377885e+000 -7.458973e+000 142 129 87
-1.478185e-001 -1.317352e+000 -7.498741e+000 84 72 50
-6.430347e-002 -1.348121e+000 -7.580765e+000 143 131 93
1.024517e-001 -1.389405e+000 -7.719571e+000 139 126 90
5.051192e-001 -1.326096e+000 -7.893449e+000 125 117 81
9.991876e-001 -1.321865e+000 -8.179153e+000 85 86 56
1.200799e+000 -1.405224e+000 -8.377106e+000 87 74 58
-1.309367e+000 -1.475078e+000 -7.005699e+000 129 118 86
-1.000750e+000 -1.446491e+000 -7.158157e+000 128 119 88
-9.557394e-001 -1.409514e+000 -7.138930e+000 81 71 46
-9.240465e-001 -1.482283e+000 -7.232195e+000 133 123 88
-5.437775e-001 -1.505549e+000 -7.473098e+000 143 128 89
-4.770883e-001 -1.475147e+000 -7.484380e+000 137 123 88
-4.770883e-001 -1.475147e+000 -7.484380e+000 137 123 88
-4.384275e-001 -1.504667e+000 -7.530680e+000 140 127 83
-4.428764e-002 -1.436437e+000 -7.681868e+000 141 128 86
-5.393178e-002 -1.456910e+000 -7.709327e+000 136 124 84
-6.594674e-002 -1.483955e+000 -7.730329e+000 134 122 84
-6.552980e-002 -1.485355e+000 -7.732543e+000 134 122 84
3.426034e-001 -1.422643e+000 -7.922333e+000 138 124 88
3.991668e-001 -1.437027e+000 -7.943147e+000 125 115 80
3.834751e-001 -1.472956e+000 -7.956171e+000 126 112 82
3.846176e-001 -1.470883e+000 -7.968333e+000 126 112 82
4.992029e-001 -1.489342e+000 -8.025765e+000 121 111 82
5.654468e-001 -1.469432e+000 -8.071620e+000 108 101 72
5.674349e-001 -1.469602e+000 -8.077559e+000 108 101 72
-1.117284e+000 -1.515697e+000 -7.139957e+000 124 115 84
-4.424464e-001 -1.534972e+000 -7.564041e+000 144 126 79
3.844093e-001 -2.024540e-001 -6.684837e+000 109 108 60
3.844093e-001 -2.024540e-001 -6.684837e+000 109 108 60
8.015394e-001 -1.856619e-001 -6.901664e+000 96 101 69
8.332778e-001 -1.792515e-001 -6.907267e+000 65 69 45
8.327365e-001 -1.793243e-001 -6.905618e+000 65 69 45
1.455808e+000 -1.578380e-001 -7.233916e+000 62 71 50
-2.645900e-001 -2.941364e-001 -6.396265e+000 74 64 37
-2.506572e-001 -3.167392e-001 -6.439614e+000 127 118 61
5.582026e-001 -2.722414e-001 -6.840487e+000 113 113 65
9.063467e-001 -2.388845e-001 -7.001937e+000 91 98 65
9.078482e-001 -2.369817e-001 -7.006071e+000 91 98 65
8.867500e-001 -3.016383e-001 -7.038873e+000 99 105 69
8.864254e-001 -3.008939e-001 -7.038649e+000 99 105 69
1.135111e+000 -2.079130e-001 -7.095552e+000 60 63 44
1.097120e+000 -2.172785e-001 -7.103670e+000 90 96 70
1.269873e+000 -2.541855e-001 -7.243380e+000 85 94 65
1.284865e+000 -2.007686e-001 -7.181011e+000 91 97 67
1.284865e+000 -2.007686e-001 -7.181011e+000 91 97 67
1.381359e+000 -1.919707e-001 -7.219606e+000 62 66 48
-1.058403e+000 -5.052695e-001 -6.119693e+000 78 74 63
-1.170071e-001 -3.814406e-001 -6.567646e+000 134 122 72
-4.964091e-002 -3.607675e-001 -6.578593e+000 110 102 56
-7.631003e-002 -4.203648e-001 -6.596534e+000 132 121 69
-7.628465e-002 -4.166163e-001 -6.605288e+000 132 121 69
-3.500909e-002 -4.520370e-001 -6.673705e+000 135 126 85
6.332913e-001 -3.239195e-001 -6.932601e+000 89 86 51
6.492343e-001 -3.790636e-001 -6.984421e+000 67 63 39
6.786685e-001 -3.767996e-001 -6.996625e+000 115 112 73
6.794786e-001 -3.749927e-001 -6.997871e+000 115 112 73
7.406277e-001 -3.689135e-001 -7.018386e+000 104 104 68
8.704666e-001 -3.493396e-001 -7.084391e+000 97 103 67
8.706820e-001 -3.485854e-001 -7.085482e+000 97 103 67
1.101451e+000 -3.039678e-001 -7.172295e+000 59 65 37
1.092863e+000 -3.284379e-001 -7.210519e+000 59 64 42
1.092863e+000 -3.284379e-001 -7.210519e+000 59 64 42
1.119050e+000 -3.361073e-001 -7.204565e+000 88 94 68
1.166878e+000 -2.900707e-001 -7.202612e+000 59 67 44
1.242443e+000 -3.348918e-001 -7.276239e+000 88 93 67
1.355723e+000 -3.503105e-001 -7.324791e+000 86 95 68
-1.190238e+000 -6.092182e-001 -6.142042e+000 122 116 101
-1.074983e+000 -5.247433e-001 -6.122854e+000 125 121 109
-1.075590e+000 -5.241517e-001 -6.122782e+000 125 121 109
-8.758759e-001 -5.923933e-001 -6.294149e+000 77 72 59
-4.691075e-001 -5.231349e-001 -6.498014e+000 78 65 49
-4.129397e-001 -5.227728e-001 -6.527885e+000 131 121 67
-3.265098e-001 -5.501794e-001 -6.599736e+000 135 120 69
-3.268529e-001 -5.504223e-001 -6.598487e+000 135 120 69
-1.540418e-001 -4.888978e-001 -6.632551e+000 139 123 79
-1.596858e-001 -5.030552e-001 -6.660915e+000 145 130 87
-1.660769e-001 -5.187501e-001 -6.681056e+000 139 126 81
2.281338e-001 -5.073172e-001 -6.867507e+000 82 69 35
6.524023e-001 -4.511158e-001 -7.079624e+000 115 112 70
6.365689e-001 -5.075470e-001 -7.098104e+000 121 113 63
7.818581e-001 -4.340709e-001 -7.090286e+000 105 106 72
7.818581e-001 -4.340709e-001 -7.090286e+000 105 106 72
8.447949e-001 -4.236407e-001 -7.119776e+000 99 103 70
7.272639e-001 -5.077352e-001 -7.149400e+000 66 65 35
8.233937e-001 -4.917968e-001 -7.190749e+000 102 104 65
8.233937e-001 -4.917968e-001 -7.190749e+000 102 104 65
8.561647e-001 -4.832515e-001 -7.191485e+000 65 67 43
8.859293e-001 -4.881186e-001 -7.220821e+000 98 101 70
8.859293e-001 -4.881186e-001 -7.220821e+000 98 101 70
9.957871e-001 -4.463256e-001 -7.239235e+000 60 65 41
1.083180e+000 -4.478811e-001 -7.293659e+000 90 94 67
1.188191e+000 -4.080693e-001 -7.328638e+000 55 60 37
-1.207469e+000 -6.717634e-001 -6.201160e+000 79 73 63
-1.000576e+000 -6.612178e-001 -6.284733e+000 149 133 117
-9.447657e-001 -6.813054e-001 -6.343271e+000 80 76 68
-9.435942e-001 -6.814246e-001 -6.343782e+000 80 76 68
-8.876995e-001 -6.160413e-001 -6.307254e+000 77 73 62
-1.816332e-001 -5.710745e-001 -6.703961e+000 146 131 89
-2.146079e-001 -6.588765e-001 -6.762416e+000 150 135 90
-2.146079e-001 -6.588765e-001 -6.762416e+000 150 135 90
9.053085e-002 -5.514053e-001 -6.829538e+000 82 69 38
8.390334e-002 -6.402315e-001 -6.919049e+000 148 134 96
8.410241e-002 -6.408479e-001 -6.918396e+000 148 134 96
2.356356e-001 -5.665501e-001 -6.928034e+000 144 131 76
2.345025e-001 -5.689359e-001 -6.927332e+000 144 131 76
2.153722e-001 -6.221642e-001 -6.962343e+000 150 135 82
3.900632e-001 -5.736006e-001 -7.025817e+000 86 73 45
3.691133e-001 -6.388889e-001 -7.073184e+000 86 69 44
5.830776e-001 -5.698540e-001 -7.125457e+000 82 73 46
5.816368e-001 -5.737772e-001 -7.117601e+000 82 73 46
6.759655e-001 -5.656333e-001 -7.168494e+000 121 117 71
6.919277e-001 -6.061930e-001 -7.222911e+000 74 70 41
7.749279e-001 -5.393290e-001 -7.202386e+000 71 66 41
7.334337e-001 -5.747516e-001 -7.221049e+000 113 109 72
7.214950e-001 -6.081413e-001 -7.242432e+000 112 108 62
7.515191e-001 -6.108079e-001 -7.269502e+000 77 70 42
7.512291e-001 -6.113423e-001 -7.267924e+000 77 70 42
8.274776e-001 -5.747960e-001 -7.279466e+000 73 73 46
8.266374e-001 -5.779089e-001 -7.273529e+000 73 73 46
8.392415e-001 -6.219073e-001 -7.309366e+000 105 106 63
8.416469e-001 -6.142637e-001 -7.335921e+000 105 106 63
8.981080e-001 -5.335887e-001 -7.275834e+000 67 69 45
9.427766e-001 -5.916098e-001 -7.351953e+000 67 69 45
9.815923e-001 -5.661374e-001 -7.373527e+000 91 98 65
1.131065e+000 -5.707737e-001 -7.438603e+000 63 69 43
1.130877e+000 -5.709634e-001 -7.439191e+000 63 69 43
1.191280e+000 -5.700547e-001 -7.483790e+000 61 65 47
1.314196e+000 -5.569405e-001 -7.558309e+000 56 61 38
1.371083e+000 -5.598173e-001 -7.569439e+000 57 60 40
-1.239619e+000 -7.476760e-001 -6.251217e+000 124 117 103
-1.239619e+000 -7.476760e-001 -6.251217e+000 124 117 103
-1.192395e+000 -7.805665e-001 -6.306680e+000 79 79 68
-9.415348e-001 -7.122734e-001 -6.362265e+000 154 142 129
-9.940942e-001 -7.521663e-001 -6.358876e+000 74 73 64
-9.969957e-001 -7.486428e-001 -6.365559e+000 74 73 64
-7.252751e-001 -7.052012e-001 -6.459727e+000 127 115 79
-3.389255e-001 -7.451192e-001 -6.781944e+000 92 78 52
-2.439037e-001 -6.713132e-001 -6.766547e+000 87 71 45
-1.797127e-001 -7.071128e-001 -6.822035e+000 148 130 92
-2.426799e-001 -7.359733e-001 -6.836323e+000 158 138 105
-1.846759e-001 -7.269049e-001 -6.845056e+000 151 133 100
-5.839416e-002 -6.860678e-001 -6.881016e+000 157 136 83
-1.395915e-001 -7.525392e-001 -6.904519e+000 149 135 100
-1.028271e-001 -7.208130e-001 -6.893432e+000 88 73 44
5.402470e-002 -7.227038e-001 -6.983129e+000 146 132 93
5.507186e-002 -7.231556e-001 -6.976933e+000 146 132 93
1.626220e-001 -6.928931e-001 -7.008651e+000 80 66 41
1.894686e-001 -6.940494e-001 -7.031187e+000 150 136 85
8.480273e-002 -7.127870e-001 -6.985531e+000 72 60 32
5.463024e-001 -6.722645e-001 -7.225822e+000 86 77 45
5.506944e-001 -7.423045e-001 -7.270929e+000 138 128 76
7.099859e-001 -6.415064e-001 -7.271803e+000 119 116 65
6.164586e-001 -7.328978e-001 -7.307860e+000 125 115 65
6.534721e-001 -7.120328e-001 -7.300852e+000 79 70 39
6.534721e-001 -7.120328e-001 -7.300852e+000 79 70 39
8.655559e-001 -6.284220e-001 -7.345479e+000 65 65 36
9.397569e-001 -6.758946e-001 -7.429375e+000 99 103 70
9.050341e-001 -6.913553e-001 -7.433399e+000 61 58 43
8.636361e-001 -7.192066e-001 -7.419973e+000 104 104 69
9.273685e-001 -7.138858e-001 -7.459953e+000 94 93 62
1.114837e+000 -6.144611e-001 -7.482821e+000 61 65 43
1.083794e+000 -6.820898e-001 -7.526890e+000 56 59 40
1.155999e+000 -6.462910e-001 -7.534954e+000 56 59 38
-1.109483e+000 -8.368112e-001 -6.397888e+000 119 111 100
-1.109802e+000 -8.376560e-001 -6.396910e+000 119 111 100
-1.093780e+000 -8.477959e-001 -6.419307e+000 77 73 64
-5.355657e-001 -8.066454e-001 -6.722829e+000 61 47 39
-5.471312e-001 -8.356454e-001 -6.747422e+000 59 43 30
-4.862460e-001 -7.941289e-001 -6.746402e+000 100 83 62
-3.493154e-001 -7.753623e-001 -6.803418e+000 97 85 60
-2.899645e-001 -8.624173e-001 -6.931773e+000 152 139 104
-2.216300e-001 -8.164221e-001 -6.917497e+000 151 133 97
-2.062011e-001 -8.578362e-001 -6.970724e+000 103 87 64
-2.057735e-001 -8.606041e-001 -6.963565e+000 103 87 64
-1.313589e-001 -8.060001e-001 -6.961425e+000 98 82 60
-1.315238e-001 -8.057062e-001 -6.961709e+000 98 82 60
-1.243801e-001 -8.552431e-001 -7.015468e+000 143 128 86
3.878335e-002 -7.659492e-001 -7.013986e+000 145 132 88
3.233986e-002 -7.835694e-001 -7.026856e+000 144 130 93
5.859810e-002 -7.773776e-001 -7.041196e+000 83 73 46
1.110772e-001 -8.286709e-001 -7.126756e+000 97 84 55
5.391253e-001 -7.754056e-001 -7.277874e+000 134 124 73
5.247257e-001 -8.091141e-001 -7.328927e+000 138 121 72
5.171852e-001 -8.337376e-001 -7.341930e+000 139 124 77
6.932674e-001 -7.739368e-001 -7.396483e+000 84 77 44
6.928026e-001 -7.750616e-001 -7.395652e+000 84 77 44
7.251307e-001 -7.692309e-001 -7.409901e+000 117 113 66
7.330845e-001 -8.227318e-001 -7.448936e+000 76 69 43
8.198546e-001 -8.414727e-001 -7.536759e+000 101 99 64
8.893961e-001 -8.227214e-001 -7.567828e+000 100 101 70
9.984842e-001 -7.624319e-001 -7.562806e+000 71 73 49
-5.037708e-001 -9.137217e-001 -6.863365e+000 148 133 102
-5.037496e-001 -9.148186e-001 -6.862031e+000 148 133 102
-5.194561e-001 -9.494285e-001 -6.897326e+000 148 132 106
-4.400351e-001 -9.357480e-001 -6.923441e+000 77 62 33
-4.928261e-001 -9.568464e-001 -6.915670e+000 93 78 55
-3.433534e-001 -9.427340e-001 -6.980715e+000 91 75 48
-2.589182e-001 -9.261043e-001 -7.017982e+000 150 131 88
-1.638570e-001 -8.960852e-001 -7.022204e+000 94 78 47
-1.434451e-001 -9.037149e-001 -7.065603e+000 147 133 91
-1.447481e-001 -9.068438e-001 -7.056568e+000 147 133 91
-3.819681e-003 -8.765777e-001 -7.107615e+000 144 127 84
-3.819681e-003 -8.765777e-001 -7.107615e+000 144 127 84
2.653097e-002 -8.755939e-001 -7.114389e+000 95 81 54
-1.478906e-002 -9.058864e-001 -7.132119e+000 139 126 80
9.988493e-002 -8.658775e-001 -7.152040e+000 88 74 48
7.077894e-002 -9.479874e-001 -7.199435e+000 94 78 52
8.680854e-002 -9.654106e-001 -7.247675e+000 150 131 83
2.556803e-001 -9.492687e-001 -7.331593e+000 86 72 41
3.127299e-001 -9.317477e-001 -7.342390e+000 78 67 32
3.124598e-001 -9.336759e-001 -7.338009e+000 78 67 32
3.365906e-001 -9.130622e-001 -7.335384e+000 147 127 74
3.353851e-001 -9.128901e-001 -7.334345e+000 147 127 74
3.777671e-001 -9.600714e-001 -7.398981e+000 91 78 44
4.877447e-001 -9.107731e-001 -7.424185e+000 135 118 65
4.877447e-001 -9.107731e-001 -7.424185e+000 135 118 65
5.646221e-001 -8.675164e-001 -7.409163e+000 133 120 75
6.326466e-001 -8.548669e-001 -7.448078e+000 117 111 72
5.768223e-001 -9.137224e-001 -7.453709e+000 86 75 44
6.666654e-001 -9.232396e-001 -7.528677e+000 108 101 66
8.051442e-001 -8.761005e-001 -7.566316e+000 108 105 71
8.056325e-001 -8.763026e-001 -7.567548e+000 108 105 71
8.282725e-001 -8.926981e-001 -7.593131e+000 66 65 46
6.996898e-001 -9.127348e-001 -7.545146e+000 69 63 37
7.543243e-001 -9.332954e-001 -7.588863e+000 67 63 38
8.167026e-001 -9.267212e-001 -7.626779e+000 78 77 47
8.458893e-001 -8.511376e-001 -7.587213e+000 69 68 38
9.083672e-001 -8.468058e-001 -7.593729e+000 62 64 40
8.756659e-001 -9.294413e-001 -7.605368e+000 67 67 40
9.497848e-001 -9.021097e-001 -7.667684e+000 64 64 38
1.024536e+000 -8.523165e-001 -7.641216e+000 61 63 41
9.989527e-001 -9.236750e-001 -7.687020e+000 58 61 35
1.166126e+000 -9.440510e-001 -7.866462e+000 53 55 34
1.218715e+000 -8.998355e-001 -7.868135e+000 78 81 59
1.228952e+000 -9.358155e-001 -7.871026e+000 61 61 43
-7.895429e-001 -1.074556e+000 -6.869467e+000 146 130 96
-7.896249e-001 -1.074490e+000 -6.869202e+000 146 130 96
-5.188682e-001 -1.019277e+000 -6.966524e+000 71 59 34
-4.738845e-001 -1.020960e+000 -6.993371e+000 91 76 47
-4.600179e-001 -1.059068e+000 -7.041956e+000 87 76 48
-4.336192e-001 -9.924556e-001 -6.981286e+000 86 69 43
-4.339000e-001 -9.927243e-001 -6.981258e+000 86 69 43
-3.443266e-001 -1.001969e+000 -7.039522e+000 150 130 90
-2.779597e-001 -9.805478e-001 -7.072142e+000 152 133 91
-2.920897e-001 -1.005474e+000 -7.086695e+000 147 132 90
-2.399604e-001 -1.021059e+000 -7.127877e+000 144 129 87
-2.546254e-001 -1.057264e+000 -7.154194e+000 141 127 82
-1.832574e-001 -1.006676e+000 -7.128007e+000 145 128 82
-1.635658e-001 -1.034221e+000 -7.174913e+000 90 73 44
-2.017471e-001 -1.062383e+000 -7.195181e+000 138 123 79
-1.828976e-002 -9.875822e-001 -7.206481e+000 90 76 48
-6.216766e-002 -1.029832e+000 -7.232801e+000 137 124 73
-6.196773e-002 -1.029585e+000 -7.233374e+000 137 124 73
-4.449356e-002 -1.051434e+000 -7.266197e+000 84 72 46
5.478848e-002 -9.818244e-001 -7.244177e+000 88 74 46
7.299436e-002 -1.000980e+000 -7.292751e+000 144 127 83
7.299436e-002 -1.000980e+000 -7.292751e+000 144 127 83
9.868943e-002 -1.012003e+000 -7.307395e+000 85 70 40
9.866659e-002 -1.012221e+000 -7.308531e+000 85 70 40
1.270925e-001 -1.010928e+000 -7.308894e+000 138 125 75
1.524348e-001 -1.018025e+000 -7.339953e+000 88 76 54
5.592051e-002 -1.044518e+000 -7.302448e+000 139 125 76
7.508838e-002 -1.070836e+000 -7.345956e+000 84 73 46
1.659502e-001 -9.769926e-001 -7.331244e+000 87 75 42
2.860911e-001 -1.000391e+000 -7.376337e+000 91 76 44
3.515727e-001 -1.030114e+000 -7.444910e+000 98 85 51
4.268522e-001 -9.967485e-001 -7.492221e+000 83 72 41
4.780988e-001 -1.011301e+000 -7.518804e+000 76 65 45
4.780988e-001 -1.011301e+000 -7.518804e+000 76 65 45
4.347109e-001 -1.049341e+000 -7.526212e+000 131 121 73
4.346582e-001 -1.049551e+000 -7.526074e+000 131 121 73
5.905033e-001 -9.615980e-001 -7.523924e+000 126 115 71
6.203469e-001 -9.582166e-001 -7.541161e+000 75 69 41
6.659947e-001 -9.841326e-001 -7.594227e+000 69 62 34
5.934005e-001 -1.030484e+000 -7.616216e+000 83 73 46
6.259590e-001 -1.024204e+000 -7.604498e+000 117 110 67
6.853855e-001 -1.031822e+000 -7.605432e+000 112 104 68
6.853855e-001 -1.031822e+000 -7.605432e+000 112 104 68
7.331100e-001 -9.930873e-001 -7.639657e+000 71 66 37
8.019735e-001 -9.693034e-001 -7.648278e+000 65 63 42
7.898018e-001 -1.000479e+000 -7.696205e+000 69 64 46
8.080789e-001 -1.028506e+000 -7.714415e+000 99 99 65
8.084371e-001 -1.026999e+000 -7.719924e+000 99 99 65
8.524303e-001 -9.908643e-001 -7.714595e+000 74 73 47
8.376389e-001 -1.023351e+000 -7.710207e+000 68 66 42
9.858331e-001 -9.600729e-001 -7.765668e+000 57 61 38
1.014864e+000 -1.034580e+000 -7.860454e+000 60 60 39
1.111847e+000 -1.013080e+000 -7.875769e+000 79 82 54
1.189785e+000 -1.048453e+000 -7.988992e+000 55 56 38
-8.671806e-001 -1.116973e+000 -6.873443e+000 138 123 90
-8.671718e-001 -1.117794e+000 -6.870253e+000 138 123 90
-8.271844e-001 -1.164595e+000 -6.966350e+000 144 125 93
-6.163099e-001 -1.134379e+000 -7.030412e+000 103 85 62
-5.635119e-001 -1.136148e+000 -7.058195e+000 91 77 51
-5.755841e-001 -1.167338e+000 -7.090805e+000 79 65 38
-5.756905e-001 -1.166552e+000 -7.092333e+000 79 65 38
-3.888533e-001 -1.124231e+000 -7.142631e+000 149 135 99
-4.125482e-001 -1.183050e+000 -7.201182e+000 147 134 91
-3.827728e-001 -1.175464e+000 -7.204569e+000 86 70 45
-2.967617e-001 -1.163928e+000 -7.243068e+000 141 124 83
-2.969207e-001 -1.165263e+000 -7.238925e+000 141 124 83
-2.738599e-001 -1.178488e+000 -7.269774e+000 96 83 51
-1.196158e-001 -1.105805e+000 -7.280454e+000 84 73 44
-1.448581e-001 -1.170402e+000 -7.339651e+000 77 67 42
-1.443564e-001 -1.169530e+000 -7.342741e+000 77 67 42
-6.453112e-002 -1.098297e+000 -7.304785e+000 86 74 47
-1.073775e-001 -1.141160e+000 -7.333212e+000 115 103 61
-7.713449e-002 -1.140498e+000 -7.316221e+000 87 75 49
4.469572e-002 -1.078621e+000 -7.347684e+000 140 127 80
4.440179e-002 -1.079263e+000 -7.347031e+000 140 127 80
5.118033e-002 -1.127656e+000 -7.409111e+000 84 71 52
1.138840e-001 -1.113232e+000 -7.418911e+000 84 72 44
3.379741e-002 -1.174691e+000 -7.429432e+000 85 74 47
2.294080e-001 -1.079214e+000 -7.459467e+000 137 123 77
2.591837e-001 -1.071940e+000 -7.461606e+000 89 76 49
2.384152e-001 -1.126806e+000 -7.493551e+000 85 76 48
3.679243e-001 -1.141960e+000 -7.593762e+000 87 80 51
3.973650e-001 -1.140576e+000 -7.597251e+000 133 120 75
4.173264e-001 -1.090377e+000 -7.583530e+000 135 119 71
4.484233e-001 -1.086650e+000 -7.585750e+000 81 74 43
4.333163e-001 -1.125438e+000 -7.616777e+000 88 82 48
4.332463e-001 -1.124980e+000 -7.616686e+000 88 82 48
4.833908e-001 -1.079799e+000 -7.565466e+000 127 119 70
4.570513e-001 -1.143816e+000 -7.652811e+000 127 113 73
5.682357e-001 -1.092616e+000 -7.640474e+000 80 69 41
6.017835e-001 -1.087572e+000 -7.674765e+000 115 105 70
6.030929e-001 -1.086292e+000 -7.679098e+000 115 105 70
5.619604e-001 -1.181455e+000 -7.738863e+000 125 114 69
6.168227e-001 -1.131720e+000 -7.733001e+000 76 68 46
7.825778e-001 -1.092151e+000 -7.763582e+000 103 99 67
7.325273e-001 -1.145884e+000 -7.794680e+000 72 65 46
7.325273e-001 -1.145884e+000 -7.794680e+000 72 65 46
7.215627e-001 -1.169366e+000 -7.839358e+000 67 61 39
7.473583e-001 -1.184466e+000 -7.873560e+000 98 98 64
8.160621e-001 -1.161874e+000 -7.864886e+000 106 103 68
9.690563e-001 -1.153709e+000 -7.976535e+000 66 68 43
-1.026708e+000 -1.203092e+000 -6.868452e+000 140 125 91
-1.035274e+000 -1.232013e+000 -6.896326e+000 144 128 93
-1.035470e+000 -1.231270e+000 -6.898645e+000 144 128 93
-6.045388e-001 -1.236864e+000 -7.154059e+000 81 65 42
-4.416073e-001 -1.184852e+000 -7.194297e+000 95 79 51
-3.788196e-001 -1.226165e+000 -7.261689e+000 142 127 86
-4.102037e-001 -1.242232e+000 -7.269898e+000 105 89 62
-3.859532e-001 -1.258319e+000 -7.297265e+000 137 124 79
-3.419325e-001 -1.215606e+000 -7.268713e+000 96 85 57
-3.217804e-001 -1.291508e+000 -7.364135e+000 97 81 55
-2.608100e-001 -1.265074e+000 -7.364282e+000 107 96 64
-1.646064e-001 -1.215925e+000 -7.377561e+000 81 67 39
-1.647746e-001 -1.216341e+000 -7.376804e+000 81 67 39
-1.790257e-001 -1.254183e+000 -7.405053e+000 91 77 48
-1.783314e-001 -1.255691e+000 -7.401903e+000 91 77 48
-1.215586e-001 -1.244857e+000 -7.420763e+000 94 83 55
-1.309988e-001 -1.274057e+000 -7.454719e+000 85 74 43
-6.024898e-002 -1.270982e+000 -7.498526e+000 87 75 47
-9.728359e-003 -1.279099e+000 -7.524962e+000 97 86 54
6.915824e-002 -1.225254e+000 -7.506073e+000 87 73 44
5.321819e-002 -1.264350e+000 -7.550471e+000 83 70 46
5.321579e-002 -1.265101e+000 -7.549901e+000 83 70 46
1.231221e-001 -1.277765e+000 -7.601698e+000 92 78 50
1.827642e-001 -1.197645e+000 -7.550449e+000 137 124 83
1.836217e-001 -1.194487e+000 -7.556757e+000 137 124 83
1.954888e-001 -1.224866e+000 -7.578452e+000 89 79 52
2.139351e-001 -1.191384e+000 -7.556031e+000 84 73 43
3.531420e-001 -1.251990e+000 -7.715868e+000 134 126 80
3.533590e-001 -1.251620e+000 -7.716750e+000 134 126 80
4.579998e-001 -1.211392e+000 -7.705072e+000 81 72 41
4.797471e-001 -1.235939e+000 -7.754661e+000 124 115 76
4.427591e-001 -1.250355e+000 -7.767185e+000 85 75 39
4.423705e-001 -1.250942e+000 -7.768984e+000 85 75 39
6.511463e-001 -1.194936e+000 -7.856515e+000 79 71 48
6.692131e-001 -1.228355e+000 -7.874604e+000 108 102 68
6.960360e-001 -1.308379e+000 -7.945493e+000 108 101 72
8.500097e-001 -1.228725e+000 -7.982533e+000 96 95 67
9.187630e-001 -1.288325e+000 -8.085712e+000 66 65 45
1.128018e+000 -1.208771e+000 -8.077391e+000 57 59 38
1.130600e+000 -1.205026e+000 -8.104950e+000 57 59 38
-1.253171e+000 -1.316021e+000 -6.875057e+000 130 120 85
-1.176545e+000 -1.286775e+000 -6.869685e+000 132 118 84
-1.276847e+000 -1.377860e+000 -6.919928e+000 133 119 83
-1.078504e+000 -1.338948e+000 -6.988425e+000 138 125 86
-8.948751e-001 -1.313020e+000 -7.082532e+000 133 123 89
-9.442504e-001 -1.382336e+000 -7.109351e+000 86 75 56
-9.196821e-001 -1.391087e+000 -7.136817e+000 128 118 90
-9.210540e-001 -1.390895e+000 -7.137910e+000 128 118 90
-6.613486e-001 -1.378438e+000 -7.269132e+000 87 75 49
-6.610617e-001 -1.375859e+000 -7.274785e+000 87 75 49
-5.004062e-001 -1.392286e+000 -7.367000e+000 138 125 83
-4.409438e-001 -1.385290e+000 -7.402060e+000 143 128 92
-4.409438e-001 -1.385290e+000 -7.402060e+000 143 128 92
-3.521169e-001 -1.365176e+000 -7.437918e+000 85 71 42
-3.595443e-001 -1.387770e+000 -7.461496e+000 94 80 51
-1.749317e-001 -1.314926e+000 -7.478825e+000 133 122 77
-1.755976e-001 -1.311436e+000 -7.491342e+000 133 122 77
-2.309568e-001 -1.380721e+000 -7.512479e+000 109 98 70
-2.315033e-001 -1.383614e+000 -7.508138e+000 109 98 70
