ply
format ascii 1.0
element face 0
property list uchar int vertex_indices
element vertex 865
property float x
property float y
property float z
property uchar diffuse_red
property uchar diffuse_green
property uchar diffuse_blue
end_header
-1.289338e-001 -3.763982e-001 -7.278480e+000 250 249 240
-8.511652e-001 -2.849818e-001 -6.491953e+000 95 23 22
-8.644710e-001 -3.640102e-001 -6.562758e+000 217 99 70
-9.654882e-001 -3.628714e-001 -6.705011e+000 102 26 22
-7.522031e-001 -2.836926e-001 -7.074955e+000 181 74 38
-7.558302e-001 -2.753723e-001 -7.112349e+000 165 76 43
-3.060732e-001 1.543491e-002 -7.883722e+000 226 72 78
7.135556e-001 -9.485076e-001 -6.783931e+000 112 13 24
9.117277e-001 6.192389e-001 -6.456724e+000 190 52 55
-7.965732e-001 -3.965783e-001 -6.672772e+000 112 67 61
-1.206115e-001 -1.594795e-001 -7.628125e+000 201 195 178
-1.399393e-001 1.135717e+000 -7.501345e+000 139 34 34
8.459655e-001 -5.253794e-001 -6.563749e+000 221 213 200
7.936883e-001 5.669201e-001 -6.597168e+000 254 254 250
4.818352e-001 -1.122297e+000 -7.296208e+000 43 28 29
2.749206e-001 -5.195457e-001 -7.327774e+000 152 101 74
1.026425e+000 -2.324187e-001 -6.377412e+000 86 70 45
-6.288918e-001 -3.650853e-001 -6.741229e+000 198 75 39
-6.090209e-001 5.357219e-001 -8.140724e+000 209 45 54
7.669481e-001 -8.452721e-001 -6.691709e+000 253 254 249
-8.325553e-001 -3.082593e-001 -6.520255e+000 235 117 69
-3.886210e-001 8.764881e-001 -7.880126e+000 182 35 41
1.192413e+000 -4.088448e-001 -6.326773e+000 254 91 98
-4.836758e-001 -5.101403e-001 -6.806914e+000 190 84 58
-4.430223e-001 -4.863843e-001 -7.011177e+000 109 37 26
-3.073770e-001 -9.407814e-002 -7.926733e+000 178 174 163
5.689284e-001 -2.811700e-001 -6.699145e+000 247 245 232
-5.490754e-001 -4.096432e-001 -6.699046e+000 244 190 138
-9.697153e-001 -2.509702e-001 -6.473349e+000 139 118 71
-9.697153e-001 -2.509702e-001 -6.473349e+000 139 118 71
-4.782397e-001 -6.409863e-001 -6.609832e+000 33 24 21
2.905250e-001 -6.678425e-001 -7.328088e+000 141 15 19
2.571559e-001 -6.271319e-001 -7.875581e+000 36 22 19
1.959451e-001 -5.725774e-001 -6.919688e+000 254 255 250
1.959451e-001 -5.725774e-001 -6.919688e+000 254 255 250
6.192989e-001 -1.013123e+000 -6.776435e+000 126 12 20
6.001662e-001 -8.231522e-001 -6.842749e+000 201 128 122
4.011746e-001 -6.782323e-001 -6.987086e+000 255 255 251
4.015957e-001 -1.183064e+000 -7.474183e+000 202 187 151
2.962034e-001 -4.717775e-001 -6.879376e+000 84 75 55
2.962034e-001 -4.717775e-001 -6.879376e+000 84 75 55
3.077388e-001 -1.128824e-001 -6.797370e+000 254 254 249
-3.622938e-001 -5.020640e-001 -6.809600e+000 251 251 249
-1.897019e-001 -4.617060e-001 -6.952791e+000 218 217 213
-2.138325e-001 -3.862583e-001 -7.020674e+000 141 131 117
1.669552e-001 -4.584061e-001 -7.519795e+000 125 79 48
-7.334557e-001 -3.145976e-001 -6.503486e+000 131 65 67
-7.334557e-001 -3.145976e-001 -6.503486e+000 131 65 67
-7.123287e-001 -3.130218e-001 -6.501435e+000 140 85 80
-6.391084e-001 -3.855689e-001 -6.691805e+000 254 132 81
-6.391084e-001 -3.855689e-001 -6.691805e+000 254 132 81
-9.248622e-002 -3.357889e-001 -7.243621e+000 53 34 20
-8.544108e-001 -3.761064e-001 -6.524256e+000 234 124 96
-7.073007e-001 -4.115171e-001 -6.670843e+000 223 160 136
-8.628336e-001 -3.675134e-001 -6.550098e+000 178 60 35
-8.360499e-001 -4.177821e-001 -6.626051e+000 251 203 160
-3.651405e-001 -3.514844e-001 -7.197943e+000 145 144 134
-9.485771e-001 -2.358517e-001 -6.471307e+000 197 175 126
-9.702192e-001 -2.821801e-001 -6.485526e+000 104 83 34
-9.223858e-001 -2.943553e-001 -6.503833e+000 108 28 29
-9.606791e-001 -3.161337e-001 -6.554815e+000 116 30 28
-8.637789e-001 -4.330928e-001 -6.720381e+000 159 62 40
-7.746597e-001 -3.619957e-001 -6.828795e+000 208 93 55
-1.823549e-001 -3.274592e-001 -7.555729e+000 175 165 155
-8.000533e-001 -3.609174e-001 -6.882668e+000 215 105 64
-7.556201e-001 -3.649859e-001 -6.932843e+000 172 53 19
-9.901243e-001 -3.805247e-001 -6.700330e+000 80 13 4
-8.440424e-001 -3.076988e-001 -6.839760e+000 127 63 47
-7.582153e-001 -3.174414e-001 -6.968783e+000 204 89 54
-5.293311e-001 -2.496609e-001 -7.302073e+000 61 20 8
-2.060899e-001 -2.374838e-001 -7.713383e+000 182 175 165
-8.259309e-001 -2.723317e-001 -6.944907e+000 78 21 12
-7.440620e-001 -2.748946e-001 -7.132365e+000 79 2 0
-6.864982e-001 -3.161943e-001 -7.172265e+000 101 18 3
-1.158273e-001 -4.699582e-001 -6.974141e+000 220 219 215
-4.898238e-001 -4.422487e-001 -6.675957e+000 51 31 46
-1.443571e-001 -3.627975e-001 -7.154369e+000 148 143 127
-6.246288e-001 -3.432526e-001 -6.665810e+000 252 140 93
-2.454570e-001 -3.497217e-001 -7.108478e+000 52 35 19
-7.181732e-001 -3.550705e-001 -6.621987e+000 88 44 40
-8.088223e-001 -3.983924e-001 -6.655759e+000 43 38 34
-9.599448e-001 -2.613166e-001 -6.459298e+000 68 48 14
-1.043504e+000 -2.725917e-001 -6.503220e+000 221 203 145
-1.043504e+000 -2.725917e-001 -6.503220e+000 221 203 145
-8.679978e-001 -3.685321e-001 -6.782689e+000 89 22 6
-7.689368e-001 -3.585108e-001 -6.874938e+000 172 55 23
-6.423999e-001 -3.743704e-001 -7.095181e+000 185 109 85
-2.513860e-001 -1.016606e-001 -7.417967e+000 132 130 118
-6.564092e-001 -2.682661e-001 -7.059468e+000 53 3 3
-6.821971e-001 -3.375291e-001 -7.073829e+000 117 7 6
-5.397042e-001 -2.949219e-001 -7.248329e+000 109 33 22
-5.522507e-001 -2.837237e-001 -7.256223e+000 142 61 47
-5.937023e-001 -1.820419e-001 -7.250662e+000 197 199 198
-5.973036e-001 -2.112772e-001 -7.256197e+000 75 31 22
-2.453068e-001 2.116255e-001 -7.678356e+000 158 150 142
6.357068e-001 -7.893187e-001 -6.824910e+000 235 216 206
4.977865e-002 -3.017727e-001 -6.885948e+000 253 251 245
-4.682398e-001 -4.200810e-001 -6.650789e+000 78 5 11
-5.352989e-001 -3.938564e-001 -6.653583e+000 33 44 40
-5.043451e-001 -4.851711e-001 -6.803792e+000 223 107 69
-5.114582e-001 -2.140342e-001 -6.637159e+000 32 26 28
-3.885020e-001 -4.809965e-001 -7.000655e+000 131 120 112
-1.169967e-001 -3.735740e-001 -7.219856e+000 169 157 149
-8.465873e-001 -2.909462e-001 -6.470864e+000 143 56 55
-6.633397e-001 -3.953661e-001 -6.686688e+000 209 88 52
-6.532860e-001 -3.379765e-001 -6.735002e+000 170 89 52
-4.017215e-001 -3.558693e-001 -7.161473e+000 195 192 187
-7.354360e-001 -4.575386e-001 -6.878436e+000 198 121 90
-6.479652e-001 -3.823077e-001 -7.114689e+000 112 36 18
-6.318026e-001 -3.976020e-001 -7.110828e+000 105 53 40
-5.791703e-001 -3.610346e-001 -7.196000e+000 72 18 12
-5.798745e-001 -3.305979e-001 -7.218931e+000 123 56 39
-1.982838e-001 -1.714526e-002 -7.721303e+000 167 169 156
4.434491e-001 -5.477760e-001 -6.925590e+000 217 211 199
2.003350e-001 -1.921274e-001 -6.887548e+000 255 254 250
-3.922450e-001 -4.324058e-001 -6.671445e+000 36 25 23
8.637673e-002 -5.251750e-001 -7.264767e+000 112 50 32
-4.477397e-001 -3.733024e-001 -6.642279e+000 116 20 15
-4.181340e-001 -4.216289e-001 -6.671572e+000 236 234 237
-6.209212e-001 -3.109323e-001 -6.643483e+000 35 21 26
5.493145e-003 -4.936753e-001 -7.542523e+000 137 12 15
-2.449637e-001 -4.010774e-001 -7.304470e+000 249 248 243
-8.472814e-001 -4.058080e-001 -6.732804e+000 197 102 72
-9.863497e-001 -3.787903e-001 -6.670584e+000 105 32 25
-8.995262e-001 -3.537927e-001 -6.753801e+000 84 24 12
-5.721136e-001 -2.684494e-001 -7.245642e+000 76 24 16
-1.531740e-001 -3.733035e-001 -7.859999e+000 15 7 8
-7.821947e-001 -2.437209e-001 -7.116624e+000 143 64 36
6.316344e-001 -8.873426e-001 -6.951345e+000 20 3 5
-2.167214e-001 -4.567082e-001 -6.907284e+000 241 240 236
-2.689988e-001 -4.732546e-001 -6.877810e+000 191 191 181
-1.965071e-001 -4.161001e-001 -6.993764e+000 142 134 127
-1.113934e-001 -3.945107e-001 -7.281666e+000 36 13 8
-6.871512e-001 -3.467331e-001 -6.633533e+000 230 192 143
-8.947859e-001 -4.261543e-001 -6.584572e+000 163 47 22
-8.414517e-001 -4.324148e-001 -6.709862e+000 164 64 38
-7.643825e-001 -2.500944e-001 -7.094338e+000 87 16 10
-2.349438e-001 3.675539e-001 -7.571674e+000 139 129 120
4.707965e-001 -3.400857e-001 -6.845834e+000 254 254 252
-4.981775e-001 -4.389917e-001 -6.763702e+000 254 204 158
-4.981775e-001 -4.389917e-001 -6.763702e+000 254 204 158
-4.919824e-001 -5.278166e-001 -6.868024e+000 246 197 148
-2.864710e-001 -3.806758e-001 -7.058624e+000 188 184 183
-1.249875e-001 -3.523115e-001 -7.249691e+000 48 30 15
-2.784621e-001 -3.135388e-001 -7.145362e+000 58 39 24
-8.408473e-001 -4.072937e-001 -6.610154e+000 250 207 160
-8.408473e-001 -4.072937e-001 -6.610154e+000 250 207 160
-6.993887e-001 -4.142612e-001 -6.772290e+000 222 160 119
-5.814197e-001 -3.710419e-001 -6.906423e+000 213 156 111
-4.079139e-001 -3.544127e-001 -7.127524e+000 163 156 150
-9.136001e-001 -4.095534e-001 -6.603672e+000 215 98 68
-6.900377e-001 -4.258438e-001 -6.908441e+000 187 72 42
-1.027576e+000 -2.708614e-001 -6.503070e+000 158 141 85
-9.218235e-001 -3.642056e-001 -6.738347e+000 97 32 16
-9.218235e-001 -3.642056e-001 -6.738347e+000 97 32 16
-6.033207e-001 -3.362283e-001 -7.138623e+000 80 19 18
-4.500648e-001 -4.635703e-001 -6.782319e+000 141 39 26
-4.647435e-001 -5.137683e-001 -6.826018e+000 152 42 31
-5.876724e-001 -4.082772e-001 -6.828850e+000 215 163 116
-7.336708e-001 -3.739973e-001 -6.936855e+000 171 48 20
-2.360947e-001 2.480423e-001 -7.491698e+000 125 110 103
-1.834250e-001 1.780269e-001 -7.537068e+000 132 117 109
-2.562788e-001 -2.735727e-001 -7.789505e+000 155 145 137
-2.236760e-001 1.683103e-001 -7.773360e+000 177 30 39
-2.783387e-001 3.126289e-001 -7.822975e+000 180 174 166
5.264550e-001 -9.253968e-001 -6.848144e+000 175 32 41
3.388337e-001 -1.168023e+000 -7.533494e+000 12 7 7
6.695254e-002 -5.001281e-001 -7.291436e+000 51 13 8
-6.955839e-001 -3.866740e-001 -6.842815e+000 150 48 25
-3.121242e-001 -3.458096e-001 -7.184964e+000 237 237 233
-9.141349e-001 -2.679695e-001 -6.519323e+000 118 36 32
-9.029350e-002 -4.128605e-001 -7.799309e+000 214 52 65
4.742849e-001 -6.994645e-001 -6.932756e+000 211 209 197
-6.487848e-001 -3.185250e-001 -7.051733e+000 108 44 35
-2.929843e-001 -3.288339e-001 -7.762814e+000 154 147 139
-1.015540e+000 -2.631671e-001 -6.577351e+000 39 28 26
-2.456501e-001 -3.973829e-001 -7.864111e+000 211 210 205
-2.456501e-001 -3.973829e-001 -7.864111e+000 211 210 205
-2.727090e-001 4.302449e-001 -7.559471e+000 158 151 143
2.414244e-001 -5.395201e-001 -7.477962e+000 118 90 53
-5.572621e-001 -2.440212e-001 -6.581081e+000 35 20 25
-1.755978e-001 -3.472390e-001 -7.172478e+000 74 19 22
-1.755978e-001 -3.472390e-001 -7.172478e+000 74 19 22
-2.405951e-001 -4.638199e-004 -7.663964e+000 88 9 15
5.076567e-001 -5.092919e-001 -6.791911e+000 105 90 57
5.199396e-001 -4.911838e-001 -6.790717e+000 105 90 57
-3.394253e-001 2.764472e-001 -8.078768e+000 25 10 10
-4.763069e-001 -4.650747e-001 -7.011102e+000 123 57 33
-9.390351e-001 -2.161541e-001 -6.420241e+000 170 149 104
-9.216976e-001 -2.998841e-001 -6.539651e+000 114 22 5
-8.939706e-001 -4.013918e-001 -6.699680e+000 187 87 60
-7.484541e-001 -3.606248e-001 -6.846830e+000 225 103 61
-9.796689e-001 -2.725399e-001 -6.524381e+000 56 34 10
-1.011157e+000 -2.834604e-001 -6.518232e+000 177 156 105
-5.415175e-001 -1.202911e+000 -8.702474e+000 61 52 55
7.359345e-001 -8.838334e-001 -6.871134e+000 142 18 33
1.101222e+000 2.835364e-001 -6.286394e+000 216 57 58
1.011111e+000 1.846702e-001 -6.400900e+000 203 200 191
2.766756e-001 -7.860902e-001 -7.376463e+000 158 130 86
-9.982022e-001 -2.334256e-001 -6.446868e+000 151 124 81
8.478974e-001 -6.099590e-001 -6.616514e+000 222 215 205
1.065372e+000 2.228563e-001 -6.335048e+000 224 62 68
4.332466e-001 -6.809588e-001 -6.961480e+000 255 253 241
4.515491e-001 -1.014271e-001 -6.736245e+000 205 198 188
-1.779222e-001 -4.531377e-001 -7.018366e+000 218 218 210
-8.157508e-001 -3.367454e-001 -6.869995e+000 148 58 34
1.042786e+000 -1.672775e-001 -6.386881e+000 219 209 201
7.290644e-001 -8.574144e-001 -6.906087e+000 211 60 63
7.670169e-001 6.353552e-001 -6.566424e+000 230 55 60
7.101754e-001 -1.994324e-001 -6.594894e+000 217 213 204
9.146051e-001 5.072504e-001 -6.371041e+000 229 52 65
5.985418e-001 -2.781558e-001 -6.758785e+000 247 244 237
6.605765e-001 -8.959080e-001 -6.965698e+000 24 14 13
9.255714e-001 3.562014e-001 -6.495695e+000 246 243 238
8.296729e-001 -4.207484e-001 -6.517419e+000 98 87 57
9.638615e-001 -5.588882e-002 -6.433059e+000 226 223 216
8.284065e-001 -7.398648e-001 -6.617319e+000 212 208 199
-3.758389e-001 5.046536e-001 -7.769810e+000 192 187 182
8.144603e-001 5.394226e-001 -6.599112e+000 211 210 205
3.767325e-001 -4.534574e-002 -6.768834e+000 237 234 227
8.179526e-001 6.708326e-001 -6.678311e+000 235 233 229
-1.858675e-001 -4.747568e-001 -6.959990e+000 237 238 232
6.530769e-003 -5.296582e-001 -7.174651e+000 188 185 180
-5.641221e-001 -2.494289e-001 -6.614428e+000 227 136 82
-4.782958e-001 -5.099673e-001 -6.825285e+000 203 95 66
-7.926208e-001 -2.809531e-001 -6.476766e+000 126 57 56
-1.026777e+000 -2.620034e-001 -6.489426e+000 187 170 113
-9.912715e-001 -2.715066e-001 -6.541003e+000 57 41 16
-9.703374e-001 -3.787266e-001 -6.686022e+000 127 38 20
-3.426306e-001 1.062732e+000 -7.817335e+000 193 46 52
8.520988e-001 -6.144564e-001 -6.636153e+000 247 244 239
7.232278e-001 5.479196e-001 -6.653597e+000 233 232 228
2.817883e-001 -6.146105e-001 -7.380860e+000 68 28 10
-2.938057e-001 -4.906819e-001 -6.845943e+000 247 247 244
-2.803078e-001 -4.912120e-001 -6.861191e+000 185 179 176
-3.148702e-003 -5.143567e-001 -7.188887e+000 240 239 235
-4.898526e-001 -5.051909e-001 -6.828083e+000 175 64 36
-4.920967e-001 -5.063807e-001 -6.826247e+000 175 64 36
-9.142996e-002 -4.869316e-001 -7.614149e+000 203 160 118
-9.806076e-002 -4.837190e-001 -7.190112e+000 203 198 199
-6.077574e-001 -3.788742e-001 -6.731685e+000 205 103 63
-8.609941e-001 -3.764841e-001 -6.772512e+000 187 148 113
-2.555936e-001 -2.150618e-001 -7.752601e+000 159 155 146
-2.555936e-001 -2.150618e-001 -7.752601e+000 159 155 146
-8.283291e-002 -5.054887e-001 -7.057152e+000 207 206 202
-1.105350e-001 -4.085594e-001 -7.254319e+000 166 154 145
-6.578933e-001 -3.224505e-001 -7.110248e+000 241 139 102
4.829456e-001 -1.957410e-001 -6.770189e+000 254 254 252
-6.274071e-001 -3.165526e-001 -7.058170e+000 75 16 13
-4.916423e-001 4.487571e-001 -7.922463e+000 192 188 176
8.627493e-001 3.905598e-001 -6.457336e+000 230 223 219
7.467226e-001 7.997963e-001 -6.525418e+000 212 54 62
-9.164179e-001 -2.102965e-001 -6.424866e+000 153 133 83
4.060593e-001 -8.169988e-001 -7.100064e+000 229 228 223
-2.856810e-002 -4.068487e-001 -7.393223e+000 69 38 20
7.260847e-001 6.406110e-001 -6.610627e+000 252 248 243
-4.642556e-001 5.328505e-001 -8.059581e+000 14 5 10
6.493893e-002 -6.357720e-001 -7.665838e+000 225 48 58
6.277306e-001 -3.871572e-001 -6.644189e+000 156 145 123
3.579124e-001 -3.056289e-001 -6.922471e+000 255 253 242
1.753433e-001 -5.636543e-001 -6.869220e+000 98 90 63
-9.588720e-002 -3.646604e-001 -6.896392e+000 252 251 246
-4.787647e-001 -3.757379e-001 -6.656970e+000 210 193 175
-4.913510e-001 -4.237490e-001 -6.660325e+000 223 203 173
-1.699769e-001 -4.140857e-001 -7.126635e+000 129 120 115
-8.148929e-001 -2.580434e-001 -6.469237e+000 45 22 16
-7.969595e-001 -2.613871e-001 -6.478883e+000 132 59 58
-9.097819e-001 -2.711473e-001 -6.500311e+000 151 71 74
-8.067319e-001 -3.814139e-001 -6.805793e+000 173 79 53
-7.677329e-001 -2.563429e-001 -6.888197e+000 178 89 59
-7.677329e-001 -2.563429e-001 -6.888197e+000 178 89 59
-6.966425e-001 -2.395974e-001 -6.967769e+000 165 50 21
-7.067941e-001 -1.862909e-001 -7.191110e+000 86 25 22
5.583936e-001 -5.109000e-001 -6.827630e+000 156 137 95
4.252161e-001 -6.397501e-001 -6.899486e+000 215 211 202
3.189208e-001 -7.451141e-001 -7.308494e+000 178 39 50
-4.908252e-001 -4.418734e-001 -6.675379e+000 46 35 48
-1.567700e-001 -3.797506e-001 -7.154027e+000 142 133 126
-8.029411e-001 -3.466121e-001 -6.540123e+000 211 97 71
-6.995305e-001 -3.263470e-001 -6.611126e+000 206 186 169
-8.997822e-001 -2.451732e-001 -6.456832e+000 35 16 14
-8.923073e-001 -2.204847e-001 -6.461059e+000 35 16 14
-3.981693e-001 -4.124916e-001 -7.088658e+000 96 39 35
-3.981693e-001 -4.124916e-001 -7.088658e+000 96 39 35
-3.103759e-001 -3.706203e-001 -7.204179e+000 188 185 180
-8.199421e-001 -3.999048e-001 -6.687766e+000 222 206 198
-6.547922e-001 -4.231906e-001 -6.962595e+000 164 79 43
-4.174347e-001 -3.840688e-001 -7.154115e+000 174 167 161
-9.187918e-001 -3.928323e-001 -6.665534e+000 163 54 23
-8.280668e-001 -3.596619e-001 -6.798803e+000 109 37 17
-6.660819e-001 -2.730698e-001 -7.073350e+000 89 4 3
-6.621224e-001 -2.636401e-001 -7.093611e+000 183 76 47
-7.978286e-001 -3.175938e-001 -7.016825e+000 133 41 16
-6.501479e-001 -2.369571e-001 -7.239301e+000 171 166 155
6.203176e-001 -4.152770e-001 -6.631772e+000 90 75 42
2.877444e-001 -5.400060e-001 -6.895819e+000 176 163 120
2.828278e-001 -8.512732e-001 -7.408284e+000 220 198 149
-3.205557e-001 -2.755154e-001 -6.684712e+000 150 69 57
-2.106651e-001 -4.641366e-001 -6.958947e+000 206 203 198
-5.401071e-001 -4.027512e-001 -6.653444e+000 28 35 44
-6.960532e-001 -3.346661e-001 -6.530220e+000 126 69 67
-9.501212e-001 -2.238854e-001 -6.453770e+000 58 36 15
-8.742018e-001 -3.734298e-001 -6.578268e+000 152 38 15
-6.024992e-001 -3.501747e-001 -6.822282e+000 201 139 104
-1.001207e+000 -1.980359e-001 -6.458982e+000 246 219 160
-9.691502e-001 -3.634601e-001 -6.708143e+000 96 29 17
-8.791395e-001 -3.485905e-001 -6.786764e+000 130 62 39
8.363150e-001 -1.002067e+000 -6.778836e+000 225 66 71
4.442323e-001 -5.868681e-001 -6.907886e+000 254 254 252
4.289340e-001 -5.696690e-001 -6.944970e+000 230 225 218
1.744902e-001 -1.544699e-001 -6.829032e+000 240 236 227
1.565515e-001 -2.106875e-001 -6.916773e+000 228 227 221
2.749584e-001 -6.530885e-001 -7.356100e+000 175 42 53
2.749584e-001 -6.530885e-001 -7.356100e+000 175 42 53
1.519477e-001 -8.142163e-001 -7.529202e+000 117 93 58
-6.046374e-001 -2.953428e-001 -6.656980e+000 241 125 76
-8.553916e-001 -3.124158e-001 -6.464175e+000 121 46 41
-7.130293e-001 -3.686978e-001 -6.664322e+000 215 164 118
-6.841711e-001 -3.962810e-001 -6.707424e+000 222 178 137
-8.611420e-001 -4.095690e-001 -6.664387e+000 157 53 29
-6.513780e-001 -2.997674e-001 -6.894343e+000 188 108 79
-9.516749e-001 -3.593371e-001 -6.632111e+000 231 119 82
-9.435255e-001 -4.698639e-001 -6.710037e+000 151 72 48
-9.672340e-001 -3.365308e-001 -6.677273e+000 100 24 15
-6.747031e-001 -2.575376e-001 -7.056901e+000 175 70 41
-6.414084e-001 -3.835784e-001 -7.156360e+000 174 91 55
8.972918e-001 -8.789546e-001 -6.640228e+000 221 52 57
9.194801e-001 -6.513294e-001 -6.519432e+000 188 179 170
6.114959e-001 -5.196525e-001 -6.836054e+000 197 191 177
4.335261e-001 -5.129463e-001 -6.844802e+000 164 146 99
-1.255061e-001 -4.563861e-001 -6.954367e+000 249 248 243
-4.532845e-001 -3.767506e-001 -6.650561e+000 101 17 18
-1.899900e-001 -3.888608e-001 -7.066321e+000 143 133 124
-5.950920e-002 -4.633279e-001 -7.312407e+000 160 109 77
-7.237384e-001 -4.070485e-001 -6.744947e+000 155 88 59
-6.282476e-001 -3.426003e-001 -6.851676e+000 211 163 122
-9.373689e-001 -3.029910e-001 -6.500171e+000 106 37 30
-8.256733e-001 -4.025935e-001 -6.715381e+000 149 53 31
-9.091210e-001 -3.256834e-001 -6.740214e+000 92 29 12
-6.105055e-001 -3.602080e-001 -7.136663e+000 71 10 5
-7.706550e-001 -2.603421e-001 -7.089415e+000 94 20 9
-7.706550e-001 -2.603421e-001 -7.089415e+000 94 20 9
6.871546e-001 -5.540449e-001 -6.707125e+000 162 153 136
1.603161e-001 -5.847773e-001 -6.883465e+000 253 253 248
9.535250e-002 -4.202266e-002 -6.858492e+000 165 156 147
-2.864819e-001 -4.957145e-001 -6.874330e+000 174 170 161
-4.974776e-001 -4.472253e-001 -6.770235e+000 253 191 147
-7.647002e-001 -3.184976e-001 -6.527498e+000 186 76 53
-6.922732e-001 -3.585478e-001 -6.637736e+000 234 193 147
-8.312378e-001 -3.750669e-001 -6.611285e+000 252 201 158
-8.330017e-001 -3.800332e-001 -6.609528e+000 252 201 158
-8.054700e-001 -3.892968e-001 -6.665732e+000 77 58 58
-5.895423e-001 -3.668441e-001 -6.901990e+000 197 137 100
6.357769e-001 -8.230789e-001 -6.854005e+000 179 33 43
6.582125e-001 -5.927262e-001 -6.752442e+000 233 229 220
6.273246e-001 -6.133218e-001 -6.742613e+000 233 229 220
6.721762e-001 -5.128879e-001 -6.807087e+000 163 154 137
2.494371e-001 -4.814549e-001 -6.881752e+000 109 99 69
2.494371e-001 -4.814549e-001 -6.881752e+000 109 99 69
1.420029e-001 -1.615322e-001 -6.872449e+000 201 195 183
3.195905e-001 -8.827111e-001 -7.436689e+000 139 117 73
1.480689e-001 -5.850994e-001 -7.361669e+000 119 91 56
-1.722078e-001 -4.301200e-001 -7.109169e+000 181 177 171
-1.119871e-001 -4.193673e-001 -7.347077e+000 239 235 234
-7.307296e-001 -3.614932e-001 -6.937544e+000 159 47 22
-5.492457e-001 -4.333697e-001 -7.182617e+000 128 111 104
2.250338e-001 -1.585751e-001 -6.897499e+000 255 255 251
1.673399e-001 -7.786071e-001 -7.584486e+000 18 6 6
-1.362868e-001 -5.111301e-001 -7.267299e+000 47 12 10
-8.041575e-001 -3.704732e-001 -6.569393e+000 164 64 41
-8.627542e-001 -3.673835e-001 -6.570831e+000 178 70 48
-8.486844e-001 -3.369324e-001 -6.577894e+000 178 70 48
7.874030e-001 -1.138674e+000 -6.680665e+000 225 56 61
9.641636e-001 -5.232215e-001 -6.467669e+000 255 254 250
6.741859e-001 -6.711182e-001 -6.730083e+000 199 192 181
4.563046e-001 -7.134308e-001 -6.926623e+000 210 206 195
4.755117e-001 -3.129079e-001 -6.847476e+000 255 255 251
4.361982e-001 -1.105527e+000 -7.284061e+000 38 24 24
7.962106e-002 -5.254398e-001 -7.297366e+000 52 23 15
-4.793970e-001 -5.128203e-001 -6.815223e+000 186 80 57
-4.633767e-001 -6.470989e-001 -6.893344e+000 213 212 208
-9.237565e-001 -3.456662e-001 -6.567076e+000 238 116 67
-7.224473e-001 -3.443256e-001 -6.810628e+000 112 28 17
7.510506e-001 -8.417227e-001 -6.676043e+000 255 251 250
3.247694e-001 -5.796613e-001 -6.922978e+000 254 255 250
-2.471609e-001 -3.353492e-001 -7.395673e+000 116 99 89
-6.033570e-001 -3.780503e-001 -7.181121e+000 88 28 17
-4.110628e-001 9.726168e-002 -6.660569e+000 31 21 20
-5.746789e-001 -4.228884e-001 -6.691628e+000 228 176 128
-1.650527e-001 -3.914298e-001 -7.338283e+000 236 231 228
-1.650527e-001 -3.914298e-001 -7.338283e+000 236 231 228
-9.472818e-001 -1.890717e-001 -6.477396e+000 195 172 120
-9.669497e-001 -2.359946e-001 -6.467106e+000 195 172 120
8.422258e-001 -4.084078e-001 -6.520019e+000 102 89 57
-1.832892e-001 -3.338741e-001 -7.160770e+000 50 23 16
-1.832892e-001 -3.338741e-001 -7.160770e+000 50 23 16
-5.705662e-001 -4.025345e-001 -6.997406e+000 241 189 141
6.772135e-001 -9.549369e-001 -6.869930e+000 18 4 4
3.571197e-001 -1.139633e+000 -7.404252e+000 153 132 85
7.125621e-001 8.697387e-001 -6.590471e+000 42 22 12
-9.074243e-001 -3.941569e-001 -6.703836e+000 148 49 23
4.519800e-001 -1.533026e-001 -6.765462e+000 221 220 216
-6.325914e-001 5.981676e-001 -8.254785e+000 186 40 46
-6.338204e-001 5.944202e-001 -8.253235e+000 186 40 46
1.589481e-001 -7.979696e-001 -7.585906e+000 17 6 8
8.756152e-001 -5.070830e-001 -6.481564e+000 122 108 72
5.711230e-001 -6.135567e-002 -6.650686e+000 185 181 172
5.927111e-001 8.823729e-001 -6.981944e+000 203 200 195
-5.171408e-001 -4.105579e-001 -6.642807e+000 45 39 30
-4.835066e-001 -4.510777e-001 -6.685918e+000 212 166 131
1.424176e-001 -1.155859e+000 -7.738065e+000 75 64 62
-6.119582e-001 -3.277097e-001 -6.683147e+000 254 125 75
-9.196766e-001 -2.090921e-001 -6.441992e+000 171 148 105
-8.635230e-001 -3.752930e-001 -6.607068e+000 176 77 49
-8.206523e-001 1.528588e-001 -6.539592e+000 210 189 137
-9.676528e-001 -2.442091e-001 -6.494217e+000 192 166 117
1.166073e+000 9.222916e-002 -6.251993e+000 177 36 38
6.381233e-001 -9.953378e-002 -6.626054e+000 234 230 224
-2.245310e-001 -3.986368e-001 -7.014927e+000 127 117 108
1.294086e-002 -4.481931e-001 -7.415779e+000 177 112 70
-8.106683e-001 -3.730778e-001 -6.561156e+000 193 91 69
4.061703e-002 -4.787184e-001 -7.504941e+000 152 64 32
-3.044447e-001 -3.922672e-001 -7.219527e+000 209 208 203
-1.505127e-001 -4.269552e-001 -7.446011e+000 145 39 43
-6.374384e-002 -4.367610e-001 -7.561425e+000 179 131 91
-7.926936e-001 -3.229800e-001 -6.855515e+000 130 39 11
7.932397e-001 -1.000301e+000 -6.780350e+000 229 64 64
9.877877e-001 2.187029e-001 -6.422100e+000 236 222 219
9.596301e-001 2.094146e-001 -6.447690e+000 191 185 178
9.619039e-001 2.123290e-001 -6.448099e+000 191 185 178
8.236113e-001 -1.593586e-001 -6.517445e+000 198 197 193
9.535447e-001 6.735153e-001 -6.456756e+000 183 45 49
9.160064e-001 7.002817e-001 -6.486733e+000 216 61 67
6.862787e-001 2.609172e-002 -6.619492e+000 247 247 239
4.738434e-001 -1.761330e-003 -6.719986e+000 168 160 150
4.757972e-001 1.472632e-004 -6.720819e+000 168 160 150
2.777307e-001 -6.029105e-001 -7.400185e+000 105 81 48
1.790531e-001 -5.454094e-001 -7.537152e+000 127 86 48
-5.624036e-001 -2.490601e-001 -6.617270e+000 215 118 66
-5.593252e-001 -2.439935e-001 -6.618996e+000 215 118 66
5.946297e-002 -4.969512e-001 -7.532520e+000 162 13 25
-9.116016e-001 -2.572214e-001 -6.478137e+000 206 187 128
-9.933970e-001 -2.505185e-001 -6.481771e+000 41 26 13
-9.810793e-001 -2.712660e-001 -6.541489e+000 210 181 132
-9.877150e-001 -2.667293e-001 -6.561870e+000 227 197 145
-8.604411e-001 -3.543914e-001 -6.791627e+000 96 38 19
-6.037270e-001 -3.177693e-001 -7.064837e+000 178 109 76
-5.731326e-002 -4.937669e-001 -7.728443e+000 193 36 47
-5.705704e-001 -3.697657e-001 -7.163877e+000 79 26 19
-2.040188e-001 -1.067222e-002 -7.755330e+000 183 172 168
1.159756e+000 3.151264e-001 -6.262637e+000 38 22 23
6.616128e-001 -8.145185e-002 -6.602762e+000 179 175 166
6.774423e-001 6.698754e-001 -6.691778e+000 165 153 139
-5.461553e-001 -3.691690e-001 -6.662933e+000 230 182 134
-1.123184e-001 -3.713179e-001 -7.222124e+000 158 149 142
-1.662118e-001 -4.317572e-001 -7.419718e+000 200 194 190
-1.923288e-001 -1.254461e-002 -7.724520e+000 169 160 155
1.090645e+000 1.821005e-001 -6.339249e+000 200 40 45
7.064088e-002 -5.102346e-001 -7.329780e+000 61 32 19
-1.421543e-001 -3.851983e-001 -7.278542e+000 224 223 218
1.902422e-002 -4.834760e-001 -7.561408e+000 116 12 13
-4.135569e-001 1.026368e+000 -8.078829e+000 177 34 41
9.367335e-001 -8.947260e-001 -6.610790e+000 26 9 6
7.979698e-001 -7.395428e-001 -6.644299e+000 255 252 251
6.286422e-001 -3.403696e-002 -6.646477e+000 185 181 172
6.289981e-001 -3.356918e-002 -6.646419e+000 185 181 172
7.005739e-001 7.129445e-001 -6.641047e+000 137 32 36
6.486988e-001 8.913846e-001 -6.750424e+000 202 41 51
-5.022636e-001 -5.457384e-001 -6.861347e+000 236 185 142
-4.771150e-002 -4.176361e-001 -7.429664e+000 244 196 149
-1.024975e+000 -2.678586e-001 -6.503652e+000 188 165 113
-7.819607e-001 -3.181781e-001 -7.009374e+000 135 45 21
-3.021416e-001 2.246293e-001 -7.975978e+000 176 38 42
-2.999524e-001 2.763617e-001 -8.036308e+000 19 7 11
7.840980e-001 -9.495557e-001 -6.777436e+000 218 49 50
1.094187e+000 6.011896e-001 -6.333734e+000 30 27 22
6.591455e-001 7.553745e-001 -6.728157e+000 193 182 176
6.252043e-001 6.171093e-001 -6.767783e+000 164 156 145
6.675582e-001 7.992534e-001 -6.869913e+000 218 215 208
-5.261450e-001 -4.320586e-001 -6.803576e+000 190 70 43
8.802001e-001 -1.040174e+000 -6.776049e+000 21 6 9
9.173229e-001 1.739486e-001 -6.526453e+000 214 210 201
9.250474e-002 -5.029175e-001 -7.515972e+000 130 11 20
7.983369e-001 -2.099215e-001 -6.565268e+000 250 247 240
4.169577e-001 -1.156364e-001 -6.784262e+000 250 249 244
7.307438e-001 5.629052e-001 -6.658762e+000 246 244 240
5.438065e-001 -7.748887e-001 -6.844372e+000 253 254 249
1.122475e+000 2.501544e-001 -6.258774e+000 31 23 11
4.392005e-001 -4.330400e-001 -6.864095e+000 153 137 92
4.089928e-001 -8.646968e-001 -7.233074e+000 158 47 58
6.362459e-001 1.125818e+000 -6.743971e+000 36 20 13
-1.534943e-001 -4.281571e-001 -6.921771e+000 246 245 241
-7.053701e-001 -3.325451e-001 -6.516013e+000 130 71 69
-8.396163e-001 -2.132335e-001 -6.455068e+000 26 20 12
-6.126104e-001 -3.171565e-001 -6.683509e+000 246 122 75
-8.167035e-001 -3.329578e-001 -6.534367e+000 196 78 50
-8.304618e-001 -3.837232e-001 -6.556566e+000 193 93 73
-8.781944e-001 -3.532180e-001 -6.543649e+000 221 100 57
-4.646757e-001 -4.996323e-001 -6.997452e+000 113 65 45
1.605777e-001 -6.039720e-001 -7.748460e+000 23 6 3
-1.043552e+000 -2.675088e-001 -6.502766e+000 239 214 151
-1.044590e+000 -2.705872e-001 -6.501633e+000 239 214 151
-9.462387e-001 -3.766510e-001 -6.669924e+000 170 61 28
-7.423642e-001 -3.511258e-001 -6.866484e+000 181 65 29
-7.218999e-001 -3.469772e-001 -6.885198e+000 183 67 30
-7.135558e-001 -3.594649e-001 -6.897357e+000 176 63 29
7.971966e-001 -5.312470e-001 -6.615305e+000 218 213 207
8.494898e-001 4.457256e-001 -6.447756e+000 180 33 42
7.807612e-001 6.097359e-001 -6.469597e+000 35 21 11
-2.618955e-002 -5.494867e-001 -7.171966e+000 211 205 205
-9.580926e-001 -2.491706e-001 -6.468939e+000 218 192 141
-2.694496e-001 -3.730048e-001 -7.250677e+000 165 157 150
-8.981290e-001 -3.962449e-001 -6.697750e+000 172 81 53
9.917503e-001 -4.795395e-001 -6.427914e+000 254 248 243
1.012740e+000 2.255930e-001 -6.396516e+000 216 48 48
4.099400e-001 -9.228029e-002 -6.757939e+000 221 218 211
4.099400e-001 -9.228029e-002 -6.757939e+000 221 218 211
3.423500e-001 -7.784551e-002 -6.797411e+000 243 238 232
3.016982e-001 -7.103233e-001 -7.374482e+000 198 45 51
-2.070005e-002 -5.125259e-001 -7.087542e+000 173 170 164
-3.293223e-001 -5.121405e-001 -6.842240e+000 192 188 185
-1.595584e-001 -4.776225e-001 -6.986623e+000 195 192 187
8.111866e-002 -4.710173e-001 -7.484255e+000 71 7 7
8.111866e-002 -4.710173e-001 -7.484255e+000 71 7 7
-1.628144e-001 -3.933141e-001 -7.313567e+000 206 202 197
-1.033075e+000 -2.336425e-001 -6.439955e+000 44 26 17
-8.741802e-001 -3.709710e-001 -6.578938e+000 152 43 22
-6.828896e-001 -3.605402e-001 -6.871217e+000 177 100 73
-8.817896e-001 -4.069462e-001 -6.692163e+000 117 29 8
8.401276e-001 -7.949032e-001 -6.738372e+000 225 128 126
-7.890083e-001 -3.672909e-001 -6.548505e+000 143 42 22
-9.496822e-001 -2.267254e-001 -6.452338e+000 38 22 6
-8.705836e-001 -2.539659e-001 -6.474472e+000 109 29 30
-8.630475e-001 -4.106899e-001 -6.663062e+000 147 46 18
-8.560615e-001 -4.080047e-001 -6.685069e+000 180 88 60
-6.542139e-001 -2.698703e-001 -7.048066e+000 36 2 2
7.431042e-001 -9.731701e-001 -6.777973e+000 215 53 58
1.094110e+000 4.372720e-001 -6.341702e+000 214 50 61
4.274914e-001 -7.088153e-001 -7.001885e+000 254 253 248
4.574338e-001 6.778543e-001 -6.971711e+000 248 245 240
3.104375e-001 -8.048631e-001 -7.390005e+000 254 250 192
1.241529e-001 -9.379606e-002 -6.854172e+000 255 255 251
-7.307497e-001 -3.618141e-001 -6.937441e+000 151 45 23
8.402527e-001 -9.893808e-001 -6.779574e+000 212 50 51
4.394851e-001 -5.214876e-001 -6.859082e+000 166 149 103
7.007325e-001 1.516151e-001 -6.619543e+000 253 252 247
6.256153e-001 -9.070134e-001 -6.953620e+000 23 10 9
-2.300207e-001 -1.384223e-001 -7.570156e+000 160 150 140
5.441112e-001 -9.471339e-001 -7.078851e+000 244 243 240
5.441112e-001 -9.471339e-001 -7.078851e+000 244 243 240
2.838053e-001 -9.952517e-001 -7.509172e+000 137 119 71
-4.273517e-001 5.723230e-001 -8.103227e+000 9 4 6
-2.598314e-001 1.539696e-002 -7.667518e+000 129 17 24
2.719985e-001 -7.052922e-001 -7.327787e+000 124 17 25
1.345061e-001 2.877776e-001 -6.771865e+000 219 215 211
-2.467157e-001 -2.722284e-001 -7.798022e+000 165 156 149
4.623675e-001 -7.580523e-001 -7.048325e+000 217 214 207
5.731279e-002 -7.917169e-001 -7.795173e+000 32 18 17
9.672748e-001 -1.098722e+000 -6.705141e+000 214 95 83
5.745448e-001 8.207195e-001 -6.945471e+000 203 200 193
-7.641731e-001 -2.925558e-001 -6.483547e+000 131 68 61
-7.685224e-001 -3.698630e-001 -6.573788e+000 185 124 96
-6.042160e-001 -4.107803e-001 -6.764964e+000 209 105 70
-9.274119e-001 -4.094626e-001 -6.613635e+000 196 83 49
-7.958502e-001 -3.596665e-001 -6.809836e+000 147 59 37
9.486680e-001 -4.818417e-001 -6.392092e+000 134 114 69
1.040642e+000 -1.853564e-001 -6.379437e+000 230 217 212
9.306524e-001 -4.800540e-001 -6.501523e+000 149 132 105
8.751626e-001 7.277844e-001 -6.505777e+000 216 52 51
5.752140e-001 -5.108639e-001 -6.871185e+000 186 179 165
-9.518908e-002 -3.655564e-001 -6.897879e+000 248 247 242
-8.623371e-001 -2.915655e-001 -6.472492e+000 135 64 63
-8.454137e-001 -2.418867e-001 -6.487576e+000 135 64 63
-8.948778e-001 -3.490616e-001 -6.542151e+000 238 118 68
-8.780764e-001 -4.125763e-001 -6.639414e+000 199 94 64
1.008958e+000 -1.065030e+000 -6.739374e+000 16 6 8
9.890205e-001 2.267366e-001 -6.419746e+000 233 213 205
3.867702e-001 -4.373993e-001 -6.886730e+000 203 187 136
4.094295e-001 -5.532947e-001 -6.932729e+000 246 243 234
2.773234e-001 -1.116520e-001 -6.894601e+000 254 252 244
-5.497663e-001 -2.754427e-001 -6.616837e+000 37 17 14
-7.937499e-001 -3.324962e-001 -6.905457e+000 155 56 27
1.114191e+000 2.960632e-001 -6.289365e+000 218 44 53
7.432811e-001 -8.158592e-001 -6.740010e+000 221 52 52
5.419270e-001 -2.474344e-002 -6.670506e+000 207 201 192
4.729734e-001 -5.425018e-001 -6.871019e+000 166 146 100
6.526643e-001 6.848452e-001 -6.725563e+000 208 206 194
-4.244004e-001 -2.398664e-001 -6.667738e+000 221 100 68
-7.198892e-001 -3.109226e-001 -6.523098e+000 49 18 23
-7.761279e-001 -3.629214e-001 -6.592177e+000 158 64 35
-6.461315e-001 -3.257120e-001 -6.767569e+000 195 133 96
-6.499408e-001 -3.799992e-001 -7.127366e+000 95 19 5
2.961063e-001 -2.828007e-002 -6.809862e+000 251 246 238
2.578024e-001 -2.370649e-001 -6.899307e+000 226 222 210
1.598192e-001 5.083423e-003 -6.844127e+000 171 165 153
4.781893e-002 -5.682183e-001 -7.016866e+000 247 246 241
3.529381e-001 -7.924478e-001 -7.413644e+000 252 255 202
-5.618187e-001 -2.502167e-001 -7.275326e+000 174 163 153
8.345719e-001 -7.090631e-001 -6.655325e+000 251 250 245
4.442467e-001 -2.291755e-001 -6.855673e+000 253 253 244
4.180922e-001 -2.260380e-001 -6.892410e+000 229 221 210
4.180922e-001 -2.260380e-001 -6.892410e+000 229 221 210
3.380628e-001 -3.147966e-001 -6.911133e+000 247 243 240
4.380240e-001 1.047425e+000 -6.944371e+000 227 218 213
-5.093309e-002 -2.172875e-001 -6.829349e+000 230 226 223
-4.639247e-001 -4.621236e-001 -6.768303e+000 183 56 50
1.634019e-001 -5.182313e-001 -7.506878e+000 130 94 55
1.059207e+000 -1.246023e-001 -6.393324e+000 224 219 213
9.417909e-001 5.300037e-001 -6.375001e+000 233 47 58
6.570843e-001 -5.141072e-001 -6.802033e+000 157 146 128
6.358275e-001 -5.383998e-001 -6.788937e+000 157 146 128
3.455924e-001 4.681959e-002 -6.798029e+000 182 172 163
5.525486e-001 9.410394e-001 -6.862267e+000 225 222 222
-8.890604e-002 -4.828041e-001 -7.229886e+000 193 190 186
-8.795149e-001 -2.790724e-001 -6.490081e+000 105 23 21
-4.947042e-001 -5.242254e-001 -6.883669e+000 221 173 127
-4.948794e-001 -5.245814e-001 -6.883535e+000 221 173 127
-1.154028e-001 -4.071249e-001 -7.666229e+000 105 11 21
1.021154e+000 2.169617e-003 -6.350856e+000 216 211 201
-4.725397e-001 -2.537852e-001 -6.637869e+000 240 114 66
6.834679e-001 -2.566489e-001 -6.659029e+000 225 221 212
5.222485e-001 -2.703633e-001 -6.866534e+000 252 249 242
4.785116e-001 -6.779721e-001 -6.938896e+000 204 199 188
-4.534027e-001 -4.959894e-001 -7.009632e+000 72 7 5
-2.779804e-001 -5.170562e-002 -7.950957e+000 176 169 159
9.308202e-001 -1.033072e+000 -6.715546e+000 224 49 56
-3.701873e-001 -4.906520e-001 -6.935775e+000 201 200 196
-5.668876e-002 -5.160496e-001 -7.644808e+000 208 154 112
-1.552440e-001 -4.097016e-001 -7.833220e+000 17 8 9
8.747661e-001 3.143449e-001 -6.473450e+000 232 230 223
-8.146000e-001 -2.174657e-001 -6.441573e+000 29 25 22
-1.776480e-001 -4.008685e-001 -7.324085e+000 211 210 205
-9.308952e-001 -3.456991e-001 -6.631649e+000 215 101 64
-5.815156e-001 7.050454e-001 -7.859206e+000 28 19 20
1.043496e+000 -1.723935e-001 -6.386444e+000 226 215 212
4.437041e-001 6.717300e-001 -6.934922e+000 206 203 198
-5.570384e-001 -2.546862e-001 -6.694439e+000 252 126 81
5.017595e-001 1.216205e+000 -6.883808e+000 211 50 56
-6.046859e-001 7.603710e-001 -8.159397e+000 29 12 17
-5.484570e-001 -3.893632e-001 -6.644027e+000 187 153 110
-9.180002e-001 -1.921308e-001 -6.425853e+000 199 175 125
-9.007727e-001 -3.626729e-001 -6.569180e+000 222 104 75
9.616083e-001 -1.066921e+000 -6.735306e+000 195 53 51
6.540949e-001 -2.630758e-002 -6.564285e+000 214 208 197
5.073506e-001 -5.428848e-001 -6.857710e+000 151 132 89
-9.274082e-001 -3.926697e-001 -6.630820e+000 217 109 76
-9.274082e-001 -3.926697e-001 -6.630820e+000 217 109 76
-8.989839e-001 -4.081028e-001 -6.680155e+000 146 45 18
-9.475219e-001 -3.701539e-001 -6.644354e+000 217 110 76
6.872088e-001 -8.189697e-001 -6.947723e+000 206 60 63
5.142763e-003 -4.952018e-001 -6.969840e+000 251 250 246
1.123393e+000 1.991623e-001 -6.258016e+000 224 51 55
8.943731e-001 6.715454e-001 -6.482159e+000 210 50 56
9.662697e-002 -5.013372e-001 -7.470136e+000 203 160 117
8.995505e-001 -8.787546e-001 -6.597196e+000 253 253 254
1.010716e+000 -4.885089e-001 -6.426824e+000 223 33 37
1.025161e+000 -8.851420e-001 -6.566483e+000 246 83 89
9.800440e-001 -4.165669e-001 -6.465817e+000 145 126 84
9.530750e-001 -1.111053e+000 -6.698300e+000 222 117 106
4.676997e-001 -3.651774e-001 -6.870189e+000 242 238 228
5.242394e-001 7.013295e-001 -6.888592e+000 204 201 194
5.242394e-001 7.013295e-001 -6.888592e+000 204 201 194
3.496812e-001 1.323021e+000 -7.018456e+000 40 24 18
3.692571e-001 -9.235135e-001 -7.202663e+000 13 2 6
-4.855108e-001 -3.796568e-001 -6.644596e+000 135 20 28
-4.955507e-001 -4.010552e-001 -6.650441e+000 204 190 165
-4.957023e-001 -4.037856e-001 -6.649824e+000 204 190 165
-1.155577e-001 -4.701286e-001 -6.973055e+000 191 188 183
-2.847839e-002 -5.074137e-001 -7.068757e+000 167 164 159
-3.365487e-001 -4.944392e-001 -6.825401e+000 191 190 186
3.222882e-001 -1.230778e+000 -7.461077e+000 164 144 94
-7.896847e-001 -2.823261e-001 -6.489348e+000 79 15 17
-5.716283e-001 -2.566424e-001 -6.701390e+000 248 123 77
-5.716283e-001 -2.566424e-001 -6.701390e+000 248 123 77
-9.230512e-001 -2.445781e-001 -6.483872e+000 159 129 79
-8.990232e-001 -2.443386e-001 -6.488840e+000 131 66 55
-7.054982e-001 -4.061085e-001 -6.692466e+000 209 150 121
-8.395404e-001 -3.954386e-001 -6.652390e+000 190 135 105
-9.196154e-001 -3.739969e-001 -6.626253e+000 182 71 38
-9.091155e-001 -3.810480e-001 -6.636175e+000 171 63 32
-2.421119e-001 -3.173805e-001 -7.653051e+000 182 172 163
6.973900e-001 7.389517e-001 -6.681532e+000 178 171 160
-5.104771e-001 -3.926012e-001 -6.647718e+000 48 35 34
-2.779013e-001 -4.847339e-001 -6.864453e+000 152 145 134
-9.046776e-002 -4.826298e-001 -7.191286e+000 180 175 172
-9.344056e-001 -2.023589e-001 -6.420748e+000 238 206 143
-8.871842e-001 -2.303760e-001 -6.471124e+000 231 213 155
-8.085974e-001 -3.604338e-001 -6.566215e+000 184 85 66
-6.009821e-001 -3.769022e-001 -6.751932e+000 183 86 50
-6.187726e-001 -3.908995e-001 -6.754481e+000 217 116 81
-9.846680e-001 -2.496279e-001 -6.485273e+000 46 29 10
-9.293851e-001 -3.272669e-001 -6.529514e+000 107 20 15
-8.274118e-001 -3.939586e-001 -6.640579e+000 136 48 32
-2.585180e-001 -3.830707e-001 -7.234064e+000 210 206 202
-9.116251e-001 -3.912763e-001 -6.611211e+000 222 115 86
-6.419723e-002 -4.544640e-001 -7.528111e+000 212 167 124
-8.903961e-001 -3.740125e-001 -6.777761e+000 127 56 38
-2.811530e-001 -3.600885e-001 -7.642409e+000 188 180 171
-1.002510e+000 3.741790e+000 -8.332911e+000 50 41 37
1.000208e+000 -5.040496e-001 -6.444128e+000 254 240 246
7.568631e-001 -9.613621e-001 -6.786047e+000 219 68 67
6.782904e-001 -5.347397e-001 -6.736285e+000 206 202 191
3.448070e-001 1.129086e+000 -7.067489e+000 197 193 194
-5.039149e-002 -4.208680e-001 -6.883315e+000 221 219 214
-5.039149e-002 -4.208680e-001 -6.883315e+000 221 219 214
5.830563e-002 -5.963194e-001 -7.046913e+000 222 219 214
-3.152710e-001 -4.905617e-001 -6.852981e+000 174 169 165
-8.663470e-001 -2.234804e-001 -6.462891e+000 207 182 125
-8.315444e-001 -3.516100e-001 -6.543419e+000 223 109 73
-7.343678e-001 -4.208819e-001 -6.649495e+000 208 157 112
-9.863338e-001 -2.421859e-001 -6.486971e+000 47 29 17
-8.955928e-001 -3.591211e-001 -6.554146e+000 196 77 38
-8.418796e-001 -3.886105e-001 -6.636750e+000 154 53 33
-9.840676e-001 -3.754600e-001 -6.689054e+000 133 63 57
-9.702408e-001 -3.693277e-001 -6.712299e+000 52 20 23
-8.776335e-001 -3.987526e-001 -6.739565e+000 107 35 20
6.724534e-001 -1.249739e-001 -6.602032e+000 248 245 239
6.724534e-001 -1.249739e-001 -6.602032e+000 248 245 239
6.413144e-001 -9.711812e-002 -6.628796e+000 238 235 226
2.667652e-001 -4.554418e-002 -6.827177e+000 224 219 207
3.740345e-001 1.354961e+000 -7.056348e+000 209 46 57
6.042658e-002 -3.017869e-001 -6.916392e+000 221 216 210
3.668351e-001 -1.208842e+000 -7.273932e+000 150 129 82
-2.055354e-001 -4.671801e-001 -6.977646e+000 180 173 167
-7.167085e-001 -3.426906e-001 -6.622277e+000 94 52 50
-8.632522e-001 -4.120158e-001 -6.703789e+000 116 29 13
-2.552957e-001 -4.205007e-001 -7.292342e+000 217 216 210
4.252805e-001 -5.520560e-001 -6.904141e+000 138 122 78
4.052203e-001 1.138409e+000 -6.980402e+000 202 34 41
4.194341e-001 1.017122e+000 -7.001700e+000 204 200 189
4.105388e-001 1.286929e+000 -6.988429e+000 209 43 51
3.253924e-001 1.100830e+000 -7.012321e+000 189 37 45
3.805967e-001 1.099230e+000 -7.016891e+000 226 223 218
-4.705447e-001 -3.957743e-001 -6.646528e+000 96 12 18
-2.319269e-001 1.654148e-001 -7.750758e+000 158 31 38
-5.638400e-001 7.877237e-001 -8.156159e+000 197 42 50
9.101279e-001 6.033465e-001 -6.404147e+000 36 22 21
6.948729e-001 -5.440983e-001 -6.705458e+000 142 129 112
4.172521e-001 1.428182e-003 -6.752241e+000 191 187 176
5.390282e-001 5.987483e-001 -6.831875e+000 217 213 207
4.931335e-001 1.035096e+000 -6.876261e+000 203 48 49
1.385103e-001 -6.753376e-002 -6.862729e+000 254 253 248
-5.081030e-001 -4.780985e-001 -6.978122e+000 163 105 71
9.651279e-001 -8.641456e-001 -6.571956e+000 250 244 241
7.972230e-001 5.793282e-001 -6.603606e+000 252 249 243
3.200600e-001 5.580274e-003 -6.783258e+000 183 174 161
7.674217e-002 -6.531445e-002 -6.859189e+000 159 150 140
-4.171934e-001 -4.166675e-001 -6.681883e+000 208 215 206
-4.710302e-001 -4.347332e-001 -6.679981e+000 174 49 41
2.927779e-001 -8.762759e-001 -7.480659e+000 129 108 65
-8.786163e-001 -2.722399e-001 -6.492799e+000 106 26 24
-5.226866e-001 -4.543129e-001 -6.852765e+000 217 165 123
-3.186455e-001 6.158116e-003 -7.910624e+000 25 13 12
8.374807e-001 5.167329e-001 -6.511700e+000 172 30 34
8.085149e-001 3.568614e-001 -6.590634e+000 185 172 163
2.974106e-002 -5.093096e-001 -7.330488e+000 205 160 115
-8.661703e-001 -3.776634e-001 -6.565637e+000 189 81 61
-7.331225e-001 -3.719145e-001 -6.867956e+000 178 62 31
7.197276e-001 -9.543580e-001 -6.817656e+000 13 4 6
-4.727891e-002 -4.988324e-001 -7.657386e+000 197 138 104
-5.628219e-001 -3.939038e-001 -6.703756e+000 220 164 119
-4.099578e-001 1.960633e-001 -8.010714e+000 29 15 15
4.983614e-001 4.390287e-002 -6.741916e+000 179 172 158
4.348199e-001 -1.663318e-001 -6.700831e+000 224 217 207
4.027268e-001 -6.994081e-001 -6.908442e+000 208 204 193
-3.301734e-001 -2.091983e-001 -6.656577e+000 156 54 34
-1.852101e-001 -1.212059e-001 -6.792700e+000 186 181 174
-3.913803e-001 -2.942057e-001 -6.673393e+000 187 78 57
-1.453605e-001 -3.834989e-001 -6.879485e+000 230 229 224
-3.401521e-001 -4.912524e-001 -6.742551e+000 209 210 205
-6.025721e-002 -4.541239e-001 -6.999947e+000 193 192 187
-5.593864e-001 -1.322540e-001 -6.724622e+000 214 102 56
-2.805809e-001 -4.764449e-001 -6.917452e+000 103 95 85
-7.651913e-001 -3.539547e-001 -6.561199e+000 144 52 31
5.610731e-002 -5.160427e-001 -7.451658e+000 93 13 5
5.610731e-002 -5.160427e-001 -7.451658e+000 93 13 5
-7.096021e-001 -3.582050e-001 -6.927789e+000 168 69 38
-7.042061e-001 -3.567213e-001 -6.990343e+000 146 56 39
1.138638e+000 -8.938137e-001 -6.468794e+000 248 75 74
9.320492e-001 -6.346091e-001 -6.404389e+000 227 42 43
9.586870e-001 -1.104330e+000 -6.721784e+000 16 9 10
3.399832e-001 1.182123e+000 -7.084521e+000 204 56 54
-3.700446e-001 -3.765967e-001 -6.689050e+000 135 55 34
-5.115224e-001 -3.992728e-001 -6.644443e+000 38 31 46
-1.906125e-001 -4.391013e-001 -7.024510e+000 132 126 120
-7.649225e-001 -3.568015e-001 -6.577501e+000 206 159 129
-7.650317e-001 -3.559932e-001 -6.577607e+000 206 159 129
-6.207825e-001 -2.736087e-001 -6.683917e+000 180 60 31
-9.962631e-001 -2.960475e-001 -6.549687e+000 219 186 138
-9.769490e-001 -2.846190e-001 -6.590359e+000 137 68 61
-9.115239e-001 -3.944710e-001 -6.609607e+000 221 113 86
-6.445792e-001 -3.599280e-001 -6.868674e+000 190 128 94
-1.939284e-001 -3.457683e-001 -7.368295e+000 178 177 172
-8.326073e-001 -3.327006e-001 -7.022500e+000 170 85 47
9.572447e-001 -6.207564e-001 -6.488143e+000 206 192 179
8.216634e-001 -5.637830e-001 -6.603217e+000 202 196 185
6.676415e-001 -7.059150e-002 -6.612108e+000 193 187 179
6.795224e-001 -4.913887e-002 -6.621578e+000 193 187 179
6.438600e-001 -6.249789e-001 -6.814130e+000 195 191 182
2.537796e-001 6.780210e-003 -6.843314e+000 241 237 228
-3.392698e-001 -2.710222e-001 -6.715699e+000 213 94 62
-4.536520e-001 -2.089742e-001 -6.685749e+000 236 118 70
-3.797182e-001 -3.827903e-001 -6.702144e+000 208 208 204
-2.284501e-001 -4.548191e-001 -6.957837e+000 115 107 100
-1.475682e-001 -4.486944e-001 -7.010754e+000 166 163 158
4.792514e-001 -1.178305e+000 -7.317615e+000 17 6 10
-4.234266e-001 -3.930384e-001 -6.664868e+000 205 208 202
-2.828184e-001 -3.812127e-001 -6.798733e+000 226 226 224
2.959367e-001 -7.686282e-001 -7.289409e+000 176 34 45
-9.516790e-001 -2.251132e-001 -6.450759e+000 33 20 12
-3.992284e-001 -5.051459e-001 -7.026948e+000 108 99 90
8.971264e-002 -5.120276e-001 -7.459364e+000 188 148 108
-4.580068e-002 -5.650901e-001 -7.639802e+000 199 154 110
-3.132445e-001 -1.030774e-002 -7.897689e+000 31 18 14
8.476148e-001 -1.295815e-001 -6.525473e+000 205 200 194
6.812606e-001 -3.093633e-001 -6.636648e+000 223 216 207
5.207771e-001 5.057979e-002 -6.725119e+000 177 170 154
2.694153e-001 -8.953573e-001 -7.398611e+000 170 149 102
2.694153e-001 -8.953573e-001 -7.398611e+000 170 149 102
-1.338487e-001 -4.106689e-001 -7.236414e+000 57 39 35
-1.338487e-001 -4.106689e-001 -7.236414e+000 57 39 35
1.704221e-001 -5.012031e-001 -7.513412e+000 120 86 48
-1.021572e-001 -4.488867e-001 -7.282748e+000 82 39 32
1.328547e-001 -4.958449e-001 -7.509397e+000 82 7 11
1.328547e-001 -4.958449e-001 -7.509397e+000 82 7 11
-8.562246e-001 -3.875539e-001 -6.633539e+000 154 49 28
-3.340742e-002 -5.072368e-001 -7.549885e+000 235 184 140
-1.003671e+000 -3.265162e-001 -6.576534e+000 29 22 21
-7.846133e-001 -3.225682e-001 -7.005232e+000 118 36 21
6.347942e-001 -2.575304e-002 -6.650124e+000 195 187 178
5.588828e-001 -3.395538e-001 -6.771286e+000 236 233 228
4.221310e-001 1.023909e+000 -7.006025e+000 205 198 190
4.918497e-001 6.358998e-001 -7.043612e+000 225 220 214
3.221212e-001 9.354588e-001 -7.066683e+000 174 165 158
1.431286e-001 -5.368239e-002 -6.868230e+000 245 242 235
-5.956518e-001 -1.975789e-001 -6.678402e+000 231 120 77
-3.025245e-001 -5.475513e-001 -6.846847e+000 134 127 117
-2.154504e-002 -4.178345e-001 -7.400778e+000 59 9 13
-8.514830e-002 -3.798619e-001 -7.452790e+000 133 73 55
9.357255e-001 -9.055492e-001 -6.608262e+000 23 8 8
6.857390e-001 -6.440521e-001 -6.729820e+000 192 186 174
3.575162e-001 8.727476e-001 -7.100871e+000 223 218 211
-4.250989e-001 -4.412785e-001 -6.667642e+000 207 206 204
-6.886413e-001 -3.488928e-001 -6.652176e+000 231 188 145
-1.025317e+000 -2.678029e-001 -6.503452e+000 223 198 142
-2.944237e-001 -2.475005e-001 -6.753155e+000 131 54 35
-2.944237e-001 -2.475005e-001 -6.753155e+000 131 54 35
-7.934361e-001 -4.565205e-001 -6.744923e+000 118 40 20
-6.600022e-001 -3.740351e-001 -7.022778e+000 138 22 26
-2.683516e-001 -1.226810e-001 -7.620590e+000 129 18 25
-4.764440e-002 -4.422014e-001 -7.348117e+000 62 17 15
-4.833269e-001 -5.777915e-001 -6.957779e+000 82 12 12
9.302849e-001 -1.035993e+000 -6.713654e+000 221 52 57
-1.534292e-001 2.108218e-002 -6.721733e+000 222 219 214
-5.617563e-001 -3.864389e-001 -6.706967e+000 215 164 117
2.651098e-001 -1.150695e+000 -7.530250e+000 27 17 17
-1.973940e-001 -3.234921e-001 -7.145547e+000 24 9 3
-7.435484e-001 -4.043702e-001 -6.655166e+000 216 169 123
-1.018965e+000 -2.471475e-001 -6.618596e+000 35 23 23
-2.567255e-001 2.277077e-002 -7.662389e+000 147 32 36
2.602209e-001 -9.239186e-001 -7.424805e+000 124 106 60
-2.445634e-001 -2.662836e-001 -7.804506e+000 178 171 163
3.463106e-001 -1.133990e+000 -7.393059e+000 136 117 74
-6.043923e-001 -6.786199e-001 -6.237423e+000 38 30 27
4.751476e-001 -7.142379e-001 -7.077623e+000 211 207 197
