ply
format ascii 1.0
element face 0
property list uchar int vertex_indices
element vertex 869
property float x
property float y
property float z
property uchar diffuse_red
property uchar diffuse_green
property uchar diffuse_blue
end_header
-1.485020e+000 -4.867911e+000 -1.047608e+001 52 46 48
-1.431610e+000 -4.939823e+000 -1.036848e+001 45 40 44
-1.388336e+000 -4.942562e+000 -1.024956e+001 49 43 43
7.002160e-001 -9.648369e-001 -6.796650e+000 234 96 96
-4.348256e-001 7.317326e-001 -7.928632e+000 194 172 166
-2.151120e-001 3.645957e-001 -7.404220e+000 126 114 102
-2.151120e-001 3.645957e-001 -7.404220e+000 126 114 102
4.453917e-001 5.794020e-001 -6.972462e+000 184 177 167
4.453917e-001 5.794020e-001 -6.972462e+000 184 177 167
-5.855902e-001 -2.080901e-001 -6.693786e+000 180 74 42
3.840952e-001 -3.016649e-001 -6.927249e+000 216 210 197
3.879217e-001 -5.359196e-001 -6.919438e+000 251 251 241
-1.360038e+000 -5.403869e+000 -1.032345e+001 19 9 10
-2.561094e-001 1.833343e-002 -7.795387e+000 89 8 9
-6.112123e-001 -2.842482e-001 -6.698836e+000 212 107 66
1.176259e+000 -3.924214e-002 -6.235669e+000 32 11 18
-1.445358e+000 -5.325122e+000 -1.026110e+001 62 51 49
4.489281e-001 1.204780e+000 -6.909189e+000 211 51 56
-2.109357e-001 5.201150e-001 -7.703392e+000 203 195 184
-2.702763e-001 1.258304e-001 -7.885785e+000 132 17 24
6.072925e-001 -8.132955e-001 -6.796358e+000 45 34 32
9.705327e-002 3.143055e-001 -7.085783e+000 132 117 106
-3.915275e+000 -7.558772e+000 -1.536991e+001 15 13 18
9.650382e-001 2.989764e-001 -6.414383e+000 226 61 70
1.805067e-001 -5.298634e-001 -6.971472e+000 71 45 31
1.785550e-001 -5.227350e-001 -6.964720e+000 71 45 31
9.395147e-001 -3.226353e-001 -6.362982e+000 199 176 122
-2.392556e-001 1.134776e+000 -7.646736e+000 201 50 57
1.972965e-001 6.312184e-001 -7.187790e+000 140 128 116
4.946957e-001 -3.996024e-001 -6.872570e+000 99 84 64
7.373593e-001 -2.662891e-001 -6.580652e+000 255 252 247
-3.589678e-001 -1.706873e-001 -7.072501e+000 120 52 33
1.439927e-001 1.066001e+000 -7.287329e+000 219 212 206
8.820522e-001 1.512080e-001 -6.454202e+000 225 214 208
6.375359e-002 1.187665e+000 -7.300195e+000 219 54 62
2.224973e-001 7.524512e-001 -7.205418e+000 200 193 185
6.011489e-002 6.367910e-001 -7.260557e+000 161 147 136
-1.588273e-001 1.884193e-001 -7.163300e+000 140 127 113
5.457242e-001 5.512728e-001 -6.828547e+000 140 128 115
-1.867760e-001 3.667717e-002 -6.957329e+000 125 111 102
-1.542291e-001 1.637981e-002 -6.894853e+000 135 120 112
-9.752193e-001 -3.049780e-001 -6.622114e+000 141 75 51
-3.543522e-001 -1.140428e-001 -6.824940e+000 93 35 28
-8.829191e-001 -2.528150e-001 -6.474529e+000 77 23 21
-8.129733e-001 -2.708745e-001 -6.512632e+000 114 28 9
-3.423351e-001 -4.357720e-001 -6.771383e+000 183 174 167
-1.880020e-002 -4.243571e-001 -6.904912e+000 196 180 165
5.208094e-001 -3.259920e-001 -6.771640e+000 161 145 128
-1.471064e-001 4.606003e-001 -7.481981e+000 164 153 143
4.381160e-002 6.779840e-001 -7.278002e+000 222 212 203
2.418984e-001 7.351251e-001 -7.182708e+000 190 181 172
-8.021185e-001 -1.961354e-001 -7.105665e+000 141 63 46
2.925325e-001 3.413499e-001 -7.039668e+000 162 150 138
7.938348e-001 5.262044e-001 -6.592523e+000 209 201 191
-1.774989e+000 -3.941873e+000 -1.071481e+001 29 25 26
-7.929755e-001 -3.635587e-001 -6.536438e+000 224 114 84
9.260152e-001 -7.345181e-001 -6.466242e+000 249 96 104
-2.410247e-001 1.011171e+000 -7.766000e+000 171 28 35
-3.032539e-001 -8.330803e-002 -6.855680e+000 84 20 11
-9.101397e-001 -3.607186e-001 -6.561579e+000 255 163 129
-3.310383e-001 -1.626186e-001 -6.733528e+000 116 44 32
-3.310383e-001 -1.626186e-001 -6.733528e+000 116 44 32
-1.738894e-001 -3.034155e-001 -6.884882e+000 240 231 226
-1.682931e-001 -2.111840e-001 -6.829584e+000 227 222 216
-7.515276e-002 -1.897488e-001 -6.818964e+000 253 248 242
2.020466e-001 -9.867937e-002 -6.838663e+000 221 214 206
8.965718e-001 6.251826e-001 -6.453186e+000 203 58 66
-4.366231e-001 -4.233887e-001 -6.663937e+000 198 194 187
-5.652338e-002 -5.240279e-001 -7.013535e+000 36 27 22
4.115257e-001 -6.976520e-001 -6.968787e+000 252 252 240
-2.986093e-002 1.325350e+000 -7.406623e+000 190 39 46
5.803269e-001 5.658876e-001 -6.803335e+000 171 159 145
7.198336e-001 6.041862e-001 -6.586157e+000 248 249 240
-4.064094e-001 -4.146962e-001 -6.680991e+000 222 213 207
8.185085e-001 4.485499e-001 -6.511526e+000 184 169 156
5.175806e-001 5.696364e-002 -6.678246e+000 191 181 168
4.477881e-001 -1.324584e-001 -6.706716e+000 217 210 200
6.059242e-001 -7.722339e-001 -6.780413e+000 56 42 40
6.059242e-001 -7.722339e-001 -6.780413e+000 56 42 40
-5.243731e-001 -3.257245e-002 -7.070001e+000 44 12 13
7.519913e-001 8.344892e-001 -6.603842e+000 88 7 15
-5.599616e-001 -3.801237e-001 -6.673758e+000 247 188 154
-7.754546e-002 -1.420057e-001 -6.805586e+000 239 232 229
-1.198583e-001 -3.384115e-001 -6.888941e+000 66 47 26
4.992923e-001 -1.390833e-001 -6.686119e+000 230 226 217
-4.769200e-001 8.560771e-001 -8.034503e+000 195 39 46
4.487609e-001 2.993500e-001 -7.003502e+000 141 129 119
8.183676e-001 7.238379e-001 -6.509706e+000 237 81 90
-8.696283e-001 -2.062636e-001 -6.484879e+000 74 22 10
-2.042335e-001 -1.071818e-001 -6.824718e+000 207 188 180
7.680482e-001 5.659568e-001 -6.575805e+000 253 253 251
-5.883818e-001 -3.729302e-001 -6.720439e+000 247 184 142
-4.223263e-001 -4.193746e-001 -6.685947e+000 190 178 171
-3.728422e-001 -3.510020e-001 -6.706120e+000 167 144 133
4.250810e-001 -4.157426e-001 -6.800416e+000 254 252 203
1.050452e+000 1.990340e-001 -6.321283e+000 207 45 57
-1.961489e-001 4.066370e-001 -7.549691e+000 133 121 109
3.186104e-001 4.759065e-001 -7.123087e+000 187 177 168
4.449736e-001 3.057030e-001 -6.995442e+000 141 130 119
7.223170e-001 7.638218e-001 -6.542440e+000 243 82 92
9.323518e-001 -5.619428e-001 -6.481398e+000 244 230 198
7.403093e-002 1.367928e+000 -7.348401e+000 14 3 9
-5.058388e-001 5.823437e-001 -8.051869e+000 188 177 168
-4.195756e-001 2.829555e-001 -8.026630e+000 42 31 29
1.484123e-001 5.268792e-001 -7.175004e+000 231 222 216
5.327065e-001 -8.159607e-001 -6.885600e+000 254 255 247
1.111212e+000 1.524721e-001 -6.274791e+000 221 60 68
1.052832e+000 -2.335261e-001 -6.357654e+000 77 11 15
-1.688475e-001 6.878858e-001 -7.456048e+000 169 160 145
3.416106e-001 -4.004579e-001 -6.926285e+000 80 62 41
8.636408e-001 3.252199e-001 -6.455434e+000 255 251 246
9.750508e-001 -6.557773e-001 -6.465837e+000 172 35 40
5.875706e-001 5.300138e-001 -6.800950e+000 136 122 111
-4.777444e-002 -5.160498e-002 -6.892839e+000 136 119 111
-3.631271e-001 -4.022443e-001 -6.754084e+000 169 151 137
3.409503e-001 -5.582686e-001 -6.850016e+000 254 255 246
9.959917e-001 -7.726031e-002 -6.403329e+000 233 226 218
-7.128076e-001 -1.826454e-001 -6.777215e+000 63 22 19
7.239719e-001 5.234081e-001 -6.605955e+000 255 255 251
-6.075390e-002 2.764345e-002 -7.399213e+000 118 104 93
-4.421541e-001 1.643781e-001 -7.925975e+000 39 30 28
1.977879e-001 -2.785253e-001 -6.939545e+000 243 234 225
-7.074476e+000 -6.129431e+000 -2.214890e+001 135 124 120
-4.554661e+000 -6.761092e+000 -1.513037e+001 111 109 122
-4.812083e+000 -6.635305e+000 -1.518194e+001 165 163 172
-4.666019e-001 -5.206845e-002 -6.815494e+000 117 51 38
-1.472790e-001 9.061240e-003 -6.875497e+000 131 116 109
-2.017481e+000 -3.320658e+000 -1.082941e+001 41 35 39
6.495150e-001 2.261149e-001 -6.761578e+000 184 176 165
1.064718e+000 1.373146e-001 -6.329240e+000 227 69 77
1.063338e+000 1.352187e-001 -6.329801e+000 227 69 77
-5.103671e+000 -1.225144e+001 -1.771708e+001 43 59 116
5.829044e-001 5.956366e-001 -6.845989e+000 157 147 136
3.442895e-001 1.870140e-001 -7.027393e+000 131 115 100
1.122402e+000 1.880731e-001 -6.244254e+000 207 52 57
2.190362e-001 1.021051e+000 -7.223012e+000 203 196 188
2.183196e-001 1.021634e+000 -7.220798e+000 203 196 188
-2.505639e-001 1.308175e-001 -7.105187e+000 129 115 104
-2.083993e-001 6.839277e-002 -6.921662e+000 126 112 103
-2.045112e-001 6.162724e-002 -6.932538e+000 126 112 103
1.583377e-001 1.588765e-001 -6.908268e+000 197 187 175
-7.161609e-003 6.531770e-001 -7.334589e+000 210 201 191
2.931929e-001 1.163880e+000 -7.136432e+000 209 42 51
-3.028794e-001 1.070022e-002 -6.931430e+000 108 90 76
-3.026575e-001 1.209191e-002 -6.930355e+000 108 90 76
8.919738e-001 6.260829e-001 -6.449050e+000 203 58 65
-2.428702e-001 8.635675e-001 -7.754101e+000 209 200 191
-2.051363e-001 9.676296e-001 -7.642923e+000 187 175 163
-1.827800e-001 5.046236e-001 -7.473559e+000 157 147 137
-2.872250e-001 -2.136932e-001 -7.712845e+000 202 195 182
-2.474792e-001 1.624358e-001 -7.236032e+000 120 106 95
7.867351e-001 8.337687e-001 -6.559514e+000 122 32 36
-7.268870e-001 -3.089096e-001 -6.526883e+000 49 19 16
8.464569e-001 5.520504e-002 -6.786422e+000 239 233 221
5.755263e-001 -6.321100e-001 -6.826978e+000 246 233 178
-6.470090e-001 6.000881e-001 -8.231290e+000 185 42 46
1.837206e-002 1.359417e+000 -7.375867e+000 81 18 27
-1.611552e-001 6.697335e-001 -7.454878e+000 168 159 145
-2.174861e+000 -2.871776e+000 -1.096427e+001 45 39 41
-2.250498e-001 4.630744e-001 -7.632919e+000 173 165 152
-3.187149e-001 -1.096910e-002 -7.889472e+000 107 58 49
-2.188237e-001 3.460073e-001 -7.511182e+000 156 146 134
2.450250e-001 6.986397e-001 -7.285933e+000 219 215 206
5.336981e-001 1.153737e+000 -6.816127e+000 200 52 61
-3.241607e-001 -2.072816e-001 -7.742688e+000 176 169 155
-2.564817e-001 1.583057e-001 -7.262604e+000 152 138 127
-1.815937e+000 -3.784479e+000 -1.059020e+001 62 56 58
-1.810762e+000 -3.931212e+000 -1.070664e+001 64 58 60
-2.694671e-001 1.242862e-001 -7.009738e+000 101 84 76
-6.454476e-001 -8.609975e-002 -6.741038e+000 104 43 33
-9.904091e-001 -3.152701e-001 -6.619097e+000 48 16 11
-1.751884e-001 4.396331e-002 -6.892890e+000 139 127 116
3.630172e-001 1.878906e-001 -7.049840e+000 150 137 120
5.569289e-001 5.608063e-001 -6.781882e+000 126 114 99
-7.268016e-002 -1.938432e-001 -6.824044e+000 252 247 243
-1.596388e+000 -4.662641e+000 -1.027329e+001 45 41 38
4.104203e-001 9.035189e-002 -6.819844e+000 180 168 154
-1.515187e+000 -4.995505e+000 -1.031268e+001 62 54 52
8.460823e-001 5.441675e-001 -6.537633e+000 166 31 38
1.096961e+000 -5.216290e-001 -6.283630e+000 227 95 99
-2.987731e-001 5.252261e-001 -7.765820e+000 224 217 207
1.147545e-001 1.037764e+000 -7.279370e+000 212 205 197
1.149332e-001 1.033522e+000 -7.281030e+000 212 205 197
-2.183085e+000 -3.113602e+000 -1.075121e+001 60 54 54
-2.670300e-001 2.319598e-001 -7.724359e+000 207 189 185
-1.798164e+000 -3.724843e+000 -1.062124e+001 25 19 21
-4.848693e-002 2.528238e-001 -7.148612e+000 121 112 98
-1.751116e+000 -3.809166e+000 -1.065603e+001 53 49 50
-1.746638e+000 -3.747072e+000 -1.058293e+001 53 49 50
-2.111199e-001 9.975866e-002 -7.048399e+000 154 138 127
5.090934e-001 5.320019e-001 -6.919323e+000 160 150 138
7.603133e-001 8.662058e-001 -6.595104e+000 159 45 49
-4.230923e-001 -1.816027e-001 -6.692969e+000 122 30 17
1.777063e-001 2.495514e-002 -6.861802e+000 194 184 175
8.490810e-001 5.814661e-001 -6.508790e+000 217 71 78
-1.280545e+000 -5.433636e+000 -1.029859e+001 73 68 71
1.095500e+000 -4.751801e-001 -6.268744e+000 153 33 37
-3.263256e-001 1.822633e-001 -7.947364e+000 215 73 82
-2.156616e-001 2.563063e-001 -7.420315e+000 174 161 145
-6.645759e-002 4.492864e-001 -7.299983e+000 148 136 124
-2.599930e-001 -1.468990e-001 -7.720027e+000 174 166 153
-4.920329e-001 -8.570082e-004 -7.079877e+000 92 38 33
3.580002e-002 -5.697714e-002 -6.891882e+000 164 154 144
3.580002e-002 -5.697714e-002 -6.891882e+000 164 154 144
5.181785e-001 1.942707e-002 -6.686040e+000 198 188 179
5.516648e-001 1.883343e-002 -6.690247e+000 173 161 149
3.470793e-001 -4.741510e-001 -6.908067e+000 119 102 62
-1.851752e-001 4.578442e-001 -7.576479e+000 148 138 126
-3.408355e-001 2.282245e-002 -6.945222e+000 68 23 18
-8.253281e-001 -2.333241e-001 -6.505524e+000 163 82 52
2.020191e-001 5.815784e-002 -6.865055e+000 171 159 147
5.925297e-001 1.341335e-003 -6.672492e+000 197 187 177
4.519534e-001 -1.145054e+000 -7.312958e+000 245 230 171
4.450350e-001 -5.472755e-001 -6.908368e+000 78 60 27
8.468757e-001 2.056237e-001 -6.480886e+000 254 254 246
-1.850646e-001 2.794122e-001 -7.354234e+000 131 117 101
5.739479e-001 1.634290e-001 -6.889938e+000 158 150 139
5.060539e-001 -4.772115e-001 -6.818817e+000 114 96 56
9.731411e-001 2.640709e-001 -6.425229e+000 232 71 79
3.531508e-001 1.084644e+000 -7.005396e+000 240 236 232
5.693906e-001 9.538058e-001 -6.807477e+000 217 57 64
1.048532e+000 -8.143863e-001 -6.462571e+000 244 88 99
-9.715596e-002 1.316938e+000 -7.494453e+000 24 17 18
1.686510e-001 2.717059e-001 -7.073939e+000 136 124 110
5.921716e-001 -5.679430e-001 -6.795240e+000 232 215 159
5.781288e-001 -5.449076e-001 -6.769689e+000 232 215 159
-1.551732e-001 1.103486e+000 -7.532678e+000 144 26 31
-7.127120e-002 7.726638e-001 -7.343978e+000 222 218 209
-7.127120e-002 7.726638e-001 -7.343978e+000 222 218 209
2.636384e-001 8.733950e-001 -7.102096e+000 155 146 131
6.397417e-001 -1.798596e-001 -6.629166e+000 251 248 243
9.660285e-001 -4.353704e-001 -6.398733e+000 216 197 138
-1.691929e-003 1.348844e+000 -7.404976e+000 81 15 23
-2.079759e-001 1.015494e+000 -7.484895e+000 178 159 153
-1.657612e-001 8.810940e-001 -7.448441e+000 198 191 181
-2.291060e-001 3.856836e-001 -7.623331e+000 212 201 189
-1.696282e-001 5.023757e-001 -7.554939e+000 165 153 138
-2.645820e-001 -1.532810e-002 -7.795493e+000 159 85 79
-8.318367e-001 -3.119219e-001 -7.062916e+000 38 28 28
-2.014244e-001 1.050005e-001 -7.116701e+000 107 90 80
-5.567590e-001 -2.351601e-001 -6.686701e+000 236 131 101
-5.659254e-001 -2.647712e-001 -6.646130e+000 126 21 1
-4.793331e-001 -1.351429e-001 -6.679620e+000 120 29 12
1.411823e-002 -2.595290e-002 -6.904810e+000 190 177 168
6.854926e-002 -8.579745e-002 -6.939164e+000 170 157 147
-5.384011e-001 -4.099461e-001 -6.674199e+000 95 90 90
-5.041630e-001 -4.122538e-001 -6.656837e+000 212 200 178
-3.468265e-001 -3.982190e-001 -6.747627e+000 175 150 146
-1.410713e-001 -3.128578e-001 -6.849864e+000 163 146 127
8.998774e-002 -5.610412e-001 -7.057753e+000 155 138 120
3.683248e-001 -7.976772e-002 -6.797770e+000 254 250 241
5.711541e-001 8.407243e-002 -6.752342e+000 192 180 166
2.714651e-001 -4.432234e-001 -6.761208e+000 225 219 207
2.714651e-001 -4.432234e-001 -6.761208e+000 225 219 207
5.106410e-001 -1.198026e-001 -6.702412e+000 222 217 211
-1.315195e-001 8.123375e-001 -7.581391e+000 217 210 200
-1.315873e-001 7.189215e-001 -7.442511e+000 164 153 141
-1.345956e-001 4.592442e-001 -7.460843e+000 168 156 147
-2.477276e-001 -2.002189e-002 -7.762204e+000 155 125 114
-2.084829e-001 3.464198e-001 -7.484481e+000 163 151 141
-3.525919e-001 1.143900e-001 -6.958644e+000 121 63 51
-3.252004e-001 7.575366e-002 -6.984546e+000 83 42 40
-3.363158e-001 2.541956e-002 -6.925681e+000 67 27 25
-3.154915e-003 2.812285e-001 -6.990855e+000 161 149 136
-1.497056e-001 4.729499e-002 -6.934510e+000 133 120 110
-1.082716e-001 6.114617e-002 -6.927066e+000 137 124 114
-1.042485e+000 -2.505971e-001 -6.492298e+000 146 128 79
-1.042485e+000 -2.505971e-001 -6.492298e+000 146 128 79
-3.205716e-001 -1.680147e-001 -6.764218e+000 114 54 44
-1.992222e-001 -2.999129e-001 -6.891919e+000 87 68 37
5.092887e-004 -2.506348e-002 -6.914357e+000 140 123 116
-7.918991e-001 -3.565448e-001 -6.535605e+000 213 115 70
4.005534e-001 1.107241e-001 -6.836593e+000 166 150 136
-3.211928e-001 -4.357967e-001 -6.760108e+000 252 250 246
-3.512121e-001 -4.342199e-001 -6.730228e+000 229 220 215
3.757100e-001 -2.490395e-001 -6.922293e+000 254 255 247
4.197843e-001 -1.045876e-001 -6.786898e+000 235 231 222
5.461267e-001 7.668154e-002 -6.718540e+000 185 176 161
5.116448e-001 -5.013221e-001 -6.979398e+000 155 139 123
4.069982e-001 -5.863275e-001 -6.935128e+000 229 225 211
3.762695e-001 -5.349039e-001 -6.886220e+000 229 225 211
5.559640e-001 -4.884447e-001 -6.861513e+000 179 172 146
4.966297e-001 -2.708476e-001 -6.794902e+000 177 171 159
1.033058e+000 4.266267e-001 -6.369339e+000 214 70 78
1.077739e+000 4.049755e-001 -6.349476e+000 75 69 66
1.046389e+000 3.743145e-001 -6.316367e+000 239 89 101
8.254898e-001 -1.995701e-001 -6.119176e+000 205 186 130
1.165872e+000 5.185212e-002 -6.219416e+000 226 85 101
1.182170e+000 1.235714e-001 -6.178751e+000 80 71 72
1.182170e+000 1.235714e-001 -6.178751e+000 80 71 72
1.059677e+000 -4.490106e-001 -6.301917e+000 169 147 98
-4.283171e-002 1.145418e+000 -7.394447e+000 210 201 197
-2.263361e-001 6.243001e-001 -7.677955e+000 168 157 144
2.990720e-001 1.256912e+000 -7.098613e+000 222 62 70
2.990720e-001 1.256912e+000 -7.098613e+000 222 62 70
-9.968958e-001 -2.846690e-001 -6.628045e+000 33 9 12
-2.583536e-001 4.289413e-002 -6.904256e+000 131 119 108
2.571523e-001 3.167511e-001 -6.966285e+000 149 135 124
2.571523e-001 3.167511e-001 -6.966285e+000 149 135 124
-1.006976e+000 -1.965278e-001 -6.424961e+000 117 93 57
-9.769847e-001 -2.345917e-001 -6.480299e+000 55 27 11
5.936721e-001 6.296676e-001 -6.820054e+000 209 204 190
-8.844351e-001 -2.113709e-001 -6.455796e+000 187 159 114
-3.451722e-001 -2.073657e-001 -6.716487e+000 238 123 103
-3.451722e-001 -2.073657e-001 -6.716487e+000 238 123 103
-1.723905e-001 -3.058228e-001 -6.887521e+000 243 236 228
-1.640109e-001 -2.176432e-001 -6.839784e+000 226 221 216
-1.087336e-001 -4.512701e-001 -6.950420e+000 248 241 231
-1.208370e-001 -3.152494e-001 -6.870282e+000 71 53 29
7.783202e-001 7.308916e-001 -6.419581e+000 195 43 55
9.383297e-001 5.236184e-001 -6.610970e+000 181 35 45
9.360085e-001 5.238659e-001 -6.385443e+000 17 7 18
5.865348e-001 -7.259007e-001 -6.802852e+000 177 159 139
6.730453e-001 -3.636769e-001 -6.671904e+000 158 147 129
9.846125e-001 2.091122e-001 -6.405833e+000 232 68 73
1.031496e+000 -5.840818e-001 -6.305658e+000 180 33 44
1.359723e+000 5.903955e-001 -5.959766e+000 71 62 63
-1.479651e-001 1.239222e+000 -7.563840e+000 208 70 75
-2.425969e-001 3.780092e-001 -7.618187e+000 198 190 178
-1.954459e-001 4.675172e-001 -7.493695e+000 177 165 153
-2.536645e-001 -1.317682e-001 -7.553989e+000 194 188 174
-2.347183e-001 -5.427511e-002 -6.852777e+000 145 111 102
2.202267e-001 -1.931152e-001 -6.870409e+000 224 218 206
4.147684e-001 -3.577871e-001 -6.889516e+000 98 81 61
5.467089e-001 -3.245774e-001 -6.788861e+000 253 248 240
5.467089e-001 -3.245774e-001 -6.788861e+000 253 248 240
6.206909e-001 -4.988998e-001 -6.841674e+000 202 196 174
1.106179e+000 -5.299584e-003 -6.217385e+000 181 47 54
1.187445e+000 7.413708e-003 -6.230016e+000 224 90 94
-2.367890e-001 2.819068e-001 -7.729346e+000 154 140 129
-2.030045e-001 4.164225e-001 -7.649825e+000 218 211 197
-1.353398e-001 7.122496e-001 -7.404565e+000 133 119 110
3.257354e-001 1.302448e+000 -7.024398e+000 226 64 74
-2.510849e-001 -1.629237e-001 -7.744777e+000 176 166 154
-6.479957e-001 -2.721093e-001 -6.696095e+000 138 43 34
-9.321396e-001 -2.077802e-001 -6.423176e+000 154 114 87
-9.321396e-001 -2.077802e-001 -6.423176e+000 154 114 87
-6.148450e-001 -3.531130e-001 -6.665310e+000 45 35 34
-1.063608e-001 -3.065725e-001 -6.898829e+000 250 250 243
9.010077e-001 5.186930e-001 -6.370672e+000 243 81 94
1.052394e+000 1.764946e-001 -6.338404e+000 203 52 57
1.022844e+000 -4.480217e-001 -6.368713e+000 204 181 131
-3.696493e-002 1.327147e+000 -7.381243e+000 190 42 46
-1.797187e-001 3.351285e-001 -7.664264e+000 145 133 121
-1.797187e-001 3.351285e-001 -7.664264e+000 145 133 121
-2.089042e-001 3.168090e-001 -7.480485e+000 127 115 103
3.478792e-001 5.753461e-001 -7.376305e+000 205 197 186
-3.899294e-001 -3.859045e-002 -6.858995e+000 53 11 13
-2.417643e-001 -1.708778e-001 -6.815795e+000 209 194 183
-2.417643e-001 -1.708778e-001 -6.815795e+000 209 194 183
-2.906802e-001 -2.331201e-001 -6.744124e+000 102 25 19
4.914809e-001 -4.521401e-001 -6.796757e+000 132 110 69
6.080675e-001 -7.040494e-001 -6.765784e+000 229 217 203
7.949700e-001 -8.148723e-001 -6.663968e+000 255 254 249
1.043232e+000 -2.497948e-001 -6.297827e+000 196 171 115
-5.749923e-001 5.187085e-001 -8.107592e+000 43 31 31
-4.353936e-002 1.333477e+000 -7.364832e+000 192 43 49
-1.903273e-001 1.021851e+000 -7.461772e+000 139 121 111
-1.872481e-001 1.011310e+000 -7.474090e+000 139 121 111
-2.243689e-001 5.330683e-001 -7.660946e+000 213 205 194
-1.582985e-001 6.112071e-001 -7.447251e+000 139 125 114
-1.752511e-001 9.162774e-002 -6.972207e+000 126 109 99
6.383181e-001 9.937932e-001 -6.675008e+000 215 63 71
-4.490226e-001 -1.712502e-001 -6.639103e+000 134 30 21
-8.293659e-002 -2.579328e-001 -6.798726e+000 62 39 29
1.029599e+000 2.152259e-001 -6.153362e+000 221 67 75
1.119270e+000 1.298317e-001 -6.234356e+000 221 67 75
-2.853710e-001 1.734002e-001 -7.558735e+000 76 4 11
-2.359811e-001 2.595471e-001 -7.455477e+000 181 169 157
-1.951216e-001 1.872265e-001 -7.289720e+000 120 106 97
-9.316646e-001 -1.635979e-001 -6.448170e+000 34 11 6
-9.316646e-001 -1.635979e-001 -6.448170e+000 34 11 6
8.181232e-001 8.217257e-002 -6.606742e+000 224 217 209
5.680287e-001 -7.666752e-001 -6.731825e+000 116 106 111
5.714980e-001 -7.750507e-001 -6.737203e+000 116 106 111
6.821409e-001 -4.857925e-001 -6.617018e+000 254 254 203
8.599237e-001 -3.211809e-001 -6.485750e+000 84 67 47
1.125105e+000 -9.246921e-002 -6.254473e+000 249 94 102
-5.127767e-001 5.714145e-001 -8.043329e+000 189 179 167
-8.438037e-002 1.248337e+000 -7.479570e+000 175 38 46
-2.796986e-002 -1.972636e-001 -6.830865e+000 231 223 220
4.787214e-001 -5.606360e-001 -6.807603e+000 145 125 91
1.131299e+000 1.289526e-001 -6.290559e+000 228 73 81
9.542735e-001 -6.383401e-001 -6.447504e+000 166 35 40
-2.383371e-001 9.527726e-001 -7.629254e+000 167 153 140
-1.555382e-001 8.875500e-001 -7.486792e+000 218 214 205
-5.687918e-001 -1.139719e-001 -6.743988e+000 125 32 14
3.570058e-001 -6.031738e-001 -6.903617e+000 228 224 210
8.017699e-001 -1.758536e-001 -6.493354e+000 238 233 227
-1.386859e-001 -2.474041e-001 -6.893273e+000 241 238 233
8.503214e-001 4.984023e-001 -6.474758e+000 148 26 33
-3.689145e-001 -6.974932e-001 -7.048993e+000 161 25 25
3.734349e-001 2.170893e-001 -7.018123e+000 122 109 93
1.034748e+000 8.070034e-002 -6.158137e+000 193 56 64
-3.514461e-001 -1.647227e-001 -7.077642e+000 56 14 15
-1.592993e-001 1.084184e+000 -6.540613e+000 209 200 194
-2.188869e-001 1.839081e-001 -7.169058e+000 137 127 117
-4.598319e+000 -7.706492e+000 -1.580316e+001 129 128 134
-5.122969e-001 -3.959831e-001 -6.560909e+000 99 81 63
-8.702229e+000 -9.330072e+000 -2.225886e+001 110 99 97
-9.332188e-003 1.340830e+000 -7.388248e+000 78 8 14
-1.811658e-001 5.599716e-001 -7.611461e+000 155 145 133
-2.810018e-001 -2.453881e-003 -7.862503e+000 87 7 6
-2.655200e-001 -3.189653e-002 -7.905046e+000 87 7 6
-2.950095e-001 -2.336691e-001 -7.812944e+000 211 203 192
-1.822626e-001 4.655440e-002 -6.969219e+000 152 136 128
-3.384374e-001 -8.560750e-002 -6.845776e+000 85 19 7
-5.745349e-001 -2.509582e-001 -6.667600e+000 147 20 3
7.986517e-001 8.038524e-001 -6.534840e+000 221 83 87
4.134478e-001 -6.562460e-001 -6.957184e+000 227 223 210
4.071003e-001 -6.463148e-001 -6.947404e+000 227 223 210
9.508281e-001 2.908324e-001 -6.434976e+000 250 87 97
-3.310643e-001 5.759923e-002 -6.965229e+000 92 43 39
-1.256392e+000 -5.423404e+000 -1.022849e+001 14 10 13
8.979247e-001 5.982230e-001 -6.486376e+000 214 65 75
1.203560e+000 2.878347e-001 -6.181971e+000 92 85 85
8.879166e-001 -6.816331e-001 -6.430929e+000 250 105 111
-3.983167e-001 7.949807e-001 -7.860241e+000 205 189 180
-2.738311e-001 1.066805e+000 -7.750398e+000 175 28 34
-1.747053e+000 -3.783086e+000 -1.062553e+001 49 45 46
-1.761363e+000 -4.091253e+000 -1.070301e+001 59 53 57
-5.993678e-003 -1.805175e-002 -6.944378e+000 137 120 112
8.639091e-002 6.196568e-002 -6.930356e+000 200 190 178
2.980661e-001 1.334451e+000 -7.109867e+000 16 2 8
-2.612168e-001 2.267248e-001 -7.732902e+000 206 194 178
-1.086633e-001 3.165820e-001 -6.983039e+000 118 104 93
-3.308536e-001 -5.029030e-002 -6.872668e+000 73 18 22
1.025662e+000 5.011062e-001 -6.376303e+000 67 57 58
-7.389282e-002 1.157551e+000 -7.403831e+000 187 46 45
-1.444008e+000 -5.306234e+000 -1.024890e+001 89 76 67
6.865543e-001 7.928650e-001 -6.709188e+000 207 53 61
5.567645e-001 -4.057797e-001 -6.826097e+000 134 121 104
-3.811085e-001 2.536780e-001 -8.087441e+000 30 36 25
-2.100400e-001 3.133646e-001 -7.480345e+000 127 115 103
-1.237325e+000 -1.169465e+001 -1.052964e+001 57 59 72
-7.705111e-002 1.148329e+000 -7.450910e+000 200 50 59
6.311990e-001 8.662458e-001 -6.758625e+000 220 61 68
7.033519e-001 -8.379445e-001 -6.742171e+000 252 246 237
8.011420e-001 -9.446746e-001 -6.714827e+000 201 64 68
8.995492e-001 -8.176825e-001 -6.580809e+000 253 247 241
1.185424e+000 -1.609806e-001 -6.212499e+000 16 10 14
-2.861732e-001 -1.121216e-001 -7.804287e+000 213 207 195
7.078996e-001 5.372477e-001 -6.590600e+000 254 254 249
-3.021115e-001 -2.629013e-002 -7.867171e+000 171 110 93
-2.268824e-001 -7.241984e-002 -7.721083e+000 197 185 167
5.668961e-002 6.443651e-001 -7.296247e+000 193 185 174
6.531728e-002 6.507790e-001 -7.273441e+000 197 187 175
1.153043e-001 7.945505e-001 -7.147132e+000 181 174 164
-7.932490e-001 -1.846811e-001 -7.087296e+000 122 35 18
-1.487021e+000 -4.953747e+000 -1.042747e+001 29 23 26
-7.602520e-001 -2.110002e-001 -7.078635e+000 99 21 14
-1.743854e-001 1.496161e-001 -7.199949e+000 114 98 85
-9.418597e-002 5.650640e-002 -6.983248e+000 170 157 143
-5.576661e-001 -1.378422e-001 -6.687246e+000 126 31 9
-1.493702e-001 1.328749e-002 -6.872675e+000 135 118 108
2.556578e-001 1.817259e-001 -7.009075e+000 155 141 128
4.242362e-001 -6.588205e-001 -6.934253e+000 252 249 235
4.242362e-001 -6.588205e-001 -6.934253e+000 252 249 235
1.169462e+000 1.259900e-001 -6.249269e+000 32 16 19
1.030640e+000 -6.512702e-001 -6.360783e+000 163 17 27
-1.962345e+000 -3.534795e+000 -1.086272e+001 47 42 46
-1.870688e+000 -3.770155e+000 -1.076618e+001 51 46 50
-1.762650e+000 -4.065851e+000 -1.067636e+001 63 59 60
1.406919e-001 1.005607e+000 -7.298703e+000 208 201 191
4.953836e-002 6.718958e-001 -7.291516e+000 235 226 217
-2.933243e-001 1.160244e-001 -7.105968e+000 128 111 101
-1.413599e+000 -5.055852e+000 -1.038775e+001 69 61 65
-1.258871e+000 -5.385355e+000 -1.029606e+001 43 33 36
-6.722650e-002 5.671116e-002 -6.967769e+000 126 112 99
1.697698e-002 -2.519829e-001 -6.878958e+000 248 244 234
4.844560e-001 1.698179e-001 -6.926106e+000 135 122 105
3.952296e-001 8.020925e-002 -6.803841e+000 191 177 164
3.583733e-001 -3.979449e-002 -6.783289e+000 248 241 231
3.583733e-001 -3.979449e-002 -6.783289e+000 248 241 231
6.151434e-001 -7.279644e-001 -6.816661e+000 231 218 201
1.063018e+000 3.810531e-001 -6.327572e+000 26 10 15
4.137733e-001 -3.909339e+000 -7.832954e+000 179 181 193
1.128722e+000 3.384995e-002 -6.182319e+000 99 87 84
-2.011060e-002 1.361219e+000 -7.322954e+000 70 10 20
-1.691267e-001 6.487376e-001 -7.496790e+000 167 157 146
-1.317646e-001 7.196957e-001 -7.442509e+000 169 157 145
-1.719708e+000 -4.173808e+000 -1.061290e+001 55 49 52
-1.720213e+000 -4.132573e+000 -1.074012e+001 31 25 27
-2.355824e-001 1.848124e-001 -7.346048e+000 155 141 128
-6.375189e-001 -5.996357e-002 -6.896392e+000 101 41 29
-1.326193e+000 -5.419858e+000 -1.045201e+001 78 69 74
-1.376797e+000 -5.455890e+000 -1.026071e+001 124 114 116
-6.478444e-001 -1.203887e-001 -6.681604e+000 114 38 26
5.244897e-001 1.335483e-001 -6.822524e+000 146 133 117
7.419730e-001 8.464443e-001 -6.535401e+000 73 4 9
7.225927e-001 7.912834e-001 -6.530390e+000 250 96 104
6.981937e-001 -1.975979e+000 -7.168371e+000 167 173 175
2.876577e-001 1.168255e+000 -7.120423e+000 211 55 54
4.378938e-001 1.063402e+000 -6.933775e+000 237 75 85
-6.050984e-001 -1.323959e-001 -6.697261e+000 132 42 21
-5.072398e-001 -2.779717e-001 -6.656499e+000 163 22 24
7.281495e-001 8.196764e-002 -6.837342e+000 186 174 162
9.682382e-001 2.188611e-001 -6.426342e+000 253 224 210
9.656666e-001 4.909736e-001 -6.341079e+000 249 97 103
1.006986e+000 -4.210906e-002 -6.317347e+000 236 87 87
1.032793e+000 -4.495713e-001 -6.283113e+000 248 231 179
-4.399853e-001 7.326831e-001 -7.927374e+000 193 183 173
-1.392446e-001 7.253216e-001 -7.609434e+000 200 191 176
2.370280e-001 8.870064e-001 -7.204380e+000 199 191 182
2.347710e-001 8.888326e-001 -7.202528e+000 199 191 182
-3.992622e-001 -1.979686e-001 -6.690637e+000 128 37 22
1.025095e+000 2.487421e-001 -6.409724e+000 241 84 93
-6.709872e-003 1.343658e+000 -7.451753e+000 18 8 10
-1.094195e-001 7.584372e-001 -7.565663e+000 171 161 149
-1.094195e-001 7.584372e-001 -7.565663e+000 171 161 149
1.055855e+000 1.299637e-001 -6.320711e+000 228 73 81
1.285846e-002 1.199089e+000 -7.345372e+000 214 48 58
3.833181e-001 1.250202e+000 -6.981088e+000 213 51 62
3.900145e-001 9.920356e-001 -6.997792e+000 218 208 199
3.847529e-001 9.968923e-001 -6.990390e+000 218 208 199
5.758033e-001 9.457506e-001 -6.815969e+000 220 58 66
3.397079e-001 1.778156e-001 -6.855941e+000 152 139 122
7.109582e-001 9.175093e-001 -6.648452e+000 205 60 66
4.450301e-001 -3.027239e-001 -6.881733e+000 254 254 246
-9.794528e-001 -1.145677e+001 -1.026247e+001 45 43 56
1.266710e+000 -2.160528e-001 -6.116519e+000 255 245 192
-2.488180e-001 3.264549e-001 -7.559904e+000 197 184 173
-2.890360e-001 -2.626544e-001 -7.899771e+000 207 197 185
3.422123e-001 9.500637e-002 -6.808402e+000 212 203 190
-2.243285e-001 1.114329e+000 -7.715268e+000 214 63 69
9.464950e-001 4.656796e-001 -6.372717e+000 247 81 93
-4.246852e-001 2.844148e-001 -7.991445e+000 40 28 28
1.217609e+000 -2.853661e-001 -6.148949e+000 254 251 196
-3.592128e-001 5.903630e-001 -7.850755e+000 225 218 207
1.870023e-001 7.028289e-001 -7.163284e+000 197 189 180
-1.074842e+000 -4.175840e-002 -6.361061e+000 44 19 4
-3.820020e-002 1.314202e+000 -7.453385e+000 130 23 33
-9.728531e-001 1.030872e-004 -6.270598e+000 210 134 120
-6.205327e-002 1.145246e+000 -7.700674e+000 150 26 34
-9.619690e-001 3.642847e-002 -6.303180e+000 60 25 15
-2.887446e-002 1.167128e+000 -7.423006e+000 204 45 60
3.900949e-001 1.257180e+000 -7.106400e+000 220 69 78
2.079958e-001 1.298139e+000 -5.992222e+000 63 51 51
-1.072416e-001 5.311974e-001 -7.377610e+000 190 180 168
1.911652e-001 7.191125e-001 -7.249679e+000 190 181 172
-2.499735e-001 1.697129e-001 -7.279086e+000 114 97 88
-2.488358e-001 1.711320e-001 -7.228794e+000 122 106 93
-1.684972e-001 2.157711e-001 -7.103052e+000 111 95 82
-2.056844e-003 1.816002e-001 -7.095516e+000 131 114 101
-5.335519e-001 -7.244375e-002 -6.735667e+000 151 67 46
-5.335519e-001 -7.244375e-002 -6.735667e+000 151 67 46
-1.044990e-001 9.678374e-002 -6.960317e+000 132 117 104
1.619634e-001 2.140099e-001 -6.972496e+000 167 151 135
5.844773e-001 6.636812e-001 -6.810701e+000 205 197 184
-1.847146e-002 1.338397e+000 -7.352264e+000 179 35 45
-1.456494e+000 -4.929990e+000 -1.040914e+001 67 58 61
2.335694e-001 1.011236e+000 -7.211194e+000 207 200 192
2.335694e-001 1.011236e+000 -7.211194e+000 207 200 192
-7.493076e-001 -1.194446e-001 -6.993329e+000 75 16 8
8.242507e-001 5.109716e-001 -6.540815e+000 198 52 59
3.187928e-001 1.153541e+000 -7.082917e+000 209 48 56
-1.311703e-001 2.366055e-001 -7.200220e+000 120 107 91
2.543341e-001 2.753380e-001 -7.017150e+000 123 107 92
1.062547e+000 1.418910e-001 -6.325529e+000 235 81 89
-4.880920e-001 -2.569197e-001 -6.677747e+000 239 136 95
-4.191549e-002 1.094462e+000 -7.392952e+000 214 205 198
-1.287066e+000 -5.312120e+000 -1.031831e+001 48 39 42
3.643267e-001 1.282657e+000 -7.003364e+000 175 38 44
-5.497326e-001 -4.056242e-002 -6.759665e+000 139 64 45
-1.846254e-001 1.341883e-001 -6.993493e+000 119 103 90
-6.083357e-001 -1.185223e-001 -6.682713e+000 114 28 13
-5.255140e-001 -3.599748e-002 -6.762646e+000 107 31 15
-3.689371e-001 -3.857862e-002 -6.881633e+000 48 13 12
-2.063675e-001 8.693990e-002 -6.930950e+000 150 133 125
-4.495182e-001 -1.271407e-001 -6.678269e+000 114 27 12
7.993802e-002 9.942207e-002 -6.951196e+000 211 199 187
-5.548667e-001 -3.779869e-001 -6.644000e+000 87 89 104
2.990044e-001 2.490763e-001 -6.927819e+000 133 117 101
6.010926e-001 1.083046e+000 -6.776077e+000 213 61 71
2.517491e-001 -3.319462e+000 -7.996281e+000 151 154 166
3.317501e-001 -3.608523e+000 -7.970252e+000 221 230 238
4.603425e-001 -2.800713e+000 -7.683465e+000 189 199 198
1.034989e+000 1.090037e-001 -6.335631e+000 206 68 72
1.080490e+000 -3.050762e+000 -6.902944e+000 141 142 136
-4.150993e-001 1.013729e+000 -7.817565e+000 168 36 45
-2.781196e-001 9.078699e-001 -7.769839e+000 219 62 70
-1.493033e+000 -4.794761e+000 -1.041462e+001 70 65 69
-2.066656e-001 2.507784e-003 -7.723029e+000 146 93 82
-2.206109e-001 -5.301136e-002 -7.686716e+000 212 204 191
-1.524624e-001 4.751466e-001 -7.412057e+000 183 171 159
-6.288738e-001 -8.747473e-002 -6.708811e+000 102 20 8
-5.418207e-001 -5.767256e-002 -6.749171e+000 112 30 15
-8.798406e-002 6.076933e-002 -6.934234e+000 172 164 151
-9.456083e-001 -1.532209e-002 -6.280307e+000 197 128 114
-5.423463e-002 4.795288e-002 -6.914935e+000 137 125 113
2.792276e-001 2.261003e-001 -6.925056e+000 154 140 120
2.183602e-001 -5.987467e-001 -6.883691e+000 113 111 104
4.145602e-001 6.676573e-002 -6.801880e+000 143 130 114
4.708872e-001 -2.767009e+000 -7.648040e+000 133 142 141
7.917598e-001 1.508098e-001 -6.558709e+000 245 238 228
1.031739e+000 -1.257593e-001 -6.360539e+000 223 82 86
-3.248664e-001 1.036352e+000 -7.791587e+000 165 29 37
-2.205995e-001 6.664781e-001 -7.697924e+000 173 164 149
-1.534826e+000 -4.638441e+000 -1.041736e+001 66 61 65
-1.404410e-001 6.321527e-001 -7.596045e+000 182 170 156
-1.287045e+000 -5.339317e+000 -1.022855e+001 90 84 88
3.116254e-001 1.197103e+000 -7.106079e+000 230 75 82
-7.875428e-001 -4.977901e+000 -9.591183e+000 84 76 77
-3.533930e-001 -1.923193e-002 -6.875241e+000 77 42 36
2.824142e-001 3.469850e-001 -7.059035e+000 172 160 146
-6.049079e-001 -2.552434e-001 -6.645851e+000 198 106 65
-4.753985e-001 -1.275543e-001 -6.722903e+000 88 25 16
6.156387e-002 1.677904e-001 -6.970151e+000 166 150 137
5.309946e-001 1.251171e-001 -6.827254e+000 142 129 113
5.128722e-001 -1.911668e+000 -7.473955e+000 112 118 115
7.053120e-001 1.852989e-001 -6.767713e+000 208 200 185
7.400033e-001 8.004992e-001 -6.537677e+000 107 14 25
8.487606e-001 5.436273e-001 -6.536078e+000 167 33 42
1.153432e+000 -1.816157e+000 -6.639818e+000 178 180 175
-2.275881e-001 1.035459e+000 -7.715048e+000 169 32 39
-2.425985e-001 3.638336e-001 -7.617417e+000 206 196 184
3.739369e-001 1.143625e+000 -7.014238e+000 234 78 82
3.869151e-001 1.068544e+000 -6.989597e+000 211 178 166
-7.221663e-001 -2.994302e-001 -6.507091e+000 64 22 24
9.615103e-002 -9.489950e-002 -6.855251e+000 235 227 214
4.352379e-001 -5.835623e-001 -6.892535e+000 248 244 227
8.240086e-001 8.296050e-001 -6.572551e+000 21 11 12
6.276652e-001 -3.540144e-001 -6.707708e+000 178 165 147
1.052272e+000 1.757179e-001 -6.340258e+000 215 59 70
-5.049389e-001 4.513621e-001 -7.919475e+000 220 209 191
-1.996290e-001 4.199443e-001 -7.654617e+000 215 207 194
-2.092006e-001 4.296155e-001 -7.487250e+000 131 117 106
-3.127898e-001 2.599917e-001 -7.913506e+000 185 46 50
-2.322876e-001 2.867149e-001 -7.724051e+000 157 139 127
-2.158170e-001 2.163134e-001 -7.341362e+000 159 146 130
1.012205e-001 7.672273e-001 -7.250039e+000 182 172 162
4.452812e-001 3.006962e-001 -7.002640e+000 145 136 121
6.280840e-001 6.579558e-001 -6.739238e+000 235 226 211
7.266646e-001 8.462251e-001 -6.579061e+000 89 13 18
9.637154e-001 4.856466e-001 -6.360411e+000 234 78 88
-2.075267e-001 5.159808e-001 -7.690217e+000 228 220 209
-2.393762e-001 7.310142e-003 -7.809324e+000 75 11 16
-1.250151e-001 2.230933e-001 -7.187428e+000 123 111 96
-2.266482e-001 -1.895356e-001 -6.817778e+000 230 220 213
8.770229e-001 1.038862e-001 -6.534115e+000 229 222 211
1.040791e+000 -3.776062e-001 -6.296090e+000 174 151 101
6.860221e-001 -5.125522e-001 -6.646360e+000 254 252 203
7.976269e-001 -2.332893e-001 -6.523054e+000 245 237 228
-4.276661e-001 9.514478e-001 -7.837385e+000 211 63 69
7.512450e-002 4.315851e-001 -7.193999e+000 151 142 127
-6.780039e-001 -1.676214e-001 -6.671053e+000 74 20 18
5.079276e-001 -6.250784e-001 -6.839613e+000 145 122 98
8.040678e-001 -1.642257e-001 -6.492617e+000 231 222 213
1.559693e-001 6.256428e-001 -7.216042e+000 144 132 122
2.682354e-001 -8.734361e-002 -6.820056e+000 252 250 240
3.537024e-001 2.508093e-001 -6.993444e+000 136 123 107
-3.885266e-002 1.347651e+000 -7.397516e+000 85 13 23
-1.828275e-001 5.385548e-001 -7.483190e+000 162 148 134
-2.175124e-001 1.872865e-001 -7.162860e+000 118 103 89
1.520332e-001 7.200507e-001 -7.219808e+000 191 184 174
-6.254536e-001 -9.229945e-002 -6.748023e+000 126 56 44
-4.896551e-001 -1.531465e-001 -6.691184e+000 126 31 15
4.569014e-001 -2.687105e+000 -7.625708e+000 180 193 183
4.036245e-001 -5.777485e-001 -6.930794e+000 232 228 216
-4.230721e-001 7.870941e-001 -7.852568e+000 174 152 139
1.401180e-001 9.987420e-001 -7.278551e+000 205 198 190
-2.745640e-001 1.218142e-001 -7.302192e+000 123 109 96
-3.571594e-001 6.698435e-002 -7.105961e+000 67 24 18
-2.378862e-001 9.702429e-002 -7.057901e+000 140 124 111
-1.218656e-001 1.743533e-001 -7.134661e+000 115 99 86
-8.125540e-002 2.239656e-001 -7.074561e+000 174 165 150
-2.867156e-002 2.167774e-001 -7.147460e+000 161 148 132
-6.396542e-001 -1.156654e-001 -6.723356e+000 81 17 8
-5.918150e-001 -7.200044e-002 -6.761735e+000 86 21 12
1.408398e-001 2.460417e-001 -6.968718e+000 163 147 131
4.176103e-002 -2.588041e-001 -6.869252e+000 209 197 184
5.415224e-001 6.036601e-001 -6.745974e+000 160 148 133
4.393327e-001 -1.521679e-001 -6.762849e+000 238 232 220
4.485332e-001 -5.440779e-002 -6.727189e+000 201 192 177
7.867803e-001 -5.286865e-001 -6.502765e+000 225 212 179
1.237631e+000 -2.357503e+000 -6.504142e+000 169 167 170
-2.621224e-001 3.144400e-001 -7.788555e+000 175 163 149
-2.621224e-001 3.144400e-001 -7.788555e+000 175 163 149
-1.762602e-001 6.250473e-001 -7.559247e+000 148 136 122
-5.471540e-001 -9.967789e-002 -6.718188e+000 180 88 59
-5.471540e-001 -9.967789e-002 -6.718188e+000 180 88 59
1.244345e-001 -2.623276e-002 -6.861005e+000 179 169 156
7.189649e-001 8.946967e-002 -6.706098e+000 208 198 189
8.718356e-001 5.345229e-001 -6.570599e+000 230 84 95
9.844037e-001 4.977812e-001 -6.352709e+000 30 15 15
1.105178e+000 -4.932694e-001 -6.273611e+000 162 56 53
-3.913322e-001 8.755166e-001 -7.766527e+000 224 69 77
-9.948594e-002 2.710254e-001 -7.232735e+000 135 121 108
-2.306666e-001 1.395004e-001 -6.999769e+000 155 139 124
-5.970199e-002 1.053680e-001 -6.980135e+000 128 115 99
4.006813e-001 1.412476e-001 -6.838059e+000 197 183 170
7.373465e-001 1.111503e-001 -6.723386e+000 194 184 172
9.875517e-001 -3.988872e-001 -6.333678e+000 216 193 139
-7.306115e-003 3.609260e-002 -6.931203e+000 196 186 176
4.439918e-001 5.779319e-001 -6.974195e+000 193 181 174
5.923525e-001 -8.014358e-001 -6.826540e+000 252 252 242
1.010430e+000 -7.064641e-001 -6.372143e+000 237 98 109
1.309999e+000 -4.170519e-001 -6.122120e+000 255 246 198
1.309999e+000 -4.170519e-001 -6.122120e+000 255 246 198
-4.767568e-001 7.359957e-001 -7.969959e+000 178 38 48
-3.631203e-002 1.321920e+000 -7.382076e+000 200 53 55
1.189148e-001 5.975792e-001 -7.182356e+000 149 137 121
4.140129e-001 7.092345e-001 -6.953753e+000 252 245 237
7.704092e-001 8.965313e-001 -6.613888e+000 40 26 27
6.878039e-001 -6.782545e-001 -6.741407e+000 213 202 182
8.956208e-001 2.076753e-001 -6.466271e+000 175 157 145
9.497445e-001 -2.255334e-001 -6.438490e+000 216 202 193
1.311107e+000 -2.498762e-001 -6.134983e+000 250 242 186
8.946925e-001 8.742563e-002 -6.541210e+000 230 224 212
-2.554223e-001 -3.614811e-001 -7.709895e+000 238 231 220
6.654356e-001 7.649534e-001 -6.730436e+000 216 209 198
-5.682404e-001 -8.889681e-002 -6.726866e+000 117 27 18
8.955561e-001 -2.864040e-001 -6.442702e+000 85 70 54
-2.101305e-001 9.452048e-001 -7.667606e+000 174 158 147
7.182084e-001 5.356258e-001 -6.596614e+000 254 251 244
-2.847171e-001 -1.305286e-001 -7.809550e+000 208 201 185
1.156328e+000 -6.661603e-002 -6.273458e+000 180 46 54
-2.078507e-001 7.371928e-001 -7.637696e+000 224 217 207
-2.081496e-001 4.542667e-002 -7.677045e+000 124 59 57
-1.701829e-001 5.115520e-001 -7.484477e+000 181 168 152
-8.421909e-001 -3.028357e-001 -7.029959e+000 210 139 115
-9.744238e-001 -3.671499e-001 -6.718385e+000 218 193 173
-9.717203e-001 -3.474975e-001 -6.728514e+000 130 47 25
-3.250329e-001 1.077982e-001 -7.056241e+000 81 40 31
2.184400e-001 1.348431e+000 -7.139604e+000 182 42 51
-7.510873e-001 -2.998388e-001 -6.501546e+000 45 15 13
-7.456820e-001 -2.948062e-001 -6.486551e+000 163 160 148
1.944422e-001 1.290386e-001 -6.911717e+000 183 171 156
1.944422e-001 1.290386e-001 -6.911717e+000 183 171 156
3.506602e-001 -3.721060e-002 -6.772541e+000 254 245 236
6.539129e-001 -1.255461e+000 -7.081546e+000 127 126 122
5.083107e-001 -4.724919e-001 -6.901949e+000 154 137 115
7.190374e-001 -1.531942e+000 -7.071978e+000 157 159 156
7.767918e-001 -1.507658e+000 -6.982202e+000 174 176 175
7.985918e-001 7.413620e-001 -6.540367e+000 250 75 85
1.015256e+000 -1.770147e+000 -6.784770e+000 183 183 185
1.105942e+000 -3.037604e+000 -6.800805e+000 162 157 163
1.105942e+000 -3.037604e+000 -6.800805e+000 162 157 163
1.044346e+000 -1.811496e+000 -6.739925e+000 182 181 187
1.003662e+000 -1.165926e+000 -6.661387e+000 171 166 170
9.254854e-001 6.613919e-001 -6.486627e+000 81 68 68
9.981844e-001 -5.235940e-003 -6.317355e+000 232 92 100
1.356241e+000 -6.102180e-001 -6.117964e+000 155 149 153
-3.346279e-001 6.553269e-001 -7.791175e+000 237 233 222
-1.298364e-001 8.285237e-001 -7.431217e+000 212 202 193
-2.510368e-001 -1.439814e-001 -7.635141e+000 178 165 150
1.249574e-001 1.024181e+000 -7.288730e+000 217 210 200
4.636222e-002 6.744038e-001 -7.278353e+000 237 229 218
-9.893270e-001 -3.684953e-001 -6.727819e+000 39 17 15
-2.411615e-001 1.536895e-001 -7.086381e+000 140 124 111
-3.688438e-002 -3.794095e+000 -8.362382e+000 184 192 194
-4.396328e-001 -8.811865e-002 -6.813829e+000 82 18 14
-4.395292e-001 -5.337803e-002 -6.801623e+000 87 23 13
-3.676530e-001 -4.724167e-002 -6.934656e+000 53 13 13
-5.247924e-001 -2.230580e-001 -6.675574e+000 250 148 120
3.178222e-001 2.449444e-001 -6.985213e+000 159 142 126
3.762338e-001 -5.362958e-001 -6.951425e+000 168 148 111
6.577975e-001 9.985601e-001 -6.683700e+000 216 73 82
9.014671e-001 -2.309521e+000 -6.931130e+000 170 170 172
9.027124e-001 -1.367429e+000 -6.882026e+000 169 169 169
6.721587e-001 -3.094024e-001 -6.639819e+000 183 171 159
9.928874e-001 -1.851296e+000 -6.849825e+000 153 154 156
8.498381e-001 7.502971e-001 -6.515355e+000 76 63 64
1.216337e+000 -2.465121e+000 -6.521510e+000 167 165 168
1.037601e+000 -4.400385e-001 -6.301511e+000 191 168 118
1.301993e+000 -2.277122e-001 -6.093218e+000 149 140 141
1.350044e+000 -1.763628e-001 -6.120136e+000 142 138 138
-3.729618e-001 2.885742e-001 -8.030334e+000 56 47 42
-3.326788e-001 6.748170e-002 -7.856053e+000 153 25 32
-1.686453e-001 5.878830e-001 -7.624244e+000 204 194 182
-3.096319e-002 1.131238e+000 -7.425697e+000 223 207 194
2.230771e-003 1.342255e+000 -7.373323e+000 75 8 16
-2.111643e-001 5.274814e-001 -7.459692e+000 147 134 119
3.615106e-002 6.196448e-001 -7.294069e+000 214 205 194
-8.458074e-001 -2.407141e-001 -6.461388e+000 47 11 17
4.843865e-001 1.251315e+000 -6.931928e+000 72 58 55
7.187620e-001 -1.579249e+000 -7.147149e+000 158 163 157
5.488424e-001 -3.307259e-001 -6.833892e+000 180 169 149
6.691525e-001 -1.106519e+000 -7.016317e+000 154 153 149
5.387965e-001 -3.227381e-001 -6.785195e+000 254 250 238
7.306555e-001 9.206102e-001 -6.645678e+000 213 70 78
7.720379e-001 8.817545e-001 -6.598148e+000 23 14 17
9.788247e-001 -1.867774e+000 -6.827800e+000 179 180 182
9.583918e-001 -1.742241e+000 -6.809896e+000 190 190 192
7.147657e-001 -3.935623e-001 -6.499104e+000 231 211 155
1.145743e+000 5.071317e-003 -6.218686e+000 229 103 110
-2.352451e-001 2.834890e-001 -7.392796e+000 177 165 149
3.117465e-001 1.258198e+000 -7.074022e+000 209 49 61
6.081728e-001 -4.988796e-001 -6.833274e+000 214 209 190
8.040622e-001 -7.288710e-001 -6.654758e+000 254 253 249
-5.953446e-001 5.717186e-001 -8.176385e+000 230 75 79
-1.171253e-001 7.475381e-001 -7.477595e+000 136 123 110
-1.187787e-001 7.946980e-001 -7.400666e+000 169 155 143
-4.692066e-001 -1.367706e-001 -7.237315e+000 124 117 119
-4.823202e-001 -1.405930e-002 -7.092075e+000 90 38 25
-4.858400e-001 -8.927142e-003 -7.088286e+000 90 38 25
3.334463e-001 1.296503e+000 -7.041068e+000 229 73 86
-8.543081e-001 -2.449990e-001 -6.505877e+000 51 22 10
1.308878e-001 -5.072208e-002 -6.846473e+000 254 255 243
4.745596e-001 3.621388e-001 -6.977817e+000 211 201 192
6.958083e-001 -9.201189e-001 -6.806466e+000 169 51 49
8.381354e-001 -1.765217e+000 -6.922512e+000 156 158 157
8.317876e-001 -7.568243e-001 -6.628354e+000 220 211 196
1.341534e+000 -4.987450e-001 -6.144943e+000 127 123 124
-2.152438e-001 3.821225e-001 -7.587638e+000 147 134 117
-5.543000e-001 -1.359744e-001 -7.241751e+000 129 127 126
-6.927462e-001 -2.523149e-001 -6.612315e+000 149 70 48
3.578946e-001 1.086504e+000 -7.016353e+000 249 241 239
6.392067e-002 -1.605837e-002 -6.912950e+000 141 128 115
6.392067e-002 -1.605837e-002 -6.912950e+000 141 128 115
4.366863e-001 7.784079e-001 -6.994379e+000 249 245 236
4.001384e-001 -6.422868e-001 -6.879836e+000 228 222 210
5.067137e-001 -2.504143e-001 -6.749787e+000 253 246 236
6.945861e-001 -8.370246e-001 -6.733099e+000 248 237 228
6.787424e-001 -8.155537e-001 -6.723343e+000 248 237 228
6.853238e-001 -1.287037e-001 -6.582819e+000 245 241 232
1.075756e+000 -5.896217e-001 -6.350285e+000 178 35 39
1.153658e+000 3.803608e-002 -6.244295e+000 125 15 24
1.153658e+000 3.803608e-002 -6.244295e+000 125 15 24
1.331570e+000 -4.276942e-001 -6.140549e+000 255 251 205
-3.032951e-001 -3.831488e-001 -7.837208e+000 223 216 205
-2.554921e-001 -1.049001e-001 -6.825733e+000 94 33 32
-3.253567e-001 -2.206033e-001 -6.658660e+000 112 25 18
-3.153467e-001 5.731788e-001 -7.764423e+000 229 222 212
-6.080849e-001 -3.032492e-001 -6.648091e+000 246 208 163
-1.582534e-001 -1.502691e-001 -6.822873e+000 253 246 240
1.359992e-001 2.060131e-001 -6.993932e+000 222 214 203
-4.804151e-001 8.941726e-001 -7.956757e+000 215 62 67
-5.291974e-001 5.611543e-001 -8.041804e+000 194 184 172
-6.243483e-001 6.621297e-001 -8.112330e+000 202 46 50
-2.317806e-001 1.296004e-001 -7.647356e+000 88 17 24
-2.317806e-001 1.296004e-001 -7.647356e+000 88 17 24
-1.610202e-001 9.235091e-001 -7.422533e+000 229 222 212
5.345255e-001 6.085446e-001 -6.926866e+000 233 226 216
1.259929e+000 -3.287832e-001 -6.180189e+000 255 251 203
4.988538e-001 1.215073e-001 -6.750596e+000 154 141 123
9.430861e-001 6.875814e-002 -6.495969e+000 253 246 240
-3.967019e-001 1.041302e+000 -7.911323e+000 21 12 15
1.462295e-001 1.321508e+000 -7.467332e+000 16 7 10
-3.694537e-001 6.347092e-001 -7.825049e+000 226 220 208
-1.393829e+000 -1.200269e+001 -1.090908e+001 96 98 111
7.672846e-001 6.005244e-001 -6.586062e+000 244 76 87
-8.267741e-002 8.144884e-001 -7.606791e+000 222 214 203
-7.356160e-002 3.595923e-001 -7.315323e+000 145 132 115
-1.847402e-001 6.686034e-001 -7.476798e+000 168 155 141
1.051696e+000 -1.024911e+000 -6.579496e+000 142 141 139
5.962339e-001 5.508585e-001 -6.822370e+000 170 158 142
-2.624450e-001 -2.338290e-001 -7.764024e+000 178 166 150
-2.248563e-001 2.825223e-001 -7.581439e+000 175 163 151
-1.250223e-001 7.844269e-001 -7.435436e+000 187 175 161
2.056475e-001 1.174250e+000 -7.221323e+000 216 61 69
1.187078e-001 -3.772694e+000 -8.205247e+000 179 188 183
-6.203175e-001 -7.522810e-002 -6.755112e+000 83 19 10
-3.180230e-001 1.278680e-003 -6.942121e+000 63 23 19
7.240493e-001 -1.620027e+000 -7.124137e+000 116 122 118
-6.606717e-001 6.336578e-001 -8.228455e+000 44 33 30
-4.139305e-001 7.792037e-001 -7.861395e+000 169 155 139
-2.233458e-001 1.458803e-001 -7.226782e+000 152 136 121
-2.233458e-001 1.458803e-001 -7.226782e+000 152 136 121
-2.179134e-001 1.561588e-001 -7.236184e+000 121 105 90
2.371540e-001 2.974858e-001 -7.037901e+000 145 131 118
3.082313e-001 2.530555e-001 -6.984616e+000 159 142 126
6.506117e-001 -9.005954e-002 -6.638218e+000 239 231 220
1.027891e+000 -2.995480e+000 -6.918853e+000 164 162 165
8.678689e-001 5.895089e-001 -6.520095e+000 192 49 57
1.022887e+000 -2.616328e-001 -6.405292e+000 139 113 100
-1.536285e-001 6.051708e-001 -7.612694e+000 191 179 165
-2.010047e-001 3.558220e-001 -7.467892e+000 172 158 145
4.633248e-001 1.601963e-003 -6.724114e+000 177 166 147
