ply
format ascii 1.0
element face 0
property list uchar int vertex_indices
element vertex 870
property float x
property float y
property float z
property uchar diffuse_red
property uchar diffuse_green
property uchar diffuse_blue
end_header
-5.972397e+000 -7.900029e+000 -1.727014e+001 133 131 142
5.118870e-001 8.699704e-001 -6.855306e+000 229 221 218
1.852709e-001 -4.954649e-001 -6.958574e+000 66 33 26
-4.655452e+000 -6.606663e+000 -1.572061e+001 167 169 184
-6.068830e+000 -6.242521e+000 -1.820901e+001 19 17 22
-3.204077e-001 5.605504e-001 -7.882010e+000 213 204 195
1.882950e-001 6.897209e-001 -7.341538e+000 177 170 162
7.625760e-001 7.789801e-001 -6.571645e+000 109 22 20
-2.161577e-001 1.093197e-001 -7.003505e+000 107 93 84
-1.809824e-001 7.754007e-002 -6.926296e+000 145 130 123
-4.458426e-001 -6.477535e-002 -6.826583e+000 87 19 8
-1.363048e-001 1.203384e-002 -6.874908e+000 128 114 109
-5.381422e-001 -1.402485e-001 -6.713414e+000 125 31 14
-8.016059e-001 -2.169306e-001 -6.525398e+000 87 29 14
-4.714939e+000 -6.154416e+000 -1.527261e+001 95 90 100
9.834503e-001 -6.673065e-001 -6.377624e+000 243 85 83
-1.619462e-001 8.660068e-001 -7.593601e+000 183 176 168
-5.220023e-001 5.722742e-001 -8.038892e+000 206 40 46
-2.034118e-001 5.964420e-001 -7.660807e+000 166 157 148
3.158453e-001 2.265225e-001 -7.100437e+000 144 130 119
-2.573100e-001 4.580550e-002 -6.920863e+000 79 33 28
-4.889224e-001 -7.111335e-002 -6.778127e+000 139 61 39
-6.609085e-001 -1.581310e-001 -6.679016e+000 74 17 10
2.901537e-001 -3.401241e-001 -6.935657e+000 126 110 95
6.097485e-001 -1.052714e-001 -6.621083e+000 218 214 205
6.097485e-001 -1.052714e-001 -6.621083e+000 218 214 205
-5.536099e+000 -8.646505e+000 -1.688831e+001 156 161 183
7.208223e-001 7.978619e-001 -6.611018e+000 76 7 10
1.005539e-001 1.957524e-001 -6.988824e+000 199 191 180
7.572319e-001 4.998268e-001 -6.618245e+000 207 201 195
9.687508e-001 3.513283e-001 -6.365194e+000 234 67 77
-3.272848e-001 -2.044691e-001 -6.736030e+000 214 102 65
7.869238e-001 -9.319119e-001 -6.763385e+000 226 78 79
-1.403214e+000 -2.713516e+000 -8.814265e+000 25 19 21
-5.650248e-001 5.515516e-001 -8.125891e+000 217 58 56
-1.890732e-001 3.496837e-001 -7.394974e+000 140 127 118
-1.089039e-001 4.240817e-001 -7.382971e+000 140 130 117
5.917103e-001 6.004761e-001 -6.792250e+000 166 156 146
2.535310e-001 2.617272e-001 -7.013279e+000 119 104 94
-3.129922e-001 4.002926e-002 -6.938489e+000 61 12 11
4.246885e-001 1.927723e-001 -6.901027e+000 120 108 94
-3.443011e-001 -8.123501e-002 -6.840977e+000 78 23 16
1.001254e+000 2.167328e-001 -6.374031e+000 242 73 82
-2.387183e-001 -3.884434e-001 -6.868641e+000 169 148 135
-4.813629e+000 -6.481018e+000 -1.513901e+001 9 8 14
-1.462510e+000 -4.842242e+000 -1.054606e+001 46 40 42
3.909850e-001 1.418537e-001 -6.843666e+000 203 195 185
7.200741e-001 6.506413e-002 -6.696084e+000 194 185 178
1.007371e+000 -4.061449e-001 -6.322833e+000 110 86 48
-4.768699e+000 -6.618933e+000 -1.517300e+001 155 153 167
-4.750026e+000 -6.585749e+000 -1.512120e+001 155 153 167
-5.845845e+000 -8.629726e+000 -1.694374e+001 130 131 149
-2.214089e-001 8.227777e-001 -7.667592e+000 202 193 185
4.180294e-001 7.038592e-001 -6.983061e+000 168 157 153
4.175098e-001 7.038605e-001 -6.982326e+000 168 157 153
5.727839e-001 3.177545e-001 -6.835639e+000 194 185 176
8.812309e-001 -1.017796e+000 -6.675248e+000 231 66 80
8.812309e-001 -1.017796e+000 -6.675248e+000 231 66 80
5.802839e-001 1.004953e+000 -6.769838e+000 209 45 56
8.140685e-001 -3.003480e-001 -6.499755e+000 91 74 54
8.483263e-001 -1.109442e-001 -6.517675e+000 164 151 143
8.896553e-001 -3.053180e-001 -6.365248e+000 182 157 108
-4.392908e+000 -6.818693e+000 -1.475092e+001 161 161 173
-5.343829e+000 -7.955175e+000 -1.663648e+001 10 8 12
-5.325423e+000 -7.916681e+000 -1.657798e+001 10 8 12
1.133567e+000 -1.534428e-001 -6.242986e+000 37 26 27
-5.684988e+000 -8.626195e+000 -1.706361e+001 168 173 195
-2.499298e-001 2.354264e-001 -7.561219e+000 122 28 31
-1.892512e-001 1.176496e-001 -6.807228e+000 142 129 120
-2.102001e-001 -5.455451e-002 -6.826431e+000 109 37 21
-1.834891e-001 -2.549533e-001 -6.872221e+000 240 229 226
3.987935e-001 -1.260253e-001 -6.818956e+000 238 235 228
-3.199363e-001 1.036767e+000 -7.765189e+000 29 19 19
-2.449974e-001 8.289418e-001 -7.721570e+000 203 194 185
2.279913e-001 7.138884e-001 -7.198510e+000 190 181 174
2.337408e-001 7.055105e-001 -7.239206e+000 190 181 174
1.460514e-001 2.266256e-001 -6.922282e+000 157 141 126
-5.015480e-001 -7.316585e-002 -6.748030e+000 144 65 43
-1.397475e-001 4.750037e-002 -6.959174e+000 131 116 109
-8.704179e-001 -2.458822e-001 -6.470394e+000 91 24 17
-5.673579e-001 -2.177448e-001 -6.639304e+000 251 139 101
-1.936400e-001 -3.634678e-001 -6.852464e+000 191 183 174
-1.788791e+000 -3.564922e+000 -1.051751e+001 41 35 37
8.258338e-001 -2.718190e-001 -6.523506e+000 139 122 110
4.566971e-001 -1.121211e+000 -7.308291e+000 241 221 182
-2.374833e-002 1.274755e+000 -7.358458e+000 186 39 40
-3.093721e-001 -2.540553e-002 -7.923735e+000 35 27 26
-3.093721e-001 -2.540553e-002 -7.923735e+000 35 27 26
-5.839924e-001 -4.352454e-002 -6.863685e+000 69 16 8
-5.839924e-001 -4.352454e-002 -6.863685e+000 69 16 8
8.099854e-001 5.380802e-001 -6.572570e+000 214 57 66
-6.722474e-001 -1.780938e-001 -6.565568e+000 147 63 39
4.122470e-001 4.803104e-002 -6.838624e+000 131 119 107
-7.008636e-002 -2.296647e-001 -6.853198e+000 253 250 243
7.496597e-002 -2.021801e-001 -6.895672e+000 232 225 219
-7.240473e-001 -3.368583e-001 -6.558523e+000 43 35 33
-2.449138e-001 -4.111267e-001 -6.846165e+000 232 225 221
3.649799e-001 -4.442821e-001 -6.891898e+000 196 183 131
-1.700877e+000 -3.686079e+000 -1.056560e+001 53 47 47
2.229495e-002 1.136349e+000 -7.342459e+000 203 42 49
-3.277227e-001 -1.974348e-001 -6.718619e+000 227 116 77
-9.767573e-002 -2.037602e-001 -6.826251e+000 227 224 219
-4.706729e-001 4.352740e-001 -7.873627e+000 213 200 191
7.948551e-001 5.102606e-001 -6.580903e+000 174 33 44
3.798184e-002 -5.254894e-002 -6.887150e+000 159 149 140
3.532076e-002 -4.454772e-002 -6.867543e+000 159 149 140
-1.986630e-001 -4.083050e-001 -6.889349e+000 242 236 232
1.004103e+000 1.623575e-001 -6.363172e+000 195 35 45
1.004103e+000 1.623575e-001 -6.363172e+000 195 35 45
4.520288e-001 -3.262499e-001 -6.900226e+000 244 237 231
1.081830e+000 2.021622e-002 -6.241502e+000 229 83 91
6.971863e-001 -8.403149e-001 -6.741739e+000 219 47 59
2.425576e-001 9.158682e-001 -7.230828e+000 223 217 213
-4.981930e-001 -2.152935e-001 -6.699487e+000 249 132 87
6.002257e-001 -5.930182e-001 -6.734876e+000 229 217 208
-6.179832e-001 -1.541410e-001 -6.707511e+000 94 33 26
3.446442e-001 5.239720e-002 -6.829313e+000 199 190 181
4.629292e-001 2.764177e-002 -6.728770e+000 146 134 120
4.629292e-001 2.764177e-002 -6.728770e+000 146 134 120
4.866800e-001 -1.901252e-002 -6.676078e+000 214 207 199
5.237995e-001 -4.291351e-001 -6.723786e+000 178 156 106
8.683010e-002 1.261517e+000 -7.251486e+000 203 48 54
-2.112877e-001 2.470316e-001 -7.570347e+000 184 174 162
-2.994934e-001 4.727650e-002 -7.410998e+000 220 212 205
-1.462150e-001 6.172881e-001 -7.535486e+000 168 162 150
-1.462150e-001 6.172881e-001 -7.535486e+000 168 162 150
5.054175e-001 -7.934845e-001 -6.913401e+000 251 250 245
-6.676184e-001 -1.584929e-001 -6.761528e+000 65 17 12
6.261854e-001 -3.697411e-001 -6.660255e+000 100 85 64
7.295789e-001 -9.373894e-001 -6.712517e+000 50 36 36
-4.205512e-001 2.321837e-001 -7.698413e+000 38 27 27
-3.346982e-001 -1.095732e-001 -6.793497e+000 66 11 8
3.071514e-001 -1.518455e-001 -6.889933e+000 245 242 234
3.077379e-001 -1.508974e-001 -6.887467e+000 245 242 234
-4.924439e-002 -6.829684e-001 -7.033353e+000 35 30 27
-8.689565e+000 -1.015802e+001 -2.335796e+001 23 19 20
-1.932067e+000 -3.306606e+000 -1.073537e+001 38 32 34
6.647380e-001 -1.519704e-001 -6.566098e+000 228 220 210
-4.266811e+000 -6.564537e+000 -1.529369e+001 30 28 33
-4.348997e+000 -6.604046e+000 -1.519585e+001 165 161 175
-5.933369e+000 -8.241678e+000 -1.701622e+001 9 7 10
-5.750922e-002 2.204492e-001 -7.144167e+000 145 132 123
-5.010346e-001 -9.574582e-002 -6.747234e+000 121 37 16
-4.897258e-001 -1.338645e-001 -6.700049e+000 129 34 14
8.116821e-001 -1.002207e+000 -6.777218e+000 48 30 30
3.683764e-001 1.109621e+000 -7.036554e+000 214 50 57
5.680434e-001 6.023786e-001 -6.826698e+000 204 194 185
-5.962364e+000 -7.181618e+000 -1.811120e+001 84 84 92
-5.687241e+000 -8.837081e+000 -1.690861e+001 12 10 16
8.051068e-002 1.128130e+000 -7.258605e+000 232 192 168
1.793242e-001 6.610108e-001 -7.260790e+000 181 174 164
3.084093e-001 1.103631e+000 -7.062992e+000 203 32 40
-5.945209e-002 5.112647e-001 -7.346651e+000 208 197 191
-5.945209e-002 5.112647e-001 -7.346651e+000 208 197 191
7.132026e-002 5.671966e-001 -7.216518e+000 176 167 154
5.339930e-001 5.963074e-001 -6.877741e+000 187 181 170
-9.232261e-002 2.242726e-001 -7.234532e+000 145 135 125
1.764309e-001 2.618236e-001 -7.021128e+000 122 108 97
-5.026689e-001 -7.656976e-002 -6.755353e+000 144 65 43
-2.683039e-001 -5.700110e-002 -6.861833e+000 90 21 15
-6.063392e+000 -7.687639e+000 -1.791424e+001 79 79 80
-4.757913e+000 -6.203404e+000 -1.523583e+001 101 99 108
-4.637286e+000 -6.948524e+000 -1.531212e+001 156 154 168
-3.909544e+000 -7.353567e+000 -1.503881e+001 84 87 96
-1.575554e+000 -4.341715e+000 -1.048403e+001 50 44 48
-2.029346e-001 8.668696e-001 -7.680999e+000 161 147 139
-8.197761e-002 2.510042e-001 -7.232162e+000 130 118 106
2.419157e-001 2.709881e-001 -7.092059e+000 127 115 102
-5.941648e+000 -7.507244e+000 -1.749348e+001 80 79 84
-2.163866e+000 -3.198632e+000 -1.092069e+001 55 50 54
-5.319221e+000 -8.572110e+000 -1.703905e+001 120 121 139
-1.526005e+000 -4.424651e+000 -1.041698e+001 53 48 52
5.647780e-001 5.671995e-001 -6.864358e+000 153 143 133
-3.047317e-001 -1.887096e-002 -6.861472e+000 70 20 17
8.268104e-001 3.736355e-001 -6.465872e+000 252 81 93
7.784583e-001 7.320539e-001 -6.551645e+000 21 1 4
-6.036713e-001 6.404451e-001 -8.179078e+000 38 24 20
2.378673e-001 2.580758e-002 -6.851274e+000 244 240 231
5.575773e-001 9.318371e-002 -6.777728e+000 189 175 165
-4.618348e+000 -6.623570e+000 -1.541603e+001 142 138 153
-4.037660e+000 -7.638301e+000 -1.505604e+001 11 7 14
-5.561034e+000 -7.356179e+000 -1.707408e+001 10 10 12
5.973200e-001 1.005758e+000 -6.727118e+000 186 44 53
-5.942188e+000 -7.358101e+000 -1.743713e+001 80 77 84
-1.665354e-001 1.230391e-001 -6.995949e+000 108 94 83
-1.544113e-001 5.310437e-002 -6.918468e+000 162 147 140
-1.544113e-001 5.310437e-002 -6.918468e+000 162 147 140
-4.212307e+000 -6.309205e+000 -1.528030e+001 47 45 48
2.732251e-001 2.165542e-001 -6.925985e+000 143 130 114
-5.077500e-001 -1.449143e-001 -6.716211e+000 126 37 16
-5.382740e-001 -2.431384e-001 -6.671905e+000 144 27 9
-5.335324e+000 -8.823709e+000 -1.687963e+001 116 124 147
5.108799e-001 -4.048912e-001 -6.795193e+000 147 133 108
9.711070e-001 -2.772399e-001 -6.398162e+000 141 114 76
-5.855108e+000 -7.219936e+000 -1.791928e+001 66 66 74
-4.569618e+000 -6.095334e+000 -1.541000e+001 136 136 146
-2.122020e+000 -2.630657e+000 -1.080014e+001 40 36 37
6.545298e-001 4.851180e-001 -6.676806e+000 235 232 223
6.658266e-001 5.025791e-001 -6.655371e+000 236 231 227
-4.498706e-001 -1.309776e-001 -6.754722e+000 90 20 11
-5.825566e+000 -8.710285e+000 -1.689611e+001 3 4 8
4.287080e-001 -4.322712e-002 -6.731808e+000 199 192 174
-1.732258e+000 -3.774536e+000 -1.060073e+001 28 22 24
4.412630e-001 -1.144561e+000 -7.321007e+000 42 29 20
-1.387802e+000 -5.352076e+000 -1.018646e+001 22 15 17
-1.227050e-001 1.159836e+000 -7.535317e+000 142 21 30
-2.467108e-002 1.301182e+000 -7.318644e+000 33 14 15
-2.527460e-001 4.909888e-001 -7.732288e+000 192 184 173
4.991353e-001 1.121370e+000 -6.857612e+000 185 40 45
7.657092e-002 3.675898e-001 -7.165137e+000 136 124 112
-5.738614e+000 -7.059146e+000 -1.792612e+001 66 66 78
-2.151329e+000 -2.486215e+000 -1.076613e+001 36 30 30
-4.783392e+000 -6.176225e+000 -1.543720e+001 130 130 139
-4.704339e+000 -6.359210e+000 -1.504734e+001 122 120 130
-4.571358e+000 -6.422626e+000 -1.523841e+001 137 137 149
-4.013750e-001 -2.975190e-002 -6.845467e+000 56 15 9
-8.356054e-001 -2.264465e-001 -6.512699e+000 136 109 66
9.579897e-002 2.843493e-002 -6.903568e+000 170 160 148
-5.823626e+000 -8.402084e+000 -1.689724e+001 105 103 115
-2.308976e-001 -2.547012e-001 -6.900813e+000 233 209 149
-1.925823e+000 -3.305926e+000 -1.072064e+001 40 34 38
-1.881324e+000 -3.423607e+000 -1.068259e+001 44 40 41
-4.804274e-001 -4.067901e-001 -6.684228e+000 164 143 123
-3.356130e-001 -4.285037e-001 -6.760501e+000 234 229 225
-2.998184e-001 -4.434816e-001 -6.800353e+000 251 251 246
5.751028e-001 -7.170228e-001 -6.845084e+000 174 161 141
8.103686e-001 -9.703170e-001 -6.818587e+000 235 82 88
-1.339622e+000 -5.356621e+000 -1.021275e+001 111 101 102
-1.338975e+000 -5.324528e+000 -1.018345e+001 111 101 102
3.160066e-001 1.272736e+000 -6.989059e+000 27 10 13
-3.057867e-001 7.853178e-002 -6.964715e+000 78 42 41
-5.940299e+000 -7.956754e+000 -1.695729e+001 11 9 17
-4.791402e+000 -6.418862e+000 -1.532333e+001 118 116 128
-2.385719e-001 -4.482357e-002 -6.894900e+000 112 43 32
-4.481537e+000 -6.689529e+000 -1.502798e+001 109 109 117
-1.966397e+000 -3.161932e+000 -1.072836e+001 49 44 46
-3.265672e-001 -2.019132e-001 -6.725803e+000 228 115 76
-9.530364e-002 -4.632545e-001 -6.970118e+000 40 33 25
5.202664e-002 -2.611044e-001 -6.888144e+000 199 189 179
1.043926e+000 2.977565e-001 -6.323850e+000 32 10 16
1.106056e+000 1.361593e-001 -6.269408e+000 32 18 19
-1.442542e+000 -4.737724e+000 -1.038251e+001 52 46 48
-1.391165e+000 -4.806353e+000 -1.027692e+001 45 40 44
-1.347911e+000 -4.799957e+000 -1.015264e+001 49 43 43
6.714150e-001 -9.224799e-001 -6.802344e+000 234 96 96
-4.048941e-001 6.991164e-001 -7.893237e+000 194 172 166
-1.972927e-001 3.493674e-001 -7.388338e+000 126 114 102
-1.972927e-001 3.493674e-001 -7.388338e+000 126 114 102
4.328510e-001 5.536152e-001 -6.973852e+000 184 177 167
4.328510e-001 5.536152e-001 -6.973852e+000 184 177 167
-5.543075e-001 -1.935943e-001 -6.707961e+000 180 74 42
3.716824e-001 -2.875013e-001 -6.929227e+000 216 210 197
3.745285e-001 -5.114023e-001 -6.921095e+000 251 251 241
-1.324145e+000 -5.258903e+000 -1.023302e+001 19 9 10
-2.369484e-001 1.642703e-002 -7.764689e+000 89 8 9
-5.788572e-001 -2.655652e-001 -6.711971e+000 212 107 66
1.124537e+000 -3.597580e-002 -6.266613e+000 32 11 18
-1.406543e+000 -5.180039e+000 -1.017157e+001 62 51 49
4.375957e-001 1.149483e+000 -6.914422e+000 211 51 56
-1.919734e-001 4.965810e-001 -7.676921e+000 203 195 184
-2.498379e-001 1.192916e-001 -7.851510e+000 132 17 24
5.830283e-001 -7.771073e-001 -6.802603e+000 45 34 32
9.984715e-002 3.015209e-001 -7.082376e+000 132 117 106
-3.865936e+000 -7.504407e+000 -1.530529e+001 15 13 18
9.249234e-001 2.864704e-001 -6.438311e+000 226 61 70
1.766263e-001 -5.054392e-001 -6.971745e+000 71 45 31
1.748601e-001 -4.986949e-001 -6.965583e+000 71 45 31
8.988966e-001 -3.058856e-001 -6.387520e+000 199 176 122
-2.162787e-001 1.082869e+000 -7.628192e+000 201 50 57
1.970361e-001 6.030340e-001 -7.181105e+000 140 128 116
4.767854e-001 -3.810978e-001 -6.876184e+000 99 84 64
7.073031e-001 -2.525943e-001 -6.596085e+000 255 252 247
-3.372669e-001 -1.600639e-001 -7.069540e+000 120 52 33
1.470590e-001 1.017274e+000 -7.274810e+000 219 212 206
8.457125e-001 1.459167e-001 -6.475988e+000 225 214 208
7.084205e-002 1.134475e+000 -7.287089e+000 219 54 62
2.210397e-001 7.191379e-001 -7.196645e+000 200 193 185
6.582117e-002 6.092076e-001 -7.249559e+000 161 147 136
-1.443586e-001 1.809884e-001 -7.158576e+000 140 127 113
5.278556e-001 5.269003e-001 -6.835828e+000 140 128 115
-1.721221e-001 3.718683e-002 -6.960575e+000 125 111 102
-1.414593e-001 1.822125e-002 -6.900052e+000 135 120 112
-9.261528e-001 -2.842936e-001 -6.640045e+000 141 75 51
-3.329383e-001 -1.054749e-001 -6.833647e+000 93 35 28
-8.379081e-001 -2.341491e-001 -6.499128e+000 77 23 21
-7.714604e-001 -2.522908e-001 -6.535576e+000 114 28 9
-3.228637e-001 -4.123839e-001 -6.781355e+000 183 174 167
-1.366998e-002 -4.034146e-001 -6.908536e+000 196 180 165
5.012704e-001 -3.098392e-001 -6.779135e+000 161 145 128
-1.315828e-001 4.401228e-001 -7.464257e+000 164 153 143
5.038429e-002 6.486242e-001 -7.266168e+000 222 212 203
2.394354e-001 7.026034e-001 -7.174867e+000 190 181 172
-7.604156e-001 -1.841609e-001 -7.103964e+000 141 63 46
2.867516e-001 3.262960e-001 -7.038945e+000 162 150 138
7.630168e-001 5.033345e-001 -6.609079e+000 209 201 191
-1.719226e+000 -3.838191e+000 -1.061741e+001 29 25 26
-7.526625e-001 -3.405583e-001 -6.557882e+000 224 114 84
8.849437e-001 -6.987432e-001 -6.484104e+000 249 96 104
-2.197448e-001 9.672760e-001 -7.731790e+000 171 28 35
-2.841072e-001 -7.626749e-002 -6.862682e+000 84 20 11
-8.643294e-001 -3.376739e-001 -6.582316e+000 255 163 129
-3.110802e-001 -1.513053e-001 -6.745734e+000 116 44 32
-3.110802e-001 -1.513053e-001 -6.745734e+000 116 44 32
-1.613148e-001 -2.871808e-001 -6.890061e+000 240 231 226
-1.557706e-001 -1.987145e-001 -6.837195e+000 227 222 216
-6.692741e-002 -1.783570e-001 -6.826591e+000 253 248 242
1.980487e-001 -9.227274e-002 -6.844934e+000 221 214 206
8.605325e-001 5.974592e-001 -6.476259e+000 203 58 66
-4.130437e-001 -3.998147e-001 -6.678874e+000 198 194 187
-4.966311e-002 -4.994011e-001 -7.012841e+000 36 27 22
3.968081e-001 -6.665344e-001 -6.968041e+000 252 252 240
-1.834761e-002 1.266583e+000 -7.386111e+000 190 39 46
5.606974e-001 5.409482e-001 -6.811429e+000 171 159 145
6.928368e-001 5.775397e-001 -6.603711e+000 248 249 240
-3.840921e-001 -3.913990e-001 -6.694904e+000 222 213 207
7.859972e-001 4.293998e-001 -6.531554e+000 184 169 156
4.989429e-001 5.617115e-002 -6.690828e+000 191 181 168
4.318313e-001 -1.243690e-001 -6.717546e+000 217 210 200
5.814149e-001 -7.370383e-001 -6.786523e+000 56 42 40
5.814149e-001 -7.370383e-001 -6.786523e+000 56 42 40
-4.947030e-001 -2.781916e-002 -7.068149e+000 44 12 13
7.243304e-001 7.965056e-001 -6.621520e+000 88 7 15
-5.305191e-001 -3.581017e-001 -6.688641e+000 247 188 154
-6.907922e-002 -1.326724e-001 -6.813877e+000 239 232 229
-1.098629e-001 -3.207641e-001 -6.893660e+000 66 47 26
4.809481e-001 -1.308981e-001 -6.697882e+000 230 226 217
-4.451834e-001 8.197910e-001 -7.989128e+000 195 39 46
4.352797e-001 2.865345e-001 -7.002725e+000 141 129 119
7.864049e-001 6.916590e-001 -6.530439e+000 237 81 90
-8.251099e-001 -1.898648e-001 -6.509007e+000 74 22 10
-1.897965e-001 -9.914912e-002 -6.832625e+000 207 188 180
7.386718e-001 5.409975e-001 -6.593647e+000 253 253 251
-5.575519e-001 -3.513645e-001 -6.733358e+000 247 184 142
-3.992783e-001 -3.958995e-001 -6.699743e+000 190 178 171
-3.517578e-001 -3.308868e-001 -6.719111e+000 167 144 133
4.098491e-001 -3.957085e-001 -6.807029e+000 254 252 203
1.005875e+000 1.910663e-001 -6.349454e+000 207 45 57
-1.784865e-001 3.884370e-001 -7.529434e+000 133 121 109
3.118452e-001 4.551847e-001 -7.117582e+000 187 177 168
4.320156e-001 2.919702e-001 -6.996104e+000 141 130 119
6.952882e-001 7.297197e-001 -6.562236e+000 243 82 92
8.918014e-001 -5.344734e-001 -6.499496e+000 244 230 198
8.136966e-002 1.305463e+000 -7.333604e+000 14 3 9
-4.735799e-001 5.574101e-001 -8.008874e+000 188 177 168
-3.919516e-001 2.695509e-001 -7.987666e+000 42 31 29
1.496730e-001 5.040857e-001 -7.167699e+000 231 222 216
5.118608e-001 -7.794789e-001 -6.887559e+000 254 255 247
1.062640e+000 1.475863e-001 -6.303721e+000 221 60 68
1.006742e+000 -2.206516e-001 -6.381875e+000 77 11 15
-1.484574e-001 6.675636e-001 -7.447090e+000 169 160 145
-1.518393e-001 6.578431e-001 -7.438411e+000 169 160 145
3.306748e-001 -3.815639e-001 -6.927895e+000 80 62 41
8.282322e-001 3.122092e-001 -6.477294e+000 255 251 246
9.321874e-001 -6.240725e-001 -6.484220e+000 172 35 40
5.567543e-001 5.163530e-001 -6.800257e+000 136 122 111
-4.004663e-002 -4.719205e-002 -6.897863e+000 136 119 111
-3.426012e-001 -3.801943e-001 -6.764940e+000 169 151 137
3.291421e-001 -5.316972e-001 -6.854093e+000 254 255 246
9.532701e-001 -7.178445e-002 -6.426206e+000 233 226 218
-6.754099e-001 -1.692320e-001 -6.788035e+000 63 22 19
6.914056e-001 5.065208e-001 -6.617693e+000 255 255 251
-5.053655e-002 2.566210e-002 -7.385125e+000 118 104 93
-4.144566e-001 1.582088e-001 -7.887662e+000 39 30 28
1.938013e-001 -2.647571e-001 -6.941412e+000 243 234 225
-7.089352e+000 -6.225865e+000 -2.230618e+001 135 124 120
-4.479019e+000 -6.684311e+000 -1.503360e+001 111 109 122
-4.730530e+000 -6.557869e+000 -1.508269e+001 165 163 172
-4.400279e-001 -4.520853e-002 -6.823983e+000 117 51 38
-1.349446e-001 1.121469e-002 -6.881502e+000 131 116 109
-1.950658e+000 -3.233071e+000 -1.072875e+001 41 35 39
6.257528e-001 2.167006e-001 -6.770721e+000 184 176 165
1.018351e+000 1.335237e-001 -6.355202e+000 227 69 77
1.017823e+000 1.304671e-001 -6.356909e+000 227 69 77
-5.116993e+000 -1.231562e+001 -1.777362e+001 43 59 116
5.628146e-001 5.698876e-001 -6.852205e+000 157 147 136
3.353657e-001 1.792885e-001 -7.025849e+000 131 115 100
1.073556e+000 1.810982e-001 -6.275202e+000 207 52 57
2.186712e-001 9.751643e-001 -7.213966e+000 203 196 188
2.178549e-001 9.757273e-001 -7.211587e+000 203 196 188
-2.325797e-001 1.272029e-001 -7.101534e+000 129 115 104
-1.929489e-001 6.809045e-002 -6.925682e+000 126 112 103
-1.892239e-001 6.143978e-002 -6.936207e+000 126 112 103
1.573243e-001 1.534538e-001 -6.912128e+000 197 187 175
1.795512e-003 6.248938e-001 -7.320421e+000 210 201 191
2.892859e-001 1.111144e+000 -7.130683e+000 209 42 51
-2.833073e-001 1.311307e-002 -6.935286e+000 108 90 76
-2.830933e-001 1.443352e-002 -6.934271e+000 108 90 76
8.562989e-001 5.981460e-001 -6.472561e+000 203 58 65
-2.213497e-001 8.253292e-001 -7.723886e+000 209 200 191
-1.856076e-001 9.252334e-001 -7.615473e+000 187 175 163
-1.662334e-001 4.837890e-001 -7.453286e+000 157 147 137
-2.681282e-001 -2.036469e-001 -7.683322e+000 202 195 182
-2.291707e-001 1.570529e-001 -7.226806e+000 120 106 95
7.565509e-001 7.964592e-001 -6.578152e+000 122 32 36
-6.895606e-001 -2.888968e-001 -6.548830e+000 49 19 16
8.128184e-001 5.375398e-002 -6.792718e+000 239 233 221
5.531258e-001 -6.032873e-001 -6.831675e+000 246 233 178
-6.079832e-001 5.739881e-001 -8.182622e+000 185 42 46
2.830131e-002 1.297370e+000 -7.359873e+000 81 18 27
-1.450598e-001 6.414184e-001 -7.435354e+000 168 159 145
-2.099450e+000 -2.791817e+000 -1.085387e+001 45 39 41
-2.061455e-001 4.433091e-001 -7.607287e+000 173 165 152
-2.975664e-001 -8.905887e-003 -7.851381e+000 107 58 49
-2.012466e-001 3.325824e-001 -7.489081e+000 156 146 134
2.425559e-001 6.677169e-001 -7.273571e+000 219 215 206
5.174734e-001 1.100862e+000 -6.824552e+000 200 52 61
-3.033551e-001 -1.978386e-001 -7.712408e+000 176 169 155
-2.384516e-001 1.552275e-001 -7.251014e+000 152 138 127
-1.757186e+000 -3.678154e+000 -1.049011e+001 62 56 58
-1.752697e+000 -3.817688e+000 -1.059960e+001 64 58 60
-2.508152e-001 1.209984e-001 -7.010498e+000 101 84 76
-6.109329e-001 -7.692521e-002 -6.753200e+000 104 43 33
-9.407149e-001 -2.936895e-001 -6.636817e+000 48 16 11
-1.613062e-001 4.430297e-002 -6.898482e+000 139 127 116
3.530131e-001 1.806274e-001 -7.046594e+000 150 137 120
5.382622e-001 5.362546e-001 -6.790990e+000 126 114 99
-6.463525e-002 -1.822757e-001 -6.831365e+000 252 247 243
-1.549157e+000 -4.529689e+000 -1.017980e+001 45 41 38
3.973089e-001 8.793247e-002 -6.826475e+000 180 168 154
-1.472443e+000 -4.855320e+000 -1.021873e+001 62 54 52
8.125731e-001 5.203634e-001 -6.556641e+000 166 31 38
1.047258e+000 -4.946787e-001 -6.309718e+000 227 95 99
-2.760835e-001 5.025211e-001 -7.735059e+000 224 217 207
1.190513e-001 9.914238e-001 -7.267308e+000 212 205 197
1.193469e-001 9.870208e-001 -7.269260e+000 212 205 197
-2.108579e+000 -3.025397e+000 -1.064643e+001 60 54 54
-2.475656e-001 2.238023e-001 -7.692705e+000 207 189 185
-1.739649e+000 -3.620175e+000 -1.051997e+001 25 19 21
-3.929920e-002 2.433355e-001 -7.142512e+000 121 112 98
-1.694705e+000 -3.703214e+000 -1.055450e+001 53 49 50
-1.690018e+000 -3.642233e+000 -1.048293e+001 53 49 50
-1.954379e-001 9.817408e-002 -7.046366e+000 154 138 127
4.929507e-001 5.088082e-001 -6.922199e+000 160 150 138
7.315011e-001 8.275607e-001 -6.612145e+000 159 45 49
-3.992029e-001 -1.690457e-001 -6.707012e+000 122 30 17
1.753745e-001 2.561120e-002 -6.867632e+000 194 184 175
8.153502e-001 5.559794e-001 -6.529195e+000 217 71 78
-1.247519e+000 -5.287740e+000 -1.020830e+001 73 68 71
1.045945e+000 -4.502777e-001 -6.295713e+000 153 33 37
-3.043100e-001 1.765951e-001 -7.905732e+000 215 73 82
-1.985806e-001 2.468324e-001 -7.402424e+000 174 161 145
-5.559063e-002 4.307974e-001 -7.287257e+000 148 136 124
-2.417977e-001 -1.400729e-001 -7.690461e+000 174 166 153
-4.639442e-001 2.931442e-003 -7.076817e+000 92 38 33
3.966847e-002 -5.243914e-002 -6.896592e+000 164 154 144
3.966847e-002 -5.243914e-002 -6.896592e+000 164 154 144
4.995727e-001 2.015446e-002 -6.698392e+000 198 188 179
5.316781e-001 1.935982e-002 -6.702538e+000 173 161 149
3.357804e-001 -4.523483e-001 -6.910688e+000 119 102 62
-1.686404e-001 4.392328e-001 -7.551423e+000 148 138 126
-3.195919e-001 2.506872e-002 -6.948260e+000 68 23 18
-7.828127e-001 -2.182069e-001 -6.530321e+000 163 82 52
1.986386e-001 5.721621e-002 -6.870658e+000 171 159 147
5.704081e-001 2.707705e-003 -6.685195e+000 197 187 177
4.355036e-001 -1.097636e+000 -7.297583e+000 245 230 171
4.290828e-001 -5.223397e-001 -6.910314e+000 78 60 27
8.121362e-001 1.981729e-001 -6.501371e+000 254 254 246
-1.693373e-001 2.688769e-001 -7.339268e+000 131 117 101
5.536650e-001 1.572449e-001 -6.892925e+000 158 150 139
4.871754e-001 -4.549229e-001 -6.824414e+000 114 96 56
9.319967e-001 2.541019e-001 -6.447716e+000 232 71 79
3.460139e-001 1.035488e+000 -7.005713e+000 240 236 232
5.510217e-001 9.106376e-001 -6.815860e+000 217 57 64
1.001347e+000 -7.751745e-001 -6.479796e+000 244 88 99
-8.177897e-002 1.257681e+000 -7.472870e+000 24 17 18
1.679611e-001 2.606729e-001 -7.070798e+000 136 124 110
5.688134e-001 -5.413227e-001 -6.800899e+000 232 215 159
5.556376e-001 -5.197983e-001 -6.777082e+000 232 215 159
-1.454534e-001 1.059634e+000 -7.502720e+000 144 26 31
-5.914150e-002 7.394100e-001 -7.329178e+000 222 218 209
-5.914150e-002 7.394100e-001 -7.329178e+000 222 218 209
2.602244e-001 8.345709e-001 -7.097747e+000 155 146 131
6.147507e-001 -1.703347e-001 -6.643183e+000 251 248 243
9.234593e-001 -4.129210e-001 -6.420432e+000 216 197 138
8.347510e-003 1.288516e+000 -7.385614e+000 81 15 23
-1.896487e-001 9.724553e-001 -7.460982e+000 178 159 153
-1.496109e-001 8.439982e-001 -7.427004e+000 198 191 181
-2.112830e-001 3.711543e-001 -7.595077e+000 212 201 189
-1.541144e-001 4.823570e-001 -7.529743e+000 165 153 138
-2.458299e-001 -1.345263e-002 -7.761845e+000 159 85 79
-7.892313e-001 -2.945022e-001 -7.062272e+000 38 28 28
-1.858455e-001 1.024561e-001 -7.112309e+000 107 90 80
-5.267318e-001 -2.206611e-001 -6.701942e+000 236 131 101
-5.357179e-001 -2.484996e-001 -6.662910e+000 126 21 1
-4.524239e-001 -1.253557e-001 -6.695257e+000 120 29 12
1.934843e-002 -2.318570e-002 -6.909516e+000 190 177 168
7.125025e-002 -8.069971e-002 -6.942222e+000 170 157 147
-5.097318e-001 -3.881153e-001 -6.690154e+000 95 90 90
-4.772051e-001 -3.900108e-001 -6.673151e+000 212 200 178
-3.267474e-001 -3.778172e-001 -6.759882e+000 175 150 146
-1.298841e-001 -2.969809e-001 -6.857058e+000 163 146 127
9.115402e-002 -5.372615e-001 -7.056359e+000 155 138 120
3.573531e-001 -7.556160e-002 -6.806471e+000 254 250 241
5.513991e-001 8.047121e-002 -6.762915e+000 192 180 166
2.634500e-001 -4.223515e-001 -6.770766e+000 225 219 207
2.634500e-001 -4.223515e-001 -6.770766e+000 225 219 207
4.927247e-001 -1.137428e-001 -6.714679e+000 222 217 211
-1.164907e-001 7.776416e-001 -7.555348e+000 217 210 200
-1.188888e-001 6.899705e-001 -7.421386e+000 164 153 141
-1.205271e-001 4.404321e-001 -7.440811e+000 168 156 147
-2.304003e-001 -1.463749e-002 -7.728641e+000 155 125 114
-1.915317e-001 3.331233e-001 -7.463299e+000 163 151 141
-3.304328e-001 1.124642e-001 -6.961242e+000 121 63 51
-3.043707e-001 7.533758e-002 -6.985996e+000 83 42 40
-3.152025e-001 2.733758e-002 -6.929813e+000 67 27 25
3.876727e-003 2.703633e-001 -6.991892e+000 161 149 136
-1.371006e-001 4.784336e-002 -6.937654e+000 133 120 110
-9.734244e-002 6.064261e-002 -6.930845e+000 137 124 114
-9.893746e-001 -2.350758e-001 -6.519455e+000 146 128 79
-9.893746e-001 -2.350758e-001 -6.519455e+000 146 128 79
-3.010497e-001 -1.572472e-001 -6.775411e+000 114 54 44
-1.853496e-001 -2.844658e-001 -6.897342e+000 87 68 37
6.371798e-003 -2.240692e-002 -6.918621e+000 140 123 116
-7.512055e-001 -3.363168e-001 -6.559073e+000 213 115 70
3.888713e-001 1.061297e-001 -6.843990e+000 166 150 136
-3.025131e-001 -4.135953e-001 -6.771417e+000 252 250 246
-3.312009e-001 -4.118904e-001 -6.742945e+000 229 220 215
3.647240e-001 -2.384442e-001 -6.925927e+000 254 255 247
4.064577e-001 -9.947102e-002 -6.795980e+000 235 231 222
5.266720e-001 7.441459e-002 -6.729718e+000 185 176 161
4.947074e-001 -4.813117e-001 -6.980614e+000 155 139 123
3.926923e-001 -5.597273e-001 -6.935936e+000 229 225 211
3.643370e-001 -5.119308e-001 -6.890918e+000 229 225 211
5.362840e-001 -4.679645e-001 -6.866962e+000 179 172 146
4.795822e-001 -2.588549e-001 -6.803311e+000 177 171 159
9.882510e-001 4.095630e-001 -6.393945e+000 214 70 78
1.030257e+000 3.892378e-001 -6.374456e+000 75 69 66
9.998987e-001 3.604570e-001 -6.342660e+000 239 89 101
7.853989e-001 -1.824033e-001 -6.151940e+000 205 186 130
1.113493e+000 5.251664e-002 -6.249877e+000 226 85 101
1.125197e+000 1.244331e-001 -6.208148e+000 80 71 72
1.125197e+000 1.244331e-001 -6.208148e+000 80 71 72
1.010225e+000 -4.232121e-001 -6.325873e+000 169 147 98
-3.145663e-002 1.095097e+000 -7.375741e+000 210 201 197
-2.075213e-001 5.985554e-001 -7.647768e+000 168 157 144
2.951073e-001 1.199430e+000 -7.094910e+000 222 62 70
2.951073e-001 1.199430e+000 -7.094910e+000 222 62 70
-9.461323e-001 -2.681823e-001 -6.648826e+000 33 9 12
-2.406003e-001 4.342555e-002 -6.909573e+000 131 119 108
2.528454e-001 3.030435e-001 -6.968606e+000 149 135 124
2.528454e-001 3.030435e-001 -6.968606e+000 149 135 124
-9.553241e-001 -1.829516e-001 -6.454875e+000 117 93 57
-9.269581e-001 -2.195028e-001 -6.507447e+000 55 27 11
5.714899e-001 6.036625e-001 -6.825646e+000 209 204 190
-8.388823e-001 -1.973432e-001 -6.483302e+000 187 159 114
-3.248848e-001 -1.943867e-001 -6.729501e+000 238 123 103
-3.248848e-001 -1.943867e-001 -6.729501e+000 238 123 103
-1.597163e-001 -2.902637e-001 -6.893141e+000 243 236 228
-1.515892e-001 -2.055782e-001 -6.847363e+000 226 221 216
-9.908444e-002 -4.303304e-001 -6.953437e+000 248 241 231
-1.105338e-001 -2.993903e-001 -6.876523e+000 71 53 29
7.473391e-001 6.989079e-001 -6.444186e+000 195 43 55
9.017810e-001 4.995916e-001 -6.627401e+000 181 35 45
8.964674e-001 5.019899e-001 -6.410195e+000 17 7 18
5.634834e-001 -6.936116e-001 -6.808632e+000 177 159 139
6.463221e-001 -3.463261e-001 -6.683567e+000 158 147 129
9.424582e-001 2.020014e-001 -6.428843e+000 232 68 73
9.831699e-001 -5.520830e-001 -6.329195e+000 180 33 44
1.283261e+000 5.754163e-001 -5.993680e+000 71 62 63
-1.307740e-001 1.184031e+000 -7.538594e+000 208 70 75
-2.242165e-001 3.639042e-001 -7.590122e+000 198 190 178
-1.785287e-001 4.485630e-001 -7.472374e+000 177 165 153
-2.360024e-001 -1.248191e-001 -7.530870e+000 194 188 174
-2.186123e-001 -4.898380e-002 -6.859887e+000 145 111 102
2.153334e-001 -1.830535e-001 -6.875396e+000 224 218 206
4.005468e-001 -3.407652e-001 -6.892542e+000 98 81 61
5.263952e-001 -3.091263e-001 -6.796063e+000 253 248 240
5.263952e-001 -3.091263e-001 -6.796063e+000 253 248 240
5.980985e-001 -4.781014e-001 -6.847801e+000 202 196 174
1.056567e+000 -1.849103e-003 -6.247992e+000 181 47 54
1.131178e+000 1.290824e-002 -6.257296e+000 224 90 94
-2.188376e-001 2.718646e-001 -7.696637e+000 154 140 129
-1.862139e-001 4.003951e-001 -7.620386e+000 218 211 197
-1.219690e-001 6.829155e-001 -7.386901e+000 133 119 110
3.203196e-001 1.242741e+000 -7.023893e+000 226 64 74
-2.335505e-001 -1.547879e-001 -7.713295e+000 176 166 154
-6.138144e-001 -2.556860e-001 -6.711196e+000 138 43 34
-8.841296e-001 -1.936724e-001 -6.452715e+000 154 114 87
-8.841296e-001 -1.936724e-001 -6.452715e+000 154 114 87
-5.823866e-001 -3.336641e-001 -6.682103e+000 45 35 34
-9.650759e-002 -2.914732e-001 -6.904051e+000 250 250 243
8.629960e-001 4.972324e-001 -6.396145e+000 243 81 94
1.006207e+000 1.713560e-001 -6.363894e+000 203 52 57
9.763286e-001 -4.235109e-001 -6.390484e+000 204 181 131
-2.504893e-002 1.267532e+000 -7.363880e+000 190 42 46
-1.640955e-001 3.224092e-001 -7.634623e+000 145 133 121
-1.640955e-001 3.224092e-001 -7.634623e+000 145 133 121
-1.920225e-001 3.048453e-001 -7.459523e+000 127 115 103
3.417332e-001 5.486071e-001 -7.361689e+000 205 197 186
-3.663609e-001 -3.440325e-002 -6.866899e+000 53 11 13
-2.257271e-001 -1.604830e-001 -6.824606e+000 209 194 183
-2.257271e-001 -1.604830e-001 -6.824606e+000 209 194 183
-2.728939e-001 -2.192657e-001 -6.755811e+000 102 25 19
4.741228e-001 -4.321944e-001 -6.804674e+000 132 110 69
5.849092e-001 -6.736977e-001 -6.774375e+000 229 217 203
7.612885e-001 -7.775602e-001 -6.674227e+000 255 254 249
9.967485e-001 -2.353244e-001 -6.324312e+000 196 171 115
-5.417069e-001 5.013135e-001 -8.053500e+000 43 31 31
-3.170820e-002 1.274046e+000 -7.347208e+000 192 43 49
-1.726843e-001 9.782717e-001 -7.439312e+000 139 121 111
-1.677844e-001 9.664216e-001 -7.454901e+000 139 121 111
-2.064189e-001 5.121901e-001 -7.630306e+000 213 205 194
-1.425907e-001 5.853773e-001 -7.428013e+000 139 125 114
-1.613235e-001 9.077592e-002 -6.974054e+000 126 109 99
6.165849e-001 9.483061e-001 -6.689828e+000 215 63 71
-4.237927e-001 -1.594584e-001 -6.656132e+000 134 30 21
-7.439992e-002 -2.441914e-001 -6.807831e+000 62 39 29
9.806632e-001 2.115266e-001 -6.185197e+000 221 67 75
1.069536e+000 1.266745e-001 -6.264660e+000 221 67 75
-2.656250e-001 1.681439e-001 -7.534112e+000 76 4 11
-2.180350e-001 2.501159e-001 -7.435858e+000 181 169 157
-1.793492e-001 1.808757e-001 -7.277569e+000 120 106 97
-8.835338e-001 -1.512802e-001 -6.476379e+000 34 11 6
-8.835338e-001 -1.512802e-001 -6.476379e+000 34 11 6
7.850560e-001 8.005434e-002 -6.621360e+000 224 217 209
5.453596e-001 -7.319511e-001 -6.740572e+000 116 106 111
5.484026e-001 -7.394890e-001 -6.745293e+000 116 106 111
6.547330e-001 -4.629960e-001 -6.631126e+000 254 254 203
8.233472e-001 -3.044650e-001 -6.504571e+000 84 67 47
1.074130e+000 -8.456686e-002 -6.282547e+000 249 94 102
-4.810986e-001 5.491932e-001 -7.996522e+000 189 179 167
-7.087449e-002 1.192213e+000 -7.457456e+000 175 38 46
-2.163191e-002 -1.864758e-001 -6.838534e+000 231 223 220
4.619616e-001 -5.365145e-001 -6.815314e+000 145 125 91
1.080643e+000 1.264663e-001 -6.317581e+000 228 73 81
9.122201e-001 -6.075341e-001 -6.466656e+000 166 35 40
-2.178186e-001 9.117275e-001 -7.601190e+000 167 153 140
-1.397723e-001 8.500886e-001 -7.463646e+000 218 214 205
-5.377249e-001 -1.047348e-001 -6.756633e+000 125 32 14
3.460037e-001 -5.777285e-001 -6.907885e+000 228 224 210
7.684579e-001 -1.658365e-001 -6.512607e+000 238 233 227
-1.272868e-001 -2.345560e-001 -6.898688e+000 241 238 233
8.159515e-001 4.772166e-001 -6.496249e+000 148 26 33
-3.482147e-001 -6.665928e-001 -7.048998e+000 161 25 25
3.641766e-001 2.069225e-001 -7.018434e+000 122 109 93
9.853180e-001 8.356805e-002 -6.189302e+000 193 56 64
-3.300016e-001 -1.551773e-001 -7.075413e+000 56 14 15
-1.441714e-001 1.037414e+000 -6.561890e+000 209 200 194
-2.019296e-001 1.772986e-001 -7.164711e+000 137 127 117
-4.537670e+000 -7.642582e+000 -1.572422e+001 129 128 134
-4.851477e-001 -3.719376e-001 -6.580399e+000 99 81 63
-8.763760e+000 -9.470935e+000 -2.246665e+001 110 99 97
1.463306e-003 1.280340e+000 -7.370930e+000 78 8 14
-1.645621e-001 5.369417e-001 -7.584614e+000 155 145 133
-2.617341e-001 -3.838258e-004 -7.825002e+000 87 7 6
-2.470881e-001 -2.873374e-002 -7.865586e+000 87 7 6
-2.759336e-001 -2.217460e-001 -7.777945e+000 211 203 192
-1.680885e-001 4.708489e-002 -6.970952e+000 152 136 128
-3.177931e-001 -7.850238e-002 -6.853237e+000 85 19 7
-5.437797e-001 -2.356843e-001 -6.683729e+000 147 20 3
7.678734e-001 7.677352e-001 -6.554724e+000 221 83 87
3.991057e-001 -6.274570e-001 -6.957450e+000 227 223 210
3.927955e-001 -6.174230e-001 -6.947725e+000 227 223 210
9.111023e-001 2.792732e-001 -6.457486e+000 250 87 97
-3.100503e-001 5.801984e-002 -6.967547e+000 92 43 39
-1.224126e+000 -5.271620e+000 -1.013572e+001 14 10 13
8.617267e-001 5.719263e-001 -6.507633e+000 214 65 75
1.149141e+000 2.775942e-001 -6.214568e+000 92 85 85
8.482945e-001 -6.478129e-001 -6.450524e+000 250 105 111
-3.710491e-001 7.621278e-001 -7.821540e+000 205 189 180
-2.513925e-001 1.020805e+000 -7.716234e+000 175 28 34
-1.689836e+000 -3.665301e+000 -1.051237e+001 49 45 46
-1.705737e+000 -3.968816e+000 -1.059173e+001 59 53 57
-7.901899e-005 -1.507798e-002 -6.946698e+000 137 120 112
8.805603e-002 6.112843e-002 -6.933154e+000 200 190 178
2.942793e-001 1.273132e+000 -7.105590e+000 16 2 8
-2.421076e-001 2.188138e-001 -7.700888e+000 206 194 178
-9.694229e-002 3.048191e-001 -6.984183e+000 118 104 93
-3.102823e-001 -4.507165e-002 -6.879208e+000 73 18 22
9.817352e-001 4.803752e-001 -6.401179e+000 67 57 58
-6.065377e-002 1.106357e+000 -7.385693e+000 187 46 45
-1.405339e+000 -5.159698e+000 -1.015813e+001 89 76 67
6.620301e-001 7.571694e-001 -6.721557e+000 207 53 61
5.359184e-001 -3.868807e-001 -6.831408e+000 134 121 104
-3.571920e-001 2.464272e-001 -8.036926e+000 30 36 25
-1.930348e-001 3.014137e-001 -7.459562e+000 127 115 103
-1.241812e+000 -1.153444e+001 -1.047516e+001 57 59 72
-6.318256e-002 1.096737e+000 -7.431595e+000 200 50 59
6.146063e-001 8.243304e-001 -6.771079e+000 220 61 68
6.741976e-001 -7.999660e-001 -6.749447e+000 252 246 237
7.671318e-001 -9.021659e-001 -6.722624e+000 201 64 68
8.603767e-001 -7.795020e-001 -6.593933e+000 253 247 241
1.131314e+000 -1.500175e-001 -6.242346e+000 16 10 14
-2.667775e-001 -1.061728e-001 -7.770496e+000 213 207 195
6.812086e-001 5.139453e-001 -6.607647e+000 254 254 249
-2.819338e-001 -2.314140e-002 -7.829535e+000 171 110 93
-2.103524e-001 -6.738685e-002 -7.689742e+000 197 185 167
6.239829e-002 6.167295e-001 -7.283244e+000 193 185 174
7.062006e-002 6.228284e-001 -7.261465e+000 197 187 175
1.185430e-001 7.597799e-001 -7.140900e+000 181 174 164
-7.518416e-001 -1.729245e-001 -7.085514e+000 122 35 18
-1.445361e+000 -4.807834e+000 -1.032461e+001 29 23 26
-7.205230e-001 -1.980468e-001 -7.077009e+000 99 21 14
-1.598622e-001 1.451513e-001 -7.191582e+000 114 98 85
-8.408037e-002 5.654720e-002 -6.983970e+000 170 157 143
-5.269023e-001 -1.284705e-001 -6.703244e+000 126 31 9
-1.365946e-001 1.457593e-002 -6.879309e+000 135 118 108
2.505435e-001 1.747978e-001 -7.008378e+000 155 141 128
4.084872e-001 -6.284805e-001 -6.934362e+000 252 249 235
4.084872e-001 -6.284805e-001 -6.934362e+000 252 249 235
1.118032e+000 1.223548e-001 -6.279108e+000 32 16 19
9.839211e-001 -6.186831e-001 -6.382989e+000 163 17 27
-1.896356e+000 -3.419668e+000 -1.073772e+001 47 42 46
-1.809330e+000 -3.650338e+000 -1.064675e+001 51 46 50
-1.706385e+000 -3.932323e+000 -1.055487e+001 63 59 60
1.435730e-001 9.607694e-001 -7.285487e+000 208 201 191
5.565277e-002 6.430016e-001 -7.278749e+000 235 226 217
-2.736484e-001 1.135342e-001 -7.101982e+000 128 111 101
-1.374827e+000 -4.909545e+000 -1.028773e+001 69 61 65
-1.226613e+000 -5.232331e+000 -1.019981e+001 43 33 36
-5.791359e-002 5.573667e-002 -6.969978e+000 126 112 99
2.099870e-002 -2.387481e-001 -6.883964e+000 248 244 234
4.687015e-001 1.630669e-001 -6.928377e+000 135 122 105
3.824836e-001 7.857652e-002 -6.811026e+000 191 177 164
3.469096e-001 -3.586804e-002 -6.791263e+000 248 241 231
3.469096e-001 -3.586804e-002 -6.791263e+000 248 241 231
5.904799e-001 -6.949733e-001 -6.821333e+000 231 218 201
1.017110e+000 3.657657e-001 -6.354492e+000 26 10 15
3.920834e-001 -3.768571e+000 -7.796439e+000 179 181 193
1.078639e+000 3.487583e-002 -6.215088e+000 99 87 84
-8.546404e-003 1.299478e+000 -7.309067e+000 70 10 20
-1.528762e-001 6.214018e-001 -7.475015e+000 167 157 146
-1.168212e-001 6.886305e-001 -7.423564e+000 169 157 145
-1.665580e+000 -4.038934e+000 -1.049521e+001 55 49 52
-1.665950e+000 -3.998907e+000 -1.061804e+001 31 25 27
-2.180408e-001 1.788387e-001 -7.331258e+000 155 141 128
-6.028677e-001 -5.350828e-002 -6.902623e+000 101 41 29
-1.292306e+000 -5.269758e+000 -1.035384e+001 78 69 74
-1.341360e+000 -5.301801e+000 -1.016659e+001 124 114 116
-6.130364e-001 -1.109039e-001 -6.697680e+000 114 38 26
5.064727e-001 1.285863e-001 -6.829173e+000 146 133 117
7.139916e-001 8.084160e-001 -6.555529e+000 73 4 9
6.953510e-001 7.560487e-001 -6.550632e+000 250 96 104
6.677786e-001 -1.894454e+000 -7.155900e+000 167 173 175
2.840335e-001 1.114949e+000 -7.115624e+000 211 55 54
4.262365e-001 1.015224e+000 -6.936863e+000 237 75 85
-5.720879e-001 -1.232634e-001 -6.712979e+000 132 42 21
-4.796017e-001 -2.620691e-001 -6.673223e+000 163 22 24
7.002322e-001 7.945049e-002 -6.842041e+000 186 174 162
9.268202e-001 2.114377e-001 -6.448408e+000 253 224 210
9.247439e-001 4.706242e-001 -6.367996e+000 249 97 103
9.623802e-001 -3.682244e-002 -6.343252e+000 236 87 87
9.858278e-001 -4.254579e-001 -6.309264e+000 248 231 179
-4.109548e-001 7.026920e-001 -7.885660e+000 193 183 173
-1.239148e-001 6.944064e-001 -7.582598e+000 200 191 176
2.347324e-001 8.476969e-001 -7.195173e+000 199 191 182
2.346944e-001 8.476301e-001 -7.195113e+000 199 191 182
-3.765460e-001 -1.851341e-001 -6.704880e+000 128 37 22
9.817035e-001 2.390604e-001 -6.433081e+000 241 84 93
3.972858e-003 1.283074e+000 -7.431162e+000 18 8 10
-9.547205e-002 7.259624e-001 -7.540555e+000 171 161 149
-9.547205e-002 7.259624e-001 -7.540555e+000 171 161 149
1.009351e+000 1.270839e-001 -6.346849e+000 228 73 81
2.255135e-002 1.144814e+000 -7.330744e+000 214 48 58
3.750593e-001 1.192777e+000 -6.982558e+000 213 51 62
3.806498e-001 9.472900e-001 -6.997924e+000 218 208 199
3.758039e-001 9.517264e-001 -6.991146e+000 218 208 199
5.571253e-001 9.029361e-001 -6.823972e+000 220 58 66
3.303396e-001 1.710407e-001 -6.861787e+000 152 139 122
6.850012e-001 8.759791e-001 -6.663532e+000 205 60 66
4.296926e-001 -2.884234e-001 -6.885331e+000 254 254 246
-9.890200e-001 -1.127588e+001 -1.020089e+001 45 43 56
1.207046e+000 -2.011128e-001 -6.149379e+000 255 245 192
-2.301218e-001 3.143048e-001 -7.535265e+000 197 184 173
-2.698734e-001 -2.506749e-001 -7.862356e+000 207 197 185
3.324589e-001 9.204398e-002 -6.816284e+000 212 203 190
-2.039166e-001 1.065573e+000 -7.682831e+000 214 63 69
9.066509e-001 4.464092e-001 -6.398243e+000 247 81 93
-3.978324e-001 2.742321e-001 -7.948127e+000 40 28 28
1.160478e+000 -2.673526e-001 -6.180321e+000 254 251 196
-3.342714e-001 5.663802e-001 -7.813054e+000 225 218 207
1.866987e-001 6.722305e-001 -7.156090e+000 197 189 180
-1.018759e+000 -3.702146e-002 -6.395352e+000 44 19 4
-2.510367e-002 1.254274e+000 -7.435700e+000 130 23 33
-9.210852e-001 2.170744e-003 -6.309340e+000 210 134 120
-5.129276e-002 1.096476e+000 -7.664886e+000 150 26 34
-9.106681e-001 3.718757e-002 -6.340178e+000 60 25 15
-1.758850e-002 1.115026e+000 -7.404172e+000 204 45 60
3.812610e-001 1.199798e+000 -7.101303e+000 220 69 78
2.068749e-001 1.237742e+000 -6.042675e+000 63 51 51
-9.431488e-002 5.091688e-001 -7.361178e+000 190 180 168
1.908905e-001 6.876048e-001 -7.238641e+000 190 181 172
-2.319167e-001 1.645010e-001 -7.267270e+000 114 97 88
-2.308639e-001 1.658685e-001 -7.219261e+000 122 106 93
-1.541677e-001 2.083798e-001 -7.099052e+000 111 95 82
4.707591e-003 1.750427e-001 -7.091711e+000 131 114 101
-5.038118e-001 -6.566000e-002 -6.749129e+000 151 67 46
-5.038118e-001 -6.566000e-002 -6.749129e+000 151 67 46
-9.363836e-002 9.463693e-002 -6.962579e+000 132 117 104
1.610322e-001 2.059851e-001 -6.973590e+000 167 151 135
5.647176e-001 6.342775e-001 -6.818446e+000 205 197 184
-7.092410e-003 1.277689e+000 -7.336989e+000 179 35 45
-1.415551e+000 -4.786544e+000 -1.030832e+001 67 58 61
2.320864e-001 9.657695e-001 -7.202023e+000 207 200 192
2.320864e-001 9.657695e-001 -7.202023e+000 207 200 192
-7.097270e-001 -1.100614e-001 -6.995295e+000 75 16 8
7.915375e-001 4.890402e-001 -6.559477e+000 198 52 59
3.136774e-001 1.100896e+000 -7.079896e+000 209 48 56
-1.183615e-001 2.281228e-001 -7.191747e+000 120 107 91
2.495764e-001 2.640583e-001 -7.016237e+000 123 107 92
1.015903e+000 1.382809e-001 -6.351567e+000 235 81 89
-4.610982e-001 -2.425979e-001 -6.693820e+000 239 136 95
-3.011094e-002 1.045565e+000 -7.375913e+000 214 205 198
-1.253795e+000 -5.159512e+000 -1.022034e+001 48 39 42
3.572197e-001 1.223553e+000 -7.003994e+000 175 38 44
-5.187590e-001 -3.592948e-002 -6.772584e+000 139 64 45
-1.696779e-001 1.300364e-001 -6.994872e+000 119 103 90
-5.749644e-001 -1.103185e-001 -6.699296e+000 114 28 13
-4.957535e-001 -3.138547e-002 -6.775170e+000 107 31 15
-3.463765e-001 -3.420231e-002 -6.888202e+000 48 13 12
-1.905657e-001 8.498192e-002 -6.935237e+000 150 133 125
-4.236113e-001 -1.187029e-001 -6.694431e+000 114 27 12
8.270383e-002 9.632493e-002 -6.953730e+000 211 199 187
-5.251811e-001 -3.582737e-001 -6.661642e+000 87 89 104
2.921650e-001 2.387775e-001 -6.930901e+000 133 117 101
5.815261e-001 1.033475e+000 -6.786178e+000 213 61 71
2.378037e-001 -3.197188e+000 -7.954142e+000 151 154 166
3.131939e-001 -3.476121e+000 -7.927977e+000 221 230 238
4.385664e-001 -2.692459e+000 -7.651153e+000 189 199 198
9.891197e-001 1.073406e-001 -6.360991e+000 206 68 72
1.027145e+000 -2.923388e+000 -6.894814e+000 141 142 136
-3.860158e-001 9.697659e-001 -7.781080e+000 168 36 45
-2.561705e-001 8.693916e-001 -7.734799e+000 219 62 70
-1.450098e+000 -4.652738e+000 -1.031224e+001 70 65 69
-1.909080e-001 4.762611e-003 -7.691184e+000 146 93 82
-2.046130e-001 -4.823224e-002 -7.656331e+000 212 204 191
-1.326368e-001 4.506528e-001 -7.399851e+000 183 171 159
-5.944177e-001 -8.059394e-002 -6.724310e+000 102 20 8
-5.113003e-001 -5.223605e-002 -6.762517e+000 112 30 15
-7.767373e-002 5.967746e-002 -6.937997e+000 172 164 151
-8.951816e-001 -1.266696e-002 -6.318490e+000 197 128 114
-4.562615e-002 4.757970e-002 -6.919306e+000 137 125 113
2.732376e-001 2.168572e-001 -6.928310e+000 154 140 120
2.122831e-001 -5.712556e-001 -6.887413e+000 113 111 104
4.015111e-001 6.481584e-002 -6.809844e+000 143 130 114
4.486853e-001 -2.659663e+000 -7.617002e+000 133 142 141
7.599252e-001 1.456937e-001 -6.575827e+000 245 238 228
9.856075e-001 -1.165035e-001 -6.384029e+000 223 82 86
-2.997831e-001 9.910886e-001 -7.756505e+000 165 29 37
-2.021218e-001 6.390032e-001 -7.666503e+000 173 164 149
-1.489550e+000 -4.499414e+000 -1.031405e+001 66 61 65
-1.256647e-001 6.058308e-001 -7.569460e+000 182 170 156
-1.253670e+000 -5.185460e+000 -1.013324e+001 90 84 88
3.070303e-001 1.142305e+000 -7.102016e+000 230 75 82
-7.687521e-001 -4.823280e+000 -9.506655e+000 84 76 77
-3.314600e-001 -1.579854e-002 -6.882092e+000 77 42 36
2.768077e-001 3.323071e-001 -7.056339e+000 172 160 146
-5.724013e-001 -2.407275e-001 -6.663748e+000 198 106 65
-4.480917e-001 -1.195072e-001 -6.737368e+000 88 25 16
6.539479e-002 1.616527e-001 -6.971944e+000 166 150 137
5.128620e-001 1.203312e-001 -6.833780e+000 142 129 113
4.911678e-001 -1.834120e+000 -7.450193e+000 112 118 115
6.788267e-001 1.779140e-001 -6.776150e+000 208 200 185
7.119646e-001 7.648534e-001 -6.557513e+000 107 14 25
8.144465e-001 5.207187e-001 -6.554605e+000 167 33 42
1.098677e+000 -1.734331e+000 -6.645228e+000 178 180 175
-2.073800e-001 9.900220e-001 -7.682967e+000 169 32 39
-2.241504e-001 3.501932e-001 -7.589946e+000 206 196 184
3.659365e-001 1.091398e+000 -7.014056e+000 234 78 82
3.782456e-001 1.019798e+000 -6.990631e+000 211 178 166
-6.843690e-001 -2.828162e-001 -6.531847e+000 64 22 24
9.741582e-002 -8.943709e-002 -6.861779e+000 235 227 214
4.198098e-001 -5.575649e-001 -6.895402e+000 248 244 227
7.921336e-001 7.923579e-001 -6.590542e+000 21 11 12
6.032193e-001 -3.371285e-001 -6.718013e+000 178 165 147
1.006108e+000 1.706494e-001 -6.365662e+000 215 59 70
-4.743893e-001 4.350709e-001 -7.877913e+000 220 209 191
-1.827231e-001 4.033422e-001 -7.625709e+000 215 207 194
-1.905935e-001 4.110060e-001 -7.468173e+000 131 117 106
-2.915478e-001 2.515643e-001 -7.872565e+000 185 46 50
