ply
format ascii 1.0
element face 0
property list uchar int vertex_indices
element vertex 895
property float x
property float y
property float z
property uchar diffuse_red
property uchar diffuse_green
property uchar diffuse_blue
end_header
-4.666683e-002 7.277014e-001 -7.806649e+000 22 37 16
-4.784056e-002 7.392301e-001 -7.790943e+000 22 37 16
1.543526e+000 5.398540e-001 -8.244484e+000 128 113 72
1.520550e+000 1.755527e+000 -1.005143e+001 114 51 33
5.177566e+000 -1.610280e+000 -9.079811e+000 117 95 73
4.206391e+000 1.791044e+000 -1.074031e+001 115 79 43
4.281734e+000 1.738359e+000 -1.087227e+001 115 79 43
4.260449e+000 2.976311e-001 -9.444732e+000 147 76 14
-3.531942e-001 1.444859e+000 -9.309117e+000 16 33 23
3.795856e+000 1.368817e+000 -1.010198e+001 117 82 45
3.795856e+000 1.368817e+000 -1.010198e+001 117 82 45
-2.114474e-001 8.789051e-001 -7.908333e+000 162 143 85
-2.114474e-001 8.789051e-001 -7.908333e+000 162 143 85
2.406525e+000 1.687679e+000 -9.834046e+000 36 5 8
2.812484e+000 1.701916e+000 -9.983704e+000 107 50 37
-2.155932e+000 1.077592e+000 -7.918714e+000 157 129 87
-2.154753e+000 1.079331e+000 -7.916568e+000 157 129 87
-1.996612e+000 1.127248e+000 -7.791185e+000 73 50 10
-1.996772e+000 1.125863e+000 -7.793464e+000 73 50 10
-1.361999e+000 1.255200e+000 -7.972664e+000 123 27 19
2.729089e+000 1.371680e+000 -9.498523e+000 127 90 64
2.945088e+000 1.384110e+000 -9.599562e+000 82 63 55
2.626364e+000 1.242708e+000 -9.297416e+000 97 74 52
-1.205810e+000 1.017680e+000 -7.746482e+000 124 21 20
8.598392e-001 1.177853e+000 -8.526598e+000 129 111 74
-1.060938e+000 8.610791e-001 -7.604019e+000 108 18 12
-1.060938e+000 8.610791e-001 -7.604019e+000 108 18 12
2.033777e+000 9.150009e-001 -8.695791e+000 110 64 49
2.137958e+000 9.001338e-001 -8.712540e+000 51 20 14
2.137958e+000 9.001338e-001 -8.712540e+000 51 20 14
-6.109261e-001 7.070422e-001 -7.535523e+000 117 102 15
2.072598e+000 6.896165e-001 -8.542819e+000 67 21 11
3.113153e+000 7.110269e-001 -8.961019e+000 74 44 43
-1.101204e+000 6.342163e-001 -7.293919e+000 129 109 74
2.988391e+000 6.884380e-001 -8.868289e+000 46 16 16
1.649370e+000 5.456891e-001 -8.280883e+000 118 53 25
4.849157e+000 -2.533548e+000 -1.003075e+001 98 79 61
3.434610e+000 1.841297e+000 -1.046944e+001 116 80 36
1.493327e+000 1.578801e+000 -9.330453e+000 96 23 19
2.394800e+000 1.598210e+000 -9.670191e+000 63 9 8
1.656390e+000 1.517965e+000 -9.302109e+000 53 35 44
-2.041210e+000 1.074420e+000 -7.796064e+000 156 132 91
1.255257e+000 1.088888e+000 -8.627150e+000 101 11 16
2.794697e+000 1.100604e+000 -9.400297e+000 97 75 54
-2.344646e+000 4.362604e-001 -7.726830e+000 125 95 55
-2.336204e+000 3.984178e-001 -7.702782e+000 136 108 68
-1.126975e+000 8.436007e-001 -7.554950e+000 139 107 69
2.004021e+000 8.337846e-001 -8.584600e+000 117 62 43
2.427421e+000 7.476529e-001 -8.691252e+000 52 16 16
-5.264974e-001 6.151826e-001 -7.511199e+000 123 104 22
-4.143130e-001 6.214753e-001 -7.557539e+000 129 110 27
4.101948e+000 6.561517e-001 -9.331382e+000 104 32 12
3.601052e+000 5.015502e-001 -9.039878e+000 15 43 58
5.630586e+000 -6.359496e-001 -8.304781e+000 88 71 51
5.712606e+000 -5.917167e-001 -8.076754e+000 129 107 84
5.607019e+000 -1.188373e+000 -8.350623e+000 107 84 68
1.196743e+000 1.305530e+000 -8.861984e+000 108 18 19
2.109396e+000 1.222684e+000 -9.093474e+000 59 40 36
4.807531e+000 1.225012e+000 -1.029054e+001 100 50 23
2.151111e+000 8.556155e-001 -8.682885e+000 51 23 19
2.149674e+000 8.565191e-001 -8.684277e+000 51 23 19
2.667174e+000 9.329970e-001 -8.975854e+000 104 79 54
3.471132e+000 9.295293e-001 -9.302611e+000 117 80 43
-5.102759e-001 6.698624e-001 -7.591315e+000 53 69 60
3.033937e+000 4.660631e-001 -8.824349e+000 95 51 6
4.215027e+000 -3.834319e+000 -1.137976e+001 40 32 29
5.780042e+000 -5.753469e-001 -7.945176e+000 90 69 50
-2.240097e+000 1.144662e+000 -8.063394e+000 158 129 85
1.466984e+000 1.320361e+000 -8.980554e+000 24 46 53
1.466076e+000 1.321218e+000 -8.980207e+000 24 46 53
-8.611681e-001 1.043592e+000 -7.933318e+000 49 70 66
-1.707573e-001 9.302033e-001 -7.961537e+000 20 39 18
2.686863e+000 6.762828e-001 -8.784285e+000 54 18 18
3.398504e+000 -5.935185e+000 -1.323118e+001 122 110 90
5.503725e+000 -9.037043e-001 -8.627633e+000 111 94 76
9.864008e-002 1.310688e+000 -8.485676e+000 134 114 54
9.864008e-002 1.310688e+000 -8.485676e+000 134 114 54
-2.010039e+000 8.742742e-001 -7.629654e+000 162 135 88
1.155587e+000 1.160716e+000 -8.677445e+000 88 26 4
1.557286e+000 1.117793e+000 -8.761244e+000 58 77 55
7.889795e-001 7.796638e-001 -8.133456e+000 95 36 20
2.755500e+000 7.056432e-001 -8.819262e+000 97 67 51
4.471325e-001 1.621502e+000 -9.055570e+000 134 100 60
9.899714e-001 1.377275e+000 -8.968296e+000 104 13 11
-2.019079e+000 1.097463e+000 -7.787745e+000 157 132 89
3.053655e-002 1.374221e+000 -8.519596e+000 26 39 21
-2.158143e+000 9.384514e-001 -7.810833e+000 132 104 69
-2.157289e+000 9.378783e-001 -7.812312e+000 132 104 69
-2.532398e-001 1.189120e+000 -8.310779e+000 28 42 15
1.696849e+000 1.018136e+000 -8.615815e+000 10 47 51
2.934812e-001 8.184688e-001 -7.959357e+000 123 109 66
-4.510546e-001 1.717180e+000 -8.859939e+000 116 102 25
-5.085988e-001 1.662908e+000 -8.785258e+000 17 29 14
-4.054292e-001 1.664687e+000 -8.653378e+000 123 108 30
-1.239685e-001 1.659293e+000 -8.892523e+000 120 97 21
-8.140917e-001 1.535247e+000 -8.492349e+000 108 99 37
2.408856e+000 1.727371e+000 -9.894398e+000 105 19 22
-2.240141e+000 1.200785e+000 -8.115903e+000 161 132 88
-2.197483e+000 1.123041e+000 -8.003874e+000 161 133 92
-7.400340e-001 1.405739e+000 -8.372373e+000 119 104 21
-7.156491e-001 1.471347e+000 -8.460862e+000 116 98 27
1.356643e+000 1.550389e+000 -9.241249e+000 115 112 74
1.388730e+000 1.555066e+000 -9.244279e+000 117 114 80
-1.130567e+000 1.284171e+000 -8.117349e+000 43 56 34
-1.137764e+000 1.271521e+000 -8.091306e+000 135 113 68
-1.137764e+000 1.271521e+000 -8.091306e+000 135 113 68
1.355635e+000 1.479219e+000 -9.148816e+000 121 108 70
1.422859e+000 1.487788e+000 -9.165472e+000 111 112 86
1.772169e+000 1.512671e+000 -9.337217e+000 104 55 45
-2.061676e+000 1.083180e+000 -7.815327e+000 67 40 9
-1.821127e+000 1.881468e+000 -6.495311e+000 71 43 18
-2.008518e+000 1.107400e+000 -7.780579e+000 153 131 82
-1.147996e+000 1.217461e+000 -8.013271e+000 151 94 67
-1.148248e+000 1.212984e+000 -8.019477e+000 151 94 67
-1.068064e+000 1.240166e+000 -8.072212e+000 41 61 59
1.049673e+000 1.370794e+000 -8.892534e+000 100 17 13
1.049673e+000 1.370794e+000 -8.892534e+000 100 17 13
1.104460e+000 1.365181e+000 -8.926973e+000 100 10 4
1.104460e+000 1.365181e+000 -8.926973e+000 100 10 4
1.039826e+000 1.351965e+000 -8.869715e+000 138 105 68
1.392042e+000 1.410780e+000 -9.069074e+000 126 122 87
1.440715e+000 1.398647e+000 -9.062437e+000 14 44 51
1.448831e+000 1.393824e+000 -9.073394e+000 14 44 51
1.471319e+000 1.353846e+000 -9.016587e+000 115 104 77
1.591278e+000 1.401581e+000 -9.098882e+000 104 33 13
1.880218e+000 1.368756e+000 -9.185054e+000 99 59 53
1.880218e+000 1.368756e+000 -9.185054e+000 99 59 53
-2.087471e+000 8.602808e-001 -7.709703e+000 92 62 36
-2.019122e+000 1.008036e+000 -7.732916e+000 60 31 22
-2.019122e+000 1.008036e+000 -7.732916e+000 60 31 22
-2.009219e+000 9.649970e-001 -7.694278e+000 68 43 14
-1.994447e+000 9.157690e-001 -7.658218e+000 61 35 16
5.585810e-001 1.212078e+000 -8.538324e+000 116 21 14
1.100825e+000 1.219466e+000 -8.728770e+000 160 106 72
1.460133e+000 1.261754e+000 -8.904787e+000 118 108 76
2.807673e+000 1.385951e+000 -9.569814e+000 100 52 42
-2.050433e+000 8.135900e-001 -7.639497e+000 70 39 9
1.238089e+000 1.119126e+000 -8.648799e+000 155 101 78
1.237056e+000 1.120828e+000 -8.646160e+000 155 101 78
1.484397e+000 1.216877e+000 -8.850111e+000 127 111 80
1.532479e+000 1.211715e+000 -8.841488e+000 107 111 87
2.168904e+000 1.203718e+000 -9.057919e+000 52 33 28
-1.861616e+000 8.400954e-001 -7.495418e+000 62 36 8
1.644771e+000 9.401289e-001 -8.600515e+000 121 109 88
1.977381e+000 9.785794e-001 -8.741794e+000 58 14 7
2.686001e+000 9.806368e-001 -9.025848e+000 93 78 67
-1.006720e+000 7.548898e-001 -7.482447e+000 121 22 23
-1.006720e+000 7.548898e-001 -7.482447e+000 121 22 23
-9.869976e-001 7.661561e-001 -7.504821e+000 150 95 64
2.081650e+000 8.841963e-001 -8.706827e+000 64 16 7
2.278641e+000 8.731756e-001 -8.760316e+000 107 83 72
2.276495e+000 6.600868e-001 -8.613838e+000 57 16 14
-5.475198e-001 5.060787e-001 -7.433566e+000 120 107 14
2.619533e+000 5.739978e-001 -8.686413e+000 138 95 52
3.024326e+000 6.085537e-001 -8.870827e+000 42 9 5
3.097523e+000 6.016428e-001 -8.904921e+000 36 7 10
5.371733e+000 -2.930668e+000 -8.998222e+000 94 74 47
5.487707e+000 -2.846600e+000 -9.016673e+000 98 78 53
5.731651e-001 1.684795e+000 -9.129168e+000 130 95 61
3.157322e+000 1.784244e+000 -1.029390e+001 86 44 6
-8.011656e-001 1.422309e+000 -8.370886e+000 61 71 46
-1.289600e+000 1.212156e+000 -7.945056e+000 139 106 61
1.210447e+000 1.392053e+000 -8.980129e+000 138 58 47
-1.254622e+000 1.106163e+000 -7.854860e+000 140 108 63
1.155301e+000 1.296028e+000 -8.838610e+000 149 106 65
2.574928e+000 1.282339e+000 -9.326341e+000 102 77 57
-2.044773e+000 7.919739e-001 -7.619614e+000 157 131 87
-1.210514e+000 1.055245e+000 -7.796851e+000 119 14 17
2.452029e+000 1.245112e+000 -9.239245e+000 105 83 57
1.163711e+000 1.089713e+000 -8.588717e+000 144 116 67
2.028744e+000 1.013986e+000 -8.793935e+000 67 23 20
1.902224e+000 8.976962e-001 -8.625209e+000 122 60 39
-1.072113e+000 6.032757e-001 -7.299975e+000 123 16 23
-1.071095e+000 5.986470e-001 -7.305498e+000 123 16 23
-5.805742e-001 6.161263e-001 -7.484623e+000 117 102 22
-4.316796e-001 6.259149e-001 -7.538483e+000 119 102 12
1.978226e+000 6.637544e-001 -8.498278e+000 134 89 47
4.499721e+000 7.661046e-001 -9.543842e+000 144 100 65
4.529888e+000 7.036088e-001 -9.527517e+000 147 107 65
4.059544e+000 5.435414e-001 -9.247059e+000 112 46 18
4.895886e+000 -2.593734e+000 -1.002104e+001 116 100 74
5.027148e+000 -2.232558e+000 -9.747236e+000 95 78 58
5.504471e+000 -1.090195e+000 -8.745683e+000 82 61 40
5.146030e+000 -2.487743e+000 -9.413087e+000 92 72 47
4.471687e+000 1.960400e+000 -1.103372e+001 120 81 42
-2.311505e+000 1.135851e+000 -8.179510e+000 158 130 81
-2.303473e+000 1.150111e+000 -8.162322e+000 158 130 81
-1.836025e+000 1.294526e+000 -7.937719e+000 118 97 58
1.667378e+000 1.472149e+000 -9.227474e+000 59 36 29
2.169013e+000 1.258548e+000 -9.114046e+000 55 36 30
1.960523e+000 1.052531e+000 -8.819175e+000 60 35 32
-6.544667e-001 8.030175e-001 -7.673480e+000 48 68 53
1.645237e+000 9.108065e-001 -8.573243e+000 19 44 51
1.937266e+000 9.278014e-001 -8.689037e+000 68 21 17
2.251417e+000 9.301635e-001 -8.808406e+000 74 48 35
-1.106277e+000 7.095072e-001 -7.429213e+000 118 23 24
8.637289e-001 7.777588e-001 -8.168482e+000 125 103 64
2.057562e+000 8.673644e-001 -8.678937e+000 113 57 45
2.190784e+000 8.785100e-001 -8.754567e+000 88 59 50
2.183518e+000 8.905914e-001 -8.740222e+000 88 59 50
2.607005e+000 7.613820e-001 -8.786857e+000 125 89 67
2.763519e+000 4.548749e-001 -8.727416e+000 130 85 46
3.125968e+000 4.443656e-001 -8.866527e+000 138 96 46
4.057192e+000 -4.494210e+000 -1.180106e+001 95 80 59
4.805208e+000 -2.738931e+000 -1.018429e+001 96 75 52
4.900354e+000 -2.480654e+000 -1.004499e+001 115 95 72
5.478718e+000 -1.643930e+000 -8.680998e+000 98 78 54
4.446821e+000 2.033165e+000 -1.103791e+001 26 14 16
5.262060e-001 1.636959e+000 -9.094807e+000 119 104 63
-7.407798e-001 1.468648e+000 -8.430755e+000 15 39 18
-7.407798e-001 1.468648e+000 -8.430755e+000 15 39 18
2.399873e+000 1.386494e+000 -9.402945e+000 66 44 30
-1.033849e+000 1.043076e+000 -7.798705e+000 129 24 23
9.717255e-001 1.024540e+000 -8.439640e+000 119 25 24
9.722022e-001 1.023554e+000 -8.440810e+000 119 25 24
1.964216e+000 6.902042e-001 -8.534597e+000 135 91 44
1.514240e+000 6.050265e-001 -8.285059e+000 99 10 11
4.016188e+000 -4.498711e+000 -1.190405e+001 117 101 78
4.951649e+000 -2.341328e+000 -9.910392e+000 114 98 72
4.837869e+000 -3.642400e+000 -1.018989e+001 130 110 81
5.802824e+000 -6.047880e-001 -7.963451e+000 84 59 40
5.109866e+000 -3.376708e+000 -9.492159e+000 100 79 55
2.035583e+000 1.833738e+000 -9.952616e+000 13 36 46
4.968008e-001 1.658261e+000 -9.139069e+000 123 104 64
-6.046157e-001 1.321067e+000 -8.316700e+000 128 106 16
-1.199228e+000 1.234907e+000 -8.027700e+000 124 19 23
-1.199228e+000 1.234907e+000 -8.027700e+000 124 19 23
2.950765e+000 1.201573e+000 -9.344246e+000 50 30 29
-1.134890e+000 8.147434e-001 -7.518040e+000 112 19 16
-1.106092e+000 7.503744e-001 -7.462181e+000 120 25 25
5.547563e+000 -7.704055e-001 -8.609211e+000 38 27 23
1.482568e+000 1.479396e+000 -9.147328e+000 17 39 51
1.482568e+000 1.479396e+000 -9.147328e+000 17 39 51
-2.060805e+000 9.204969e-001 -7.724613e+000 162 131 86
1.132457e+000 1.046727e+000 -8.544574e+000 106 13 17
3.391598e+000 1.873746e+000 -1.067957e+001 27 9 12
-2.562844e-001 1.475032e+000 -8.591258e+000 124 106 38
1.345820e+000 1.354833e+000 -9.041165e+000 15 42 53
-7.488577e-001 1.180797e+000 -8.112366e+000 131 109 32
1.401188e+000 1.226089e+000 -8.827595e+000 16 43 54
-6.275711e-001 9.294379e-001 -7.829593e+000 129 107 42
3.901362e-001 1.611040e+000 -8.944844e+000 114 50 36
7.800049e-001 1.164704e+000 -8.559041e+000 123 105 68
-8.024764e-001 7.945762e-001 -7.649234e+000 34 61 56
-2.643028e-001 7.521702e-001 -7.686745e+000 20 38 19
1.089567e+000 7.725094e-001 -8.279759e+000 127 110 67
-1.993914e+000 8.078190e-001 -7.589782e+000 159 134 80
3.590376e+000 -2.095764e-001 -9.492265e+000 153 106 54
7.300944e-001 1.741850e+000 -9.605566e+000 117 97 60
3.139692e+000 1.640638e+000 -9.954890e+000 112 74 37
5.060309e+000 8.503561e-001 -9.764302e+000 32 22 23
4.447012e+000 1.971823e+000 -1.112694e+001 70 19 6
2.117082e+000 1.781017e+000 -9.881811e+000 19 37 37
2.160555e+000 1.775069e+000 -9.887434e+000 46 59 52
2.219055e+000 1.750864e+000 -9.939909e+000 20 40 39
2.209751e+000 1.766338e+000 -9.918040e+000 20 40 39
-8.577631e-001 1.451942e+000 -8.389293e+000 121 99 9
-7.306897e-001 1.426567e+000 -8.389964e+000 60 71 24
-2.186512e+000 1.092261e+000 -7.947452e+000 153 128 87
-1.996839e+000 1.129288e+000 -7.789196e+000 69 43 17
2.933101e+000 1.411143e+000 -9.646378e+000 75 57 47
-2.183391e+000 9.022394e-001 -7.802322e+000 100 75 45
-8.329123e-001 1.096820e+000 -8.006539e+000 107 101 9
-2.060699e+000 8.764044e-001 -7.674618e+000 152 125 78
2.062528e+000 1.204762e+000 -9.033013e+000 54 35 31
2.062528e+000 1.204762e+000 -9.033013e+000 54 35 31
-2.048781e+000 7.247251e-001 -7.608457e+000 162 135 95
-8.092624e-001 1.307906e+000 -7.388350e+000 109 97 17
-6.701007e-001 1.007654e+000 -7.730963e+000 120 104 38
1.561896e+000 1.043005e+000 -8.699630e+000 110 110 80
1.561896e+000 1.043005e+000 -8.699630e+000 110 110 80
6.642222e-001 9.002100e-001 -8.215835e+000 119 107 56
6.642222e-001 9.002100e-001 -8.215835e+000 119 107 56
2.597677e+000 1.013587e+000 -9.036577e+000 93 72 52
2.631872e+000 9.720040e-001 -9.028095e+000 101 79 60
2.438254e+000 9.012008e-001 -8.825206e+000 52 19 17
3.821934e+000 7.839957e-001 -9.330999e+000 90 18 19
-9.737156e-001 7.201567e-001 -7.449778e+000 120 25 21
-9.737156e-001 7.201567e-001 -7.449778e+000 120 25 21
-9.458936e-001 6.554275e-001 -7.413551e+000 117 25 19
-9.458936e-001 6.554275e-001 -7.413551e+000 117 25 19
3.651440e+000 6.906791e-001 -9.179068e+000 10 39 52
4.057335e+000 6.505222e-001 -9.314806e+000 134 86 45
1.673819e+000 5.870460e-001 -8.345613e+000 23 30 34
3.112141e+000 4.794406e-001 -8.893851e+000 104 58 10
4.608826e+000 5.814429e-001 -9.474749e+000 136 68 32
4.856859e+000 -2.539881e+000 -1.003868e+001 94 77 55
2.140645e+000 1.803539e+000 -9.972793e+000 56 68 65
2.262927e+000 1.703528e+000 -9.809662e+000 17 42 48
-7.306247e-001 1.468525e+000 -8.427583e+000 15 33 6
2.384612e+000 1.456373e+000 -9.393208e+000 119 94 64
-1.944301e+000 8.669993e-001 -7.585302e+000 157 132 91
2.870834e+000 1.211259e+000 -9.357948e+000 96 73 53
-1.969542e+000 7.618725e-001 -7.539746e+000 161 136 84
2.027058e+000 1.017231e+000 -8.791224e+000 69 26 22
3.127539e+000 9.796545e-001 -9.242262e+000 83 61 48
3.662160e+000 9.165141e-001 -9.337480e+000 13 38 57
-6.873140e-001 7.607363e-001 -7.628224e+000 109 96 25
4.679914e+000 8.794637e-001 -9.762876e+000 117 92 53
4.907949e+000 8.930447e-001 -9.793313e+000 97 42 29
2.056237e+000 6.579714e-001 -8.521359e+000 125 68 48
4.698470e+000 -2.974827e+000 -1.042677e+001 95 80 57
5.268650e+000 -2.454602e+000 -9.189271e+000 128 106 82
5.055148e+000 -3.796998e+000 -9.551106e+000 102 85 57
5.746834e+000 -1.555043e+000 -8.045776e+000 116 96 72
3.661001e+000 1.711159e+000 -1.033773e+001 85 44 14
-7.287691e-001 1.303507e+000 -8.222355e+000 21 35 20
-2.121128e+000 9.587519e-001 -7.793543e+000 132 105 75
-1.947616e+000 9.207922e-001 -7.618076e+000 155 133 86
9.315901e-001 9.952228e-001 -8.409598e+000 123 100 64
9.302424e-001 9.975116e-001 -8.406823e+000 123 100 64
-1.020863e+000 8.674817e-001 -7.621997e+000 124 20 23
2.171683e+000 9.568931e-001 -8.813257e+000 82 50 40
3.130426e+000 4.368789e-001 -8.873954e+000 141 97 37
4.136549e+000 -4.083478e+000 -1.152084e+001 125 111 86
4.812448e+000 -2.548102e+000 -1.017811e+001 44 35 23
3.818032e+000 1.917413e+000 -1.078690e+001 108 74 37
1.246264e+000 1.213892e+000 -8.773793e+000 104 14 15
1.330051e+000 1.136117e+000 -8.703917e+000 111 33 23
4.845158e+000 1.040226e+000 -1.002835e+001 108 63 28
2.214812e+000 9.794634e-001 -8.835609e+000 52 23 17
-2.331998e+000 -2.821580e-001 -7.784916e+000 27 21 25
2.141362e+000 7.106608e-001 -8.584324e+000 57 20 17
-8.518110e-001 6.242680e-001 -7.398443e+000 125 24 24
4.732742e+000 -2.726378e+000 -1.036260e+001 35 28 23
5.004856e+000 -2.140641e+000 -9.821543e+000 45 35 30
5.329925e+000 -1.386168e+000 -9.060464e+000 112 94 74
3.190533e+000 1.860337e+000 -1.042820e+001 70 32 12
3.189761e+000 1.805857e+000 -1.030083e+001 90 46 18
6.332725e-001 1.575003e+000 -9.023358e+000 127 84 59
-2.285057e+000 1.021654e+000 -7.986816e+000 158 127 83
3.002146e+000 1.068343e+000 -9.210517e+000 55 36 29
8.444514e-001 6.043445e-001 -8.040813e+000 114 51 33
5.683879e+000 -3.778287e-001 -8.156933e+000 125 103 82
2.214614e+000 1.821282e+000 -9.994558e+000 18 39 48
-1.963122e+000 7.014821e-001 -7.521677e+000 161 138 90
-2.019481e+000 1.102292e+000 -7.784478e+000 148 127 85
5.055515e+000 2.491883e-001 -9.552310e+000 29 22 19
-1.448585e-001 1.621119e+000 -8.829068e+000 115 102 57
-1.080813e-001 9.387814e-001 -8.025411e+000 22 34 21
2.819827e+000 8.988785e-001 -8.990126e+000 94 66 44
4.358429e+000 -6.387513e+000 -1.113316e+001 125 109 74
2.461336e+000 1.787299e+000 -9.978217e+000 117 79 40
3.539046e+000 1.959649e+000 -1.060905e+001 90 56 20
1.513222e-001 1.502557e+000 -8.710482e+000 119 103 60
2.551218e-001 1.299514e+000 -8.525231e+000 124 105 62
5.229844e+000 -1.651138e+000 -9.150148e+000 109 89 64
2.209869e+000 7.559164e-001 -8.554888e+000 77 40 35
-8.370172e-001 1.361427e+000 -8.264930e+000 26 39 19
-8.341148e-001 1.349143e+000 -8.278843e+000 26 39 19
3.861016e+000 1.235476e+000 -1.016650e+001 114 79 41
-1.706109e+001 -4.381747e+001 -5.651585e+001 128 109 104
-1.600819e+001 -4.389495e+001 -5.607596e+001 158 139 137
-1.729292e+001 -4.461387e+001 -5.809694e+001 132 113 107
-1.477552e+001 -4.792361e+001 -5.196570e+001 67 60 72
-2.460334e+001 -4.706019e+001 -5.782286e+001 125 106 109
-2.385688e+001 -4.819650e+001 -5.443864e+001 147 131 136
-2.646676e+001 -4.862061e+001 -5.717903e+001 143 126 144
-2.338643e+001 -4.598691e+001 -5.493840e+001 59 60 101
-2.553923e+001 -4.672492e+001 -5.227450e+001 254 254 253
-2.396027e+001 -4.986482e+001 -5.456156e+001 144 127 135
-2.131592e+001 -4.564839e+001 -5.449123e+001 253 254 254
-2.535206e+001 -4.793596e+001 -5.655365e+001 151 128 132
-2.626969e+001 -4.806046e+001 -5.511459e+001 76 81 136
-1.792727e+001 -5.095480e+001 -4.924276e+001 54 66 115
-2.134059e+001 -4.582624e+001 -4.126624e+001 254 254 254
5.726464e-001 1.684640e+000 -9.170515e+000 138 92 65
1.481986e+000 1.414515e+000 -9.073583e+000 22 39 51
2.875006e+000 1.157316e+000 -9.281247e+000 87 62 39
3.073749e+000 9.488836e-001 -9.144633e+000 52 26 20
5.032497e+000 -3.021672e+000 -9.673852e+000 101 80 53
-7.883912e-001 1.457677e+000 -8.409882e+000 23 34 20
2.214365e+000 1.668514e+000 -9.721392e+000 49 60 56
-6.703062e-001 1.323509e+000 -8.311737e+000 118 104 15
2.143532e+000 1.180082e+000 -9.048325e+000 99 77 64
2.143532e+000 1.180082e+000 -9.048325e+000 99 77 64
-1.143526e+000 9.325954e-001 -7.666887e+000 119 11 9
3.116423e+000 9.681835e-001 -9.168146e+000 82 63 51
2.056630e+000 7.299975e-001 -8.542442e+000 57 16 12
5.778019e+000 -1.225870e+000 -7.946923e+000 122 101 80
5.589370e+000 -2.246610e+000 -8.443656e+000 129 105 79
2.387678e+000 1.762097e+000 -9.926736e+000 114 82 44
6.761141e-001 8.979917e-001 -8.213289e+000 123 103 59
-9.240546e+000 -3.052504e+001 -3.539316e+001 58 61 91
6.386835e-001 1.531847e+000 -8.962587e+000 122 102 60
2.693675e+000 8.564708e-001 -8.901759e+000 101 73 50
1.757372e+000 1.358664e+000 -9.152062e+000 59 36 39
-2.338846e+001 -5.341610e+001 -4.880165e+001 52 52 88
-8.105455e-002 1.312671e+000 -8.430289e+000 125 105 51
4.526791e-001 1.627687e+000 -9.053224e+000 122 100 64
4.526791e-001 1.627687e+000 -9.053224e+000 122 100 64
-8.219874e-001 1.450190e+000 -8.380435e+000 112 100 18
-6.742528e-001 1.519759e+000 -8.473511e+000 121 103 27
4.387125e-001 1.582265e+000 -8.958957e+000 129 93 66
4.364448e-001 1.580394e+000 -8.961925e+000 129 93 66
1.397370e+000 1.539831e+000 -9.268510e+000 123 106 74
-3.029399e-002 1.883395e+000 -7.985211e+000 131 109 32
1.548737e+000 1.460647e+000 -9.180937e+000 132 78 44
-9.127739e-001 1.267670e+000 -8.081717e+000 104 106 12
1.209514e+000 1.391623e+000 -8.980825e+000 143 67 58
1.462099e+000 1.409691e+000 -9.104142e+000 119 112 80
-1.071518e+000 1.029079e+000 -7.859404e+000 145 93 64
-1.071518e+000 1.029079e+000 -7.859404e+000 145 93 64
1.136821e+000 1.136315e+000 -8.666335e+000 147 112 60
2.676475e+000 1.048744e+000 -9.094436e+000 23 6 3
-1.073874e+000 9.006698e-001 -7.647197e+000 117 15 15
-1.073082e+000 9.019398e-001 -7.646335e+000 117 15 15
-1.038355e+000 8.369463e-001 -7.559040e+000 105 19 10
-3.482107e-001 8.388662e-001 -7.987018e+000 17 30 15
5.403492e-001 9.219199e-001 -8.198508e+000 118 16 17
-3.722274e-001 7.141897e-001 -7.646631e+000 131 104 25
4.978568e+000 6.010754e-001 -9.596906e+000 94 26 6
4.978568e+000 6.010754e-001 -9.596906e+000 94 26 6
4.398505e-001 1.631978e+000 -9.043301e+000 127 96 62
2.853198e+000 1.711600e+000 -1.001743e+001 111 56 36
1.655895e+000 1.435637e+000 -9.159717e+000 130 74 46
2.801857e+000 1.511689e+000 -9.682258e+000 115 79 61
2.868858e+000 1.446721e+000 -9.640209e+000 57 38 30
2.887111e+000 1.410932e+000 -9.602979e+000 53 30 26
-1.281176e+000 1.165045e+000 -7.915478e+000 140 102 57
-1.123250e+000 1.026909e+000 -7.828470e+000 142 95 59
2.608774e+000 1.217613e+000 -9.239776e+000 96 77 55
2.840604e+000 9.256762e-001 -9.036768e+000 103 75 53
-5.399161e-001 8.255948e-001 -7.727228e+000 20 33 22
2.356920e+000 6.383995e-001 -8.663858e+000 56 18 15
4.883829e+000 -2.576056e+000 -1.000499e+001 110 92 68
4.913809e+000 -3.375124e+000 -9.776992e+000 128 108 81
-1.844392e+000 1.364296e+000 -7.917506e+000 113 95 59
2.080931e+000 1.394320e+000 -9.264973e+000 53 34 28
-2.121712e+000 9.595984e-001 -7.792382e+000 132 105 75
-2.037998e+000 8.702746e-001 -7.689602e+000 159 131 86
-2.053870e-001 9.672342e-001 -8.000135e+000 119 99 15
-2.053870e-001 9.672342e-001 -8.000135e+000 119 99 15
-1.029041e+000 6.931484e-001 -7.401569e+000 122 16 20
5.121449e+000 -1.895147e+000 -9.513497e+000 122 105 80
5.322735e+000 -1.493644e+000 -9.079863e+000 95 77 55
1.542524e+000 1.562461e+000 -9.338439e+000 62 12 15
1.446092e+000 1.370203e+000 -9.019272e+000 47 40 19
2.383069e+000 1.516957e+000 -9.479509e+000 113 88 58
2.952198e+000 1.711414e+000 -1.008803e+001 88 39 19
1.154147e+000 1.162882e+000 -8.676277e+000 95 25 15
1.131495e+000 1.221825e+000 -8.759468e+000 120 58 38
8.287290e-001 1.158880e+000 -8.587064e+000 120 99 65
3.367702e+000 1.842942e+000 -1.045234e+001 92 52 16
3.385577e+000 1.825651e+000 -1.048235e+001 92 52 16
2.153637e+000 1.829304e+000 -1.005354e+001 10 32 31
-3.061839e-001 1.723840e+000 -8.925816e+000 111 103 23
2.130418e+000 1.761610e+000 -9.973749e+000 12 34 40
-4.296340e-001 1.632589e+000 -8.695647e+000 29 32 12
3.238442e+000 1.765468e+000 -1.025477e+001 77 38 10
-7.990795e-001 1.424771e+000 -8.369893e+000 58 74 40
-7.290241e-001 1.420088e+000 -8.394774e+000 65 72 50
2.701880e+000 1.592239e+000 -9.803154e+000 51 12 5
1.360906e+000 1.476620e+000 -9.149987e+000 118 119 91
2.887616e+000 1.494151e+000 -9.686355e+000 68 46 41
-6.565384e-001 1.276333e+000 -8.266589e+000 82 81 67
1.437501e+000 1.399431e+000 -9.061165e+000 16 45 49
1.455748e+000 1.379712e+000 -9.046085e+000 111 108 83
1.874321e+000 1.371025e+000 -9.181904e+000 102 60 51
1.874321e+000 1.371025e+000 -9.181904e+000 102 60 51
2.568019e+000 1.235382e+000 -9.271028e+000 98 76 67
2.960815e+000 1.348488e+000 -9.547188e+000 74 54 49
2.960815e+000 1.348488e+000 -9.547188e+000 74 54 49
2.121828e+000 1.158594e+000 -9.015628e+000 50 31 27
2.763758e+000 1.127633e+000 -9.228680e+000 95 72 54
-1.864479e+000 8.428632e-001 -7.495916e+000 85 62 27
2.075413e+000 9.918291e-001 -8.808558e+000 102 62 52
2.075413e+000 9.918291e-001 -8.808558e+000 102 62 52
-1.023552e+000 9.118330e-001 -7.641526e+000 116 20 17
9.687883e-001 9.195739e-001 -8.332974e+000 127 104 68
-1.017497e+000 7.017261e-001 -7.401922e+000 130 22 25
-8.165701e-001 6.868811e-001 -7.367987e+000 129 115 80
-8.165701e-001 6.868811e-001 -7.367987e+000 129 115 80
3.222082e+000 6.149981e-001 -8.916289e+000 133 102 56
5.165343e+000 5.521808e-001 -9.663368e+000 31 17 17
5.101310e+000 -1.952159e+000 -9.501909e+000 102 85 62
5.918094e+000 2.906203e-001 -7.518299e+000 78 59 52
8.750267e-001 1.743960e+000 -9.877858e+000 103 26 21
3.750854e+000 1.820914e+000 -1.112778e+001 95 63 43
3.242789e+000 1.781437e+000 -1.033965e+001 84 42 17
4.437340e-001 1.628430e+000 -9.044475e+000 125 101 65
4.437340e-001 1.628430e+000 -9.044475e+000 125 101 65
2.189479e+000 1.738496e+000 -9.844208e+000 49 67 70
2.189479e+000 1.738496e+000 -9.844208e+000 49 67 70
3.511338e+000 1.783439e+000 -1.039286e+001 57 21 25
2.379262e+000 1.575127e+000 -9.634127e+000 116 88 64
1.416962e+000 1.435373e+000 -9.102399e+000 15 38 53
-1.353904e+000 1.277904e+000 -8.021152e+000 125 69 57
2.958558e+000 1.367527e+000 -9.614842e+000 74 50 45
-2.081925e+000 9.815139e-001 -7.783784e+000 159 137 100
-1.254145e+000 1.104585e+000 -7.854682e+000 130 111 65
2.097863e+000 1.222342e+000 -9.121407e+000 47 27 28
2.985651e+000 1.286986e+000 -9.427592e+000 71 52 46
-8.487650e-002 1.152319e+000 -8.244278e+000 20 37 17
2.070475e+000 1.182494e+000 -9.007258e+000 71 52 46
2.098421e+000 1.121622e+000 -8.952510e+000 69 50 44
-1.009441e+000 9.181304e-001 -7.690990e+000 145 89 59
-1.009441e+000 9.181304e-001 -7.690990e+000 145 89 59
-7.962992e-001 9.746391e-001 -7.815724e+000 107 95 13
-7.679218e-001 9.516329e-001 -7.806694e+000 20 33 17
1.231492e+000 1.081160e+000 -8.586875e+000 145 100 61
3.091783e+000 1.035811e+000 -9.215977e+000 75 55 49
-2.020901e+000 5.579718e-001 -7.497232e+000 166 142 98
-2.019802e+000 5.598664e-001 -7.495284e+000 166 142 98
-1.967250e+000 5.650189e-001 -7.465962e+000 168 144 100
-1.050786e+000 8.811962e-001 -7.639643e+000 139 110 70
-7.814900e-001 9.070846e-001 -7.765291e+000 111 106 25
2.904833e+000 7.532024e-001 -8.884962e+000 62 25 19
3.063675e+000 8.380939e-001 -9.040325e+000 47 18 14
4.800747e+000 7.199417e-001 -9.622424e+000 143 104 68
-7.508820e-001 7.455283e-001 -7.496548e+000 20 35 16
2.274080e+000 7.075694e-001 -8.619402e+000 75 34 31
-7.019051e-001 5.259028e-001 -7.401231e+000 18 38 23
5.754886e+000 -2.127238e-001 -8.021919e+000 120 103 86
5.973333e+000 3.585898e-001 -7.355010e+000 119 100 86
1.302061e+000 1.772175e+000 -1.006892e+001 81 20 15
3.246873e+000 1.910704e+000 -1.069522e+001 84 49 22
2.277268e+000 1.669201e+000 -9.750289e+000 10 38 45
2.971606e+000 1.693849e+000 -1.001834e+001 114 79 41
-8.485201e-001 1.426910e+000 -8.360860e+000 50 68 64
-2.089452e+000 1.047261e+000 -7.807343e+000 154 132 90
2.193274e+000 1.357291e+000 -9.250592e+000 59 40 33
-2.006778e+000 1.051742e+000 -7.746369e+000 154 133 87
-2.008972e+000 1.049975e+000 -7.746078e+000 154 133 87
2.270813e+000 1.310536e+000 -9.269497e+000 98 75 54
3.044907e+000 1.279503e+000 -9.490695e+000 50 32 31
-2.358609e+000 5.622582e-001 -7.759671e+000 139 109 71
2.224003e+000 1.120888e+000 -9.003329e+000 54 34 33
-1.991178e+000 7.813547e-001 -7.573902e+000 163 139 101
1.890413e+000 1.020483e+000 -8.753217e+000 57 17 21
5.741773e-001 8.802200e-001 -8.162009e+000 119 110 75
2.230362e+000 8.949466e-001 -8.771254e+000 55 31 29
3.368251e+000 8.580606e-001 -9.163993e+000 23 16 13
3.369888e+000 8.560394e-001 -9.163598e+000 23 16 13
4.521586e+000 8.018482e-001 -9.572675e+000 138 110 71
-2.324455e-001 6.209409e-001 -7.659979e+000 19 40 25
4.692474e+000 -2.613274e+000 -1.018473e+001 112 102 83
4.850121e+000 -2.421893e+000 -1.007253e+001 37 29 23
4.904950e+000 -2.489667e+000 -1.004138e+001 109 97 75
4.961241e+000 -2.248518e+000 -9.908580e+000 35 26 28
4.825248e+000 -2.381447e+000 -9.886821e+000 92 81 61
5.042557e+000 -2.127547e+000 -9.720990e+000 122 109 89
5.389548e+000 -1.214553e+000 -8.917279e+000 122 105 87
5.798762e+000 -1.225065e-001 -7.938981e+000 122 106 91
5.661448e+000 9.691887e-002 -7.830968e+000 43 32 29
5.815830e+000 -3.552047e-001 -7.753229e+000 127 109 89
5.936568e+000 4.037279e-001 -7.469202e+000 125 108 90
4.477343e+000 1.857272e+000 -1.143266e+001 119 63 25
2.195299e+000 1.811748e+000 -1.004501e+001 16 39 56
3.723805e+000 1.819776e+000 -1.050825e+001 107 72 42
2.783047e+000 1.552975e+000 -9.719911e+000 113 77 61
1.162532e+000 1.366104e+000 -8.881087e+000 103 23 22
-1.001366e+000 9.414513e-001 -7.737237e+000 127 26 29
-1.000887e+000 9.416348e-001 -7.737777e+000 127 26 29
2.170236e+000 9.821378e-001 -8.882363e+000 106 78 66
2.170236e+000 9.821378e-001 -8.882363e+000 106 78 66
2.208185e+000 9.807084e-001 -8.831529e+000 46 17 13
3.160734e+000 9.676223e-001 -9.145857e+000 57 34 39
1.977216e+000 8.182051e-001 -8.626199e+000 75 30 27
2.792187e+000 7.895036e-001 -8.820674e+000 104 78 56
2.792187e+000 7.895036e-001 -8.820674e+000 104 78 56
2.891699e+000 3.836133e-001 -8.746594e+000 39 12 12
5.358126e+000 -1.317315e+000 -8.997729e+000 113 97 78
5.851727e+000 1.009341e-001 -7.735607e+000 113 99 83
5.893323e+000 1.618900e-001 -7.662786e+000 98 80 65
5.898288e+000 3.105511e-001 -7.626846e+000 39 29 27
5.906364e+000 3.049249e-001 -7.564275e+000 117 100 85
5.974539e+000 4.188299e-001 -7.436156e+000 120 100 83
9.923551e-001 1.653557e+000 -9.718049e+000 105 25 20
3.528045e+000 1.905474e+000 -1.075243e+001 101 71 42
-1.286858e+000 1.134243e+000 -7.877665e+000 128 24 26
1.484801e+000 1.281131e+000 -8.929956e+000 93 93 77
1.864441e+000 1.130292e+000 -8.878757e+000 47 32 34
3.233527e+000 8.532502e-001 -9.139492e+000 64 33 32
2.054327e+000 5.954513e-001 -8.499430e+000 73 27 19
2.054759e+000 5.969366e-001 -8.499300e+000 73 27 19
4.814030e+000 3.922189e-001 -9.493038e+000 151 71 23
5.129345e+000 -1.787110e+000 -9.513710e+000 39 34 33
5.962696e+000 2.951000e-001 -7.456214e+000 75 56 42
1.403328e+000 1.791246e+000 -1.001788e+001 100 43 26
2.012753e+000 1.749075e+000 -9.802476e+000 16 44 56
4.867798e-001 1.541635e+000 -8.914392e+000 117 100 70
-6.680695e-001 1.421742e+000 -8.412542e+000 121 108 39
-1.941086e+000 8.725034e-001 -7.579312e+000 157 135 86
1.617873e+000 9.932261e-001 -8.688744e+000 100 105 78
1.617873e+000 9.932261e-001 -8.688744e+000 100 105 78
2.718585e+000 3.762139e-001 -8.697823e+000 35 11 16
5.632669e+000 -4.962694e-001 -8.372841e+000 39 29 27
-3.369224e-001 1.342218e+000 -8.448728e+000 20 37 15
8.078249e-001 1.154975e+000 -8.579251e+000 122 111 75
2.658929e+000 5.721325e-001 -8.672533e+000 130 88 45
3.700769e+000 5.776910e-001 -9.119647e+000 16 50 62
9.446589e-001 1.765924e+000 -9.858385e+000 96 25 19
1.495245e+000 1.816691e+000 -9.856505e+000 113 54 37
2.362771e+000 1.293534e+000 -9.255932e+000 105 75 58
2.841445e+000 1.041965e+000 -9.098913e+000 104 76 55
-9.976964e-001 6.963404e-001 -7.422899e+000 157 95 66
3.633496e+000 1.726793e+000 -1.051565e+001 28 10 10
1.312967e+000 6.834431e-001 -8.230753e+000 114 16 17
-1.714563e-001 5.596328e-001 -7.650884e+000 24 43 16
5.582883e-002 6.874804e-001 -7.775494e+000 63 66 19
4.085917e+000 4.655013e-001 -9.310988e+000 128 73 38
1.183918e-001 1.610528e+000 -8.845057e+000 122 107 68
3.338751e+000 1.431995e+000 -1.021185e+001 112 77 45
3.338751e+000 1.431995e+000 -1.021185e+001 112 77 45
4.649311e+000 6.722207e-001 -9.518940e+000 125 69 36
4.649311e+000 6.722207e-001 -9.518940e+000 125 69 36
2.706037e+000 1.677667e+000 -1.054654e+001 101 72 42
-1.339088e+000 1.337194e+000 -9.042927e+000 91 88 68
2.177457e+000 1.807784e+000 -9.926599e+000 23 41 45
2.197430e+000 1.783153e+000 -9.862501e+000 18 37 42
2.197430e+000 1.783153e+000 -9.862501e+000 18 37 42
3.459692e-001 1.618497e+000 -8.947726e+000 132 98 73
4.309023e-001 1.643394e+000 -9.030736e+000 129 97 57
4.309023e-001 1.643394e+000 -9.030736e+000 129 97 57
-7.836754e-001 1.434565e+000 -8.395076e+000 110 104 35
-1.122530e+000 1.247787e+000 -8.081513e+000 116 29 18
-2.111384e+000 9.443871e-001 -7.767475e+000 153 128 92
-1.963617e+000 1.035504e+000 -7.681353e+000 154 131 91
1.122924e+000 1.286445e+000 -8.790197e+000 102 19 15
1.123139e+000 1.246915e+000 -8.784783e+000 156 104 82
1.484202e+000 1.217466e+000 -8.849794e+000 107 103 76
2.184463e+000 1.182968e+000 -9.075396e+000 44 24 20
2.192290e+000 1.170253e+000 -9.035639e+000 53 34 32
2.196500e+000 1.162519e+000 -9.042168e+000 53 34 32
-1.966206e+000 5.666088e-001 -7.465876e+000 170 145 104
-1.918316e+000 5.531181e-001 -7.446024e+000 170 146 101
2.164867e+000 1.067229e+000 -8.906382e+000 51 33 31
2.273538e+000 7.460778e-001 -8.663702e+000 89 48 45
5.499731e+000 -1.748314e+000 -8.663358e+000 129 111 87
5.997900e+000 3.322395e-001 -7.454231e+000 78 61 44
2.112797e+000 1.830116e+000 -1.000119e+001 41 55 57
2.108402e+000 1.838125e+000 -9.994393e+000 41 55 57
3.706770e+000 1.930987e+000 -1.086459e+001 93 58 39
2.231135e+000 1.790090e+000 -9.935243e+000 48 66 67
1.376535e+000 1.513091e+000 -9.173335e+000 15 40 46
3.903701e-001 1.206257e+000 -8.435479e+000 126 108 74
1.164419e+000 1.205447e+000 -8.721530e+000 105 18 17
2.945885e+000 1.338304e+000 -9.387606e+000 79 58 57
-1.072153e+000 9.758165e-001 -7.762759e+000 115 29 24
1.212909e+000 1.111066e+000 -8.625384e+000 144 96 59
2.706952e+000 1.213606e+000 -9.227386e+000 101 79 58
2.783815e+000 1.100190e+000 -9.262027e+000 103 80 65
-1.086980e+000 8.636211e-001 -7.614371e+000 147 104 70
2.771234e+000 9.766017e-001 -9.057857e+000 104 79 63
2.978980e+000 9.820675e-001 -9.119943e+000 56 26 16
2.341713e+000 9.106173e-001 -8.836342e+000 102 82 68
2.338616e+000 9.164823e-001 -8.832343e+000 102 82 68
3.411529e+000 8.676937e-001 -9.177752e+000 77 69 55
4.546578e+000 9.232625e-001 -9.733386e+000 119 59 25
4.612028e+000 9.186070e-001 -9.761721e+000 127 63 31
1.946103e+000 7.825558e-001 -8.571390e+000 129 78 51
2.077282e+000 6.923187e-001 -8.571460e+000 59 14 7
2.200148e+000 6.988739e-001 -8.622222e+000 50 15 13
2.463836e+000 6.890024e-001 -8.730103e+000 49 13 12
3.470544e+000 7.027362e-001 -9.093282e+000 93 82 76
4.558346e+000 7.280578e-001 -9.550444e+000 114 43 16
9.034371e-001 6.075450e-001 -8.070796e+000 138 115 83
5.184019e+000 2.668158e-001 -9.634991e+000 34 20 16
8.607952e-001 1.868482e+000 -9.587492e+000 97 21 20
-1.124836e-001 1.728229e+000 -9.012383e+000 112 96 36
5.586662e-001 1.582213e+000 -8.996847e+000 123 107 71
2.798030e+000 1.729960e+000 -1.001858e+001 71 23 4
2.786926e+000 1.690123e+000 -9.957371e+000 97 37 29
3.270923e+000 1.797533e+000 -1.028898e+001 96 55 30
-8.479745e-001 1.428539e+000 -8.361999e+000 49 75 59
1.167609e+000 1.373824e+000 -8.911101e+000 97 14 11
-1.942131e+000 9.295394e-001 -7.610844e+000 157 133 95
-1.942859e+000 9.330212e-001 -7.608516e+000 157 133 95
-1.989801e+000 7.784451e-001 -7.576062e+000 161 138 97
-2.012189e-001 1.048411e+000 -8.118411e+000 121 105 12
-1.166633e+000 8.338288e-001 -7.568011e+000 125 25 27
-1.166633e+000 8.338288e-001 -7.568011e+000 125 25 27
9.321162e-001 9.906845e-001 -8.412701e+000 128 112 75
1.722409e+000 5.612093e-001 -8.344704e+000 139 99 52
4.975083e+000 -2.361436e+000 -9.914044e+000 113 99 83
5.097940e+000 -1.980952e+000 -9.577461e+000 117 100 78
5.638068e+000 -5.086685e-001 -8.286852e+000 118 102 87
5.853044e+000 7.588076e-002 -7.818099e+000 34 21 19
6.034462e+000 4.214696e-001 -7.336472e+000 87 69 57
3.945076e+000 1.950352e+000 -1.085750e+001 96 65 36
3.594878e+000 1.744123e+000 -1.028277e+001 81 41 15
1.944761e+000 1.160549e+000 -8.917089e+000 95 52 46
1.946372e+000 1.160150e+000 -8.917780e+000 95 52 46
-1.135591e+000 8.052018e-001 -7.519931e+000 121 17 20
-1.060360e+000 6.071788e-001 -7.324315e+000 125 25 25
5.382643e+000 -1.311656e+000 -9.073853e+000 38 30 27
5.543863e+000 -9.437263e-001 -8.649553e+000 121 105 90
6.048501e+000 3.480220e-001 -7.548302e+000 40 29 27
8.738218e-001 1.782700e+000 -9.894043e+000 85 26 18
1.484726e+000 1.803131e+000 -1.012696e+001 80 17 10
9.030266e-001 1.757929e+000 -9.440491e+000 115 96 65
2.003919e+000 1.758319e+000 -9.726532e+000 11 37 50
1.924661e+000 1.705507e+000 -9.618691e+000 76 14 15
1.880914e+000 1.770118e+000 -9.552178e+000 76 14 15
2.709916e+000 1.527875e+000 -9.666636e+000 90 46 33
4.516297e+000 1.389761e+000 -1.020491e+001 113 80 49
2.519711e+000 1.229894e+000 -9.232432e+000 20 9 13
4.868615e+000 9.813981e-001 -9.944342e+000 108 59 25
4.813870e+000 6.879019e-001 -9.609248e+000 138 102 70
3.777824e+000 5.733707e-001 -9.169709e+000 13 50 69
5.104930e+000 -1.891820e+000 -9.607079e+000 41 35 36
5.251243e+000 -1.749759e+000 -9.464510e+000 32 27 23
6.036208e+000 5.454938e-001 -7.392209e+000 45 31 31
6.043127e+000 3.121120e-001 -7.323470e+000 114 92 78
1.376554e+000 1.840209e+000 -9.961046e+000 95 43 32
2.012659e+000 1.835316e+000 -9.947853e+000 16 40 51
3.852675e+000 1.938017e+000 -1.090286e+001 45 17 15
8.225442e-001 1.170530e+000 -8.577386e+000 122 106 72
-2.062780e+000 6.827665e-001 -7.605785e+000 135 111 75
2.706267e+000 6.337135e-001 -8.777245e+000 69 28 28
5.691793e+000 -3.783869e+000 -8.611693e+000 129 108 80
-1.979401e+000 9.795164e-001 -7.708795e+000 154 130 91
-9.651175e-001 1.114469e+000 -7.994284e+000 33 62 60
-2.468556e-001 1.134219e+000 -8.195034e+000 25 36 19
1.792219e+000 1.069636e+000 -8.816317e+000 133 95 48
1.792219e+000 1.069636e+000 -8.816317e+000 133 95 48
-3.280817e-001 6.415107e-001 -7.636596e+000 126 113 68
1.346015e+000 5.698560e-001 -8.286732e+000 115 11 18
1.346015e+000 5.698560e-001 -8.286732e+000 115 11 18
-2.080705e+000 1.128392e+000 -7.881863e+000 156 133 91
-1.208083e+000 1.196787e+000 -7.875406e+000 124 26 25
3.722398e+000 1.784509e+000 -1.178548e+001 28 22 26
-1.047958e+000 1.444074e+000 -9.624350e+000 92 88 53
-1.047958e+000 1.444074e+000 -9.624350e+000 92 88 53
-1.672090e+000 1.570659e+000 -9.176457e+000 98 30 20
-1.493548e+000 1.541005e+000 -9.277163e+000 103 96 43
-1.493548e+000 1.541005e+000 -9.277163e+000 103 96 43
3.409533e-001 1.611886e+000 -1.004816e+001 121 70 51
4.903475e-001 1.633552e+000 -1.007083e+001 95 49 32
8.073654e-001 1.838308e+000 -9.926923e+000 103 50 32
9.245633e-001 1.842737e+000 -9.901891e+000 86 22 13
4.158448e+000 1.738548e+000 -1.151053e+001 70 58 46
9.106437e-001 1.789431e+000 -9.515458e+000 123 32 29
2.085325e+000 1.858872e+000 -1.002357e+001 17 41 57
2.170754e+000 1.769189e+000 -9.893141e+000 50 73 76
2.185195e+000 1.741929e+000 -9.724741e+000 55 77 73
2.923579e+000 1.811764e+000 -9.980348e+000 133 89 50
-8.518099e-001 1.475000e+000 -8.405793e+000 13 33 18
1.291443e+000 1.610566e+000 -9.276310e+000 134 124 82
-2.112589e+000 9.397399e-001 -7.769295e+000 178 156 113
-2.042652e+000 1.094531e+000 -7.785540e+000 172 154 104
-9.118960e-001 1.272904e+000 -8.115924e+000 124 122 24
1.568615e+000 1.202826e+000 -8.889762e+000 24 54 75
-1.938524e+000 8.679435e-001 -7.581863e+000 178 159 119
-1.131159e+000 1.051173e+000 -7.802745e+000 158 126 85
1.170365e+000 1.071919e+000 -8.597892e+000 160 123 87
2.136952e+000 1.133315e+000 -9.032071e+000 57 37 39
2.152874e+000 1.149928e+000 -8.964862e+000 51 30 29
2.205585e+000 1.072364e+000 -8.955162e+000 69 47 50
2.798443e+000 1.438214e+000 -8.960906e+000 87 66 61
-5.969092e-001 6.665565e-001 -7.918108e+000 129 119 19
1.925150e+000 1.038056e+000 -8.785986e+000 121 76 74
2.046576e+000 9.223217e-001 -8.819626e+000 120 67 62
2.254995e+000 9.959541e-001 -8.872696e+000 48 20 17
-1.027890e+000 8.399259e-001 -7.596591e+000 146 118 70
2.220301e+000 8.136961e-001 -8.697777e+000 124 93 89
4.107739e+000 7.722982e-001 -9.349106e+000 148 75 33
2.284407e+000 6.216650e-001 -8.632597e+000 75 31 28
-8.113273e-001 6.245324e-001 -7.381851e+000 142 134 89
-1.122857e+000 1.597727e+000 -9.404617e+000 85 81 33
3.610913e-002 1.690077e+000 -9.778160e+000 82 18 18
8.441932e-001 1.692568e+000 -1.008849e+001 104 83 59
2.132259e+000 1.813997e+000 -9.966100e+000 48 68 68
4.427494e+000 1.989354e+000 -1.110469e+001 63 15 11
3.191759e+000 1.755344e+000 -1.026571e+001 122 80 42
3.371577e+000 1.864983e+000 -1.040314e+001 123 77 42
2.109009e+000 1.779814e+000 -9.661408e+000 17 45 58
1.370606e+000 1.523973e+000 -9.165565e+000 24 55 80
2.776869e+000 1.361263e+000 -9.818728e+000 136 102 75
-1.187521e+000 1.323507e+000 -7.930685e+000 140 27 31
9.566415e-001 1.140851e+000 -8.967767e+000 137 127 89
2.173455e+000 1.058056e+000 -8.939908e+000 68 44 54
2.194567e+000 1.021404e+000 -8.910749e+000 68 48 48
2.155261e+000 1.085078e+000 -8.869736e+000 68 48 48
3.580854e+000 9.705119e-001 -9.324030e+000 142 104 57
2.056310e+000 7.793712e-001 -8.610251e+000 71 17 16
2.103004e+000 6.472808e-001 -8.596543e+000 74 21 15
2.525325e+000 5.704175e-001 -8.685114e+000 63 28 34
3.091929e+000 4.005535e-001 -8.864315e+000 124 78 27
3.640773e+000 4.903197e-001 -9.081364e+000 16 59 82
-6.234534e-001 6.092955e-001 -7.478849e+000 131 122 32
-6.337359e-001 6.550149e-001 -7.459308e+000 131 122 32
-9.526334e-001 1.478343e+000 -9.628487e+000 86 87 54
1.181714e+000 1.523233e+000 -1.054764e+001 79 20 15
3.165252e+000 1.925888e+000 -1.060056e+001 81 43 22
-2.731855e+000 3.707567e-001 -8.833876e+000 123 104 81
5.124691e-001 1.806111e+000 -9.170611e+000 131 115 81
2.307833e+000 1.859693e+000 -9.831614e+000 133 97 47
2.400012e+000 1.790998e+000 -9.714374e+000 128 28 33
-2.056558e+000 1.002339e+000 -7.749649e+000 171 153 108
-1.763689e+000 1.182894e+000 -7.769473e+000 88 91 70
3.038693e+000 1.162838e+000 -9.328654e+000 86 65 62
3.130467e+000 1.130786e+000 -9.412084e+000 57 40 44
-2.375141e+000 -1.863058e-002 -7.655890e+000 171 55 42
-9.882360e-001 8.016446e-001 -7.530090e+000 142 30 27
-9.871728e-001 7.954308e-001 -7.532564e+000 142 30 27
7.357822e-001 9.168614e-001 -8.106062e+000 139 130 91
3.229797e+000 7.751474e-001 -9.036024e+000 66 41 37
3.872180e+000 6.975943e-001 -9.325600e+000 140 97 62
4.893972e+000 8.337393e-001 -9.598560e+000 117 55 34
5.934344e+000 -1.027633e-001 -7.863015e+000 126 110 96
8.517110e-001 1.703503e+000 -1.014251e+001 70 16 14
4.396229e+000 1.908599e+000 -1.135468e+001 118 68 33
9.194661e-001 1.799152e+000 -9.585781e+000 117 23 21
3.583920e+000 1.913137e+000 -1.066834e+001 95 61 24
-1.288671e+000 1.120922e+000 -7.883257e+000 133 27 24
2.749210e+000 7.786253e-001 -8.872745e+000 61 24 18
5.188667e+000 9.197255e-002 -9.686986e+000 30 21 22
-5.070021e-001 1.423269e+000 -9.876764e+000 98 89 69
-1.616680e+000 1.525306e+000 -9.204642e+000 112 98 69
-1.184225e+000 1.589621e+000 -9.367328e+000 30 34 14
-1.180219e+000 1.575152e+000 -9.379121e+000 30 34 14
1.283821e+000 1.287631e+000 -1.084661e+001 100 81 59
-1.524588e+000 1.484789e+000 -8.161704e+000 28 61 68
1.529816e+000 1.440115e+000 -9.492643e+000 22 36 55
6.327958e-001 1.574669e+000 -9.022218e+000 142 105 83
-2.008800e+000 8.708313e-001 -7.616527e+000 178 156 110
4.699611e+000 1.278388e+000 -1.010940e+001 133 78 44
2.332845e+000 1.083452e+000 -9.043486e+000 50 32 32
2.320632e+000 1.087841e+000 -8.845575e+000 77 58 64
-8.925798e-001 6.920669e-001 -7.457025e+000 139 25 28
4.807670e+000 2.842795e-001 -9.476372e+000 33 22 26
8.899300e-001 1.510413e+000 -1.046730e+001 118 75 58
1.202901e+000 1.697473e+000 -1.029994e+001 81 19 20
1.160115e+000 1.795190e+000 -1.009695e+001 101 60 39
1.160115e+000 1.795190e+000 -1.009695e+001 101 60 39
1.375499e+000 1.838590e+000 -9.962293e+000 119 62 50
-1.755958e+000 1.353858e+000 -7.923523e+000 114 109 89
4.209136e-001 1.411447e+000 -8.709641e+000 141 119 86
4.213824e-001 1.428134e+000 -8.702660e+000 141 119 86
7.094736e-001 1.411652e+000 -8.840126e+000 139 118 83
-3.529705e-001 1.218474e+000 -8.274838e+000 142 134 59
-3.529705e-001 1.218474e+000 -8.274838e+000 142 134 59
5.267816e-001 1.201983e+000 -8.431707e+000 132 119 84
5.267816e-001 1.201983e+000 -8.431707e+000 132 119 84
5.008193e-001 1.100848e+000 -8.389079e+000 142 32 29
-6.240321e-001 9.221376e-001 -7.831197e+000 134 124 68
-5.541858e-001 9.803031e-001 -7.854664e+000 27 42 23
2.303627e+000 1.274382e+000 -1.115020e+001 63 29 19
8.828228e-001 1.752671e+000 -9.453315e+000 128 113 82
4.433536e-001 1.420972e+000 -8.716593e+000 138 121 85
8.250351e-002 1.289400e+000 -8.386035e+000 31 44 26
4.685793e+000 1.202923e+000 -9.986882e+000 128 79 34
2.115299e+000 1.890198e+000 -1.012122e+001 104 73 43
-1.154725e+000 1.416374e+000 -8.269318e+000 86 97 89
2.833513e+000 1.043418e+000 -9.096080e+000 119 93 70
-9.995383e-001 7.049607e-001 -7.419828e+000 159 115 78
1.765810e+000 6.156255e-001 -8.454866e+000 17 57 82
2.485300e+000 1.758521e+000 -1.001293e+001 131 96 55
3.603684e+000 1.794506e+000 -1.045569e+001 32 17 17
2.797893e+000 1.676910e+000 -9.966183e+000 112 48 36
2.797893e+000 1.676910e+000 -9.966183e+000 112 48 36
-3.281582e-001 1.088192e+000 -8.104293e+000 140 125 84
1.100590e+000 7.579315e-001 -8.286683e+000 145 130 91
1.724790e+000 6.231573e-001 -8.441429e+000 17 58 80
3.354680e+000 1.824455e+000 -1.105901e+001 89 58 37
3.563153e+000 1.947225e+000 -1.061599e+001 98 64 27
2.139848e+000 1.989992e-001 -8.584682e+000 158 123 70
3.307776e+000 4.197327e-001 -1.264382e+001 37 31 31
1.956282e+000 1.742840e+000 -1.026155e+001 67 12 21
4.795607e+000 5.389743e-001 -9.648610e+000 142 62 38
-2.778607e+001 -3.949027e+001 -5.822978e+001 175 156 149
-2.868058e+001 -4.310876e+001 -6.163297e+001 159 144 145
-2.857626e+001 -4.165737e+001 -6.009117e+001 66 60 112
-2.023399e+001 -4.847355e+001 -5.041347e+001 118 181 227
-2.424748e+001 -4.691689e+001 -5.520829e+001 124 104 95
-2.264996e+001 -4.619297e+001 -5.447267e+001 247 254 252
-1.889446e+001 -4.927172e+001 -5.081162e+001 212 255 254
-2.350886e+001 -5.095442e+001 -4.757008e+001 253 255 255
-1.795381e+001 -4.880427e+001 -4.866917e+001 33 34 64
-1.993691e+001 -4.774604e+001 -5.046468e+001 209 255 255
-2.260939e+001 -4.609550e+001 -5.437958e+001 250 254 255
-2.109848e+001 -6.867660e+001 -3.837565e+001 157 124 80
-2.420705e+001 -5.687842e+001 -5.179336e+001 119 103 97
-8.034929e+000 -6.999737e+001 -3.804239e+001 130 106 60
-7.964881e+000 -6.922244e+001 -3.661272e+001 145 114 68
-7.780998e+000 -7.230667e+001 -3.848367e+001 167 140 93
-7.590114e+000 -6.932973e+001 -3.545953e+001 144 116 68
-7.754262e+000 -6.739685e+001 -3.902277e+001 82 62 29
-7.620316e+000 -7.050968e+001 -3.908418e+001 73 55 25
-6.891202e+000 -7.264195e+001 -3.701407e+001 132 104 65
-2.901495e+000 -4.482768e+001 -2.749808e+001 123 106 77
-8.719257e+000 -6.546880e+001 -4.092533e+001 57 44 27
2.744454e+000 1.581885e+000 -9.755695e+000 77 46 28
2.095684e+000 1.197911e+000 -9.043870e+000 53 37 31
-1.146128e+000 9.187646e-001 -7.673572e+000 111 33 19
1.320507e+000 1.152803e+000 -8.740229e+000 99 18 15
4.380609e+000 1.922177e+000 -1.141337e+001 22 10 11
-1.141591e+000 1.078326e+000 -7.848985e+000 133 96 54
2.178677e+000 1.244306e+000 -9.143119e+000 62 44 40
2.145867e+000 1.119270e+000 -8.980724e+000 53 35 33
1.587507e+000 9.851317e-001 -8.644427e+000 91 98 83
1.587507e+000 9.851317e-001 -8.644427e+000 91 98 83
-1.009239e+000 7.640459e-001 -7.506238e+000 139 102 60
