ply
format ascii 1.0
element face 0
property list uchar int vertex_indices
element vertex 877
property float x
property float y
property float z
property uchar diffuse_red
property uchar diffuse_green
property uchar diffuse_blue
end_header
2.640696e+000 1.103627e+000 -9.184822e+000 138 113 93
6.341951e-001 1.382396e+000 -1.062298e+001 113 54 54
-1.184402e+000 1.486118e+000 -9.606029e+000 106 102 75
-1.184402e+000 1.486118e+000 -9.606029e+000 106 102 75
-9.630918e-001 1.451435e+000 -9.686246e+000 77 82 78
-9.630918e-001 1.451435e+000 -9.686246e+000 77 82 78
6.569630e-001 1.633743e+000 -1.041160e+001 85 20 21
-1.531599e+000 1.641975e+000 -9.272048e+000 23 36 30
1.240967e+000 1.664083e+000 -1.033241e+001 91 18 26
2.036678e+000 1.602047e+000 -9.639264e+000 109 22 28
-2.378382e-001 8.779298e-001 -7.867838e+000 163 149 118
-2.378382e-001 8.779298e-001 -7.867838e+000 163 149 118
-6.211290e-002 7.863007e-001 -7.893856e+000 38 66 43
2.292735e-001 7.584100e-001 -7.985815e+000 30 52 29
3.065188e+000 7.271913e-001 -9.006504e+000 84 43 48
3.204803e+000 5.981502e-001 -1.212080e+001 93 63 55
5.520737e-001 9.742229e-001 -1.077319e+001 133 122 128
4.123466e-001 1.198803e+000 -1.051452e+001 107 50 41
9.590951e-001 1.419777e+000 -1.054845e+001 131 99 76
3.970839e+000 1.517755e+000 -1.042139e+001 146 112 77
-3.154709e-001 1.109696e+000 -8.168559e+000 165 153 114
2.578663e+000 9.127755e-001 -8.989991e+000 148 117 104
3.943549e+000 1.814763e+000 -1.128247e+001 21 31 23
-1.866049e+000 1.032211e+000 -9.696579e+000 144 89 80
-1.873675e+000 1.493167e+000 -9.452634e+000 143 93 72
4.419006e+000 1.784718e+000 -1.092933e+001 132 99 68
-1.347884e+000 1.434811e+000 -8.242314e+000 22 82 111
-2.582332e-001 1.432971e+000 -9.898041e+000 100 94 79
1.925863e+000 1.748709e+000 -1.022566e+001 87 14 29
2.071301e+000 1.370658e+000 -1.093726e+001 85 40 37
4.201339e+000 1.700058e+000 -1.068343e+001 143 106 77
3.324830e-001 1.597946e+000 -8.827862e+000 162 34 35
2.649024e+000 5.030240e-001 -8.735328e+000 160 115 68
1.564671e+000 3.076250e-001 -8.023430e+000 164 99 72
1.029387e+000 4.151864e-002 -8.105912e+000 114 144 155
1.762086e-002 -8.191130e-002 -7.827055e+000 150 154 132
4.031605e+000 -8.509428e-002 -9.452056e+000 191 96 51
2.633376e+000 -3.122420e-001 -9.042762e+000 201 75 79
3.208863e+000 -4.091119e-001 -9.376630e+000 118 66 51
3.870360e+000 -3.690684e-001 -9.641905e+000 170 84 50
3.954834e+000 -3.559246e-001 -9.636361e+000 178 91 59
2.663537e+000 -5.547610e-001 -9.273852e+000 193 75 77
2.724877e+000 -4.572714e-001 -9.211345e+000 164 37 45
2.977315e+000 -4.282538e-001 -9.270983e+000 168 51 62
2.931091e+000 -4.810833e-001 -9.301874e+000 189 72 81
3.728337e+000 -4.733170e-001 -9.656924e+000 144 47 17
-1.099195e+000 -5.827310e-001 -7.744573e+000 189 35 45
-1.099195e+000 -5.827310e-001 -7.744573e+000 189 35 45
6.745068e-001 -5.832520e-001 -8.441745e+000 158 36 41
2.887729e+000 -6.047392e-001 -9.404219e+000 186 61 76
3.419838e+000 -8.117957e-001 -9.922598e+000 143 105 86
3.741812e+000 -6.927221e-001 -9.915859e+000 171 134 107
3.839742e+000 -6.755094e-001 -9.920585e+000 172 138 110
-1.069868e+000 -7.848731e-001 -7.946541e+000 203 148 129
-7.122833e-001 -7.557756e-001 -8.058774e+000 159 164 40
2.291531e+000 -9.460315e-001 -9.526683e+000 184 113 103
-1.082519e+000 -9.786017e-001 -8.270046e+000 63 106 145
1.007559e+000 -1.079002e+000 -9.233089e+000 141 89 94
2.186909e+000 -9.960184e-001 -9.562550e+000 184 126 118
-1.050670e+000 -9.953878e-001 -8.207207e+000 122 135 84
-1.984699e+000 1.142373e+000 -7.862570e+000 195 173 149
2.580979e+000 4.504323e-001 -8.697445e+000 162 114 86
2.820293e+000 5.075858e-001 -8.805324e+000 161 120 65
4.708488e+000 6.486780e-001 -9.575513e+000 164 58 75
2.827045e+000 3.826744e-001 -8.797795e+000 87 32 43
3.363196e+000 3.905313e-001 -8.990526e+000 171 119 81
1.064187e+000 6.541252e-002 -8.153262e+000 21 88 131
2.591717e+000 -9.516248e-003 -8.803999e+000 185 137 110
-2.345960e+000 -1.878388e-001 -7.955431e+000 181 158 135
2.405029e+000 -9.492078e-002 -8.803369e+000 196 142 116
3.006608e+000 -1.363790e-001 -9.061914e+000 201 86 88
3.006608e+000 -1.363790e-001 -9.061914e+000 201 86 88
4.324728e+000 -1.496972e-001 -9.628032e+000 188 168 144
1.766640e+000 -2.348756e-001 -8.638186e+000 195 128 101
2.637509e+000 -5.131427e-001 -9.210275e+000 159 31 45
3.022119e+000 -5.378023e-001 -9.362765e+000 161 36 49
3.624455e+000 -5.256928e-001 -9.652559e+000 150 45 25
3.924935e+000 -4.859095e-001 -9.769682e+000 179 102 60
-8.806925e-002 -5.800305e-001 -8.132161e+000 163 167 26
2.479555e+000 -6.777813e-001 -9.319003e+000 157 37 43
3.316660e+000 -6.314463e-001 -9.610995e+000 196 134 116
-1.162670e+000 -6.719607e-001 -7.798992e+000 175 21 49
-6.057960e-001 -7.835557e-001 -8.129861e+000 23 58 43
-6.057960e-001 -7.835557e-001 -8.129861e+000 23 58 43
1.979816e+000 -9.000302e-001 -9.373640e+000 140 82 70
-1.280290e+000 -9.587274e-001 -8.117083e+000 169 49 59
-2.444171e-001 -9.554244e-001 -8.513660e+000 160 160 43
4.155683e-001 6.763198e-001 -7.947928e+000 172 159 62
3.022055e+000 4.664056e-001 -8.863503e+000 117 63 25
5.036826e+000 6.285094e-001 -9.695653e+000 160 73 47
2.649326e+000 -1.769317e-002 -8.857673e+000 158 23 34
2.667550e+000 -1.505542e-001 -8.918568e+000 186 68 72
1.504456e+000 -2.145778e-001 -8.517046e+000 169 110 106
-4.077454e-001 -4.225578e-001 -7.882576e+000 63 107 125
2.892177e-001 -6.463895e-001 -8.347828e+000 166 164 144
3.004559e-001 -6.479408e-001 -8.344841e+000 166 164 144
2.465955e+000 8.800801e-001 -8.895814e+000 78 35 45
4.993575e-001 -1.073177e+000 -9.012179e+000 189 128 119
-2.713873e+001 1.290123e+001 -7.654293e+001 23 16 24
3.064486e+000 -2.898431e-001 -9.184977e+000 171 35 49
7.295916e-001 -5.380066e-001 -8.469915e+000 205 150 124
-9.611874e-001 -7.797462e-001 -8.010766e+000 23 90 148
-4.699007e+001 5.098428e+000 -9.118649e+001 59 47 50
4.899653e+000 2.573605e-001 -9.587658e+000 49 11 9
3.558364e+000 4.280995e-001 -9.057936e+000 157 113 88
2.066388e+000 -6.411715e-001 -9.072595e+000 134 71 62
3.631882e+000 1.407961e-001 -1.069444e+001 157 21 35
3.631882e+000 1.407961e-001 -1.069444e+001 157 21 35
4.355339e-001 -5.312729e-001 -8.316543e+000 172 160 144
1.125745e+000 -6.943924e-001 -8.761738e+000 188 131 111
2.582511e+000 4.380471e-001 -8.719421e+000 177 131 83
3.088718e+000 4.598449e-001 -8.875215e+000 181 135 72
3.806924e+000 -3.953268e-003 -9.285840e+000 200 84 37
-4.647158e-001 -4.796984e-001 -7.917204e+000 30 59 39
-4.684143e+001 5.989330e+000 -9.352535e+001 86 65 68
-3.311740e+001 5.261952e+000 -9.927126e+001 111 97 84
-3.170013e+001 1.033217e+001 -9.342478e+001 68 56 56
-4.703116e+001 7.069492e+000 -9.192150e+001 133 91 81
-3.891259e+001 7.686358e+000 -9.179693e+001 84 41 36
-3.583027e+001 8.438443e+000 -9.478187e+001 41 28 25
-3.497200e+001 9.136309e+000 -9.399945e+001 53 44 45
-3.334470e+001 4.591446e+000 -1.009987e+002 38 27 22
-3.327351e+001 4.586207e+000 -1.007947e+002 38 27 22
-3.235039e+001 5.272437e+000 -9.988392e+001 118 102 90
7.255675e-001 -1.729137e-001 -8.066508e+000 157 22 36
-3.309630e+001 8.638758e+000 -9.382728e+001 104 90 90
-3.399463e+001 7.535197e+000 -9.628926e+001 113 94 93
-3.766493e+001 5.532584e+000 -9.837922e+001 84 80 94
-3.214451e+001 6.075246e+000 -9.563581e+001 48 38 36
-3.123525e+001 1.098796e+001 -9.362474e+001 38 33 36
-3.244307e+001 9.108484e+000 -9.545086e+001 51 37 36
-3.181812e+001 8.051580e+000 -9.745091e+001 74 61 61
-3.642075e+001 7.245812e+000 -9.610977e+001 145 53 53
-3.642724e+001 4.924797e+000 -9.918440e+001 30 19 24
-3.209404e+001 6.062000e+000 -9.548563e+001 49 37 36
-8.485041e+000 -9.794902e+001 -1.522500e+001 141 113 81
-1.156556e+000 1.429235e+000 -8.440205e+000 37 57 17
-2.067349e-001 1.048558e+000 -8.206290e+000 45 55 39
1.353710e-001 7.805297e-001 -7.933665e+000 160 161 23
2.131304e+000 1.051587e+000 -8.946610e+000 116 83 88
2.281387e+000 1.052155e+000 -8.994398e+000 122 97 101
-1.066856e+000 6.022368e-001 -7.352040e+000 190 148 126
2.515746e+000 8.529764e-001 -8.906826e+000 81 40 42
3.076774e+000 8.675907e-001 -9.161810e+000 67 27 34
3.417355e+000 9.026604e-001 -9.255230e+000 30 27 38
-2.010287e+000 5.603456e-001 -7.618446e+000 199 176 142
2.200756e+000 5.598246e-001 -8.577147e+000 168 129 89
2.787031e+000 5.268749e-001 -8.806682e+000 165 125 74
3.169598e+000 6.098327e-001 -8.951949e+000 67 38 43
3.502768e+000 5.484404e-001 -9.055477e+000 30 24 51
3.502768e+000 5.484404e-001 -9.055477e+000 30 24 51
3.676584e+000 6.794362e-001 -9.174218e+000 140 149 126
3.095985e+000 4.278378e-001 -8.841193e+000 162 126 75
3.740685e+000 4.742169e-001 -9.029049e+000 159 127 85
4.983289e+000 4.315825e-001 -9.400206e+000 200 98 56
4.926381e+000 2.704882e-001 -9.574404e+000 160 77 56
9.179973e-001 6.864214e-002 -8.115813e+000 26 37 71
4.396935e+000 1.546112e-001 -9.433467e+000 38 12 16
4.455191e+000 1.267783e-001 -9.480683e+000 46 21 24
4.821699e+000 1.784464e-001 -9.533248e+000 59 19 32
8.342007e-001 -9.903744e-002 -8.159330e+000 185 143 120
1.431985e+000 -8.068822e-002 -8.389575e+000 77 34 28
2.824874e+000 -8.877367e-002 -9.026600e+000 136 21 34
2.871506e+000 -8.794758e-002 -8.941640e+000 141 17 35
3.806904e+000 1.445323e-002 -9.284664e+000 182 75 50
3.896739e+000 -6.902313e-002 -9.336776e+000 117 36 30
3.943431e+000 -8.070335e-002 -9.396619e+000 153 74 53
3.987618e+000 -7.131326e-002 -9.411425e+000 112 36 21
4.442749e+000 -2.991032e-002 -9.540898e+000 167 145 131
4.442749e+000 -2.991032e-002 -9.540898e+000 167 145 131
4.657854e+000 -3.383976e-002 -9.534427e+000 156 96 59
4.893779e+000 5.848329e-002 -9.735161e+000 50 9 13
-2.459469e-001 -2.811879e-001 -7.855302e+000 161 156 53
8.008684e-001 -2.826568e-001 -8.270807e+000 181 139 109
9.649847e-001 -2.010670e-001 -8.267521e+000 10 59 99
1.294762e+000 -2.400146e-001 -8.425876e+000 167 105 95
1.506773e+000 -1.810331e-001 -8.484029e+000 176 119 99
2.988911e+000 -2.018181e-001 -9.076071e+000 182 69 77
3.729137e+000 -2.303849e-001 -9.422506e+000 171 109 51
3.885786e+000 -1.309254e-001 -9.422343e+000 101 22 1
3.855278e+000 -2.476371e-001 -9.500404e+000 99 36 3
3.860251e+000 -2.460875e-001 -9.504433e+000 99 36 3
3.901090e+000 -2.291558e-001 -9.518023e+000 186 132 86
3.893178e+000 -2.333752e-001 -9.497911e+000 186 132 86
4.034807e+000 -1.888760e-001 -9.532281e+000 97 27 8
4.293066e+000 -1.768615e-001 -9.648271e+000 61 38 37
4.314536e+000 -2.394194e-001 -9.663657e+000 33 14 12
4.304369e+000 -2.513633e-001 -9.710155e+000 161 140 131
4.356565e+000 -1.170294e-001 -9.491763e+000 100 77 69
4.356565e+000 -1.170294e-001 -9.491763e+000 100 77 69
4.386687e+000 -2.090830e-001 -9.607707e+000 171 151 133
4.745344e+000 -8.413867e-002 -9.819011e+000 157 89 51
-5.188010e-001 -4.042581e-001 -7.870736e+000 151 152 10
-5.207628e-001 -4.098464e-001 -7.835856e+000 151 152 10
2.954861e+000 -3.249167e-001 -9.143295e+000 189 74 84
3.320423e+000 -4.201929e-001 -9.367974e+000 183 134 109
3.777315e+000 -4.111119e-001 -9.618166e+000 172 76 51
3.965970e+000 -3.046390e-001 -9.596204e+000 182 123 63
3.949965e+000 -3.896428e-001 -9.437970e+000 160 69 30
4.139232e+000 -4.066184e-001 -9.778086e+000 121 105 85
4.191967e+000 -4.036853e-001 -9.798144e+000 126 106 99
-1.162254e+000 -5.583405e-001 -7.704421e+000 169 152 123
-9.355552e-001 -4.590746e-001 -7.708654e+000 146 154 35
-3.611919e-001 -5.507783e-001 -8.053258e+000 150 155 28
-1.084471e-001 -4.964628e-001 -8.107268e+000 148 149 46
2.577634e-001 -5.139372e-001 -8.224196e+000 148 150 119
2.343034e-001 -5.336979e-001 -8.230429e+000 137 20 45
3.264852e-001 -5.338826e-001 -8.259884e+000 107 27 34
3.477179e-001 -5.801967e-001 -8.317889e+000 161 141 129
7.249998e-001 -4.576805e-001 -8.371550e+000 175 143 115
7.388091e-001 -4.819056e-001 -8.393919e+000 159 24 37
7.387998e-001 -4.820093e-001 -8.393678e+000 159 24 37
8.914349e-001 -5.450859e-001 -8.507759e+000 12 42 77
2.659230e+000 -4.870170e-001 -9.193179e+000 185 79 89
2.754044e+000 -4.838341e-001 -9.235375e+000 184 71 77
3.322780e+000 -4.431297e-001 -9.427797e+000 119 75 57
3.677830e+000 -4.598100e-001 -9.584978e+000 173 69 54
3.678966e+000 -4.893532e-001 -9.634616e+000 177 67 61
3.678966e+000 -4.893532e-001 -9.634616e+000 177 67 61
4.034058e+000 -4.329928e-001 -9.745181e+000 142 60 23
4.082078e+000 -4.761629e-001 -9.845641e+000 167 131 103
4.679641e+000 -4.092091e-001 -1.012740e+001 154 113 99
-1.162337e+000 -6.365098e-001 -7.775500e+000 170 28 40
-1.073665e+000 -6.317740e-001 -7.788550e+000 169 33 28
-1.073546e+000 -6.302344e-001 -7.794708e+000 169 33 28
-1.058775e+000 -6.510168e-001 -7.806364e+000 189 151 114
-1.060596e+000 -6.498577e-001 -7.810915e+000 189 151 114
-9.253505e-001 -5.864813e-001 -7.784326e+000 8 76 127
-3.068796e-001 -6.633244e-001 -8.108692e+000 150 150 40
-3.068796e-001 -6.633244e-001 -8.108692e+000 150 150 40
1.950321e-001 -6.852985e-001 -8.344813e+000 112 26 40
2.186256e-001 -6.103751e-001 -8.279403e+000 118 22 41
3.117383e-001 -6.086195e-001 -8.309660e+000 111 25 33
2.529715e-001 -6.846547e-001 -8.364512e+000 122 33 47
1.925284e+000 -6.309253e-001 -9.017591e+000 181 124 106
1.923492e+000 -6.321969e-001 -9.008155e+000 181 124 106
2.382555e+000 -6.693822e-001 -9.217670e+000 111 55 57
2.425664e+000 -6.877211e-001 -9.282814e+000 179 107 101
2.631795e+000 -6.058530e-001 -9.267610e+000 186 76 79
2.576630e+000 -6.558647e-001 -9.314632e+000 147 31 39
2.523180e+000 -7.396393e-001 -9.406443e+000 145 25 37
2.850093e+000 -7.155321e-001 -9.522509e+000 177 71 75
2.882215e+000 -6.106829e-001 -9.384297e+000 186 71 76
2.904981e+000 -6.414542e-001 -9.434696e+000 142 20 33
3.270448e+000 -5.989947e-001 -9.572716e+000 97 43 41
3.268119e+000 -5.994022e-001 -9.567951e+000 97 43 41
3.547748e+000 -6.324785e-001 -9.734397e+000 171 134 97
3.621427e+000 -6.359463e-001 -9.774479e+000 167 128 100
3.574747e+000 -7.379630e-001 -9.858832e+000 163 131 106
3.739982e+000 -7.248501e-001 -9.931338e+000 158 128 108
3.806437e+000 -5.980097e-001 -9.852043e+000 165 127 98
3.874189e+000 -6.295823e-001 -9.912442e+000 156 127 97
-1.140956e+000 -7.568854e-001 -7.911969e+000 203 156 134
-1.187321e+000 -7.846007e-001 -7.920645e+000 193 149 126
-1.187340e+000 -7.856590e-001 -7.918866e+000 193 149 126
-1.107505e+000 -8.350517e-001 -8.014239e+000 174 46 51
-8.072807e-001 -8.491074e-001 -8.132657e+000 59 92 79
-8.126735e-001 -8.434259e-001 -8.179601e+000 59 92 79
-6.103911e-001 -7.826802e-001 -8.123014e+000 24 49 44
-4.794342e-001 -8.274364e-001 -8.261779e+000 136 152 37
-4.792470e-001 -8.275104e-001 -8.261947e+000 136 152 37
1.663918e-001 -7.498312e-001 -8.425281e+000 124 33 44
1.667848e-001 -7.498598e-001 -8.425553e+000 124 33 44
2.782186e-001 -7.689797e-001 -8.488959e+000 147 142 133
3.375061e-001 -7.317502e-001 -8.496239e+000 148 142 131
1.160052e+000 -7.404573e-001 -8.808037e+000 88 47 45
1.893820e+000 -8.352916e-001 -9.257345e+000 122 68 58
1.894746e+000 -8.342870e-001 -9.260444e+000 122 68 58
2.083242e+000 -8.827912e-001 -9.334206e+000 135 82 78
2.486986e+000 -7.674100e-001 -9.404102e+000 179 70 74
2.430169e+000 -9.005476e-001 -9.560757e+000 190 90 96
2.607534e+000 -7.575209e-001 -9.455511e+000 157 41 54
2.792645e+000 -8.162575e-001 -9.630609e+000 191 78 86
3.469169e+000 -8.248300e-001 -9.929615e+000 157 127 103
3.703551e+000 -8.358135e-001 -1.009525e+001 157 130 101
3.730823e+000 -9.059701e-001 -1.014352e+001 154 130 103
3.787231e+000 -7.902438e-001 -1.004702e+001 161 134 109
3.828660e+000 -8.027497e-001 -9.804133e+000 164 143 123
-1.231678e+000 -8.972036e-001 -8.050336e+000 195 147 123
-1.245694e+000 -9.410688e-001 -8.096677e+000 184 158 122
-1.246190e+000 -9.413138e-001 -8.096363e+000 184 158 122
-1.113210e+000 -8.645499e-001 -8.010078e+000 171 42 54
-1.132687e+000 -8.856011e-001 -8.064035e+000 168 35 47
-4.393572e-001 -8.890153e-001 -8.341363e+000 164 157 46
-4.527807e-001 -9.664695e-001 -8.459748e+000 157 163 11
-4.527807e-001 -9.664695e-001 -8.459748e+000 157 163 11
1.471770e+000 -1.025424e+000 -9.354267e+000 115 64 61
1.472271e+000 -1.025362e+000 -9.355303e+000 115 64 61
2.079921e+000 -9.094311e-001 -9.424829e+000 120 67 60
2.035087e+000 -1.010386e+000 -9.545720e+000 116 61 56
2.268640e+000 -9.644510e-001 -9.586661e+000 124 66 52
2.420751e+000 -9.273236e-001 -9.624687e+000 180 90 89
2.486123e+000 -9.271338e-001 -9.586456e+000 187 76 85
3.030054e+000 -9.951051e-001 -9.934111e+000 188 131 117
3.698062e+000 -9.876358e-001 -1.030751e+001 165 137 113
-1.260023e+000 -9.868753e-001 -8.152674e+000 184 159 133
-1.279321e+000 -1.035951e+000 -8.207855e+000 190 161 137
-1.158660e+000 -1.056085e+000 -8.283341e+000 177 42 44
-1.153281e+000 -1.057833e+000 -8.270071e+000 177 42 44
1.196256e+000 -1.192265e+000 -9.638125e+000 179 72 79
1.340093e+000 -1.052484e+000 -9.321199e+000 113 64 67
1.534477e+000 -1.156756e+000 -9.669749e+000 146 59 65
1.740520e+000 -1.085795e+000 -9.386145e+000 125 72 68
1.740520e+000 -1.085795e+000 -9.386145e+000 125 72 68
-4.730454e-001 1.379623e+000 -8.460112e+000 33 62 32
-7.938597e-003 1.428882e+000 -8.699500e+000 169 163 32
-7.938597e-003 1.428882e+000 -8.699500e+000 169 163 32
2.120291e+000 1.753773e+000 -9.892131e+000 109 136 144
-1.031709e+000 1.019683e+000 -7.943605e+000 194 155 97
1.233705e+000 1.114087e+000 -8.717250e+000 174 114 84
-2.160238e+000 9.571532e-001 -8.034597e+000 193 169 141
-2.100647e+000 9.459339e-001 -7.908672e+000 192 171 144
2.195298e-001 8.765511e-001 -8.113266e+000 32 50 34
5.485141e-001 9.696812e-001 -8.327818e+000 181 40 49
5.485141e-001 9.696812e-001 -8.327818e+000 181 40 49
-2.582839e+000 8.078052e-001 -8.288635e+000 182 35 44
8.793968e-001 7.935942e-001 -8.297499e+000 167 156 124
1.969803e+000 7.543182e-001 -8.569610e+000 87 24 32
2.061184e+000 7.238606e-001 -8.606252e+000 86 25 28
3.323176e+000 9.061618e-001 -9.233411e+000 167 115 87
3.770652e+000 7.741774e-001 -9.276551e+000 164 124 85
2.373455e+000 5.941040e-001 -8.630961e+000 75 31 28
-2.397761e+000 5.467765e-001 -7.989005e+000 196 172 141
3.020927e+000 4.626658e-001 -8.849268e+000 116 62 18
4.700494e+000 5.099866e-001 -9.390951e+000 158 54 46
5.183456e+000 4.961566e-001 -9.690395e+000 39 35 42
9.927156e-001 1.965637e-003 -8.194697e+000 4 56 93
3.198024e+000 9.024359e-002 -8.945236e+000 182 125 95
4.862616e+000 1.905415e-001 -9.741502e+000 178 102 59
2.768279e+000 -1.038160e-001 -8.973106e+000 154 48 55
2.972126e+000 -1.068126e-001 -9.031941e+000 146 28 44
4.468396e+000 -8.200178e-002 -9.638880e+000 171 147 140
1.412679e+000 -1.542091e-001 -8.428665e+000 83 52 41
1.972917e+000 -1.768603e-001 -8.673843e+000 100 63 51
2.184755e+000 -1.988473e-001 -8.755186e+000 111 72 82
2.570812e+000 -1.313302e-001 -8.867481e+000 169 119 94
3.413369e+000 -2.515198e-001 -9.285470e+000 178 124 101
3.825453e+000 -2.206135e-001 -9.467302e+000 178 121 59
4.128140e+000 -1.979681e-001 -9.493031e+000 196 126 70
4.163341e+000 -1.886733e-001 -9.565447e+000 196 126 70
2.951813e+000 -4.198744e-001 -9.286871e+000 177 66 72
3.021782e+000 -3.094579e-001 -9.198951e+000 154 32 43
3.265834e+000 -3.950595e-001 -9.353290e+000 176 128 105
3.559912e-001 -5.501023e-001 -8.298190e+000 157 143 128
2.747107e+000 -4.390740e-001 -9.172974e+000 179 71 81
3.876995e+000 -5.833584e-001 -9.822939e+000 166 128 100
3.872594e+000 -5.818185e-001 -9.817869e+000 166 128 100
3.932786e+000 -4.250635e-001 -9.692149e+000 165 85 46
-1.088103e+000 -6.746713e-001 -7.823142e+000 185 44 52
-1.088103e+000 -6.746713e-001 -7.823142e+000 185 44 52
-1.003960e+000 -6.859146e-001 -7.866523e+000 171 33 44
-7.137166e-001 -6.161930e-001 -7.912094e+000 152 152 53
-6.121220e-001 -6.768561e-001 -8.016131e+000 155 159 35
-3.645905e-002 -6.678816e-001 -8.050776e+000 170 161 53
6.276257e-001 -6.034426e-001 -8.451832e+000 149 16 30
1.395886e+000 -6.793090e-001 -8.848822e+000 104 54 40
1.515176e+000 -6.763546e-001 -8.918802e+000 113 56 50
1.515176e+000 -6.763546e-001 -8.918802e+000 113 56 50
1.684328e+000 -6.920911e-001 -8.983441e+000 174 121 105
1.795262e+000 -6.893535e-001 -9.020705e+000 175 115 97
1.748703e+000 -7.221731e-001 -8.966350e+000 182 116 103
2.348504e+000 -6.496496e-001 -9.171114e+000 182 124 114
2.519234e+000 -6.932465e-001 -9.318857e+000 185 73 82
3.092724e+000 -7.495054e-001 -9.674319e+000 101 47 47
3.096531e+000 -7.477317e-001 -9.687874e+000 101 47 47
3.130621e+000 -6.690343e-001 -9.581420e+000 130 83 69
3.226977e+000 -7.194363e-001 -9.706100e+000 115 59 50
3.789052e+000 -6.588582e-001 -9.913455e+000 157 126 98
3.985220e+000 -7.336348e-001 -1.010084e+001 174 148 121
3.985220e+000 -7.336348e-001 -1.010084e+001 174 148 121
-1.180570e+000 -7.108389e-001 -7.839991e+000 166 29 35
-1.063118e+000 -7.176668e-001 -7.874158e+000 167 49 53
-1.070134e+000 -7.821853e-001 -7.956537e+000 188 161 125
-6.706542e-001 -7.976921e-001 -8.273034e+000 64 98 115
-4.186621e-001 -7.647600e-001 -8.197552e+000 159 159 32
-4.590801e-001 -8.045680e-001 -8.217590e+000 22 53 30
1.541250e-001 -8.067936e-001 -8.491632e+000 117 15 30
1.550675e+000 -8.443598e-001 -9.122086e+000 116 69 60
1.550675e+000 -8.443598e-001 -9.122086e+000 116 69 60
2.825532e+000 -7.526956e-001 -9.554355e+000 172 67 74
2.755347e+000 -8.372756e-001 -9.628685e+000 156 25 39
3.439354e+000 -8.596607e-001 -9.946426e+000 168 137 115
-1.238894e+000 -8.559223e-001 -8.003717e+000 183 36 47
-1.241608e+000 -8.569123e-001 -8.005379e+000 183 36 47
-1.156893e+000 -9.471438e-001 -8.112549e+000 171 43 54
-1.070584e+000 -8.692409e-001 -8.032886e+000 181 39 42
-2.456267e-001 -9.584627e-001 -8.535545e+000 150 154 25
-2.456267e-001 -9.584627e-001 -8.535545e+000 150 154 25
1.252195e+000 -1.004935e+000 -9.211228e+000 138 80 73
1.375770e+000 -9.775678e-001 -9.211355e+000 96 64 60
1.513042e+000 -9.253748e-001 -9.206116e+000 130 80 70
1.486609e+000 -9.875191e-001 -9.288130e+000 113 62 61
1.486609e+000 -9.875191e-001 -9.288130e+000 113 62 61
1.618859e+000 -9.420018e-001 -9.281077e+000 116 65 55
1.618859e+000 -9.420018e-001 -9.281077e+000 116 65 55
1.709668e+000 -9.866825e-001 -9.377406e+000 125 73 65
1.708697e+000 -9.860444e-001 -9.378093e+000 125 73 65
1.817725e+000 -9.942545e-001 -9.447250e+000 115 65 60
1.921028e+000 -1.017436e+000 -9.534704e+000 114 61 51
1.915547e+000 -1.019233e+000 -9.512706e+000 114 61 51
1.985220e+000 -1.057739e+000 -9.512741e+000 131 77 75
1.985220e+000 -1.057739e+000 -9.512741e+000 131 77 75
2.076373e+000 -1.009120e+000 -9.515434e+000 183 129 118
2.184219e+000 -9.776307e-001 -9.685170e+000 126 69 67
2.119182e+000 -1.043634e+000 -9.635814e+000 136 83 77
2.082472e+000 -1.049706e+000 -9.484541e+000 136 83 77
2.192801e+000 -1.027289e+000 -9.683947e+000 186 130 119
2.192801e+000 -1.027289e+000 -9.683947e+000 186 130 119
2.384873e+000 -9.978574e-001 -9.705832e+000 182 95 91
2.826691e+000 -9.433737e-001 -9.670041e+000 152 29 40
-6.137622e-001 -1.045302e+000 -8.507388e+000 162 158 26
-6.130562e-001 -1.045880e+000 -8.507351e+000 162 158 26
1.432171e+000 -1.073962e+000 -9.352499e+000 117 66 63
1.573608e+000 -1.048143e+000 -9.463414e+000 120 67 66
2.149825e+000 -1.111210e+000 -9.790936e+000 189 130 128
4.672295e+000 -2.836085e+000 -1.049842e+001 60 47 54
4.750597e+000 -2.732066e+000 -1.036683e+001 146 129 135
4.653343e+000 -2.972540e+000 -1.059972e+001 144 130 130
-1.731220e+000 1.422833e+000 -8.138229e+000 125 138 140
-8.060653e-001 1.554854e+000 -8.659004e+000 45 59 43
-8.060653e-001 1.554854e+000 -8.659004e+000 45 59 43
6.119542e-001 1.659733e+000 -9.199629e+000 146 110 83
-1.331672e+000 1.286011e+000 -8.197788e+000 170 42 50
-2.091451e+000 1.082998e+000 -8.073653e+000 195 172 141
-9.795583e-001 9.690540e-001 -7.819248e+000 166 41 36
2.265822e+000 1.327640e+000 -9.297919e+000 128 102 97
2.348962e+000 1.432090e+000 -9.476677e+000 88 67 82
2.499475e+000 1.233528e+000 -9.249898e+000 45 19 19
2.516605e+000 1.252357e+000 -9.310645e+000 45 19 19
2.726372e+000 1.441832e+000 -9.584879e+000 117 67 57
2.827286e+000 1.192886e+000 -9.330616e+000 124 95 89
-1.982419e+000 8.475722e-001 -7.707702e+000 195 173 142
1.478975e-001 8.497632e-001 -8.015511e+000 28 58 26
1.022879e+000 8.957915e-001 -8.364046e+000 173 39 43
2.765611e+000 1.021129e+000 -9.115974e+000 147 118 108
3.108813e+000 9.392086e-001 -9.112029e+000 83 54 68
-4.979879e-001 6.790666e-001 -7.645361e+000 73 107 118
1.008809e+000 7.221679e-001 -8.255436e+000 166 157 128
1.933196e+000 8.283157e-001 -8.695926e+000 166 100 67
2.143693e+000 8.019872e-001 -8.666928e+000 82 40 50
2.139086e+000 7.971697e-001 -8.649790e+000 82 40 50
2.141170e+000 7.134964e-001 -8.626056e+000 71 29 37
2.345840e+000 7.195004e-001 -8.661677e+000 106 51 64
2.692651e+000 7.220054e-001 -8.823715e+000 122 93 90
3.216255e+000 7.623391e-001 -9.066545e+000 67 45 52
4.136819e+000 7.625186e-001 -9.519064e+000 128 37 58
4.093755e+000 7.174204e-001 -9.499445e+000 155 121 75
2.586080e+000 4.570683e-001 -8.635038e+000 118 54 18
4.794034e+000 4.814200e-001 -9.561997e+000 190 101 57
4.959933e+000 5.801008e-001 -9.555096e+000 171 75 48
1.242358e+000 6.368400e-002 -8.227502e+000 5 60 100
3.215817e+000 1.457860e-001 -9.093418e+000 146 25 46
4.358728e+000 2.285789e-001 -9.400306e+000 58 37 46
1.387402e+000 -6.012448e-002 -8.363751e+000 170 115 92
1.597967e+000 -1.216037e-001 -8.491770e+000 170 113 94
2.040328e+000 -1.198441e-001 -8.610718e+000 176 122 98
2.015471e+000 -1.410928e-001 -8.610927e+000 173 122 101
1.112751e+000 -1.934229e-001 -8.358618e+000 22 74 118
1.615780e+000 -2.133758e-001 -8.539345e+000 158 105 97
1.924295e+000 -1.706589e-001 -8.625574e+000 176 126 100
1.902318e+000 -1.956904e-001 -8.647919e+000 175 123 102
2.302249e+000 -1.939491e-001 -8.801304e+000 161 116 111
2.556225e+000 -1.868139e-001 -8.720525e+000 138 13 27
3.271590e+000 -1.732811e-001 -9.193785e+000 179 127 95
3.319292e+000 -2.353421e-001 -9.251981e+000 179 128 102
3.319292e+000 -2.353421e-001 -9.251981e+000 179 128 102
4.361824e+000 -9.848254e-002 -9.594606e+000 169 146 130
-1.534111e-001 -3.800369e-001 -7.965036e+000 164 157 34
-1.534111e-001 -3.800369e-001 -7.965036e+000 164 157 34
3.254845e+000 -4.961107e-001 -9.444779e+000 178 123 102
3.250262e+000 -4.992189e-001 -9.433928e+000 178 123 102
8.132621e-001 -7.074610e-001 -8.442719e+000 9 49 92
9.838611e-001 -7.181869e-001 -8.656442e+000 22 82 132
1.265119e+000 -6.144183e-001 -8.690934e+000 179 115 100
1.358213e+000 -6.483668e-001 -8.822171e+000 182 121 108
1.568111e+000 -6.818414e-001 -8.957225e+000 178 118 101
1.563112e+000 -6.875477e-001 -8.924168e+000 178 118 101
1.716524e+000 -7.143431e-001 -9.029171e+000 125 73 63
1.869802e+000 -6.836927e-001 -8.920322e+000 175 118 101
1.938853e+000 -6.144503e-001 -9.008828e+000 177 119 95
2.147371e+000 -6.295657e-001 -9.108537e+000 174 120 102
2.240542e+000 -6.645075e-001 -9.161807e+000 176 120 105
2.240542e+000 -6.645075e-001 -9.161807e+000 176 120 105
3.109544e+000 -7.146954e-001 -9.634188e+000 139 93 81
4.545192e+000 -7.102570e-001 -1.037971e+001 143 123 123
-1.218085e+000 -8.155987e-001 -7.961659e+000 183 41 51
-1.145612e+000 -7.892171e-001 -7.940409e+000 182 39 53
9.019590e-001 -7.408672e-001 -8.718984e+000 20 56 94
3.132369e+000 -8.359499e-001 -9.813776e+000 182 122 112
3.549954e+000 -9.084966e-001 -1.012178e+001 169 133 112
-1.261866e+000 -9.126611e-001 -8.075317e+000 169 35 28
-1.279805e+000 -9.571173e-001 -8.124927e+000 187 46 61
-1.042933e+000 -9.604189e-001 -8.095139e+000 45 96 122
-3.636301e-001 -9.564364e-001 -8.466928e+000 144 160 52
1.298179e+000 -1.040543e+000 -9.379403e+000 178 125 118
1.298179e+000 -1.040543e+000 -9.379403e+000 178 125 118
1.569269e+000 -9.362626e-001 -9.302224e+000 176 119 107
1.651769e+000 -9.904651e-001 -9.373673e+000 179 121 112
1.629297e+000 -1.046846e+000 -9.498445e+000 179 125 119
1.781489e+000 -9.978898e-001 -9.560255e+000 179 121 110
1.782480e+000 -9.982284e-001 -9.549084e+000 179 121 110
1.789632e+000 -9.432953e-001 -9.357903e+000 181 125 110
1.788985e+000 -9.447729e-001 -9.352751e+000 181 125 110
1.864952e+000 -9.962275e-001 -9.430903e+000 187 131 121
1.968893e+000 -1.046923e+000 -9.652629e+000 180 126 114
1.968893e+000 -1.046923e+000 -9.652629e+000 180 126 114
2.010611e+000 -9.963072e-001 -9.671607e+000 182 125 113
3.944695e+000 -9.639488e-001 -1.036930e+001 81 67 57
4.336672e+000 -9.967065e-001 -1.059070e+001 142 131 112
4.415627e+000 -1.075590e+000 -1.081512e+001 178 151 154
-1.319574e+000 -1.056152e+000 -8.223227e+000 172 35 46
1.395223e+000 -1.061275e+000 -9.425721e+000 179 125 115
1.727756e+000 -1.057483e+000 -9.503593e+000 184 127 118
2.289858e+000 -1.108134e+000 -9.870079e+000 162 30 47
2.736356e+000 -1.094265e+000 -1.004551e+001 158 29 51
3.514443e-001 1.464999e+000 -8.869437e+000 176 41 46
2.254761e+000 1.754472e+000 -9.956135e+000 70 90 101
-4.037075e-001 9.701320e-001 -8.045171e+000 170 159 91
-4.037075e-001 9.701320e-001 -8.045171e+000 170 159 91
-1.585514e-001 1.203768e+000 -8.399220e+000 174 160 83
-1.585514e-001 1.203768e+000 -8.399220e+000 174 160 83
9.197111e-001 1.150713e+000 -8.634237e+000 175 47 43
1.101938e+000 1.213854e+000 -8.849522e+000 154 36 48
-1.089005e+000 7.597221e-001 -7.670944e+000 171 42 37
7.940911e-001 7.727400e-001 -8.180139e+000 164 101 89
8.446845e-001 6.191719e-001 -8.077395e+000 143 72 50
9.280247e-001 8.023254e-001 -8.302298e+000 148 84 67
1.841051e+000 8.277822e-001 -8.626295e+000 170 114 84
3.360651e+000 8.805946e-001 -9.210842e+000 32 27 42
3.681478e+000 6.501855e-001 -9.082751e+000 7 58 101
4.970195e+000 1.546162e-001 -9.663280e+000 156 91 58
1.437790e+000 -2.639831e-002 -8.360831e+000 167 119 99
4.378906e+000 4.551497e-002 -9.494866e+000 29 14 23
1.574141e+000 -1.676221e-001 -8.518129e+000 177 114 103
1.964209e+000 -1.910543e-001 -8.671825e+000 66 28 16
1.962963e+000 -1.919282e-001 -8.669735e+000 66 28 16
4.764650e+000 -1.496299e-001 -9.896188e+000 146 84 36
4.838462e+000 -1.505119e-001 -9.923657e+000 131 74 42
-6.680510e-001 -3.605750e-001 -7.739381e+000 88 94 40
3.292168e+000 -2.636487e-001 -9.402354e+000 146 110 99
3.292168e+000 -2.636487e-001 -9.402354e+000 146 110 99
4.014385e+000 -4.165042e-001 -9.736967e+000 157 80 41
-5.213578e-001 -5.709145e-001 -7.943113e+000 38 55 39
1.314812e+000 -5.886396e-001 -8.652357e+000 160 109 106
2.476354e+000 -5.277178e-001 -9.179356e+000 187 127 101
3.258335e+000 -4.492465e-001 -9.399634e+000 184 132 108
3.316625e+000 -5.679956e-001 -9.442558e+000 188 122 103
-4.012373e-001 -5.803268e-001 -8.032566e+000 57 100 122
-2.386146e-002 -6.505278e-001 -8.228242e+000 161 152 114
7.572572e-001 -6.077594e-001 -8.397997e+000 133 24 46
6.802101e-001 -6.867795e-001 -8.547648e+000 194 131 124
3.521279e+000 -5.907879e-001 -9.700373e+000 150 41 48
1.867914e-001 -8.100375e-001 -8.507180e+000 126 51 55
6.681510e-001 -8.580040e-001 -8.709810e+000 119 19 52
2.419135e+000 -8.599801e-001 -9.588781e+000 158 38 55
3.982734e+000 -7.494599e-001 -1.012375e+001 167 148 122
-2.873111e-001 -9.240315e-001 -8.474998e+000 35 61 34
5.848913e-001 -8.973369e-001 -8.768018e+000 169 104 86
-9.581418e-001 -1.045478e+000 -8.344717e+000 128 133 91
2.042649e+000 -1.112533e+000 -9.746879e+000 187 137 132
-1.760229e+000 1.361432e+000 -8.089256e+000 62 92 110
-5.231003e-001 1.664087e+000 -8.817582e+000 150 158 76
-2.404494e-001 1.438033e+000 -8.593005e+000 173 156 96
-2.500330e-001 1.211051e+000 -8.390695e+000 43 63 34
1.599668e+000 1.510389e+000 -9.333168e+000 179 124 87
-2.652321e-001 1.083483e+000 -8.232979e+000 172 163 97
-2.652321e-001 1.083483e+000 -8.232979e+000 172 163 97
1.410913e+000 1.311591e+000 -9.060329e+000 20 83 107
2.694977e+000 1.398899e+000 -9.592532e+000 148 116 103
9.778921e-001 9.818449e-001 -8.458187e+000 178 49 55
9.515885e-001 8.780529e-001 -8.332266e+000 169 151 127
1.500315e+000 1.042185e+000 -8.720291e+000 21 60 105
2.754472e+000 8.117610e-001 -8.931582e+000 94 53 57
3.220553e+000 6.413456e-001 -8.983765e+000 82 58 59
4.555204e+000 7.640672e-001 -9.554347e+000 175 75 75
3.897735e+000 -2.174174e-002 -9.294288e+000 173 65 39
4.055868e+000 -1.614063e-002 -9.383917e+000 172 81 44
7.291564e-001 -1.986480e-001 -8.209941e+000 139 22 38
-3.985883e-001 -7.140345e-001 -8.135534e+000 27 63 46
-3.267294e-001 -6.974551e-001 -8.131797e+000 88 117 54
-7.445085e-001 -8.012059e-001 -8.084959e+000 29 53 39
-5.037843e-001 -8.195243e-001 -8.260325e+000 124 134 36
2.688030e+000 -8.829859e-001 -9.675537e+000 160 30 46
2.694545e+000 -8.770408e-001 -9.692398e+000 160 30 46
-8.830078e-001 -8.620945e-001 -8.179485e+000 23 52 41
-5.311234e-001 -8.736707e-001 -8.315494e+000 134 143 37
-4.913083e-001 -9.258539e-001 -8.391795e+000 29 50 41
5.416165e-001 -1.002709e+000 -8.873998e+000 167 108 92
3.478523e+000 -9.503590e-001 -1.019732e+001 167 135 112
4.679914e+000 -2.690029e+000 -1.029834e+001 38 31 39
-8.187156e-001 1.201785e+000 -8.181539e+000 33 57 35
-5.921416e-001 1.261128e+000 -8.299956e+000 170 160 83
-4.314194e-001 1.221982e+000 -8.351628e+000 39 61 35
-1.500408e-001 1.446059e+000 -8.699751e+000 41 59 34
-1.500408e-001 1.446059e+000 -8.699751e+000 41 59 34
-5.682760e-002 1.382771e+000 -8.653672e+000 169 156 103
5.474607e-002 1.426303e+000 -8.732440e+000 48 62 42
8.894389e-001 1.371160e+000 -8.899531e+000 165 157 123
1.561182e-001 1.186392e+000 -8.443044e+000 48 62 40
-5.263170e-002 7.875419e-001 -7.943444e+000 37 60 36
-5.263170e-002 7.875419e-001 -7.943444e+000 37 60 36
2.837717e-001 8.410538e-001 -8.051547e+000 171 157 123
2.876500e+000 9.703952e-001 -9.111195e+000 140 110 101
3.737872e+000 1.387536e-001 -9.096578e+000 93 20 34
2.933334e+000 -2.049670e-001 -9.185962e+000 154 27 42
3.211726e+000 -1.617652e-001 -9.204250e+000 182 126 97
4.219253e+000 -3.010972e-001 -9.576589e+000 158 71 36
-9.188725e-001 -6.807890e-001 -7.883071e+000 14 71 119
2.787482e+000 -6.179850e-001 -9.340253e+000 163 32 53
-5.699232e-001 -8.182518e-001 -8.139696e+000 25 60 44
-5.702138e-001 -8.176674e-001 -8.145773e+000 25 60 44
-1.194529e+000 -8.772656e-001 -8.048994e+000 192 151 129
-2.038400e-001 -9.186661e-001 -8.550190e+000 133 142 121
-1.227689e+000 -1.004687e+000 -8.188677e+000 176 138 111
-1.048231e+000 -1.080545e+000 -8.367128e+000 34 60 46
-6.657106e-001 -1.003523e+000 -8.402895e+000 22 56 33
2.889990e+000 1.309401e+000 -9.470461e+000 82 58 62
-9.725478e-001 6.992617e-001 -7.466279e+000 162 106 79
-2.065312e-001 8.658302e-001 -7.960488e+000 165 157 119
-6.891872e-001 6.858538e-001 -7.642551e+000 34 52 32
3.265492e+000 9.459330e-001 -9.183620e+000 162 121 93
3.566523e+000 8.552263e-001 -9.260664e+000 23 60 98
3.844692e+000 3.161645e-001 -9.153164e+000 115 25 38
3.844692e+000 3.161645e-001 -9.153164e+000 115 25 38
3.126835e+000 8.809121e-002 -8.942968e+000 147 23 41
3.126835e+000 8.809121e-002 -8.942968e+000 147 23 41
2.646626e+000 -7.060219e-002 -8.861117e+000 137 20 31
3.885751e+000 -1.918448e-001 -9.470714e+000 161 109 62
8.808865e-001 -3.123742e-001 -8.344473e+000 9 46 83
2.978823e+000 -2.941051e-001 -9.452129e+000 147 21 33
-1.893804e-001 -5.870083e-001 -8.069491e+000 121 129 123
-1.887524e-001 -5.873271e-001 -8.068065e+000 121 129 123
-4.898840e-001 -7.548586e-001 -8.136914e+000 72 110 132
-3.868504e-001 -9.229308e-001 -8.433364e+000 121 138 129
5.849675e-001 -1.125332e+000 -9.166985e+000 20 79 130
-1.293763e+000 1.467949e+000 -8.431393e+000 20 73 113
-1.268904e+000 1.410162e+000 -8.274759e+000 20 73 113
-7.093493e-001 1.701931e+000 -8.953393e+000 111 120 134
2.003934e+000 -2.753134e-001 -8.740143e+000 183 126 102
4.069513e+000 -1.017932e-001 -9.586174e+000 172 88 58
4.415103e+000 -1.274894e-001 -9.673986e+000 142 117 115
4.406895e+000 -1.324402e-001 -9.657691e+000 142 117 115
3.079368e-001 1.197827e+000 -8.537767e+000 163 151 125
-1.727466e-001 1.368052e-001 -7.744789e+000 140 139 132
1.141441e+000 -1.726876e-001 -8.335507e+000 15 58 84
2.068822e+000 -6.391997e-001 -9.081033e+000 124 72 59
2.241200e+000 -8.143977e-001 -9.352313e+000 183 122 103
2.533045e+000 1.516879e+000 -9.710969e+000 136 108 97
2.419085e+000 6.984997e-001 -8.732113e+000 89 45 53
3.060768e+000 7.220538e-001 -8.989982e+000 64 24 33
4.630603e+000 5.951098e-001 -9.406277e+000 165 116 96
3.655905e+000 7.634611e-001 -9.310259e+000 20 61 103
-2.640944e-002 -8.144172e-001 -8.391238e+000 150 149 144
1.399930e+000 7.927508e-001 -8.404259e+000 167 36 51
-2.426476e+000 7.774819e-001 -8.417453e+000 195 170 139
3.230615e+000 4.052087e-001 -9.070531e+000 156 106 46
3.208898e+000 3.893874e-001 -9.007812e+000 156 106 46
5.245256e-001 -3.925159e-001 -8.209070e+000 156 148 126
2.356972e+000 -3.717902e-001 -8.965286e+000 181 127 101
-1.085919e+000 -6.848497e-001 -7.795943e+000 187 133 110
2.866162e+000 -1.336447e-001 -8.982273e+000 148 22 38
4.437522e+000 -2.872339e-001 -9.870941e+000 172 89 54
1.309029e+000 -9.573263e-001 -9.674181e+000 171 111 100
-1.242898e+000 1.750074e+000 -9.507870e+000 140 139 63
9.948879e-001 -1.721842e-001 -8.207211e+000 79 107 129
2.695611e-001 2.324167e-001 -8.301835e+000 151 146 128
-8.741679e-001 -3.136000e-001 -7.552767e+000 13 80 125
-2.216524e+000 1.263198e+000 -8.232097e+000 93 78 66
-1.004647e+000 9.070673e-001 -7.730868e+000 168 53 55
-5.268712e-001 6.536354e-001 -7.575301e+000 62 93 115
1.220088e+000 6.427973e-001 -8.162127e+000 153 31 34
2.013596e+000 6.962491e-001 -8.600394e+000 96 35 34
3.164853e+000 6.791731e-001 -8.971048e+000 106 76 67
2.246818e+000 5.597180e-001 -8.589041e+000 166 132 94
3.411580e+000 5.617606e-001 -9.081997e+000 166 132 86
4.839782e+000 1.293453e-001 -9.652507e+000 50 11 12
4.928699e+000 1.632613e-001 -9.660496e+000 165 103 28
4.807839e+000 -1.769382e-002 -9.775977e+000 48 13 6
2.075460e+000 -1.709154e-001 -8.702364e+000 171 127 89
3.997935e+000 -1.663859e-001 -9.493968e+000 170 85 42
3.994329e+000 -1.678501e-001 -9.485573e+000 170 85 42
4.781905e+000 -1.040277e-001 -9.853070e+000 56 8 23
4.781905e+000 -1.040277e-001 -9.853070e+000 56 8 23
7.817332e-001 -2.671033e-001 -8.254089e+000 134 11 19
7.821872e-001 -2.654344e-001 -8.258348e+000 134 11 19
3.883588e+000 -3.003232e-001 -9.567541e+000 165 75 47
2.631081e+000 -4.614751e-001 -9.138771e+000 146 23 40
3.396891e+000 -4.864686e-001 -9.394362e+000 173 70 48
4.666306e+000 -3.683140e-001 -1.003664e+001 150 128 112
7.268323e-001 -4.567737e-001 -8.376492e+000 188 148 119
2.880294e+000 -5.691804e-001 -9.371396e+000 148 15 31
-1.055771e+000 -6.149330e-001 -7.791270e+000 193 143 113
-7.098704e-001 -6.494365e-001 -7.967103e+000 142 150 22
-2.821676e-001 -6.832036e-001 -8.100068e+000 19 49 21
-3.033286e-001 -6.923830e-001 -8.133883e+000 136 142 44
3.050276e+000 -8.789767e-001 -9.810791e+000 184 125 108
3.362626e+000 -8.430463e-001 -9.969826e+000 172 137 112
3.992885e+000 -8.053287e-001 -1.018517e+001 27 9 7
-6.231375e-001 -8.161325e-001 -8.153796e+000 141 149 48
-8.423291e-001 1.169453e+000 -8.093200e+000 36 56 25
1.185881e+000 1.273431e+000 -8.833276e+000 144 37 31
-7.318229e-002 7.042464e-001 -7.765815e+000 32 58 45
2.266441e+000 6.289022e-001 -8.613232e+000 133 80 74
2.266441e+000 6.289022e-001 -8.613232e+000 133 80 74
4.340233e+000 2.730301e-001 -9.362714e+000 189 120 50
4.033680e+000 -5.816773e-002 -9.423122e+000 180 88 38
2.659609e+000 -2.817694e-001 -8.978834e+000 150 25 39
3.996563e+000 -2.156705e-001 -9.535455e+000 191 123 52
4.517418e+000 -2.494877e-001 -9.812448e+000 167 97 37
4.810814e+000 -3.002468e-001 -1.007185e+001 117 60 26
2.749913e+000 -4.857364e-001 -9.229728e+000 184 78 83
2.702039e+000 -5.077054e-001 -9.213570e+000 140 24 33
2.984286e+000 -5.539742e-001 -9.385225e+000 172 57 58
3.150841e+000 -6.180989e-001 -9.562922e+000 100 52 46
-5.998500e-001 -5.711305e-001 -7.963905e+000 34 85 106
-5.996040e-001 -5.728361e-001 -7.956772e+000 34 85 106
3.260199e+000 -6.422876e-001 -9.635611e+000 154 98 81
3.171497e+000 -7.080387e-001 -9.669741e+000 181 125 109
3.795580e+000 -7.394622e-001 -1.003507e+001 108 81 68
-1.063681e+000 -7.215407e-001 -7.863991e+000 173 43 64
-6.675244e-001 -7.762269e-001 -8.074713e+000 54 98 107
3.027635e+000 -8.932809e-001 -9.848964e+000 113 55 46
3.046444e+000 -8.887647e-001 -9.895397e+000 113 55 46
3.054714e+000 -8.472213e-001 -9.799432e+000 102 51 51
4.414432e+000 -8.926794e-001 -1.054890e+001 134 114 103
1.887452e+000 -8.647503e-001 -9.354210e+000 105 55 45
1.887452e+000 -8.647503e-001 -9.354210e+000 105 55 45
2.081797e+000 -9.079791e-001 -9.430939e+000 125 78 66
1.204754e+000 -1.090237e+000 -9.371707e+000 150 99 96
1.204754e+000 -1.090237e+000 -9.371707e+000 150 99 96
2.341072e+000 -1.082154e+000 -9.851404e+000 183 99 96
2.209322e+000 -1.110591e+000 -9.849452e+000 189 131 127
2.371950e+000 -1.045223e+000 -9.805872e+000 185 106 93
-1.260215e+000 -9.868418e-001 -8.152577e+000 190 161 135
2.077564e+000 7.710111e-001 -8.622709e+000 149 82 73
2.066590e+000 7.557399e-001 -8.578632e+000 149 82 73
3.502631e+000 8.755738e-001 -9.235799e+000 18 60 105
4.486654e+000 6.713952e-001 -9.457996e+000 187 145 108
-1.953264e+000 6.409443e-001 -7.543006e+000 198 181 138
-2.008676e+000 6.170096e-001 -7.602928e+000 198 175 143
4.560737e+000 7.817623e-002 -9.556822e+000 67 44 39
4.850139e+000 2.117191e-002 -9.751151e+000 153 85 43
4.954839e+000 -1.744790e-002 -9.915572e+000 135 80 40
1.118782e+000 -1.646119e-001 -8.327758e+000 8 67 107
2.072749e+000 -2.010896e-001 -8.717024e+000 119 77 64
2.288173e+000 -9.993788e-002 -8.763012e+000 177 129 91
4.355521e+000 -2.025455e-001 -9.694023e+000 176 151 128
1.114617e+000 -1.919527e-001 -8.363936e+000 13 73 110
1.349091e+000 -2.057866e-001 -8.429815e+000 176 114 91
2.768029e+000 -3.849741e-001 -9.141304e+000 162 54 54
1.219815e+000 -6.053262e-001 -8.697411e+000 91 49 34
1.481588e+000 -7.272516e-001 -8.939764e+000 135 87 68
3.210581e+000 -6.666870e-001 -9.679169e+000 176 119 99
-7.548456e-001 -7.509932e-001 -8.041374e+000 162 151 20
-7.546755e-001 -7.510524e-001 -8.041392e+000 162 151 20
-5.970779e-001 -7.474860e-001 -8.097816e+000 132 135 29
3.596274e-001 -7.895717e-001 -8.455308e+000 148 149 141
3.913731e+000 -9.175691e-001 -1.032625e+001 171 153 128
-1.199731e+000 -7.584522e-001 -7.895417e+000 177 48 40
2.102643e+000 -9.988155e-001 -9.626562e+000 182 123 119
3.616459e+000 -9.771349e-001 -1.024486e+001 168 132 108
3.765821e+000 -9.521833e-001 -1.029769e+001 165 135 111
5.922357e-001 -1.016984e+000 -8.857026e+000 138 28 49
1.556824e+000 9.421541e-001 -8.639311e+000 28 78 117
2.422456e+000 1.096634e+000 -9.060468e+000 113 89 77
2.422456e+000 1.096634e+000 -9.060468e+000 113 89 77
-1.986037e+000 8.953432e-001 -7.712279e+000 192 172 139
2.740105e+000 7.968826e-001 -8.884695e+000 85 40 40
3.809944e+000 7.653230e-001 -9.300079e+000 160 124 76
4.785245e+000 7.231422e-001 -9.646087e+000 164 138 100
8.688863e-001 -1.342085e-001 -8.168541e+000 111 19 45
2.156502e+000 -1.469571e-001 -8.759178e+000 180 131 103
4.843671e+000 -2.268945e-001 -1.006718e+001 142 84 44
8.948854e-001 -4.371877e-001 -8.412729e+000 6 41 66
-2.795240e-001 -4.900760e-001 -7.980255e+000 126 108 30
3.088670e+000 -5.890922e-001 -9.499034e+000 189 123 97
3.978951e+000 -5.164665e-001 -9.831867e+000 155 88 54
3.151468e+000 -7.751694e-001 -9.748575e+000 177 121 98
1.825032e+000 -8.787062e-001 -9.344067e+000 181 123 101
1.420540e+000 -1.012778e+000 -9.371369e+000 177 120 110
1.420540e+000 -1.012778e+000 -9.371369e+000 177 120 110
1.242489e+000 -1.127692e+000 -9.485775e+000 187 128 119
1.597857e+000 -1.173454e+000 -9.910857e+000 188 115 115
-5.189237e-001 1.301831e+000 -8.318387e+000 128 131 56
1.170865e+000 1.012313e+000 -8.578311e+000 150 35 36
9.547161e-001 6.558570e-001 -8.142065e+000 140 85 57
3.905920e+000 2.853615e-001 -9.087552e+000 182 106 28
-2.410046e-001 1.960947e-001 -7.575312e+000 85 113 121
3.327647e+000 -1.839097e-001 -9.240166e+000 187 132 104
7.053671e-001 -3.094376e-001 -8.281525e+000 135 19 29
-1.127277e+000 -5.418477e-001 -7.703033e+000 196 100 93
-6.772533e-001 -5.831106e-001 -7.874524e+000 25 55 34
-2.559626e-001 -6.779384e-001 -8.162389e+000 19 48 28
7.202934e-001 -7.387577e-001 -8.600911e+000 111 22 51
-4.909036e-001 -9.237843e-001 -8.393580e+000 21 49 29
1.832272e+000 -1.111329e+000 -9.702950e+000 189 129 124
1.930051e+000 -1.112098e+000 -9.729575e+000 176 122 112
1.488166e+000 -1.115295e+000 -9.600442e+000 192 127 126
4.856342e+000 -2.526188e+000 -1.035469e+001 50 39 43
2.366389e+000 -7.353694e-001 -9.351085e+000 177 119 93
1.545343e+000 -7.693870e-001 -9.017125e+000 182 118 94
1.948937e+000 -1.427930e+000 -1.743474e+001 56 51 55
3.882152e+000 7.202985e-001 -9.296143e+000 163 125 84
1.198537e+000 2.582640e-002 -8.187057e+000 15 78 114
2.958203e+000 -1.136683e-002 -9.000380e+000 156 25 39
2.795682e+000 -4.856175e-001 -9.108812e+000 151 18 35
2.795682e+000 -4.856175e-001 -9.108812e+000 151 18 35
5.088751e+000 4.048333e-001 -9.618471e+000 183 87 34
-3.913370e-001 -5.855576e-001 -8.033290e+000 56 101 112
-4.890071e-001 -7.524249e-001 -8.146462e+000 65 105 115
2.451581e+000 4.349044e-001 -8.632839e+000 162 124 85
-4.029679e+001 1.675620e+001 -7.933255e+001 52 37 44
-3.519963e+001 1.325041e+001 -8.141582e+001 117 108 101
-3.675287e+001 1.713781e+001 -8.034342e+001 45 37 34
-3.589851e+001 1.745871e+001 -8.138609e+001 46 36 36
-3.104797e+001 1.409970e+001 -8.147625e+001 113 92 61
-2.296628e-001 -2.271624e-001 -7.846925e+000 148 154 44
3.728368e+000 -2.327854e-001 -9.420118e+000 171 109 51
2.626321e+000 -3.153245e-001 -9.030229e+000 177 71 68
2.265818e-001 -6.701916e-001 -8.335261e+000 151 145 126
1.220093e+000 -6.198126e-001 -8.691019e+000 106 61 50
3.160910e+000 -8.708722e-001 -9.845055e+000 110 59 50
3.870630e+000 -7.716545e-001 -1.006551e+001 158 131 101
3.861108e+000 -7.746402e-001 -1.004686e+001 158 131 101
3.928182e+000 -8.581107e-001 -1.023101e+001 170 146 119
4.434639e+000 -8.311855e-001 -1.020621e+001 87 29 28
-4.589985e-001 -9.081848e-001 -8.377116e+000 28 44 31
2.315528e+000 -9.408967e-001 -9.576573e+000 187 119 111
2.806027e+000 -1.071176e+000 -1.003390e+001 155 40 55
1.455945e+000 -1.184525e+000 -9.859341e+000 178 83 90
5.413001e-002 -7.260148e-002 -7.834435e+000 59 74 48
2.734963e+000 -9.066925e-003 -8.873140e+000 134 19 28
4.585231e+000 -2.613872e-001 -9.912061e+000 115 63 38
1.395848e+000 -6.778731e-001 -8.850928e+000 104 54 40
2.474514e+000 -8.241568e-001 -9.507119e+000 192 86 90
2.371250e+000 -1.109273e+000 -9.861704e+000 154 32 47
2.510190e+000 -1.105567e+000 -9.858670e+000 163 36 55
4.836389e+000 -2.493999e+000 -1.013259e+001 146 131 138
7.374397e-001 -7.019641e-001 -8.561028e+000 108 24 44
4.562702e+000 -5.963278e-001 -1.020370e+001 149 126 113
1.905674e+000 -9.410322e-001 -9.403427e+000 177 120 109
2.101822e+000 -1.042185e+000 -9.796745e+000 185 126 118
3.358586e+000 -9.797835e-001 -1.007867e+001 175 140 113
3.893499e+000 -9.714404e-001 -1.024307e+001 81 67 57
4.784738e+000 -2.805067e+000 -1.026602e+001 152 136 138
4.716525e+000 -2.790291e+000 -1.036993e+001 128 109 111
3.357742e+000 -8.969014e-001 -9.975575e+000 121 92 75
4.780759e+000 -2.601396e+000 -1.034893e+001 50 38 48
-3.453704e+001 2.216251e+001 -6.729394e+001 154 143 183
4.537406e+000 -6.737882e-001 -1.036392e+001 107 94 88
4.442062e+000 -1.045682e+000 -1.040100e+001 26 15 29
2.994050e+000 -4.858571e-001 -1.005388e+001 150 27 38
3.524700e+000 -9.150946e-001 -1.044468e+001 146 114 98
2.972991e+000 4.106127e-001 -8.829893e+000 161 112 62
4.873436e+000 2.749233e-001 -9.572111e+000 142 81 51
4.483273e+000 1.644211e-001 -9.475148e+000 161 141 123
4.473319e+000 1.559434e-001 -9.454613e+000 161 141 123
4.849956e+000 2.492822e-001 -9.581342e+000 56 21 20
4.856269e+000 1.957806e-001 -9.611759e+000 47 13 15
4.912015e+000 1.885569e-001 -9.655929e+000 42 8 3
4.944872e+000 1.986705e-001 -9.643451e+000 46 5 3
2.700654e+000 4.928203e-002 -8.817647e+000 175 69 71
2.704167e+000 5.300101e-002 -8.827161e+000 175 69 71
2.743176e+000 4.208471e-002 -8.851539e+000 139 24 31
3.632636e+000 -6.628817e-002 -9.225644e+000 161 93 55
4.238889e+000 -2.793836e-002 -9.486186e+000 204 134 68
4.374371e+000 -5.937375e-002 -9.570261e+000 41 20 15
4.375229e+000 -5.781059e-002 -9.572773e+000 41 20 15
4.624617e+000 -1.833530e-002 -9.635434e+000 114 58 22
4.841794e+000 8.163842e-002 -9.845536e+000 177 102 47
4.838601e+000 -4.114513e-002 -9.796752e+000 147 88 48
8.131984e-001 -1.705542e-001 -8.204078e+000 183 144 105
2.306916e+000 -1.574010e-001 -8.784037e+000 174 126 102
2.699925e+000 -1.812048e-001 -8.952439e+000 144 35 38
3.759115e+000 -1.788716e-001 -9.409163e+000 162 86 47
4.061923e+000 -1.770420e-001 -9.520903e+000 169 85 51
4.323478e+000 -2.039518e-001 -9.673949e+000 180 155 130
