ply
format ascii 1.0
element face 0
property list uchar int vertex_indices
element vertex 873
property float x
property float y
property float z
property uchar diffuse_red
property uchar diffuse_green
property uchar diffuse_blue
end_header
3.911139e+000 -5.515845e-001 -9.837888e+000 185 124 77
3.848619e+000 -5.746540e-001 -9.822042e+000 183 139 100
3.823136e+000 -6.546732e-001 -9.900752e+000 86 50 35
4.500418e+000 -5.915725e-001 -1.021348e+001 30 12 8
-1.517605e+000 -6.872067e-001 -7.689129e+000 167 162 142
-1.517605e+000 -6.872067e-001 -7.689129e+000 167 162 142
-1.489469e+000 -6.849200e-001 -7.695113e+000 144 157 155
-1.489469e+000 -6.849200e-001 -7.695113e+000 144 157 155
-1.093890e+000 -7.490812e-001 -7.862851e+000 198 144 120
5.620384e-001 -6.985555e-001 -8.517790e+000 161 160 131
6.278945e-001 -7.134905e-001 -8.556065e+000 198 174 130
6.277878e-001 -7.158557e-001 -8.552956e+000 198 174 130
6.332820e-001 -7.640425e-001 -8.609959e+000 203 173 134
8.026736e-001 -7.415935e-001 -8.616673e+000 13 88 136
6.689447e-001 -7.558365e-001 -8.630927e+000 200 170 133
2.641732e+000 -6.970337e-001 -9.413420e+000 160 13 25
2.944769e+000 -6.825636e-001 -9.528333e+000 220 100 97
2.910747e+000 -7.620838e-001 -9.609208e+000 198 78 80
3.248357e+000 -6.878302e-001 -9.674314e+000 118 60 45
3.248357e+000 -6.878302e-001 -9.674314e+000 118 60 45
3.210935e+000 -7.805280e-001 -9.771505e+000 123 66 64
3.599037e+000 -7.157562e-001 -9.863045e+000 176 139 111
3.828888e+000 -7.646015e-001 -1.005509e+001 167 132 100
4.021941e+000 -7.263711e-001 -1.009339e+001 25 5 0
4.020192e+000 -7.280617e-001 -1.008982e+001 25 5 0
4.467624e+000 -6.787716e-001 -1.029907e+001 39 18 8
4.678894e+000 -6.752608e-001 -1.037259e+001 133 70 49
-1.112856e+000 -7.889978e-001 -7.942854e+000 193 161 123
-6.458205e-001 -7.901336e-001 -8.126307e+000 165 158 36
3.189382e+000 -8.418379e-001 -9.827352e+000 107 53 47
3.556383e+000 -8.264776e-001 -9.998413e+000 175 141 112
3.655164e+000 -8.403474e-001 -1.006125e+001 120 90 63
3.692308e+000 -8.694604e-001 -1.012556e+001 172 136 110
-1.174794e+000 -8.687883e-001 -8.025076e+000 178 39 50
-1.164435e+000 -9.083149e-001 -8.079770e+000 201 154 117
-1.173453e+000 -9.302874e-001 -8.109093e+000 205 156 125
-3.995252e-001 -8.757542e-001 -8.353384e+000 19 58 24
-3.372759e-001 -8.886851e-001 -8.398004e+000 170 166 36
5.976909e-001 -9.230035e-001 -8.828199e+000 198 165 135
5.580141e-001 -9.725320e-001 -8.882900e+000 145 20 12
1.726647e+000 -9.608073e-001 -9.364722e+000 125 71 52
1.726121e+000 -9.621369e-001 -9.363725e+000 125 71 52
2.480427e+000 -9.034535e-001 -9.615722e+000 151 13 26
2.468979e+000 -9.164594e-001 -9.588490e+000 151 13 26
2.617701e+000 -9.990556e-001 -9.804281e+000 214 94 94
2.612834e+000 -1.006293e+000 -9.787606e+000 214 94 94
2.786535e+000 -9.693079e-001 -9.876107e+000 178 38 55
3.660874e+000 -9.392948e-001 -1.020796e+001 172 137 112
-1.202940e+000 -9.598111e-001 -8.140540e+000 196 150 113
-1.178789e+000 -9.563777e-001 -8.119177e+000 182 31 37
-9.254421e-001 -1.019295e+000 -8.324608e+000 176 167 39
-6.708672e-001 -9.749394e-001 -8.326138e+000 170 166 37
5.299511e-001 -1.065997e+000 -9.011689e+000 207 175 144
1.485671e+000 -1.001081e+000 -9.314005e+000 129 83 66
1.672728e+000 -1.071712e+000 -9.521121e+000 136 83 68
1.921316e+000 -1.030813e+000 -9.550272e+000 103 51 37
2.375579e+000 -1.091407e+000 -9.812018e+000 164 30 47
2.596318e+000 -1.047724e+000 -9.821236e+000 207 89 93
2.563431e+000 -1.051522e+000 -9.909313e+000 168 29 44
2.735125e+000 -1.055020e+000 -9.964193e+000 159 24 34
-1.186523e+000 -1.048756e+000 -8.258599e+000 219 159 131
-1.186523e+000 -1.048756e+000 -8.258599e+000 219 159 131
1.584228e+000 -1.162309e+000 -9.695446e+000 205 121 111
2.331262e+000 -1.161385e+000 -9.916738e+000 188 154 131
1.088290e+000 8.707766e-002 -8.160415e+000 178 159 132
4.603171e+000 2.353453e-001 -9.569913e+000 175 154 128
2.585145e+000 3.698548e-002 -8.725700e+000 201 135 105
3.059203e+000 6.230488e-002 -8.979703e+000 210 93 92
4.368365e+000 1.165330e-001 -9.439695e+000 180 154 126
4.902601e+000 5.788157e-002 -9.751692e+000 49 19 16
-2.573338e-001 -1.674053e-001 -7.763743e+000 148 137 29
2.579876e+000 -8.324209e-002 -8.845637e+000 196 144 104
3.056982e+000 -8.256000e-002 -9.037898e+000 170 24 36
3.910457e+000 -6.908309e-002 -9.388041e+000 119 36 30
4.048816e+000 -1.116969e-001 -9.528021e+000 192 86 37
1.464637e+000 -2.062039e-001 -8.545343e+000 195 132 101
2.799291e+000 -2.903518e-001 -9.084745e+000 193 84 77
4.685246e+000 -2.226165e-001 -9.917607e+000 173 103 29
3.711302e+000 -3.105540e-001 -9.475249e+000 189 117 37
2.635322e+000 -4.415568e-001 -9.120746e+000 157 26 34
2.697205e+000 -5.167708e-001 -9.220423e+000 172 33 41
3.007268e+000 -4.847788e-001 -9.333115e+000 207 92 85
3.324704e+000 -4.499118e-001 -9.444056e+000 130 82 52
3.314438e+000 -5.101479e-001 -9.497349e+000 144 87 68
3.432624e+000 -4.823467e-001 -9.507364e+000 200 81 45
3.432970e+000 -5.298532e-001 -9.608762e+000 191 83 38
3.641312e+000 -5.118039e-001 -9.682679e+000 121 30 17
3.641312e+000 -5.118039e-001 -9.682679e+000 121 30 17
3.865239e+000 -4.165243e-001 -9.682000e+000 194 91 46
3.973686e+000 -4.885068e-001 -9.768988e+000 191 114 44
4.023408e+000 -5.247859e-001 -9.866716e+000 177 86 41
4.766238e+000 -3.512404e-001 -1.011619e+001 124 68 33
2.187106e-001 -6.785298e-001 -8.338740e+000 167 168 129
3.072349e-001 -6.157036e-001 -8.313830e+000 122 8 19
1.112791e+000 -5.924538e-001 -8.598630e+000 26 71 112
1.219808e+000 -6.166831e-001 -8.714912e+000 132 81 92
2.665713e+000 -6.330666e-001 -9.333345e+000 161 22 29
2.670821e+000 -6.262589e-001 -9.344805e+000 161 22 29
2.880725e+000 -6.207516e-001 -9.393227e+000 196 81 71
2.970991e+000 -6.115042e-001 -9.449434e+000 203 79 78
3.387423e+000 -6.226242e-001 -9.630095e+000 198 101 42
4.592040e+000 -5.919361e-001 -1.027726e+001 166 146 123
4.686583e+000 -5.584059e-001 -1.034142e+001 113 48 20
-1.154787e+000 -7.473195e-001 -7.879236e+000 177 31 44
-6.195302e-001 -6.886864e-001 -8.011203e+000 163 162 36
3.168658e-001 -6.980679e-001 -8.410007e+000 162 162 140
2.528007e+000 -6.969283e-001 -9.352539e+000 202 94 89
2.555730e+000 -7.178461e-001 -9.382326e+000 177 30 46
3.528997e+000 -7.322873e-001 -9.878900e+000 174 142 101
3.582554e+000 -7.431491e-001 -9.876495e+000 183 145 117
-1.086436e+000 -7.679842e-001 -7.927844e+000 180 44 46
-1.051288e+000 -8.063188e-001 -7.972155e+000 183 30 33
-6.748604e-001 -8.235065e-001 -8.098944e+000 58 107 110
-6.755309e-001 -8.109770e-001 -8.118664e+000 58 107 110
2.200276e-001 -7.792774e-001 -8.472966e+000 164 167 136
2.224912e-001 -7.803917e-001 -8.472575e+000 164 167 136
7.213250e-001 -8.351521e-001 -8.766700e+000 28 84 134
1.547609e+000 -8.627388e-001 -9.141915e+000 124 77 68
2.113171e+000 -8.520545e-001 -9.379477e+000 116 62 51
2.113927e+000 -8.512812e-001 -9.380657e+000 116 62 51
2.877171e+000 -8.556031e-001 -9.742731e+000 194 76 78
3.462801e+000 -8.700793e-001 -1.001905e+001 176 140 109
-1.238583e+000 -9.082652e-001 -8.053271e+000 196 155 125
-1.192761e+000 -9.401997e-001 -8.103374e+000 208 160 129
7.029951e-001 -9.313792e-001 -8.834076e+000 15 53 86
2.441933e+000 -9.008795e-001 -9.610298e+000 213 109 102
2.436831e+000 -9.930709e-001 -9.737906e+000 163 25 35
2.599419e+000 -9.763506e-001 -9.775060e+000 170 30 42
2.983365e+000 -1.002416e+000 -9.962989e+000 76 28 10
-1.268068e+000 -1.020500e+000 -8.187093e+000 176 29 30
-1.268262e+000 -1.020602e+000 -8.186773e+000 176 29 30
5.225771e-001 -9.898779e-001 -8.888689e+000 193 170 124
6.162241e-001 -1.074809e+000 -8.986992e+000 16 82 125
1.339256e+000 -1.066589e+000 -9.336976e+000 127 74 61
1.563677e+000 -1.067490e+000 -9.455006e+000 126 71 61
1.563330e+000 -1.067920e+000 -9.454444e+000 126 71 61
2.221905e+000 -1.117063e+000 -9.732074e+000 203 138 122
2.486403e+000 -1.044842e+000 -9.860137e+000 171 22 41
2.563696e+000 -1.035350e+000 -9.830541e+000 166 29 41
2.565706e+000 -1.033690e+000 -9.830384e+000 166 29 41
2.591079e+000 -1.060712e+000 -9.879906e+000 206 93 93
2.577030e+000 -1.082813e+000 -9.953996e+000 196 91 89
-1.323705e+000 -1.036278e+000 -8.205731e+000 185 33 39
6.008090e-001 -1.095063e+000 -9.096259e+000 29 89 137
1.174438e+000 -1.128196e+000 -9.405463e+000 99 45 35
1.174438e+000 -1.128196e+000 -9.405463e+000 99 45 35
3.548337e+000 -1.126193e+000 -1.067601e+001 49 14 16
4.274417e+000 -1.135862e+000 -1.083658e+001 184 174 164
1.096152e+000 -1.193223e+000 -9.562249e+000 186 61 56
-2.030209e+000 6.469792e-001 -7.650680e+000 201 177 143
3.943679e+000 3.393778e-001 -9.196125e+000 196 111 30
2.783419e+000 2.964650e-002 -8.860630e+000 187 72 69
5.020280e+000 7.857700e-002 -9.754263e+000 26 20 32
2.227508e+000 -9.020391e-002 -8.733243e+000 115 69 50
2.339683e+000 -9.315699e-002 -8.765585e+000 111 63 47
2.456128e+000 -8.223443e-002 -8.810317e+000 112 65 52
2.461390e+000 -7.352165e-002 -8.825604e+000 112 65 52
2.695518e+000 -1.279598e-001 -8.877051e+000 176 30 35
4.624449e+000 -8.935883e-002 -9.725533e+000 159 88 27
4.890126e+000 -6.361155e-002 -9.793470e+000 136 74 36
2.763134e+000 -2.500421e-001 -9.040911e+000 166 26 34
3.406560e+000 -1.845000e-001 -9.268275e+000 88 39 23
4.166799e+000 -2.480729e-001 -9.642462e+000 215 139 68
4.730727e+000 -1.744273e-001 -9.926922e+000 178 103 33
-5.939217e-001 -4.098685e-001 -7.791932e+000 20 44 36
-5.917370e-001 -4.089473e-001 -7.794195e+000 20 44 36
-2.303801e-001 -4.149690e-001 -7.951554e+000 76 103 97
2.764961e+000 -2.990552e-001 -9.098617e+000 169 22 31
2.603175e+000 -4.173196e-001 -9.108632e+000 202 92 82
-4.471772e-001 -5.414357e-001 -7.964472e+000 53 102 106
-4.333326e-001 -5.379889e-001 -7.961398e+000 59 101 98
3.919632e+000 -4.415232e-001 -9.679675e+000 191 95 50
7.838356e-001 -6.888199e-001 -8.555337e+000 11 91 130
1.242624e+000 -6.690370e-001 -8.775466e+000 193 133 109
1.242624e+000 -6.690370e-001 -8.775466e+000 193 133 109
1.463608e+000 -6.768824e-001 -8.841301e+000 199 133 109
2.659485e+000 -5.648262e-001 -9.263869e+000 208 92 77
2.578599e+000 -6.263880e-001 -9.273737e+000 166 20 33
2.999249e+000 -6.380195e-001 -9.484897e+000 167 21 32
3.143065e+000 -6.294753e-001 -9.550424e+000 106 54 43
4.040247e+000 -6.040541e-001 -9.974009e+000 196 169 131
-1.071410e+000 -7.240103e-001 -7.876493e+000 172 17 35
1.158724e+000 -7.462255e-001 -8.821982e+000 103 57 59
1.481544e+000 -7.341183e-001 -8.948009e+000 167 126 108
1.677890e+000 -7.046460e-001 -8.991629e+000 197 129 106
2.280299e+000 -7.055263e-001 -9.258219e+000 126 81 64
2.529171e+000 -7.480395e-001 -9.416671e+000 162 23 32
3.092364e+000 -7.569460e-001 -9.688948e+000 90 42 38
3.229235e+000 -7.259292e-001 -9.715858e+000 129 76 68
-3.843588e-001 -7.865439e-001 -8.240464e+000 170 162 26
2.631968e+000 -8.133173e-001 -9.560777e+000 189 82 71
3.052432e+000 -8.567535e-001 -9.801747e+000 114 60 51
4.503732e+000 -8.256331e-001 -1.043157e+001 155 123 116
-7.983731e-001 -8.875826e-001 -8.178683e+000 160 163 18
2.165170e+000 -9.766950e-001 -9.562898e+000 123 67 53
2.165170e+000 -9.766950e-001 -9.562898e+000 123 67 53
2.213840e+000 -9.917708e-001 -9.646824e+000 198 131 114
3.100005e+000 -9.158980e-001 -9.922055e+000 192 130 107
-1.128265e+000 -9.780319e-001 -8.178707e+000 195 38 48
1.916942e+000 -1.114331e+000 -9.590162e+000 192 134 117
1.916942e+000 -1.114331e+000 -9.590162e+000 192 134 117
2.124481e+000 -1.050394e+000 -9.659926e+000 139 84 71
2.127387e+000 -1.047621e+000 -9.664504e+000 139 84 71
2.295586e+000 -1.081076e+000 -9.797449e+000 170 28 45
2.333087e+000 -1.016307e+000 -9.717033e+000 174 24 45
2.327108e+000 -1.024035e+000 -9.700018e+000 174 24 45
2.241428e+000 -1.143484e+000 -9.913996e+000 116 20 23
1.429114e+000 -3.598984e-002 -8.354874e+000 185 128 110
4.462208e+000 2.938564e-002 -9.549693e+000 32 18 14
1.386038e+000 -6.301838e-002 -8.381082e+000 190 130 99
1.475472e+000 -1.299401e-001 -8.461987e+000 192 127 99
1.750805e+000 -1.727480e-001 -8.577840e+000 115 55 42
1.868343e+000 -1.664081e-001 -8.622781e+000 98 53 33
1.868343e+000 -1.664081e-001 -8.622781e+000 98 53 33
2.147677e+000 -1.337982e-001 -8.699692e+000 195 143 105
2.147677e+000 -1.337982e-001 -8.699692e+000 195 143 105
2.632116e+000 -4.858780e-002 -8.832839e+000 182 26 46
4.797432e+000 -7.184618e-002 -9.807372e+000 163 98 26
1.500701e+000 -2.226941e-001 -8.509012e+000 180 124 107
-4.101025e-001 -4.279916e-001 -7.890873e+000 59 98 109
8.084051e-001 -3.952713e-001 -8.308264e+000 142 27 37
-4.387660e-001 -5.496249e-001 -7.956623e+000 55 99 102
-4.384251e-001 -5.480330e-001 -7.958370e+000 55 99 102
-3.174587e-001 -5.920643e-001 -8.044154e+000 170 162 27
-3.174587e-001 -5.920643e-001 -8.044154e+000 170 162 27
1.318057e+000 -5.897019e-001 -8.706196e+000 181 125 110
1.355912e+000 -6.517134e-001 -8.830845e+000 200 137 110
3.344661e+000 -6.228217e-001 -9.682542e+000 200 134 108
9.776822e-001 -7.299080e-001 -8.715269e+000 15 88 136
9.804112e-001 -7.226009e-001 -8.720678e+000 15 88 136
1.334838e+000 -7.090880e-001 -8.866135e+000 196 134 107
1.560287e+000 -6.942958e-001 -8.955563e+000 196 133 105
1.594328e+000 -7.321330e-001 -8.982022e+000 161 117 108
1.710608e+000 -7.247890e-001 -9.029613e+000 158 107 94
1.823970e+000 -7.222031e-001 -9.069040e+000 152 97 88
2.004702e+000 -6.943479e-001 -9.130697e+000 194 134 108
2.123944e+000 -6.884423e-001 -9.167508e+000 198 136 98
2.397026e+000 -7.348575e-001 -9.327372e+000 202 135 108
3.649013e-001 -7.780450e-001 -8.536755e+000 162 164 146
6.700317e-001 -8.511959e-001 -8.745560e+000 136 28 30
-1.264227e+000 -9.275759e-001 -8.069871e+000 186 33 36
6.433516e-001 -9.158658e-001 -8.817258e+000 148 26 46
7.452117e-001 -8.892345e-001 -8.833516e+000 2 43 85
7.159391e-001 -9.498253e-001 -8.945253e+000 9 61 87
2.103388e+000 -9.840305e-001 -9.501134e+000 199 133 111
-1.282104e+000 -9.712301e-001 -8.120412e+000 190 35 40
-1.299751e+000 -1.020247e+000 -8.176583e+000 187 30 40
1.298605e+000 -1.020446e+000 -9.307318e+000 195 132 115
1.282936e+000 -1.059633e+000 -9.344837e+000 195 134 113
1.282936e+000 -1.059633e+000 -9.344837e+000 195 134 113
2.098108e+000 -1.011181e+000 -9.598658e+000 200 139 119
2.001285e+000 -1.075601e+000 -9.748398e+000 159 108 104
2.001285e+000 -1.075601e+000 -9.748398e+000 159 108 104
1.997729e+000 -1.179857e+000 -9.782946e+000 156 41 58
8.199992e-001 -3.255544e-001 -8.285583e+000 164 29 34
7.650393e-001 -5.990342e-001 -8.475172e+000 127 11 28
2.458855e+000 -7.429122e-001 -9.400621e+000 176 24 39
-5.107563e-001 -8.299206e-001 -8.262740e+000 126 129 44
4.976265e-001 -9.495597e-001 -8.844660e+000 173 34 49
3.553384e+000 -9.152380e-001 -1.012533e+001 170 135 104
3.912235e+000 -1.062884e+000 -1.052413e+001 143 126 118
1.561672e+000 -1.133986e+000 -9.592756e+000 201 143 123
1.696919e+000 -1.126442e+000 -9.659086e+000 199 140 126
1.924231e+000 -1.115297e+000 -9.749927e+000 205 138 127
4.729634e+000 6.285111e-001 -9.578507e+000 188 155 117
9.583815e-003 -1.868128e-001 -7.889795e+000 31 46 15
1.193143e+000 -8.369978e-002 -8.286509e+000 3 55 82
5.948611e-001 -7.289312e-001 -8.601318e+000 181 31 47
-7.590114e-001 -8.062355e-001 -8.089739e+000 24 56 26
2.744383e+000 -7.697988e-001 -9.583777e+000 174 23 40
2.744383e+000 -7.697988e-001 -9.583777e+000 174 23 40
-5.924141e-001 -9.784739e-001 -8.422754e+000 118 140 118
-7.468225e-002 -1.005887e+000 -8.639995e+000 31 58 32
-7.468225e-002 -1.005887e+000 -8.639995e+000 31 58 32
3.452278e+000 3.243705e-001 -9.057297e+000 73 16 25
3.848461e+000 3.105538e-001 -9.180047e+000 123 20 24
3.127097e+000 7.226668e-002 -8.953352e+000 178 30 45
3.127097e+000 7.226668e-002 -8.953352e+000 178 30 45
1.040252e-001 -1.542342e-001 -7.883733e+000 157 151 129
2.864915e+000 -5.184683e-001 -9.402489e+000 168 27 33
2.873683e+000 -5.008747e-001 -9.429736e+000 168 27 33
1.544449e+000 -7.788335e-001 -9.039146e+000 199 131 103
3.314510e+000 -8.257100e-001 -9.897582e+000 189 135 105
2.303253e+000 -1.121988e+000 -1.033601e+001 185 155 147
-6.062979e-001 -9.581567e-001 -8.348649e+000 114 140 129
-3.930266e-001 -9.331814e-001 -8.436197e+000 124 140 133
-3.185278e-001 -9.943800e-001 -8.528269e+000 23 61 30
1.996557e+000 1.733134e+000 -9.479332e+000 185 162 130
1.055760e+000 1.022901e-001 -8.096365e+000 173 163 125
-2.347360e-001 -3.247684e-002 -7.695333e+000 56 97 123
4.663985e+000 -3.181543e-001 -1.000343e+001 180 149 119
3.925908e+000 6.046898e-001 -9.303832e+000 179 138 92
1.730457e+000 -8.207733e-001 -9.172577e+000 196 135 107
3.729799e+000 -4.437816e-001 -9.652716e+000 142 46 25
3.253967e+000 4.787743e-001 -9.059357e+000 177 129 44
1.610334e+000 -1.043948e+000 -9.947799e+000 172 53 54
4.370381e+000 5.926265e-001 -9.575148e+000 186 105 23
2.861724e+000 -1.420419e-001 -9.004265e+000 167 10 21
2.264626e+000 2.595176e-001 -8.655369e+000 179 140 99
-4.065042e-001 2.807670e-001 -7.538750e+000 61 106 114
3.045133e+000 -1.342377e-001 -9.065964e+000 157 23 32
2.797504e+000 -2.934143e-001 -9.083979e+000 184 72 71
4.734008e+000 -3.143161e-001 -1.002403e+001 141 73 38
4.099316e+000 -5.087334e-001 -9.867796e+000 33 17 28
-9.296281e-001 -5.528638e-001 -7.790470e+000 18 75 111
2.931625e-001 -5.985652e-001 -8.296602e+000 149 158 124
2.940291e-001 -5.952562e-001 -8.303013e+000 149 158 124
2.510727e+000 -5.867933e-001 -9.240824e+000 144 18 31
3.581038e+000 -5.509201e-001 -9.642344e+000 184 59 53
3.703086e+000 -6.445991e-001 -9.836230e+000 182 145 108
3.759002e+000 -5.837748e-001 -9.789982e+000 120 77 49
-1.055310e+000 -6.981445e-001 -7.843874e+000 161 25 30
-1.055310e+000 -6.981445e-001 -7.843874e+000 161 25 30
-1.080367e+000 -7.085373e-001 -7.847877e+000 204 153 120
2.393907e-001 -6.625517e-001 -8.324398e+000 113 26 29
2.688484e+000 -6.802598e-001 -9.414161e+000 179 67 74
3.410057e+000 -6.790485e-001 -9.707629e+000 194 149 107
1.618502e+000 -9.570223e-001 -9.310091e+000 124 74 59
1.878712e+000 -8.848938e-001 -9.319459e+000 111 61 41
2.801755e+000 -1.010456e+000 -9.918671e+000 201 90 97
3.643021e+000 -9.608088e-001 -1.023085e+001 172 139 108
5.177227e-001 -1.175717e+000 -9.234351e+000 34 64 94
9.164493e-001 -1.105304e-001 -8.248878e+000 21 84 117
1.060114e+000 -1.991924e-001 -8.315659e+000 15 52 67
4.859190e+000 -1.291816e-001 -9.836315e+000 124 62 20
2.977036e+000 -3.539552e-001 -9.208111e+000 159 32 41
3.984751e+000 -7.361830e-001 -1.010486e+001 176 144 124
-5.554259e-001 -8.085898e-001 -8.177504e+000 25 56 45
2.894719e+000 -7.932924e-001 -9.658572e+000 162 53 56
2.918051e+000 -8.116958e-001 -9.573800e+000 158 20 35
4.659539e+000 -8.049863e-001 -1.059736e+001 115 53 51
2.436676e+000 -9.069641e-001 -9.598704e+000 203 95 96
2.736146e+000 -9.925267e-001 -9.884634e+000 183 73 79
6.391589e-001 -1.025154e+000 -8.956416e+000 30 86 131
1.077845e+000 -1.177997e+000 -9.492968e+000 165 169 153
2.389438e+000 -6.060734e-001 -9.199822e+000 198 132 110
1.440136e+000 -6.908276e-001 -8.855850e+000 194 132 107
2.906083e+000 -8.609159e-001 -9.698392e+000 150 18 41
7.481054e-001 -8.904074e-001 -8.827110e+000 18 52 84
4.418963e+000 -1.075505e+000 -1.077651e+001 169 153 142
1.913746e+000 1.313783e+000 -9.022400e+000 23 17 22
8.408144e-001 -2.496520e-001 -8.229193e+000 165 17 28
2.255275e+000 -1.375396e-001 -8.749495e+000 196 143 112
-9.407431e-001 -5.046168e-001 -7.731374e+000 28 54 32
-1.761983e+001 2.938951e+001 -4.204601e+001 92 72 63
4.237068e+000 -4.642141e-002 -9.504999e+000 182 111 48
4.911161e+000 4.963555e-003 -9.776238e+000 143 81 44
-4.532126e-001 -6.581264e-001 -8.096540e+000 112 124 40
5.525361e-001 -8.248601e-001 -8.697246e+000 154 29 37
-2.360161e+000 1.612173e+000 -8.497469e+000 107 90 75
4.594969e+000 -1.061457e+000 -1.088830e+001 36 15 24
-1.428509e+000 -1.107780e+000 -8.259114e+000 129 135 136
1.220992e-001 -1.211797e+000 -9.404907e+000 154 160 176
7.213624e-001 -9.554990e-001 -9.181904e+000 15 76 119
-1.654651e-001 -3.220422e-001 -7.969442e+000 23 57 27
5.112341e+000 3.094927e-001 -9.610084e+000 43 22 29
7.590829e-001 -1.963717e-002 -8.076818e+000 143 8 23
4.356519e+000 1.060042e-001 -9.425689e+000 187 156 120
4.852930e+000 1.878119e-001 -9.613300e+000 67 14 32
4.826640e+000 1.183628e-001 -9.644595e+000 56 14 26
7.769049e-001 -1.925534e-001 -8.184436e+000 203 154 109
4.788863e+000 -3.164610e-002 -9.758863e+000 33 7 17
7.490106e-001 -3.364441e-001 -8.286781e+000 183 147 100
4.692285e+000 -1.447441e-001 -9.792681e+000 159 90 24
-1.466723e+000 -1.315903e+000 -6.665286e+000 147 138 117
3.807211e+000 -3.004090e-001 -9.526014e+000 184 66 47
3.723133e+000 -3.587287e-001 -9.564145e+000 180 56 29
3.766101e+000 -3.456338e-001 -9.576239e+000 116 28 9
3.752337e+000 -3.597325e-001 -9.555347e+000 116 28 9
-9.814143e-001 -5.535271e-001 -7.748877e+000 16 69 47
-7.917755e-001 -5.759266e-001 -7.810388e+000 19 70 54
7.144872e-001 -5.682006e-001 -8.442357e+000 137 10 4
3.518342e+000 -3.896421e-001 -9.603335e+000 176 52 34
4.077913e+000 -4.301468e-001 -9.751735e+000 187 148 111
-1.612961e+000 -6.700370e-001 -7.638920e+000 30 76 117
5.960112e-001 -6.725363e-001 -8.452768e+000 152 16 28
7.196307e-001 -6.254633e-001 -8.484851e+000 196 148 112
2.877102e+000 -6.387405e-001 -9.445569e+000 154 15 32
3.264206e+000 -6.277458e-001 -9.604618e+000 177 109 88
3.642504e+000 -6.057081e-001 -9.756392e+000 180 118 85
3.640872e+000 -6.074705e-001 -9.753810e+000 180 118 85
-1.181046e+000 -7.579979e-001 -7.883693e+000 193 141 104
-5.638643e-001 -7.688293e-001 -8.128212e+000 162 145 23
2.019846e-001 -6.969605e-001 -8.392405e+000 155 140 109
6.704421e-001 -7.547105e-001 -8.632914e+000 203 146 116
1.378959e+000 -7.035997e-001 -8.881806e+000 175 115 76
2.690270e+000 -6.784711e-001 -9.417001e+000 187 67 71
2.915516e+000 -6.625660e-001 -9.515055e+000 148 19 27
3.641413e+000 -6.693089e-001 -9.824765e+000 105 60 33
3.763090e+000 -7.003569e-001 -9.949509e+000 161 122 90
2.278338e-001 -8.128747e-001 -8.511270e+000 147 139 115
6.235481e-001 -7.804531e-001 -8.655740e+000 183 153 107
3.889979e+000 -7.446994e-001 -1.003729e+001 169 129 89
3.773863e+000 -8.525879e-001 -1.011837e+001 167 128 96
3.944773e+000 -9.125438e-001 -1.029859e+001 41 23 35
4.398069e+000 -8.726039e-001 -1.049951e+001 27 4 16
4.392805e+000 -8.779436e-001 -1.049076e+001 27 4 16
4.485161e+000 -8.385747e-001 -1.052274e+001 156 129 111
4.485161e+000 -8.385747e-001 -1.052274e+001 156 129 111
4.656191e+000 -8.286707e-001 -1.063140e+001 120 55 48
-6.293170e-001 -9.772832e-001 -8.399098e+000 154 146 35
5.588061e-001 -9.706511e-001 -8.884399e+000 126 15 3
2.378491e+000 -1.025831e+000 -9.758372e+000 197 113 96
3.734390e+000 -9.429414e-001 -1.023553e+001 170 127 100
-1.244562e+000 -1.064972e+000 -8.314397e+000 165 147 114
2.323065e+000 -9.757931e-001 -9.842233e+000 185 117 91
2.818318e+000 -1.058167e+000 -9.992791e+000 150 23 34
2.714365e+000 -1.083889e+000 -1.000386e+001 136 8 21
3.844351e+000 -1.051142e+000 -1.049611e+001 178 148 131
2.065192e+000 -1.124730e+000 -9.832082e+000 197 127 114
1.421601e+000 -1.182894e+000 -9.701419e+000 191 76 80
1.585986e+000 -1.184474e+000 -9.816281e+000 200 119 108
1.586299e+000 -1.183939e+000 -9.817707e+000 200 119 108
4.589147e+000 2.166961e-001 -9.483764e+000 94 48 31
1.049717e+000 -2.247663e-001 -8.286701e+000 14 41 64
2.722345e+000 -1.586097e-001 -8.882428e+000 198 76 79
3.986333e+000 -4.610267e-002 -9.385500e+000 113 35 25
2.996484e+000 -2.057694e-001 -9.105738e+000 191 69 67
4.764934e+000 -1.174843e-001 -9.837564e+000 37 6 31
4.840419e+000 -1.007191e-001 -9.882452e+000 52 12 23
2.686021e+000 -3.039582e-001 -9.082362e+000 147 22 28
2.969800e+000 -3.224558e-001 -9.185063e+000 179 70 67
3.643807e+000 -3.585529e-001 -9.516290e+000 192 132 73
4.746613e+000 -2.089918e-001 -9.942316e+000 48 12 5
-9.270557e-001 -5.580566e-001 -7.786528e+000 1 71 94
-6.046061e-001 -5.948183e-001 -7.923445e+000 42 85 86
2.926564e+000 -4.938456e-001 -9.301791e+000 188 77 76
3.969325e+000 -4.939392e-001 -9.762770e+000 181 99 57
4.664699e+000 -4.225752e-001 -1.010935e+001 169 128 111
2.185826e-001 -6.785937e-001 -8.338774e+000 163 143 106
3.654048e+000 -5.715855e-001 -9.716288e+000 188 85 46
3.926995e+000 -5.028287e-001 -9.802865e+000 182 98 60
3.884028e+000 -6.052335e-001 -9.871053e+000 160 114 81
4.627971e+000 -4.769435e-001 -1.015900e+001 158 123 102
-1.020238e+000 -5.441176e-001 -8.065959e+000 171 27 32
-8.154455e-001 -7.624572e-001 -8.014983e+000 25 69 65
-8.154455e-001 -7.624572e-001 -8.014983e+000 25 69 65
1.922427e-001 -7.438058e-001 -8.418960e+000 159 145 106
3.524492e-001 -7.254121e-001 -8.449007e+000 135 68 65
3.524492e-001 -7.254121e-001 -8.449007e+000 135 68 65
3.339166e-001 -7.336887e-001 -8.484699e+000 150 136 109
3.705276e+000 -6.417476e-001 -9.842147e+000 175 129 96
3.552890e+000 -6.697934e-001 -9.824145e+000 179 136 101
4.577164e+000 -6.386603e-001 -1.032642e+001 158 126 104
1.893559e+000 -8.394236e-001 -9.267660e+000 115 68 60
3.641712e+000 -7.993780e-001 -9.999779e+000 168 124 90
-1.200744e+000 -9.061984e-001 -8.066504e+000 192 147 108
-1.079211e+000 -8.997561e-001 -8.017464e+000 172 27 36
6.989453e-001 -8.763754e-001 -8.851907e+000 25 70 100
1.984692e+000 -8.921760e-001 -9.377954e+000 97 60 45
1.984692e+000 -8.921760e-001 -9.377954e+000 97 60 45
2.472987e+000 -9.158414e-001 -9.652471e+000 153 14 35
2.560999e+000 -8.803708e-001 -9.612736e+000 146 16 29
2.843183e+000 -8.599412e-001 -9.761977e+000 150 25 33
3.434195e+000 -9.230899e-001 -1.008142e+001 172 128 98
4.408264e+000 -7.754792e-001 -1.043558e+001 94 75 64
4.568864e+000 -8.113996e-001 -1.045485e+001 92 31 24
-1.048758e+000 -9.924260e-001 -8.256713e+000 147 140 24
-2.091258e-001 -9.813405e-001 -8.550358e+000 163 150 42
9.110182e-001 -2.805461e-001 -9.958134e+000 27 76 112
9.110182e-001 -2.805461e-001 -9.958134e+000 27 76 112
1.618878e+000 -9.564210e-001 -9.310636e+000 119 68 70
2.035924e+000 -1.023359e+000 -9.586943e+000 112 69 62
2.035924e+000 -1.023359e+000 -9.586943e+000 112 69 62
2.734715e+000 -9.715507e-001 -9.818120e+000 147 30 31
3.891114e+000 -9.596370e-001 -1.037583e+001 188 154 124
-7.299599e-001 -1.051733e+000 -8.478246e+000 156 152 32
-3.258119e-001 -1.028249e+000 -8.609839e+000 157 151 21
1.442740e+000 -1.082000e+000 -9.435339e+000 116 65 59
2.641119e+000 -1.061805e+000 -9.964201e+000 156 22 37
2.640769e+000 -1.062168e+000 -9.963504e+000 156 22 37
4.373172e+000 -1.157766e+000 -1.067888e+001 74 9 23
1.531183e+000 -1.146820e+000 -9.792975e+000 164 26 37
1.488578e+000 -1.184033e+000 -9.772996e+000 172 35 50
1.707014e+000 -1.162992e+000 -9.841639e+000 174 34 47
3.975673e+000 7.457010e-002 -9.315487e+000 210 109 48
4.401369e+000 2.649088e-001 -9.470092e+000 77 46 26
2.108649e+000 -9.825682e-002 -8.682546e+000 117 74 62
2.695447e+000 -4.252274e-002 -8.890011e+000 163 39 47
3.403375e+000 -1.869301e-001 -9.262705e+000 106 49 28
3.827602e+000 -2.277770e-001 -9.481546e+000 185 117 46
4.158365e+000 -1.990695e-001 -9.577154e+000 214 131 65
4.158365e+000 -1.990695e-001 -9.577154e+000 214 131 65
-4.953165e-001 -4.237797e-001 -7.850230e+000 49 87 80
-9.857350e-001 -5.868520e-001 -7.791671e+000 175 26 30
-9.117328e-002 -5.952146e-001 -8.127206e+000 165 156 13
-9.117328e-002 -5.952146e-001 -8.127206e+000 165 156 13
-6.965284e-001 -1.860705e+000 -6.650979e+000 43 84 89
-6.965284e-001 -1.860705e+000 -6.650979e+000 43 84 89
2.335662e+000 -6.143066e-001 -9.184883e+000 96 45 34
2.576113e+000 -5.565061e-001 -9.217198e+000 202 81 86
3.034986e+000 -5.412564e-001 -9.394204e+000 147 8 28
3.272917e+000 -6.052300e-001 -9.580700e+000 122 69 64
4.621256e+000 -5.213812e-001 -1.021706e+001 169 140 124
-1.621444e+000 -7.186075e-001 -7.670916e+000 26 99 124
2.360043e-001 -7.187509e-001 -8.386444e+000 154 144 117
6.547043e-001 -7.344153e-001 -8.595273e+000 153 25 35
-7.374324e-001 -7.966680e-001 -8.072351e+000 21 45 24
2.345964e-001 -8.167667e-001 -8.528263e+000 146 141 117
4.487850e+000 -7.633032e-001 -1.029400e+001 158 128 107
-6.966163e-001 -8.683039e-001 -8.241065e+000 153 139 22
-6.966163e-001 -8.683039e-001 -8.241065e+000 153 139 22
-4.474745e-001 -8.917991e-001 -8.358882e+000 163 149 20
2.010692e+000 -9.416126e-001 -9.458807e+000 184 114 82
3.022865e+000 -9.029633e-001 -9.852179e+000 137 78 74
3.947872e+000 -8.289457e-001 -1.020994e+001 187 152 118
-1.168145e+000 -9.508499e-001 -8.133006e+000 177 36 45
1.467081e+000 -1.035664e+000 -9.356973e+000 99 49 35
1.467159e+000 -1.035700e+000 -9.356976e+000 99 49 35
2.596667e+000 -9.962611e-001 -9.842148e+000 146 16 28
1.845132e+000 -1.050128e+000 -9.689170e+000 188 125 113
2.647498e+000 -1.050750e+000 -9.900567e+000 153 22 38
2.282311e+000 -1.170087e+000 -9.908537e+000 175 131 100
4.469703e+000 -1.144967e+000 -1.107109e+001 190 162 112
-1.920347e+000 -1.296475e+000 -8.438670e+000 161 155 152
2.028176e+000 -1.406640e-001 -8.661163e+000 183 121 81
2.364105e+000 -1.551235e-001 -8.763195e+000 185 123 82
1.906697e+000 -1.974642e-001 -8.644616e+000 188 128 73
1.903119e+000 -2.035142e-001 -8.638008e+000 188 128 73
-1.036476e+000 -5.914489e-001 -7.779798e+000 170 28 32
-1.040464e+000 -6.018519e-001 -7.768836e+000 170 28 32
-2.219547e+000 -5.143272e-001 -7.480712e+000 188 156 117
3.713327e+000 -1.602355e-001 -1.015101e+001 189 117 89
1.907822e+000 -6.642517e-001 -9.057215e+000 182 111 84
7.790533e-001 -8.007722e-001 -8.735638e+000 15 49 74
1.928846e+000 -8.855628e-001 -9.322729e+000 177 114 82
1.928846e+000 -8.855628e-001 -9.322729e+000 177 114 82
2.039998e+000 -8.928580e-001 -9.403922e+000 182 113 90
2.040325e+000 -8.933207e-001 -9.403783e+000 182 113 90
1.322484e+000 -9.809670e-001 -9.257288e+000 186 116 95
1.875493e+000 -9.890012e-001 -9.483393e+000 179 118 95
1.264687e+000 -1.088433e+000 -9.392493e+000 179 117 96
1.265775e+000 -1.086224e+000 -9.394768e+000 179 117 96
2.114893e+000 -9.962981e-001 -9.783649e+000 182 121 102
5.039970e+000 1.291283e-001 -9.660485e+000 29 24 33
4.787880e+000 -6.463602e-002 -9.810715e+000 159 82 33
4.780334e+000 -6.639420e-002 -9.806109e+000 159 82 33
1.445449e+000 -6.969928e-001 -8.907103e+000 179 113 86
2.333922e+000 -8.851145e-001 -9.528721e+000 182 115 89
2.410113e+000 -8.662407e-001 -9.572190e+000 158 25 38
1.919160e+000 -1.153775e+000 -9.808593e+000 154 32 44
4.512938e+000 -4.418639e-001 -1.003584e+001 93 67 68
4.453906e+000 -8.966104e-001 -1.054499e+001 125 99 77
1.840237e+000 -1.103297e+000 -9.732850e+000 186 121 104
1.592253e+000 -1.189098e+000 -9.759340e+000 181 99 81
-1.300232e-001 -2.472200e-002 -7.652972e+000 150 143 115
3.928576e+000 -1.241572e-001 -9.381107e+000 160 62 34
4.155205e+000 -3.649581e-001 -9.745398e+000 193 152 119
-1.585301e+000 -5.770291e-001 -7.679360e+000 28 87 117
-1.615392e+000 -7.093995e-001 -7.736809e+000 19 87 111
-9.600694e-001 -1.048453e+000 -8.350833e+000 118 121 103
1.343153e+000 -1.138634e+000 -9.516501e+000 188 122 105
1.466881e+000 -1.129485e+000 -9.570085e+000 194 127 112
3.473694e+000 -3.614076e-001 -9.472527e+000 180 123 81
-4.849033e-001 -7.285783e-001 -8.226872e+000 78 106 107
2.035819e+000 -7.860096e-001 -9.248957e+000 178 111 84
1.598606e+000 -1.098202e+000 -1.013108e+001 189 93 94
7.234626e-002 -6.315186e-001 -8.266431e+000 152 144 116
2.284461e+000 -7.803222e-001 -9.433522e+000 189 119 86
1.020443e+000 -8.446030e-002 -8.369677e+000 147 160 142
1.004876e+000 -1.301364e-001 -8.314477e+000 147 160 142
2.229050e+000 3.596141e-001 -8.932511e+000 187 123 85
3.629729e+000 -9.292494e-001 -1.047466e+001 173 130 98
1.497995e+000 -1.259493e+000 -8.738150e+000 134 68 41
-2.254617e+001 2.617058e+001 -4.627227e+001 75 60 53
1.631563e+000 2.239787e-001 -8.310424e+000 191 144 98
-3.502583e-001 -2.877685e-001 -7.793500e+000 137 143 21
-3.675019e-001 -3.283130e-001 -7.839500e+000 19 41 23
3.768892e+000 -2.587391e-001 -9.474364e+000 124 55 6
-5.257693e-001 -3.846067e-001 -7.785053e+000 155 154 29
7.266595e-001 -4.299928e-001 -8.355890e+000 191 160 121
2.627481e+000 -3.200342e-001 -9.042169e+000 193 83 78
-1.257646e-001 -4.727370e-001 -8.058767e+000 102 126 119
-1.624086e+000 -6.920713e-001 -7.683522e+000 20 91 138
2.205929e-001 -8.680582e-001 -8.203933e+000 155 169 143
2.725227e-001 -7.836308e-001 -8.507152e+000 169 157 145
-6.651976e-001 -8.780013e-001 -8.229079e+000 155 154 27
-5.493603e-001 -9.375452e-001 -8.369676e+000 159 161 30
-3.002675e-001 -8.751188e-001 -8.390634e+000 21 55 20
-1.203126e+000 -9.623954e-001 -8.139289e+000 196 150 113
-1.085951e+000 -1.029143e+000 -8.282919e+000 173 171 53
-5.791283e-001 -1.004175e+000 -8.454794e+000 170 160 46
-3.307604e-001 -1.034456e+000 -8.598157e+000 170 172 51
-5.586561e-001 -1.061621e+000 -8.537608e+000 166 165 43
2.987451e+000 -2.565793e-001 -9.143203e+000 202 92 85
2.985203e+000 -2.582125e-001 -9.140328e+000 202 92 85
3.940500e+000 -3.930030e-001 -9.661807e+000 184 85 43
-2.354377e+000 -1.225493e-001 -7.945666e+000 177 150 121
-1.543820e-001 -6.663122e-001 -8.159339e+000 165 155 21
2.695360e+000 -6.538952e-001 -9.351519e+000 205 93 85
2.825097e+000 -7.770944e-001 -9.595434e+000 201 84 81
2.252832e+000 -1.000784e+000 -9.608918e+000 137 87 76
-1.243871e+001 4.160289e+001 -4.697523e+001 100 86 83
-1.124607e+000 -6.838631e-001 -7.814760e+000 182 29 41
-1.124607e+000 -6.838631e-001 -7.814760e+000 182 29 41
1.378720e+000 -9.828281e-001 -9.241284e+000 126 77 73
1.379473e+000 -9.815339e-001 -9.242723e+000 126 77 73
2.221725e+000 -9.706618e-001 -9.592222e+000 199 134 112
3.699503e+000 -9.319924e-001 -1.019500e+001 141 106 87
2.828166e+000 -1.034576e+000 -9.938757e+000 159 21 34
-1.166996e+000 -1.066430e+000 -8.288733e+000 195 39 40
1.332409e+000 -6.495167e-002 -8.343753e+000 91 47 43
-1.187802e+001 4.408992e+001 -4.370331e+001 109 94 90
-1.275243e+001 4.192867e+001 -4.594151e+001 112 92 89
1.750028e-001 -1.325459e-001 -7.925787e+000 163 153 128
-2.004976e+001 2.648652e+001 -4.481934e+001 119 100 85
7.444362e-002 -1.027282e-001 -7.834814e+000 167 152 116
-1.367340e-001 -1.735881e-001 -7.816203e+000 26 48 23
7.919205e-001 -1.119950e-001 -8.149784e+000 195 141 101
1.805160e+000 2.554269e+000 -1.103097e+001 144 23 21
4.364999e+000 -4.118897e-002 -9.556396e+000 183 151 122
-2.432875e-001 -3.217686e-001 -7.848833e+000 150 143 33
7.768668e-001 -2.751408e-001 -8.256220e+000 146 13 29
7.933715e-001 -2.916345e-001 -8.273911e+000 195 133 105
3.768923e+000 -2.363911e-001 -9.444046e+000 128 60 26
3.768923e+000 -2.363911e-001 -9.444046e+000 128 60 26
4.303006e+000 -1.231843e-001 -9.593975e+000 55 22 15
-5.237580e-001 -4.231527e-001 -7.837462e+000 153 142 33
7.294488e-001 -4.041980e-001 -8.325565e+000 194 150 104
3.615362e+000 -3.399642e-001 -9.488778e+000 122 52 7
3.828136e+000 -2.808494e-001 -9.554092e+000 184 66 47
3.770398e+000 -3.810211e-001 -9.566507e+000 168 61 39
4.597028e+000 -2.122258e-001 -9.825967e+000 168 101 55
4.818346e+000 -1.921226e-001 -9.983644e+000 40 2 4
-5.766452e-001 -5.952205e-001 -7.935182e+000 148 137 12
2.263355e-001 -5.209043e-001 -8.197239e+000 117 30 22
2.263355e-001 -5.209043e-001 -8.197239e+000 117 30 22
7.126210e-001 -5.706600e-001 -8.438941e+000 137 10 4
3.668786e+000 -3.895600e-001 -9.542134e+000 106 24 18
-1.614736e+000 -6.607471e-001 -7.650762e+000 30 76 117
-1.015943e+000 -6.190661e-001 -7.799522e+000 205 135 95
-1.015857e+000 -6.252410e-001 -7.793919e+000 205 135 95
-6.972190e-001 1.109827e-001 -8.643623e+000 20 43 16
-8.395945e-001 -7.085933e-001 -7.906810e+000 21 46 29
2.127106e-001 -6.172865e-001 -8.282758e+000 130 20 19
2.925386e-001 -6.002369e-001 -8.295258e+000 157 146 119
7.084431e-001 -6.549330e-001 -8.514949e+000 191 140 108
7.079985e-001 -6.558865e-001 -8.513826e+000 191 140 108
6.999798e-001 -6.848464e-001 -8.548842e+000 189 146 101
2.541814e+000 -6.490329e-001 -9.291106e+000 185 64 71
2.616663e+000 -5.860867e-001 -9.300817e+000 143 19 22
2.912532e+000 -5.570201e-001 -9.364087e+000 186 68 72
3.076655e+000 -5.460777e-001 -9.435600e+000 195 123 83
3.675482e+000 -5.937571e-001 -9.742243e+000 117 44 18
3.731198e+000 -5.876549e-001 -9.805387e+000 161 116 83
4.080237e+000 -5.197483e-001 -9.886778e+000 184 155 127
4.539717e+000 -4.648225e-001 -1.007037e+001 41 13 11
-1.505997e+000 -7.002718e-001 -7.707656e+000 26 84 108
-1.209901e+000 -7.040109e-001 -7.806012e+000 187 137 99
-1.209901e+000 -7.040109e-001 -7.806012e+000 187 137 99
-1.163171e+000 -7.266310e-001 -7.859776e+000 187 145 105
-1.080962e+000 -7.085208e-001 -7.848699e+000 194 143 97
-5.253114e-001 -7.466309e-001 -8.061170e+000 160 149 34
-3.459035e-001 -7.323397e-001 -8.159896e+000 156 146 19
2.830862e-001 -6.944643e-001 -8.384877e+000 114 15 19
2.830862e-001 -6.944643e-001 -8.384877e+000 114 15 19
6.876907e-001 -7.112551e-001 -8.579793e+000 183 144 107
1.268034e+000 -7.344825e-001 -8.858409e+000 169 113 98
2.921699e+000 -6.492405e-001 -9.491924e+000 146 16 28
2.956764e+000 -6.421034e-001 -9.491397e+000 185 66 64
3.665107e+000 -6.870204e-001 -9.853235e+000 173 129 93
3.924590e+000 -6.447543e-001 -9.930820e+000 166 123 90
-1.165572e+000 -7.808075e-001 -7.918518e+000 162 33 31
-1.217046e+000 -8.533420e-001 -7.989513e+000 186 147 108
-1.100421e+000 -8.575217e-001 -8.035081e+000 194 125 92
-1.100629e+000 -8.599279e-001 -8.032730e+000 194 125 92
-6.991897e-001 -7.838728e-001 -8.234305e+000 156 144 52
-3.797590e-001 -8.141419e-001 -8.280169e+000 152 148 25
1.820239e-001 -8.208042e-001 -8.504290e+000 159 128 110
1.832414e-001 -8.168566e-001 -8.509194e+000 159 128 110
2.441548e-001 -7.847334e-001 -8.499733e+000 102 18 20
2.441548e-001 -7.847334e-001 -8.499733e+000 102 18 20
1.722915e-001 -8.514363e-001 -8.536899e+000 150 140 115
6.581871e-001 -7.842595e-001 -8.665675e+000 200 140 111
5.907704e-001 -8.625243e-001 -8.747528e+000 194 149 103
5.907704e-001 -8.625243e-001 -8.747528e+000 194 149 103
6.235417e-001 -8.628395e-001 -8.758470e+000 173 149 92
2.508403e+000 -8.253044e-001 -9.511647e+000 151 16 36
3.202739e+000 -8.085807e-001 -9.810067e+000 76 24 26
3.200432e+000 -8.109770e-001 -9.806715e+000 76 24 26
3.575937e+000 -7.654689e-001 -9.888199e+000 170 125 91
3.599188e+000 -7.415908e-001 -9.920619e+000 170 125 91
3.635225e+000 -8.172354e-001 -1.004747e+001 164 126 93
3.766395e+000 -8.398608e-001 -1.007210e+001 168 127 96
-1.151862e+000 -8.780598e-001 -8.046562e+000 191 133 103
-1.126065e+000 -8.746602e-001 -8.036170e+000 162 22 25
-1.140701e+000 -8.979644e-001 -8.097428e+000 171 30 39
-8.387063e-001 -8.759509e-001 -8.156435e+000 155 147 26
-9.099799e-001 -9.450659e-001 -8.225746e+000 75 93 70
5.990575e-001 -8.797734e-001 -8.771013e+000 146 10 22
5.990085e-001 -8.802843e-001 -8.770398e+000 146 10 22
1.518867e+000 -9.061185e-001 -9.197665e+000 172 115 90
2.597974e+000 -8.956875e-001 -9.649781e+000 175 61 54
2.511408e+000 -9.281520e-001 -9.673192e+000 184 71 71
2.792159e+000 -8.634724e-001 -9.706680e+000 180 60 67
2.807893e+000 -9.125766e-001 -9.781752e+000 142 15 25
3.774631e+000 -9.089248e-001 -1.025599e+001 166 126 100
3.947233e+000 -9.113749e-001 -1.030110e+001 41 23 35
4.477666e+000 -8.735547e-001 -1.055905e+001 159 134 115
5.834638e-001 -9.567412e-001 -8.868927e+000 192 142 113
5.524040e-001 -1.018030e+000 -8.936953e+000 188 147 104
1.585226e+000 -1.002595e+000 -9.364757e+000 180 119 93
1.928401e+000 -9.996800e-001 -9.509491e+000 188 121 94
1.928401e+000 -9.996800e-001 -9.509491e+000 188 121 94
4.460309e+000 -1.011179e+000 -1.071054e+001 169 131 105
-1.100267e+000 -1.053197e+000 -8.317713e+000 147 137 41
-1.114802e+000 -1.060776e+000 -8.382334e+000 142 143 35
5.060106e-001 -1.042177e+000 -8.961350e+000 180 153 114
1.643117e+000 -1.105478e+000 -9.571348e+000 181 124 98
2.548707e+000 -1.068790e+000 -9.942827e+000 142 15 27
3.874839e+000 -1.050132e+000 -1.048510e+001 38 17 17
4.340413e+000 -1.025919e+000 -1.067626e+001 31 11 4
1.138760e+000 -1.159847e+000 -9.534507e+000 180 52 56
1.361041e+000 -1.167993e+000 -9.610723e+000 166 47 49
3.366371e+000 -1.140917e+000 -1.064522e+001 151 85 61
4.948182e+000 2.378917e-001 -9.611329e+000 56 17 19
4.948182e+000 2.378917e-001 -9.611329e+000 56 17 19
2.741442e+000 6.553587e-003 -8.870056e+000 147 15 25
2.741442e+000 6.553587e-003 -8.870056e+000 147 15 25
4.330100e+000 9.642851e-002 -9.447535e+000 72 38 27
2.785260e+000 -1.534209e-001 -8.981045e+000 154 26 30
2.785260e+000 -1.534209e-001 -8.981045e+000 154 26 30
3.001219e+000 -1.490538e-001 -9.060347e+000 172 54 46
4.788417e+000 5.348543e-002 -9.722868e+000 182 101 43
4.901939e+000 5.677916e-002 -9.750244e+000 45 15 13
4.869831e+000 -1.456813e-002 -9.804104e+000 46 14 12
2.761652e+000 -2.204993e-001 -9.004785e+000 151 21 29
2.778070e+000 -2.596053e-001 -9.097658e+000 150 20 28
3.847338e+000 -1.578034e-001 -9.435556e+000 177 104 43
4.848294e+000 -1.469585e-001 -9.850063e+000 138 72 38
-5.806817e-001 -4.070840e-001 -7.806209e+000 27 45 16
-5.806817e-001 -4.070840e-001 -7.806209e+000 27 45 16
4.185721e+000 -3.156887e-001 -9.715836e+000 202 134 82
4.852051e+000 -2.512466e-001 -9.957152e+000 28 12 23
3.828241e+000 -4.788966e-001 -9.693884e+000 182 72 39
-1.120522e+000 -6.429919e-001 -7.775345e+000 174 24 26
-1.120522e+000 -6.429919e-001 -7.775345e+000 174 24 26
-8.524947e-001 -5.534816e-001 -8.026220e+000 158 146 18
-3.175205e-001 -6.755612e-001 -8.107727e+000 155 139 21
-3.175205e-001 -6.755612e-001 -8.107727e+000 155 139 21
-1.269222e-001 -6.857374e-001 -8.176794e+000 21 44 35
1.213043e+000 -6.303690e-001 -8.693708e+000 137 83 71
1.165403e+000 -6.741253e-001 -8.733586e+000 173 110 88
1.308141e+000 -6.364578e-001 -8.746014e+000 68 24 18
2.696694e+000 -6.566300e-001 -9.360410e+000 182 65 66
2.940228e+000 -5.381992e-001 -9.355315e+000 158 5 36
2.940058e+000 -5.760607e-001 -9.398393e+000 141 17 30
3.798369e+000 -6.870753e-001 -9.748416e+000 160 114 81
1.895482e-001 -6.937866e-001 -8.348275e+000 105 16 18
1.914402e-001 -7.454112e-001 -8.416456e+000 159 145 106
1.946995e+000 -6.748970e-001 -9.058393e+000 181 115 91
1.948302e+000 -6.745201e-001 -9.059023e+000 181 115 91
2.625575e+000 -7.187640e-001 -9.386377e+000 153 25 35
3.386493e+000 -6.573790e-001 -9.692746e+000 162 73 42
4.790431e+000 -5.290193e-001 -1.043819e+001 137 83 61
-1.223013e+000 -7.590913e-001 -7.945991e+000 170 31 38
-3.469381e-001 -8.048433e-001 -8.244085e+000 154 145 28
2.792975e+000 -8.222466e-001 -9.640723e+000 195 71 79
3.213421e+000 -7.782066e-001 -9.774194e+000 103 55 40
3.708136e+000 -8.243316e-001 -1.006992e+001 169 128 96
-1.223648e+000 -8.732723e-001 -8.026491e+000 184 151 96
-1.147512e+000 -9.211758e-001 -8.100629e+000 173 25 33
1.875359e+000 -8.875407e-001 -9.317912e+000 108 60 55
1.875359e+000 -8.875407e-001 -9.317912e+000 108 60 55
2.550845e+000 -9.462979e-001 -9.685118e+000 152 15 34
2.840957e+000 -9.261464e-001 -9.787606e+000 181 65 66
3.103741e+000 -9.026747e-001 -9.913921e+000 184 116 90
3.745165e+000 -8.483137e-001 -1.013488e+001 71 33 14
3.745165e+000 -8.483137e-001 -1.013488e+001 71 33 14
4.476205e+000 -7.886067e-001 -1.045491e+001 160 131 113
-1.163277e+000 -9.904876e-001 -8.187592e+000 181 148 101
-1.094259e+000 -1.009964e+000 -8.255781e+000 77 98 93
-4.622320e-001 -9.771309e-001 -8.466827e+000 153 141 39
-4.622320e-001 -9.771309e-001 -8.466827e+000 153 141 39
1.376664e+000 -9.928069e-001 -9.253484e+000 129 75 75
1.502946e+000 -9.587730e-001 -9.262345e+000 102 54 50
1.695545e+000 -1.026618e+000 -9.448280e+000 108 57 35
1.698747e+000 -1.021756e+000 -9.454963e+000 108 57 35
2.451139e+000 -9.635177e-001 -9.723813e+000 153 17 38
2.617022e+000 -9.998777e-001 -9.803175e+000 196 78 87
2.752648e+000 -1.030418e+000 -9.918812e+000 161 25 45
2.989305e+000 -9.952779e-001 -9.979399e+000 59 17 28
2.236813e+000 -1.099074e+000 -9.781666e+000 183 116 99
2.390943e+000 -1.070949e+000 -9.851040e+000 151 28 38
4.551876e+000 1.407082e-001 -9.520728e+000 190 160 129
2.335736e+000 -9.660164e-002 -8.760789e+000 90 39 23
4.764298e+000 -4.138184e-002 -9.783419e+000 184 92 32
2.069842e+000 -2.088756e-001 -8.724130e+000 114 76 53
2.673529e+000 -1.679928e-001 -8.955121e+000 154 40 39
4.621649e+000 -9.224704e-002 -9.722104e+000 149 73 19
-4.934163e-001 -4.254604e-001 -7.849361e+000 49 87 80
-2.779849e-001 -3.901477e-001 -7.917564e+000 169 150 37
4.504176e+000 -2.657084e-001 -9.819213e+000 171 90 33
4.795141e+000 -3.336384e-001 -1.007981e+001 132 58 32
2.329699e+000 -6.216791e-001 -9.174270e+000 96 45 34
2.387437e+000 -6.119423e-001 -9.191621e+000 187 120 95
-2.571760e+000 5.619171e-001 -8.761266e+000 180 150 115
-1.126264e+000 -7.485115e-001 -7.888171e+000 168 27 31
-1.126264e+000 -7.485115e-001 -7.888171e+000 168 27 31
-6.734705e-001 -7.877584e-001 -8.092463e+000 56 97 87
2.807452e-001 -7.694008e-001 -8.487822e+000 156 140 114
1.157443e+000 -7.496184e-001 -8.819300e+000 100 47 39
2.280991e+000 -7.044128e-001 -9.259279e+000 124 82 70
4.625837e+000 -5.876696e-001 -1.019343e+001 102 35 19
-7.984755e-001 -8.313735e-001 -8.117414e+000 157 149 21
-3.828576e-001 -7.855943e-001 -8.241589e+000 156 141 34
2.333405e-001 -8.195134e-001 -8.525871e+000 146 141 117
2.827539e+000 -7.567550e-001 -9.557378e+000 170 55 60
2.823452e+000 -8.512800e-001 -9.669130e+000 151 23 30
3.984394e+000 -7.399403e-001 -1.010626e+001 188 155 122
3.961033e+000 -7.902894e-001 -1.016516e+001 192 154 117
-1.245988e+000 -8.639690e-001 -8.004720e+000 172 31 38
3.448058e+000 -8.576361e-001 -9.968966e+000 171 129 92
-1.169575e+000 -9.524203e-001 -8.131917e+000 177 36 45
-2.525845e-001 -9.740483e-001 -8.538378e+000 159 142 28
-2.518876e-001 -9.708438e-001 -8.541558e+000 159 142 28
2.095974e+000 -1.017103e+000 -9.514039e+000 186 123 92
-6.194574e-001 -1.056099e+000 -8.511441e+000 163 151 36
5.858226e-001 -1.118175e+000 -9.168321e+000 13 74 108
3.574518e+000 -1.159422e+000 -1.058768e+001 186 141 103
1.050909e+000 -1.192703e+000 -9.650493e+000 183 60 68
1.534197e+000 -1.189061e-001 -8.454998e+000 106 57 42
1.568041e+000 -1.940896e-001 -8.520577e+000 182 114 83
1.568041e+000 -1.940896e-001 -8.520577e+000 182 114 83
1.805106e+000 -1.845079e-001 -8.609027e+000 190 120 86
1.805106e+000 -1.845079e-001 -8.609027e+000 190 120 86
2.262749e+000 -1.297180e-001 -8.748357e+000 183 125 85
2.263315e+000 -1.597970e-001 -8.794729e+000 184 129 94
1.617310e+000 -2.147273e-001 -8.556282e+000 165 107 85
1.617310e+000 -2.147273e-001 -8.556282e+000 165 107 85
-1.597048e-001 -3.837489e-001 -7.967917e+000 161 145 13
8.873305e-001 -4.469688e-001 -8.418286e+000 16 43 70
3.289233e+000 -3.754985e-001 -9.366783e+000 191 132 90
1.269387e+000 -6.121033e-001 -8.729414e+000 184 119 90
2.076440e+000 -6.492339e-001 -9.066979e+000 140 87 81
2.076440e+000 -6.492339e-001 -9.066979e+000 140 87 81
-3.169505e-001 -7.275064e-001 -8.180371e+000 159 153 30
2.620308e-001 -8.485679e-001 -8.591366e+000 139 138 117
6.672135e-001 -8.627971e-001 -8.803021e+000 111 10 26
2.492365e+000 -8.702484e-001 -9.594684e+000 154 26 35
2.647783e+000 -8.994913e-001 -9.705076e+000 149 15 30
1.848158e+000 -1.054887e+000 -9.602847e+000 178 115 98
4.412770e+000 2.044956e-001 -9.404165e+000 156 122 92
2.532603e+000 -2.338188e-001 -8.924198e+000 187 122 82
4.768601e+000 -1.581092e-001 -9.901285e+000 159 87 29
3.154718e+000 -4.201373e-001 -9.398984e+000 192 126 81
-5.070028e-001 -7.529843e-001 -8.121307e+000 60 104 105
2.649121e-001 -7.238958e-001 -8.422329e+000 156 138 117
4.026693e+000 -6.745239e-001 -1.005027e+001 170 144 110
3.005834e-001 -8.286361e-001 -8.567049e+000 138 100 89
3.159153e+000 -7.693800e-001 -9.743664e+000 182 115 92
2.995177e+000 -8.485967e-001 -9.831131e+000 187 113 87
3.348496e+000 -9.372230e-001 -1.005505e+001 96 59 42
3.348488e+000 -9.386939e-001 -1.005364e+001 96 59 42
1.039647e+000 -1.047124e+000 -9.160413e+000 97 46 31
4.404265e+000 -1.087118e+000 -1.080632e+001 173 156 137
-3.256601e-001 -4.199362e-001 -7.958142e+000 26 51 21
-7.076299e-002 -9.954761e-001 -8.661067e+000 22 50 25
-7.039499e-002 -9.921372e-001 -8.662809e+000 22 50 25
-5.943454e-001 -1.043198e+000 -8.504130e+000 129 129 82
4.267171e+000 -1.036856e+000 -1.068050e+001 153 135 133
4.257539e+000 -2.771662e-002 -9.515963e+000 204 123 47
2.924245e+000 -3.010088e-001 -9.252870e+000 157 21 30
2.878485e+000 -4.294913e-001 -9.310139e+000 146 13 26
-8.966768e-001 -5.706374e-001 -7.850933e+000 19 76 102
-1.162625e-001 -7.215143e-001 -8.111662e+000 28 47 28
3.312747e+000 -8.279088e-001 -9.901450e+000 176 123 84
1.629644e+000 -7.756402e-001 -9.079035e+000 179 110 79
3.165176e+000 -9.628939e-001 -9.975410e+000 187 117 91
2.183498e+000 -1.617309e-001 -8.722277e+000 171 120 101
-1.523087e+000 -6.194290e-001 -7.553649e+000 17 80 111
4.324206e+000 -1.068651e+000 -1.092794e+001 189 168 148
4.908936e+000 3.932309e-001 -9.667251e+000 183 95 34
