ply
format ascii 1.0
element face 0
property list uchar int vertex_indices
element vertex 882
property float x
property float y
property float z
property uchar diffuse_red
property uchar diffuse_green
property uchar diffuse_blue
end_header
1.121092e+000 1.300395e+000 -8.861895e+000 168 41 42
2.764688e+000 1.519917e+000 -9.721231e+000 160 122 113
2.779614e+000 1.520072e+000 -9.782921e+000 160 122 113
2.815541e+000 1.547922e+000 -9.755437e+000 84 52 53
2.829717e+000 1.377194e+000 -9.489197e+000 87 57 71
1.268387e+000 1.127029e+000 -8.673777e+000 152 28 32
1.498885e+000 1.254923e+000 -8.927677e+000 136 144 132
2.221581e+000 1.212228e+000 -9.058675e+000 96 70 74
-1.998125e+000 8.443986e-001 -7.700594e+000 121 95 68
-1.034273e+000 1.008705e+000 -7.833813e+000 161 23 23
9.488399e-001 9.789929e-001 -8.412697e+000 169 163 131
2.878138e+000 1.149030e+000 -9.293560e+000 143 112 92
4.795522e+000 1.248321e+000 -1.037241e+001 32 23 37
4.795718e+000 1.195516e+000 -1.025570e+001 38 24 30
-2.564876e+000 7.139145e-001 -8.393813e+000 194 110 96
-1.823581e+000 8.300321e-001 -7.534512e+000 207 185 146
-1.078671e+000 7.708275e-001 -7.534632e+000 181 35 39
-9.597402e-001 8.553139e-001 -7.647018e+000 179 39 40
6.961154e-001 8.845486e-001 -8.226841e+000 170 154 131
8.047066e-001 8.036467e-001 -8.179742e+000 166 165 129
9.775295e-001 8.917628e-001 -8.323431e+000 172 160 123
2.065869e+000 9.430557e-001 -8.764200e+000 164 92 84
2.101326e+000 9.688932e-001 -8.815697e+000 79 39 44
2.099381e+000 9.692520e-001 -8.809661e+000 79 39 44
2.157482e+000 8.097042e-001 -8.677876e+000 71 29 39
4.823719e+000 9.325742e-001 -9.917199e+000 157 87 45
-5.731643e-001 6.047047e-001 -7.503789e+000 166 156 32
8.903039e-001 7.228652e-001 -8.155419e+000 175 159 126
8.917687e-001 7.219579e-001 -8.169195e+000 175 159 126
2.014037e+000 7.974451e-001 -8.651008e+000 172 93 80
2.208815e+000 6.787916e-001 -8.601971e+000 86 31 34
2.964786e+000 6.629640e-001 -8.891733e+000 79 32 42
4.584942e+000 7.929494e-001 -9.416334e+000 179 148 109
-1.941735e+000 5.342185e-001 -7.526557e+000 211 185 152
2.059476e+000 5.677173e-001 -8.496173e+000 94 27 34
2.255749e+000 6.180058e-001 -8.562068e+000 141 83 83
4.710065e+000 6.276682e-001 -9.544412e+000 184 154 130
2.741346e+000 4.461477e-001 -8.744310e+000 163 108 69
3.974811e+000 4.752081e-001 -9.196349e+000 145 59 28
3.324875e+000 2.684586e-001 -8.951315e+000 177 116 57
4.324192e+000 2.161719e-001 -9.366446e+000 70 38 31
4.569101e+000 1.785323e-001 -9.478552e+000 48 13 20
3.196311e+000 8.696684e-002 -8.967204e+000 198 136 104
3.956407e+000 1.167446e-006 -9.336090e+000 195 88 42
-2.303838e+000 -2.624827e-001 -7.928912e+000 185 161 135
7.956363e-002 -8.628754e-002 -7.790402e+000 70 94 52
7.987628e-002 -8.408525e-002 -7.783725e+000 70 94 52
1.905019e+000 -2.082945e-001 -8.631725e+000 193 139 105
1.973072e+000 -1.826913e-001 -8.639937e+000 117 71 71
2.474908e+000 -1.615016e-001 -8.851247e+000 189 141 110
3.311791e+000 -2.319133e-001 -9.230265e+000 203 150 119
-2.385655e+000 -3.876678e-001 -8.207107e+000 196 174 157
-2.177946e-001 -2.831855e-001 -7.805890e+000 135 145 50
4.096808e+000 -4.795217e-001 -9.813243e+000 92 71 65
-4.165153e-001 -4.845608e-001 -7.876290e+000 32 55 46
-2.558399e-001 -4.221514e-001 -7.888885e+000 29 56 41
4.187253e-001 -5.151758e-001 -8.224687e+000 134 75 65
4.186244e-001 -5.078711e-001 -8.191868e+000 134 75 65
9.032307e-001 -4.940887e-001 -8.382808e+000 19 66 106
-9.924531e-001 -5.973906e-001 -7.717854e+000 182 49 49
-5.640465e-001 -5.603761e-001 -7.853600e+000 52 106 120
-1.066101e-001 -6.235714e-001 -8.107331e+000 34 53 35
-1.066101e-001 -6.235714e-001 -8.107331e+000 34 53 35
3.130900e-001 -5.706126e-001 -8.217945e+000 164 156 136
2.406225e+000 -7.712769e-001 -9.325134e+000 160 34 42
2.395929e+000 -8.576122e-001 -9.477035e+000 155 35 38
-1.199697e+000 -8.546838e-001 -7.938476e+000 189 38 38
-1.026339e+000 -8.308052e-001 -7.940791e+000 182 42 50
-1.026339e+000 -8.308052e-001 -7.940791e+000 182 42 50
-6.621816e-001 -8.573204e-001 -8.157592e+000 142 154 62
3.805463e-001 -7.923891e-001 -8.489447e+000 159 159 149
5.418009e+000 -1.343928e+000 -8.743332e+000 153 129 125
4.903337e+000 -2.157984e+000 -9.787143e+000 150 129 124
-3.494159e-001 1.593557e+000 -8.708537e+000 122 118 37
-3.494159e-001 1.593557e+000 -8.708537e+000 122 118 37
-2.866314e-001 1.424551e+000 -8.564491e+000 30 56 48
5.491834e-001 1.591425e+000 -9.010745e+000 182 154 124
2.916015e+000 1.684957e+000 -1.005476e+001 136 65 32
-1.087788e+000 1.322464e+000 -8.168843e+000 27 48 10
3.045025e-002 1.318387e+000 -8.492346e+000 29 56 18
3.045025e-002 1.318387e+000 -8.492346e+000 29 56 18
1.182986e+000 1.328155e+000 -8.903752e+000 156 30 34
-2.026088e+000 1.022864e+000 -7.843839e+000 201 178 143
-9.756329e-001 1.007688e+000 -7.838130e+000 175 42 38
9.876480e-001 9.995452e-001 -8.469272e+000 177 34 43
-1.902578e+000 7.665980e-001 -7.587880e+000 207 183 149
-9.279852e-001 7.808997e-001 -7.562021e+000 174 41 44
-8.492839e-001 7.554486e-001 -7.544521e+000 180 41 42
6.776641e-001 8.515751e-001 -8.192567e+000 173 42 37
3.124598e+000 8.980002e-001 -9.041044e+000 79 49 69
-9.764940e-001 6.467305e-001 -7.394536e+000 194 164 119
2.199078e+000 7.642937e-001 -8.672265e+000 83 32 41
-2.213652e+000 1.723881e-001 -7.646491e+000 190 163 124
1.446425e+000 -3.801163e-002 -8.322653e+000 154 98 82
2.151573e+000 -1.593780e-001 -8.712096e+000 195 142 111
2.418919e+000 -1.830456e-001 -8.815334e+000 135 80 59
2.418919e+000 -1.830456e-001 -8.815334e+000 135 80 59
2.605741e+000 -2.059142e-001 -8.939141e+000 166 22 38
3.652283e+000 -1.579738e-001 -9.359613e+000 193 132 87
3.625835e+000 -2.127516e-001 -9.364567e+000 181 148 92
8.370108e-001 -3.209674e-001 -8.233701e+000 160 37 55
3.191754e+000 -3.907535e-001 -9.302664e+000 127 80 60
3.199096e+000 -3.917528e-001 -9.312685e+000 127 80 60
4.104235e+000 -3.673043e-001 -9.712336e+000 197 171 124
-1.104239e+000 -5.985868e-001 -7.686952e+000 193 44 49
-1.772808e-001 -7.014425e-001 -8.153562e+000 173 165 93
-1.274910e-001 -6.812453e-001 -8.157555e+000 177 169 66
7.272726e-001 -7.331148e-001 -8.535961e+000 121 41 64
1.501810e+000 -7.815497e-001 -8.945465e+000 193 132 104
1.864165e+000 -7.837073e-001 -9.148951e+000 200 136 111
3.426094e-001 -7.692171e-001 -8.437917e+000 147 118 113
4.990443e-001 -1.003306e+000 -8.877278e+000 162 38 54
6.539776e-001 -7.868281e-001 -8.608687e+000 194 125 118
7.289354e-001 -9.313858e-001 -8.833820e+000 20 64 98
-1.113141e+000 -1.028113e+000 -8.196490e+000 177 42 33
5.189117e+000 -2.442017e+000 -9.266314e+000 132 111 111
5.276296e+000 -2.195219e+000 -8.646521e+000 125 104 104
4.893549e+000 -2.828020e+000 -9.736627e+000 130 110 108
4.893549e+000 -2.828020e+000 -9.736627e+000 130 110 108
4.393720e+000 1.942493e+000 -1.120973e+001 158 117 89
-1.063977e+000 1.321917e+000 -8.190856e+000 41 63 34
-5.584012e-001 1.292921e+000 -8.339593e+000 181 165 42
7.500223e-001 1.383334e+000 -8.819129e+000 173 149 123
-1.153262e+000 1.070486e+000 -7.855006e+000 156 72 51
1.057341e+000 1.214094e+000 -8.805813e+000 164 30 37
1.593763e+000 1.208457e+000 -8.867977e+000 21 73 114
-2.032271e+000 8.826299e-001 -7.740836e+000 210 186 149
3.379480e+000 8.884946e-001 -9.224501e+000 26 25 50
-4.684944e-001 6.479687e-001 -7.586054e+000 74 108 115
2.880953e+000 5.487121e-001 -8.810291e+000 179 129 75
2.657976e+000 8.516358e-002 -8.766160e+000 160 29 42
1.443612e+000 -3.603339e-002 -8.309112e+000 155 99 83
3.314929e+000 -1.322337e-001 -9.146204e+000 202 146 110
4.759425e-002 -1.889268e-001 -7.852261e+000 24 57 20
-2.386346e+000 -4.728458e-001 -8.187369e+000 70 46 42
7.406421e-001 -5.298112e-001 -8.371041e+000 175 110 83
-7.662505e-001 -6.700021e-001 -7.871309e+000 34 64 35
-7.680998e-001 -6.744382e-001 -7.889757e+000 34 64 35
-3.325228e-001 -9.195937e-001 -8.374931e+000 146 148 131
-3.325228e-001 -9.195937e-001 -8.374931e+000 146 148 131
-1.216579e+000 -1.005013e+000 -8.127423e+000 188 122 104
5.325377e+000 -1.207204e+000 -8.943817e+000 164 143 139
5.284983e+000 -1.548839e+000 -8.966381e+000 153 135 132
4.756615e+000 -2.488751e+000 -1.016343e+001 53 43 47
4.836928e+000 -2.435843e+000 -1.006309e+001 146 126 125
-7.449461e-001 1.455997e+000 -8.446553e+000 32 56 30
3.404285e+000 1.756113e+000 -1.032135e+001 81 34 27
-1.054573e+000 1.252318e+000 -8.129149e+000 155 147 117
-4.937055e-001 1.255882e+000 -8.322355e+000 30 61 26
3.648118e-001 1.412912e+000 -8.773685e+000 193 36 48
8.097330e-001 1.354179e+000 -8.779905e+000 187 35 37
2.388721e+000 1.517596e+000 -9.566189e+000 161 130 110
5.430623e-001 1.147391e+000 -8.462057e+000 169 149 124
1.081228e+000 1.157936e+000 -8.705515e+000 149 33 29
2.264712e+000 1.303365e+000 -9.266216e+000 135 109 94
1.121198e+000 1.081108e+000 -8.645828e+000 159 23 32
1.746038e+000 8.298673e-001 -8.521184e+000 20 71 108
1.745341e+000 8.302583e-001 -8.520316e+000 20 71 108
2.429325e+000 8.700666e-001 -8.820576e+000 89 45 54
2.756666e+000 8.803832e-001 -8.979663e+000 137 108 94
-1.898953e+000 5.976590e-001 -7.526028e+000 187 160 133
4.131225e+000 8.346736e-001 -9.462238e+000 177 85 31
4.777407e+000 3.333189e-001 -9.527332e+000 195 106 43
4.740276e+000 -1.586822e-001 -9.881323e+000 158 93 24
4.532612e+000 -6.906934e-001 -1.038039e+001 146 136 109
-4.674381e-001 -6.072816e-001 -7.913479e+000 33 58 44
-4.669729e-001 -6.099942e-001 -7.925814e+000 33 58 44
-7.072158e-001 -8.452758e-001 -8.115375e+000 37 60 40
-6.325921e-001 -7.030669e-001 -7.993185e+000 40 63 42
-5.466181e-001 -8.262081e-001 -8.159428e+000 34 58 34
-4.760765e-001 -9.567081e-001 -8.352052e+000 33 62 35
5.415154e+000 -9.862655e-001 -8.747394e+000 148 122 121
5.373141e+000 -1.067045e+000 -8.813382e+000 143 122 117
5.285336e+000 -1.300156e+000 -9.013754e+000 140 119 117
4.540719e+000 -3.070385e+000 -1.061859e+001 147 128 124
-4.237548e-001 1.621155e+000 -8.737838e+000 38 62 33
2.410462e+000 1.619389e+000 -9.731543e+000 76 25 26
2.407647e+000 1.618535e+000 -9.717554e+000 76 25 26
2.743817e+000 1.623671e+000 -9.911701e+000 103 25 23
-2.064212e-002 1.372104e+000 -8.575895e+000 175 155 106
-2.061202e-002 1.372210e+000 -8.576060e+000 175 155 106
9.832926e-001 9.489775e-001 -8.375077e+000 179 29 38
3.247675e+000 9.076101e-001 -9.186839e+000 161 126 81
2.028583e+000 6.857914e-001 -8.602007e+000 160 90 79
4.647223e+000 5.619310e-001 -9.507697e+000 190 154 123
4.467641e+000 2.017083e-001 -9.433060e+000 150 126 110
3.115415e+000 8.894607e-002 -8.924091e+000 158 17 33
3.115415e+000 8.894607e-002 -8.924091e+000 158 17 33
2.018157e+000 -7.731237e-001 -9.180401e+000 193 128 108
2.697780e+000 -8.945766e-001 -9.685632e+000 172 33 46
4.346150e+000 -1.042022e+000 -1.069136e+001 146 129 112
2.198557e-001 -7.918262e-001 -8.477372e+000 169 122 109
-5.589976e-001 -9.490149e-001 -8.298980e+000 123 136 134
5.150520e+000 -1.640014e+000 -9.313625e+000 146 125 123
-1.556429e+000 1.450208e+000 -8.087253e+000 119 127 125
-1.098834e+000 1.411238e+000 -8.244458e+000 107 126 121
-3.122137e-001 1.233705e+000 -8.354800e+000 176 155 117
-8.501568e-001 9.813961e-001 -7.892876e+000 42 94 115
4.653724e+000 1.120031e+000 -1.001964e+001 162 93 48
-5.811631e-002 8.019843e-001 -7.900662e+000 33 57 35
-2.886073e-001 6.485388e-001 -7.651897e+000 167 156 115
-2.886073e-001 6.485388e-001 -7.651897e+000 167 156 115
1.906137e+000 6.671045e-001 -8.490310e+000 184 137 90
-6.224241e-001 5.747900e-001 -7.443046e+000 26 59 35
-4.981964e-001 3.876145e-001 -7.467201e+000 48 103 124
-1.570050e-001 9.486303e-002 -7.611397e+000 156 154 142
3.956188e+000 -1.270109e-001 -9.391784e+000 192 94 47
-5.298013e-002 1.475397e+000 -8.657350e+000 136 130 30
5.047538e+000 4.059484e-001 -9.613957e+000 204 96 51
1.043228e+000 1.195349e-001 -8.120333e+000 171 160 140
4.412557e+000 1.843163e+000 -1.110909e+001 147 111 75
2.848711e+000 1.270460e+000 -9.241180e+000 87 59 72
3.949244e+000 8.892677e-001 -9.425076e+000 148 26 40
3.857934e+000 7.117483e-001 -9.271099e+000 168 127 83
-1.487097e+000 -5.271159e-001 -7.614354e+000 19 90 134
2.553043e+000 1.443549e+000 -9.737672e+000 147 116 96
3.129080e+000 1.651301e+000 -1.022474e+001 160 121 78
2.412320e+000 4.212214e-001 -8.564851e+000 177 138 99
-9.458580e-001 7.296580e-001 -7.433713e+000 199 161 124
3.173048e+000 3.844567e-001 -8.911828e+000 169 118 53
1.452408e+000 7.752210e-001 -8.353717e+000 159 24 30
2.350105e+000 2.624569e-001 -8.620988e+000 183 141 103
4.554406e+000 4.883887e-001 -9.585938e+000 194 111 40
2.948619e+000 1.398304e+000 -9.632409e+000 64 38 43
-1.012188e+000 1.158668e+000 -8.068259e+000 159 157 109
-1.012188e+000 1.158668e+000 -8.068259e+000 159 157 109
-7.986647e-001 1.061940e+000 -7.987602e+000 71 106 114
3.040515e+000 9.682338e-001 -9.164532e+000 75 45 49
2.785930e+000 5.699657e-001 -8.772929e+000 160 119 69
3.471304e+000 5.629458e-001 -9.043891e+000 149 141 153
4.624178e+000 6.203202e-001 -9.520591e+000 177 141 122
4.568855e+000 1.390007e-001 -9.507054e+000 68 34 40
9.381469e-001 -8.048826e-002 -8.135618e+000 21 82 117
2.739277e+000 9.696545e-001 -9.056713e+000 143 118 113
3.118553e+000 6.730176e-001 -8.958014e+000 66 26 35
2.806729e+000 -5.803408e-002 -8.913268e+000 164 38 48
2.942507e+000 1.127417e+000 -9.270298e+000 64 39 52
-1.003043e+000 6.112721e-001 -7.338146e+000 171 35 47
2.995742e+000 -8.464671e-002 -8.976329e+000 188 84 80
2.995742e+000 -8.464671e-002 -8.976329e+000 188 84 80
3.305899e+000 2.511804e-001 -8.910490e+000 169 117 67
8.059608e-001 -1.941257e-001 -8.112772e+000 149 75 51
-3.010926e-001 1.075322e+000 -8.109897e+000 163 152 106
-2.919577e-001 1.074905e+000 -8.114920e+000 163 152 106
2.757825e+000 1.651264e+000 -9.959705e+000 140 61 48
-1.022018e+000 1.251648e+000 -8.144192e+000 65 102 112
2.073150e+000 1.367617e+000 -9.250924e+000 84 65 71
-1.123187e+000 1.144585e+000 -7.970617e+000 197 144 112
-1.098160e+000 1.156613e+000 -7.996933e+000 174 41 38
2.525793e+000 1.245233e+000 -9.283656e+000 24 8 12
-1.878234e+000 9.595414e-001 -7.673983e+000 205 183 148
1.593129e+000 9.799709e-001 -8.639688e+000 171 166 144
1.994245e+000 1.013720e+000 -8.813142e+000 143 88 93
2.721627e+000 1.144827e+000 -9.249318e+000 144 114 104
-9.430101e-001 7.779924e-001 -7.559996e+000 182 27 33
-9.430101e-001 7.779924e-001 -7.559996e+000 182 27 33
1.894031e+000 8.792454e-001 -8.663238e+000 178 87 64
1.983071e+000 8.526012e-001 -8.655176e+000 162 93 81
2.129876e+000 8.931062e-001 -8.750755e+000 71 15 16
2.331288e+000 8.717354e-001 -8.794824e+000 133 105 104
2.332035e+000 8.706168e-001 -8.799772e+000 133 105 104
-4.598332e-001 6.701681e-001 -7.589957e+000 79 112 113
1.842918e+000 6.906053e-001 -8.473071e+000 189 139 87
2.259199e+000 6.931156e-001 -8.636777e+000 129 69 71
3.708102e+000 7.321937e-001 -9.204853e+000 32 69 105
2.372495e+000 5.814119e-001 -8.622880e+000 82 26 33
3.018919e+000 4.529639e-001 -8.848418e+000 131 74 27
2.970047e+000 3.521411e-001 -8.813195e+000 142 86 35
2.532811e-001 -5.348711e-001 -8.181969e+000 133 46 42
-9.077207e-001 -5.717873e-001 -7.715944e+000 165 182 159
-1.253746e+000 1.250847e+000 -8.021179e+000 177 151 114
1.190130e+000 1.301281e+000 -8.827617e+000 156 25 30
2.099280e+000 1.198004e+000 -9.090533e+000 81 60 65
3.000909e+000 1.365015e+000 -9.567656e+000 172 131 97
2.389986e+000 1.061348e+000 -9.058624e+000 135 104 93
2.028434e+000 8.596325e-001 -8.662429e+000 162 94 82
-2.062331e+000 4.854361e-001 -7.080408e+000 178 147 117
1.530460e+000 5.884162e-001 -8.299155e+000 150 20 28
3.065505e+000 5.676155e-001 -8.894699e+000 171 130 79
4.033017e+000 4.995204e-001 -9.226939e+000 204 114 39
-1.006485e-001 -5.979302e-002 -7.700622e+000 95 125 132
-1.006485e-001 -5.979302e-002 -7.700622e+000 95 125 132
2.696910e+000 -9.938774e-002 -8.868683e+000 168 27 39
-5.090505e-001 -5.351488e-001 -7.869208e+000 170 165 24
5.170960e+000 -1.534443e+000 -9.250318e+000 149 127 129
2.080225e+000 7.472387e-001 -8.598890e+000 178 98 84
2.018158e+000 5.489304e-001 -8.497936e+000 181 138 96
5.248459e+000 -1.814382e+000 -9.031922e+000 131 107 105
5.414697e+000 -1.711510e+000 -8.686017e+000 161 135 139
1.559949e+000 1.098345e+000 -8.761198e+000 136 143 120
-5.411488e-001 7.887356e-001 -7.707399e+000 167 160 41
-5.407244e-001 7.895788e-001 -7.706462e+000 167 160 41
-1.546880e+000 -6.377745e-001 -7.598181e+000 28 97 141
4.790045e-001 1.176853e+000 -8.523814e+000 178 41 39
-2.237113e-001 1.150578e+000 -8.238545e+000 33 61 34
5.255639e+000 -1.313411e+000 -8.990896e+000 154 131 129
6.009946e-001 1.643459e+000 -9.140326e+000 182 140 115
1.959351e+000 1.726605e+000 -9.835713e+000 30 67 91
2.052838e+000 1.737790e+000 -9.835691e+000 27 71 90
2.031138e+000 1.673857e+000 -9.689451e+000 28 67 93
2.893167e+000 1.730376e+000 -1.009632e+001 168 125 85
-1.125679e+000 1.342732e+000 -8.157149e+000 148 146 35
-1.125679e+000 1.342732e+000 -8.157149e+000 148 146 35
-8.031912e-001 1.467446e+000 -8.438803e+000 158 154 85
8.247698e-001 1.440051e+000 -8.925885e+000 165 160 124
1.642023e+000 1.497587e+000 -9.282390e+000 87 58 81
2.499167e+000 1.623089e+000 -9.825147e+000 157 38 37
2.725688e+000 1.551805e+000 -9.740760e+000 118 70 61
-1.203278e+000 1.164009e+000 -7.962774e+000 177 28 31
-1.099419e+000 1.264255e+000 -8.141083e+000 56 101 115
-1.086619e+000 1.184950e+000 -8.033298e+000 203 142 103
1.135540e+000 1.334609e+000 -8.896820e+000 187 141 98
1.136530e+000 1.333960e+000 -8.909119e+000 187 141 98
2.717313e+000 1.405289e+000 -9.556597e+000 109 45 37
2.798051e+000 1.434300e+000 -9.632529e+000 140 86 79
2.794174e+000 1.433029e+000 -9.612757e+000 140 86 79
-1.217124e+000 1.141642e+000 -7.935353e+000 192 156 118
-1.191920e+000 1.086224e+000 -7.873903e+000 188 146 106
-1.192104e+000 1.087037e+000 -7.866779e+000 188 146 106
-1.143410e+000 1.033362e+000 -7.823172e+000 171 20 27
1.161469e+000 1.277063e+000 -8.825627e+000 210 145 113
1.159531e+000 1.203562e+000 -8.756529e+000 198 158 100
1.319082e+000 1.144442e+000 -8.726266e+000 167 43 45
1.487195e+000 1.193939e+000 -8.851137e+000 166 167 149
1.487313e+000 1.194397e+000 -8.849824e+000 166 167 149
2.105075e+000 1.281052e+000 -9.167303e+000 84 61 69
2.395196e+000 1.176144e+000 -9.192114e+000 138 110 91
2.544122e+000 1.264509e+000 -9.318011e+000 133 115 100
2.570343e+000 1.281882e+000 -9.344835e+000 50 27 11
2.544613e+000 1.193410e+000 -9.233976e+000 31 12 12
2.795413e+000 1.307734e+000 -9.445818e+000 151 107 100
2.800298e+000 1.306044e+000 -9.459422e+000 151 107 100
-1.102745e+000 9.402606e-001 -7.714245e+000 204 155 123
-1.100693e+000 9.419117e-001 -7.704394e+000 204 155 123
-1.101753e+000 8.993605e-001 -7.661631e+000 204 146 107
-1.102777e+000 8.989809e-001 -7.662161e+000 204 146 107
-1.012346e+000 1.028213e+000 -7.856780e+000 191 129 89
-1.012346e+000 1.028213e+000 -7.856780e+000 191 129 89
-1.045287e+000 9.812797e-001 -7.798798e+000 182 159 116
-1.475701e-001 9.485856e-001 -8.022740e+000 140 149 44
-1.475701e-001 9.485856e-001 -8.022740e+000 140 149 44
1.235859e+000 1.054726e+000 -8.598448e+000 209 154 126
1.556366e+000 1.127991e+000 -8.801205e+000 38 81 117
1.553715e+000 1.127308e+000 -8.801846e+000 38 81 117
1.584553e+000 1.011947e+000 -8.683504e+000 13 63 111
1.972415e+000 1.077961e+000 -8.869453e+000 97 48 53
1.964322e+000 1.026811e+000 -8.842432e+000 100 56 67
2.193893e+000 1.063944e+000 -8.948919e+000 91 64 73
2.724159e+000 1.123129e+000 -9.190236e+000 146 113 101
2.709697e+000 1.133477e+000 -9.150379e+000 146 113 101
-1.053130e+000 8.491725e-001 -7.611501e+000 177 40 55
-1.065637e+000 8.296749e-001 -7.582190e+000 193 159 107
-1.029497e+000 8.788439e-001 -7.665225e+000 169 36 39
-1.029273e+000 8.790723e-001 -7.665366e+000 169 36 39
-1.025594e+000 8.580403e-001 -7.638045e+000 186 144 102
-9.716348e-001 8.875550e-001 -7.692109e+000 168 35 45
-9.700010e-001 8.312812e-001 -7.620379e+000 189 146 103
-6.528011e-001 8.403129e-001 -7.713644e+000 155 154 45
-6.003772e-001 7.935836e-001 -7.691015e+000 88 118 111
-6.003772e-001 7.935836e-001 -7.691015e+000 88 118 111
1.998233e+000 9.722930e-001 -8.781911e+000 156 91 85
2.029511e+000 9.327441e-001 -8.764642e+000 174 96 84
2.967369e+000 8.967033e-001 -9.089986e+000 83 38 42
-2.299474e+000 6.417122e-001 -7.723933e+000 191 176 136
-8.730860e-001 7.248703e-001 -7.520143e+000 192 157 117
1.945134e+000 7.653700e-001 -8.596839e+000 166 101 75
3.346749e+000 8.206343e-001 -9.167766e+000 36 23 37
3.717815e+000 7.473840e-001 -9.255006e+000 35 70 97
3.745834e+000 7.707222e-001 -9.264390e+000 169 128 90
4.372926e+000 8.808495e-001 -9.545842e+000 200 131 92
4.649379e+000 8.283915e-001 -9.677943e+000 176 145 121
-8.352917e-001 6.383678e-001 -7.440756e+000 215 153 116
-7.770562e-001 6.022975e-001 -7.424175e+000 187 37 36
-7.773534e-001 6.023790e-001 -7.424340e+000 187 37 36
2.087904e+000 6.965590e-001 -8.568914e+000 163 92 89
2.087904e+000 6.965590e-001 -8.568914e+000 163 92 89
3.087049e+000 6.970317e-001 -8.979909e+000 118 77 83
-4.431002e-001 5.044272e-001 -7.469239e+000 169 157 37
3.011131e+000 4.558841e-001 -8.826923e+000 134 73 27
3.486890e+000 5.369410e-001 -9.034010e+000 34 25 52
3.486890e+000 5.369410e-001 -9.034010e+000 34 25 52
4.572530e+000 5.402816e-001 -9.453326e+000 192 148 114
3.254915e+000 3.192261e-001 -8.856281e+000 160 88 25
3.941808e+000 2.757758e-003 -9.316777e+000 199 88 44
3.020127e+000 4.026813e-002 -8.828134e+000 167 22 39
9.004324e-001 -2.614595e-001 -8.244051e+000 27 83 111
-1.810564e+000 1.349227e+000 -8.105707e+000 171 151 121
-2.071937e+000 1.114910e+000 -7.983870e+000 203 179 145
-6.140268e-001 1.275203e+000 -8.298340e+000 100 126 112
2.677015e+000 1.489455e+000 -9.686213e+000 118 54 42
-1.143061e+000 1.033148e+000 -7.823760e+000 168 17 25
-1.875682e+000 9.023858e-001 -7.638143e+000 206 184 142
-1.875682e+000 9.023858e-001 -7.638143e+000 206 184 142
-1.175074e+000 9.528121e-001 -7.764617e+000 180 40 38
-1.141604e+000 9.715479e-001 -7.750344e+000 197 152 109
-1.001798e+000 9.813786e-001 -7.812451e+000 195 158 119
1.214570e+000 1.108162e+000 -8.663242e+000 157 24 41
2.139529e+000 1.098285e+000 -8.978783e+000 81 58 62
1.644208e+000 8.956815e-001 -8.581223e+000 20 68 109
1.643718e+000 8.960269e-001 -8.579137e+000 20 68 109
2.052521e+000 9.094010e-001 -8.734296e+000 105 45 52
2.599042e+000 9.660581e-001 -9.033703e+000 143 117 102
1.964760e+000 7.966115e-001 -8.596288e+000 96 27 26
2.081670e+000 8.202609e-001 -8.665934e+000 88 29 43
2.040739e+000 7.740275e-001 -8.611471e+000 89 28 24
2.234466e+000 8.290783e-001 -8.733274e+000 81 45 57
2.198218e+000 8.111849e-001 -8.692417e+000 129 94 88
3.032430e+000 8.537558e-001 -8.989373e+000 143 106 101
3.032718e+000 8.208588e-001 -9.052706e+000 74 29 37
3.012186e+000 7.400730e-001 -8.975164e+000 65 23 27
-1.941081e+000 5.350604e-001 -7.525269e+000 210 183 152
-5.730734e-001 6.050781e-001 -7.503131e+000 165 149 39
2.305306e+000 6.399563e-001 -8.575095e+000 85 27 40
2.926611e+000 5.935798e-001 -8.847405e+000 99 46 58
3.550085e+000 6.586396e-001 -9.145784e+000 15 64 109
3.743795e+000 6.748315e-001 -9.136848e+000 178 135 95
4.024070e+000 5.989215e-001 -9.274766e+000 155 55 43
3.073577e+000 4.473496e-001 -8.857008e+000 183 133 80
2.799770e+000 3.677434e-001 -8.750017e+000 100 35 33
2.973323e+000 3.550675e-001 -8.826598e+000 143 87 38
-2.242275e+000 -1.310775e-001 -7.728658e+000 189 166 134
1.858365e+000 -2.016110e-001 -8.604875e+000 117 64 50
3.339369e+000 -5.463317e-001 -9.518735e+000 202 124 96
-1.098769e+000 -5.776885e-001 -7.617988e+000 186 37 55
-4.729017e-002 -5.747841e-001 -8.054827e+000 169 165 50
1.139935e+000 -6.468478e-001 -8.621002e+000 188 131 117
1.219970e+000 -6.033689e-001 -8.606616e+000 128 64 48
-1.044396e+000 -6.968189e-001 -7.752176e+000 190 129 101
5.185142e+000 -2.387561e+000 -9.186943e+000 160 136 136
4.168702e+000 -3.790683e+000 -1.134540e+001 54 42 47
4.546698e+000 1.877155e+000 -1.104901e+001 31 20 29
6.526973e-001 1.505113e+000 -8.954668e+000 175 157 124
1.657517e+000 1.540566e+000 -9.348504e+000 139 24 35
2.140214e+000 1.649353e+000 -9.681852e+000 24 69 103
2.654360e+000 1.627721e+000 -9.850702e+000 148 56 42
2.888375e+000 1.505716e+000 -9.757200e+000 86 58 56
4.515917e+000 1.334850e+000 -1.009929e+001 124 27 38
9.850283e-001 1.003016e+000 -8.454848e+000 182 42 52
-1.927715e+000 8.008486e-001 -7.640965e+000 207 184 147
-1.122029e+000 8.613868e-001 -7.657557e+000 187 36 50
-9.272143e-001 7.813271e-001 -7.560952e+000 179 32 35
3.682497e+000 9.089325e-001 -9.359094e+000 170 113 74
-1.003507e+000 7.177524e-001 -7.455537e+000 194 160 130
9.919974e-001 7.516577e-001 -8.196476e+000 182 156 127
2.369652e+000 7.266968e-001 -8.721906e+000 114 55 61
-1.013760e+000 6.495164e-001 -7.338210e+000 190 41 50
2.334819e+000 6.522371e-001 -8.680782e+000 92 35 47
3.176801e+000 1.055173e-001 -8.988775e+000 160 25 37
3.176801e+000 1.055173e-001 -8.988775e+000 160 25 37
1.338090e+000 -5.820225e-002 -8.271176e+000 110 59 50
4.288597e+000 -1.821576e-001 -9.597841e+000 175 150 119
-2.158271e-001 -2.716708e-001 -7.772265e+000 131 135 72
2.319744e-002 -1.389285e-001 -7.812772e+000 160 159 90
9.062742e-001 -4.476936e-001 -8.380001e+000 10 51 93
2.777956e+000 -6.173438e-001 -9.325719e+000 157 20 36
-3.875145e-001 -5.303719e-001 -7.848407e+000 64 108 121
5.322818e+000 -1.076901e+000 -8.872205e+000 47 31 37
4.374281e+000 -3.435919e+000 -1.096241e+001 143 127 125
1.028593e-002 1.525739e+000 -8.774485e+000 27 63 34
6.217580e-001 1.607897e+000 -9.097693e+000 168 106 88
6.218271e-001 1.608173e+000 -9.097438e+000 168 106 88
-1.063388e+000 1.321415e+000 -8.191285e+000 30 53 27
1.594690e+000 1.571679e+000 -9.387793e+000 92 25 39
2.474967e+000 1.584653e+000 -9.762470e+000 84 21 32
2.837281e+000 1.547502e+000 -9.804978e+000 90 55 67
-2.135054e+000 1.075846e+000 -8.025905e+000 154 130 96
-1.155512e+000 1.285030e+000 -8.091538e+000 23 84 114
-2.093379e+000 9.903957e-001 -7.892945e+000 203 176 146
-1.227591e+000 1.110149e+000 -7.900508e+000 171 33 33
-1.977822e+000 9.103671e-001 -7.733271e+000 206 182 148
-1.928328e+000 8.391624e-001 -7.639015e+000 206 183 146
-1.936122e+000 8.314116e-001 -7.680572e+000 206 183 146
-1.135749e+000 9.208392e-001 -7.689115e+000 177 33 49
-1.136114e+000 9.227708e-001 -7.675173e+000 177 33 49
-9.428364e-001 9.399559e-001 -7.750372e+000 184 42 43
-9.428364e-001 9.399559e-001 -7.750372e+000 184 42 43
-8.079696e-001 1.021667e+000 -8.031624e+000 69 107 124
1.558378e+000 1.095355e+000 -8.765537e+000 74 108 119
1.945311e+000 1.128637e+000 -8.936496e+000 128 63 63
2.325817e+000 1.050526e+000 -8.971707e+000 77 56 65
-1.074956e+000 7.988081e-001 -7.549841e+000 173 38 47
-1.046769e+000 7.442286e-001 -7.482565e+000 169 31 31
2.159030e+000 7.905894e-001 -8.644361e+000 88 39 45
-9.745744e-001 6.473432e-001 -7.391010e+000 195 160 125
8.395846e-001 6.823857e-001 -8.080675e+000 167 70 63
8.418636e-001 6.805390e-001 -8.093659e+000 167 70 63
2.136282e+000 6.993120e-001 -8.593087e+000 90 33 48
2.666850e+000 6.656845e-001 -8.785626e+000 70 19 27
3.073411e+000 6.110403e-001 -8.922065e+000 68 28 32
4.756006e+000 5.180948e-001 -9.525822e+000 185 69 41
8.617739e-001 -1.438945e-001 -8.063655e+000 125 22 38
7.537385e-001 -4.336938e-001 -8.307913e+000 191 122 103
4.816927e+000 -2.705397e+000 -9.971531e+000 155 134 131
4.307440e+000 -3.478183e+000 -1.095819e+001 143 128 128
1.428207e+000 1.572342e+000 -9.302183e+000 18 63 96
1.030951e+000 1.277276e+000 -8.835878e+000 161 29 36
1.814231e+000 1.462428e+000 -9.334969e+000 134 78 80
2.285255e+000 1.119680e+000 -9.066249e+000 81 53 72
2.055110e+000 1.000648e+000 -8.823419e+000 85 33 35
2.055110e+000 1.000648e+000 -8.823419e+000 85 33 35
2.375403e+000 9.481109e-001 -8.890441e+000 91 67 84
-1.016278e+000 6.763392e-001 -7.418034e+000 187 44 49
2.345245e+000 5.965482e-001 -8.626913e+000 116 56 64
3.046991e+000 -2.983319e-001 -9.161517e+000 168 27 34
-7.264248e-002 -6.535888e-001 -8.124509e+000 35 56 42
5.370802e+000 -9.498445e-001 -8.779819e+000 52 41 50
5.400450e+000 -1.172755e+000 -8.705749e+000 150 126 124
5.212658e+000 -1.464491e+000 -9.159754e+000 155 135 127
4.696237e+000 -2.543090e+000 -1.019872e+001 59 45 54
5.226505e+000 -2.236836e+000 -9.040041e+000 150 130 129
4.611107e+000 -3.150041e+000 -1.041587e+001 168 144 142
-4.270794e-001 1.627126e+000 -8.735367e+000 29 55 26
-2.288277e-001 1.379356e+000 -8.498222e+000 179 159 105
-2.296569e-001 1.378441e+000 -8.498737e+000 179 159 105
1.489384e+000 1.494243e+000 -9.262454e+000 32 29 57
1.587995e+000 1.463457e+000 -9.228204e+000 184 129 96
-6.995089e-001 1.159866e+000 -8.124941e+000 176 167 85
-8.413685e-002 1.202306e+000 -8.368852e+000 32 61 33
-1.969279e+000 6.954741e-001 -7.602989e+000 156 129 101
-1.969279e+000 6.954741e-001 -7.602989e+000 156 129 101
-5.815363e-001 9.151416e-001 -7.849217e+000 168 160 82
-6.249321e-002 6.437583e-001 -7.730351e+000 175 161 76
-2.126835e-001 1.433907e+000 -8.602830e+000 177 158 105
1.378238e+000 1.279263e+000 -8.972480e+000 16 70 100
9.794940e-001 9.511254e-001 -8.371289e+000 183 49 55
-5.576372e-001 6.416324e-001 -7.514763e+000 84 114 113
-1.096160e+000 1.415423e+000 -8.224431e+000 115 130 126
8.907767e-001 1.301945e+000 -8.720469e+000 173 156 126
-1.967240e-001 8.172733e-001 -7.820772e+000 172 156 126
3.379645e-001 8.216106e-001 -8.049055e+000 170 156 128
2.422236e-001 7.390078e-001 -7.933020e+000 36 55 39
-1.920826e+000 5.412334e-001 -7.548254e+000 141 114 87
-3.086778e-001 6.498886e-001 -7.648024e+000 166 158 125
4.660138e+000 -2.723884e+000 -1.018881e+001 133 112 109
3.318644e+000 1.941129e+000 -1.086547e+001 41 35 42
2.294484e-001 1.312652e+000 -8.504674e+000 174 158 125
2.830175e+000 1.426338e+000 -9.554260e+000 96 67 75
1.431314e+000 -9.183081e-001 -9.136136e+000 204 139 115
-7.799663e-001 1.267790e+000 -8.378396e+000 179 164 34
-1.137672e+000 1.043519e+000 -8.052418e+000 191 147 113
1.897095e-002 1.075961e+000 -8.304938e+000 31 58 27
2.301776e+000 6.917767e-001 -8.680734e+000 91 29 40
4.885643e+000 1.452315e+000 -1.024879e+001 40 30 38
4.509374e+000 5.100240e-001 -9.488544e+000 187 100 33
2.111422e+000 1.782330e+000 -9.860347e+000 85 105 109
2.151205e+000 1.730465e+000 -9.779091e+000 78 101 117
2.166898e+000 1.709809e+000 -9.778157e+000 84 109 123
2.166898e+000 1.709809e+000 -9.778157e+000 84 109 123
2.256231e+000 1.699532e+000 -9.818989e+000 83 104 121
2.348088e+000 1.678408e+000 -9.679993e+000 58 12 14
3.562358e+000 1.688408e+000 -1.024367e+001 115 68 38
1.370749e+000 1.480450e+000 -9.135273e+000 22 62 89
1.406683e+000 1.412994e+000 -9.067312e+000 20 70 104
1.406683e+000 1.412994e+000 -9.067312e+000 20 70 104
2.769434e+000 1.488592e+000 -9.645561e+000 166 113 100
2.769434e+000 1.488592e+000 -9.645561e+000 166 113 100
2.820970e+000 1.474348e+000 -9.691468e+000 89 60 66
1.143493e+000 1.127576e+000 -8.656148e+000 187 149 106
1.216294e+000 1.109463e+000 -8.660762e+000 149 22 40
1.591042e+000 1.055779e+000 -8.731940e+000 23 64 99
-2.050364e+000 8.052772e-001 -7.726160e+000 155 128 97
-2.050364e+000 8.052772e-001 -7.726160e+000 155 128 97
-1.981420e+000 8.176717e-001 -7.675051e+000 210 184 151
-1.871789e+000 8.491909e-001 -7.612264e+000 205 181 145
-9.891765e-001 8.680769e-001 -7.663661e+000 174 154 104
9.818351e-001 8.955311e-001 -8.340209e+000 171 153 120
9.852218e-001 8.997596e-001 -8.340545e+000 171 153 120
2.000649e+000 9.692887e-001 -8.791599e+000 153 92 87
2.198599e+000 1.014222e+000 -8.899256e+000 92 59 68
2.678847e+000 1.012016e+000 -9.072485e+000 151 127 108
-1.903706e+000 6.190100e-001 -7.528634e+000 216 192 156
-9.546843e-001 8.019879e-001 -7.585632e+000 186 145 106
-5.909157e-001 8.273906e-001 -7.679121e+000 147 148 38
-6.113510e-001 7.612462e-001 -7.674560e+000 155 145 50
1.963720e+000 8.898403e-001 -8.683921e+000 164 91 83
1.968145e+000 8.841332e-001 -8.698137e+000 164 91 83
2.121479e+000 8.119323e-001 -8.674970e+000 160 91 83
2.045988e+000 8.064657e-001 -8.637686e+000 162 90 91
4.445689e+000 8.425565e-001 -9.636296e+000 154 81 52
-1.888476e+000 5.647238e-001 -7.500667e+000 215 191 156
-9.410448e-001 6.643917e-001 -7.428065e+000 185 151 114
2.063035e+000 6.780107e-001 -8.556284e+000 88 29 32
2.374196e+000 6.333048e-001 -8.681645e+000 115 66 73
3.488171e+000 7.212054e-001 -9.055069e+000 33 72 96
1.649452e+000 5.169341e-001 -8.295657e+000 153 55 54
2.184101e+000 5.640402e-001 -8.557670e+000 81 26 30
3.626597e+000 -2.490132e-001 -9.401966e+000 187 132 91
2.961935e-002 -3.581742e-001 -7.991050e+000 45 48 43
5.515879e+000 -1.301191e+000 -8.691721e+000 162 139 135
-1.042622e-001 1.733459e+000 -9.021011e+000 76 84 53
9.278669e-001 1.726658e+000 -9.418092e+000 169 154 117
2.827185e+000 1.677673e+000 -9.993507e+000 158 87 62
-1.746718e+000 1.350747e+000 -7.842980e+000 168 147 114
2.684684e+000 1.553356e+000 -9.748489e+000 153 110 87
1.161506e+000 1.363804e+000 -8.879634e+000 157 27 39
2.844228e+000 1.395765e+000 -9.559481e+000 81 56 57
2.032570e+000 1.213382e+000 -9.004645e+000 105 82 85
-1.141579e+000 9.708388e-001 -7.751539e+000 196 150 103
2.151870e+000 1.125597e+000 -9.005030e+000 107 83 83
2.148952e+000 1.087533e+000 -9.021202e+000 89 64 69
2.156366e+000 1.049899e+000 -8.935741e+000 79 50 59
-1.979668e+000 7.703607e-001 -7.655980e+000 210 184 149
-1.977061e+000 7.722091e-001 -7.650693e+000 210 184 149
-9.685859e-001 8.976438e-001 -7.662058e+000 183 31 46
2.102092e+000 9.679684e-001 -8.817132e+000 80 42 42
3.005880e+000 9.487054e-001 -9.154006e+000 156 117 110
3.091795e+000 9.475360e-001 -9.189765e+000 118 88 86
2.211344e+000 8.839674e-001 -8.770181e+000 70 41 38
2.081328e+000 7.808945e-001 -8.634374e+000 164 83 77
4.500028e+000 8.917887e-001 -9.688536e+000 175 138 113
2.023409e+000 7.407425e-001 -8.584051e+000 161 91 83
2.049956e+000 6.436197e-001 -8.541785e+000 165 90 85
3.768271e+000 7.588495e-001 -9.307278e+000 160 120 84
1.262751e+000 3.546789e-002 -8.246860e+000 12 77 123
4.170064e+000 -2.111096e-001 -9.617277e+000 213 131 64
1.943667e+000 -1.873716e-001 -8.675546e+000 192 135 104
2.150638e+000 -1.693345e-001 -8.724377e+000 191 138 105
2.385409e+000 -1.627600e-001 -8.818533e+000 195 141 106
3.377857e+000 -4.586143e-001 -9.471886e+000 201 142 109
-3.075668e-001 -6.552019e-001 -8.058939e+000 24 52 19
5.301643e+000 -1.269335e+000 -8.817840e+000 127 103 99
-1.491661e-001 1.693635e+000 -8.997421e+000 147 142 94
3.103949e+000 1.839838e+000 -1.028368e+001 110 61 28
2.187776e+000 1.661319e+000 -9.669692e+000 64 97 111
1.113424e+000 1.299148e+000 -8.854122e+000 153 26 40
-1.066010e+000 1.069589e+000 -7.895217e+000 177 31 39
1.264625e+000 1.264853e+000 -8.862271e+000 198 109 99
1.264406e+000 1.264822e+000 -8.862252e+000 198 109 99
-1.990891e+000 9.669361e-001 -7.802039e+000 203 181 142
-5.517226e-001 9.963656e-001 -7.995997e+000 32 50 34
-1.899418e+000 7.705558e-001 -7.576932e+000 213 186 151
2.033591e+000 8.601115e-001 -8.663043e+000 164 89 74
9.100093e-001 6.279870e-001 -8.081935e+000 169 152 118
2.586646e+000 7.455661e-001 -8.795750e+000 173 130 111
4.107028e+000 7.840378e-001 -9.433434e+000 173 87 31
2.600621e+000 4.692054e-001 -8.677789e+000 142 70 35
4.461921e+000 2.921120e-001 -9.392793e+000 32 22 26
-2.549172e+000 -4.101275e-001 -8.915816e+000 193 167 134
4.395174e+000 8.362783e-002 -9.489893e+000 191 171 141
1.398941e+000 -7.346130e-002 -8.354415e+000 190 125 103
1.453907e+000 -5.734795e-002 -8.367173e+000 129 67 55
1.592634e+000 1.271962e-001 -8.297095e+000 173 159 132
2.504187e+000 -7.880150e-002 -8.813588e+000 195 139 108
2.603970e+000 -6.011708e-002 -8.781636e+000 163 26 37
5.457613e+000 -1.092556e+000 -8.828297e+000 123 101 103
4.732913e+000 -2.555723e+000 -1.013535e+001 154 136 134
4.628425e+000 -2.893882e+000 -1.037294e+001 131 107 108
1.607472e+000 1.523243e+000 -9.325305e+000 179 118 82
-2.008750e+000 1.087371e+000 -7.908583e+000 204 178 141
-1.083631e+000 9.699525e-001 -7.762713e+000 171 33 41
-7.972545e-001 6.155162e-001 -7.429038e+000 171 26 41
4.911113e+000 6.368677e-001 -9.491520e+000 171 78 44
-2.307035e+000 -4.027943e-001 -7.957196e+000 165 133 103
3.865118e+000 -5.034523e-001 -9.749110e+000 131 55 16
-2.233546e+000 -6.956708e-001 -8.154286e+000 162 134 104
6.743644e-001 -5.614809e-001 -8.402805e+000 159 36 40
3.254603e+000 -1.170024e+000 -1.033119e+001 41 32 40
-7.709474e-001 -6.945212e-001 -7.922772e+000 35 63 30
-6.784437e-002 -8.301399e-001 -8.359779e+000 164 165 135
-1.463773e+000 1.454475e+000 -8.171391e+000 50 100 118
6.546520e-001 1.553132e+000 -9.011745e+000 178 114 93
4.937843e-001 1.509537e+000 -8.901421e+000 169 148 119
1.291034e+000 1.470428e+000 -9.192468e+000 17 63 90
7.461513e-001 1.382840e+000 -8.835434e+000 164 147 115
5.484941e-001 1.151499e+000 -8.451108e+000 143 146 115
-2.043040e+000 8.759427e-001 -7.776061e+000 206 180 146
-1.974390e+000 9.118156e-001 -7.722540e+000 208 184 147
-1.561593e-001 9.964596e-001 -8.071775e+000 29 60 27
1.154934e+000 1.145620e+000 -8.657917e+000 136 42 27
-1.949518e-001 9.409134e-001 -8.016089e+000 173 149 56
2.294655e+000 9.584829e-001 -8.865659e+000 108 77 75
3.188788e-001 7.818552e-001 -8.000057e+000 162 151 100
3.155418e-001 7.855425e-001 -7.986268e+000 162 151 100
4.467419e+000 8.096060e-001 -9.563635e+000 180 146 111
3.951018e+000 7.775544e-001 -9.367468e+000 164 117 81
3.223561e+000 6.284049e-001 -9.001116e+000 82 57 64
-2.616129e-001 -3.409893e-001 -7.877948e+000 27 56 35
2.437532e+000 -4.885781e-001 -9.063711e+000 201 138 106
4.969419e+000 -2.112522e+000 -9.869215e+000 55 45 48
-3.054494e-001 1.594726e+000 -8.742035e+000 99 124 100
-1.291993e+000 1.254749e+000 -8.036828e+000 174 85 68
-1.291993e+000 1.254749e+000 -8.036828e+000 174 85 68
-4.618758e-001 1.269367e+000 -8.268851e+000 29 52 34
4.569519e-001 1.388703e+000 -8.718327e+000 165 146 115
1.320024e+000 1.402386e+000 -9.122470e+000 17 65 94
-6.975957e-001 1.159401e+000 -8.127386e+000 171 150 75
-1.260971e-001 1.147174e+000 -8.255262e+000 177 157 83
2.495725e+000 1.215982e+000 -9.222378e+000 29 17 25
-6.635477e-001 9.571688e-001 -7.936262e+000 25 48 33
-3.521306e-001 1.018806e+000 -8.006670e+000 32 53 34
-3.521306e-001 1.018806e+000 -8.006670e+000 32 53 34
1.119431e+000 1.080733e+000 -8.631667e+000 146 26 35
4.651784e+000 1.182134e+000 -1.003544e+001 148 86 48
2.838616e+000 7.397682e-001 -8.921002e+000 143 116 97
4.718258e+000 2.537390e-002 -9.686405e+000 192 107 40
-1.010049e+000 -5.346117e-001 -7.725312e+000 29 93 136
3.480025e+000 1.854031e+000 -1.060936e+001 149 106 64
-3.124495e-001 1.372877e+000 -8.568291e+000 27 52 36
-3.858102e-001 1.299258e+000 -8.364617e+000 172 155 107
-4.795263e-001 1.017618e+000 -8.006376e+000 167 147 106
-3.937664e-001 9.133519e-001 -7.947302e+000 169 153 103
-3.935508e-001 9.169701e-001 -7.943255e+000 169 153 103
4.147669e+000 8.351131e-001 -9.455222e+000 175 87 31
-2.448718e-001 2.153476e-001 -7.547120e+000 89 119 129
4.750168e+000 1.499535e-001 -9.624450e+000 206 121 61
2.869408e+000 -5.782249e-001 -9.371805e+000 171 37 48
3.526155e+000 1.750327e+000 -1.039156e+001 47 16 21
5.502817e-001 8.253310e-001 -8.108089e+000 159 143 117
-3.103920e-001 6.497724e-001 -7.647982e+000 159 146 108
-4.454640e-002 1.486126e+000 -8.640597e+000 124 119 35
1.506223e+000 1.574097e+000 -9.378554e+000 144 40 42
1.506223e+000 1.574097e+000 -9.378554e+000 144 40 42
4.493187e+000 -2.593293e-001 -9.894017e+000 172 143 122
-4.080077e-002 1.482571e+000 -8.634648e+000 99 101 31
2.029150e-001 1.469204e+000 -8.769237e+000 165 149 116
4.275615e+000 1.010214e+000 -9.721134e+000 142 23 43
4.275615e+000 1.010214e+000 -9.721134e+000 142 23 43
8.503678e-002 -8.654205e-001 -8.556567e+000 160 159 141
-8.682689e-001 3.626723e-001 -7.294866e+000 91 124 133
4.774860e+000 -2.896324e-001 -9.820831e+000 35 24 33
4.903263e+000 9.049785e-001 -9.613611e+000 41 30 38
3.724128e+000 -4.547734e-001 -9.947387e+000 195 142 95
3.841705e+000 1.424289e+000 -1.017817e+001 153 111 71
3.841705e+000 1.424289e+000 -1.017817e+001 153 111 71
-4.207976e+001 -2.889396e+001 -1.014436e+002 65 46 50
-3.509791e+001 -3.435915e+001 -9.113375e+001 162 128 104
-3.984132e+001 -3.350859e+001 -9.233125e+001 74 45 28
-3.518325e+001 -3.360077e+001 -9.375331e+001 119 90 76
-3.518325e+001 -3.360077e+001 -9.375331e+001 119 90 76
-3.705662e+001 -3.365378e+001 -8.870939e+001 156 125 104
2.192825e+000 1.300294e+000 -9.206971e+000 96 73 79
1.585949e+000 1.056585e+000 -8.733056e+000 12 69 115
-9.602437e-001 6.827974e-001 -7.433964e+000 165 38 41
2.438613e+000 5.803124e-001 -8.650431e+000 91 38 45
3.004139e+000 1.144719e+000 -9.322008e+000 122 93 96
2.260251e+000 6.926668e-001 -8.628661e+000 128 66 75
2.784773e+000 5.011407e-001 -8.748533e+000 178 130 81
1.183101e+000 1.241724e+000 -8.798773e+000 157 33 30
5.287544e+000 -1.551312e+000 -8.970326e+000 157 137 130
5.287968e+000 -2.428334e+000 -8.912926e+000 163 144 138
3.211081e+000 -1.355810e-002 -9.042332e+000 201 141 105
-3.664904e+001 -3.859208e+001 -8.687121e+001 146 123 110
-3.401625e+001 -3.897766e+001 -8.916081e+001 142 113 97
-1.144773e+000 1.069991e+000 -7.878011e+000 149 73 51
-3.289725e+001 -4.264570e+001 -8.547224e+001 123 93 81
-3.308398e+001 -4.296711e+001 -8.601625e+001 123 93 81
-3.596122e+001 -3.662131e+001 -8.596342e+001 155 124 106
-3.965335e-001 1.171882e+000 -8.142428e+000 27 60 26
-3.792689e+001 -3.828761e+001 -8.818694e+001 56 37 37
-3.507107e+001 -3.590798e+001 -9.326930e+001 118 94 74
-3.873672e+001 -3.961150e+001 -8.450815e+001 31 30 47
1.953433e+000 1.732998e+000 -9.850572e+000 29 60 84
2.209605e+000 1.759135e+000 -9.872243e+000 79 98 106
2.251858e+000 1.702594e+000 -9.807379e+000 83 104 121
-7.842237e-001 1.396728e+000 -8.372259e+000 91 108 93
-7.817063e-001 1.402391e+000 -8.355295e+000 91 108 93
1.520412e+000 1.573362e+000 -9.358449e+000 141 42 41
2.601709e+000 1.521516e+000 -9.592023e+000 166 122 99
-1.062304e+000 1.227291e+000 -8.098668e+000 166 33 38
-1.203157e+000 1.164037e+000 -7.962350e+000 180 26 37
1.101710e+000 1.237341e+000 -8.753589e+000 184 156 106
-1.869083e+000 8.506338e-001 -7.611296e+000 205 181 145
2.162429e+000 1.026338e+000 -8.910535e+000 84 57 63
2.674744e+000 1.058015e+000 -9.111693e+000 157 125 111
-1.005167e+000 7.909374e-001 -7.552936e+000 186 142 109
1.445687e-001 8.070554e-001 -7.957611e+000 156 150 46
-6.782628e-001 5.424064e-001 -7.384081e+000 148 146 29
1.843400e+000 6.179191e-001 -8.442502e+000 178 134 80
3.389697e+000 6.254593e-001 -9.049208e+000 32 30 58
2.535403e+000 4.783524e-001 -8.559987e+000 174 120 76
2.952653e+000 3.702445e-001 -8.829380e+000 126 73 31
7.825070e-002 -8.835695e-002 -7.790854e+000 88 93 61
5.340683e+000 -9.946963e-001 -8.862926e+000 45 32 42
2.355611e+000 1.544503e+000 -9.606787e+000 166 134 109
1.267753e+000 1.141052e+000 -8.730073e+000 155 28 39
1.267753e+000 1.141052e+000 -8.730073e+000 155 28 39
1.874349e+000 1.011360e+000 -8.749383e+000 77 24 33
1.916648e-001 5.152019e-001 -7.750148e+000 164 150 28
4.912792e+000 5.876154e-001 -9.589772e+000 125 35 17
1.002743e+000 -1.707190e-002 -8.129351e+000 13 67 103
5.179208e+000 -1.766263e+000 -9.288092e+000 171 148 142
2.158015e+000 1.216917e+000 -9.128098e+000 87 62 68
7.984597e-001 8.110406e-001 -8.156321e+000 154 148 116
4.754927e+000 -2.503758e+000 -1.017339e+001 58 44 45
1.515821e+000 1.198430e+000 -8.857100e+000 91 97 87
4.673339e+000 1.243340e+000 -1.015677e+001 135 73 48
-7.981646e-001 6.158896e-001 -7.427398e+000 171 26 41
3.083779e+000 5.623125e-001 -8.885767e+000 166 123 69
4.824632e+000 -2.422948e+000 -1.002630e+001 145 130 127
2.860044e+000 8.179141e-001 -8.964930e+000 155 119 105
5.060076e+000 -1.751480e+000 -9.496725e+000 51 39 49
4.823373e+000 -2.380598e+000 -1.009713e+001 49 41 41
1.034126e-001 1.242702e+000 -8.408857e+000 32 56 32
8.808935e-001 1.005914e+000 -8.425618e+000 162 148 121
8.808935e-001 1.005914e+000 -8.425618e+000 162 148 121
3.390407e-001 1.081034e+000 -8.241576e+000 163 147 116
8.950948e-001 6.733250e-001 -8.117558e+000 169 147 116
1.354295e+000 6.691967e-001 -8.283150e+000 150 23 32
1.685778e+000 6.592966e-001 -8.417094e+000 16 69 109
-9.468970e-002 1.686834e+000 -9.009908e+000 148 142 47
4.383175e+000 1.955491e+000 -1.114763e+001 152 93 56
1.607487e-002 1.562573e+000 -8.827382e+000 157 149 70
2.152497e+000 1.729752e+000 -9.781908e+000 69 92 99
1.326835e+000 1.583792e+000 -9.314688e+000 17 53 78
1.326485e+000 1.583471e+000 -9.314892e+000 17 53 78
1.524477e+000 1.573137e+000 -9.366311e+000 121 40 37
2.775553e+000 1.546203e+000 -9.763050e+000 144 112 97
2.760387e+000 1.451538e+000 -9.642899e+000 80 31 26
2.842723e+000 1.481307e+000 -9.640955e+000 96 76 78
-1.999779e+000 1.005309e+000 -7.808974e+000 197 177 143
-1.153406e+000 1.161667e+000 -7.986751e+000 172 33 39
-1.154275e+000 1.162448e+000 -7.985037e+000 172 33 39
-1.085017e+000 1.192774e+000 -7.884083e+000 160 15 19
-1.935153e-001 1.195374e+000 -8.134204e+000 27 51 20
-1.353830e-001 1.243213e+000 -8.392394e+000 25 52 11
9.745540e-001 1.273600e+000 -8.520457e+000 148 138 103
1.419394e+000 1.340157e+000 -9.010177e+000 148 146 115
1.419394e+000 1.340157e+000 -9.010177e+000 148 146 115
2.336503e+000 1.301876e+000 -9.277140e+000 116 90 73
-1.098353e+000 1.081301e+000 -7.930397e+000 195 149 113
-1.061742e+000 1.019783e+000 -7.842686e+000 181 142 102
1.914823e+000 1.173924e+000 -8.993390e+000 137 84 76
-1.997680e+000 8.006038e-001 -7.689438e+000 203 180 148
-1.004384e+000 8.987527e-001 -7.701732e+000 171 146 89
-1.003433e+000 8.970505e-001 -7.705376e+000 171 146 89
-7.309852e-001 8.580302e-001 -7.866295e+000 149 146 33
5.517867e-001 9.373953e-001 -8.241651e+000 141 22 24
5.517867e-001 9.373953e-001 -8.241651e+000 141 22 24
1.259936e+000 1.073462e+000 -8.625702e+000 145 17 19
2.158527e+000 1.102664e+000 -8.977803e+000 72 50 55
2.538847e+000 1.123424e+000 -9.128684e+000 110 82 70
-1.985908e+000 6.752990e-001 -7.619093e+000 202 177 146
-1.985759e+000 6.756699e-001 -7.618812e+000 202 177 146
-1.904035e+000 6.172184e-001 -7.530168e+000 206 184 150
-1.053105e+000 8.489559e-001 -7.611513e+000 156 36 41
-9.851050e-001 7.779236e-001 -7.538140e+000 153 44 48
1.906038e+000 9.595923e-001 -8.744053e+000 78 22 23
1.970902e+000 9.577190e-001 -8.750168e+000 74 16 11
1.959986e+000 9.311830e-001 -8.731350e+000 158 92 67
2.037677e+000 9.587301e-001 -8.781460e+000 78 28 21
2.127791e+000 8.968334e-001 -8.744564e+000 60 20 20
-1.955001e+000 5.791929e-001 -7.557565e+000 205 181 145
-6.378836e-001 7.666765e-001 -7.628498e+000 140 138 28
2.631748e+000 7.258238e-001 -8.794173e+000 94 55 50
3.095306e+000 8.156267e-001 -9.051995e+000 80 48 48
3.089843e+000 8.206132e-001 -9.043283e+000 80 48 48
2.113502e+000 6.227512e-001 -8.537326e+000 77 28 31
4.542700e+000 5.773550e-001 -9.455829e+000 165 79 55
-5.551824e-001 4.982889e-001 -7.440871e+000 161 154 31
3.988296e+000 4.807060e-001 -9.279022e+000 162 114 70
4.383783e+000 2.917543e-001 -9.347002e+000 28 9 3
1.960745e+000 -1.419943e-001 -8.640793e+000 191 139 99
5.405778e+000 -8.290484e-001 -8.601995e+000 135 121 113
-6.492804e-001 1.491324e+000 -8.572116e+000 142 138 34
2.205307e+000 1.657534e+000 -9.749878e+000 76 104 107
2.205931e+000 1.658809e+000 -9.749026e+000 76 104 107
2.089368e+000 1.643733e+000 -9.685792e+000 18 58 87
2.200598e+000 1.579791e+000 -9.609628e+000 86 21 25
-2.654859e+000 8.251594e-001 -8.413847e+000 157 29 31
-2.020933e+000 1.063285e+000 -7.861333e+000 198 179 137
-2.021472e+000 1.061532e+000 -7.866573e+000 198 179 137
4.643773e+000 1.298840e+000 -1.048153e+001 133 88 66
-1.102901e+000 1.030181e+000 -7.842812e+000 168 31 49
-1.102901e+000 1.030181e+000 -7.842812e+000 168 31 49
1.238715e+000 1.205015e+000 -8.794473e+000 136 22 28
1.549996e+000 1.126008e+000 -8.801957e+000 13 60 83
2.802364e+000 1.143388e+000 -9.314586e+000 132 104 90
1.173440e+000 1.071370e+000 -8.590482e+000 181 145 102
2.241908e+000 9.847620e-001 -8.868840e+000 60 29 34
-1.885477e+000 7.442094e-001 -7.563946e+000 207 188 148
-1.018494e+000 8.310424e-001 -7.601800e+000 179 148 95
1.804454e+000 9.698277e-001 -8.691704e+000 149 51 30
2.794063e+000 9.327148e-001 -8.991515e+000 121 98 84
3.765575e+000 9.158979e-001 -9.417434e+000 160 103 72
2.078972e+000 7.839977e-001 -8.627886e+000 157 85 67
2.522382e+000 8.341340e-001 -8.818310e+000 129 97 84
-2.267891e+000 2.048653e-001 -7.820935e+000 179 153 124
4.075762e+000 6.654061e-001 -9.314327e+000 180 99 44
4.708205e+000 6.303541e-001 -9.543395e+000 175 137 112
3.128879e+000 4.768931e-001 -8.963088e+000 165 127 72
3.942800e+000 4.148780e-001 -9.191223e+000 155 53 40
5.104514e+000 4.726483e-001 -9.585206e+000 32 21 37
