ply
format ascii 1.0
element face 0
property list uchar int vertex_indices
element vertex 894
property float x
property float y
property float z
property uchar diffuse_red
property uchar diffuse_green
property uchar diffuse_blue
end_header
1.180303e+000 1.229973e+000 -8.795124e+000 188 147 90
1.180343e+000 1.230014e+000 -8.795075e+000 188 147 90
1.537221e+000 1.223504e+000 -8.909009e+000 7 62 84
2.040486e+000 1.340890e+000 -9.232873e+000 73 55 55
2.040486e+000 1.340890e+000 -9.232873e+000 73 55 55
2.511881e+000 1.241853e+000 -9.285380e+000 110 102 72
2.769167e+000 1.364637e+000 -9.513852e+000 141 76 62
-1.830255e+000 9.939279e-001 -7.692274e+000 81 50 31
-1.831381e+000 9.904698e-001 -7.699212e+000 81 50 31
-1.031851e+000 1.071114e+000 -7.896489e+000 161 30 39
-1.031851e+000 1.071114e+000 -7.896489e+000 161 30 39
1.211377e+000 1.160850e+000 -8.722181e+000 188 128 82
1.211377e+000 1.160850e+000 -8.722181e+000 188 128 82
1.503255e+000 1.188934e+000 -8.868444e+000 24 59 76
2.077712e+000 1.168639e+000 -9.038945e+000 73 48 44
2.078969e+000 1.167734e+000 -9.040447e+000 73 48 44
2.206965e+000 1.127784e+000 -9.040102e+000 69 45 41
-2.002639e+000 8.075139e-001 -7.737884e+000 106 76 38
-1.938916e+000 7.829770e-001 -7.669106e+000 206 179 136
-1.943882e+000 7.184290e-001 -7.659873e+000 120 89 48
-1.095818e+000 9.392876e-001 -7.708611e+000 179 143 89
1.905360e+000 1.001042e+000 -8.774713e+000 145 84 68
2.626363e+000 9.927824e-001 -9.048232e+000 126 105 78
-1.940945e+000 6.196270e-001 -7.612763e+000 212 181 124
-1.873408e+000 6.176922e-001 -7.541433e+000 205 176 130
-8.799455e-001 8.015122e-001 -7.616687e+000 188 121 80
-8.799455e-001 8.015122e-001 -7.616687e+000 188 121 80
2.138710e+000 9.550031e-001 -8.811259e+000 75 34 29
2.912747e+000 9.900299e-001 -9.144284e+000 68 24 21
-7.141081e-001 7.115304e-001 -7.674567e+000 142 125 29
5.899605e-001 7.145091e-001 -8.042565e+000 166 148 32
9.371947e-001 7.358750e-001 -8.210949e+000 171 140 101
9.371947e-001 7.358750e-001 -8.210949e+000 171 140 101
4.031750e+000 7.525656e-001 -9.380383e+000 174 90 33
4.541876e+000 8.552897e-001 -9.665151e+000 129 29 29
4.544328e+000 8.531656e-001 -9.669587e+000 129 29 29
1.565765e-001 6.470494e-001 -7.823887e+000 21 45 22
9.767230e-001 6.537859e-001 -8.151572e+000 163 149 97
2.155565e+000 6.545781e-001 -8.608650e+000 71 24 24
3.006254e+000 6.873569e-001 -8.932440e+000 52 16 18
3.432791e+000 6.238580e-001 -9.069921e+000 26 14 24
2.720048e+000 5.157272e-001 -8.757656e+000 131 85 30
3.002450e+000 4.966124e-001 -8.848176e+000 173 119 56
1.452734e+000 -6.575098e-001 -8.841752e+000 52 44 38
3.005297e+000 -5.162005e+000 -1.381304e+001 64 58 59
5.351979e+000 -6.854599e-001 -8.578600e+000 38 29 25
4.875574e+000 -2.002378e+000 -9.766261e+000 52 35 31
4.325431e+000 -3.868914e+000 -1.092705e+001 154 136 114
5.683582e+000 -8.001822e-001 -7.778370e+000 159 133 116
5.901816e-001 1.671212e+000 -9.158453e+000 169 137 95
9.256305e-001 1.748756e+000 -9.434649e+000 165 136 96
2.022051e+000 1.753459e+000 -9.865847e+000 16 56 72
2.110822e+000 1.832999e+000 -9.951405e+000 12 53 75
2.524548e+000 1.727445e+000 -9.943918e+000 155 112 61
1.398161e+000 1.431864e+000 -9.123348e+000 11 55 71
1.400527e+000 1.429976e+000 -9.128294e+000 11 55 71
-1.218485e+000 1.125999e+000 -7.893323e+000 157 25 32
2.764938e+000 1.443188e+000 -9.074726e+000 100 75 69
-9.954972e-001 1.020022e+000 -7.860214e+000 179 147 93
-2.252567e+000 5.883966e-001 -7.835009e+000 167 134 89
-1.071588e+000 9.126291e-001 -7.664273e+000 170 147 80
1.565191e+000 1.083353e+000 -8.767249e+000 19 56 74
-9.368270e-001 8.196109e-001 -7.604666e+000 159 34 37
-9.368270e-001 8.196109e-001 -7.604666e+000 159 34 37
1.788680e+000 8.588514e-001 -8.656082e+000 164 88 52
1.958240e+000 8.812349e-001 -8.692301e+000 159 89 74
2.283541e+000 9.349270e-001 -8.858744e+000 145 119 104
2.553002e+000 7.761411e-001 -8.825495e+000 170 127 103
4.586556e+000 8.593574e-001 -9.684869e+000 170 130 86
4.832463e+000 8.372454e-001 -9.810582e+000 132 54 28
-7.226616e-001 6.262285e-001 -7.441439e+000 57 86 83
-7.246819e-001 6.173210e-001 -7.454606e+000 57 86 83
1.685924e+000 6.015319e-001 -8.393045e+000 173 129 69
2.195098e+000 5.650471e-001 -8.610870e+000 169 129 85
3.697863e+000 7.046208e-001 -9.172943e+000 162 125 73
3.876356e+000 4.628916e-001 -9.182047e+000 148 49 19
2.826185e+000 1.430955e-001 -8.854259e+000 162 19 28
1.223247e+000 9.868179e-002 -8.221071e+000 25 73 101
1.282161e+000 -1.451930e-001 -8.391694e+000 147 93 62
1.279710e+000 -1.432114e-001 -8.388801e+000 147 93 62
5.458823e+000 -9.087331e-001 -8.705004e+000 112 90 76
5.411193e+000 -1.650598e+000 -8.847111e+000 124 98 81
3.430360e+000 -6.064160e+000 -1.264994e+001 168 155 139
4.763887e+000 -3.224858e+000 -9.747103e+000 164 139 117
-1.957336e+000 1.680750e+000 -8.500273e+000 156 135 89
-1.034003e-001 1.746085e+000 -9.121709e+000 52 58 30
-1.034905e-001 1.745954e+000 -9.121929e+000 52 58 30
3.126443e+000 1.851576e+000 -1.059387e+001 107 57 20
3.222347e+000 1.830178e+000 -1.041189e+001 148 96 46
-1.792349e+000 1.381190e+000 -8.131319e+000 160 138 90
2.633057e+000 1.613028e+000 -9.768009e+000 68 14 6
-1.918554e+000 1.062147e+000 -7.819999e+000 200 177 125
-1.918554e+000 1.062147e+000 -7.819999e+000 200 177 125
-1.950175e+000 1.000914e+000 -7.794568e+000 200 172 121
2.719398e+000 1.322594e+000 -9.433589e+000 93 63 44
-1.131471e+000 1.067939e+000 -7.876226e+000 172 34 37
-1.131471e+000 1.067939e+000 -7.876226e+000 172 34 37
-1.551796e-001 1.063923e+000 -8.184715e+000 162 142 27
1.670847e+000 1.146916e+000 -8.755745e+000 167 128 66
-1.888171e+000 8.155470e-001 -7.631402e+000 206 178 134
-1.888873e+000 8.144974e-001 -7.633017e+000 206 178 134
2.974519e+000 1.033239e+000 -9.205679e+000 80 54 56
2.918630e+000 1.206009e+000 -8.907632e+000 71 45 51
-1.793304e+000 7.715120e-001 -7.553800e+000 189 159 112
9.627462e-001 9.285558e-001 -8.375024e+000 160 147 96
3.939935e+000 7.945880e-001 -9.290988e+000 117 26 22
4.894574e+000 7.671779e-001 -9.852479e+000 122 48 22
4.670239e+000 6.899630e-001 -9.598757e+000 174 141 90
7.841885e-001 -1.782252e-001 -8.212872e+000 189 120 86
1.050746e+000 -1.378148e-001 -8.304539e+000 15 56 74
-1.897898e+000 -8.389517e-002 -6.865458e+000 149 126 92
5.006216e+000 -1.715273e+000 -9.525155e+000 49 39 38
5.208143e+000 -1.201909e+000 -9.072067e+000 53 37 37
3.809036e+000 -4.400811e+000 -1.191617e+001 153 137 117
4.071286e+000 -3.731556e+000 -1.128309e+001 151 141 122
4.116710e+000 -3.930799e+000 -1.112570e+001 160 142 118
5.489919e+000 -1.908322e+000 -8.541575e+000 108 87 68
1.928964e+000 1.787576e+000 -9.942254e+000 24 52 75
2.106232e+000 1.665350e+000 -9.706436e+000 16 55 73
4.115683e-001 1.517762e+000 -8.886265e+000 162 143 98
1.994363e+000 1.152735e+000 -8.993631e+000 68 45 48
2.242884e+000 1.169802e+000 -9.092783e+000 67 44 42
6.647751e-001 8.867128e-001 -8.231681e+000 168 23 23
-1.040077e+000 7.912109e-001 -7.524335e+000 164 41 40
3.985176e+000 8.167644e-001 -9.424126e+000 116 22 24
3.631633e+000 7.187691e-001 -9.133096e+000 25 70 94
1.227786e+000 5.132401e-002 -8.281684e+000 14 67 85
4.557574e+000 -2.535047e+000 -1.025020e+001 48 35 35
4.979523e+000 -1.930358e+000 -9.656728e+000 151 133 111
3.610961e+000 -4.922145e+000 -1.240559e+001 153 139 126
5.433383e-001 1.610286e+000 -9.049670e+000 160 140 93
2.662613e+000 1.604956e+000 -9.823356e+000 66 14 3
2.232356e+000 1.326656e+000 -9.284806e+000 125 95 69
-1.968440e+000 9.399382e-001 -7.799764e+000 201 174 126
-1.186023e-002 8.981250e-001 -8.025267e+000 160 145 49
-2.260502e+000 -3.331554e-001 -7.946003e+000 153 134 94
-1.872798e-001 1.483832e-001 -7.626627e+000 139 139 112
5.497962e+000 -4.534820e-001 -8.316952e+000 150 125 105
5.389178e+000 -7.570174e-001 -8.593476e+000 163 140 124
4.337424e+000 -3.077178e+000 -1.076987e+001 48 38 37
2.130568e+000 1.810013e+000 -1.028241e+001 141 102 61
-3.027124e-001 1.620245e+000 -8.781131e+000 107 108 92
3.980154e-001 1.572273e+000 -8.965782e+000 163 87 69
1.311387e+000 1.601692e+000 -9.344874e+000 23 56 71
1.312299e+000 1.599377e+000 -9.348146e+000 23 56 71
4.414998e-001 1.412638e+000 -8.756308e+000 162 140 96
-1.136399e+000 1.106600e+000 -7.924925e+000 140 36 15
-1.037676e-001 1.250737e+000 -8.386981e+000 33 49 31
9.904351e-002 1.277023e+000 -8.442684e+000 28 48 18
-1.867265e+000 7.346701e-001 -7.604034e+000 208 175 130
1.561290e+000 8.428146e-001 -8.564771e+000 27 57 84
4.493073e+000 8.797398e-001 -9.706229e+000 174 134 96
4.506293e+000 8.741640e-001 -9.720011e+000 174 134 96
4.055157e+000 8.850086e-001 -9.423425e+000 170 84 27
-2.432433e-001 2.647717e-001 -7.588838e+000 88 117 115
3.629220e+000 5.657818e-002 -9.248364e+000 97 26 23
3.629220e+000 5.657818e-002 -9.248364e+000 97 26 23
4.657688e+000 1.929111e-001 -9.591509e+000 206 114 46
3.256874e+000 -6.048234e+000 -1.357010e+001 44 34 32
-1.074143e-001 1.614113e+000 -8.866232e+000 157 142 81
5.655904e-001 1.177650e+000 -8.505107e+000 162 137 98
5.655904e-001 1.177650e+000 -8.505107e+000 162 137 98
8.052862e-001 1.171476e+000 -8.613289e+000 156 137 96
-5.549107e-001 1.000942e+000 -8.002094e+000 21 49 21
-1.164325e-003 1.027962e+000 -8.164169e+000 163 143 88
-1.164325e-003 1.027962e+000 -8.164169e+000 163 143 88
2.569383e-001 9.723256e-001 -8.175854e+000 32 51 32
2.569383e-001 9.723256e-001 -8.175854e+000 32 51 32
-1.031392e+000 8.869106e-001 -7.668944e+000 185 116 89
2.806906e+000 8.758694e-001 -9.077955e+000 128 91 71
2.658217e+000 5.358455e-001 -8.781389e+000 159 110 54
3.953132e+000 -2.914263e-001 -9.678241e+000 166 109 43
3.496666e+000 1.862508e+000 -1.069570e+001 129 87 39
-5.507165e-001 1.128831e+000 -8.139892e+000 27 52 28
2.568839e+000 1.147586e+000 -9.179890e+000 135 103 78
-7.650458e-002 9.669557e-001 -8.080002e+000 24 47 19
2.977617e+000 1.109565e+000 -9.260021e+000 101 76 72
3.332227e-001 8.587765e-001 -8.084685e+000 158 141 95
2.718914e+000 3.954603e-001 -8.739165e+000 52 17 19
1.150483e+000 -2.309828e-002 -8.279912e+000 18 63 83
2.532987e+000 9.191595e-001 -8.980955e+000 145 110 80
1.323532e+000 6.800017e-001 -8.325018e+000 151 28 31
1.323532e+000 6.800017e-001 -8.325018e+000 151 28 31
6.189557e-001 1.282611e+000 -8.689536e+000 157 138 98
4.911896e+000 9.315197e-002 -9.644257e+000 33 23 24
-7.720843e-001 1.339117e+000 -8.354916e+000 29 54 25
1.337237e+000 1.301549e+000 -8.793051e+000 29 40 51
1.337237e+000 1.301549e+000 -8.793051e+000 29 40 51
3.078433e+000 1.618087e+000 -9.966301e+000 155 113 65
-5.393570e-001 7.230187e-001 -7.813122e+000 29 51 30
4.545340e+000 5.700054e-001 -9.584017e+000 177 110 68
4.545340e+000 5.700054e-001 -9.584017e+000 177 110 68
2.071892e+000 1.774721e+000 -1.001179e+001 16 36 39
2.054382e+000 1.795262e+000 -9.958513e+000 16 36 39
2.072739e+000 1.776840e+000 -9.940172e+000 24 41 46
4.260398e-001 1.629968e+000 -9.087843e+000 111 26 21
2.206039e+000 1.752988e+000 -9.969768e+000 52 71 71
-5.981263e-001 1.250687e+000 -9.019575e+000 115 103 22
1.309743e+000 1.571516e+000 -9.290709e+000 9 42 50
1.345410e+000 1.573048e+000 -9.302541e+000 15 46 57
-1.087365e+000 1.244723e+000 -8.321141e+000 114 105 15
1.516538e+000 1.535994e+000 -9.272296e+000 117 46 27
1.769983e+000 1.490980e+000 -9.338426e+000 60 18 10
2.682078e+000 1.481899e+000 -9.644546e+000 104 57 47
-8.011913e-001 1.296668e+000 -8.252389e+000 107 98 11
1.064731e+000 1.295063e+000 -8.836111e+000 149 115 60
1.064407e+000 1.295402e+000 -8.835158e+000 149 115 60
1.773170e+000 1.397801e+000 -9.206353e+000 108 56 44
2.069772e+000 1.341462e+000 -9.244221e+000 53 34 29
2.678706e+000 1.428022e+000 -9.550114e+000 69 31 20
-1.852774e+000 1.016444e+000 -7.766055e+000 64 35 5
1.704093e-001 1.257027e+000 -8.457720e+000 33 36 2
1.143730e+000 1.224047e+000 -8.940803e+000 108 8 6
1.108372e+000 1.245395e+000 -8.787503e+000 107 21 17
2.308703e+000 1.325069e+000 -9.308774e+000 89 61 37
-1.954759e+000 8.421928e-001 -7.713311e+000 73 48 11
-1.865390e+000 9.242777e-001 -7.656222e+000 74 46 35
-1.869640e+000 9.086158e-001 -7.679418e+000 74 46 35
-1.832737e+000 9.841726e-001 -7.707823e+000 54 30 1
-1.822681e+000 9.501224e-001 -7.638267e+000 74 49 15
1.155232e+000 1.099775e+000 -8.630393e+000 147 106 71
1.304457e+000 1.167670e+000 -8.759972e+000 107 19 17
1.913827e+000 1.187265e+000 -9.003614e+000 65 24 16
-1.968113e+000 8.241534e-001 -7.693376e+000 162 140 91
-1.987370e+000 7.652262e-001 -7.704135e+000 162 138 92
-1.986579e+000 7.694899e-001 -7.697410e+000 162 138 92
-1.924167e+000 7.527658e-001 -7.646374e+000 165 140 98
-1.924167e+000 7.527658e-001 -7.646374e+000 165 140 98
-6.980519e-001 1.861072e+000 -6.345625e+000 115 106 29
3.137625e-001 9.272571e-001 -8.182757e+000 137 110 25
2.011398e+000 9.866296e-001 -8.814531e+000 61 19 13
2.513648e+000 1.075200e+000 -9.024120e+000 102 81 57
-6.040616e-001 9.404198e-001 -7.645232e+000 111 100 11
1.974750e+000 9.042093e-001 -8.720753e+000 61 13 2
2.505932e+000 8.404499e-001 -8.886096e+000 110 80 56
2.057777e+000 7.331511e-001 -8.597762e+000 114 58 50
2.057912e+000 7.326624e-001 -8.598457e+000 114 58 50
2.393872e+000 7.341338e-001 -8.728704e+000 43 8 4
2.393872e+000 7.341338e-001 -8.728704e+000 43 8 4
2.471109e+000 8.104383e-001 -8.798424e+000 88 50 42
2.942691e+000 7.978459e-001 -8.940601e+000 46 16 15
4.354295e+000 8.046584e-001 -9.570451e+000 119 75 34
4.464364e+000 7.984292e-001 -9.583121e+000 113 24 12
4.632321e+000 7.592491e-001 -9.649141e+000 117 18 7
-4.309373e-001 6.832156e-001 -7.560644e+000 118 101 14
2.771859e+000 6.542803e-001 -8.784079e+000 47 10 8
3.699413e+000 5.917284e-001 -9.156955e+000 10 45 55
4.594703e+000 6.586545e-001 -9.531664e+000 120 45 28
-4.567262e-001 5.928951e-001 -7.467411e+000 128 114 17
3.621474e+000 5.076180e-001 -9.077124e+000 144 102 52
4.876388e+000 -2.103029e+000 -9.731312e+000 101 82 65
5.538371e+000 -4.456420e-001 -8.275165e+000 92 71 50
3.330191e+000 1.824914e+000 -1.054704e+001 114 80 36
2.208174e+000 1.749515e+000 -9.867679e+000 35 54 48
2.018432e+000 1.385974e+000 -9.280880e+000 62 42 38
-1.898701e+000 1.022981e+000 -7.777774e+000 157 133 88
-1.898701e+000 1.022981e+000 -7.777774e+000 157 133 88
-1.090855e+000 1.123826e+000 -7.959859e+000 141 106 61
2.539042e+000 1.304208e+000 -9.370655e+000 22 3 1
2.037665e+000 1.179604e+000 -9.040602e+000 78 59 51
-9.860205e-001 9.073985e-001 -7.712802e+000 134 102 62
2.698898e+000 1.003467e+000 -9.065582e+000 108 81 60
2.156189e+000 9.497768e-001 -8.823072e+000 59 29 28
-9.528823e-001 8.053982e-001 -7.573894e+000 146 103 69
-7.496022e-001 6.351455e-001 -7.466155e+000 128 114 69
-2.268786e+000 -1.959149e-001 -7.974327e+000 153 123 81
3.819979e+000 4.816459e-001 -9.160859e+000 138 95 50
4.280326e+000 1.721977e-001 -9.405746e+000 152 127 89
2.441489e+000 -1.581306e-001 -8.862843e+000 160 109 68
6.953590e-001 -1.977029e-001 -8.174981e+000 117 28 21
4.293436e+000 -3.255539e+000 -1.092221e+001 31 21 19
5.062333e+000 -1.662469e+000 -9.230277e+000 130 108 84
3.695282e+000 1.866282e+000 -1.098589e+001 91 60 41
3.765972e+000 1.930605e+000 -1.081413e+001 36 5 2
2.175485e+000 1.299638e+000 -9.209193e+000 62 45 35
1.896044e+000 9.478394e-001 -8.714422e+000 68 21 16
1.987167e+000 9.666717e-001 -8.784524e+000 118 60 39
2.209220e+000 9.431406e-001 -8.845241e+000 59 37 26
8.564032e-001 7.920112e-001 -8.187455e+000 123 108 69
4.938953e+000 6.525268e-001 -9.735043e+000 115 47 33
7.213144e-001 -1.001225e-001 -8.123767e+000 120 29 22
-1.602831e-001 -4.942567e-001 -8.033193e+000 114 111 54
7.516520e-001 -2.408576e-001 -8.229777e+000 153 88 65
4.223157e+000 -3.445430e+000 -1.110154e+001 36 26 24
5.306432e+000 -9.167397e-001 -8.811026e+000 42 28 27
5.603540e+000 -1.112045e+000 -8.104825e+000 138 116 95
5.619470e+000 -8.225794e-001 -7.906097e+000 115 93 72
2.099279e+000 1.744930e+000 -1.050961e+001 101 72 34
-2.866155e-002 8.423441e-001 -8.117213e+000 128 107 32
3.509802e+000 9.729066e-001 -9.244416e+000 14 43 46
1.213417e-001 8.687701e-001 -7.858872e+000 126 106 35
1.213417e-001 8.687701e-001 -7.858872e+000 126 106 35
2.279142e+000 8.375455e-001 -8.700625e+000 58 23 21
2.103809e+000 5.783757e-001 -8.531471e+000 132 94 48
-3.800479e-001 -3.458740e-001 -7.809917e+000 112 114 63
5.243391e+000 -1.145692e+000 -8.942412e+000 127 105 84
5.395795e+000 -6.940734e-001 -8.431546e+000 93 76 56
5.606635e+000 -1.117157e+000 -8.110110e+000 138 116 95
2.533709e+000 1.685973e+000 -9.909919e+000 82 20 11
2.818537e+000 1.561833e+000 -9.812283e+000 47 30 27
2.240019e+000 1.158064e+000 -9.023870e+000 52 34 30
2.537458e+000 1.200116e+000 -9.201274e+000 101 74 54
3.183105e+000 6.559126e-001 -9.016592e+000 63 37 38
4.421966e+000 2.133623e-001 -9.452492e+000 141 119 79
9.142541e-001 9.184571e-002 -8.070831e+000 24 52 63
5.442081e+000 -5.305801e-001 -8.479920e+000 35 25 23
7.579593e-001 1.279320e+000 -9.126954e+000 130 104 70
-4.601736e-001 1.298396e+000 -8.314629e+000 24 40 15
-6.159736e-001 1.212203e+000 -8.213752e+000 20 38 23
-6.531883e-001 1.005052e+000 -7.964241e+000 16 42 18
8.179035e-001 1.164285e+000 -8.627746e+000 125 105 68
4.669218e+000 1.172650e+000 -1.018190e+001 114 62 33
3.069693e-001 8.216538e-001 -8.029813e+000 130 109 66
-2.480467e-001 3.132847e-001 -7.528643e+000 74 90 81
1.432256e+000 -4.767151e-002 -8.406021e+000 134 81 47
-1.256132e-001 1.424615e+000 -8.602437e+000 21 37 24
4.584821e-001 1.414854e+000 -8.758597e+000 126 107 67
6.975840e-001 1.407519e+000 -8.866300e+000 125 109 71
-6.610839e-001 1.191449e+000 -8.378653e+000 25 37 23
-6.611783e-002 8.495817e-001 -7.937845e+000 21 36 15
4.609758e+000 5.695703e-001 -9.561046e+000 145 111 67
3.347119e+000 3.433340e-001 -8.969653e+000 50 11 9
-1.637909e-002 7.535731e-001 -7.874568e+000 22 37 16
-1.752011e-002 7.648471e-001 -7.859265e+000 22 37 16
1.521589e+000 5.667321e-001 -8.298121e+000 128 113 72
1.503013e+000 1.741074e+000 -1.004317e+001 114 51 33
5.040057e+000 -1.527368e+000 -9.106048e+000 117 95 73
4.103755e+000 1.769125e+000 -1.071011e+001 115 79 43
4.177056e+000 1.717204e+000 -1.083881e+001 115 79 43
4.152507e+000 3.248418e-001 -9.456898e+000 147 76 14
-3.090653e-001 1.443091e+000 -9.332075e+000 16 33 23
3.702855e+000 1.363600e+000 -1.008923e+001 117 82 45
3.702855e+000 1.363600e+000 -1.008923e+001 117 82 45
-1.763294e-001 8.991746e-001 -7.973217e+000 162 143 85
-1.763294e-001 8.991746e-001 -7.973217e+000 162 143 85
2.360185e+000 1.673665e+000 -9.834247e+000 36 5 8
2.753446e+000 1.686494e+000 -9.978790e+000 107 50 37
-2.055835e+000 1.096895e+000 -7.984287e+000 157 129 87
-2.054872e+000 1.098286e+000 -7.982583e+000 157 129 87
-1.901756e+000 1.144720e+000 -7.860968e+000 73 50 10
-1.901973e+000 1.143442e+000 -7.863012e+000 73 50 10
-1.287268e+000 1.266446e+000 -8.036408e+000 123 27 19
2.671305e+000 1.368082e+000 -9.509080e+000 127 90 64
2.880579e+000 1.379541e+000 -9.606768e+000 82 63 55
2.571236e+000 1.243924e+000 -9.314274e+000 97 74 52
-1.136658e+000 1.037184e+000 -7.816745e+000 124 21 20
8.613632e-001 1.185956e+000 -8.569777e+000 129 111 74
-9.971555e-001 8.851926e-001 -7.679449e+000 108 18 12
-9.971555e-001 8.851926e-001 -7.679449e+000 108 18 12
1.996359e+000 9.291626e-001 -8.732380e+000 110 64 49
2.097120e+000 9.144783e-001 -8.748530e+000 51 20 14
2.097120e+000 9.144783e-001 -8.748530e+000 51 20 14
-5.622630e-001 7.356910e-001 -7.612352e+000 117 102 15
2.033257e+000 7.112374e-001 -8.584360e+000 67 21 11
3.040701e+000 7.294437e-001 -8.987639e+000 74 44 43
-1.036962e+000 6.665351e-001 -7.379114e+000 129 109 74
2.919982e+000 7.077873e-001 -8.898353e+000 46 16 16
1.623343e+000 5.731536e-001 -8.331594e+000 118 53 25
4.716314e+000 -2.417910e+000 -1.002131e+001 98 79 61
3.352442e+000 1.822311e+000 -1.044250e+001 116 80 36
1.475022e+000 1.572212e+000 -9.345676e+000 96 23 19
2.348296e+000 1.587430e+000 -9.675608e+000 63 9 8
1.633501e+000 1.511337e+000 -9.320491e+000 53 35 44
-1.945230e+000 1.093500e+000 -7.865865e+000 156 132 91
1.243796e+000 1.098658e+000 -8.667164e+000 101 11 16
2.734007e+000 1.105807e+000 -9.413758e+000 97 75 54
-2.240128e+000 4.763184e-001 -7.799159e+000 125 95 55
-2.231929e+000 4.396811e-001 -7.775848e+000 136 108 68
-1.060845e+000 8.718523e-001 -7.628992e+000 139 107 69
1.967209e+000 8.508163e-001 -8.624814e+000 117 62 43
2.376910e+000 7.669072e-001 -8.727184e+000 52 16 16
-4.808800e-001 6.465616e-001 -7.588921e+000 123 104 22
-3.723361e-001 6.523389e-001 -7.633654e+000 129 110 27
3.998258e+000 6.735225e-001 -9.345398e+000 104 32 12
3.513091e+000 5.253100e-001 -9.063939e+000 15 43 58
5.480454e+000 -5.858877e-001 -8.355999e+000 88 71 51
5.553149e+000 -5.367791e-001 -8.130954e+000 129 107 84
5.448458e+000 -1.110476e+000 -8.391199e+000 107 84 68
1.189614e+000 1.305014e+000 -8.898243e+000 108 18 19
2.072779e+000 1.223018e+000 -9.120819e+000 59 40 36
4.684097e+000 1.220758e+000 -1.027421e+001 100 50 23
2.108214e+000 8.746334e-001 -8.716536e+000 51 23 19
2.108568e+000 8.731650e-001 -8.720452e+000 51 23 19
2.609554e+000 9.449235e-001 -9.002647e+000 104 79 54
3.387970e+000 9.395193e-001 -9.317958e+000 117 80 43
-4.649316e-001 6.993902e-001 -7.666267e+000 53 69 60
2.963672e+000 4.924226e-001 -8.855920e+000 95 51 6
4.097288e+000 -3.668272e+000 -1.131846e+001 40 32 29
5.617507e+000 -5.207682e-001 -8.003702e+000 90 69 50
-2.138903e+000 1.160053e+000 -8.125104e+000 158 129 85
1.450563e+000 1.320612e+000 -9.010461e+000 24 46 53
1.449413e+000 1.321803e+000 -9.009655e+000 24 46 53
-8.031491e-001 1.060555e+000 -7.998081e+000 49 70 66
-1.356325e-001 9.508022e-001 -8.023485e+000 20 39 18
2.627856e+000 6.969109e-001 -8.817094e+000 54 18 18
3.314667e+000 -5.722270e+000 -1.313221e+001 122 110 90
5.351303e+000 -8.378543e-001 -8.662024e+000 111 94 76
1.258602e-001 1.314662e+000 -8.532557e+000 134 114 54
1.258602e-001 1.314662e+000 -8.532557e+000 134 114 54
-1.915421e+000 9.001165e-001 -7.704627e+000 162 135 88
1.146934e+000 1.168181e+000 -8.715484e+000 88 26 4
1.536059e+000 1.126061e+000 -8.796307e+000 58 77 55
7.918693e-001 8.017754e-001 -8.189675e+000 95 36 20
2.695238e+000 7.307161e-001 -8.847736e+000 97 67 51
4.642564e-001 1.611966e+000 -9.085610e+000 134 100 60
9.884505e-001 1.377502e+000 -8.997561e+000 104 13 11
-1.923941e+000 1.115142e+000 -7.858380e+000 157 132 89
6.154441e-002 1.383601e+000 -8.559222e+000 26 39 21
-2.058531e+000 9.621398e-001 -7.880200e+000 132 104 69
-2.057666e+000 9.616822e-001 -7.881518e+000 132 104 69
-2.145864e-001 1.199116e+000 -8.362919e+000 28 42 15
1.670594e+000 1.029758e+000 -8.655361e+000 10 47 51
3.126356e-001 8.406733e-001 -8.021627e+000 123 109 66
-4.043423e-001 1.709323e+000 -8.894616e+000 116 102 25
-4.601007e-001 1.657034e+000 -8.822375e+000 17 29 14
-3.605425e-001 1.658684e+000 -8.694801e+000 123 108 30
-8.806597e-002 1.652360e+000 -8.925937e+000 120 97 21
-7.561130e-001 1.534860e+000 -8.539155e+000 108 99 37
2.362627e+000 1.712499e+000 -9.892173e+000 105 19 22
-2.138396e+000 1.215400e+000 -8.175157e+000 161 132 88
-2.095989e+000 1.140894e+000 -8.066693e+000 161 133 92
-6.847378e-001 1.409948e+000 -8.422286e+000 119 104 21
-6.599597e-001 1.477132e+000 -8.504174e+000 116 98 27
1.343698e+000 1.542022e+000 -9.263236e+000 115 112 74
1.374669e+000 1.548124e+000 -9.264480e+000 117 114 80
-1.063209e+000 1.292660e+000 -8.177401e+000 43 56 34
-1.070099e+000 1.281173e+000 -8.151413e+000 135 113 68
-1.070099e+000 1.281173e+000 -8.151413e+000 135 113 68
1.342291e+000 1.475072e+000 -9.171855e+000 121 108 70
1.407443e+000 1.483074e+000 -9.188207e+000 111 112 86
1.745440e+000 1.506477e+000 -9.353725e+000 104 55 45
-1.964713e+000 1.102352e+000 -7.884171e+000 67 40 9
-1.733039e+000 1.878538e+000 -6.604458e+000 71 43 18
-1.913356e+000 1.125632e+000 -7.850595e+000 153 131 82
-1.080179e+000 1.229157e+000 -8.075662e+000 151 94 67
-1.080376e+000 1.224717e+000 -8.081824e+000 151 94 67
-1.002607e+000 1.251155e+000 -8.132141e+000 41 61 59
1.045840e+000 1.371212e+000 -8.924036e+000 100 17 13
1.045840e+000 1.371212e+000 -8.924036e+000 100 17 13
1.099024e+000 1.365549e+000 -8.957476e+000 100 10 4
1.099024e+000 1.365549e+000 -8.957476e+000 100 10 4
1.035933e+000 1.352698e+000 -8.902130e+000 138 105 68
1.377388e+000 1.408756e+000 -9.094978e+000 126 122 87
1.424510e+000 1.396812e+000 -9.088657e+000 14 44 51
1.432098e+000 1.392453e+000 -9.098691e+000 14 44 51
1.453785e+000 1.353885e+000 -9.043665e+000 115 104 77
1.569905e+000 1.399698e+000 -9.123209e+000 104 33 13
1.849440e+000 1.367292e+000 -9.206338e+000 99 59 53
1.849440e+000 1.367292e+000 -9.206338e+000 99 59 53
-1.990322e+000 8.868964e-001 -7.781787e+000 92 62 36
-1.923877e+000 1.029766e+000 -7.804154e+000 60 31 22
-1.923877e+000 1.029766e+000 -7.804154e+000 60 31 22
-1.914380e+000 9.879343e-001 -7.767076e+000 68 43 14
-1.900251e+000 9.405314e-001 -7.731847e+000 61 35 16
5.703573e-001 1.219250e+000 -8.581818e+000 116 21 14
1.095298e+000 1.224191e+000 -8.766743e+000 160 106 72
1.442440e+000 1.265651e+000 -8.934871e+000 118 108 76
2.747572e+000 1.381712e+000 -9.578061e+000 100 52 42
-1.954580e+000 8.416344e-001 -7.713988e+000 70 39 9
1.227349e+000 1.127775e+000 -8.688195e+000 155 101 78
1.226412e+000 1.129192e+000 -8.685979e+000 155 101 78
1.466340e+000 1.220955e+000 -8.883454e+000 127 111 80
1.512227e+000 1.216629e+000 -8.874040e+000 107 111 87
2.128103e+000 1.207491e+000 -9.082780e+000 52 33 28
-1.772049e+000 8.673149e-001 -7.574168e+000 62 36 8
1.620239e+000 9.539987e-001 -8.641039e+000 121 109 88
1.941878e+000 9.905895e-001 -8.776963e+000 58 14 7
2.627887e+000 9.909641e-001 -9.050979e+000 93 78 67
-9.450369e-001 7.823548e-001 -7.561883e+000 121 22 23
-9.450369e-001 7.823548e-001 -7.561883e+000 121 22 23
-9.258844e-001 7.931542e-001 -7.583510e+000 150 95 64
2.042686e+000 8.990443e-001 -8.743196e+000 64 16 7
2.233112e+000 8.881268e-001 -8.794455e+000 107 83 72
2.230438e+000 6.821967e-001 -8.652728e+000 57 16 14
-5.014003e-001 5.407901e-001 -7.514189e+000 120 107 14
2.562270e+000 5.982292e-001 -8.722455e+000 138 95 52
2.954239e+000 6.308090e-001 -8.900180e+000 42 9 5
3.025161e+000 6.238531e-001 -8.933222e+000 36 7 10
5.223157e+000 -2.803834e+000 -9.023546e+000 94 74 47
5.335299e+000 -2.722334e+000 -9.041002e+000 98 78 53
5.861688e-001 1.675517e+000 -9.153581e+000 130 95 61
3.088196e+000 1.765372e+000 -1.027908e+001 86 44 6
-7.440166e-001 1.425017e+000 -8.422487e+000 61 71 46
-1.217280e+000 1.224446e+000 -8.009939e+000 139 106 61
1.201936e+000 1.390759e+000 -9.009645e+000 138 58 47
-1.183587e+000 1.122408e+000 -7.921951e+000 140 108 63
1.147879e+000 1.298758e+000 -8.871845e+000 149 106 65
2.521415e+000 1.282409e+000 -9.342156e+000 102 77 57
-1.949290e+000 8.208092e-001 -7.694696e+000 157 131 87
-1.141194e+000 1.072963e+000 -7.866007e+000 119 14 17
2.402390e+000 1.246717e+000 -9.258014e+000 105 83 57
1.155079e+000 1.100071e+000 -8.629575e+000 144 116 67
1.991954e+000 1.024477e+000 -8.827698e+000 67 23 20
1.868880e+000 9.126558e-001 -8.664272e+000 122 60 39
-1.008821e+000 6.362750e-001 -7.385158e+000 123 16 23
-1.007897e+000 6.320362e-001 -7.390185e+000 123 16 23
-5.332016e-001 6.474773e-001 -7.563294e+000 117 102 22
-3.890480e-001 6.562152e-001 -7.615686e+000 119 102 12
1.941977e+000 6.863208e-001 -8.541508e+000 134 89 47
4.382997e+000 7.797880e-001 -9.549490e+000 144 100 65
4.412454e+000 7.186443e-001 -9.534413e+000 147 107 65
3.956192e+000 5.656809e-001 -9.262630e+000 112 46 18
4.762742e+000 -2.477291e+000 -1.001407e+001 116 100 74
4.885367e+000 -2.120365e+000 -9.741058e+000 95 78 58
5.352178e+000 -1.018947e+000 -8.776898e+000 82 61 40
5.004905e+000 -2.374146e+000 -9.424890e+000 92 72 47
4.337744e+000 1.950845e+000 -1.096081e+001 120 81 42
-2.204016e+000 1.159538e+000 -8.230792e+000 158 130 81
-2.198062e+000 1.167448e+000 -8.219598e+000 158 130 81
-1.746383e+000 1.304352e+000 -8.004658e+000 118 97 58
1.643968e+000 1.467660e+000 -9.247614e+000 59 36 29
2.128446e+000 1.260399e+000 -9.137197e+000 55 36 30
1.925859e+000 1.061969e+000 -8.851946e+000 60 35 32
-6.041235e-001 8.299007e-001 -7.744708e+000 48 68 53
1.620530e+000 9.262925e-001 -8.614070e+000 19 44 51
1.903112e+000 9.414578e-001 -8.726233e+000 68 21 17
2.206961e+000 9.432032e-001 -8.841055e+000 74 48 35
-1.041408e+000 7.390391e-001 -7.510087e+000 118 23 24
8.643945e-001 7.993713e-001 -8.223811e+000 125 103 64
2.016941e+000 8.848031e-001 -8.713185e+000 113 57 45
2.148294e+000 8.932831e-001 -8.789243e+000 88 59 50
2.149941e+000 8.903112e-001 -8.790947e+000 88 59 50
2.550638e+000 7.792398e-001 -8.819887e+000 125 89 67
2.701400e+000 4.826407e-001 -8.761917e+000 130 85 46
3.052199e+000 4.718350e-001 -8.895744e+000 138 96 46
3.939158e+000 -4.296474e+000 -1.171601e+001 95 80 59
4.677170e+000 -2.622762e+000 -1.017700e+001 96 75 52
4.767105e+000 -2.367631e+000 -1.003703e+001 115 95 72
5.325451e+000 -1.554165e+000 -8.713371e+000 98 78 54
4.337618e+000 2.001950e+000 -1.099927e+001 26 14 16
5.405769e-001 1.630061e+000 -9.120081e+000 119 104 63
-6.853491e-001 1.470270e+000 -8.479518e+000 15 39 18
-6.853491e-001 1.470270e+000 -8.479518e+000 15 39 18
2.352356e+000 1.383452e+000 -9.416349e+000 66 44 30
-9.703550e-001 1.060607e+000 -7.867895e+000 129 24 23
9.703825e-001 1.035296e+000 -8.488322e+000 119 25 24
9.708158e-001 1.034419e+000 -8.489428e+000 119 25 24
1.928524e+000 7.120295e-001 -8.576479e+000 135 91 44
1.492770e+000 6.306818e-001 -8.335848e+000 99 10 11
3.910028e+000 -4.324102e+000 -1.184015e+001 117 101 78
4.816935e+000 -2.232560e+000 -9.906558e+000 114 98 72
4.697830e+000 -3.480762e+000 -1.016655e+001 130 110 81
5.638204e+000 -5.456104e-001 -8.017935e+000 84 59 40
4.969570e+000 -3.236623e+000 -9.502833e+000 100 79 55
2.002449e+000 1.815158e+000 -9.950625e+000 13 36 46
5.123921e-001 1.649620e+000 -9.163912e+000 123 104 64
-5.539708e-001 1.326536e+000 -8.370072e+000 128 106 16
-1.129694e+000 1.246145e+000 -8.089654e+000 124 19 23
-1.129694e+000 1.246145e+000 -8.089654e+000 124 19 23
2.875483e+000 1.216251e+000 -9.343946e+000 50 30 29
-1.068717e+000 8.433446e-001 -7.593784e+000 112 19 16
-1.041105e+000 7.785132e-001 -7.541993e+000 120 25 25
5.388240e+000 -7.033263e-001 -8.639367e+000 38 27 23
1.468421e+000 1.469429e+000 -9.177787e+000 17 39 51
1.468421e+000 1.469429e+000 -9.177787e+000 17 39 51
-1.966044e+000 9.445462e-001 -7.795814e+000 162 131 86
1.124997e+000 1.057905e+000 -8.587761e+000 106 13 17
3.309612e+000 1.850173e+000 -1.064844e+001 27 9 12
-2.128941e-001 1.469470e+000 -8.642361e+000 124 106 38
1.331091e+000 1.355049e+000 -9.066634e+000 15 42 53
-6.952105e-001 1.194212e+000 -8.169195e+000 131 109 32
1.385646e+000 1.230388e+000 -8.861462e+000 16 43 54
-5.791498e-001 9.538443e-001 -7.893164e+000 129 107 42
4.089466e-001 1.604429e+000 -8.976227e+000 114 50 36
7.843276e-001 1.172899e+000 -8.601720e+000 123 105 68
-7.470835e-001 8.200675e-001 -7.722987e+000 34 61 56
-2.279553e-001 7.733701e-001 -7.761341e+000 20 38 19
1.082478e+000 7.934501e-001 -8.331262e+000 127 110 67
-1.900023e+000 8.361569e-001 -7.665620e+000 159 134 80
3.501460e+000 -1.639985e-001 -9.501841e+000 153 106 54
7.389019e-001 1.729108e+000 -9.615339e+000 117 97 60
3.070336e+000 1.626843e+000 -9.951145e+000 112 74 37
4.910857e+000 8.760634e-001 -9.743955e+000 32 22 23
4.331151e+000 1.945954e+000 -1.107695e+001 70 19 6
2.084500e+000 1.757567e+000 -9.889649e+000 19 37 37
2.121363e+000 1.760425e+000 -9.883509e+000 46 59 52
2.178977e+000 1.735783e+000 -9.936008e+000 20 40 39
2.172503e+000 1.746199e+000 -9.921030e+000 20 40 39
-7.989544e-001 1.452035e+000 -8.442544e+000 121 99 9
-6.758151e-001 1.429287e+000 -8.440303e+000 60 71 24
-2.085440e+000 1.110896e+000 -8.012315e+000 153 128 87
-1.902034e+000 1.146274e+000 -7.859415e+000 69 43 17
2.868792e+000 1.405981e+000 -9.651529e+000 75 57 47
-2.082814e+000 9.274600e-001 -7.871626e+000 100 75 45
-7.755822e-001 1.111040e+000 -8.069577e+000 107 101 9
-1.964374e+000 9.020050e-001 -7.748351e+000 152 125 78
2.025389e+000 1.208428e+000 -9.059184e+000 54 35 31
2.025389e+000 1.208428e+000 -9.059184e+000 54 35 31
-1.953160e+000 7.553638e-001 -7.684195e+000 162 135 95
-7.533282e-001 1.315434e+000 -7.472508e+000 109 97 17
-6.188123e-001 1.025689e+000 -7.802014e+000 120 104 38
1.540615e+000 1.052978e+000 -8.737570e+000 110 110 80
1.540615e+000 1.052978e+000 -8.737570e+000 110 110 80
6.717621e-001 9.174065e-001 -8.270480e+000 119 107 56
6.717621e-001 9.174065e-001 -8.270480e+000 119 107 56
2.542457e+000 1.023036e+000 -9.061381e+000 93 72 52
2.572574e+000 9.869438e-001 -9.048913e+000 101 79 60
2.387954e+000 9.145065e-001 -8.857476e+000 52 19 17
3.726337e+000 7.992565e-001 -9.343623e+000 90 18 19
-9.132475e-001 7.485309e-001 -7.530366e+000 120 25 21
-9.132475e-001 7.485309e-001 -7.530366e+000 120 25 21
-8.865120e-001 6.861298e-001 -7.495082e+000 117 25 19
-8.865120e-001 6.861298e-001 -7.495082e+000 117 25 19
3.561858e+000 7.081236e-001 -9.198354e+000 10 39 52
3.953905e+000 6.696674e-001 -9.327677e+000 134 86 45
1.647270e+000 6.130034e-001 -8.394073e+000 23 30 34
3.038750e+000 5.060044e-001 -8.921953e+000 104 58 10
4.488910e+000 5.999423e-001 -9.483684e+000 136 68 32
4.720069e+000 -2.417754e+000 -1.002372e+001 94 77 55
2.114925e+000 1.769159e+000 -9.990863e+000 56 68 65
2.219202e+000 1.691443e+000 -9.807538e+000 17 42 48
-6.755085e-001 1.469351e+000 -8.477331e+000 15 33 6
2.337454e+000 1.451549e+000 -9.406461e+000 119 94 64
-1.851912e+000 8.925207e-001 -7.662109e+000 157 132 91
2.807268e+000 1.213702e+000 -9.371658e+000 96 73 53
-1.876571e+000 7.909852e-001 -7.617923e+000 161 136 84
1.990418e+000 1.027522e+000 -8.825173e+000 69 26 22
3.054885e+000 9.896041e-001 -9.259004e+000 83 61 48
3.573044e+000 9.264392e-001 -9.351739e+000 13 38 57
-6.359419e-001 7.869708e-001 -7.702715e+000 109 96 25
4.556909e+000 8.896366e-001 -9.760250e+000 117 92 53
4.777982e+000 9.018853e-001 -9.789998e+000 97 42 29
2.017516e+000 6.805292e-001 -8.563728e+000 125 68 48
4.573995e+000 -2.851985e+000 -1.041085e+001 95 80 57
5.114506e+000 -2.329350e+000 -9.197532e+000 128 106 82
4.898313e+000 -3.613861e+000 -9.540934e+000 102 85 57
5.585524e+000 -1.469689e+000 -8.099943e+000 116 96 72
3.572266e+000 1.696431e+000 -1.031606e+001 85 44 14
-6.742328e-001 1.310059e+000 -8.278698e+000 21 35 20
-2.022772e+000 9.813071e-001 -7.863775e+000 132 105 75
-1.854989e+000 9.445205e-001 -7.693861e+000 155 133 86
9.305181e-001 1.008919e+000 -8.457116e+000 123 100 64
9.294418e-001 1.010444e+000 -8.455214e+000 123 100 64
-9.581847e-001 8.906560e-001 -7.697309e+000 124 20 23
2.127175e+000 9.711750e-001 -8.842832e+000 82 50 40
3.056314e+000 4.648639e-001 -8.902622e+000 141 97 37
4.007504e+000 -3.881862e+000 -1.143218e+001 125 111 86
4.676832e+000 -2.425320e+000 -1.015817e+001 44 35 23
3.724923e+000 1.895070e+000 -1.075019e+001 108 74 37
1.235913e+000 1.218467e+000 -8.810044e+000 104 14 15
1.319273e+000 1.137656e+000 -8.747333e+000 111 33 23
4.717475e+000 1.044277e+000 -1.001720e+001 108 63 28
2.172016e+000 9.905413e-001 -8.867914e+000 52 23 17
-2.228024e+000 -2.162069e-001 -7.852571e+000 27 21 25
2.102614e+000 7.303017e-001 -8.626384e+000 57 20 17
-7.956527e-001 6.561165e-001 -7.480114e+000 125 24 24
4.607254e+000 -2.610826e+000 -1.034824e+001 35 28 23
4.859569e+000 -2.025178e+000 -9.808236e+000 45 35 30
5.174603e+000 -1.295956e+000 -9.073751e+000 112 94 74
3.122509e+000 1.834675e+000 -1.041344e+001 70 32 12
3.122231e+000 1.782503e+000 -1.029058e+001 90 46 18
6.440499e-001 1.568849e+000 -9.051876e+000 127 84 59
-2.181155e+000 1.042489e+000 -8.050638e+000 158 127 83
2.933672e+000 1.076148e+000 -9.228408e+000 55 36 29
8.452308e-001 6.325909e-001 -8.099790e+000 114 51 33
5.525298e+000 -3.282462e-001 -8.206659e+000 125 103 82
2.176325e+000 1.799712e+000 -9.993572e+000 18 39 48
-1.870505e+000 7.331470e-001 -7.599856e+000 161 138 90
-1.924397e+000 1.119287e+000 -7.855546e+000 148 127 85
4.916657e+000 2.812825e-001 -9.553974e+000 29 22 19
-1.084816e-001 1.615898e+000 -8.864478e+000 115 102 57
-7.402057e-002 9.639519e-001 -8.082545e+000 22 34 21
2.754311e+000 9.150858e-001 -9.012768e+000 94 66 44
4.245068e+000 -6.168240e+000 -1.110273e+001 125 109 74
2.412149e+000 1.772002e+000 -9.970507e+000 117 79 40
3.457934e+000 1.934500e+000 -1.058298e+001 90 56 20
1.779692e-001 1.498918e+000 -8.751163e+000 119 103 60
2.766968e-001 1.308963e+000 -8.565993e+000 124 105 62
5.080572e+000 -1.555221e+000 -9.162355e+000 109 89 64
2.166396e+000 7.747157e-001 -8.596243e+000 77 40 35
-7.787979e-001 1.365724e+000 -8.320432e+000 26 39 19
-7.760136e-001 1.354966e+000 -8.332730e+000 26 39 19
3.765135e+000 1.235035e+000 -1.015144e+001 114 79 41
-1.623964e+001 -4.176282e+001 -5.428367e+001 128 109 104
-1.538261e+001 -4.230294e+001 -5.439409e+001 158 139 137
-1.645163e+001 -4.249989e+001 -5.576088e+001 132 113 107
-1.432329e+001 -4.662408e+001 -5.085947e+001 67 60 72
-2.342907e+001 -4.483859e+001 -5.552881e+001 125 106 109
-2.301935e+001 -4.659644e+001 -5.298674e+001 147 131 136
-2.517921e+001 -4.626284e+001 -5.485988e+001 143 126 144
-2.256378e+001 -4.446623e+001 -5.347448e+001 59 60 101
-2.463167e+001 -4.514102e+001 -5.087500e+001 254 254 253
-2.327233e+001 -4.856857e+001 -5.345917e+001 144 127 135
-2.030349e+001 -4.350178e+001 -5.236041e+001 253 254 254
-2.419149e+001 -4.576604e+001 -5.442886e+001 151 128 132
-2.505336e+001 -4.584830e+001 -5.302401e+001 76 81 136
-1.715606e+001 -4.877639e+001 -4.754912e+001 54 66 115
-2.060138e+001 -4.427915e+001 -4.024340e+001 254 254 254
5.860544e-001 1.675103e+000 -9.194118e+000 138 92 65
1.464376e+000 1.412503e+000 -9.098808e+000 22 39 51
2.811363e+000 1.161207e+000 -9.297889e+000 87 62 39
3.003022e+000 9.593780e-001 -9.165453e+000 52 26 20
4.897701e+000 -2.898560e+000 -9.684287e+000 101 80 53
-7.331060e-001 1.457115e+000 -8.461666e+000 23 34 20
2.174338e+000 1.655957e+000 -9.725221e+000 49 60 56
-6.175307e-001 1.330000e+000 -8.364117e+000 118 104 15
2.103490e+000 1.184734e+000 -9.073409e+000 99 77 64
2.103490e+000 1.184734e+000 -9.073409e+000 99 77 64
-1.076833e+000 9.544324e-001 -7.740137e+000 119 11 9
3.044257e+000 9.783771e-001 -9.187643e+000 82 63 51
2.017833e+000 7.502290e-001 -8.584108e+000 57 16 12
5.614272e+000 -1.149290e+000 -8.003669e+000 122 101 80
5.420063e+000 -2.123275e+000 -8.474014e+000 129 105 79
2.342646e+000 1.745843e+000 -9.924048e+000 114 82 44
6.838522e-001 9.172783e-001 -8.266633e+000 123 103 59
-8.943135e+000 -2.969100e+001 -3.473832e+001 58 61 91
6.492505e-001 1.527562e+000 -8.992619e+000 122 102 60
2.634760e+000 8.709558e-001 -8.930915e+000 101 73 50
1.730648e+000 1.357868e+000 -9.174411e+000 59 36 39
-2.227921e+001 -5.082921e+001 -4.690481e+001 52 52 88
-4.767427e-002 1.317972e+000 -8.478227e+000 125 105 51
4.698762e-001 1.620149e+000 -9.080973e+000 122 100 64
4.698762e-001 1.620149e+000 -9.080973e+000 122 100 64
-7.640565e-001 1.451256e+000 -8.432417e+000 112 100 18
-6.208754e-001 1.519012e+000 -8.521226e+000 121 103 27
4.530492e-001 1.586601e+000 -8.978732e+000 129 93 66
4.552878e-001 1.570656e+000 -8.997539e+000 129 93 66
1.383218e+000 1.533452e+000 -9.287746e+000 123 106 74
1.738371e-003 1.869806e+000 -8.049082e+000 131 109 32
1.532362e+000 1.451714e+000 -9.209254e+000 132 78 44
-8.524505e-001 1.276914e+000 -8.141739e+000 104 106 12
1.205195e+000 1.381377e+000 -9.020979e+000 143 67 58
1.445210e+000 1.407758e+000 -9.128464e+000 119 112 80
-1.006717e+000 1.047037e+000 -7.926570e+000 145 93 64
-1.006717e+000 1.047037e+000 -7.926570e+000 145 93 64
1.129477e+000 1.144582e+000 -8.705170e+000 147 112 60
2.618973e+000 1.056869e+000 -9.117338e+000 23 6 3
-1.009294e+000 9.226084e-001 -7.721913e+000 117 15 15
-1.008773e+000 9.243469e-001 -7.720489e+000 117 15 15
-9.754711e-001 8.619804e-001 -7.635578e+000 105 19 10
-3.074068e-001 8.611790e-001 -8.049468e+000 17 30 15
5.518025e-001 9.393476e-001 -8.253091e+000 118 16 17
-3.313999e-001 7.415080e-001 -7.719987e+000 131 104 25
4.847067e+000 6.179037e-001 -9.601865e+000 94 26 6
4.847067e+000 6.179037e-001 -9.601865e+000 94 26 6
4.574640e-001 1.624350e+000 -9.071378e+000 127 96 62
2.791550e+000 1.695355e+000 -1.001073e+001 111 56 36
1.632694e+000 1.432571e+000 -9.181900e+000 130 74 46
2.742208e+000 1.503403e+000 -9.686668e+000 115 79 61
2.816809e+000 1.427413e+000 -9.660477e+000 57 38 30
2.823822e+000 1.406208e+000 -9.609261e+000 53 30 26
-1.209261e+000 1.178915e+000 -7.981053e+000 140 102 57
-1.056817e+000 1.045147e+000 -7.896643e+000 142 95 59
2.549909e+000 1.224436e+000 -9.252906e+000 96 77 55
2.777606e+000 9.372394e-001 -9.061701e+000 103 75 53
-4.945720e-001 8.509354e-001 -7.796123e+000 20 33 22
2.308364e+000 6.605572e-001 -8.701484e+000 56 18 15
4.755002e+000 -2.468052e+000 -1.000544e+001 110 92 68
4.785642e+000 -3.247166e+000 -9.788492e+000 128 108 81
-1.754213e+000 1.373116e+000 -7.983471e+000 113 95 59
2.045452e+000 1.390290e+000 -9.285442e+000 53 34 28
-2.023522e+000 9.822288e-001 -7.862573e+000 132 105 75
-1.942742e+000 8.958167e-001 -7.762953e+000 159 131 86
-1.691315e-001 9.848470e-001 -8.062163e+000 119 99 15
-1.691315e-001 9.848470e-001 -8.062163e+000 119 99 15
-9.691469e-001 7.241313e-001 -7.481167e+000 122 16 20
4.965621e+000 -1.778356e+000 -9.505114e+000 122 105 80
5.173962e+000 -1.408762e+000 -9.099934e+000 95 77 55
1.523706e+000 1.555073e+000 -9.355184e+000 62 12 15
1.431468e+000 1.364292e+000 -9.052334e+000 47 40 19
2.336563e+000 1.509921e+000 -9.490248e+000 113 88 58
2.887695e+000 1.696114e+000 -1.007855e+001 88 39 19
1.145045e+000 1.169882e+000 -8.714269e+000 95 25 15
1.124661e+000 1.227112e+000 -8.795334e+000 120 58 38
8.316176e-001 1.167061e+000 -8.628889e+000 120 99 65
3.290300e+000 1.822610e+000 -1.043024e+001 92 52 16
3.309620e+000 1.805025e+000 -1.046115e+001 92 52 16
2.121315e+000 1.805947e+000 -1.005415e+001 10 32 31
-2.641245e-001 1.713633e+000 -8.959841e+000 111 103 23
2.093785e+000 1.744866e+000 -9.970294e+000 12 34 40
-3.838820e-001 1.624616e+000 -8.738787e+000 29 32 12
3.165406e+000 1.747226e+000 -1.024011e+001 77 38 10
-7.418424e-001 1.426026e+000 -8.422469e+000 58 74 40
-6.744060e-001 1.423434e+000 -8.444608e+000 65 72 50
2.645367e+000 1.580483e+000 -9.803997e+000 51 12 5
1.347612e+000 1.471860e+000 -9.173810e+000 118 119 91
2.825594e+000 1.485450e+000 -9.691182e+000 68 46 41
-6.042764e-001 1.282649e+000 -8.322290e+000 82 81 67
1.421703e+000 1.397056e+000 -9.087858e+000 16 45 49
1.439121e+000 1.378011e+000 -9.073286e+000 111 108 83
1.843992e+000 1.368998e+000 -9.203838e+000 102 60 51
1.843992e+000 1.368998e+000 -9.203838e+000 102 60 51
2.514916e+000 1.236606e+000 -9.289089e+000 98 76 67
2.895149e+000 1.345564e+000 -9.555239e+000 74 54 49
2.895149e+000 1.345564e+000 -9.555239e+000 74 54 49
2.082697e+000 1.163836e+000 -9.042153e+000 50 31 27
2.704031e+000 1.132129e+000 -9.247683e+000 95 72 54
-1.774909e+000 8.687671e-001 -7.575807e+000 85 62 27
2.036955e+000 1.003157e+000 -8.841494e+000 102 62 52
2.036955e+000 1.003157e+000 -8.841494e+000 102 62 52
-9.614060e-001 9.403011e-001 -7.711680e+000 116 20 17
9.663055e-001 9.360429e-001 -8.382841e+000 127 104 68
-9.553031e-001 7.316664e-001 -7.483809e+000 130 22 25
-7.618394e-001 7.185414e-001 -7.449364e+000 129 115 80
-7.618394e-001 7.185414e-001 -7.449364e+000 129 115 80
3.148512e+000 6.320272e-001 -8.948063e+000 133 102 56
5.028946e+000 5.688231e-001 -9.666652e+000 31 17 17
4.939170e+000 -1.822336e+000 -9.484399e+000 102 85 62
5.745779e+000 3.278189e-001 -7.584009e+000 78 59 52
8.807439e-001 1.727899e+000 -9.881765e+000 103 26 21
3.670839e+000 1.790964e+000 -1.109638e+001 95 63 43
3.168860e+000 1.762238e+000 -1.032171e+001 84 42 17
4.607569e-001 1.621148e+000 -9.072287e+000 125 101 65
4.607569e-001 1.621148e+000 -9.072287e+000 125 101 65
2.166381e+000 1.699601e+000 -9.871666e+000 49 67 70
2.166381e+000 1.699601e+000 -9.871666e+000 49 67 70
3.432856e+000 1.761385e+000 -1.037732e+001 57 21 25
2.333320e+000 1.564712e+000 -9.641045e+000 116 88 64
1.400996e+000 1.431678e+000 -9.127215e+000 15 38 53
-1.279493e+000 1.285169e+000 -8.086141e+000 125 69 57
2.893602e+000 1.363041e+000 -9.621607e+000 74 50 45
-1.984833e+000 1.002412e+000 -7.854718e+000 159 137 100
-1.182446e+000 1.124252e+000 -7.920772e+000 130 111 65
2.059213e+000 1.226194e+000 -9.143610e+000 47 27 28
2.919368e+000 1.285493e+000 -9.440272e+000 71 52 46
-5.153728e-002 1.162169e+000 -8.299624e+000 20 37 17
2.033100e+000 1.187017e+000 -9.034193e+000 71 52 46
2.053552e+000 1.137895e+000 -8.972216e+000 69 50 44
-9.468235e-001 9.391699e-001 -7.764514e+000 145 89 59
-9.468235e-001 9.391699e-001 -7.764514e+000 145 89 59
-7.405539e-001 9.933997e-001 -7.884758e+000 107 95 13
-7.129337e-001 9.707641e-001 -7.876388e+000 20 33 17
1.220909e+000 1.091315e+000 -8.628306e+000 145 100 61
3.020370e+000 1.044013e+000 -9.233840e+000 75 55 49
-1.926098e+000 5.966523e-001 -7.574719e+000 166 142 98
-1.925645e+000 5.965377e-001 -7.574185e+000 166 142 98
-1.874639e+000 6.012063e-001 -7.545909e+000 168 144 100
-9.874278e-001 9.047159e-001 -7.713731e+000 139 110 70
-7.261761e-001 9.281033e-001 -7.836074e+000 111 106 25
2.838349e+000 7.719502e-001 -8.913411e+000 62 25 19
2.993375e+000 8.516436e-001 -9.065132e+000 47 18 14
4.671243e+000 7.372744e-001 -9.622002e+000 143 104 68
-6.971132e-001 7.727264e-001 -7.575630e+000 20 35 16
2.228221e+000 7.298281e-001 -8.656942e+000 75 34 31
-6.501952e-001 5.623331e-001 -7.481923e+000 18 38 23
5.597950e+000 -1.691235e-001 -8.075344e+000 120 103 86
5.820555e+000 3.742132e-001 -7.437298e+000 119 100 86
1.294447e+000 1.753731e+000 -1.006683e+001 81 20 15
3.172205e+000 1.889072e+000 -1.066325e+001 84 49 22
2.232286e+000 1.661362e+000 -9.748544e+000 10 38 45
2.884347e+000 1.708300e+000 -9.978101e+000 114 79 41
-7.947466e-001 1.416834e+000 -8.418967e+000 50 68 64
-1.991569e+000 1.069286e+000 -7.875679e+000 154 132 90
2.146661e+000 1.366035e+000 -9.262388e+000 59 40 33
-1.914415e+000 1.066516e+000 -7.819824e+000 154 133 87
-1.914133e+000 1.069756e+000 -7.817467e+000 154 133 87
2.227097e+000 1.310376e+000 -9.287435e+000 98 75 54
2.976797e+000 1.277987e+000 -9.501292e+000 50 32 31
-2.252833e+000 5.984947e-001 -7.830469e+000 139 109 71
2.181336e+000 1.127374e+000 -9.029906e+000 54 34 33
-1.897529e+000 8.104355e-001 -7.650485e+000 163 139 101
1.857610e+000 1.033442e+000 -8.786386e+000 57 17 21
5.844958e-001 8.990755e-001 -8.217805e+000 119 110 75
2.183091e+000 9.154438e-001 -8.800074e+000 55 31 29
3.285677e+000 8.719665e-001 -9.181942e+000 23 16 13
3.289914e+000 8.674386e-001 -9.184473e+000 23 16 13
4.436424e+000 7.797009e-001 -9.608988e+000 138 110 71
-1.957145e-001 6.522056e-001 -7.732333e+000 19 40 25
4.615170e+000 -2.576818e+000 -1.023015e+001 112 102 83
4.766415e+000 -2.385782e+000 -1.011730e+001 37 29 23
4.743177e+000 -2.334358e+000 -1.000256e+001 109 97 75
4.800433e+000 -2.105804e+000 -9.877380e+000 35 26 28
4.741233e+000 -2.344661e+000 -9.935287e+000 92 81 61
4.906617e+000 -2.027820e+000 -9.722126e+000 122 109 89
5.244308e+000 -1.143678e+000 -8.944870e+000 122 105 87
5.635273e+000 -7.932099e-002 -7.993841e+000 122 106 91
5.505930e+000 1.312543e-001 -7.891323e+000 43 32 29
5.655063e+000 -3.072296e-001 -7.815328e+000 127 109 89
5.777583e+000 4.231487e-001 -7.544747e+000 125 108 90
4.376017e+000 1.824221e+000 -1.139194e+001 119 63 25
2.155618e+000 1.793263e+000 -1.003845e+001 16 39 56
3.652365e+000 1.781915e+000 -1.050630e+001 107 72 42
2.732706e+000 1.531231e+000 -9.735378e+000 113 77 61
1.158629e+000 1.365124e+000 -8.915346e+000 103 23 22
-9.398073e-001 9.619263e-001 -7.808401e+000 127 26 29
-9.356167e-001 9.082192e-001 -7.848916e+000 127 26 29
2.128727e+000 9.941916e-001 -8.912248e+000 106 78 66
2.128727e+000 9.941916e-001 -8.912248e+000 106 78 66
2.169417e+000 9.922535e-001 -8.865867e+000 46 17 13
3.086772e+000 9.783991e-001 -9.165756e+000 57 34 39
1.941544e+000 8.367858e-001 -8.664406e+000 75 30 27
2.730887e+000 8.045226e-001 -8.853743e+000 104 78 56
2.730887e+000 8.045226e-001 -8.853743e+000 104 78 56
2.829969e+000 4.057130e-001 -8.786718e+000 39 12 12
5.209572e+000 -1.238534e+000 -9.018271e+000 113 97 78
5.713405e+000 1.085311e-001 -7.812927e+000 113 99 83
5.738029e+000 1.877536e-001 -7.732702e+000 98 80 65
5.743218e+000 3.317362e-001 -7.698382e+000 39 29 27
5.766008e+000 3.073034e-001 -7.646224e+000 117 100 85
5.831374e+000 4.231352e-001 -7.520747e+000 120 100 83
9.932835e-001 1.641672e+000 -9.725341e+000 105 25 20
3.445316e+000 1.882449e+000 -1.071991e+001 101 71 42
-1.215034e+000 1.149291e+000 -7.944455e+000 128 24 26
1.468319e+000 1.279168e+000 -8.963690e+000 93 93 77
